# .PCD v0.7 - Point Cloud Data file format
VERSION 0.7
FIELDS x y z intensity
SIZE 4 4 4 4
TYPE F F F F
COUNT 1 1 1 1
WIDTH 1421
HEIGHT 1
VIEWPOINT 0 0 0 1 0 0 0
POINTS 1421
DATA ascii
2.9270003 0.79271317 0.85982239 0
2.9260001 0.78782475 0.85964197 0
2.9270003 0.78359669 0.85982239 0
2.9270003 0.77903843 0.85982239 0
2.9290001 0.77512956 0.86018312 0
2.9300003 0.77089065 0.86036348 0
2.9320002 0.76696914 0.86072427 0
2.9350002 0.76335973 0.86126542 0
2.9380002 0.75973946 0.86180651 0
2.9420002 0.75642407 0.86252809 0
2.9460001 0.7530942 0.86324954 0
2.9520001 0.75037408 0.86433184 0
2.9580002 0.74763232 0.86541414 0
2.9660003 0.74548584 0.86685729 0
2.9780002 0.744537 0.86902177 0
2.8290002 1.0493627 0.83776355 0
2.8210001 1.0413878 0.83633494 0
2.8170002 1.0352315 0.83562064 0
2.8130002 1.0290896 0.83490634 0
2.8110001 1.0238495 0.83454919 0
2.8090003 1.0186166 0.83419204 0
2.8090003 1.0142713 0.83419204 0
2.8080003 1.0094876 0.83401346 0
2.8080003 1.0051441 0.83401346 0
2.8090003 1.0012351 0.83419204 0
2.8100002 0.99732268 0.83437061 0
2.8110001 0.99340653 0.83454919 0
2.8120003 0.98948693 0.83472776 0
2.8150003 0.98641872 0.83526349 0
2.8170002 0.98291373 0.83562064 0
2.8200002 0.97982574 0.83615637 0
2.8230002 0.97672677 0.83669209 0
2.8270001 0.97403729 0.8374064 0
2.8320003 0.97175193 0.83829933 0
2.8360002 0.96903169 0.83901364 0
2.8420002 0.96712697 0.84008509 0
2.8500001 0.96602654 0.84151369 0
2.8580003 0.96489751 0.84294236 0
2.8710003 0.9657867 0.84526384 0
2.8790002 0.96459079 0.84669244 0
2.8810003 0.96093082 0.84704959 0
2.8830001 0.95726371 0.84740674 0
2.8840003 0.95318717 0.84758532 0
2.8860002 0.94950736 0.84794247 0
2.8880002 0.94582033 0.84829962 0
2.8900001 0.9421261 0.84865677 0
2.8920002 0.93842477 0.84901392 0
2.8930001 0.93432283 0.8491925 0
2.8950002 0.93060887 0.84954965 0
2.8970003 0.92688763 0.8499068 0
2.8990002 0.92315912 0.85026395 0
2.9000001 0.91903734 0.85044253 0
2.9020002 0.91529632 0.85079968 0
2.9040003 0.91154796 0.85115683 0
2.9060001 0.90779239 0.85151398 0
2.9070003 0.90365094 0.85169262 0
2.9090002 0.89988279 0.85204971 0
2.9110003 0.89610738 0.85240692 0
2.9130001 0.89232475 0.85276401 0
2.9150002 0.88853502 0.85312122 0
2.9160001 0.88436824 0.85329974 0
2.9180002 0.8805657 0.85365695 0
2.9200003 0.87675619 0.85401416 0
2.9220002 0.87293923 0.85437125 0
2.9240003 0.86911523 0.85472846 0
2.9250002 0.86492318 0.85490698 0
2.9270003 0.86108649 0.85526419 0
2.9290001 0.85724252 0.85562128 0
2.9310002 0.85339141 0.85597849 0
2.9330003 0.84953308 0.85633564 0
2.9340003 0.84531575 0.85651422 0
2.9360001 0.84144473 0.85687131 0
2.9380002 0.83756655 0.85722846 0
2.9400003 0.83368123 0.85758567 0
2.9420002 0.82978857 0.85794276 0
2.9420002 0.8252033 0.85794276 0
2.9360001 0.81857246 0.85687131 0
2.9320002 0.81264156 0.856157 0
2.9290001 0.80706239 0.85562128 0
2.9270003 0.80182958 0.85526419 0
2.9250002 0.79660392 0.85490698 0
2.9240003 0.79171741 0.85472846 0
2.9240003 0.78716463 0.85472846 0
2.9240003 0.78261179 0.85472846 0
2.9250002 0.77838546 0.85490698 0
2.9260001 0.7741555 0.85508555 0
2.9270003 0.76992202 0.85526419 0
2.9300003 0.76632702 0.85579991 0
2.9320002 0.76240188 0.856157 0
2.9350002 0.75878704 0.85669279 0
2.9390001 0.75547707 0.85740703 0
2.9430003 0.75215268 0.8581214 0
2.9480002 0.7491259 0.85901427 0
2.9550002 0.74670154 0.8602643 0
2.9630003 0.74456048 0.86169291 0
2.9740002 0.74331039 0.86365724 0
2.8270001 1.0484606 0.83302855 0
2.8190002 1.0404897 0.83161438 0
2.8140001 1.0338894 0.83073056 0
2.8100002 1.0277529 0.83002341 0
2.8090003 1.022962 0.82984668 0
2.8070002 1.0177327 0.82949311 0
2.8060002 1.0129509 0.82931638 0
2.8050003 1.0081726 0.82913959 0
2.8060002 1.0042709 0.82931638 0
2.8060002 0.99993098 0.82931638 0
2.8070002 0.99602389 0.82949311 0
2.8080003 0.99211335 0.82966995 0
2.8100002 0.98862827 0.83002341 0
2.8120003 0.98513615 0.83037698 0
2.8150003 0.98206258 0.83090734 0
2.8170002 0.97855401 0.83126086 0
2.8210001 0.97588253 0.83196795 0
2.8240001 0.97277641 0.83249825 0
2.8290002 0.97049642 0.83338213 0
2.8340001 0.96819842 0.83426595 0
2.8400002 0.96629715 0.83532667 0
2.8470001 0.96478724 0.83656406 0
2.8550003 0.9636637 0.83797824 0
2.8670001 0.96414876 0.84009951 0
2.8790002 0.96459079 0.84222078 0
2.8810003 0.96093082 0.84257436 0
2.8830001 0.95726371 0.84292787 0
2.8840003 0.95318717 0.84310472 0
2.8860002 0.94950736 0.84345818 0
2.8880002 0.94582033 0.84381175 0
2.8900001 0.9421261 0.84416533 0
2.8920002 0.93842477 0.84451884 0
2.8930001 0.93432283 0.84469557 0
2.8950002 0.93060887 0.84504914 0
2.8970003 0.92688763 0.84540272 0
2.8990002 0.92315912 0.84575629 0
2.9000001 0.91903734 0.84593302 0
2.9020002 0.91529632 0.84628659 0
2.9040003 0.91154796 0.84664011 0
2.9060001 0.90779239 0.84699368 0
2.9070003 0.90365094 0.84717047 0
2.9090002 0.89988279 0.84752399 0
2.9110003 0.89610738 0.84787756 0
2.9130001 0.89232475 0.84823108 0
2.9150002 0.88853502 0.84858465 0
2.9160001 0.88436824 0.84876144 0
2.9180002 0.8805657 0.84911495 0
2.9200003 0.87675619 0.84946847 0
2.9220002 0.87293923 0.84982204 0
2.9240003 0.86911523 0.85017562 0
2.9250002 0.86492318 0.85035241 0
2.9270003 0.86108649 0.85070592 0
2.9290001 0.85724252 0.85105944 0
2.9310002 0.85339141 0.85141301 0
2.9330003 0.84953308 0.85176659 0
2.9340003 0.84531575 0.85194331 0
2.9360001 0.84144473 0.85229683 0
2.9380002 0.83756655 0.8526504 0
2.9400003 0.83368123 0.85300398 0
2.9420002 0.82978857 0.85335749 0
2.9400003 0.82451785 0.85300398 0
2.9340003 0.81789064 0.85194331 0
2.9300003 0.81196338 0.85123622 0
2.9260001 0.80605042 0.85052913 0
2.9240003 0.80082303 0.85017562 0
2.9220002 0.7956028 0.84982204 0
2.9220002 0.79105359 0.84982204 0
2.9210002 0.7861743 0.84964526 0
2.9220002 0.78195518 0.84982204 0
2.9220002 0.77740598 0.84982204 0
2.9230001 0.77318144 0.84999883 0
2.9250002 0.7692762 0.85035241 0
2.9270003 0.76536375 0.85070592 0
2.9290001 0.76144403 0.85105944 0
2.9320002 0.75783467 0.8515898 0
2.9360001 0.75453001 0.85229683 0
2.9400003 0.75121111 0.85300398 0
2.9450002 0.74818969 0.8538878 0
2.9520001 0.74577075 0.85512519 0
2.9590001 0.7433266 0.85636258 0
2.9700003 0.74208385 0.85830712 0
2.8250003 1.0475588 0.82830083 0
2.8170002 1.0395913 0.82690108 0
2.8120003 1.0329947 0.8260262 0
2.8080003 1.0268619 0.82532632 0
2.8060002 1.0216308 0.82497644 0
2.8040001 1.0164069 0.82462645 0
2.8040001 1.0120705 0.82462645 0
2.8030002 1.007296 0.82445151 0
2.8030002 1.0029613 0.82445151 0
2.8040001 0.99906147 0.82462645 0
2.8050003 0.9951582 0.82480145 0
2.8060002 0.99125111 0.82497644 0
2.8070002 0.98734045 0.82515132 0
2.8100002 0.98428118 0.82567626 0
2.8120003 0.98078537 0.8260262 0
2.8150003 0.97770631 0.82655114 0
2.8180003 0.97461641 0.82707608 0
2.8220003 0.97193587 0.82777596 0
2.8260002 0.96924102 0.82847577 0
2.8310003 0.96694839 0.82935065 0
2.8370001 0.96505249 0.83040047 0
2.8440001 0.96354818 0.83162522 0
2.8520002 0.96242976 0.83302498 0
2.8640003 0.96292055 0.83512461 0
2.8790002 0.96459079 0.83774912 0
2.8810003 0.96093082 0.83809912 0
2.8830001 0.95726371 0.838449 0
2.8840003 0.95318717 0.838624 0
2.8860002 0.94950736 0.83897388 0
2.8880002 0.94582033 0.83932388 0
2.8900001 0.9421261 0.83967376 0
2.8910003 0.93802977 0.83984876 0
2.8930001 0.93432283 0.8401987 0
2.8950002 0.93060887 0.84054863 0
2.8970003 0.92688763 0.84089863 0
2.8990002 0.92315912 0.84124851 0
2.9000001 0.91903734 0.84142351 0
2.9020002 0.91529632 0.84177345 0
2.9040003 0.91154796 0.84212339 0
2.9060001 0.90779239 0.84247327 0
2.9070003 0.90365094 0.84264827 0
2.9090002 0.89988279 0.84299821 0
2.9110003 0.89610738 0.84334815 0
2.9130001 0.89232475 0.84369808 0
2.9150002 0.88853502 0.84404802 0
2.9160001 0.88436824 0.84422302 0
2.9180002 0.8805657 0.84457296 0
2.9200003 0.87675619 0.8449229 0
2.9220002 0.87293923 0.84527278 0
2.9240003 0.86911523 0.84562278 0
2.9250002 0.86492318 0.84579772 0
2.9270003 0.86108649 0.84614766 0
2.9290001 0.85724252 0.8464976 0
2.9310002 0.85339141 0.84684753 0
2.9330003 0.84953308 0.84719753 0
2.9340003 0.84531575 0.84737247 0
2.9360001 0.84144473 0.84772241 0
2.9380002 0.83756655 0.84807229 0
2.9400003 0.83368123 0.84842229 0
2.9420002 0.82978857 0.84877223 0
2.9380002 0.82383239 0.84807229 0
2.9320002 0.81720877 0.84702253 0
2.9270003 0.81094605 0.84614766 0
2.9240003 0.80537587 0.84562278 0
2.9220002 0.800152 0.84527278 0
2.9200003 0.79493541 0.8449229 0
2.9190001 0.79005784 0.8447479 0
2.9190001 0.78551412 0.8447479 0
2.9190001 0.78097028 0.8447479 0
2.9190001 0.77642649 0.8447479 0
2.9200003 0.77220744 0.8449229 0
2.9220002 0.76830757 0.84527278 0
2.9240003 0.76440054 0.84562278 0
2.9260001 0.76048619 0.84597266 0
2.9290001 0.75688225 0.8464976 0
2.9330003 0.75358313 0.84719753 0
2.9370003 0.75026947 0.84789741 0
2.9420002 0.74725354 0.84877223 0
2.9480002 0.74452978 0.84982204 0
2.9560003 0.74240136 0.8512218 0
2.9660003 0.74085724 0.85297155 0
2.8220003 1.046206 0.82340705 0
2.8140001 1.0382438 0.82202172 0
2.8090003 1.0316528 0.82115591 0
2.8060002 1.0259708 0.82063639 0
2.8040001 1.0207434 0.82029009 0
2.8020003 1.0155232 0.81994379 0
2.8010001 1.0107502 0.81977057 0
2.8000002 1.005981 0.81959742 0
2.8010001 1.0020883 0.81977057 0
2.8010001 0.99775732 0.81977057 0
2.8020003 0.99385941 0.81994379 0
2.8030002 0.98995769 0.82011694 0
2.8050003 0.9864819 0.8204633 0
2.8070002 0.98299873 0.8208096 0
2.8090003 0.97950828 0.82115591 0
2.8120003 0.97643471 0.82167542 0
2.8160002 0.97377217 0.82236803 0
2.8190002 0.97067499 0.82288754 0
2.8240001 0.96840394 0.82375342 0
2.8280003 0.96569836 0.82444608 0
2.8340001 0.96380794 0.82548505 0
2.8410003 0.962309 0.82669723 0
2.8490002 0.96119595 0.82808256 0
2.8610003 0.96169209 0.8301605 0
2.8790002 0.96459079 0.83327746 0
2.8810003 0.96093082 0.83362389 0
2.8830001 0.95726371 0.83397019 0
2.8840003 0.95318717 0.8341434 0
2.8860002 0.94950736 0.8344897 0
2.8880002 0.94582033 0.83483601 0
2.8900001 0.9421261 0.83518231 0
2.8910003 0.93802977 0.83535552 0
2.8930001 0.93432283 0.83570182 0
2.8950002 0.93060887 0.83604819 0
2.8970003 0.92688763 0.83639455 0
2.8990002 0.92315912 0.83674085 0
2.9000001 0.91903734 0.83691394 0
2.9020002 0.91529632 0.83726037 0
2.9040003 0.91154796 0.83760667 0
2.9060001 0.90779239 0.83795297 0
2.9070003 0.90365094 0.83812618 0
2.9090002 0.89988279 0.83847249 0
2.9110003 0.89610738 0.83881879 0
2.9130001 0.89232475 0.83916509 0
2.9150002 0.88853502 0.83951145 0
2.9160001 0.88436824 0.83968461 0
2.9180002 0.8805657 0.84003097 0
2.9200003 0.87675619 0.84037733 0
2.9220002 0.87293923 0.84072363 0
2.9240003 0.86911523 0.84106994 0
2.9250002 0.86492318 0.84124315 0
2.9270003 0.86108649 0.84158945 0
2.9290001 0.85724252 0.84193575 0
2.9310002 0.85339141 0.84228212 0
2.9330003 0.84953308 0.84262848 0
2.9340003 0.84531575 0.84280157 0
2.9360001 0.84144473 0.84314793 0
2.9380002 0.83756655 0.8434943 0
2.9400003 0.83368123 0.8438406 0
2.9420002 0.82978857 0.84418696 0
2.9360001 0.82314688 0.84314793 0
2.9290001 0.81618607 0.84193575 0
2.9250002 0.81026775 0.84124315 0
2.9210002 0.80436391 0.84055048 0
2.9190001 0.79914546 0.84020412 0
2.9170003 0.79393435 0.83985782 0
2.9170003 0.78939414 0.83985782 0
2.9160001 0.78452379 0.83968461 0
2.9160001 0.77998543 0.83968461 0
2.9170003 0.77577353 0.83985782 0
2.9180002 0.77155805 0.84003097 0
2.9190001 0.76733887 0.84020412 0
2.9210002 0.76343733 0.84055048 0
2.9240003 0.7598477 0.84106994 0
2.9260001 0.75592977 0.84141624 0
2.9300003 0.75263613 0.84210896 0
2.9340003 0.7493279 0.84280157 0
2.9390001 0.74631733 0.84366745 0
2.9450002 0.743599 0.84470642 0
2.9520001 0.74116743 0.8459186 0
2.9620001 0.73963064 0.84765023 0
2.8200002 1.0453039 0.81869555 0
2.8120003 1.0373456 0.81732464 0
2.8070002 1.030758 0.81646782 0
2.8030002 1.0246341 0.81578237 0
2.8010001 1.019412 0.81543964 0
2.7990003 1.0141973 0.81509697 0
2.7990003 1.0098699 0.81509697 0
2.7980001 1.0051042 0.81492555 0
2.7980001 1.0007787 0.81492555 0
2.7990003 0.99688804 0.81509697 0
2.8000002 0.99299347 0.81526828 0
2.8010001 0.98909545 0.81543964 0
2.8020003 0.98519385 0.815611 0
2.8050003 0.98214364 0.81612515 0
2.8070002 0.97865677 0.81646782 0
2.8100002 0.97558677 0.81698191 0
2.8130002 0.97250593 0.817496 0
2.8170002 0.96983445 0.8181814 0
2.8210001 0.96714854 0.81886685 0
2.8260002 0.96486497 0.81972373 0
2.8320003 0.96297824 0.82075191 0
2.8380003 0.96106982 0.82178009 0
2.8470001 0.9603734 0.8233223 0
2.8580003 0.96046376 0.82520723 0
2.8790002 0.96459079 0.82880586 0
2.8810003 0.96093082 0.82914865 0
2.8830001 0.95726371 0.82949132 0
2.8840003 0.95318717 0.82966268 0
2.8860002 0.94950736 0.83000541 0
2.8880002 0.94582033 0.83034813 0
2.8900001 0.9421261 0.83069086 0
2.8910003 0.93802977 0.83086222 0
2.8930001 0.93432283 0.83120489 0
2.8950002 0.93060887 0.83154762 0
2.8970003 0.92688763 0.8318904 0
2.8990002 0.92315912 0.83223307 0
2.9000001 0.91903734 0.83240443 0
2.9020002 0.91529632 0.83274722 0
2.9040003 0.91154796 0.83308995 0
2.9060001 0.90779239 0.83343267 0
2.9070003 0.90365094 0.83360404 0
2.9090002 0.89988279 0.8339467 0
2.9110003 0.89610738 0.83428943 0
2.9130001 0.89232475 0.83463216 0
2.9150002 0.88853502 0.83497488 0
2.9160001 0.88436824 0.83514625 0
2.9180002 0.8805657 0.83548898 0
2.9200003 0.87675619 0.83583176 0
2.9220002 0.87293923 0.83617443 0
2.9240003 0.86911523 0.83651716 0
2.9250002 0.86492318 0.83668852 0
2.9270003 0.86108649 0.83703125 0
2.9290001 0.85724252 0.83737397 0
2.9310002 0.85339141 0.8377167 0
2.9330003 0.84953308 0.83805943 0
2.9340003 0.84531575 0.83823073 0
2.9360001 0.84144473 0.83857346 0
2.9380002 0.83756655 0.83891618 0
2.9400003 0.83368123 0.83925891 0
2.9420002 0.82978857 0.83960164 0
2.9340003 0.82246149 0.83823073 0
2.9270003 0.81550425 0.83703125 0
2.9220002 0.80925041 0.83617443 0
2.9190001 0.80368924 0.83566034 0
2.9170003 0.79847449 0.83531761 0
2.9150002 0.79326689 0.83497488 0
2.9140003 0.78839839 0.83480358 0
2.9130001 0.78353345 0.83463216 0
2.9140003 0.77932888 0.83480358 0
2.9140003 0.7747941 0.83480358 0
2.9150002 0.77058399 0.83497488 0
2.9160001 0.7663703 0.83514625 0
2.9180002 0.76247406 0.83548898 0
2.9210002 0.75888991 0.83600307 0
2.9230001 0.75497741 0.83634579 0
2.9270003 0.75168914 0.83703125 0
2.9310002 0.74838632 0.8377167 0
2.9360001 0.74538112 0.83857346 0
2.9420002 0.74266821 0.83960164 0
2.9490001 0.74024206 0.84080118 0
2.9590001 0.73871064 0.84251475 0
3.0190003 1.1633885 0.84807235 0
3.0210001 1.1595843 0.84841144 0
3.0220003 1.1553147 0.84858108 0
3.0240002 1.1514977 0.84892011 0
3.0260003 1.1476737 0.84925926 0
2.8170002 1.043951 0.81382161 0
2.8090003 1.0359982 0.81246519 0
2.8040001 1.029416 0.81161737 0
2.8010001 1.023743 0.81110871 0
2.7990003 1.0185246 0.81076956 0
2.7970002 1.0133134 0.81043047 0
2.7960002 1.0085496 0.81026089 0
2.7960002 1.0042276 0.81026089 0
2.7960002 0.99990571 0.81026089 0
2.7960002 0.99558377 0.81026089 0
2.7970002 0.99169481 0.81043047 0
2.7980001 0.98780215 0.81060004 0
2.8000002 0.98433518 0.81093913 0
2.8020003 0.98086119 0.81127828 0
2.8040001 0.97737968 0.81161737 0
2.8070002 0.97431505 0.81212604 0
2.8100002 0.97123957 0.81263471 0
2.8140001 0.96857357 0.81331295 0
2.8180003 0.96589327 0.81399119 0
2.8230002 0.96361494 0.81483901 0
2.8290002 0.96173358 0.81585634 0
2.8360002 0.9602437 0.81704324 0
2.8440001 0.95913959 0.81839967 0
2.8550003 0.95923531 0.82026482 0
2.8790002 0.96459079 0.8243342 0
2.8810003 0.96093082 0.82467335 0
2.8830001 0.95726371 0.82501245 0
2.8840003 0.95318717 0.82518202 0
2.8860002 0.94950736 0.82552111 0
2.8880002 0.94582033 0.82586026 0
2.8900001 0.9421261 0.82619935 0
2.8910003 0.93802977 0.82636893 0
2.8930001 0.93432283 0.82670808 0
2.8950002 0.93060887 0.82704717 0
2.8970003 0.92688763 0.82738626 0
2.8990002 0.92315912 0.82772541 0
2.9000001 0.91903734 0.82789493 0
2.9020002 0.91529632 0.82823408 0
2.9040003 0.91154796 0.82857323 0
2.9060001 0.90779239 0.82891226 0
2.9070003 0.90365094 0.82908189 0
2.9090002 0.89988279 0.82942092 0
2.9110003 0.89610738 0.82976007 0
2.9130001 0.89232475 0.83009923 0
2.9150002 0.88853502 0.83043832 0
2.9160001 0.88436824 0.83060789 0
2.9180002 0.8805657 0.83094704 0
2.9200003 0.87675619 0.83128613 0
2.9220002 0.87293923 0.83162522 0
2.9240003 0.86911523 0.83196437 0
2.9250002 0.86492318 0.83213389 0
2.9270003 0.86108649 0.83247304 0
2.9290001 0.85724252 0.83281207 0
2.9310002 0.85339141 0.83315122 0
2.9330003 0.84953308 0.83349037 0
2.9340003 0.84531575 0.83365989 0
2.9360001 0.84144473 0.83399904 0
2.9380002 0.83756655 0.83433813 0
2.9400003 0.83368123 0.83467728 0
2.9420002 0.82978857 0.83501637 0
2.9320002 0.82177603 0.8333208 0
2.9250002 0.81482238 0.83213389 0
2.9200003 0.80857223 0.83128613 0
2.9170003 0.8030147 0.83077747 0
2.9140003 0.79746795 0.83026874 0
2.9120002 0.79226571 0.82992965 0
2.9110003 0.78740269 0.82976007 0
2.9110003 0.78287333 0.82976007 0
2.9110003 0.77834398 0.82976007 0
2.9110003 0.77381462 0.82976007 0
2.9120002 0.76960987 0.82992965 0
2.9140003 0.76572454 0.83026874 0
2.9150002 0.76151079 0.83043832 0
2.9180002 0.75793213 0.83094704 0
2.9200003 0.7540251 0.83128613 0
2.9240003 0.75074214 0.83196437 0
2.9280002 0.74744469 0.83264256 0
2.9330003 0.74444503 0.83349037 0
2.9380002 0.74142718 0.83433813 0
2.9460001 0.7393167 0.83569461 0
2.9550002 0.7374841 0.83722067 0
3.0170002 1.1671855 0.84301269 0
3.0190003 1.1633885 0.84334815 0
3.0210001 1.1595843 0.84368366 0
3.0220003 1.1553147 0.84385145 0
3.0240002 1.1514977 0.84418696 0
3.0260003 1.1476737 0.84452248 0
3.0280001 1.1438423 0.84485793 0
2.8150003 1.0430492 0.80912638 0
2.8070002 1.0350999 0.80778432 0
2.8020003 1.0285214 0.80694556 0
2.7980001 1.0224065 0.80627453 0
2.7960002 1.0171934 0.80593902 0
2.7940001 1.0119877 0.8056035 0
2.7940001 1.0076692 0.8056035 0
2.7930002 1.0029126 0.80543578 0
2.7930002 0.99859619 0.80543578 0
2.7940001 0.99471438 0.8056035 0
2.7940001 0.99039602 0.8056035 0
2.7960002 0.98694003 0.80593902 0
2.7970002 0.98304737 0.80610675 0
2.7990003 0.97957861 0.80644226 0
2.8020003 0.97652841 0.80694556 0
2.8050003 0.97346735 0.8074488 0
2.8080003 0.97039545 0.80795205 0
2.8110001 0.96731269 0.80845529 0
2.8160002 0.96505618 0.8092941 0
2.8200002 0.96236491 0.80996513 0
2.8260002 0.96048892 0.81097162 0
2.8330002 0.9590044 0.81214589 0
2.8410003 0.95790589 0.81348795 0
2.8520002 0.95800686 0.81533325 0
2.8790002 0.96459079 0.8198626 0
2.8810003 0.96093082 0.82019812 0
2.8830001 0.95726371 0.82053363 0
2.8840003 0.95318717 0.82070136 0
2.8860002 0.94950736 0.82103682 0
2.8880002 0.94582033 0.82137239 0
2.8900001 0.9421261 0.82170784 0
2.8910003 0.93802977 0.82187563 0
2.8930001 0.93432283 0.82221115 0
2.8950002 0.93060887 0.82254666 0
2.8970003 0.92688763 0.82288218 0
2.8990002 0.92315912 0.82321769 0
2.9000001 0.91903734 0.82338542 0
2.9020002 0.91529632 0.82372093 0
2.9040003 0.91154796 0.82405651 0
2.9060001 0.90779239 0.82439196 0
2.9070003 0.90365094 0.82455969 0
2.9090002 0.89988279 0.8248952 0
2.9110003 0.89610738 0.82523072 0
2.9130001 0.89232475 0.82556617 0
2.9150002 0.88853502 0.82590175 0
2.9160001 0.88436824 0.82606947 0
2.9180002 0.8805657 0.82640499 0
2.9200003 0.87675619 0.8267405 0
2.9220002 0.87293923 0.82707602 0
2.9240003 0.86911523 0.82741153 0
2.9250002 0.86492318 0.82757926 0
2.9270003 0.86108649 0.82791483 0
2.9290001 0.85724252 0.82825029 0
2.9310002 0.85339141 0.8285858 0
2.9330003 0.84953308 0.82892132 0
2.9340003 0.84531575 0.82908905 0
2.9360001 0.84144473 0.82942456 0
2.9380002 0.83756655 0.82976007 0
2.9400003 0.83368123 0.83009565 0
2.9420002 0.82978857 0.8304311 0
2.9300003 0.82109064 0.82841808 0
2.9230001 0.8141405 0.8272438 0
2.9180002 0.80789399 0.82640499 0
2.9140003 0.80200273 0.82573402 0
2.9120002 0.79679692 0.82539845 0
2.9100003 0.79159838 0.82506299 0
2.9090002 0.78673887 0.8248952 0
2.9080002 0.78188306 0.82472748 0
2.9080002 0.77735907 0.82472748 0
2.9090002 0.77316159 0.8248952 0
2.9090002 0.76863587 0.8248952 0
2.9110003 0.7647559 0.82523072 0
2.9130001 0.76086861 0.82556617 0
2.9150002 0.75697428 0.82590175 0
2.9180002 0.75339007 0.82640499 0
2.9210002 0.74979508 0.82690829 0
2.9250002 0.74650311 0.82757926 0
2.9300003 0.74350882 0.82841808 0
2.9350002 0.74049646 0.82925677 0
2.9420002 0.73808295 0.8304311 0
2.9520001 0.7365641 0.83210862 0
3.0170002 1.1671855 0.83829212 0
3.0190003 1.1633885 0.838624 0
3.0210001 1.1595843 0.83895588 0
3.0220003 1.1553147 0.83912182 0
3.0240002 1.1514977 0.8394537 0
3.0260003 1.1476737 0.8397857 0
3.0280001 1.1438423 0.84011757 0
2.8130002 1.0421473 0.80443823 0
2.8040001 1.0337523 0.80294466 0
2.7990003 1.0271794 0.8021149 0
2.7960002 1.0215154 0.80161703 0
2.7940001 1.0163059 0.80128515 0
2.7920003 1.0111037 0.80095327 0
2.7910001 1.0063488 0.80078733 0
2.7910001 1.002036 0.80078733 0
2.7910001 0.9977231 0.80078733 0
2.7910001 0.99341023 0.80078733 0
2.7920003 0.98953032 0.80095327 0
2.7930002 0.98564661 0.80111921 0
2.7950003 0.98218882 0.80145115 0
2.7970002 0.97872353 0.80178297 0
2.7990003 0.97525132 0.8021149 0
2.8020003 0.97219563 0.80261278 0
2.8050003 0.96912909 0.80311066 0
2.8090003 0.96647215 0.80377448 0
2.8130002 0.96380079 0.80443823 0
2.8180003 0.96153152 0.80526799 0
2.8240001 0.9596591 0.80626369 0
2.8300002 0.95776522 0.80725938 0
2.8380003 0.95667219 0.80858701 0
2.8500001 0.95718789 0.81057835 0
2.8790002 0.96459079 0.81539094 0
2.8810003 0.96093082 0.81572282 0
2.8830001 0.95726371 0.8160547 0
2.8840003 0.95318717 0.8162207 0
2.8860002 0.94950736 0.81655258 0
2.8880002 0.94582033 0.81688452 0
2.8900001 0.9421261 0.8172164 0
2.8910003 0.93802977 0.81738234 0
2.8930001 0.93432283 0.81771421 0
2.8950002 0.93060887 0.81804615 0
2.8970003 0.92688763 0.81837809 0
2.8990002 0.92315912 0.81870997 0
2.9000001 0.91903734 0.81887591 0
2.9020002 0.91529632 0.81920779 0
2.9040003 0.91154796 0.81953967 0
2.9060001 0.90779239 0.8198716 0
2.9070003 0.90365094 0.8200376 0
2.9090002 0.89988279 0.82036948 0
2.9110003 0.89610738 0.82070136 0
2.9130001 0.89232475 0.82103324 0
2.9150002 0.88853502 0.82136512 0
2.9160001 0.88436824 0.82153106 0
2.9180002 0.8805657 0.821863 0
2.9200003 0.87675619 0.82219493 0
2.9220002 0.87293923 0.82252681 0
2.9240003 0.86911523 0.82285869 0
2.9250002 0.86492318 0.82302463 0
2.9270003 0.86108649 0.82335663 0
2.9290001 0.85724252 0.82368845 0
2.9310002 0.85339141 0.82402039 0
2.9330003 0.84953308 0.82435226 0
2.9340003 0.84531575 0.8245182 0
2.9360001 0.84144473 0.82485008 0
2.9380002 0.83756655 0.82518196 0
2.9400003 0.83368123 0.82551396 0
2.9420002 0.82978857 0.82584584 0
2.9280002 0.82040513 0.82352251 0
2.9210002 0.81345868 0.82236087 0
2.9150002 0.8068766 0.82136512 0
2.9120002 0.80132806 0.8208673 0
2.9090002 0.79579037 0.82036948 0
2.9070003 0.79059726 0.8200376 0
2.9060001 0.78574318 0.8198716 0
2.9060001 0.78122282 0.8198716 0
2.9060001 0.77670246 0.8198716 0
2.9060001 0.77218211 0.8198716 0
2.9070003 0.76798654 0.8200376 0
2.9080002 0.76378727 0.82020354 0
2.9100003 0.75990546 0.82053542 0
2.9120002 0.75601643 0.8208673 0
2.9150002 0.75243765 0.82136512 0
2.9180002 0.74884808 0.821863 0
2.9220002 0.74556154 0.82252681 0
2.9270003 0.74257267 0.82335663 0
2.9320002 0.73956567 0.82418633 0
2.9390001 0.73715758 0.82534796 0
2.9480002 0.73533756 0.82684153 0
3.0170002 1.1671855 0.83357155 0
3.0190003 1.1633885 0.83389986 0
3.0210001 1.1595843 0.8342281 0
3.0220003 1.1553147 0.83439231 0
3.0240002 1.1514977 0.83472055 0
3.0260003 1.1476737 0.83504885 0
3.0280001 1.1438423 0.8353771 0
2.8100002 1.0407944 0.79959321 0
2.8020003 1.0328541 0.79828 0
2.7970002 1.0262846 0.7974593 0
2.7930002 1.0201788 0.79680276 0
2.7910001 1.0149747 0.7964744 0
2.7890003 1.009778 0.79614615 0
2.7890003 1.0054686 0.79614615 0
2.7880001 1.000721 0.79598194 0
2.7880001 0.99641347 0.79598194 0
2.7890003 0.99254072 0.79614615 0
2.7890003 0.98823154 0.79614615 0
2.7910001 0.98478436 0.7964744 0
2.7920003 0.98090076 0.79663861 0
2.7940001 0.97744107 0.79696685 0
2.7970002 0.97439981 0.7974593 0
2.7990003 0.9709239 0.79778761 0
2.8030002 0.96828496 0.79844415 0
2.8060002 0.96521127 0.79893661 0
2.8110001 0.9629637 0.79975736 0
2.8150003 0.96028149 0.80041397 0
2.8210001 0.95841455 0.80139881 0
2.8270001 0.95652592 0.80238366 0
2.8350003 0.95543826 0.80369687 0
2.8470001 0.95595944 0.80566657 0
2.8790002 0.96459079 0.81091928 0
2.8810003 0.96093082 0.81124759 0
2.8830001 0.95726371 0.81157589 0
2.8840003 0.95318717 0.81174004 0
2.8860002 0.94950736 0.81206834 0
2.8880002 0.94582033 0.81239665 0
2.8900001 0.9421261 0.81272489 0
2.8910003 0.93802977 0.8128891 0
2.8930001 0.93432283 0.81321734 0
2.8950002 0.93060887 0.81354564 0
2.8970003 0.92688763 0.81387401 0
2.8990002 0.92315912 0.81420225 0
2.9000001 0.91903734 0.81436634 0
2.9020002 0.91529632 0.81469464 0
2.9040003 0.91154796 0.81502295 0
2.9060001 0.90779239 0.81535125 0
2.9070003 0.90365094 0.8155154 0
2.9090002 0.89988279 0.8158437 0
2.9110003 0.89610738 0.816172 0
2.9130001 0.89232475 0.81650031 0
2.9150002 0.88853502 0.81682861 0
2.9160001 0.88436824 0.81699276 0
2.9180002 0.8805657 0.81732106 0
2.9200003 0.87675619 0.81764936 0
2.9220002 0.87293923 0.81797761 0
2.9240003 0.86911523 0.81830591 0
2.9250002 0.86492318 0.81847006 0
2.9270003 0.86108649 0.81879836 0
2.9290001 0.85724252 0.81912661 0
2.9310002 0.85339141 0.81945491 0
2.9330003 0.84953308 0.81978321 0
2.9340003 0.84531575 0.81994736 0
2.9360001 0.84144473 0.82027566 0
2.9380002 0.83756655 0.82060397 0
2.9400003 0.83368123 0.82093227 0
2.9420002 0.82978857 0.82126057 0
2.9260001 0.81971967 0.81863415 0
2.9180002 0.81243598 0.81732106 0
2.9130001 0.80619836 0.81650031 0
2.9100003 0.80065352 0.81600785 0
2.9070003 0.7951194 0.8155154 0
2.9050002 0.78992981 0.8151871 0
2.9040003 0.78507936 0.81502295 0
2.9030001 0.78023255 0.81485879 0
2.9030001 0.77571756 0.81485879 0
2.9030001 0.77120262 0.81485879 0
2.9040003 0.76701248 0.81502295 0
2.9060001 0.76314145 0.81535125 0
2.9070003 0.75894225 0.8155154 0
2.9090002 0.75505859 0.8158437 0
2.9120002 0.75148523 0.81633615 0
2.9150002 0.74790114 0.81682861 0
2.9190001 0.74461991 0.81748515 0
2.9240003 0.74163651 0.81830591 0
2.9290001 0.73863488 0.81912661 0
2.9360001 0.73623222 0.82027566 0
2.9440002 0.73411095 0.82158887 0
2.9570003 0.73348504 0.82372272 0
3.0170002 1.1671855 0.82885098 0
3.0190003 1.1633885 0.82917571 0
3.0210001 1.1595843 0.82950032 0
3.0220003 1.1553147 0.82966268 0
3.0240002 1.1514977 0.82998735 0
3.0260003 1.1476737 0.83031201 0
3.0280001 1.1438423 0.83063674 0
2.8080003 1.0398926 0.79492134 0
2.7990003 1.0315067 0.79346025 0
2.7940001 1.0249426 0.79264855 0
2.7910001 1.0192877 0.79216146 0
2.7890003 1.0140873 0.79183686 0
2.7870002 1.0088941 0.79151213 0
2.7860003 1.0041482 0.79134977 0
2.7860003 0.99984443 0.79134977 0
2.7860003 0.9955405 0.79134977 0
2.7860003 0.99123669 0.79134977 0
2.7870002 0.9873656 0.79151213 0
2.7880001 0.98349106 0.79167449 0
2.7900002 0.98004222 0.79199916 0
2.7920003 0.9765861 0.79232383 0
2.7940001 0.97312272 0.79264855 0
2.7970002 0.9700762 0.79313552 0
2.8000002 0.96701872 0.79362261 0
2.8040001 0.96437073 0.79427195 0
2.8080003 0.96170831 0.79492134 0
2.8120003 0.95903146 0.79557073 0
2.8180003 0.95717001 0.79654479 0
2.8250003 0.95569992 0.79768121 0
2.8330002 0.95461571 0.79897988 0
2.8440001 0.95473111 0.80076563 0
2.8790002 0.96459079 0.80644768 0
2.8810003 0.96093082 0.80677235 0
2.8830001 0.95726371 0.80709702 0
2.8840003 0.95318717 0.80725938 0
2.8860002 0.94950736 0.80758405 0
2.8880002 0.94582033 0.80790877 0
2.8900001 0.9421261 0.80823344 0
2.8910003 0.93802977 0.8083958 0
2.8930001 0.93432283 0.80872047 0
2.8950002 0.93060887 0.8090452 0
2.8970003 0.92688763 0.80936986 0
2.8990002 0.92315912 0.80969453 0
2.9000001 0.91903734 0.80985689 0
2.9020002 0.91529632 0.81018156 0
2.9040003 0.91154796 0.81050622 0
2.9060001 0.90779239 0.81083095 0
2.9070003 0.90365094 0.81099331 0
2.9090002 0.89988279 0.81131792 0
2.9110003 0.89610738 0.81164265 0
2.9130001 0.89232475 0.81196731 0
2.9150002 0.88853502 0.81229198 0
2.9160001 0.88436824 0.81245434 0
2.9180002 0.8805657 0.81277907 0
2.9200003 0.87675619 0.81310374 0
2.9220002 0.87293923 0.8134284 0
2.9240003 0.86911523 0.81375313 0
2.9250002 0.86492318 0.81391543 0
2.9270003 0.86108649 0.81424016 0
2.9290001 0.85724252 0.81456482 0
2.9310002 0.85339141 0.81488949 0
2.9330003 0.84953308 0.81521416 0
2.9340003 0.84531575 0.81537652 0
2.9360001 0.84144473 0.81570119 0
2.9380002 0.83756655 0.81602585 0
2.9400003 0.83368123 0.81635058 0
2.9420002 0.82978857 0.81667525 0
2.9250002 0.81937701 0.81391543 0
2.9160001 0.81175411 0.81245434 0
2.9110003 0.80552012 0.81164265 0
2.9070003 0.79964161 0.81099331 0
2.9040003 0.79411292 0.81050622 0
2.9030001 0.78926235 0.81034386 0
2.9010003 0.78408366 0.81001925 0
2.9010003 0.77957243 0.81001925 0
2.9000001 0.77473271 0.80985689 0
2.9010003 0.77054971 0.81001925 0
2.9010003 0.76603842 0.81001925 0
2.9030001 0.76217282 0.81034386 0
2.9040003 0.75797898 0.81050622 0
2.9070003 0.7544201 0.81099331 0
2.9090002 0.75053287 0.81131792 0
2.9120002 0.74695408 0.81180495 0
2.9160001 0.74367833 0.81245434 0
2.9210002 0.7407003 0.81326604 0
2.9260001 0.73770416 0.81407773 0
2.9330003 0.73530692 0.81521416 0
2.9410002 0.73319107 0.81651294 0
2.9530003 0.73226571 0.81846106 0
3.0170002 1.1671855 0.82413042 0
3.0190003 1.1633885 0.82445151 0
3.0210001 1.1595843 0.82477254 0
3.0220003 1.1553147 0.82493311 0
3.0240002 1.1514977 0.8252542 0
3.0260003 1.1476737 0.82557523 0
3.0280001 1.1438423 0.82589626 0
2.8050003 1.0385398 0.79009616 0
2.7970002 1.0306083 0.7888118 0
2.7920003 1.024048 0.78800917 0
2.7880001 1.017951 0.78736699 0
2.7860003 1.0127561 0.78704596 0
2.7850003 1.0080103 0.78688538 0
2.7840002 1.003268 0.78672481 0
2.7830002 0.99852943 0.78656429 0
2.7830002 0.99423099 0.78656429 0
2.7840002 0.99036717 0.78672481 0
2.7850003 0.98649979 0.78688538 0
2.7860003 0.98262882 0.78704596 0
2.7870002 0.97875428 0.78720641 0
2.7890003 0.97530365 0.78752756 0
2.7920003 0.97227144 0.78800917 0
2.7940001 0.96880448 0.7883302 0
2.7980001 0.96617448 0.78897238 0
2.8010001 0.96310973 0.78945398 0
2.8050003 0.9604528 0.79009616 0
2.8100002 0.95819807 0.7908988 0
2.8160002 0.95634019 0.79186213 0
2.8220003 0.95446062 0.79282534 0
2.8300002 0.95338196 0.79410958 0
2.8410003 0.95350283 0.79587555 0
2.8790002 0.96459079 0.80197603 0
2.8810003 0.96093082 0.80229712 0
2.8830001 0.95726371 0.80261815 0
2.8840003 0.95318717 0.80277872 0
2.8860002 0.94950736 0.80309975 0
2.8880002 0.94582033 0.8034209 0
2.8900001 0.9421261 0.80374193 0
2.8910003 0.93802977 0.80390251 0
2.8930001 0.93432283 0.80422354 0
2.8950002 0.93060887 0.80454469 0
2.8970003 0.92688763 0.80486572 0
2.8990002 0.92315912 0.80518681 0
2.9000001 0.91903734 0.80534732 0
2.9020002 0.91529632 0.80566841 0
2.9040003 0.91154796 0.8059895 0
2.9060001 0.90779239 0.80631053 0
2.9070003 0.90365094 0.80647111 0
2.9090002 0.89988279 0.8067922 0
2.9110003 0.89610738 0.80711329 0
2.9130001 0.89232475 0.80743432 0
2.9150002 0.88853502 0.80775541 0
2.9160001 0.88436824 0.80791593 0
2.9180002 0.8805657 0.80823708 0
2.9200003 0.87675619 0.80855811 0
2.9220002 0.87293923 0.8088792 0
2.9240003 0.86911523 0.80920029 0
2.9250002 0.86492318 0.8093608 0
2.9270003 0.86108649 0.80968189 0
2.9290001 0.85724252 0.81000298 0
2.9310002 0.85339141 0.81032407 0
2.9330003 0.84953308 0.81064516 0
2.9340003 0.84531575 0.81080568 0
2.9360001 0.84144473 0.81112671 0
2.9380002 0.83756655 0.8114478 0
2.9400003 0.83368123 0.81176889 0
2.9420002 0.82978857 0.81208998 0
2.9230001 0.81869149 0.80903971 0
2.9140003 0.81107229 0.8075949 0
2.9080002 0.80450279 0.80663168 0
2.9050002 0.79896694 0.80615008 0
2.9020002 0.79344183 0.80566841 0
2.9000001 0.78826123 0.80534732 0
2.8990002 0.78341985 0.80518681 0
2.8980002 0.7785821 0.80502629 0
2.8980002 0.77407616 0.80502629 0
2.8980002 0.76957023 0.80502629 0
2.8990002 0.76538897 0.80518681 0
2.9000001 0.76120412 0.80534732 0
2.9020002 0.7573368 0.80566841 0
2.9040003 0.75346226 0.8059895 0
2.9060001 0.74958038 0.80631053 0
2.9090002 0.74600708 0.8067922 0
2.9130001 0.74273676 0.80743432 0
2.9180002 0.73976409 0.80823708 0
2.9230001 0.73677337 0.80903971 0
2.9290001 0.7340731 0.81000298 0
2.9370003 0.73196447 0.81128728 0
2.9480002 0.7307415 0.81305319 0
3.0170002 1.1671855 0.81940985 0
3.0190003 1.1633885 0.8197273 0
3.0210001 1.1595843 0.82004476 0
3.0220003 1.1553147 0.82020354 0
3.0240002 1.1514977 0.820521 0
3.0260003 1.1476737 0.82083845 0
3.0280001 1.1438423 0.82115591 0
2.8030002 1.0376377 0.7854405 0
2.7950003 1.0297101 0.78417063 0
2.7900002 1.0231532 0.78337693 0
2.7860003 1.0170599 0.78274202 0
2.7840002 1.0118685 0.78242457 0
2.7820003 1.0066844 0.78210711 0
2.7810001 1.0019475 0.78194833 0
2.7810001 0.99765277 0.78194833 0
2.7810001 0.9933579 0.78194833 0
2.7810001 0.98906291 0.78194833 0
2.7820003 0.98520112 0.78210711 0
2.7830002 0.98133552 0.78226578 0
2.7850003 0.97789574 0.7825833 0
2.7870002 0.97444856 0.78290075 0
2.7890003 0.97099423 0.78321826 0
2.7920003 0.96795678 0.78369445 0
2.7950003 0.96490824 0.78417063 0
2.7980001 0.96184897 0.78464687 0
2.8030002 0.95961583 0.7854405 0
2.8070002 0.95694804 0.78607547 0
2.8130002 0.95509553 0.78702784 0
2.8190002 0.95322144 0.78798032 0
2.8270001 0.95214808 0.78925014 0
2.8380003 0.95227438 0.79099625 0
2.8790002 0.96459079 0.79750443 0
2.8810003 0.96093082 0.79782188 0
2.8830001 0.95726371 0.79813933 0
2.8840003 0.95318717 0.79829806 0
2.8860002 0.94950736 0.79861552 0
2.8880002 0.94582033 0.79893303 0
2.8900001 0.9421261 0.79925048 0
2.8910003 0.93802977 0.79940921 0
2.8930001 0.93432283 0.79972667 0
2.8950002 0.93060887 0.80004418 0
2.8970003 0.92688763 0.80036163 0
2.8990002 0.92315912 0.80067909 0
2.9000001 0.91903734 0.80083781 0
2.9020002 0.91529632 0.80115533 0
2.9040003 0.91154796 0.80147278 0
2.9060001 0.90779239 0.80179024 0
2.9070003 0.90365094 0.80194896 0
2.9090002 0.89988279 0.80226648 0
2.9110003 0.89610738 0.80258393 0
2.9130001 0.89232475 0.80290139 0
2.9150002 0.88853502 0.80321884 0
2.9160001 0.88436824 0.80337757 0
2.9180002 0.8805657 0.80369508 0
2.9200003 0.87675619 0.80401254 0
2.9220002 0.87293923 0.80432999 0
2.9240003 0.86911523 0.80464745 0
2.9250002 0.86492318 0.80480623 0
2.9270003 0.86108649 0.80512369 0
2.9290001 0.85724252 0.80544114 0
2.9310002 0.85339141 0.8057586 0
2.9330003 0.84953308 0.80607611 0
2.9340003 0.84531575 0.80623484 0
2.9360001 0.84144473 0.80655229 0
2.9380002 0.83756655 0.80686975 0
2.9400003 0.83368123 0.80718726 0
2.9420002 0.82978857 0.80750465 0
2.9210002 0.8180061 0.80417126 0
2.9120002 0.81039041 0.8027426 0
2.9060001 0.80382454 0.80179024 0
2.9030001 0.79829228 0.801314 0
2.9000001 0.7927708 0.80083781 0
2.8980002 0.7875939 0.8005203 0
2.8960001 0.78242415 0.80020285 0
2.8960001 0.77792186 0.80020285 0
2.8950002 0.77309126 0.80004418 0
2.8960001 0.7689172 0.80020285 0
2.8960001 0.76441491 0.80020285 0
2.8970003 0.76023555 0.80036163 0
2.8990002 0.75637358 0.80067909 0
2.9010003 0.75250441 0.80099654 0
2.9040003 0.74894553 0.80147278 0
2.9070003 0.74537581 0.80194896 0
2.9100003 0.74179524 0.80242521 0
2.9150002 0.73882794 0.80321884 0
2.9200003 0.73584265 0.80401254 0
2.9260001 0.73314774 0.8049649 0
2.9340003 0.73104453 0.80623484 0
2.9440002 0.72952211 0.80782217 0
3.0170002 1.1671855 0.81468928 0
3.0190003 1.1633885 0.81500316 0
3.0210001 1.1595843 0.81531698 0
3.0220003 1.1553147 0.81547391 0
3.0240002 1.1514977 0.81578779 0
3.0260003 1.1476737 0.81610167 0
3.0280001 1.1438423 0.81641549 0
2.8010001 1.0367359 0.78079212 0
2.7920003 1.0283626 0.77937973 0
2.7870002 1.0218111 0.77859509 0
2.7840002 1.0161688 0.77812427 0
2.7810001 1.0105374 0.77765346 0
2.7800002 1.0058006 0.77749658 0
2.7790003 1.0010675 0.77733964 0
2.7780001 0.99633777 0.7771827 0
2.7780001 0.99204826 0.7771827 0
2.7790003 0.98819363 0.77733964 0
2.7800002 0.98433518 0.77749658 0
2.7810001 0.98047328 0.77765346 0
2.7820003 0.9766078 0.77781045 0
2.7840002 0.97316599 0.77812427 0
2.7870002 0.97014296 0.77859509 0
2.7890003 0.96668506 0.77890897 0
2.7920003 0.963642 0.77937973 0
2.7960002 0.96100843 0.78000748 0
2.8000002 0.95836043 0.78063512 0
2.8050003 0.95611477 0.78141987 0
2.8100002 0.95385092 0.78220451 0
2.8160002 0.9519822 0.78314608 0
2.8240001 0.95091426 0.78440154 0
2.8350003 0.95104605 0.78612781 0
2.8790002 0.96459079 0.79303277 0
2.8810003 0.96093082 0.79334664 0
2.8830001 0.95726371 0.7936604 0
2.8840003 0.95318717 0.7938174 0
2.8860002 0.94950736 0.79413128 0
2.8880002 0.94582033 0.79444516 0
2.8900001 0.9421261 0.79475898 0
2.8910003 0.93802977 0.79491591 0
2.8930001 0.93432283 0.79522979 0
2.8950002 0.93060887 0.79554367 0
2.8970003 0.92688763 0.79585755 0
2.8990002 0.92315912 0.79617137 0
2.9000001 0.91903734 0.79632831 0
2.9020002 0.91529632 0.79664218 0
2.9040003 0.91154796 0.79695606 0
2.9060001 0.90779239 0.79726988 0
2.9070003 0.90365094 0.79742682 0
2.9090002 0.89988279 0.7977407 0
2.9110003 0.89610738 0.79805458 0
2.9130001 0.89232475 0.79836839 0
2.9150002 0.88853502 0.79868227 0
2.9160001 0.88436824 0.79883921 0
2.9180002 0.8805657 0.79915309 0
2.9200003 0.87675619 0.79946697 0
2.9220002 0.87293923 0.79978079 0
2.9240003 0.86911523 0.80009466 0
2.9250002 0.86492318 0.8002516 0
2.9270003 0.86108649 0.80056548 0
2.9290001 0.85724252 0.8008793 0
2.9310002 0.85339141 0.80119318 0
2.9330003 0.84953308 0.80150706 0
2.9340003 0.84531575 0.80166399 0
2.9360001 0.84144473 0.80197781 0
2.9380002 0.83756655 0.80229169 0
2.9400003 0.83368123 0.80260557 0
2.9420002 0.82978857 0.80291939 0
2.9190001 0.81732064 0.79930997 0
2.9100003 0.8097086 0.79789764 0
2.9040003 0.80314636 0.79695606 0
2.9000001 0.79728031 0.79632831 0
2.8970003 0.79176432 0.79585755 0
2.8950002 0.78659278 0.79554367 0
2.8940003 0.78176039 0.79538673 0
2.8930001 0.77693152 0.79522979 0
2.8930001 0.77243465 0.79522979 0
2.8930001 0.76793778 0.79522979 0
2.8930001 0.76344085 0.79522979 0
2.8950002 0.75958973 0.79554367 0
2.8960001 0.75541031 0.79570055 0
2.8980002 0.75154662 0.79601443 0
2.9010003 0.74799311 0.79648525 0
2.9040003 0.74442881 0.79695606 0
2.9070003 0.74085367 0.79742682 0
2.9120002 0.73789173 0.79821146 0
2.9170003 0.73491192 0.79899615 0
2.9230001 0.73222238 0.79993773 0
2.9300003 0.72981793 0.80103624 0
2.9410002 0.72860754 0.80276251 0
3.0170002 1.1671855 0.80996871 0
3.0190003 1.1633885 0.81027901 0
3.0210001 1.1595843 0.81058919 0
3.0220003 1.1553147 0.81074435 0
3.0240002 1.1514977 0.81105459 0
3.0260003 1.1476737 0.81136489 0
3.0280001 1.1438423 0.81167507 0
2.7980001 1.035383 0.77599573 0
2.7900002 1.0274644 0.77475476 0
2.7850003 1.0209165 0.77397913 0
2.7810001 1.0148321 0.77335858 0
2.7790003 1.00965 0.77304834 0
2.7770002 1.0044749 0.7727381 0
2.7760003 0.99974704 0.77258301 0
2.7760003 0.99546123 0.77258301 0
2.7760003 0.99117541 0.77258301 0
2.7760003 0.98688948 0.77258301 0
2.7770002 0.98303652 0.7727381 0
2.7780001 0.97917986 0.77289319 0
2.7800002 0.97574914 0.77320349 0
2.7820003 0.97231114 0.77351379 0
2.7840002 0.96886575 0.77382398 0
2.7870002 0.96583712 0.77428937 0
2.7900002 0.96279776 0.77475476 0
2.7930002 0.95974755 0.77522016 0
2.7980001 0.95752335 0.77599573 0
2.8020003 0.95486474 0.77661633 0
2.8080003 0.95302117 0.77754706 0
2.8140001 0.95115602 0.77847779 0
2.8220003 0.95009184 0.77971888 0
2.8320003 0.9498176 0.78127015 0
2.8590002 0.95643759 0.78545856 0
2.8810003 0.96093082 0.78887141 0
2.8830001 0.95726371 0.78918159 0
2.8840003 0.95318717 0.7893368 0
2.8860002 0.94950736 0.78964698 0
2.8880002 0.94582033 0.78995728 0
2.8900001 0.9421261 0.79026747 0
2.8910003 0.93802977 0.79042268 0
2.8930001 0.93432283 0.79073286 0
2.8950002 0.93060887 0.79104316 0
2.8970003 0.92688763 0.7913534 0
2.8990002 0.92315912 0.79166365 0
2.9000001 0.91903734 0.79181874 0
2.9020002 0.91529632 0.79212904 0
2.9040003 0.91154796 0.79243928 0
2.9060001 0.90779239 0.79274952 0
2.9070003 0.90365094 0.79290473 0
2.9090002 0.89988279 0.79321492 0
2.9110003 0.89610738 0.79352522 0
2.9130001 0.89232475 0.7938354 0
2.9150002 0.88853502 0.7941457 0
2.9160001 0.88436824 0.79430079 0
2.9180002 0.8805657 0.7946111 0
2.9200003 0.87675619 0.79492134 0
2.9220002 0.87293923 0.79523158 0
2.9240003 0.86911523 0.79554188 0
2.9250002 0.86492318 0.79569697 0
2.9270003 0.86108649 0.79600728 0
2.9290001 0.85724252 0.79631746 0
2.9310002 0.85339141 0.79662776 0
2.9330003 0.84953308 0.796938 0
2.9340003 0.84531575 0.79709315 0
2.9360001 0.84144473 0.79740334 0
2.9380002 0.83756655 0.79771364 0
2.9400003 0.83368123 0.79802394 0
2.9420002 0.82978857 0.79833412 0
2.9170003 0.81663525 0.79445601 0
2.9080002 0.80902672 0.79305983 0
2.9020002 0.80246806 0.79212904 0
2.8980002 0.79660577 0.79150856 0
2.8950002 0.79109329 0.79104316 0
2.8930001 0.78592539 0.79073286 0
2.8910003 0.7807647 0.79042268 0
2.8910003 0.7762714 0.79042268 0
2.8900001 0.77144974 0.79026747 0
2.8900001 0.7669583 0.79026747 0
2.8910003 0.76279157 0.79042268 0
2.8920002 0.75862116 0.79057777 0
2.8940003 0.75476819 0.79088807 0
2.8950002 0.75058877 0.79104316 0
2.8980002 0.74704063 0.79150856 0
2.9010003 0.74348176 0.79197395 0
2.9040003 0.73991209 0.79243928 0
2.9080002 0.73664355 0.79305983 0
2.9140003 0.73398113 0.79399061 0
2.9200003 0.73129708 0.79492134 0
2.9270003 0.72889799 0.79600728 0
2.9370003 0.7273882 0.79755855 0
3.0170002 1.1671855 0.80524814 0
3.0190003 1.1633885 0.80555481 0
3.0210001 1.1595843 0.80586141 0
3.0220003 1.1553147 0.80601478 0
3.0240002 1.1514977 0.80632138 0
3.0260003 1.1476737 0.80662805 0
3.0280001 1.1438423 0.80693471 0
2.7960002 1.0344812 0.77136362 0
2.7870002 1.0261168 0.76998365 0
2.7820003 1.0195744 0.76921707 0
2.7790003 1.0139412 0.7687571 0
2.7770002 1.0087624 0.7684505 0
2.7750001 1.0035908 0.76814377 0
2.7740002 0.9988668 0.76799047 0
2.7730002 0.99414623 0.76783717 0
2.7740002 0.99030221 0.76799047 0
2.7740002 0.98601997 0.76799047 0
2.7750001 0.98217058 0.76814377 0
2.7760003 0.97831774 0.76829708 0
2.7770002 0.9744612 0.7684505 0
2.7790003 0.97102857 0.7687571 0
2.7820003 0.96801448 0.76921707 0
2.7840002 0.9645654 0.76952374 0
2.7870002 0.96153152 0.76998365 0
2.7910001 0.95890701 0.77059698 0
2.7950003 0.95626807 0.77121031 0
2.7990003 0.95361465 0.77182353 0
2.8050003 0.9517765 0.77274352 0
2.8110001 0.94991678 0.7736634 0
2.8190002 0.94885796 0.77489007 0
2.8290002 0.94858927 0.77642328 0
2.8810003 0.96093082 0.78439611 0
2.8830001 0.95726371 0.78470278 0
2.8840003 0.95318717 0.78485608 0
2.8860002 0.94950736 0.78516269 0
2.8880002 0.94582033 0.78546941 0
2.8900001 0.9421261 0.78577602 0
2.8910003 0.93802977 0.78592932 0
2.8930001 0.93432283 0.78623599 0
2.8950002 0.93060887 0.78654265 0
2.8970003 0.92688763 0.78684932 0
2.8990002 0.92315912 0.78715593 0
2.9000001 0.91903734 0.78730929 0
2.9020002 0.91529632 0.7876159 0
2.9040003 0.91154796 0.78792256 0
2.9060001 0.90779239 0.78822923 0
2.9070003 0.90365094 0.78838253 0
2.9090002 0.89988279 0.78868914 0
2.9110003 0.89610738 0.78899586 0
2.9130001 0.89232475 0.78930247 0
2.9150002 0.88853502 0.78960907 0
2.9160001 0.88436824 0.78976244 0
2.9180002 0.8805657 0.7900691 0
2.9200003 0.87675619 0.79037571 0
2.9220002 0.87293923 0.79068238 0
2.9240003 0.86911523 0.79098904 0
2.9250002 0.86492318 0.79114234 0
2.9270003 0.86108649 0.79144901 0
2.9290001 0.85724252 0.79175562 0
2.9310002 0.85339141 0.79206228 0
2.9330003 0.84953308 0.79236901 0
2.9340003 0.84531575 0.79252231 0
2.9360001 0.84144473 0.79282892 0
2.9380002 0.83756655 0.79313552 0
2.9400003 0.83368123 0.79344225 0
2.9420002 0.82978857 0.79374886 0
2.9150002 0.81594974 0.78960907 0
2.9050002 0.80800396 0.78807586 0
2.9000001 0.80178982 0.78730929 0
2.8960001 0.7959311 0.78669596 0
2.8920002 0.79008675 0.78608263 0
2.8900001 0.78492421 0.78577602 0
2.8890002 0.78010088 0.78562272 0
2.8880002 0.77528107 0.78546941 0
2.8870003 0.77046496 0.78531611 0
2.8880002 0.76630539 0.78546941 0
2.8880002 0.76181751 0.78546941 0
2.8890002 0.75765246 0.78562272 0
2.8910003 0.75380498 0.78592932 0
2.8930001 0.74995023 0.78623599 0
2.8950002 0.74608827 0.78654265 0
2.8980002 0.74253476 0.78700262 0
2.9020002 0.73928428 0.7876159 0
2.9050002 0.73570734 0.78807586 0
2.9110003 0.73305035 0.78899586 0
2.9160001 0.7300632 0.78976244 0
2.9240003 0.72797805 0.79098904 0
2.9330003 0.72616881 0.79236901 0
3.0170002 1.1671855 0.80052757 0
3.0190003 1.1633885 0.8008306 0
3.0210001 1.1595843 0.80113363 0
3.0220003 1.1553147 0.80128515 0
3.0240002 1.1514977 0.80158818 0
3.0260003 1.1476737 0.80189127 0
3.0280001 1.1438423 0.80219424 0
2.7930002 1.0331284 0.76658714 0
2.7850003 1.0252186 0.76537502 0
2.7800002 1.0186799 0.76461732 0
2.7760003 1.0126046 0.76401126 0
2.7740002 1.0074313 0.76370823 0
2.7720003 1.0022652 0.7634052 0
2.7720003 0.99798656 0.7634052 0
2.7710001 0.99326944 0.76325369 0
2.7710001 0.98899257 0.76325369 0
2.7720003 0.98515058 0.7634052 0
2.7720003 0.98087192 0.7634052 0
2.7730002 0.97702444 0.76355672 0
2.7750001 0.97360253 0.76385975 0
2.7770002 0.97017348 0.76416278 0
2.7790003 0.96673727 0.76446581 0
2.7820003 0.9637177 0.76492041 0
2.7850003 0.96068728 0.76537502 0
2.7880001 0.95764601 0.7658295 0
2.7920003 0.95501256 0.76643562 0
2.7970002 0.95278126 0.7671932 0
2.8020003 0.9505319 0.76795077 0
2.8080003 0.94867766 0.76885992 0
2.8160002 0.94762415 0.7700721 0
2.8260002 0.94736081 0.77158725 0
2.8810003 0.96093082 0.77992088 0
2.8830001 0.95726371 0.78022391 0
2.8840003 0.95318717 0.78037548 0
2.8860002 0.94950736 0.78067845 0
2.8880002 0.94582033 0.78098154 0
2.8900001 0.9421261 0.78128457 0
2.8910003 0.93802977 0.78143609 0
2.8930001 0.93432283 0.78173912 0
2.8950002 0.93060887 0.78204215 0
2.8970003 0.92688763 0.78234518 0
2.8990002 0.92315912 0.78264821 0
2.9000001 0.91903734 0.78279972 0
2.9020002 0.91529632 0.78310275 0
2.9040003 0.91154796 0.78340584 0
2.9060001 0.90779239 0.78370881 0
2.9070003 0.90365094 0.78386039 0
2.9090002 0.89988279 0.78416342 0
2.9110003 0.89610738 0.78446651 0
2.9130001 0.89232475 0.78476948 0
2.9150002 0.88853502 0.78507257 0
2.9160001 0.88436824 0.78522408 0
2.9180002 0.8805657 0.78552711 0
2.9200003 0.87675619 0.78583014 0
2.9220002 0.87293923 0.78613317 0
2.9240003 0.86911523 0.7864362 0
2.9250002 0.86492318 0.78658772 0
2.9270003 0.86108649 0.7868908 0
2.9290001 0.85724252 0.78719378 0
2.9310002 0.85339141 0.78749681 0
2.9330003 0.84953308 0.78779995 0
2.9340003 0.84531575 0.78795147 0
2.9360001 0.84144473 0.78825444 0
2.9380002 0.83756655 0.78855753 0
2.9400003 0.83368123 0.78886056 0
2.9420002 0.82978857 0.78916359 0
2.9140003 0.81560707 0.78492105 0
2.9030001 0.80732214 0.78325427 0
2.8980002 0.80111164 0.78249669 0
2.8930001 0.79491913 0.78173912 0
2.8900001 0.78941572 0.78128457 0
2.8880002 0.78425688 0.78098154 0
2.8860002 0.77910513 0.78067845 0
2.8860002 0.77462089 0.78067845 0
2.8850002 0.76980835 0.78052694 0
2.8850002 0.7653259 0.78052694 0
2.8860002 0.76116806 0.78067845 0
2.8870003 0.75700676 0.78083003 0
2.8880002 0.75284171 0.78098154 0
2.8900001 0.74899238 0.78128457 0
2.8920002 0.74513584 0.7815876 0
2.8950002 0.74158776 0.78204215 0
2.8990002 0.7383427 0.78264821 0
2.9020002 0.73477113 0.78310275 0
2.9080002 0.73211962 0.7840119 0
2.9130001 0.72913784 0.78476948 0
2.9200003 0.72675145 0.78583014 0
2.9300003 0.7252543 0.78734535 0
3.0170002 1.1671855 0.795807 0
3.0190003 1.1633885 0.79610646 0
3.0210001 1.1595843 0.79640585 0
3.0220003 1.1553147 0.79655564 0
3.0240002 1.1514977 0.79685497 0
3.0260003 1.1476737 0.79715443 0
3.0280001 1.1438423 0.79745388 0
2.7910001 1.0322263 0.76197112 0
2.7830002 1.0243202 0.76077342 0
2.7780001 1.0177851 0.76002485 0
2.7740002 1.0117134 0.759426 0
2.7720003 1.0065438 0.75912654 0
2.7700002 1.0013813 0.75882709 0
2.7690003 0.99666619 0.75867742 0
2.7690003 0.9923929 0.75867742 0
2.7690003 0.98811972 0.75867742 0
2.7690003 0.98384655 0.75867742 0
2.7700002 0.9800061 0.75882709 0
2.7710001 0.9761622 0.75897682 0
2.7720003 0.97231472 0.75912654 0
2.7740002 0.96889102 0.759426 0
2.7770002 0.965886 0.75987512 0
2.7790003 0.96244609 0.76017463 0
2.7820003 0.95942116 0.76062375 0
2.7860003 0.95680559 0.7612226 0
2.7900002 0.95417559 0.76182145 0
2.7940001 0.95153123 0.7624203 0
2.8000002 0.94970208 0.76331866 0
2.8060002 0.94785148 0.7642169 0
