# .PCD v0.7 - Point Cloud Data file format
VERSION 0.7
FIELDS x y z intensity
SIZE 4 4 4 4
TYPE F F F F
COUNT 1 1 1 1
WIDTH 1506
HEIGHT 1
VIEWPOINT 0 0 0 1 0 0 0
POINTS 1506
DATA ascii
5.0330005 1.4248397 1.6909848 0
5.0380001 1.4180609 1.6923736 0
5.0440001 1.4115781 1.6940404 0
5.0490003 1.4047614 1.6954293 0
5.0550003 1.3982371 1.6970961 0
5.0610003 1.3916911 1.6987628 0
5.0660005 1.3848169 1.7001518 0
5.0720005 1.3782293 1.7018185 0
5.0770001 1.371317 1.7032073 0
5.0830002 1.364688 1.704874 0
5.0880003 1.3577379 1.7062629 0
5.0940003 1.3510674 1.7079297 0
5.1000004 1.3443754 1.7095965 0
5.1050005 1.3373675 1.7109854 0
5.1110005 1.330634 1.7126522 0
5.1170001 1.3238786 1.7143188 0
5.1220002 1.3168131 1.7157077 0
5.1280003 1.3100164 1.7173744 0
5.1340003 1.3031981 1.7190411 0
5.1390004 1.2960749 1.7204301 0
5.1450005 1.289215 1.7220968 0
5.1510005 1.2823335 1.7237636 0
5.1570005 1.2754303 1.7254304 0
5.1620002 1.2682294 1.7268192 0
5.1680002 1.2612847 1.7284859 0
5.1740003 1.2543185 1.7301526 0
5.1800003 1.2473305 1.7318194 0
5.1860003 1.2403209 1.7334862 0
5.1910005 1.2330227 1.7348751 0
5.1970005 1.2259717 1.7365417 0
5.2030005 1.2188989 1.7382085 0
4.3640003 2.2349446 1.4979953 0
4.368 2.2300885 1.4990991 0
4.3720002 2.2252181 1.5002031 0
4.3759999 2.2203333 1.501307 0
4.3800001 2.2154343 1.5024111 0
4.3840003 2.2105207 1.5035149 0
4.388 2.2055926 1.5046189 0
4.3920002 2.2006502 1.5057228 0
4.3960004 2.1956935 1.5068268 0
4.4000001 2.190722 1.5079306 0
4.4040003 2.1857364 1.5090345 0
4.4080005 2.1807363 1.5101386 0
4.4130001 2.1762753 1.5115185 0
4.4170003 2.1712446 1.5126224 0
4.4210005 2.1661997 1.5137264 0
4.4250002 2.1611395 1.5148302 0
4.4290004 2.1560657 1.5159342 0
4.4330001 2.1509769 1.5170381 0
4.4370003 2.1458743 1.518142 0
4.4410005 2.1407566 1.5192461 0
4.4460001 2.1361642 1.5206258 0
4.4500003 2.131016 1.5217298 0
4.4540005 2.1258538 1.5228338 0
4.4580002 2.1206765 1.5239377 0
4.4620004 2.1154854 1.5250416 0
4.4670005 2.11081 1.5264215 0
4.4710002 2.1055877 1.5275254 0
4.4750004 2.1003513 1.5286294 0
4.4790001 2.0951004 1.5297332 0
4.4840002 2.0903583 1.5311131 0
4.4880004 2.0850768 1.5322171 0
4.4920001 2.0797806 1.533321 0
4.4960003 2.0744703 1.534425 0
4.5010004 2.0696616 1.535805 0
4.5050001 2.0643203 1.5369089 0
4.5090003 2.0589647 1.5380127 0
4.5130005 2.0535951 1.5391167 0
4.5180001 2.0487192 1.5404966 0
4.5220003 2.0433187 1.5416006 0
4.5260005 2.0379038 1.5427046 0
4.5310001 2.0329773 1.5440844 0
4.5350003 2.0275316 1.5451883 0
4.5390005 2.0220718 1.5462924 0
4.5440001 2.0170949 1.5476722 0
4.5480003 2.0116041 1.5487761 0
4.5530005 2.0065932 1.5501561 0
4.5570002 2.0010715 1.5512599 0
4.5610003 1.9955359 1.552364 0
4.5660005 1.9904742 1.5537438 0
4.5700002 1.9849076 1.5548477 0
4.5750003 1.9798119 1.5562277 0
4.5790005 1.9742148 1.5573317 0
4.5840001 1.9690847 1.5587114 0
4.5880003 1.9634569 1.5598154 0
4.5930004 1.9582927 1.5611954 0
4.5970001 1.952634 1.5622993 0
4.6020002 1.9474353 1.5636791 0
4.6060004 1.9417461 1.5647832 0
4.6110001 1.9365133 1.5661631 0
4.6150002 1.9307934 1.5672669 0
4.6200004 1.9255264 1.5686469 0
4.6240001 1.9197757 1.5697507 0
4.6290002 1.9144744 1.5711306 0
4.6330004 1.9086932 1.5722346 0
4.6380005 1.9033575 1.5736146 0
4.6420002 1.8975456 1.5747185 0
4.6470003 1.8921758 1.5760983 0
4.6520004 1.8867877 1.5774783 0
4.6560001 1.8809289 1.5785823 0
4.6610003 1.8755066 1.5799621 0
4.6650004 1.8696173 1.5810661 0
4.6700001 1.8641607 1.582446 0
4.6750002 1.8586862 1.5838258 0
4.6790004 1.8527498 1.5849299 0
4.6840005 1.847241 1.5863099 0
4.6890001 1.841714 1.5876896 0
4.6930003 1.835731 1.5887936 0
4.6980004 1.8301699 1.5901736 0
4.7030001 1.8245904 1.5915533 0
4.7080002 1.8189934 1.5929333 0
4.7120004 1.8129472 1.5940373 0
4.7170005 1.8073156 1.5954171 0
4.7220001 1.8016659 1.596797 0
4.7270002 1.7959985 1.598177 0
4.7310004 1.7898891 1.599281 0
4.7360005 1.7841872 1.6006609 0
4.7410002 1.7784672 1.6020408 0
4.7460003 1.7727293 1.6034207 0
4.7510004 1.7669734 1.6048007 0
4.7550001 1.7607845 1.6059045 0
4.7600002 1.7549942 1.6072844 0
4.7650003 1.749186 1.6086644 0
4.7700005 1.7433598 1.6100442 0
4.7750001 1.7375153 1.6114241 0
4.7800002 1.731653 1.6128041 0
4.7850003 1.7257726 1.614184 0
4.7890005 1.7194719 1.615288 0
4.7940001 1.7135571 1.6166677 0
4.7990003 1.7076244 1.6180477 0
4.8040004 1.7016737 1.6194278 0
4.8090005 1.6957051 1.6208076 0
4.8140001 1.689718 1.6221874 0
4.8190002 1.6837132 1.6235673 0
4.8240004 1.6776903 1.6249474 0
4.8290005 1.6716495 1.6263274 0
4.8340001 1.6655902 1.627707 0
4.8390002 1.6595132 1.629087 0
4.8440003 1.6534183 1.6304669 0
4.8490005 1.6473051 1.631847 0
4.8540001 1.641174 1.6332268 0
4.8590002 1.6350248 1.6346066 0
4.8640003 1.6288575 1.6359866 0
4.8690004 1.6226723 1.6373667 0
4.8750005 1.6168407 1.6390225 0
4.8800001 1.6106174 1.6404023 0
4.8850002 1.6043762 1.6417823 0
4.8900003 1.5981171 1.6431621 0
4.8950005 1.5918398 1.6445421 0
4.9000001 1.5855445 1.6459219 0
4.9050002 1.5792311 1.6473019 0
4.9110003 1.5732588 1.6489578 0
4.9160004 1.5669075 1.6503378 0
4.9210005 1.5605384 1.6517177 0
4.9260001 1.5541511 1.6530975 0
4.9310002 1.5477457 1.6544775 0
4.9370003 1.5416723 1.6561333 0
4.9420004 1.5352292 1.6575133 0
4.9470005 1.5287679 1.6588932 0
4.9520001 1.5222886 1.6602731 0
4.9580002 1.5161339 1.661929 0
4.9630003 1.5096169 1.663309 0
4.9680004 1.5030817 1.6646888 0
4.9740005 1.4968657 1.6663448 0
4.9790001 1.4902925 1.6677245 0
4.9840002 1.4837016 1.6691045 0
4.9900002 1.4774243 1.6707604 0
4.9950004 1.4707954 1.6721404 0
5.0000005 1.4641483 1.6735203 0
5.0060005 1.4578098 1.6751763 0
5.0110002 1.4511247 1.6765561 0
5.0170002 1.4447446 1.6782119 0
5.0220003 1.4380219 1.6795919 0
5.0280004 1.4316003 1.6812478 0
5.0330005 1.4248397 1.6826278 0
5.0380001 1.4180609 1.6840075 0
5.0440001 1.4115781 1.6856635 0
5.0490003 1.4047614 1.6870433 0
5.0550003 1.3982371 1.6886994 0
5.0610003 1.3916911 1.6903553 0
5.0660005 1.3848169 1.6917351 0
5.0720005 1.3782293 1.6933911 0
5.0770001 1.371317 1.6947708 0
5.0830002 1.364688 1.6964269 0
5.0880003 1.3577379 1.6978067 0
5.0940003 1.3510674 1.6994627 0
5.1000004 1.3443754 1.7011186 0
5.1050005 1.3373675 1.7024984 0
5.1110005 1.330634 1.7041545 0
5.1170001 1.3238786 1.7058102 0
5.1220002 1.3168131 1.7071902 0
5.1280003 1.3100164 1.7088461 0
5.1340003 1.3031981 1.7105019 0
5.1390004 1.2960749 1.711882 0
5.1450005 1.289215 1.7135378 0
5.1510005 1.2823335 1.7151937 0
5.1570005 1.2754303 1.7168496 0
5.1620002 1.2682294 1.7182294 0
5.1680002 1.2612847 1.7198853 0
5.1740003 1.2543185 1.7215412 0
5.1800003 1.2473305 1.7231971 0
5.1860003 1.2403209 1.724853 0
5.1910005 1.2330227 1.726233 0
5.1970005 1.2259717 1.7278888 0
5.2030005 1.2188989 1.7295449 0
4.3640003 2.2349446 1.490845 0
4.368 2.2300885 1.4919418 0
4.3720002 2.2252181 1.4930384 0
4.3759999 2.2203333 1.4941351 0
4.3800001 2.2154343 1.4952319 0
4.3840003 2.2105207 1.4963286 0
4.388 2.2055926 1.4974253 0
4.3920002 2.2006502 1.4985219 0
4.3960004 2.1956935 1.4996188 0
4.4000001 2.190722 1.5007154 0
4.4040003 2.1857364 1.5018122 0
4.4080005 2.1807363 1.5029089 0
4.4130001 2.1762753 1.5042797 0
4.4170003 2.1712446 1.5053766 0
4.4210005 2.1661997 1.5064733 0
4.4250002 2.1611395 1.5075698 0
4.4290004 2.1560657 1.5086666 0
4.4330001 2.1509769 1.5097632 0
4.4370003 2.1458743 1.5108601 0
4.4410005 2.1407566 1.5119568 0
4.4460001 2.1361642 1.5133276 0
4.4500003 2.131016 1.5144244 0
4.4540005 2.1258538 1.5155212 0
4.4580002 2.1206765 1.5166179 0
4.4620004 2.1154854 1.5177146 0
4.4670005 2.11081 1.5190855 0
4.4710002 2.1055877 1.5201821 0
4.4750004 2.1003513 1.5212789 0
4.4790001 2.0951004 1.5223755 0
4.4840002 2.0903583 1.5237464 0
4.4880004 2.0850768 1.5248432 0
4.4920001 2.0797806 1.5259398 0
4.4960003 2.0744703 1.5270367 0
4.5010004 2.0696616 1.5284076 0
4.5050001 2.0643203 1.5295042 0
4.5090003 2.0589647 1.530601 0
4.5130005 2.0535951 1.5316978 0
4.5180001 2.0487192 1.5330685 0
4.5220003 2.0433187 1.5341653 0
4.5260005 2.0379038 1.535262 0
4.5310001 2.0329773 1.5366328 0
4.5350003 2.0275316 1.5377296 0
4.5390005 2.0220718 1.5388263 0
4.5440001 2.0170949 1.5401971 0
4.5480003 2.0116041 1.541294 0
4.5530005 2.0065932 1.5426649 0
4.5570002 2.0010715 1.5437615 0
4.5610003 1.9955359 1.5448582 0
4.5660005 1.9904742 1.5462292 0
4.5700002 1.9849076 1.5473258 0
4.5750003 1.9798119 1.5486968 0
4.5790005 1.9742148 1.5497935 0
4.5840001 1.9690847 1.5511644 0
4.5880003 1.9634569 1.5522611 0
4.5930004 1.9582927 1.553632 0
4.5970001 1.952634 1.5547286 0
4.6020002 1.9474353 1.5560997 0
4.6060004 1.9417461 1.5571964 0
4.6110001 1.9365133 1.5585672 0
4.6150002 1.9307934 1.5596639 0
4.6200004 1.9255264 1.5610348 0
4.6240001 1.9197757 1.5621314 0
4.6290002 1.9144744 1.5635023 0
4.6330004 1.9086932 1.564599 0
4.6380005 1.9033575 1.5659701 0
4.6420002 1.8975456 1.5670667 0
4.6470003 1.8921758 1.5684376 0
4.6520004 1.8867877 1.5698086 0
4.6560001 1.8809289 1.5709052 0
4.6610003 1.8755066 1.5722761 0
4.6650004 1.8696173 1.5733728 0
4.6700001 1.8641607 1.5747436 0
4.6750002 1.8586862 1.5761145 0
4.6790004 1.8527498 1.5772114 0
4.6840005 1.847241 1.5785824 0
4.6890001 1.841714 1.5799531 0
4.6930003 1.835731 1.5810498 0
4.6980004 1.8301699 1.5824207 0
4.7030001 1.8245904 1.5837915 0
4.7080002 1.8189934 1.5851625 0
4.7120004 1.8129472 1.5862594 0
4.7170005 1.8073156 1.5876303 0
4.7220001 1.8016659 1.5890011 0
4.7270002 1.7959985 1.590372 0
4.7310004 1.7898891 1.5914687 0
4.7360005 1.7841872 1.5928396 0
4.7410002 1.7784672 1.5942104 0
4.7460003 1.7727293 1.5955813 0
4.7510004 1.7669734 1.5969523 0
4.7550001 1.7607845 1.5980489 0
4.7600002 1.7549942 1.5994198 0
4.7650003 1.749186 1.6007907 0
4.7700005 1.7433598 1.6021616 0
4.7750001 1.7375153 1.6035324 0
4.7800002 1.731653 1.6049033 0
4.7850003 1.7257726 1.6062742 0
4.7890005 1.7194719 1.6073711 0
4.7940001 1.7135571 1.6087419 0
4.7990003 1.7076244 1.6101128 0
4.8040004 1.7016737 1.6114837 0
4.8090005 1.6957051 1.6128547 0
4.8140001 1.689718 1.6142254 0
4.8190002 1.6837132 1.6155964 0
4.8240004 1.6776903 1.6169673 0
4.8290005 1.6716495 1.6183382 0
4.8340001 1.6655902 1.619709 0
4.8390002 1.6595132 1.6210799 0
4.8440003 1.6534183 1.6224508 0
4.8490005 1.6473051 1.6238217 0
4.8540001 1.641174 1.6251925 0
4.8590002 1.6350248 1.6265635 0
4.8640003 1.6288575 1.6279345 0
4.8690004 1.6226723 1.6293054 0
4.8750005 1.6168407 1.6309505 0
4.8800001 1.6106174 1.6323212 0
4.8850002 1.6043762 1.6336921 0
4.8900003 1.5981171 1.6350631 0
4.8950005 1.5918398 1.636434 0
4.9000001 1.5855445 1.6378049 0
4.9050002 1.5792311 1.6391758 0
4.9110003 1.5732588 1.6408207 0
4.9160004 1.5669075 1.6421918 0
4.9210005 1.5605384 1.6435627 0
4.9260001 1.5541511 1.6449335 0
4.9310002 1.5477457 1.6463044 0
4.9370003 1.5416723 1.6479495 0
4.9420004 1.5352292 1.6493204 0
4.9470005 1.5287679 1.6506913 0
4.9520001 1.5222886 1.6520621 0
4.9580002 1.5161339 1.6537073 0
4.9630003 1.5096169 1.6550782 0
4.9680004 1.5030817 1.6564491 0
4.9740005 1.4968657 1.6580942 0
4.9790001 1.4902925 1.659465 0
4.9840002 1.4837016 1.6608359 0
4.9900002 1.4774243 1.662481 0
4.9950004 1.4707954 1.663852 0
5.0000005 1.4641483 1.6652229 0
5.0060005 1.4578098 1.6668679 0
5.0110002 1.4511247 1.6682386 0
5.0170002 1.4447446 1.6698837 0
5.0220003 1.4380219 1.6712546 0
5.0280004 1.4316003 1.6728998 0
5.0330005 1.4248397 1.6742707 0
5.0380001 1.4180609 1.6756415 0
5.0440001 1.4115781 1.6772866 0
5.0490003 1.4047614 1.6786575 0
5.0550003 1.3982371 1.6803026 0
5.0610003 1.3916911 1.6819477 0
5.0660005 1.3848169 1.6833186 0
5.0720005 1.3782293 1.6849637 0
5.0770001 1.371317 1.6863345 0
5.0830002 1.364688 1.6879796 0
5.0880003 1.3577379 1.6893505 0
5.0940003 1.3510674 1.6909956 0
5.1000004 1.3443754 1.6926407 0
5.1050005 1.3373675 1.6940116 0
5.1110005 1.330634 1.6956567 0
5.1170001 1.3238786 1.6973016 0
5.1220002 1.3168131 1.6986725 0
5.1280003 1.3100164 1.7003176 0
5.1340003 1.3031981 1.7019627 0
5.1390004 1.2960749 1.7033336 0
5.1450005 1.289215 1.7049787 0
5.1510005 1.2823335 1.7066238 0
5.1570005 1.2754303 1.7082689 0
5.1620002 1.2682294 1.7096398 0
5.1680002 1.2612847 1.7112848 0
5.1740003 1.2543185 1.7129298 0
5.1800003 1.2473305 1.7145751 0
5.1860003 1.2403209 1.71622 0
5.1910005 1.2330227 1.7175909 0
5.1970005 1.2259717 1.719236 0
5.2030005 1.2188989 1.7208812 0
4.3640003 2.2349446 1.4836947 0
4.368 2.2300885 1.4847842 0
4.3720002 2.2252181 1.4858737 0
4.3759999 2.2203333 1.4869633 0
4.3800001 2.2154343 1.4880527 0
4.3840003 2.2105207 1.4891423 0
4.388 2.2055926 1.4902318 0
4.3920002 2.2006502 1.4913212 0
4.3960004 2.1956935 1.4924108 0
4.4000001 2.190722 1.4935001 0
4.4040003 2.1857364 1.4945897 0
4.4080005 2.1807363 1.4956793 0
4.4130001 2.1762753 1.4970411 0
4.4170003 2.1712446 1.4981306 0
4.4210005 2.1661997 1.4992201 0
4.4250002 2.1611395 1.5003096 0
4.4290004 2.1560657 1.501399 0
4.4330001 2.1509769 1.5024885 0
4.4370003 2.1458743 1.5035781 0
4.4410005 2.1407566 1.5046676 0
4.4460001 2.1361642 1.5060294 0
4.4500003 2.131016 1.5071191 0
4.4540005 2.1258538 1.5082085 0
4.4580002 2.1206765 1.509298 0
4.4620004 2.1154854 1.5103875 0
4.4670005 2.11081 1.5117494 0
4.4710002 2.1055877 1.5128388 0
4.4750004 2.1003513 1.5139284 0
4.4790001 2.0951004 1.5150179 0
4.4840002 2.0903583 1.5163797 0
4.4880004 2.0850768 1.5174692 0
4.4920001 2.0797806 1.5185587 0
4.4960003 2.0744703 1.5196482 0
4.5010004 2.0696616 1.5210102 0
4.5050001 2.0643203 1.5220995 0
4.5090003 2.0589647 1.5231891 0
4.5130005 2.0535951 1.5242786 0
4.5180001 2.0487192 1.5256404 0
4.5220003 2.0433187 1.5267301 0
4.5260005 2.0379038 1.5278195 0
4.5310001 2.0329773 1.5291814 0
4.5350003 2.0275316 1.5302708 0
4.5390005 2.0220718 1.5313604 0
4.5440001 2.0170949 1.5327222 0
4.5480003 2.0116041 1.5338117 0
4.5530005 2.0065932 1.5351735 0
4.5570002 2.0010715 1.5362631 0
4.5610003 1.9955359 1.5373526 0
4.5660005 1.9904742 1.5387145 0
4.5700002 1.9849076 1.5398039 0
4.5750003 1.9798119 1.5411658 0
4.5790005 1.9742148 1.5422554 0
4.5840001 1.9690847 1.5436171 0
4.5880003 1.9634569 1.5447067 0
4.5930004 1.9582927 1.5460687 0
4.5970001 1.952634 1.547158 0
4.6020002 1.9474353 1.54852 0
4.6060004 1.9417461 1.5496095 0
4.6110001 1.9365133 1.5509714 0
4.6150002 1.9307934 1.5520608 0
4.6200004 1.9255264 1.5534227 0
4.6240001 1.9197757 1.5545121 0
4.6290002 1.9144744 1.5558741 0
4.6330004 1.9086932 1.5569637 0
4.6380005 1.9033575 1.5583255 0
4.6420002 1.8975456 1.5594149 0
4.6470003 1.8921758 1.5607769 0
4.6520004 1.8867877 1.5621388 0
4.6560001 1.8809289 1.5632281 0
4.6610003 1.8755066 1.5645901 0
4.6650004 1.8696173 1.5656797 0
4.6700001 1.8641607 1.5670415 0
4.6750002 1.8586862 1.5684034 0
4.6790004 1.8527498 1.5694928 0
4.6840005 1.847241 1.5708548 0
4.6890001 1.841714 1.5722165 0
4.6930003 1.835731 1.5733061 0
4.6980004 1.8301699 1.574668 0
4.7030001 1.8245904 1.5760298 0
4.7080002 1.8189934 1.5773916 0
4.7120004 1.8129472 1.5784813 0
4.7170005 1.8073156 1.5798432 0
4.7220001 1.8016659 1.5812049 0
4.7270002 1.7959985 1.5825669 0
4.7310004 1.7898891 1.5836564 0
4.7360005 1.7841872 1.5850183 0
4.7410002 1.7784672 1.5863801 0
4.7460003 1.7727293 1.587742 0
4.7510004 1.7669734 1.5891038 0
4.7550001 1.7607845 1.5901933 0
4.7600002 1.7549942 1.5915552 0
4.7650003 1.749186 1.5929171 0
4.7700005 1.7433598 1.5942791 0
4.7750001 1.7375153 1.5956408 0
4.7800002 1.731653 1.5970026 0
4.7850003 1.7257726 1.5983646 0
4.7890005 1.7194719 1.5994542 0
4.7940001 1.7135571 1.600816 0
4.7990003 1.7076244 1.6021779 0
4.8040004 1.7016737 1.6035397 0
4.8090005 1.6957051 1.6049017 0
4.8140001 1.689718 1.6062634 0
4.8190002 1.6837132 1.6076254 0
4.8240004 1.6776903 1.6089872 0
4.8290005 1.6716495 1.6103492 0
4.8340001 1.6655902 1.6117109 0
4.8390002 1.6595132 1.6130728 0
4.8440003 1.6534183 1.6144348 0
4.8490005 1.6473051 1.6157967 0
4.8540001 1.641174 1.6171584 0
4.8590002 1.6350248 1.6185204 0
4.8640003 1.6288575 1.6198822 0
4.8690004 1.6226723 1.6212441 0
4.8750005 1.6168407 1.6228783 0
4.8800001 1.6106174 1.6242402 0
4.8850002 1.6043762 1.6256021 0
4.8900003 1.5981171 1.626964 0
4.8950005 1.5918398 1.6283259 0
4.9000001 1.5855445 1.6296877 0
4.9050002 1.5792311 1.6310495 0
4.9110003 1.5732588 1.6326839 0
4.9160004 1.5669075 1.6340457 0
4.9210005 1.5605384 1.6354077 0
4.9260001 1.5541511 1.6367695 0
4.9310002 1.5477457 1.6381314 0
4.9370003 1.5416723 1.6397656 0
4.9420004 1.5352292 1.6411275 0
4.9470005 1.5287679 1.6424894 0
4.9520001 1.5222886 1.6438512 0
4.9580002 1.5161339 1.6454854 0
4.9630003 1.5096169 1.6468472 0
4.9680004 1.5030817 1.6482093 0
4.9740005 1.4968657 1.6498436 0
4.9790001 1.4902925 1.6512053 0
4.9840002 1.4837016 1.6525673 0
4.9900002 1.4774243 1.6542015 0
4.9950004 1.4707954 1.6555634 0
5.0000005 1.4641483 1.6569252 0
5.0060005 1.4578098 1.6585596 0
5.0110002 1.4511247 1.6599213 0
5.0170002 1.4447446 1.6615555 0
5.0220003 1.4380219 1.6629175 0
5.0280004 1.4316003 1.6645519 0
5.0330005 1.4248397 1.6659137 0
5.0380001 1.4180609 1.6672754 0
5.0440001 1.4115781 1.6689097 0
5.0490003 1.4047614 1.6702716 0
5.0550003 1.3982371 1.6719059 0
5.0610003 1.3916911 1.6735401 0
5.0660005 1.3848169 1.674902 0
5.0720005 1.3782293 1.6765363 0
5.0770001 1.371317 1.677898 0
5.0830002 1.364688 1.6795323 0
5.0880003 1.3577379 1.6808941 0
5.0940003 1.3510674 1.6825286 0
5.1000004 1.3443754 1.6841629 0
5.1050005 1.3373675 1.6855247 0
5.1110005 1.330634 1.6871589 0
5.1170001 1.3238786 1.6887931 0
5.1220002 1.3168131 1.690155 0
5.1280003 1.3100164 1.6917893 0
5.1340003 1.3031981 1.6934235 0
5.1390004 1.2960749 1.6947854 0
5.1450005 1.289215 1.6964197 0
5.1510005 1.2823335 1.698054 0
5.1570005 1.2754303 1.6996882 0
5.1620002 1.2682294 1.7010499 0
5.1680002 1.2612847 1.7026842 0
5.1740003 1.2543185 1.7043185 0
5.1800003 1.2473305 1.7059528 0
5.1860003 1.2403209 1.707587 0
5.1910005 1.2330227 1.7089489 0
5.1970005 1.2259717 1.7105831 0
5.2030005 1.2188989 1.7122175 0
4.3640003 2.2349446 1.4765444 0
4.368 2.2300885 1.4776267 0
4.3720002 2.2252181 1.478709 0
4.3759999 2.2203333 1.4797913 0
4.3800001 2.2154343 1.4808736 0
4.3840003 2.2105207 1.4819559 0
4.388 2.2055926 1.4830381 0
4.3920002 2.2006502 1.4841204 0
4.3960004 2.1956935 1.4852027 0
4.4000001 2.190722 1.486285 0
4.4040003 2.1857364 1.4873673 0
4.4080005 2.1807363 1.4884497 0
4.4130001 2.1762753 1.4898024 0
4.4170003 2.1712446 1.4908848 0
4.4210005 2.1661997 1.4919671 0
4.4250002 2.1611395 1.4930493 0
4.4290004 2.1560657 1.4941316 0
4.4330001 2.1509769 1.4952137 0
4.4370003 2.1458743 1.4962962 0
4.4410005 2.1407566 1.4973783 0
4.4460001 2.1361642 1.4987313 0
4.4500003 2.131016 1.4998134 0
4.4540005 2.1258538 1.5008959 0
4.4580002 2.1206765 1.501978 0
4.4620004 2.1154854 1.5030605 0
4.4670005 2.11081 1.5044132 0
4.4710002 2.1055877 1.5054955 0
4.4750004 2.1003513 1.5065778 0
4.4790001 2.0951004 1.50766 0
4.4830003 2.0898352 1.5087423 0
4.4880004 2.0850768 1.5100954 0
4.4920001 2.0797806 1.5111774 0
4.4960003 2.0744703 1.5122598 0
4.5010004 2.0696616 1.5136126 0
4.5050001 2.0643203 1.5146949 0
4.5090003 2.0589647 1.5157772 0
4.5130005 2.0535951 1.5168597 0
4.5180001 2.0487192 1.5182123 0
4.5220003 2.0433187 1.5192947 0
4.5260005 2.0379038 1.520377 0
4.5310001 2.0329773 1.5217298 0
4.5350003 2.0275316 1.5228121 0
4.5390005 2.0220718 1.5238944 0
4.5440001 2.0170949 1.5252472 0
4.5480003 2.0116041 1.5263295 0
4.5530005 2.0065932 1.5276824 0
4.5570002 2.0010715 1.5287646 0
4.5610003 1.9955359 1.5298469 0
4.5660005 1.9904742 1.5311998 0
4.5700002 1.9849076 1.532282 0
4.5750003 1.9798119 1.5336349 0
4.5790005 1.9742148 1.5347172 0
4.5840001 1.9690847 1.53607 0
4.5880003 1.9634569 1.5371523 0
4.5930004 1.9582927 1.5385053 0
4.5970001 1.952634 1.5395875 0
4.6020002 1.9474353 1.5409404 0
4.6060004 1.9417461 1.5420227 0
4.6110001 1.9365133 1.5433755 0
4.6150002 1.9307934 1.5444578 0
4.6200004 1.9255264 1.5458107 0
4.6240001 1.9197757 1.5468929 0
4.6290002 1.9144744 1.5482458 0
4.6330004 1.9086932 1.5493281 0
4.6380005 1.9033575 1.550681 0
4.6420002 1.8975456 1.5517632 0
4.6470003 1.8921758 1.5531161 0
4.6520004 1.8867877 1.554469 0
4.6560001 1.8809289 1.5555512 0
4.6610003 1.8755066 1.5569041 0
4.6650004 1.8696173 1.5579864 0
4.6700001 1.8641607 1.5593392 0
4.6750002 1.8586862 1.5606921 0
4.6790004 1.8527498 1.5617744 0
4.6840005 1.847241 1.5631273 0
4.6890001 1.841714 1.5644799 0
4.6930003 1.835731 1.5655624 0
4.6980004 1.8301699 1.5669153 0
4.7030001 1.8245904 1.5682681 0
4.7080002 1.8189934 1.5696208 0
4.7120004 1.8129472 1.5707033 0
4.7170005 1.8073156 1.5720561 0
4.7220001 1.8016659 1.5734088 0
4.7270002 1.7959985 1.5747619 0
4.7310004 1.7898891 1.575844 0
4.7360005 1.7841872 1.5771971 0
4.7410002 1.7784672 1.5785497 0
4.7460003 1.7727293 1.5799026 0
4.7510004 1.7669734 1.5812554 0
4.7550001 1.7607845 1.5823377 0
4.7600002 1.7549942 1.5836905 0
4.7650003 1.749186 1.5850435 0
4.7700005 1.7433598 1.5863963 0
4.7750001 1.7375153 1.5877491 0
4.7800002 1.731653 1.589102 0
4.7850003 1.7257726 1.5904549 0
4.7890005 1.7194719 1.5915372 0
4.7940001 1.7135571 1.59289 0
4.7990003 1.7076244 1.5942429 0
4.8040004 1.7016737 1.5955957 0
4.8090005 1.6957051 1.5969486 0
4.8140001 1.689718 1.5983014 0
4.8190002 1.6837132 1.5996543 0
4.8240004 1.6776903 1.6010072 0
4.8290005 1.6716495 1.60236 0
4.8340001 1.6655902 1.6037128 0
4.8390002 1.6595132 1.6050658 0
4.8440003 1.6534183 1.6064186 0
4.8490005 1.6473051 1.6077715 0
4.8540001 1.641174 1.6091242 0
4.8590002 1.6350248 1.6104772 0
4.8640003 1.6288575 1.61183 0
4.8690004 1.6226723 1.6131829 0
4.8750005 1.6168407 1.6148064 0
4.8800001 1.6106174 1.6161591 0
4.8850002 1.6043762 1.617512 0
4.8900003 1.5981171 1.6188649 0
4.8950005 1.5918398 1.6202178 0
4.9000001 1.5855445 1.6215706 0
4.9050002 1.5792311 1.6229234 0
4.9110003 1.5732588 1.6245469 0
4.9160004 1.5669075 1.6258997 0
4.9210005 1.5605384 1.6272527 0
4.9260001 1.5541511 1.6286055 0
4.9310002 1.5477457 1.6299583 0
4.9370003 1.5416723 1.6315818 0
4.9420004 1.5352292 1.6329346 0
4.9470005 1.5287679 1.6342875 0
4.9520001 1.5222886 1.6356403 0
4.9580002 1.5161339 1.6372637 0
4.9630003 1.5096169 1.6386166 0
4.9680004 1.5030817 1.6399695 0
4.9740005 1.4968657 1.6415929 0
4.9790001 1.4902925 1.6429456 0
4.9840002 1.4837016 1.6442986 0
4.9900002 1.4774243 1.6459219 0
4.9950004 1.4707954 1.647275 0
5.0000005 1.4641483 1.6486278 0
5.0060005 1.4578098 1.6502513 0
5.0110002 1.4511247 1.6516039 0
5.0170002 1.4447446 1.6532273 0
5.0220003 1.4380219 1.6545804 0
5.0280004 1.4316003 1.6562036 0
5.0330005 1.4248397 1.6575567 0
5.0380001 1.4180609 1.6589094 0
5.0440001 1.4115781 1.6605328 0
5.0490003 1.4047614 1.6618857 0
5.0550003 1.3982371 1.6635092 0
5.0610003 1.3916911 1.6651325 0
5.0660005 1.3848169 1.6664854 0
5.0720005 1.3782293 1.6681089 0
5.0770001 1.371317 1.6694616 0
5.0830002 1.364688 1.6710851 0
5.0880003 1.3577379 1.6724379 0
5.0940003 1.3510674 1.6740614 0
5.1000004 1.3443754 1.6756849 0
5.1050005 1.3373675 1.6770377 0
5.1110005 1.330634 1.6786612 0
5.1170001 1.3238786 1.6802845 0
5.1220002 1.3168131 1.6816374 0
5.1280003 1.3100164 1.6832608 0
5.1340003 1.3031981 1.6848843 0
5.1390004 1.2960749 1.6862371 0
5.1450005 1.289215 1.6878606 0
5.1510005 1.2823335 1.6894841 0
5.1570005 1.2754303 1.6911074 0
5.1620002 1.2682294 1.6924602 0
5.1680002 1.2612847 1.6940837 0
5.1740003 1.2543185 1.6957071 0
5.1800003 1.2473305 1.6973306 0
5.1860003 1.2403209 1.698954 0
5.1910005 1.2330227 1.7003068 0
5.1970005 1.2259717 1.7019303 0
5.2030005 1.2188989 1.7035538 0
4.3640003 2.2349446 1.4693942 0
4.368 2.2300885 1.4704692 0
4.3720002 2.2252181 1.4715443 0
4.3759999 2.2203333 1.4726193 0
4.3800001 2.2154343 1.4736944 0
4.3840003 2.2105207 1.4747695 0
4.388 2.2055926 1.4758445 0
4.3920002 2.2006502 1.4769197 0
4.3960004 2.1956935 1.4779947 0
4.4000001 2.190722 1.4790697 0
4.4040003 2.1857364 1.4801447 0
4.4080005 2.1807363 1.48122 0
4.4130001 2.1762753 1.4825637 0
4.4170003 2.1712446 1.4836388 0
4.4210005 2.1661997 1.4847139 0
4.4250002 2.1611395 1.4857889 0
4.4290004 2.1560657 1.4868641 0
4.4330001 2.1509769 1.487939 0
4.4370003 2.1458743 1.4890141 0
4.4410005 2.1407566 1.4900893 0
4.4460001 2.1361642 1.491433 0
4.4500003 2.131016 1.4925081 0
4.4540005 2.1258538 1.4935833 0
4.4580002 2.1206765 1.4946582 0
4.4620004 2.1154854 1.4957334 0
4.4670005 2.11081 1.4970772 0
4.4710002 2.1055877 1.4981523 0
4.4750004 2.1003513 1.4992273 0
4.4790001 2.0951004 1.5003023 0
4.4830003 2.0898352 1.5013773 0
4.4880004 2.0850768 1.5027213 0
4.4920001 2.0797806 1.5037963 0
4.4960003 2.0744703 1.5048714 0
4.5010004 2.0696616 1.5062153 0
4.5050001 2.0643203 1.5072904 0
4.5090003 2.0589647 1.5083654 0
4.5130005 2.0535951 1.5094405 0
4.5180001 2.0487192 1.5107843 0
4.5220003 2.0433187 1.5118594 0
4.5260005 2.0379038 1.5129344 0
4.5310001 2.0329773 1.5142782 0
4.5350003 2.0275316 1.5153534 0
4.5390005 2.0220718 1.5164285 0
4.5440001 2.0170949 1.5177722 0
4.5480003 2.0116041 1.5188473 0
4.5530005 2.0065932 1.5201912 0
4.5570002 2.0010715 1.5212662 0
4.5610003 1.9955359 1.5223413 0
4.5660005 1.9904742 1.5236852 0
4.5700002 1.9849076 1.5247602 0
4.5750003 1.9798119 1.526104 0
4.5790005 1.9742148 1.5271792 0
4.5840001 1.9690847 1.528523 0
4.5880003 1.9634569 1.529598 0
4.5930004 1.9582927 1.5309418 0
4.5970001 1.952634 1.5320169 0
4.6020002 1.9474353 1.5333607 0
4.6060004 1.9417461 1.5344359 0
4.6110001 1.9365133 1.5357796 0
4.6150002 1.9307934 1.5368547 0
4.6200004 1.9255264 1.5381986 0
4.6240001 1.9197757 1.5392735 0
4.6290002 1.9144744 1.5406175 0
4.6330004 1.9086932 1.5416926 0
4.6380005 1.9033575 1.5430365 0
4.6420002 1.8975456 1.5441115 0
4.6470003 1.8921758 1.5454553 0
4.6520004 1.8867877 1.5467992 0
4.6560001 1.8809289 1.5478741 0
4.6610003 1.8755066 1.5492181 0
4.6650004 1.8696173 1.5502932 0
4.6700001 1.8641607 1.5516368 0
4.6750002 1.8586862 1.5529808 0
4.6790004 1.8527498 1.5540559 0
4.6840005 1.847241 1.5553998 0
4.6890001 1.841714 1.5567435 0
4.6930003 1.835731 1.5578187 0
4.6980004 1.8301699 1.5591625 0
4.7030001 1.8245904 1.5605062 0
4.7080002 1.8189934 1.5618501 0
4.7120004 1.8129472 1.5629252 0
4.7170005 1.8073156 1.5642691 0
4.7220001 1.8016659 1.5656129 0
4.7270002 1.7959985 1.5669566 0
4.7310004 1.7898891 1.5680318 0
4.7360005 1.7841872 1.5693758 0
4.7410002 1.7784672 1.5707195 0
4.7460003 1.7727293 1.5720632 0
4.7510004 1.7669734 1.5734072 0
4.7550001 1.7607845 1.5744822 0
4.7600002 1.7549942 1.575826 0
4.7650003 1.749186 1.5771698 0
4.7700005 1.7433598 1.5785137 0
4.7750001 1.7375153 1.5798575 0
4.7800002 1.731653 1.5812013 0
4.7850003 1.7257726 1.5825453 0
4.7890005 1.7194719 1.5836203 0
4.7940001 1.7135571 1.584964 0
4.7990003 1.7076244 1.586308 0
4.8040004 1.7016737 1.5876518 0
4.8090005 1.6957051 1.5889957 0
4.8140001 1.689718 1.5903394 0
4.8190002 1.6837132 1.5916833 0
4.8240004 1.6776903 1.5930271 0
4.8290005 1.6716495 1.5943711 0
4.8340001 1.6655902 1.5957148 0
4.8390002 1.6595132 1.5970587 0
4.8440003 1.6534183 1.5984025 0
4.8490005 1.6473051 1.5997463 0
4.8540001 1.641174 1.6010901 0
4.8590002 1.6350248 1.6024339 0
4.8640003 1.6288575 1.6037779 0
4.8690004 1.6226723 1.6051217 0
4.8750005 1.6168407 1.6067344 0
4.8800001 1.6106174 1.6080781 0
4.8850002 1.6043762 1.609422 0
4.8900003 1.5981171 1.6107657 0
4.8950005 1.5918398 1.6121097 0
4.9000001 1.5855445 1.6134534 0
4.9050002 1.5792311 1.6147972 0
4.9110003 1.5732588 1.6164099 0
4.9160004 1.5669075 1.6177537 0
4.9210005 1.5605384 1.6190976 0
4.9260001 1.5541511 1.6204414 0
4.9310002 1.5477457 1.6217853 0
4.9370003 1.5416723 1.6233978 0
4.9420004 1.5352292 1.6247418 0
4.9470005 1.5287679 1.6260855 0
4.9520001 1.5222886 1.6274292 0
4.9580002 1.5161339 1.6290419 0
4.9630003 1.5096169 1.6303858 0
4.9680004 1.5030817 1.6317296 0
4.9740005 1.4968657 1.6333423 0
4.9790001 1.4902925 1.634686 0
4.9840002 1.4837016 1.6360298 0
4.9900002 1.4774243 1.6376425 0
4.9950004 1.4707954 1.6389863 0
5.0000005 1.4641483 1.6403303 0
5.0060005 1.4578098 1.6419429 0
5.0110002 1.4511247 1.6432866 0
5.0170002 1.4447446 1.6448992 0
5.0220003 1.4380219 1.6462431 0
5.0280004 1.4316003 1.6478556 0
5.0330005 1.4248397 1.6491996 0
5.0380001 1.4180609 1.6505433 0
5.0440001 1.4115781 1.6521559 0
5.0490003 1.4047614 1.6534998 0
5.0550003 1.3982371 1.6551124 0
5.0610003 1.3916911 1.6567249 0
5.0660005 1.3848169 1.6580689 0
5.0720005 1.3782293 1.6596814 0
5.0770001 1.371317 1.6610252 0
5.0830002 1.364688 1.6626379 0
5.0880003 1.3577379 1.6639817 0
5.0940003 1.3510674 1.6655943 0
5.1000004 1.3443754 1.667207 0
5.1050005 1.3373675 1.6685508 0
5.1110005 1.330634 1.6701635 0
5.1170001 1.3238786 1.6717759 0
5.1220002 1.3168131 1.6731198 0
5.1280003 1.3100164 1.6747324 0
5.1340003 1.3031981 1.676345 0
5.1390004 1.2960749 1.6776888 0
5.1450005 1.289215 1.6793015 0
5.1510005 1.2823335 1.6809142 0
5.1570005 1.2754303 1.6825268 0
5.1620002 1.2682294 1.6838706 0
5.1680002 1.2612847 1.6854831 0
5.1740003 1.2543185 1.6870958 0
5.1800003 1.2473305 1.6887083 0
5.1860003 1.2403209 1.690321 0
5.1910005 1.2330227 1.6916648 0
5.1970005 1.2259717 1.6932775 0
5.2030005 1.2188989 1.6948901 0
4.3640003 2.2349446 1.4622439 0
4.368 2.2300885 1.4633117 0
4.3720002 2.2252181 1.4643795 0
4.3759999 2.2203333 1.4654473 0
4.3800001 2.2154343 1.4665153 0
4.3840003 2.2105207 1.4675831 0
4.388 2.2055926 1.4686509 0
4.3920002 2.2006502 1.4697188 0
4.3960004 2.1956935 1.4707867 0
4.4000001 2.190722 1.4718544 0
4.4040003 2.1857364 1.4729224 0
4.4080005 2.1807363 1.4739903 0
4.4130001 2.1762753 1.475325 0
4.4170003 2.1712446 1.476393 0
4.4210005 2.1661997 1.4774607 0
4.4250002 2.1611395 1.4785286 0
4.4290004 2.1560657 1.4795965 0
4.4330001 2.1509769 1.4806643 0
4.4370003 2.1458743 1.4817321 0
4.4410005 2.1407566 1.4828001 0
4.4460001 2.1361642 1.4841348 0
4.4500003 2.131016 1.4852027 0
4.4540005 2.1258538 1.4862707 0
4.4580002 2.1206765 1.4873383 0
4.4620004 2.1154854 1.4884063 0
4.4670005 2.11081 1.4897412 0
4.4710002 2.1055877 1.4908088 0
4.4750004 2.1003513 1.4918768 0
4.4790001 2.0951004 1.4929446 0
4.4830003 2.0898352 1.4940126 0
4.4880004 2.0850768 1.4953474 0
4.4920001 2.0797806 1.4964151 0
4.4960003 2.0744703 1.497483 0
4.5010004 2.0696616 1.4988179 0
4.5050001 2.0643203 1.4998856 0
4.5090003 2.0589647 1.5009536 0
4.5130005 2.0535951 1.5020214 0
4.5180001 2.0487192 1.5033561 0
4.5220003 2.0433187 1.5044241 0
4.5260005 2.0379038 1.505492 0
4.5310001 2.0329773 1.5068268 0
4.5350003 2.0275316 1.5078946 0
4.5390005 2.0220718 1.5089625 0
4.5440001 2.0170949 1.5102973 0
4.5480003 2.0116041 1.5113652 0
4.5530005 2.0065932 1.5127 0
4.5570002 2.0010715 1.5137678 0
4.5610003 1.9955359 1.5148357 0
4.5660005 1.9904742 1.5161705 0
4.5700002 1.9849076 1.5172384 0
4.5750003 1.9798119 1.5185732 0
4.5790005 1.9742148 1.519641 0
4.5840001 1.9690847 1.5209757 0
4.5880003 1.9634569 1.5220437 0
4.5930004 1.9582927 1.5233785 0
4.5970001 1.952634 1.5244462 0
4.6020002 1.9474353 1.5257812 0
4.6060004 1.9417461 1.526849 0
4.6110001 1.9365133 1.5281837 0
4.6150002 1.9307934 1.5292517 0
4.6200004 1.9255264 1.5305866 0
4.6240001 1.9197757 1.5316542 0
4.6290002 1.9144744 1.5329891 0
4.6330004 1.9086932 1.5340571 0
4.6380005 1.9033575 1.5353919 0
4.6420002 1.8975456 1.5364597 0
4.6470003 1.8921758 1.5377946 0
4.6520004 1.8867877 1.5391294 0
4.6560001 1.8809289 1.5401971 0
4.6610003 1.8755066 1.541532 0
4.6650004 1.8696173 1.5425999 0
4.6700001 1.8641607 1.5439347 0
4.6750002 1.8586862 1.5452695 0
4.6790004 1.8527498 1.5463374 0
4.6840005 1.847241 1.5476722 0
4.6890001 1.841714 1.5490071 0
4.6930003 1.835731 1.5500748 0
4.6980004 1.8301699 1.5514097 0
4.7030001 1.8245904 1.5527444 0
4.7080002 1.8189934 1.5540792 0
4.7120004 1.8129472 1.5551472 0
4.7170005 1.8073156 1.5564821 0
4.7220001 1.8016659 1.5578167 0
4.7270002 1.7959985 1.5591515 0
4.7310004 1.7898891 1.5602195 0
4.7360005 1.7841872 1.5615544 0
4.7410002 1.7784672 1.5628891 0
4.7460003 1.7727293 1.5642239 0
4.7510004 1.7669734 1.5655588 0
4.7550001 1.7607845 1.5666265 0
4.7600002 1.7549942 1.5679615 0
4.7650003 1.749186 1.5692962 0
4.7700005 1.7433598 1.5706311 0
4.7750001 1.7375153 1.5719658 0
4.7800002 1.731653 1.5733006 0
4.7850003 1.7257726 1.5746355 0
4.7890005 1.7194719 1.5757035 0
4.7940001 1.7135571 1.5770382 0
4.7990003 1.7076244 1.578373 0
4.8040004 1.7016737 1.5797079 0
4.8090005 1.6957051 1.5810426 0
4.8140001 1.689718 1.5823774 0
4.8190002 1.6837132 1.5837122 0
4.8240004 1.6776903 1.585047 0
4.8290005 1.6716495 1.586382 0
4.8340001 1.6655902 1.5877167 0
4.8390002 1.6595132 1.5890516 0
4.8440003 1.6534183 1.5903864 0
4.8490005 1.6473051 1.5917212 0
4.8540001 1.641174 1.593056 0
4.8590002 1.6350248 1.5943907 0
4.8640003 1.6288575 1.5957257 0
4.8690004 1.6226723 1.5970604 0
4.8750005 1.6168407 1.5986623 0
4.8800001 1.6106174 1.5999969 0
4.8850002 1.6043762 1.6013318 0
4.8900003 1.5981171 1.6026666 0
4.8950005 1.5918398 1.6040015 0
4.9000001 1.5855445 1.6053363 0
4.9050002 1.5792311 1.6066711 0
4.9110003 1.5732588 1.6082729 0
4.9160004 1.5669075 1.6096078 0
4.9210005 1.5605384 1.6109426 0
4.9260001 1.5541511 1.6122774 0
4.9310002 1.5477457 1.6136122 0
4.9370003 1.5416723 1.615214 0
4.9420004 1.5352292 1.6165489 0
4.9470005 1.5287679 1.6178837 0
4.9520001 1.5222886 1.6192183 0
4.9580002 1.5161339 1.6208202 0
4.9630003 1.5096169 1.6221551 0
4.9680004 1.5030817 1.6234899 0
4.9740005 1.4968657 1.6250917 0
4.9790001 1.4902925 1.6264265 0
4.9840002 1.4837016 1.6277612 0
4.9900002 1.4774243 1.6293631 0
4.9950004 1.4707954 1.630698 0
5.0000005 1.4641483 1.6320328 0
5.0060005 1.4578098 1.6336344 0
5.0110002 1.4511247 1.6349692 0
5.0170002 1.4447446 1.636571 0
5.0220003 1.4380219 1.6379058 0
5.0280004 1.4316003 1.6395077 0
5.0330005 1.4248397 1.6408426 0
5.0380001 1.4180609 1.6421772 0
5.0440001 1.4115781 1.643779 0
5.0490003 1.4047614 1.6451138 0
5.0550003 1.3982371 1.6467156 0
5.0610003 1.3916911 1.6483176 0
5.0660005 1.3848169 1.6496524 0
5.0720005 1.3782293 1.6512541 0
5.0770001 1.371317 1.6525888 0
5.0830002 1.364688 1.6541905 0
5.0880003 1.3577379 1.6555254 0
5.0940003 1.3510674 1.6571273 0
5.1000004 1.3443754 1.6587291 0
5.1050005 1.3373675 1.660064 0
5.1110005 1.330634 1.6616658 0
5.1170001 1.3238786 1.6632674 0
5.1220002 1.3168131 1.6646023 0
5.1280003 1.3100164 1.666204 0
5.1340003 1.3031981 1.6678058 0
5.1390004 1.2960749 1.6691407 0
5.1450005 1.289215 1.6707425 0
5.1510005 1.2823335 1.6723442 0
5.1570005 1.2754303 1.673946 0
5.1620002 1.2682294 1.6752807 0
5.1680002 1.2612847 1.6768825 0
5.1740003 1.2543185 1.6784843 0
5.1800003 1.2473305 1.6800861 0
5.1860003 1.2403209 1.681688 0
5.1910005 1.2330227 1.6830227 0
5.1970005 1.2259717 1.6846246 0
5.2030005 1.2188989 1.6862264 0
4.3640003 2.2349446 1.4550935 0
4.368 2.2300885 1.4561541 0
4.3720002 2.2252181 1.4572148 0
4.3759999 2.2203333 1.4582753 0
4.3800001 2.2154343 1.4593362 0
4.3840003 2.2105207 1.4603966 0
4.388 2.2055926 1.4614574 0
4.3920002 2.2006502 1.462518 0
4.3960004 2.1956935 1.4635787 0
4.4000001 2.190722 1.4646392 0
4.4040003 2.1857364 1.4656999 0
4.4080005 2.1807363 1.4667605 0
4.4130001 2.1762753 1.4680864 0
4.4170003 2.1712446 1.469147 0
4.4210005 2.1661997 1.4702077 0
4.4250002 2.1611395 1.4712682 0
4.4290004 2.1560657 1.472329 0
4.4330001 2.1509769 1.4733895 0
4.4370003 2.1458743 1.4744502 0
4.4410005 2.1407566 1.4755108 0
4.4460001 2.1361642 1.4768367 0
4.4500003 2.131016 1.4778973 0
4.4540005 2.1258538 1.478958 0
4.4580002 2.1206765 1.4800185 0
4.4620004 2.1154854 1.4810792 0
4.4670005 2.11081 1.4824051 0
4.4710002 2.1055877 1.4834656 0
4.4750004 2.1003513 1.4845263 0
4.4790001 2.0951004 1.4855868 0
4.4830003 2.0898352 1.4866476 0
4.4880004 2.0850768 1.4879733 0
4.4920001 2.0797806 1.4890339 0
4.4960003 2.0744703 1.4900945 0
4.5010004 2.0696616 1.4914205 0
4.5050001 2.0643203 1.492481 0
4.5090003 2.0589647 1.4935417 0
4.5130005 2.0535951 1.4946024 0
4.5180001 2.0487192 1.495928 0
4.5220003 2.0433187 1.4969888 0
4.5260005 2.0379038 1.4980494 0
4.5310001 2.0329773 1.4993752 0
4.5350003 2.0275316 1.5004358 0
4.5390005 2.0220718 1.5014966 0
4.5440001 2.0170949 1.5028223 0
4.5480003 2.0116041 1.503883 0
4.5530005 2.0065932 1.5052087 0
4.5570002 2.0010715 1.5062693 0
4.5610003 1.9955359 1.5073301 0
4.5660005 1.9904742 1.5086558 0
4.5700002 1.9849076 1.5097164 0
4.5750003 1.9798119 1.5110422 0
4.5790005 1.9742148 1.512103 0
4.5840001 1.9690847 1.5134286 0
4.5880003 1.9634569 1.5144894 0
4.5930004 1.9582927 1.5158151 0
4.5970001 1.952634 1.5168757 0
4.6020002 1.9474353 1.5182016 0
4.6060004 1.9417461 1.5192622 0
4.6110001 1.9365133 1.5205879 0
4.6150002 1.9307934 1.5216486 0
4.6200004 1.9255264 1.5229745 0
4.6240001 1.9197757 1.524035 0
4.6290002 1.9144744 1.5253608 0
4.6330004 1.9086932 1.5264215 0
4.6380005 1.9033575 1.5277474 0
4.6420002 1.8975456 1.528808 0
4.6470003 1.8921758 1.5301337 0
4.6520004 1.8867877 1.5314596 0
4.6560001 1.8809289 1.5325202 0
4.6610003 1.8755066 1.5338459 0
4.6650004 1.8696173 1.5349067 0
4.6700001 1.8641607 1.5362324 0
4.6750002 1.8586862 1.5375582 0
4.6790004 1.8527498 1.5386189 0
4.6840005 1.847241 1.5399446 0
4.6890001 1.841714 1.5412705 0
4.6930003 1.835731 1.5423311 0
4.6980004 1.8301699 1.5436569 0
4.7030001 1.8245904 1.5449827 0
4.7080002 1.8189934 1.5463084 0
4.7120004 1.8129472 1.5473691 0
4.7170005 1.8073156 1.548695 0
4.7220001 1.8016659 1.5500207 0
4.7270002 1.7959985 1.5513465 0
4.7310004 1.7898891 1.5524073 0
4.7360005 1.7841872 1.5537331 0
4.7410002 1.7784672 1.5550587 0
4.7460003 1.7727293 1.5563846 0
4.7510004 1.7669734 1.5577104 0
4.7550001 1.7607845 1.558771 0
4.7600002 1.7549942 1.5600969 0
4.7650003 1.749186 1.5614226 0
4.7700005 1.7433598 1.5627486 0
4.7750001 1.7375153 1.5640742 0
4.7800002 1.731653 1.5654 0
4.7850003 1.7257726 1.5667259 0
4.7890005 1.7194719 1.5677865 0
4.7940001 1.7135571 1.5691123 0
4.7990003 1.7076244 1.570438 0
4.8040004 1.7016737 1.5717639 0
4.8090005 1.6957051 1.5730897 0
4.8140001 1.689718 1.5744154 0
4.8190002 1.6837132 1.5757412 0
4.8240004 1.6776903 1.5770671 0
4.8290005 1.6716495 1.5783929 0
4.8340001 1.6655902 1.5797186 0
4.8390002 1.6595132 1.5810444 0
4.8440003 1.6534183 1.5823703 0
4.8490005 1.6473051 1.5836961 0
4.8540001 1.641174 1.5850217 0
4.8590002 1.6350248 1.5863476 0
4.8640003 1.6288575 1.5876734 0
4.8690004 1.6226723 1.5889993 0
4.8750005 1.6168407 1.5905902 0
4.8800001 1.6106174 1.591916 0
4.8850002 1.6043762 1.5932418 0
4.8900003 1.5981171 1.5945675 0
4.8950005 1.5918398 1.5958935 0
4.9000001 1.5855445 1.5972191 0
4.9050002 1.5792311 1.5985451 0
4.9110003 1.5732588 1.6001359 0
4.9160004 1.5669075 1.6014618 0
4.9210005 1.5605384 1.6027875 0
4.9260001 1.5541511 1.6041133 0
4.9310002 1.5477457 1.6054391 0
4.9370003 1.5416723 1.60703 0
4.9420004 1.5352292 1.608356 0
4.9470005 1.5287679 1.6096817 0
4.9520001 1.5222886 1.6110075 0
4.9580002 1.5161339 1.6125984 0
4.9630003 1.5096169 1.6139243 0
4.9680004 1.5030817 1.6152501 0
4.9740005 1.4968657 1.6168411 0
4.9790001 1.4902925 1.6181667 0
4.9840002 1.4837016 1.6194927 0
4.9900002 1.4774243 1.6210836 0
4.9950004 1.4707954 1.6224093 0
5.0000005 1.4641483 1.6237352 0
5.0060005 1.4578098 1.6253263 0
5.0110002 1.4511247 1.6266519 0
5.0170002 1.4447446 1.6282429 0
5.0220003 1.4380219 1.6295687 0
5.0280004 1.4316003 1.6311597 0
5.0330005 1.4248397 1.6324854 0
5.0380001 1.4180609 1.6338112 0
5.0440001 1.4115781 1.6354022 0
5.0490003 1.4047614 1.6367279 0
5.0550003 1.3982371 1.638319 0
5.0610003 1.3916911 1.63991 0
5.0660005 1.3848169 1.6412357 0
5.0720005 1.3782293 1.6428267 0
5.0770001 1.371317 1.6441524 0
5.0830002 1.364688 1.6457434 0
5.0880003 1.3577379 1.6470692 0
5.0940003 1.3510674 1.6486603 0
5.1000004 1.3443754 1.6502512 0
5.1050005 1.3373675 1.651577 0
5.1110005 1.330634 1.653168 0
5.1170001 1.3238786 1.6547588 0
5.1220002 1.3168131 1.6560847 0
5.1280003 1.3100164 1.6576756 0
5.1340003 1.3031981 1.6592666 0
5.1390004 1.2960749 1.6605924 0
5.1450005 1.289215 1.6621834 0
5.1510005 1.2823335 1.6637743 0
5.1570005 1.2754303 1.6653653 0
5.1620002 1.2682294 1.6666911 0
5.1680002 1.2612847 1.6682819 0
5.1740003 1.2543185 1.669873 0
5.1800003 1.2473305 1.671464 0
5.1860003 1.2403209 1.6730549 0
5.1910005 1.2330227 1.6743807 0
5.1970005 1.2259717 1.6759717 0
5.2030005 1.2188989 1.6775627 0
4.3640003 2.2349446 1.4479432 0
4.368 2.2300885 1.4489967 0
4.3720002 2.2252181 1.45005 0
4.3759999 2.2203333 1.4511036 0
4.3800001 2.2154343 1.4521569 0
4.3840003 2.2105207 1.4532104 0
4.388 2.2055926 1.4542638 0
4.3920002 2.2006502 1.4553173 0
4.3960004 2.1956935 1.4563706 0
4.4000001 2.190722 1.457424 0
4.4040003 2.1857364 1.4584775 0
4.4080005 2.1807363 1.4595309 0
4.4130001 2.1762753 1.4608476 0
4.4170003 2.1712446 1.4619012 0
4.4210005 2.1661997 1.4629545 0
4.4250002 2.1611395 1.464008 0
4.4290004 2.1560657 1.4650614 0
4.4330001 2.1509769 1.4661148 0
4.4370003 2.1458743 1.4671682 0
4.4410005 2.1407566 1.4682218 0
4.4460001 2.1361642 1.4695383 0
4.4500003 2.131016 1.4705919 0
4.4540005 2.1258538 1.4716452 0
4.4580002 2.1206765 1.4726987 0
4.4620004 2.1154854 1.4737521 0
4.4670005 2.11081 1.4750689 0
4.4710002 2.1055877 1.4761224 0
4.4750004 2.1003513 1.4771757 0
4.4790001 2.0951004 1.4782292 0
4.4830003 2.0898352 1.4792826 0
4.4880004 2.0850768 1.4805994 0
4.4920001 2.0797806 1.4816527 0
4.4960003 2.0744703 1.4827063 0
4.5010004 2.0696616 1.484023 0
4.5050001 2.0643203 1.4850764 0
4.5090003 2.0589647 1.4861298 0
4.5130005 2.0535951 1.4871833 0
4.5180001 2.0487192 1.4885 0
4.5220003 2.0433187 1.4895535 0
4.5260005 2.0379038 1.4906069 0
4.5310001 2.0329773 1.4919236 0
4.5350003 2.0275316 1.4929771 0
4.5390005 2.0220718 1.4940306 0
4.5440001 2.0170949 1.4953473 0
4.5480003 2.0116041 1.4964007 0
4.5530005 2.0065932 1.4977176 0
4.5570002 2.0010715 1.4987708 0
4.5610003 1.9955359 1.4998244 0
4.5660005 1.9904742 1.5011412 0
4.5700002 1.9849076 1.5021945 0
4.5750003 1.9798119 1.5035114 0
4.5790005 1.9742148 1.5045648 0
4.5840001 1.9690847 1.5058815 0
4.5880003 1.9634569 1.506935 0
4.5930004 1.9582927 1.5082518 0
4.5970001 1.952634 1.5093051 0
4.6020002 1.9474353 1.5106219 0
4.6060004 1.9417461 1.5116755 0
4.6110001 1.9365133 1.512992 0
4.6150002 1.9307934 1.5140456 0
4.6200004 1.9255264 1.5153624 0
4.6240001 1.9197757 1.5164157 0
4.6290002 1.9144744 1.5177326 0
4.6330004 1.9086932 1.5187861 0
4.6380005 1.9033575 1.5201029 0
4.6420002 1.8975456 1.5211562 0
4.6470003 1.8921758 1.522473 0
4.6520004 1.8867877 1.5237898 0
4.6560001 1.8809289 1.5248431 0
4.6610003 1.8755066 1.52616 0
4.6650004 1.8696173 1.5272135 0
4.6700001 1.8641607 1.5285301 0
4.6750002 1.8586862 1.5298469 0
4.6790004 1.8527498 1.5309005 0
4.6840005 1.847241 1.5322171 0
4.6890001 1.841714 1.5335339 0
4.6930003 1.835731 1.5345874 0
4.6980004 1.8301699 1.5359042 0
4.7030001 1.8245904 1.5372208 0
4.7080002 1.8189934 1.5385376 0
4.7120004 1.8129472 1.5395912 0
4.7170005 1.8073156 1.540908 0
4.7220001 1.8016659 1.5422246 0
4.7270002 1.7959985 1.5435414 0
4.7310004 1.7898891 1.5445949 0
4.7360005 1.7841872 1.5459118 0
4.7410002 1.7784672 1.5472285 0
4.7460003 1.7727293 1.5485452 0
4.7510004 1.7669734 1.549862 0
4.7550001 1.7607845 1.5509154 0
4.7600002 1.7549942 1.5522321 0
4.7650003 1.749186 1.5535491 0
4.7700005 1.7433598 1.5548658 0
4.7750001 1.7375153 1.5561825 0
4.7800002 1.731653 1.5574994 0
4.7850003 1.7257726 1.5588161 0
4.7890005 1.7194719 1.5598696 0
4.7940001 1.7135571 1.5611862 0
4.7990003 1.7076244 1.5625031 0
4.8040004 1.7016737 1.56382 0
4.8090005 1.6957051 1.5651367 0
4.8140001 1.689718 1.5664535 0
4.8190002 1.6837132 1.5677701 0
4.8240004 1.6776903 1.569087 0
4.8290005 1.6716495 1.5704038 0
4.8340001 1.6655902 1.5717205 0
4.8390002 1.6595132 1.5730373 0
4.8440003 1.6534183 1.5743542 0
4.8490005 1.6473051 1.575671 0
4.8540001 1.641174 1.5769876 0
4.8590002 1.6350248 1.5783045 0
4.8640003 1.6288575 1.5796212 0
4.8690004 1.6226723 1.5809381 0
4.8750005 1.6168407 1.5825182 0
4.8800001 1.6106174 1.5838349 0
4.8850002 1.6043762 1.5851517 0
4.8900003 1.5981171 1.5864685 0
4.8950005 1.5918398 1.5877854 0
4.9000001 1.5855445 1.589102 0
4.9050002 1.5792311 1.5904188 0
4.9110003 1.5732588 1.5919989 0
4.9160004 1.5669075 1.5933158 0
4.9210005 1.5605384 1.5946325 0
4.9260001 1.5541511 1.5959493 0
4.9310002 1.5477457 1.5972661 0
4.9370003 1.5416723 1.5988462 0
4.9420004 1.5352292 1.600163 0
4.9470005 1.5287679 1.6014799 0
4.9520001 1.5222886 1.6027964 0
4.9580002 1.5161339 1.6043767 0
4.9630003 1.5096169 1.6056936 0
4.9680004 1.5030817 1.6070102 0
4.9740005 1.4968657 1.6085905 0
4.9790001 1.4902925 1.6099072 0
4.9840002 1.4837016 1.6112239 0
4.9900002 1.4774243 1.6128041 0
4.9950004 1.4707954 1.614121 0
5.0000005 1.4641483 1.6154376 0
5.0060005 1.4578098 1.6170179 0
5.0110002 1.4511247 1.6183345 0
5.0170002 1.4447446 1.6199147 0
5.0220003 1.4380219 1.6212314 0
5.0280004 1.4316003 1.6228117 0
5.0330005 1.4248397 1.6241283 0
5.0380001 1.4180609 1.6254451 0
5.0440001 1.4115781 1.6270252 0
5.0490003 1.4047614 1.628342 0
5.0550003 1.3982371 1.6299222 0
5.0610003 1.3916911 1.6315024 0
5.0660005 1.3848169 1.6328193 0
5.0720005 1.3782293 1.6343993 0
5.0770001 1.371317 1.635716 0
5.0830002 1.364688 1.6372962 0
5.0880003 1.3577379 1.638613 0
5.0940003 1.3510674 1.6401931 0
5.1000004 1.3443754 1.6417732 0
5.1050005 1.3373675 1.6430901 0
5.1110005 1.330634 1.6446702 0
5.1170001 1.3238786 1.6462502 0
5.1220002 1.3168131 1.647567 0
5.1280003 1.3100164 1.6491472 0
5.1340003 1.3031981 1.6507273 0
5.1390004 1.2960749 1.6520442 0
5.1450005 1.289215 1.6536244 0
5.1510005 1.2823335 1.6552044 0
5.1570005 1.2754303 1.6567847 0
5.1620002 1.2682294 1.6581013 0
5.1680002 1.2612847 1.6596814 0
5.1740003 1.2543185 1.6612616 0
5.1800003 1.2473305 1.6628417 0
5.1860003 1.2403209 1.6644219 0
5.1910005 1.2330227 1.6657387 0
5.1970005 1.2259717 1.6673188 0
5.2030005 1.2188989 1.6688989 0
4.3640003 2.2349446 1.4407929 0
4.368 2.2300885 1.4418392 0
4.3720002 2.2252181 1.4428853 0
4.3759999 2.2203333 1.4439316 0
4.3800001 2.2154343 1.4449778 0
4.3840003 2.2105207 1.4460241 0
4.388 2.2055926 1.4470701 0
4.3920002 2.2006502 1.4481164 0
4.3960004 2.1956935 1.4491626 0
4.4000001 2.190722 1.4502088 0
4.4040003 2.1857364 1.451255 0
4.4080005 2.1807363 1.4523013 0
4.4130001 2.1762753 1.453609 0
4.4170003 2.1712446 1.4546552 0
4.4210005 2.1661997 1.4557015 0
4.4250002 2.1611395 1.4567475 0
4.4290004 2.1560657 1.4577938 0
4.4330001 2.1509769 1.4588399 0
4.4370003 2.1458743 1.4598863 0
4.4410005 2.1407566 1.4609325 0
4.4460001 2.1361642 1.4622401 0
4.4500003 2.131016 1.4632864 0
4.4540005 2.1258538 1.4643327 0
4.4580002 2.1206765 1.4653789 0
4.4620004 2.1154854 1.4664251 0
4.4670005 2.11081 1.4677328 0
4.4710002 2.1055877 1.4687791 0
4.4750004 2.1003513 1.4698253 0
4.4790001 2.0951004 1.4708714 0
4.4830003 2.0898352 1.4719176 0
4.4880004 2.0850768 1.4732255 0
4.4920001 2.0797806 1.4742717 0
4.4960003 2.0744703 1.4753178 0
4.5010004 2.0696616 1.4766256 0
4.5050001 2.0643203 1.4776717 0
4.5090003 2.0589647 1.478718 0
4.5130005 2.0535951 1.4797643 0
4.5180001 2.0487192 1.4810719 0
4.5220003 2.0433187 1.4821181 0
4.5260005 2.0379038 1.4831645 0
4.5310001 2.0329773 1.4844722 0
4.5350003 2.0275316 1.4855183 0
4.5390005 2.0220718 1.4865646 0
4.5440001 2.0170949 1.4878722 0
4.5480003 2.0116041 1.4889185 0
4.5530005 2.0065932 1.4902264 0
4.5570002 2.0010715 1.4912724 0
4.5610003 1.9955359 1.4923187 0
4.5660005 1.9904742 1.4936266 0
4.5700002 1.9849076 1.4946727 0
4.5750003 1.9798119 1.4959804 0
4.5790005 1.9742148 1.4970268 0
4.5840001 1.9690847 1.4983344 0
4.5880003 1.9634569 1.4993806 0
4.5930004 1.9582927 1.5006884 0
4.5970001 1.952634 1.5017345 0
4.6020002 1.9474353 1.5030423 0
4.6060004 1.9417461 1.5040886 0
4.6110001 1.9365133 1.5053962 0
4.6150002 1.9307934 1.5064425 0
4.6200004 1.9255264 1.5077503 0
4.6240001 1.9197757 1.5087965 0
4.6290002 1.9144744 1.5101043 0
4.6330004 1.9086932 1.5111505 0
4.6380005 1.9033575 1.5124583 0
4.6420002 1.8975456 1.5135044 0
4.6470003 1.8921758 1.5148121 0
4.6520004 1.8867877 1.51612 0
4.6560001 1.8809289 1.5171661 0
4.6610003 1.8755066 1.518474 0
4.6650004 1.8696173 1.5195202 0
4.6700001 1.8641607 1.5208279 0
4.6750002 1.8586862 1.5221356 0
4.6790004 1.8527498 1.5231819 0
4.6840005 1.847241 1.5244896 0
4.6890001 1.841714 1.5257974 0
4.6930003 1.835731 1.5268437 0
4.6980004 1.8301699 1.5281514 0
4.7030001 1.8245904 1.5294591 0
4.7080002 1.8189934 1.5307668 0
4.7120004 1.8129472 1.5318131 0
4.7170005 1.8073156 1.5331209 0
4.7220001 1.8016659 1.5344286 0
