# .PCD v0.7 - Point Cloud Data file format
VERSION 0.7
FIELDS x y z intensity
SIZE 4 4 4 4
TYPE F F F F
COUNT 1 1 1 1
WIDTH 1457
HEIGHT 1
VIEWPOINT 0 0 0 1 0 0 0
POINTS 1457
DATA ascii
4.6610003 2.0599713 0.46548823 0
4.6670003 2.0552402 0.4655748 0
4.6720004 2.0499964 0.46564698 0
4.6770005 2.0447347 0.4657191 0
4.6820002 2.0394547 0.46579126 0
4.6880002 2.0346422 0.46587786 0
4.6930003 2.0293245 0.46595001 0
4.6980004 2.023989 0.46602216 0
4.7040005 2.0191152 0.46610874 0
4.7090001 2.0137415 0.46618089 0
4.7140002 2.0083499 0.46625304 0
4.7200003 2.0034146 0.46633962 0
4.7250004 1.9979851 0.46641177 0
4.7310004 1.9930086 0.46649837 0
4.7360005 1.9875414 0.46657053 0
4.7410002 1.9820557 0.46664268 0
4.7470002 1.9770176 0.46672925 0
4.7520003 1.9714947 0.4668014 0
4.7580004 1.9664152 0.46688798 0
4.7630005 1.9608538 0.46696013 0
4.7690005 1.9557328 0.46704674 0
4.7740002 1.9501339 0.46711886 0
4.7800002 1.9449713 0.46720546 0
4.7850003 1.9393344 0.46727762 0
4.7910004 1.9341307 0.46736419 0
4.7960005 1.9284558 0.46743634 0
4.8020005 1.9232103 0.46752292 0
4.8080001 1.917943 0.46760949 0
4.8130002 1.9122106 0.46768165 0
4.8190002 1.906902 0.46776825 0
4.8250003 1.9015718 0.46785483 0
4.8300004 1.8957816 0.46792698 0
4.8360004 1.8904098 0.46801355 0
4.8420005 1.8850164 0.46810013 0
4.8470001 1.8791684 0.46817228 0
4.8530002 1.8737334 0.46825889 0
4.8590002 1.8682771 0.46834546 0
4.8640003 1.8623713 0.46841761 0
4.8700004 1.8568734 0.46850419 0
4.8760004 1.8513539 0.4685908 0
4.8820004 1.8458124 0.46867737 0
4.8880005 1.8402495 0.46876395 0
4.8930001 1.8342463 0.4688361 0
4.8990002 1.828642 0.46892267 0
4.9050002 1.8230158 0.46900925 0
4.9110003 1.8173681 0.46909583 0
4.9170003 1.8116989 0.46918243 0
4.9230003 1.8060079 0.46926901 0
4.9290004 1.8002952 0.46935558 0
4.9350004 1.7945608 0.46944219 0
4.9400005 1.7884009 0.46951434 0
4.9460001 1.782625 0.46960092 0
4.9520001 1.7768275 0.46968749 0
4.9580002 1.7710084 0.46977407 0
4.9640002 1.7651677 0.46986067 0
4.9700003 1.7593054 0.46994725 0
4.9760003 1.7534214 0.47003382 0
4.9820004 1.7475157 0.4701204 0
4.9890003 1.741978 0.47022143 0
4.9950004 1.7360272 0.47030801 0
5.0010004 1.7300549 0.47039458 0
5.0070004 1.7240609 0.47048116 0
5.0130005 1.7180451 0.47056776 0
5.0190005 1.7120078 0.47065434 0
5.0250001 1.7059487 0.47074091 0
5.0310001 1.6998681 0.47082749 0
5.0380001 1.6941409 0.47092852 0
5.0440001 1.6880152 0.4710151 0
5.0500002 1.6818678 0.47110167 0
5.0560002 1.6756989 0.47118825 0
5.0630002 1.6698761 0.47128928 0
5.0690002 1.663662 0.47137585 0
5.0750003 1.6574262 0.47146243 0
5.0820003 1.6515315 0.47156346 0
5.0880003 1.6452506 0.47165003 0
5.0940003 1.6389482 0.47173661 0
5.1010003 1.6329811 0.47183764 0
5.1070004 1.6266335 0.47192422 0
4.4380002 2.2775252 0.45498645 0
4.4430003 2.2731094 0.4550496 0
4.4470005 2.2681041 0.45510009 0
4.4520001 2.2636538 0.45516324 0
4.4570003 2.2591858 0.45522636 0
4.4620004 2.2546997 0.45528948 0
4.4660001 2.2496307 0.45534 0
4.4710002 2.2451105 0.45540315 0
4.4760003 2.2405725 0.45546627 0
4.4810004 2.2360158 0.45552939 0
4.4860001 2.2314413 0.45559254 0
4.4900002 2.2262933 0.45564306 0
4.4950004 2.2216845 0.45570618 0
4.5000005 2.2170579 0.4557693 0
4.5050001 2.2124128 0.45583245 0
4.5100002 2.2077501 0.45589557 0
4.5150003 2.2030694 0.45595872 0
4.5200005 2.1983705 0.45602185 0
4.5240002 2.1931102 0.45607236 0
4.5290003 2.1883774 0.45613548 0
4.5340004 2.1836259 0.45619863 0
4.5390005 2.1788568 0.45626175 0
4.5440001 2.1740694 0.45632488 0
4.5490003 2.1692641 0.45638803 0
4.5540004 2.1644406 0.45645115 0
4.5590005 2.1595993 0.4565143 0
4.5640001 2.1547396 0.45657742 0
4.5690002 2.1498623 0.45664054 0
4.5740004 2.1449668 0.45670369 0
4.5790005 2.1400535 0.45676681 0
4.5840001 2.1351216 0.45682994 0
4.5890002 2.1301718 0.45689309 0
4.5940003 2.1252043 0.45695621 0
4.5990005 2.1202185 0.45701936 0
4.6040001 2.1152148 0.45708248 0
4.6100001 2.1107051 0.45715824 0
4.6150002 2.1056638 0.45722139 0
4.6200004 2.1006038 0.45728451 0
4.6250005 2.0955262 0.45734763 0
4.6300001 2.0904305 0.45741078 0
4.6350002 2.0853167 0.4574739 0
4.6400003 2.0801849 0.45753706 0
4.6460004 2.0755346 0.45761281 0
4.6510005 2.070365 0.45767593 0
4.6560001 2.0651772 0.45773906 0
4.6610003 2.0599713 0.45780221 0
4.6670003 2.0552402 0.45787796 0
4.6720004 2.0499964 0.45794111 0
4.6770005 2.0447347 0.45800424 0
4.6820002 2.0394547 0.45806736 0
4.6880002 2.0346422 0.45814312 0
4.6930003 2.0293245 0.45820627 0
4.6980004 2.023989 0.45826939 0
4.7040005 2.0191152 0.45834514 0
4.7090001 2.0137415 0.4584083 0
4.7140002 2.0083499 0.45847142 0
4.7200003 2.0034146 0.45854717 0
4.7250004 1.9979851 0.4586103 0
4.7310004 1.9930086 0.45868605 0
4.7360005 1.9875414 0.4587492 0
4.7410002 1.9820557 0.45881233 0
4.7470002 1.9770176 0.45888808 0
4.7520003 1.9714947 0.45895123 0
4.7580004 1.9664152 0.45902699 0
4.7630005 1.9608538 0.45909011 0
4.7690005 1.9557328 0.45916587 0
4.7740002 1.9501339 0.45922902 0
4.7800002 1.9449713 0.45930478 0
4.7850003 1.9393344 0.4593679 0
4.7910004 1.9341307 0.45944366 0
4.7960005 1.9284558 0.45950681 0
4.8020005 1.9232103 0.45958257 0
4.8080001 1.917943 0.45965832 0
4.8130002 1.9122106 0.45972145 0
4.8190002 1.906902 0.4597972 0
4.8250003 1.9015718 0.45987296 0
4.8300004 1.8957816 0.45993611 0
4.8360004 1.8904098 0.46001187 0
4.8420005 1.8850164 0.46008763 0
4.8470001 1.8791684 0.46015075 0
4.8530002 1.8737334 0.46022654 0
4.8590002 1.8682771 0.46030229 0
4.8640003 1.8623713 0.46036541 0
4.8700004 1.8568734 0.46044117 0
4.8760004 1.8513539 0.46051693 0
4.8820004 1.8458124 0.46059269 0
4.8880005 1.8402495 0.46066844 0
4.8930001 1.8342463 0.4607316 0
4.8990002 1.828642 0.46080735 0
4.9050002 1.8230158 0.46088311 0
4.9110003 1.8173681 0.46095887 0
4.9170003 1.8116989 0.46103463 0
4.9230003 1.8060079 0.46111038 0
4.9290004 1.8002952 0.46118614 0
4.9350004 1.7945608 0.4612619 0
4.9400005 1.7884009 0.46132505 0
4.9460001 1.782625 0.46140081 0
4.9520001 1.7768275 0.46147656 0
4.9580002 1.7710084 0.46155232 0
4.9640002 1.7651677 0.46162808 0
4.9700003 1.7593054 0.46170384 0
4.9760003 1.7534214 0.46177959 0
4.9820004 1.7475157 0.46185535 0
4.9890003 1.741978 0.46194375 0
4.9950004 1.7360272 0.4620195 0
5.0010004 1.7300549 0.46209526 0
5.0070004 1.7240609 0.46217102 0
5.0130005 1.7180451 0.46224678 0
5.0190005 1.7120078 0.46232256 0
5.0250001 1.7059487 0.46239829 0
5.0310001 1.6998681 0.46247405 0
5.0380001 1.6941409 0.46256244 0
5.0440001 1.6880152 0.4626382 0
5.0500002 1.6818678 0.46271396 0
5.0560002 1.6756989 0.46278974 0
5.0630002 1.6698761 0.46287811 0
5.0690002 1.663662 0.46295387 0
5.0750003 1.6574262 0.46302965 0
5.0820003 1.6515315 0.46311802 0
5.0880003 1.6452506 0.46319377 0
5.0940003 1.6389482 0.46326953 0
5.1010003 1.6329811 0.46335793 0
5.1070004 1.6266335 0.46343368 0
5.1130004 1.6202643 0.46350944 0
5.1200004 1.614225 0.46359783 0
5.1260004 1.6078107 0.46367359 0
5.1330004 1.601723 0.46376199 0
4.4380002 2.2775252 0.44770268 0
4.4430003 2.2731094 0.4477568 0
4.4470005 2.2681041 0.4478001 0
4.4520001 2.2636538 0.44785419 0
4.4570003 2.2591858 0.44790831 0
4.4620004 2.2546997 0.44796243 0
4.4660001 2.2496307 0.44800571 0
4.4710002 2.2451105 0.44805983 0
4.4760003 2.2405725 0.44811395 0
4.4810004 2.2360158 0.44816807 0
4.4860001 2.2314413 0.44822216 0
4.4900002 2.2262933 0.44826546 0
4.4950004 2.2216845 0.44831958 0
4.5000005 2.2170579 0.44837371 0
4.5050001 2.2124128 0.4484278 0
4.5100002 2.2077501 0.44848192 0
4.5150003 2.2030694 0.44853604 0
4.5200005 2.1983705 0.44859016 0
4.5240002 2.1931102 0.44863343 0
4.5290003 2.1883774 0.44868755 0
4.5340004 2.1836259 0.44874167 0
4.5390005 2.1788568 0.4487958 0
4.5440001 2.1740694 0.44884992 0
4.5490003 2.1692641 0.44890401 0
4.5540004 2.1644406 0.44895813 0
4.5590005 2.1595993 0.44901225 0
4.5640001 2.1547396 0.44906637 0
4.5690002 2.1498623 0.44912046 0
4.5740004 2.1449668 0.44917458 0
4.5790005 2.1400535 0.4492287 0
4.5840001 2.1351216 0.44928282 0
4.5890002 2.1301718 0.44933695 0
4.5940003 2.1252043 0.44939104 0
4.5990005 2.1202185 0.44944516 0
4.6040001 2.1152148 0.44949928 0
4.6100001 2.1107051 0.44956422 0
4.6150002 2.1056638 0.44961834 0
4.6200004 2.1006038 0.44967243 0
4.6250005 2.0955262 0.44972655 0
4.6300001 2.0904305 0.44978067 0
4.6350002 2.0853167 0.44983476 0
4.6400003 2.0801849 0.44988889 0
4.6460004 2.0755346 0.44995382 0
4.6510005 2.070365 0.45000795 0
4.6560001 2.0651772 0.45006207 0
4.6610003 2.0599713 0.45011619 0
4.6670003 2.0552402 0.45018113 0
4.6720004 2.0499964 0.45023522 0
4.6770005 2.0447347 0.45028934 0
4.6820002 2.0394547 0.45034346 0
4.6880002 2.0346422 0.4504084 0
4.6930003 2.0293245 0.45046252 0
4.6980004 2.023989 0.45051661 0
4.7040005 2.0191152 0.45058155 0
4.7090001 2.0137415 0.45063567 0
4.7140002 2.0083499 0.45068979 0
4.7200003 2.0034146 0.45075473 0
4.7250004 1.9979851 0.45080882 0
4.7310004 1.9930086 0.45087379 0
4.7360005 1.9875414 0.45092788 0
4.7410002 1.9820557 0.450982 0
4.7470002 1.9770176 0.45104694 0
4.7520003 1.9714947 0.45110106 0
4.7580004 1.9664152 0.451166 0
4.7630005 1.9608538 0.4512201 0
4.7690005 1.9557328 0.45128503 0
4.7740002 1.9501339 0.45133916 0
4.7800002 1.9449713 0.45140409 0
4.7850003 1.9393344 0.45145822 0
4.7910004 1.9341307 0.45152315 0
4.7960005 1.9284558 0.45157728 0
4.8020005 1.9232103 0.45164222 0
4.8080001 1.917943 0.45170712 0
4.8130002 1.9122106 0.45176125 0
4.8190002 1.906902 0.45182618 0
4.8250003 1.9015718 0.45189112 0
4.8300004 1.8957816 0.45194525 0
4.8360004 1.8904098 0.45201018 0
4.8420005 1.8850164 0.45207512 0
4.8470001 1.8791684 0.45212922 0
4.8530002 1.8737334 0.45219415 0
4.8590002 1.8682771 0.45225909 0
4.8640003 1.8623713 0.45231321 0
4.8700004 1.8568734 0.45237815 0
4.8760004 1.8513539 0.45244309 0
4.8820004 1.8458124 0.45250803 0
4.8880005 1.8402495 0.45257297 0
4.8930001 1.8342463 0.45262706 0
4.8990002 1.828642 0.452692 0
4.9050002 1.8230158 0.45275694 0
4.9110003 1.8173681 0.45282188 0
4.9170003 1.8116989 0.45288682 0
4.9230003 1.8060079 0.45295176 0
4.9290004 1.8002952 0.4530167 0
4.9350004 1.7945608 0.45308164 0
4.9400005 1.7884009 0.45313576 0
4.9460001 1.782625 0.4532007 0
4.9520001 1.7768275 0.45326561 0
4.9580002 1.7710084 0.45333055 0
4.9640002 1.7651677 0.45339549 0
4.9700003 1.7593054 0.45346043 0
4.9760003 1.7534214 0.45352536 0
4.9820004 1.7475157 0.4535903 0
4.9890003 1.741978 0.45366606 0
4.9950004 1.7360272 0.453731 0
5.0010004 1.7300549 0.45379594 0
5.0070004 1.7240609 0.45386088 0
5.0130005 1.7180451 0.45392582 0
5.0190005 1.7120078 0.45399076 0
5.0250001 1.7059487 0.4540557 0
5.0310001 1.6998681 0.45412064 0
5.0380001 1.6941409 0.45419639 0
5.0440001 1.6880152 0.45426133 0
5.0500002 1.6818678 0.45432627 0
5.0560002 1.6756989 0.45439121 0
5.0630002 1.6698761 0.45446697 0
5.0690002 1.663662 0.45453191 0
5.0750003 1.6574262 0.45459685 0
5.0820003 1.6515315 0.4546726 0
5.0880003 1.6452506 0.45473754 0
5.0940003 1.6389482 0.45480245 0
5.1010003 1.6329811 0.45487824 0
5.1070004 1.6266335 0.45494318 0
5.1130004 1.6202643 0.45500809 0
5.1200004 1.614225 0.45508385 0
5.1260004 1.6078107 0.45514882 0
5.1330004 1.601723 0.45522457 0
4.4380002 2.2775252 0.4404189 0
4.4430003 2.2731094 0.44046399 0
4.4470005 2.2681041 0.44050008 0
4.4520001 2.2636538 0.44054517 0
4.4570003 2.2591858 0.44059026 0
4.4620004 2.2546997 0.44063535 0
4.4660001 2.2496307 0.44067144 0
4.4710002 2.2451105 0.44071653 0
4.4760003 2.2405725 0.44076163 0
4.4810004 2.2360158 0.44080672 0
4.4860001 2.2314413 0.44085181 0
4.4900002 2.2262933 0.4408879 0
4.4950004 2.2216845 0.44093299 0
4.5000005 2.2170579 0.44097808 0
4.5050001 2.2124128 0.44102317 0
4.5100002 2.2077501 0.44106826 0
4.5150003 2.2030694 0.44111335 0
4.5200005 2.1983705 0.44115847 0
4.5240002 2.1931102 0.44119453 0
4.5290003 2.1883774 0.44123963 0
4.5340004 2.1836259 0.44128472 0
4.5390005 2.1788568 0.44132984 0
4.5440001 2.1740694 0.44137493 0
4.5490003 2.1692641 0.44142002 0
4.5540004 2.1644406 0.44146511 0
4.5590005 2.1595993 0.4415102 0
4.5640001 2.1547396 0.44155529 0
4.5690002 2.1498623 0.44160038 0
4.5740004 2.1449668 0.4416455 0
4.5790005 2.1400535 0.44169059 0
4.5840001 2.1351216 0.44173568 0
4.5890002 2.1301718 0.44178078 0
4.5940003 2.1252043 0.44182587 0
4.5990005 2.1202185 0.44187099 0
4.6040001 2.1152148 0.44191605 0
4.6100001 2.1107051 0.44197017 0
4.6150002 2.1056638 0.44201526 0
4.6200004 2.1006038 0.44206038 0
4.6250005 2.0955262 0.44210547 0
4.6300001 2.0904305 0.44215056 0
4.6350002 2.0853167 0.44219565 0
4.6400003 2.0801849 0.44224074 0
4.6460004 2.0755346 0.44229487 0
4.6510005 2.070365 0.44233996 0
4.6560001 2.0651772 0.44238505 0
4.6610003 2.0599713 0.44243014 0
4.6670003 2.0552402 0.44248426 0
4.6720004 2.0499964 0.44252935 0
4.6770005 2.0447347 0.44257444 0
4.6820002 2.0394547 0.44261956 0
4.6880002 2.0346422 0.44267365 0
4.6930003 2.0293245 0.44271874 0
4.6980004 2.023989 0.44276386 0
4.7040005 2.0191152 0.44281799 0
4.7090001 2.0137415 0.44286305 0
4.7140002 2.0083499 0.44290817 0
4.7200003 2.0034146 0.44296226 0
4.7250004 1.9979851 0.44300738 0
4.7310004 1.9930086 0.44306147 0
4.7360005 1.9875414 0.44310659 0
4.7410002 1.9820557 0.44315168 0
4.7470002 1.9770176 0.44320577 0
4.7520003 1.9714947 0.44325089 0
4.7580004 1.9664152 0.44330499 0
4.7630005 1.9608538 0.44335008 0
4.7690005 1.9557328 0.4434042 0
4.7740002 1.9501339 0.44344929 0
4.7800002 1.9449713 0.44350341 0
4.7850003 1.9393344 0.4435485 0
4.7910004 1.9341307 0.44360262 0
4.7960005 1.9284558 0.44364771 0
4.8020005 1.9232103 0.44370183 0
4.8080001 1.917943 0.44375595 0
4.8130002 1.9122106 0.44380105 0
4.8190002 1.906902 0.44385517 0
4.8250003 1.9015718 0.44390926 0
4.8300004 1.8957816 0.44395438 0
4.8360004 1.8904098 0.44400847 0
4.8420005 1.8850164 0.44406259 0
4.8470001 1.8791684 0.44410768 0
4.8530002 1.8737334 0.4441618 0
4.8590002 1.8682771 0.44421592 0
4.8640003 1.8623713 0.44426101 0
4.8700004 1.8568734 0.44431514 0
4.8760004 1.8513539 0.44436926 0
4.8820004 1.8458124 0.44442335 0
4.8880005 1.8402495 0.44447747 0
4.8930001 1.8342463 0.44452256 0
4.8990002 1.828642 0.44457668 0
4.9050002 1.8230158 0.4446308 0
4.9110003 1.8173681 0.44468492 0
4.9170003 1.8116989 0.44473901 0
4.9230003 1.8060079 0.44479313 0
4.9290004 1.8002952 0.44484726 0
4.9350004 1.7945608 0.44490138 0
4.9400005 1.7884009 0.44494647 0
4.9460001 1.782625 0.44500059 0
4.9520001 1.7768275 0.44505468 0
4.9580002 1.7710084 0.4451088 0
4.9640002 1.7651677 0.44516292 0
4.9700003 1.7593054 0.44521704 0
4.9760003 1.7534214 0.44527113 0
4.9820004 1.7475157 0.44532526 0
4.9890003 1.741978 0.44538841 0
4.9950004 1.7360272 0.4454425 0
5.0010004 1.7300549 0.44549662 0
5.0070004 1.7240609 0.44555074 0
5.0130005 1.7180451 0.44560486 0
5.0190005 1.7120078 0.44565898 0
5.0250001 1.7059487 0.44571307 0
5.0310001 1.6998681 0.44576719 0
5.0380001 1.6941409 0.44583032 0
5.0440001 1.6880152 0.44588444 0
5.0500002 1.6818678 0.44593856 0
5.0560002 1.6756989 0.44599268 0
5.0630002 1.6698761 0.4460558 0
5.0690002 1.663662 0.44610992 0
5.0750003 1.6574262 0.44616404 0
5.0820003 1.6515315 0.44622716 0
5.0880003 1.6452506 0.44628128 0
5.0940003 1.6389482 0.44633541 0
5.1010003 1.6329811 0.44639853 0
5.1070004 1.6266335 0.44645265 0
5.1130004 1.6202643 0.44650677 0
5.1200004 1.614225 0.44656989 0
5.1260004 1.6078107 0.44662401 0
5.1330004 1.601723 0.44668713 0
4.4380002 2.2775252 0.43313512 0
4.4430003 2.2731094 0.43317121 0
4.4470005 2.2681041 0.43320006 0
4.4520001 2.2636538 0.43323612 0
4.4570003 2.2591858 0.43327221 0
4.4620004 2.2546997 0.4333083 0
4.4660001 2.2496307 0.43333715 0
4.4710002 2.2451105 0.43337321 0
4.4760003 2.2405725 0.4334093 0
4.4810004 2.2360158 0.43344539 0
4.4860001 2.2314413 0.43348145 0
4.4900002 2.2262933 0.4335103 0
4.4950004 2.2216845 0.43354639 0
4.5000005 2.2170579 0.43358248 0
4.5050001 2.2124128 0.43361855 0
4.5100002 2.2077501 0.43365461 0
4.5150003 2.2030694 0.4336907 0
4.5200005 2.1983705 0.43372679 0
4.5240002 2.1931102 0.43375564 0
4.5290003 2.1883774 0.4337917 0
4.5340004 2.1836259 0.43382779 0
4.5390005 2.1788568 0.43386388 0
4.5440001 2.1740694 0.43389994 0
4.5490003 2.1692641 0.433936 0
4.5540004 2.1644406 0.43397209 0
4.5590005 2.1595993 0.43400818 0
4.5640001 2.1547396 0.43404424 0
4.5690002 2.1498623 0.43408033 0
4.5740004 2.1449668 0.43411639 0
4.5790005 2.1400535 0.43415248 0
4.5840001 2.1351216 0.43418854 0
4.5890002 2.1301718 0.43422464 0
4.5940003 2.1252043 0.4342607 0
4.5990005 2.1202185 0.43429679 0
4.6040001 2.1152148 0.43433285 0
4.6100001 2.1107051 0.43437615 0
4.6150002 2.1056638 0.43441221 0
4.6200004 2.1006038 0.4344483 0
4.6250005 2.0955262 0.43448436 0
4.6300001 2.0904305 0.43452045 0
4.6350002 2.0853167 0.43455651 0
4.6400003 2.0801849 0.4345926 0
4.6460004 2.0755346 0.43463591 0
4.6510005 2.070365 0.43467197 0
4.6560001 2.0651772 0.43470806 0
4.6610003 2.0599713 0.43474412 0
4.6670003 2.0552402 0.43478742 0
4.6720004 2.0499964 0.43482348 0
4.6770005 2.0447347 0.43485957 0
4.6820002 2.0394547 0.43489563 0
4.6880002 2.0346422 0.43493894 0
4.6930003 2.0293245 0.434975 0
4.6980004 2.023989 0.43501109 0
4.7040005 2.0191152 0.43505439 0
4.7090001 2.0137415 0.43509045 0
4.7140002 2.0083499 0.43512654 0
4.7200003 2.0034146 0.43516982 0
4.7250004 1.9979851 0.43520591 0
4.7310004 1.9930086 0.43524918 0
4.7360005 1.9875414 0.43528527 0
4.7410002 1.9820557 0.43532133 0
4.7470002 1.9770176 0.43536463 0
4.7520003 1.9714947 0.43540072 0
4.7580004 1.9664152 0.435444 0
4.7630005 1.9608538 0.43548009 0
4.7690005 1.9557328 0.43552336 0
4.7740002 1.9501339 0.43555945 0
4.7800002 1.9449713 0.43560272 0
4.7850003 1.9393344 0.43563882 0
4.7910004 1.9341307 0.43568212 0
4.7960005 1.9284558 0.43571818 0
4.8020005 1.9232103 0.43576148 0
4.8080001 1.917943 0.43580475 0
4.8130002 1.9122106 0.43584085 0
4.8190002 1.906902 0.43588412 0
4.8250003 1.9015718 0.43592742 0
4.8300004 1.8957816 0.43596351 0
4.8360004 1.8904098 0.43600678 0
4.8420005 1.8850164 0.43605009 0
4.8470001 1.8791684 0.43608615 0
4.8530002 1.8737334 0.43612945 0
4.8590002 1.8682771 0.43617272 0
4.8640003 1.8623713 0.43620881 0
4.8700004 1.8568734 0.43625212 0
4.8760004 1.8513539 0.43629539 0
4.8820004 1.8458124 0.43633869 0
4.8880005 1.8402495 0.436382 0
4.8930001 1.8342463 0.43641806 0
4.8990002 1.828642 0.43646133 0
4.9050002 1.8230158 0.43650463 0
4.9110003 1.8173681 0.43654794 0
4.9170003 1.8116989 0.43659121 0
4.9230003 1.8060079 0.43663451 0
4.9290004 1.8002952 0.43667781 0
4.9350004 1.7945608 0.43672109 0
4.9400005 1.7884009 0.43675718 0
4.9460001 1.782625 0.43680045 0
4.9520001 1.7768275 0.43684375 0
4.9580002 1.7710084 0.43688706 0
4.9640002 1.7651677 0.43693033 0
4.9700003 1.7593054 0.43697363 0
4.9760003 1.7534214 0.4370169 0
4.9820004 1.7475157 0.43706021 0
4.9890003 1.741978 0.43711072 0
4.9950004 1.7360272 0.437154 0
5.0010004 1.7300549 0.4371973 0
5.0070004 1.7240609 0.4372406 0
5.0130005 1.7180451 0.43728387 0
5.0190005 1.7120078 0.43732718 0
5.0250001 1.7059487 0.43737048 0
5.0310001 1.6998681 0.43741375 0
5.0380001 1.6941409 0.43746427 0
5.0440001 1.6880152 0.43750757 0
5.0500002 1.6818678 0.43755084 0
5.0560002 1.6756989 0.43759415 0
5.0630002 1.6698761 0.43764466 0
5.0690002 1.663662 0.43768793 0
5.0750003 1.6574262 0.43773124 0
5.0820003 1.6515315 0.43778172 0
5.0880003 1.6452506 0.43782502 0
5.0940003 1.6389482 0.43786833 0
5.1010003 1.6329811 0.43791881 0
5.1070004 1.6266335 0.43796211 0
5.1130004 1.6202643 0.43800542 0
5.1200004 1.614225 0.4380559 0
5.1260004 1.6078107 0.43809921 0
5.1330004 1.601723 0.43814972 0
4.4380002 2.2775252 0.42585135 0
4.4430003 2.2731094 0.42587841 0
4.4470005 2.2681041 0.42590004 0
4.4520001 2.2636538 0.4259271 0
4.4570003 2.2591858 0.42595416 0
4.4620004 2.2546997 0.42598122 0
4.4660001 2.2496307 0.42600286 0
4.4710002 2.2451105 0.42602992 0
4.4760003 2.2405725 0.42605698 0
4.4810004 2.2360158 0.42608404 0
4.4860001 2.2314413 0.4261111 0
4.4900002 2.2262933 0.42613274 0
4.4950004 2.2216845 0.4261598 0
4.5000005 2.2170579 0.42618686 0
4.5050001 2.2124128 0.42621392 0
4.5100002 2.2077501 0.42624098 0
4.5150003 2.2030694 0.42626804 0
4.5200005 2.1983705 0.42629507 0
4.5240002 2.1931102 0.42631674 0
4.5290003 2.1883774 0.4263438 0
4.5340004 2.1836259 0.42637086 0
4.5390005 2.1788568 0.42639789 0
4.5440001 2.1740694 0.42642495 0
4.5490003 2.1692641 0.42645201 0
4.5540004 2.1644406 0.42647907 0
4.5590005 2.1595993 0.42650613 0
4.5640001 2.1547396 0.42653319 0
4.5690002 2.1498623 0.42656025 0
4.5740004 2.1449668 0.42658731 0
4.5790005 2.1400535 0.42661434 0
4.5840001 2.1351216 0.4266414 0
4.5890002 2.1301718 0.42666847 0
4.5940003 2.1252043 0.42669553 0
4.5990005 2.1202185 0.42672259 0
4.6040001 2.1152148 0.42674965 0
4.6100001 2.1107051 0.4267821 0
4.6150002 2.1056638 0.42680916 0
4.6200004 2.1006038 0.42683622 0
4.6250005 2.0955262 0.42686328 0
4.6300001 2.0904305 0.42689034 0
4.6350002 2.0853167 0.4269174 0
4.6400003 2.0801849 0.42694446 0
4.6460004 2.0755346 0.42697692 0
4.6510005 2.070365 0.42700398 0
4.6560001 2.0651772 0.42703104 0
4.6610003 2.0599713 0.4270581 0
4.6670003 2.0552402 0.42709056 0
4.6720004 2.0499964 0.42711762 0
4.6770005 2.0447347 0.42714468 0
4.6820002 2.0394547 0.42717174 0
4.6880002 2.0346422 0.42720419 0
4.6930003 2.0293245 0.42723125 0
4.6980004 2.023989 0.42725831 0
4.7040005 2.0191152 0.4272908 0
4.7090001 2.0137415 0.42731786 0
4.7140002 2.0083499 0.42734489 0
4.7200003 2.0034146 0.42737737 0
4.7250004 1.9979851 0.42740443 0
4.7310004 1.9930086 0.42743689 0
4.7360005 1.9875414 0.42746395 0
4.7410002 1.9820557 0.42749101 0
4.7470002 1.9770176 0.42752346 0
4.7520003 1.9714947 0.42755052 0
4.7580004 1.9664152 0.42758301 0
4.7630005 1.9608538 0.42761007 0
4.7690005 1.9557328 0.42764252 0
4.7740002 1.9501339 0.42766958 0
4.7800002 1.9449713 0.42770207 0
4.7850003 1.9393344 0.4277291 0
4.7910004 1.9341307 0.42776158 0
4.7960005 1.9284558 0.42778865 0
4.8020005 1.9232103 0.4278211 0
4.8080001 1.917943 0.42785358 0
4.8130002 1.9122106 0.42788064 0
4.8190002 1.906902 0.4279131 0
4.8250003 1.9015718 0.42794555 0
4.8300004 1.8957816 0.42797261 0
4.8360004 1.8904098 0.4280051 0
4.8420005 1.8850164 0.42803755 0
4.8470001 1.8791684 0.42806461 0
4.8530002 1.8737334 0.4280971 0
4.8590002 1.8682771 0.42812955 0
4.8640003 1.8623713 0.42815661 0
4.8700004 1.8568734 0.42818907 0
4.8760004 1.8513539 0.42822155 0
4.8820004 1.8458124 0.42825401 0
4.8880005 1.8402495 0.42828649 0
4.8930001 1.8342463 0.42831355 0
4.8990002 1.828642 0.42834601 0
4.9050002 1.8230158 0.42837849 0
4.9110003 1.8173681 0.42841095 0
4.9170003 1.8116989 0.42844343 0
4.9230003 1.8060079 0.42847589 0
4.9290004 1.8002952 0.42850834 0
4.9350004 1.7945608 0.42854083 0
4.9400005 1.7884009 0.42856789 0
4.9460001 1.782625 0.42860034 0
4.9520001 1.7768275 0.42863283 0
4.9580002 1.7710084 0.42866528 0
4.9640002 1.7651677 0.42869776 0
4.9700003 1.7593054 0.42873022 0
4.9760003 1.7534214 0.4287627 0
4.9820004 1.7475157 0.42879516 0
4.9890003 1.741978 0.42883304 0
4.9950004 1.7360272 0.42886552 0
5.0010004 1.7300549 0.42889798 0
5.0070004 1.7240609 0.42893046 0
5.0130005 1.7180451 0.42896292 0
5.0190005 1.7120078 0.42899537 0
5.0250001 1.7059487 0.42902786 0
5.0310001 1.6998681 0.42906031 0
5.0380001 1.6941409 0.42909819 0
5.0440001 1.6880152 0.42913067 0
5.0500002 1.6818678 0.42916313 0
5.0560002 1.6756989 0.42919561 0
5.0630002 1.6698761 0.42923349 0
5.0690002 1.663662 0.42926595 0
5.0750003 1.6574262 0.42929843 0
5.0820003 1.6515315 0.42933631 0
5.0880003 1.6452506 0.42936876 0
5.0940003 1.6389482 0.42940125 0
5.1010003 1.6329811 0.42943913 0
5.1070004 1.6266335 0.42947158 0
5.1130004 1.6202643 0.42950407 0
5.1200004 1.614225 0.42954195 0
5.1260004 1.6078107 0.4295744 0
5.1330004 1.601723 0.42961228 0
4.4380002 2.2775252 0.41856757 0
4.4430003 2.2731094 0.4185856 0
4.4470005 2.2681041 0.41860005 0
4.4520001 2.2636538 0.41861808 0
4.4570003 2.2591858 0.41863611 0
4.4620004 2.2546997 0.41865414 0
4.4660001 2.2496307 0.41866857 0
4.4710002 2.2451105 0.41868663 0
4.4760003 2.2405725 0.41870466 0
4.4810004 2.2360158 0.41872269 0
4.4860001 2.2314413 0.41874075 0
4.4900002 2.2262933 0.41875517 0
4.4950004 2.2216845 0.4187732 0
4.5000005 2.2170579 0.41879123 0
4.5050001 2.2124128 0.41880926 0
4.5100002 2.2077501 0.41882733 0
4.5150003 2.2030694 0.41884536 0
4.5200005 2.1983705 0.41886339 0
4.5240002 2.1931102 0.41887781 0
4.5290003 2.1883774 0.41889587 0
4.5340004 2.1836259 0.4189139 0
4.5390005 2.1788568 0.41893193 0
4.5440001 2.1740694 0.41894996 0
4.5490003 2.1692641 0.41896802 0
4.5540004 2.1644406 0.41898605 0
4.5590005 2.1595993 0.41900408 0
4.5640001 2.1547396 0.41902214 0
4.5690002 2.1498623 0.41904017 0
4.5740004 2.1449668 0.4190582 0
4.5790005 2.1400535 0.41907623 0
4.5840001 2.1351216 0.41909429 0
4.5890002 2.1301718 0.41911232 0
4.5940003 2.1252043 0.41913036 0
4.5990005 2.1202185 0.41914839 0
4.6040001 2.1152148 0.41916645 0
4.6100001 2.1107051 0.41918808 0
4.6150002 2.1056638 0.41920611 0
4.6200004 2.1006038 0.41922414 0
4.6250005 2.0955262 0.4192422 0
4.6300001 2.0904305 0.41926023 0
4.6350002 2.0853167 0.41927826 0
4.6400003 2.0801849 0.41929629 0
4.6460004 2.0755346 0.41931796 0
4.6510005 2.070365 0.41933599 0
4.6560001 2.0651772 0.41935402 0
4.6610003 2.0599713 0.41937208 0
4.6670003 2.0552402 0.41939372 0
4.6720004 2.0499964 0.41941175 0
4.6770005 2.0447347 0.41942978 0
4.6820002 2.0394547 0.41944784 0
4.6880002 2.0346422 0.41946948 0
4.6930003 2.0293245 0.41948751 0
4.6980004 2.023989 0.41950554 0
4.7040005 2.0191152 0.4195272 0
4.7090001 2.0137415 0.41954523 0
4.7140002 2.0083499 0.41956326 0
4.7200003 2.0034146 0.41958493 0
4.7250004 1.9979851 0.41960296 0
4.7310004 1.9930086 0.4196246 0
4.7360005 1.9875414 0.41964263 0
4.7410002 1.9820557 0.41966069 0
4.7470002 1.9770176 0.41968232 0
4.7520003 1.9714947 0.41970035 0
4.7580004 1.9664152 0.41972202 0
4.7630005 1.9608538 0.41974005 0
4.7690005 1.9557328 0.41976169 0
4.7740002 1.9501339 0.41977972 0
4.7800002 1.9449713 0.41980138 0
4.7850003 1.9393344 0.41981941 0
4.7910004 1.9341307 0.41984105 0
4.7960005 1.9284558 0.41985911 0
4.8020005 1.9232103 0.41988075 0
4.8080001 1.917943 0.41990238 0
4.8130002 1.9122106 0.41992041 0
4.8190002 1.906902 0.41994208 0
4.8250003 1.9015718 0.41996372 0
4.8300004 1.8957816 0.41998175 0
4.8360004 1.8904098 0.42000341 0
4.8420005 1.8850164 0.42002505 0
4.8470001 1.8791684 0.42004308 0
4.8530002 1.8737334 0.42006472 0
4.8590002 1.8682771 0.42008638 0
4.8640003 1.8623713 0.42010441 0
4.8700004 1.8568734 0.42012605 0
4.8760004 1.8513539 0.42014772 0
4.8820004 1.8458124 0.42016935 0
4.8880005 1.8402495 0.42019099 0
4.8930001 1.8342463 0.42020902 0
4.8990002 1.828642 0.42023069 0
4.9050002 1.8230158 0.42025232 0
4.9110003 1.8173681 0.42027396 0
4.9170003 1.8116989 0.42029563 0
4.9230003 1.8060079 0.42031726 0
4.9290004 1.8002952 0.4203389 0
4.9350004 1.7945608 0.42036057 0
4.9400005 1.7884009 0.4203786 0
4.9460001 1.782625 0.42040023 0
4.9520001 1.7768275 0.4204219 0
4.9580002 1.7710084 0.42044353 0
4.9640002 1.7651677 0.42046517 0
4.9700003 1.7593054 0.42048681 0
4.9760003 1.7534214 0.42050847 0
4.9820004 1.7475157 0.42053011 0
4.9890003 1.741978 0.42055535 0
4.9950004 1.7360272 0.42057702 0
5.0010004 1.7300549 0.42059866 0
5.0070004 1.7240609 0.42062029 0
5.0130005 1.7180451 0.42064196 0
5.0190005 1.7120078 0.4206636 0
5.0250001 1.7059487 0.42068523 0
5.0310001 1.6998681 0.4207069 0
5.0380001 1.6941409 0.42073214 0
5.0440001 1.6880152 0.42075378 0
5.0500002 1.6818678 0.42077544 0
5.0560002 1.6756989 0.42079708 0
5.0630002 1.6698761 0.42082232 0
5.0690002 1.663662 0.42084399 0
5.0750003 1.6574262 0.42086563 0
5.0820003 1.6515315 0.42089087 0
5.0880003 1.6452506 0.4209125 0
5.0940003 1.6389482 0.42093417 0
5.1010003 1.6329811 0.42095941 0
5.1070004 1.6266335 0.42098105 0
5.1130004 1.6202643 0.42100272 0
5.1200004 1.614225 0.42102796 0
5.1260004 1.6078107 0.42104959 0
5.1330004 1.601723 0.42107487 0
4.4380002 2.2775252 0.41128379 0
4.4430003 2.2731094 0.41129282 0
4.4470005 2.2681041 0.41130003 0
4.4520001 2.2636538 0.41130903 0
4.4570003 2.2591858 0.41131806 0
4.4620004 2.2546997 0.41132709 0
4.4660001 2.2496307 0.41133431 0
4.4710002 2.2451105 0.41134331 0
4.4760003 2.2405725 0.41135234 0
4.4810004 2.2360158 0.41136137 0
4.4860001 2.2314413 0.41137037 0
4.4900002 2.2262933 0.41137758 0
4.4950004 2.2216845 0.41138661 0
4.5000005 2.2170579 0.41139564 0
4.5050001 2.2124128 0.41140464 0
4.5100002 2.2077501 0.41141367 0
4.5150003 2.2030694 0.4114227 0
4.5200005 2.1983705 0.4114317 0
4.5240002 2.1931102 0.41143891 0
4.5290003 2.1883774 0.41144794 0
4.5340004 2.1836259 0.41145694 0
4.5390005 2.1788568 0.41146597 0
4.5440001 2.1740694 0.411475 0
4.5490003 2.1692641 0.411484 0
4.5540004 2.1644406 0.41149303 0
4.5590005 2.1595993 0.41150206 0
4.5640001 2.1547396 0.41151106 0
4.5690002 2.1498623 0.41152009 0
4.5740004 2.1449668 0.41152912 0
4.5790005 2.1400535 0.41153812 0
4.5840001 2.1351216 0.41154715 0
4.5890002 2.1301718 0.41155615 0
4.5940003 2.1252043 0.41156518 0
4.5990005 2.1202185 0.41157421 0
4.6040001 2.1152148 0.41158321 0
4.6100001 2.1107051 0.41159403 0
4.6150002 2.1056638 0.41160306 0
4.6200004 2.1006038 0.41161209 0
4.6250005 2.0955262 0.41162109 0
4.6300001 2.0904305 0.41163012 0
4.6350002 2.0853167 0.41163915 0
4.6400003 2.0801849 0.41164815 0
4.6460004 2.0755346 0.41165897 0
4.6510005 2.070365 0.411668 0
4.6560001 2.0651772 0.41167703 0
4.6610003 2.0599713 0.41168603 0
4.6670003 2.0552402 0.41169685 0
4.6720004 2.0499964 0.41170588 0
4.6770005 2.0447347 0.41171491 0
4.6820002 2.0394547 0.41172391 0
4.6880002 2.0346422 0.41173473 0
4.6930003 2.0293245 0.41174376 0
4.6980004 2.023989 0.41175279 0
4.7040005 2.0191152 0.41176361 0
4.7090001 2.0137415 0.41177261 0
4.7140002 2.0083499 0.41178164 0
4.7200003 2.0034146 0.41179246 0
4.7250004 1.9979851 0.41180149 0
4.7310004 1.9930086 0.41181231 0
4.7360005 1.9875414 0.41182134 0
4.7410002 1.9820557 0.41183034 0
4.7470002 1.9770176 0.41184115 0
4.7520003 1.9714947 0.41185018 0
4.7580004 1.9664152 0.411861 0
4.7630005 1.9608538 0.41187003 0
4.7690005 1.9557328 0.41188085 0
4.7740002 1.9501339 0.41188988 0
4.7800002 1.9449713 0.4119007 0
4.7850003 1.9393344 0.4119097 0
4.7910004 1.9341307 0.41192055 0
4.7960005 1.9284558 0.41192955 0
4.8020005 1.9232103 0.41194037 0
4.8080001 1.917943 0.41195121 0
4.8130002 1.9122106 0.41196021 0
4.8190002 1.906902 0.41197103 0
4.8250003 1.9015718 0.41198188 0
4.8300004 1.8957816 0.41199088 0
4.8360004 1.8904098 0.4120017 0
4.8420005 1.8850164 0.41201252 0
4.8470001 1.8791684 0.41202155 0
4.8530002 1.8737334 0.41203237 0
4.8590002 1.8682771 0.41204318 0
4.8640003 1.8623713 0.41205221 0
4.8700004 1.8568734 0.41206303 0
4.8760004 1.8513539 0.41207385 0
4.8820004 1.8458124 0.41208467 0
4.8880005 1.8402495 0.41209552 0
4.8930001 1.8342463 0.41210452 0
4.8990002 1.828642 0.41211534 0
4.9050002 1.8230158 0.41212618 0
4.9110003 1.8173681 0.412137 0
4.9170003 1.8116989 0.41214782 0
4.9230003 1.8060079 0.41215864 0
4.9290004 1.8002952 0.41216946 0
4.9350004 1.7945608 0.41218027 0
4.9400005 1.7884009 0.4121893 0
4.9460001 1.782625 0.41220012 0
4.9520001 1.7768275 0.41221094 0
4.9580002 1.7710084 0.41222176 0
4.9640002 1.7651677 0.41223261 0
4.9700003 1.7593054 0.41224343 0
4.9760003 1.7534214 0.41225424 0
4.9820004 1.7475157 0.41226506 0
4.9890003 1.741978 0.4122777 0
4.9950004 1.7360272 0.41228852 0
5.0010004 1.7300549 0.41229934 0
5.0070004 1.7240609 0.41231015 0
5.0130005 1.7180451 0.41232097 0
5.0190005 1.7120078 0.41233182 0
5.0250001 1.7059487 0.41234264 0
5.0310001 1.6998681 0.41235346 0
5.0380001 1.6941409 0.41236606 0
5.0440001 1.6880152 0.41237691 0
5.0500002 1.6818678 0.41238773 0
5.0560002 1.6756989 0.41239855 0
5.0630002 1.6698761 0.41241118 0
5.0690002 1.663662 0.412422 0
5.0750003 1.6574262 0.41243282 0
5.0820003 1.6515315 0.41244546 0
5.0880003 1.6452506 0.41245627 0
5.0940003 1.6389482 0.41246709 0
5.1010003 1.6329811 0.41247973 0
5.1070004 1.6266335 0.41249055 0
5.1130004 1.6202643 0.41250136 0
5.1200004 1.614225 0.412514 0
5.1260004 1.6078107 0.41252482 0
5.1330004 1.601723 0.41253743 0
4.4380002 2.2775252 0.40400001 0
4.4430003 2.2731094 0.40400001 0
4.4470005 2.2681041 0.40400001 0
4.4520001 2.2636538 0.40400001 0
4.4570003 2.2591858 0.40400001 0
4.4620004 2.2546997 0.40400001 0
4.4660001 2.2496307 0.40400001 0
4.4710002 2.2451105 0.40400001 0
4.4760003 2.2405725 0.40400001 0
4.4810004 2.2360158 0.40400001 0
4.4860001 2.2314413 0.40400001 0
4.4900002 2.2262933 0.40400001 0
4.4950004 2.2216845 0.40400001 0
4.5000005 2.2170579 0.40400001 0
4.5050001 2.2124128 0.40400001 0
4.5100002 2.2077501 0.40400001 0
4.5150003 2.2030694 0.40400001 0
4.5200005 2.1983705 0.40400001 0
4.5240002 2.1931102 0.40400001 0
4.5290003 2.1883774 0.40400001 0
4.5340004 2.1836259 0.40400001 0
4.5390005 2.1788568 0.40400001 0
4.5440001 2.1740694 0.40400001 0
4.5490003 2.1692641 0.40400001 0
4.5540004 2.1644406 0.40400001 0
4.5590005 2.1595993 0.40400001 0
4.5640001 2.1547396 0.40400001 0
4.5690002 2.1498623 0.40400001 0
4.5740004 2.1449668 0.40400001 0
4.5790005 2.1400535 0.40400001 0
4.5840001 2.1351216 0.40400001 0
4.5890002 2.1301718 0.40400001 0
4.5940003 2.1252043 0.40400001 0
4.5990005 2.1202185 0.40400001 0
4.6040001 2.1152148 0.40400001 0
4.6100001 2.1107051 0.40400001 0
4.6150002 2.1056638 0.40400001 0
4.6200004 2.1006038 0.40400001 0
4.6250005 2.0955262 0.40400001 0
4.6300001 2.0904305 0.40400001 0
4.6350002 2.0853167 0.40400001 0
4.6400003 2.0801849 0.40400001 0
4.6460004 2.0755346 0.40400001 0
4.6510005 2.070365 0.40400001 0
4.6560001 2.0651772 0.40400001 0
4.6610003 2.0599713 0.40400001 0
4.6670003 2.0552402 0.40400001 0
4.6720004 2.0499964 0.40400001 0
4.6770005 2.0447347 0.40400001 0
4.6820002 2.0394547 0.40400001 0
4.6880002 2.0346422 0.40400001 0
4.6930003 2.0293245 0.40400001 0
4.6980004 2.023989 0.40400001 0
4.7040005 2.0191152 0.40400001 0
4.7090001 2.0137415 0.40400001 0
4.7140002 2.0083499 0.40400001 0
4.7200003 2.0034146 0.40400001 0
4.7250004 1.9979851 0.40400001 0
4.7310004 1.9930086 0.40400001 0
4.7360005 1.9875414 0.40400001 0
4.7410002 1.9820557 0.40400001 0
4.7470002 1.9770176 0.40400001 0
4.7520003 1.9714947 0.40400001 0
4.7580004 1.9664152 0.40400001 0
4.7630005 1.9608538 0.40400001 0
4.7690005 1.9557328 0.40400001 0
4.7740002 1.9501339 0.40400001 0
4.7800002 1.9449713 0.40400001 0
4.7850003 1.9393344 0.40400001 0
4.7910004 1.9341307 0.40400001 0
4.7960005 1.9284558 0.40400001 0
4.8020005 1.9232103 0.40400001 0
4.8080001 1.917943 0.40400001 0
4.8130002 1.9122106 0.40400001 0
4.8190002 1.906902 0.40400001 0
4.8250003 1.9015718 0.40400001 0
4.8300004 1.8957816 0.40400001 0
4.8360004 1.8904098 0.40400001 0
4.8420005 1.8850164 0.40400001 0
4.8470001 1.8791684 0.40400001 0
4.8530002 1.8737334 0.40400001 0
4.8590002 1.8682771 0.40400001 0
4.8640003 1.8623713 0.40400001 0
4.8700004 1.8568734 0.40400001 0
4.8760004 1.8513539 0.40400001 0
4.8820004 1.8458124 0.40400001 0
4.8880005 1.8402495 0.40400001 0
4.8930001 1.8342463 0.40400001 0
4.8990002 1.828642 0.40400001 0
4.9050002 1.8230158 0.40400001 0
4.9110003 1.8173681 0.40400001 0
4.9170003 1.8116989 0.40400001 0
4.9230003 1.8060079 0.40400001 0
4.9290004 1.8002952 0.40400001 0
4.9350004 1.7945608 0.40400001 0
4.9400005 1.7884009 0.40400001 0
4.9460001 1.782625 0.40400001 0
4.9520001 1.7768275 0.40400001 0
4.9580002 1.7710084 0.40400001 0
4.9640002 1.7651677 0.40400001 0
4.9700003 1.7593054 0.40400001 0
4.9760003 1.7534214 0.40400001 0
4.9820004 1.7475157 0.40400001 0
4.9890003 1.741978 0.40400001 0
4.9950004 1.7360272 0.40400001 0
5.0010004 1.7300549 0.40400001 0
5.0070004 1.7240609 0.40400001 0
5.0130005 1.7180451 0.40400001 0
5.0190005 1.7120078 0.40400001 0
5.0250001 1.7059487 0.40400001 0
5.0310001 1.6998681 0.40400001 0
5.0380001 1.6941409 0.40400001 0
5.0440001 1.6880152 0.40400001 0
5.0500002 1.6818678 0.40400001 0
5.0560002 1.6756989 0.40400001 0
5.0630002 1.6698761 0.40400001 0
5.0690002 1.663662 0.40400001 0
5.0750003 1.6574262 0.40400001 0
5.0820003 1.6515315 0.40400001 0
5.0880003 1.6452506 0.40400001 0
5.0940003 1.6389482 0.40400001 0
5.1010003 1.6329811 0.40400001 0
5.1070004 1.6266335 0.40400001 0
5.1130004 1.6202643 0.40400001 0
5.1200004 1.614225 0.40400001 0
5.1260004 1.6078107 0.40400001 0
5.1330004 1.601723 0.40400001 0
4.4380002 2.2775252 0.39671624 0
4.4430003 2.2731094 0.39670721 0
4.4470005 2.2681041 0.39669999 0
4.4520001 2.2636538 0.39669099 0
4.4570003 2.2591858 0.39668196 0
4.4620004 2.2546997 0.39667293 0
4.4660001 2.2496307 0.39666572 0
4.4710002 2.2451105 0.39665672 0
4.4760003 2.2405725 0.39664769 0
4.4810004 2.2360158 0.39663866 0
4.4860001 2.2314413 0.39662966 0
4.4900002 2.2262933 0.39662245 0
4.4950004 2.2216845 0.39661342 0
4.5000005 2.2170579 0.39660439 0
4.5050001 2.2124128 0.39659539 0
4.5100002 2.2077501 0.39658636 0
4.5150003 2.2030694 0.39657733 0
4.5200005 2.1983705 0.39656833 0
4.5240002 2.1931102 0.39656112 0
4.5290003 2.1883774 0.39655209 0
4.5340004 2.1836259 0.39654309 0
4.5390005 2.1788568 0.39653406 0
4.5440001 2.1740694 0.39652503 0
4.5490003 2.1692641 0.39651603 0
4.5540004 2.1644406 0.39650699 0
4.5590005 2.1595993 0.39649796 0
4.5640001 2.1547396 0.39648896 0
4.5690002 2.1498623 0.39647993 0
4.5740004 2.1449668 0.3964709 0
4.5790005 2.1400535 0.3964619 0
4.5840001 2.1351216 0.39645287 0
4.5890002 2.1301718 0.39644387 0
4.5940003 2.1252043 0.39643484 0
4.5990005 2.1202185 0.39642581 0
4.6040001 2.1152148 0.39641681 0
4.6100001 2.1107051 0.39640599 0
4.6150002 2.1056638 0.39639696 0
4.6200004 2.1006038 0.39638793 0
4.6250005 2.0955262 0.39637893 0
4.6300001 2.0904305 0.3963699 0
4.6350002 2.0853167 0.39636087 0
4.6400003 2.0801849 0.39635187 0
4.6460004 2.0755346 0.39634106 0
4.6510005 2.070365 0.39633203 0
4.6560001 2.0651772 0.396323 0
4.6610003 2.0599713 0.396314 0
4.6670003 2.0552402 0.39630318 0
4.6720004 2.0499964 0.39629415 0
4.6770005 2.0447347 0.39628512 0
4.6820002 2.0394547 0.39627612 0
4.6880002 2.0346422 0.3962653 0
4.6930003 2.0293245 0.39625627 0
4.6980004 2.023989 0.39624724 0
4.7040005 2.0191152 0.39623642 0
4.7090001 2.0137415 0.39622742 0
4.7140002 2.0083499 0.39621839 0
4.7200003 2.0034146 0.39620757 0
4.7250004 1.9979851 0.39619854 0
4.7310004 1.9930086 0.39618772 0
4.7360005 1.9875414 0.39617869 0
4.7410002 1.9820557 0.39616969 0
4.7470002 1.9770176 0.39615887 0
4.7520003 1.9714947 0.39614984 0
4.7580004 1.9664152 0.39613903 0
4.7630005 1.9608538 0.39613 0
4.7690005 1.9557328 0.39611918 0
4.7740002 1.9501339 0.39611015 0
4.7800002 1.9449713 0.39609933 0
4.7850003 1.9393344 0.39609033 0
4.7910004 1.9341307 0.39607948 0
4.7960005 1.9284558 0.39607048 0
4.8020005 1.9232103 0.39605966 0
4.8080001 1.917943 0.39604881 0
4.8130002 1.9122106 0.39603981 0
4.8190002 1.906902 0.396029 0
4.8250003 1.9015718 0.39601815 0
4.8300004 1.8957816 0.39600915 0
4.8360004 1.8904098 0.39599833 0
4.8420005 1.8850164 0.39598751 0
4.8470001 1.8791684 0.39597848 0
4.8530002 1.8737334 0.39596766 0
4.8590002 1.8682771 0.39595684 0
4.8640003 1.8623713 0.39594781 0
4.8700004 1.8568734 0.395937 0
4.8760004 1.8513539 0.39592618 0
4.8820004 1.8458124 0.39591536 0
4.8880005 1.8402495 0.39590451 0
4.8930001 1.8342463 0.39589551 0
4.8990002 1.828642 0.39588469 0
4.9050002 1.8230158 0.39587384 0
4.9110003 1.8173681 0.39586303 0
4.9170003 1.8116989 0.39585221 0
4.9230003 1.8060079 0.39584139 0
4.9290004 1.8002952 0.39583057 0
4.9350004 1.7945608 0.39581975 0
4.9400005 1.7884009 0.39581072 0
4.9460001 1.782625 0.39579991 0
4.9520001 1.7768275 0.39578909 0
4.9580002 1.7710084 0.39577827 0
4.9640002 1.7651677 0.39576742 0
4.9700003 1.7593054 0.3957566 0
4.9760003 1.7534214 0.39574578 0
4.9820004 1.7475157 0.39573497 0
4.9890003 1.741978 0.39572233 0
4.9950004 1.7360272 0.39571151 0
5.0010004 1.7300549 0.39570069 0
5.0070004 1.7240609 0.39568987 0
5.0130005 1.7180451 0.39567906 0
5.0190005 1.7120078 0.39566821 0
5.0250001 1.7059487 0.39565739 0
5.0310001 1.6998681 0.39564657 0
5.0380001 1.6941409 0.39563397 0
5.0440001 1.6880152 0.39562312 0
5.0500002 1.6818678 0.3956123 0
5.0560002 1.6756989 0.39560148 0
5.0630002 1.6698761 0.39558885 0
5.0690002 1.663662 0.39557803 0
5.0750003 1.6574262 0.39556721 0
5.0820003 1.6515315 0.39555457 0
5.0880003 1.6452506 0.39554375 0
5.0940003 1.6389482 0.39553294 0
5.1010003 1.6329811 0.3955203 0
5.1070004 1.6266335 0.39550948 0
5.1130004 1.6202643 0.39549866 0
5.1200004 1.614225 0.39548603 0
5.1260004 1.6078107 0.39547521 0
5.1330004 1.601723 0.3954626 0
4.4380002 2.2775252 0.38943246 0
4.4430003 2.2731094 0.38941443 0
4.4470005 2.2681041 0.38939998 0
4.4520001 2.2636538 0.38938195 0
4.4570003 2.2591858 0.38936391 0
4.4620004 2.2546997 0.38934588 0
4.4660001 2.2496307 0.38933146 0
4.4710002 2.2451105 0.3893134 0
4.4760003 2.2405725 0.38929537 0
4.4810004 2.2360158 0.38927734 0
4.4860001 2.2314413 0.38925928 0
4.4900002 2.2262933 0.38924485 0
4.4950004 2.2216845 0.38922682 0
4.5000005 2.2170579 0.38920879 0
4.5050001 2.2124128 0.38919076 0
4.5100002 2.2077501 0.3891727 0
4.5150003 2.2030694 0.38915467 0
4.5200005 2.1983705 0.38913664 0
4.5240002 2.1931102 0.38912222 0
4.5290003 2.1883774 0.38910416 0
4.5340004 2.1836259 0.38908613 0
4.5390005 2.1788568 0.3890681 0
4.5440001 2.1740694 0.38905007 0
4.5490003 2.1692641 0.38903201 0
4.5540004 2.1644406 0.38901398 0
4.5590005 2.1595993 0.38899595 0
4.5640001 2.1547396 0.38897789 0
4.5690002 2.1498623 0.38895985 0
4.5740004 2.1449668 0.38894182 0
4.5790005 2.1400535 0.38892379 0
4.5840001 2.1351216 0.38890573 0
4.5890002 2.1301718 0.3888877 0
4.5940003 2.1252043 0.38886967 0
4.5990005 2.1202185 0.38885164 0
4.6040001 2.1152148 0.38883358 0
4.6100001 2.1107051 0.38881195 0
4.6150002 2.1056638 0.38879392 0
4.6200004 2.1006038 0.38877589 0
4.6250005 2.0955262 0.38875782 0
4.6300001 2.0904305 0.38873979 0
4.6350002 2.0853167 0.38872176 0
4.6400003 2.0801849 0.38870373 0
4.6460004 2.0755346 0.38868207 0
4.6510005 2.070365 0.38866404 0
4.6560001 2.0651772 0.38864601 0
4.6610003 2.0599713 0.38862795 0
4.6670003 2.0552402 0.38860631 0
4.6720004 2.0499964 0.38858828 0
4.6770005 2.0447347 0.38857025 0
4.6820002 2.0394547 0.38855219 0
4.6880002 2.0346422 0.38853055 0
4.6930003 2.0293245 0.38851252 0
4.6980004 2.023989 0.38849449 0
4.7040005 2.0191152 0.38847283 0
4.7090001 2.0137415 0.38845479 0
4.7140002 2.0083499 0.38843676 0
4.7200003 2.0034146 0.3884151 0
4.7250004 1.9979851 0.38839707 0
4.7310004 1.9930086 0.38837543 0
4.7360005 1.9875414 0.3883574 0
4.7410002 1.9820557 0.38833934 0
4.7470002 1.9770176 0.3883177 0
4.7520003 1.9714947 0.38829967 0
4.7580004 1.9664152 0.38827801 0
4.7630005 1.9608538 0.38825998 0
4.7690005 1.9557328 0.38823834 0
4.7740002 1.9501339 0.38822031 0
4.7800002 1.9449713 0.38819864 0
4.7850003 1.9393344 0.38818061 0
4.7910004 1.9341307 0.38815898 0
4.7960005 1.9284558 0.38814092 0
4.8020005 1.9232103 0.38811928 0
4.8080001 1.917943 0.38809764 0
4.8130002 1.9122106 0.38807961 0
4.8190002 1.906902 0.38805795 0
4.8250003 1.9015718 0.38803631 0
4.8300004 1.8957816 0.38801828 0
4.8360004 1.8904098 0.38799661 0
4.8420005 1.8850164 0.38797498 0
4.8470001 1.8791684 0.38795695 0
4.8530002 1.8737334 0.38793531 0
4.8590002 1.8682771 0.38791364 0
4.8640003 1.8623713 0.38789561 0
4.8700004 1.8568734 0.38787398 0
4.8760004 1.8513539 0.38785231 0
4.8820004 1.8458124 0.38783067 0
4.8880005 1.8402495 0.38780904 0
4.8930001 1.8342463 0.38779101 0
4.8990002 1.828642 0.38776934 0
4.9050002 1.8230158 0.3877477 0
4.9110003 1.8173681 0.38772607 0
4.9170003 1.8116989 0.3877044 0
4.9230003 1.8060079 0.38768277 0
4.9290004 1.8002952 0.38766113 0
4.9350004 1.7945608 0.38763946 0
4.9400005 1.7884009 0.38762143 0
4.9460001 1.782625 0.3875998 0
4.9520001 1.7768275 0.38757813 0
4.9580002 1.7710084 0.38755649 0
4.9640002 1.7651677 0.38753486 0
4.9700003 1.7593054 0.38751322 0
4.9760003 1.7534214 0.38749155 0
4.9820004 1.7475157 0.38746992 0
4.9890003 1.741978 0.38744467 0
4.9950004 1.7360272 0.38742301 0
5.0010004 1.7300549 0.38740137 0
5.0070004 1.7240609 0.38737974 0
5.0130005 1.7180451 0.38735807 0
5.0190005 1.7120078 0.38733643 0
5.0250001 1.7059487 0.3873148 0
5.0310001 1.6998681 0.38729313 0
5.0380001 1.6941409 0.38726789 0
5.0440001 1.6880152 0.38724625 0
5.0500002 1.6818678 0.38722458 0
5.0560002 1.6756989 0.38720295 0
5.0630002 1.6698761 0.38717771 0
5.0690002 1.663662 0.38715604 0
5.0750003 1.6574262 0.3871344 0
5.0820003 1.6515315 0.38710916 0
5.0880003 1.6452506 0.38708752 0
5.0940003 1.6389482 0.38706586 0
5.1010003 1.6329811 0.38704062 0
5.1070004 1.6266335 0.38701898 0
5.1130004 1.6202643 0.38699731 0
5.1200004 1.614225 0.38697207 0
5.1260004 1.6078107 0.38695043 0
5.1330004 1.601723 0.38692516 0
4.4380002 2.2775252 0.38214868 0
4.4430003 2.2731094 0.38212162 0
4.4470005 2.2681041 0.38209999 0
4.4520001 2.2636538 0.38207293 0
4.4570003 2.2591858 0.38204587 0
4.4620004 2.2546997 0.3820188 0
4.4660001 2.2496307 0.38199717 0
4.4710002 2.2451105 0.38197011 0
4.4760003 2.2405725 0.38194305 0
4.4810004 2.2360158 0.38191599 0
4.4860001 2.2314413 0.38188893 0
4.4900002 2.2262933 0.38186729 0
4.4950004 2.2216845 0.38184023 0
4.5000005 2.2170579 0.38181317 0
4.5050001 2.2124128 0.38178611 0
4.5100002 2.2077501 0.38175905 0
4.5150003 2.2030694 0.38173199 0
4.5200005 2.1983705 0.38170496 0
4.5240002 2.1931102 0.38168329 0
4.5290003 2.1883774 0.38165623 0
4.5340004 2.1836259 0.38162917 0
4.5390005 2.1788568 0.38160214 0
4.5440001 2.1740694 0.38157508 0
4.5490003 2.1692641 0.38154802 0
4.5540004 2.1644406 0.38152096 0
4.5590005 2.1595993 0.3814939 0
4.5640001 2.1547396 0.38146684 0
4.5690002 2.1498623 0.38143978 0
4.5740004 2.1449668 0.38141271 0
4.5790005 2.1400535 0.38138568 0
4.5840001 2.1351216 0.38135862 0
4.5890002 2.1301718 0.38133156 0
4.5940003 2.1252043 0.3813045 0
4.5990005 2.1202185 0.38127744 0
4.6040001 2.1152148 0.38125038 0
4.6100001 2.1107051 0.38121793 0
4.6150002 2.1056638 0.38119087 0
4.6200004 2.1006038 0.38116381 0
4.6250005 2.0955262 0.38113675 0
4.6300001 2.0904305 0.38110968 0
4.6350002 2.0853167 0.38108262 0
4.6400003 2.0801849 0.38105556 0
4.6460004 2.0755346 0.38102311 0
4.6510005 2.070365 0.38099605 0
4.6560001 2.0651772 0.38096899 0
4.6610003 2.0599713 0.38094193 0
4.6670003 2.0552402 0.38090947 0
4.6720004 2.0499964 0.38088241 0
4.6770005 2.0447347 0.38085535 0
4.6820002 2.0394547 0.38082829 0
4.6880002 2.0346422 0.38079584 0
4.6930003 2.0293245 0.38076878 0
4.6980004 2.023989 0.38074172 0
4.7040005 2.0191152 0.38070923 0
4.7090001 2.0137415 0.38068217 0
4.7140002 2.0083499 0.38065514 0
4.7200003 2.0034146 0.38062266 0
4.7250004 1.9979851 0.38059559 0
4.7310004 1.9930086 0.38056314 0
4.7360005 1.9875414 0.38053608 0
4.7410002 1.9820557 0.38050902 0
4.7470002 1.9770176 0.38047656 0
4.7520003 1.9714947 0.3804495 0
4.7580004 1.9664152 0.38041702 0
4.7630005 1.9608538 0.38038996 0
4.7690005 1.9557328 0.3803575 0
4.7740002 1.9501339 0.38033044 0
4.7800002 1.9449713 0.38029796 0
4.7850003 1.9393344 0.38027093 0
4.7910004 1.9341307 0.38023844 0
4.7960005 1.9284558 0.38021138 0
4.8020005 1.9232103 0.38017893 0
4.8080001 1.917943 0.38014644 0
4.8130002 1.9122106 0.38011938 0
4.8190002 1.906902 0.38008693 0
4.8250003 1.9015718 0.38005447 0
4.8300004 1.8957816 0.38002741 0
4.8360004 1.8904098 0.37999493 0
4.8420005 1.8850164 0.37996247 0
4.8470001 1.8791684 0.37993541 0
4.8530002 1.8737334 0.37990293 0
4.8590002 1.8682771 0.37987047 0
4.8640003 1.8623713 0.37984341 0
4.8700004 1.8568734 0.37981096 0
4.8760004 1.8513539 0.37977847 0
4.8820004 1.8458124 0.37974602 0
4.8880005 1.8402495 0.37971354 0
4.8930001 1.8342463 0.37968647 0
4.8990002 1.828642 0.37965402 0
4.9050002 1.8230158 0.37962154 0
4.9110003 1.8173681 0.37958908 0
4.9170003 1.8116989 0.3795566 0
4.9230003 1.8060079 0.37952414 0
4.9290004 1.8002952 0.37949169 0
4.9350004 1.7945608 0.3794592 0
4.9400005 1.7884009 0.37943214 0
4.9460001 1.782625 0.37939969 0
4.9520001 1.7768275 0.3793672 0
4.9580002 1.7710084 0.37933475 0
4.9640002 1.7651677 0.37930226 0
4.9700003 1.7593054 0.37926981 0
4.9760003 1.7534214 0.37923732 0
4.9820004 1.7475157 0.37920487 0
4.9890003 1.741978 0.37916699 0
4.9950004 1.7360272 0.37913451 0
5.0010004 1.7300549 0.37910205 0
5.0070004 1.7240609 0.37906957 0
5.0130005 1.7180451 0.37903711 0
5.0190005 1.7120078 0.37900466 0
