# .PCD v0.7 - Point Cloud Data file format
VERSION 0.7
FIELDS x y z intensity
SIZE 4 4 4 4
TYPE F F F F
COUNT 1 1 1 1
WIDTH 1374
HEIGHT 1
VIEWPOINT 0 0 0 1 0 0 0
POINTS 1374
DATA ascii
2.7020001 -0.19133283 0.57839942 0
2.7050002 -0.19568001 0.57862669 0
2.7100003 -0.2001715 0.57900548 0
2.7150002 -0.20468101 0.57938427 0
2.7210002 -0.20927893 0.57983887 0
2.7320001 -0.21425922 0.5806722 0
3.0350003 -0.24087444 0.6036275 0
3.0350003 -0.24562748 0.6036275 0
3.0350003 -0.25038049 0.6036275 0
3.0350003 -0.25513354 0.6036275 0
3.0350003 -0.25988656 0.6036275 0
3.0360003 -0.26472256 0.60370326 0
3.0360003 -0.2694774 0.60370326 0
3.0360003 -0.27423224 0.60370326 0
3.0360003 -0.27898708 0.60370326 0
3.0360003 -0.28374192 0.60370326 0
3.0370002 -0.28858873 0.60377896 0
3.0370002 -0.29334539 0.60377896 0
3.0370002 -0.29810205 0.60377896 0
3.0370002 -0.30285868 0.60377896 0
3.0380001 -0.30771452 0.60385472 0
3.0380001 -0.31247297 0.60385472 0
3.0380001 -0.31723142 0.60385472 0
3.0380001 -0.32198986 0.60385472 0
3.0380001 -0.32674831 0.60385472 0
3.0390003 -0.331615 0.60393053 0
3.0390003 -0.33637524 0.60393053 0
3.0390003 -0.3411355 0.60393053 0
3.0390003 -0.34589574 0.60393053 0
3.0390003 -0.350656 0.60393053 0
3.0400002 -0.35553348 0.60400629 0
3.0400002 -0.36029553 0.60400629 0
3.0400002 -0.36505759 0.60400629 0
3.0400002 -0.36981964 0.60400629 0
2.7560003 -0.33923429 0.58249044 0
2.7450001 -0.34209514 0.58165705 0
2.7370002 -0.3453005 0.58105099 0
2.7310002 -0.34873673 0.58059645 0
2.7260003 -0.35228306 0.58021766 0
2.7220001 -0.35594475 0.57991457 0
2.7180002 -0.35959205 0.57961154 0
2.7150002 -0.36336201 0.57938427 0
2.7120001 -0.36712116 0.57915699 0
2.7100003 -0.37101018 0.57900548 0
2.7080002 -0.37489197 0.57885396 0
2.7060001 -0.37876654 0.57870245 0
2.7050002 -0.38278002 0.57862669 0
2.7040002 -0.38678989 0.57855093 0
2.7030003 -0.39079615 0.57847518 0
2.7020001 -0.39479879 0.57839942 0
2.7020001 -0.39895114 0.57839942 0
2.7010002 -0.40294841 0.57832366 0
2.7020001 -0.40725589 0.57839942 0
2.7020001 -0.41140825 0.57839942 0
2.7030003 -0.41572121 0.57847518 0
2.7040002 -0.42003769 0.57855093 0
2.7050002 -0.4243578 0.57862669 0
2.7070003 -0.42884749 0.57877821 0
2.7090001 -0.43334436 0.57892972 0
2.7110002 -0.43784848 0.57908124 0
2.7140002 -0.44253117 0.57930851 0
2.7180002 -0.44739786 0.57961154 0
2.7240002 -0.45262888 0.58006614 0
2.7310002 -0.45805833 0.58059645 0
3.2370002 -0.056234807 0.61381358 0
3.2370002 -0.061352212 0.61381358 0
3.2370002 -0.066469617 0.61381358 0
3.2370002 -0.071587019 0.61381358 0
3.2370002 -0.076704428 0.61381358 0
3.2380002 -0.08183445 0.61388755 0
3.2380002 -0.086953662 0.61388755 0
2.7340002 -0.092310973 0.57661366 0
2.7250001 -0.096326247 0.575948 0
2.7180002 -0.10035595 0.57543033 0
2.7130003 -0.10441092 0.57506055 0
2.7090001 -0.1084749 0.57476473 0
2.7050002 -0.11252445 0.57446891 0
2.7020001 -0.11659023 0.57424706 0
2.6990001 -0.1206452 0.57402515 0
2.6970003 -0.1247236 0.57387727 0
2.6950002 -0.1287948 0.57372934 0
2.6940002 -0.13289666 0.57365537 0
2.6920002 -0.13695522 0.57350749 0
2.6920002 -0.14108954 0.57350749 0
2.6910002 -0.14518058 0.57343352 0
2.6900003 -0.14926802 0.57335961 0
2.6900003 -0.15339875 0.57335961 0
2.6900003 -0.15752947 0.57335961 0
2.6910002 -0.16171069 0.57343352 0
2.6910002 -0.16584322 0.57343352 0
2.6920002 -0.17002985 0.57350749 0
2.6940002 -0.17427602 0.57365537 0
2.6950002 -0.17847168 0.57372934 0
2.6970003 -0.18273047 0.57387727 0
2.6990001 -0.18699647 0.57402515 0
2.7020001 -0.19133283 0.57424706 0
2.7050002 -0.19568001 0.57446891 0
2.7100003 -0.2001715 0.5748387 0
2.7150002 -0.20468101 0.57520849 0
2.7210002 -0.20927893 0.57565224 0
2.7310002 -0.21418709 0.57639176 0
3.0350003 -0.24087444 0.59887445 0
3.0350003 -0.24562748 0.59887445 0
3.0350003 -0.25038049 0.59887445 0
3.0350003 -0.25513354 0.59887445 0
3.0350003 -0.25988656 0.59887445 0
3.0360003 -0.26472256 0.59894836 0
3.0360003 -0.2694774 0.59894836 0
3.0360003 -0.27423224 0.59894836 0
3.0360003 -0.27898708 0.59894836 0
3.0360003 -0.28374192 0.59894836 0
3.0370002 -0.28858873 0.59902233 0
3.0370002 -0.29334539 0.59902233 0
3.0370002 -0.29810205 0.59902233 0
3.0370002 -0.30285868 0.59902233 0
3.0370002 -0.30761534 0.59902233 0
3.0380001 -0.31247297 0.5990963 0
3.0380001 -0.31723142 0.5990963 0
3.0380001 -0.32198986 0.5990963 0
3.0380001 -0.32674831 0.5990963 0
3.0390003 -0.331615 0.59917027 0
3.0390003 -0.33637524 0.59917027 0
3.0390003 -0.3411355 0.59917027 0
3.0390003 -0.34589574 0.59917027 0
3.0390003 -0.350656 0.59917027 0
3.0400002 -0.35553348 0.59924424 0
3.0400002 -0.36029553 0.59924424 0
3.0400002 -0.36505759 0.59924424 0
3.0400002 -0.36981964 0.59924424 0
2.7560003 -0.33923429 0.57824069 0
2.7450001 -0.34209514 0.57742715 0
2.7370002 -0.3453005 0.57683551 0
2.7310002 -0.34873673 0.57639176 0
2.7260003 -0.35228306 0.57602203 0
2.7220001 -0.35594475 0.57572615 0
2.7180002 -0.35959205 0.57543033 0
2.7150002 -0.36336201 0.57520849 0
2.7130003 -0.36726007 0.57506055 0
2.7100003 -0.37101018 0.5748387 0
2.7080002 -0.37489197 0.57469082 0
2.7060001 -0.37876654 0.57454288 0
2.7050002 -0.38278002 0.57446891 0
2.7040002 -0.38678989 0.57439494 0
2.7030003 -0.39079615 0.57432103 0
2.7020001 -0.39479879 0.57424706 0
2.7020001 -0.39895114 0.57424706 0
2.7020001 -0.4031035 0.57424706 0
2.7020001 -0.40725589 0.57424706 0
2.7020001 -0.41140825 0.57424706 0
2.7030003 -0.41572121 0.57432103 0
2.7040002 -0.42003769 0.57439494 0
2.7050002 -0.4243578 0.57446891 0
2.7070003 -0.42884749 0.57461679 0
2.7090001 -0.43334436 0.57476473 0
2.7110002 -0.43784848 0.57491267 0
2.7140002 -0.44253117 0.57513452 0
2.7180002 -0.44739786 0.57543033 0
2.7240002 -0.45262888 0.57587409 0
2.7310002 -0.45805833 0.57639176 0
3.2370002 -0.056234807 0.60869616 0
3.2370002 -0.061352212 0.60869616 0
3.2370002 -0.066469617 0.60869616 0
3.2370002 -0.071587019 0.60869616 0
3.2370002 -0.076704428 0.60869616 0
3.2380002 -0.08183445 0.60876834 0
3.2380002 -0.086953662 0.60876834 0
2.7340002 -0.092310973 0.57240355 0
2.7250001 -0.096326247 0.57175416 0
2.7180002 -0.10035595 0.57124913 0
2.7130003 -0.10441092 0.57088834 0
2.7090001 -0.1084749 0.57059973 0
2.7050002 -0.11252445 0.57031113 0
2.7020001 -0.11659023 0.5700947 0
2.6990001 -0.1206452 0.56987822 0
2.6970003 -0.1247236 0.56973392 0
2.6950002 -0.1287948 0.56958961 0
2.6940002 -0.13289666 0.56951749 0
2.6930003 -0.13699491 0.56944531 0
2.6920002 -0.14108954 0.56937313 0
2.6910002 -0.14518058 0.56930101 0
2.6910002 -0.14931311 0.56930101 0
2.6900003 -0.15339875 0.56922889 0
2.6900003 -0.15752947 0.56922889 0
2.6910002 -0.16171069 0.56930101 0
2.6910002 -0.16584322 0.56930101 0
2.6920002 -0.17002985 0.56937313 0
2.6940002 -0.17427602 0.56951749 0
2.6950002 -0.17847168 0.56958961 0
2.6970003 -0.18273047 0.56973392 0
2.6990001 -0.18699647 0.56987822 0
2.7020001 -0.19133283 0.5700947 0
2.7060001 -0.19574493 0.57038331 0
2.7100003 -0.2001715 0.57067192 0
2.7150002 -0.20468101 0.57103264 0
2.7210002 -0.20927893 0.57146555 0
2.7310002 -0.21418709 0.57218707 0
3.0340002 -0.24080047 0.59404922 0
3.0350003 -0.24562748 0.5941214 0
3.0350003 -0.25038049 0.5941214 0
3.0350003 -0.25513354 0.5941214 0
3.0350003 -0.25988656 0.5941214 0
3.0360003 -0.26472256 0.59419358 0
3.0360003 -0.2694774 0.59419358 0
3.0360003 -0.27423224 0.59419358 0
3.0360003 -0.27898708 0.59419358 0
3.0360003 -0.28374192 0.59419358 0
3.0370002 -0.28858873 0.5942657 0
3.0370002 -0.29334539 0.5942657 0
3.0370002 -0.29810205 0.5942657 0
3.0370002 -0.30285868 0.5942657 0
3.0370002 -0.30761534 0.5942657 0
3.0380001 -0.31247297 0.59433782 0
3.0380001 -0.31723142 0.59433782 0
3.0380001 -0.32198986 0.59433782 0
3.0380001 -0.32674831 0.59433782 0
3.0390003 -0.331615 0.59441 0
3.0390003 -0.33637524 0.59441 0
3.0390003 -0.3411355 0.59441 0
3.0390003 -0.34589574 0.59441 0
3.0390003 -0.350656 0.59441 0
3.0400002 -0.35553348 0.59448218 0
3.0400002 -0.36029553 0.59448218 0
3.0400002 -0.36505759 0.59448218 0
3.0400002 -0.36981964 0.59448218 0
2.7460003 -0.34222141 0.57326937 0
2.7380002 -0.34542856 0.57269216 0
2.7320001 -0.34886661 0.57225925 0
2.7270002 -0.35241473 0.57189846 0
2.7230003 -0.35607824 0.57160985 0
2.7190001 -0.35972735 0.57132125 0
2.7160003 -0.36349913 0.57110482 0
2.7130003 -0.36726007 0.57088834 0
2.7110002 -0.37115088 0.57074404 0
2.7090001 -0.37503445 0.57059973 0
2.7070003 -0.37891087 0.57045543 0
2.7060001 -0.38292611 0.57038331 0
2.7040002 -0.38678989 0.57023895 0
2.7030003 -0.39079615 0.57016683 0
2.7030003 -0.39495033 0.57016683 0
2.7020001 -0.39895114 0.5700947 0
2.7020001 -0.4031035 0.5700947 0
2.7020001 -0.40725589 0.5700947 0
2.7030003 -0.411567 0.57016683 0
2.7030003 -0.41572121 0.57016683 0
2.7040002 -0.42003769 0.57023895 0
2.7060001 -0.42452192 0.57038331 0
2.7070003 -0.42884749 0.57045543 0
2.7100003 -0.43351215 0.57067192 0
2.7120001 -0.43801802 0.57081622 0
2.7150002 -0.4427025 0.57103264 0
2.7200003 -0.44774419 0.57139343 0
2.7250001 -0.45280385 0.57175416 0
2.7320001 -0.45823509 0.57225925 0
3.2370002 -0.056234807 0.60357875 0
3.2370002 -0.061352212 0.60357875 0
3.2370002 -0.066469617 0.60357875 0
3.2370002 -0.071587019 0.60357875 0
3.2370002 -0.076704428 0.60357875 0
3.2380002 -0.08183445 0.60364914 0
3.2380002 -0.086953662 0.60364914 0
2.7350001 -0.092330813 0.56826383 0
2.7260003 -0.096347898 0.56763065 0
2.7190001 -0.10037941 0.5671382 0
2.7140002 -0.10443617 0.56678647 0
2.7090001 -0.1084749 0.56643474 0
2.7060001 -0.1125533 0.56622368 0
2.7030003 -0.1166209 0.56601268 0
2.7000003 -0.12067766 0.56580162 0
2.6980002 -0.12475787 0.56566089 0
2.6960001 -0.12883087 0.56552023 0
2.6940002 -0.13289666 0.5653795 0
2.6930003 -0.13699491 0.56530917 0
2.6920002 -0.14108954 0.56523883 0
2.6910002 -0.14518058 0.5651685 0
2.6910002 -0.14931311 0.5651685 0
2.6910002 -0.15344565 0.5651685 0
2.6910002 -0.15757817 0.5651685 0
2.6910002 -0.16171069 0.5651685 0
2.6920002 -0.16589552 0.56523883 0
2.6930003 -0.17008398 0.56530917 0
2.6940002 -0.17427602 0.5653795 0
2.6960001 -0.1785294 0.56552023 0
2.6980002 -0.18279 0.56566089 0
2.7000003 -0.18705781 0.56580162 0
2.7030003 -0.19139598 0.56601268 0
2.7060001 -0.19574493 0.56622368 0
2.7100003 -0.2001715 0.56650507 0
2.7160003 -0.20474957 0.56692719 0
2.7220001 -0.20934926 0.56734926 0
2.7320001 -0.21425922 0.56805277 0
3.0340002 -0.24080047 0.58929801 0
3.0350003 -0.24562748 0.58936834 0
3.0350003 -0.25038049 0.58936834 0
3.0350003 -0.25513354 0.58936834 0
3.0350003 -0.25988656 0.58936834 0
3.0360003 -0.26472256 0.58943874 0
3.0360003 -0.2694774 0.58943874 0
3.0360003 -0.27423224 0.58943874 0
3.0360003 -0.27898708 0.58943874 0
3.0360003 -0.28374192 0.58943874 0
3.0370002 -0.28858873 0.58950907 0
3.0370002 -0.29334539 0.58950907 0
3.0370002 -0.29810205 0.58950907 0
3.0370002 -0.30285868 0.58950907 0
3.0370002 -0.30761534 0.58950907 0
3.0380001 -0.31247297 0.5895794 0
3.0380001 -0.31723142 0.5895794 0
3.0380001 -0.32198986 0.5895794 0
3.0380001 -0.32674831 0.5895794 0
3.0390003 -0.331615 0.5896498 0
3.0390003 -0.33637524 0.5896498 0
3.0390003 -0.3411355 0.5896498 0
3.0390003 -0.34589574 0.5896498 0
3.0390003 -0.350656 0.5896498 0
3.0400002 -0.35553348 0.58972013 0
3.0400002 -0.36029553 0.58972013 0
3.0400002 -0.36505759 0.58972013 0
3.0400002 -0.36981964 0.58972013 0
2.7470002 -0.34234765 0.56910801 0
2.7390003 -0.34555665 0.56854522 0
2.7330003 -0.34899649 0.5681231 0
2.7280002 -0.35254636 0.56777138 0
2.7240002 -0.35621175 0.56748998 0
2.7200003 -0.35986266 0.56720859 0
2.7170002 -0.3636362 0.56699753 0
2.7140002 -0.36739895 0.56678647 0
2.7120001 -0.37129155 0.5666458 0
2.7100003 -0.375177 0.56650507 0
2.7080002 -0.37905517 0.56636441 0
2.7060001 -0.38292611 0.56622368 0
2.7050002 -0.3869378 0.56615335 0
2.7040002 -0.39094585 0.56608301 0
2.7040002 -0.39510185 0.56608301 0
2.7030003 -0.39910451 0.56601268 0
2.7030003 -0.40325865 0.56601268 0
2.7030003 -0.40741286 0.56601268 0
2.7040002 -0.41172573 0.56608301 0
2.7040002 -0.41588172 0.56608301 0
2.7050002 -0.42020002 0.56615335 0
2.7070003 -0.4246861 0.56629407 0
2.7080002 -0.42901343 0.56636441 0
2.7110002 -0.43367988 0.56657547 0
2.7130003 -0.4381876 0.56671613 0
2.7160003 -0.4428739 0.56692719 0
2.7210002 -0.44791734 0.56727892 0
2.7260003 -0.45297885 0.56763065 0
2.7340002 -0.45858866 0.56819344 0
3.2380002 -0.056238417 0.59852993 0
3.2370002 -0.061352212 0.59846139 0
3.2370002 -0.066469617 0.59846139 0
3.2370002 -0.071587019 0.59846139 0
3.2370002 -0.076704428 0.59846139 0
3.2380002 -0.08183445 0.59852993 0
3.2380002 -0.086953662 0.59852993 0
2.7370002 -0.092370495 0.56418902 0
2.7270002 -0.096369542 0.56350356 0
2.7200003 -0.10040286 0.56302375 0
2.7150002 -0.10446142 0.56268102 0
2.7100003 -0.10850196 0.56233829 0
2.7070003 -0.11258218 0.56213266 0
2.7040002 -0.11665156 0.56192702 0
2.7010002 -0.12071013 0.56172138 0
2.6990001 -0.12479214 0.56158429 0
2.6970003 -0.12886696 0.5614472 0
2.6950002 -0.13293454 0.56131011 0
2.6940002 -0.1370346 0.56124157 0
2.6930003 -0.14113104 0.56117308 0
2.6920002 -0.14522389 0.56110448 0
2.6920002 -0.14935821 0.56110448 0
2.6920002 -0.15349254 0.56110448 0
2.6920002 -0.15762687 0.56110448 0
2.6920002 -0.16176119 0.56110448 0
2.6930003 -0.16594785 0.56117308 0
2.6940002 -0.17013809 0.56124157 0
2.6950002 -0.17433195 0.56131011 0
2.6970003 -0.17858712 0.5614472 0
2.6990001 -0.18284953 0.56158429 0
2.7010002 -0.18711913 0.56172138 0
2.7040002 -0.1914591 0.56192702 0
2.7070003 -0.19580989 0.56213266 0
2.7110002 -0.20023823 0.56240684 0
2.7170002 -0.2048181 0.56281811 0
2.7240002 -0.20948996 0.56329793 0
2.7340002 -0.21440354 0.56398338 0
3.0340002 -0.24080047 0.5845468 0
3.0350003 -0.24562748 0.58461535 0
3.0350003 -0.25038049 0.58461535 0
3.0350003 -0.25513354 0.58461535 0
3.0350003 -0.25988656 0.58461535 0
3.0360003 -0.26472256 0.5846839 0
3.0360003 -0.2694774 0.5846839 0
3.0360003 -0.27423224 0.5846839 0
3.0360003 -0.27898708 0.5846839 0
3.0360003 -0.28374192 0.5846839 0
3.0370002 -0.28858873 0.58475244 0
3.0370002 -0.29334539 0.58475244 0
3.0370002 -0.29810205 0.58475244 0
3.0370002 -0.30285868 0.58475244 0
3.0370002 -0.30761534 0.58475244 0
3.0380001 -0.31247297 0.58482099 0
3.0380001 -0.31723142 0.58482099 0
3.0380001 -0.32198986 0.58482099 0
3.0380001 -0.32674831 0.58482099 0
3.0390003 -0.331615 0.58488953 0
3.0390003 -0.33637524 0.58488953 0
3.0390003 -0.3411355 0.58488953 0
3.0390003 -0.34589574 0.58488953 0
3.0390003 -0.350656 0.58488953 0
3.0400002 -0.35553348 0.58495808 0
3.0400002 -0.36029553 0.58495808 0
3.0400002 -0.36505759 0.58495808 0
3.0400002 -0.36981964 0.58495808 0
2.7500002 -0.34272647 0.56508011 0
2.7410002 -0.34581277 0.5644632 0
2.7350001 -0.34925622 0.56405193 0
2.7300003 -0.35280976 0.5637092 0
2.7250001 -0.35634521 0.56336647 0
2.7210002 -0.35999793 0.56309229 0
2.7180002 -0.36377329 0.56288666 0
2.7150002 -0.36753783 0.56268102 0
2.7130003 -0.37143227 0.56254393 0
2.7110002 -0.37531948 0.56240684 0
2.7090001 -0.37919945 0.56226975 0
2.7070003 -0.38307226 0.56213266 0
2.7060001 -0.38708568 0.56206411 0
2.7050002 -0.39109558 0.56199557 0
2.7050002 -0.39525336 0.56199557 0
2.7040002 -0.39925781 0.56192702 0
2.7040002 -0.4034138 0.56192702 0
2.7040002 -0.40756977 0.56192702 0
2.7050002 -0.41188446 0.56199557 0
2.7050002 -0.41604224 0.56199557 0
2.7060001 -0.42036232 0.56206411 0
2.7080002 -0.42485026 0.5622012 0
2.7090001 -0.42917937 0.56226975 0
2.7120001 -0.43384764 0.56247538 0
2.7140002 -0.43835714 0.56261247 0
2.7180002 -0.44321662 0.56288666 0
2.7230003 -0.4482637 0.56322938 0
2.7280002 -0.45332876 0.56357211 0
2.7370002 -0.45911899 0.56418902 0
3.2400002 -0.056245632 0.59354419 0
3.2370002 -0.061352212 0.59334397 0
3.2370002 -0.066469617 0.59334397 0
3.2370002 -0.071587019 0.59334397 0
3.2370002 -0.076704428 0.59334397 0
3.2380002 -0.08183445 0.59341073 0
3.2380002 -0.086953662 0.59341073 0
2.7290001 -0.09641283 0.55943954 0
2.7220001 -0.10044976 0.55897236 0
2.7160003 -0.10448668 0.55857193 0
2.7120001 -0.10855606 0.55830497 0
2.7080002 -0.11261103 0.558038 0
2.7050002 -0.11668223 0.55783778 0
2.7020001 -0.12074259 0.55763757 0
2.7000003 -0.12482643 0.55750412 0
2.6980002 -0.12890303 0.5573706 0
2.6960001 -0.13297242 0.55723715 0
2.6950002 -0.13707428 0.55717039 0
2.6940002 -0.14117253 0.55710363 0
2.6930003 -0.14526717 0.55703694 0
2.6930003 -0.1494033 0.55703694 0
2.6930003 -0.15353943 0.55703694 0
2.6930003 -0.15767558 0.55703694 0
2.6930003 -0.16181171 0.55703694 0
2.6940002 -0.16600014 0.55710363 0
2.6950002 -0.1701922 0.55717039 0
2.6960001 -0.17438786 0.55723715 0
2.6980002 -0.17864485 0.5573706 0
2.7000003 -0.18290906 0.55750412 0
2.7020001 -0.18718047 0.55763757 0
2.7050002 -0.19152223 0.55783778 0
2.7090001 -0.19593975 0.55810475 0
2.7130003 -0.20037173 0.55837172 0
2.7180002 -0.20488665 0.55870545 0
2.7260003 -0.20963067 0.55923939 0
3.0340002 -0.24080047 0.57979554 0
3.0350003 -0.24562748 0.5798623 0
3.0350003 -0.25038049 0.5798623 0
3.0350003 -0.25513354 0.5798623 0
3.0350003 -0.25988656 0.5798623 0
3.0360003 -0.26472256 0.57992905 0
3.0360003 -0.2694774 0.57992905 0
3.0360003 -0.27423224 0.57992905 0
3.0360003 -0.27898708 0.57992905 0
3.0360003 -0.28374192 0.57992905 0
3.0370002 -0.28858873 0.57999575 0
3.0370002 -0.29334539 0.57999575 0
3.0370002 -0.29810205 0.57999575 0
3.0370002 -0.30285868 0.57999575 0
3.0370002 -0.30761534 0.57999575 0
3.0380001 -0.31247297 0.58006251 0
3.0380001 -0.31723142 0.58006251 0
3.0380001 -0.32198986 0.58006251 0
3.0380001 -0.32674831 0.58006251 0
3.0380001 -0.33150676 0.58006251 0
3.0390003 -0.33637524 0.58012927 0
3.0390003 -0.3411355 0.58012927 0
3.0390003 -0.34589574 0.58012927 0
3.0390003 -0.350656 0.58012927 0
3.0400002 -0.35553348 0.58019602 0
3.0400002 -0.36029553 0.58019602 0
3.0400002 -0.36505759 0.58019602 0
3.0400002 -0.36981964 0.58019602 0
3.0400002 -0.37458169 0.58019602 0
2.7530003 -0.34310526 0.56104136 0
2.7440002 -0.34619698 0.56044066 0
2.7370002 -0.349516 0.55997348 0
2.7310002 -0.35294142 0.55957305 0
2.7270002 -0.35661218 0.55930609 0
2.7230003 -0.3602685 0.55903912 0
2.7200003 -0.36404747 0.5588389 0
2.7170002 -0.36781564 0.55863869 0
2.7140002 -0.37157294 0.55843848 0
2.7120001 -0.37546197 0.55830497 0
2.7100003 -0.37934378 0.55817151 0
2.7090001 -0.38336444 0.55810475 0
2.7080002 -0.38738155 0.558038 0
2.7070003 -0.39139503 0.5579713 0
2.7060001 -0.39540485 0.55790454 0
2.7060001 -0.39956442 0.55790454 0
2.7050002 -0.40356892 0.55783778 0
2.7060001 -0.40788358 0.55790454 0
2.7060001 -0.41204318 0.55790454 0
2.7070003 -0.41636333 0.5579713 0
2.7080002 -0.42068702 0.558038 0
2.7090001 -0.42501438 0.55810475 0
2.7110002 -0.42951128 0.55823827 0
2.7140002 -0.43418315 0.55843848 0
2.7170002 -0.43886584 0.55863869 0
2.7200003 -0.44355935 0.5588389 0
2.7250001 -0.44861001 0.55917263 0
2.7310002 -0.45385367 0.55957305 0
3.2430003 -0.056256454 0.58861619 0
3.2370002 -0.061352212 0.58822656 0
3.2370002 -0.066469617 0.58822656 0
3.2370002 -0.071587019 0.58822656 0
3.2370002 -0.076704428 0.58822656 0
3.2380002 -0.08183445 0.58829147 0
3.2380002 -0.086953662 0.58829147 0
2.7320001 -0.096477769 0.55543333 0
2.7240002 -0.10049665 0.55491382 0
2.7180002 -0.10453718 0.55452418 0
2.7140002 -0.10861018 0.55426443 0
2.7100003 -0.11266875 0.55400467 0
2.7060001 -0.11671288 0.55374491 0
2.7040002 -0.12080754 0.55361509 0
2.7010002 -0.12486069 0.55342031 0
2.6990001 -0.12893909 0.55329037 0
2.6980002 -0.13304818 0.55322546 0
2.6960001 -0.13711396 0.55309558 0
2.6950002 -0.14121401 0.55303067 0
2.6950002 -0.14535375 0.55303067 0
2.6940002 -0.14944839 0.5529657 0
2.6940002 -0.15358634 0.5529657 0
2.6940002 -0.15772428 0.5529657 0
2.6950002 -0.16191271 0.55303067 0
2.6950002 -0.16605245 0.55303067 0
2.6960001 -0.1702463 0.55309558 0
2.6980002 -0.17449971 0.55322546 0
2.6990001 -0.17870256 0.55329037 0
2.7010002 -0.18296857 0.55342031 0
2.7040002 -0.18730313 0.55361509 0
2.7070003 -0.1916485 0.55380988 0
2.7100003 -0.19600469 0.55400467 0
2.7150002 -0.20050518 0.5543294 0
2.7210002 -0.20509228 0.55471897 0
2.7290001 -0.2098417 0.55523849 0
3.0340002 -0.24080047 0.57504433 0
3.0350003 -0.24562748 0.57510924 0
3.0350003 -0.25038049 0.57510924 0
3.0350003 -0.25513354 0.57510924 0
3.0350003 -0.25988656 0.57510924 0
3.0350003 -0.26463959 0.57510924 0
3.0360003 -0.2694774 0.57517421 0
3.0360003 -0.27423224 0.57517421 0
3.0360003 -0.27898708 0.57517421 0
3.0360003 -0.28374192 0.57517421 0
3.0370002 -0.28858873 0.57523912 0
3.0370002 -0.29334539 0.57523912 0
3.0370002 -0.29810205 0.57523912 0
3.0370002 -0.30285868 0.57523912 0
3.0370002 -0.30761534 0.57523912 0
3.0380001 -0.31247297 0.57530409 0
3.0380001 -0.31723142 0.57530409 0
3.0380001 -0.32198986 0.57530409 0
3.0380001 -0.32674831 0.57530409 0
3.0380001 -0.33150676 0.57530409 0
3.0390003 -0.33637524 0.575369 0
3.0390003 -0.3411355 0.575369 0
3.0390003 -0.34589574 0.575369 0
3.0390003 -0.350656 0.575369 0
3.0400002 -0.35553348 0.57543397 0
3.0400002 -0.36029553 0.57543397 0
3.0400002 -0.36505759 0.57543397 0
3.0400002 -0.36981964 0.57543397 0
3.0400002 -0.37458169 0.57543397 0
2.7580001 -0.34373656 0.55712169 0
2.7470002 -0.34658119 0.55640739 0
2.7390003 -0.34977576 0.55588788 0
2.7340002 -0.35333645 0.55556321 0
2.7290001 -0.35687912 0.55523849 0
2.7250001 -0.36053905 0.55497873 0
2.7210002 -0.36418456 0.55471897 0
2.7190001 -0.3680934 0.55458915 0
2.7160003 -0.37185436 0.55439436 0
2.7140002 -0.375747 0.55426443 0
2.7120001 -0.37963238 0.55413461 0
2.7110002 -0.38365668 0.55406964 0
2.7090001 -0.38752943 0.55393976 0
2.7080002 -0.39154473 0.55387485 0
2.7080002 -0.39570791 0.55387485 0
2.7070003 -0.39971778 0.55380988 0
2.7070003 -0.40387917 0.55380988 0
2.7070003 -0.40804055 0.55380988 0
2.7080002 -0.41236067 0.55387485 0
2.7090001 -0.41668439 0.55393976 0
2.7100003 -0.42101175 0.55400467 0
2.7110002 -0.42534268 0.55406964 0
2.7130003 -0.42984319 0.55419952 0
2.7160003 -0.43451867 0.55439436 0
2.7190001 -0.43920493 0.55458915 0
2.7230003 -0.44407344 0.55484891 0
2.7280002 -0.44912949 0.55517358 0
2.7350001 -0.45455354 0.55562812 0
3.2450001 -0.05626367 0.58361423 0
3.2370002 -0.061352212 0.58310914 0
3.2370002 -0.066469617 0.58310914 0
3.2370002 -0.071587019 0.58310914 0
3.2370002 -0.076704428 0.58310914 0
3.2380002 -0.08183445 0.58317226 0
3.2380002 -0.086953662 0.58317226 0
2.7360003 -0.096564353 0.5514794 0
2.7270002 -0.100567 0.55091119 0
2.7210002 -0.10461295 0.55053234 0
2.7160003 -0.1086643 0.55021667 0
2.7120001 -0.11272646 0.54996419 0
2.7080002 -0.11677422 0.54971164 0
2.7050002 -0.12084 0.54952222 0
2.7030003 -0.12492923 0.54939598 0
2.7010002 -0.12901126 0.54926968 0
2.6990001 -0.13308606 0.54914343 0
2.6980002 -0.13719334 0.54908031 0
2.6970003 -0.141297 0.54901719 0
2.6960001 -0.14539704 0.54895401 0
2.6960001 -0.14953859 0.54895401 0
2.6960001 -0.15368013 0.54895401 0
2.6960001 -0.15782167 0.54895401 0
2.6960001 -0.16196322 0.54895401 0
2.6970003 -0.16615708 0.54901719 0
2.6980002 -0.17035455 0.54908031 0
2.6990001 -0.1745556 0.54914343 0
2.7010002 -0.17881802 0.54926968 0
2.7030003 -0.18308763 0.54939598 0
2.7060001 -0.18742578 0.54958534 0
2.7090001 -0.19177477 0.54977477 0
2.7130003 -0.19619951 0.55002731 0
2.7180002 -0.20070542 0.55034298 0
2.7240002 -0.20529792 0.55072176 0
2.7330003 -0.21012311 0.55128998 0
3.0340002 -0.23604923 0.57029307 0
3.0340002 -0.24080047 0.57029307 0
3.0350003 -0.24562748 0.57035625 0
3.0350003 -0.25038049 0.57035625 0
3.0350003 -0.25513354 0.57035625 0
3.0350003 -0.25988656 0.57035625 0
3.0350003 -0.26463959 0.57035625 0
3.0360003 -0.2694774 0.57041937 0
3.0360003 -0.27423224 0.57041937 0
3.0360003 -0.27898708 0.57041937 0
3.0360003 -0.28374192 0.57041937 0
3.0370002 -0.28858873 0.57048249 0
3.0370002 -0.29334539 0.57048249 0
3.0370002 -0.29810205 0.57048249 0
3.0370002 -0.30285868 0.57048249 0
3.0370002 -0.30761534 0.57048249 0
3.0380001 -0.31247297 0.57054561 0
3.0380001 -0.31723142 0.57054561 0
3.0380001 -0.32198986 0.57054561 0
3.0380001 -0.32674831 0.57054561 0
3.0380001 -0.33150676 0.57054561 0
3.0390003 -0.33637524 0.57060874 0
3.0390003 -0.3411355 0.57060874 0
3.0390003 -0.34589574 0.57060874 0
3.0390003 -0.350656 0.57060874 0
3.0400002 -0.35553348 0.57067192 0
3.0400002 -0.36029553 0.57067192 0
3.0400002 -0.36505759 0.57067192 0
3.0400002 -0.36981964 0.57067192 0
3.0400002 -0.37458169 0.57067192 0
2.7510002 -0.34709346 0.55242634 0
2.7430003 -0.35029525 0.55192131 0
2.7370002 -0.35373151 0.55154252 0
2.7320001 -0.35727957 0.55122685 0
2.7270002 -0.36080962 0.55091119 0
2.7240002 -0.36459583 0.55072176 0
2.7210002 -0.36837119 0.55053234 0
2.7180002 -0.37213573 0.55034298 0
2.7160003 -0.37603199 0.55021667 0
2.7140002 -0.37992099 0.55009043 0
2.7120001 -0.38380277 0.54996419 0
2.7110002 -0.38782528 0.54990101 0
2.7100003 -0.39184415 0.54983795 0
2.7100003 -0.39601097 0.54983795 0
2.7090001 -0.40002441 0.54977477 0
2.7090001 -0.40418941 0.54977477 0
2.7090001 -0.4083544 0.54977477 0
2.7100003 -0.41267815 0.54983795 0
2.7110002 -0.41700548 0.54990101 0
2.7120001 -0.42133641 0.54996419 0
2.7130003 -0.42567098 0.55002731 0
2.7160003 -0.43034106 0.55021667 0
2.7180002 -0.43485415 0.55034298 0
2.7220001 -0.4397136 0.55059552 0
2.7260003 -0.44458753 0.55084801 0
2.7310002 -0.44964898 0.55116373 0
2.7400002 -0.45542839 0.55173194 0
3.2470002 -0.056270882 0.57860506 0
3.2370002 -0.061352212 0.57799172 0
3.2370002 -0.066469617 0.57799172 0
3.2370002 -0.071587019 0.57799172 0
3.2370002 -0.076704428 0.57799172 0
3.2380002 -0.08183445 0.57805306 0
3.2380002 -0.086953662 0.57805306 0
2.7310002 -0.1006608 0.54695904 0
2.7240002 -0.1046887 0.54652971 0
2.7180002 -0.10871841 0.54616177 0
2.7140002 -0.11278419 0.54591644 0
2.7110002 -0.11686622 0.54573244 0
2.7080002 -0.12093741 0.54554844 0
2.7050002 -0.12499778 0.5453645 0
2.7030003 -0.12908341 0.54524183 0
2.7010002 -0.13316181 0.54511917 0
2.7000003 -0.1372727 0.54505783 0
2.6990001 -0.14137997 0.5449965 0
2.6980002 -0.14548363 0.54493517 0
2.6980002 -0.14962877 0.54493517 0
2.6980002 -0.15377393 0.54493517 0
2.6980002 -0.15791908 0.54493517 0
2.6980002 -0.16206424 0.54493517 0
2.6990001 -0.16626169 0.5449965 0
2.7000003 -0.17046277 0.54505783 0
2.7010002 -0.17466745 0.54511917 0
2.7030003 -0.17893346 0.54524183 0
2.7050002 -0.18320668 0.5453645 0
2.7080002 -0.18754844 0.54554844 0
2.7110002 -0.19190103 0.54573244 0
2.7160003 -0.19639432 0.5460391 0
2.7210002 -0.20090565 0.54634571 0
2.7280002 -0.2055721 0.54677504 0
3.0340002 -0.23604923 0.56554186 0
3.0340002 -0.24080047 0.56554186 0
3.0350003 -0.24562748 0.5656032 0
3.0350003 -0.25038049 0.5656032 0
3.0350003 -0.25513354 0.5656032 0
3.0350003 -0.25988656 0.5656032 0
3.0350003 -0.26463959 0.5656032 0
3.0360003 -0.2694774 0.56566453 0
3.0360003 -0.27423224 0.56566453 0
3.0360003 -0.27898708 0.56566453 0
3.0360003 -0.28374192 0.56566453 0
3.0370002 -0.28858873 0.56572586 0
3.0370002 -0.29334539 0.56572586 0
3.0370002 -0.29810205 0.56572586 0
3.0370002 -0.30285868 0.56572586 0
3.0370002 -0.30761534 0.56572586 0
3.0380001 -0.31247297 0.5657872 0
3.0380001 -0.31723142 0.5657872 0
3.0380001 -0.32198986 0.5657872 0
3.0380001 -0.32674831 0.5657872 0
3.0380001 -0.33150676 0.5657872 0
3.0390003 -0.33637524 0.56584853 0
3.0390003 -0.3411355 0.56584853 0
3.0390003 -0.34589574 0.56584853 0
3.0390003 -0.350656 0.56584853 0
3.0400002 -0.35553348 0.56590986 0
3.0400002 -0.36029553 0.56590986 0
3.0400002 -0.36505759 0.56590986 0
3.0400002 -0.36981964 0.56590986 0
3.0400002 -0.37458169 0.56590986 0
3.0410001 -0.37947002 0.56597114 0
2.7570002 -0.34786192 0.54855359 0
2.7470002 -0.35081473 0.54794031 0
2.7400002 -0.35412651 0.54751098 0
2.7350001 -0.35768002 0.54720438 0
2.7300003 -0.3612155 0.54689771 0
2.7260003 -0.36487001 0.54665238 0
2.7230003 -0.36864901 0.54646838 0
2.7210002 -0.37255785 0.54634571 0
2.7190001 -0.37645948 0.54622304 0
2.7170002 -0.3803539 0.54610044 0
2.7150002 -0.38424107 0.54597777 0
2.7140002 -0.38826901 0.54591644 0
2.7130003 -0.39229333 0.5458551 0
2.7120001 -0.396314 0.54579377 0
2.7120001 -0.40048438 0.54579377 0
2.7120001 -0.4046548 0.54579377 0
2.7120001 -0.40882519 0.54579377 0
2.7120001 -0.41299561 0.54579377 0
2.7130003 -0.41732657 0.5458551 0
2.7150002 -0.42182344 0.54597777 0
2.7160003 -0.42616343 0.5460391 0
2.7190001 -0.43083888 0.54622304 0
2.7210002 -0.43535742 0.54634571 0
2.7250001 -0.44022229 0.54659104 0
2.7300003 -0.44527298 0.54689771 0
2.7370002 -0.450688 0.54732704 0
3.2500002 -0.056281708 0.57364815 0
3.2370002 -0.061352212 0.57287431 0
3.2370002 -0.066469617 0.57287431 0
3.2370002 -0.071587019 0.57287431 0
3.2370002 -0.076704428 0.57287431 0
3.2380002 -0.08183445 0.57293385 0
3.2380002 -0.086953662 0.57293385 0
2.7360003 -0.10077805 0.54305196 0
2.7280002 -0.10478972 0.54257578 0
2.7220001 -0.10882664 0.54221863 0
2.7170002 -0.11287078 0.54192102 0
2.7130003 -0.11692755 0.5416829 0
2.7100003 -0.12100235 0.54150432 0
2.7080002 -0.1251006 0.54138529 0
2.7060001 -0.12919164 0.5412662 0
2.7040002 -0.13327546 0.54114717 0
2.7020001 -0.13735206 0.54102814 0
2.7010002 -0.14146295 0.5409686 0
2.7010002 -0.14561351 0.5409686 0
2.7000003 -0.14971897 0.54090905 0
2.7000003 -0.15386774 0.54090905 0
2.7000003 -0.1580165 0.54090905 0
2.7010002 -0.16221575 0.5409686 0
2.7010002 -0.16636632 0.5409686 0
2.7020001 -0.17057098 0.54102814 0
2.7040002 -0.17483521 0.54114717 0
2.7060001 -0.17910661 0.5412662 0
2.7080002 -0.18338525 0.54138529 0
2.7110002 -0.18773243 0.54156387 0
2.7150002 -0.19215356 0.54180193 0
2.7190001 -0.19658913 0.54204005 0
2.7250001 -0.20117261 0.5423972 0
2.7330003 -0.20591483 0.54287338 0
3.0340002 -0.23129801 0.56079066 0
3.0340002 -0.23604923 0.56079066 0
3.0340002 -0.24080047 0.56079066 0
3.0350003 -0.24562748 0.56085014 0
3.0350003 -0.25038049 0.56085014 0
3.0350003 -0.25513354 0.56085014 0
3.0350003 -0.25988656 0.56085014 0
3.0350003 -0.26463959 0.56085014 0
3.0360003 -0.2694774 0.56090969 0
3.0360003 -0.27423224 0.56090969 0
3.0360003 -0.27898708 0.56090969 0
3.0360003 -0.28374192 0.56090969 0
3.0370002 -0.28858873 0.56096923 0
3.0370002 -0.29334539 0.56096923 0
3.0370002 -0.29810205 0.56096923 0
3.0370002 -0.30285868 0.56096923 0
3.0370002 -0.30761534 0.56096923 0
3.0380001 -0.31247297 0.56102872 0
3.0380001 -0.31723142 0.56102872 0
3.0380001 -0.32198986 0.56102872 0
3.0380001 -0.32674831 0.56102872 0
3.0380001 -0.33150676 0.56102872 0
3.0390003 -0.33637524 0.56108826 0
3.0390003 -0.3411355 0.56108826 0
3.0390003 -0.34589574 0.56108826 0
3.0390003 -0.350656 0.56108826 0
3.0390003 -0.35541627 0.56108826 0
3.0400002 -0.36029553 0.56114781 0
3.0400002 -0.36505759 0.56114781 0
3.0400002 -0.36981964 0.56114781 0
3.0400002 -0.37458169 0.56114781 0
3.0410001 -0.37947002 0.56120729 0
2.7530003 -0.351594 0.54406393 0
2.7450001 -0.35478491 0.54358768 0
2.7390003 -0.35821396 0.54323053 0
2.7340002 -0.36175662 0.54293293 0
2.7300003 -0.36541837 0.54269481 0
2.7270002 -0.36920458 0.54251623 0
2.7240002 -0.37297991 0.54233766 0
2.7210002 -0.37674448 0.54215908 0
2.7190001 -0.3806425 0.54204005 0
2.7180002 -0.38467944 0.5419805 0
2.7160003 -0.38856485 0.54186147 0
2.7160003 -0.39274246 0.54186147 0
2.7150002 -0.39676854 0.54180193 0
2.7140002 -0.40079105 0.54174244 0
2.7150002 -0.40512019 0.54180193 0
2.7150002 -0.40929598 0.54180193 0
2.7150002 -0.41347179 0.54180193 0
2.7160003 -0.4178082 0.54186147 0
2.7180002 -0.42231047 0.5419805 0
2.7200003 -0.42682001 0.5420996 0
2.7220001 -0.43133673 0.54221863 0
2.7250001 -0.43602842 0.5423972 0
2.7300003 -0.44107011 0.54269481 0
2.7350001 -0.44612974 0.54299247 0
3.2520003 -0.05628892 0.56862277 0
3.2370002 -0.061352212 0.56775695 0
3.2370002 -0.066469617 0.56775695 0
3.2370002 -0.071587019 0.56775695 0
3.2370002 -0.076704428 0.56775695 0
3.2380002 -0.08183445 0.56781465 0
3.2380002 -0.086953662 0.56781465 0
3.2380002 -0.092072867 0.56781465 0
2.7330003 -0.10491599 0.53866512 0
2.7260003 -0.10893488 0.53826106 0
2.7210002 -0.11298622 0.53797245 0
2.7170002 -0.1170502 0.53774154 0
2.7130003 -0.12109976 0.53751069 0
2.7110002 -0.12520342 0.53739524 0
2.7080002 -0.12926379 0.53722209 0
2.7070003 -0.1333891 0.53716433 0
2.7050002 -0.13747111 0.53704894 0
2.7040002 -0.14158741 0.53699118 0
2.7030003 -0.1457001 0.53693348 0
2.7030003 -0.14985426 0.53693348 0
2.7030003 -0.15400843 0.53693348 0
2.7030003 -0.15816261 0.53693348 0
2.7030003 -0.16231678 0.53693348 0
2.7040002 -0.16652325 0.53699118 0
2.7050002 -0.17073333 0.53704894 0
2.7070003 -0.17500296 0.53716433 0
2.7090001 -0.17927977 0.53727978 0
2.7110002 -0.18356383 0.53739524 0
2.7140002 -0.18791641 0.53756839 0
2.7190001 -0.19240609 0.537857 0
2.7240002 -0.19691381 0.53814566 0
2.7310002 -0.20157304 0.53854966 0
3.0340002 -0.23129801 0.55603939 0
3.0340002 -0.23604923 0.55603939 0
3.0340002 -0.24080047 0.55603939 0
3.0350003 -0.24562748 0.55609715 0
3.0350003 -0.25038049 0.55609715 0
3.0350003 -0.25513354 0.55609715 0
3.0350003 -0.25988656 0.55609715 0
3.0350003 -0.26463959 0.55609715 0
3.0360003 -0.2694774 0.55615485 0
3.0360003 -0.27423224 0.55615485 0
3.0360003 -0.27898708 0.55615485 0
3.0360003 -0.28374192 0.55615485 0
3.0360003 -0.28849676 0.55615485 0
3.0370002 -0.29334539 0.55621254 0
3.0370002 -0.29810205 0.55621254 0
3.0370002 -0.30285868 0.55621254 0
3.0370002 -0.30761534 0.55621254 0
3.0380001 -0.31247297 0.5562703 0
3.0380001 -0.31723142 0.5562703 0
3.0380001 -0.32198986 0.5562703 0
3.0380001 -0.32674831 0.5562703 0
3.0380001 -0.33150676 0.5562703 0
3.0390003 -0.33637524 0.556328 0
3.0390003 -0.3411355 0.556328 0
3.0390003 -0.34589574 0.556328 0
3.0390003 -0.350656 0.556328 0
3.0390003 -0.35541627 0.556328 0
3.0400002 -0.36029553 0.55638576 0
3.0400002 -0.36505759 0.55638576 0
3.0400002 -0.36981964 0.55638576 0
3.0400002 -0.37458169 0.55638576 0
3.0410001 -0.37947002 0.55644345 0
3.0410001 -0.38423386 0.55644345 0
2.7510002 -0.35557497 0.53970408 0
2.7440002 -0.35888135 0.53930008 0
2.7390003 -0.36243308 0.53901148 0
2.7340002 -0.36596671 0.53872287 0
2.7300003 -0.36962125 0.53849196 0
2.7280002 -0.3735427 0.53837651 0
2.7250001 -0.37731448 0.53820336 0
2.7230003 -0.38121974 0.5380879 0
2.7210002 -0.38511774 0.53797245 0
2.7200003 -0.38915649 0.53791475 0
2.7190001 -0.39319161 0.537857 0
2.7180002 -0.39722311 0.5377993 0
2.7170002 -0.40125102 0.53774154 0
2.7170002 -0.40543044 0.53774154 0
2.7180002 -0.40976676 0.5377993 0
2.7190001 -0.41410676 0.537857 0
2.7200003 -0.41845033 0.53791475 0
2.7220001 -0.42295983 0.53803015 0
2.7240002 -0.42747658 0.53814566 0
2.7270002 -0.43216649 0.53831881 0
2.7300003 -0.43686724 0.53849196 0
2.7350001 -0.44191787 0.53878057 0
2.7430003 -0.44750068 0.53924233 0
3.2540002 -0.056296136 0.56359017 0
3.2370002 -0.061352212 0.56263953 0
3.2370002 -0.066469617 0.56263953 0
3.2370002 -0.071587019 0.56263953 0
3.2370002 -0.076704428 0.56263953 0
3.2380002 -0.08183445 0.56269544 0
3.2380002 -0.086953662 0.56269544 0
3.2380002 -0.092072867 0.56269544 0
2.7400002 -0.10509276 0.53484827 0
2.7320001 -0.10909721 0.53440094 0
2.7260003 -0.11313052 0.53406543 0
2.7210002 -0.11717285 0.53378582 0
2.7170002 -0.12122962 0.53356218 0
2.7140002 -0.12530623 0.5333944 0
2.7120001 -0.12940809 0.53328258 0
2.7100003 -0.13350274 0.5331707 0
2.7080002 -0.13759017 0.53305888 0
2.7070003 -0.14171188 0.53300297 0
2.7060001 -0.14582996 0.53294706 0
2.7060001 -0.14998955 0.53294706 0
2.7060001 -0.15414913 0.53294706 0
2.7060001 -0.1583087 0.53294706 0
2.7060001 -0.16246828 0.53294706 0
2.7070003 -0.16668019 0.53300297 0
2.7090001 -0.1709498 0.53311479 0
2.7100003 -0.17517072 0.5331707 0
2.7130003 -0.17951068 0.53333849 0
2.7160003 -0.18386146 0.53350621 0
2.7190001 -0.18822306 0.533674 0
2.7230003 -0.19265863 0.53389764 0
2.7300003 -0.19730344 0.53428906 0
2.7390003 -0.20210698 0.53479236 0
3.0340002 -0.22654678 0.55128813 0
3.0340002 -0.23129801 0.55128813 0
3.0340002 -0.23604923 0.55128813 0
3.0340002 -0.24080047 0.55128813 0
3.0350003 -0.24562748 0.5513441 0
3.0350003 -0.25038049 0.5513441 0
3.0350003 -0.25513354 0.5513441 0
3.0350003 -0.25988656 0.5513441 0
3.0350003 -0.26463959 0.5513441 0
3.0360003 -0.2694774 0.55140001 0
3.0360003 -0.27423224 0.55140001 0
3.0360003 -0.27898708 0.55140001 0
3.0360003 -0.28374192 0.55140001 0
3.0360003 -0.28849676 0.55140001 0
3.0370002 -0.29334539 0.55145591 0
3.0370002 -0.29810205 0.55145591 0
3.0370002 -0.30285868 0.55145591 0
3.0370002 -0.30761534 0.55145591 0
3.0380001 -0.31247297 0.55151182 0
3.0380001 -0.31723142 0.55151182 0
3.0380001 -0.32198986 0.55151182 0
3.0380001 -0.32674831 0.55151182 0
3.0380001 -0.33150676 0.55151182 0
3.0390003 -0.33637524 0.55156779 0
3.0390003 -0.3411355 0.55156779 0
3.0390003 -0.34589574 0.55156779 0
3.0390003 -0.350656 0.55156779 0
3.0390003 -0.35541627 0.55156779 0
3.0400002 -0.36029553 0.5516237 0
3.0400002 -0.36505759 0.5516237 0
3.0400002 -0.36981964 0.5516237 0
3.0400002 -0.37458169 0.5516237 0
3.0410001 -0.37947002 0.55167961 0
3.0410001 -0.38423386 0.55167961 0
3.0410001 -0.38899773 0.55167961 0
2.7610002 -0.35689175 0.53602254 0
2.7510002 -0.35981572 0.53546333 0
2.7440002 -0.36310947 0.53507197 0
2.7390003 -0.36665219 0.53479236 0
2.7350001 -0.3703157 0.53456867 0
2.7320001 -0.37410548 0.53440094 0
2.7290001 -0.37788448 0.53423315 0
2.7270002 -0.38179693 0.53412133 0
2.7250001 -0.38570216 0.53400952 0
2.7240002 -0.38974813 0.53395355 0
2.7230003 -0.39379048 0.53389764 0
2.7220001 -0.39782917 0.53384173 0
2.7220001 -0.40201762 0.53384173 0
2.7220001 -0.40620607 0.53384173 0
2.7220001 -0.41039452 0.53384173 0
2.7230003 -0.41474169 0.53389764 0
2.7240002 -0.41909248 0.53395355 0
2.7260003 -0.42360926 0.53406543 0
2.7280002 -0.42813316 0.53417724 0
2.7320001 -0.43299624 0.53440094 0
2.7370002 -0.43804151 0.53468049 0
2.7430003 -0.44327435 0.535016 0
3.2370002 -0.061352212 0.55752212 0
3.2370002 -0.066469617 0.55752212 0
3.2370002 -0.071587019 0.55752212 0
3.2370002 -0.076704428 0.55752212 0
3.2370002 -0.081821829 0.55752212 0
3.2380002 -0.086953662 0.55757624 0
3.2380002 -0.092072867 0.55757624 0
2.7400002 -0.10931367 0.53062737 0
2.7320001 -0.11330369 0.5301944 0
2.7270002 -0.11735685 0.52992386 0
2.7220001 -0.12139197 0.52965331 0
2.7190001 -0.1254776 0.52949095 0
2.7160003 -0.12955239 0.52932858 0
2.7140002 -0.13365425 0.5292204 0
2.7120001 -0.1377489 0.52911216 0
2.7110002 -0.14187782 0.52905804 0
2.7100003 -0.14600313 0.52900392 0
2.7100003 -0.15016992 0.52900392 0
2.7100003 -0.15433672 0.52900392 0
2.7100003 -0.15850353 0.52900392 0
2.7100003 -0.16267033 0.52900392 0
2.7110002 -0.16688943 0.52905804 0
2.7130003 -0.17116627 0.52916628 0
2.7150002 -0.1754503 0.52927446 0
2.7170002 -0.17974156 0.52938271 0
2.7200003 -0.18409957 0.52954507 0
2.7240002 -0.18852971 0.52976155 0
2.7300003 -0.19310056 0.53008622 0
2.7390003 -0.19788788 0.53057325 0
3.0330002 -0.2217288 0.5464828 0
3.0340002 -0.22654678 0.54653692 0
3.0340002 -0.23129801 0.54653692 0
3.0340002 -0.23604923 0.54653692 0
3.0340002 -0.24080047 0.54653692 0
3.0350003 -0.24562748 0.54659104 0
3.0350003 -0.25038049 0.54659104 0
3.0350003 -0.25513354 0.54659104 0
3.0350003 -0.25988656 0.54659104 0
3.0350003 -0.26463959 0.54659104 0
3.0360003 -0.2694774 0.54664516 0
3.0360003 -0.27423224 0.54664516 0
3.0360003 -0.27898708 0.54664516 0
3.0360003 -0.28374192 0.54664516 0
3.0360003 -0.28849676 0.54664516 0
3.0370002 -0.29334539 0.54669929 0
3.0370002 -0.29810205 0.54669929 0
3.0370002 -0.30285868 0.54669929 0
3.0370002 -0.30761534 0.54669929 0
3.0380001 -0.31247297 0.54675341 0
3.0380001 -0.31723142 0.54675341 0
3.0380001 -0.32198986 0.54675341 0
3.0380001 -0.32674831 0.54675341 0
3.0380001 -0.33150676 0.54675341 0
3.0390003 -0.33637524 0.54680753 0
3.0390003 -0.3411355 0.54680753 0
3.0390003 -0.34589574 0.54680753 0
3.0390003 -0.350656 0.54680753 0
3.0390003 -0.35541627 0.54680753 0
3.0400002 -0.36029553 0.54686165 0
3.0400002 -0.36505759 0.54686165 0
3.0400002 -0.36981964 0.54686165 0
3.0400002 -0.37458169 0.54686165 0
3.0410001 -0.37947002 0.54691577 0
3.0410001 -0.38423386 0.54691577 0
3.0410001 -0.38899773 0.54691577 0
2.7620003 -0.36128405 0.53181785 0
2.7520001 -0.36419174 0.5312767 0
2.7460003 -0.36761183 0.53095204 0
2.7410002 -0.37114906 0.53068149 0
2.7370002 -0.374809 0.53046501 0
2.7340002 -0.37859696 0.53030264 0
2.7320001 -0.38251844 0.5301944 0
2.7300003 -0.38643274 0.53008622 0
2.7280002 -0.39033979 0.52997798 0
2.7270002 -0.39438933 0.52992386 0
2.7260003 -0.39843529 0.52986979 0
2.7260003 -0.40263095 0.52986979 0
2.7260003 -0.40682659 0.52986979 0
2.7260003 -0.41102225 0.52986979 0
2.7280002 -0.41553539 0.52997798 0
2.7290001 -0.41989517 0.5300321 0
2.7320001 -0.42458326 0.5301944 0
2.7350001 -0.42928219 0.53035676 0
2.7390003 -0.43415791 0.53057325 0
2.7460003 -0.43955129 0.53095204 0
3.2370002 -0.061352212 0.55240476 0
3.2370002 -0.066469617 0.55240476 0
3.2370002 -0.071587019 0.55240476 0
3.2370002 -0.076704428 0.55240476 0
3.2370002 -0.081821829 0.55240476 0
3.2380002 -0.086953662 0.55245703 0
3.2380002 -0.092072867 0.55245703 0
2.7400002 -0.11353458 0.52640641 0
2.7330003 -0.11754084 0.52604026 0
2.7280002 -0.12158677 0.52577871 0
2.7240002 -0.12564896 0.5255695 0
2.7210002 -0.12973277 0.52541256 0
2.7190001 -0.13384366 0.52530789 0
2.7170002 -0.13794732 0.52520329 0
2.7150002 -0.14204377 0.52509868 0
2.7140002 -0.14617629 0.52504635 0
2.7140002 -0.1503503 0.52504635 0
2.7140002 -0.15452431 0.52504635 0
2.7140002 -0.15869834 0.52504635 0
2.7150002 -0.16292284 0.52509868 0
2.7160003 -0.16715099 0.52515101 0
2.7170002 -0.17138271 0.52520329 0
2.7200003 -0.1757299 0.52536023 0
2.7230003 -0.18008789 0.52551717 0
2.7270002 -0.18451625 0.52572638 0
2.7310002 -0.18895902 0.52593565 0
2.7400002 -0.1937319 0.52640641 0
3.0330002 -0.21697937 0.54173338 0
3.0330002 -0.2217288 0.54173338 0
3.0340002 -0.22654678 0.54178572 0
3.0340002 -0.23129801 0.54178572 0
3.0340002 -0.23604923 0.54178572 0
3.0340002 -0.24080047 0.54178572 0
3.0350003 -0.24562748 0.54183805 0
3.0350003 -0.25038049 0.54183805 0
3.0350003 -0.25513354 0.54183805 0
3.0350003 -0.25988656 0.54183805 0
3.0350003 -0.26463959 0.54183805 0
3.0360003 -0.2694774 0.54189032 0
3.0360003 -0.27423224 0.54189032 0
3.0360003 -0.27898708 0.54189032 0
3.0360003 -0.28374192 0.54189032 0
3.0360003 -0.28849676 0.54189032 0
3.0370002 -0.29334539 0.54194266 0
3.0370002 -0.29810205 0.54194266 0
3.0370002 -0.30285868 0.54194266 0
3.0370002 -0.30761534 0.54194266 0
3.0370002 -0.31237197 0.54194266 0
3.0380001 -0.31723142 0.54199493 0
3.0380001 -0.32198986 0.54199493 0
3.0380001 -0.32674831 0.54199493 0
3.0380001 -0.33150676 0.54199493 0
3.0390003 -0.33637524 0.54204726 0
3.0390003 -0.3411355 0.54204726 0
3.0390003 -0.34589574 0.54204726 0
3.0390003 -0.350656 0.54204726 0
3.0390003 -0.35541627 0.54204726 0
3.0400002 -0.36029553 0.5420996 0
3.0400002 -0.36505759 0.5420996 0
3.0400002 -0.36981964 0.5420996 0
3.0400002 -0.37458169 0.5420996 0
3.0400002 -0.37934375 0.5420996 0
3.0410001 -0.38423386 0.54215187 0
3.0410001 -0.38899773 0.54215187 0
2.7550001 -0.36884558 0.5271911 0
2.7490003 -0.37226021 0.52687722 0
2.7440002 -0.37579384 0.52661568 0
2.7400002 -0.37945202 0.52640641 0
2.7370002 -0.38323998 0.52624953 0
2.7350001 -0.38716328 0.52614486 0
2.7340002 -0.39122728 0.52609259 0
2.7330003 -0.39528763 0.52604026 0
2.7320001 -0.39934438 0.52598792 0
2.7320001 -0.40355086 0.52598792 0
2.7320001 -0.40775734 0.52598792 0
2.7330003 -0.41212076 0.52604026 0
2.7340002 -0.41648778 0.52609259 0
2.7360003 -0.42101896 0.5261972 0
2.7390003 -0.42571971 0.52635413 0
2.7430003 -0.43059537 0.52656341 0
2.7510002 -0.4361493 0.52698183 0
3.2370002 -0.061352212 0.54728734 0
3.2370002 -0.066469617 0.54728734 0
3.2370002 -0.071587019 0.54728734 0
3.2370002 -0.076704428 0.54728734 0
3.2370002 -0.081821829 0.54728734 0
3.2380002 -0.086953662 0.54733783 0
3.2380002 -0.092072867 0.54733783 0
2.7440002 -0.11787815 0.52238756 0
2.7360003 -0.12184653 0.5219835 0
2.7310002 -0.12588887 0.52173096 0
2.7270002 -0.12994923 0.52152896 0
2.7250001 -0.13407093 0.52142793 0
2.7230003 -0.13818543 0.5213269 0
2.7210002 -0.14229269 0.52122593 0
2.7200003 -0.14643605 0.52117538 0
2.7190001 -0.15057577 0.5211249 0
2.7190001 -0.15475881 0.5211249 0
2.7200003 -0.15899055 0.52117538 0
2.7200003 -0.16317539 0.52117538 0
2.7220001 -0.16746482 0.52127641 0
2.7240002 -0.17176151 0.52137744 0
2.7260003 -0.1760654 0.52147841 0
2.7300003 -0.18049195 0.52168047 0
2.7350001 -0.18499245 0.52193302 0
2.7440002 -0.1897563 0.52238756 0
3.0330002 -0.21222995 0.53698397 0
3.0330002 -0.21697937 0.53698397 0
3.0330002 -0.2217288 0.53698397 0
3.0340002 -0.22654678 0.53703445 0
3.0340002 -0.23129801 0.53703445 0
3.0340002 -0.23604923 0.53703445 0
3.0340002 -0.24080047 0.53703445 0
3.0350003 -0.24562748 0.537085 0
3.0350003 -0.25038049 0.537085 0
3.0350003 -0.25513354 0.537085 0
3.0350003 -0.25988656 0.537085 0
3.0350003 -0.26463959 0.537085 0
3.0360003 -0.2694774 0.53713548 0
3.0360003 -0.27423224 0.53713548 0
3.0360003 -0.27898708 0.53713548 0
3.0360003 -0.28374192 0.53713548 0
3.0360003 -0.28849676 0.53713548 0
3.0370002 -0.29334539 0.53718603 0
3.0370002 -0.29810205 0.53718603 0
3.0370002 -0.30285868 0.53718603 0
3.0370002 -0.30761534 0.53718603 0
3.0370002 -0.31237197 0.53718603 0
3.0380001 -0.31723142 0.53723651 0
3.0380001 -0.32198986 0.53723651 0
3.0380001 -0.32674831 0.53723651 0
3.0380001 -0.33150676 0.53723651 0
3.0390003 -0.33637524 0.537287 0
3.0390003 -0.3411355 0.537287 0
3.0390003 -0.34589574 0.537287 0
3.0390003 -0.350656 0.537287 0
3.0390003 -0.35541627 0.537287 0
3.0400002 -0.36029553 0.53733754 0
3.0400002 -0.36505759 0.53733754 0
3.0400002 -0.36981964 0.53733754 0
3.0400002 -0.37458169 0.53733754 0
3.0400002 -0.37934375 0.53733754 0
3.0410001 -0.38423386 0.53738803 0
2.7550001 -0.37309358 0.52294314 0
2.7480001 -0.37635663 0.52258956 0
2.7420001 -0.37973699 0.52228653 0
2.7390003 -0.38352862 0.52213502 0
2.7360003 -0.3873094 0.5219835 0
2.7340002 -0.39122728 0.52188247 0
2.7320001 -0.39513791 0.52178144 0
2.7310002 -0.39919287 0.52173096 0
2.7310002 -0.40339756 0.52173096 0
2.7310002 -0.40760222 0.52173096 0
2.7310002 -0.41180691 0.52173096 0
2.7320001 -0.4161703 0.52178144 0
2.7340002 -0.42069787 0.52188247 0
2.7370002 -0.42539501 0.52203399 0
2.7410002 -0.43026707 0.52223605 0
2.7490003 -0.43581739 0.52264011 0
3.2370002 -0.061352212 0.54216993 0
3.2370002 -0.066469617 0.54216993 0
3.2370002 -0.071587019 0.54216993 0
3.2370002 -0.076704428 0.54216993 0
3.2370002 -0.081821829 0.54216993 0
3.2380002 -0.086953662 0.54221863 0
3.2380002 -0.092072867 0.54221863 0
2.7390003 -0.12616305 0.5179159 0
2.7330003 -0.1301657 0.51762372 0
2.7280002 -0.13418457 0.51738018 0
2.7260003 -0.13830447 0.51728278 0
2.7230003 -0.14237568 0.51713669 0
2.7220001 -0.14652263 0.51708794 0
2.7210002 -0.15066597 0.5170393 0
2.7200003 -0.15480572 0.51699054 0
2.7200003 -0.15899055 0.51699054 0
2.7210002 -0.16322589 0.5170393 0
2.7220001 -0.16746482 0.51708794 0
2.7240002 -0.17176151 0.51718539 0
2.7270002 -0.17612131 0.51733148 0
2.7310002 -0.18054967 0.51752627 0
2.7380002 -0.18517102 0.51786721 0
3.0330002 -0.21222995 0.53223455 0
3.0330002 -0.21697937 0.53223455 0
3.0330002 -0.2217288 0.53223455 0
3.0340002 -0.22654678 0.53228325 0
3.0340002 -0.23129801 0.53228325 0
3.0340002 -0.23604923 0.53228325 0
3.0340002 -0.24080047 0.53228325 0
3.0340002 -0.24555171 0.53228325 0
3.0350003 -0.25038049 0.53233194 0
3.0350003 -0.25513354 0.53233194 0
3.0350003 -0.25988656 0.53233194 0
3.0350003 -0.26463959 0.53233194 0
3.0360003 -0.2694774 0.53238064 0
3.0360003 -0.27423224 0.53238064 0
3.0360003 -0.27898708 0.53238064 0
3.0360003 -0.28374192 0.53238064 0
3.0360003 -0.28849676 0.53238064 0
3.0370002 -0.29334539 0.53242934 0
3.0370002 -0.29810205 0.53242934 0
3.0370002 -0.30285868 0.53242934 0
3.0370002 -0.30761534 0.53242934 0
3.0370002 -0.31237197 0.53242934 0
3.0380001 -0.31723142 0.53247803 0
3.0380001 -0.32198986 0.53247803 0
3.0380001 -0.32674831 0.53247803 0
3.0380001 -0.33150676 0.53247803 0
3.0390003 -0.33637524 0.53252673 0
3.0390003 -0.3411355 0.53252673 0
3.0390003 -0.34589574 0.53252673 0
3.0390003 -0.350656 0.53252673 0
3.0390003 -0.35541627 0.53252673 0
3.0400002 -0.36029553 0.53257549 0
3.0400002 -0.36505759 0.53257549 0
3.0400002 -0.36981964 0.53257549 0
3.0400002 -0.37458169 0.53257549 0
