# .PCD v0.7 - Point Cloud Data file format
VERSION 0.7
FIELDS x y z intensity
SIZE 4 4 4 4
TYPE F F F F
COUNT 1 1 1 1
WIDTH 1462
HEIGHT 1
VIEWPOINT 0 0 0 1 0 0 0
POINTS 1462
DATA ascii
4.9880004 -1.5604846 1.9350364 0
4.9820004 -1.5667691 1.9330342 0
4.9770002 -1.5733657 1.9313657 0
4.9710002 -1.5796086 1.9293634 0
4.9650002 -1.5858299 1.9273611 0
4.9600005 -1.5923688 1.9256928 0
4.9540005 -1.5985487 1.9236904 0
4.9490004 -1.6050495 1.922022 0
4.9430003 -1.6111878 1.9200196 0
4.9380002 -1.6176509 1.9183512 0
4.9320002 -1.6237477 1.9163488 0
4.9270005 -1.6301731 1.9146805 0
4.9210005 -1.6362284 1.9126782 0
4.9160004 -1.6426157 1.9110097 0
4.9100003 -1.6486294 1.9090074 0
4.9050002 -1.6549789 1.907339 0
4.8990002 -1.6609513 1.9053366 0
4.8940005 -1.6672629 1.9036683 0
4.8880005 -1.6731938 1.901666 0
4.8830004 -1.6794674 1.8999975 0
4.8780003 -1.6857231 1.8983289 0
4.8720002 -1.6915926 1.8963267 0
4.8670001 -1.6978102 1.8946581 0
4.8620005 -1.70401 1.8929898 0
4.8560004 -1.7098184 1.8909874 0
4.8510003 -1.7159801 1.8893189 0
4.8460002 -1.7221239 1.8876503 0
4.8400002 -1.7278708 1.8856481 0
4.8350005 -1.7339768 1.8839797 0
4.8300004 -1.7400645 1.8823111 0
4.8240004 -1.7457502 1.8803089 0
4.8190002 -1.7518001 1.8786403 0
4.8140001 -1.7578321 1.8769718 0
4.8090005 -1.763846 1.8753034 0
4.8030005 -1.7694504 1.873301 0
4.7980003 -1.7754264 1.8716326 0
4.7930002 -1.7813843 1.869964 0
4.7880001 -1.7873242 1.8682954 0
4.7830005 -1.7932463 1.866627 0
4.7780004 -1.7991501 1.8649585 0
4.7720003 -1.8046337 1.8629563 0
4.7670002 -1.8104995 1.8612877 0
4.7620001 -1.8163475 1.859619 0
4.7570004 -1.8221775 1.8579507 0
4.7520003 -1.8279893 1.8562821 0
4.7470002 -1.8337831 1.8546135 0
4.7420001 -1.839559 1.8529451 0
4.7370005 -1.8453168 1.8512766 0
4.7320004 -1.8510566 1.8496081 0
4.7270002 -1.8567781 1.8479395 0
4.7220001 -1.8624817 1.8462709 0
4.7170005 -1.8681675 1.8446026 0
4.7120004 -1.873835 1.8429339 0
4.7070003 -1.8794844 1.8412654 0
4.7020001 -1.885116 1.8395969 0
4.6970005 -1.8907295 1.8379284 0
4.6920004 -1.8963249 1.83626 0
4.6870003 -1.9019021 1.8345913 0
4.6820002 -1.9074615 1.8329227 0
4.6770005 -1.9130028 1.8312544 0
4.6720004 -1.9185262 1.8295858 0
4.6670003 -1.9240314 1.8279172 0
4.6620002 -1.9295186 1.8262488 0
4.6570001 -1.9349877 1.8245801 0
4.6530004 -1.9408844 1.8232454 0
4.6480002 -1.9463191 1.8215768 0
4.6430001 -1.9517359 1.8199083 0
4.6380005 -1.957135 1.8182399 0
4.6330004 -1.9625156 1.8165714 0
4.6280003 -1.9678783 1.8149028 0
4.6240001 -1.9736793 1.8135679 0
4.6190004 -1.9790078 1.8118995 0
4.6140003 -1.9843183 1.8102309 0
4.6090002 -1.9896106 1.8085624 0
4.6050005 -1.9953486 1.8072276 0
4.6000004 -2.0006065 1.805559 0
4.5950003 -2.0058465 1.8038905 0
4.5900002 -2.0110686 1.802222 0
4.5860004 -2.0167437 1.8008872 0
4.5810003 -2.0219312 1.7992187 0
4.5760002 -2.027101 1.7975501 0
4.5720005 -2.0327289 1.7962154 0
4.5670004 -2.0378644 1.7945468 0
4.5620003 -2.0429816 1.7928783 0
4.5580001 -2.0485625 1.7915434 0
4.5530005 -2.0536458 1.7898749 0
4.5480003 -2.0587108 1.7882065 0
4.5440001 -2.064245 1.7868716 0
4.5390005 -2.0692759 1.7852031 0
4.5340004 -2.0742886 1.7835345 0
4.5300002 -2.0797756 1.7821997 0
4.5250001 -2.0847542 1.7805312 0
4.5210004 -2.0902107 1.7791965 0
4.5160003 -2.095155 1.7775278 0
4.5120001 -2.1005809 1.7761929 0
4.5070004 -2.1054909 1.7745246 0
4.5030003 -2.1108861 1.7731898 0
4.4980001 -2.1157618 1.7715211 0
4.4940004 -2.1211262 1.7701864 0
4.4890003 -2.1259675 1.7685179 0
4.4850001 -2.1313016 1.7671831 0
4.4800005 -2.1361086 1.7655145 0
4.4760003 -2.1414118 1.7641797 0
4.4710002 -2.1461847 1.7625111 0
4.4670005 -2.1514573 1.7611765 0
4.4620004 -2.1561959 1.7595078 0
4.4580002 -2.1614377 1.758173 0
4.4530001 -2.166142 1.7565044 0
4.4490004 -2.1713533 1.7551697 0
4.4450002 -2.1765499 1.7538348 0
4.4400001 -2.1812038 1.7521662 0
4.4360003 -2.1863701 1.7508315 0
4.4310002 -2.1909895 1.749163 0
4.4270005 -2.1961253 1.7478282 0
4.4230003 -2.201246 1.7464933 0
4.4180002 -2.2058151 1.7448248 0
4.4140005 -2.2109056 1.7434901 0
4.4100003 -2.2159815 1.7421552 0
4.4050002 -2.2204998 1.7404867 0
4.4010005 -2.2255452 1.7391518 0
4.3970003 -2.230576 1.737817 0
4.3930001 -2.2355924 1.7364823 0
4.388 -2.2400441 1.7348137 0
4.3840003 -2.2450297 1.7334789 0
4.3800001 -2.2500012 1.7321441 0
4.375 -2.2544024 1.7304754 0
4.3710003 -2.2593431 1.7291406 0
4.3670001 -2.2642691 1.7278059 0
4.3630004 -2.269181 1.7264711 0
4.3590002 -2.2740784 1.7251363 0
4.3540001 -2.2783966 1.7234677 0
4.3500004 -2.2832634 1.7221329 0
4.3460002 -2.2881155 1.720798 0
4.342 -2.2929533 1.7194632 0
4.3380003 -2.2977767 1.7181284 0
4.3330002 -2.302012 1.71646 0
5.1040001 -1.4290736 1.965261 0
5.0980005 -1.4357837 1.9632696 0
5.0920005 -1.4424723 1.9612782 0
5.0860004 -1.4491391 1.9592868 0
5.0800004 -1.4557844 1.9572954 0
5.0740004 -1.4624079 1.955304 0
5.0690002 -1.4693147 1.9536444 0
5.0630002 -1.4758968 1.951653 0
5.0570002 -1.4824572 1.9496616 0
5.0510001 -1.488996 1.9476702 0
5.0450006 -1.4955133 1.9456788 0
5.0390005 -1.5020089 1.9436874 0
5.0340004 -1.5087984 1.942028 0
5.0280004 -1.5152524 1.9400365 0
5.0220003 -1.5216848 1.9380451 0
5.0160003 -1.5280954 1.9360538 0
5.0110002 -1.5348073 1.9343942 0
5.0050001 -1.5411767 1.9324027 0
4.9990005 -1.5475243 1.9304115 0
4.9940004 -1.5541785 1.9287519 0
4.9880004 -1.5604846 1.9267606 0
4.9820004 -1.5667691 1.9247692 0
4.9770002 -1.5733657 1.9231097 0
4.9710002 -1.5796086 1.9211181 0
4.9650002 -1.5858299 1.9191267 0
4.9600005 -1.5923688 1.9174674 0
4.9540005 -1.5985487 1.915476 0
4.9490004 -1.6050495 1.9138165 0
4.9430003 -1.6111878 1.9118251 0
4.9380002 -1.6176509 1.9101654 0
4.9320002 -1.6237477 1.908174 0
4.9270005 -1.6301731 1.9065146 0
4.9210005 -1.6362284 1.9045233 0
4.9160004 -1.6426157 1.9028636 0
4.9100003 -1.6486294 1.9008722 0
4.9050002 -1.6549789 1.8992127 0
4.8990002 -1.6609513 1.8972213 0
4.8940005 -1.6672629 1.8955619 0
4.8880005 -1.6731938 1.8935704 0
4.8830004 -1.6794674 1.891911 0
4.8780003 -1.6857231 1.8902514 0
4.8720002 -1.6915926 1.88826 0
4.8670001 -1.6978102 1.8866004 0
4.8620005 -1.70401 1.8849411 0
4.8560004 -1.7098184 1.8829497 0
4.8510003 -1.7159801 1.8812901 0
4.8460002 -1.7221239 1.8796306 0
4.8400002 -1.7278708 1.8776392 0
4.8350005 -1.7339768 1.8759798 0
4.8300004 -1.7400645 1.8743203 0
4.8240004 -1.7457502 1.8723289 0
4.8190002 -1.7518001 1.8706692 0
4.8140001 -1.7578321 1.8690097 0
4.8090005 -1.763846 1.8673505 0
4.8030005 -1.7694504 1.8653589 0
4.7980003 -1.7754264 1.8636994 0
4.7930002 -1.7813843 1.8620398 0
4.7880001 -1.7873242 1.8603804 0
4.7830005 -1.7932463 1.8587209 0
4.7780004 -1.7991501 1.8570614 0
4.7720003 -1.8046337 1.85507 0
4.7670002 -1.8104995 1.8534105 0
4.7620001 -1.8163475 1.8517509 0
4.7570004 -1.8221775 1.8500915 0
4.7520003 -1.8279893 1.8484321 0
4.7470002 -1.8337831 1.8467724 0
4.7420001 -1.839559 1.8451128 0
4.7370005 -1.8453168 1.8434535 0
4.7320004 -1.8510566 1.841794 0
4.7270002 -1.8567781 1.8401344 0
4.7220001 -1.8624817 1.8384749 0
4.7170005 -1.8681675 1.8368155 0
4.7120004 -1.873835 1.835156 0
4.7070003 -1.8794844 1.8334965 0
4.7020001 -1.885116 1.8318368 0
4.6970005 -1.8907295 1.8301774 0
4.6920004 -1.8963249 1.8285179 0
4.6870003 -1.9019021 1.8268584 0
4.6820002 -1.9074615 1.8251989 0
4.6770005 -1.9130028 1.8235395 0
4.6720004 -1.9185262 1.8218799 0
4.6670003 -1.9240314 1.8202205 0
4.6620002 -1.9295186 1.8185608 0
4.6570001 -1.9349877 1.8169012 0
4.6530004 -1.9408844 1.8155738 0
4.6480002 -1.9463191 1.8139143 0
4.6430001 -1.9517359 1.8122548 0
4.6380005 -1.957135 1.8105953 0
4.6330004 -1.9625156 1.8089359 0
4.6280003 -1.9678783 1.8072762 0
4.6240001 -1.9736793 1.8059486 0
4.6190004 -1.9790078 1.8042892 0
4.6140003 -1.9843183 1.8026297 0
4.6090002 -1.9896106 1.8009701 0
4.6050005 -1.9953486 1.7996427 0
4.6000004 -2.0006065 1.7979831 0
4.5950003 -2.0058465 1.7963235 0
4.5900002 -2.0110686 1.794664 0
4.5860004 -2.0167437 1.7933365 0
4.5810003 -2.0219312 1.7916769 0
4.5760002 -2.027101 1.7900174 0
4.5720005 -2.0327289 1.7886899 0
4.5670004 -2.0378644 1.7870303 0
4.5620003 -2.0429816 1.7853708 0
4.5580001 -2.0485625 1.7840432 0
4.5530005 -2.0536458 1.7823837 0
4.5480003 -2.0587108 1.7807243 0
4.5440001 -2.064245 1.7793967 0
4.5390005 -2.0692759 1.7777371 0
4.5340004 -2.0742886 1.7760776 0
4.5300002 -2.0797756 1.77475 0
4.5250001 -2.0847542 1.7730905 0
4.5210004 -2.0902107 1.7717628 0
4.5160003 -2.095155 1.7701035 0
4.5120001 -2.1005809 1.7687757 0
4.5070004 -2.1054909 1.7671163 0
4.5030003 -2.1108861 1.7657887 0
4.4980001 -2.1157618 1.764129 0
4.4940004 -2.1211262 1.7628016 0
4.4890003 -2.1259675 1.761142 0
4.4850001 -2.1313016 1.7598144 0
4.4800005 -2.1361086 1.7581551 0
4.4760003 -2.1414118 1.7568274 0
4.4710002 -2.1461847 1.7551678 0
4.4670005 -2.1514573 1.7538403 0
4.4620004 -2.1561959 1.7521808 0
4.4580002 -2.1614377 1.7508531 0
4.4530001 -2.166142 1.7491935 0
4.4490004 -2.1713533 1.747866 0
4.4450002 -2.1765499 1.7465384 0
4.4400001 -2.1812038 1.7448789 0
4.4360003 -2.1863701 1.7435513 0
4.4310002 -2.1909895 1.7418919 0
4.4270005 -2.1961253 1.7405643 0
4.4230003 -2.201246 1.7392367 0
4.4180002 -2.2058151 1.7375771 0
4.4140005 -2.2109056 1.7362496 0
4.4100003 -2.2159815 1.7349219 0
4.4050002 -2.2204998 1.7332624 0
4.4010005 -2.2255452 1.7319349 0
4.3970003 -2.230576 1.7306073 0
4.3930001 -2.2355924 1.7292796 0
4.388 -2.2400441 1.7276201 0
4.3840003 -2.2450297 1.7262925 0
4.3800001 -2.2500012 1.724965 0
4.375 -2.2544024 1.7233053 0
4.3710003 -2.2593431 1.7219778 0
4.3670001 -2.2642691 1.7206502 0
4.3630004 -2.269181 1.7193227 0
4.3590002 -2.2740784 1.7179949 0
4.3540001 -2.2783966 1.7163355 0
4.3500004 -2.2832634 1.7150079 0
4.3460002 -2.2881155 1.7136803 0
4.342 -2.2929533 1.7123526 0
4.3380003 -2.2977767 1.7110251 0
4.3330002 -2.302012 1.7093655 0
5.1040001 -1.4290736 1.9567758 0
5.0980005 -1.4357837 1.9547954 0
5.0920005 -1.4424723 1.9528147 0
5.0860004 -1.4491391 1.9508343 0
5.0800004 -1.4557844 1.9488536 0
5.0740004 -1.4624079 1.9468729 0
5.0690002 -1.4693147 1.9452224 0
5.0630002 -1.4758968 1.943242 0
5.0570002 -1.4824572 1.9412613 0
5.0510001 -1.488996 1.9392806 0
5.0450006 -1.4955133 1.9373003 0
5.0390005 -1.5020089 1.9353197 0
5.0340004 -1.5087984 1.9336691 0
5.0280004 -1.5152524 1.9316885 0
5.0220003 -1.5216848 1.929708 0
5.0160003 -1.5280954 1.9277273 0
5.0110002 -1.5348073 1.9260768 0
5.0050001 -1.5411767 1.9240962 0
4.9990005 -1.5475243 1.9221158 0
4.9940004 -1.5541785 1.9204654 0
4.9880004 -1.5604846 1.9184847 0
4.9820004 -1.5667691 1.916504 0
4.9770002 -1.5733657 1.9148536 0
4.9710002 -1.5796086 1.912873 0
4.9650002 -1.5858299 1.9108924 0
4.9600005 -1.5923688 1.909242 0
4.9540005 -1.5985487 1.9072614 0
4.9490004 -1.6050495 1.9056109 0
4.9430003 -1.6111878 1.9036303 0
4.9380002 -1.6176509 1.9019798 0
4.9320002 -1.6237477 1.8999991 0
4.9270005 -1.6301731 1.8983488 0
4.9210005 -1.6362284 1.8963683 0
4.9160004 -1.6426157 1.8947177 0
4.9100003 -1.6486294 1.892737 0
4.9050002 -1.6549789 1.8910866 0
4.8990002 -1.6609513 1.889106 0
4.8940005 -1.6672629 1.8874557 0
4.8880005 -1.6731938 1.885475 0
4.8830004 -1.6794674 1.8838245 0
4.8780003 -1.6857231 1.882174 0
4.8720002 -1.6915926 1.8801934 0
4.8670001 -1.6978102 1.8785429 0
4.8620005 -1.70401 1.8768926 0
4.8560004 -1.7098184 1.8749119 0
4.8510003 -1.7159801 1.8732613 0
4.8460002 -1.7221239 1.8716109 0
4.8400002 -1.7278708 1.8696302 0
4.8350005 -1.7339768 1.8679799 0
4.8300004 -1.7400645 1.8663294 0
4.8240004 -1.7457502 1.8643488 0
4.8190002 -1.7518001 1.8626982 0
4.8140001 -1.7578321 1.8610477 0
4.8090005 -1.763846 1.8593973 0
4.8030005 -1.7694504 1.8574167 0
4.7980003 -1.7754264 1.8557663 0
4.7930002 -1.7813843 1.8541157 0
4.7880001 -1.7873242 1.8524653 0
4.7830005 -1.7932463 1.8508148 0
4.7780004 -1.7991501 1.8491644 0
4.7720003 -1.8046337 1.8471837 0
4.7670002 -1.8104995 1.8455331 0
4.7620001 -1.8163475 1.8438827 0
4.7570004 -1.8221775 1.8422323 0
4.7520003 -1.8279893 1.8405818 0
4.7470002 -1.8337831 1.8389313 0
4.7420001 -1.839559 1.8372808 0
4.7370005 -1.8453168 1.8356304 0
4.7320004 -1.8510566 1.8339798 0
4.7270002 -1.8567781 1.8323293 0
4.7220001 -1.8624817 1.8306788 0
4.7170005 -1.8681675 1.8290284 0
4.7120004 -1.873835 1.8273779 0
4.7070003 -1.8794844 1.8257275 0
4.7020001 -1.885116 1.8240769 0
4.6970005 -1.8907295 1.8224266 0
4.6920004 -1.8963249 1.820776 0
4.6870003 -1.9019021 1.8191255 0
4.6820002 -1.9074615 1.817475 0
4.6770005 -1.9130028 1.8158246 0
4.6720004 -1.9185262 1.8141741 0
4.6670003 -1.9240314 1.8125235 0
4.6620002 -1.9295186 1.810873 0
4.6570001 -1.9349877 1.8092225 0
4.6530004 -1.9408844 1.8079022 0
4.6480002 -1.9463191 1.8062516 0
4.6430001 -1.9517359 1.8046012 0
4.6380005 -1.957135 1.8029509 0
4.6330004 -1.9625156 1.8013003 0
4.6280003 -1.9678783 1.7996498 0
4.6240001 -1.9736793 1.7983294 0
4.6190004 -1.9790078 1.796679 0
4.6140003 -1.9843183 1.7950284 0
4.6090002 -1.9896106 1.7933779 0
4.6050005 -1.9953486 1.7920576 0
4.6000004 -2.0006065 1.7904071 0
4.5950003 -2.0058465 1.7887566 0
4.5900002 -2.0110686 1.787106 0
4.5860004 -2.0167437 1.7857858 0
4.5810003 -2.0219312 1.7841352 0
4.5760002 -2.027101 1.7824847 0
4.5720005 -2.0327289 1.7811644 0
4.5670004 -2.0378644 1.7795138 0
4.5620003 -2.0429816 1.7778634 0
4.5580001 -2.0485625 1.7765429 0
4.5530005 -2.0536458 1.7748926 0
4.5480003 -2.0587108 1.773242 0
4.5440001 -2.064245 1.7719215 0
4.5390005 -2.0692759 1.7702712 0
4.5340004 -2.0742886 1.7686206 0
4.5300002 -2.0797756 1.7673002 0
4.5250001 -2.0847542 1.7656497 0
4.5210004 -2.0902107 1.7643294 0
4.5160003 -2.095155 1.7626789 0
4.5120001 -2.1005809 1.7613584 0
4.5070004 -2.1054909 1.759708 0
4.5030003 -2.1108861 1.7583877 0
4.4980001 -2.1157618 1.7567371 0
4.4940004 -2.1211262 1.7554169 0
4.4890003 -2.1259675 1.7537663 0
4.4850001 -2.1313016 1.7524458 0
4.4800005 -2.1361086 1.7507955 0
4.4760003 -2.1414118 1.749475 0
4.4710002 -2.1461847 1.7478245 0
4.4670005 -2.1514573 1.7465042 0
4.4620004 -2.1561959 1.7448537 0
4.4580002 -2.1614377 1.7435333 0
4.4530001 -2.166142 1.7418827 0
4.4490004 -2.1713533 1.7405624 0
4.4450002 -2.1765499 1.739242 0
4.4400001 -2.1812038 1.7375915 0
4.4360003 -2.1863701 1.7362713 0
4.4310002 -2.1909895 1.7346207 0
4.4270005 -2.1961253 1.7333004 0
4.4230003 -2.201246 1.73198 0
4.4180002 -2.2058151 1.7303294 0
4.4140005 -2.2109056 1.7290092 0
4.4100003 -2.2159815 1.7276886 0
4.4050002 -2.2204998 1.7260382 0
4.4010005 -2.2255452 1.7247177 0
4.3970003 -2.230576 1.7233974 0
4.3930001 -2.2355924 1.722077 0
4.388 -2.2400441 1.7204264 0
4.3840003 -2.2450297 1.7191061 0
4.3800001 -2.2500012 1.7177857 0
4.375 -2.2544024 1.7161353 0
4.3710003 -2.2593431 1.7148149 0
4.3670001 -2.2642691 1.7134945 0
4.3630004 -2.269181 1.7121742 0
4.3590002 -2.2740784 1.7108537 0
4.3540001 -2.2783966 1.7092032 0
4.3500004 -2.2832634 1.7078829 0
4.3460002 -2.2881155 1.7065624 0
4.342 -2.2929533 1.705242 0
4.3380003 -2.2977767 1.7039217 0
4.3330002 -2.302012 1.7022711 0
5.1040001 -1.4290736 1.9482907 0
5.0980005 -1.4357837 1.9463211 0
5.0920005 -1.4424723 1.9443513 0
5.0860004 -1.4491391 1.9423815 0
5.0800004 -1.4557844 1.9404118 0
5.0740004 -1.4624079 1.938442 0
5.0690002 -1.4693147 1.9368006 0
5.0630002 -1.4758968 1.9348307 0
5.0570002 -1.4824572 1.932861 0
5.0510001 -1.488996 1.9308912 0
5.0450006 -1.4955133 1.9289216 0
5.0390005 -1.5020089 1.9269519 0
5.0340004 -1.5087984 1.9253103 0
5.0280004 -1.5152524 1.9233404 0
5.0220003 -1.5216848 1.9213707 0
5.0160003 -1.5280954 1.919401 0
5.0110002 -1.5348073 1.9177595 0
5.0050001 -1.5411767 1.9157896 0
4.9990005 -1.5475243 1.91382 0
4.9940004 -1.5541785 1.9121785 0
4.9880004 -1.5604846 1.9102088 0
4.9820004 -1.5667691 1.9082391 0
4.9770002 -1.5733657 1.9065975 0
4.9710002 -1.5796086 1.9046277 0
4.9650002 -1.5858299 1.902658 0
4.9600005 -1.5923688 1.9010167 0
4.9540005 -1.5985487 1.8990469 0
4.9490004 -1.6050495 1.8974054 0
4.9430003 -1.6111878 1.8954356 0
4.9380002 -1.6176509 1.8937941 0
4.9320002 -1.6237477 1.8918244 0
4.9270005 -1.6301731 1.890183 0
4.9210005 -1.6362284 1.8882133 0
4.9160004 -1.6426157 1.8865716 0
4.9100003 -1.6486294 1.884602 0
4.9050002 -1.6549789 1.8829604 0
4.8990002 -1.6609513 1.8809906 0
4.8940005 -1.6672629 1.8793494 0
4.8880005 -1.6731938 1.8773795 0
4.8830004 -1.6794674 1.875738 0
4.8780003 -1.6857231 1.8740965 0
4.8720002 -1.6915926 1.8721268 0
4.8670001 -1.6978102 1.8704853 0
4.8620005 -1.70401 1.8688439 0
4.8560004 -1.7098184 1.8668741 0
4.8510003 -1.7159801 1.8652326 0
4.8460002 -1.7221239 1.8635911 0
4.8400002 -1.7278708 1.8616214 0
4.8350005 -1.7339768 1.8599801 0
4.8300004 -1.7400645 1.8583385 0
4.8240004 -1.7457502 1.8563687 0
4.8190002 -1.7518001 1.8547273 0
4.8140001 -1.7578321 1.8530858 0
4.8090005 -1.763846 1.8514444 0
4.8030005 -1.7694504 1.8494747 0
4.7980003 -1.7754264 1.847833 0
4.7930002 -1.7813843 1.8461915 0
4.7880001 -1.7873242 1.8445501 0
4.7830005 -1.7932463 1.8429087 0
4.7780004 -1.7991501 1.8412672 0
4.7720003 -1.8046337 1.8392975 0
4.7670002 -1.8104995 1.8376559 0
4.7620001 -1.8163475 1.8360144 0
4.7570004 -1.8221775 1.8343731 0
4.7520003 -1.8279893 1.8327316 0
4.7470002 -1.8337831 1.8310902 0
4.7420001 -1.839559 1.8294487 0
4.7370005 -1.8453168 1.8278072 0
4.7320004 -1.8510566 1.8261658 0
4.7270002 -1.8567781 1.8245243 0
4.7220001 -1.8624817 1.8228828 0
4.7170005 -1.8681675 1.8212415 0
4.7120004 -1.873835 1.8195999 0
4.7070003 -1.8794844 1.8179584 0
4.7020001 -1.885116 1.8163168 0
4.6970005 -1.8907295 1.8146756 0
4.6920004 -1.8963249 1.8130341 0
4.6870003 -1.9019021 1.8113925 0
4.6820002 -1.9074615 1.809751 0
4.6770005 -1.9130028 1.8081096 0
4.6720004 -1.9185262 1.8064681 0
4.6670003 -1.9240314 1.8048267 0
4.6620002 -1.9295186 1.8031852 0
4.6570001 -1.9349877 1.8015437 0
4.6530004 -1.9408844 1.8002305 0
4.6480002 -1.9463191 1.7985891 0
4.6430001 -1.9517359 1.7969476 0
4.6380005 -1.957135 1.7953063 0
4.6330004 -1.9625156 1.7936648 0
4.6280003 -1.9678783 1.7920233 0
4.6240001 -1.9736793 1.7907101 0
4.6190004 -1.9790078 1.7890686 0
4.6140003 -1.9843183 1.7874272 0
4.6090002 -1.9896106 1.7857857 0
4.6050005 -1.9953486 1.7844726 0
4.6000004 -2.0006065 1.7828311 0
4.5950003 -2.0058465 1.7811896 0
4.5900002 -2.0110686 1.779548 0
4.5860004 -2.0167437 1.778235 0
4.5810003 -2.0219312 1.7765934 0
4.5760002 -2.027101 1.7749521 0
4.5720005 -2.0327289 1.773639 0
4.5670004 -2.0378644 1.7719975 0
4.5620003 -2.0429816 1.7703558 0
4.5580001 -2.0485625 1.7690426 0
4.5530005 -2.0536458 1.7674013 0
4.5480003 -2.0587108 1.7657598 0
4.5440001 -2.064245 1.7644466 0
4.5390005 -2.0692759 1.7628053 0
4.5340004 -2.0742886 1.7611637 0
4.5300002 -2.0797756 1.7598505 0
4.5250001 -2.0847542 1.758209 0
4.5210004 -2.0902107 1.7568959 0
4.5160003 -2.095155 1.7552545 0
4.5120001 -2.1005809 1.7539412 0
4.5070004 -2.1054909 1.7522998 0
4.5030003 -2.1108861 1.7509866 0
4.4980001 -2.1157618 1.7493451 0
4.4940004 -2.1211262 1.748032 0
4.4890003 -2.1259675 1.7463906 0
4.4850001 -2.1313016 1.7450774 0
4.4800005 -2.1361086 1.743436 0
4.4760003 -2.1414118 1.7421227 0
4.4710002 -2.1461847 1.7404811 0
4.4670005 -2.1514573 1.7391682 0
4.4620004 -2.1561959 1.7375267 0
4.4580002 -2.1614377 1.7362134 0
4.4530001 -2.166142 1.7345719 0
4.4490004 -2.1713533 1.7332588 0
4.4450002 -2.1765499 1.7319455 0
4.4400001 -2.1812038 1.730304 0
4.4360003 -2.1863701 1.728991 0
4.4310002 -2.1909895 1.7273495 0
4.4270005 -2.1961253 1.7260364 0
4.4230003 -2.201246 1.7247232 0
4.4180002 -2.2058151 1.7230817 0
4.4140005 -2.2109056 1.7217686 0
4.4100003 -2.2159815 1.7204554 0
4.4050002 -2.2204998 1.7188139 0
4.4010005 -2.2255452 1.7175008 0
4.3970003 -2.230576 1.7161876 0
4.3930001 -2.2355924 1.7148745 0
4.388 -2.2400441 1.7132329 0
4.3840003 -2.2450297 1.7119197 0
4.3800001 -2.2500012 1.7106066 0
4.375 -2.2544024 1.7089651 0
4.3710003 -2.2593431 1.707652 0
4.3670001 -2.2642691 1.7063388 0
4.3630004 -2.269181 1.7050257 0
4.3590002 -2.2740784 1.7037123 0
4.3540001 -2.2783966 1.702071 0
4.3500004 -2.2832634 1.7007577 0
4.3460002 -2.2881155 1.6994445 0
4.342 -2.2929533 1.6981314 0
4.3380003 -2.2977767 1.6968184 0
4.3330002 -2.302012 1.6951768 0
5.1040001 -1.4290736 1.9398056 0
5.0980005 -1.4357837 1.9378468 0
5.0920005 -1.4424723 1.9358878 0
5.0860004 -1.4491391 1.933929 0
5.0800004 -1.4557844 1.93197 0
5.0740004 -1.4624079 1.9300109 0
5.0690002 -1.4693147 1.9283786 0
5.0630002 -1.4758968 1.9264195 0
5.0570002 -1.4824572 1.9244605 0
5.0510001 -1.488996 1.9225017 0
5.0450006 -1.4955133 1.9205428 0
5.0390005 -1.5020089 1.9185839 0
5.0340004 -1.5087984 1.9169514 0
5.0280004 -1.5152524 1.9149925 0
5.0220003 -1.5216848 1.9130335 0
5.0160003 -1.5280954 1.9110746 0
5.0110002 -1.5348073 1.9094421 0
5.0050001 -1.5411767 1.9074832 0
4.9990005 -1.5475243 1.9055244 0
4.9940004 -1.5541785 1.9038918 0
4.9880004 -1.5604846 1.901933 0
4.9820004 -1.5667691 1.899974 0
4.9770002 -1.5733657 1.8983414 0
4.9710002 -1.5796086 1.8963826 0
4.9650002 -1.5858299 1.8944236 0
4.9600005 -1.5923688 1.8927913 0
4.9540005 -1.5985487 1.8908323 0
4.9490004 -1.6050495 1.8891997 0
4.9430003 -1.6111878 1.8872409 0
4.9380002 -1.6176509 1.8856083 0
4.9320002 -1.6237477 1.8836495 0
4.9270005 -1.6301731 1.8820171 0
4.9210005 -1.6362284 1.8800582 0
4.9160004 -1.6426157 1.8784257 0
4.9100003 -1.6486294 1.8764668 0
4.9050002 -1.6549789 1.8748343 0
4.8990002 -1.6609513 1.8728753 0
4.8940005 -1.6672629 1.871243 0
4.8880005 -1.6731938 1.869284 0
4.8830004 -1.6794674 1.8676516 0
4.8780003 -1.6857231 1.866019 0
4.8720002 -1.6915926 1.86406 0
4.8670001 -1.6978102 1.8624276 0
4.8620005 -1.70401 1.8607953 0
4.8560004 -1.7098184 1.8588364 0
4.8510003 -1.7159801 1.8572038 0
4.8460002 -1.7221239 1.8555714 0
4.8400002 -1.7278708 1.8536124 0
4.8350005 -1.7339768 1.8519801 0
4.8300004 -1.7400645 1.8503476 0
4.8240004 -1.7457502 1.8483887 0
4.8190002 -1.7518001 1.8467562 0
4.8140001 -1.7578321 1.8451238 0
4.8090005 -1.763846 1.8434913 0
4.8030005 -1.7694504 1.8415325 0
4.7980003 -1.7754264 1.8398999 0
4.7930002 -1.7813843 1.8382674 0
4.7880001 -1.7873242 1.836635 0
4.7830005 -1.7932463 1.8350027 0
4.7780004 -1.7991501 1.8333701 0
4.7720003 -1.8046337 1.8314112 0
4.7670002 -1.8104995 1.8297787 0
4.7620001 -1.8163475 1.8281462 0
4.7570004 -1.8221775 1.8265139 0
4.7520003 -1.8279893 1.8248814 0
4.7470002 -1.8337831 1.823249 0
4.7420001 -1.839559 1.8216164 0
4.7370005 -1.8453168 1.8199842 0
4.7320004 -1.8510566 1.8183516 0
4.7270002 -1.8567781 1.8167192 0
4.7220001 -1.8624817 1.8150866 0
4.7170005 -1.8681675 1.8134544 0
4.7120004 -1.873835 1.8118219 0
4.7070003 -1.8794844 1.8101894 0
4.7020001 -1.885116 1.8085569 0
4.6970005 -1.8907295 1.8069246 0
4.6920004 -1.8963249 1.8052921 0
4.6870003 -1.9019021 1.8036596 0
4.6820002 -1.9074615 1.8020271 0
4.6770005 -1.9130028 1.8003948 0
4.6720004 -1.9185262 1.7987623 0
4.6670003 -1.9240314 1.7971299 0
4.6620002 -1.9295186 1.7954973 0
4.6570001 -1.9349877 1.7938648 0
4.6530004 -1.9408844 1.792559 0
4.6480002 -1.9463191 1.7909265 0
4.6430001 -1.9517359 1.7892941 0
4.6380005 -1.957135 1.7876617 0
4.6330004 -1.9625156 1.7860292 0
4.6280003 -1.9678783 1.7843966 0
4.6240001 -1.9736793 1.7830907 0
4.6190004 -1.9790078 1.7814584 0
4.6140003 -1.9843183 1.7798259 0
4.6090002 -1.9896106 1.7781935 0
4.6050005 -1.9953486 1.7768877 0
4.6000004 -2.0006065 1.7752551 0
4.5950003 -2.0058465 1.7736226 0
4.5900002 -2.0110686 1.7719902 0
4.5860004 -2.0167437 1.7706842 0
4.5810003 -2.0219312 1.7690518 0
4.5760002 -2.027101 1.7674193 0
4.5720005 -2.0327289 1.7661134 0
4.5670004 -2.0378644 1.7644809 0
4.5620003 -2.0429816 1.7628485 0
4.5580001 -2.0485625 1.7615424 0
4.5530005 -2.0536458 1.7599101 0
4.5480003 -2.0587108 1.7582777 0
4.5440001 -2.064245 1.7569716 0
4.5390005 -2.0692759 1.7553393 0
4.5340004 -2.0742886 1.7537068 0
4.5300002 -2.0797756 1.7524008 0
4.5250001 -2.0847542 1.7507683 0
4.5210004 -2.0902107 1.7494625 0
4.5160003 -2.095155 1.7478299 0
4.5120001 -2.1005809 1.7465239 0
4.5070004 -2.1054909 1.7448916 0
4.5030003 -2.1108861 1.7435856 0
4.4980001 -2.1157618 1.7419531 0
4.4940004 -2.1211262 1.7406472 0
4.4890003 -2.1259675 1.7390149 0
4.4850001 -2.1313016 1.7377088 0
4.4800005 -2.1361086 1.7360765 0
4.4760003 -2.1414118 1.7347704 0
4.4710002 -2.1461847 1.7331378 0
4.4670005 -2.1514573 1.731832 0
4.4620004 -2.1561959 1.7301996 0
4.4580002 -2.1614377 1.7288935 0
4.4530001 -2.166142 1.7272611 0
4.4490004 -2.1713533 1.7259551 0
4.4450002 -2.1765499 1.7246492 0
4.4400001 -2.1812038 1.7230167 0
4.4360003 -2.1863701 1.7217108 0
4.4310002 -2.1909895 1.7200783 0
4.4270005 -2.1961253 1.7187725 0
4.4230003 -2.201246 1.7174665 0
4.4180002 -2.2058151 1.7158339 0
4.4140005 -2.2109056 1.7145281 0
4.4100003 -2.2159815 1.7132221 0
4.4050002 -2.2204998 1.7115897 0
4.4010005 -2.2255452 1.7102838 0
4.3970003 -2.230576 1.7089777 0
4.3930001 -2.2355924 1.7076718 0
4.388 -2.2400441 1.7060393 0
4.3840003 -2.2450297 1.7047334 0
4.3800001 -2.2500012 1.7034274 0
4.375 -2.2544024 1.701795 0
4.3710003 -2.2593431 1.700489 0
4.3670001 -2.2642691 1.6991831 0
4.3630004 -2.269181 1.6978772 0
4.3590002 -2.2740784 1.6965711 0
4.3540001 -2.2783966 1.6949388 0
4.3500004 -2.2832634 1.6936328 0
4.3460002 -2.2881155 1.6923268 0
4.342 -2.2929533 1.6910208 0
4.3380003 -2.2977767 1.6897148 0
4.3330002 -2.302012 1.6880823 0
5.1040001 -1.4290736 1.9313204 0
5.0980005 -1.4357837 1.9293725 0
5.0920005 -1.4424723 1.9274243 0
5.0860004 -1.4491391 1.9254762 0
5.0800004 -1.4557844 1.9235281 0
5.0740004 -1.4624079 1.9215801 0
5.0690002 -1.4693147 1.9199566 0
5.0630002 -1.4758968 1.9180084 0
5.0570002 -1.4824572 1.9160603 0
5.0510001 -1.488996 1.9141121 0
5.0450006 -1.4955133 1.9121642 0
5.0390005 -1.5020089 1.9102161 0
5.0340004 -1.5087984 1.9085926 0
5.0280004 -1.5152524 1.9066445 0
5.0220003 -1.5216848 1.9046963 0
5.0160003 -1.5280954 1.9027481 0
5.0110002 -1.5348073 1.9011247 0
5.0050001 -1.5411767 1.8991767 0
4.9990005 -1.5475243 1.8972286 0
4.9940004 -1.5541785 1.8956052 0
4.9880004 -1.5604846 1.893657 0
4.9820004 -1.5667691 1.891709 0
4.9770002 -1.5733657 1.8900855 0
4.9710002 -1.5796086 1.8881373 0
4.9650002 -1.5858299 1.8861892 0
4.9600005 -1.5923688 1.8845658 0
4.9540005 -1.5985487 1.8826178 0
4.9490004 -1.6050495 1.8809943 0
4.9430003 -1.6111878 1.8790462 0
4.9380002 -1.6176509 1.8774227 0
4.9320002 -1.6237477 1.8754746 0
4.9270005 -1.6301731 1.8738513 0
4.9210005 -1.6362284 1.8719032 0
4.9160004 -1.6426157 1.8702798 0
4.9100003 -1.6486294 1.8683316 0
4.9050002 -1.6549789 1.8667082 0
4.8990002 -1.6609513 1.8647599 0
4.8940005 -1.6672629 1.8631368 0
4.8880005 -1.6731938 1.8611885 0
4.8830004 -1.6794674 1.8595651 0
4.8780003 -1.6857231 1.8579416 0
4.8720002 -1.6915926 1.8559935 0
4.8670001 -1.6978102 1.85437 0
4.8620005 -1.70401 1.8527467 0
4.8560004 -1.7098184 1.8507986 0
4.8510003 -1.7159801 1.8491751 0
4.8460002 -1.7221239 1.8475517 0
4.8400002 -1.7278708 1.8456036 0
4.8350005 -1.7339768 1.8439802 0
4.8300004 -1.7400645 1.8423567 0
4.8240004 -1.7457502 1.8404087 0
4.8190002 -1.7518001 1.8387852 0
4.8140001 -1.7578321 1.8371618 0
4.8090005 -1.763846 1.8355384 0
4.8030005 -1.7694504 1.8335903 0
4.7980003 -1.7754264 1.8319668 0
4.7930002 -1.7813843 1.8303434 0
4.7880001 -1.7873242 1.82872 0
4.7830005 -1.7932463 1.8270966 0
4.7780004 -1.7991501 1.8254731 0
4.7720003 -1.8046337 1.823525 0
4.7670002 -1.8104995 1.8219014 0
4.7620001 -1.8163475 1.820278 0
4.7570004 -1.8221775 1.8186548 0
4.7520003 -1.8279893 1.8170313 0
4.7470002 -1.8337831 1.8154078 0
4.7420001 -1.839559 1.8137844 0
4.7370005 -1.8453168 1.8121611 0
4.7320004 -1.8510566 1.8105376 0
4.7270002 -1.8567781 1.8089142 0
4.7220001 -1.8624817 1.8072907 0
4.7170005 -1.8681675 1.8056673 0
4.7120004 -1.873835 1.8040439 0
4.7070003 -1.8794844 1.8024204 0
4.7020001 -1.885116 1.8007969 0
4.6970005 -1.8907295 1.7991736 0
4.6920004 -1.8963249 1.7975502 0
4.6870003 -1.9019021 1.7959267 0
4.6820002 -1.9074615 1.7943032 0
4.6770005 -1.9130028 1.79268 0
4.6720004 -1.9185262 1.7910565 0
4.6670003 -1.9240314 1.789433 0
4.6620002 -1.9295186 1.7878096 0
4.6570001 -1.9349877 1.7861861 0
4.6530004 -1.9408844 1.7848874 0
4.6480002 -1.9463191 1.7832639 0
4.6430001 -1.9517359 1.7816404 0
4.6380005 -1.957135 1.7800173 0
4.6330004 -1.9625156 1.7783937 0
4.6280003 -1.9678783 1.7767702 0
4.6240001 -1.9736793 1.7754714 0
4.6190004 -1.9790078 1.7738481 0
4.6140003 -1.9843183 1.7722247 0
4.6090002 -1.9896106 1.7706012 0
4.6050005 -1.9953486 1.7693026 0
4.6000004 -2.0006065 1.7676791 0
4.5950003 -2.0058465 1.7660556 0
4.5900002 -2.0110686 1.7644322 0
4.5860004 -2.0167437 1.7631335 0
4.5810003 -2.0219312 1.76151 0
4.5760002 -2.027101 1.7598865 0
4.5720005 -2.0327289 1.758588 0
4.5670004 -2.0378644 1.7569644 0
4.5620003 -2.0429816 1.7553411 0
4.5580001 -2.0485625 1.7540423 0
4.5530005 -2.0536458 1.7524189 0
4.5480003 -2.0587108 1.7507954 0
4.5440001 -2.064245 1.7494966 0
4.5390005 -2.0692759 1.7478733 0
4.5340004 -2.0742886 1.7462499 0
4.5300002 -2.0797756 1.744951 0
4.5250001 -2.0847542 1.7433276 0
4.5210004 -2.0902107 1.742029 0
4.5160003 -2.095155 1.7404054 0
4.5120001 -2.1005809 1.7391067 0
4.5070004 -2.1054909 1.7374834 0
4.5030003 -2.1108861 1.7361846 0
4.4980001 -2.1157618 1.7345611 0
4.4940004 -2.1211262 1.7332624 0
4.4890003 -2.1259675 1.7316389 0
4.4850001 -2.1313016 1.7303401 0
4.4800005 -2.1361086 1.7287169 0
4.4760003 -2.1414118 1.7274181 0
4.4710002 -2.1461847 1.7257947 0
4.4670005 -2.1514573 1.7244959 0
4.4620004 -2.1561959 1.7228725 0
4.4580002 -2.1614377 1.7215737 0
4.4530001 -2.166142 1.7199502 0
4.4490004 -2.1713533 1.7186517 0
4.4450002 -2.1765499 1.7173529 0
4.4400001 -2.1812038 1.7157294 0
4.4360003 -2.1863701 1.7144307 0
4.4310002 -2.1909895 1.7128072 0
4.4270005 -2.1961253 1.7115086 0
4.4230003 -2.201246 1.7102097 0
4.4180002 -2.2058151 1.7085863 0
4.4140005 -2.2109056 1.7072877 0
4.4100003 -2.2159815 1.7059889 0
4.4050002 -2.2204998 1.7043654 0
4.4010005 -2.2255452 1.7030667 0
4.3970003 -2.230576 1.7017679 0
4.3930001 -2.2355924 1.7004693 0
4.388 -2.2400441 1.6988457 0
4.3840003 -2.2450297 1.6975471 0
4.3800001 -2.2500012 1.6962483 0
4.375 -2.2544024 1.6946248 0
4.3710003 -2.2593431 1.6933261 0
4.3670001 -2.2642691 1.6920274 0
4.3630004 -2.269181 1.6907285 0
4.3590002 -2.2740784 1.6894298 0
4.3540001 -2.2783966 1.6878065 0
4.3500004 -2.2832634 1.6865077 0
4.3460002 -2.2881155 1.6852089 0
4.342 -2.2929533 1.6839101 0
4.3380003 -2.2977767 1.6826115 0
4.3330002 -2.302012 1.680988 0
5.1040001 -1.4290736 1.9228354 0
5.0980005 -1.4357837 1.9208982 0
5.0920005 -1.4424723 1.9189608 0
5.0860004 -1.4491391 1.9170237 0
5.0800004 -1.4557844 1.9150863 0
5.0740004 -1.4624079 1.913149 0
5.0690002 -1.4693147 1.9115345 0
5.0630002 -1.4758968 1.9095973 0
5.0570002 -1.4824572 1.90766 0
5.0510001 -1.488996 1.9057226 0
5.0450006 -1.4955133 1.9037855 0
5.0390005 -1.5020089 1.9018482 0
5.0340004 -1.5087984 1.9002337 0
5.0280004 -1.5152524 1.8982965 0
5.0220003 -1.5216848 1.8963591 0
5.0160003 -1.5280954 1.8944218 0
5.0110002 -1.5348073 1.8928074 0
5.0050001 -1.5411767 1.8908701 0
4.9990005 -1.5475243 1.8889329 0
4.9940004 -1.5541785 1.8873185 0
4.9880004 -1.5604846 1.8853812 0
4.9820004 -1.5667691 1.8834438 0
4.9770002 -1.5733657 1.8818294 0
4.9710002 -1.5796086 1.8798922 0
4.9650002 -1.5858299 1.8779548 0
4.9600005 -1.5923688 1.8763405 0
4.9540005 -1.5985487 1.8744032 0
4.9490004 -1.6050495 1.8727888 0
4.9430003 -1.6111878 1.8708514 0
4.9380002 -1.6176509 1.8692371 0
4.9320002 -1.6237477 1.8672998 0
4.9270005 -1.6301731 1.8656855 0
4.9210005 -1.6362284 1.8637482 0
4.9160004 -1.6426157 1.8621337 0
4.9100003 -1.6486294 1.8601964 0
4.9050002 -1.6549789 1.8585819 0
4.8990002 -1.6609513 1.8566446 0
4.8940005 -1.6672629 1.8550304 0
4.8880005 -1.6731938 1.853093 0
4.8830004 -1.6794674 1.8514786 0
4.8780003 -1.6857231 1.8498641 0
4.8720002 -1.6915926 1.8479269 0
4.8670001 -1.6978102 1.8463124 0
4.8620005 -1.70401 1.8446981 0
4.8560004 -1.7098184 1.8427609 0
4.8510003 -1.7159801 1.8411465 0
4.8460002 -1.7221239 1.839532 0
4.8400002 -1.7278708 1.8375946 0
4.8350005 -1.7339768 1.8359803 0
4.8300004 -1.7400645 1.8343658 0
4.8240004 -1.7457502 1.8324286 0
4.8190002 -1.7518001 1.8308141 0
4.8140001 -1.7578321 1.8291997 0
4.8090005 -1.763846 1.8275853 0
4.8030005 -1.7694504 1.8256482 0
4.7980003 -1.7754264 1.8240337 0
4.7930002 -1.7813843 1.8224193 0
4.7880001 -1.7873242 1.8208048 0
4.7830005 -1.7932463 1.8191905 0
4.7780004 -1.7991501 1.8175761 0
4.7720003 -1.8046337 1.8156387 0
4.7670002 -1.8104995 1.8140242 0
4.7620001 -1.8163475 1.8124098 0
4.7570004 -1.8221775 1.8107955 0
4.7520003 -1.8279893 1.8091811 0
4.7470002 -1.8337831 1.8075666 0
4.7420001 -1.839559 1.8059522 0
4.7370005 -1.8453168 1.8043379 0
4.7320004 -1.8510566 1.8027234 0
4.7270002 -1.8567781 1.801109 0
4.7220001 -1.8624817 1.7994946 0
4.7170005 -1.8681675 1.7978803 0
4.7120004 -1.873835 1.7962658 0
4.7070003 -1.8794844 1.7946514 0
4.7020001 -1.885116 1.7930369 0
4.6970005 -1.8907295 1.7914227 0
4.6920004 -1.8963249 1.7898083 0
4.6870003 -1.9019021 1.7881938 0
4.6820002 -1.9074615 1.7865794 0
4.6770005 -1.9130028 1.784965 0
4.6720004 -1.9185262 1.7833506 0
4.6670003 -1.9240314 1.7817361 0
4.6620002 -1.9295186 1.7801217 0
4.6570001 -1.9349877 1.7785072 0
4.6530004 -1.9408844 1.7772158 0
4.6480002 -1.9463191 1.7756014 0
4.6430001 -1.9517359 1.7739869 0
4.6380005 -1.957135 1.7723726 0
4.6330004 -1.9625156 1.7707582 0
4.6280003 -1.9678783 1.7691437 0
4.6240001 -1.9736793 1.7678522 0
4.6190004 -1.9790078 1.7662379 0
4.6140003 -1.9843183 1.7646234 0
4.6090002 -1.9896106 1.763009 0
4.6050005 -1.9953486 1.7617176 0
4.6000004 -2.0006065 1.7601031 0
4.5950003 -2.0058465 1.7584887 0
4.5900002 -2.0110686 1.7568742 0
4.5860004 -2.0167437 1.7555828 0
4.5810003 -2.0219312 1.7539684 0
4.5760002 -2.027101 1.7523539 0
4.5720005 -2.0327289 1.7510625 0
4.5670004 -2.0378644 1.7494481 0
4.5620003 -2.0429816 1.7478336 0
4.5580001 -2.0485625 1.746542 0
4.5530005 -2.0536458 1.7449278 0
4.5480003 -2.0587108 1.7433133 0
4.5440001 -2.064245 1.7420217 0
4.5390005 -2.0692759 1.7404075 0
4.5340004 -2.0742886 1.738793 0
4.5300002 -2.0797756 1.7375014 0
4.5250001 -2.0847542 1.7358869 0
4.5210004 -2.0902107 1.7345954 0
4.5160003 -2.095155 1.732981 0
4.5120001 -2.1005809 1.7316893 0
4.5070004 -2.1054909 1.7300751 0
4.5030003 -2.1108861 1.7287835 0
4.4980001 -2.1157618 1.727169 0
4.4940004 -2.1211262 1.7258776 0
4.4890003 -2.1259675 1.7242632 0
4.4850001 -2.1313016 1.7229717 0
4.4800005 -2.1361086 1.7213573 0
4.4760003 -2.1414118 1.7200658 0
4.4710002 -2.1461847 1.7184514 0
4.4670005 -2.1514573 1.7171599 0
4.4620004 -2.1561959 1.7155454 0
4.4580002 -2.1614377 1.7142539 0
4.4530001 -2.166142 1.7126395 0
4.4490004 -2.1713533 1.7113479 0
4.4450002 -2.1765499 1.7100563 0
4.4400001 -2.1812038 1.7084419 0
4.4360003 -2.1863701 1.7071505 0
4.4310002 -2.1909895 1.705536 0
4.4270005 -2.1961253 1.7042446 0
4.4230003 -2.201246 1.7029531 0
4.4180002 -2.2058151 1.7013386 0
4.4140005 -2.2109056 1.7000473 0
4.4100003 -2.2159815 1.6987556 0
4.4050002 -2.2204998 1.6971412 0
4.4010005 -2.2255452 1.6958497 0
4.3970003 -2.230576 1.694558 0
4.3930001 -2.2355924 1.6932666 0
4.388 -2.2400441 1.6916522 0
4.3840003 -2.2450297 1.6903607 0
4.3800001 -2.2500012 1.6890692 0
4.375 -2.2544024 1.6874547 0
4.3710003 -2.2593431 1.6861632 0
4.3670001 -2.2642691 1.6848717 0
4.3630004 -2.269181 1.6835802 0
4.3590002 -2.2740784 1.6822885 0
4.3540001 -2.2783966 1.6806742 0
4.3500004 -2.2832634 1.6793827 0
4.3460002 -2.2881155 1.6780912 0
4.342 -2.2929533 1.6767997 0
4.3380003 -2.2977767 1.6755081 0
4.3330002 -2.302012 1.6738937 0
5.1040001 -1.4290736 1.9143503 0
5.0980005 -1.4357837 1.912424 0
5.0920005 -1.4424723 1.9104974 0
5.0860004 -1.4491391 1.9085709 0
5.0800004 -1.4557844 1.9066445 0
5.0740004 -1.4624079 1.904718 0
5.0690002 -1.4693147 1.9031125 0
5.0630002 -1.4758968 1.9011861 0
5.0570002 -1.4824572 1.8992596 0
5.0510001 -1.488996 1.8973331 0
5.0450006 -1.4955133 1.8954067 0
5.0390005 -1.5020089 1.8934803 0
5.0340004 -1.5087984 1.8918749 0
5.0280004 -1.5152524 1.8899485 0
5.0220003 -1.5216848 1.8880219 0
5.0160003 -1.5280954 1.8860954 0
5.0110002 -1.5348073 1.88449 0
5.0050001 -1.5411767 1.8825636 0
4.9990005 -1.5475243 1.8806372 0
4.9940004 -1.5541785 1.8790318 0
4.9880004 -1.5604846 1.8771054 0
4.9820004 -1.5667691 1.8751789 0
4.9770002 -1.5733657 1.8735734 0
4.9710002 -1.5796086 1.8716469 0
4.9650002 -1.5858299 1.8697205 0
4.9600005 -1.5923688 1.8681152 0
4.9540005 -1.5985487 1.8661886 0
4.9490004 -1.6050495 1.8645833 0
4.9430003 -1.6111878 1.8626568 0
4.9380002 -1.6176509 1.8610514 0
4.9320002 -1.6237477 1.8591248 0
4.9270005 -1.6301731 1.8575196 0
4.9210005 -1.6362284 1.8555932 0
4.9160004 -1.6426157 1.8539877 0
4.9100003 -1.6486294 1.8520612 0
4.9050002 -1.6549789 1.8504558 0
4.8990002 -1.6609513 1.8485293 0
4.8940005 -1.6672629 1.8469241 0
4.8880005 -1.6731938 1.8449975 0
4.8830004 -1.6794674 1.8433921 0
4.8780003 -1.6857231 1.8417867 0
4.8720002 -1.6915926 1.8398602 0
4.8670001 -1.6978102 1.8382548 0
4.8620005 -1.70401 1.8366495 0
4.8560004 -1.7098184 1.834723 0
4.8510003 -1.7159801 1.8331176 0
4.8460002 -1.7221239 1.8315122 0
4.8400002 -1.7278708 1.8295857 0
4.8350005 -1.7339768 1.8279804 0
4.8300004 -1.7400645 1.826375 0
4.8240004 -1.7457502 1.8244486 0
4.8190002 -1.7518001 1.8228431 0
4.8140001 -1.7578321 1.8212377 0
4.8090005 -1.763846 1.8196324 0
4.8030005 -1.7694504 1.817706 0
4.7980003 -1.7754264 1.8161005 0
4.7930002 -1.7813843 1.8144951 0
4.7880001 -1.7873242 1.8128897 0
4.7830005 -1.7932463 1.8112844 0
4.7780004 -1.7991501 1.809679 0
4.7720003 -1.8046337 1.8077525 0
4.7670002 -1.8104995 1.806147 0
4.7620001 -1.8163475 1.8045416 0
4.7570004 -1.8221775 1.8029364 0
4.7520003 -1.8279893 1.8013309 0
4.7470002 -1.8337831 1.7997254 0
4.7420001 -1.839559 1.79812 0
4.7370005 -1.8453168 1.7965149 0
4.7320004 -1.8510566 1.7949094 0
4.7270002 -1.8567781 1.793304 0
4.7220001 -1.8624817 1.7916985 0
4.7170005 -1.8681675 1.7900933 0
4.7120004 -1.873835 1.7884879 0
4.7070003 -1.8794844 1.7868824 0
4.7020001 -1.885116 1.7852769 0
4.6970005 -1.8907295 1.7836717 0
4.6920004 -1.8963249 1.7820663 0
4.6870003 -1.9019021 1.780461 0
4.6820002 -1.9074615 1.7788553 0
4.6770005 -1.9130028 1.7772502 0
4.6720004 -1.9185262 1.7756448 0
4.6670003 -1.9240314 1.7740394 0
4.6620002 -1.9295186 1.7724338 0
4.6570001 -1.9349877 1.7708284 0
4.6530004 -1.9408844 1.7695442 0
4.6480002 -1.9463191 1.7679389 0
4.6430001 -1.9517359 1.7663335 0
4.6380005 -1.957135 1.7647281 0
4.6330004 -1.9625156 1.7631227 0
4.6280003 -1.9678783 1.7615173 0
4.6240001 -1.9736793 1.7602329 0
4.6190004 -1.9790078 1.7586277 0
4.6140003 -1.9843183 1.7570221 0
4.6090002 -1.9896106 1.7554168 0
4.6050005 -1.9953486 1.7541325 0
4.6000004 -2.0006065 1.7525271 0
4.5950003 -2.0058465 1.7509216 0
4.5900002 -2.0110686 1.7493162 0
4.5860004 -2.0167437 1.748032 0
4.5810003 -2.0219312 1.7464266 0
4.5760002 -2.027101 1.7448212 0
4.5720005 -2.0327289 1.7435369 0
4.5670004 -2.0378644 1.7419316 0
4.5620003 -2.0429816 1.7403262 0
4.5580001 -2.0485625 1.7390418 0
4.5530005 -2.0536458 1.7374365 0
4.5480003 -2.0587108 1.735831 0
4.5440001 -2.064245 1.7345467 0
4.5390005 -2.0692759 1.7329414 0
4.5340004 -2.0742886 1.731336 0
4.5300002 -2.0797756 1.7300516 0
4.5250001 -2.0847542 1.7284461 0
4.5210004 -2.0902107 1.7271619 0
4.5160003 -2.095155 1.7255565 0
4.5120001 -2.1005809 1.7242721 0
4.5070004 -2.1054909 1.722667 0
4.5030003 -2.1108861 1.7213825 0
4.4980001 -2.1157618 1.7197771 0
4.4940004 -2.1211262 1.7184929 0
4.4890003 -2.1259675 1.7168875 0
4.4850001 -2.1313016 1.7156031 0
4.4800005 -2.1361086 1.7139977 0
4.4760003 -2.1414118 1.7127134 0
4.4710002 -2.1461847 1.711108 0
4.4670005 -2.1514573 1.7098238 0
4.4620004 -2.1561959 1.7082185 0
4.4580002 -2.1614377 1.706934 0
4.4530001 -2.166142 1.7053286 0
4.4490004 -2.1713533 1.7040443 0
4.4450002 -2.1765499 1.70276 0
4.4400001 -2.1812038 1.7011546 0
4.4360003 -2.1863701 1.6998702 0
4.4310002 -2.1909895 1.6982648 0
4.4270005 -2.1961253 1.6969807 0
4.4230003 -2.201246 1.6956964 0
4.4180002 -2.2058151 1.694091 0
4.4140005 -2.2109056 1.6928066 0
4.4100003 -2.2159815 1.6915222 0
4.4050002 -2.2204998 1.6899168 0
4.4010005 -2.2255452 1.6886327 0
4.3970003 -2.230576 1.6873484 0
4.3930001 -2.2355924 1.686064 0
4.388 -2.2400441 1.6844585 0
4.3840003 -2.2450297 1.6831743 0
4.3800001 -2.2500012 1.68189 0
4.375 -2.2544024 1.6802846 0
4.3710003 -2.2593431 1.6790003 0
4.3670001 -2.2642691 1.6777159 0
4.3630004 -2.269181 1.6764317 0
4.3590002 -2.2740784 1.6751473 0
4.3540001 -2.2783966 1.6735419 0
4.3500004 -2.2832634 1.6722577 0
4.3460002 -2.2881155 1.6709733 0
4.342 -2.2929533 1.6696889 0
4.3380003 -2.2977767 1.6684047 0
4.3330002 -2.302012 1.6667993 0
5.1040001 -1.4290736 1.9058651 0
5.0980005 -1.4357837 1.9039496 0
5.0920005 -1.4424723 1.9020339 0
5.0860004 -1.4491391 1.9001184 0
5.0800004 -1.4557844 1.8982027 0
5.0740004 -1.4624079 1.896287 0
5.0690002 -1.4693147 1.8946906 0
5.0630002 -1.4758968 1.8927749 0
5.0570002 -1.4824572 1.8908592 0
5.0510001 -1.488996 1.8889436 0
5.0450006 -1.4955133 1.8870281 0
5.0390005 -1.5020089 1.8851125 0
5.0340004 -1.5087984 1.8835161 0
5.0280004 -1.5152524 1.8816004 0
5.0220003 -1.5216848 1.8796848 0
5.0160003 -1.5280954 1.8777691 0
5.0110002 -1.5348073 1.8761727 0
5.0050001 -1.5411767 1.8742571 0
4.9990005 -1.5475243 1.8723415 0
4.9940004 -1.5541785 1.8707451 0
4.9880004 -1.5604846 1.8688295 0
4.9820004 -1.5667691 1.8669138 0
4.9770002 -1.5733657 1.8653173 0
4.9710002 -1.5796086 1.8634018 0
4.9650002 -1.5858299 1.8614861 0
4.9600005 -1.5923688 1.8598897 0
4.9540005 -1.5985487 1.8579741 0
4.9490004 -1.6050495 1.8563777 0
4.9430003 -1.6111878 1.854462 0
4.9380002 -1.6176509 1.8528657 0
4.9320002 -1.6237477 1.85095 0
4.9270005 -1.6301731 1.8493537 0
4.9210005 -1.6362284 1.8474381 0
4.9160004 -1.6426157 1.8458416 0
4.9100003 -1.6486294 1.843926 0
4.9050002 -1.6549789 1.8423296 0
4.8990002 -1.6609513 1.8404139 0
4.8940005 -1.6672629 1.8388177 0
4.8880005 -1.6731938 1.8369021 0
4.8830004 -1.6794674 1.8353056 0
4.8780003 -1.6857231 1.8337092 0
4.8720002 -1.6915926 1.8317935 0
4.8670001 -1.6978102 1.8301972 0
4.8620005 -1.70401 1.8286009 0
4.8560004 -1.7098184 1.8266852 0
4.8510003 -1.7159801 1.8250889 0
4.8460002 -1.7221239 1.8234924 0
4.8400002 -1.7278708 1.8215768 0
4.8350005 -1.7339768 1.8199805 0
4.8300004 -1.7400645 1.8183842 0
4.8240004 -1.7457502 1.8164685 0
4.8190002 -1.7518001 1.814872 0
4.8140001 -1.7578321 1.8132757 0
4.8090005 -1.763846 1.8116794 0
4.8030005 -1.7694504 1.8097638 0
4.7980003 -1.7754264 1.8081673 0
4.7930002 -1.7813843 1.806571 0
4.7880001 -1.7873242 1.8049746 0
4.7830005 -1.7932463 1.8033783 0
4.7780004 -1.7991501 1.8017819 0
4.7720003 -1.8046337 1.7998662 0
4.7670002 -1.8104995 1.7982699 0
4.7620001 -1.8163475 1.7966734 0
4.7570004 -1.8221775 1.7950772 0
4.7520003 -1.8279893 1.7934808 0
4.7470002 -1.8337831 1.7918843 0
4.7420001 -1.839559 1.790288 0
4.7370005 -1.8453168 1.7886916 0
4.7320004 -1.8510566 1.7870953 0
4.7270002 -1.8567781 1.7854989 0
4.7220001 -1.8624817 1.7839025 0
4.7170005 -1.8681675 1.7823062 0
4.7120004 -1.873835 1.7807099 0
4.7070003 -1.8794844 1.7791134 0
4.7020001 -1.885116 1.777517 0
4.6970005 -1.8907295 1.7759207 0
4.6920004 -1.8963249 1.7743244 0
4.6870003 -1.9019021 1.7727278 0
4.6820002 -1.9074615 1.7711315 0
4.6770005 -1.9130028 1.7695352 0
4.6720004 -1.9185262 1.7679389 0
4.6670003 -1.9240314 1.7663424 0
4.6620002 -1.9295186 1.7647461 0
4.6570001 -1.9349877 1.7631496 0
4.6530004 -1.9408844 1.7618726 0
4.6480002 -1.9463191 1.7602762 0
4.6430001 -1.9517359 1.7586797 0
4.6380005 -1.957135 1.7570837 0
4.6330004 -1.9625156 1.7554871 0
4.6280003 -1.9678783 1.7538908 0
4.6240001 -1.9736793 1.7526137 0
4.6190004 -1.9790078 1.7510173 0
4.6140003 -1.9843183 1.749421 0
4.6090002 -1.9896106 1.7478245 0
4.6050005 -1.9953486 1.7465476 0
4.6000004 -2.0006065 1.744951 0
4.5950003 -2.0058465 1.7433547 0
4.5900002 -2.0110686 1.7417583 0
4.5860004 -2.0167437 1.7404813 0
4.5810003 -2.0219312 1.7388849 0
4.5760002 -2.027101 1.7372885 0
4.5720005 -2.0327289 1.7360115 0
4.5670004 -2.0378644 1.7344152 0
4.5620003 -2.0429816 1.7328186 0
4.5580001 -2.0485625 1.7315415 0
4.5530005 -2.0536458 1.7299452 0
4.5480003 -2.0587108 1.7283489 0
4.5440001 -2.064245 1.7270718 0
4.5390005 -2.0692759 1.7254754 0
4.5340004 -2.0742886 1.7238791 0
4.5300002 -2.0797756 1.7226019 0
4.5250001 -2.0847542 1.7210054 0
4.5210004 -2.0902107 1.7197285 0
4.5160003 -2.095155 1.7181321 0
4.5120001 -2.1005809 1.7168548 0
4.5070004 -2.1054909 1.7152587 0
4.5030003 -2.1108861 1.7139815 0
4.4980001 -2.1157618 1.7123851 0
4.4940004 -2.1211262 1.7111081 0
4.4890003 -2.1259675 1.7095116 0
4.4850001 -2.1313016 1.7082344 0
4.4800005 -2.1361086 1.7066383 0
4.4760003 -2.1414118 1.7053611 0
4.4710002 -2.1461847 1.7037647 0
4.4670005 -2.1514573 1.7024877 0
4.4620004 -2.1561959 1.7008913 0
4.4580002 -2.1614377 1.699614 0
4.4530001 -2.166142 1.6980177 0
4.4490004 -2.1713533 1.6967407 0
4.4450002 -2.1765499 1.6954635 0
4.4400001 -2.1812038 1.6938672 0
4.4360003 -2.1863701 1.6925902 0
4.4310002 -2.1909895 1.6909937 0
4.4270005 -2.1961253 1.6897167 0
4.4230003 -2.201246 1.6884396 0
4.4180002 -2.2058151 1.6868432 0
4.4140005 -2.2109056 1.6855662 0
4.4100003 -2.2159815 1.684289 0
4.4050002 -2.2204998 1.6826926 0
4.4010005 -2.2255452 1.6814156 0
4.3970003 -2.230576 1.6801385 0
4.3930001 -2.2355924 1.6788614 0
4.388 -2.2400441 1.677265 0
4.3840003 -2.2450297 1.6759878 0
4.3800001 -2.2500012 1.6747108 0
4.375 -2.2544024 1.6731144 0
4.3710003 -2.2593431 1.6718373 0
4.3670001 -2.2642691 1.6705602 0
4.3630004 -2.269181 1.6692832 0
4.3590002 -2.2740784 1.6680061 0
4.3540001 -2.2783966 1.6664096 0
4.3500004 -2.2832634 1.6651325 0
4.3460002 -2.2881155 1.6638554 0
4.342 -2.2929533 1.6625783 0
4.3380003 -2.2977767 1.6613014 0
4.3330002 -2.302012 1.6597048 0
5.1040001 -1.4290736 1.89738 0
5.0980005 -1.4357837 1.8954754 0
5.0920005 -1.4424723 1.8935704 0
5.0860004 -1.4491391 1.8916657 0
5.0800004 -1.4557844 1.8897609 0
5.0740004 -1.4624079 1.887856 0
5.0690002 -1.4693147 1.8862686 0
5.0630002 -1.4758968 1.8843638 0
5.0570002 -1.4824572 1.8824589 0
5.0510001 -1.488996 1.8805541 0
5.0450006 -1.4955133 1.8786495 0
5.0390005 -1.5020089 1.8767445 0
5.0340004 -1.5087984 1.8751572 0
5.0280004 -1.5152524 1.8732524 0
5.0220003 -1.5216848 1.8713475 0
5.0160003 -1.5280954 1.8694427 0
5.0110002 -1.5348073 1.8678553 0
5.0050001 -1.5411767 1.8659505 0
4.9990005 -1.5475243 1.8640457 0
4.9940004 -1.5541785 1.8624585 0
4.9880004 -1.5604846 1.8605535 0
4.9820004 -1.5667691 1.8586488 0
4.9770002 -1.5733657 1.8570613 0
4.9710002 -1.5796086 1.8551565 0
4.9650002 -1.5858299 1.8532517 0
4.9600005 -1.5923688 1.8516644 0
4.9540005 -1.5985487 1.8497597 0
4.9490004 -1.6050495 1.8481722 0
4.9430003 -1.6111878 1.8462675 0
4.9380002 -1.6176509 1.84468 0
4.9320002 -1.6237477 1.8427752 0
4.9270005 -1.6301731 1.841188 0
4.9210005 -1.6362284 1.8392831 0
4.9160004 -1.6426157 1.8376957 0
4.9100003 -1.6486294 1.8357909 0
4.9050002 -1.6549789 1.8342035 0
4.8990002 -1.6609513 1.8322986 0
4.8940005 -1.6672629 1.8307115 0
4.8880005 -1.6731938 1.8288065 0
4.8830004 -1.6794674 1.8272192 0
4.8780003 -1.6857231 1.8256319 0
4.8720002 -1.6915926 1.823727 0
4.8670001 -1.6978102 1.8221396 0
4.8620005 -1.70401 1.8205523 0
4.8560004 -1.7098184 1.8186475 0
4.8510003 -1.7159801 1.8170601 0
4.8460002 -1.7221239 1.8154727 0
4.8400002 -1.7278708 1.8135679 0
4.8350005 -1.7339768 1.8119806 0
4.8300004 -1.7400645 1.8103933 0
4.8240004 -1.7457502 1.8084884 0
4.8190002 -1.7518001 1.8069011 0
4.8140001 -1.7578321 1.8053137 0
4.8090005 -1.763846 1.8037264 0
4.8030005 -1.7694504 1.8018216 0
4.7980003 -1.7754264 1.8002342 0
4.7930002 -1.7813843 1.7986468 0
4.7880001 -1.7873242 1.7970594 0
4.7830005 -1.7932463 1.7954723 0
4.7780004 -1.7991501 1.7938849 0
4.7720003 -1.8046337 1.79198 0
4.7670002 -1.8104995 1.7903926 0
4.7620001 -1.8163475 1.7888051 0
4.7570004 -1.8221775 1.7872179 0
4.7520003 -1.8279893 1.7856306 0
4.7470002 -1.8337831 1.7840432 0
4.7420001 -1.839559 1.7824558 0
4.7370005 -1.8453168 1.7808685 0
4.7320004 -1.8510566 1.7792813 0
4.7270002 -1.8567781 1.7776937 0
4.7220001 -1.8624817 1.7761064 0
4.7170005 -1.8681675 1.7745191 0
4.7120004 -1.873835 1.7729318 0
4.7070003 -1.8794844 1.7713444 0
4.7020001 -1.885116 1.7697569 0
4.6970005 -1.8907295 1.7681698 0
4.6920004 -1.8963249 1.7665824 0
4.6870003 -1.9019021 1.764995 0
