# .PCD v0.7 - Point Cloud Data file format
VERSION 0.7
FIELDS x y z intensity
SIZE 4 4 4 4
TYPE F F F F
COUNT 1 1 1 1
WIDTH 1416
HEIGHT 1
VIEWPOINT 0 0 0 1 0 0 0
POINTS 1416
DATA ascii
2.7680001 0.6416983 0.85249889 0
2.7690003 0.63771552 0.85268831 0
2.7710001 0.63401586 0.85306704 0
2.7730002 0.63030905 0.85344589 0
2.7750001 0.62659496 0.85382468 0
2.7780001 0.62315512 0.85439289 0
2.7810001 0.61970443 0.85496104 0
2.7850003 0.61652076 0.85571873 0
2.7890003 0.61332262 0.85647631 0
2.7950003 0.61065841 0.85761273 0
2.8010001 0.60797244 0.85874903 0
2.8100002 0.60607666 0.86045367 0
2.7650001 0.73041314 0.84766471 0
2.7600002 0.72451472 0.84672672 0
2.7570002 0.71928364 0.84616387 0
2.7540002 0.71406347 0.84560114 0
2.7530003 0.7094962 0.84541357 0
2.7520001 0.70493251 0.84522593 0
2.7510002 0.70037252 0.84503835 0
2.7510002 0.69613183 0.84503835 0
2.7510002 0.69189101 0.84503835 0
2.7510002 0.68765032 0.84503835 0
2.7520001 0.68371975 0.84522593 0
2.7530003 0.67978573 0.84541357 0
2.7540002 0.67584801 0.84560114 0
2.7550001 0.67190659 0.84578872 0
2.7570002 0.66826475 0.84616387 0
2.7590003 0.66461569 0.84653914 0
2.7600002 0.66065991 0.84672672 0
2.7630002 0.65729582 0.8472895 0
2.7650001 0.65362507 0.84766471 0
2.7670002 0.64994711 0.84803987 0
2.7670002 0.64567745 0.84803987 0
2.7680001 0.6416983 0.8482275 0
2.7690003 0.63771552 0.84841508 0
2.7710001 0.63401586 0.84879023 0
2.7730002 0.63030905 0.84916544 0
2.7750001 0.62659496 0.84954059 0
2.7780001 0.62315512 0.85010338 0
2.7810001 0.61970443 0.85066622 0
2.7850003 0.61652076 0.85141659 0
2.7890003 0.61332262 0.85216701 0
2.7950003 0.61065841 0.85329258 0
2.8010001 0.60797244 0.85441816 0
2.8100002 0.60607666 0.85610652 0
2.7680001 0.73566943 0.84395605 0
2.7610002 0.72909999 0.84265554 0
2.7570002 0.7235353 0.84191233 0
2.7540002 0.71830964 0.84135497 0
2.7520001 0.71341765 0.84098339 0
2.7510002 0.70885408 0.84079754 0
2.7500002 0.70429403 0.84061182 0
2.7500002 0.70005512 0.84061182 0
2.7500002 0.69581616 0.84061182 0
2.7500002 0.6915772 0.84061182 0
2.7510002 0.68765032 0.84079754 0
2.7510002 0.68340951 0.84079754 0
2.7520001 0.67947716 0.84098339 0
2.7540002 0.67584801 0.84135497 0
2.7550001 0.67190659 0.84154075 0
2.7570002 0.66826475 0.84191233 0
2.7590003 0.66461569 0.84228396 0
2.7610002 0.66095936 0.84265554 0
2.7630002 0.65729582 0.84302711 0
2.7660003 0.65392089 0.84358448 0
2.7670002 0.64994711 0.84377027 0
2.7670002 0.64567745 0.84377027 0
2.7680001 0.6416983 0.84395605 0
2.7690003 0.63771552 0.84414184 0
2.7710001 0.63401586 0.84451342 0
2.7730002 0.63030905 0.84488505 0
2.7750001 0.62659496 0.84525657 0
2.7780001 0.62315512 0.84581399 0
2.7810001 0.61970443 0.84637135 0
2.7850003 0.61652076 0.84711456 0
2.7890003 0.61332262 0.84785771 0
2.7950003 0.61065841 0.84897244 0
2.8010001 0.60797244 0.85008717 0
2.8100002 0.60607666 0.85175931 0
2.8130002 0.4806633 0.85231674 0
2.8100002 0.47566134 0.85175931 0
2.8120003 0.47174346 0.85213089 0
2.8140001 0.46781832 0.85250247 0
2.8150003 0.46367502 0.85268831 0
2.8170002 0.4597373 0.85305989 0
2.8190002 0.45579243 0.85343146 0
2.8200002 0.45163459 0.85361725 0
2.8220003 0.44767705 0.85398889 0
2.7610002 0.7333588 0.83839667 0
2.7570002 0.72778684 0.83766079 0
2.7540002 0.72255576 0.83710879 0
2.7520001 0.71766019 0.83674085 0
2.7510002 0.71309477 0.83655679 0
2.7490003 0.70821196 0.83618891 0
2.7490003 0.70397478 0.83618891 0
2.7490003 0.69973767 0.83618891 0
2.7490003 0.69550049 0.83618891 0
2.7490003 0.69126338 0.83618891 0
2.7500002 0.68733823 0.83637285 0
2.7510002 0.68340951 0.83655679 0
2.7520001 0.67947716 0.83674085 0
2.7530003 0.67554134 0.83692479 0
2.7550001 0.67190659 0.83729279 0
2.7570002 0.66826475 0.83766079 0
2.7590003 0.66461569 0.83802879 0
2.7610002 0.66095936 0.83839667 0
2.7640002 0.65759343 0.83894867 0
2.7660003 0.65392089 0.83931667 0
2.7670002 0.64994711 0.83950067 0
2.7670002 0.64567745 0.83950067 0
2.7680001 0.6416983 0.83968461 0
2.7690003 0.63771552 0.83986866 0
2.7710001 0.63401586 0.8402366 0
2.7730002 0.63030905 0.8406046 0
2.7750001 0.62659496 0.84097254 0
2.7780001 0.62315512 0.84152448 0
2.7810001 0.61970443 0.84207648 0
2.7850003 0.61652076 0.84281242 0
2.7890003 0.61332262 0.84354842 0
2.7950003 0.61065841 0.84465235 0
2.8010001 0.60797244 0.84575629 0
2.8100002 0.60607666 0.84741211 0
2.8130002 0.4806633 0.84796411 0
2.8100002 0.47566134 0.84741211 0
2.8120003 0.47174346 0.84778011 0
2.8140001 0.46781832 0.84814811 0
2.8150003 0.46367502 0.84833211 0
2.8170002 0.4597373 0.84870005 0
2.8190002 0.45579243 0.84906805 0
2.8200002 0.45163459 0.84925205 0
2.8220003 0.44767705 0.84962004 0
2.8240001 0.44371226 0.84998798 0
2.7630002 0.73828137 0.83450234 0
2.7580001 0.73236847 0.83359134 0
2.7540002 0.72680193 0.83286262 0
2.7510002 0.72157627 0.83231604 0
2.7500002 0.71701092 0.83213389 0
2.7490003 0.71244907 0.83195174 0
2.7480001 0.70789081 0.83176953 0
2.7480001 0.70365548 0.83176953 0
2.7480001 0.69942015 0.83176953 0
2.7480001 0.69518477 0.83176953 0
2.7490003 0.69126338 0.83195174 0
2.7500002 0.68733823 0.83213389 0
2.7510002 0.68340951 0.83231604 0
2.7520001 0.67947716 0.83249825 0
2.7530003 0.67554134 0.83268046 0
2.7550001 0.67190659 0.83304477 0
2.7570002 0.66826475 0.83340919 0
2.7590003 0.66461569 0.83377361 0
2.7620003 0.66125882 0.83432013 0
2.7650001 0.65789104 0.83486664 0
2.7660003 0.65392089 0.83504885 0
2.7670002 0.64994711 0.83523107 0
2.7670002 0.64567745 0.83523107 0
2.7680001 0.6416983 0.83541322 0
2.7690003 0.63771552 0.83559537 0
2.7710001 0.63401586 0.83595979 0
2.7730002 0.63030905 0.83632416 0
2.7750001 0.62659496 0.83668852 0
2.7780001 0.62315512 0.83723509 0
2.7810001 0.61970443 0.83778161 0
2.7850003 0.61652076 0.83851039 0
2.7890003 0.61332262 0.83923912 0
2.7950003 0.61065841 0.84033221 0
2.8010001 0.60797244 0.8414253 0
2.8100002 0.60607666 0.84306496 0
2.8130002 0.4806633 0.84361154 0
2.8100002 0.47566134 0.84306496 0
2.8120003 0.47174346 0.84342933 0
2.8140001 0.46781832 0.84379375 0
2.8150003 0.46367502 0.8439759 0
2.8170002 0.4597373 0.84434026 0
2.8190002 0.45579243 0.84470463 0
2.8200002 0.45163459 0.84488684 0
2.8220003 0.44767705 0.8452512 0
2.8240001 0.44371226 0.84561551 0
2.7580001 0.73662186 0.82933795 0
2.7540002 0.73104811 0.8286165 0
2.7510002 0.72581708 0.82807529 0
2.7490003 0.72092336 0.82771456 0
2.7480001 0.71636152 0.8275342 0
2.7470002 0.71180332 0.82735384 0
2.7470002 0.70756978 0.82735384 0
2.7470002 0.70333618 0.82735384 0
2.7470002 0.6991027 0.82735384 0
2.7480001 0.69518477 0.8275342 0
2.7480001 0.69094944 0.8275342 0
2.7490003 0.6870262 0.82771456 0
2.7510002 0.68340951 0.82807529 0
2.7520001 0.67947716 0.82825565 0
2.7540002 0.67584801 0.8286165 0
2.7560003 0.67221153 0.82897723 0
2.7570002 0.66826475 0.82915759 0
2.7600002 0.66491693 0.8296988 0
2.7630002 0.66155821 0.83023989 0
2.7650001 0.65789104 0.83060062 0
2.7660003 0.65392089 0.8307811 0
2.7670002 0.64994711 0.83096147 0
2.7670002 0.64567745 0.83096147 0
2.7680001 0.6416983 0.83114183 0
2.7690003 0.63771552 0.83132219 0
2.7710001 0.63401586 0.83168292 0
2.7730002 0.63030905 0.83204371 0
2.7750001 0.62659496 0.83240443 0
2.7780001 0.62315512 0.83294559 0
2.7810001 0.61970443 0.83348674 0
2.7850003 0.61652076 0.83420831 0
2.7890003 0.61332262 0.83492982 0
2.7950003 0.61065841 0.83601213 0
2.8010001 0.60797244 0.83709437 0
2.8100002 0.60607666 0.83871782 0
2.8130002 0.4806633 0.83925891 0
2.8100002 0.47566134 0.83871782 0
2.8120003 0.47174346 0.83907855 0
2.8140001 0.46781832 0.83943927 0
2.8150003 0.46367502 0.8396197 0
2.8170002 0.4597373 0.83998048 0
2.8190002 0.45579243 0.84034121 0
2.8200002 0.45163459 0.84052157 0
2.8220003 0.44767705 0.84088236 0
2.8240001 0.44371226 0.84124315 0
2.7590003 0.74120897 0.8252632 0
2.7540002 0.73529428 0.82437027 0
2.7510002 0.73005778 0.82383454 0
2.7490003 0.72516054 0.82347745 0
2.7480001 0.72059685 0.82329881 0
2.7470002 0.7160368 0.82312024 0
2.7460003 0.71148038 0.82294166 0
2.7460003 0.70724869 0.82294166 0
2.7460003 0.70301694 0.82294166 0
2.7460003 0.69878519 0.82294166 0
2.7470002 0.69486916 0.82312024 0
2.7480001 0.69094944 0.82329881 0
2.7490003 0.6870262 0.82347745 0
2.7500002 0.68309927 0.82365596 0
2.7520001 0.67947716 0.82401311 0
2.7540002 0.67584801 0.82437027 0
2.7560003 0.67221153 0.82472748 0
2.7580001 0.66856778 0.82508457 0
2.7610002 0.66521811 0.82562035 0
2.7630002 0.66155821 0.8259775 0
2.7660003 0.6581887 0.82651329 0
2.7660003 0.65392089 0.82651329 0
2.7670002 0.64994711 0.82669181 0
2.7670002 0.64567745 0.82669181 0
2.7680001 0.6416983 0.82687038 0
2.7690003 0.63771552 0.82704902 0
2.7710001 0.63401586 0.82740611 0
2.7730002 0.63030905 0.82776332 0
2.7750001 0.62659496 0.82812041 0
2.7780001 0.62315512 0.82865614 0
2.7810001 0.61970443 0.82919192 0
2.7850003 0.61652076 0.82990623 0
2.7890003 0.61332262 0.83062053 0
2.7950003 0.61065841 0.83169198 0
2.8010001 0.60797244 0.83276343 0
2.8100002 0.60607666 0.83437061 0
2.8130002 0.4806633 0.83490634 0
2.8100002 0.47566134 0.83437061 0
2.8120003 0.47174346 0.83472776 0
2.8140001 0.46781832 0.83508492 0
2.8150003 0.46367502 0.83526349 0
2.8170002 0.4597373 0.83562064 0
2.8190002 0.45579243 0.83597779 0
2.8200002 0.45163459 0.83615637 0
2.8220003 0.44767705 0.83651352 0
2.8240001 0.44371226 0.83687067 0
2.7610002 0.74613512 0.82136154 0
2.7550001 0.73987412 0.82030094 0
2.7510002 0.73429859 0.81959379 0
2.7490003 0.72939765 0.81924033 0
2.7470002 0.72450387 0.81888676 0
2.7460003 0.71994388 0.81870997 0
2.7450001 0.7153874 0.81853318 0
2.7450001 0.7111575 0.81853318 0
2.7450001 0.70692754 0.81853318 0
2.7450001 0.70269763 0.81853318 0
2.7460003 0.69878519 0.81870997 0
2.7460003 0.69455349 0.81870997 0
2.7480001 0.69094944 0.81906348 0
2.7490003 0.6870262 0.81924033 0
2.7500002 0.68309927 0.81941706 0
2.7520001 0.67947716 0.81977057 0
2.7540002 0.67584801 0.82012415 0
2.7560003 0.67221153 0.82047772 0
2.7590003 0.66887087 0.82100803 0
2.7610002 0.66521811 0.82136154 0
2.7640002 0.6618576 0.8218919 0
2.7660003 0.6581887 0.82224542 0
2.7660003 0.65392089 0.82224542 0
2.7670002 0.64994711 0.82242215 0
2.7670002 0.64567745 0.82242215 0
2.7680001 0.6416983 0.82259893 0
2.7690003 0.63771552 0.82277572 0
2.7710001 0.63401586 0.8231293 0
2.7730002 0.63030905 0.82348287 0
2.7750001 0.62659496 0.82383633 0
2.7780001 0.62315512 0.82436669 0
2.7810001 0.61970443 0.82489699 0
2.7850003 0.61652076 0.82560414 0
2.7890003 0.61332262 0.82631123 0
2.7950003 0.61065841 0.82737184 0
2.8010001 0.60797244 0.82843244 0
2.8100002 0.60607666 0.83002341 0
2.8130002 0.4806633 0.83055377 0
2.8100002 0.47566134 0.83002341 0
2.8120003 0.47174346 0.83037698 0
2.8140001 0.46781832 0.83073056 0
2.8150003 0.46367502 0.83090734 0
2.8170002 0.4597373 0.83126086 0
2.8190002 0.45579243 0.83161438 0
2.8200002 0.45163459 0.83179116 0
2.8220003 0.44767705 0.83214474 0
2.8240001 0.44371226 0.83249825 0
2.7560003 0.74445766 0.81622791 0
2.7510002 0.73853934 0.81535304 0
2.7490003 0.73363477 0.81500316 0
2.7470002 0.72873747 0.81465316 0
2.7450001 0.72384727 0.81430322 0
2.7440002 0.71929085 0.81412828 0
2.7440002 0.71506274 0.81412828 0
2.7440002 0.71083462 0.81412828 0
2.7440002 0.70660651 0.81412828 0
2.7450001 0.70269763 0.81430322 0
2.7450001 0.69846767 0.81430322 0
2.7460003 0.69455349 0.81447822 0
2.7470002 0.69063562 0.81465316 0
2.7490003 0.6870262 0.81500316 0
2.7500002 0.68309927 0.8151781 0
2.7520001 0.67947716 0.81552804 0
2.7540002 0.67584801 0.81587797 0
2.7570002 0.67251635 0.81640291 0
2.7590003 0.66887087 0.81675279 0
2.7620003 0.66551942 0.81727779 0
2.7650001 0.66215706 0.81780261 0
2.7660003 0.6581887 0.81797761 0
2.7660003 0.65392089 0.81797761 0
2.7670002 0.64994711 0.81815255 0
2.7670002 0.64567745 0.81815255 0
2.7680001 0.6416983 0.81832755 0
2.7690003 0.63771552 0.81850255 0
2.7710001 0.63401586 0.81885242 0
2.7730002 0.63030905 0.81920242 0
2.7750001 0.62659496 0.8195523 0
2.7780001 0.62315512 0.82007718 0
2.7810001 0.61970443 0.82060212 0
2.7850003 0.61652076 0.82130206 0
2.7890003 0.61332262 0.82200193 0
2.7950003 0.61065841 0.82305169 0
2.8010001 0.60797244 0.82410157 0
2.8100002 0.60607666 0.82567626 0
2.8130002 0.4806633 0.8262012 0
2.8100002 0.47566134 0.82567626 0
2.8120003 0.47174346 0.8260262 0
2.8140001 0.46781832 0.82637614 0
2.8150003 0.46367502 0.82655114 0
2.8170002 0.4597373 0.82690108 0
2.8190002 0.45579243 0.82725102 0
2.8200002 0.45163459 0.82742596 0
2.8220003 0.44767705 0.82777596 0
2.8240001 0.44371226 0.82812583 0
2.7570002 0.74904472 0.81215131 0
2.7520001 0.74311554 0.81128544 0
2.7490003 0.73787194 0.81076598 0
2.7460003 0.73263907 0.81024647 0
2.7450001 0.72807723 0.81007326 0
2.7440002 0.72351903 0.80990016 0
2.7430003 0.71896446 0.80972695 0
2.7430003 0.71473807 0.80972695 0
2.7430003 0.7105118 0.80972695 0
2.7430003 0.70628542 0.80972695 0
2.7440002 0.70237839 0.80990016 0
2.7450001 0.69846767 0.81007326 0
2.7460003 0.69455349 0.81024647 0
2.7470002 0.69063562 0.81041968 0
2.7490003 0.6870262 0.81076598 0
2.7510002 0.68340951 0.81111228 0
2.7530003 0.67978573 0.81145865 0
2.7550001 0.67615461 0.81180495 0
2.7570002 0.67251635 0.81215131 0
2.7600002 0.6691739 0.81267083 0
2.7630002 0.66582066 0.81319034 0
2.7660003 0.66245657 0.81370986 0
2.7660003 0.6581887 0.81370986 0
2.7660003 0.65392089 0.81370986 0
2.7670002 0.64994711 0.81388295 0
2.7670002 0.64567745 0.81388295 0
2.7680001 0.6416983 0.81405616 0
2.7690003 0.63771552 0.81422931 0
2.7710001 0.63401586 0.81457561 0
2.7730002 0.63030905 0.81492198 0
2.7750001 0.62659496 0.81526828 0
2.7780001 0.62315512 0.81578779 0
2.7810001 0.61970443 0.81630731 0
2.7850003 0.61652076 0.81699997 0
2.7890003 0.61332262 0.81769264 0
2.7950003 0.61065841 0.81873161 0
2.8010001 0.60797244 0.81977057 0
2.8100002 0.60607666 0.82132912 0
2.8130002 0.4806633 0.82184857 0
2.8100002 0.47566134 0.82132912 0
2.8120003 0.47174346 0.82167542 0
2.8140001 0.46781832 0.82202172 0
2.8150003 0.46367502 0.82219493 0
2.8170002 0.4597373 0.82254124 0
2.8190002 0.45579243 0.82288754 0
2.8200002 0.45163459 0.82306075 0
2.8220003 0.44767705 0.82340705 0
2.8240001 0.44371226 0.82375342 0
2.7590003 0.75397456 0.8082425 0
2.7530003 0.74769545 0.80721426 0
2.7490003 0.74210906 0.80652881 0
2.7460003 0.73687083 0.80601478 0
2.7440002 0.73197526 0.80567205 0
2.7430003 0.72741711 0.80550069 0
2.7420001 0.72286236 0.80532932 0
2.7420001 0.71863788 0.80532932 0
2.7420001 0.71441334 0.80532932 0
2.7420001 0.71018881 0.80532932 0
2.7430003 0.70628542 0.80550069 0
2.7430003 0.70205915 0.80550069 0
2.7450001 0.69846767 0.80584335 0
2.7460003 0.69455349 0.80601478 0
2.7470002 0.69063562 0.80618608 0
2.7490003 0.6870262 0.80652881 0
2.7510002 0.68340951 0.80687153 0
2.7530003 0.67978573 0.80721426 0
2.7550001 0.67615461 0.80755699 0
2.7580001 0.67282116 0.80807114 0
2.7610002 0.66947693 0.80858517 0
2.7640002 0.66612184 0.80909926 0
2.7670002 0.66275597 0.80961335 0
2.7660003 0.6581887 0.80944204 0
2.7660003 0.65392089 0.80944204 0
2.7670002 0.64994711 0.80961335 0
2.7670002 0.64567745 0.80961335 0
2.7680001 0.6416983 0.80978471 0
2.7690003 0.63771552 0.80995607 0
2.7710001 0.63401586 0.8102988 0
2.7730002 0.63030905 0.81064153 0
2.7750001 0.62659496 0.81098425 0
2.7780001 0.62315512 0.81149828 0
2.7810001 0.61970443 0.81201243 0
2.7850003 0.61652076 0.81269789 0
2.7890003 0.61332262 0.81338334 0
2.7950003 0.61065841 0.81441152 0
2.8010001 0.60797244 0.81543964 0
2.8100002 0.60607666 0.81698191 0
2.8130002 0.4806633 0.817496 0
2.8100002 0.47566134 0.81698191 0
2.8120003 0.47174346 0.81732464 0
2.8140001 0.46781832 0.81766737 0
2.8150003 0.46367502 0.81783873 0
2.8170002 0.4597373 0.8181814 0
2.8190002 0.45579243 0.81852412 0
2.8200002 0.45163459 0.81869555 0
2.8220003 0.44767705 0.81903827 0
2.8240001 0.44371226 0.81938094 0
2.7530003 0.75193989 0.80296993 0
2.7490003 0.74634624 0.80229169 0
2.7460003 0.74110258 0.80178303 0
2.7440002 0.73620337 0.80144393 0
2.7430003 0.73164338 0.80127436 0
2.7410002 0.72675687 0.80093521 0
2.7410002 0.72253412 0.80093521 0
2.7410002 0.71831143 0.80093521 0
2.7410002 0.71408868 0.80093521 0
2.7420001 0.71018881 0.80110478 0
2.7420001 0.70596433 0.80110478 0
2.7430003 0.70205915 0.80127436 0
2.7440002 0.69815022 0.80144393 0
2.7460003 0.69455349 0.80178303 0
2.7470002 0.69063562 0.8019526 0
2.7490003 0.6870262 0.80229169 0
2.7510002 0.68340951 0.80263078 0
2.7530003 0.67978573 0.80296993 0
2.7560003 0.67646128 0.8034786 0
2.7590003 0.67312604 0.80398726 0
2.7620003 0.66978002 0.80449593 0
2.7650001 0.66642302 0.8050046 0
2.7670002 0.66275597 0.80534375 0
2.7660003 0.6581887 0.80517423 0
2.7660003 0.65392089 0.80517423 0
2.7670002 0.64994711 0.80534375 0
2.7670002 0.64567745 0.80534375 0
2.7680001 0.6416983 0.80551326 0
2.7690003 0.63771552 0.8056829 0
2.7710001 0.63401586 0.80602193 0
2.7730002 0.63030905 0.80636108 0
2.7750001 0.62659496 0.80670017 0
2.7780001 0.62315512 0.8072089 0
2.7810001 0.61970443 0.80771756 0
2.7850003 0.61652076 0.8083958 0
2.7890003 0.61332262 0.80907404 0
2.7950003 0.61065841 0.81009138 0
2.8010001 0.60797244 0.81110871 0
2.8100002 0.60607666 0.81263471 0
2.8130002 0.4806633 0.81314337 0
2.8100002 0.47566134 0.81263471 0
2.8120003 0.47174346 0.81297386 0
2.8140001 0.46781832 0.81331295 0
2.8150003 0.46367502 0.81348252 0
2.8170002 0.4597373 0.81382161 0
2.8190002 0.45579243 0.81416076 0
2.8200002 0.45163459 0.81433034 0
2.8220003 0.44767705 0.81466943 0
2.8240001 0.44371226 0.81500852 0
2.7550001 0.75686598 0.79906106 0
2.7490003 0.75058335 0.79805458 0
2.7460003 0.74533427 0.79755127 0
2.7440002 0.74043149 0.79721576 0
2.7420001 0.73553592 0.79688025 0
2.7410002 0.73097956 0.79671252 0
2.7400002 0.72642678 0.79654479 0
2.7400002 0.72220588 0.79654479 0
2.7400002 0.71798497 0.79654479 0
2.7400002 0.71376401 0.79654479 0
2.7410002 0.70986599 0.79671252 0
2.7420001 0.70596433 0.79688025 0
2.7430003 0.70205915 0.79704803 0
2.7440002 0.69815022 0.79721576 0
2.7460003 0.69455349 0.79755127 0
2.7470002 0.69063562 0.797719 0
2.7490003 0.6870262 0.79805458 0
2.7510002 0.68340951 0.79839003 0
2.7540002 0.68009418 0.79889333 0
2.7570002 0.67676795 0.79939657 0
2.7600002 0.67343086 0.79989982 0
2.7630002 0.67008305 0.80040312 0
2.7660003 0.66672432 0.80090636 0
2.7670002 0.66275597 0.80107415 0
2.7660003 0.6581887 0.80090636 0
2.7660003 0.65392089 0.80090636 0
2.7670002 0.64994711 0.80107415 0
2.7670002 0.64567745 0.80107415 0
2.7680001 0.6416983 0.80124187 0
2.7690003 0.63771552 0.8014096 0
2.7710001 0.63401586 0.80174518 0
2.7730002 0.63030905 0.80208063 0
2.7750001 0.62659496 0.80241615 0
2.7780001 0.62315512 0.80291939 0
2.7810001 0.61970443 0.80342269 0
2.7850003 0.61652076 0.80409372 0
2.7890003 0.61332262 0.80476475 0
2.7950003 0.61065841 0.80577123 0
2.8010001 0.60797244 0.80677772 0
2.8100002 0.60607666 0.8082875 0
2.8130002 0.4806633 0.8087908 0
2.8100002 0.47566134 0.8082875 0
2.8120003 0.47174346 0.80862308 0
2.8140001 0.46781832 0.80895853 0
2.8150003 0.46367502 0.80912638 0
2.8170002 0.4597373 0.80946183 0
2.8190002 0.45579243 0.80979735 0
2.8200002 0.45163459 0.80996513 0
2.8220003 0.44767705 0.81030059 0
2.8240001 0.44371226 0.8106361 0
2.7570002 0.76179945 0.79514503 0
2.7500002 0.7551614 0.79398334 0
2.7460003 0.74956602 0.79331958 0
2.7430003 0.74432236 0.79282171 0
2.7410002 0.739425 0.79248977 0
2.7400002 0.73486859 0.79232383 0
2.7390003 0.7303158 0.79215789 0
2.7390003 0.72609669 0.79215789 0
2.7390003 0.72187757 0.79215789 0
2.7390003 0.71765846 0.79215789 0
2.7400002 0.71376401 0.79232383 0
2.7400002 0.70954311 0.79232383 0
2.7410002 0.7056433 0.79248977 0
2.7430003 0.70205915 0.79282171 0
2.7440002 0.69815022 0.79298764 0
2.7460003 0.69455349 0.79331958 0
2.7480001 0.69094944 0.79365146 0
2.7500002 0.68733823 0.79398334 0
2.7520001 0.68371975 0.79431522 0
2.7550001 0.68040258 0.7948131 0
2.7570002 0.67676795 0.79514503 0
2.7610002 0.67373568 0.79580879 0
2.7640002 0.67038602 0.79630661 0
2.7680001 0.66732675 0.79697049 0
2.7670002 0.66275597 0.79680455 0
2.7660003 0.6581887 0.79663861 0
2.7660003 0.65392089 0.79663861 0
2.7670002 0.64994711 0.79680455 0
2.7670002 0.64567745 0.79680455 0
2.7680001 0.6416983 0.79697049 0
2.7690003 0.63771552 0.79713643 0
2.7710001 0.63401586 0.7974683 0
2.7730002 0.63030905 0.79780018 0
2.7750001 0.62659496 0.79813206 0
2.7780001 0.62315512 0.79862994 0
2.7810001 0.61970443 0.79912782 0
2.7850003 0.61652076 0.79979163 0
2.7890003 0.61332262 0.80045545 0
2.7950003 0.61065841 0.80145115 0
2.8010001 0.60797244 0.80244684 0
2.8100002 0.60607666 0.80394036 0
2.8130002 0.4806633 0.80443823 0
2.8100002 0.47566134 0.80394036 0
2.8120003 0.47174346 0.80427229 0
2.8140001 0.46781832 0.80460417 0
2.8150003 0.46367502 0.80477011 0
2.8170002 0.4597373 0.80510199 0
2.8190002 0.45579243 0.80543399 0
2.8200002 0.45163459 0.80559993 0
2.8220003 0.44767705 0.80593181 0
2.8240001 0.44371226 0.80626369 0
2.7510002 0.75974303 0.78990853 0
2.7460003 0.75379777 0.78908783 0
2.7430003 0.74854869 0.78859538 0
2.7410002 0.74364775 0.78826708 0
2.7400002 0.73908949 0.78810298 0
2.7390003 0.73453486 0.78793883 0
2.7380002 0.72998387 0.78777468 0
2.7380002 0.72576654 0.78777468 0
2.7380002 0.72154927 0.78777468 0
2.7390003 0.71765846 0.78793883 0
2.7390003 0.7134394 0.78793883 0
2.7400002 0.70954311 0.78810298 0
2.7410002 0.7056433 0.78826708 0
2.7430003 0.70205915 0.78859538 0
2.7440002 0.69815022 0.78875953 0
2.7460003 0.69455349 0.78908783 0
2.7480001 0.69094944 0.78941607 0
2.7500002 0.68733823 0.78974438 0
2.7530003 0.68403006 0.79023683 0
2.7550001 0.68040258 0.79056513 0
2.7580001 0.67707455 0.79105759 0
2.7620003 0.67404062 0.79171419 0
2.7650001 0.67068905 0.79220659 0
2.7680001 0.66732675 0.79269904 0
2.7670002 0.66275597 0.79253489 0
2.7660003 0.6581887 0.7923708 0
2.7660003 0.65392089 0.7923708 0
2.7670002 0.64994711 0.79253489 0
2.7670002 0.64567745 0.79253489 0
2.7680001 0.6416983 0.79269904 0
2.7690003 0.63771552 0.79286325 0
2.7710001 0.63401586 0.79319143 0
2.7730002 0.63030905 0.79351974 0
2.7750001 0.62659496 0.79384804 0
2.7780001 0.62315512 0.79434049 0
2.7810001 0.61970443 0.79483294 0
2.7850003 0.61652076 0.79548955 0
2.7890003 0.61332262 0.79614615 0
2.7950003 0.61065841 0.79713106 0
2.8010001 0.60797244 0.79811585 0
2.8100002 0.60607666 0.79959321 0
2.8130002 0.4806633 0.80008566 0
2.8100002 0.47566134 0.79959321 0
2.8120003 0.47174346 0.79992151 0
2.8140001 0.46781832 0.80024976 0
2.8150003 0.46367502 0.80041397 0
2.8170002 0.4597373 0.80074221 0
2.8190002 0.45579243 0.80107051 0
2.8200002 0.45163459 0.8012346 0
2.8220003 0.44767705 0.80156296 0
2.8240001 0.44371226 0.80189121 0
2.7530003 0.76467294 0.7859925 0
2.7470002 0.75837219 0.78501844 0
2.7430003 0.75277501 0.78436905 0
2.7410002 0.74787039 0.78404438 0
2.7390003 0.74297309 0.78371972 0
2.7380002 0.73841846 0.7835573 0
2.7370002 0.73386747 0.78339505 0
2.7370002 0.72965199 0.78339505 0
2.7370002 0.72543645 0.78339505 0
2.7370002 0.72122097 0.78339505 0
2.7380002 0.71733195 0.7835573 0
2.7390003 0.7134394 0.78371972 0
2.7400002 0.70954311 0.78388202 0
2.7410002 0.7056433 0.78404438 0
2.7420001 0.70173979 0.78420669 0
2.7440002 0.69815022 0.78453135 0
2.7460003 0.69455349 0.78485608 0
2.7480001 0.69094944 0.78518081 0
2.7510002 0.68765032 0.78566778 0
2.7530003 0.68403006 0.7859925 0
2.7560003 0.68071109 0.78647953 0
2.7600002 0.67768782 0.78712893 0
2.7630002 0.67434537 0.7876159 0
2.7670002 0.67129517 0.78826529 0
2.7680001 0.66732675 0.78842759 0
2.7670002 0.66275597 0.78826529 0
2.7660003 0.6581887 0.78810298 0
2.7660003 0.65392089 0.78810298 0
2.7670002 0.64994711 0.78826529 0
2.7670002 0.64567745 0.78826529 0
2.7680001 0.6416983 0.78842759 0
2.7690003 0.63771552 0.78858995 0
2.7710001 0.63401586 0.78891462 0
2.7730002 0.63030905 0.78923935 0
2.7750001 0.62659496 0.78956401 0
2.7780001 0.62315512 0.79005104 0
2.7810001 0.61970443 0.79053807 0
2.7850003 0.61652076 0.79118747 0
2.7890003 0.61332262 0.79183686 0
2.7950003 0.61065841 0.79281092 0
2.8010001 0.60797244 0.79378492 0
2.8100002 0.60607666 0.79524601 0
2.8130002 0.4806633 0.79573309 0
2.8100002 0.47566134 0.79524601 0
2.8120003 0.47174346 0.79557073 0
2.8140001 0.46781832 0.7958954 0
2.8150003 0.46367502 0.79605776 0
2.8170002 0.4597373 0.79638243 0
2.8190002 0.45579243 0.79670709 0
2.8200002 0.45163459 0.7968694 0
2.8220003 0.44767705 0.79719412 0
2.8240001 0.44371226 0.79751885 0
2.7480001 0.76295024 0.78094542 0
2.7430003 0.75700134 0.78014272 0
2.7410002 0.75209314 0.77982163 0
2.7390003 0.74719226 0.7795006 0
2.7380002 0.74263579 0.77934003 0
2.7360003 0.73774749 0.779019 0
2.7360003 0.7335338 0.779019 0
2.7360003 0.72932011 0.779019 0
2.7360003 0.72510642 0.779019 0
2.7370002 0.72122097 0.77917951 0
2.7370002 0.71700543 0.77917951 0
2.7380002 0.71311462 0.77934003 0
2.7400002 0.70954311 0.77966112 0
2.7410002 0.7056433 0.77982163 0
2.7430003 0.70205915 0.78014272 0
2.7440002 0.69815022 0.78030324 0
2.7460003 0.69455349 0.78062439 0
2.7490003 0.69126338 0.781106 0
2.7510002 0.68765032 0.78142703 0
2.7540002 0.6843403 0.78190863 0
2.7570002 0.68101948 0.78239024 0
2.7610002 0.67799449 0.78303242 0
2.7650001 0.67495507 0.7836746 0
2.7690003 0.67190129 0.78431678 0
2.7680001 0.66732675 0.7841562 0
2.7670002 0.66275597 0.78399563 0
2.7660003 0.6581887 0.78383517 0
2.7660003 0.65392089 0.78383517 0
2.7670002 0.64994711 0.78399563 0
2.7670002 0.64567745 0.78399563 0
2.7680001 0.6416983 0.7841562 0
2.7690003 0.63771552 0.78431678 0
2.7710001 0.63401586 0.78463781 0
2.7730002 0.63030905 0.7849589 0
2.7750001 0.62659496 0.78527999 0
2.7780001 0.62315512 0.78576159 0
2.7810001 0.61970443 0.7862432 0
2.7850003 0.61652076 0.78688538 0
2.7890003 0.61332262 0.78752756 0
2.7950003 0.61065841 0.78849077 0
2.8010001 0.60797244 0.78945398 0
2.8100002 0.60607666 0.7908988 0
2.8130002 0.4806633 0.79138041 0
2.8100002 0.47566134 0.7908988 0
2.8120003 0.47174346 0.79121995 0
2.8140001 0.46781832 0.79154098 0
2.8150003 0.46367502 0.79170156 0
2.8170002 0.4597373 0.79202259 0
2.8190002 0.45579243 0.79234374 0
2.8200002 0.45163459 0.79250419 0
2.8220003 0.44767705 0.79282534 0
2.8240001 0.44371226 0.79314637 0
2.7480001 0.76718557 0.77671009 0
2.7440002 0.76157212 0.77607512 0
2.7410002 0.75631583 0.77559894 0
2.7380002 0.75107038 0.77512276 0
2.7370002 0.74651396 0.77496397 0
2.7360003 0.74196118 0.77480531 0
2.7350001 0.73741192 0.77464652 0
2.7350001 0.73320001 0.77464652 0
2.7350001 0.72898817 0.77464652 0
2.7360003 0.72510642 0.77480531 0
2.7360003 0.72089273 0.77480531 0
2.7370002 0.71700543 0.77496397 0
2.7380002 0.71311462 0.77512276 0
2.7390003 0.70922023 0.77528149 0
2.7410002 0.7056433 0.77559894 0
2.7430003 0.70205915 0.77591646 0
2.7450001 0.69846767 0.77623385 0
2.7470002 0.69486916 0.77655137 0
2.7490003 0.69126338 0.77686882 0
2.7520001 0.68796229 0.777345 0
2.7550001 0.68465054 0.77782118 0
2.7580001 0.68132794 0.77829742 0
2.7620003 0.67830122 0.77893239 0
2.7660003 0.67525995 0.7795673 0
2.7690003 0.67190129 0.78004354 0
2.7680001 0.66732675 0.77988482 0
2.7670002 0.66275597 0.77972603 0
2.7660003 0.6581887 0.7795673 0
2.7660003 0.65392089 0.7795673 0
2.7670002 0.64994711 0.77972603 0
2.7670002 0.64567745 0.77972603 0
2.7680001 0.6416983 0.77988482 0
2.7690003 0.63771552 0.78004354 0
2.7710001 0.63401586 0.780361 0
2.7730002 0.63030905 0.78067845 0
2.7750001 0.62659496 0.78099591 0
2.7780001 0.62315512 0.78147215 0
2.7810001 0.61970443 0.78194833 0
2.7850003 0.61652076 0.7825833 0
2.7890003 0.61332262 0.78321826 0
2.7950003 0.61065841 0.78417063 0
2.8010001 0.60797244 0.78512299 0
2.8100002 0.60607666 0.78655165 0
2.8130002 0.4806633 0.78702784 0
2.8100002 0.47566134 0.78655165 0
2.8120003 0.47174346 0.78686917 0
2.8140001 0.46781832 0.78718662 0
2.8150003 0.46367502 0.78734535 0
2.8170002 0.4597373 0.7876628 0
2.8190002 0.45579243 0.78798032 0
2.8200002 0.45163459 0.78813899 0
2.8220003 0.44767705 0.7884565 0
2.8240001 0.44371226 0.78877389 0
2.7510002 0.77246535 0.77294552 0
2.7440002 0.7658003 0.77184701 0
2.7410002 0.76053858 0.77137625 0
2.7380002 0.75528765 0.77090544 0
2.7360003 0.75038856 0.77059162 0
2.7350001 0.74583572 0.77043462 0
2.7340002 0.74128652 0.77027774 0
2.7340002 0.73707646 0.77027774 0
2.7340002 0.73286635 0.77027774 0
2.7340002 0.72865629 0.77027774 0
2.7350001 0.72477621 0.77043462 0
2.7360003 0.72089273 0.77059162 0
2.7370002 0.71700543 0.7707485 0
2.7380002 0.71311462 0.77090544 0
2.7390003 0.70922023 0.77106237 0
2.7410002 0.7056433 0.77137625 0
2.7430003 0.70205915 0.77169013 0
2.7450001 0.69846767 0.77200389 0
2.7470002 0.69486916 0.77231783 0
2.7500002 0.6915772 0.77278864 0
2.7530003 0.68827444 0.7732594 0
2.7560003 0.68496084 0.77373022 0
2.7600002 0.68194485 0.77435791 0
2.7640002 0.67891443 0.77498567 0
2.7680001 0.67586964 0.77561337 0
2.7690003 0.67190129 0.77577031 0
2.7680001 0.66732675 0.77561337 0
2.7670002 0.66275597 0.77545643 0
2.7660003 0.6581887 0.77529955 0
2.7660003 0.65392089 0.77529955 0
2.7670002 0.64994711 0.77545643 0
2.7670002 0.64567745 0.77545643 0
2.7680001 0.6416983 0.77561337 0
2.7690003 0.63771552 0.77577031 0
2.7710001 0.63401586 0.77608418 0
2.7730002 0.63030905 0.77639806 0
2.7750001 0.62659496 0.77671188 0
2.7780001 0.62315512 0.7771827 0
2.7810001 0.61970443 0.77765346 0
2.7850003 0.61652076 0.77828121 0
2.7890003 0.61332262 0.77890897 0
2.7950003 0.61065841 0.77985054 0
2.8010001 0.60797244 0.78079212 0
2.8100002 0.60607666 0.78220451 0
2.8130002 0.4806633 0.78267527 0
2.8100002 0.47566134 0.78220451 0
2.8120003 0.47174346 0.78251839 0
2.8140001 0.46781832 0.78283221 0
2.8150003 0.46367502 0.78298914 0
2.8170002 0.4597373 0.78330302 0
2.8190002 0.45579243 0.7836169 0
2.8200002 0.45163459 0.78377378 0
2.8220003 0.44767705 0.78408766 0
2.8240001 0.44371226 0.78440154 0
2.7450001 0.7703765 0.76777399 0
2.7410002 0.76476127 0.7671535 0
2.7380002 0.75950497 0.76668811 0
2.7360003 0.75460225 0.76637787 0
2.7350001 0.75004756 0.76622272 0
2.7340002 0.74549663 0.76606762 0
2.7330003 0.74094921 0.76591253 0
2.7330003 0.73674101 0.76591253 0
2.7330003 0.73253268 0.76591253 0
2.7340002 0.72865629 0.76606762 0
2.7340002 0.72444618 0.76606762 0
2.7350001 0.72056437 0.76622272 0
2.7370002 0.71700543 0.76653302 0
2.7380002 0.71311462 0.76668811 0
2.7390003 0.70922023 0.76684332 0
2.7410002 0.7056433 0.7671535 0
2.7430003 0.70205915 0.7674638 0
2.7460003 0.69878519 0.7679292 0
2.7480001 0.69518477 0.76823938 0
2.7510002 0.69189101 0.76870477 0
2.7540002 0.68858641 0.76917017 0
2.7570002 0.68527108 0.76963556 0
2.7610002 0.6822533 0.77025604 0
2.7650001 0.67922103 0.77087653 0
2.7700002 0.67647934 0.77165222 0
2.7690003 0.67190129 0.77149713 0
2.7680001 0.66732675 0.77134192 0
2.7670002 0.66275597 0.77118683 0
2.7660003 0.6581887 0.77103174 0
2.7660003 0.65392089 0.77103174 0
2.7670002 0.64994711 0.77118683 0
2.7670002 0.64567745 0.77118683 0
2.7680001 0.6416983 0.77134192 0
2.7690003 0.63771552 0.77149713 0
2.7710001 0.63401586 0.77180731 0
2.7730002 0.63030905 0.77211761 0
2.7750001 0.62659496 0.7724278 0
2.7780001 0.62315512 0.77289319 0
2.7810001 0.61970443 0.77335858 0
2.7850003 0.61652076 0.77397913 0
2.7890003 0.61332262 0.77459967 0
2.7950003 0.61065841 0.7755304 0
2.8010001 0.60797244 0.77646112 0
2.8100002 0.60607666 0.7778573 0
2.8130002 0.4806633 0.7783227 0
2.8100002 0.47566134 0.7778573 0
2.8120003 0.47174346 0.77816761 0
2.8140001 0.46781832 0.77847779 0
2.8150003 0.46367502 0.778633 0
2.8170002 0.4597373 0.77894318 0
2.8190002 0.45579243 0.77925348 0
2.8200002 0.45163459 0.77940857 0
2.8220003 0.44767705 0.77971888 0
2.8240001 0.44371226 0.78002906 0
2.7460003 0.77495641 0.76369745 0
2.7410002 0.76898402 0.76293075 0
2.7380002 0.76372224 0.76247084 0
2.7360003 0.75881594 0.76216418 0
2.7340002 0.7539168 0.76185751 0
2.7330003 0.74936581 0.76170421 0
2.7320001 0.74481839 0.7615509 0
2.7320001 0.74061191 0.7615509 0
2.7320001 0.73640543 0.7615509 0
2.7330003 0.73253268 0.76170421 0
2.7330003 0.72832441 0.76170421 0
2.7340002 0.72444618 0.76185751 0
2.7350001 0.72056437 0.76201081 0
2.7360003 0.71667904 0.76216418 0
2.7380002 0.71311462 0.76247084 0
2.7400002 0.70954311 0.76277745 0
2.7410002 0.7056433 0.76293075 0
2.7440002 0.70237839 0.76339078 0
2.7460003 0.69878519 0.76369745 0
2.7490003 0.69550049 0.76415741 0
2.7520001 0.69220483 0.76461732 0
2.7550001 0.6888985 0.76507735 0
2.7580001 0.68558133 0.76553726 0
2.7630002 0.68287021 0.7663039 0
2.7670002 0.67983437 0.76691723 0
2.7710001 0.6767841 0.7675305 0
2.7690003 0.67190129 0.76722383 0
2.7680001 0.66732675 0.76707053 0
2.7670002 0.66275597 0.76691723 0
2.7660003 0.6581887 0.76676393 0
2.7660003 0.65392089 0.76676393 0
2.7670002 0.64994711 0.76691723 0
2.7670002 0.64567745 0.76691723 0
2.7680001 0.6416983 0.76707053 0
2.7690003 0.63771552 0.76722383 0
2.7710001 0.63401586 0.7675305 0
2.7730002 0.63030905 0.76783717 0
2.7750001 0.62659496 0.76814377 0
2.7780001 0.62315512 0.7686038 0
2.7810001 0.61970443 0.76906371 0
2.7850003 0.61652076 0.76967704 0
2.7890003 0.61332262 0.77029037 0
2.7950003 0.61065841 0.77121031 0
2.8010001 0.60797244 0.77213025 0
2.8100002 0.60607666 0.7735101 0
2.8130002 0.4806633 0.77397013 0
2.8100002 0.47566134 0.7735101 0
2.8120003 0.47174346 0.77381682 0
2.8140001 0.46781832 0.77412343 0
2.8150003 0.46367502 0.77427673 0
2.8170002 0.4597373 0.7745834 0
2.8190002 0.45579243 0.77489007 0
2.8200002 0.45163459 0.77504337 0
2.8220003 0.44767705 0.77534997 0
2.8240001 0.44371226 0.7756567 0
2.7490003 0.78024346 0.75992024 0
2.7420001 0.77355659 0.75885957 0
2.7380002 0.76793957 0.75825351 0
2.7350001 0.76268327 0.75779891 0
2.7340002 0.75812685 0.75764745 0
2.7320001 0.75323135 0.75734437 0
2.7320001 0.74902487 0.75734437 0
2.7310002 0.7444793 0.75719285 0
2.7310002 0.74027455 0.75719285 0
2.7310002 0.73606992 0.75719285 0
2.7320001 0.73219895 0.75734437 0
2.7330003 0.72832441 0.75749594 0
2.7340002 0.72444618 0.75764745 0
2.7350001 0.72056437 0.75779891 0
2.7360003 0.71667904 0.75795048 0
2.7380002 0.71311462 0.75825351 0
2.7400002 0.70954311 0.7585566 0
2.7420001 0.70596433 0.75885957 0
2.7440002 0.70237839 0.75916266 0
2.7470002 0.6991027 0.75961721 0
2.7490003 0.69550049 0.75992024 0
2.7530003 0.69251877 0.7605263 0
2.7560003 0.68921065 0.7609809 0
2.7600002 0.68620181 0.76158696 0
2.7640002 0.68317866 0.76219302 0
2.7690003 0.6804477 0.76295066 0
2.7710001 0.6767841 0.76325369 0
2.7690003 0.67190129 0.76295066 0
2.7680001 0.66732675 0.76279914 0
2.7670002 0.66275597 0.76264763 0
2.7660003 0.6581887 0.76249611 0
2.7660003 0.65392089 0.76249611 0
2.7670002 0.64994711 0.76264763 0
2.7670002 0.64567745 0.76264763 0
2.7680001 0.6416983 0.76279914 0
2.7690003 0.63771552 0.76295066 0
2.7710001 0.63401586 0.76325369 0
2.7730002 0.63030905 0.76355672 0
2.7750001 0.62659496 0.76385975 0
2.7780001 0.62315512 0.76431429 0
2.7810001 0.61970443 0.76476884 0
2.7850003 0.61652076 0.76537502 0
2.7890003 0.61332262 0.76598108 0
2.7950003 0.61065841 0.76689017 0
2.8010001 0.60797244 0.76779926 0
2.8100002 0.60607666 0.76916295 0
2.8130002 0.4806633 0.76961756 0
2.8100002 0.47566134 0.76916295 0
2.8120003 0.47174346 0.76946604 0
2.8140001 0.46781832 0.76976901 0
2.8150003 0.46367502 0.76992059 0
2.8170002 0.4597373 0.77022362 0
2.8190002 0.45579243 0.77052665 0
2.8200002 0.45163459 0.77067816 0
2.8220003 0.44767705 0.77098119 0
2.8240001 0.44371226 0.77128422 0
2.7430003 0.77813298 0.75478482 0
2.7380002 0.77215689 0.75403619 0
2.7350001 0.76689517 0.75358707 0
2.7330003 0.76199067 0.75328767 0
2.7320001 0.75743783 0.75313795 0
2.7310002 0.75288862 0.75298822 0
2.7300003 0.74834305 0.75283849 0
2.7300003 0.74414021 0.75283849 0
2.7300003 0.73993731 0.75283849 0
2.7310002 0.73606992 0.75298822 0
2.7310002 0.73186523 0.75298822 0
2.7320001 0.72799248 0.75313795 0
2.7330003 0.72411609 0.75328767 0
2.7350001 0.72056437 0.75358707 0
2.7360003 0.71667904 0.75373679 0
2.7380002 0.71311462 0.75403619 0
2.7400002 0.70954311 0.75433564 0
2.7420001 0.70596433 0.7546351 0
2.7450001 0.70269763 0.75508422 0
2.7470002 0.6991027 0.75538367 0
2.7510002 0.69613183 0.75598252 0
2.7540002 0.69283259 0.7564317 0
2.7580001 0.68983471 0.75703049 0
2.7620003 0.68682235 0.75762939 0
2.7660003 0.68379557 0.7582283 0
2.7720003 0.6813677 0.75912654 0
2.7710001 0.6767841 0.75897682 0
2.7690003 0.67190129 0.75867742 0
2.7680001 0.66732675 0.7585277 0
2.7670002 0.66275597 0.75837803 0
2.7660003 0.6581887 0.7582283 0
2.7660003 0.65392089 0.7582283 0
2.7670002 0.64994711 0.75837803 0
2.7670002 0.64567745 0.75837803 0
2.7680001 0.6416983 0.7585277 0
2.7690003 0.63771552 0.75867742 0
2.7710001 0.63401586 0.75897682 0
2.7730002 0.63030905 0.75927627 0
2.7750001 0.62659496 0.75957572 0
2.7780001 0.62315512 0.76002485 0
2.7810001 0.61970443 0.76047397 0
2.7850003 0.61652076 0.76107287 0
2.7890003 0.61332262 0.76167178 0
2.7950003 0.61065841 0.76257002 0
2.8010001 0.60797244 0.76346833 0
2.8100002 0.60607666 0.76481581 0
2.8130002 0.4806633 0.76526493 0
2.8100002 0.47566134 0.76481581 0
2.8120003 0.47174346 0.7651152 0
2.8140001 0.46781832 0.7654146 0
2.8150003 0.46367502 0.76556438 0
2.8170002 0.4597373 0.76586378 0
2.8190002 0.45579243 0.76616323 0
2.8200002 0.45163459 0.76631296 0
2.8220003 0.44767705 0.76661241 0
2.8240001 0.44371226 0.76691175 0
2.7440002 0.78271276 0.75070637 0
2.7390003 0.77672601 0.74996686 0
2.7350001 0.77110708 0.74937516 0
2.7330003 0.76619899 0.74907935 0
2.7310002 0.76129794 0.74878353 0
2.7300003 0.7567488 0.74863565 0
2.7300003 0.75254595 0.74863565 0
2.7290001 0.74800205 0.74848771 0
2.7290001 0.743801 0.74848771 0
2.7300003 0.73993731 0.74863565 0
2.7300003 0.73573446 0.74863565 0
2.7310002 0.73186523 0.74878353 0
2.7320001 0.72799248 0.74893141 0
2.7330003 0.72411609 0.74907935 0
2.7350001 0.72056437 0.74937516 0
2.7360003 0.71667904 0.7495231 0
2.7380002 0.71311462 0.74981892 0
2.7400002 0.70954311 0.75011474 0
2.7430003 0.70628542 0.7505585 0
2.7450001 0.70269763 0.75085425 0
2.7480001 0.69942015 0.75129807 0
2.7520001 0.69644743 0.75188971 0
2.7550001 0.69314647 0.7523334 0
2.7590003 0.69014674 0.7529251 0
2.7640002 0.68744284 0.75366461 0
2.7690003 0.68472093 0.75440419 0
2.7740002 0.68198091 0.75514376 0
2.7710001 0.6767841 0.75470001 0
2.7690003 0.67190129 0.75440419 0
2.7680001 0.66732675 0.75425625 0
2.7670002 0.66275597 0.75410837 0
2.7660003 0.6581887 0.75396049 0
2.7660003 0.65392089 0.75396049 0
2.7670002 0.64994711 0.75410837 0
2.7670002 0.64567745 0.75410837 0
2.7680001 0.6416983 0.75425625 0
2.7690003 0.63771552 0.75440419 0
2.7710001 0.63401586 0.75470001 0
2.7730002 0.63030905 0.75499582 0
2.7750001 0.62659496 0.75529164 0
2.7780001 0.62315512 0.7557354 0
2.7810001 0.61970443 0.75617909 0
2.7850003 0.61652076 0.75677085 0
2.7890003 0.61332262 0.75736248 0
2.7950003 0.61065841 0.75824988 0
2.8010001 0.60797244 0.75913739 0
2.8100002 0.60607666 0.7604686 0
2.8130002 0.4806633 0.7609123 0
2.8100002 0.47566134 0.7604686 0
2.8120003 0.47174346 0.76076442 0
2.8140001 0.46781832 0.76106024 0
2.8150003 0.46367502 0.76120818 0
2.8170002 0.4597373 0.76150393 0
2.8190002 0.45579243 0.76179981 0
2.8200002 0.45163459 0.76194775 0
2.8220003 0.44767705 0.76224357 0
2.8240001 0.44371226 0.76253939 0
2.7400002 0.78129858 0.74589384 0
2.7350001 0.77531898 0.74516332 0
2.7330003 0.77040726 0.74487108 0
2.7310002 0.76550269 0.74457884 0
2.7300003 0.7609517 0.74443275 0
2.7290001 0.75640416 0.74428666 0
2.7280002 0.75186044 0.74414051 0
2.7280002 0.74766117 0.74414051 0
2.7280002 0.74346191 0.74414051 0
2.7290001 0.73959994 0.74428666 0
2.7300003 0.73573446 0.74443275 0
2.7310002 0.73186523 0.74457884 0
2.7320001 0.72799248 0.74472493 0
2.7330003 0.72411609 0.74487108 0
2.7350001 0.72056437 0.74516332 0
2.7370002 0.71700543 0.7454555 0
2.7390003 0.7134394 0.74574769 0
2.7410002 0.70986599 0.74603993 0
2.7440002 0.70660651 0.74647826 0
2.7460003 0.70301694 0.7467705 0
2.7490003 0.69973767 0.74720883 0
2.7530003 0.69676316 0.74779326 0
2.7570002 0.69377422 0.74837768 0
2.7610002 0.69077086 0.74896204 0
2.7660003 0.68806338 0.74969268 0
2.7710001 0.68533778 0.75042319 0
2.7740002 0.68198091 0.75086153 0
2.7710001 0.6767841 0.75042319 0
2.7690003 0.67190129 0.75013101 0
2.7680001 0.66732675 0.74998486 0
2.7670002 0.66275597 0.74983871 0
2.7660003 0.6581887 0.74969268 0
2.7660003 0.65392089 0.74969268 0
2.7670002 0.64994711 0.74983871 0
2.7670002 0.64567745 0.74983871 0
2.7680001 0.6416983 0.74998486 0
2.7690003 0.63771552 0.75013101 0
2.7710001 0.63401586 0.75042319 0
2.7730002 0.63030905 0.75071537 0
2.7750001 0.62659496 0.75100762 0
2.7780001 0.62315512 0.75144589 0
2.7810001 0.61970443 0.75188428 0
2.7850003 0.61652076 0.75246871 0
2.7890003 0.61332262 0.75305319 0
2.7950003 0.61065841 0.75392979 0
2.8010001 0.60797244 0.7548064 0
2.8100002 0.60607666 0.7561214 0
2.8130002 0.4806633 0.75655973 0
2.8100002 0.47566134 0.7561214 0
2.8120003 0.47174346 0.75641364 0
2.8140001 0.46781832 0.75670582 0
2.8150003 0.46367502 0.75685197 0
2.8170002 0.4597373 0.75714421 0
2.8190002 0.45579243 0.75743639 0
2.8200002 0.45163459 0.75758249 0
2.8220003 0.44767705 0.75787473 0
2.8240001 0.44371226 0.75816691 0
2.7400002 0.78551954 0.74167293 0
2.7360003 0.77988446 0.74109572 0
2.7330003 0.77461553 0.74066281 0
2.7300003 0.76935738 0.74022985 0
2.7290001 0.76480639 0.7400856 0
2.7280002 0.76025897 0.73994124 0
2.7280002 0.75605971 0.73994124 0
2.7270002 0.75151777 0.73979694 0
2.7270002 0.74732029 0.73979694 0
2.7280002 0.74346191 0.73994124 0
2.7280002 0.73926264 0.73994124 0
2.7290001 0.73539889 0.7400856 0
2.7300003 0.73153156 0.74022985 0
2.7320001 0.72799248 0.74051845 0
2.7330003 0.72411609 0.74066281 0
2.7350001 0.72056437 0.74095142 0
2.7370002 0.71700543 0.74124002 0
2.7390003 0.7134394 0.74152863 0
2.7420001 0.71018881 0.74196148 0
2.7440002 0.70660651 0.74225008 0
2.7470002 0.70333618 0.74268305 0
2.7510002 0.70037252 0.74326026 0
2.7540002 0.69707876 0.74369317 0
2.7580001 0.69408804 0.74427038 0
2.7630002 0.69139504 0.7449919 0
2.7680001 0.68868387 0.74571347 0
2.7740002 0.68626314 0.74657929 0
2.7740002 0.68198091 0.74657929 0
2.7710001 0.6767841 0.74614632 0
2.7690003 0.67190129 0.74585778 0
2.7680001 0.66732675 0.74571347 0
2.7670002 0.66275597 0.74556911 0
2.7660003 0.6581887 0.74542487 0
2.7660003 0.65392089 0.74542487 0
2.7670002 0.64994711 0.74556911 0
2.7670002 0.64567745 0.74556911 0
2.7680001 0.6416983 0.74571347 0
2.7690003 0.63771552 0.74585778 0
2.7710001 0.63401586 0.74614632 0
2.7730002 0.63030905 0.74643499 0
2.7750001 0.62659496 0.74672353 0
2.7780001 0.62315512 0.7471565 0
2.7810001 0.61970443 0.74758941 0
2.7850003 0.61652076 0.74816668 0
2.7890003 0.61332262 0.74874383 0
2.7950003 0.61065841 0.74960971 0
2.8010001 0.60797244 0.75047553 0
2.8100002 0.60607666 0.75177419 0
2.8130002 0.4806633 0.75220716 0
2.8100002 0.47566134 0.75177419 0
2.8120003 0.47174346 0.75206292 0
2.8140001 0.46781832 0.7523514 0
2.8150003 0.46367502 0.75249577 0
2.8170002 0.4597373 0.75278437 0
2.8190002 0.45579243 0.75307298 0
2.8200002 0.45163459 0.75321728 0
2.8220003 0.44767705 0.75350589 0
2.8240001 0.44371226 0.75379449 0
2.7430003 0.7908119 0.73787951 0
2.7360003 0.78409815 0.73688203 0
2.7330003 0.77882379 0.73645449 0
2.7300003 0.77356029 0.736027 0
2.7290001 0.76900738 0.73588449 0
2.7270002 0.76411015 0.73559952 0
2.7270002 0.75991267 0.73559952 0
2.7260003 0.75537074 0.735457 0
2.7260003 0.75117505 0.735457 0
2.7270002 0.74732029 0.73559952 0
2.7270002 0.74312282 0.73559952 0
2.7280002 0.73926264 0.73574197 0
2.7290001 0.73539889 0.73588449 0
2.7300003 0.73153156 0.736027 0
2.7310002 0.72766054 0.73616946 0
2.7330003 0.72411609 0.73645449 0
2.7350001 0.72056437 0.73673952 0
2.7370002 0.71700543 0.73702455 0
2.7400002 0.71376401 0.73745203 0
2.7420001 0.71018881 0.737737 0
2.7450001 0.70692754 0.73816454 0
2.7480001 0.70365548 0.73859203 0
2.7520001 0.70068997 0.73916197 0
2.7560003 0.69771016 0.73973203 0
2.7600002 0.6947158 0.74030203 0
2.7650001 0.69201905 0.74101448 0
2.7710001 0.68961465 0.74186957 0
2.7780001 0.68749696 0.74286699 0
2.7740002 0.68198091 0.74229705 0
2.7710001 0.6767841 0.74186957 0
2.7690003 0.67190129 0.74158454 0
2.7680001 0.66732675 0.74144202 0
2.7670002 0.66275597 0.74129951 0
2.7660003 0.6581887 0.74115705 0
2.7660003 0.65392089 0.74115705 0
2.7670002 0.64994711 0.74129951 0
2.7670002 0.64567745 0.74129951 0
2.7680001 0.6416983 0.74144202 0
2.7690003 0.63771552 0.74158454 0
2.7710001 0.63401586 0.74186957 0
2.7730002 0.63030905 0.74215454 0
2.7750001 0.62659496 0.74243951 0
2.7780001 0.62315512 0.74286699 0
2.7810001 0.61970443 0.74329448 0
2.7850003 0.61652076 0.74386454 0
2.7890003 0.61332262 0.7444346 0
2.7950003 0.61065841 0.74528956 0
2.8010001 0.60797244 0.74614453 0
2.8100002 0.60607666 0.74742705 0
2.8130002 0.4806633 0.74785459 0
2.8100002 0.47566134 0.74742705 0
2.8120003 0.47174346 0.74771208 0
2.8140001 0.46781832 0.74799705 0
2.8150003 0.46367502 0.74813962 0
2.8170002 0.4597373 0.74842453 0
2.8190002 0.45579243 0.74870956 0
2.8200002 0.45163459 0.74885207 0
2.8220003 0.44767705 0.74913704 0
2.8240001 0.44371226 0.74942207 0
2.7370002 0.78866893 0.73280901 0
2.7330003 0.78303212 0.73224622 0
2.7300003 0.77776313 0.73182416 0
2.7280002 0.77285677 0.73154271 0
2.7270002 0.76830757 0.73140204 0
2.7260003 0.763762 0.73126137 0
2.7260003 0.75956637 0.73126137 0
2.7250001 0.7550261 0.73112065 0
2.7250001 0.75083226 0.73112065 0
2.7260003 0.74697942 0.73126137 0
2.7270002 0.74312282 0.73140204 0
2.7280002 0.73926264 0.73154271 0
2.7290001 0.73539889 0.73168337 0
2.7300003 0.73153156 0.73182416 0
2.7320001 0.72799248 0.73210549 0
2.7340002 0.72444618 0.73238689 0
2.7350001 0.72056437 0.73252761 0
2.7380002 0.71733195 0.73294967 0
2.7400002 0.71376401 0.73323107 0
2.7430003 0.7105118 0.73365319 0
2.7460003 0.70724869 0.73407531 0
2.7490003 0.70397478 0.73449737 0
2.7530003 0.70100749 0.73506016 0
2.7570002 0.69802576 0.73562294 0
2.7620003 0.69534355 0.73632646 0
2.7680001 0.69295526 0.73717058 0
2.7740002 0.69054538 0.73801482 0
2.7780001 0.68749696 0.7385776 0
2.7740002 0.68198091 0.73801482 0
2.7710001 0.6767841 0.7375927 0
2.7690003 0.67190129 0.7373113 0
2.7680001 0.66732675 0.73717058 0
2.7670002 0.66275597 0.73702991 0
2.7660003 0.6581887 0.73688924 0
2.7660003 0.65392089 0.73688924 0
2.7670002 0.64994711 0.73702991 0
2.7670002 0.64567745 0.73702991 0
2.7680001 0.6416983 0.73717058 0
2.7690003 0.63771552 0.7373113 0
2.7710001 0.63401586 0.7375927 0
2.7730002 0.63030905 0.73787409 0
2.7750001 0.62659496 0.73815548 0
2.7780001 0.62315512 0.7385776 0
2.7810001 0.61970443 0.73899966 0
2.7850003 0.61652076 0.73956251 0
2.7890003 0.61332262 0.74012524 0
2.7950003 0.61065841 0.74096942 0
2.8010001 0.60797244 0.7418136 0
2.8100002 0.60607666 0.7430799 0
2.8130002 0.4806633 0.74350196 0
2.8100002 0.47566134 0.7430799 0
2.8120003 0.47174346 0.74336129 0
2.8140001 0.46781832 0.74364269 0
2.8150003 0.46367502 0.74378335 0
2.8170002 0.4597373 0.74406475 0
2.8190002 0.45579243 0.74434614 0
2.8200002 0.45163459 0.74448687 0
2.8220003 0.44767705 0.74476826 0
2.8240001 0.44371226 0.7450496 0
2.7380002 0.79324341 0.72873235 0
2.7330003 0.78724033 0.72803795 0
2.7300003 0.78196603 0.72762126 0
2.7280002 0.77705604 0.72734344 0
2.7260003 0.77215332 0.72706568 0
2.7250001 0.76760769 0.7269268 0
2.7250001 0.76341385 0.7269268 0
2.7250001 0.75922 0.7269268 0
2.7240002 0.75468165 0.72678792 0
2.7250001 0.75083226 0.7269268 0
2.7250001 0.74663842 0.7269268 0
2.7260003 0.74278373 0.72706568 0
2.7270002 0.73892534 0.72720456 0
2.7290001 0.73539889 0.72748232 0
2.7300003 0.73153156 0.72762126 0
2.7320001 0.72799248 0.72789901 0
2.7340002 0.72444618 0.72817683 0
2.7360003 0.72089273 0.72845459 0
2.7380002 0.71733195 0.72873235 0
2.7410002 0.71408868 0.7291491 0
2.7440002 0.71083462 0.72956574 0
2.7470002 0.70756978 0.72998244 0
2.7500002 0.70429403 0.73039913 0
2.7550001 0.70164239 0.73109359 0
2.7590003 0.69865716 0.73164916 0
2.7650001 0.69628513 0.73248249 0
2.7700002 0.69357938 0.73317695 0
2.7780001 0.69178635 0.7342881 0
2.7780001 0.68749696 0.7342881 0
2.7740002 0.68198091 0.73373258 0
2.7710001 0.6767841 0.73331583 0
2.7690003 0.67190129 0.73303807 0
2.7680001 0.66732675 0.73289919 0
2.7670002 0.66275597 0.73276031 0
