# .PCD v0.7 - Point Cloud Data file format
VERSION 0.7
FIELDS x y z intensity
SIZE 4 4 4 4
TYPE F F F F
COUNT 1 1 1 1
WIDTH 1454
HEIGHT 1
VIEWPOINT 0 0 0 1 0 0 0
POINTS 1454
DATA ascii
4.4870005 0.75756592 1.878433 0
4.4920001 0.75116777 1.8802366 0
4.4970002 0.74475163 1.8820405 0
4.4980001 0.73755258 1.8824012 0
4.4950004 0.72959244 1.881319 0
4.4920001 0.72164303 1.8802366 0
4.4890003 0.71370453 1.8791544 0
4.4980001 0.70798457 1.8824012 0
4.5430002 0.68637139 1.8986355 0
4.5480003 0.67977303 1.9004394 0
4.5530005 0.67315674 1.9022433 0
4.4770002 0.77030802 1.8674711 0
4.4820004 0.76394594 1.8692659 0
4.4870005 0.75756592 1.8710607 0
4.4920001 0.75116777 1.8728554 0
4.4970002 0.74475163 1.8746504 0
4.4980001 0.73755258 1.8750092 0
4.4950004 0.72959244 1.8739324 0
4.4920001 0.72164303 1.8728554 0
4.4890003 0.71370453 1.8717787 0
4.4980001 0.70798457 1.8750092 0
4.5430002 0.68637139 1.8911624 0
4.5480003 0.67977303 1.8929571 0
4.5530005 0.67315674 1.894752 0
4.4770002 0.77030802 1.860117 0
4.4820004 0.76394594 1.8619027 0
4.4870005 0.75756592 1.8636886 0
4.4920001 0.75116777 1.8654742 0
4.4970002 0.74475163 1.8672601 0
4.4980001 0.73755258 1.8676171 0
4.4950004 0.72959244 1.8665458 0
4.4920001 0.72164303 1.8654742 0
4.4890003 0.71370453 1.8644029 0
4.4980001 0.70798457 1.8676171 0
4.5430002 0.68637139 1.8836892 0
4.5480003 0.67977303 1.885475 0
4.5530005 0.67315674 1.8872608 0
4.4770002 0.77030802 1.8527628 0
4.4820004 0.76394594 1.8545396 0
4.4870005 0.75756592 1.8563166 0
4.4920001 0.75116777 1.8580931 0
4.4970002 0.74475163 1.8598698 0
4.4980001 0.73755258 1.8602252 0
4.4950004 0.72959244 1.8591592 0
4.4920001 0.72164303 1.8580931 0
4.4890003 0.71370453 1.8570271 0
4.4980001 0.70798457 1.8602252 0
4.5430002 0.68637139 1.8762159 0
4.5480003 0.67977303 1.8779929 0
4.5530005 0.67315674 1.8797696 0
4.4770002 0.77030802 1.8454088 0
4.4820004 0.76394594 1.8471764 0
4.4870005 0.75756592 1.8489443 0
4.4920001 0.75116777 1.8507118 0
4.4970002 0.74475163 1.8524797 0
4.4980001 0.73755258 1.8528332 0
4.4950004 0.72959244 1.8517727 0
4.4920001 0.72164303 1.8507118 0
4.4890003 0.71370453 1.8496513 0
4.4980001 0.70798457 1.8528332 0
4.5430002 0.68637139 1.8687428 0
4.5480003 0.67977303 1.8705106 0
4.5530005 0.67315674 1.8722785 0
4.4770002 0.77030802 1.8380547 0
4.4820004 0.76394594 1.8398134 0
4.4870005 0.75756592 1.8415722 0
4.4920001 0.75116777 1.8433307 0
4.4970002 0.74475163 1.8450896 0
4.4980001 0.73755258 1.8454411 0
4.4950004 0.72959244 1.844386 0
4.4920001 0.72164303 1.8433307 0
4.4890003 0.71370453 1.8422756 0
4.4980001 0.70798457 1.8454411 0
4.5430002 0.68637139 1.8612696 0
4.5480003 0.67977303 1.8630284 0
4.5530005 0.67315674 1.8647872 0
4.4770002 0.77030802 1.8307005 0
4.4820004 0.76394594 1.8324502 0
4.4870005 0.75756592 1.8341999 0
4.4920001 0.75116777 1.8359495 0
4.4970002 0.74475163 1.8376992 0
4.4980001 0.73755258 1.8380492 0
4.4950004 0.72959244 1.8369994 0
4.4920001 0.72164303 1.8359495 0
4.4890003 0.71370453 1.8348998 0
4.4980001 0.70798457 1.8380492 0
4.5430002 0.68637139 1.8537964 0
4.5480003 0.67977303 1.8555461 0
4.5530005 0.67315674 1.8572959 0
4.4770002 0.77030802 1.8233464 0
4.4820004 0.76394594 1.8250871 0
4.4870005 0.75756592 1.8268278 0
4.4920001 0.75116777 1.8285683 0
4.4970002 0.74475163 1.830309 0
4.4980001 0.73755258 1.8306571 0
4.4950004 0.72959244 1.8296129 0
4.4920001 0.72164303 1.8285683 0
4.4890003 0.71370453 1.8275241 0
4.4980001 0.70798457 1.8306571 0
4.5430002 0.68637139 1.8463233 0
4.5480003 0.67977303 1.8480639 0
4.5530005 0.67315674 1.8498046 0
4.4770002 0.77030802 1.8159924 0
4.4820004 0.76394594 1.8177239 0
4.4870005 0.75756592 1.8194557 0
4.4920001 0.75116777 1.8211871 0
4.4970002 0.74475163 1.8229189 0
4.4980001 0.73755258 1.8232652 0
4.4950004 0.72959244 1.8222263 0
4.4920001 0.72164303 1.8211871 0
4.4890003 0.71370453 1.8201482 0
4.4980001 0.70798457 1.8232652 0
4.5430002 0.68637139 1.8388501 0
4.5480003 0.67977303 1.8405818 0
4.5530005 0.67315674 1.8423135 0
4.4770002 0.77030802 1.8086381 0
4.4820004 0.76394594 1.8103608 0
4.4870005 0.75756592 1.8120835 0
4.4920001 0.75116777 1.8138061 0
4.4970002 0.74475163 1.8155288 0
4.4980001 0.73755258 1.8158731 0
4.4950004 0.72959244 1.8148397 0
4.4920001 0.72164303 1.8138061 0
4.4890003 0.71370453 1.8127724 0
4.4980001 0.70798457 1.8158731 0
4.5430002 0.68637139 1.8313769 0
4.5480003 0.67977303 1.8330996 0
4.5530005 0.67315674 1.8348223 0
4.4770002 0.77030802 1.801284 0
4.4820004 0.76394594 1.8029977 0
4.4870005 0.75756592 1.8047113 0
4.4920001 0.75116777 1.8064247 0
4.4970002 0.74475163 1.8081385 0
4.4980001 0.73755258 1.8084811 0
4.4950004 0.72959244 1.807453 0
4.4920001 0.72164303 1.8064247 0
4.4890003 0.71370453 1.8053967 0
4.4980001 0.70798457 1.8084811 0
4.5430002 0.68637139 1.8239038 0
4.5480003 0.67977303 1.8256174 0
4.5530005 0.67315674 1.8273311 0
4.4770002 0.77030802 1.7939299 0
4.4820004 0.76394594 1.7956345 0
4.4870005 0.75756592 1.7973391 0
4.4920001 0.75116777 1.7990437 0
4.4970002 0.74475163 1.8007482 0
4.4980001 0.73755258 1.8010892 0
4.4950004 0.72959244 1.8000665 0
4.4920001 0.72164303 1.7990437 0
4.4890003 0.71370453 1.798021 0
4.4980001 0.70798457 1.8010892 0
4.5430002 0.68637139 1.8164306 0
4.5480003 0.67977303 1.8181353 0
4.5530005 0.67315674 1.8198398 0
4.4770002 0.77030802 1.7865757 0
4.4820004 0.76394594 1.7882714 0
4.4870005 0.75756592 1.7899669 0
4.4920001 0.75116777 1.7916625 0
4.4970002 0.74475163 1.7933581 0
4.4980001 0.73755258 1.7936971 0
4.4950004 0.72959244 1.7926799 0
4.4920001 0.72164303 1.7916625 0
4.4890003 0.71370453 1.7906452 0
4.4980001 0.70798457 1.7936971 0
4.5430002 0.68637139 1.8089575 0
4.5480003 0.67977303 1.810653 0
4.5530005 0.67315674 1.8123486 0
4.4770002 0.77030802 1.7792217 0
4.4820004 0.76394594 1.7809082 0
4.4870005 0.75756592 1.7825948 0
4.4920001 0.75116777 1.7842813 0
4.4970002 0.74475163 1.7859678 0
4.4980001 0.73755258 1.7863051 0
4.4950004 0.72959244 1.7852933 0
4.4920001 0.72164303 1.7842813 0
4.4890003 0.71370453 1.7832694 0
4.4980001 0.70798457 1.7863051 0
4.5430002 0.68637139 1.8014842 0
4.5480003 0.67977303 1.8031708 0
4.5530005 0.67315674 1.8048575 0
4.4770002 0.77030802 1.7718675 0
4.4820004 0.76394594 1.7735451 0
4.4870005 0.75756592 1.7752227 0
4.4920001 0.75116777 1.7769001 0
4.4970002 0.74475163 1.7785776 0
4.4980001 0.73755258 1.7789131 0
4.4950004 0.72959244 1.7779067 0
4.4920001 0.72164303 1.7769001 0
4.4890003 0.71370453 1.7758936 0
4.4980001 0.70798457 1.7789131 0
4.5430002 0.68637139 1.794011 0
4.5480003 0.67977303 1.7956885 0
4.5530005 0.67315674 1.7973661 0
4.4770002 0.77030802 1.7645134 0
4.4820004 0.76394594 1.7661819 0
4.4870005 0.75756592 1.7678505 0
4.4920001 0.75116777 1.769519 0
4.4970002 0.74475163 1.7711874 0
4.4980001 0.73755258 1.7715211 0
4.4950004 0.72959244 1.7705201 0
4.4920001 0.72164303 1.769519 0
4.4890003 0.71370453 1.7685179 0
4.4980001 0.70798457 1.7715211 0
4.5430002 0.68637139 1.7865379 0
4.5480003 0.67977303 1.7882065 0
4.5530005 0.67315674 1.7898749 0
4.4770002 0.77030802 1.7571592 0
4.4820004 0.76394594 1.7588189 0
4.4870005 0.75756592 1.7604783 0
4.4920001 0.75116777 1.7621377 0
4.4970002 0.74475163 1.7637973 0
4.4980001 0.73755258 1.764129 0
4.4950004 0.72959244 1.7631335 0
4.4920001 0.72164303 1.7621377 0
4.4890003 0.71370453 1.761142 0
4.4980001 0.70798457 1.764129 0
4.5430002 0.68637139 1.7790647 0
4.5480003 0.67977303 1.7807243 0
4.5530005 0.67315674 1.7823837 0
4.4770002 0.77030802 1.7498051 0
4.4820004 0.76394594 1.7514557 0
4.4870005 0.75756592 1.7531062 0
4.4920001 0.75116777 1.7547566 0
4.4970002 0.74475163 1.756407 0
4.4980001 0.73755258 1.7567371 0
4.4950004 0.72959244 1.755747 0
4.4920001 0.72164303 1.7547566 0
4.4890003 0.71370453 1.7537663 0
4.4980001 0.70798457 1.7567371 0
4.5430002 0.68637139 1.7715914 0
4.5480003 0.67977303 1.773242 0
4.5530005 0.67315674 1.7748926 0
4.4770002 0.77030802 1.742451 0
4.4820004 0.76394594 1.7440926 0
4.4870005 0.75756592 1.745734 0
4.4920001 0.75116777 1.7473754 0
4.4970002 0.74475163 1.7490169 0
4.4980001 0.73755258 1.7493451 0
4.4950004 0.72959244 1.7483603 0
4.4920001 0.72164303 1.7473754 0
4.4890003 0.71370453 1.7463906 0
4.4980001 0.70798457 1.7493451 0
4.5430002 0.68637139 1.7641183 0
4.5480003 0.67977303 1.7657598 0
4.5530005 0.67315674 1.7674013 0
4.4770002 0.77030802 1.7350968 0
4.4820004 0.76394594 1.7367294 0
4.4870005 0.75756592 1.7383618 0
4.4920001 0.75116777 1.7399942 0
4.4970002 0.74475163 1.7416266 0
4.4980001 0.73755258 1.7419531 0
4.4950004 0.72959244 1.7409737 0
4.4920001 0.72164303 1.7399942 0
4.4890003 0.71370453 1.7390149 0
4.4980001 0.70798457 1.7419531 0
4.5430002 0.68637139 1.7566451 0
4.5480003 0.67977303 1.7582777 0
4.5530005 0.67315674 1.7599101 0
4.4770002 0.77030802 1.7277428 0
4.4820004 0.76394594 1.7293663 0
4.4870005 0.75756592 1.7309897 0
4.4920001 0.75116777 1.732613 0
4.4970002 0.74475163 1.7342365 0
4.4980001 0.73755258 1.7345611 0
4.4950004 0.72959244 1.7335871 0
4.4920001 0.72164303 1.732613 0
4.4890003 0.71370453 1.7316389 0
4.4980001 0.70798457 1.7345611 0
4.5430002 0.68637139 1.749172 0
4.5480003 0.67977303 1.7507954 0
4.5530005 0.67315674 1.7524189 0
4.4770002 0.77030802 1.7203887 0
4.4820004 0.76394594 1.7220031 0
4.4870005 0.75756592 1.7236174 0
4.4920001 0.75116777 1.7252318 0
4.4970002 0.74475163 1.7268462 0
4.4980001 0.73755258 1.727169 0
4.4950004 0.72959244 1.7262006 0
4.4920001 0.72164303 1.7252318 0
4.4890003 0.71370453 1.7242632 0
4.4980001 0.70798457 1.727169 0
4.5430002 0.68637139 1.7416989 0
4.5480003 0.67977303 1.7433133 0
4.5530005 0.67315674 1.7449278 0
4.4770002 0.77030802 1.7130345 0
4.4820004 0.76394594 1.7146399 0
4.4870005 0.75756592 1.7162454 0
4.4920001 0.75116777 1.7178506 0
4.4970002 0.74475163 1.719456 0
4.4980001 0.73755258 1.7197771 0
4.4950004 0.72959244 1.7188139 0
4.4920001 0.72164303 1.7178506 0
4.4890003 0.71370453 1.7168875 0
4.4980001 0.70798457 1.7197771 0
4.5430002 0.68637139 1.7342256 0
4.5480003 0.67977303 1.735831 0
4.5530005 0.67315674 1.7374365 0
4.4770002 0.77030802 1.7056804 0
4.4820004 0.76394594 1.7072767 0
4.4870005 0.75756592 1.7088732 0
4.4920001 0.75116777 1.7104694 0
4.4970002 0.74475163 1.7120658 0
4.4980001 0.73755258 1.7123851 0
4.4950004 0.72959244 1.7114273 0
4.4920001 0.72164303 1.7104694 0
4.4890003 0.71370453 1.7095116 0
4.4980001 0.70798457 1.7123851 0
4.5430002 0.68637139 1.7267525 0
4.5480003 0.67977303 1.7283489 0
4.5530005 0.67315674 1.7299452 0
4.4770002 0.77030802 1.6983262 0
4.4820004 0.76394594 1.6999136 0
4.4870005 0.75756592 1.701501 0
4.4920001 0.75116777 1.7030883 0
4.4970002 0.74475163 1.7046757 0
4.4980001 0.73755258 1.704993 0
4.4950004 0.72959244 1.7040408 0
4.4920001 0.72164303 1.7030883 0
4.4890003 0.71370453 1.7021359 0
4.4980001 0.70798457 1.704993 0
4.5430002 0.68637139 1.7192793 0
4.5480003 0.67977303 1.7208667 0
4.5530005 0.67315674 1.722454 0
4.4770002 0.77030802 1.6909721 0
4.4820004 0.76394594 1.6925504 0
4.4870005 0.75756592 1.6941288 0
4.4920001 0.75116777 1.695707 0
4.4970002 0.74475163 1.6972854 0
4.4980001 0.73755258 1.6976011 0
4.4950004 0.72959244 1.6966542 0
4.4920001 0.72164303 1.695707 0
4.4890003 0.71370453 1.6947601 0
4.4980001 0.70798457 1.6976011 0
4.5430002 0.68637139 1.7118061 0
4.5480003 0.67977303 1.7133844 0
4.5530005 0.67315674 1.7149628 0
4.4770002 0.77030802 1.6836179 0
4.4820004 0.76394594 1.6851873 0
4.4870005 0.75756592 1.6867567 0
4.4920001 0.75116777 1.6883259 0
4.4970002 0.74475163 1.6898953 0
4.4980001 0.73755258 1.690209 0
4.4950004 0.72959244 1.6892675 0
4.4920001 0.72164303 1.6883259 0
4.4890003 0.71370453 1.6873844 0
4.4980001 0.70798457 1.690209 0
4.5430002 0.68637139 1.7043329 0
4.5480003 0.67977303 1.7059022 0
4.5530005 0.67315674 1.7074716 0
4.4770002 0.77030802 1.6762639 0
4.4820004 0.76394594 1.6778241 0
4.4870005 0.75756592 1.6793846 0
4.4920001 0.75116777 1.6809447 0
4.4970002 0.74475163 1.682505 0
4.4980001 0.73755258 1.682817 0
4.4950004 0.72959244 1.681881 0
4.4920001 0.72164303 1.6809447 0
4.4890003 0.71370453 1.6800085 0
4.4980001 0.70798457 1.682817 0
4.5430002 0.68637139 1.6968597 0
4.5480003 0.67977303 1.69842 0
4.5530005 0.67315674 1.6999804 0
4.4770002 0.77030802 1.6689097 0
4.4820004 0.76394594 1.6704611 0
4.4870005 0.75756592 1.6720123 0
4.4920001 0.75116777 1.6735635 0
4.4970002 0.74475163 1.6751149 0
4.4980001 0.73755258 1.6754251 0
4.4950004 0.72959244 1.6744943 0
4.4920001 0.72164303 1.6735635 0
4.4890003 0.71370453 1.6726328 0
4.4980001 0.70798457 1.6754251 0
4.5430002 0.68637139 1.6893865 0
4.5480003 0.67977303 1.6909379 0
4.5530005 0.67315674 1.6924891 0
4.4770002 0.77030802 1.6615556 0
4.4820004 0.76394594 1.6630979 0
4.4870005 0.75756592 1.6646402 0
4.4920001 0.75116777 1.6661823 0
4.4970002 0.74475163 1.6677246 0
4.4980001 0.73755258 1.668033 0
4.4950004 0.72959244 1.6671078 0
4.4920001 0.72164303 1.6661823 0
4.4890003 0.71370453 1.6652571 0
4.4980001 0.70798457 1.668033 0
4.5430002 0.68637139 1.6819134 0
4.5480003 0.67977303 1.6834557 0
4.5530005 0.67315674 1.684998 0
4.4770002 0.77030802 1.6542015 0
4.4820004 0.76394594 1.6557348 0
4.4870005 0.75756592 1.6572679 0
4.4920001 0.75116777 1.6588012 0
4.4970002 0.74475163 1.6603343 0
4.4980001 0.73755258 1.6606411 0
4.4950004 0.72959244 1.6597211 0
4.4920001 0.72164303 1.6588012 0
4.4890003 0.71370453 1.6578814 0
4.4980001 0.70798457 1.6606411 0
4.5430002 0.68637139 1.6744401 0
4.5480003 0.67977303 1.6759734 0
4.5530005 0.67315674 1.6775068 0
4.4770002 0.77030802 1.6468472 0
4.4820004 0.76394594 1.6483716 0
4.4870005 0.75756592 1.6498959 0
4.4920001 0.75116777 1.6514199 0
4.4970002 0.74475163 1.6529442 0
4.4980001 0.73755258 1.653249 0
4.4950004 0.72959244 1.6523346 0
4.4920001 0.72164303 1.6514199 0
4.4890003 0.71370453 1.6505054 0
4.4980001 0.70798457 1.653249 0
4.5430002 0.68637139 1.6669669 0
4.5480003 0.67977303 1.6684912 0
4.5530005 0.67315674 1.6700156 0
4.4770002 0.77030802 1.6394932 0
4.4820004 0.76394594 1.6410085 0
4.4870005 0.75756592 1.6425238 0
4.4920001 0.75116777 1.6440388 0
4.4970002 0.74475163 1.6455541 0
4.4980001 0.73755258 1.645857 0
4.4950004 0.72959244 1.6449479 0
4.4920001 0.72164303 1.6440388 0
4.4890003 0.71370453 1.6431297 0
4.4980001 0.70798457 1.645857 0
4.5430002 0.68637139 1.6594939 0
4.5480003 0.67977303 1.6610091 0
4.5530005 0.67315674 1.6625242 0
4.4770002 0.77030802 1.6321391 0
4.4820004 0.76394594 1.6336453 0
4.4870005 0.75756592 1.6351515 0
4.4920001 0.75116777 1.6366576 0
4.4970002 0.74475163 1.6381638 0
4.4980001 0.73755258 1.638465 0
4.4950004 0.72959244 1.6375614 0
4.4920001 0.72164303 1.6366576 0
4.4890003 0.71370453 1.635754 0
4.4980001 0.70798457 1.638465 0
4.5430002 0.68637139 1.6520207 0
4.5480003 0.67977303 1.6535269 0
4.5530005 0.67315674 1.6550331 0
4.4770002 0.77030802 1.6247851 0
4.4820004 0.76394594 1.6262822 0
4.4870005 0.75756592 1.6277794 0
4.4920001 0.75116777 1.6292764 0
4.4970002 0.74475163 1.6307737 0
4.4980001 0.73755258 1.631073 0
4.4950004 0.72959244 1.6301748 0
4.4920001 0.72164303 1.6292764 0
4.4890003 0.71370453 1.6283782 0
4.4980001 0.70798457 1.631073 0
4.5430002 0.68637139 1.6445475 0
4.5480003 0.67977303 1.6460447 0
4.5530005 0.67315674 1.6475419 0
4.4770002 0.77030802 1.6174308 0
4.4820004 0.76394594 1.618919 0
4.4870005 0.75756592 1.6204071 0
4.4920001 0.75116777 1.6218952 0
4.4970002 0.74475163 1.6233834 0
4.4980001 0.73755258 1.6236809 0
4.4950004 0.72959244 1.6227882 0
4.4920001 0.72164303 1.6218952 0
4.4890003 0.71370453 1.6210024 0
4.4980001 0.70798457 1.6236809 0
4.5430002 0.68637139 1.6370744 0
4.5480003 0.67977303 1.6385624 0
4.5530005 0.67315674 1.6400506 0
4.4770002 0.77030802 1.6100768 0
4.4820004 0.76394594 1.6115559 0
4.4870005 0.75756592 1.6130351 0
4.4920001 0.75116777 1.6145141 0
4.4970002 0.74475163 1.6159933 0
4.4980001 0.73755258 1.616289 0
4.4950004 0.72959244 1.6154015 0
4.4920001 0.72164303 1.6145141 0
4.4890003 0.71370453 1.6136266 0
4.4980001 0.70798457 1.616289 0
4.5430002 0.68637139 1.6296011 0
4.5480003 0.67977303 1.6310803 0
4.5530005 0.67315674 1.6325594 0
4.4770002 0.77030802 1.6027226 0
4.4820004 0.76394594 1.6041927 0
4.4870005 0.75756592 1.6056628 0
4.4920001 0.75116777 1.6071328 0
4.4970002 0.74475163 1.608603 0
4.4980001 0.73755258 1.608897 0
4.4950004 0.72959244 1.6080151 0
4.4920001 0.72164303 1.6071328 0
4.4890003 0.71370453 1.6062509 0
4.4980001 0.70798457 1.608897 0
4.5430002 0.68637139 1.622128 0
4.5480003 0.67977303 1.6235981 0
4.5530005 0.67315674 1.6250683 0
4.4770002 0.77030802 1.5953684 0
4.4820004 0.76394594 1.5968297 0
4.4870005 0.75756592 1.5982907 0
4.4920001 0.75116777 1.5997517 0
4.4970002 0.74475163 1.6012127 0
4.4980001 0.73755258 1.601505 0
4.4950004 0.72959244 1.6006284 0
4.4920001 0.72164303 1.5997517 0
4.4890003 0.71370453 1.598875 0
4.4980001 0.70798457 1.601505 0
4.5430002 0.68637139 1.6146548 0
4.5480003 0.67977303 1.6161158 0
4.5530005 0.67315674 1.6175771 0
4.4770002 0.77030802 1.5880144 0
4.4820004 0.76394594 1.5894665 0
4.4870005 0.75756592 1.5909185 0
4.4920001 0.75116777 1.5923705 0
4.4970002 0.74475163 1.5938226 0
4.4980001 0.73755258 1.594113 0
4.4950004 0.72959244 1.5932418 0
4.4920001 0.72164303 1.5923705 0
4.4890003 0.71370453 1.5914993 0
4.4980001 0.70798457 1.594113 0
4.5430002 0.68637139 1.6071815 0
4.5480003 0.67977303 1.6086338 0
4.5530005 0.67315674 1.6100858 0
4.4770002 0.77030802 1.5806602 0
4.4820004 0.76394594 1.5821034 0
4.4870005 0.75756592 1.5835464 0
4.4920001 0.75116777 1.5849893 0
4.4970002 0.74475163 1.5864323 0
4.4980001 0.73755258 1.5867209 0
4.4950004 0.72959244 1.5858552 0
4.4920001 0.72164303 1.5849893 0
4.4890003 0.71370453 1.5841236 0
4.4980001 0.70798457 1.5867209 0
4.5430002 0.68637139 1.5997084 0
4.5480003 0.67977303 1.6011516 0
4.5530005 0.67315674 1.6025946 0
4.4770002 0.77030802 1.5733061 0
4.4820004 0.76394594 1.5747402 0
4.4870005 0.75756592 1.5761743 0
4.4920001 0.75116777 1.5776081 0
4.4970002 0.74475163 1.5790422 0
4.4980001 0.73755258 1.579329 0
4.4950004 0.72959244 1.5784687 0
4.4920001 0.72164303 1.5776081 0
4.4890003 0.71370453 1.5767478 0
4.4980001 0.70798457 1.579329 0
4.5430002 0.68637139 1.5922352 0
4.5480003 0.67977303 1.5936693 0
4.5530005 0.67315674 1.5951033 0
4.4770002 0.77030802 1.5659519 0
4.4820004 0.76394594 1.567377 0
4.4870005 0.75756592 1.568802 0
4.4920001 0.75116777 1.570227 0
4.4970002 0.74475163 1.5716521 0
4.4980001 0.73755258 1.571937 0
4.4950004 0.72959244 1.5710821 0
4.4920001 0.72164303 1.570227 0
4.4890003 0.71370453 1.5693719 0
4.4980001 0.70798457 1.571937 0
4.5430002 0.68637139 1.584762 0
4.5480003 0.67977303 1.5861871 0
4.5530005 0.67315674 1.5876122 0
4.4770002 0.77030802 1.5585979 0
4.4820004 0.76394594 1.5600138 0
4.4870005 0.75756592 1.5614299 0
4.4920001 0.75116777 1.5628458 0
4.4970002 0.74475163 1.5642618 0
4.4980001 0.73755258 1.5645449 0
4.4950004 0.72959244 1.5636954 0
4.4920001 0.72164303 1.5628458 0
4.4890003 0.71370453 1.5619962 0
4.4980001 0.70798457 1.5645449 0
4.5430002 0.68637139 1.577289 0
4.5480003 0.67977303 1.5787048 0
4.5530005 0.67315674 1.5801209 0
4.4770002 0.77030802 1.5512437 0
4.4820004 0.76394594 1.5526507 0
4.4870005 0.75756592 1.5540577 0
4.4920001 0.75116777 1.5554645 0
4.4970002 0.74475163 1.5568715 0
4.4980001 0.73755258 1.557153 0
4.4950004 0.72959244 1.5563089 0
4.4920001 0.72164303 1.5554645 0
4.4890003 0.71370453 1.5546205 0
4.4980001 0.70798457 1.557153 0
4.5430002 0.68637139 1.5698158 0
4.5480003 0.67977303 1.5712227 0
4.5530005 0.67315674 1.5726297 0
4.4770002 0.77030802 1.5438895 0
4.4820004 0.76394594 1.5452875 0
4.4870005 0.75756592 1.5466856 0
4.4920001 0.75116777 1.5480834 0
4.4970002 0.74475163 1.5494814 0
4.4980001 0.73755258 1.5497609 0
4.4950004 0.72959244 1.5489222 0
4.4920001 0.72164303 1.5480834 0
4.4890003 0.71370453 1.5472447 0
4.4980001 0.70798457 1.5497609 0
4.5430002 0.68637139 1.5623425 0
4.5480003 0.67977303 1.5637406 0
4.5530005 0.67315674 1.5651385 0
4.4770002 0.77030802 1.5365355 0
4.4820004 0.76394594 1.5379244 0
4.4870005 0.75756592 1.5393134 0
4.4920001 0.75116777 1.5407022 0
4.4970002 0.74475163 1.5420911 0
4.4980001 0.73755258 1.5423689 0
4.4950004 0.72959244 1.5415357 0
4.4920001 0.72164303 1.5407022 0
4.4890003 0.71370453 1.539869 0
4.4980001 0.70798457 1.5423689 0
4.5430002 0.68637139 1.5548694 0
4.5480003 0.67977303 1.5562583 0
4.5530005 0.67315674 1.5576473 0
4.4770002 0.77030802 1.5291814 0
4.4820004 0.76394594 1.5305612 0
4.4870005 0.75756592 1.5319412 0
4.4920001 0.75116777 1.533321 0
4.4970002 0.74475163 1.534701 0
4.4980001 0.73755258 1.534977 0
4.4950004 0.72959244 1.5341491 0
4.4920001 0.72164303 1.533321 0
4.4890003 0.71370453 1.5324931 0
4.4980001 0.70798457 1.534977 0
4.5430002 0.68637139 1.5473962 0
4.5480003 0.67977303 1.5487761 0
4.5530005 0.67315674 1.5501561 0
4.4770002 0.77030802 1.5218272 0
4.4820004 0.76394594 1.5231981 0
4.4870005 0.75756592 1.524569 0
4.4920001 0.75116777 1.5259398 0
4.4970002 0.74475163 1.5273107 0
4.4980001 0.73755258 1.5275849 0
4.4950004 0.72959244 1.5267625 0
4.4920001 0.72164303 1.5259398 0
4.4890003 0.71370453 1.5251174 0
4.4980001 0.70798457 1.5275849 0
4.5430002 0.68637139 1.5399231 0
4.5480003 0.67977303 1.541294 0
4.5530005 0.67315674 1.5426649 0
4.4770002 0.77030802 1.5144731 0
4.4820004 0.76394594 1.5158349 0
4.4870005 0.75756592 1.5171969 0
4.4920001 0.75116777 1.5185587 0
4.4970002 0.74475163 1.5199206 0
4.4980001 0.73755258 1.520193 0
4.4950004 0.72959244 1.5193758 0
4.4920001 0.72164303 1.5185587 0
4.4890003 0.71370453 1.5177416 0
4.4980001 0.70798457 1.520193 0
4.5430002 0.68637139 1.5324498 0
4.5480003 0.67977303 1.5338117 0
4.5530005 0.67315674 1.5351735 0
4.4770002 0.77030802 1.5071191 0
4.4820004 0.76394594 1.5084718 0
4.4870005 0.75756592 1.5098248 0
4.4920001 0.75116777 1.5111774 0
4.4970002 0.74475163 1.5125304 0
4.4980001 0.73755258 1.5128009 0
4.4950004 0.72959244 1.5119894 0
4.4920001 0.72164303 1.5111774 0
4.4890003 0.71370453 1.5103658 0
4.4980001 0.70798457 1.5128009 0
4.5430002 0.68637139 1.5249766 0
4.5480003 0.67977303 1.5263295 0
4.5530005 0.67315674 1.5276824 0
4.4770002 0.77030802 1.4997648 0
4.4820004 0.76394594 1.5011086 0
4.4870005 0.75756592 1.5024526 0
4.4920001 0.75116777 1.5037963 0
4.4970002 0.74475163 1.5051402 0
4.4980001 0.73755258 1.5054089 0
4.4950004 0.72959244 1.5046027 0
4.4920001 0.72164303 1.5037963 0
4.4890003 0.71370453 1.5029901 0
4.4980001 0.70798457 1.5054089 0
4.5430002 0.68637139 1.5175035 0
4.5480003 0.67977303 1.5188473 0
4.5530005 0.67315674 1.5201912 0
4.4770002 0.77030802 1.4924107 0
4.4820004 0.76394594 1.4937456 0
4.4870005 0.75756592 1.4950804 0
4.4920001 0.75116777 1.4964151 0
4.4970002 0.74475163 1.4977499 0
4.4980001 0.73755258 1.498017 0
4.4950004 0.72959244 1.4972161 0
4.4920001 0.72164303 1.4964151 0
4.4890003 0.71370453 1.4956143 0
4.4980001 0.70798457 1.498017 0
4.5430002 0.68637139 1.5100303 0
4.5480003 0.67977303 1.5113652 0
4.5530005 0.67315674 1.5127 0
4.4770002 0.77030802 1.4850566 0
4.4820004 0.76394594 1.4863824 0
4.4870005 0.75756592 1.4877082 0
4.4920001 0.75116777 1.4890339 0
4.4970002 0.74475163 1.4903598 0
4.4980001 0.73755258 1.4906249 0
4.4950004 0.72959244 1.4898294 0
4.4920001 0.72164303 1.4890339 0
4.4890003 0.71370453 1.4882385 0
4.4980001 0.70798457 1.4906249 0
4.5430002 0.68637139 1.502557 0
4.5480003 0.67977303 1.503883 0
4.5530005 0.67315674 1.5052087 0
4.4770002 0.77030802 1.4777024 0
4.4820004 0.76394594 1.4790193 0
4.4870005 0.75756592 1.4803361 0
4.4920001 0.75116777 1.4816527 0
4.4970002 0.74475163 1.4829695 0
4.4980001 0.73755258 1.4832329 0
4.4950004 0.72959244 1.482443 0
4.4920001 0.72164303 1.4816527 0
4.4890003 0.71370453 1.4808627 0
4.4980001 0.70798457 1.4832329 0
4.5430002 0.68637139 1.4950839 0
4.5480003 0.67977303 1.4964007 0
4.5530005 0.67315674 1.4977176 0
4.4770002 0.77030802 1.4703484 0
4.4820004 0.76394594 1.4716561 0
4.4870005 0.75756592 1.4729639 0
4.4920001 0.75116777 1.4742717 0
4.4970002 0.74475163 1.4755794 0
4.4980001 0.73755258 1.4758409 0
4.4950004 0.72959244 1.4750563 0
4.4920001 0.72164303 1.4742717 0
4.4890003 0.71370453 1.473487 0
4.4980001 0.70798457 1.4758409 0
4.5430002 0.68637139 1.4876108 0
4.5480003 0.67977303 1.4889185 0
4.5530005 0.67315674 1.4902264 0
4.4770002 0.77030802 1.4629942 0
4.4820004 0.76394594 1.464293 0
4.4870005 0.75756592 1.4655918 0
4.4920001 0.75116777 1.4668903 0
4.4970002 0.74475163 1.4681891 0
4.4980001 0.73755258 1.4684489 0
4.4950004 0.72959244 1.4676697 0
4.4920001 0.72164303 1.4668903 0
4.4890003 0.71370453 1.4661112 0
4.4980001 0.70798457 1.4684489 0
4.5430002 0.68637139 1.4801376 0
4.5480003 0.67977303 1.4814364 0
4.5530005 0.67315674 1.4827352 0
4.4770002 0.77030802 1.4556401 0
4.4820004 0.76394594 1.4569298 0
4.4870005 0.75756592 1.4582195 0
4.4920001 0.75116777 1.4595093 0
4.4970002 0.74475163 1.460799 0
4.4980001 0.73755258 1.4610568 0
4.4950004 0.72959244 1.460283 0
4.4920001 0.72164303 1.4595093 0
4.4890003 0.71370453 1.4587355 0
4.4980001 0.70798457 1.4610568 0
4.5430002 0.68637139 1.4726645 0
4.5480003 0.67977303 1.4739542 0
4.5530005 0.67315674 1.4752439 0
4.4770002 0.77030802 1.4482859 0
4.4820004 0.76394594 1.4495667 0
4.4870005 0.75756592 1.4508474 0
4.4920001 0.75116777 1.4521281 0
4.4970002 0.74475163 1.4534088 0
4.4980001 0.73755258 1.4536649 0
4.4950004 0.72959244 1.4528966 0
4.4920001 0.72164303 1.4521281 0
4.4890003 0.71370453 1.4513597 0
4.4980001 0.70798457 1.4536649 0
4.5430002 0.68637139 1.4651912 0
4.5480003 0.67977303 1.466472 0
4.5530005 0.67315674 1.4677527 0
4.4770002 0.77030802 1.4409318 0
4.4820004 0.76394594 1.4422035 0
4.4870005 0.75756592 1.4434752 0
4.4920001 0.75116777 1.4447469 0
4.4970002 0.74475163 1.4460186 0
4.4980001 0.73755258 1.4462729 0
4.4950004 0.72959244 1.4455099 0
4.4920001 0.72164303 1.4447469 0
4.4890003 0.71370453 1.4439838 0
4.4980001 0.70798457 1.4462729 0
4.5430002 0.68637139 1.457718 0
4.5480003 0.67977303 1.4589897 0
4.5530005 0.67315674 1.4602615 0
4.4770002 0.77030802 1.4335777 0
4.4820004 0.76394594 1.4348404 0
4.4870005 0.75756592 1.4361031 0
4.4920001 0.75116777 1.4373657 0
4.4970002 0.74475163 1.4386283 0
4.4980001 0.73755258 1.4388809 0
4.4950004 0.72959244 1.4381233 0
4.4920001 0.72164303 1.4373657 0
4.4890003 0.71370453 1.4366081 0
4.4980001 0.70798457 1.4388809 0
4.5430002 0.68637139 1.4502449 0
4.5480003 0.67977303 1.4515076 0
4.5530005 0.67315674 1.4527702 0
4.4770002 0.77030802 1.4262235 0
4.4820004 0.76394594 1.4274772 0
4.4870005 0.75756592 1.428731 0
4.4920001 0.75116777 1.4299846 0
4.4970002 0.74475163 1.4312382 0
4.4980001 0.73755258 1.4314889 0
4.4950004 0.72959244 1.4307367 0
4.4920001 0.72164303 1.4299846 0
4.4890003 0.71370453 1.4292324 0
4.4980001 0.70798457 1.4314889 0
4.5430002 0.68637139 1.4427717 0
4.5480003 0.67977303 1.4440254 0
4.5530005 0.67315674 1.445279 0
4.4770002 0.77030802 1.4188695 0
4.4820004 0.76394594 1.4201142 0
4.4870005 0.75756592 1.4213587 0
4.4920001 0.75116777 1.4226032 0
4.4970002 0.74475163 1.4238479 0
4.4980001 0.73755258 1.4240968 0
4.4950004 0.72959244 1.4233501 0
4.4920001 0.72164303 1.4226032 0
4.4890003 0.71370453 1.4218566 0
4.4980001 0.70798457 1.4240968 0
4.5430002 0.68637139 1.4352986 0
4.5480003 0.67977303 1.4365431 0
4.5530005 0.67315674 1.4377879 0
4.4770002 0.77030802 1.4115154 0
4.4820004 0.76394594 1.412751 0
4.4870005 0.75756592 1.4139866 0
4.4920001 0.75116777 1.4152222 0
4.4970002 0.74475163 1.4164578 0
4.4980001 0.73755258 1.4167049 0
4.4950004 0.72959244 1.4159635 0
4.4920001 0.72164303 1.4152222 0
4.4890003 0.71370453 1.4144808 0
4.4980001 0.70798457 1.4167049 0
4.5430002 0.68637139 1.4278253 0
4.5480003 0.67977303 1.4290611 0
4.5530005 0.67315674 1.4302967 0
4.4770002 0.77030802 1.4041612 0
4.4820004 0.76394594 1.4053878 0
4.4870005 0.75756592 1.4066144 0
4.4920001 0.75116777 1.407841 0
4.4970002 0.74475163 1.4090675 0
4.4980001 0.73755258 1.4093128 0
4.4950004 0.72959244 1.408577 0
4.4920001 0.72164303 1.407841 0
4.4890003 0.71370453 1.407105 0
4.4980001 0.70798457 1.4093128 0
4.5430002 0.68637139 1.4203521 0
4.5480003 0.67977303 1.4215788 0
4.5530005 0.67315674 1.4228054 0
4.4770002 0.77030802 1.3968071 0
4.4820004 0.76394594 1.3980246 0
4.4870005 0.75756592 1.3992423 0
4.4920001 0.75116777 1.4004596 0
4.4970002 0.74475163 1.4016774 0
4.4980001 0.73755258 1.4019208 0
4.4950004 0.72959244 1.4011903 0
4.4920001 0.72164303 1.4004596 0
4.4890003 0.71370453 1.3997293 0
4.4980001 0.70798457 1.4019208 0
4.5430002 0.68637139 1.412879 0
4.5480003 0.67977303 1.4140966 0
4.5530005 0.67315674 1.4153142 0
4.4770002 0.77030802 1.3894528 0
4.4820004 0.76394594 1.3906615 0
4.4870005 0.75756592 1.39187 0
4.4920001 0.75116777 1.3930786 0
4.4970002 0.74475163 1.3942871 0
4.4980001 0.73755258 1.3945289 0
4.4950004 0.72959244 1.3938037 0
4.4920001 0.72164303 1.3930786 0
4.4890003 0.71370453 1.3923534 0
4.4980001 0.70798457 1.3945289 0
4.5430002 0.68637139 1.4054058 0
4.5480003 0.67977303 1.4066144 0
4.5530005 0.67315674 1.407823 0
4.4770002 0.77030802 1.3820988 0
4.4820004 0.76394594 1.3832983 0
4.4870005 0.75756592 1.3844979 0
4.4920001 0.75116777 1.3856974 0
4.4970002 0.74475163 1.3868968 0
4.4980001 0.73755258 1.3871368 0
4.4950004 0.72959244 1.386417 0
4.4920001 0.72164303 1.3856974 0
4.4890003 0.71370453 1.3849777 0
4.4980001 0.70798457 1.3871368 0
4.5430002 0.68637139 1.3979326 0
4.5480003 0.67977303 1.3991321 0
4.5530005 0.67315674 1.4003317 0
4.4770002 0.77030802 1.3747447 0
4.4820004 0.76394594 1.3759352 0
4.4870005 0.75756592 1.3771257 0
4.4920001 0.75116777 1.3783162 0
4.4970002 0.74475163 1.3795067 0
4.4980001 0.73755258 1.3797449 0
4.4950004 0.72959244 1.3790306 0
4.4920001 0.72164303 1.3783162 0
4.4890003 0.71370453 1.377602 0
4.4980001 0.70798457 1.3797449 0
4.5430002 0.68637139 1.3904594 0
4.5480003 0.67977303 1.39165 0
4.5530005 0.67315674 1.3928405 0
4.4770002 0.77030802 1.3673905 0
4.4820004 0.76394594 1.368572 0
4.4870005 0.75756592 1.3697536 0
4.4920001 0.75116777 1.370935 0
4.4970002 0.74475163 1.3721166 0
4.4980001 0.73755258 1.3723528 0
4.4950004 0.72959244 1.3716439 0
4.4920001 0.72164303 1.370935 0
4.4890003 0.71370453 1.3702261 0
4.4980001 0.70798457 1.3723528 0
4.5430002 0.68637139 1.3829863 0
4.5480003 0.67977303 1.3841678 0
4.5530005 0.67315674 1.3853493 0
4.4770002 0.77030802 1.3600364 0
4.4820004 0.76394594 1.3612089 0
4.4870005 0.75756592 1.3623815 0
4.4920001 0.75116777 1.3635539 0
4.4970002 0.74475163 1.3647262 0
4.4980001 0.73755258 1.3649608 0
4.4950004 0.72959244 1.3642573 0
4.4920001 0.72164303 1.3635539 0
4.4890003 0.71370453 1.3628503 0
4.4980001 0.70798457 1.3649608 0
4.5430002 0.68637139 1.3755131 0
4.5480003 0.67977303 1.3766856 0
4.5530005 0.67315674 1.3778582 0
4.4770002 0.77030802 1.3526824 0
4.4820004 0.76394594 1.3538457 0
4.4870005 0.75756592 1.3550092 0
4.4920001 0.75116777 1.3561726 0
4.4970002 0.74475163 1.357336 0
4.4980001 0.73755258 1.3575689 0
4.4950004 0.72959244 1.3568707 0
4.4920001 0.72164303 1.3561726 0
4.4890003 0.71370453 1.3554746 0
4.4980001 0.70798457 1.3575689 0
4.5430002 0.68637139 1.3680398 0
4.5480003 0.67977303 1.3692034 0
4.5530005 0.67315674 1.3703669 0
4.4770002 0.77030802 1.3453281 0
4.4820004 0.76394594 1.3464826 0
4.4870005 0.75756592 1.3476371 0
4.4920001 0.75116777 1.3487915 0
4.4970002 0.74475163 1.3499459 0
4.4980001 0.73755258 1.3501768 0
4.4950004 0.72959244 1.3494842 0
4.4920001 0.72164303 1.3487915 0
4.4890003 0.71370453 1.3480989 0
4.4980001 0.70798457 1.3501768 0
4.5430002 0.68637139 1.3605667 0
4.5480003 0.67977303 1.3617212 0
4.5530005 0.67315674 1.3628757 0
4.4770002 0.77030802 1.337974 0
4.4820004 0.76394594 1.3391196 0
4.4870005 0.75756592 1.3402649 0
4.4920001 0.75116777 1.3414103 0
4.4970002 0.74475163 1.3425558 0
4.4980001 0.73755258 1.3427848 0
4.4950004 0.72959244 1.3420976 0
4.4920001 0.72164303 1.3414103 0
4.4890003 0.71370453 1.340723 0
4.4980001 0.70798457 1.3427848 0
4.5430002 0.68637139 1.3530935 0
4.5480003 0.67977303 1.354239 0
4.5530005 0.67315674 1.3553843 0
4.4770002 0.77030802 1.3306199 0
4.4820004 0.76394594 1.3317564 0
4.4870005 0.75756592 1.3328928 0
4.4920001 0.75116777 1.3340291 0
4.4970002 0.74475163 1.3351655 0
4.4980001 0.73755258 1.3353928 0
4.4950004 0.72959244 1.334711 0
4.4920001 0.72164303 1.3340291 0
4.4890003 0.71370453 1.3333473 0
4.4980001 0.70798457 1.3353928 0
4.5430002 0.68637139 1.3456204 0
4.5480003 0.67977303 1.3467567 0
4.5530005 0.67315674 1.3478931 0
4.4770002 0.77030802 1.3232658 0
4.4820004 0.76394594 1.3243932 0
4.4870005 0.75756592 1.3255206 0
4.4920001 0.75116777 1.3266479 0
4.4970002 0.74475163 1.3277752 0
4.4980001 0.73755258 1.3280008 0
4.4950004 0.72959244 1.3273244 0
4.4920001 0.72164303 1.3266479 0
4.4890003 0.71370453 1.3259715 0
4.4980001 0.70798457 1.3280008 0
4.5430002 0.68637139 1.3381472 0
4.5480003 0.67977303 1.3392745 0
4.5530005 0.67315674 1.340402 0
4.4770002 0.77030802 1.3159117 0
4.4820004 0.76394594 1.3170301 0
4.4870005 0.75756592 1.3181485 0
4.4920001 0.75116777 1.3192667 0
4.4970002 0.74475163 1.3203851 0
4.4980001 0.73755258 1.3206087 0
4.4950004 0.72959244 1.3199378 0
4.4920001 0.72164303 1.3192667 0
4.4890003 0.71370453 1.3185958 0
4.4980001 0.70798457 1.3206087 0
4.5430002 0.68637139 1.3306739 0
4.5480003 0.67977303 1.3317925 0
4.5530005 0.67315674 1.3329108 0
4.4770002 0.77030802 1.3085575 0
4.4820004 0.76394594 1.3096669 0
4.4870005 0.75756592 1.3107762 0
4.4920001 0.75116777 1.3118855 0
4.4970002 0.74475163 1.312995 0
4.4980001 0.73755258 1.3132168 0
4.4950004 0.72959244 1.3125511 0
4.4920001 0.72164303 1.3118855 0
4.4890003 0.71370453 1.3112199 0
4.4980001 0.70798457 1.3132168 0
4.5430002 0.68637139 1.3232008 0
4.5480003 0.67977303 1.3243102 0
4.5530005 0.67315674 1.3254195 0
4.4770002 0.77030802 1.3012034 0
4.4820004 0.76394594 1.3023038 0
4.4870005 0.75756592 1.3034041 0
4.4920001 0.75116777 1.3045043 0
4.4970002 0.74475163 1.3056047 0
4.4980001 0.73755258 1.3058248 0
4.4950004 0.72959244 1.3051646 0
4.4920001 0.72164303 1.3045043 0
4.4890003 0.71370453 1.3038442 0
4.4980001 0.70798457 1.3058248 0
4.5430002 0.68637139 1.3157277 0
4.5480003 0.67977303 1.316828 0
4.5530005 0.67315674 1.3179283 0
4.4770002 0.77030802 1.2938492 0
4.4820004 0.76394594 1.2949406 0
4.4870005 0.75756592 1.296032 0
4.4920001 0.75116777 1.2971231 0
4.4970002 0.74475163 1.2982144 0
4.4980001 0.73755258 1.2984327 0
4.4950004 0.72959244 1.297778 0
4.4920001 0.72164303 1.2971231 0
4.4890003 0.71370453 1.2964684 0
4.4980001 0.70798457 1.2984327 0
4.5430002 0.68637139 1.3082545 0
4.5480003 0.67977303 1.3093458 0
4.5530005 0.67315674 1.3104371 0
4.4770002 0.77030802 1.2864952 0
4.4820004 0.76394594 1.2875774 0
4.4870005 0.75756592 1.2886597 0
4.4920001 0.75116777 1.289742 0
4.4970002 0.74475163 1.2908243 0
4.4980001 0.73755258 1.2910408 0
4.4950004 0.72959244 1.2903913 0
4.4920001 0.72164303 1.289742 0
4.4890003 0.71370453 1.2890927 0
4.4980001 0.70798457 1.2910408 0
4.5430002 0.68637139 1.3007812 0
4.5480003 0.67977303 1.3018637 0
4.5530005 0.67315674 1.302946 0
4.4770002 0.77030802 1.2791411 0
4.4820004 0.76394594 1.2802143 0
4.4870005 0.75756592 1.2812877 0
4.4920001 0.75116777 1.2823608 0
4.4970002 0.74475163 1.2834342 0
4.4980001 0.73755258 1.2836487 0
4.4950004 0.72959244 1.2830048 0
4.4920001 0.72164303 1.2823608 0
4.4890003 0.71370453 1.2817169 0
4.4980001 0.70798457 1.2836487 0
4.5430002 0.68637139 1.2933081 0
4.5480003 0.67977303 1.2943814 0
4.5530005 0.67315674 1.2954547 0
4.4770002 0.77030802 1.2717869 0
4.4820004 0.76394594 1.2728511 0
4.4870005 0.75756592 1.2739154 0
4.4920001 0.75116777 1.2749796 0
4.4970002 0.74475163 1.2760439 0
4.4980001 0.73755258 1.2762567 0
4.4950004 0.72959244 1.2756182 0
4.4920001 0.72164303 1.2749796 0
4.4890003 0.71370453 1.2743411 0
4.4980001 0.70798457 1.2762567 0
4.5430002 0.68637139 1.2858349 0
4.5480003 0.67977303 1.2868992 0
4.5530005 0.67315674 1.2879635 0
4.4770002 0.77030802 1.2644328 0
4.4820004 0.76394594 1.265488 0
4.4870005 0.75756592 1.2665433 0
4.4920001 0.75116777 1.2675984 0
4.4970002 0.74475163 1.2686536 0
4.4980001 0.73755258 1.2688648 0
4.4950004 0.72959244 1.2682316 0
4.4920001 0.72164303 1.2675984 0
4.4890003 0.71370453 1.2669653 0
4.4980001 0.70798457 1.2688648 0
4.5430002 0.68637139 1.2783618 0
4.5480003 0.67977303 1.279417 0
4.5530005 0.67315674 1.2804723 0
4.4770002 0.77030802 1.2570786 0
4.4820004 0.76394594 1.2581248 0
4.4870005 0.75756592 1.2591711 0
4.4920001 0.75116777 1.2602172 0
4.4970002 0.74475163 1.2612635 0
4.4980001 0.73755258 1.2614727 0
4.4950004 0.72959244 1.2608449 0
4.4920001 0.72164303 1.2602172 0
4.4890003 0.71370453 1.2595896 0
4.4980001 0.70798457 1.2614727 0
4.5430002 0.68637139 1.2708886 0
4.5480003 0.67977303 1.2719349 0
4.5530005 0.67315674 1.272981 0
4.4770002 0.77030802 1.2497245 0
4.4820004 0.76394594 1.2507617 0
4.4870005 0.75756592 1.2517989 0
4.4920001 0.75116777 1.252836 0
4.4970002 0.74475163 1.2538733 0
4.4980001 0.73755258 1.2540808 0
4.4950004 0.72959244 1.2534584 0
4.4920001 0.72164303 1.252836 0
4.4890003 0.71370453 1.2522137 0
4.4980001 0.70798457 1.2540808 0
4.5430002 0.68637139 1.2634155 0
4.5480003 0.67977303 1.2644526 0
4.5530005 0.67315674 1.2654898 0
4.4770002 0.77030802 1.2423704 0
4.4820004 0.76394594 1.2433985 0
4.4870005 0.75756592 1.2444267 0
4.4920001 0.75116777 1.2454549 0
4.4970002 0.74475163 1.2464831 0
4.4980001 0.73755258 1.2466887 0
4.4950004 0.72959244 1.2460718 0
4.4920001 0.72164303 1.2454549 0
4.4890003 0.71370453 1.244838 0
4.4980001 0.70798457 1.2466887 0
4.5430002 0.68637139 1.2559422 0
4.5480003 0.67977303 1.2569704 0
4.5530005 0.67315674 1.2579986 0
4.4770002 0.77030802 1.2350162 0
4.4820004 0.76394594 1.2360355 0
4.4870005 0.75756592 1.2370546 0
4.4920001 0.75116777 1.2380737 0
4.4970002 0.74475163 1.2390928 0
4.4980001 0.73755258 1.2392967 0
4.4950004 0.72959244 1.2386853 0
4.4920001 0.72164303 1.2380737 0
4.4890003 0.71370453 1.2374623 0
4.4980001 0.70798457 1.2392967 0
4.5430002 0.68637139 1.2484691 0
4.5480003 0.67977303 1.2494882 0
4.5530005 0.67315674 1.2505074 0
4.4770002 0.77030802 1.2276622 0
4.4820004 0.76394594 1.2286723 0
4.4870005 0.75756592 1.2296824 0
4.4920001 0.75116777 1.2306925 0
4.4970002 0.74475163 1.2317027 0
4.4980001 0.73755258 1.2319047 0
4.4950004 0.72959244 1.2312986 0
4.4920001 0.72164303 1.2306925 0
4.4890003 0.71370453 1.2300864 0
4.4980001 0.70798457 1.2319047 0
4.5430002 0.68637139 1.2409959 0
4.5480003 0.67977303 1.2420061 0
4.5530005 0.67315674 1.2430162 0
4.4770002 0.77030802 1.2203081 0
4.4820004 0.76394594 1.2213092 0
4.4870005 0.75756592 1.2223103 0
4.4920001 0.75116777 1.2233113 0
4.4970002 0.74475163 1.2243125 0
4.4980001 0.73755258 1.2245127 0
4.4950004 0.72959244 1.2239121 0
4.4920001 0.72164303 1.2233113 0
4.4890003 0.71370453 1.2227107 0
4.4980001 0.70798457 1.2245127 0
4.5430002 0.68637139 1.2335227 0
4.5480003 0.67977303 1.2345239 0
4.5530005 0.67315674 1.235525 0
4.4770002 0.77030802 1.2129538 0
4.4820004 0.76394594 1.213946 0
4.4870005 0.75756592 1.2149382 0
4.4920001 0.75116777 1.2159301 0
4.4970002 0.74475163 1.2169223 0
4.4980001 0.73755258 1.2171206 0
4.4950004 0.72959244 1.2165254 0
4.4920001 0.72164303 1.2159301 0
4.4890003 0.71370453 1.2153349 0
4.4980001 0.70798457 1.2171206 0
4.5430002 0.68637139 1.2260495 0
4.5480003 0.67977303 1.2270416 0
4.5530005 0.67315674 1.2280338 0
4.4770002 0.77030802 1.2055998 0
4.4820004 0.76394594 1.2065828 0
4.4870005 0.75756592 1.2075659 0
4.4920001 0.75116777 1.208549 0
4.4970002 0.74475163 1.209532 0
4.4980001 0.73755258 1.2097286 0
4.4950004 0.72959244 1.2091389 0
4.4920001 0.72164303 1.208549 0
4.4890003 0.71370453 1.2079592 0
4.4980001 0.70798457 1.2097286 0
4.5430002 0.68637139 1.2185763 0
4.5480003 0.67977303 1.2195594 0
4.5530005 0.67315674 1.2205426 0
4.4770002 0.77030802 1.1982456 0
4.4820004 0.76394594 1.1992197 0
4.4870005 0.75756592 1.2001938 0
4.4920001 0.75116777 1.2011678 0
4.4970002 0.74475163 1.2021419 0
4.4980001 0.73755258 1.2023367 0
4.4950004 0.72959244 1.2017523 0
4.4920001 0.72164303 1.2011678 0
4.4890003 0.71370453 1.2005833 0
4.4980001 0.70798457 1.2023367 0
4.5430002 0.68637139 1.2111032 0
4.5480003 0.67977303 1.2120773 0
4.5530005 0.67315674 1.2130513 0
4.4770002 0.77030802 1.1908915 0
4.4820004 0.76394594 1.1918565 0
4.4870005 0.75756592 1.1928216 0
4.4920001 0.75116777 1.1937866 0
4.4970002 0.74475163 1.1947516 0
4.4980001 0.73755258 1.1949446 0
4.4950004 0.72959244 1.1943657 0
4.4920001 0.72164303 1.1937866 0
4.4890003 0.71370453 1.1932076 0
4.4980001 0.70798457 1.1949446 0
4.5430002 0.68637139 1.20363 0
4.5480003 0.67977303 1.2045951 0
4.5530005 0.67315674 1.2055601 0
4.4770002 0.77030802 1.1835374 0
4.4820004 0.76394594 1.1844934 0
4.4870005 0.75756592 1.1854495 0
4.4920001 0.75116777 1.1864054 0
4.4970002 0.74475163 1.1873615 0
4.4980001 0.73755258 1.1875526 0
4.4950004 0.72959244 1.1869791 0
4.4920001 0.72164303 1.1864054 0
4.4890003 0.71370453 1.1858318 0
4.4980001 0.70798457 1.1875526 0
4.5430002 0.68637139 1.1961569 0
4.5480003 0.67977303 1.1971128 0
4.5530005 0.67315674 1.1980689 0
4.4770002 0.77030802 1.1761832 0
4.4820004 0.76394594 1.1771302 0
4.4870005 0.75756592 1.1780773 0
4.4920001 0.75116777 1.1790242 0
4.4970002 0.74475163 1.1799712 0
4.4980001 0.73755258 1.1801606 0
4.4950004 0.72959244 1.1795925 0
4.4920001 0.72164303 1.1790242 0
4.4890003 0.71370453 1.1784561 0
4.4980001 0.70798457 1.1801606 0
4.5430002 0.68637139 1.1886836 0
4.5480003 0.67977303 1.1896306 0
4.5530005 0.67315674 1.1905776 0
4.4770002 0.77030802 1.1688292 0
4.4820004 0.76394594 1.1697671 0
4.4870005 0.75756592 1.1707051 0
4.4920001 0.75116777 1.171643 0
4.4970002 0.74475163 1.1725811 0
4.4980001 0.73755258 1.1727686 0
4.4950004 0.72959244 1.1722059 0
4.4920001 0.72164303 1.171643 0
4.4890003 0.71370453 1.1710802 0
4.4980001 0.70798457 1.1727686 0
4.5430002 0.68637139 1.1812104 0
4.5480003 0.67977303 1.1821485 0
4.5530005 0.67315674 1.1830865 0
4.4770002 0.77030802 1.1614749 0
4.4820004 0.76394594 1.1624039 0
4.4870005 0.75756592 1.1633329 0
4.4920001 0.75116777 1.1642619 0
4.4970002 0.74475163 1.1651908 0
4.4980001 0.73755258 1.1653765 0
4.4950004 0.72959244 1.1648192 0
4.4920001 0.72164303 1.1642619 0
4.4890003 0.71370453 1.1637045 0
4.4980001 0.70798457 1.1653765 0
4.5430002 0.68637139 1.1737373 0
4.5480003 0.67977303 1.1746663 0
4.5530005 0.67315674 1.1755953 0
4.4770002 0.77030802 1.1541208 0
4.4820004 0.76394594 1.1550409 0
4.4870005 0.75756592 1.1559608 0
4.4920001 0.75116777 1.1568807 0
4.4970002 0.74475163 1.1578007 0
4.4980001 0.73755258 1.1579846 0
4.4950004 0.72959244 1.1574327 0
4.4920001 0.72164303 1.1568807 0
4.4890003 0.71370453 1.1563288 0
4.4980001 0.70798457 1.1579846 0
4.5430002 0.68637139 1.1662641 0
4.5480003 0.67977303 1.1671841 0
4.5530005 0.67315674 1.1681041 0
4.4770002 0.77030802 1.1467668 0
4.4820004 0.76394594 1.1476777 0
4.4870005 0.75756592 1.1485887 0
4.4920001 0.75116777 1.1494995 0
4.4970002 0.74475163 1.1504104 0
4.4980001 0.73755258 1.1505926 0
4.4950004 0.72959244 1.1500461 0
4.4920001 0.72164303 1.1494995 0
4.4890003 0.71370453 1.148953 0
4.4980001 0.70798457 1.1505926 0
4.5430002 0.68637139 1.1587909 0
4.5480003 0.67977303 1.1597018 0
4.5530005 0.67315674 1.1606128 0
4.4770002 0.77030802 1.1394126 0
4.4820004 0.76394594 1.1403146 0
4.4870005 0.75756592 1.1412165 0
4.4920001 0.75116777 1.1421183 0
4.4970002 0.74475163 1.1430203 0
4.4980001 0.73755258 1.1432006 0
4.4950004 0.72959244 1.1426595 0
4.4920001 0.72164303 1.1421183 0
4.4890003 0.71370453 1.1415772 0
4.4980001 0.70798457 1.1432006 0
4.5430002 0.68637139 1.1513177 0
4.5480003 0.67977303 1.1522197 0
4.5530005 0.67315674 1.1531216 0
4.4770002 0.77030802 1.1320585 0
4.4820004 0.76394594 1.1329514 0
4.4870005 0.75756592 1.1338443 0
4.4920001 0.75116777 1.1347371 0
4.4970002 0.74475163 1.13563 0
4.4980001 0.73755258 1.1358086 0
4.4950004 0.72959244 1.1352729 0
4.4920001 0.72164303 1.1347371 0
4.4890003 0.71370453 1.1342014 0
4.4980001 0.70798457 1.1358086 0
4.5430002 0.68637139 1.1438446 0
4.5480003 0.67977303 1.1447375 0
4.5530005 0.67315674 1.1456304 0
4.4770002 0.77030802 1.1247044 0
4.4820004 0.76394594 1.1255882 0
4.4870005 0.75756592 1.1264721 0
4.4920001 0.75116777 1.1273559 0
4.4970002 0.74475163 1.1282399 0
4.4980001 0.73755258 1.1284165 0
4.4950004 0.72959244 1.1278863 0
4.4920001 0.72164303 1.1273559 0
4.4890003 0.71370453 1.1268257 0
4.4980001 0.70798457 1.1284165 0
4.5430002 0.68637139 1.1363714 0
4.5480003 0.67977303 1.1372553 0
4.5530005 0.67315674 1.1381392 0
4.4770002 0.77030802 1.1173502 0
4.4820004 0.76394594 1.1182251 0
4.4870005 0.75756592 1.1191 0
4.4920001 0.75116777 1.1199747 0
4.4970002 0.74475163 1.1208496 0
4.4980001 0.73755258 1.1210246 0
4.4950004 0.72959244 1.1204997 0
4.4920001 0.72164303 1.1199747 0
4.4890003 0.71370453 1.1194499 0
4.4980001 0.70798457 1.1210246 0
4.5430002 0.68637139 1.1288981 0
4.5480003 0.67977303 1.129773 0
4.5530005 0.67315674 1.1306479 0
4.4770002 0.77030802 1.1099962 0
4.4820004 0.76394594 1.1108619 0
4.4870005 0.75756592 1.1117278 0
4.4920001 0.75116777 1.1125935 0
4.4970002 0.74475163 1.1134595 0
4.4980001 0.73755258 1.1136326 0
4.4950004 0.72959244 1.1131132 0
4.4920001 0.72164303 1.1125935 0
4.4890003 0.71370453 1.1120741 0
4.4980001 0.70798457 1.1136326 0
4.5430002 0.68637139 1.121425 0
4.5480003 0.67977303 1.1222908 0
4.5530005 0.67315674 1.1231568 0
4.4770002 0.77030802 1.1026419 0
4.4820004 0.76394594 1.1034988 0
4.4870005 0.75756592 1.1043557 0
4.4920001 0.75116777 1.1052123 0
4.4970002 0.74475163 1.1060692 0
4.4980001 0.73755258 1.1062405 0
4.4950004 0.72959244 1.1057265 0
4.4920001 0.72164303 1.1052123 0
4.4890003 0.71370453 1.1046983 0
4.4980001 0.70798457 1.1062405 0
4.5430002 0.68637139 1.1139519 0
4.5480003 0.67977303 1.1148087 0
4.5530005 0.67315674 1.1156656 0
4.4770002 0.77030802 1.0952878 0
4.4820004 0.76394594 1.0961357 0
4.4870005 0.75756592 1.0969834 0
4.4920001 0.75116777 1.0978312 0
4.4970002 0.74475163 1.0986791 0
4.4980001 0.73755258 1.0988486 0
4.4950004 0.72959244 1.0983399 0
4.4920001 0.72164303 1.0978312 0
4.4890003 0.71370453 1.0973226 0
4.4980001 0.70798457 1.0988486 0
4.5430002 0.68637139 1.1064787 0
4.5480003 0.67977303 1.1073265 0
4.5530005 0.67315674 1.1081743 0
4.4770002 0.77030802 1.0879338 0
4.4820004 0.76394594 1.0887725 0
4.4870005 0.75756592 1.0896113 0
4.4920001 0.75116777 1.09045 0
4.4970002 0.74475163 1.0912888 0
4.4980001 0.73755258 1.0914565 0
4.4950004 0.72959244 1.0909534 0
4.4920001 0.72164303 1.09045 0
4.4890003 0.71370453 1.0899467 0
4.4980001 0.70798457 1.0914565 0
4.5430002 0.68637139 1.0990055 0
4.5480003 0.67977303 1.0998442 0
4.5530005 0.67315674 1.1006831 0
4.4770002 0.77030802 1.0805796 0
4.4820004 0.76394594 1.0814095 0
4.4870005 0.75756592 1.0822392 0
4.4920001 0.75116777 1.0830688 0
4.4970002 0.74475163 1.0838987 0
4.4980001 0.73755258 1.0840645 0
4.4950004 0.72959244 1.0835668 0
4.4920001 0.72164303 1.0830688 0
4.4890003 0.71370453 1.082571 0
4.4980001 0.70798457 1.0840645 0
4.5430002 0.68637139 1.0915323 0
4.5480003 0.67977303 1.0923622 0
4.5530005 0.67315674 1.0931919 0
4.4770002 0.77030802 1.0732255 0
4.4820004 0.76394594 1.0740463 0
4.4870005 0.75756592 1.074867 0
4.4920001 0.75116777 1.0756876 0
4.4970002 0.74475163 1.0765084 0
4.4980001 0.73755258 1.0766726 0
4.4950004 0.72959244 1.0761801 0
4.4920001 0.72164303 1.0756876 0
4.4890003 0.71370453 1.0751953 0
4.4980001 0.70798457 1.0766726 0
4.5430002 0.68637139 1.0840591 0
4.5480003 0.67977303 1.0848799 0
4.5530005 0.67315674 1.0857006 0
4.4770002 0.77030802 1.0658714 0
4.4820004 0.76394594 1.0666832 0
4.4870005 0.75756592 1.0674949 0
4.4920001 0.75116777 1.0683064 0
4.4970002 0.74475163 1.0691183 0
4.4980001 0.73755258 1.0692805 0
4.4950004 0.72959244 1.0687935 0
4.4920001 0.72164303 1.0683064 0
4.4890003 0.71370453 1.0678195 0
4.4980001 0.70798457 1.0692805 0
4.5430002 0.68637139 1.076586 0
4.5480003 0.67977303 1.0773977 0
4.5530005 0.67315674 1.0782094 0
4.4770002 0.77030802 1.0585172 0
4.4820004 0.76394594 1.05932 0
4.4870005 0.75756592 1.0601227 0
4.4920001 0.75116777 1.0609252 0
4.4970002 0.74475163 1.061728 0
4.4980001 0.73755258 1.0618886 0
4.4950004 0.72959244 1.061407 0
4.4920001 0.72164303 1.0609252 0
4.4890003 0.71370453 1.0604438 0
4.4980001 0.70798457 1.0618886 0
4.5430002 0.68637139 1.0691128 0
4.5480003 0.67977303 1.0699155 0
4.5530005 0.67315674 1.0707183 0
