# .PCD v0.7 - Point Cloud Data file format
VERSION 0.7
FIELDS x y z intensity
SIZE 4 4 4 4
TYPE F F F F
COUNT 1 1 1 1
WIDTH 1394
HEIGHT 1
VIEWPOINT 0 0 0 1 0 0 0
POINTS 1394
DATA ascii
3.9620004 -0.83629531 0.92443836 0
3.9630003 -0.84294409 0.92458451 0
3.9660003 -0.85004753 0.92502284 0
3.9700003 -0.85738897 0.9256072 0
4.1220002 -0.68380857 0.94110191 0
4.1150002 -0.68931019 0.94009185 0
4.1070004 -0.69461155 0.93893743 0
4.1000004 -0.7000609 0.93792725 0
4.092 -0.70530635 0.93677282 0
4.085 -0.71070337 0.93576264 0
4.0780001 -0.71607512 0.93475258 0
4.0710001 -0.72142154 0.9337424 0
4.0640001 -0.7267428 0.93273234 0
4.0570002 -0.73203874 0.93172216 0
4.0500002 -0.73730946 0.93071198 0
4.0430002 -0.74255496 0.92970192 0
4.0370002 -0.7479682 0.92883611 0
4.0300002 -0.75316495 0.92782593 0
4.0230002 -0.75833648 0.92681587 0
4.0170002 -0.76368117 0.92594993 0
4.0100002 -0.76880401 0.92493987 0
4.0040002 -0.77410358 0.92407393 0
3.9980004 -0.77938157 0.92320824 0
3.9910002 -0.78443217 0.92219806 0
3.9850004 -0.78966504 0.92133224 0
3.9790003 -0.79487628 0.92046642 0
3.9730003 -0.80006582 0.91960061 0
3.9690003 -0.80565941 0.91902339 0
3.9650002 -0.81123859 0.91844606 0
3.9630003 -0.81723624 0.91815746 0
3.9610002 -0.82322669 0.91786885 0
3.9600003 -0.82942998 0.91772461 0
3.9600003 -0.83585155 0.91772461 0
3.9610002 -0.84249681 0.91786885 0
3.9630003 -0.84937114 0.91815746 0
3.9670002 -0.85670716 0.91873479 0
3.9730003 -0.8645159 0.91960061 0
4.1440001 -0.66056466 0.93752313 0
4.1360002 -0.66599053 0.93638325 0
4.1290002 -0.67155528 0.9353857 0
4.1220002 -0.67709476 0.93438816 0
4.1150002 -0.68260902 0.93339062 0
4.1080003 -0.68809801 0.93239319 0
4.1010003 -0.69356173 0.93139565 0
4.0940003 -0.69900024 0.93039811 0
4.0870004 -0.70441347 0.92940068 0
4.0799999 -0.70980138 0.92840314 0
4.073 -0.71516418 0.9274056 0
4.066 -0.7205016 0.92640817 0
4.059 -0.72581381 0.92541063 0
4.053 -0.73128837 0.92455566 0
4.046 -0.73655188 0.92355812 0
4.04 -0.74198133 0.92270303 0
4.033 -0.7471962 0.9217056 0
4.027 -0.75258052 0.92085063 0
4.0210004 -0.75794327 0.91999567 0
4.0139999 -0.7630859 0.91899812 0
4.0080004 -0.76840359 0.91814303 0
4.0009999 -0.77349752 0.91714561 0
3.9950004 -0.77877003 0.91629064 0
3.9890003 -0.78402096 0.91543555 0
3.9830003 -0.78925014 0.91458058 0
3.9770002 -0.79445773 0.9137255 0
3.9720004 -0.79985482 0.9130131 0
3.9670002 -0.80523366 0.91230047 0
3.9640002 -0.81102395 0.91187298 0
3.9620004 -0.81701982 0.91158807 0
3.9600003 -0.82300842 0.91130304 0
3.9590003 -0.82920992 0.91116059 0
3.9590003 -0.8356297 0.91116059 0
3.9600003 -0.84227312 0.91130304 0
3.9620004 -0.84914565 0.91158807 0
3.9650002 -0.85625261 0.91201556 0
3.9710002 -0.86405766 0.91287053 0
4.152 -0.64834207 0.93189526 0
4.145 -0.65397358 0.93091047 0
4.138 -0.65957981 0.92992556 0
4.131 -0.66516078 0.92894065 0
4.1240001 -0.67071652 0.92795575 0
4.1170001 -0.676247 0.92697096 0
4.1100001 -0.6817522 0.92598605 0
4.1030002 -0.68723214 0.92500114 0
4.0960002 -0.69268692 0.92401624 0
4.0900002 -0.69829309 0.92317212 0
4.0830002 -0.70369911 0.92218721 0
4.0770001 -0.70926034 0.92134309 0
4.0700002 -0.71461761 0.92035818 0
4.0630002 -0.71994966 0.91937327 0
4.0570002 -0.72544223 0.91852903 0
4.0500002 -0.73072559 0.91754425 0
4.0440001 -0.73617315 0.91670001 0
4.0380001 -0.74159896 0.91585588 0
4.0310001 -0.7468102 0.91487098 0
4.0250001 -0.75219095 0.91402686 0
4.0190001 -0.75755 0.91318262 0
4.013 -0.76288754 0.9123385 0
4.007 -0.76820332 0.91149426 0
4.0009999 -0.77349752 0.91065001 0
3.9940002 -0.77856618 0.90966511 0
3.9880002 -0.78381526 0.90882099 0
3.9820004 -0.78904271 0.90797687 0
3.9760003 -0.79424858 0.90713263 0
3.9710002 -0.7996437 0.90642917 0
3.9670002 -0.80523366 0.90586638 0
3.9640002 -0.81102395 0.90544426 0
3.9610002 -0.81680334 0.90502214 0
3.9600003 -0.82300842 0.90488148 0
3.9590003 -0.82920992 0.90474081 0
3.9590003 -0.8356297 0.90474081 0
3.9600003 -0.84227312 0.90488148 0
3.9620004 -0.84914565 0.90516293 0
3.9650002 -0.85625261 0.90558493 0
3.9700003 -0.8638286 0.9062885 0
3.9780002 -0.87211531 0.90741408 0
4.1620002 -0.63637561 0.92651641 0
4.1550002 -0.64205039 0.92554414 0
4.1480002 -0.64769995 0.92457187 0
4.1410003 -0.65332419 0.9235996 0
4.1340003 -0.65892321 0.92262733 0
4.1270003 -0.66449702 0.92165506 0
4.1210003 -0.67021322 0.92082179 0
4.1140003 -0.67573833 0.91984951 0
4.1070004 -0.68123817 0.91887724 0
4.1000004 -0.68671268 0.91790497 0
4.0940003 -0.69233698 0.91707158 0
4.0870004 -0.69776285 0.91609943 0
4.0810003 -0.70334202 0.91526604 0
4.0750003 -0.70889956 0.91443264 0
4.0680003 -0.71425325 0.91346037 0
4.0620003 -0.71976566 0.91262698 0
4.0560002 -0.7252565 0.91179371 0
4.0490003 -0.73053801 0.91082144 0
4.0430002 -0.73598373 0.90998805 0
4.0370002 -0.74140775 0.90915465 0
4.0310001 -0.7468102 0.90832138 0
4.0240002 -0.7519961 0.90734911 0
4.0180001 -0.75735343 0.90651572 0
4.0120001 -0.76268911 0.90568244 0
4.006 -0.76800311 0.90484905 0
4 -0.77329546 0.90401566 0
3.9940002 -0.77856618 0.90318227 0
3.9880002 -0.78381526 0.90234888 0
3.9820004 -0.78904271 0.9015156 0
3.9760003 -0.79424858 0.90068221 0
3.9710002 -0.7996437 0.89998776 0
3.9670002 -0.80523366 0.89943218 0
3.9640002 -0.81102395 0.89901549 0
3.9610002 -0.81680334 0.89859885 0
3.9600003 -0.82300842 0.89845991 0
3.9590003 -0.82920992 0.89832103 0
3.9590003 -0.8356297 0.89832103 0
3.9600003 -0.84227312 0.89845991 0
3.9620004 -0.84914565 0.89873773 0
3.9650002 -0.85625261 0.89915437 0
3.9700003 -0.8638286 0.89984882 0
3.9780002 -0.87211531 0.90095997 0
4.1589999 -0.63590485 0.91931915 0
4.152 -0.64157414 0.91835952 0
4.145 -0.64721835 0.91739988 0
4.1389999 -0.65299952 0.91657734 0
4.132 -0.65859491 0.9156177 0
4.125 -0.66416508 0.91465807 0
4.119 -0.66987771 0.91383564 0
4.112 -0.67539918 0.91287589 0
4.1059999 -0.68106675 0.91205347 0
4.099 -0.68653947 0.91109383 0
4.0929999 -0.69216198 0.91027129 0
4.0870004 -0.69776285 0.90944874 0
4.0799999 -0.70316339 0.90848911 0
4.0740004 -0.70871913 0.90766656 0
4.0680003 -0.71425325 0.90684402 0
4.0610003 -0.71958172 0.90588439 0
4.0550003 -0.72507071 0.90506184 0
4.0490003 -0.73053801 0.9042393 0
4.0430002 -0.73598373 0.90341675 0
4.0370002 -0.74140775 0.90259427 0
4.0300002 -0.74661714 0.90163457 0
4.0240002 -0.7519961 0.90081209 0
4.0180001 -0.75735343 0.8999896 0
4.0120001 -0.76268911 0.89916706 0
4.006 -0.76800311 0.89834446 0
4 -0.77329546 0.89752197 0
3.9940002 -0.77856618 0.89669943 0
3.9880002 -0.78381526 0.89587688 0
3.9820004 -0.78904271 0.89505434 0
3.9760003 -0.79424858 0.8942318 0
3.9710002 -0.7996437 0.89354634 0
3.9670002 -0.80523366 0.89299798 0
3.9640002 -0.81102395 0.89258671 0
3.9610002 -0.81680334 0.89217544 0
3.9600003 -0.82300842 0.8920384 0
3.9590003 -0.82920992 0.89190125 0
3.9590003 -0.8356297 0.89190125 0
3.9600003 -0.84227312 0.8920384 0
3.9620004 -0.84914565 0.89231259 0
3.9650002 -0.85625261 0.8927238 0
3.9700003 -0.8638286 0.89340925 0
3.9770002 -0.87188441 0.89436889 0
4.158 -0.63574791 0.91240335 0
4.151 -0.64141548 0.91145635 0
4.1440001 -0.64705777 0.91050935 0
4.138 -0.65283716 0.90969765 0
4.131 -0.65843081 0.90875065 0
4.125 -0.66416508 0.90793896 0
4.118 -0.66970998 0.90699196 0
4.112 -0.67539918 0.90618026 0
4.105 -0.68089539 0.90523314 0
4.099 -0.68653947 0.90442157 0
4.0929999 -0.69216198 0.90360975 0
4.086 -0.697586 0.90266275 0
4.0799999 -0.70316339 0.90185106 0
4.0740004 -0.70871913 0.90103936 0
4.0680003 -0.71425325 0.90022767 0
4.0610003 -0.71958172 0.89928067 0
4.0550003 -0.72507071 0.89846897 0
4.0490003 -0.73053801 0.89765728 0
4.0430002 -0.73598373 0.89684552 0
4.0370002 -0.74140775 0.89603376 0
4.0300002 -0.74661714 0.89508677 0
4.0240002 -0.7519961 0.89427507 0
4.0180001 -0.75735343 0.89346337 0
4.0120001 -0.76268911 0.89265168 0
4.006 -0.76800311 0.89183998 0
4 -0.77329546 0.89102823 0
3.9940002 -0.77856618 0.89021653 0
3.9880002 -0.78381526 0.88940477 0
3.9820004 -0.78904271 0.88859308 0
3.9760003 -0.79424858 0.88778138 0
3.9710002 -0.7996437 0.88710499 0
3.9670002 -0.80523366 0.88656384 0
3.9640002 -0.81102395 0.88615799 0
3.9610002 -0.81680334 0.88575208 0
3.9600003 -0.82300842 0.88561678 0
3.9590003 -0.82920992 0.88548154 0
3.9590003 -0.8356297 0.88548154 0
3.9600003 -0.84227312 0.88561678 0
3.9620004 -0.84914565 0.88588738 0
3.9650002 -0.85625261 0.88629317 0
3.9700003 -0.8638286 0.88696969 0
3.9780002 -0.87211531 0.88805193 0
4.1570001 -0.63559097 0.90549111 0
4.1500001 -0.64125675 0.90455687 0
4.1440001 -0.64705777 0.9037559 0
4.1370001 -0.65267485 0.90282154 0
4.131 -0.65843081 0.90202069 0
4.125 -0.66416508 0.90121979 0
4.118 -0.66970998 0.90028536 0
4.112 -0.67539918 0.89948452 0
4.105 -0.68089539 0.89855015 0
4.099 -0.68653947 0.89774919 0
4.0929999 -0.69216198 0.89694834 0
4.086 -0.697586 0.89601398 0
4.0799999 -0.70316339 0.89521307 0
4.0740004 -0.70871913 0.89441216 0
4.0680003 -0.71425325 0.89361131 0
4.0610003 -0.71958172 0.89267695 0
4.0550003 -0.72507071 0.89187598 0
4.0490003 -0.73053801 0.89107513 0
4.0430002 -0.73598373 0.89027423 0
4.0370002 -0.74140775 0.88947332 0
4.0300002 -0.74661714 0.88853896 0
4.0240002 -0.7519961 0.88773805 0
4.0180001 -0.75735343 0.88693726 0
4.0120001 -0.76268911 0.88613629 0
4.006 -0.76800311 0.88533545 0
4 -0.77329546 0.88453454 0
3.9940002 -0.77856618 0.88373363 0
3.9880002 -0.78381526 0.88293272 0
3.9820004 -0.78904271 0.88213187 0
3.9760003 -0.79424858 0.88133097 0
3.9710002 -0.7996437 0.88066351 0
3.9670002 -0.80523366 0.88012958 0
3.9640002 -0.81102395 0.87972921 0
3.9610002 -0.81680334 0.87932873 0
3.9600003 -0.82300842 0.87919521 0
3.9590003 -0.82920992 0.87906182 0
3.9590003 -0.8356297 0.87906182 0
3.9600003 -0.84227312 0.87919521 0
3.9620004 -0.84914565 0.87946224 0
3.9650002 -0.85625261 0.87986267 0
3.9700003 -0.8638286 0.88053012 0
3.9780002 -0.87211531 0.88159788 0
3.9850004 -0.88019818 0.8825323 0
4.1500001 -0.64125675 0.89779258 0
4.1440001 -0.64705777 0.89700246 0
4.1370001 -0.65267485 0.89608073 0
4.131 -0.65843081 0.89529061 0
4.125 -0.66416508 0.89450061 0
4.118 -0.66970998 0.89357877 0
4.112 -0.67539918 0.89278877 0
4.105 -0.68089539 0.89186704 0
4.099 -0.68653947 0.89107692 0
4.0929999 -0.69216198 0.89028692 0
4.086 -0.697586 0.88936508 0
4.0799999 -0.70316339 0.88857508 0
4.0740004 -0.70871913 0.88778502 0
4.0680003 -0.71425325 0.8869949 0
3.8380003 -0.71576118 0.856709 0
3.8330002 -0.72097963 0.85605061 0
3.8270001 -0.72598153 0.85526049 0
3.9820004 -0.78904271 0.87567067 0
3.9760003 -0.79424858 0.87488055 0
3.9710002 -0.7996437 0.87422216 0
3.9670002 -0.80523366 0.87369549 0
3.9640002 -0.81102395 0.87330037 0
3.9610002 -0.81680334 0.87290537 0
3.9600003 -0.82300842 0.87277365 0
3.9590003 -0.82920992 0.87264204 0
3.9590003 -0.8356297 0.87264204 0
3.9600003 -0.84227312 0.87277365 0
3.9620004 -0.84914565 0.8730371 0
3.9650002 -0.85625261 0.87343204 0
3.9700003 -0.8638286 0.87409049 0
3.9790003 -0.87234622 0.87527561 0
3.9840002 -0.87996548 0.875934 0
3.8790002 -0.6798203 0.85583234 0
3.8730001 -0.68499184 0.85505307 0
3.8680003 -0.69032753 0.85440373 0
3.8620002 -0.69545752 0.85362446 0
3.8560002 -0.70056593 0.85284519 0
3.8500001 -0.70565265 0.85206598 0
3.8440003 -0.7107178 0.85128677 0
3.8380003 -0.71576118 0.8505075 0
3.8330002 -0.72097963 0.84985811 0
3.8270001 -0.72598153 0.84907889 0
3.8210003 -0.73096192 0.84829962 0
3.8260002 -0.73814285 0.84894896 0
3.8330002 -0.74574953 0.84985811 0
3.9760003 -0.79424858 0.86843014 0
3.9710002 -0.7996437 0.86778075 0
3.9670002 -0.80523366 0.86726129 0
3.9640002 -0.81102395 0.8668716 0
3.9610002 -0.81680334 0.86648202 0
3.9600003 -0.82300842 0.86635214 0
3.9590003 -0.82920992 0.86622226 0
3.9590003 -0.8356297 0.86622226 0
3.9600003 -0.84227312 0.86635214 0
3.9620004 -0.84914565 0.8666119 0
3.9650002 -0.85625261 0.86700147 0
3.9700003 -0.8638286 0.86765087 0
3.9790003 -0.87234622 0.86881977 0
3.9850004 -0.88019818 0.86959898 0
3.9150002 -0.64833665 0.8541674 0
3.9090002 -0.65363806 0.85339898 0
3.9030004 -0.65891778 0.85263062 0
3.8970003 -0.66417593 0.85186219 0
3.8910003 -0.66941237 0.85109371 0
3.8850002 -0.67462713 0.85032535 0
3.8790002 -0.6798203 0.84955686 0
3.8730001 -0.68499184 0.84878844 0
3.8680003 -0.69032753 0.84814811 0
3.8620002 -0.69545752 0.84737968 0
3.8560002 -0.70056593 0.84661126 0
3.8500001 -0.70565265 0.84584284 0
3.8440003 -0.7107178 0.84507442 0
3.8380003 -0.71576118 0.84430599 0
3.8330002 -0.72097963 0.8436656 0
3.8270001 -0.72598153 0.84289718 0
3.8210003 -0.73096192 0.84212881 0
3.8260002 -0.73814285 0.84276915 0
3.8330002 -0.74574953 0.8436656 0
3.8400002 -0.75338143 0.84456211 0
3.9760003 -0.79424858 0.86197972 0
3.9710002 -0.7996437 0.86133933 0
3.9670002 -0.80523366 0.86082709 0
3.9640002 -0.81102395 0.86044288 0
3.9610002 -0.81680334 0.86005867 0
3.9600003 -0.82300842 0.85993057 0
3.9590003 -0.82920992 0.85980248 0
3.9590003 -0.8356297 0.85980248 0
3.9600003 -0.84227312 0.85993057 0
3.9620004 -0.84914565 0.86018676 0
3.9650002 -0.85625261 0.86057091 0
3.9700003 -0.8638286 0.8612113 0
3.9790003 -0.87234622 0.86236393 0
3.9850004 -0.88019818 0.86313236 0
3.9580002 -0.61077958 0.85325646 0
3.9520004 -0.6162343 0.85249889 0
3.9460003 -0.62166739 0.85174131 0
3.9400003 -0.62707877 0.85098374 0
3.9330003 -0.63230258 0.8500998 0
3.9270003 -0.63766897 0.84934223 0
3.9210002 -0.6430136 0.84858465 0
3.9150002 -0.64833665 0.84782702 0
3.9090002 -0.65363806 0.84706938 0
3.9030004 -0.65891778 0.84631181 0
3.8970003 -0.66417593 0.84555423 0
3.8910003 -0.66941237 0.84479666 0
3.8850002 -0.67462713 0.84403902 0
3.8790002 -0.6798203 0.84328139 0
3.8730001 -0.68499184 0.84252381 0
3.8680003 -0.69032753 0.84189248 0
3.8620002 -0.69545752 0.84113491 0
3.8560002 -0.70056593 0.84037733 0
3.8500001 -0.70565265 0.8396197 0
3.8440003 -0.7107178 0.83886212 0
3.8380003 -0.71576118 0.83810449 0
3.8330002 -0.72097963 0.83747315 0
3.8270001 -0.72598153 0.83671558 0
3.8210003 -0.73096192 0.835958 0
3.8260002 -0.73814285 0.83658934 0
3.8330002 -0.74574953 0.83747315 0
3.8400002 -0.75338143 0.83835703 0
3.9760003 -0.79424858 0.85552931 0
3.9710002 -0.7996437 0.85489798 0
3.9670002 -0.80523366 0.85439289 0
3.9640002 -0.81102395 0.8540141 0
3.9610002 -0.81680334 0.85363531 0
3.9600003 -0.82300842 0.85350907 0
3.9590003 -0.82920992 0.85338277 0
3.9590003 -0.8356297 0.85338277 0
3.9600003 -0.84227312 0.85350907 0
3.9620004 -0.84914565 0.85376155 0
3.9650002 -0.85625261 0.85414034 0
3.9700003 -0.8638286 0.85477167 0
3.9790003 -0.87234622 0.8559081 0
3.9860003 -0.88043088 0.85679197 0
3.9910002 -0.88807178 0.85742331 0
4.0020003 -0.57228273 0.85231489 0
3.9960003 -0.57789254 0.8515681 0
3.9890003 -0.58333105 0.85069692 0
3.9830003 -0.5888958 0.84995013 0
3.9770002 -0.59443885 0.84920335 0
3.9700003 -0.59980524 0.84833211 0
3.9640002 -0.60530323 0.84758532 0
3.9580002 -0.61077958 0.84683853 0
3.9520004 -0.6162343 0.84609175 0
3.9460003 -0.62166739 0.84534502 0
3.9400003 -0.62707877 0.84459817 0
3.9330003 -0.63230258 0.84372699 0
3.9270003 -0.63766897 0.84298015 0
3.9210002 -0.6430136 0.84223342 0
3.9150002 -0.64833665 0.84148663 0
3.9090002 -0.65363806 0.84073985 0
3.9030004 -0.65891778 0.83999312 0
3.8970003 -0.66417593 0.83924633 0
3.8910003 -0.66941237 0.83849955 0
3.8850002 -0.67462713 0.83775276 0
3.8790002 -0.6798203 0.83700597 0
3.8730001 -0.68499184 0.83625925 0
3.8680003 -0.69032753 0.83563685 0
3.8620002 -0.69545752 0.83489013 0
3.8560002 -0.70056593 0.83414334 0
3.8500001 -0.70565265 0.83339655 0
3.8440003 -0.7107178 0.83264983 0
3.8380003 -0.71576118 0.83190298 0
3.8330002 -0.72097963 0.83128071 0
3.8270001 -0.72598153 0.83053386 0
3.8210003 -0.73096192 0.82978714 0
3.8260002 -0.73814285 0.83040947 0
3.8330002 -0.74574953 0.83128071 0
3.8400002 -0.75338143 0.83215189 0
3.9760003 -0.79424858 0.84907889 0
3.9710002 -0.7996437 0.8484565 0
3.9670002 -0.80523366 0.84795868 0
3.9640002 -0.81102395 0.84758532 0
3.9610002 -0.81680334 0.84721196 0
3.9600003 -0.82300842 0.8470875 0
3.9590003 -0.82920992 0.84696305 0
3.9590003 -0.8356297 0.84696305 0
3.9600003 -0.84227312 0.8470875 0
3.9620004 -0.84914565 0.84733641 0
3.9650002 -0.85625261 0.84770977 0
3.9700003 -0.8638286 0.84833211 0
3.9790003 -0.87234622 0.84945226 0
3.9870002 -0.88066357 0.85044795 0
3.9920003 -0.88830632 0.85107028 0
4.0469999 -0.53280813 0.85133719 0
4.04 -0.53843963 0.85047865 0
4.0339999 -0.5441829 0.84974265 0
4.027 -0.54976577 0.84888405 0
4.0210004 -0.55546403 0.84814811 0
4.0150003 -0.5611406 0.84741217 0
4.0080004 -0.56665123 0.84655356 0
4.0020003 -0.57228273 0.84581757 0
3.9960003 -0.57789254 0.84508163 0
3.9890003 -0.58333105 0.84422302 0
3.9830003 -0.5888958 0.84348702 0
3.9770002 -0.59443885 0.84275115 0
3.9700003 -0.59980524 0.84189248 0
3.9640002 -0.60530323 0.84115654 0
3.9580002 -0.61077958 0.8404206 0
3.9520004 -0.6162343 0.83968467 0
3.9460003 -0.62166739 0.83894873 0
3.9400003 -0.62707877 0.83821273 0
3.9330003 -0.63230258 0.83735412 0
3.9270003 -0.63766897 0.83661819 0
3.9210002 -0.6430136 0.83588219 0
3.9150002 -0.64833665 0.83514625 0
3.9090002 -0.65363806 0.83441031 0
3.9030004 -0.65891778 0.83367431 0
3.8970003 -0.66417593 0.83293843 0
3.8910003 -0.66941237 0.83220243 0
3.8850002 -0.67462713 0.8314665 0
3.8790002 -0.6798203 0.83073056 0
3.8730001 -0.68499184 0.82999456 0
3.8680003 -0.69032753 0.82938129 0
3.8620002 -0.69545752 0.82864535 0
3.8560002 -0.70056593 0.82790935 0
3.8500001 -0.70565265 0.82717341 0
3.8440003 -0.7107178 0.82643747 0
3.8380003 -0.71576118 0.82570148 0
3.8330002 -0.72097963 0.8250882 0
3.8270001 -0.72598153 0.82435226 0
3.8210003 -0.73096192 0.82361633 0
3.8260002 -0.73814285 0.8242296 0
3.8330002 -0.74574953 0.8250882 0
3.8400002 -0.75338143 0.82594681 0
3.9760003 -0.79424858 0.84262848 0
3.9710002 -0.7996437 0.84201515 0
3.9670002 -0.80523366 0.84152454 0
3.9640002 -0.81102395 0.84115654 0
3.9610002 -0.81680334 0.8407886 0
3.9600003 -0.82300842 0.84066594 0
3.9590003 -0.82920992 0.84054327 0
3.9590003 -0.8356297 0.84054327 0
3.9600003 -0.84227312 0.84066594 0
3.9620004 -0.84914565 0.84091127 0
3.9650002 -0.85625261 0.84127915 0
3.9700003 -0.8638286 0.84189248 0
3.9790003 -0.87234622 0.84299642 0
3.9880002 -0.88089627 0.84410036 0
3.9920003 -0.88830632 0.84459102 0
4.086 -0.49812093 0.84947211 0
4.0799999 -0.50402296 0.84874696 0
4.073 -0.50977713 0.84790099 0
4.066 -0.51550603 0.84705496 0
4.0599999 -0.52133954 0.84632981 0
4.053 -0.52701974 0.8454839 0
4.0469999 -0.53280813 0.84475875 0
4.04 -0.53843963 0.84391272 0
4.0339999 -0.5441829 0.84318757 0
4.027 -0.54976577 0.84234166 0
4.0210004 -0.55546403 0.84161651 0
4.0150003 -0.5611406 0.84089136 0
4.0080004 -0.56665123 0.84004545 0
4.0020003 -0.57228273 0.8393203 0
3.9960003 -0.57789254 0.83859515 0
3.9890003 -0.58333105 0.83774912 0
3.9830003 -0.5888958 0.83702397 0
3.9770002 -0.59443885 0.83629888 0
3.9700003 -0.59980524 0.83545291 0
3.9640002 -0.60530323 0.83472776 0
3.9580002 -0.61077958 0.83400261 0
3.9520004 -0.6162343 0.83327752 0
3.9460003 -0.62166739 0.83255243 0
3.9400003 -0.62707877 0.83182728 0
3.9330003 -0.63230258 0.83098125 0
3.9270003 -0.63766897 0.8302561 0
3.9210002 -0.6430136 0.82953101 0
3.9150002 -0.64833665 0.82880586 0
3.9090002 -0.65363806 0.82808071 0
3.9030004 -0.65891778 0.82735562 0
3.8970003 -0.66417593 0.82663047 0
3.8910003 -0.66941237 0.82590532 0
3.8850002 -0.67462713 0.82518017 0
3.8790002 -0.6798203 0.82445508 0
3.8730001 -0.68499184 0.82372999 0
3.8680003 -0.69032753 0.82312572 0
3.8620002 -0.69545752 0.82240057 0
3.8560002 -0.70056593 0.82167542 0
3.8500001 -0.70565265 0.82095027 0
3.8440003 -0.7107178 0.82022518 0
3.8380003 -0.71576118 0.81950003 0
3.8330002 -0.72097963 0.8188957 0
3.8270001 -0.72598153 0.81817061 0
3.8210003 -0.73096192 0.81744552 0
3.8260002 -0.73814285 0.81804979 0
3.8330002 -0.74574953 0.8188957 0
3.8400002 -0.75338143 0.81974173 0
3.8460002 -0.76083118 0.82046688 0
3.9760003 -0.79424858 0.83617806 0
3.9710002 -0.7996437 0.83557373 0
3.9670002 -0.80523366 0.83509034 0
3.9640002 -0.81102395 0.83472776 0
3.9610002 -0.81680334 0.83436519 0
3.9600003 -0.82300842 0.83424437 0
3.9590003 -0.82920992 0.83412349 0
3.9590003 -0.8356297 0.83412349 0
3.9600003 -0.84227312 0.83424437 0
3.9620004 -0.84914565 0.83448613 0
3.9650002 -0.85625261 0.83484864 0
3.9700003 -0.8638286 0.83545291 0
3.9790003 -0.87234622 0.83654058 0
3.9890003 -0.88112891 0.83774912 0
3.9930003 -0.8885408 0.83823258 0
3.9990003 -0.89643967 0.83895767 0
4.1000004 -0.48648998 0.84448999 0
4.0929999 -0.49231806 0.84365666 0
4.086 -0.49812093 0.84282327 0
4.0799999 -0.50402296 0.84210896 0
4.073 -0.50977713 0.84127557 0
4.066 -0.51550603 0.84044224 0
4.0599999 -0.52133954 0.83972794 0
4.053 -0.52701974 0.83889461 0
4.0469999 -0.53280813 0.8381803 0
4.04 -0.53843963 0.83734691 0
4.0339999 -0.5441829 0.83663261 0
4.027 -0.54976577 0.83579922 0
4.0210004 -0.55546403 0.83508492 0
4.0150003 -0.5611406 0.83437061 0
4.0080004 -0.56665123 0.83353728 0
4.0020003 -0.57228273 0.83282292 0
3.9960003 -0.57789254 0.83210862 0
3.9890003 -0.58333105 0.83127528 0
3.9830003 -0.5888958 0.83056098 0
3.9770002 -0.59443885 0.82984668 0
3.9700003 -0.59980524 0.82901335 0
3.9640002 -0.60530323 0.82829905 0
3.9580002 -0.61077958 0.82758468 0
3.9520004 -0.6162343 0.82687044 0
3.9460003 -0.62166739 0.82615608 0
3.9400003 -0.62707877 0.82544178 0
3.9330003 -0.63230258 0.82460845 0
3.9270003 -0.63766897 0.82389414 0
3.9210002 -0.6430136 0.82317984 0
3.9150002 -0.64833665 0.82246548 0
3.9090002 -0.65363806 0.82175118 0
3.9030004 -0.65891778 0.82103688 0
3.8970003 -0.66417593 0.82032257 0
3.8910003 -0.66941237 0.81960821 0
3.8850002 -0.67462713 0.81889391 0
3.8790002 -0.6798203 0.81817961 0
3.8740003 -0.68517584 0.8175844 0
3.8680003 -0.69032753 0.81687009 0
3.8620002 -0.69545752 0.81615579 0
3.8560002 -0.70056593 0.81544149 0
3.8500001 -0.70565265 0.81472713 0
3.8440003 -0.7107178 0.81401289 0
3.8380003 -0.71576118 0.81329858 0
3.8330002 -0.72097963 0.81270325 0
3.8270001 -0.72598153 0.81198895 0
3.8210003 -0.73096192 0.81127465 0
3.8260002 -0.73814285 0.81186992 0
3.8330002 -0.74574953 0.81270325 0
3.8400002 -0.75338143 0.81353664 0
3.8460002 -0.76083118 0.81425095 0
3.9760003 -0.79424858 0.82972765 0
3.9710002 -0.7996437 0.82913232 0
3.9670002 -0.80523366 0.8286562 0
3.9640002 -0.81102395 0.82829905 0
3.9610002 -0.81680334 0.82794183 0
3.9600003 -0.82300842 0.8278228 0
3.9590003 -0.82920992 0.82770371 0
3.9590003 -0.8356297 0.82770371 0
3.9600003 -0.84227312 0.8278228 0
3.9620004 -0.84914565 0.82806087 0
3.9650002 -0.85625261 0.82841802 0
3.9700003 -0.8638286 0.82901335 0
3.9790003 -0.87234622 0.8300848 0
3.9900002 -0.8813616 0.83139431 0
3.9940002 -0.88877523 0.83187056 0
3.9990003 -0.89643967 0.83246577 0
4.1059999 -0.48051935 0.83851933 0
4.1000004 -0.48648998 0.83781588 0
4.0929999 -0.49231806 0.83699512 0
4.086 -0.49812093 0.83617443 0
4.0799999 -0.50402296 0.83547091 0
4.073 -0.50977713 0.83465022 0
4.066 -0.51550603 0.83382946 0
4.0599999 -0.52133954 0.83312595 0
4.053 -0.52701974 0.83230525 0
4.0469999 -0.53280813 0.83160174 0
4.04 -0.53843963 0.83078104 0
4.0339999 -0.5441829 0.83007753 0
4.027 -0.54976577 0.82925677 0
4.0210004 -0.55546403 0.82855332 0
4.0150003 -0.5611406 0.82784986 0
4.0080004 -0.56665123 0.82702911 0
4.0020003 -0.57228273 0.82632565 0
3.9960003 -0.57789254 0.82562214 0
3.9890003 -0.58333105 0.82480145 0
3.9830003 -0.5888958 0.82409799 0
3.9770002 -0.59443885 0.82339442 0
3.9700003 -0.59980524 0.82257372 0
3.9640002 -0.60530323 0.82187021 0
3.9580002 -0.61077958 0.82116675 0
3.9520004 -0.6162343 0.8204633 0
3.9460003 -0.62166739 0.81975979 0
3.9400003 -0.62707877 0.81905627 0
3.9330003 -0.63230258 0.81823558 0
3.9270003 -0.63766897 0.81753206 0
3.9210002 -0.6430136 0.81682861 0
3.9150002 -0.64833665 0.81612509 0
3.9090002 -0.65363806 0.81542158 0
3.9030004 -0.65891778 0.81471813 0
3.8970003 -0.66417593 0.81401467 0
3.8910003 -0.66941237 0.81331116 0
3.8850002 -0.67462713 0.81260765 0
3.8790002 -0.6798203 0.81190419 0
3.8740003 -0.68517584 0.81131792 0
3.8680003 -0.69032753 0.81061447 0
3.8620002 -0.69545752 0.80991101 0
3.8560002 -0.70056593 0.80920744 0
3.8500001 -0.70565265 0.80850399 0
3.8440003 -0.7107178 0.80780053 0
3.8380003 -0.71576118 0.80709708 0
3.8330002 -0.72097963 0.80651081 0
3.8270001 -0.72598153 0.80580729 0
3.8210003 -0.73096192 0.80510384 0
3.8260002 -0.73814285 0.80569005 0
3.8330002 -0.74574953 0.80651081 0
3.8400002 -0.75338143 0.80733156 0
3.8460002 -0.76083118 0.80803502 0
3.9760003 -0.79424858 0.82327724 0
3.9710002 -0.7996437 0.82269096 0
3.9670002 -0.80523366 0.82222199 0
3.9640002 -0.81102395 0.82187021 0
3.9610002 -0.81680334 0.82151848 0
3.9600003 -0.82300842 0.82140124 0
3.9590003 -0.82920992 0.82128406 0
3.9590003 -0.8356297 0.82128406 0
3.9600003 -0.84227312 0.82140124 0
3.9620004 -0.84914565 0.82163572 0
3.9650002 -0.85625261 0.82198751 0
3.9700003 -0.8638286 0.82257372 0
3.9790003 -0.87234622 0.8236289 0
3.9920003 -0.88182706 0.82515317 0
3.9950004 -0.88900983 0.8255049 0
3.9990003 -0.89643967 0.82597387 0
4.1059999 -0.48051935 0.83183444 0
4.1000004 -0.48648998 0.83114183 0
4.0929999 -0.49231806 0.83033371 0
4.086 -0.49812093 0.82952559 0
4.0799999 -0.50402296 0.82883292 0
4.073 -0.50977713 0.8280248 0
4.066 -0.51550603 0.82721674 0
4.0599999 -0.52133954 0.82652402 0
4.053 -0.52701974 0.8257159 0
4.0469999 -0.53280813 0.82502329 0
4.04 -0.53843963 0.82421517 0
4.0339999 -0.5441829 0.82352251 0
4.027 -0.54976577 0.82271439 0
4.0210004 -0.55546403 0.82202172 0
4.0150003 -0.5611406 0.82132912 0
4.0080004 -0.56665123 0.820521 0
4.0020003 -0.57228273 0.81982833 0
3.9960003 -0.57789254 0.81913567 0
3.9890003 -0.58333105 0.81832755 0
3.9830003 -0.5888958 0.81763488 0
3.9770002 -0.59443885 0.81694221 0
3.9700003 -0.59980524 0.8161341 0
3.9640002 -0.60530323 0.81544149 0
3.9580002 -0.61077958 0.81474876 0
3.9520004 -0.6162343 0.81405616 0
3.9460003 -0.62166739 0.81336349 0
3.9400003 -0.62707877 0.81267083 0
3.9330003 -0.63230258 0.81186271 0
3.9270003 -0.63766897 0.81117004 0
3.9210002 -0.6430136 0.81047738 0
3.9150002 -0.64833665 0.80978471 0
3.9090002 -0.65363806 0.80909204 0
3.9030004 -0.65891778 0.80839944 0
3.8970003 -0.66417593 0.80770671 0
3.8910003 -0.66941237 0.80701411 0
3.8850002 -0.67462713 0.80632138 0
3.8790002 -0.6798203 0.80562872 0
3.8740003 -0.68517584 0.80505157 0
3.8680003 -0.69032753 0.80435884 0
3.8620002 -0.69545752 0.80366623 0
3.8560002 -0.70056593 0.80297351 0
3.8500001 -0.70565265 0.8022809 0
3.8440003 -0.7107178 0.80158818 0
3.8380003 -0.71576118 0.80089557 0
3.8330002 -0.72097963 0.80031836 0
3.8270001 -0.72598153 0.79962564 0
3.8210003 -0.73096192 0.79893303 0
3.8260002 -0.73814285 0.79951024 0
3.8330002 -0.74574953 0.80031836 0
3.8400002 -0.75338143 0.80112642 0
3.8460002 -0.76083118 0.80181909 0
3.9760003 -0.79424858 0.81682682 0
3.9710002 -0.7996437 0.81624955 0
3.9670002 -0.80523366 0.81578779 0
3.9640002 -0.81102395 0.81544149 0
3.9610002 -0.81680334 0.81509513 0
3.9600003 -0.82300842 0.81497967 0
3.9590003 -0.82920992 0.81486428 0
3.9590003 -0.8356297 0.81486428 0
3.9600003 -0.84227312 0.81497967 0
3.9620004 -0.84914565 0.81521058 0
3.9650002 -0.85625261 0.81555688 0
3.9700003 -0.8638286 0.8161341 0
3.9790003 -0.87234622 0.81717312 0
3.9930003 -0.88205969 0.81878936 0
3.9960003 -0.88924426 0.81913567 0
4 -0.89667594 0.81959742 0
4.006 -0.9045983 0.82029009 0
4.1129999 -0.47464254 0.82594502 0
4.1059999 -0.48051935 0.82514954 0
4.1000004 -0.48648998 0.82446772 0
4.0929999 -0.49231806 0.82367224 0
4.086 -0.49812093 0.82287675 0
4.0799999 -0.50402296 0.82219493 0
4.073 -0.50977713 0.82139945 0
4.066 -0.51550603 0.82060397 0
4.0599999 -0.52133954 0.81992209 0
4.053 -0.52701974 0.81912661 0
4.0469999 -0.53280813 0.81844479 0
4.04 -0.53843963 0.8176493 0
4.0339999 -0.5441829 0.81696749 0
4.027 -0.54976577 0.816172 0
4.0210004 -0.55546403 0.81549013 0
4.0150003 -0.5611406 0.81480831 0
4.0080004 -0.56665123 0.81401289 0
4.0020003 -0.57228273 0.81333101 0
3.9960003 -0.57789254 0.81264919 0
3.9890003 -0.58333105 0.81185365 0
3.9830003 -0.5888958 0.81117183 0
3.9770002 -0.59443885 0.81049001 0
3.9700003 -0.59980524 0.80969453 0
3.9640002 -0.60530323 0.80901265 0
3.9580002 -0.61077958 0.80833083 0
3.9520004 -0.6162343 0.80764902 0
3.9460003 -0.62166739 0.80696714 0
3.9400003 -0.62707877 0.80628538 0
3.9330003 -0.63230258 0.80548984 0
3.9270003 -0.63766897 0.80480802 0
3.9210002 -0.6430136 0.80412614 0
3.9150002 -0.64833665 0.80344433 0
3.9090002 -0.65363806 0.80276251 0
3.9030004 -0.65891778 0.80208063 0
3.8970003 -0.66417593 0.80139881 0
3.8910003 -0.66941237 0.800717 0
3.8850002 -0.67462713 0.80003512 0
3.8790002 -0.6798203 0.79935324 0
3.8740003 -0.68517584 0.79878509 0
3.8680003 -0.69032753 0.79810321 0
3.8620002 -0.69545752 0.7974214 0
3.8560002 -0.70056593 0.79673958 0
3.8500001 -0.70565265 0.7960577 0
3.8440003 -0.7107178 0.79537594 0
3.8380003 -0.71576118 0.79469407 0
3.8330002 -0.72097963 0.79412585 0
3.8270001 -0.72598153 0.79344404 0
3.8210003 -0.73096192 0.79276216 0
3.8260002 -0.73814285 0.79333037 0
3.8330002 -0.74574953 0.79412585 0
3.8400002 -0.75338143 0.79492128 0
3.8460002 -0.76083118 0.79560316 0
3.9760003 -0.79424858 0.81037641 0
3.9710002 -0.7996437 0.80980814 0
3.9670002 -0.80523366 0.80935359 0
3.9640002 -0.81102395 0.80901265 0
3.9610002 -0.81680334 0.80867171 0
3.9600003 -0.82300842 0.80855811 0
3.9590003 -0.82920992 0.8084445 0
3.9590003 -0.8356297 0.8084445 0
3.9600003 -0.84227312 0.80855811 0
3.9620004 -0.84914565 0.80878544 0
3.9650002 -0.85625261 0.80912632 0
3.9700003 -0.8638286 0.80969453 0
3.9790003 -0.87234622 0.81071734 0
3.9950004 -0.88252509 0.81253552 0
3.9970002 -0.88947874 0.8127628 0
4.0009999 -0.89691228 0.81321734 0
4.006 -0.9045983 0.81378555 0
4.1129999 -0.47464254 0.81924748 0
4.1059999 -0.48051935 0.81846464 0
4.1000004 -0.48648998 0.81779361 0
4.0929999 -0.49231806 0.81701076 0
4.086 -0.49812093 0.81622791 0
4.0799999 -0.50402296 0.81555688 0
4.073 -0.50977713 0.81477404 0
4.066 -0.51550603 0.81399119 0
4.0599999 -0.52133954 0.81332016 0
4.053 -0.52701974 0.81253731 0
4.0469999 -0.53280813 0.81186628 0
4.04 -0.53843963 0.81108344 0
4.0339999 -0.5441829 0.81041241 0
4.027 -0.54976577 0.80962956 0
4.0210004 -0.55546403 0.80895859 0
4.0150003 -0.5611406 0.80828756 0
4.0080004 -0.56665123 0.80750471 0
4.0020003 -0.57228273 0.80683374 0
3.9960003 -0.57789254 0.80616266 0
3.9890003 -0.58333105 0.80537987 0
3.9830003 -0.5888958 0.80470884 0
3.9770002 -0.59443885 0.80403781 0
3.9700003 -0.59980524 0.80325496 0
3.9640002 -0.60530323 0.80258393 0
3.9580002 -0.61077958 0.8019129 0
3.9520004 -0.6162343 0.80124187 0
3.9460003 -0.62166739 0.80057085 0
3.9400003 -0.62707877 0.79989982 0
3.9330003 -0.63230258 0.79911697 0
3.9270003 -0.63766897 0.79844594 0
3.9210002 -0.6430136 0.79777491 0
3.9150002 -0.64833665 0.79710394 0
3.9090002 -0.65363806 0.79643291 0
3.9030004 -0.65891778 0.79576194 0
3.8970003 -0.66417593 0.79509091 0
3.8910003 -0.66941237 0.79441988 0
3.8850002 -0.67462713 0.79374886 0
3.8790002 -0.6798203 0.79307783 0
3.8740003 -0.68517584 0.79251868 0
3.8680003 -0.69032753 0.79184765 0
3.8620002 -0.69545752 0.79117668 0
3.8560002 -0.70056593 0.79050559 0
3.8500001 -0.70565265 0.78983462 0
3.8440003 -0.7107178 0.78916359 0
3.8380003 -0.71576118 0.78849256 0
3.8330002 -0.72097963 0.78793335 0
3.8270001 -0.72598153 0.78726232 0
3.8210003 -0.73096192 0.78659141 0
3.8260002 -0.73814285 0.7871505 0
3.8330002 -0.74574953 0.78793335 0
3.8400002 -0.75338143 0.7887162 0
3.8460002 -0.76083118 0.78938723 0
3.9760003 -0.79424858 0.80392593 0
3.9710002 -0.7996437 0.80336678 0
3.9670002 -0.80523366 0.80291939 0
3.9640002 -0.81102395 0.80258393 0
3.9610002 -0.81680334 0.80224842 0
3.9600003 -0.82300842 0.80213654 0
3.9590003 -0.82920992 0.80202472 0
3.9590003 -0.8356297 0.80202472 0
3.9600003 -0.84227312 0.80213654 0
3.9620004 -0.84914565 0.8023603 0
3.9650002 -0.85625261 0.80269575 0
3.9700003 -0.8638286 0.80325496 0
3.9790003 -0.87234622 0.80426145 0
3.9970002 -0.88299042 0.80627453 0
3.9990003 -0.88994777 0.80649817 0
4.0020003 -0.89714855 0.80683374 0
4.007 -0.90483642 0.80739284 0
4.0139999 -0.91302204 0.80817568 0
4.1129999 -0.47464254 0.81254995 0
4.1059999 -0.48051935 0.81177974 0
4.1000004 -0.48648998 0.81111956 0
4.0929999 -0.49231806 0.81034935 0
4.086 -0.49812093 0.80957907 0
4.0799999 -0.50402296 0.80891889 0
4.073 -0.50977713 0.80814862 0
4.066 -0.51550603 0.80737841 0
4.0599999 -0.52133954 0.80671823 0
4.053 -0.52701974 0.80594802 0
4.0469999 -0.53280813 0.80528784 0
4.04 -0.53843963 0.80451763 0
4.0339999 -0.5441829 0.80385745 0
4.027 -0.54976577 0.80308717 0
4.0210004 -0.55546403 0.80242699 0
4.0150003 -0.5611406 0.80176675 0
4.0080004 -0.56665123 0.80099654 0
4.0020003 -0.57228273 0.80033636 0
3.9960003 -0.57789254 0.79967618 0
3.9890003 -0.58333105 0.79890597 0
3.9830003 -0.5888958 0.79824579 0
3.9770002 -0.59443885 0.79758555 0
3.9700003 -0.59980524 0.79681534 0
3.9640002 -0.60530323 0.7961551 0
3.9580002 -0.61077958 0.79549491 0
3.9520004 -0.6162343 0.79483473 0
3.9460003 -0.62166739 0.79417455 0
3.9400003 -0.62707877 0.79351437 0
3.9330003 -0.63230258 0.79274416 0
3.9270003 -0.63766897 0.79208398 0
3.9210002 -0.6430136 0.79142374 0
3.9150002 -0.64833665 0.79076356 0
3.9090002 -0.65363806 0.79010338 0
3.9030004 -0.65891778 0.78944314 0
3.8970003 -0.66417593 0.78878295 0
3.8910003 -0.66941237 0.78812277 0
3.8850002 -0.67462713 0.78746259 0
3.8790002 -0.6798203 0.78680241 0
3.8740003 -0.68517584 0.78625226 0
3.8680003 -0.69032753 0.78559202 0
3.8620002 -0.69545752 0.78493184 0
3.8560002 -0.70056593 0.78427166 0
3.8500001 -0.70565265 0.78361142 0
3.8440003 -0.7107178 0.78295124 0
3.8380003 -0.71576118 0.78229105 0
3.8330002 -0.72097963 0.7817409 0
3.8270001 -0.72598153 0.78108072 0
3.8210003 -0.73096192 0.78042054 0
3.8260002 -0.73814285 0.78097069 0
3.8330002 -0.74574953 0.7817409 0
3.8400002 -0.75338143 0.78251112 0
3.8460002 -0.76083118 0.7831713 0
3.9760003 -0.79424858 0.79747558 0
3.9710002 -0.7996437 0.79692537 0
3.9670002 -0.80523366 0.79648519 0
3.9640002 -0.81102395 0.7961551 0
3.9610002 -0.81680334 0.795825 0
3.9600003 -0.82300842 0.79571497 0
3.9590003 -0.82920992 0.79560494 0
3.9590003 -0.8356297 0.79560494 0
3.9600003 -0.84227312 0.79571497 0
3.9620004 -0.84914565 0.79593503 0
3.9650002 -0.85625261 0.79626513 0
3.9700003 -0.8638286 0.79681534 0
3.9790003 -0.87234622 0.79780567 0
3.9980004 -0.88322318 0.79989624 0
4 -0.89018226 0.8001163 0
4.0030003 -0.89738482 0.80044639 0
4.007 -0.90483642 0.80088651 0
4.013 -0.91278219 0.80154669 0
4.1129999 -0.47464254 0.80585241 0
4.1059999 -0.48051935 0.80509484 0
4.1000004 -0.48648998 0.80444545 0
4.0929999 -0.49231806 0.80368781 0
4.086 -0.49812093 0.80293024 0
4.0799999 -0.50402296 0.8022809 0
4.073 -0.50977713 0.80152327 0
4.066 -0.51550603 0.80076563 0
4.0599999 -0.52133954 0.8001163 0
4.053 -0.52701974 0.79935873 0
4.0469999 -0.53280813 0.79870933 0
4.04 -0.53843963 0.7979517 0
4.0339999 -0.5441829 0.79730237 0
4.027 -0.54976577 0.79654479 0
4.0210004 -0.55546403 0.7958954 0
4.0150003 -0.5611406 0.79524601 0
4.0080004 -0.56665123 0.79448843 0
4.0020003 -0.57228273 0.79383904 0
3.9960003 -0.57789254 0.79318964 0
3.9890003 -0.58333105 0.79243207 0
3.9830003 -0.5888958 0.79178274 0
3.9770002 -0.59443885 0.79113334 0
3.9700003 -0.59980524 0.79037571 0
3.9640002 -0.60530323 0.78972638 0
3.9580002 -0.61077958 0.78907698 0
3.9520004 -0.6162343 0.78842759 0
3.9460003 -0.62166739 0.78777826 0
3.9400003 -0.62707877 0.78712893 0
3.9330003 -0.63230258 0.78637129 0
3.9270003 -0.63766897 0.7857219 0
3.9210002 -0.6430136 0.78507257 0
3.9150002 -0.64833665 0.78442317 0
3.9090002 -0.65363806 0.78377378 0
3.9030004 -0.65891778 0.78312445 0
3.8970003 -0.66417593 0.78247505 0
3.8910003 -0.66941237 0.78182566 0
3.8850002 -0.67462713 0.78117633 0
3.8790002 -0.6798203 0.78052694 0
3.8740003 -0.68517584 0.77998579 0
3.8680003 -0.69032753 0.77933645 0
3.8620002 -0.69545752 0.778687 0
3.8560002 -0.70056593 0.77803767 0
3.8500001 -0.70565265 0.77738833 0
3.8440003 -0.7107178 0.77673894 0
3.8380003 -0.71576118 0.77608955 0
3.8330002 -0.72097963 0.77554846 0
3.8270001 -0.72598153 0.77489901 0
3.8210003 -0.73096192 0.77424967 0
3.8260002 -0.73814285 0.77479088 0
3.8330002 -0.74574953 0.77554846 0
3.8400002 -0.75338143 0.77630603 0
3.8460002 -0.76083118 0.77695537 0
3.9760003 -0.79424858 0.7910251 0
3.9710002 -0.7996437 0.79048395 0
3.9670002 -0.80523366 0.79005104 0
3.9640002 -0.81102395 0.78972638 0
3.9610002 -0.81680334 0.78940165 0
3.9600003 -0.82300842 0.78929341 0
3.9590003 -0.82920992 0.78918523 0
3.9590003 -0.8356297 0.78918523 0
3.9600003 -0.84227312 0.78929341 0
3.9620004 -0.84914565 0.78950989 0
3.9650002 -0.85625261 0.78983462 0
3.9700003 -0.8638286 0.79037571 0
3.9790003 -0.87234622 0.79134977 0
4.0009999 -0.88392127 0.7937308 0
4.0020003 -0.89065129 0.79383904 0
4.0040002 -0.89762115 0.79405546 0
4.0080004 -0.90507454 0.79448843 0
4.013 -0.91278219 0.79502958 0
4.1129999 -0.47464254 0.79915488 0
4.1059999 -0.48051935 0.79840988 0
4.1000004 -0.48648998 0.79777133 0
4.0929999 -0.49231806 0.7970264 0
4.086 -0.49812093 0.7962814 0
4.0799999 -0.50402296 0.79564285 0
4.073 -0.50977713 0.79489785 0
4.066 -0.51550603 0.79415292 0
4.0599999 -0.52133954 0.79351437 0
4.053 -0.52701974 0.79276937 0
4.0469999 -0.53280813 0.79213083 0
4.04 -0.53843963 0.79138589 0
4.0339999 -0.5441829 0.79074728 0
4.027 -0.54976577 0.79000235 0
4.0210004 -0.55546403 0.78936386 0
4.0150003 -0.5611406 0.78872526 0
4.0080004 -0.56665123 0.78798032 0
4.0020003 -0.57228273 0.78734171 0
3.9960003 -0.57789254 0.78670323 0
3.9890003 -0.58333105 0.78595817 0
3.9830003 -0.5888958 0.78531969 0
3.9770002 -0.59443885 0.78468108 0
3.9700003 -0.59980524 0.78393614 0
3.9640002 -0.60530323 0.78329754 0
3.9580002 -0.61077958 0.78265905 0
3.9520004 -0.6162343 0.78202051 0
3.9460003 -0.62166739 0.78138196 0
3.9400003 -0.62707877 0.78074342 0
3.9330003 -0.63230258 0.77999842 0
3.9270003 -0.63766897 0.77935994 0
3.9210002 -0.6430136 0.77872133 0
3.9150002 -0.64833665 0.77808279 0
3.9090002 -0.65363806 0.77744424 0
3.9030004 -0.65891778 0.7768057 0
3.8970003 -0.66417593 0.77616715 0
3.8910003 -0.66941237 0.77552855 0
3.8850002 -0.67462713 0.77489007 0
3.8790002 -0.6798203 0.77425146 0
3.8740003 -0.68517584 0.77371943 0
3.8680003 -0.69032753 0.77308083 0
3.8620002 -0.69545752 0.77244228 0
3.8560002 -0.70056593 0.77180374 0
3.8500001 -0.70565265 0.77116513 0
3.8440003 -0.7107178 0.77052665 0
3.8380003 -0.71576118 0.76988804 0
3.8330002 -0.72097963 0.76935595 0
3.8270001 -0.72598153 0.76871741 0
3.8210003 -0.73096192 0.76807892 0
3.8260002 -0.73814285 0.76861095 0
3.8330002 -0.74574953 0.76935595 0
3.8400002 -0.75338143 0.77010095 0
3.8460002 -0.76083118 0.7707395 0
3.9760003 -0.79424858 0.78457469 0
3.9710002 -0.7996437 0.7840426 0
3.9670002 -0.80523366 0.78361684 0
3.9640002 -0.81102395 0.78329754 0
3.9610002 -0.81680334 0.7829783 0
3.9600003 -0.82300842 0.7828719 0
3.9590003 -0.82920992 0.78276551 0
3.9590003 -0.8356297 0.78276551 0
3.9600003 -0.84227312 0.7828719 0
3.9620004 -0.84914565 0.78308475 0
3.9650002 -0.85625261 0.78340399 0
3.9700003 -0.8638286 0.78393614 0
3.9790003 -0.87234622 0.78489399 0
4.0030003 -0.8843866 0.78744817 0
4.0040002 -0.89112025 0.78755456 0
4.006 -0.89809376 0.78776741 0
4.0090003 -0.9053126 0.78808671 0
4.0139999 -0.91302204 0.7886188 0
4.0210004 -0.92123306 0.78936386 0
4.1129999 -0.47464254 0.79245734 0
4.1059999 -0.48051935 0.79172492 0
4.1000004 -0.48648998 0.79109728 0
4.0929999 -0.49231806 0.79036486 0
4.086 -0.49812093 0.78963256 0
4.0799999 -0.50402296 0.7890048 0
4.073 -0.50977713 0.7882725 0
4.066 -0.51550603 0.78754014 0
4.0599999 -0.52133954 0.78691244 0
4.053 -0.52701974 0.78618008 0
4.0469999 -0.53280813 0.78555238 0
4.04 -0.53843963 0.78482002 0
4.0339999 -0.5441829 0.78419226 0
4.027 -0.54976577 0.7834599 0
4.0210004 -0.55546403 0.78283226 0
4.0150003 -0.5611406 0.78220451 0
4.0080004 -0.56665123 0.78147221 0
4.0020003 -0.57228273 0.78084445 0
3.9960003 -0.57789254 0.78021669 0
3.9890003 -0.58333105 0.77948439 0
3.9830003 -0.5888958 0.77885664 0
3.9770002 -0.59443885 0.77822888 0
3.9700003 -0.59980524 0.77749658 0
3.9640002 -0.60530323 0.77686882 0
3.9580002 -0.61077958 0.77624106 0
3.9520004 -0.6162343 0.77561343 0
3.9460003 -0.62166739 0.77498567 0
3.9400003 -0.62707877 0.77435791 0
3.9330003 -0.63230258 0.77362561 0
3.9270003 -0.63766897 0.77299786 0
3.9210002 -0.6430136 0.7723701 0
3.9150002 -0.64833665 0.7717424 0
3.9090002 -0.65363806 0.77111465 0
3.9030004 -0.65891778 0.77048695 0
3.8970003 -0.66417593 0.76985925 0
3.8910003 -0.66941237 0.7692315 0
3.8850002 -0.67462713 0.7686038 0
3.8790002 -0.6798203 0.76797605 0
3.8740003 -0.68517584 0.76745296 0
3.8680003 -0.69032753 0.7668252 0
3.8620002 -0.69545752 0.76619744 0
3.8560002 -0.70056593 0.76556975 0
3.8500001 -0.70565265 0.76494205 0
3.8440003 -0.7107178 0.76431429 0
3.8380003 -0.71576118 0.7636866 0
3.8330002 -0.72097963 0.76316345 0
3.8270001 -0.72598153 0.76253575 0
3.8210003 -0.73096192 0.76190805 0
3.8260002 -0.73814285 0.76243114 0
3.8330002 -0.74574953 0.76316345 0
3.8400002 -0.75338143 0.76389581 0
3.8460002 -0.76083118 0.76452357 0
3.9760003 -0.79424858 0.77812433 0
3.9710002 -0.7996437 0.77760118 0
3.9670002 -0.80523366 0.7771827 0
3.9640002 -0.81102395 0.77686882 0
3.9610002 -0.81680334 0.77655494 0
3.9600003 -0.82300842 0.77645034 0
3.9590003 -0.82920992 0.77634573 0
3.9590003 -0.8356297 0.77634573 0
3.9600003 -0.84227312 0.77645034 0
3.9620004 -0.84914565 0.77665961 0
3.9650002 -0.85625261 0.77697343 0
3.9700003 -0.8638286 0.77749658 0
3.9790003 -0.87234622 0.77843815 0
4.0050001 -0.88485205 0.78115827 0
4.006 -0.89158922 0.78126287 0
4.0080004 -0.89856637 0.78147221 0
4.0100002 -0.90555072 0.78168136 0
4.0139999 -0.91302204 0.78209984 0
4.02 -0.9209913 0.7827276 0
4.1129999 -0.47464254 0.78575981 0
4.1059999 -0.48051935 0.78504002 0
4.1000004 -0.48648998 0.78442317 0
4.0929999 -0.49231806 0.78370345 0
4.086 -0.49812093 0.78298372 0
4.0799999 -0.50402296 0.78236687 0
4.073 -0.50977713 0.78164709 0
4.066 -0.51550603 0.78092742 0
4.0599999 -0.52133954 0.78031051 0
4.053 -0.52701974 0.77959073 0
4.0469999 -0.53280813 0.77897382 0
4.04 -0.53843963 0.77825415 0
4.0339999 -0.5441829 0.77763724 0
4.027 -0.54976577 0.77691752 0
4.0210004 -0.55546403 0.77630067 0
4.0150003 -0.5611406 0.77568376 0
4.0080004 -0.56665123 0.77496403 0
4.0020003 -0.57228273 0.77434707 0
3.9960003 -0.57789254 0.77373022 0
3.9890003 -0.58333105 0.77301049 0
3.9830003 -0.5888958 0.77239358 0
3.9770002 -0.59443885 0.77177668 0
3.9700003 -0.59980524 0.77105695 0
3.9640002 -0.60530323 0.77044004 0
3.9580002 -0.61077958 0.76982313 0
3.9520004 -0.6162343 0.76920629 0
3.9460003 -0.62166739 0.76858938 0
3.9400003 -0.62707877 0.76797247 0
3.9330003 -0.63230258 0.76725268 0
3.9270003 -0.63766897 0.76663584 0
3.9210002 -0.6430136 0.76601887 0
3.9150002 -0.64833665 0.76540202 0
3.9090002 -0.65363806 0.76478505 0
3.9030004 -0.65891778 0.76416826 0
3.8970003 -0.66417593 0.76355129 0
3.8910003 -0.66941237 0.76293445 0
3.8850002 -0.67462713 0.76231748 0
3.8790002 -0.6798203 0.76170063 0
3.8740003 -0.68517584 0.76118648 0
3.8680003 -0.69032753 0.76056957 0
3.8620002 -0.69545752 0.75995272 0
3.8560002 -0.70056593 0.75933576 0
3.8500001 -0.70565265 0.75871891 0
3.8440003 -0.7107178 0.758102 0
3.8380003 -0.71576118 0.75748515 0
3.8330002 -0.72097963 0.756971 0
3.8270001 -0.72598153 0.75635409 0
3.8210003 -0.73096192 0.75573719 0
3.8260002 -0.73814285 0.75625134 0
3.8330002 -0.74574953 0.756971 0
3.8400002 -0.75338143 0.75769073 0
3.8460002 -0.76083118 0.75830764 0
3.9760003 -0.79424858 0.77167386 0
3.9710002 -0.7996437 0.77115977 0
3.9670002 -0.80523366 0.7707485 0
3.9640002 -0.81102395 0.77044004 0
3.9610002 -0.81680334 0.77013159 0
3.9600003 -0.82300842 0.77002883 0
3.9590003 -0.82920992 0.76992595 0
3.9590003 -0.8356297 0.76992595 0
3.9600003 -0.84227312 0.77002883 0
3.9620004 -0.84914565 0.77023441 0
3.9650002 -0.85625261 0.77054286 0
3.9700003 -0.8638286 0.77105695 0
3.9790003 -0.87234622 0.77198231 0
4.007 -0.88531739 0.77486116 0
4.0080004 -0.89205825 0.77496403 0
4.0090003 -0.89880264 0.77506685 0
4.0120001 -0.9060269 0.77537525 0
4.0150003 -0.91326201 0.77568376 0
4.0210004 -0.92123306 0.77630067 0
4.1129999 -0.47464254 0.77906227 0
4.1059999 -0.48051935 0.77835512 0
4.1000004 -0.48648998 0.77774906 0
4.0929999 -0.49231806 0.77704197 0
4.086 -0.49812093 0.77633488 0
4.0799999 -0.50402296 0.77572882 0
4.073 -0.50977713 0.77502167 0
4.066 -0.51550603 0.77431464 0
4.0599999 -0.52133954 0.77370858 0
4.053 -0.52701974 0.77300143 0
4.0469999 -0.53280813 0.77239537 0
4.04 -0.53843963 0.77168828 0
4.0339999 -0.5441829 0.77108216 0
4.027 -0.54976577 0.77037513 0
4.0210004 -0.55546403 0.76976907 0
4.0150003 -0.5611406 0.76916295 0
4.0080004 -0.56665123 0.76845586 0
4.0020003 -0.57228273 0.7678498 0
3.9960003 -0.57789254 0.76724368 0
3.9890003 -0.58333105 0.76653659 0
3.9830003 -0.5888958 0.76593053 0
3.9770002 -0.59443885 0.76532447 0
3.9700003 -0.59980524 0.76461732 0
3.9640002 -0.60530323 0.76401126 0
3.9580002 -0.61077958 0.7634052 0
3.9520004 -0.6162343 0.76279914 0
3.9460003 -0.62166739 0.76219308 0
3.9400003 -0.62707877 0.76158696 0
3.9330003 -0.63230258 0.76087987 0
3.9270003 -0.63766897 0.76027381 0
3.9210002 -0.6430136 0.75966769 0
3.9150002 -0.64833665 0.75906163 0
3.9090002 -0.65363806 0.75845551 0
3.9030004 -0.65891778 0.75784945 0
3.8970003 -0.66417593 0.75724339 0
3.8910003 -0.66941237 0.75663733 0
3.8850002 -0.67462713 0.75603122 0
3.8790002 -0.6798203 0.75542516 0
3.8740003 -0.68517584 0.75492007 0
3.8680003 -0.69032753 0.75431401 0
3.8620002 -0.69545752 0.75370789 0
3.8560002 -0.70056593 0.75310183 0
3.8500001 -0.70565265 0.75249577 0
3.8440003 -0.7107178 0.75188971 0
3.8380003 -0.71576118 0.75128365 0
3.8330002 -0.72097963 0.75077856 0
3.8270001 -0.72598153 0.75017244 0
3.8210003 -0.73096192 0.74956644 0
3.8260002 -0.73814285 0.75007141 0
3.8330002 -0.74574953 0.75077856 0
3.8400002 -0.75338143 0.75148559 0
3.8460002 -0.76083118 0.75209171 0
3.9760003 -0.79424858 0.76522344 0
3.9710002 -0.7996437 0.76471841 0
3.9670002 -0.80523366 0.76431429 0
3.9640002 -0.81102395 0.76401126 0
3.9610002 -0.81680334 0.76370823 0
3.9600003 -0.82300842 0.76360726 0
3.9590003 -0.82920992 0.76350623 0
3.9590003 -0.8356297 0.76350623 0
3.9600003 -0.84227312 0.76360726 0
3.9620004 -0.84914565 0.76380926 0
3.9650002 -0.85625261 0.76411223 0
3.9700003 -0.8638286 0.76461732 0
3.9790003 -0.87234622 0.76552647 0
4.0090003 -0.88578278 0.76855683 0
4.0100002 -0.89252722 0.76865786 0
4.0110002 -0.89927524 0.76875889 0
4.013 -0.90626502 0.76896095 0
4.0160003 -0.91350186 0.76926398 0
4.0210004 -0.92123306 0.76976907 0
4.0280004 -0.92946923 0.7704761 0
4.1129999 -0.47464254 0.77236468 0
4.1059999 -0.48051935 0.77167022 0
4.1000004 -0.48648998 0.77107501 0
4.0929999 -0.49231806 0.7703805 0
4.086 -0.49812093 0.7696861 0
4.0799999 -0.50402296 0.76909077 0
4.073 -0.50977713 0.76839632 0
4.066 -0.51550603 0.76770186 0
4.0599999 -0.52133954 0.76710659 0
4.053 -0.52701974 0.76641214 0
4.0469999 -0.53280813 0.76581693 0
4.04 -0.53843963 0.76512241 0
4.0339999 -0.5441829 0.7645272 0
4.027 -0.54976577 0.76383269 0
4.0210004 -0.55546403 0.76323748 0
4.0150003 -0.5611406 0.7626422 0
4.0080004 -0.56665123 0.76194775 0
4.0020003 -0.57228273 0.76135248 0
3.9960003 -0.57789254 0.76075721 0
3.9890003 -0.58333105 0.76006275 0
3.9830003 -0.5888958 0.75946748 0
3.9770002 -0.59443885 0.75887221 0
3.9700003 -0.59980524 0.75817776 0
3.9640002 -0.60530323 0.75758249 0
3.9580002 -0.61077958 0.75698721 0
3.9520004 -0.6162343 0.756392 0
3.9460003 -0.62166739 0.75579673 0
3.9400003 -0.62707877 0.75520146 0
3.9330003 -0.63230258 0.75450706 0
3.9270003 -0.63766897 0.75391173 0
3.9210002 -0.6430136 0.75331652 0
3.9150002 -0.64833665 0.75272125 0
3.9090002 -0.65363806 0.75212598 0
3.9030004 -0.65891778 0.75153077 0
3.8970003 -0.66417593 0.75093544 0
3.8910003 -0.66941237 0.75034022 0
3.8850002 -0.67462713 0.74974495 0
3.8790002 -0.6798203 0.74914968 0
3.8740003 -0.68517584 0.74865365 0
3.8680003 -0.69032753 0.74805838 0
3.8620002 -0.69545752 0.74746311 0
3.8560002 -0.70056593 0.7468679 0
