# .PCD v0.7 - Point Cloud Data file format
VERSION 0.7
FIELDS x y z intensity
SIZE 4 4 4 4
TYPE F F F F
COUNT 1 1 1 1
WIDTH 1459
HEIGHT 1
VIEWPOINT 0 0 0 1 0 0 0
POINTS 1459
DATA ascii
5.0900002 -2.3301623 2.282089 0
5.0830002 -2.3352003 2.2792859 0
5.0770001 -2.3407037 2.2768834 0
5.0700002 -2.3456931 2.27408 0
5.0640001 -2.3511515 2.2716773 0
5.0580001 -2.3565879 2.2692747 0
5.0510001 -2.3615053 2.2664716 0
5.0450006 -2.3668971 2.2640691 0
5.0390005 -2.372267 2.2616663 0
5.0330005 -2.3776152 2.2592638 0
5.0260005 -2.382437 2.2564604 0
5.0200005 -2.3877399 2.2540581 0
5.0140004 -2.3930216 2.2516553 0
5.0080004 -2.3982813 2.2492526 0
5.0020003 -2.4035196 2.2468498 0
4.9950004 -2.4082222 2.2440467 0
4.9890003 -2.4134154 2.2416441 0
4.9830003 -2.4185867 2.2392414 0
4.9770002 -2.4237366 2.2368388 0
4.9710002 -2.428865 2.234436 0
4.9650002 -2.4339714 2.2320333 0
4.9590001 -2.4390562 2.2296307 0
4.9530005 -2.4441197 2.2272282 0
4.9470005 -2.4491615 2.2248254 0
4.9410005 -2.4541814 2.2224226 0
4.9350004 -2.4591799 2.2200201 0
4.9290004 -2.4641566 2.2176173 0
4.9230003 -2.4691114 2.2152147 0
4.9170003 -2.4740448 2.2128119 0
4.9110003 -2.4789567 2.2104092 0
4.9050002 -2.4838467 2.2080066 0
4.8990002 -2.4887152 2.2056038 0
4.8930001 -2.493562 2.2032013 0
4.8870001 -2.4983873 2.2007985 0
4.8810005 -2.503191 2.198396 0
4.8750005 -2.507973 2.1959934 0
4.8700004 -2.5132849 2.1939912 0
4.8640003 -2.5180254 2.1915884 0
4.8580003 -2.5227442 2.1891856 0
4.8520002 -2.5274413 2.1867831 0
4.8460002 -2.5321167 2.1843803 0
4.8410001 -2.5373313 2.1823781 0
4.8350005 -2.5419655 2.1799755 0
4.8290005 -2.5465779 2.177573 0
4.8240004 -2.5517349 2.1755705 0
4.8180003 -2.5563059 2.1731679 0
4.8120003 -2.5608549 2.1707652 0
4.8060002 -2.5653825 2.1683624 0
4.8010001 -2.570462 2.1663604 0
4.7950001 -2.5749481 2.1639576 0
5.0850005 -2.3192766 2.271636 0
5.0900002 -2.3301623 2.2736292 0
5.0830002 -2.3352003 2.2708385 0
5.0770001 -2.3407037 2.2684469 0
5.0700002 -2.3456931 2.2656565 0
5.0640001 -2.3511515 2.2632644 0
5.0580001 -2.3565879 2.2608726 0
5.0510001 -2.3615053 2.2580819 0
5.0450006 -2.3668971 2.2556903 0
5.0390005 -2.372267 2.2532985 0
5.0330005 -2.3776152 2.2509067 0
5.0260005 -2.382437 2.2481163 0
5.0200005 -2.3877399 2.2457244 0
5.0140004 -2.3930216 2.2433324 0
5.0080004 -2.3982813 2.2409406 0
5.0020003 -2.4035196 2.2385488 0
4.9950004 -2.4082222 2.2357583 0
4.9890003 -2.4134154 2.2333665 0
4.9830003 -2.4185867 2.2309744 0
4.9770002 -2.4237366 2.2285826 0
4.9710002 -2.428865 2.2261908 0
4.9650002 -2.4339714 2.223799 0
4.9590001 -2.4390562 2.2214069 0
4.9530005 -2.4441197 2.2190154 0
4.9470005 -2.4491615 2.2166235 0
4.9410005 -2.4541814 2.2142317 0
4.9350004 -2.4591799 2.2118397 0
4.9290004 -2.4641566 2.2094479 0
4.9230003 -2.4691114 2.207056 0
4.9170003 -2.4740448 2.2046642 0
4.9110003 -2.4789567 2.2022724 0
4.9050002 -2.4838467 2.1998804 0
4.8990002 -2.4887152 2.1974885 0
4.8930001 -2.493562 2.1950967 0
4.8870001 -2.4983873 2.1927049 0
4.8810005 -2.503191 2.1903131 0
4.8750005 -2.507973 2.1879213 0
4.8700004 -2.5132849 2.1859281 0
4.8640003 -2.5180254 2.1835363 0
4.8580003 -2.5227442 2.1811442 0
4.8520002 -2.5274413 2.1787524 0
4.8460002 -2.5321167 2.1763606 0
4.8410001 -2.5373313 2.1743674 0
4.8350005 -2.5419655 2.1719756 0
4.8290005 -2.5465779 2.1695838 0
4.8240004 -2.5517349 2.1675904 0
4.8180003 -2.5563059 2.1651986 0
4.8120003 -2.5608549 2.1628067 0
4.8070002 -2.5659544 2.1608136 0
4.8010001 -2.570462 2.1584218 0
4.7950001 -2.5749481 2.1560297 0
5.0850005 -2.3192766 2.2631853 0
5.0900002 -2.3301623 2.2651694 0
5.0830002 -2.3352003 2.2623913 0
5.0770001 -2.3407037 2.2600105 0
5.0700002 -2.3456931 2.2572324 0
5.0640001 -2.3511515 2.2548513 0
5.0580001 -2.3565879 2.2524705 0
5.0510001 -2.3615053 2.2496927 0
5.0450006 -2.3668971 2.2473116 0
5.0390005 -2.372267 2.2449307 0
5.0330005 -2.3776152 2.2425497 0
5.0260005 -2.382437 2.2397718 0
5.0200005 -2.3877399 2.2373908 0
5.0140004 -2.3930216 2.2350097 0
5.0080004 -2.3982813 2.2326286 0
5.0020003 -2.4035196 2.2302477 0
4.9950004 -2.4082222 2.2274697 0
4.9890003 -2.4134154 2.2250888 0
4.9830003 -2.4185867 2.2227075 0
4.9770002 -2.4237366 2.2203267 0
4.9710002 -2.428865 2.2179456 0
4.9650002 -2.4339714 2.2155645 0
4.9590001 -2.4390562 2.2131834 0
4.9530005 -2.4441197 2.2108026 0
4.9470005 -2.4491615 2.2084215 0
4.9410005 -2.4541814 2.2060406 0
4.9350004 -2.4591799 2.2036595 0
4.9290004 -2.4641566 2.2012784 0
4.9230003 -2.4691114 2.1988974 0
4.9170003 -2.4740448 2.1965163 0
4.9110003 -2.4789567 2.1941354 0
4.9050002 -2.4838467 2.1917543 0
4.8990002 -2.4887152 2.1893733 0
4.8930001 -2.493562 2.1869922 0
4.8870001 -2.4983873 2.1846111 0
4.8810005 -2.503191 2.1822302 0
4.8750005 -2.507973 2.1798491 0
4.8700004 -2.5132849 2.177865 0
4.8640003 -2.5180254 2.1754839 0
4.8580003 -2.5227442 2.1731029 0
4.8520002 -2.5274413 2.1707218 0
4.8460002 -2.5321167 2.1683407 0
4.8410001 -2.5373313 2.1663566 0
4.8350005 -2.5419655 2.1639757 0
4.8290005 -2.5465779 2.1615946 0
4.8240004 -2.5517349 2.1596105 0
4.8180003 -2.5563059 2.1572294 0
4.8120003 -2.5608549 2.1548483 0
4.8070002 -2.5659544 2.1528642 0
4.8010001 -2.570462 2.1504831 0
4.7950001 -2.5749481 2.148102 0
5.0850005 -2.3192766 2.2547345 0
5.0900002 -2.3301623 2.2567093 0
5.0830002 -2.3352003 2.2539442 0
5.0770001 -2.3407037 2.251574 0
5.0700002 -2.3456931 2.2488089 0
5.0640001 -2.3511515 2.2464385 0
5.0580001 -2.3565879 2.2440681 0
5.0510001 -2.3615053 2.2413032 0
5.0450006 -2.3668971 2.2389331 0
5.0390005 -2.372267 2.2365627 0
5.0330005 -2.3776152 2.2341926 0
5.0260005 -2.382437 2.2314274 0
5.0200005 -2.3877399 2.2290571 0
5.0140004 -2.3930216 2.226687 0
5.0080004 -2.3982813 2.2243166 0
5.0020003 -2.4035196 2.2219465 0
4.9950004 -2.4082222 2.2191813 0
4.9890003 -2.4134154 2.2168109 0
4.9830003 -2.4185867 2.2144408 0
4.9770002 -2.4237366 2.2120707 0
4.9710002 -2.428865 2.2097003 0
4.9650002 -2.4339714 2.20733 0
4.9590001 -2.4390562 2.2049599 0
4.9530005 -2.4441197 2.20259 0
4.9470005 -2.4491615 2.2002196 0
4.9410005 -2.4541814 2.1978495 0
4.9350004 -2.4591799 2.1954794 0
4.9290004 -2.4641566 2.193109 0
4.9230003 -2.4691114 2.1907387 0
4.9170003 -2.4740448 2.1883686 0
4.9110003 -2.4789567 2.1859984 0
4.9050002 -2.4838467 2.1836281 0
4.8990002 -2.4887152 2.181258 0
4.8930001 -2.493562 2.1788876 0
4.8870001 -2.4983873 2.1765175 0
4.8810005 -2.503191 2.1741474 0
4.8750005 -2.507973 2.1717772 0
4.8700004 -2.5132849 2.169802 0
4.8640003 -2.5180254 2.1674318 0
4.8580003 -2.5227442 2.1650617 0
4.8520002 -2.5274413 2.1626914 0
4.8460002 -2.5321167 2.160321 0
4.8410001 -2.5373313 2.1583459 0
4.8350005 -2.5419655 2.1559758 0
4.8290005 -2.5465779 2.1536057 0
4.8240004 -2.5517349 2.1516304 0
4.8180003 -2.5563059 2.1492603 0
4.8120003 -2.5608549 2.1468899 0
4.8070002 -2.5659544 2.1449146 0
4.8010001 -2.570462 2.1425445 0
4.7950001 -2.5749481 2.1401744 0
5.0850005 -2.3192766 2.2462835 0
5.0900002 -2.3301623 2.2482495 0
5.0830002 -2.3352003 2.245497 0
5.0770001 -2.3407037 2.2431376 0
5.0700002 -2.3456931 2.2403848 0
5.0640001 -2.3511515 2.2380257 0
5.0580001 -2.3565879 2.235666 0
5.0510001 -2.3615053 2.2329135 0
5.0450006 -2.3668971 2.2305543 0
5.0390005 -2.372267 2.228195 0
5.0330005 -2.3776152 2.2258356 0
5.0260005 -2.382437 2.223083 0
5.0200005 -2.3877399 2.2207236 0
5.0140004 -2.3930216 2.218364 0
5.0080004 -2.3982813 2.2160048 0
5.0020003 -2.4035196 2.2136452 0
4.9950004 -2.4082222 2.2108927 0
4.9890003 -2.4134154 2.2085333 0
4.9830003 -2.4185867 2.2061739 0
4.9770002 -2.4237366 2.2038145 0
4.9710002 -2.428865 2.2014551 0
4.9650002 -2.4339714 2.1990957 0
4.9590001 -2.4390562 2.1967363 0
4.9530005 -2.4441197 2.1943772 0
4.9470005 -2.4491615 2.1920178 0
4.9410005 -2.4541814 2.1896584 0
4.9350004 -2.4591799 2.187299 0
4.9290004 -2.4641566 2.1849396 0
4.9230003 -2.4691114 2.1825802 0
4.9170003 -2.4740448 2.1802208 0
4.9110003 -2.4789567 2.1778612 0
4.9050002 -2.4838467 2.1755021 0
4.8990002 -2.4887152 2.1731427 0
4.8930001 -2.493562 2.1707833 0
4.8870001 -2.4983873 2.1684239 0
4.8810005 -2.503191 2.1660645 0
4.8750005 -2.507973 2.1637051 0
4.8700004 -2.5132849 2.1617391 0
4.8640003 -2.5180254 2.1593795 0
4.8580003 -2.5227442 2.1570201 0
4.8520002 -2.5274413 2.1546607 0
4.8460002 -2.5321167 2.1523013 0
4.8410001 -2.5373313 2.1503353 0
4.8350005 -2.5419655 2.1479759 0
4.8290005 -2.5465779 2.1456165 0
4.8240004 -2.5517349 2.1436503 0
4.8180003 -2.5563059 2.1412909 0
4.8120003 -2.5608549 2.1389315 0
4.8070002 -2.5659544 2.1369653 0
4.8010001 -2.570462 2.1346061 0
4.7950001 -2.5749481 2.1322465 0
5.0850005 -2.3192766 2.2378325 0
5.0900002 -2.3301623 2.2397897 0
5.0830002 -2.3352003 2.2370496 0
5.0770001 -2.3407037 2.2347012 0
5.0700002 -2.3456931 2.2319613 0
5.0640001 -2.3511515 2.2296126 0
5.0580001 -2.3565879 2.2272639 0
5.0510001 -2.3615053 2.224524 0
5.0450006 -2.3668971 2.2221756 0
5.0390005 -2.372267 2.2198272 0
5.0330005 -2.3776152 2.2174785 0
5.0260005 -2.382437 2.2147386 0
5.0200005 -2.3877399 2.2123899 0
5.0140004 -2.3930216 2.2100415 0
5.0080004 -2.3982813 2.2076929 0
5.0020003 -2.4035196 2.2053442 0
4.9950004 -2.4082222 2.2026043 0
4.9890003 -2.4134154 2.2002556 0
4.9830003 -2.4185867 2.1979072 0
4.9770002 -2.4237366 2.1955585 0
4.9710002 -2.428865 2.1932099 0
4.9650002 -2.4339714 2.1908615 0
4.9590001 -2.4390562 2.1885128 0
4.9530005 -2.4441197 2.1861644 0
4.9470005 -2.4491615 2.183816 0
4.9410005 -2.4541814 2.1814673 0
4.9350004 -2.4591799 2.1791186 0
4.9290004 -2.4641566 2.1767702 0
4.9230003 -2.4691114 2.1744215 0
4.9170003 -2.4740448 2.1720729 0
4.9110003 -2.4789567 2.1697245 0
4.9050002 -2.4838467 2.1673758 0
4.8990002 -2.4887152 2.1650271 0
4.8930001 -2.493562 2.1626787 0
4.8870001 -2.4983873 2.1603301 0
4.8810005 -2.503191 2.1579816 0
4.8750005 -2.507973 2.1556332 0
4.8700004 -2.5132849 2.153676 0
4.8640003 -2.5180254 2.1513274 0
4.8580003 -2.5227442 2.1489787 0
4.8520002 -2.5274413 2.1466303 0
4.8460002 -2.5321167 2.1442816 0
4.8410001 -2.5373313 2.1423244 0
4.8350005 -2.5419655 2.139976 0
4.8290005 -2.5465779 2.1376276 0
4.8240004 -2.5517349 2.1356704 0
4.8180003 -2.5563059 2.1333218 0
4.8120003 -2.5608549 2.1309731 0
4.8070002 -2.5659544 2.1290162 0
4.8010001 -2.570462 2.1266675 0
4.7950001 -2.5749481 2.1243188 0
5.0850005 -2.3192766 2.2293818 0
5.0900002 -2.3301623 2.2313299 0
5.0830002 -2.3352003 2.2286024 0
5.0770001 -2.3407037 2.2262647 0
5.0700002 -2.3456931 2.2235374 0
5.0640001 -2.3511515 2.2211995 0
5.0580001 -2.3565879 2.2188618 0
5.0510001 -2.3615053 2.2161345 0
5.0450006 -2.3668971 2.2137969 0
5.0390005 -2.372267 2.2114592 0
5.0330005 -2.3776152 2.2091215 0
5.0260005 -2.382437 2.206394 0
5.0200005 -2.3877399 2.2040565 0
5.0140004 -2.3930216 2.2017186 0
5.0080004 -2.3982813 2.1993809 0
5.0020003 -2.4035196 2.1970432 0
4.9950004 -2.4082222 2.1943159 0
4.9890003 -2.4134154 2.191978 0
4.9830003 -2.4185867 2.1896403 0
4.9770002 -2.4237366 2.1873026 0
4.9710002 -2.428865 2.1849647 0
4.9650002 -2.4339714 2.182627 0
4.9590001 -2.4390562 2.1802893 0
4.9530005 -2.4441197 2.1779518 0
4.9470005 -2.4491615 2.1756139 0
4.9410005 -2.4541814 2.1732762 0
4.9350004 -2.4591799 2.1709385 0
4.9290004 -2.4641566 2.1686006 0
4.9230003 -2.4691114 2.1662629 0
4.9170003 -2.4740448 2.1639252 0
4.9110003 -2.4789567 2.1615875 0
4.9050002 -2.4838467 2.1592495 0
4.8990002 -2.4887152 2.1569118 0
4.8930001 -2.493562 2.1545742 0
4.8870001 -2.4983873 2.1522365 0
4.8810005 -2.503191 2.149899 0
4.8750005 -2.507973 2.1475611 0
4.8700004 -2.5132849 2.145613 0
4.8640003 -2.5180254 2.1432753 0
4.8580003 -2.5227442 2.1409373 0
4.8520002 -2.5274413 2.1385996 0
4.8460002 -2.5321167 2.1362619 0
4.8410001 -2.5373313 2.1343138 0
4.8350005 -2.5419655 2.1319761 0
4.8290005 -2.5465779 2.1296384 0
4.8240004 -2.5517349 2.1276903 0
4.8180003 -2.5563059 2.1253524 0
4.8120003 -2.5608549 2.1230149 0
4.8070002 -2.5659544 2.1210666 0
4.8010001 -2.570462 2.1187289 0
4.7950001 -2.5749481 2.1163912 0
5.0850005 -2.3192766 2.2209311 0
5.0900002 -2.3301623 2.2228701 0
5.0830002 -2.3352003 2.2201552 0
5.0770001 -2.3407037 2.2178283 0
5.0700002 -2.3456931 2.2151136 0
5.0640001 -2.3511515 2.2127867 0
5.0580001 -2.3565879 2.2104597 0
5.0510001 -2.3615053 2.2077451 0
5.0450006 -2.3668971 2.2054183 0
5.0390005 -2.372267 2.2030914 0
5.0330005 -2.3776152 2.2007644 0
5.0260005 -2.382437 2.1980498 0
5.0200005 -2.3877399 2.1957228 0
5.0140004 -2.3930216 2.1933959 0
5.0080004 -2.3982813 2.1910689 0
5.0020003 -2.4035196 2.1887419 0
4.9950004 -2.4082222 2.1860273 0
4.9890003 -2.4134154 2.1837003 0
4.9830003 -2.4185867 2.1813734 0
4.9770002 -2.4237366 2.1790464 0
4.9710002 -2.428865 2.1767194 0
4.9650002 -2.4339714 2.1743927 0
4.9590001 -2.4390562 2.1720657 0
4.9530005 -2.4441197 2.169739 0
4.9470005 -2.4491615 2.167412 0
4.9410005 -2.4541814 2.1650851 0
4.9350004 -2.4591799 2.1627581 0
4.9290004 -2.4641566 2.1604311 0
4.9230003 -2.4691114 2.1581044 0
4.9170003 -2.4740448 2.1557775 0
4.9110003 -2.4789567 2.1534505 0
4.9050002 -2.4838467 2.1511235 0
4.8990002 -2.4887152 2.1487966 0
4.8930001 -2.493562 2.1464696 0
4.8870001 -2.4983873 2.1441429 0
4.8810005 -2.503191 2.1418159 0
4.8750005 -2.507973 2.1394889 0
4.8700004 -2.5132849 2.1375499 0
4.8640003 -2.5180254 2.1352229 0
4.8580003 -2.5227442 2.1328959 0
4.8520002 -2.5274413 2.1305692 0
4.8460002 -2.5321167 2.1282423 0
4.8410001 -2.5373313 2.126303 0
4.8350005 -2.5419655 2.1239762 0
4.8290005 -2.5465779 2.1216495 0
4.8240004 -2.5517349 2.1197102 0
4.8180003 -2.5563059 2.1173832 0
4.8120003 -2.5608549 2.1150563 0
4.8070002 -2.5659544 2.1131172 0
4.8010001 -2.570462 2.1107903 0
4.7950001 -2.5749481 2.1084633 0
5.0850005 -2.3192766 2.2124801 0
5.0900002 -2.3301623 2.2144101 0
5.0830002 -2.3352003 2.2117081 0
5.0770001 -2.3407037 2.2093918 0
5.0700002 -2.3456931 2.2066898 0
5.0640001 -2.3511515 2.2043736 0
5.0580001 -2.3565879 2.2020576 0
5.0510001 -2.3615053 2.1993556 0
5.0450006 -2.3668971 2.1970396 0
5.0390005 -2.372267 2.1947234 0
5.0330005 -2.3776152 2.1924074 0
5.0260005 -2.382437 2.1897054 0
5.0200005 -2.3877399 2.1873891 0
5.0140004 -2.3930216 2.1850731 0
5.0080004 -2.3982813 2.1827569 0
5.0020003 -2.4035196 2.1804409 0
4.9950004 -2.4082222 2.1777389 0
4.9890003 -2.4134154 2.1754227 0
4.9830003 -2.4185867 2.1731064 0
4.9770002 -2.4237366 2.1707904 0
4.9710002 -2.428865 2.1684744 0
4.9650002 -2.4339714 2.1661582 0
4.9590001 -2.4390562 2.163842 0
4.9530005 -2.4441197 2.1615262 0
4.9470005 -2.4491615 2.1592102 0
4.9410005 -2.4541814 2.156894 0
4.9350004 -2.4591799 2.1545777 0
4.9290004 -2.4641566 2.1522617 0
4.9230003 -2.4691114 2.1499457 0
4.9170003 -2.4740448 2.1476295 0
4.9110003 -2.4789567 2.1453135 0
4.9050002 -2.4838467 2.1429973 0
4.8990002 -2.4887152 2.1406813 0
4.8930001 -2.493562 2.1383653 0
4.8870001 -2.4983873 2.136049 0
4.8810005 -2.503191 2.133733 0
4.8750005 -2.507973 2.131417 0
4.8700004 -2.5132849 2.129487 0
4.8640003 -2.5180254 2.1271708 0
4.8580003 -2.5227442 2.1248546 0
4.8520002 -2.5274413 2.1225386 0
4.8460002 -2.5321167 2.1202226 0
4.8410001 -2.5373313 2.1182923 0
4.8350005 -2.5419655 2.1159763 0
4.8290005 -2.5465779 2.1136603 0
4.8240004 -2.5517349 2.1117303 0
4.8180003 -2.5563059 2.1094141 0
4.8120003 -2.5608549 2.1070979 0
4.8070002 -2.5659544 2.1051679 0
4.8010001 -2.570462 2.1028519 0
4.7950001 -2.5749481 2.1005356 0
5.0850005 -2.3192766 2.2040293 0
5.0900002 -2.3301623 2.2059503 0
5.0830002 -2.3352003 2.2032607 0
5.0770001 -2.3407037 2.2009554 0
5.0700002 -2.3456931 2.198266 0
5.0640001 -2.3511515 2.1959608 0
5.0580001 -2.3565879 2.1936555 0
5.0510001 -2.3615053 2.1909661 0
5.0450006 -2.3668971 2.1886609 0
5.0390005 -2.372267 2.1863556 0
5.0330005 -2.3776152 2.1840503 0
5.0260005 -2.382437 2.1813607 0
5.0200005 -2.3877399 2.1790555 0
5.0140004 -2.3930216 2.1767502 0
5.0080004 -2.3982813 2.1744452 0
5.0020003 -2.4035196 2.1721396 0
4.9950004 -2.4082222 2.1694503 0
4.9890003 -2.4134154 2.167145 0
4.9830003 -2.4185867 2.1648397 0
4.9770002 -2.4237366 2.1625342 0
4.9710002 -2.428865 2.1602292 0
4.9650002 -2.4339714 2.1579239 0
4.9590001 -2.4390562 2.1556187 0
4.9530005 -2.4441197 2.1533134 0
4.9470005 -2.4491615 2.1510081 0
4.9410005 -2.4541814 2.1487029 0
4.9350004 -2.4591799 2.1463976 0
4.9290004 -2.4641566 2.1440923 0
4.9230003 -2.4691114 2.1417871 0
4.9170003 -2.4740448 2.1394818 0
4.9110003 -2.4789567 2.1371765 0
4.9050002 -2.4838467 2.1348712 0
4.8990002 -2.4887152 2.132566 0
4.8930001 -2.493562 2.1302607 0
4.8870001 -2.4983873 2.1279554 0
4.8810005 -2.503191 2.1256502 0
4.8750005 -2.507973 2.1233449 0
4.8700004 -2.5132849 2.121424 0
4.8640003 -2.5180254 2.1191185 0
4.8580003 -2.5227442 2.1168132 0
4.8520002 -2.5274413 2.1145079 0
4.8460002 -2.5321167 2.1122029 0
4.8410001 -2.5373313 2.1102817 0
4.8350005 -2.5419655 2.1079764 0
4.8290005 -2.5465779 2.1056712 0
4.8240004 -2.5517349 2.1037502 0
4.8180003 -2.5563059 2.101445 0
4.8120003 -2.5608549 2.0991397 0
4.8070002 -2.5659544 2.0972185 0
4.8010001 -2.570462 2.0949132 0
4.7950001 -2.5749481 2.092608 0
5.0850005 -2.3192766 2.1955786 0
5.0900002 -2.3301623 2.1974905 0
5.0830002 -2.3352003 2.1948135 0
5.0770001 -2.3407037 2.1925189 0
5.0700002 -2.3456931 2.1898422 0
5.0640001 -2.3511515 2.1875477 0
5.0580001 -2.3565879 2.1852534 0
5.0510001 -2.3615053 2.1825764 0
5.0450006 -2.3668971 2.1802821 0
5.0390005 -2.372267 2.1779878 0
5.0330005 -2.3776152 2.1756933 0
5.0260005 -2.382437 2.1730165 0
5.0200005 -2.3877399 2.170722 0
5.0140004 -2.3930216 2.1684275 0
5.0080004 -2.3982813 2.1661332 0
5.0020003 -2.4035196 2.1638386 0
4.9950004 -2.4082222 2.1611619 0
4.9890003 -2.4134154 2.1588674 0
4.9830003 -2.4185867 2.1565728 0
4.9770002 -2.4237366 2.1542783 0
4.9710002 -2.428865 2.151984 0
4.9650002 -2.4339714 2.1496894 0
4.9590001 -2.4390562 2.1473949 0
4.9530005 -2.4441197 2.1451006 0
4.9470005 -2.4491615 2.1428063 0
4.9410005 -2.4541814 2.1405118 0
4.9350004 -2.4591799 2.1382172 0
4.9290004 -2.4641566 2.1359229 0
4.9230003 -2.4691114 2.1336284 0
4.9170003 -2.4740448 2.1313341 0
4.9110003 -2.4789567 2.1290395 0
4.9050002 -2.4838467 2.126745 0
4.8990002 -2.4887152 2.1244507 0
4.8930001 -2.493562 2.1221561 0
4.8870001 -2.4983873 2.1198616 0
4.8810005 -2.503191 2.1175673 0
4.8750005 -2.507973 2.115273 0
4.8700004 -2.5132849 2.1133609 0
4.8640003 -2.5180254 2.1110663 0
4.8580003 -2.5227442 2.108772 0
4.8520002 -2.5274413 2.1064775 0
4.8460002 -2.5321167 2.104183 0
4.8410001 -2.5373313 2.1022708 0
4.8350005 -2.5419655 2.0999765 0
4.8290005 -2.5465779 2.0976822 0
4.8240004 -2.5517349 2.0957701 0
4.8180003 -2.5563059 2.0934756 0
4.8120003 -2.5608549 2.0911813 0
4.8070002 -2.5659544 2.0892692 0
4.8010001 -2.570462 2.0869746 0
4.7950001 -2.5749481 2.0846801 0
5.0850005 -2.3192766 2.1871276 0
5.0900002 -2.3301623 2.1890306 0
5.0830002 -2.3352003 2.1863663 0
5.0770001 -2.3407037 2.1840825 0
5.0700002 -2.3456931 2.1814184 0
5.0640001 -2.3511515 2.1791348 0
5.0580001 -2.3565879 2.1768513 0
5.0510001 -2.3615053 2.1741869 0
5.0450006 -2.3668971 2.1719036 0
5.0390005 -2.372267 2.1696198 0
5.0330005 -2.3776152 2.1673362 0
5.0260005 -2.382437 2.1646719 0
5.0200005 -2.3877399 2.1623883 0
5.0140004 -2.3930216 2.1601048 0
5.0080004 -2.3982813 2.1578212 0
5.0020003 -2.4035196 2.1555374 0
4.9950004 -2.4082222 2.1528733 0
4.9890003 -2.4134154 2.1505897 0
4.9830003 -2.4185867 2.1483061 0
4.9770002 -2.4237366 2.1460223 0
4.9710002 -2.428865 2.1437387 0
4.9650002 -2.4339714 2.1414552 0
4.9590001 -2.4390562 2.1391714 0
4.9530005 -2.4441197 2.136888 0
4.9470005 -2.4491615 2.1346045 0
4.9410005 -2.4541814 2.1323206 0
4.9350004 -2.4591799 2.1300371 0
4.9290004 -2.4641566 2.1277535 0
4.9230003 -2.4691114 2.1254697 0
4.9170003 -2.4740448 2.1231861 0
4.9110003 -2.4789567 2.1209025 0
4.9050002 -2.4838467 2.118619 0
4.8990002 -2.4887152 2.1163352 0
4.8930001 -2.493562 2.1140516 0
4.8870001 -2.4983873 2.111768 0
4.8810005 -2.503191 2.1094844 0
4.8750005 -2.507973 2.1072009 0
4.8700004 -2.5132849 2.1052978 0
4.8640003 -2.5180254 2.1030142 0
4.8580003 -2.5227442 2.1007307 0
4.8520002 -2.5274413 2.0984468 0
4.8460002 -2.5321167 2.0961633 0
4.8410001 -2.5373313 2.0942602 0
4.8350005 -2.5419655 2.0919769 0
4.8290005 -2.5465779 2.0896931 0
4.8240004 -2.5517349 2.08779 0
4.8180003 -2.5563059 2.0855064 0
4.8120003 -2.5608549 2.0832229 0
4.8070002 -2.5659544 2.0813198 0
4.8010001 -2.570462 2.079036 0
4.7950001 -2.5749481 2.0767524 0
5.0850005 -2.3192766 2.1786768 0
5.0900002 -2.3301623 2.1805706 0
5.0830002 -2.3352003 2.1779189 0
5.0770001 -2.3407037 2.1756463 0
5.0700002 -2.3456931 2.1729946 0
5.0640001 -2.3511515 2.1707218 0
5.0580001 -2.3565879 2.1684489 0
5.0510001 -2.3615053 2.1657975 0
5.0450006 -2.3668971 2.1635249 0
5.0390005 -2.372267 2.161252 0
5.0330005 -2.3776152 2.1589792 0
5.0260005 -2.382437 2.1563275 0
5.0200005 -2.3877399 2.1540549 0
5.0140004 -2.3930216 2.151782 0
5.0080004 -2.3982813 2.1495092 0
5.0020003 -2.4035196 2.1472363 0
4.9950004 -2.4082222 2.1445849 0
4.9890003 -2.4134154 2.142312 0
4.9830003 -2.4185867 2.1400392 0
4.9770002 -2.4237366 2.1377664 0
4.9710002 -2.428865 2.1354935 0
4.9650002 -2.4339714 2.1332207 0
4.9590001 -2.4390562 2.1309478 0
4.9530005 -2.4441197 2.1286752 0
4.9470005 -2.4491615 2.1264024 0
4.9410005 -2.4541814 2.1241298 0
4.9350004 -2.4591799 2.1218569 0
4.9290004 -2.4641566 2.1195841 0
4.9230003 -2.4691114 2.1173112 0
4.9170003 -2.4740448 2.1150384 0
4.9110003 -2.4789567 2.1127656 0
4.9050002 -2.4838467 2.1104927 0
4.8990002 -2.4887152 2.1082199 0
4.8930001 -2.493562 2.1059473 0
4.8870001 -2.4983873 2.1036744 0
4.8810005 -2.503191 2.1014016 0
4.8750005 -2.507973 2.0991287 0
4.8700004 -2.5132849 2.0972347 0
4.8640003 -2.5180254 2.0949621 0
4.8580003 -2.5227442 2.0926893 0
4.8520002 -2.5274413 2.0904164 0
4.8460002 -2.5321167 2.0881436 0
4.8410001 -2.5373313 2.0862496 0
4.8350005 -2.5419655 2.083977 0
4.8290005 -2.5465779 2.0817041 0
4.8240004 -2.5517349 2.0798099 0
4.8180003 -2.5563059 2.0775371 0
4.8120003 -2.5608549 2.0752645 0
4.8070002 -2.5659544 2.0733705 0
4.8010001 -2.570462 2.0710976 0
4.7950001 -2.5749481 2.0688248 0
5.0850005 -2.3192766 2.1702259 0
5.0900002 -2.3301623 2.1721108 0
5.0830002 -2.3352003 2.1694717 0
5.0770001 -2.3407037 2.1672099 0
5.0700002 -2.3456931 2.1645708 0
5.0640001 -2.3511515 2.1623089 0
5.0580001 -2.3565879 2.1600468 0
5.0510001 -2.3615053 2.157408 0
5.0450006 -2.3668971 2.1551461 0
5.0390005 -2.372267 2.1528842 0
5.0330005 -2.3776152 2.1506221 0
5.0260005 -2.382437 2.1479833 0
5.0200005 -2.3877399 2.1457212 0
5.0140004 -2.3930216 2.1434591 0
5.0080004 -2.3982813 2.1411972 0
5.0020003 -2.4035196 2.1389353 0
4.9950004 -2.4082222 2.1362963 0
4.9890003 -2.4134154 2.1340344 0
4.9830003 -2.4185867 2.1317723 0
4.9770002 -2.4237366 2.1295102 0
4.9710002 -2.428865 2.1272483 0
4.9650002 -2.4339714 2.1249864 0
4.9590001 -2.4390562 2.1227243 0
4.9530005 -2.4441197 2.1204624 0
4.9470005 -2.4491615 2.1182005 0
4.9410005 -2.4541814 2.1159384 0
4.9350004 -2.4591799 2.1136765 0
4.9290004 -2.4641566 2.1114144 0
4.9230003 -2.4691114 2.1091526 0
4.9170003 -2.4740448 2.1068904 0
4.9110003 -2.4789567 2.1046286 0
4.9050002 -2.4838467 2.1023667 0
4.8990002 -2.4887152 2.1001046 0
4.8930001 -2.493562 2.0978425 0
4.8870001 -2.4983873 2.0955806 0
4.8810005 -2.503191 2.0933189 0
4.8750005 -2.507973 2.0910568 0
4.8700004 -2.5132849 2.0891716 0
4.8640003 -2.5180254 2.0869098 0
4.8580003 -2.5227442 2.0846479 0
4.8520002 -2.5274413 2.0823858 0
4.8460002 -2.5321167 2.0801239 0
4.8410001 -2.5373313 2.0782387 0
4.8350005 -2.5419655 2.0759771 0
4.8290005 -2.5465779 2.073715 0
4.8240004 -2.5517349 2.0718298 0
4.8180003 -2.5563059 2.0695679 0
4.8120003 -2.5608549 2.067306 0
4.8070002 -2.5659544 2.0654209 0
4.8010001 -2.570462 2.063159 0
4.7950001 -2.5749481 2.0608969 0
5.0850005 -2.3192766 2.1617751 0
5.0900002 -2.3301623 2.163651 0
5.0830002 -2.3352003 2.1610246 0
5.0770001 -2.3407037 2.1587734 0
5.0700002 -2.3456931 2.156147 0
5.0640001 -2.3511515 2.1538959 0
5.0580001 -2.3565879 2.1516447 0
5.0510001 -2.3615053 2.1490185 0
5.0450006 -2.3668971 2.1467674 0
5.0390005 -2.372267 2.1445162 0
5.0330005 -2.3776152 2.1422651 0
5.0260005 -2.382437 2.1396387 0
5.0200005 -2.3877399 2.1373875 0
5.0140004 -2.3930216 2.1351364 0
5.0080004 -2.3982813 2.1328852 0
5.0020003 -2.4035196 2.1306341 0
4.9950004 -2.4082222 2.1280079 0
4.9890003 -2.4134154 2.1257565 0
4.9830003 -2.4185867 2.1235054 0
4.9770002 -2.4237366 2.1212542 0
4.9710002 -2.428865 2.1190031 0
4.9650002 -2.4339714 2.1167519 0
4.9590001 -2.4390562 2.1145008 0
4.9530005 -2.4441197 2.1122499 0
4.9470005 -2.4491615 2.1099985 0
4.9410005 -2.4541814 2.1077473 0
4.9350004 -2.4591799 2.1054964 0
4.9290004 -2.4641566 2.103245 0
4.9230003 -2.4691114 2.1009939 0
4.9170003 -2.4740448 2.0987427 0
4.9110003 -2.4789567 2.0964916 0
4.9050002 -2.4838467 2.0942404 0
4.8990002 -2.4887152 2.0919893 0
4.8930001 -2.493562 2.0897381 0
4.8870001 -2.4983873 2.087487 0
4.8810005 -2.503191 2.0852358 0
4.8750005 -2.507973 2.0829847 0
4.8700004 -2.5132849 2.0811088 0
4.8640003 -2.5180254 2.0788574 0
4.8580003 -2.5227442 2.0766065 0
4.8520002 -2.5274413 2.0743554 0
4.8460002 -2.5321167 2.072104 0
4.8410001 -2.5373313 2.0702281 0
4.8350005 -2.5419655 2.0679772 0
4.8290005 -2.5465779 2.0657258 0
4.8240004 -2.5517349 2.0638499 0
4.8180003 -2.5563059 2.0615988 0
4.8120003 -2.5608549 2.0593476 0
4.8070002 -2.5659544 2.0574715 0
4.8010001 -2.570462 2.0552204 0
4.7950001 -2.5749481 2.0529692 0
5.0850005 -2.3192766 2.1533244 0
5.0900002 -2.3301623 2.1551912 0
5.0830002 -2.3352003 2.1525774 0
5.0770001 -2.3407037 2.150337 0
5.0700002 -2.3456931 2.1477232 0
5.0640001 -2.3511515 2.145483 0
5.0580001 -2.3565879 2.1432426 0
5.0510001 -2.3615053 2.1406291 0
5.0450006 -2.3668971 2.1383886 0
5.0390005 -2.372267 2.1361485 0
5.0330005 -2.3776152 2.133908 0
5.0260005 -2.382437 2.1312943 0
5.0200005 -2.3877399 2.1290541 0
5.0140004 -2.3930216 2.1268137 0
5.0080004 -2.3982813 2.1245735 0
5.0020003 -2.4035196 2.122333 0
4.9950004 -2.4082222 2.1197193 0
4.9890003 -2.4134154 2.1174788 0
4.9830003 -2.4185867 2.1152387 0
4.9770002 -2.4237366 2.1129982 0
4.9710002 -2.428865 2.1107578 0
4.9650002 -2.4339714 2.1085176 0
4.9590001 -2.4390562 2.1062772 0
4.9530005 -2.4441197 2.104037 0
4.9470005 -2.4491615 2.1017966 0
4.9410005 -2.4541814 2.0995562 0
4.9350004 -2.4591799 2.097316 0
4.9290004 -2.4641566 2.0950756 0
4.9230003 -2.4691114 2.0928352 0
4.9170003 -2.4740448 2.090595 0
4.9110003 -2.4789567 2.0883546 0
4.9050002 -2.4838467 2.0861142 0
4.8990002 -2.4887152 2.083874 0
4.8930001 -2.493562 2.0816336 0
4.8870001 -2.4983873 2.0793931 0
4.8810005 -2.503191 2.077153 0
4.8750005 -2.507973 2.0749128 0
4.8700004 -2.5132849 2.0730457 0
4.8640003 -2.5180254 2.0708053 0
4.8580003 -2.5227442 2.0685651 0
4.8520002 -2.5274413 2.0663247 0
4.8460002 -2.5321167 2.0640843 0
4.8410001 -2.5373313 2.0622172 0
4.8350005 -2.5419655 2.0599773 0
4.8290005 -2.5465779 2.0577369 0
4.8240004 -2.5517349 2.0558698 0
4.8180003 -2.5563059 2.0536296 0
4.8120003 -2.5608549 2.0513892 0
4.8070002 -2.5659544 2.0495222 0
4.8010001 -2.570462 2.047282 0
5.0850005 -2.3192766 2.1448734 0
5.0900002 -2.3301623 2.1467311 0
5.0830002 -2.3352003 2.14413 0
5.0770001 -2.3407037 2.1419005 0
5.0700002 -2.3456931 2.1392996 0
5.0640001 -2.3511515 2.1370699 0
5.0580001 -2.3565879 2.1348405 0
5.0510001 -2.3615053 2.1322393 0
5.0450006 -2.3668971 2.1300101 0
5.0390005 -2.372267 2.1277804 0
5.0330005 -2.3776152 2.125551 0
5.0260005 -2.382437 2.1229498 0
5.0200005 -2.3877399 2.1207204 0
5.0140004 -2.3930216 2.1184909 0
5.0080004 -2.3982813 2.1162612 0
5.0020003 -2.4035196 2.1140318 0
4.9950004 -2.4082222 2.1114309 0
4.9890003 -2.4134154 2.1092012 0
4.9830003 -2.4185867 2.1069717 0
4.9770002 -2.4237366 2.1047421 0
4.9710002 -2.428865 2.1025126 0
4.9650002 -2.4339714 2.1002831 0
4.9590001 -2.4390562 2.0980537 0
4.9530005 -2.4441197 2.0958242 0
4.9470005 -2.4491615 2.0935948 0
4.9410005 -2.4541814 2.0913651 0
4.9350004 -2.4591799 2.0891356 0
4.9290004 -2.4641566 2.0869062 0
4.9230003 -2.4691114 2.0846767 0
4.9170003 -2.4740448 2.0824471 0
4.9110003 -2.4789567 2.0802176 0
4.9050002 -2.4838467 2.0779881 0
4.8990002 -2.4887152 2.0757585 0
4.8930001 -2.493562 2.073529 0
4.8870001 -2.4983873 2.0712996 0
4.8810005 -2.503191 2.0690701 0
4.8760004 -2.508523 2.0672123 0
4.8700004 -2.5132849 2.0649827 0
4.8640003 -2.5180254 2.0627532 0
4.8580003 -2.5227442 2.0605235 0
4.8520002 -2.5274413 2.0582941 0
4.8470001 -2.532676 2.0564363 0
4.8410001 -2.5373313 2.0542066 0
4.8350005 -2.5419655 2.0519774 0
4.8290005 -2.5465779 2.0497477 0
4.8240004 -2.5517349 2.0478897 0
4.8180003 -2.5563059 2.0456603 0
4.8120003 -2.5608549 2.0434308 0
4.8070002 -2.5659544 2.0415728 0
4.8010001 -2.570462 2.0393434 0
5.0850005 -2.3192766 2.1364226 0
5.0900002 -2.3301623 2.1382713 0
5.0830002 -2.3352003 2.1356828 0
5.0770001 -2.3407037 2.1334643 0
5.0700002 -2.3456931 2.1308758 0
5.0640001 -2.3511515 2.1286571 0
5.0580001 -2.3565879 2.1264384 0
5.0510001 -2.3615053 2.1238499 0
5.0450006 -2.3668971 2.1216314 0
5.0390005 -2.372267 2.1194127 0
5.0330005 -2.3776152 2.1171939 0
5.0260005 -2.382437 2.1146054 0
5.0200005 -2.3877399 2.1123869 0
5.0140004 -2.3930216 2.110168 0
5.0080004 -2.3982813 2.1079495 0
5.0020003 -2.4035196 2.1057308 0
4.9950004 -2.4082222 2.1031423 0
4.9890003 -2.4134154 2.1009235 0
4.9830003 -2.4185867 2.0987048 0
4.9770002 -2.4237366 2.0964861 0
4.9710002 -2.428865 2.0942674 0
4.9650002 -2.4339714 2.0920489 0
4.9590001 -2.4390562 2.0898302 0
4.9530005 -2.4441197 2.0876117 0
4.9470005 -2.4491615 2.0853927 0
4.9410005 -2.4541814 2.0831742 0
4.9350004 -2.4591799 2.0809555 0
4.9290004 -2.4641566 2.0787368 0
4.9230003 -2.4691114 2.0765181 0
4.9170003 -2.4740448 2.0742993 0
4.9110003 -2.4789567 2.0720806 0
4.9050002 -2.4838467 2.0698619 0
4.8990002 -2.4887152 2.0676434 0
4.8930001 -2.493562 2.0654244 0
4.8870001 -2.4983873 2.063206 0
4.8810005 -2.503191 2.0609872 0
4.8760004 -2.508523 2.0591383 0
4.8700004 -2.5132849 2.0569196 0
4.8640003 -2.5180254 2.0547011 0
4.8580003 -2.5227442 2.0524821 0
4.8520002 -2.5274413 2.0502636 0
4.8470001 -2.532676 2.0484147 0
4.8410001 -2.5373313 2.046196 0
4.8350005 -2.5419655 2.0439775 0
4.8290005 -2.5465779 2.0417588 0
4.8240004 -2.5517349 2.0399098 0
4.8180003 -2.5563059 2.0376911 0
4.8120003 -2.5608549 2.0354724 0
4.8070002 -2.5659544 2.0336235 0
4.8010001 -2.570462 2.0314047 0
5.0850005 -2.3192766 2.1279719 0
5.0900002 -2.3301623 2.1298115 0
5.0830002 -2.3352003 2.1272357 0
5.0770001 -2.3407037 2.1250279 0
5.0700002 -2.3456931 2.122452 0
5.0640001 -2.3511515 2.120244 0
5.0580001 -2.3565879 2.1180363 0
5.0510001 -2.3615053 2.1154604 0
5.0450006 -2.3668971 2.1132526 0
5.0390005 -2.372267 2.1110449 0
5.0330005 -2.3776152 2.1088369 0
5.0260005 -2.382437 2.106261 0
5.0200005 -2.3877399 2.1040533 0
5.0140004 -2.3930216 2.1018453 0
5.0080004 -2.3982813 2.0996375 0
5.0020003 -2.4035196 2.0974295 0
4.9950004 -2.4082222 2.0948539 0
4.9890003 -2.4134154 2.0926459 0
4.9830003 -2.4185867 2.0904379 0
4.9770002 -2.4237366 2.0882301 0
4.9710002 -2.428865 2.0860221 0
4.9650002 -2.4339714 2.0838144 0
4.9590001 -2.4390562 2.0816066 0
4.9530005 -2.4441197 2.0793989 0
4.9470005 -2.4491615 2.0771909 0
4.9410005 -2.4541814 2.0749831 0
4.9350004 -2.4591799 2.0727751 0
4.9290004 -2.4641566 2.0705674 0
4.9230003 -2.4691114 2.0683594 0
4.9170003 -2.4740448 2.0661516 0
4.9110003 -2.4789567 2.0639436 0
4.9050002 -2.4838467 2.0617359 0
4.8990002 -2.4887152 2.0595279 0
4.8930001 -2.493562 2.0573201 0
4.8870001 -2.4983873 2.0551121 0
4.8810005 -2.503191 2.0529044 0
4.8760004 -2.508523 2.0510645 0
4.8700004 -2.5132849 2.0488567 0
4.8640003 -2.5180254 2.0466487 0
4.8580003 -2.5227442 2.0444407 0
4.8520002 -2.5274413 2.042233 0
4.8470001 -2.532676 2.0403931 0
4.8410001 -2.5373313 2.0381851 0
4.8350005 -2.5419655 2.0359776 0
4.8290005 -2.5465779 2.0337696 0
4.8240004 -2.5517349 2.0319297 0
4.8180003 -2.5563059 2.0297217 0
4.8120003 -2.5608549 2.027514 0
4.8070002 -2.5659544 2.0256741 0
5.0850005 -2.3192766 2.1195209 0
5.0900002 -2.3301623 2.1213517 0
5.0830002 -2.3352003 2.1187885 0
5.0770001 -2.3407037 2.1165915 0
5.0700002 -2.3456931 2.1140282 0
5.0640001 -2.3511515 2.1118312 0
5.0580001 -2.3565879 2.1096339 0
5.0510001 -2.3615053 2.1070709 0
5.0450006 -2.3668971 2.1048741 0
5.0390005 -2.372267 2.1026769 0
5.0330005 -2.3776152 2.1004798 0
5.0260005 -2.382437 2.0979166 0
5.0200005 -2.3877399 2.0957196 0
5.0140004 -2.3930216 2.0935225 0
5.0080004 -2.3982813 2.0913255 0
5.0020003 -2.4035196 2.0891285 0
4.9950004 -2.4082222 2.0865653 0
4.9890003 -2.4134154 2.0843682 0
4.9830003 -2.4185867 2.0821712 0
4.9770002 -2.4237366 2.0799742 0
4.9710002 -2.428865 2.0777771 0
4.9650002 -2.4339714 2.0755799 0
4.9590001 -2.4390562 2.0733829 0
4.9530005 -2.4441197 2.0711861 0
4.9470005 -2.4491615 2.068989 0
4.9410005 -2.4541814 2.066792 0
4.9350004 -2.4591799 2.0645947 0
4.9290004 -2.4641566 2.062398 0
4.9230003 -2.4691114 2.0602009 0
4.9170003 -2.4740448 2.0580037 0
4.9110003 -2.4789567 2.0558066 0
4.9050002 -2.4838467 2.0536096 0
4.8990002 -2.4887152 2.0514126 0
4.8930001 -2.493562 2.0492156 0
4.8870001 -2.4983873 2.0470185 0
4.8810005 -2.503191 2.0448215 0
4.8760004 -2.508523 2.0429907 0
4.8700004 -2.5132849 2.0407937 0
4.8640003 -2.5180254 2.0385966 0
4.8580003 -2.5227442 2.0363996 0
4.8520002 -2.5274413 2.0342026 0
4.8470001 -2.532676 2.0323715 0
4.8410001 -2.5373313 2.0301745 0
4.8350005 -2.5419655 2.0279777 0
4.8290005 -2.5465779 2.0257807 0
4.8240004 -2.5517349 2.0239496 0
4.8180003 -2.5563059 2.0217526 0
4.8120003 -2.5608549 2.0195556 0
4.8070002 -2.5659544 2.0177248 0
5.0850005 -2.3192766 2.1110699 0
5.0900002 -2.3301623 2.1128917 0
5.0830002 -2.3352003 2.1103411 0
5.0770001 -2.3407037 2.108155 0
5.0700002 -2.3456931 2.1056044 0
5.0640001 -2.3511515 2.1034181 0
5.0580001 -2.3565879 2.1012321 0
5.0510001 -2.3615053 2.0986814 0
5.0450006 -2.3668971 2.0964954 0
5.0390005 -2.372267 2.0943091 0
5.0330005 -2.3776152 2.0921228 0
5.0260005 -2.382437 2.0895722 0
5.0200005 -2.3877399 2.0873859 0
5.0140004 -2.3930216 2.0851998 0
5.0080004 -2.3982813 2.0830135 0
5.0020003 -2.4035196 2.0808275 0
4.9950004 -2.4082222 2.0782769 0
4.9890003 -2.4134154 2.0760906 0
4.9830003 -2.4185867 2.0739043 0
4.9770002 -2.4237366 2.071718 0
4.9710002 -2.428865 2.0695319 0
4.9650002 -2.4339714 2.0673456 0
4.9590001 -2.4390562 2.0651593 0
4.9530005 -2.4441197 2.0629733 0
4.9470005 -2.4491615 2.0607872 0
4.9410005 -2.4541814 2.0586009 0
4.9350004 -2.4591799 2.0564146 0
4.9290004 -2.4641566 2.0542283 0
4.9230003 -2.4691114 2.0520422 0
4.9170003 -2.4740448 2.0498559 0
4.9110003 -2.4789567 2.0476696 0
4.9050002 -2.4838467 2.0454834 0
4.8990002 -2.4887152 2.0432973 0
4.8930001 -2.493562 2.041111 0
4.8870001 -2.4983873 2.0389249 0
4.8810005 -2.503191 2.0367389 0
4.8760004 -2.508523 2.0349169 0
4.8700004 -2.5132849 2.0327306 0
4.8640003 -2.5180254 2.0305443 0
4.8580003 -2.5227442 2.0283582 0
4.8520002 -2.5274413 2.0261719 0
4.8470001 -2.532676 2.0243499 0
4.8410001 -2.5373313 2.0221639 0
4.8350005 -2.5419655 2.0199778 0
4.8290005 -2.5465779 2.0177915 0
4.8240004 -2.5517349 2.0159698 0
4.8180003 -2.5563059 2.0137835 0
4.8120003 -2.5608549 2.0115972 0
5.0850005 -2.3192766 2.1026192 0
5.0900002 -2.3301623 2.1044319 0
5.0830002 -2.3352003 2.1018939 0
5.0770001 -2.3407037 2.0997186 0
5.0700002 -2.3456931 2.0971806 0
5.0640001 -2.3511515 2.0950053 0
5.0580001 -2.3565879 2.0928297 0
5.0510001 -2.3615053 2.090292 0
5.0450006 -2.3668971 2.0881166 0
5.0390005 -2.372267 2.0859413 0
5.0330005 -2.3776152 2.0837657 0
5.0260005 -2.382437 2.0812278 0
5.0200005 -2.3877399 2.0790524 0
5.0140004 -2.3930216 2.0768771 0
5.0080004 -2.3982813 2.0747015 0
5.0020003 -2.4035196 2.0725262 0
4.9950004 -2.4082222 2.0699883 0
4.9890003 -2.4134154 2.0678129 0
4.9830003 -2.4185867 2.0656374 0
4.9770002 -2.4237366 2.063462 0
4.9710002 -2.428865 2.0612867 0
4.9650002 -2.4339714 2.0591111 0
4.9590001 -2.4390562 2.0569358 0
4.9530005 -2.4441197 2.0547605 0
4.9470005 -2.4491615 2.0525851 0
4.9410005 -2.4541814 2.0504098 0
4.9350004 -2.4591799 2.0482345 0
4.9290004 -2.4641566 2.0460589 0
4.9230003 -2.4691114 2.0438836 0
4.9170003 -2.4740448 2.0417082 0
4.9110003 -2.4789567 2.0395327 0
4.9050002 -2.4838467 2.0373573 0
4.8990002 -2.4887152 2.035182 0
4.8930001 -2.493562 2.0330064 0
4.8870001 -2.4983873 2.0308311 0
4.8810005 -2.503191 2.0286558 0
4.8760004 -2.508523 2.0268431 0
4.8700004 -2.5132849 2.0246675 0
4.8640003 -2.5180254 2.0224922 0
4.8580003 -2.5227442 2.0203168 0
4.8520002 -2.5274413 2.0181415 0
4.8470001 -2.532676 2.0163286 0
4.8410001 -2.5373313 2.014153 0
4.8350005 -2.5419655 2.0119779 0
4.8290005 -2.5465779 2.0098023 0
4.8270001 -2.5534341 2.0090773 0
4.8270001 -2.5614195 2.0090773 0
4.8270001 -2.5694048 2.0090773 0
5.0850005 -2.3192766 2.0941684 0
5.0900002 -2.3301623 2.0959721 0
5.0830002 -2.3352003 2.0934467 0
5.0770001 -2.3407037 2.0912821 0
5.0700002 -2.3456931 2.0887568 0
5.0640001 -2.3511515 2.0865922 0
5.0580001 -2.3565879 2.0844276 0
5.0510001 -2.3615053 2.0819023 0
5.0450006 -2.3668971 2.0797379 0
5.0390005 -2.372267 2.0775733 0
5.0330005 -2.3776152 2.0754087 0
5.0260005 -2.382437 2.0728834 0
5.0200005 -2.3877399 2.0707188 0
5.0140004 -2.3930216 2.0685542 0
5.0080004 -2.3982813 2.0663896 0
5.0020003 -2.4035196 2.064225 0
4.9950004 -2.4082222 2.0616999 0
4.9890003 -2.4134154 2.0595353 0
4.9830003 -2.4185867 2.0573707 0
4.9770002 -2.4237366 2.0552061 0
4.9710002 -2.428865 2.0530415 0
4.9650002 -2.4339714 2.0508769 0
4.9590001 -2.4390562 2.0487123 0
4.9530005 -2.4441197 2.0465479 0
4.9470005 -2.4491615 2.0443833 0
4.9410005 -2.4541814 2.0422187 0
4.9350004 -2.4591799 2.0400541 0
4.9290004 -2.4641566 2.0378895 0
4.9230003 -2.4691114 2.0357249 0
4.9170003 -2.4740448 2.0335603 0
4.9110003 -2.4789567 2.0313957 0
4.9050002 -2.4838467 2.0292311 0
4.8990002 -2.4887152 2.0270665 0
4.8930001 -2.493562 2.0249019 0
4.8870001 -2.4983873 2.0227375 0
4.8810005 -2.503191 2.0205729 0
4.8760004 -2.508523 2.0187693 0
4.8700004 -2.5132849 2.0166047 0
4.8640003 -2.5180254 2.0144401 0
4.8580003 -2.5227442 2.0122755 0
4.8520002 -2.5274413 2.0101109 0
4.8490005 -2.5337942 2.0090287 0
4.8490005 -2.5418196 2.0090287 0
4.8490005 -2.5498447 2.0090287 0
4.8490005 -2.5578697 2.0090287 0
5.0850005 -2.3192766 2.0857174 0
5.0900002 -2.3301623 2.0875123 0
5.0830002 -2.3352003 2.0849996 0
5.0770001 -2.3407037 2.0828457 0
5.0700002 -2.3456931 2.080333 0
5.0640001 -2.3511515 2.0781791 0
5.0580001 -2.3565879 2.0760255 0
5.0510001 -2.3615053 2.0735128 0
5.0450006 -2.3668971 2.0713592 0
5.0390005 -2.372267 2.0692055 0
5.0330005 -2.3776152 2.0670516 0
5.0260005 -2.382437 2.064539 0
5.0200005 -2.3877399 2.0623853 0
5.0140004 -2.3930216 2.0602314 0
5.0080004 -2.3982813 2.0580778 0
5.0020003 -2.4035196 2.0559239 0
4.9950004 -2.4082222 2.0534112 0
4.9890003 -2.4134154 2.0512576 0
4.9830003 -2.4185867 2.0491037 0
4.9770002 -2.4237366 2.0469499 0
4.9710002 -2.428865 2.0447962 0
4.9650002 -2.4339714 2.0426424 0
4.9590001 -2.4390562 2.0404887 0
4.9530005 -2.4441197 2.0383351 0
4.9470005 -2.4491615 2.0361814 0
4.9410005 -2.4541814 2.0340276 0
4.9350004 -2.4591799 2.0318739 0
4.9290004 -2.4641566 2.0297201 0
4.9230003 -2.4691114 2.0275662 0
4.9170003 -2.4740448 2.0254126 0
4.9110003 -2.4789567 2.0232587 0
4.9050002 -2.4838467 2.0211051 0
4.8990002 -2.4887152 2.0189512 0
4.8930001 -2.493562 2.0167975 0
4.8870001 -2.4983873 2.0146437 0
4.8810005 -2.503191 2.01249 0
4.8760004 -2.508523 2.0106952 0
4.8710003 -2.5138371 2.0089004 0
4.8710003 -2.5219018 2.0089004 0
4.8710003 -2.5299666 2.0089004 0
4.8710003 -2.5380313 2.0089004 0
5.0850005 -2.3192766 2.0772667 0
5.0900002 -2.3301623 2.0790522 0
5.0830002 -2.3352003 2.0765522 0
5.0770001 -2.3407037 2.0744092 0
5.0700002 -2.3456931 2.0719092 0
5.0640001 -2.3511515 2.0697663 0
5.0580001 -2.3565879 2.0676234 0
5.0510001 -2.3615053 2.0651233 0
5.0450006 -2.3668971 2.0629804 0
5.0390005 -2.372267 2.0608375 0
5.0330005 -2.3776152 2.0586946 0
5.0260005 -2.382437 2.0561945 0
5.0200005 -2.3877399 2.0540516 0
5.0140004 -2.3930216 2.0519087 0
5.0080004 -2.3982813 2.0497658 0
5.0020003 -2.4035196 2.0476229 0
4.9950004 -2.4082222 2.0451229 0
4.9890003 -2.4134154 2.04298 0
4.9830003 -2.4185867 2.0408368 0
4.9770002 -2.4237366 2.0386939 0
4.9710002 -2.428865 2.036551 0
4.9650002 -2.4339714 2.0344081 0
4.9590001 -2.4390562 2.0322652 0
4.9530005 -2.4441197 2.0301223 0
4.9470005 -2.4491615 2.0279794 0
4.9410005 -2.4541814 2.0258365 0
4.9350004 -2.4591799 2.0236936 0
4.9290004 -2.4641566 2.0215507 0
4.9230003 -2.4691114 2.0194077 0
4.9170003 -2.4740448 2.0172646 0
4.9110003 -2.4789567 2.0151217 0
4.9050002 -2.4838467 2.0129788 0
4.8990002 -2.4887152 2.0108359 0
4.8940005 -2.494107 2.0090504 0
4.8940005 -2.5022132 2.0090504 0
4.8940005 -2.5103197 2.0090504 0
4.8940005 -2.5184259 2.0090504 0
5.0850005 -2.3192766 2.0688157 0
5.0900002 -2.3301623 2.0705924 0
5.0830002 -2.3352003 2.068105 0
5.0770001 -2.3407037 2.065973 0
5.0700002 -2.3456931 2.0634854 0
5.0640001 -2.3511515 2.0613532 0
5.0580001 -2.3565879 2.0592213 0
5.0510001 -2.3615053 2.0567338 0
5.0450006 -2.3668971 2.0546019 0
5.0390005 -2.372267 2.0524697 0
5.0330005 -2.3776152 2.0503376 0
5.0260005 -2.382437 2.0478501 0
5.0200005 -2.3877399 2.045718 0
5.0140004 -2.3930216 2.043586 0
5.0080004 -2.3982813 2.0414538 0
5.0020003 -2.4035196 2.0393217 0
4.9950004 -2.4082222 2.0368342 0
4.9890003 -2.4134154 2.0347021 0
4.9830003 -2.4185867 2.0325699 0
4.9770002 -2.4237366 2.0304379 0
4.9710002 -2.428865 2.0283058 0
4.9650002 -2.4339714 2.0261736 0
4.9590001 -2.4390562 2.0240417 0
4.9530005 -2.4441197 2.0219097 0
4.9470005 -2.4491615 2.0197775 0
4.9410005 -2.4541814 2.0176454 0
4.9350004 -2.4591799 2.0155134 0
4.9290004 -2.4641566 2.0133812 0
4.9230003 -2.4691114 2.0112491 0
4.9170003 -2.4740448 2.0091169 0
4.9170003 -2.4821928 2.0091169 0
4.9170003 -2.4903407 2.0091169 0
4.9170003 -2.4984884 2.0091169 0
5.0850005 -2.3192766 2.060365 0
5.0900002 -2.3301623 2.0621326 0
5.0830002 -2.3352003 2.0596578 0
5.0770001 -2.3407037 2.0575366 0
5.0700002 -2.3456931 2.0550616 0
5.0640001 -2.3511515 2.0529404 0
5.0580001 -2.3565879 2.0508192 0
5.0510001 -2.3615053 2.0483444 0
5.0450006 -2.3668971 2.0462232 0
5.0390005 -2.372267 2.044102 0
5.0330005 -2.3776152 2.0419805 0
5.0260005 -2.382437 2.0395057 0
5.0200005 -2.3877399 2.0373845 0
5.0140004 -2.3930216 2.0352631 0
5.0080004 -2.3982813 2.0331419 0
5.0020003 -2.4035196 2.0310206 0
4.9950004 -2.4082222 2.0285459 0
4.9890003 -2.4134154 2.0264244 0
4.9830003 -2.4185867 2.0243032 0
4.9770002 -2.4237366 2.022182 0
4.9710002 -2.428865 2.0200605 0
4.9650002 -2.4339714 2.0179393 0
4.9590001 -2.4390562 2.0158181 0
4.9530005 -2.4441197 2.0136969 0
4.9470005 -2.4491615 2.0115757 0
4.9410005 -2.4541814 2.0094543 0
4.9400005 -2.4618406 2.0091007 0
4.9400005 -2.4700296 2.0091007 0
4.9400005 -2.478219 2.0091007 0
5.0850005 -2.3192766 2.0519142 0
5.0900002 -2.3301623 2.0536728 0
5.0830002 -2.3352003 2.0512106 0
5.0770001 -2.3407037 2.0491002 0
5.0700002 -2.3456931 2.046638 0
5.0640001 -2.3511515 2.0445273 0
5.0580001 -2.3565879 2.042417 0
5.0510001 -2.3615053 2.0399547 0
5.0450006 -2.3668971 2.0378444 0
5.0390005 -2.372267 2.0357339 0
5.0330005 -2.3776152 2.0336235 0
5.0260005 -2.382437 2.0311613 0
5.0200005 -2.3877399 2.0290508 0
5.0140004 -2.3930216 2.0269403 0
5.0080004 -2.3982813 2.0248299 0
5.0020003 -2.4035196 2.0227196 0
4.9950004 -2.4082222 2.0202572 0
4.9890003 -2.4134154 2.0181468 0
4.9830003 -2.4185867 2.0160363 0
4.9770002 -2.4237366 2.0139258 0
4.9710002 -2.428865 2.0118153 0
4.9650002 -2.4339714 2.0097048 0
4.9630003 -2.4411559 2.0090015 0
4.9630003 -2.4493871 2.0090015 0
4.9630003 -2.4576178 2.0090015 0
5.0850005 -2.3192766 2.0434632 0
5.0900002 -2.3301623 2.0452127 0
5.0830002 -2.3352003 2.0427632 0
5.0770001 -2.3407037 2.0406637 0
5.0700002 -2.3456931 2.0382142 0
5.0640001 -2.3511515 2.0361145 0
5.0580001 -2.3565879 2.0340147 0
5.0510001 -2.3615053 2.0315652 0
5.0450006 -2.3668971 2.0294657 0
5.0390005 -2.372267 2.0273662 0
5.0330005 -2.3776152 2.0252664 0
5.0260005 -2.382437 2.0228169 0
5.0200005 -2.3877399 2.0207174 0
5.0140004 -2.3930216 2.0186176 0
5.0080004 -2.3982813 2.0165179 0
5.0020003 -2.4035196 2.0144184 0
4.9950004 -2.4082222 2.0119689 0
4.9890003 -2.4134154 2.0098691 0
4.9870005 -2.4206576 2.0091693 0
4.9870005 -2.428932 2.0091693 0
4.9870005 -2.4372058 2.0091693 0
5.0850005 -2.3192766 2.0350125 0
5.0900002 -2.3301623 2.0367529 0
5.0830002 -2.3352003 2.0343161 0
5.0770001 -2.3407037 2.0322273 0
5.0700002 -2.3456931 2.0297904 0
5.0640001 -2.3511515 2.0277014 0
5.0580001 -2.3565879 2.0256128 0
5.0510001 -2.3615053 2.0231757 0
5.0450006 -2.3668971 2.0210872 0
5.0390005 -2.372267 2.0189984 0
5.0330005 -2.3776152 2.0169094 0
5.0260005 -2.382437 2.0144725 0
5.0200005 -2.3877399 2.0123837 0
5.0140004 -2.3930216 2.0102949 0
5.0110002 -2.3998127 2.0092504 0
5.0110002 -2.4081302 2.0092504 0
5.0110002 -2.4164474 2.0092504 0
5.0110002 -2.4247646 2.0092504 0
5.0110002 -2.4330823 2.0092504 0
5.0850005 -2.3192766 2.0265617 0
5.0900002 -2.3301623 2.0282931 0
5.0830002 -2.3352003 2.0258689 0
5.0770001 -2.3407037 2.0237908 0
5.0700002 -2.3456931 2.0213666 0
5.0640001 -2.3511515 2.0192885 0
5.0580001 -2.3565879 2.0172105 0
5.0510001 -2.3615053 2.0147862 0
5.0450006 -2.3668971 2.0127084 0
5.0390005 -2.372267 2.0106304 0
5.0330005 -2.3776152 2.0085523 0
5.0260005 -2.382437 2.0061281 0
5.0200005 -2.3877399 2.00405 0
5.0140004 -2.3930216 2.0019722 0
5.0130005 -2.4008338 2.0016258 0
5.0250001 -2.415302 2.0057817 0
5.0850005 -2.3192766 2.0181108 0
5.0900002 -2.3301623 2.0198333 0
5.0830002 -2.3352003 2.0174215 0
5.0770001 -2.3407037 2.0153544 0
5.0700002 -2.3456931 2.0129428 0
5.0640001 -2.3511515 2.0108757 0
5.0580001 -2.3565879 2.0088084 0
5.0510001 -2.3615053 2.0063968 0
5.0450006 -2.3668971 2.0043297 0
5.0390005 -2.372267 2.0022626 0
5.0330005 -2.3776152 2.0001953 0
5.0260005 -2.382437 1.9977838 0
5.0200005 -2.3877399 1.9957165 0
5.0140004 -2.3930216 1.9936494 0
5.0130005 -2.4008338 1.9933048 0
5.0250001 -2.415302 1.997439 0
5.0850005 -2.3192766 2.00966 0
5.0900002 -2.3301623 2.0113735 0
5.0830002 -2.3352003 2.0089743 0
5.0770001 -2.3407037 2.006918 0
5.0700002 -2.3456931 2.004519 0
5.0640001 -2.3511515 2.0024626 0
5.0580001 -2.3565879 2.0004063 0
5.0510001 -2.3615053 1.9980073 0
5.0450006 -2.3668971 1.9959512 0
5.0390005 -2.372267 1.9938947 0
5.0330005 -2.3776152 1.9918383 0
5.0260005 -2.382437 1.9894392 0
5.0200005 -2.3877399 1.9873829 0
5.0140004 -2.3930216 1.9853265 0
5.0130005 -2.4008338 1.9849839 0
5.0250001 -2.415302 1.9890964 0
5.0850005 -2.3192766 2.001209 0
5.0900002 -2.3301623 2.0029137 0
5.0830002 -2.3352003 2.0005271 0
5.0770001 -2.3407037 1.9984816 0
5.0700002 -2.3456931 1.9960952 0
5.0640001 -2.3511515 1.9940498 0
5.0580001 -2.3565879 1.9920042 0
5.0510001 -2.3615053 1.9896177 0
5.0450006 -2.3668971 1.9875724 0
5.0390005 -2.372267 1.9855268 0
5.0330005 -2.3776152 1.9834814 0
5.0260005 -2.382437 1.981095 0
5.0200005 -2.3877399 1.9790493 0
5.0140004 -2.3930216 1.9770038 0
5.0130005 -2.4008338 1.9766629 0
5.0250001 -2.415302 1.9807539 0
5.0850005 -2.3192766 1.9927584 0
5.0900002 -2.3301623 1.9944538 0
5.0830002 -2.3352003 1.99208 0
5.0770001 -2.3407037 1.9900453 0
5.0700002 -2.3456931 1.9876715 0
5.0640001 -2.3511515 1.9856368 0
5.0580001 -2.3565879 1.983602 0
5.0510001 -2.3615053 1.9812282 0
5.0450006 -2.3668971 1.9791937 0
5.0390005 -2.372267 1.977159 0
5.0330005 -2.3776152 1.9751244 0
5.0260005 -2.382437 1.9727504 0
5.0200005 -2.3877399 1.9707158 0
5.0140004 -2.3930216 1.9686811 0
5.0130005 -2.4008338 1.9683419 0
5.0250001 -2.415302 1.9724113 0
5.0850005 -2.3192766 1.9843075 0
5.0900002 -2.3301623 1.985994 0
5.0830002 -2.3352003 1.9836327 0
5.0770001 -2.3407037 1.9816089 0
5.0700002 -2.3456931 1.9792477 0
5.0640001 -2.3511515 1.9772239 0
5.0580001 -2.3565879 1.9751999 0
5.0510001 -2.3615053 1.9728388 0
5.0450006 -2.3668971 1.9708151 0
5.0390005 -2.372267 1.9687911 0
5.0330005 -2.3776152 1.9667673 0
5.0260005 -2.382437 1.964406 0
5.0200005 -2.3877399 1.9623822 0
5.0140004 -2.3930216 1.9603583 0
5.0130005 -2.4008338 1.960021 0
5.0250001 -2.415302 1.9640687 0
5.0850005 -2.3192766 1.9758567 0
5.0900002 -2.3301623 1.9775341 0
5.0830002 -2.3352003 1.9751855 0
5.0770001 -2.3407037 1.9731724 0
5.0700002 -2.3456931 1.9708239 0
