# .PCD v0.7 - Point Cloud Data file format
VERSION 0.7
FIELDS x y z intensity
SIZE 4 4 4 4
TYPE F F F F
COUNT 1 1 1 1
WIDTH 1466
HEIGHT 1
VIEWPOINT 0 0 0 1 0 0 0
POINTS 1466
DATA ascii
3.8710003 1.5067326 0.8735764 0
3.8760002 1.5026993 0.8742528 0
3.8820002 1.4990916 0.87506449 0
3.8880002 1.4954624 0.87587625 0
3.8950002 1.4922515 0.87682319 0
3.9040003 1.4898922 0.87804079 0
3.9130003 1.4875004 0.87925839 0
3.9220002 1.485076 0.88047594 0
3.9260004 1.7984662 0.87465692 0
3.9240003 1.7910632 0.87438989 0
3.9230003 1.7841872 0.87425649 0
3.9230003 1.7778324 0.87425649 0
3.9240003 1.7719934 0.87438989 0
3.9260004 1.766665 0.87465692 0
3.9290004 1.7618417 0.87505734 0
3.9320002 1.7570074 0.87545776 0
3.9350002 1.7521622 0.87585819 0
3.9390004 1.7478135 0.87639213 0
3.9380002 1.7409245 0.87625861 0
3.9360003 1.7335362 0.8759917 0
3.9340003 1.7261549 0.87572473 0
3.9320002 1.718781 0.87545776 0
3.9300003 1.7114142 0.87519079 0
3.9280002 1.7040547 0.87492383 0
3.9260004 1.6967025 0.87465692 0
3.9240003 1.6893574 0.87438989 0
3.9210002 1.6815288 0.87398946 0
3.9190001 1.6741998 0.87372249 0
3.9170003 1.6668782 0.87345552 0
3.9150002 1.6595638 0.87318861 0
3.9130003 1.6522566 0.87292159 0
3.9110003 1.6449565 0.87265468 0
3.9090002 1.6376637 0.87238765 0
3.9070003 1.6303782 0.87212074 0
3.9050002 1.6230998 0.87185371 0
3.9030004 1.6158288 0.8715868 0
3.9010003 1.6085647 0.87131977 0
3.8990002 1.601308 0.87105286 0
3.8530002 1.5609658 0.86491269 0
3.8510003 1.5538101 0.86464572 0
3.8500001 1.5471234 0.86451221 0
3.8500001 1.5409002 0.86451221 0
3.8510003 1.5351354 0.86464572 0
3.8520002 1.5293667 0.86477923 0
3.8550003 1.5245037 0.86517966 0
3.8570004 1.5191771 0.86544669 0
3.8610003 1.5147451 0.86598057 0
3.8650002 1.5102987 0.86651444 0
3.8690002 1.5058378 0.86704838 0
3.8740003 1.5018082 0.86771584 0
3.8800004 1.4982042 0.86851668 0
3.8870003 1.4950205 0.86945111 0
3.8950002 1.4922515 0.87051892 0
3.9040003 1.4898922 0.87172031 0
3.9130003 1.4875004 0.87292159 0
3.9200003 1.7953274 0.86750662 0
3.9190001 1.7884567 0.8673749 0
3.9190001 1.7821091 0.8673749 0
3.9200003 1.7762792 0.86750662 0
3.9210002 1.7704457 0.86763823 0
3.9230003 1.7651227 0.86790162 0
3.9260004 1.7603048 0.86829662 0
3.9290004 1.755476 0.86869168 0
3.9330003 1.751145 0.86921841 0
3.9380002 1.7473065 0.8698768 0
3.9380002 1.7409245 0.8698768 0
3.9360003 1.7335362 0.86961341 0
3.9340003 1.7261549 0.86935008 0
3.9320002 1.718781 0.86908668 0
3.9300003 1.7114142 0.86882335 0
3.9280002 1.7040547 0.86855996 0
3.9260004 1.6967025 0.86829662 0
3.9240003 1.6893574 0.86803329 0
3.9210002 1.6815288 0.86763823 0
3.9190001 1.6741998 0.8673749 0
3.9170003 1.6668782 0.86711156 0
3.9150002 1.6595638 0.86684817 0
3.9130003 1.6522566 0.86658478 0
3.9110003 1.6449565 0.86632144 0
3.9090002 1.6376637 0.86605811 0
3.9070003 1.6303782 0.86579478 0
3.9050002 1.6230998 0.86553138 0
3.9030004 1.6158288 0.86526811 0
3.9010003 1.6085647 0.86500466 0
3.8480003 1.5586389 0.85802579 0
3.8470004 1.5519559 0.85789406 0
3.8460002 1.5452763 0.8577624 0
3.8460002 1.5390604 0.8577624 0
3.8480003 1.5337608 0.85802579 0
3.8490002 1.5279976 0.8581574 0
3.8520002 1.5231401 0.85855246 0
3.8550003 1.5182714 0.85894752 0
3.8590002 1.5138431 0.85947418 0
3.8630002 1.5094002 0.86000097 0
3.8680003 1.5053905 0.86065936 0
3.8730001 1.5013626 0.86131769 0
3.8790002 1.4977604 0.86210775 0
3.8870003 1.4950205 0.86316121 0
3.8950002 1.4922515 0.86421466 0
3.9050002 1.4903305 0.86553138 0
3.9130003 1.4875004 0.86658478 0
3.9180002 1.800627 0.86089742 0
3.9160004 1.7932351 0.86063766 0
3.9150002 1.7863715 0.86050779 0
3.9160004 1.7805507 0.86063766 0
3.9170003 1.7747262 0.86076754 0
3.9180002 1.768898 0.86089742 0
3.9210002 1.7640945 0.861287 0
3.9240003 1.7592801 0.86167669 0
3.9270003 1.754455 0.86206627 0
3.9310002 1.7501277 0.86258578 0
3.9360003 1.7462928 0.86323512 0
3.9380002 1.7409245 0.86349487 0
3.9360003 1.7335362 0.86323512 0
3.9340003 1.7261549 0.86297542 0
3.9320002 1.718781 0.8627156 0
3.9300003 1.7114142 0.86245596 0
3.9280002 1.7040547 0.86219615 0
3.9260004 1.6967025 0.86193645 0
3.9240003 1.6893574 0.86167669 0
3.9210002 1.6815288 0.861287 0
3.9190001 1.6741998 0.8610273 0
3.9170003 1.6668782 0.86076754 0
3.9150002 1.6595638 0.86050779 0
3.9130003 1.6522566 0.86024809 0
3.9110003 1.6449565 0.85998833 0
3.9090002 1.6376637 0.85972857 0
3.9070003 1.6303782 0.85946882 0
3.9050002 1.6230998 0.85920906 0
3.9030004 1.6158288 0.8589493 0
3.9010003 1.6085647 0.85868955 0
3.8460002 1.5639241 0.85154647 0
3.8430002 1.556312 0.85115683 0
3.8420002 1.5496379 0.85102701 0
3.8420002 1.5434293 0.85102701 0
3.8430002 1.5376805 0.85115683 0
3.8450003 1.5323863 0.85141659 0
3.8470004 1.5270849 0.85167634 0
3.8500001 1.5222309 0.85206598 0
3.8530002 1.5173659 0.85245562 0
3.8570004 1.5129412 0.85297513 0
3.8610003 1.5085021 0.85349464 0
3.8660002 1.5044957 0.85414398 0
3.8720002 1.5009171 0.85492325 0
3.8780003 1.4973166 0.85570246 0
3.8860002 1.4945785 0.85674143 0
3.8950002 1.4922515 0.85791034 0
3.9060004 1.4907689 0.85933894 0
3.9130003 1.4875004 0.86024809 0
3.9130003 1.7980026 0.85391128 0
3.9120002 1.7911426 0.85378319 0
3.9120002 1.7848076 0.85378319 0
3.9120002 1.7784727 0.85378319 0
3.9140003 1.7731731 0.85403937 0
3.9160004 1.7678663 0.85429549 0
3.9180002 1.7625523 0.85455167 0
3.9220002 1.7582556 0.85506392 0
3.9250002 1.7534339 0.85544813 0
3.9300003 1.749619 0.85608852 0
3.9350002 1.7457858 0.85672879 0
3.9380002 1.7409245 0.857113 0
3.9360003 1.7335362 0.85685694 0
3.9340003 1.7261549 0.85660076 0
3.9320002 1.718781 0.85634458 0
3.9300003 1.7114142 0.85608852 0
3.9280002 1.7040547 0.85583234 0
3.9260004 1.6967025 0.85557622 0
3.9240003 1.6893574 0.85532004 0
3.9210002 1.6815288 0.85493582 0
3.9190001 1.6741998 0.8546797 0
3.9170003 1.6668782 0.85442352 0
3.9150002 1.6595638 0.8541674 0
3.9130003 1.6522566 0.85391128 0
3.9110003 1.6449565 0.8536551 0
3.9090002 1.6376637 0.85339898 0
3.9070003 1.6303782 0.85314286 0
3.9050002 1.6230998 0.85288668 0
3.9030004 1.6158288 0.85263062 0
3.8410003 1.5615882 0.8446902 0
3.8390002 1.5544505 0.84443402 0
3.8380003 1.5477836 0.84430599 0
3.8390002 1.5420439 0.84443402 0
3.8400002 1.5363005 0.84456211 0
3.8420002 1.5310118 0.84481823 0
3.8440003 1.5257158 0.84507442 0
3.8470004 1.5208672 0.84545863 0
3.8510003 1.5164605 0.84597087 0
3.8550003 1.5120394 0.84648323 0
3.8600004 1.5080529 0.84712356 0
3.8650002 1.5040486 0.8477639 0
3.8710003 1.5004715 0.84853232 0
3.8780003 1.4973166 0.84942883 0
3.8860002 1.4945785 0.85045338 0
3.8960001 1.4926916 0.85173404 0
3.9060004 1.4907689 0.85301483 0
3.9130003 1.4875004 0.85391128 0
3.9110003 1.8032858 0.84732199 0
3.9080002 1.795378 0.84694314 0
3.9080002 1.7890502 0.84694314 0
3.9080002 1.7827224 0.84694314 0
3.9090002 1.7769141 0.84706938 0
3.9110003 1.77162 0.84732199 0
3.9130003 1.7663187 0.84757447 0
3.9160004 1.7615241 0.84795332 0
3.9200003 1.757231 0.84845835 0
3.9230003 1.7524132 0.84883714 0
3.9280002 1.7486016 0.84946847 0
3.9330003 1.7447722 0.8500998 0
3.9380002 1.7409245 0.85073113 0
3.9360003 1.7335362 0.85047865 0
3.9340003 1.7261549 0.85022604 0
3.9320002 1.718781 0.84997356 0
3.9300003 1.7114142 0.84972107 0
3.9280002 1.7040547 0.84946847 0
3.9260004 1.6967025 0.84921598 0
3.9240003 1.6893574 0.84896338 0
3.9210002 1.6815288 0.84858465 0
3.9190001 1.6741998 0.84833205 0
3.9170003 1.6668782 0.84807956 0
3.9150002 1.6595638 0.84782702 0
3.9130003 1.6522566 0.84757447 0
3.9110003 1.6449565 0.84732199 0
3.9090002 1.6376637 0.84706938 0
3.9070003 1.6303782 0.8468169 0
3.9050002 1.6230998 0.84656435 0
3.9030004 1.6158288 0.84631181 0
3.8390002 1.566857 0.83823073 0
3.8360002 1.5592521 0.837852 0
3.8350003 1.5525889 0.8377257 0
3.8350003 1.5463929 0.8377257 0
3.8350003 1.5401968 0.8377257 0
3.8370004 1.5349207 0.83797824 0
3.8390002 1.5296373 0.83823073 0
3.8420002 1.5248032 0.83860958 0
3.8450003 1.519958 0.83898836 0
3.8490002 1.515555 0.83949339 0
3.8530002 1.5111374 0.83999848 0
3.8580003 1.5071547 0.84062982 0
3.8640003 1.5036012 0.84138739 0
3.8700004 1.5000261 0.84214509 0
3.8780003 1.4973166 0.84315515 0
3.8860002 1.4945785 0.84416533 0
3.8970003 1.4931319 0.84555423 0
3.9060004 1.4907689 0.84669065 0
3.9130003 1.4875004 0.84757447 0
3.9050002 1.8001255 0.84024203 0
3.9040003 1.7932783 0.84011757 0
3.9040003 1.7869577 0.84011757 0
3.9040003 1.7806373 0.84011757 0
3.9060004 1.7753557 0.84036648 0
3.9080002 1.7700669 0.84061539 0
3.9110003 1.7652868 0.84098881 0
3.9140003 1.7604959 0.84136224 0
3.9180002 1.7562065 0.84186006 0
3.9220002 1.7519025 0.84235787 0
3.9270003 1.748093 0.84298015 0
3.9320002 1.7442652 0.84360254 0
3.9380002 1.7409245 0.84434927 0
3.9360003 1.7335362 0.84410036 0
3.9340003 1.7261549 0.84385145 0
3.9320002 1.718781 0.84360254 0
3.9300003 1.7114142 0.84335357 0
3.9280002 1.7040547 0.84310466 0
3.9260004 1.6967025 0.84285575 0
3.9240003 1.6893574 0.84260678 0
3.9210002 1.6815288 0.84223342 0
3.9190001 1.6741998 0.84198451 0
3.9170003 1.6668782 0.8417356 0
3.9150002 1.6595638 0.84148663 0
3.9130003 1.6522566 0.84123772 0
3.9110003 1.6449565 0.84098881 0
3.9090002 1.6376637 0.84073985 0
3.9070003 1.6303782 0.84049094 0
3.9050002 1.6230998 0.84024203 0
3.8340003 1.5645123 0.83140516 0
3.8320003 1.5573835 0.83115625 0
3.8310003 1.5507275 0.8310318 0
3.8310003 1.5445386 0.8310318 0
3.8320003 1.5388114 0.83115625 0
3.8340003 1.5335407 0.83140516 0
3.8370004 1.528721 0.83177853 0
3.8390002 1.5234339 0.83202749 0
3.8430002 1.5190489 0.83252531 0
3.8470004 1.5146495 0.83302319 0
3.8520002 1.5106865 0.83364546 0
3.8570004 1.5067056 0.83426785 0
3.8630002 1.5031538 0.83501458 0
3.8700004 1.5000261 0.83588588 0
3.8770003 1.4968729 0.83675706 0
3.8870003 1.4950205 0.83800173 0
3.8990002 1.4940121 0.83949518 0
3.9060004 1.4907689 0.84036648 0
3.9130003 1.4875004 0.84123772 0
3.9030004 1.8053908 0.83367431 0
3.9010003 1.7980187 0.83342904 0
3.9000003 1.7911787 0.83330637 0
3.9000003 1.7848654 0.83330637 0
3.9010003 1.7790734 0.83342904 0
3.9030004 1.7737973 0.83367431 0
3.9060004 1.7690316 0.83404231 0
3.9080002 1.7637391 0.83428764 0
3.9120002 1.7594677 0.83477831 0
3.9160004 1.7551819 0.83526891 0
3.9200003 1.7508816 0.83575952 0
3.9250002 1.7470756 0.83637285 0
3.9310002 1.7437584 0.83710879 0
3.9370003 1.7404195 0.83784473 0
3.9360003 1.7335362 0.83772206 0
3.9340003 1.7261549 0.83747679 0
3.9320002 1.718781 0.83723146 0
3.9300003 1.7114142 0.83698612 0
3.9280002 1.7040547 0.83674085 0
3.9260004 1.6967025 0.83649552 0
3.9240003 1.6893574 0.83625019 0
3.9210002 1.6815288 0.83588219 0
3.9190001 1.6741998 0.83563685 0
3.9170003 1.6668782 0.83539152 0
3.9150002 1.6595638 0.83514625 0
3.9130003 1.6522566 0.83490098 0
3.9110003 1.6449565 0.83465564 0
3.9090002 1.6376637 0.83441031 0
3.9070003 1.6303782 0.83416498 0
3.9050002 1.6230998 0.83391964 0
3.8320003 1.5697647 0.8249656 0
3.8290002 1.5621672 0.8245976 0
3.8280003 1.5555148 0.82447493 0
3.8280003 1.5493313 0.82447493 0
3.8280003 1.5431478 0.82447493 0
3.8300002 1.5378879 0.82472026 0
3.8310003 1.5321608 0.82484293 0
3.8340003 1.5273465 0.82521093 0
3.8370004 1.5225214 0.82557887 0
3.8410003 1.51814 0.82606947 0
3.8450003 1.513744 0.82656014 0
3.8500001 1.5097846 0.82717341 0
3.8560002 1.5062563 0.82790935 0
3.8620002 1.5027065 0.82864535 0
3.8690002 1.4995804 0.82950395 0
3.8780003 1.4973166 0.83060789 0
3.8880002 1.4954624 0.83183444 0
3.9000003 1.4944522 0.83330637 0
3.9060004 1.4907689 0.83404231 0
3.9130003 1.4875004 0.83490098 0
3.8980002 1.8027483 0.82675135 0
3.8970003 1.7959119 0.82663047 0
3.8960001 1.789079 0.82650959 0
3.8970003 1.7832961 0.82663047 0
3.8980002 1.7775095 0.82675135 0
3.9000003 1.7722387 0.82699305 0
3.9030004 1.7674785 0.82735562 0
3.9060004 1.7627074 0.8277182 0
3.9100003 1.7584395 0.82820159 0
3.9140003 1.7541574 0.82868505 0
3.9190001 1.7503711 0.82928932 0
3.9240003 1.7465669 0.82989359 0
3.9300003 1.7432516 0.83061874 0
3.9370003 1.7404195 0.83146471 0
3.9360003 1.7335362 0.83134383 0
3.9340003 1.7261549 0.83110213 0
3.9320002 1.718781 0.83086038 0
3.9300003 1.7114142 0.83061874 0
3.9280002 1.7040547 0.83037698 0
3.9260004 1.6967025 0.83013529 0
3.9240003 1.6893574 0.82989359 0
3.9210002 1.6815288 0.82953101 0
3.9190001 1.6741998 0.82928932 0
3.9170003 1.6668782 0.82904756 0
3.9150002 1.6595638 0.82880586 0
3.9130003 1.6522566 0.82856417 0
3.9110003 1.6449565 0.82832247 0
3.9090002 1.6376637 0.82808071 0
3.9070003 1.6303782 0.82783902 0
3.8270001 1.5674108 0.81817061 0
3.8250003 1.5602913 0.81792891 0
3.8240004 1.553646 0.81780803 0
3.8240004 1.5474699 0.81780803 0
3.8250003 1.5417571 0.81792891 0
3.8270001 1.5365026 0.81817061 0
3.8290002 1.5312408 0.8184123 0
3.8320003 1.5264301 0.81877494 0
3.8350003 1.5216086 0.81913745 0
3.8390002 1.5172307 0.81962085 0
3.8440003 1.5132912 0.82022518 0
3.8480003 1.5088828 0.82070857 0
3.8550003 1.5058072 0.82155454 0
3.8610003 1.5022591 0.82227969 0
3.8690002 1.4995804 0.82324648 0
3.8780003 1.4973166 0.82433426 0
3.8900003 1.4963462 0.8257845 0
3.9000003 1.4944522 0.82699305 0
3.9060004 1.4907689 0.8277182 0
3.9130003 1.4875004 0.82856417 0
3.9220002 1.485076 0.82965183 0
4.079 1.4670559 0.84862614 0
4.0770001 1.4596009 0.84838444 0
4.0750003 1.452153 0.84814268 0
4.073 1.4447123 0.84790099 0
4.0710001 1.4372787 0.84765929 0
4.0690002 1.4298524 0.84741759 0
3.8960001 1.8079972 0.82020354 0
3.8940003 1.8006343 0.81996542 0
3.8920002 1.7932782 0.8197273 0
3.8930004 1.7875043 0.81984639 0
3.8940003 1.7817267 0.81996542 0
3.8960001 1.7764667 0.82020354 0
3.8980002 1.7711997 0.8204416 0
3.9010003 1.766443 0.82079875 0
3.9040003 1.7616756 0.82115591 0
3.9080002 1.7574114 0.82163215 0
3.9120002 1.7531327 0.82210833 0
3.9170003 1.7493502 0.8227036 0
3.9230003 1.7460583 0.8234179 0
3.9290004 1.7427447 0.8241322 0
3.9370003 1.7404195 0.82508463 0
3.9360003 1.7335362 0.8249656 0
3.9340003 1.7261549 0.82472742 0
3.9320002 1.718781 0.82448936 0
3.9300003 1.7114142 0.82425129 0
3.9280002 1.7040547 0.82401311 0
3.9260004 1.6967025 0.82377505 0
3.9240003 1.6893574 0.82353699 0
3.9210002 1.6815288 0.82317984 0
3.9190001 1.6741998 0.82294166 0
3.9170003 1.6668782 0.8227036 0
3.9150002 1.6595638 0.82246548 0
3.9130003 1.6522566 0.82222736 0
3.9110003 1.6449565 0.8219893 0
3.9090002 1.6376637 0.82175118 0
3.9070003 1.6303782 0.82151306 0
3.8250003 1.5726473 0.81175089 0
3.8220003 1.5650569 0.81139374 0
3.8210003 1.5584153 0.81127465 0
3.8200002 1.5517772 0.81115556 0
3.8210003 1.5460736 0.81127465 0
3.8220003 1.5403664 0.81139374 0
3.8240004 1.5351173 0.8116318 0
3.8260002 1.529861 0.81186992 0
3.8290002 1.5250556 0.81222707 0
3.8330002 1.5206958 0.81270325 0
3.8370004 1.5163217 0.81317949 0
3.8420002 1.5123856 0.8137747 0
3.8470004 1.5084318 0.81437004 0
3.8530002 1.5049088 0.81508434 0
3.8610003 1.5022591 0.8160367 0
3.8690002 1.4995804 0.81698912 0
3.8790002 1.4977604 0.81817961 0
3.8930004 1.4976721 0.81984639 0
3.9000003 1.4944522 0.82067972 0
3.9060004 1.4907689 0.82139403 0
3.9130003 1.4875004 0.82222736 0
3.9220002 1.485076 0.82329881 0
4.0940003 1.519868 0.84377569 0
4.092 1.5123605 0.84353757 0
4.0900002 1.5048602 0.84329951 0
4.0880003 1.4973671 0.84306139 0
4.086 1.4898813 0.84282327 0
4.0830002 1.4819878 0.84246612 0
4.0810003 1.4745183 0.84222806 0
4.079 1.4670559 0.84198987 0
4.0770001 1.4596009 0.84175181 0
4.0750003 1.452153 0.84151375 0
4.073 1.4447123 0.84127557 0
4.0710001 1.4372787 0.84103751 0
4.0690002 1.4298524 0.84079939 0
4.0669999 1.4224334 0.84056127 0
4.0700002 1.4170147 0.84091842 0
4.0799999 1.4143631 0.84210896 0
3.8900003 1.8048155 0.81319392 0
3.8890002 1.7979916 0.81307662 0
3.8890002 1.7916981 0.81307662 0
3.8890002 1.7854047 0.81307662 0
3.8910003 1.7801574 0.81331116 0
3.8930004 1.7749029 0.81354564 0
3.8950002 1.7696413 0.81378013 0
3.8980002 1.76489 0.81413186 0
3.9020002 1.7606437 0.81460088 0
3.9060004 1.7563833 0.81506991 0
3.9110003 1.7526205 0.81565613 0
3.9160004 1.7488397 0.81624234 0
3.9220002 1.7455496 0.81694579 0
3.9290004 1.7427447 0.81776655 0
3.9360003 1.7399145 0.8185873 0
3.9360003 1.7335362 0.8185873 0
3.9340003 1.7261549 0.81835282 0
3.9320002 1.718781 0.81811833 0
3.9300003 1.7114142 0.81788385 0
3.9280002 1.7040547 0.8176493 0
3.9260004 1.6967025 0.81741488 0
3.9240003 1.6893574 0.81718034 0
3.9210002 1.6815288 0.81682861 0
3.9190001 1.6741998 0.81659406 0
3.9170003 1.6668782 0.81635964 0
3.9150002 1.6595638 0.81612509 0
3.9130003 1.6522566 0.81589061 0
3.9110003 1.6449565 0.81565613 0
3.9090002 1.6376637 0.81542158 0
3.9070003 1.6303782 0.8151871 0
3.8200002 1.5702844 0.8049866 0
3.8180003 1.5631738 0.80475211 0
3.8160002 1.5560703 0.80451763 0
3.8170002 1.5503756 0.80463481 0
3.8170002 1.544212 0.80463481 0
3.8190002 1.5389756 0.80486935 0
3.8210003 1.5337319 0.80510384 0
3.8240004 1.528941 0.80545557 0
3.8270001 1.5241393 0.80580729 0
3.8310003 1.5197831 0.80627632 0
3.8360002 1.515867 0.80686253 0
3.8400002 1.5114801 0.80733156 0
3.8460002 1.5079807 0.80803502 0
3.8530002 1.5049088 0.80885577 0
3.8600004 1.5018119 0.80967653 0
3.8690002 1.4995804 0.81073171 0
3.8810003 1.4986479 0.81213868 0
3.8960001 1.4989978 0.81389737 0
3.9000003 1.4944522 0.8143664 0
3.9060004 1.4907689 0.81506991 0
3.9130003 1.4875004 0.81589061 0
3.9220002 1.485076 0.81694579 0
4.0960002 1.5273825 0.83734691 0
4.0940003 1.519868 0.83711243 0
4.092 1.5123605 0.83687794 0
4.0900002 1.5048602 0.8366434 0
4.0880003 1.4973671 0.83640897 0
4.086 1.4898813 0.83617443 0
4.0830002 1.4819878 0.8358227 0
4.0810003 1.4745183 0.83558822 0
4.079 1.4670559 0.83535373 0
4.0770001 1.4596009 0.83511925 0
4.0750003 1.452153 0.8348847 0
4.073 1.4447123 0.83465022 0
4.0710001 1.4372787 0.83441573 0
4.0690002 1.4298524 0.83418119 0
4.0669999 1.4224334 0.8339467 0
4.0700002 1.4170147 0.83429849 0
4.0799999 1.4143631 0.83547091 0
3.8890002 1.8105786 0.8067832 0
3.8860002 1.8026942 0.80643684 0
3.8850002 1.7958776 0.80632138 0
3.8850002 1.7895913 0.80632138 0
3.8860002 1.7838299 0.80643684 0
3.8880002 1.7785881 0.80666775 0
3.8900003 1.773339 0.80689859 0
3.8930004 1.7686023 0.80724496 0
3.8960001 1.7638545 0.80759126 0
3.9000003 1.7596121 0.80805308 0
3.9050002 1.7558692 0.80863023 0
3.9090002 1.7515959 0.80909204 0
3.9150002 1.7483293 0.80978471 0
3.9210002 1.7450409 0.81047738 0
3.9290004 1.7427447 0.81140095 0
3.9370003 1.7404195 0.81232446 0
3.9360003 1.7335362 0.81220901 0
3.9340003 1.7261549 0.8119781 0
3.9320002 1.718781 0.81174725 0
3.9300003 1.7114142 0.8115164 0
3.9280002 1.7040547 0.8112855 0
3.9260004 1.6967025 0.81105459 0
3.9240003 1.6893574 0.81082368 0
3.9210002 1.6815288 0.81047738 0
3.9190001 1.6741998 0.81024647 0
3.9170003 1.6668782 0.81001562 0
3.9150002 1.6595638 0.80978471 0
3.9130003 1.6522566 0.80955386 0
3.9110003 1.6449565 0.80932295 0
3.9090002 1.6376637 0.80909204 0
3.8150003 1.5679213 0.7982403 0
3.8130002 1.5608197 0.79800946 0
3.8130002 1.5546633 0.79800946 0
3.8130002 1.548507 0.79800946 0
3.8140004 1.542816 0.79812491 0
3.8160002 1.5375849 0.79835582 0
3.8190002 1.5328084 0.79870212 0
3.8210003 1.5275611 0.79893303 0
3.8250003 1.523223 0.79939479 0
3.8290002 1.5188704 0.79985654 0
3.8340003 1.5149579 0.80043375 0
3.8390002 1.5110273 0.80101097 0
3.8450003 1.5075299 0.80170369 0
3.8520002 1.5044597 0.80251175 0
3.8600004 1.5018119 0.80343533 0
3.8700004 1.5000261 0.80458975 0
3.8830004 1.4995354 0.80609053 0
3.8960001 1.4989978 0.80759126 0
3.9000003 1.4944522 0.80805308 0
3.9060004 1.4907689 0.80874574 0
3.9130003 1.4875004 0.80955386 0
3.9220002 1.485076 0.81059277 0
4.098 1.5349044 0.83091092 0
4.0960002 1.5273825 0.83068001 0
4.0940003 1.519868 0.83044916 0
4.092 1.5123605 0.83021826 0
4.0900002 1.5048602 0.82998735 0
4.0880003 1.4973671 0.8297565 0
4.086 1.4898813 0.82952559 0
4.0830002 1.4819878 0.82917929 0
4.0810003 1.4745183 0.82894838 0
4.079 1.4670559 0.82871747 0
4.0770001 1.4596009 0.82848662 0
4.0750003 1.452153 0.82825571 0
4.073 1.4447123 0.8280248 0
4.0710001 1.4372787 0.82779396 0
4.0690002 1.4298524 0.82756305 0
4.0669999 1.4224334 0.82733214 0
4.0700002 1.4170147 0.82767844 0
4.0799999 1.4143631 0.82883292 0
4.0900002 1.4116753 0.82998735 0
3.8830004 1.807386 0.79980785 0
3.8820002 1.8005729 0.79969418 0
3.8810003 1.7937635 0.79958057 0
3.8820002 1.7880112 0.79969418 0
3.8830004 1.7822553 0.79980785 0
3.8850002 1.7770188 0.80003512 0
3.8880002 1.7722964 0.80037606 0
3.8910003 1.7675633 0.800717 0
3.8940003 1.7628193 0.80105788 0
3.8980002 1.7585802 0.80151248 0
3.9030004 1.7548411 0.80208063 0
3.9080002 1.7510836 0.80264884 0
3.9140003 1.7478187 0.80333066 0
3.9210002 1.7450409 0.80412614 0
3.9280002 1.7422378 0.80492163 0
3.9370003 1.7404195 0.80594444 0
3.9360003 1.7335362 0.80583078 0
3.9340003 1.7261549 0.8056035 0
3.9320002 1.718781 0.80537617 0
3.9300003 1.7114142 0.80514896 0
3.9280002 1.7040547 0.80492163 0
3.9260004 1.6967025 0.80469441 0
3.9240003 1.6893574 0.80446708 0
3.9210002 1.6815288 0.80412614 0
3.9190001 1.6741998 0.80389887 0
3.9170003 1.6668782 0.8036716 0
3.9150002 1.6595638 0.80344433 0
3.9130003 1.6522566 0.80321705 0
3.9110003 1.6449565 0.80298972 0
3.9090002 1.6376637 0.80276251 0
3.8130002 1.5731325 0.79185307 0
3.8100002 1.5655583 0.79151213 0
3.8090003 1.5589365 0.79139853 0
3.8090003 1.5527873 0.79139853 0
3.8100002 1.5471053 0.79151213 0
3.8120003 1.5418851 0.7917394 0
3.8140004 1.5366578 0.79196668 0
3.8160002 1.5314231 0.79219401 0
3.8190002 1.5266411 0.79253489 0
3.8230002 1.5223066 0.79298943 0
3.8280003 1.518414 0.79355764 0
3.8320003 1.5140487 0.79401219 0
3.8380003 1.5105747 0.79469407 0
3.8440003 1.5070789 0.79537594 0
3.8520002 1.5044597 0.79628503 0
3.8610003 1.5022591 0.79730779 0
3.8710003 1.5004715 0.79844415 0
3.8870003 1.5013103 0.80026245 0
3.8960001 1.4989978 0.80128515 0
3.9000003 1.4944522 0.80173975 0
3.9060004 1.4907689 0.80242157 0
3.9130003 1.4875004 0.80321705 0
3.9220002 1.485076 0.80423975 0
4.098 1.5349044 0.82424045 0
4.0960002 1.5273825 0.82401311 0
4.0940003 1.519868 0.8237859 0
4.092 1.5123605 0.82355857 0
4.0900002 1.5048602 0.8233313 0
4.0880003 1.4973671 0.82310402 0
4.086 1.4898813 0.82287675 0
4.0830002 1.4819878 0.82253581 0
4.0810003 1.4745183 0.82230854 0
4.079 1.4670559 0.82208127 0
4.0770001 1.4596009 0.821854 0
4.0750003 1.452153 0.82162672 0
4.073 1.4447123 0.82139945 0
4.0710001 1.4372787 0.82117212 0
4.0690002 1.4298524 0.82094491 0
4.0669999 1.4224334 0.82071757 0
4.0700002 1.4170147 0.82105851 0
4.0799999 1.4143631 0.82219493 0
4.0900002 1.4116753 0.8233313 0
3.8810003 1.8126009 0.79330146 0
3.8790002 1.8052574 0.79307783 0
3.8780003 1.7984517 0.79296601 0
3.8780003 1.792178 0.79296601 0
3.8790002 1.7864311 0.79307783 0
3.8800004 1.7806805 0.79318964 0
3.8830004 1.7759726 0.79352522 0
3.8850002 1.7707325 0.79374886 0
3.8890002 1.7665242 0.79419619 0
3.8920002 1.7617838 0.7945317 0
3.8970003 1.7580644 0.79509091 0
3.9020002 1.7543268 0.79565006 0
3.9070003 1.7505714 0.79620922 0
3.9130003 1.7473084 0.79688025 0
3.9210002 1.7450409 0.79777491 0
3.9290004 1.7427447 0.7986697 0
3.9380002 1.7409245 0.79967618 0
3.9360003 1.7335362 0.79945254 0
3.9340003 1.7261549 0.79922885 0
3.9320002 1.718781 0.79900515 0
3.9300003 1.7114142 0.79878151 0
3.9280002 1.7040547 0.79855782 0
3.9260004 1.6967025 0.79833412 0
3.9240003 1.6893574 0.79811049 0
3.9210002 1.6815288 0.79777491 0
3.9190001 1.6741998 0.79755127 0
3.9170003 1.6668782 0.79732764 0
3.9150002 1.6595638 0.79710394 0
3.9130003 1.6522566 0.79688025 0
3.9110003 1.6449565 0.79665661 0
3.8080003 1.5707606 0.78513753 0
3.8060002 1.5636679 0.78491378 0
3.8050003 1.5570534 0.78480196 0
3.8060002 1.5513804 0.78491378 0
3.8070002 1.5457038 0.7850256 0
3.8090003 1.540489 0.78524935 0
3.8110003 1.5352671 0.78547299 0
3.8140004 1.5304996 0.7858085 0
3.8170002 1.5257212 0.78614402 0
3.8210003 1.5213903 0.78659141 0
3.8260002 1.5175012 0.7871505 0
3.8310003 1.5135943 0.78770971 0
3.8370004 1.5101219 0.78838074 0
3.8440003 1.5070789 0.78916359 0
3.8510003 1.5040107 0.78994644 0
3.8610003 1.5022591 0.7910648 0
3.8730001 1.5013626 0.7924068 0
3.8920002 1.503529 0.7945317 0
3.8960001 1.4989978 0.79497904 0
3.9000003 1.4944522 0.79542637 0
3.9060004 1.4907689 0.79609746 0
3.9130003 1.4875004 0.79688025 0
3.9220002 1.485076 0.79788673 0
4.098 1.5349044 0.81756997 0
4.0960002 1.5273825 0.81734627 0
4.0940003 1.519868 0.81712258 0
4.092 1.5123605 0.81689894 0
4.0900002 1.5048602 0.81667525 0
4.0880003 1.4973671 0.81645155 0
4.086 1.4898813 0.81622791 0
4.0830002 1.4819878 0.8158924 0
4.0810003 1.4745183 0.8156687 0
4.079 1.4670559 0.81544507 0
4.0770001 1.4596009 0.81522143 0
4.0750003 1.452153 0.81499767 0
4.073 1.4447123 0.81477404 0
4.0710001 1.4372787 0.8145504 0
4.0690002 1.4298524 0.8143267 0
4.0669999 1.4224334 0.81410301 0
4.0700002 1.4170147 0.81443852 0
4.0799999 1.4143631 0.81555688 0
4.0900002 1.4116753 0.81667525 0
3.8760002 1.8099309 0.78647232 0
3.8740003 1.8025968 0.78625226 0
3.8740003 1.7963305 0.78625226 0
3.8740003 1.790064 0.78625226 0
3.8760002 1.7848508 0.78647232 0
3.8780003 1.7796307 0.78669238 0
3.8800004 1.7744033 0.78691244 0
3.8830004 1.76969 0.78724253 0
3.8870003 1.7654853 0.78768265 0
3.8910003 1.7612661 0.78812277 0
3.8950002 1.7570325 0.78856289 0
3.9000003 1.7532988 0.78911304 0
3.9060004 1.7500591 0.78977323 0
3.9130003 1.7473084 0.7905435 0
3.9200003 1.7445322 0.79131377 0
3.9290004 1.7427447 0.79230404 0
3.9380002 1.7409245 0.79329431 0
3.9360003 1.7335362 0.79307425 0
3.9340003 1.7261549 0.79285419 0
3.9320002 1.718781 0.79263413 0
3.9300003 1.7114142 0.79241407 0
3.9280002 1.7040547 0.79219401 0
3.9260004 1.6967025 0.79197395 0
3.9240003 1.6893574 0.79175383 0
3.9210002 1.6815288 0.79142374 0
3.9190001 1.6741998 0.79120362 0
3.9170003 1.6668782 0.79098368 0
3.9150002 1.6595638 0.79076356 0
3.9130003 1.6522566 0.7905435 0
3.9110003 1.6449565 0.79032338 0
3.8060002 1.5759555 0.77877003 0
3.8030002 1.5683885 0.77843994 0
3.8020003 1.5617776 0.77832991 0
3.8020003 1.5556411 0.77832991 0
3.8020003 1.5495044 0.77832991 0
3.8040001 1.5443022 0.77854991 0
3.8060002 1.5390929 0.77877003 0
3.8090003 1.5343398 0.77910012 0
3.8120003 1.5295759 0.77943021 0
3.8150003 1.5248014 0.77976036 0
3.8200002 1.5209321 0.78031051 0
3.8240004 1.5165887 0.78075063 0
3.8300002 1.5131397 0.78141081 0
3.8360002 1.5096692 0.78207099 0
3.8430002 1.5066279 0.78284121 0
3.8520002 1.5044597 0.78383148 0
3.8620002 1.5027065 0.78493184 0
3.8770003 1.5031447 0.78658235 0
3.8920002 1.503529 0.7882328 0
3.8960001 1.4989978 0.78867292 0
3.9000003 1.4944522 0.78911304 0
3.9060004 1.4907689 0.78977323 0
3.9130003 1.4875004 0.7905435 0
3.9220002 1.485076 0.79153377 0
4.1000004 1.5424336 0.81111956 0
4.098 1.5349044 0.8108995 0
4.0960002 1.5273825 0.81067944 0
4.0940003 1.519868 0.81045938 0
4.092 1.5123605 0.81023926 0
4.0900002 1.5048602 0.8100192 0
4.0880003 1.4973671 0.80979919 0
4.086 1.4898813 0.80957907 0
4.0830002 1.4819878 0.80924898 0
4.0810003 1.4745183 0.80902892 0
4.079 1.4670559 0.8088088 0
4.0770001 1.4596009 0.8085888 0
4.0750003 1.452153 0.80836874 0
4.073 1.4447123 0.80814862 0
4.0710001 1.4372787 0.80792856 0
4.0690002 1.4298524 0.8077085 0
4.0669999 1.4224334 0.80748844 0
4.0700002 1.4170147 0.80781853 0
4.0799999 1.4143631 0.80891889 0
4.0900002 1.4116753 0.8100192 0
3.8740003 1.8151296 0.77998579 0
3.8710003 1.8072613 0.77966112 0
3.8700004 1.8004683 0.77955294 0
3.8700004 1.7942091 0.77955294 0
3.8710003 1.7884784 0.77966112 0
3.8730001 1.7832707 0.77987754 0
3.8750002 1.7780559 0.78009403 0
3.8780003 1.773357 0.78041875 0
3.8810003 1.7686473 0.78074342 0
3.8850002 1.7644463 0.78117633 0
3.8890002 1.7602307 0.78160924 0
3.8940003 1.7565167 0.78215039 0
3.8990002 1.7527846 0.78269148 0
3.9050002 1.7495468 0.78334087 0
3.9130003 1.7473084 0.78420675 0
3.9210002 1.7450409 0.78507257 0
3.9300003 1.7432516 0.78604662 0
3.9380002 1.7409245 0.78691244 0
3.9360003 1.7335362 0.78669596 0
3.9340003 1.7261549 0.78647947 0
3.9320002 1.718781 0.78626299 0
3.9300003 1.7114142 0.78604662 0
3.9280002 1.7040547 0.78583014 0
3.9260004 1.6967025 0.78561366 0
3.9240003 1.6893574 0.78539717 0
3.9210002 1.6815288 0.78507257 0
3.9190001 1.6741998 0.78485608 0
3.9170003 1.6668782 0.78463966 0
3.9150002 1.6595638 0.78442317 0
3.9130003 1.6522566 0.78420675 0
3.8010004 1.5735745 0.77208513 0
3.7990003 1.566491 0.77186865 0
3.7980003 1.5598872 0.77176046 0
3.7990003 1.5542287 0.77186865 0
3.8000002 1.5485663 0.77197689 0
3.8010004 1.5429008 0.77208513 0
3.8040001 1.538162 0.7724098 0
3.8060002 1.5329491 0.77262628 0
3.8100002 1.5286524 0.77305913 0
3.8130002 1.5238813 0.77338386 0
3.8180003 1.5200158 0.77392501 0
3.8230002 1.5161322 0.77446616 0
3.8290002 1.5126851 0.77511549 0
3.8360002 1.5096692 0.77587306 0
3.8430002 1.5066279 0.7766307 0
3.8520002 1.5044597 0.77760482 0
3.8640003 1.5036012 0.77890348 0
3.8850002 1.5067091 0.78117633 0
3.8920002 1.503529 0.7819339 0
3.8960001 1.4989978 0.78236687 0
3.9000003 1.4944522 0.78279972 0
3.9060004 1.4907689 0.78344911 0
3.9130003 1.4875004 0.78420675 0
3.9220002 1.485076 0.78518081 0
4.1000004 1.5424336 0.80444545 0
4.098 1.5349044 0.80422896 0
4.0960002 1.5273825 0.80401254 0
4.0940003 1.519868 0.80379605 0
4.092 1.5123605 0.80357957 0
4.0900002 1.5048602 0.80336314 0
4.0880003 1.4973671 0.80314672 0
4.086 1.4898813 0.80293024 0
4.0830002 1.4819878 0.80260557 0
4.0810003 1.4745183 0.80238914 0
4.079 1.4670559 0.80217266 0
4.0770001 1.4596009 0.80195618 0
4.0750003 1.452153 0.80173975 0
4.073 1.4447123 0.80152327 0
4.0710001 1.4372787 0.80130684 0
4.0690002 1.4298524 0.80109036 0
4.0669999 1.4224334 0.80087388 0
4.0700002 1.4170147 0.8011986 0
4.0799999 1.4143631 0.8022809 0
4.0900002 1.4116753 0.80336314 0
3.8690002 1.8124511 0.77318728 0
3.8670003 1.8051257 0.77297437 0
3.8670003 1.798872 0.77297437 0
3.8670003 1.7926182 0.77297437 0
3.8680003 1.7868928 0.77308083 0
3.8700004 1.7816906 0.77329367 0
3.8730001 1.777006 0.77361292 0
3.8750002 1.7717878 0.77382576 0
3.8790002 1.7676047 0.77425146 0
3.8830004 1.7634072 0.77467716 0
3.8880002 1.7597131 0.77520931 0
3.8930004 1.7560008 0.77574146 0
3.8980002 1.7522706 0.77627355 0
3.9050002 1.7495468 0.77701855 0
3.9120002 1.7467977 0.77776349 0
3.9210002 1.7450409 0.77872133 0
3.9320002 1.7442652 0.77989197 0
3.9380002 1.7409245 0.78053057 0
3.9360003 1.7335362 0.78031766 0
3.9340003 1.7261549 0.78010488 0
3.9320002 1.718781 0.77989197 0
3.9300003 1.7114142 0.77967918 0
3.9280002 1.7040547 0.77946627 0
3.9260004 1.6967025 0.77925348 0
3.9240003 1.6893574 0.77904058 0
3.9210002 1.6815288 0.77872133 0
3.9190001 1.6741998 0.77850842 0
3.9170003 1.6668782 0.77829564 0
3.9150002 1.6595638 0.77808279 0
3.9130003 1.6522566 0.77786994 0
3.7990003 1.5787532 0.76573753 0
3.7960002 1.5711935 0.76541829 0
3.7950003 1.5645933 0.76531184 0
3.7950003 1.5584694 0.76531184 0
3.7950003 1.5523454 0.76531184 0
3.7970002 1.5471594 0.76552463 0
3.7980003 1.5414993 0.76563108 0
3.8010004 1.5367661 0.76595038 0
3.8040001 1.5320219 0.76626962 0
3.8080003 1.5277289 0.76669538 0
3.8120003 1.5234214 0.76712108 0
3.8170002 1.5195576 0.76765311 0
3.8220003 1.5156759 0.76818526 0
3.8280003 1.5122306 0.76882386 0
3.8350003 1.5092164 0.7695688 0
3.8430002 1.5066279 0.77042019 0
3.8530002 1.5049088 0.77148443 0
3.8670003 1.5049431 0.77297437 0
3.8890002 1.5084913 0.77531576 0
3.8920002 1.503529 0.775635 0
3.8960001 1.4989978 0.7760607 0
3.9000003 1.4944522 0.7764864 0
3.9060004 1.4907689 0.777125 0
3.9130003 1.4875004 0.77786994 0
3.9220002 1.485076 0.77882779 0
4.1000004 1.5424336 0.79777133 0
4.098 1.5349044 0.79755849 0
4.0960002 1.5273825 0.79734564 0
4.0940003 1.519868 0.79713285 0
4.092 1.5123605 0.79691994 0
4.0900002 1.5048602 0.79670709 0
4.0880003 1.4973671 0.79649425 0
4.086 1.4898813 0.7962814 0
4.0830002 1.4819878 0.7959621 0
4.0810003 1.4745183 0.79574931 0
4.079 1.4670559 0.7955364 0
4.0770001 1.4596009 0.79532361 0
4.0750003 1.452153 0.7951107 0
4.073 1.4447123 0.79489785 0
4.0710001 1.4372787 0.79468507 0
4.0690002 1.4298524 0.79447222 0
4.0669999 1.4224334 0.79425931 0
4.0700002 1.4170147 0.79457855 0
4.0799999 1.4143631 0.79564285 0
4.0900002 1.4116753 0.79670709 0
3.8670003 1.8176333 0.76672059 0
3.8640003 1.8097725 0.76640677 0
3.8630002 1.8029898 0.76630211 0
3.8630002 1.7967434 0.76630211 0
3.8640003 1.7910272 0.76640677 0
3.8650002 1.7853073 0.76651132 0
3.8680003 1.7806373 0.7668252 0
3.8700004 1.7754315 0.76703447 0
3.8740003 1.7712647 0.76745296 0
3.8770003 1.7665622 0.76776683 0
3.8820002 1.7628877 0.76828992 0
3.8860002 1.7586776 0.76870835 0
3.8920002 1.7554849 0.7693361 0
3.8980002 1.7522706 0.76996386 0
3.9050002 1.7495468 0.77069616 0
3.9120002 1.7467977 0.77142853 0
3.9220002 1.7455496 0.77247477 0
3.9340003 1.745279 0.77373022 0
3.9380002 1.7409245 0.7741487 0
3.9360003 1.7335362 0.77393943 0
3.9340003 1.7261549 0.77373022 0
3.9320002 1.718781 0.77352095 0
3.9300003 1.7114142 0.77331173 0
3.9280002 1.7040547 0.77310246 0
3.9260004 1.6967025 0.77289319 0
3.9240003 1.6893574 0.77268398 0
3.9210002 1.6815288 0.7723701 0
3.9190001 1.6741998 0.77216089 0
3.9170003 1.6668782 0.77195168 0
3.9150002 1.6595638 0.7717424 0
3.7940001 1.5763631 0.75908327 0
3.7920003 1.5692886 0.75887406 0
3.7910004 1.5626957 0.75876939 0
3.7910004 1.5565791 0.75876939 0
3.7920003 1.5509331 0.75887406 0
3.7940001 1.5457524 0.75908327 0
3.7960002 1.5405648 0.75929248 0
3.7990003 1.5358351 0.75960636 0
3.8020003 1.5310948 0.75992024 0
3.8060002 1.5268053 0.76033872 0
3.8100002 1.5225015 0.76075721 0
3.8150003 1.5186412 0.7612803 0
3.8210003 1.5152194 0.76190805 0
3.8270001 1.511776 0.76253575 0
3.8350003 1.5092164 0.76337272 0
3.8440003 1.5070789 0.76431429 0
3.8550003 1.5058072 0.76546514 0
3.8720002 1.5071799 0.76724368 0
3.8890002 1.5084913 0.76902223 0
3.8920002 1.503529 0.7693361 0
3.8960001 1.4989978 0.76975459 0
3.9000003 1.4944522 0.77017307 0
3.9060004 1.4907689 0.77080083 0
3.9130003 1.4875004 0.77153313 0
3.9220002 1.485076 0.77247477 0
4.1000004 1.5424336 0.79109728 0
4.098 1.5349044 0.79088801 0
4.0960002 1.5273825 0.79067874 0
4.0940003 1.519868 0.79046953 0
4.092 1.5123605 0.79026031 0
4.0900002 1.5048602 0.79005104 0
4.0880003 1.4973671 0.78984177 0
4.086 1.4898813 0.78963256 0
4.0830002 1.4819878 0.78931868 0
4.0810003 1.4745183 0.78910947 0
4.079 1.4670559 0.7889002 0
4.0770001 1.4596009 0.78869104 0
4.0750003 1.452153 0.78848171 0
4.073 1.4447123 0.7882725 0
4.0710001 1.4372787 0.78806329 0
4.0690002 1.4298524 0.78785396 0
4.0669999 1.4224334 0.78764474 0
4.0700002 1.4170147 0.78795862 0
4.0799999 1.4143631 0.7890048 0
4.0900002 1.4116753 0.79005104 0
3.8610003 1.8144082 0.75984991 0
3.8600004 1.8076296 0.75974709 0
3.8590002 1.8008542 0.75964427 0
3.8600004 1.7951471 0.75974709 0
3.8610003 1.7894362 0.75984991 0
3.8630002 1.7842501 0.76005554 0
3.8650002 1.779057 0.76026118 0
3.8680003 1.7743816 0.76056957 0
3.8720002 1.7702184 0.76098084 0
3.8750002 1.7655195 0.76128936 0
3.8800004 1.7618488 0.76180339 0
3.8850002 1.75816 0.76231748 0
3.8910003 1.754969 0.76293445 0
3.8970003 1.7517565 0.76355129 0
3.9040003 1.7490345 0.76427102 0
3.9130003 1.7473084 0.76519638 0
3.9230003 1.7460583 0.76622456 0
3.9380002 1.7473065 0.76776677 0
3.9380002 1.7409245 0.76776677 0
3.9360003 1.7335362 0.7675612 0
3.9340003 1.7261549 0.76735556 0
3.9320002 1.718781 0.76714993 0
3.9300003 1.7114142 0.76694429 0
3.9280002 1.7040547 0.76673865 0
3.9260004 1.6967025 0.76653302 0
3.9240003 1.6893574 0.76632738 0
3.9210002 1.6815288 0.76601887 0
3.9190001 1.6741998 0.76581329 0
3.9170003 1.6668782 0.76560766 0
3.9150002 1.6595638 0.76540202 0
3.7920003 1.5815257 0.75275552 0
3.7890003 1.5739731 0.75244701 0
3.7880003 1.5673839 0.75234425 0
3.7870002 1.560798 0.75224143 0
3.7880003 1.5551612 0.75234425 0
3.7890003 1.5495207 0.75244701 0
3.7910004 1.5443456 0.7526527 0
3.7940001 1.5396304 0.75296116 0
3.7960002 1.534439 0.75316679 0
3.8000002 1.5301677 0.75357807 0
3.8040001 1.5258818 0.75398934 0
3.8090003 1.5220414 0.75450337 0
3.8140004 1.5181832 0.75501752 0
3.8200002 1.514763 0.75563437 0
3.8270001 1.511776 0.75635409 0
3.8350003 1.5092164 0.75717664 0
3.8440003 1.5070789 0.758102 0
3.8570004 1.5067056 0.75943863 0
3.8860002 1.5134426 0.7624203 0
3.8890002 1.5084913 0.76272875 0
3.8920002 1.503529 0.7630372 0
3.8960001 1.4989978 0.76344848 0
3.9000003 1.4944522 0.76385975 0
3.9060004 1.4907689 0.76447666 0
3.9130003 1.4875004 0.76519638 0
3.9220002 1.485076 0.76612175 0
4.1000004 1.5424336 0.78442317 0
4.098 1.5349044 0.78421754 0
4.0960002 1.5273825 0.7840119 0
4.0940003 1.519868 0.78380626 0
4.092 1.5123605 0.78360069 0
4.0900002 1.5048602 0.78339499 0
4.0880003 1.4973671 0.78318942 0
4.086 1.4898813 0.78298372 0
4.0830002 1.4819878 0.78267527 0
4.0810003 1.4745183 0.78246963 0
4.079 1.4670559 0.78226399 0
4.0770001 1.4596009 0.78205836 0
4.0750003 1.452153 0.78185272 0
4.073 1.4447123 0.78164709 0
4.0710001 1.4372787 0.78144145 0
4.0690002 1.4298524 0.78123581 0
4.0669999 1.4224334 0.78103018 0
4.0700002 1.4170147 0.78133863 0
4.0799999 1.4143631 0.78236687 0
4.0900002 1.4116753 0.78339499 0
3.8590002 1.8195724 0.75340486 0
3.8570004 1.812258 0.75320286 0
3.8550003 1.8049507 0.75300086 0
3.8560002 1.7992525 0.75310183 0
3.8560002 1.7930185 0.75310183 0
3.8580003 1.7878453 0.75330389 0
3.8600004 1.7826648 0.75350589 0
3.8630002 1.7780037 0.75380898 0
3.8660002 1.7733318 0.75411201 0
3.8700004 1.7691722 0.75451601 0
3.8740003 1.7649983 0.75492007 0
3.8790002 1.7613292 0.75542516 0
3.8840003 1.7576424 0.75593019 0
3.8900003 1.7544532 0.7565363 0
3.8970003 1.7517565 0.75724339 0
3.9040003 1.7490345 0.75795048 0
3.9130003 1.7473084 0.75885963 0
3.9250002 1.7470756 0.76007175 0
3.9400003 1.7483202 0.76158696 0
3.9380002 1.7409245 0.76138496 0
3.9360003 1.7335362 0.7611829 0
3.9340003 1.7261549 0.76098084 0
3.9320002 1.718781 0.76077884 0
3.9300003 1.7114142 0.76057684 0
3.9280002 1.7040547 0.76037478 0
3.9260004 1.6967025 0.76017278 0
3.9240003 1.6893574 0.75997078 0
3.9210002 1.6815288 0.75966769 0
3.9190001 1.6741998 0.75946569 0
3.9170003 1.6668782 0.75926363 0
3.7870002 1.5791266 0.7461319 0
3.7850003 1.5720612 0.7459299 0
3.7840002 1.5654789 0.74582887 0
3.7840002 1.5593748 0.74582887 0
3.7850003 1.5537435 0.7459299 0
3.7860003 1.5481083 0.74603093 0
3.7880003 1.5429386 0.74623299 0
3.7910004 1.5382289 0.74653602 0
3.7940001 1.5335083 0.74683899 0
3.7980003 1.5292405 0.74724305 0
3.8020003 1.5249583 0.74764717 0
3.8070002 1.5211215 0.7481522 0
3.8130002 1.517725 0.74875826 0
3.8190002 1.5143067 0.74936438 0
3.8260002 1.5113214 0.75007141 0
3.8350003 1.5092164 0.75098062 0
3.8460002 1.5079807 0.75209171 0
3.8860002 1.5134426 0.75613225 0
3.8890002 1.5084913 0.75643528 0
3.8920002 1.503529 0.75673831 0
3.8960001 1.4989978 0.75714236 0
3.9000003 1.4944522 0.75754642 0
3.9060004 1.4907689 0.75815248 0
3.9130003 1.4875004 0.75885963 0
3.9220002 1.485076 0.75976872 0
4.1000004 1.5424336 0.77774906 0
4.098 1.5349044 0.77754706 0
4.0960002 1.5273825 0.77734506 0
4.0940003 1.519868 0.777143 0
4.092 1.5123605 0.77694094 0
4.0900002 1.5048602 0.77673894 0
4.0880003 1.4973671 0.77653694 0
4.086 1.4898813 0.77633488 0
4.0830002 1.4819878 0.77603185 0
4.0810003 1.4745183 0.77582985 0
4.079 1.4670559 0.77562779 0
4.0770001 1.4596009 0.77542579 0
4.0750003 1.452153 0.77522373 0
4.073 1.4447123 0.77502167 0
4.0710001 1.4372787 0.77481973 0
4.0690002 1.4298524 0.77461767 0
4.0669999 1.4224334 0.77441561 0
4.0700002 1.4170147 0.77471864 0
4.0799999 1.4143631 0.77572882 0
4.0900002 1.4116753 0.77673894 0
3.8540003 1.8168758 0.74666947 0
3.8520002 1.8095703 0.74647105 0
3.8520002 1.8033435 0.74647105 0
3.8520002 1.7971169 0.74647105 0
3.8540003 1.7919543 0.74666947 0
3.8550003 1.7862543 0.74676871 0
3.8580003 1.7816076 0.74706626 0
3.8600004 1.7764236 0.74726474 0
3.8640003 1.772282 0.74766159 0
3.8680003 1.768126 0.74805838 0
3.8720002 1.7639556 0.74845523 0
3.8770003 1.7602904 0.74895132 0
3.8830004 1.7571247 0.74954653 0
3.8890002 1.7539371 0.7501418 0
3.8960001 1.7512423 0.75083625 0
3.9050002 1.7495468 0.75172913 0
3.9150002 1.7483293 0.75272125 0
3.9290004 1.7491103 0.75411022 0
3.9400003 1.7483202 0.75520146 0
3.9380002 1.7409245 0.75500309 0
3.9360003 1.7335362 0.75480461 0
3.9340003 1.7261549 0.75460625 0
3.9320002 1.718781 0.75440776 0
3.9300003 1.7114142 0.7542094 0
3.9280002 1.7040547 0.75401098 0
3.9260004 1.6967025 0.75381255 0
3.9240003 1.6893574 0.75361413 0
3.9210002 1.6815288 0.75331652 0
3.9190001 1.6741998 0.75311804 0
3.9170003 1.6668782 0.75291967 0
3.7820003 1.5767275 0.73952639 0
3.7810001 1.5701491 0.73942715 0
3.7800002 1.5635741 0.73932797 0
3.7810001 1.5579516 0.73942715 0
3.7820003 1.5523256 0.73952639 0
3.7830002 1.5466958 0.73962557 0
3.7860003 1.5420007 0.73992324 0
3.7890003 1.5372945 0.74022084 0
3.7920003 1.5325775 0.74051845 0
3.7960002 1.5283133 0.7409153 0
3.8010004 1.5244966 0.74141133 0
3.8060002 1.5206616 0.74190736 0
3.8120003 1.5172669 0.74250269 0
3.8190002 1.5143067 0.74319714 0
3.8260002 1.5113214 0.7438916 0
3.8360002 1.5096692 0.74488366 0
3.8840003 1.5188326 0.74964571 0
3.8860002 1.5134426 0.74984419 0
3.8890002 1.5084913 0.7501418 0
3.8920002 1.503529 0.75043941 0
3.8960001 1.4989978 0.75083625 0
3.9000003 1.4944522 0.7512331 0
3.9060004 1.4907689 0.75182837 0
3.9130003 1.4875004 0.75252283 0
3.9220002 1.485076 0.7534157 0
4.1000004 1.5424336 0.77107501 0
4.098 1.5349044 0.77087659 0
4.0960002 1.5273825 0.77067816 0
4.0940003 1.519868 0.77047974 0
4.092 1.5123605 0.77028131 0
4.0900002 1.5048602 0.77008283 0
4.0880003 1.4973671 0.76988447 0
4.086 1.4898813 0.7696861 0
4.0830002 1.4819878 0.76938844 0
4.0810003 1.4745183 0.76919001 0
4.079 1.4670559 0.76899159 0
4.0770001 1.4596009 0.76879323 0
4.0750003 1.452153 0.76859474 0
4.073 1.4447123 0.76839632 0
4.0710001 1.4372787 0.76819789 0
4.0690002 1.4298524 0.76799953 0
4.0669999 1.4224334 0.76780105 0
4.0700002 1.4170147 0.76809871 0
4.0799999 1.4143631 0.76909077 0
4.0900002 1.4116753 0.77008283 0
3.8490002 1.8141789 0.73995209 0
3.8480003 1.8074201 0.73985469 0
3.8480003 1.8012006 0.73985469 0
3.8490002 1.7955151 0.73995209 0
3.8510003 1.7903579 0.74014688 0
3.8530002 1.7851936 0.74034166 0
3.8550003 1.7800221 0.74053651 0
3.8580003 1.7753701 0.74082875 0
3.8620002 1.7712321 0.74121833 0
3.8660002 1.7670797 0.74160796 0
3.8710003 1.7634344 0.74209499 0
3.8760002 1.7597708 0.74258202 0
3.8820002 1.7566069 0.74316645 0
3.8890002 1.7539371 0.74384832 0
3.8960001 1.7512423 0.74453008 0
3.9050002 1.7495468 0.74540675 0
3.9170003 1.7493502 0.74657571 0
3.9380002 1.7536882 0.74862117 0
3.9400003 1.7483202 0.74881601 0
3.9380002 1.7409245 0.74862117 0
3.9360003 1.7335362 0.74842638 0
3.9340003 1.7261549 0.74823153 0
3.9320002 1.718781 0.74803674 0
3.9300003 1.7114142 0.74784195 0
3.9280002 1.7040547 0.74764717 0
3.9260004 1.6967025 0.74745232 0
3.9240003 1.6893574 0.74725747 0
3.9210002 1.6815288 0.74696529 0
3.9190001 1.6741998 0.7467705 0
3.7780004 1.5748084 0.73303628 0
3.7770002 1.5682369 0.73293889 0
3.7770002 1.5621455 0.73293889 0
3.7770002 1.556054 0.73293889 0
3.7790003 1.5509079 0.73313367 0
3.7810001 1.5457543 0.73332846 0
3.7840002 1.5410626 0.7336207 0
3.7870002 1.5363601 0.73391294 0
3.7900002 1.5316467 0.73420513 0
3.7950003 1.5278498 0.73469222 0
3.7990003 1.5235729 0.73508179 0
3.8050003 1.5202016 0.73566628 0
3.8110003 1.5168086 0.73625064 0
3.8180003 1.5138503 0.73693252 0
3.8260002 1.5113214 0.73771179 0
3.8370004 1.5101219 0.73878324 0
3.8840003 1.5188326 0.74336129 0
3.8860002 1.5134426 0.74355608 0
3.8890002 1.5084913 0.74384832 0
3.8920002 1.503529 0.74414051 0
3.8960001 1.4989978 0.74453008 0
3.9000003 1.4944522 0.74491978 0
3.9060004 1.4907689 0.74550426 0
3.9130003 1.4875004 0.74618602 0
3.9220002 1.485076 0.74706268 0
4.1000004 1.5424336 0.76440096 0
4.098 1.5349044 0.76420611 0
4.0960002 1.5273825 0.76401126 0
4.0940003 1.519868 0.76381648 0
4.092 1.5123605 0.76362169 0
4.0900002 1.5048602 0.76342684 0
4.0880003 1.4973671 0.76323199 0
4.086 1.4898813 0.7630372 0
4.0830002 1.4819878 0.76274502 0
4.0810003 1.4745183 0.76255023 0
4.079 1.4670559 0.76235533 0
4.0770001 1.4596009 0.76216054 0
4.0750003 1.452153 0.76196575 0
4.073 1.4447123 0.76177096 0
4.0710001 1.4372787 0.76157618 0
4.0690002 1.4298524 0.76138133 0
4.0669999 1.4224334 0.76118648 0
4.0700002 1.4170147 0.76147872 0
4.0799999 1.4143631 0.76245278 0
4.0890002 1.4112805 0.76332945 0
3.8470004 1.8193182 0.73353958 0
3.8450003 1.8120217 0.73334837 0
3.8450003 1.8058077 0.73334837 0
3.8450003 1.7995934 0.73334837 0
3.8460002 1.7939132 0.73344392 0
3.8480003 1.7887615 0.73363513 0
3.8500001 1.7836026 0.73382634 0
3.8530002 1.778965 0.73411316 0
3.8560002 1.7743167 0.73439991 0
3.8600004 1.7701825 0.7347824 0
3.8650002 1.7665566 0.73526037 0
3.8690002 1.7623917 0.73564279 0
3.8750002 1.7592512 0.73621643 0
3.8810003 1.7560892 0.73679 0
3.8880002 1.7534214 0.73745924 0
3.8970003 1.7517565 0.73831964 0
3.9070003 1.7505714 0.73927569 0
3.9210002 1.7513921 0.74061406 0
3.9420002 1.7557229 0.74262166 0
3.9400003 1.7483202 0.74243051 0
3.9380002 1.7409245 0.7422393 0
3.9360003 1.7335362 0.74204814 0
3.9340003 1.7261549 0.74185693 0
3.9320002 1.718781 0.74166572 0
3.9300003 1.7114142 0.74147451 0
3.9280002 1.7040547 0.7412833 0
3.9260004 1.6967025 0.74109209 0
3.9240003 1.6893574 0.74090087 0
3.9210002 1.6815288 0.74061406 0
3.7750003 1.5794567 0.7266562 0
3.7740002 1.572889 0.72656059 0
3.7730002 1.5663249 0.72646499 0
3.7730002 1.5602407 0.72646499 0
3.7750003 1.5551053 0.7266562 0
3.7760003 1.54949 0.7267518 0
3.7790003 1.5448128 0.72703862 0
3.7810001 1.5396556 0.72722983 0
3.7850003 1.5354258 0.72761226 0
3.7880003 1.5307161 0.72789907 0
3.7930002 1.5269226 0.72837704 0
3.7980003 1.5231112 0.72885501 0
3.8040001 1.5197415 0.72942865 0
3.8100002 1.5163504 0.73000228 0
3.8180003 1.5138503 0.73076713 0
3.8270001 1.511776 0.73162746 0
3.8840003 1.5188326 0.73707682 0
3.8860002 1.5134426 0.73726797 0
3.8890002 1.5084913 0.73755479 0
3.8920002 1.503529 0.73784161 0
3.8960001 1.4989978 0.73822403 0
3.9000003 1.4944522 0.73860645 0
3.9060004 1.4907689 0.73918009 0
3.9130003 1.4875004 0.73984927 0
3.9220002 1.485076 0.74070966 0
4.1000004 1.5424336 0.75772679 0
4.098 1.5349044 0.75753558 0
4.0960002 1.5273825 0.75734437 0
4.0940003 1.519868 0.75715321 0
4.092 1.5123605 0.756962 0
4.0900002 1.5048602 0.75677079 0
4.0880003 1.4973671 0.75657958 0
4.086 1.4898813 0.75638837 0
4.0830002 1.4819878 0.75610161 0
4.0810003 1.4745183 0.7559104 0
4.079 1.4670559 0.75571918 0
4.0770001 1.4596009 0.75552797 0
4.0750003 1.452153 0.75533676 0
4.073 1.4447123 0.75514555 0
4.0710001 1.4372787 0.75495434 0
4.0690002 1.4298524 0.75476313 0
4.0669999 1.4224334 0.75457191 0
4.0700002 1.4170147 0.75485873 0
4.0799999 1.4143631 0.75581479 0
4.0890002 1.4112805 0.75667518 0
3.8420002 1.8166125 0.72685283 0
3.8410003 1.8098643 0.72675902 0
3.8410003 1.8036575 0.72675902 0
3.8420002 1.7979863 0.72685283 0
3.8430002 1.7923114 0.72694659 0
3.8450003 1.7871652 0.72713423 0
3.8480003 1.782542 0.72741562 0
3.8510003 1.7779081 0.72769701 0
3.8550003 1.77379 0.72807217 0
3.8590002 1.7696574 0.72844744 0
3.8630002 1.7655104 0.72882259 0
3.8680003 1.7618705 0.72929156 0
3.8740003 1.7587318 0.72985435 0
3.8810003 1.7560892 0.73051095 0
3.8880002 1.7534214 0.73116755 0
3.8970003 1.7517565 0.73201168 0
3.9090002 1.7515959 0.73313725 0
3.9280002 1.7549653 0.73491943 0
3.9420002 1.7557229 0.73623264 0
3.9400003 1.7483202 0.73604506 0
3.9380002 1.7409245 0.73585749 0
3.9360003 1.7335362 0.73566985 0
3.9340003 1.7261549 0.73548222 0
3.9320002 1.718781 0.73529464 0
3.9300003 1.7114142 0.73510706 0
3.9280002 1.7040547 0.73491943 0
3.9260004 1.6967025 0.73473191 0
3.9240003 1.6893574 0.73454428 0
3.7710001 1.5775301 0.72019315 0
3.7700002 1.5709698 0.72009933 0
3.7700002 1.564891 0.72009933 0
3.7700002 1.5588121 0.72009933 0
3.7720003 1.5536821 0.72028697 0
3.7730002 1.5480722 0.72038078 0
3.7760003 1.5434004 0.72066212 0
3.7790003 1.5387176 0.72094357 0
3.7830002 1.5344913 0.72131872 0
3.7870002 1.5302505 0.72169393 0
3.7920003 1.5264591 0.7221629 0
3.7970002 1.5226493 0.72263193 0
3.8030002 1.5192816 0.72319472 0
3.8100002 1.5163504 0.72385132 0
3.8180003 1.5138503 0.72460169 0
