# .PCD v0.7 - Point Cloud Data file format
VERSION 0.7
FIELDS x y z intensity
SIZE 4 4 4 4
TYPE F F F F
COUNT 1 1 1 1
WIDTH 1502
HEIGHT 1
VIEWPOINT 0 0 0 1 0 0 0
POINTS 1502
DATA ascii
4.6650004 1.9542432 1.4964405 0
4.6700001 1.9488857 1.4977211 0
4.6740003 1.9430448 1.4987457 0
4.6790004 1.9376534 1.5000265 0
4.6840005 1.9322438 1.5013071 0
4.6890001 1.9268161 1.5025878 0
4.6940002 1.9213703 1.5038686 0
4.6990004 1.9159067 1.5051491 0
4.7040005 1.9104251 1.5064299 0
4.7090001 1.9049249 1.5077106 0
4.7140002 1.899407 1.5089912 0
4.7190003 1.8938713 1.510272 0
4.7240005 1.8883173 1.5115528 0
4.7290001 1.8827451 1.5128334 0
4.7340002 1.8771554 1.5141141 0
4.7390003 1.8715473 1.5153949 0
4.7440004 1.8659213 1.5166756 0
4.7490001 1.8602771 1.5179561 0
4.7540002 1.8546149 1.5192369 0
4.7590003 1.8489348 1.5205177 0
4.7640004 1.8432367 1.5217984 0
4.7690005 1.8375205 1.5230792 0
4.7740002 1.8317858 1.5243598 0
4.7790003 1.8260336 1.5256405 0
4.7840004 1.8202633 1.5269212 0
4.7890005 1.8144748 1.5282019 0
4.7950001 1.8090905 1.5297387 0
4.8000002 1.8032643 1.5310193 0
4.8050003 1.7974198 1.5323001 0
4.8100004 1.7915576 1.5335808 0
4.8150005 1.7856771 1.5348616 0
4.8200002 1.7797785 1.5361422 0
4.8260002 1.7742734 1.5376791 0
4.8310003 1.768337 1.5389597 0
4.8360004 1.7623827 1.5402405 0
4.8410001 1.7564101 1.5415212 0
4.8470001 1.7508237 1.543058 0
4.8520002 1.7448136 1.5443387 0
4.8570004 1.7387853 1.5456195 0
4.8630004 1.7331376 1.5471563 0
4.8680005 1.7270714 1.548437 0
4.8730001 1.7209871 1.5497177 0
4.8790002 1.7152779 1.5512545 0
4.8840003 1.7091558 1.5525353 0
4.8890004 1.7030158 1.553816 0
4.8950005 1.6972454 1.5553528 0
4.9000001 1.6910672 1.5566335 0
4.9050002 1.6848712 1.5579141 0
4.9110003 1.6790395 1.559451 0
4.9160004 1.6728055 1.5607318 0
4.9220004 1.6669323 1.5622686 0
4.9270005 1.6606606 1.5635493 0
4.9330001 1.6547458 1.565086 0
4.9380002 1.6484361 1.5663668 0
4.9440002 1.6424799 1.5679038 0
4.9490004 1.6361324 1.5691843 0
4.9550004 1.6301348 1.5707213 0
4.9600005 1.6237494 1.5720021 0
4.9660001 1.6177099 1.5735388 0
4.9710002 1.6112866 1.5748194 0
4.9770002 1.605206 1.5763563 0
4.9820004 1.5987449 1.5776371 0
4.9880004 1.5926228 1.5791739 0
4.9940004 1.5864789 1.5807108 0
4.9990005 1.5799601 1.5819914 0
5.0050001 1.5737746 1.5835282 0
5.0110002 1.5675677 1.5850651 0
5.0160003 1.5609912 1.5863459 0
5.0220003 1.5547428 1.5878826 0
5.0280004 1.5484728 1.5894195 0
5.0330005 1.5418383 1.5907003 0
5.0390005 1.5355268 1.5922371 0
5.0450006 1.5291936 1.593774 0
5.0510001 1.5228387 1.5953107 0
5.0560002 1.5161268 1.5965915 0
5.0620003 1.5097305 1.5981283 0
5.0680003 1.5033126 1.5996652 0
5.0740004 1.4968729 1.601202 0
5.0800004 1.4904118 1.6027389 0
5.0850005 1.4836023 1.6040196 0
5.0910001 1.4770995 1.6055564 0
5.0970001 1.4705751 1.6070932 0
5.1030002 1.4640292 1.6086301 0
5.1090002 1.4574615 1.6101669 0
5.1150002 1.4508722 1.6117038 0
5.1210003 1.4442613 1.6132406 0
5.1270003 1.4376286 1.6147774 0
5.1330004 1.4309744 1.6163144 0
5.1390004 1.4242985 1.6178511 0
5.1450005 1.4176011 1.619388 0
5.1510005 1.4108818 1.6209248 0
5.1570005 1.4041411 1.6224618 0
5.1630001 1.3973784 1.6239985 0
5.1690001 1.3905944 1.6255354 0
5.1750002 1.3837886 1.6270721 0
5.1810002 1.3769612 1.6286091 0
5.1870003 1.3701122 1.6301459 0
5.1930003 1.3632414 1.6316828 0
4.3970003 2.2539332 1.4205849 0
4.4010005 2.2490177 1.4216022 0
4.4050002 2.2440879 1.4226196 0
4.4090004 2.2391438 1.4236369 0
4.4140005 2.2347534 1.4249086 0
4.4180002 2.2297783 1.425926 0
4.4220004 2.2247889 1.4269433 0
4.4270005 2.2203479 1.428215 0
4.4310002 2.2153277 1.4292324 0
4.4350004 2.2102935 1.4302497 0
4.4400001 2.205802 1.4315213 0
4.4440002 2.2007368 1.4325387 0
4.4480004 2.1956575 1.4335561 0
4.4530001 2.1911154 1.4348277 0
4.4570003 2.1860051 1.4358451 0
4.4620004 2.1814291 1.4371169 0
4.4660001 2.1762881 1.4381341 0
4.4700003 2.1711328 1.4391514 0
4.4750004 2.1665061 1.4404231 0
4.4790001 2.16132 1.4414405 0
4.4840002 2.1566591 1.4427122 0
4.4880004 2.1514425 1.4437295 0
4.4930005 2.1467471 1.4450012 0
4.4970002 2.1414998 1.4460186 0
4.5010004 2.1362381 1.4470359 0
4.5060005 2.1314926 1.4483076 0
4.5100002 2.1262 1.449325 0
4.5150003 2.1214199 1.4505967 0
4.5190001 2.1160967 1.4516139 0
4.5240002 2.1112823 1.4528856 0
4.5290003 2.1064501 1.4541574 0
4.5330005 2.1010802 1.4551748 0
4.5380001 2.0962133 1.4564464 0
4.5420003 2.0908129 1.4574637 0
4.5470004 2.085912 1.4587355 0
4.5510001 2.0804806 1.4597528 0
4.5560002 2.0755455 1.4610244 0
4.5610003 2.0705922 1.4622961 0
4.5650001 2.0651138 1.4633135 0
4.5700002 2.0601263 1.4645852 0
4.5750003 2.0551209 1.4658569 0
4.5790005 2.0495958 1.4668742 0
4.5840001 2.0445559 1.4681458 0
4.5880003 2.0390003 1.4691633 0
4.5930004 2.0339262 1.470435 0
4.5980005 2.0288341 1.4717067 0
4.6030002 2.0237238 1.4729782 0
4.6070004 2.018105 1.4739956 0
4.6120005 2.0129607 1.4752673 0
4.6170001 2.007798 1.4765389 0
4.6210003 2.0021324 1.4775563 0
4.6260004 1.9969356 1.4788281 0
4.6310005 1.9917209 1.4800998 0
4.6360002 1.9864876 1.4813714 0
4.6410003 1.9812369 1.4826431 0
4.6450005 1.9754918 1.4836605 0
4.6500001 1.9702065 1.4849321 0
4.6550002 1.9649034 1.4862038 0
4.6600003 1.9595823 1.4874755 0
4.6650004 1.9542432 1.4887472 0
4.6700001 1.9488857 1.4900188 0
4.6740003 1.9430448 1.4910362 0
4.6790004 1.9376534 1.4923079 0
4.6840005 1.9322438 1.4935796 0
4.6890001 1.9268161 1.4948512 0
4.6940002 1.9213703 1.496123 0
4.6990004 1.9159067 1.4973947 0
4.7040005 1.9104251 1.4986664 0
4.7090001 1.9049249 1.499938 0
4.7140002 1.899407 1.5012097 0
4.7190003 1.8938713 1.5024813 0
4.7240005 1.8883173 1.5037531 0
4.7290001 1.8827451 1.5050247 0
4.7340002 1.8771554 1.5062964 0
4.7390003 1.8715473 1.5075681 0
4.7440004 1.8659213 1.5088398 0
4.7490001 1.8602771 1.5101115 0
4.7540002 1.8546149 1.5113832 0
4.7590003 1.8489348 1.5126548 0
4.7640004 1.8432367 1.5139265 0
4.7690005 1.8375205 1.5151982 0
4.7740002 1.8317858 1.5164698 0
4.7790003 1.8260336 1.5177416 0
4.7840004 1.8202633 1.5190133 0
4.7890005 1.8144748 1.520285 0
4.7950001 1.8090905 1.5218109 0
4.8000002 1.8032643 1.5230826 0
4.8050003 1.7974198 1.5243543 0
4.8100004 1.7915576 1.5256261 0
4.8150005 1.7856771 1.5268978 0
4.8200002 1.7797785 1.5281694 0
4.8260002 1.7742734 1.5296954 0
4.8310003 1.768337 1.5309671 0
4.8360004 1.7623827 1.5322388 0
4.8410001 1.7564101 1.5335103 0
4.8470001 1.7508237 1.5350364 0
4.8520002 1.7448136 1.5363082 0
4.8570004 1.7387853 1.5375799 0
4.8630004 1.7331376 1.5391059 0
4.8680005 1.7270714 1.5403776 0
4.8730001 1.7209871 1.5416492 0
4.8790002 1.7152779 1.5431752 0
4.8840003 1.7091558 1.5444469 0
4.8890004 1.7030158 1.5457187 0
4.8950005 1.6972454 1.5472447 0
4.9000001 1.6910672 1.5485163 0
4.9050002 1.6848712 1.549788 0
4.9110003 1.6790395 1.5513141 0
4.9160004 1.6728055 1.5525858 0
4.9220004 1.6669323 1.5541118 0
4.9270005 1.6606606 1.5553836 0
4.9330001 1.6547458 1.5569094 0
4.9380002 1.6484361 1.5581812 0
4.9440002 1.6424799 1.5597072 0
4.9490004 1.6361324 1.5609789 0
4.9550004 1.6301348 1.562505 0
4.9600005 1.6237494 1.5637767 0
4.9660001 1.6177099 1.5653025 0
4.9710002 1.6112866 1.5665742 0
4.9770002 1.605206 1.5681002 0
4.9820004 1.5987449 1.5693719 0
4.9880004 1.5926228 1.5708981 0
4.9940004 1.5864789 1.5724241 0
4.9990005 1.5799601 1.5736958 0
5.0050001 1.5737746 1.5752217 0
5.0110002 1.5675677 1.5767478 0
5.0160003 1.5609912 1.5780194 0
5.0220003 1.5547428 1.5795455 0
5.0280004 1.5484728 1.5810715 0
5.0330005 1.5418383 1.5823432 0
5.0390005 1.5355268 1.5838692 0
5.0450006 1.5291936 1.5853953 0
5.0510001 1.5228387 1.5869212 0
5.0560002 1.5161268 1.5881929 0
5.0620003 1.5097305 1.5897189 0
5.0680003 1.5033126 1.5912451 0
5.0740004 1.4968729 1.5927711 0
5.0800004 1.4904118 1.5942971 0
5.0860004 1.4839289 1.5958232 0
5.0910001 1.4770995 1.5970947 0
5.0970001 1.4705751 1.5986207 0
5.1030002 1.4640292 1.6001467 0
5.1090002 1.4574615 1.6016728 0
5.1150002 1.4508722 1.6031988 0
5.1210003 1.4442613 1.6047248 0
5.1270003 1.4376286 1.6062509 0
5.1330004 1.4309744 1.6077769 0
5.1390004 1.4242985 1.6093029 0
5.1450005 1.4176011 1.610829 0
5.1510005 1.4108818 1.612355 0
5.1570005 1.4041411 1.613881 0
5.1630001 1.3973784 1.615407 0
5.1690001 1.3905944 1.616933 0
5.1750002 1.3837886 1.618459 0
5.1810002 1.3769612 1.6199851 0
5.1870003 1.3701122 1.6215111 0
5.1930003 1.3632414 1.6230371 0
4.3970003 2.2539332 1.413375 0
4.4010005 2.2490177 1.4143853 0
4.4050002 2.2440879 1.4153953 0
4.4090004 2.2391438 1.4164056 0
4.4140005 2.2347534 1.4176682 0
4.4180002 2.2297783 1.4186783 0
4.4220004 2.2247889 1.4196883 0
4.4270005 2.2203479 1.420951 0
4.4310002 2.2153277 1.4219612 0
4.4350004 2.2102935 1.4229714 0
4.4400001 2.205802 1.4242339 0
4.4440002 2.2007368 1.4252441 0
4.4480004 2.1956575 1.4262543 0
4.4530001 2.1911154 1.4275168 0
4.4570003 2.1860051 1.4285271 0
4.4620004 2.1814291 1.4297898 0
4.4660001 2.1762881 1.4307997 0
4.4700003 2.1711328 1.43181 0
4.4750004 2.1665061 1.4330727 0
4.4790001 2.16132 1.4340827 0
4.4840002 2.1566591 1.4353454 0
4.4880004 2.1514425 1.4363556 0
4.4930005 2.1467471 1.4376184 0
4.4970002 2.1414998 1.4386283 0
4.5010004 2.1362381 1.4396385 0
4.5060005 2.1314926 1.4409013 0
4.5100002 2.1262 1.4419113 0
4.5150003 2.1214199 1.443174 0
4.5200005 2.116622 1.4444367 0
4.5240002 2.1112823 1.4454467 0
4.5290003 2.1064501 1.4467094 0
4.5330005 2.1010802 1.4477196 0
4.5380001 2.0962133 1.4489822 0
4.5420003 2.0908129 1.4499923 0
4.5470004 2.085912 1.451255 0
4.5510001 2.0804806 1.4522651 0
4.5560002 2.0755455 1.4535278 0
4.5610003 2.0705922 1.4547905 0
4.5650001 2.0651138 1.4558005 0
4.5700002 2.0601263 1.4570632 0
4.5750003 2.0551209 1.4583259 0
4.5790005 2.0495958 1.4593362 0
4.5840001 2.0445559 1.4605987 0
4.5890002 2.0394981 1.4618614 0
4.5930004 2.0339262 1.4628716 0
4.5980005 2.0288341 1.4641342 0
4.6030002 2.0237238 1.4653968 0
4.6070004 2.018105 1.4664071 0
4.6120005 2.0129607 1.4676697 0
4.6170001 2.007798 1.4689323 0
4.6210003 2.0021324 1.4699425 0
4.6260004 1.9969356 1.4712051 0
4.6310005 1.9917209 1.4724679 0
4.6360002 1.9864876 1.4737304 0
4.6410003 1.9812369 1.4749932 0
4.6450005 1.9754918 1.4760033 0
4.6500001 1.9702065 1.4772658 0
4.6550002 1.9649034 1.4785286 0
4.6600003 1.9595823 1.4797913 0
4.6650004 1.9542432 1.4810539 0
4.6700001 1.9488857 1.4823165 0
4.6740003 1.9430448 1.4833268 0
4.6790004 1.9376534 1.4845895 0
4.6840005 1.9322438 1.4858521 0
4.6890001 1.9268161 1.4871147 0
4.6940002 1.9213703 1.4883775 0
4.6990004 1.9159067 1.4896401 0
4.7040005 1.9104251 1.4909028 0
4.7090001 1.9049249 1.4921653 0
4.7140002 1.899407 1.4934281 0
4.7190003 1.8938713 1.4946908 0
4.7240005 1.8883173 1.4959534 0
4.7290001 1.8827451 1.497216 0
4.7340002 1.8771554 1.4984787 0
4.7390003 1.8715473 1.4997414 0
4.7440004 1.8659213 1.5010041 0
4.7490001 1.8602771 1.5022666 0
4.7540002 1.8546149 1.5035293 0
4.7590003 1.8489348 1.504792 0
4.7640004 1.8432367 1.5060548 0
4.7690005 1.8375205 1.5073174 0
4.7740002 1.8317858 1.50858 0
4.7790003 1.8260336 1.5098426 0
4.7840004 1.8202633 1.5111054 0
4.7890005 1.8144748 1.5123682 0
4.7950001 1.8090905 1.5138832 0
4.8000002 1.8032643 1.5151459 0
4.8050003 1.7974198 1.5164086 0
4.8100004 1.7915576 1.5176712 0
4.8150005 1.7856771 1.5189339 0
4.8200002 1.7797785 1.5201966 0
4.8260002 1.7742734 1.5217117 0
4.8310003 1.768337 1.5229745 0
4.8360004 1.7623827 1.5242372 0
4.8410001 1.7564101 1.5254997 0
4.8470001 1.7508237 1.527015 0
4.8520002 1.7448136 1.5282776 0
4.8570004 1.7387853 1.5295403 0
4.8630004 1.7331376 1.5310556 0
4.8680005 1.7270714 1.5323182 0
4.8730001 1.7209871 1.5335808 0
4.8790002 1.7152779 1.5350959 0
4.8840003 1.7091558 1.5363587 0
4.8890004 1.7030158 1.5376214 0
4.8950005 1.6972454 1.5391366 0
4.9000001 1.6910672 1.5403992 0
4.9050002 1.6848712 1.5416619 0
4.9110003 1.6790395 1.5431771 0
4.9160004 1.6728055 1.5444398 0
4.9220004 1.6669323 1.5459549 0
4.9270005 1.6606606 1.5472176 0
4.9330001 1.6547458 1.5487328 0
4.9380002 1.6484361 1.5499954 0
4.9440002 1.6424799 1.5515107 0
4.9490004 1.6361324 1.5527734 0
4.9550004 1.6301348 1.5542886 0
4.9600005 1.6237494 1.5555513 0
4.9660001 1.6177099 1.5570663 0
4.9710002 1.6112866 1.558329 0
4.9770002 1.605206 1.5598443 0
4.9820004 1.5987449 1.5611069 0
4.9880004 1.5926228 1.5626222 0
4.9940004 1.5864789 1.5641373 0
4.9990005 1.5799601 1.5654 0
5.0050001 1.5737746 1.5669152 0
5.0110002 1.5675677 1.5684304 0
5.0160003 1.5609912 1.5696931 0
5.0220003 1.5547428 1.5712082 0
5.0280004 1.5484728 1.5727235 0
5.0330005 1.5418383 1.5739862 0
5.0390005 1.5355268 1.5755014 0
5.0450006 1.5291936 1.5770166 0
5.0510001 1.5228387 1.5785317 0
5.0560002 1.5161268 1.5797944 0
5.0620003 1.5097305 1.5813097 0
5.0680003 1.5033126 1.5828248 0
5.0740004 1.4968729 1.58434 0
5.0800004 1.4904118 1.5858552 0
5.0860004 1.4839289 1.5873704 0
5.0910001 1.4770995 1.5886329 0
5.0970001 1.4705751 1.5901482 0
5.1030002 1.4640292 1.5916634 0
5.1090002 1.4574615 1.5931786 0
5.1150002 1.4508722 1.5946939 0
5.1210003 1.4442613 1.596209 0
5.1270003 1.4376286 1.5977242 0
5.1330004 1.4309744 1.5992395 0
5.1390004 1.4242985 1.6007546 0
5.1450005 1.4176011 1.6022699 0
5.1510005 1.4108818 1.6037852 0
5.1570005 1.4041411 1.6053003 0
5.1630001 1.3973784 1.6068155 0
5.1690001 1.3905944 1.6083306 0
5.1750002 1.3837886 1.6098458 0
5.1810002 1.3769612 1.611361 0
5.1870003 1.3701122 1.6128763 0
5.1930003 1.3632414 1.6143914 0
4.3970003 2.2539332 1.4061652 0
4.4010005 2.2490177 1.4071681 0
4.4050002 2.2440879 1.4081711 0
4.4090004 2.2391438 1.409174 0
4.4140005 2.2347534 1.4104277 0
4.4180002 2.2297783 1.4114305 0
4.4220004 2.2247889 1.4124335 0
4.4270005 2.2203479 1.4136871 0
4.4310002 2.2153277 1.41469 0
4.4350004 2.2102935 1.415693 0
4.4400001 2.205802 1.4169465 0
4.4440002 2.2007368 1.4179496 0
4.4480004 2.1956575 1.4189525 0
4.4530001 2.1911154 1.4202061 0
4.4570003 2.1860051 1.421209 0
4.4620004 2.1814291 1.4224627 0
4.4660001 2.1762881 1.4234655 0
4.4700003 2.1711328 1.4244685 0
4.4750004 2.1665061 1.4257221 0
4.4790001 2.16132 1.426725 0
4.4840002 2.1566591 1.4279786 0
4.4880004 2.1514425 1.4289817 0
4.4930005 2.1467471 1.4302353 0
4.4970002 2.1414998 1.4312382 0
4.5010004 2.1362381 1.4322412 0
4.5060005 2.1314926 1.4334948 0
4.5100002 2.1262 1.4344977 0
4.5150003 2.1214199 1.4357513 0
4.5200005 2.116622 1.437005 0
4.5240002 2.1112823 1.4380078 0
4.5290003 2.1064501 1.4392616 0
4.5330005 2.1010802 1.4402645 0
4.5380001 2.0962133 1.4415181 0
4.5420003 2.0908129 1.442521 0
4.5470004 2.085912 1.4437747 0
4.5510001 2.0804806 1.4447775 0
4.5560002 2.0755455 1.4460312 0
4.5610003 2.0705922 1.4472848 0
4.5650001 2.0651138 1.4482877 0
4.5700002 2.0601263 1.4495413 0
4.5750003 2.0551209 1.4507951 0
4.5790005 2.0495958 1.451798 0
4.5840001 2.0445559 1.4530516 0
4.5890002 2.0394981 1.4543052 0
4.5930004 2.0339262 1.4553082 0
4.5980005 2.0288341 1.4565618 0
4.6030002 2.0237238 1.4578154 0
4.6070004 2.018105 1.4588183 0
4.6120005 2.0129607 1.4600722 0
4.6170001 2.007798 1.4613256 0
4.6220002 2.0026174 1.4625794 0
4.6260004 1.9969356 1.4635823 0
4.6310005 1.9917209 1.464836 0
4.6360002 1.9864876 1.4660895 0
4.6410003 1.9812369 1.4673432 0
4.6450005 1.9754918 1.4683461 0
4.6500001 1.9702065 1.4695997 0
4.6550002 1.9649034 1.4708533 0
4.6600003 1.9595823 1.4721071 0
4.6650004 1.9542432 1.4733607 0
4.6700001 1.9488857 1.4746143 0
4.6740003 1.9430448 1.4756172 0
4.6790004 1.9376534 1.476871 0
4.6840005 1.9322438 1.4781246 0
4.6890001 1.9268161 1.4793782 0
4.6940002 1.9213703 1.4806318 0
4.6990004 1.9159067 1.4818856 0
4.7040005 1.9104251 1.4831392 0
4.7090001 1.9049249 1.4843928 0
4.7140002 1.899407 1.4856464 0
4.7190003 1.8938713 1.4869001 0
4.7240005 1.8883173 1.4881538 0
4.7290001 1.8827451 1.4894073 0
4.7340002 1.8771554 1.490661 0
4.7390003 1.8715473 1.4919146 0
4.7440004 1.8659213 1.4931684 0
4.7490001 1.8602771 1.4944218 0
4.7540002 1.8546149 1.4956756 0
4.7590003 1.8489348 1.4969292 0
4.7640004 1.8432367 1.498183 0
4.7690005 1.8375205 1.4994366 0
4.7740002 1.8317858 1.5006902 0
4.7790003 1.8260336 1.5019438 0
4.7840004 1.8202633 1.5031976 0
4.7890005 1.8144748 1.5044512 0
4.7950001 1.8090905 1.5059555 0
4.8000002 1.8032643 1.5072092 0
4.8050003 1.7974198 1.5084628 0
4.8100004 1.7915576 1.5097165 0
4.8150005 1.7856771 1.5109701 0
4.8200002 1.7797785 1.5122237 0
4.8260002 1.7742734 1.513728 0
4.8310003 1.768337 1.5149819 0
4.8360004 1.7623827 1.5162355 0
4.8410001 1.7564101 1.5174891 0
4.8470001 1.7508237 1.5189934 0
4.8520002 1.7448136 1.520247 0
4.8570004 1.7387853 1.5215007 0
4.8630004 1.7331376 1.5230051 0
4.8680005 1.7270714 1.5242589 0
4.8730001 1.7209871 1.5255123 0
4.8790002 1.7152779 1.5270168 0
4.8840003 1.7091558 1.5282704 0
4.8890004 1.7030158 1.5295241 0
4.8950005 1.6972454 1.5310285 0
4.9000001 1.6910672 1.532282 0
4.9050002 1.6848712 1.5335357 0
4.9110003 1.6790395 1.53504 0
4.9160004 1.6728055 1.5362939 0
4.9220004 1.6669323 1.5377982 0
4.9270005 1.6606606 1.5390518 0
4.9330001 1.6547458 1.5405561 0
4.9380002 1.6484361 1.5418098 0
4.9440002 1.6424799 1.5433142 0
4.9490004 1.6361324 1.5445678 0
4.9550004 1.6301348 1.5460722 0
4.9600005 1.6237494 1.547326 0
4.9660001 1.6177099 1.5488302 0
4.9710002 1.6112866 1.5500839 0
4.9770002 1.605206 1.5515882 0
4.9820004 1.5987449 1.5528419 0
4.9880004 1.5926228 1.5543463 0
4.9940004 1.5864789 1.5558506 0
4.9990005 1.5799601 1.5571043 0
5.0050001 1.5737746 1.5586087 0
5.0110002 1.5675677 1.5601131 0
5.0160003 1.5609912 1.5613667 0
5.0220003 1.5547428 1.562871 0
5.0280004 1.5484728 1.5643755 0
5.0330005 1.5418383 1.5656291 0
5.0390005 1.5355268 1.5671335 0
5.0450006 1.5291936 1.568638 0
5.0510001 1.5228387 1.5701421 0
5.0560002 1.5161268 1.5713959 0
5.0620003 1.5097305 1.5729002 0
5.0680003 1.5033126 1.5744047 0
5.0740004 1.4968729 1.575909 0
5.0800004 1.4904118 1.5774133 0
5.0860004 1.4839289 1.5789179 0
5.0910001 1.4770995 1.5801713 0
5.0970001 1.4705751 1.5816758 0
5.1030002 1.4640292 1.5831801 0
5.1090002 1.4574615 1.5846845 0
5.1150002 1.4508722 1.5861889 0
5.1210003 1.4442613 1.5876933 0
5.1270003 1.4376286 1.5891976 0
5.1330004 1.4309744 1.5907021 0
5.1390004 1.4242985 1.5922065 0
5.1450005 1.4176011 1.5937108 0
5.1510005 1.4108818 1.5952152 0
5.1570005 1.4041411 1.5967196 0
5.1630001 1.3973784 1.5982239 0
5.1690001 1.3905944 1.5997282 0
5.1750002 1.3837886 1.6012326 0
5.1810002 1.3769612 1.6027371 0
5.1870003 1.3701122 1.6042414 0
5.1930003 1.3632414 1.6057458 0
4.3970003 2.2539332 1.3989555 0
4.4010005 2.2490177 1.3999511 0
4.4050002 2.2440879 1.4009467 0
4.4090004 2.2391438 1.4019426 0
4.4140005 2.2347534 1.4031872 0
4.4180002 2.2297783 1.4041828 0
4.4220004 2.2247889 1.4051787 0
4.4270005 2.2203479 1.4064232 0
4.4310002 2.2153277 1.4074188 0
4.4350004 2.2102935 1.4084146 0
4.4400001 2.205802 1.4096591 0
4.4440002 2.2007368 1.4106549 0
4.4480004 2.1956575 1.4116507 0
4.4530001 2.1911154 1.4128952 0
4.4570003 2.1860051 1.413891 0
4.4620004 2.1814291 1.4151356 0
4.4660001 2.1762881 1.4161311 0
4.4700003 2.1711328 1.417127 0
4.4750004 2.1665061 1.4183717 0
4.4790001 2.16132 1.4193672 0
4.4840002 2.1566591 1.420612 0
4.4880004 2.1514425 1.4216076 0
4.4930005 2.1467471 1.4228523 0
4.4970002 2.1414998 1.4238479 0
4.5010004 2.1362381 1.4248437 0
4.5060005 2.1314926 1.4260883 0
4.5100002 2.1262 1.427084 0
4.5150003 2.1214199 1.4283286 0
4.5200005 2.116622 1.4295733 0
4.5240002 2.1112823 1.4305689 0
4.5290003 2.1064501 1.4318135 0
4.5330005 2.1010802 1.4328094 0
4.5380001 2.0962133 1.4340539 0
4.5420003 2.0908129 1.4350495 0
4.5470004 2.085912 1.4362943 0
4.5510001 2.0804806 1.43729 0
4.5560002 2.0755455 1.4385345 0
4.5610003 2.0705922 1.4397792 0
4.5650001 2.0651138 1.4407749 0
4.5700002 2.0601263 1.4420195 0
4.5750003 2.0551209 1.4432641 0
4.5790005 2.0495958 1.4442599 0
4.5840001 2.0445559 1.4455045 0
4.5890002 2.0394981 1.4467491 0
4.5930004 2.0339262 1.4477448 0
4.5980005 2.0288341 1.4489895 0
4.6030002 2.0237238 1.4502341 0
4.6070004 2.018105 1.4512298 0
4.6120005 2.0129607 1.4524745 0
4.6170001 2.007798 1.4537189 0
4.6220002 2.0026174 1.4549636 0
4.6260004 1.9969356 1.4559594 0
4.6310005 1.9917209 1.457204 0
4.6360002 1.9864876 1.4584485 0
4.6410003 1.9812369 1.4596932 0
4.6450005 1.9754918 1.4606889 0
4.6500001 1.9702065 1.4619335 0
4.6550002 1.9649034 1.4631782 0
4.6600003 1.9595823 1.4644228 0
4.6650004 1.9542432 1.4656675 0
4.6700001 1.9488857 1.466912 0
4.6740003 1.9430448 1.4679078 0
4.6790004 1.9376534 1.4691523 0
4.6840005 1.9322438 1.4703971 0
4.6890001 1.9268161 1.4716417 0
4.6940002 1.9213703 1.4728863 0
4.6990004 1.9159067 1.4741309 0
4.7040005 1.9104251 1.4753755 0
4.7090001 1.9049249 1.4766202 0
4.7140002 1.899407 1.4778649 0
4.7190003 1.8938713 1.4791094 0
4.7240005 1.8883173 1.4803541 0
4.7290001 1.8827451 1.4815986 0
4.7340002 1.8771554 1.4828434 0
4.7390003 1.8715473 1.4840879 0
4.7440004 1.8659213 1.4853326 0
4.7490001 1.8602771 1.4865772 0
4.7540002 1.8546149 1.4878218 0
4.7590003 1.8489348 1.4890665 0
4.7640004 1.8432367 1.4903111 0
4.7690005 1.8375205 1.4915558 0
4.7740002 1.8317858 1.4928002 0
4.7790003 1.8260336 1.4940449 0
4.7840004 1.8202633 1.4952897 0
4.7890005 1.8144748 1.4965343 0
4.7950001 1.8090905 1.4980277 0
4.8000002 1.8032643 1.4992723 0
4.8050003 1.7974198 1.500517 0
4.8100004 1.7915576 1.5017617 0
4.8150005 1.7856771 1.5030063 0
4.8200002 1.7797785 1.5042509 0
4.8260002 1.7742734 1.5057445 0
4.8310003 1.768337 1.5069891 0
4.8360004 1.7623827 1.5082337 0
4.8410001 1.7564101 1.5094782 0
4.8470001 1.7508237 1.5109718 0
4.8520002 1.7448136 1.5122166 0
4.8570004 1.7387853 1.5134612 0
4.8630004 1.7331376 1.5149547 0
4.8680005 1.7270714 1.5161994 0
4.8730001 1.7209871 1.5174439 0
4.8790002 1.7152779 1.5189375 0
4.8840003 1.7091558 1.5201821 0
4.8890004 1.7030158 1.5214268 0
4.8950005 1.6972454 1.5229204 0
4.9000001 1.6910672 1.5241649 0
4.9050002 1.6848712 1.5254096 0
4.9110003 1.6790395 1.5269032 0
4.9160004 1.6728055 1.5281477 0
4.9220004 1.6669323 1.5296414 0
4.9270005 1.6606606 1.5308861 0
4.9330001 1.6547458 1.5323795 0
4.9380002 1.6484361 1.5336241 0
4.9440002 1.6424799 1.5351176 0
4.9490004 1.6361324 1.5363623 0
4.9550004 1.6301348 1.5378559 0
4.9600005 1.6237494 1.5391005 0
4.9660001 1.6177099 1.540594 0
4.9710002 1.6112866 1.5418386 0
4.9770002 1.605206 1.5433322 0
4.9820004 1.5987449 1.5445769 0
4.9880004 1.5926228 1.5460705 0
4.9940004 1.5864789 1.547564 0
4.9990005 1.5799601 1.5488086 0
5.0050001 1.5737746 1.550302 0
5.0110002 1.5675677 1.5517956 0
5.0160003 1.5609912 1.5530403 0
5.0220003 1.5547428 1.554534 0
5.0280004 1.5484728 1.5560275 0
5.0330005 1.5418383 1.5572721 0
5.0390005 1.5355268 1.5587656 0
5.0450006 1.5291936 1.5602592 0
5.0510001 1.5228387 1.5617527 0
5.0560002 1.5161268 1.5629973 0
5.0620003 1.5097305 1.5644909 0
5.0680003 1.5033126 1.5659845 0
5.0740004 1.4968729 1.5674779 0
5.0800004 1.4904118 1.5689715 0
5.0860004 1.4839289 1.5704651 0
5.0910001 1.4770995 1.5717096 0
5.0970001 1.4705751 1.5732032 0
5.1030002 1.4640292 1.5746969 0
5.1090002 1.4574615 1.5761904 0
5.1150002 1.4508722 1.5776839 0
5.1210003 1.4442613 1.5791775 0
5.1270003 1.4376286 1.5806711 0
5.1330004 1.4309744 1.5821646 0
5.1390004 1.4242985 1.5836582 0
5.1450005 1.4176011 1.5851518 0
5.1510005 1.4108818 1.5866454 0
5.1570005 1.4041411 1.5881389 0
5.1630001 1.3973784 1.5896323 0
5.1690001 1.3905944 1.5911258 0
5.1750002 1.3837886 1.5926194 0
5.1810002 1.3769612 1.594113 0
5.1870003 1.3701122 1.5956066 0
5.1930003 1.3632414 1.5971001 0
4.3970003 2.2539332 1.3917456 0
4.4010005 2.2490177 1.3927342 0
4.4050002 2.2440879 1.3937225 0
4.4090004 2.2391438 1.394711 0
4.4140005 2.2347534 1.3959466 0
4.4180002 2.2297783 1.3969351 0
4.4220004 2.2247889 1.3979236 0
4.4270005 2.2203479 1.3991592 0
4.4310002 2.2153277 1.4001477 0
4.4350004 2.2102935 1.4011362 0
4.4400001 2.205802 1.4023718 0
4.4440002 2.2007368 1.4033602 0
4.4480004 2.1956575 1.4043489 0
4.4530001 2.1911154 1.4055843 0
4.4570003 2.1860051 1.4065729 0
4.4620004 2.1814291 1.4078085 0
4.4660001 2.1762881 1.4087969 0
4.4700003 2.1711328 1.4097855 0
4.4750004 2.1665061 1.4110211 0
4.4790001 2.16132 1.4120095 0
4.4840002 2.1566591 1.4132451 0
4.4880004 2.1514425 1.4142337 0
4.4930005 2.1467471 1.4154693 0
4.4970002 2.1414998 1.4164578 0
4.5020003 2.1367702 1.4176934 0
4.5060005 2.1314926 1.4186819 0
4.5100002 2.1262 1.4196703 0
4.5150003 2.1214199 1.4209059 0
4.5200005 2.116622 1.4221417 0
4.5240002 2.1112823 1.42313 0
4.5290003 2.1064501 1.4243656 0
4.5330005 2.1010802 1.4253542 0
4.5380001 2.0962133 1.4265897 0
4.5420003 2.0908129 1.4275782 0
4.5470004 2.085912 1.4288138 0
4.5510001 2.0804806 1.4298023 0
4.5560002 2.0755455 1.4310379 0
4.5610003 2.0705922 1.4322735 0
4.5650001 2.0651138 1.433262 0
4.5700002 2.0601263 1.4344977 0
4.5750003 2.0551209 1.4357333 0
4.5790005 2.0495958 1.4367218 0
4.5840001 2.0445559 1.4379573 0
4.5890002 2.0394981 1.4391929 0
4.5930004 2.0339262 1.4401815 0
4.5980005 2.0288341 1.4414171 0
4.6030002 2.0237238 1.4426527 0
4.6070004 2.018105 1.4436411 0
4.6120005 2.0129607 1.4448768 0
4.6170001 2.007798 1.4461123 0
4.6220002 2.0026174 1.4473479 0
4.6260004 1.9969356 1.4483365 0
4.6310005 1.9917209 1.4495721 0
4.6360002 1.9864876 1.4508077 0
4.6410003 1.9812369 1.4520433 0
4.6450005 1.9754918 1.4530319 0
4.6500001 1.9702065 1.4542674 0
4.6550002 1.9649034 1.455503 0
4.6600003 1.9595823 1.4567387 0
4.6650004 1.9542432 1.4579743 0
4.6700001 1.9488857 1.4592098 0
4.6740003 1.9430448 1.4601983 0
4.6790004 1.9376534 1.4614339 0
4.6840005 1.9322438 1.4626696 0
4.6890001 1.9268161 1.4639051 0
4.6940002 1.9213703 1.4651407 0
4.6990004 1.9159067 1.4663763 0
4.7040005 1.9104251 1.467612 0
4.7090001 1.9049249 1.4688475 0
4.7140002 1.899407 1.4700831 0
4.7190003 1.8938713 1.4713187 0
4.7240005 1.8883173 1.4725544 0
4.7290001 1.8827451 1.4737899 0
4.7340002 1.8771554 1.4750255 0
4.7390003 1.8715473 1.4762613 0
4.7440004 1.8659213 1.4774969 0
4.7490001 1.8602771 1.4787323 0
4.7540002 1.8546149 1.479968 0
4.7590003 1.8489348 1.4812037 0
4.7640004 1.8432367 1.4824393 0
4.7690005 1.8375205 1.4836749 0
4.7740002 1.8317858 1.4849105 0
4.7790003 1.8260336 1.4861461 0
4.7840004 1.8202633 1.4873817 0
4.7890005 1.8144748 1.4886173 0
4.7950001 1.8090905 1.4901 0
4.8000002 1.8032643 1.4913356 0
4.8050003 1.7974198 1.4925712 0
4.8100004 1.7915576 1.4938068 0
4.8150005 1.7856771 1.4950424 0
4.8210001 1.7801915 1.4965252 0
4.8260002 1.7742734 1.4977608 0
4.8310003 1.768337 1.4989965 0
4.8360004 1.7623827 1.5002321 0
4.8410001 1.7564101 1.5014676 0
4.8470001 1.7508237 1.5029503 0
4.8520002 1.7448136 1.5041859 0
4.8570004 1.7387853 1.5054215 0
4.8630004 1.7331376 1.5069044 0
4.8680005 1.7270714 1.50814 0
4.8730001 1.7209871 1.5093756 0
4.8790002 1.7152779 1.5108582 0
4.8840003 1.7091558 1.5120939 0
4.8890004 1.7030158 1.5133295 0
4.8950005 1.6972454 1.5148122 0
4.9000001 1.6910672 1.5160477 0
4.9050002 1.6848712 1.5172833 0
4.9110003 1.6790395 1.5187662 0
4.9160004 1.6728055 1.5200018 0
4.9220004 1.6669323 1.5214845 0
4.9270005 1.6606606 1.5227201 0
4.9330001 1.6547458 1.5242028 0
4.9380002 1.6484361 1.5254384 0
4.9440002 1.6424799 1.5269212 0
4.9490004 1.6361324 1.5281568 0
4.9550004 1.6301348 1.5296395 0
4.9600005 1.6237494 1.5308751 0
4.9660001 1.6177099 1.5323578 0
4.9710002 1.6112866 1.5335934 0
4.9770002 1.605206 1.5350761 0
4.9830003 1.5991037 1.536559 0
4.9880004 1.5926228 1.5377946 0
4.9940004 1.5864789 1.5392773 0
4.9990005 1.5799601 1.5405129 0
5.0050001 1.5737746 1.5419955 0
5.0110002 1.5675677 1.5434784 0
5.0160003 1.5609912 1.544714 0
5.0220003 1.5547428 1.5461967 0
5.0280004 1.5484728 1.5476794 0
5.0330005 1.5418383 1.548915 0
5.0390005 1.5355268 1.5503978 0
5.0450006 1.5291936 1.5518805 0
5.0510001 1.5228387 1.5533632 0
5.0560002 1.5161268 1.5545988 0
5.0620003 1.5097305 1.5560815 0
5.0680003 1.5033126 1.5575643 0
5.0740004 1.4968729 1.559047 0
5.0800004 1.4904118 1.5605297 0
5.0860004 1.4839289 1.5620126 0
5.0910001 1.4770995 1.563248 0
5.0970001 1.4705751 1.5647308 0
5.1030002 1.4640292 1.5662135 0
5.1090002 1.4574615 1.5676962 0
5.1150002 1.4508722 1.5691789 0
5.1210003 1.4442613 1.5706618 0
5.1270003 1.4376286 1.5721445 0
5.1330004 1.4309744 1.5736271 0
5.1390004 1.4242985 1.57511 0
5.1450005 1.4176011 1.5765927 0
5.1510005 1.4108818 1.5780755 0
5.1570005 1.4041411 1.5795581 0
5.1630001 1.3973784 1.5810407 0
5.1690001 1.3905944 1.5825236 0
5.1750002 1.3837886 1.5840062 0
5.1810002 1.3769612 1.585489 0
5.1870003 1.3701122 1.5869718 0
5.1930003 1.3632414 1.5884545 0
4.3970003 2.2539332 1.3845358 0
4.4010005 2.2490177 1.385517 0
4.4050002 2.2440879 1.3864982 0
4.4090004 2.2391438 1.3874797 0
4.4140005 2.2347534 1.3887062 0
4.4180002 2.2297783 1.3896874 0
4.4220004 2.2247889 1.3906687 0
4.4270005 2.2203479 1.3918953 0
4.4310002 2.2153277 1.3928765 0
4.4350004 2.2102935 1.393858 0
4.4400001 2.205802 1.3950844 0
4.4440002 2.2007368 1.3960656 0
4.4480004 2.1956575 1.397047 0
4.4530001 2.1911154 1.3982735 0
4.4570003 2.1860051 1.3992548 0
4.4620004 2.1814291 1.4004813 0
4.4660001 2.1762881 1.4014627 0
4.4700003 2.1711328 1.4024439 0
4.4750004 2.1665061 1.4036705 0
4.4790001 2.16132 1.4046519 0
4.4840002 2.1566591 1.4058784 0
4.4880004 2.1514425 1.4068596 0
4.4930005 2.1467471 1.4080864 0
4.4970002 2.1414998 1.4090675 0
4.5020003 2.1367702 1.4102942 0
4.5060005 2.1314926 1.4112755 0
4.5100002 2.1262 1.4122567 0
4.5150003 2.1214199 1.4134833 0
4.5200005 2.116622 1.4147099 0
4.5240002 2.1112823 1.4156911 0
4.5290003 2.1064501 1.4169177 0
4.5330005 2.1010802 1.4178991 0
4.5380001 2.0962133 1.4191256 0
4.5420003 2.0908129 1.4201069 0
4.5470004 2.085912 1.4213336 0
4.5510001 2.0804806 1.4223146 0
4.5560002 2.0755455 1.4235413 0
4.5610003 2.0705922 1.424768 0
4.5650001 2.0651138 1.4257492 0
4.5700002 2.0601263 1.4269757 0
4.5750003 2.0551209 1.4282024 0
4.5790005 2.0495958 1.4291837 0
4.5840001 2.0445559 1.4304101 0
4.5890002 2.0394981 1.4316368 0
4.5930004 2.0339262 1.4326181 0
4.5980005 2.0288341 1.4338447 0
4.6030002 2.0237238 1.4350712 0
4.6070004 2.018105 1.4360526 0
4.6120005 2.0129607 1.4372791 0
4.6170001 2.007798 1.4385056 0
4.6220002 2.0026174 1.4397323 0
4.6260004 1.9969356 1.4407135 0
4.6310005 1.9917209 1.4419403 0
4.6360002 1.9864876 1.4431667 0
4.6410003 1.9812369 1.4443933 0
4.6450005 1.9754918 1.4453747 0
4.6500001 1.9702065 1.4466012 0
4.6550002 1.9649034 1.4478277 0
4.6600003 1.9595823 1.4490544 0
4.6650004 1.9542432 1.450281 0
4.6700001 1.9488857 1.4515074 0
4.6740003 1.9430448 1.4524889 0
4.6790004 1.9376534 1.4537154 0
4.6840005 1.9322438 1.454942 0
4.6890001 1.9268161 1.4561685 0
4.6940002 1.9213703 1.4573952 0
4.6990004 1.9159067 1.4586219 0
4.7040005 1.9104251 1.4598484 0
4.7090001 1.9049249 1.4610748 0
4.7140002 1.899407 1.4623016 0
4.7190003 1.8938713 1.4635282 0
4.7240005 1.8883173 1.4647547 0
4.7290001 1.8827451 1.4659812 0
4.7340002 1.8771554 1.4672079 0
4.7390003 1.8715473 1.4684345 0
4.7440004 1.8659213 1.4696611 0
4.7490001 1.8602771 1.4708877 0
4.7540002 1.8546149 1.4721143 0
4.7590003 1.8489348 1.4733409 0
4.7640004 1.8432367 1.4745674 0
4.7690005 1.8375205 1.4757941 0
4.7740002 1.8317858 1.4770206 0
4.7790003 1.8260336 1.4782472 0
4.7840004 1.8202633 1.4794738 0
4.7890005 1.8144748 1.4807005 0
4.7950001 1.8090905 1.4821723 0
4.8000002 1.8032643 1.4833989 0
4.8050003 1.7974198 1.4846255 0
4.8100004 1.7915576 1.4858521 0
4.8150005 1.7856771 1.4870787 0
4.8210001 1.7801915 1.4885504 0
4.8260002 1.7742734 1.4897772 0
4.8310003 1.768337 1.4910038 0
4.8360004 1.7623827 1.4922303 0
4.8410001 1.7564101 1.4934568 0
4.8470001 1.7508237 1.4949287 0
4.8520002 1.7448136 1.4961555 0
4.8570004 1.7387853 1.497382 0
4.8630004 1.7331376 1.4988539 0
4.8680005 1.7270714 1.5000806 0
4.8730001 1.7209871 1.501307 0
4.8790002 1.7152779 1.502779 0
4.8840003 1.7091558 1.5040056 0
4.8890004 1.7030158 1.5052322 0
4.8950005 1.6972454 1.5067042 0
4.9000001 1.6910672 1.5079306 0
4.9050002 1.6848712 1.5091572 0
4.9110003 1.6790395 1.5106292 0
4.9160004 1.6728055 1.5118557 0
4.9220004 1.6669323 1.5133277 0
4.9270005 1.6606606 1.5145543 0
4.9330001 1.6547458 1.516026 0
4.9380002 1.6484361 1.5172528 0
4.9440002 1.6424799 1.5187247 0
4.9490004 1.6361324 1.5199513 0
4.9550004 1.6301348 1.5214232 0
4.9600005 1.6237494 1.5226498 0
4.9660001 1.6177099 1.5241216 0
4.9710002 1.6112866 1.5253482 0
4.9770002 1.605206 1.5268202 0
4.9830003 1.5991037 1.5282921 0
4.9880004 1.5926228 1.5295186 0
4.9940004 1.5864789 1.5309906 0
4.9990005 1.5799601 1.5322171 0
5.0050001 1.5737746 1.533689 0
5.0110002 1.5675677 1.5351609 0
5.0160003 1.5609912 1.5363876 0
5.0220003 1.5547428 1.5378594 0
5.0280004 1.5484728 1.5393313 0
5.0330005 1.5418383 1.5405581 0
5.0390005 1.5355268 1.5420299 0
5.0450006 1.5291936 1.5435019 0
5.0510001 1.5228387 1.5449736 0
5.0560002 1.5161268 1.5462003 0
5.0620003 1.5097305 1.5476722 0
5.0680003 1.5033126 1.549144 0
5.0740004 1.4968729 1.550616 0
5.0800004 1.4904118 1.5520879 0
5.0860004 1.4839289 1.5535598 0
5.0910001 1.4770995 1.5547863 0
5.0970001 1.4705751 1.5562582 0
5.1030002 1.4640292 1.5577302 0
5.1090002 1.4574615 1.5592021 0
5.1150002 1.4508722 1.560674 0
5.1210003 1.4442613 1.5621459 0
5.1270003 1.4376286 1.5636178 0
5.1330004 1.4309744 1.5650898 0
5.1390004 1.4242985 1.5665617 0
5.1450005 1.4176011 1.5680337 0
5.1510005 1.4108818 1.5695055 0
5.1570005 1.4041411 1.5709774 0
5.1630001 1.3973784 1.5724492 0
5.1690001 1.3905944 1.5739211 0
5.1750002 1.3837886 1.5753931 0
5.1810002 1.3769612 1.576865 0
5.1870003 1.3701122 1.578337 0
5.1930003 1.3632414 1.5798088 0
4.3970003 2.2539332 1.3773259 0
4.4010005 2.2490177 1.3783001 0
4.4050002 2.2440879 1.379274 0
4.4090004 2.2391438 1.3802481 0
4.4140005 2.2347534 1.3814658 0
4.4180002 2.2297783 1.3824396 0
4.4220004 2.2247889 1.3834138 0
4.4270005 2.2203479 1.3846314 0
4.4310002 2.2153277 1.3856053 0
4.4350004 2.2102935 1.3865795 0
4.4400001 2.205802 1.387797 0
4.4440002 2.2007368 1.3887711 0
4.4480004 2.1956575 1.3897451 0
4.4530001 2.1911154 1.3909626 0
4.4570003 2.1860051 1.3919368 0
4.4620004 2.1814291 1.3931544 0
4.4660001 2.1762881 1.3941283 0
4.4700003 2.1711328 1.3951024 0
4.4750004 2.1665061 1.3963201 0
4.4790001 2.16132 1.397294 0
4.4840002 2.1566591 1.3985116 0
4.4880004 2.1514425 1.3994858 0
4.4930005 2.1467471 1.4007033 0
4.4970002 2.1414998 1.4016774 0
4.5020003 2.1367702 1.4028949 0
4.5060005 2.1314926 1.403869 0
4.5110002 2.1267285 1.4050865 0
4.5150003 2.1214199 1.4060606 0
4.5200005 2.116622 1.4072783 0
4.5240002 2.1112823 1.4082521 0
4.5290003 2.1064501 1.4094698 0
4.5330005 2.1010802 1.4104439 0
4.5380001 2.0962133 1.4116614 0
4.5420003 2.0908129 1.4126356 0
4.5470004 2.085912 1.413853 0
4.5510001 2.0804806 1.4148271 0
4.5560002 2.0755455 1.4160446 0
4.5610003 2.0705922 1.4172623 0
4.5650001 2.0651138 1.4182363 0
4.5700002 2.0601263 1.4194539 0
4.5750003 2.0551209 1.4206715 0
4.5790005 2.0495958 1.4216455 0
4.5840001 2.0445559 1.4228631 0
4.5890002 2.0394981 1.4240806 0
4.5930004 2.0339262 1.4250548 0
4.5980005 2.0288341 1.4262723 0
4.6030002 2.0237238 1.4274899 0
4.6070004 2.018105 1.4284638 0
4.6120005 2.0129607 1.4296815 0
4.6170001 2.007798 1.430899 0
4.6220002 2.0026174 1.4321166 0
4.6260004 1.9969356 1.4330908 0
4.6310005 1.9917209 1.4343083 0
4.6360002 1.9864876 1.4355258 0
4.6410003 1.9812369 1.4367434 0
4.6450005 1.9754918 1.4377176 0
4.6500001 1.9702065 1.4389349 0
4.6550002 1.9649034 1.4401525 0
4.6600003 1.9595823 1.4413701 0
4.6650004 1.9542432 1.4425877 0
4.6700001 1.9488857 1.4438052 0
4.6740003 1.9430448 1.4447794 0
4.6790004 1.9376534 1.445997 0
4.6840005 1.9322438 1.4472145 0
4.6890001 1.9268161 1.4484321 0
4.6940002 1.9213703 1.4496496 0
4.6990004 1.9159067 1.4508673 0
4.7040005 1.9104251 1.4520848 0
4.7090001 1.9049249 1.4533024 0
4.7140002 1.899407 1.4545199 0
4.7190003 1.8938713 1.4557376 0
4.7240005 1.8883173 1.4569551 0
4.7290001 1.8827451 1.4581726 0
4.7340002 1.8771554 1.4593902 0
4.7390003 1.8715473 1.4606078 0
4.7440004 1.8659213 1.4618254 0
4.7490001 1.8602771 1.4630429 0
4.7540002 1.8546149 1.4642605 0
4.7590003 1.8489348 1.4654781 0
4.7640004 1.8432367 1.4666955 0
4.7690005 1.8375205 1.4679133 0
4.7740002 1.8317858 1.4691308 0
4.7790003 1.8260336 1.4703484 0
4.7840004 1.8202633 1.471566 0
4.7890005 1.8144748 1.4727836 0
4.7950001 1.8090905 1.4742445 0
4.8000002 1.8032643 1.4754621 0
4.8050003 1.7974198 1.4766797 0
4.8100004 1.7915576 1.4778973 0
4.8150005 1.7856771 1.4791149 0
4.8210001 1.7801915 1.4805759 0
4.8260002 1.7742734 1.4817935 0
4.8310003 1.768337 1.4830111 0
4.8360004 1.7623827 1.4842287 0
4.8410001 1.7564101 1.4854461 0
4.8470001 1.7508237 1.4869072 0
4.8520002 1.7448136 1.4881248 0
4.8570004 1.7387853 1.4893425 0
4.8630004 1.7331376 1.4908036 0
4.8680005 1.7270714 1.4920211 0
4.8730001 1.7209871 1.4932386 0
4.8790002 1.7152779 1.4946997 0
4.8840003 1.7091558 1.4959173 0
4.8890004 1.7030158 1.4971349 0
4.8950005 1.6972454 1.4985961 0
4.9000001 1.6910672 1.4998134 0
4.9050002 1.6848712 1.501031 0
4.9110003 1.6790395 1.5024922 0
4.9160004 1.6728055 1.5037098 0
4.9220004 1.6669323 1.5051708 0
4.9270005 1.6606606 1.5063885 0
4.9330001 1.6547458 1.5078495 0
4.9380002 1.6484361 1.5090671 0
4.9440002 1.6424799 1.5105281 0
4.9490004 1.6361324 1.5117458 0
4.9550004 1.6301348 1.5132068 0
4.9600005 1.6237494 1.5144244 0
4.9660001 1.6177099 1.5158854 0
4.9710002 1.6112866 1.5171031 0
4.9770002 1.605206 1.5185641 0
4.9830003 1.5991037 1.5200253 0
4.9880004 1.5926228 1.5212429 0
4.9940004 1.5864789 1.5227039 0
4.9990005 1.5799601 1.5239215 0
5.0050001 1.5737746 1.5253824 0
5.0110002 1.5675677 1.5268435 0
5.0160003 1.5609912 1.5280612 0
5.0220003 1.5547428 1.5295223 0
5.0280004 1.5484728 1.5309833 0
5.0330005 1.5418383 1.5322011 0
5.0390005 1.5355268 1.5336621 0
5.0450006 1.5291936 1.5351232 0
5.0510001 1.5228387 1.5365841 0
5.0560002 1.5161268 1.5378017 0
5.0620003 1.5097305 1.5392628 0
5.0680003 1.5033126 1.5407239 0
5.0740004 1.4968729 1.5421851 0
5.0800004 1.4904118 1.5436461 0
5.0860004 1.4839289 1.5451072 0
5.0910001 1.4770995 1.5463246 0
5.0970001 1.4705751 1.5477859 0
5.1030002 1.4640292 1.5492469 0
5.1090002 1.4574615 1.5507079 0
5.1150002 1.4508722 1.5521691 0
5.1210003 1.4442613 1.5536301 0
5.1270003 1.4376286 1.5550913 0
5.1330004 1.4309744 1.5565523 0
5.1390004 1.4242985 1.5580134 0
5.1450005 1.4176011 1.5594746 0
5.1510005 1.4108818 1.5609356 0
5.1570005 1.4041411 1.5623968 0
5.1630001 1.3973784 1.5638577 0
5.1690001 1.3905944 1.5653188 0
5.1750002 1.3837886 1.5667799 0
5.1810002 1.3769612 1.568241 0
5.1870003 1.3701122 1.569702 0
5.1930003 1.3632414 1.5711632 0
4.3970003 2.2539332 1.3701161 0
4.4010005 2.2490177 1.3710829 0
4.4050002 2.2440879 1.3720498 0
4.4090004 2.2391438 1.3730167 0
4.4140005 2.2347534 1.3742251 0
4.4180002 2.2297783 1.3751919 0
4.4220004 2.2247889 1.376159 0
4.4270005 2.2203479 1.3773674 0
4.4310002 2.2153277 1.3783342 0
4.4350004 2.2102935 1.3793012 0
4.4400001 2.205802 1.3805096 0
4.4440002 2.2007368 1.3814764 0
4.4480004 2.1956575 1.3824434 0
4.4530001 2.1911154 1.3836519 0
4.4570003 2.1860051 1.3846186 0
4.4620004 2.1814291 1.3858273 0
4.4660001 2.1762881 1.3867941 0
4.4700003 2.1711328 1.3877609 0
4.4750004 2.1665061 1.3889695 0
4.4790001 2.16132 1.3899363 0
4.4840002 2.1566591 1.3911449 0
4.4880004 2.1514425 1.3921118 0
4.4930005 2.1467471 1.3933203 0
4.4970002 2.1414998 1.3942871 0
4.5020003 2.1367702 1.3954957 0
4.5060005 2.1314926 1.3964626 0
4.5110002 2.1267285 1.3976711 0
4.5150003 2.1214199 1.3986379 0
4.5200005 2.116622 1.3998466 0
4.5240002 2.1112823 1.4008133 0
4.5290003 2.1064501 1.4020219 0
4.5330005 2.1010802 1.4029887 0
4.5380001 2.0962133 1.4041972 0
4.5420003 2.0908129 1.4051641 0
4.5470004 2.085912 1.4063728 0
4.5510001 2.0804806 1.4073395 0
4.5560002 2.0755455 1.408548 0
4.5610003 2.0705922 1.4097567 0
4.5650001 2.0651138 1.4107233 0
4.5700002 2.0601263 1.411932 0
4.5750003 2.0551209 1.4131405 0
4.5790005 2.0495958 1.4141074 0
4.5840001 2.0445559 1.4153159 0
4.5890002 2.0394981 1.4165244 0
4.5930004 2.0339262 1.4174914 0
4.5980005 2.0288341 1.4187 0
4.6030002 2.0237238 1.4199084 0
4.6070004 2.018105 1.4208753 0
4.6120005 2.0129607 1.4220839 0
4.6170001 2.007798 1.4232924 0
4.6220002 2.0026174 1.4245009 0
4.6260004 1.9969356 1.4254678 0
4.6310005 1.9917209 1.4266764 0
4.6360002 1.9864876 1.4278849 0
4.6410003 1.9812369 1.4290934 0
4.6450005 1.9754918 1.4300604 0
4.6500001 1.9702065 1.4312688 0
4.6550002 1.9649034 1.4324774 0
4.6600003 1.9595823 1.4336859 0
4.6650004 1.9542432 1.4348946 0
4.6700001 1.9488857 1.436103 0
4.6740003 1.9430448 1.4370699 0
4.6790004 1.9376534 1.4382784 0
4.6840005 1.9322438 1.439487 0
4.6890001 1.9268161 1.4406955 0
4.6940002 1.9213703 1.4419041 0
4.6990004 1.9159067 1.4431126 0
4.7040005 1.9104251 1.4443212 0
4.7090001 1.9049249 1.4455297 0
4.7140002 1.899407 1.4467382 0
4.7190003 1.8938713 1.4479469 0
4.7240005 1.8883173 1.4491554 0
4.7290001 1.8827451 1.4503639 0
4.7340002 1.8771554 1.4515725 0
4.7390003 1.8715473 1.4527811 0
4.7440004 1.8659213 1.4539896 0
4.7490001 1.8602771 1.455198 0
4.7540002 1.8546149 1.4564067 0
4.7590003 1.8489348 1.4576153 0
4.7640004 1.8432367 1.4588239 0
4.7690005 1.8375205 1.4600323 0
4.7740002 1.8317858 1.4612409 0
4.7790003 1.8260336 1.4624494 0
4.7840004 1.8202633 1.4636581 0
4.7890005 1.8144748 1.4648666 0
4.7950001 1.8090905 1.4663168 0
4.8000002 1.8032643 1.4675254 0
4.8050003 1.7974198 1.4687339 0
4.8100004 1.7915576 1.4699426 0
4.8150005 1.7856771 1.4711511 0
4.8210001 1.7801915 1.4726013 0
4.8260002 1.7742734 1.4738098 0
4.8310003 1.768337 1.4750184 0
4.8360004 1.7623827 1.476227 0
4.8410001 1.7564101 1.4774355 0
4.8470001 1.7508237 1.4788858 0
4.8520002 1.7448136 1.4800942 0
4.8570004 1.7387853 1.4813029 0
4.8630004 1.7331376 1.4827532 0
4.8680005 1.7270714 1.4839617 0
4.8730001 1.7209871 1.4851702 0
4.8790002 1.7152779 1.4866205 0
4.8840003 1.7091558 1.487829 0
4.8890004 1.7030158 1.4890376 0
4.8950005 1.6972454 1.4904879 0
4.9000001 1.6910672 1.4916964 0
4.9050002 1.6848712 1.492905 0
4.9110003 1.6790395 1.4943552 0
4.9160004 1.6728055 1.4955637 0
4.9220004 1.6669323 1.497014 0
4.9270005 1.6606606 1.4982226 0
4.9330001 1.6547458 1.4996728 0
4.9380002 1.6484361 1.5008814 0
4.9440002 1.6424799 1.5023316 0
4.9490004 1.6361324 1.5035403 0
4.9550004 1.6301348 1.5049906 0
4.9600005 1.6237494 1.506199 0
4.9660001 1.6177099 1.5076492 0
4.9710002 1.6112866 1.5088578 0
4.9770002 1.605206 1.510308 0
4.9830003 1.5991037 1.5117583 0
4.9880004 1.5926228 1.512967 0
4.9940004 1.5864789 1.5144173 0
4.9990005 1.5799601 1.5156257 0
5.0050001 1.5737746 1.5170759 0
5.0110002 1.5675677 1.5185262 0
5.0160003 1.5609912 1.5197347 0
5.0220003 1.5547428 1.521185 0
5.0280004 1.5484728 1.5226353 0
5.0330005 1.5418383 1.5238439 0
5.0390005 1.5355268 1.5252942 0
5.0450006 1.5291936 1.5267445 0
5.0510001 1.5228387 1.5281947 0
5.0560002 1.5161268 1.5294031 0
5.0620003 1.5097305 1.5308534 0
5.0680003 1.5033126 1.5323037 0
5.0740004 1.4968729 1.533754 0
5.0800004 1.4904118 1.5352043 0
5.0860004 1.4839289 1.5366546 0
5.0910001 1.4770995 1.537863 0
5.0970001 1.4705751 1.5393133 0
5.1030002 1.4640292 1.5407636 0
5.1090002 1.4574615 1.5422139 0
5.1150002 1.4508722 1.5436641 0
5.1210003 1.4442613 1.5451144 0
5.1270003 1.4376286 1.5465647 0
5.1330004 1.4309744 1.5480149 0
5.1390004 1.4242985 1.5494652 0
5.1450005 1.4176011 1.5509155 0
5.1510005 1.4108818 1.5523657 0
5.1570005 1.4041411 1.553816 0
5.1630001 1.3973784 1.5552661 0
5.1690001 1.3905944 1.5567164 0
5.1750002 1.3837886 1.5581667 0
5.1810002 1.3769612 1.5596169 0
5.1870003 1.3701122 1.5610672 0
5.1930003 1.3632414 1.5625175 0
4.3970003 2.2539332 1.3629062 0
4.4010005 2.2490177 1.363866 0
4.4050002 2.2440879 1.3648256 0
4.4090004 2.2391438 1.3657851 0
4.4140005 2.2347534 1.3669847 0
4.4180002 2.2297783 1.3679444 0
4.4220004 2.2247889 1.368904 0
4.4270005 2.2203479 1.3701036 0
4.4310002 2.2153277 1.3710631 0
4.4350004 2.2102935 1.3720227 0
4.4400001 2.205802 1.3732222 0
4.4440002 2.2007368 1.3741819 0
4.4480004 2.1956575 1.3751415 0
4.4530001 2.1911154 1.376341 0
4.4570003 2.1860051 1.3773006 0
4.4620004 2.1814291 1.3785002 0
4.4660001 2.1762881 1.3794599 0
4.4700003 2.1711328 1.3804194 0
4.4750004 2.1665061 1.381619 0
4.4790001 2.16132 1.3825786 0
4.4840002 2.1566591 1.3837781 0
4.4880004 2.1514425 1.3847378 0
4.4930005 2.1467471 1.3859375 0
4.4970002 2.1414998 1.3868968 0
4.5020003 2.1367702 1.3880965 0
4.5060005 2.1314926 1.3890562 0
4.5110002 2.1267285 1.3902556 0
4.5150003 2.1214199 1.3912153 0
4.5200005 2.116622 1.3924148 0
4.5240002 2.1112823 1.3933743 0
4.5290003 2.1064501 1.3945739 0
4.5330005 2.1010802 1.3955336 0
4.5380001 2.0962133 1.396733 0
4.5420003 2.0908129 1.3976928 0
4.5470004 2.085912 1.3988923 0
4.5510001 2.0804806 1.3998518 0
4.5560002 2.0755455 1.4010514 0
4.5610003 2.0705922 1.4022509 0
4.5650001 2.0651138 1.4032105 0
4.5700002 2.0601263 1.40441 0
4.5750003 2.0551209 1.4056096 0
4.5790005 2.0495958 1.4065694 0
4.5840001 2.0445559 1.4077687 0
4.5890002 2.0394981 1.4089683 0
4.5930004 2.0339262 1.4099281 0
4.5980005 2.0288341 1.4111276 0
4.6030002 2.0237238 1.4123271 0
4.6070004 2.018105 1.4132867 0
4.6120005 2.0129607 1.4144863 0
4.6170001 2.007798 1.4156858 0
4.6220002 2.0026174 1.4168853 0
4.6260004 1.9969356 1.4178449 0
4.6310005 1.9917209 1.4190445 0
4.6360002 1.9864876 1.4202439 0
4.6410003 1.9812369 1.4214435 0
4.6450005 1.9754918 1.4224031 0
4.6500001 1.9702065 1.4236026 0
4.6550002 1.9649034 1.4248022 0
4.6600003 1.9595823 1.4260017 0
4.6650004 1.9542432 1.4272013 0
4.6700001 1.9488857 1.4284006 0
4.6740003 1.9430448 1.4293604 0
4.6790004 1.9376534 1.43056 0
4.6840005 1.9322438 1.4317595 0
4.6890001 1.9268161 1.432959 0
4.6940002 1.9213703 1.4341584 0
4.6990004 1.9159067 1.435358 0
4.7040005 1.9104251 1.4365577 0
4.7090001 1.9049249 1.437757 0
4.7140002 1.899407 1.4389566 0
4.7190003 1.8938713 1.4401561 0
4.7240005 1.8883173 1.4413557 0
4.7290001 1.8827451 1.4425552 0
4.7340002 1.8771554 1.4437548 0
4.7390003 1.8715473 1.4449544 0
4.7440004 1.8659213 1.446154 0
4.7490001 1.8602771 1.4473534 0
4.7540002 1.8546149 1.448553 0
4.7590003 1.8489348 1.4497524 0
4.7640004 1.8432367 1.4509521 0
4.7690005 1.8375205 1.4521517 0
4.7740002 1.8317858 1.453351 0
4.7790003 1.8260336 1.4545506 0
4.7840004 1.8202633 1.4557501 0
4.7890005 1.8144748 1.4569497 0
4.7950001 1.8090905 1.458389 0
4.8000002 1.8032643 1.4595886 0
4.8050003 1.7974198 1.4607882 0
4.8100004 1.7915576 1.4619877 0
4.8150005 1.7856771 1.4631873 0
4.8210001 1.7801915 1.4646266 0
4.8260002 1.7742734 1.4658262 0
4.8310003 1.768337 1.4670258 0
4.8360004 1.7623827 1.4682252 0
4.8410001 1.7564101 1.4694247 0
4.8470001 1.7508237 1.4708642 0
4.8520002 1.7448136 1.4720638 0
4.8570004 1.7387853 1.4732633 0
4.8630004 1.7331376 1.4747027 0
4.8680005 1.7270714 1.4759023 0
4.8730001 1.7209871 1.4771017 0
4.8790002 1.7152779 1.4785413 0
4.8840003 1.7091558 1.4797407 0
4.8890004 1.7030158 1.4809403 0
4.8950005 1.6972454 1.4823797 0
4.9000001 1.6910672 1.4835793 0
4.9050002 1.6848712 1.4847789 0
4.9110003 1.6790395 1.4862182 0
4.9160004 1.6728055 1.4874178 0
4.9220004 1.6669323 1.4888572 0
4.9270005 1.6606606 1.4900568 0
4.9330001 1.6547458 1.4914961 0
4.9380002 1.6484361 1.4926957 0
4.9440002 1.6424799 1.4941351 0
4.9490004 1.6361324 1.4953347 0
4.9550004 1.6301348 1.4967742 0
4.9600005 1.6237494 1.4979737 0
4.9660001 1.6177099 1.4994131 0
4.9710002 1.6112866 1.5006126 0
4.9770002 1.605206 1.5020521 0
4.9830003 1.5991037 1.5034914 0
4.9880004 1.5926228 1.504691 0
4.9940004 1.5864789 1.5061306 0
4.9990005 1.5799601 1.5073301 0
5.0050001 1.5737746 1.5087694 0
5.0110002 1.5675677 1.5102088 0
5.0160003 1.5609912 1.5114084 0
5.0220003 1.5547428 1.5128478 0
5.0280004 1.5484728 1.5142874 0
5.0330005 1.5418383 1.5154868 0
5.0390005 1.5355268 1.5169263 0
5.0450006 1.5291936 1.5183657 0
5.0510001 1.5228387 1.5198051 0
5.0560002 1.5161268 1.5210047 0
5.0620003 1.5097305 1.5224441 0
5.0680003 1.5033126 1.5238836 0
5.0740004 1.4968729 1.525323 0
5.0800004 1.4904118 1.5267625 0
5.0860004 1.4839289 1.5282019 0
5.0910001 1.4770995 1.5294014 0
5.0970001 1.4705751 1.5308408 0
5.1030002 1.4640292 1.5322803 0
5.1090002 1.4574615 1.5337197 0
5.1150002 1.4508722 1.5351592 0
5.1210003 1.4442613 1.5365986 0
5.1270003 1.4376286 1.538038 0
5.1330004 1.4309744 1.5394775 0
5.1390004 1.4242985 1.5409169 0
