# .PCD v0.7 - Point Cloud Data file format
VERSION 0.7
FIELDS x y z intensity
SIZE 4 4 4 4
TYPE F F F F
COUNT 1 1 1 1
WIDTH 1414
HEIGHT 1
VIEWPOINT 0 0 0 1 0 0 0
POINTS 1414
DATA ascii
4.3770003 -0.91402322 0.28204635 0
4.381 -0.92207724 0.28192368 0
4.3870001 -0.93058938 0.28173968 0
3.8810003 -0.91878891 0.29725605 0
3.8660002 -0.92127991 0.29771602 0
3.8590002 -0.92575157 0.29793069 0
3.8540003 -0.93071026 0.29808402 0
3.8510003 -0.93616676 0.29817599 0
3.8490002 -0.94187218 0.29823732 0
3.8480003 -0.94783199 0.29826799 0
3.8480003 -0.95405149 0.29826799 0
3.8510003 -0.96106654 0.29817599 0
3.8550003 -0.96835929 0.29805332 0
4.0450001 -1.1637298 0.29222703 0
4.0360003 -1.1675286 0.292503 0
4.0300002 -1.1722257 0.292687 0
4.026 -1.1775253 0.29280967 0
4.0230002 -1.1831243 0.29290166 0
4.0220003 -1.1893438 0.29293233 0
4.0210004 -1.1955597 0.29296297 0
4.0230002 -1.2027298 0.29290166 0
4.027 -1.2105494 0.292779 0
4.2550001 -0.65097022 0.27883375 0
4.2470002 -0.656654 0.2790935 0
4.2410002 -0.66263002 0.27928832 0
4.237 -0.66890907 0.2794182 0
4.2340002 -0.67533785 0.27951559 0
4.2320004 -0.68192178 0.27958053 0
4.23 -0.68849844 0.27964547 0
4.23 -0.69540703 0.27964547 0
4.2309999 -0.70248699 0.27961302 0
4.2330003 -0.70974374 0.27954808 0
4.2360001 -0.71718258 0.27945065 0
4.2410002 -0.72498584 0.27928832 0
4.2490001 -0.73334295 0.27902856 0
4.1090002 -0.74848408 0.28357416 0
4.1020002 -0.75383598 0.28380144 0
4.0970001 -0.75954872 0.2839638 0
4.0940003 -0.76563293 0.28406119 0
4.0929999 -0.77209955 0.28409368 0
4.0929999 -0.77876103 0.28409368 0
4.0950003 -0.78582293 0.28402874 0
4.099 -0.7932961 0.28389886 0
4.1110001 -0.80241436 0.28350922 0
4.3860002 -0.86565769 0.27458036 0
4.382 -0.87201792 0.27471024 0
4.3790002 -0.87857294 0.27480766 0
4.3759999 -0.88511717 0.27490509 0
4.375 -0.89207625 0.27493754 0
4.375 -0.89924639 0.27493754 0
4.375 -0.90641654 0.27493754 0
4.3770003 -0.91402322 0.2748726 0
4.381 -0.92207724 0.27474272 0
4.3870001 -0.93058938 0.2745479 0
3.8810003 -0.91878891 0.290977 0
3.8660002 -0.92127991 0.29146403 0
3.8590002 -0.92575157 0.2916913 0
3.8540003 -0.93071026 0.29185364 0
3.8510003 -0.93616676 0.29195106 0
3.8490002 -0.94187218 0.292016 0
3.8480003 -0.94783199 0.29204845 0
3.8480003 -0.95405149 0.29204845 0
3.8510003 -0.96106654 0.29195106 0
3.8550003 -0.96835929 0.29182118 0
4.0450001 -1.1637298 0.28565216 0
4.0360003 -1.1675286 0.28594437 0
4.0300002 -1.1722257 0.28613919 0
4.026 -1.1775253 0.28626907 0
4.0230002 -1.1831243 0.28636646 0
4.0220003 -1.1893438 0.28639892 0
4.0210004 -1.1955597 0.28643137 0
4.0230002 -1.2027298 0.28636646 0
4.027 -1.2105494 0.28623658 0
4.2550001 -0.65097022 0.27188009 0
4.2470002 -0.656654 0.27215427 0
4.2410002 -0.66263002 0.27235991 0
4.237 -0.66890907 0.272497 0
4.2340002 -0.67533785 0.27259982 0
4.2320004 -0.68192178 0.27266833 0
4.23 -0.68849844 0.27273691 0
4.23 -0.69540703 0.27273691 0
4.2309999 -0.70248699 0.27270263 0
4.2330003 -0.70974374 0.27263409 0
4.2360001 -0.71718258 0.27253127 0
4.2410002 -0.72498584 0.27235991 0
4.2490001 -0.73334295 0.27208573 0
4.1090002 -0.74848408 0.27688384 0
4.1020002 -0.75383598 0.27712375 0
4.0970001 -0.75954872 0.27729511 0
4.0940003 -0.76563293 0.27739793 0
4.0929999 -0.77209955 0.2774322 0
4.0929999 -0.77876103 0.2774322 0
4.0950003 -0.78582293 0.27736366 0
4.099 -0.7932961 0.27722657 0
4.1110001 -0.80241436 0.2768153 0
4.3870001 -0.86586332 0.26735613 0
4.382 -0.87201792 0.26752749 0
4.3790002 -0.87857294 0.26763034 0
4.3759999 -0.88511717 0.26773313 0
4.375 -0.89207625 0.2677674 0
4.375 -0.89924639 0.2677674 0
4.375 -0.90641654 0.2677674 0
4.3770003 -0.91402322 0.26769885 0
4.381 -0.92207724 0.26756176 0
4.3870001 -0.93058938 0.26735613 0
3.8820002 -0.91903955 0.28466368 0
3.8660002 -0.92127991 0.28521204 0
3.8590002 -0.92575157 0.28545195 0
3.8540003 -0.93071026 0.28562328 0
3.8510003 -0.93616676 0.28572613 0
3.8490002 -0.94187218 0.28579465 0
3.8480003 -0.94783199 0.28582895 0
3.8490002 -0.95431483 0.28579465 0
3.8510003 -0.96106654 0.28572613 0
3.8550003 -0.96835929 0.28558901 0
4.046 -1.1640364 0.27904302 0
4.0360003 -1.1675286 0.27938575 0
4.0300002 -1.1722257 0.27959138 0
4.026 -1.1775253 0.27972844 0
4.0230002 -1.1831243 0.27983126 0
4.0220003 -1.1893438 0.27986553 0
4.0220003 -1.1958773 0.27986553 0
4.0230002 -1.2027298 0.27983126 0
4.027 -1.2105494 0.27969417 0
4.2550001 -0.65097022 0.26492637 0
4.2470002 -0.656654 0.26521501 0
4.2410002 -0.66263002 0.26543146 0
4.237 -0.66890907 0.26557577 0
4.2340002 -0.67533785 0.26568401 0
4.2320004 -0.68192178 0.26575613 0
4.23 -0.68849844 0.26582831 0
4.23 -0.69540703 0.26582831 0
4.2309999 -0.70248699 0.26579225 0
4.2330003 -0.70974374 0.26572007 0
4.2360001 -0.71718258 0.26561186 0
4.2410002 -0.72498584 0.26543146 0
4.2490001 -0.73334295 0.26514286 0
4.1090002 -0.74848408 0.27019352 0
4.1020002 -0.75383598 0.27044606 0
4.0970001 -0.75954872 0.27062643 0
4.0940003 -0.76563293 0.27073467 0
4.0929999 -0.77209955 0.27077073 0
4.0929999 -0.77876103 0.27077073 0
4.0950003 -0.78582293 0.27069861 0
4.099 -0.7932961 0.27055427 0
4.1100001 -0.80221057 0.27015746 0
4.3870001 -0.86586332 0.26016432 0
4.382 -0.87201792 0.26034474 0
4.3790002 -0.87857294 0.26045296 0
4.3759999 -0.88511717 0.26056117 0
4.375 -0.89207625 0.26059729 0
4.375 -0.89924639 0.26059729 0
4.375 -0.90641654 0.26059729 0
4.3770003 -0.91402322 0.26052511 0
4.381 -0.92207724 0.2603808 0
4.3870001 -0.93058938 0.26016432 0
3.8820002 -0.91903955 0.27838284 0
3.8660002 -0.92127991 0.27896005 0
3.8590002 -0.92575157 0.27921256 0
3.8540003 -0.93071026 0.27939296 0
3.8510003 -0.93616676 0.27950117 0
3.8490002 -0.94187218 0.27957332 0
3.8480003 -0.94783199 0.27960938 0
3.8490002 -0.95431483 0.27957332 0
3.8510003 -0.96106654 0.27950117 0
3.8550003 -0.96835929 0.27935687 0
4.046 -1.1640364 0.2724663 0
4.0360003 -1.1675286 0.27282709 0
4.0300002 -1.1722257 0.27304351 0
4.026 -1.1775253 0.27318785 0
4.0230002 -1.1831243 0.27329606 0
4.0220003 -1.1893438 0.27333215 0
4.0220003 -1.1958773 0.27333215 0
4.0230002 -1.2027298 0.27329606 0
4.027 -1.2105494 0.27315176 0
4.2550001 -0.65097022 0.25797272 0
4.2470002 -0.656654 0.25827575 0
4.2410002 -0.66263002 0.25850302 0
4.237 -0.66890907 0.25865456 0
4.2340002 -0.67533785 0.2587682 0
4.2320004 -0.68192178 0.25884396 0
4.2309999 -0.68866622 0.25888184 0
4.23 -0.69540703 0.25891972 0
4.2309999 -0.70248699 0.25888184 0
4.2330003 -0.70974374 0.25880608 0
4.2360001 -0.71718258 0.25869244 0
4.2410002 -0.72498584 0.25850302 0
4.2490001 -0.73334295 0.25819999 0
4.1090002 -0.74848408 0.26350319 0
4.1020002 -0.75383598 0.26376837 0
4.0970001 -0.75954872 0.26395774 0
4.0940003 -0.76563293 0.2640714 0
4.0929999 -0.77209955 0.26410928 0
4.0929999 -0.77876103 0.26410928 0
4.0950003 -0.78582293 0.2640335 0
4.099 -0.7932961 0.26388198 0
4.1100001 -0.80221057 0.26346532 0
4.3870001 -0.86586332 0.25297254 0
4.382 -0.87201792 0.25316197 0
4.3790002 -0.87857294 0.2532756 0
4.3770003 -0.88532823 0.25335136 0
4.375 -0.89207625 0.25342712 0
4.375 -0.89924639 0.25342712 0
4.375 -0.90641654 0.25342712 0
4.3770003 -0.91402322 0.25335136 0
4.381 -0.92207724 0.25319985 0
4.3870001 -0.93058938 0.25297254 0
3.8820002 -0.91903955 0.27210194 0
3.8660002 -0.92127991 0.27270803 0
3.8590002 -0.92575157 0.27297318 0
3.8540003 -0.93071026 0.2731626 0
3.8510003 -0.93616676 0.27327621 0
3.8490002 -0.94187218 0.273352 0
3.8480003 -0.94783199 0.27338988 0
3.8490002 -0.95431483 0.273352 0
3.8510003 -0.96106654 0.27327621 0
3.8550003 -0.96835929 0.27312469 0
4.046 -1.1640364 0.26588964 0
4.0360003 -1.1675286 0.26626843 0
4.0300002 -1.1722257 0.2664957 0
4.026 -1.1775253 0.26664722 0
4.0230002 -1.1831243 0.26676089 0
4.0220003 -1.1893438 0.26679873 0
4.0220003 -1.1958773 0.26679873 0
4.0230002 -1.2027298 0.26676089 0
4.027 -1.2105494 0.26660937 0
4.2550001 -0.65097022 0.25101903 0
4.2470002 -0.656654 0.25133651 0
4.2420001 -0.6627906 0.25153494 0
4.237 -0.66890907 0.25173336 0
4.2340002 -0.67533785 0.25185239 0
4.2320004 -0.68192178 0.25193176 0
4.2309999 -0.68866622 0.25197145 0
4.23 -0.69540703 0.25201112 0
4.2309999 -0.70248699 0.25197145 0
4.2330003 -0.70974374 0.25189209 0
4.2360001 -0.71718258 0.25177303 0
4.2410002 -0.72498584 0.25157464 0
4.2490001 -0.73334295 0.25125715 0
4.1090002 -0.74848408 0.25681287 0
4.1020002 -0.75383598 0.25709066 0
4.0970001 -0.75954872 0.25728905 0
4.0940003 -0.76563293 0.25740814 0
4.0929999 -0.77209955 0.25744781 0
4.0929999 -0.77876103 0.25744781 0
4.0950003 -0.78582293 0.25736845 0
4.099 -0.7932961 0.25720972 0
4.1100001 -0.80221057 0.25677317 0
4.3870001 -0.86586332 0.24578078 0
4.382 -0.87201792 0.2459792 0
4.3790002 -0.87857294 0.24609825 0
4.3770003 -0.88532823 0.24617761 0
4.375 -0.89207625 0.24625698 0
4.375 -0.89924639 0.24625698 0
4.3759999 -0.90663296 0.24621731 0
4.3770003 -0.91402322 0.24617761 0
4.381 -0.92207724 0.24601889 0
4.3870001 -0.93058938 0.24578078 0
3.8830004 -0.9192903 0.2657814 0
3.8660002 -0.92127991 0.26645604 0
3.8590002 -0.92575157 0.26673383 0
3.8540003 -0.93071026 0.26693225 0
3.8510003 -0.93616676 0.26705128 0
3.8490002 -0.94187218 0.26713064 0
3.8480003 -0.94783199 0.26717034 0
3.8490002 -0.95431483 0.26713064 0
3.8510003 -0.96106654 0.26705128 0
3.8550003 -0.96835929 0.26689255 0
4.046 -1.1640364 0.25931293 0
4.0360003 -1.1675286 0.25970978 0
4.0300002 -1.1722257 0.2599479 0
4.026 -1.1775253 0.26010662 0
4.0230002 -1.1831243 0.26022568 0
4.0220003 -1.1893438 0.26026535 0
4.0220003 -1.1958773 0.26026535 0
4.0230002 -1.2027298 0.26022568 0
4.027 -1.2105494 0.26006696 0
4.256 -0.65112716 0.24402387 0
4.2470002 -0.656654 0.24439727 0
4.2420001 -0.6627906 0.24460469 0
4.237 -0.66890907 0.24481215 0
4.2340002 -0.67533785 0.2449366 0
4.2320004 -0.68192178 0.24501957 0
4.2309999 -0.68866622 0.24506107 0
4.23 -0.69540703 0.24510255 0
4.2309999 -0.70248699 0.24506107 0
4.2330003 -0.70974374 0.24497809 0
4.2360001 -0.71718258 0.24485362 0
4.2410002 -0.72498584 0.24464619 0
4.2490001 -0.73334295 0.24431428 0
4.1090002 -0.74848408 0.25012255 0
4.1020002 -0.75383598 0.25041294 0
4.0970001 -0.75954872 0.25062039 0
4.0940003 -0.76563293 0.25074485 0
4.0929999 -0.77209955 0.25078636 0
4.0929999 -0.77876103 0.25078636 0
4.0950003 -0.78582293 0.25070339 0
4.099 -0.7932961 0.25053743 0
4.1100001 -0.80221057 0.25008106 0
4.3870001 -0.86586332 0.23858899 0
4.382 -0.87201792 0.23879643 0
4.3790002 -0.87857294 0.23892091 0
4.3770003 -0.88532823 0.23900387 0
4.375 -0.89207625 0.23908685 0
4.375 -0.89924639 0.23908685 0
4.3759999 -0.90663296 0.23904537 0
4.3780003 -0.91424143 0.23896238 0
4.381 -0.92207724 0.23883793 0
4.3870001 -0.93058938 0.23858899 0
3.8830004 -0.9192903 0.25949872 0
3.8660002 -0.92127991 0.26020402 0
3.8590002 -0.92575157 0.26049447 0
3.8540003 -0.93071026 0.26070186 0
3.8510003 -0.93616676 0.26082635 0
3.8490002 -0.94187218 0.26090932 0
3.8480003 -0.94783199 0.2609508 0
3.8490002 -0.95431483 0.26090932 0
3.8510003 -0.96106654 0.26082635 0
3.8550003 -0.96835929 0.26066041 0
4.046 -1.1640364 0.25273627 0
4.0360003 -1.1675286 0.25315112 0
4.0300002 -1.1722257 0.25340006 0
4.026 -1.1775253 0.25356603 0
4.0230002 -1.1831243 0.25369048 0
4.0220003 -1.1893438 0.25373197 0
4.0220003 -1.1958773 0.25373197 0
4.0230002 -1.2027298 0.25369048 0
4.027 -1.2105494 0.25352454 0
4.256 -0.65112716 0.23706838 0
4.2480001 -0.65681279 0.23741472 0
4.2420001 -0.6627906 0.23767446 0
4.237 -0.66890907 0.23789091 0
4.2340002 -0.67533785 0.23802079 0
4.2320004 -0.68192178 0.23810738 0
4.2309999 -0.68866622 0.23815067 0
4.23 -0.69540703 0.23819396 0
4.2309999 -0.70248699 0.23815067 0
4.2330003 -0.70974374 0.23806408 0
4.2360001 -0.71718258 0.23793422 0
4.2410002 -0.72498584 0.23771775 0
4.2490001 -0.73334295 0.23737141 0
4.1090002 -0.74848408 0.24343222 0
4.1020002 -0.75383598 0.24373525 0
4.0970001 -0.75954872 0.24395172 0
4.0950003 -0.76582772 0.2440383 0
4.0929999 -0.77209955 0.24412489 0
4.0929999 -0.77876103 0.24412489 0
4.0950003 -0.78582293 0.2440383 0
4.099 -0.7932961 0.24386515 0
4.1100001 -0.80221057 0.24338892 0
4.3870001 -0.86586332 0.23139721 0
4.382 -0.87201792 0.23161368 0
4.3790002 -0.87857294 0.23174354 0
4.3770003 -0.88532823 0.23183012 0
4.375 -0.89207625 0.23191671 0
4.375 -0.89924639 0.23191671 0
4.3759999 -0.90663296 0.23187342 0
4.3780003 -0.91424143 0.23178685 0
4.381 -0.92207724 0.23165695 0
4.3870001 -0.93058938 0.23139721 0
3.8840003 -0.91954106 0.25317279 0
3.8660002 -0.92127991 0.25395203 0
3.8590002 -0.92575157 0.25425506 0
3.8540003 -0.93071026 0.25447154 0
3.8510003 -0.93616676 0.25460142 0
3.8490002 -0.94187218 0.25468799 0
3.8480003 -0.94783199 0.25473127 0
3.8490002 -0.95431483 0.25468799 0
3.8510003 -0.96106654 0.25460142 0
3.8550003 -0.96835929 0.25442824 0
4.046 -1.1640364 0.24615958 0
4.0360003 -1.1675286 0.24659249 0
4.0300002 -1.1722257 0.24685225 0
4.026 -1.1775253 0.24702542 0
4.0230002 -1.1831243 0.24715528 0
4.0220003 -1.1893438 0.24719857 0
4.0220003 -1.1958773 0.24719857 0
4.0230002 -1.2027298 0.24715528 0
4.027 -1.2105494 0.24698211 0
4.256 -0.65112716 0.23011291 0
4.2480001 -0.65681279 0.23047367 0
4.2420001 -0.6627906 0.23074424 0
4.237 -0.66890907 0.23096971 0
4.2340002 -0.67533785 0.23110498 0
4.2320004 -0.68192178 0.23119518 0
4.2309999 -0.68866622 0.23124029 0
4.23 -0.69540703 0.23128536 0
4.2309999 -0.70248699 0.23124029 0
4.2330003 -0.70974374 0.23115009 0
4.2360001 -0.71718258 0.2310148 0
4.2410002 -0.72498584 0.23078933 0
4.2490001 -0.73334295 0.23042856 0
4.1090002 -0.74848408 0.23674189 0
4.1020002 -0.75383598 0.23705757 0
4.0970001 -0.75954872 0.23728304 0
4.0950003 -0.76582772 0.23737322 0
4.0929999 -0.77209955 0.23746341 0
4.0929999 -0.77876103 0.23746341 0
4.0950003 -0.78582293 0.23737322 0
4.099 -0.7932961 0.23719284 0
4.1090002 -0.80200666 0.23674189 0
4.3870001 -0.86586332 0.22420543 0
4.382 -0.87201792 0.2244309 0
4.3790002 -0.87857294 0.22456619 0
4.3770003 -0.88532823 0.22465639 0
4.375 -0.89207625 0.22474658 0
4.375 -0.89924639 0.22474658 0
4.3759999 -0.90663296 0.22470148 0
4.3780003 -0.91424143 0.22461128 0
4.381 -0.92207724 0.22447601 0
4.3870001 -0.93058938 0.22420543 0
3.8840003 -0.91954106 0.24688831 0
3.8660002 -0.92127991 0.24770004 0
3.8590002 -0.92575157 0.24801569 0
3.8540003 -0.93071026 0.24824117 0
3.8510003 -0.93616676 0.24837644 0
3.8490002 -0.94187218 0.24846664 0
3.8480003 -0.94783199 0.24851175 0
3.8490002 -0.95431483 0.24846664 0
3.8510003 -0.96106654 0.24837644 0
3.8550003 -0.96835929 0.24819607 0
4.046 -1.1640364 0.2395829 0
4.0360003 -1.1675286 0.24003385 0
4.0300002 -1.1722257 0.24030443 0
4.026 -1.1775253 0.2404848 0
4.0230002 -1.1831243 0.24062008 0
4.0220003 -1.1893438 0.24066518 0
4.0220003 -1.1958773 0.24066518 0
4.0230002 -1.2027298 0.24062008 0
4.027 -1.2105494 0.2404397 0
4.256 -0.65112716 0.22315742 0
4.2480001 -0.65681279 0.2235326 0
4.2420001 -0.6627906 0.223814 0
4.237 -0.66890907 0.22404851 0
4.2340002 -0.67533785 0.22418919 0
4.2320004 -0.68192178 0.22428299 0
4.2309999 -0.68866622 0.22432989 0
4.23 -0.69540703 0.2243768 0
4.2309999 -0.70248699 0.22432989 0
4.2330003 -0.70974374 0.22423609 0
4.2360001 -0.71718258 0.22409539 0
4.2410002 -0.72498584 0.2238609 0
4.2490001 -0.73334295 0.22348571 0
4.1100001 -0.7486735 0.23000467 0
4.1020002 -0.75383598 0.23037986 0
4.0970001 -0.75954872 0.23061435 0
4.0950003 -0.76582772 0.23070815 0
4.0929999 -0.77209955 0.23080195 0
4.0929999 -0.77876103 0.23080195 0
4.0950003 -0.78582293 0.23070815 0
4.099 -0.7932961 0.23052056 0
4.1090002 -0.80200666 0.23005156 0
4.3870001 -0.86586332 0.21701364 0
4.382 -0.87201792 0.21724814 0
4.3790002 -0.87857294 0.21738884 0
4.3770003 -0.88532823 0.21748263 0
4.375 -0.89207625 0.21757643 0
4.375 -0.89924639 0.21757643 0
4.3759999 -0.90663296 0.21752955 0
4.3780003 -0.91424143 0.21743575 0
4.381 -0.92207724 0.21729504 0
4.3870001 -0.93058938 0.21701364 0
3.8660002 -0.92127991 0.24144803 0
3.8590002 -0.92575157 0.24177632 0
3.8540003 -0.93071026 0.24201082 0
3.8510003 -0.93616676 0.24215151 0
3.8490002 -0.94187218 0.24224532 0
3.8480003 -0.94783199 0.24229221 0
3.8490002 -0.95431483 0.24224532 0
3.8510003 -0.96106654 0.24215151 0
3.8550003 -0.96835929 0.24196392 0
4.046 -1.1640364 0.23300621 0
4.0370002 -1.167837 0.2334283 0
4.0310001 -1.172536 0.23370969 0
4.026 -1.1775253 0.23394419 0
4.0240002 -1.1834381 0.234038 0
4.0220003 -1.1893438 0.23413178 0
4.0220003 -1.1958773 0.23413178 0
4.0230002 -1.2027298 0.23408489 0
4.027 -1.2105494 0.2338973 0
4.256 -0.65112716 0.21620193 0
4.2480001 -0.65681279 0.21659154 0
4.2420001 -0.6627906 0.21688376 0
4.237 -0.66890907 0.21712728 0
4.2340002 -0.67533785 0.2172734 0
4.2320004 -0.68192178 0.21737079 0
4.2309999 -0.68866622 0.21741951 0
4.23 -0.69540703 0.2174682 0
4.2309999 -0.70248699 0.21741951 0
4.2330003 -0.70974374 0.2173221 0
4.2360001 -0.71718258 0.21717599 0
4.2410002 -0.72498584 0.21693248 0
4.2490001 -0.73334295 0.21654285 0
4.1100001 -0.7486735 0.22331254 0
4.1020002 -0.75383598 0.22370218 0
4.098 -0.75974172 0.22389697 0
4.0950003 -0.76582772 0.22404309 0
4.0929999 -0.77209955 0.22414051 0
4.0929999 -0.77876103 0.22414051 0
4.0950003 -0.78582293 0.22404309 0
4.099 -0.7932961 0.22384828 0
4.1090002 -0.80200666 0.22336124 0
4.3870001 -0.86586332 0.20982185 0
4.382 -0.87201792 0.21006538 0
4.3790002 -0.87857294 0.2102115 0
4.3770003 -0.88532823 0.21030889 0
4.375 -0.89207625 0.2104063 0
4.375 -0.89924639 0.2104063 0
4.3759999 -0.90663296 0.21035759 0
4.3780003 -0.91424143 0.21026018 0
4.381 -0.92207724 0.21011408 0
4.3870001 -0.93058938 0.20982185 0
3.8660002 -0.92127991 0.23519604 0
3.8590002 -0.92575157 0.23553695 0
3.8540003 -0.93071026 0.23578046 0
3.8510003 -0.93616676 0.23592658 0
3.8490002 -0.94187218 0.23602399 0
3.8480003 -0.94783199 0.23607267 0
3.8490002 -0.95431483 0.23602399 0
3.8510003 -0.96106654 0.23592658 0
3.8550003 -0.96835929 0.23573177 0
4.046 -1.1640364 0.22642954 0
4.0370002 -1.167837 0.22686785 0
4.0310001 -1.172536 0.22716005 0
4.026 -1.1775253 0.22740358 0
4.0240002 -1.1834381 0.22750099 0
4.0220003 -1.1893438 0.22759838 0
4.0220003 -1.1958773 0.22759838 0
4.0230002 -1.2027298 0.22754969 0
4.027 -1.2105494 0.22735488 0
4.256 -0.65112716 0.20924646 0
4.2480001 -0.65681279 0.20965049 0
4.2420001 -0.6627906 0.20995355 0
4.237 -0.66890907 0.21020608 0
4.2340002 -0.67533785 0.21035759 0
4.2320004 -0.68192178 0.21045861 0
4.2309999 -0.68866622 0.21050911 0
4.23 -0.69540703 0.21055962 0
4.2309999 -0.70248699 0.21050911 0
4.2330003 -0.70974374 0.21040811 0
4.2360001 -0.71718258 0.21025658 0
4.2410002 -0.72498584 0.21000405 0
4.2490001 -0.73334295 0.2096 0
4.1100001 -0.7486735 0.21662042 0
4.1020002 -0.75383598 0.21702446 0
4.098 -0.75974172 0.21722649 0
4.0950003 -0.76582772 0.21737801 0
4.0929999 -0.77209955 0.21747904 0
4.0929999 -0.77876103 0.21747904 0
4.0950003 -0.78582293 0.21737801 0
4.099 -0.7932961 0.21717599 0
4.1090002 -0.80200666 0.21667092 0
4.3870001 -0.86586332 0.20263007 0
4.382 -0.87201792 0.20288262 0
4.3790002 -0.87857294 0.20303413 0
4.3770003 -0.88532823 0.20313515 0
4.375 -0.89207625 0.20323616 0
4.375 -0.89924639 0.20323616 0
4.3759999 -0.90663296 0.20318566 0
4.3780003 -0.91424143 0.20308465 0
4.381 -0.92207724 0.20293312 0
4.3870001 -0.93058938 0.20263007 0
3.8670003 -0.92153245 0.22889353 0
3.8590002 -0.92575157 0.22929758 0
3.8540003 -0.93071026 0.22955011 0
3.8510003 -0.93616676 0.22970162 0
3.8490002 -0.94187218 0.22980264 0
3.8480003 -0.94783199 0.22985315 0
3.8490002 -0.95431483 0.22980264 0
3.8510003 -0.96106654 0.22970162 0
3.8550003 -0.96835929 0.22949961 0
4.0469999 -1.164343 0.21980233 0
4.0370002 -1.167837 0.22030741 0
4.0310001 -1.172536 0.22061044 0
4.026 -1.1775253 0.22086297 0
4.0240002 -1.1834381 0.220964 0
4.0220003 -1.1893438 0.221065 0
4.0220003 -1.1958773 0.221065 0
4.0230002 -1.2027298 0.2210145 0
4.027 -1.2105494 0.22081247 0
4.256 -0.65112716 0.20229097 0
4.2480001 -0.65681279 0.20270944 0
4.2420001 -0.6627906 0.2030233 0
4.237 -0.66890907 0.20328486 0
4.2340002 -0.67533785 0.2034418 0
4.2320004 -0.68192178 0.2035464 0
4.2309999 -0.68866622 0.20359874 0
4.23 -0.69540703 0.20365103 0
4.2309999 -0.70248699 0.20359874 0
4.2330003 -0.70974374 0.2034941 0
4.2360001 -0.71718258 0.20333718 0
4.2410002 -0.72498584 0.20307563 0
4.2490001 -0.73334295 0.20265713 0
4.1100001 -0.7486735 0.20992827 0
4.1020002 -0.75383598 0.21034677 0
4.098 -0.75974172 0.21055602 0
4.0950003 -0.76582772 0.21071294 0
4.0929999 -0.77209955 0.21081758 0
4.0929999 -0.77876103 0.21081758 0
4.0950003 -0.78582293 0.21071294 0
4.099 -0.7932961 0.2105037 0
4.1090002 -0.80200666 0.20998059 0
4.3870001 -0.86586332 0.1954383 0
4.382 -0.87201792 0.19569986 0
4.3790002 -0.87857294 0.19585678 0
4.3770003 -0.88532823 0.1959614 0
4.375 -0.89207625 0.19606602 0
4.375 -0.89924639 0.19606602 0
4.3759999 -0.90663296 0.19601372 0
4.3780003 -0.91424143 0.19590908 0
4.381 -0.92207724 0.19575216 0
4.3870001 -0.93058938 0.1954383 0
3.8670003 -0.92153245 0.22263972 0
3.8590002 -0.92575157 0.22305821 0
3.8540003 -0.93071026 0.22331975 0
3.8510003 -0.93616676 0.22347668 0
3.8490002 -0.94187218 0.22358131 0
3.8480003 -0.94783199 0.22363362 0
3.8490002 -0.95431483 0.22358131 0
3.8510003 -0.96106654 0.22347668 0
3.8550003 -0.96835929 0.22326745 0
4.0469999 -1.164343 0.21322384 0
4.0370002 -1.167837 0.21374696 0
4.0310001 -1.172536 0.2140608 0
4.026 -1.1775253 0.21432236 0
4.0240002 -1.1834381 0.21442699 0
4.0220003 -1.1893438 0.2145316 0
4.0220003 -1.1958773 0.2145316 0
4.0230002 -1.2027298 0.2144793 0
4.027 -1.2105494 0.21427006 0
4.256 -0.65112716 0.19533548 0
4.2480001 -0.65681279 0.19576839 0
4.2420001 -0.6627906 0.19609307 0
4.237 -0.66890907 0.19636366 0
4.2340002 -0.67533785 0.19652599 0
4.2320004 -0.68192178 0.19663422 0
4.2309999 -0.68866622 0.19668834 0
4.23 -0.69540703 0.19674246 0
4.2309999 -0.70248699 0.19668834 0
4.2330003 -0.70974374 0.19658011 0
4.2360001 -0.71718258 0.19641775 0
4.2410002 -0.72498584 0.19614719 0
4.2490001 -0.73334295 0.19571427 0
4.1100001 -0.7486735 0.20323615 0
4.1020002 -0.75383598 0.20366907 0
4.098 -0.75974172 0.20388554 0
4.0950003 -0.76582772 0.20404787 0
4.0929999 -0.77209955 0.2041561 0
4.0929999 -0.77876103 0.2041561 0
4.0950003 -0.78582293 0.20404787 0
4.099 -0.7932961 0.20383142 0
4.1090002 -0.80200666 0.20329027 0
4.3870001 -0.86586332 0.1882465 0
4.382 -0.87201792 0.18851708 0
4.3790002 -0.87857294 0.18867943 0
4.3770003 -0.88532823 0.18878765 0
4.375 -0.89207625 0.18889588 0
4.375 -0.89924639 0.18889588 0
4.3759999 -0.90663296 0.18884178 0
4.3780003 -0.91424143 0.18873355 0
4.381 -0.92207724 0.1885712 0
4.3870001 -0.93058938 0.1882465 0
3.8670003 -0.92153245 0.21638592 0
3.8590002 -0.92575157 0.21681884 0
3.8540003 -0.93071026 0.2170894 0
3.8510003 -0.93616676 0.21725175 0
3.8490002 -0.94187218 0.21735999 0
3.8480003 -0.94783199 0.2174141 0
3.8490002 -0.95431483 0.21735999 0
3.8510003 -0.96106654 0.21725175 0
3.8550003 -0.96835929 0.21703529 0
4.0469999 -1.164343 0.20664535 0
4.0370002 -1.167837 0.20718651 0
4.0310001 -1.172536 0.20751117 0
4.027 -1.1778374 0.20772764 0
4.0240002 -1.1834381 0.20788999 0
4.0220003 -1.1893438 0.20799822 0
4.0220003 -1.1958773 0.20799822 0
4.0230002 -1.2027298 0.2079441 0
4.027 -1.2105494 0.20772764 0
4.256 -0.65112716 0.18838 0
4.2480001 -0.65681279 0.18882734 0
4.2420001 -0.6627906 0.18916285 0
4.2380004 -0.66907144 0.1893865 0
4.2340002 -0.67533785 0.1896102 0
4.2320004 -0.68192178 0.18972202 0
4.2309999 -0.68866622 0.18977796 0
4.23 -0.69540703 0.18983386 0
4.2309999 -0.70248699 0.18977796 0
4.2330003 -0.70974374 0.18966611 0
4.2360001 -0.71718258 0.18949835 0
4.2410002 -0.72498584 0.18921877 0
4.2490001 -0.73334295 0.18877141 0
4.1100001 -0.7486735 0.19654402 0
4.1020002 -0.75383598 0.19699138 0
4.098 -0.75974172 0.19721504 0
4.0950003 -0.76582772 0.19738279 0
4.0929999 -0.77209955 0.19749464 0
4.0929999 -0.77876103 0.19749464 0
4.0950003 -0.78582293 0.19738279 0
4.099 -0.7932961 0.19715913 0
4.1090002 -0.80200666 0.19659995 0
4.3870001 -0.86586332 0.18105473 0
4.3830004 -0.8722254 0.18127839 0
4.3790002 -0.87857294 0.18150209 0
4.3770003 -0.88532823 0.18161391 0
4.375 -0.89207625 0.18172574 0
4.375 -0.89924639 0.18172574 0
4.3759999 -0.90663296 0.18166983 0
4.3780003 -0.91424143 0.18155798 0
4.381 -0.92207724 0.18139024 0
4.3870001 -0.93058938 0.18105473 0
3.8670003 -0.92153245 0.21013212 0
3.8590002 -0.92575157 0.21057947 0
3.8540003 -0.93071026 0.21085905 0
3.8510003 -0.93616676 0.2110268 0
3.8490002 -0.94187218 0.21113864 0
3.8480003 -0.94783199 0.21119456 0
3.8490002 -0.95431483 0.21113864 0
3.8510003 -0.96106654 0.2110268 0
3.8550003 -0.96835929 0.21080314 0
4.0469999 -1.164343 0.20006688 0
4.0370002 -1.167837 0.20062606 0
4.0310001 -1.172536 0.20096155 0
4.027 -1.1778374 0.20118523 0
4.0240002 -1.1834381 0.20135298 0
4.0220003 -1.1893438 0.20146482 0
4.0220003 -1.1958773 0.20146482 0
4.0230002 -1.2027298 0.20140891 0
4.027 -1.2105494 0.20118523 0
4.256 -0.65112716 0.18142451 0
4.2480001 -0.65681279 0.18188627 0
4.2420001 -0.6627906 0.18223262 0
4.2380004 -0.66907144 0.1824635 0
4.2340002 -0.67533785 0.18269439 0
4.2320004 -0.68192178 0.18280983 0
4.2309999 -0.68866622 0.18286756 0
4.23 -0.69540703 0.18292528 0
4.2309999 -0.70248699 0.18286756 0
4.2330003 -0.70974374 0.18275212 0
4.2360001 -0.71718258 0.18257895 0
4.2410002 -0.72498584 0.18229035 0
4.2490001 -0.73334295 0.18182856 0
4.1100001 -0.7486735 0.18985189 0
4.1020002 -0.75383598 0.19031368 0
4.098 -0.75974172 0.19054456 0
4.0950003 -0.76582772 0.19071773 0
4.0929999 -0.77209955 0.19083318 0
4.0929999 -0.77876103 0.19083318 0
4.0950003 -0.78582293 0.19071773 0
4.099 -0.7932961 0.19048685 0
4.1090002 -0.80200666 0.18990962 0
4.3870001 -0.86586332 0.17386295 0
4.3830004 -0.8722254 0.17409383 0
4.3790002 -0.87857294 0.17432472 0
4.3770003 -0.88532823 0.17444016 0
4.3759999 -0.89228904 0.17449789 0
4.375 -0.89924639 0.17455561 0
4.3759999 -0.90663296 0.17449789 0
4.3780003 -0.91424143 0.17438245 0
4.381 -0.92207724 0.17420928 0
4.3870001 -0.93058938 0.17386295 0
4.2720003 -1.0028553 0.18050095 0
3.8670003 -0.92153245 0.20387831 0
3.8600004 -0.92600596 0.20428236 0
3.8550003 -0.93096638 0.20457098 0
3.8510003 -0.93616676 0.20480186 0
3.8490002 -0.94187218 0.20491731 0
3.8480003 -0.94783199 0.20497502 0
3.8490002 -0.95431483 0.20491731 0
3.8510003 -0.96106654 0.20480186 0
3.8550003 -0.96835929 0.20457098 0
4.0469999 -1.164343 0.19348839 0
4.0370002 -1.167837 0.1940656 0
4.0310001 -1.172536 0.19441192 0
4.027 -1.1778374 0.19464283 0
4.0240002 -1.1834381 0.19481599 0
4.0220003 -1.1893438 0.19493142 0
4.0220003 -1.1958773 0.19493142 0
4.0230002 -1.2027298 0.19487371 0
4.027 -1.2105494 0.19464283 0
4.04 -1.2212893 0.19389243 0
4.256 -0.65112716 0.17446902 0
4.2480001 -0.65681279 0.17494522 0
4.2420001 -0.6627906 0.17530237 0
4.2380004 -0.66907144 0.17554048 0
4.2340002 -0.67533785 0.1757786 0
4.2320004 -0.68192178 0.17589763 0
4.2309999 -0.68866622 0.17595717 0
4.23 -0.69540703 0.17601669 0
4.2309999 -0.70248699 0.17595717 0
4.2330003 -0.70974374 0.17583811 0
4.2360001 -0.71718258 0.17565954 0
4.2410002 -0.72498584 0.17536192 0
4.2490001 -0.73334295 0.17488571 0
4.1100001 -0.7486735 0.18315977 0
4.1030002 -0.75402719 0.18357645 0
4.098 -0.75974172 0.18387409 0
4.0950003 -0.76582772 0.18405266 0
4.0929999 -0.77209955 0.18417171 0
4.0929999 -0.77876103 0.18417171 0
4.0950003 -0.78582293 0.18405266 0
4.099 -0.7932961 0.18381456 0
4.1090002 -0.80200666 0.1832193 0
4.3870001 -0.86586332 0.16667114 0
4.3830004 -0.8722254 0.16690926 0
4.3790002 -0.87857294 0.16714737 0
4.3770003 -0.88532823 0.16726641 0
4.3759999 -0.89228904 0.16732594 0
4.375 -0.89924639 0.16738547 0
4.3759999 -0.90663296 0.16732594 0
4.3780003 -0.91424143 0.1672069 0
4.381 -0.92207724 0.16702832 0
4.3870001 -0.93058938 0.16667114 0
4.2720003 -1.0028553 0.1735166 0
3.8670003 -0.92153245 0.1976245 0
3.8600004 -0.92600596 0.19804119 0
3.8550003 -0.93096638 0.19833882 0
3.8510003 -0.93616676 0.19857691 0
3.8490002 -0.94187218 0.19869597 0
3.8480003 -0.94783199 0.1987555 0
3.8490002 -0.95431483 0.19869597 0
3.8510003 -0.96106654 0.19857691 0
3.8550003 -0.96835929 0.19833882 0
4.0469999 -1.164343 0.18690988 0
4.0370002 -1.167837 0.18750516 0
4.0310001 -1.172536 0.18786231 0
4.027 -1.1778374 0.18810041 0
4.0240002 -1.1834381 0.18827899 0
4.0220003 -1.1893438 0.18839803 0
4.0220003 -1.1958773 0.18839803 0
4.0230002 -1.2027298 0.1883385 0
4.027 -1.2105494 0.18810041 0
4.04 -1.2212893 0.18732658 0
4.257 -0.6512841 0.16745222 0
4.2480001 -0.65681279 0.16800416 0
4.2420001 -0.6627906 0.16837215 0
4.2380004 -0.66907144 0.16861747 0
4.2350001 -0.675502 0.16880144 0
4.2320004 -0.68192178 0.16898544 0
4.2309999 -0.68866622 0.16904679 0
4.23 -0.69540703 0.16910811 0
4.2309999 -0.70248699 0.16904679 0
4.2330003 -0.70974374 0.16892412 0
4.2360001 -0.71718258 0.16874012 0
4.2410002 -0.72498584 0.16843347 0
4.2490001 -0.73334295 0.16794284 0
4.1100001 -0.7486735 0.17646764 0
4.1030002 -0.75402719 0.17689696 0
4.098 -0.75974172 0.1772036 0
4.0950003 -0.76582772 0.1773876 0
4.0929999 -0.77209955 0.17751025 0
4.0929999 -0.77876103 0.17751025 0
4.0950003 -0.78582293 0.1773876 0
4.099 -0.7932961 0.17714226 0
4.1090002 -0.80200666 0.17652898 0
4.3870001 -0.86586332 0.15947936 0
4.3830004 -0.8722254 0.15972468 0
4.3790002 -0.87857294 0.15997 0
4.3770003 -0.88532823 0.16009268 0
4.3759999 -0.89228904 0.160154 0
4.375 -0.89924639 0.16021533 0
4.3759999 -0.90663296 0.160154 0
4.3780003 -0.91424143 0.16003136 0
4.381 -0.92207724 0.15984736 0
4.3870001 -0.93058938 0.15947936 0
4.2780004 -0.99734288 0.16616429 0
4.2720003 -1.0028553 0.16653226 0
4.2690001 -1.0090928 0.16671626 0
3.8670003 -0.92153245 0.19137071 0
3.8600004 -0.92600596 0.19180001 0
3.8550003 -0.93096638 0.19210665 0
3.8510003 -0.93616676 0.19235198 0
3.8490002 -0.94187218 0.19247463 0
3.8480003 -0.94783199 0.19253597 0
3.8490002 -0.95431483 0.19247463 0
3.8510003 -0.96106654 0.19235198 0
3.8550003 -0.96835929 0.19210665 0
4.0469999 -1.164343 0.18033141 0
4.0370002 -1.167837 0.1809447 0
4.0310001 -1.172536 0.18131267 0
4.027 -1.1778374 0.181558 0
4.0240002 -1.1834381 0.18174198 0
4.0220003 -1.1893438 0.18186463 0
4.0220003 -1.1958773 0.18186463 0
4.0230002 -1.2027298 0.1818033 0
4.027 -1.2105494 0.181558 0
4.039 -1.2209665 0.18082204 0
4.257 -0.6512841 0.16049491 0
4.2480001 -0.65681279 0.16106312 0
4.2420001 -0.6627906 0.16144194 0
4.2380004 -0.66907144 0.16169444 0
4.2350001 -0.675502 0.16188386 0
4.2320004 -0.68192178 0.16207324 0
4.2309999 -0.68866622 0.16213639 0
4.2309999 -0.69557661 0.16213639 0
4.2309999 -0.70248699 0.16213639 0
4.2330003 -0.70974374 0.16201013 0
4.2360001 -0.71718258 0.16182071 0
4.2410002 -0.72498584 0.16150507 0
4.2490001 -0.73334295 0.16099998 0
4.1100001 -0.7486735 0.16977552 0
4.1030002 -0.75402719 0.17021747 0
4.098 -0.75974172 0.17053311 0
4.0950003 -0.76582772 0.1707225 0
4.0929999 -0.77209955 0.17084879 0
4.0929999 -0.77876103 0.17084879 0
4.0950003 -0.78582293 0.1707225 0
4.099 -0.7932961 0.17046997 0
4.1090002 -0.80200666 0.16983865 0
4.388 -0.86606896 0.15222448 0
4.3830004 -0.8722254 0.15254012 0
4.3790002 -0.87857294 0.15279266 0
4.3770003 -0.88532823 0.15291893 0
4.3759999 -0.89228904 0.15298206 0
4.375 -0.89924639 0.15304521 0
4.3759999 -0.90663296 0.15298206 0
4.3780003 -0.91424143 0.15285578 0
4.381 -0.92207724 0.15266639 0
4.3870001 -0.93058938 0.15228757 0
4.2780004 -0.99734288 0.15916911 0
4.2720003 -1.0028553 0.15954792 0
4.2690001 -1.0090928 0.15973732 0
3.8670003 -0.92153245 0.1851169 0
3.8600004 -0.92600596 0.18555884 0
3.8550003 -0.93096638 0.18587451 0
3.8510003 -0.93616676 0.18612704 0
3.8490002 -0.94187218 0.18625331 0
3.8480003 -0.94783199 0.18631643 0
3.8490002 -0.95431483 0.18625331 0
3.8510003 -0.96106654 0.18612704 0
3.8550003 -0.96835929 0.18587451 0
4.0469999 -1.164343 0.17375292 0
4.0370002 -1.167837 0.17438425 0
4.0310001 -1.172536 0.17476304 0
4.027 -1.1778374 0.17501558 0
4.0240002 -1.1834381 0.17520498 0
4.0220003 -1.1893438 0.17533125 0
4.0220003 -1.1958773 0.17533125 0
4.0230002 -1.2027298 0.17526811 0
4.027 -1.2105494 0.17501558 0
4.039 -1.2209665 0.17425798 0
4.257 -0.6512841 0.15353763 0
4.2480001 -0.65681279 0.15412205 0
4.2420001 -0.6627906 0.15451168 0
4.2380004 -0.66907144 0.15477142 0
4.2350001 -0.675502 0.15496624 0
4.2320004 -0.68192178 0.15516105 0
4.2309999 -0.68866622 0.15522601 0
4.2309999 -0.69557661 0.15522601 0
4.2309999 -0.70248699 0.15522601 0
4.2330003 -0.70974374 0.15509613 0
4.2360001 -0.71718258 0.15490131 0
4.2410002 -0.72498584 0.15457664 0
4.2490001 -0.73334295 0.15405713 0
4.1110001 -0.74886292 0.16301845 0
4.1030002 -0.75402719 0.16353796 0
4.098 -0.75974172 0.16386263 0
4.0950003 -0.76582772 0.16405745 0
4.0940003 -0.77229619 0.16412237 0
4.0929999 -0.77876103 0.16418733 0
4.0950003 -0.78582293 0.16405745 0
4.099 -0.7932961 0.16379771 0
4.1090002 -0.80200666 0.16314833 0
4.388 -0.86606896 0.14503086 0
4.3830004 -0.8722254 0.14535555 0
4.3800001 -0.87878221 0.14555037 0
4.3770003 -0.88532823 0.14574516 0
4.3759999 -0.89228904 0.14581013 0
4.375 -0.89924639 0.14587507 0
4.3759999 -0.90663296 0.14581013 0
4.3780003 -0.91424143 0.14568025 0
4.381 -0.92207724 0.14548543 0
4.3870001 -0.93058938 0.1450958 0
4.2780004 -0.99734288 0.15217397 0
4.2720003 -1.0028553 0.15256357 0
4.2690001 -1.0090928 0.15275839 0
3.8670003 -0.92153245 0.17886309 0
3.8600004 -0.92600596 0.17931765 0
3.8550003 -0.93096638 0.17964235 0
3.8510003 -0.93616676 0.17990209 0
3.8490002 -0.94187218 0.18003197 0
3.8480003 -0.94783199 0.18009691 0
3.8490002 -0.95431483 0.18003197 0
3.8510003 -0.96106654 0.17990209 0
3.8550003 -0.96835929 0.17964235 0
4.0469999 -1.164343 0.16717443 0
4.0370002 -1.167837 0.16782379 0
4.0310001 -1.172536 0.16821343 0
4.027 -1.1778374 0.16847317 0
4.0240002 -1.1834381 0.16866799 0
4.0220003 -1.1893438 0.16879784 0
4.0220003 -1.1958773 0.16879784 0
4.0230002 -1.2027298 0.16873291 0
4.027 -1.2105494 0.16847317 0
4.039 -1.2209665 0.16769391 0
4.257 -0.6512841 0.14658037 0
4.2490001 -0.65697145 0.14711428 0
4.2420001 -0.6627906 0.14758146 0
4.2380004 -0.66907144 0.14784843 0
4.2350001 -0.675502 0.14804864 0
4.2320004 -0.68192178 0.14824885 0
4.2309999 -0.68866622 0.14831561 0
4.2309999 -0.69557661 0.14831561 0
4.2309999 -0.70248699 0.14831561 0
4.2330003 -0.70974374 0.14818212 0
4.2360001 -0.71718258 0.14798191 0
4.2410002 -0.72498584 0.14764822 0
4.2490001 -0.73334295 0.14711428 0
4.1110001 -0.74886292 0.15632452 0
4.1030002 -0.75402719 0.15685846 0
4.098 -0.75974172 0.15719216 0
4.0950003 -0.76582772 0.15739237 0
4.0940003 -0.77229619 0.15745911 0
4.0929999 -0.77876103 0.15752585 0
4.0950003 -0.78582293 0.15739237 0
4.099 -0.7932961 0.15712541 0
4.1090002 -0.80200666 0.15645801 0
4.388 -0.86606896 0.13783729 0
4.3830004 -0.8722254 0.13817096 0
4.3800001 -0.87878221 0.1383712 0
4.3770003 -0.88532823 0.13857144 0
4.3759999 -0.89228904 0.1386382 0
4.375 -0.89924639 0.1387049 0
4.3759999 -0.90663296 0.1386382 0
4.3780003 -0.91424143 0.13850471 0
4.381 -0.92207724 0.13830447 0
4.3870001 -0.93058938 0.13790402 0
4.2780004 -0.99734288 0.14517879 0
4.2730002 -1.0031024 0.14551249 0
4.2690001 -1.0090928 0.14577946 0
3.8670003 -0.92153245 0.1726093 0
3.8600004 -0.92600596 0.17307648 0
3.8550003 -0.93096638 0.17341019 0
3.8510003 -0.93616676 0.17367715 0
3.8490002 -0.94187218 0.17381063 0
3.8480003 -0.94783199 0.17387737 0
3.8490002 -0.95431483 0.17381063 0
3.8510003 -0.96106654 0.17367715 0
3.8550003 -0.96835929 0.17341019 0
4.0469999 -1.164343 0.16059595 0
4.0370002 -1.167837 0.16126336 0
4.0310001 -1.172536 0.16166377 0
4.027 -1.1778374 0.16193075 0
4.0240002 -1.1834381 0.162131 0
4.0220003 -1.1893438 0.16226445 0
4.0220003 -1.1958773 0.16226445 0
4.0230002 -1.2027298 0.16219771 0
4.027 -1.2105494 0.16193075 0
4.0380001 -1.2206435 0.1611966 0
4.257 -0.6512841 0.13962305 0
4.2490001 -0.65697145 0.14017141 0
4.243 -0.66295111 0.14058268 0
4.2380004 -0.66907144 0.14092541 0
4.2350001 -0.675502 0.14113104 0
4.2330003 -0.68208772 0.14126813 0
4.2309999 -0.68866622 0.14140522 0
4.2309999 -0.69557661 0.14140522 0
4.2309999 -0.70248699 0.14140522 0
4.2330003 -0.70974374 0.14126813 0
4.2360001 -0.71718258 0.1410625 0
4.2410002 -0.72498584 0.14071977 0
4.2490001 -0.73334295 0.14017141 0
4.1110001 -0.74886292 0.14963058 0
4.1030002 -0.75402719 0.15017894 0
4.098 -0.75974172 0.15052167 0
4.0950003 -0.76582772 0.1507273 0
4.0940003 -0.77229619 0.15079585 0
4.0929999 -0.77876103 0.15086439 0
4.0950003 -0.78582293 0.1507273 0
4.099 -0.7932961 0.15045312 0
4.1090002 -0.80200666 0.1497677 0
4.388 -0.86606896 0.1306437 0
4.3830004 -0.8722254 0.13098642 0
4.3800001 -0.87878221 0.13119206 0
4.3770003 -0.88532823 0.13139769 0
4.3759999 -0.89228904 0.13146624 0
4.375 -0.89924639 0.13153479 0
4.3759999 -0.90663296 0.13146624 0
4.3780003 -0.91424143 0.13132915 0
4.381 -0.92207724 0.13112351 0
4.3870001 -0.93058938 0.13071224 0
4.2780004 -0.99734288 0.13818359 0
4.2730002 -1.0031024 0.13852632 0
4.2690001 -1.0090928 0.13880053 0
3.8670003 -0.92153245 0.16635551 0
3.8600004 -0.92600596 0.16683529 0
3.8550003 -0.93096638 0.16717802 0
3.8510003 -0.93616676 0.16745222 0
3.8490002 -0.94187218 0.16758929 0
3.8480003 -0.94783199 0.16765785 0
3.8490002 -0.95431483 0.16758929 0
3.8510003 -0.96106654 0.16745222 0
3.8550003 -0.96835929 0.16717802 0
4.0480003 -1.1646497 0.1539489 0
4.0370002 -1.167837 0.15470289 0
4.0310001 -1.172536 0.15511416 0
4.027 -1.1778374 0.15538834 0
4.0240002 -1.1834381 0.15559398 0
4.0220003 -1.1893438 0.15573107 0
4.0220003 -1.1958773 0.15573107 0
4.0230002 -1.2027298 0.15566251 0
4.027 -1.2105494 0.15538834 0
4.0380001 -1.2206435 0.15463436 0
4.257 -0.6512841 0.13266578 0
4.2490001 -0.65697145 0.13322857 0
4.243 -0.66295111 0.13365063 0
4.2380004 -0.66907144 0.13400239 0
4.2350001 -0.675502 0.13421342 0
4.2330003 -0.68208772 0.13435414 0
4.2309999 -0.68866622 0.13449484 0
4.2309999 -0.69557661 0.13449484 0
4.2309999 -0.70248699 0.13449484 0
4.2330003 -0.70974374 0.13435414 0
4.2360001 -0.71718258 0.13414308 0
4.2410002 -0.72498584 0.13379136 0
4.2490001 -0.73334295 0.13322857 0
4.1110001 -0.74886292 0.14293665 0
4.1030002 -0.75402719 0.14349943 0
4.098 -0.75974172 0.14385119 0
4.0950003 -0.76582772 0.14406222 0
4.0940003 -0.77229619 0.14413258 0
4.0940003 -0.77895945 0.14413258 0
4.0950003 -0.78582293 0.14406222 0
4.099 -0.7932961 0.14378086 0
4.1090002 -0.80200666 0.14307737 0
4.388 -0.86606896 0.1234501 0
4.3830004 -0.8722254 0.12380186 0
4.3800001 -0.87878221 0.12401289 0
4.3770003 -0.88532823 0.12422395 0
4.3759999 -0.89228904 0.12429431 0
4.375 -0.89924639 0.12436464 0
4.3759999 -0.90663296 0.12429431 0
4.3780003 -0.91424143 0.12415358 0
4.381 -0.92207724 0.12394255 0
4.3870001 -0.93058938 0.12352046 0
4.2780004 -0.99734288 0.13118845 0
4.2730002 -1.0031024 0.13154018 0
4.2690001 -1.0090928 0.13182157 0
3.8670003 -0.92153245 0.16010168 0
3.8600004 -0.92600596 0.16059411 0
3.8550003 -0.93096638 0.16094586 0
3.8520002 -0.93642467 0.16115692 0
3.8490002 -0.94187218 0.16136797 0
3.8480003 -0.94783199 0.16143833 0
3.8490002 -0.95431483 0.16136797 0
3.8510003 -0.96106654 0.16122727 0
3.8550003 -0.96835929 0.16094586 0
4.0480003 -1.1646497 0.14736861 0
4.0370002 -1.167837 0.14814246 0
4.0310001 -1.172536 0.14856452 0
4.027 -1.1778374 0.14884594 0
4.0240002 -1.1834381 0.149057 0
4.0220003 -1.1893438 0.14919767 0
4.0220003 -1.1958773 0.14919767 0
4.0230002 -1.2027298 0.1491273 0
4.027 -1.2105494 0.14884594 0
4.0380001 -1.2206435 0.14807209 0
4.27 -0.64634347 0.12477052 0
4.257 -0.6512841 0.12570849 0
4.2490001 -0.65697145 0.1262857 0
4.243 -0.66295111 0.12671861 0
4.2380004 -0.66907144 0.12707934 0
4.2350001 -0.675502 0.12729582 0
4.2330003 -0.68208772 0.12744012 0
4.2309999 -0.68866622 0.12758446 0
4.2309999 -0.69557661 0.12758446 0
4.2309999 -0.70248699 0.12758446 0
4.2330003 -0.70974374 0.12744012 0
4.2360001 -0.71718258 0.1272237 0
4.2410002 -0.72498584 0.12686294 0
4.2490001 -0.73334295 0.1262857 0
4.1110001 -0.74886292 0.13624272 0
4.1030002 -0.75402719 0.13681996 0
4.098 -0.75974172 0.13718069 0
4.0950003 -0.76582772 0.13739717 0
4.0940003 -0.77229619 0.13746929 0
4.0940003 -0.77895945 0.13746929 0
4.0950003 -0.78582293 0.13739717 0
4.099 -0.7932961 0.13710853 0
4.1080003 -0.80180287 0.13645917 0
4.388 -0.86606896 0.11625654 0
4.3830004 -0.8722254 0.11661729 0
4.3800001 -0.87878221 0.11683375 0
4.3770003 -0.88532823 0.11705017 0
4.3759999 -0.89228904 0.11712235 0
4.375 -0.89924639 0.11719453 0
4.3759999 -0.90663296 0.11712235 0
4.3780003 -0.91424143 0.11697805 0
4.381 -0.92207724 0.1167616 0
4.3870001 -0.93058938 0.11632866 0
4.3970003 -0.94001788 0.11560717 0
4.2780004 -0.99734288 0.12419328 0
4.2730002 -1.0031024 0.12455404 0
4.2690001 -1.0090928 0.12484264 0
3.8680003 -0.921785 0.15377575 0
3.8600004 -0.92600596 0.15435295 0
3.8550003 -0.93096638 0.15471371 0
3.8520002 -0.93642467 0.15493019 0
3.8490002 -0.94187218 0.15514663 0
3.8490002 -0.94809347 0.15514663 0
3.8490002 -0.95431483 0.15514663 0
3.8510003 -0.96106654 0.15500233 0
3.8550003 -0.96835929 0.15471371 0
4.0480003 -1.1646497 0.14078832 0
4.0370002 -1.167837 0.14158198 0
4.0310001 -1.172536 0.14201492 0
4.027 -1.1778374 0.14230353 0
4.0240002 -1.1834381 0.14251998 0
4.0220003 -1.1893438 0.14266428 0
4.0220003 -1.1958773 0.14266428 0
4.0230002 -1.2027298 0.1425921 0
4.027 -1.2105494 0.14230353 0
4.0380001 -1.2206435 0.14150983 0
4.27 -0.64634347 0.11778978 0
4.257 -0.6512841 0.1187512 0
4.2490001 -0.65697145 0.11934283 0
4.243 -0.66295111 0.11978659 0
4.2380004 -0.66907144 0.12015635 0
4.2350001 -0.675502 0.12037823 0
4.2330003 -0.68208772 0.12052613 0
4.2309999 -0.68866622 0.12067407 0
4.2309999 -0.69557661 0.12067407 0
4.2309999 -0.70248699 0.12067407 0
4.2330003 -0.70974374 0.12052613 0
4.2360001 -0.71718258 0.12030429 0
4.2410002 -0.72498584 0.1199345 0
4.2480001 -0.73316437 0.1194168 0
4.1110001 -0.74886292 0.12954879 0
4.1030002 -0.75402719 0.13014045 0
4.098 -0.75974172 0.13051021 0
4.0950003 -0.76582772 0.13073209 0
4.0940003 -0.77229619 0.13080603 0
4.0940003 -0.77895945 0.13080603 0
4.0950003 -0.78582293 0.13073209 0
4.099 -0.7932961 0.13043624 0
4.1080003 -0.80180287 0.12977064 0
4.388 -0.86606896 0.10906294 0
4.3830004 -0.8722254 0.10943273 0
4.3800001 -0.87878221 0.10965458 0
4.3770003 -0.88532823 0.10987645 0
4.3759999 -0.89228904 0.10995042 0
4.375 -0.89924639 0.11002436 0
4.3759999 -0.90663296 0.10995042 0
4.3780003 -0.91424143 0.10980251 0
4.381 -0.92207724 0.10958064 0
4.3870001 -0.93058938 0.10913688 0
4.3970003 -0.94001788 0.10839733 0
4.2780004 -0.99734288 0.11719811 0
4.2730002 -1.0031024 0.1175679 0
4.2690001 -1.0090928 0.11786371 0
3.8680003 -0.921785 0.14752012 0
3.8600004 -0.92600596 0.14811176 0
3.8550003 -0.93096638 0.14848155 0
3.8520002 -0.93642467 0.14870343 0
3.8490002 -0.94187218 0.14892527 0
3.8490002 -0.94809347 0.14892527 0
3.8490002 -0.95431483 0.14892527 0
3.8510003 -0.96106654 0.14877737 0
3.8550003 -0.96835929 0.14848155 0
4.0480003 -1.1646497 0.13420802 0
4.0380001 -1.1681455 0.1349476 0
4.0310001 -1.172536 0.13546526 0
4.027 -1.1778374 0.13576111 0
4.0240002 -1.1834381 0.13598299 0
4.0230002 -1.1896595 0.13605693 0
4.0220003 -1.1958773 0.13613087 0
4.0230002 -1.2027298 0.13605693 0
4.027 -1.2105494 0.13576111 0
4.0380001 -1.2206435 0.1349476 0
4.27 -0.64634347 0.11080903 0
4.257 -0.6512841 0.11179391 0
4.2490001 -0.65697145 0.1124 0
4.243 -0.66295111 0.11285454 0
4.2380004 -0.66907144 0.11323333 0
4.2350001 -0.675502 0.11346063 0
4.2330003 -0.68208772 0.11361215 0
4.2309999 -0.68866622 0.11376366 0
4.2309999 -0.69557661 0.11376366 0
4.2309999 -0.70248699 0.11376366 0
4.2330003 -0.70974374 0.11361215 0
4.2360001 -0.71718258 0.11338484 0
4.2400002 -0.72480911 0.11308184 0
4.2480001 -0.73316437 0.11247572 0
4.1110001 -0.74886292 0.12285483 0
4.1030002 -0.75402719 0.12346095 0
4.098 -0.75974172 0.12383974 0
4.0950003 -0.76582772 0.12406701 0
4.0940003 -0.77229619 0.12414277 0
4.0940003 -0.77895945 0.12414277 0
4.0950003 -0.78582293 0.12406701 0
4.099 -0.7932961 0.12376398 0
4.1080003 -0.80180287 0.12308213 0
4.388 -0.86606896 0.10186937 0
4.3830004 -0.8722254 0.10224813 0
4.3800001 -0.87878221 0.10247543 0
4.3770003 -0.88532823 0.10270271 0
4.3759999 -0.89228904 0.10277846 0
4.375 -0.89924639 0.10285422 0
4.3759999 -0.90663296 0.10277846 0
4.3780003 -0.91424143 0.10262695 0
4.381 -0.92207724 0.10239968 0
4.3870001 -0.93058938 0.1019451 0
4.3970003 -0.94001788 0.1011875 0
4.2780004 -0.99734288 0.11020294 0
4.2730002 -1.0031024 0.11058176 0
4.2690001 -1.0090928 0.11088479 0
3.8680003 -0.921785 0.14126453 0
3.8600004 -0.92600596 0.14187059 0
3.8550003 -0.93096638 0.14224941 0
3.8520002 -0.93642467 0.14247668 0
3.8500001 -0.94213194 0.14262819 0
3.8490002 -0.94809347 0.14270398 0
3.8490002 -0.95431483 0.14270398 0
3.8510003 -0.96106654 0.14255244 0
3.8550003 -0.96835929 0.14224941 0
4.0480003 -1.1646497 0.12762773 0
4.0380001 -1.1681455 0.12838534 0
4.0310001 -1.172536 0.12891564 0
4.027 -1.1778374 0.1292187 0
4.0240002 -1.1834381 0.12944597 0
4.0230002 -1.1896595 0.12952176 0
4.0220003 -1.1958773 0.12959749 0
4.0230002 -1.2027298 0.12952176 0
4.027 -1.2105494 0.1292187 0
4.0380001 -1.2206435 0.12838534 0
4.2710004 -0.64649862 0.10375071 0
4.257 -0.6512841 0.10483664 0
4.2490001 -0.65697145 0.10545713 0
4.243 -0.66295111 0.10592252 0
4.2380004 -0.66907144 0.10631031 0
4.2350001 -0.675502 0.106543 0
4.2330003 -0.68208772 0.10669816 0
4.2309999 -0.68866622 0.10685328 0
4.2309999 -0.69557661 0.10685328 0
4.2309999 -0.70248699 0.10685328 0
4.2330003 -0.70974374 0.10669816 0
4.2360001 -0.71718258 0.10646543 0
4.2400002 -0.72480911 0.10615519 0
4.2480001 -0.73316437 0.10553467 0
4.1110001 -0.74886292 0.1161609 0
4.1030002 -0.75402719 0.11678144 0
4.098 -0.75974172 0.11716926 0
4.0950003 -0.76582772 0.11740193 0
4.0940003 -0.77229619 0.1174795 0
4.0940003 -0.77895945 0.1174795 0
4.0950003 -0.78582293 0.11740193 0
4.099 -0.7932961 0.11709169 0
4.1080003 -0.80180287 0.11639363 0
4.3860002 -0.86565769 0.0948309 0
4.3780003 -0.87118816 0.095451415 0
4.3700004 -0.87668979 0.096071899 0
4.3630004 -0.88237357 0.096614838 0
4.3559999 -0.88803208 0.097157806 0
4.362 -0.89645588 0.096692413 0
4.368 -0.90490133 0.09622705 0
4.3740001 -0.9133684 0.095761657 0
4.3800001 -0.92185712 0.095296264 0
4.3860002 -0.93036753 0.0948309 0
4.3920002 -0.93889952 0.094365507 0
4.3980002 -0.9474532 0.093900144 0
4.2780004 -0.99734288 0.10320777 0
4.2730002 -1.0031024 0.10359561 0
4.2690001 -1.0090928 0.10390586 0
3.8680003 -0.921785 0.1350089 0
3.8600004 -0.92600596 0.13562942 0
3.8550003 -0.93096638 0.13601726 0
3.8520002 -0.93642467 0.13624993 0
3.8500001 -0.94213194 0.13640505 0
3.8490002 -0.94809347 0.13648263 0
3.8490002 -0.95431483 0.13648263 0
3.8510003 -0.96106654 0.13632751 0
3.8550003 -0.96835929 0.13601726 0
4.0480003 -1.1646497 0.12104744 0
4.0380001 -1.1681455 0.12182307 0
4.0320001 -1.1728462 0.12228847 0
4.027 -1.1778374 0.12267628 0
4.0240002 -1.1834381 0.12290898 0
4.0230002 -1.1896595 0.12298656 0
4.0220003 -1.1958773 0.1230641 0
4.0230002 -1.2027298 0.12298656 0
4.027 -1.2105494 0.12267628 0
4.0370002 -1.2203206 0.12190065 0
4.2810001 -0.6340487 0.095974505 0
4.2730002 -0.63982272 0.096609443 0
4.2710004 -0.64649862 0.0967682 0
4.257 -0.6512841 0.09787932 0
4.2490001 -0.65697145 0.098514289 0
4.243 -0.66295111 0.09899047 0
4.2380004 -0.66907144 0.099387318 0
4.2350001 -0.675502 0.099625409 0
4.2330003 -0.68208772 0.099784136 0
4.2309999 -0.68866622 0.099942893 0
4.2309999 -0.69557661 0.099942893 0
4.2309999 -0.70248699 0.099942893 0
4.2330003 -0.70974374 0.099784136 0
4.2360001 -0.71718258 0.099546045 0
4.2400002 -0.72480911 0.099228591 0
4.2480001 -0.73316437 0.098593622 0
4.263 -0.74281114 0.097403139 0
4.1110001 -0.74886292 0.10946697 0
4.1030002 -0.75402719 0.11010194 0
4.098 -0.75974172 0.11049879 0
4.0950003 -0.76582772 0.11073688 0
4.0940003 -0.77229619 0.11081624 0
4.0940003 -0.77895945 0.11081624 0
4.0950003 -0.78582293 0.11073688 0
4.099 -0.7932961 0.11041939 0
4.1080003 -0.80180287 0.10970509 0
4.3860002 -0.86565769 0.087640882 0
4.3780003 -0.87118816 0.08827585 0
4.3710003 -0.876899 0.088831425 0
4.3630004 -0.88237357 0.089466363 0
4.3559999 -0.88803208 0.090021938 0
