# .PCD v0.7 - Point Cloud Data file format
VERSION 0.7
FIELDS x y z intensity
SIZE 4 4 4 4
TYPE F F F F
COUNT 1 1 1 1
WIDTH 1403
HEIGHT 1
VIEWPOINT 0 0 0 1 0 0 0
POINTS 1403
DATA ascii
4.2750001 0.093795136 0.6556313 0
4.2820001 0.087045282 0.65608585 0
4.29 0.080302656 0.65660536 0
4.2980003 0.073531166 0.65712482 0
4.3060002 0.066730797 0.65764427 0
4.1150002 0.027712625 0.64524132 0
4.1090002 0.020903241 0.64485168 0
4.1040001 0.014131751 0.64452702 0
4.1010003 0.0074071549 0.64433223 0
4.1000004 0.00071863458 0.64426726 0
4.099 -0.0059662834 0.64420235 0
4.099 -0.012638565 0.64420235 0
4.1000004 -0.019303637 0.64426726 0
4.1020002 -0.025966905 0.64439714 0
4.105 -0.032633781 0.64459193 0
4.1090002 -0.039309677 0.64485168 0
4.1150002 -0.046 0.64524132 0
4.1230001 -0.052715577 0.64576083 0
4.131 -0.059460018 0.64628035 0
3.9950004 -0.11733159 0.63744891 0
3.9880002 -0.12366477 0.6369943 0
3.9810002 -0.12997268 0.63653976 0
3.9750004 -0.1362806 0.63615012 0
3.9690003 -0.14256687 0.63576055 0
3.9640002 -0.14886037 0.63543582 0
3.9590003 -0.15513581 0.63511115 0
3.9540002 -0.16139323 0.63478649 0
3.9500003 -0.16766687 0.63452673 0
3.9460003 -0.17392609 0.63426697 0
3.9420002 -0.18017086 0.63400722 0
3.9390004 -0.18644091 0.63381243 0
3.9360003 -0.19270012 0.63361758 0
3.9330003 -0.19894852 0.63342279 0
3.9310002 -0.20523117 0.63329291 0
3.9290004 -0.21150662 0.63316303 0
3.9270003 -0.21777485 0.63303316 0
4.1480002 -0.32318759 0.64738429 0
4.1440001 -0.32964522 0.64712453 0
4.1410003 -0.33616599 0.64692968 0
4.138 -0.34267592 0.64673489 0
4.1360002 -0.34925622 0.64660501 0
4.1340003 -0.35582933 0.64647514 0
4.132 -0.36239517 0.64634526 0
4.131 -0.36904043 0.64628035 0
4.2120004 0.18091185 0.64466411 0
4.2060003 0.17368941 0.64428532 0
4.2000003 0.1664886 0.64390647 0
4.198 0.1595259 0.64378023 0
4.2049999 0.15304121 0.64422214 0
4.2130003 0.14658178 0.64472723 0
4.2200003 0.14004478 0.6451692 0
4.2280002 0.13352941 0.64567423 0
4.2360001 0.12698521 0.64617932 0
4.243 0.12036884 0.64662123 0
4.2509999 0.1137687 0.64712632 0
4.2590003 0.10713971 0.64763135 0
4.2670002 0.10048185 0.64813644 0
4.2750001 0.093795136 0.64864153 0
4.2820001 0.087045282 0.64908344 0
4.29 0.080302656 0.64958853 0
4.2980003 0.073531166 0.65009356 0
4.3060002 0.066730797 0.65059865 0
4.1150002 0.027712625 0.63854015 0
4.1090002 0.020903241 0.63816136 0
4.1040001 0.014131751 0.63784575 0
4.1010003 0.0074071549 0.63765633 0
4.1000004 0.00071863458 0.63759321 0
4.099 -0.0059662834 0.63753009 0
4.099 -0.012638565 0.63753009 0
4.1000004 -0.019303637 0.63759321 0
4.1020002 -0.025966905 0.63771945 0
4.105 -0.032633781 0.63790882 0
4.1090002 -0.039309677 0.63816136 0
4.1150002 -0.046 0.63854015 0
4.1230001 -0.052715577 0.63904524 0
4.131 -0.059460018 0.63955033 0
3.9910002 -0.12372971 0.63071167 0
3.9830003 -0.13001959 0.63020658 0
3.9760003 -0.13630585 0.62976468 0
3.9700003 -0.14259394 0.62938583 0
3.9640002 -0.14886037 0.62900704 0
3.9580002 -0.15510514 0.62862825 0
3.9530003 -0.16136076 0.62831259 0
3.9480002 -0.16759832 0.62799692 0
3.9440002 -0.17385393 0.62774438 0
3.9400003 -0.18009511 0.62749183 0
3.9360003 -0.18632185 0.62723935 0
3.9320002 -0.19253416 0.6269868 0
3.9290004 -0.19877535 0.62679738 0
3.9260004 -0.20500571 0.62660801 0
3.9240003 -0.21127214 0.62648171 0
3.9220002 -0.21753134 0.62635547 0
3.9120002 -0.22337928 0.62572414 0
3.9050002 -0.22934809 0.62528217 0
3.9000003 -0.23539987 0.6249665 0
3.8970003 -0.24154544 0.62477714 0
3.8950002 -0.24773791 0.62465084 0
3.8940003 -0.25398269 0.62458771 0
3.8940003 -0.2602852 0.62458771 0
3.8950002 -0.26665083 0.62465084 0
4.1420002 -0.3294937 0.64024478 0
4.138 -0.33593333 0.63999224 0
4.1350002 -0.34243786 0.63980281 0
4.131 -0.34885037 0.63955033 0
4.1290002 -0.35541442 0.63942403 0
4.1270003 -0.36197129 0.63929778 0
4.125 -0.36852092 0.63917148 0
4.1240001 -0.37515172 0.63910842 0
4.2120004 0.18091185 0.637788 0
4.2060003 0.17368941 0.63742 0
4.2000003 0.1664886 0.63705206 0
4.198 0.1595259 0.63692939 0
4.2049999 0.15304121 0.63735867 0
4.2130003 0.14658178 0.63784933 0
4.2200003 0.14004478 0.6382786 0
4.2280002 0.13352941 0.63876927 0
4.2360001 0.12698521 0.63925993 0
4.243 0.12036884 0.63968921 0
4.2509999 0.1137687 0.64017987 0
4.2590003 0.10713971 0.64067048 0
4.2670002 0.10048185 0.64116108 0
4.2750001 0.093795136 0.64165175 0
4.2820001 0.087045282 0.64208102 0
4.29 0.080302656 0.64257169 0
4.2980003 0.073531166 0.64306235 0
4.3060002 0.066730797 0.64355296 0
4.1150002 0.027712625 0.63183904 0
4.1090002 0.020903241 0.63147104 0
4.1040001 0.014131751 0.63116443 0
4.1010003 0.0074071549 0.63098043 0
4.1000004 0.00071863458 0.6309191 0
4.099 -0.0059662834 0.63085777 0
4.099 -0.012638565 0.63085777 0
4.1000004 -0.019303637 0.6309191 0
4.1020002 -0.025966905 0.63104177 0
4.105 -0.032633781 0.63122571 0
4.1090002 -0.039309677 0.63147104 0
4.1150002 -0.046 0.63183904 0
4.1230001 -0.052715577 0.6323297 0
4.131 -0.059460018 0.63282031 0
4.138 -0.066227905 0.63324964 0
3.9790003 -0.13638161 0.6234982 0
3.9720004 -0.14264806 0.62306893 0
3.9650002 -0.14888921 0.6226396 0
3.9590003 -0.15513581 0.62227166 0
3.9530003 -0.16136076 0.62190366 0
3.9480002 -0.16759832 0.62159699 0
3.9430003 -0.17381784 0.62129033 0
3.9380002 -0.18001935 0.62098372 0
3.9340003 -0.18624248 0.62073839 0
3.9300003 -0.19245119 0.62049305 0
3.9260004 -0.19864547 0.62024778 0
3.9230003 -0.20487042 0.62006378 0
3.9200003 -0.21108453 0.61987978 0
3.9090002 -0.2168982 0.61920512 0
3.9020002 -0.22287421 0.61877584 0
3.8960001 -0.22887729 0.61840785 0
3.8930004 -0.23502107 0.61822391 0
3.8900003 -0.24115403 0.61803991 0
3.8880002 -0.24733387 0.61791724 0
3.8880002 -0.25362554 0.61791724 0
3.8880002 -0.25991723 0.61791724 0
3.8880002 -0.26620889 0.61791724 0
3.8900003 -0.27263045 0.61803991 0
3.8930004 -0.27912599 0.61822391 0
4.1360002 -0.33577821 0.63312697 0
4.132 -0.34219974 0.63288164 0
4.1280003 -0.34860688 0.63263631 0
4.125 -0.35508254 0.63245231 0
4.1220002 -0.36154738 0.63226831 0
4.1200004 -0.36808801 0.6321457 0
4.118 -0.37462139 0.63202304 0
4.2120004 0.18091185 0.63091189 0
4.2060003 0.17368941 0.63055474 0
4.2000003 0.1664886 0.63019758 0
4.198 0.1595259 0.63007849 0
4.2049999 0.15304121 0.63049519 0
4.2130003 0.14658178 0.63097143 0
4.2200003 0.14004478 0.63138807 0
4.2280002 0.13352941 0.63186431 0
4.2360001 0.12698521 0.63234049 0
4.243 0.12036884 0.63275719 0
4.2509999 0.1137687 0.63323337 0
4.2590003 0.10713971 0.63370955 0
4.2670002 0.10048185 0.63418579 0
4.2750001 0.093795136 0.63466197 0
4.2820001 0.087045282 0.63507867 0
4.29 0.080302656 0.63555491 0
4.2980003 0.073531166 0.63603109 0
4.3060002 0.066730797 0.63650727 0
4.1150002 0.027712625 0.62513787 0
4.1090002 0.020903241 0.62478071 0
4.1040001 0.014131751 0.62448311 0
4.1010003 0.0074071549 0.62430453 0
4.1000004 0.00071863458 0.62424499 0
4.099 -0.0059662834 0.62418544 0
4.099 -0.012638565 0.62418544 0
4.1000004 -0.019303637 0.62424499 0
4.1020002 -0.025966905 0.62436402 0
4.105 -0.032633781 0.62454259 0
4.1090002 -0.039309677 0.62478071 0
4.1150002 -0.046 0.62513787 0
4.1230001 -0.052715577 0.62561411 0
4.131 -0.059460018 0.62609029 0
4.1389999 -0.066233315 0.62656647 0
4.1460004 -0.073028266 0.62698317 0
3.9740002 -0.14270216 0.61674476 0
3.9670002 -0.14894694 0.61632812 0
3.9600003 -0.15516648 0.61591136 0
3.9540002 -0.16139323 0.61555421 0
3.9480002 -0.16759832 0.61519706 0
3.9420002 -0.17378178 0.61483991 0
3.9370003 -0.17998146 0.61454231 0
3.9320002 -0.18616311 0.6142447 0
3.9280002 -0.19236822 0.61400658 0
3.9240003 -0.19855888 0.61376846 0
3.9200003 -0.20473513 0.6135304 0
3.9100003 -0.21061555 0.61293513 0
3.9010003 -0.2165086 0.6123994 0
3.8950002 -0.22252066 0.61204225 0
3.8910003 -0.22861575 0.61180413 0
3.8870003 -0.23469639 0.61156607 0
3.8850002 -0.24087442 0.61144698 0
3.8830004 -0.24704526 0.61132795 0
3.8830004 -0.25332791 0.61132795 0
3.8830004 -0.25961059 0.61132795 0
3.8840003 -0.26595637 0.61138749 0
3.8850002 -0.27230579 0.61144698 0
3.8880002 -0.27879226 0.61162555 0
3.8910003 -0.28528959 0.61180413 0
4.1340003 -0.33562306 0.62626886 0
4.1300001 -0.34204102 0.6260308 0
4.1259999 -0.34844452 0.62579262 0
4.1220002 -0.3548336 0.62555456 0
4.119 -0.36129305 0.62537599 0
4.1150002 -0.3676551 0.62513787 0
4.1129999 -0.37417945 0.62501884 0
4.1080003 -0.38042605 0.62472117 0
4.092 -0.39230233 0.62376881 0
4.0880003 -0.39857957 0.62353069 0
4.085 -0.4049398 0.62335211 0
4.0830002 -0.4113884 0.62323308 0
4.0820003 -0.41793084 0.62317353 0
4.0830002 -0.42467526 0.62323308 0
4.2120004 0.18091185 0.62403578 0
4.2060003 0.17368941 0.62368941 0
4.2000003 0.1664886 0.62334311 0
4.198 0.1595259 0.62322766 0
4.2049999 0.15304121 0.62363172 0
4.2130003 0.14658178 0.62409347 0
4.2200003 0.14004478 0.62449753 0
4.2280002 0.13352941 0.62495929 0
4.2360001 0.12698521 0.62542105 0
4.243 0.12036884 0.62582517 0
4.2509999 0.1137687 0.62628692 0
4.2590003 0.10713971 0.62674868 0
4.2670002 0.10048185 0.62721044 0
4.2750001 0.093795136 0.62767226 0
4.2820001 0.087045282 0.62807631 0
4.29 0.080302656 0.62853807 0
4.2980003 0.073531166 0.62899983 0
4.3060002 0.066730797 0.62946165 0
4.1150002 0.027712625 0.61843675 0
4.1090002 0.020903241 0.61809039 0
4.1040001 0.014131751 0.61780179 0
4.1010003 0.0074071549 0.61762863 0
4.1000004 0.00071863458 0.61757094 0
4.099 -0.0059662834 0.61751318 0
4.099 -0.012638565 0.61751318 0
4.1000004 -0.019303637 0.61757094 0
4.1020002 -0.025966905 0.61768633 0
4.105 -0.032633781 0.61785948 0
4.1090002 -0.039309677 0.61809039 0
4.1150002 -0.046 0.61843675 0
4.1230001 -0.052715577 0.61889851 0
4.131 -0.059460018 0.61936027 0
4.1389999 -0.066233315 0.61982203 0
4.1460004 -0.073028266 0.62022614 0
4.1540003 -0.079857484 0.6206879 0
3.9710002 -0.14906238 0.61012477 0
3.9620004 -0.15522781 0.60960531 0
3.9550002 -0.16142568 0.60920125 0
3.9490004 -0.16763259 0.60885489 0
3.9430003 -0.17381784 0.60850859 0
3.9370003 -0.17998146 0.60816222 0
3.9320002 -0.18616311 0.60787362 0
3.9270003 -0.19232672 0.60758501 0
3.9220002 -0.19847229 0.60729641 0
3.9130003 -0.20441946 0.60677695 0
3.9030004 -0.21028724 0.60619974 0
3.8960001 -0.21626505 0.60579562 0
3.8900003 -0.22226815 0.60544932 0
3.8860002 -0.22835419 0.60521841 0
3.8830004 -0.23447993 0.60504526 0
3.8810003 -0.24065074 0.6049298 0
3.8800004 -0.2468721 0.60487211 0
3.8790002 -0.25308982 0.60481435 0
3.8790002 -0.25936526 0.60481435 0
3.8800004 -0.26570386 0.60487211 0
3.8810003 -0.27204603 0.6049298 0
3.8840003 -0.27852529 0.60510302 0
3.8870003 -0.28501543 0.60527617 0
3.8910003 -0.29158667 0.60550702 0
4.1280003 -0.34188229 0.61918712 0
4.1240001 -0.34828222 0.61895621 0
4.119 -0.35458469 0.6186676 0
4.1150002 -0.36095396 0.61843675 0
4.112 -0.36739534 0.6182636 0
4.1059999 -0.37356076 0.61791724 0
4.0960002 -0.37934375 0.61734003 0
4.0890002 -0.38536668 0.61693597 0
4.0840001 -0.39155194 0.61664736 0
4.0810003 -0.39791039 0.61647421 0
4.0780001 -0.40425798 0.61630106 0
4.0770001 -0.41079319 0.6162433 0
4.0760002 -0.41732475 0.61618555 0
4.0760002 -0.42395556 0.61618555 0
4.0780001 -0.43079558 0.61630106 0
4.0799999 -0.43764284 0.61641645 0
4.2120004 0.18091185 0.61715966 0
4.2060003 0.17368941 0.61682415 0
4.2000003 0.1664886 0.61648864 0
4.198 0.1595259 0.61637676 0
4.2049999 0.15304121 0.61676824 0
4.2130003 0.14658178 0.61721557 0
4.2200003 0.14004478 0.617607 0
4.2280002 0.13352941 0.61805433 0
4.2360001 0.12698521 0.61850166 0
4.243 0.12036884 0.61889309 0
4.2509999 0.1137687 0.61934042 0
4.2590003 0.10713971 0.61978781 0
4.2670002 0.10048185 0.62023515 0
4.2750001 0.093795136 0.62068248 0
4.2820001 0.087045282 0.6210739 0
4.29 0.080302656 0.62152123 0
4.2980003 0.073531166 0.62196863 0
4.3060002 0.066730797 0.62241596 0
4.1150002 0.027712625 0.61173558 0
4.1090002 0.020903241 0.61140007 0
4.1040001 0.014131751 0.61112046 0
4.1010003 0.0074071549 0.61095273 0
4.1000004 0.00071863458 0.61089683 0
4.099 -0.0059662834 0.61084092 0
4.099 -0.012638565 0.61084092 0
4.1000004 -0.019303637 0.61089683 0
4.1020002 -0.025966905 0.61100864 0
4.105 -0.032633781 0.61117637 0
4.1090002 -0.039309677 0.61140007 0
4.1150002 -0.046 0.61173558 0
4.1230001 -0.052715577 0.61218297 0
4.131 -0.059460018 0.61263025 0
4.1389999 -0.066233315 0.61307764 0
4.1460004 -0.073028266 0.61346906 0
4.1540003 -0.079857484 0.6139164 0
4.1620002 -0.086715557 0.61436373 0
3.9580002 -0.16152309 0.60295647 0
3.9510002 -0.16770114 0.60256505 0
3.9440002 -0.17385393 0.60217357 0
3.9380002 -0.18001935 0.60183811 0
3.9320002 -0.18616311 0.6015026 0
3.9260004 -0.19228525 0.60116708 0
3.9220002 -0.19847229 0.60094339 0
3.9070003 -0.20414889 0.60010463 0
3.8980002 -0.21005276 0.59960139 0
3.8920002 -0.21607026 0.59926587 0
3.8870003 -0.22211663 0.59898627 0
3.8830004 -0.22819728 0.59876263 0
3.8800004 -0.23431759 0.59859484 0
3.8780003 -0.240483 0.59848303 0
3.8770003 -0.24669893 0.59842712 0
3.8760002 -0.25291121 0.59837115 0
3.8760002 -0.25918126 0.59837115 0
3.8770003 -0.26551443 0.59842712 0
3.8780003 -0.27185121 0.59848303 0
3.8800004 -0.27825835 0.59859484 0
3.8840003 -0.2848098 0.59881854 0
3.8880002 -0.29137564 0.59904218 0
3.8930004 -0.29802811 0.59932178 0
4.1270003 -0.3418029 0.61240661 0
4.1220002 -0.34811985 0.61212701 0
4.118 -0.35450172 0.61190331 0
4.1129999 -0.36078438 0.61162376 0
4.1090002 -0.36713558 0.61140007 0
4.0970001 -0.3727653 0.6107291 0
4.0890002 -0.37871245 0.61028171 0
4.0830002 -0.38481471 0.60994619 0
4.079 -0.39108297 0.60972255 0
4.0760002 -0.39743236 0.60955477 0
4.073 -0.40377092 0.60938704 0
4.072 -0.4102971 0.60933113 0
4.0710001 -0.41681969 0.60927522 0
4.072 -0.42354429 0.60933113 0
4.072 -0.43016788 0.60933113 0
4.0750003 -0.43711072 0.60949886 0
4.0780001 -0.44406441 0.60966659 0
4.2120004 0.18091185 0.61028349 0
4.2060003 0.17368941 0.60995883 0
4.2000003 0.1664886 0.60963416 0
4.198 0.1595259 0.60952592 0
4.2049999 0.15304121 0.60990471 0
4.2130003 0.14658178 0.61033762 0
4.2200003 0.14004478 0.61071646 0
4.2280002 0.13352941 0.61114937 0
4.2360001 0.12698521 0.61158228 0
4.243 0.12036884 0.61196107 0
4.2509999 0.1137687 0.61239398 0
4.2590003 0.10713971 0.61282688 0
4.2670002 0.10048185 0.61325979 0
4.2750001 0.093795136 0.61369276 0
4.2820001 0.087045282 0.61407149 0
4.29 0.080302656 0.61450446 0
4.2980003 0.073531166 0.61493737 0
4.3060002 0.066730797 0.61537027 0
4.1150002 0.027712625 0.60503447 0
4.1090002 0.020903241 0.60470974 0
4.1040001 0.014131751 0.6044392 0
4.1010003 0.0074071549 0.60427684 0
4.1000004 0.00071863458 0.60422271 0
4.099 -0.0059662834 0.60416859 0
4.099 -0.012638565 0.60416859 0
4.1000004 -0.019303637 0.60422271 0
4.1020002 -0.025966905 0.60433096 0
4.105 -0.032633781 0.60449326 0
4.1090002 -0.039309677 0.60470974 0
4.1150002 -0.046 0.60503447 0
4.1230001 -0.052715577 0.60546738 0
4.131 -0.059460018 0.60590029 0
4.1389999 -0.066233315 0.6063332 0
4.1460004 -0.073028266 0.60671198 0
4.1540003 -0.079857484 0.60714489 0
4.1620002 -0.086715557 0.6075778 0
4.171 -0.09361513 0.60806483 0
3.9540002 -0.16780396 0.59632206 0
3.9460003 -0.17392609 0.59588915 0
3.9390004 -0.18005724 0.59551036 0
3.9330003 -0.18620281 0.59518564 0
3.9270003 -0.19232672 0.59486097 0
3.9150002 -0.19816926 0.59421158 0
3.9030004 -0.20396851 0.59356225 0
3.8950002 -0.20991206 0.59312928 0
3.8890002 -0.21592414 0.59280461 0
3.8850002 -0.2220156 0.59258819 0
3.8810003 -0.22809264 0.5923717 0
3.8780003 -0.23420936 0.59220934 0
3.8760002 -0.24037117 0.5921011 0
3.8750002 -0.24658348 0.59204704 0
3.8740003 -0.25279218 0.59199291 0
3.8740003 -0.25905859 0.59199291 0
3.8750002 -0.26538819 0.59204704 0
3.8760002 -0.27172133 0.5921011 0
3.8780003 -0.27812487 0.59220934 0
3.8810003 -0.28460413 0.5923717 0
3.8850002 -0.29116461 0.59258819 0
3.8900003 -0.29781163 0.59285873 0
4.1220002 -0.34811985 0.60541326 0
4.1170001 -0.35441875 0.60514271 0
4.112 -0.36069959 0.60487211 0
4.1010003 -0.36644292 0.60427684 0
4.0910001 -0.37223497 0.60373569 0
4.0840001 -0.37826148 0.6033569 0
4.079 -0.38444674 0.60308635 0
4.0750003 -0.39070776 0.60286987 0
4.072 -0.39704996 0.60270751 0
4.0700002 -0.40347871 0.60259932 0
4.0680003 -0.40990028 0.60249108 0
4.0680003 -0.41651666 0.60249108 0
4.0680003 -0.42313305 0.60249108 0
4.0690002 -0.42985398 0.6025452 0
4.0710001 -0.43668506 0.60265338 0
4.073 -0.44352326 0.60276163 0
4.0770001 -0.45058879 0.60297811 0
4.2120004 0.18091185 0.60340738 0
4.2060003 0.17368941 0.60309356 0
4.2000003 0.1664886 0.60277969 0
4.198 0.1595259 0.60267508 0
4.2049999 0.15304121 0.60304123 0
4.2130003 0.14658178 0.60345972 0
4.2200003 0.14004478 0.60382593 0
4.2280002 0.13352941 0.60424435 0
4.2360001 0.12698521 0.60466284 0
4.243 0.12036884 0.60502905 0
4.2509999 0.1137687 0.60544753 0
4.2590003 0.10713971 0.60586601 0
4.2670002 0.10048185 0.6062845 0
4.2750001 0.093795136 0.60670298 0
4.2820001 0.087045282 0.60706913 0
4.29 0.080302656 0.60748762 0
4.2980003 0.073531166 0.6079061 0
4.3060002 0.066730797 0.60832459 0
4.1150002 0.027712625 0.5983333 0
4.1090002 0.020903241 0.59801942 0
4.1040001 0.014131751 0.59775788 0
4.1010003 0.0074071549 0.59760094 0
4.1000004 0.00071863458 0.59754866 0
4.099 -0.0059662834 0.59749633 0
4.099 -0.012638565 0.59749633 0
4.1000004 -0.019303637 0.59754866 0
4.1020002 -0.025966905 0.59765327 0
4.105 -0.032633781 0.59781021 0
4.1090002 -0.039309677 0.59801942 0
4.1150002 -0.046 0.5983333 0
4.1230001 -0.052715577 0.59875178 0
4.131 -0.059460018 0.59917027 0
4.1389999 -0.066233315 0.59958875 0
4.1460004 -0.073028266 0.59995496 0
4.1540003 -0.079857484 0.60037339 0
4.1620002 -0.086715557 0.60079187 0
4.171 -0.09361513 0.60126269 0
4.1790004 -0.10053273 0.60168117 0
4.1870003 -0.10747919 0.60209966 0
3.9350002 -0.18628217 0.58891737 0
3.9280002 -0.19236822 0.58855122 0
3.9110003 -0.19799611 0.58766198 0
3.9010003 -0.20387831 0.58713889 0
3.8930004 -0.20981827 0.58672035 0
3.8880002 -0.21587545 0.5864588 0
3.8830004 -0.2219146 0.58619726 0
3.8800004 -0.22804034 0.58604038 0
3.8770003 -0.23415524 0.58588338 0
3.8750002 -0.24031524 0.58577877 0
3.8740003 -0.24652576 0.5857265 0
3.8730001 -0.25273263 0.58567417 0
3.8730001 -0.25899726 0.58567417 0
3.8740003 -0.26532504 0.5857265 0
3.8750002 -0.27165639 0.58577877 0
3.8770003 -0.27805811 0.58588338 0
3.8800004 -0.28453559 0.58604038 0
3.8830004 -0.29102388 0.58619726 0
3.8880002 -0.29766732 0.5864588 0
3.8950002 -0.30447668 0.58682501 0
4.1170001 -0.35441875 0.59843791 0
4.1090002 -0.36044526 0.59801942 0
4.0960002 -0.36601001 0.59733939 0
4.0870004 -0.37188143 0.59686863 0
4.0810003 -0.37799093 0.59655476 0
4.0760002 -0.38417077 0.59629321 0
4.072 -0.39042637 0.59608394 0
4.0690002 -0.39676312 0.595927 0
4.0669999 -0.4031865 0.59582239 0
4.066 -0.40970185 0.59577006 0
4.0650001 -0.4162136 0.59571779 0
4.0650001 -0.42282456 0.59571779 0
4.066 -0.42954013 0.59577006 0
4.0680003 -0.43636575 0.59587473 0
4.0710001 -0.4433068 0.59603167 0
4.0740004 -0.4502587 0.59618855 0
4.079 -0.45744506 0.59645009 0
4.2120004 0.18091185 0.59653127 0
4.2060003 0.17368941 0.59622824 0
4.2000003 0.1664886 0.59592521 0
4.198 0.1595259 0.59582418 0
4.2049999 0.15304121 0.59617776 0
4.2130003 0.14658178 0.59658182 0
4.2200003 0.14004478 0.59693533 0
4.2280002 0.13352941 0.59733939 0
4.2360001 0.12698521 0.59774345 0
4.243 0.12036884 0.59809697 0
4.2509999 0.1137687 0.59850103 0
4.2590003 0.10713971 0.59890509 0
4.2670002 0.10048185 0.59930915 0
4.2750001 0.093795136 0.59971321 0
4.2820001 0.087045282 0.60006678 0
4.29 0.080302656 0.60047078 0
4.2980003 0.073531166 0.60087484 0
4.3060002 0.066730797 0.6012789 0
4.1150002 0.027712625 0.59163213 0
4.1090002 0.020903241 0.5913291 0
4.1040001 0.014131751 0.59107655 0
4.1010003 0.0074071549 0.59092504 0
4.1000004 0.00071863458 0.59087455 0
4.099 -0.0059662834 0.59082401 0
4.099 -0.012638565 0.59082401 0
4.1000004 -0.019303637 0.59087455 0
4.1020002 -0.025966905 0.59097558 0
4.105 -0.032633781 0.5911271 0
4.1090002 -0.039309677 0.5913291 0
4.1150002 -0.046 0.59163213 0
4.1230001 -0.052715577 0.59203625 0
4.131 -0.059460018 0.59244025 0
4.1389999 -0.066233315 0.59284431 0
4.1460004 -0.073028266 0.59319782 0
4.1540003 -0.079857484 0.59360194 0
4.1630001 -0.086726382 0.59405649 0
4.171 -0.09361513 0.59446049 0
4.1790004 -0.10053273 0.59486461 0
4.1870003 -0.10747919 0.59526861 0
4.1950002 -0.11445452 0.59567267 0
3.9100003 -0.19795281 0.58127832 0
3.9000003 -0.20383324 0.58077323 0
3.8920002 -0.20977135 0.58036917 0
3.8870003 -0.21582675 0.58011663 0
3.8820002 -0.22186409 0.57986408 0
3.8790002 -0.22798802 0.57971257 0
3.8760002 -0.23410112 0.57956105 0
3.8740003 -0.24025933 0.57946002 0
3.8730001 -0.24646802 0.57940954 0
3.8720002 -0.25267312 0.57935905 0
3.8720002 -0.25893596 0.57935905 0
3.8730001 -0.26526189 0.57940954 0
3.8740003 -0.27159148 0.57946002 0
3.8760002 -0.27799135 0.57956105 0
3.8790002 -0.28446704 0.57971257 0
3.8820002 -0.29095355 0.57986408 0
3.8870003 -0.29759517 0.58011663 0
3.8930004 -0.3043288 0.58041966 0
4.1040001 -0.36002138 0.59107655 0
4.0929999 -0.36575025 0.59052098 0
4.085 -0.37170464 0.59011698 0
4.079 -0.37781054 0.58981389 0
4.0740004 -0.38398677 0.5895614 0
4.0700002 -0.39023873 0.58935934 0
4.0680003 -0.39666754 0.58925831 0
4.0650001 -0.40299168 0.5891068 0
4.0640001 -0.40950346 0.58905631 0
4.0640001 -0.4161126 0.58905631 0
4.0640001 -0.42272177 0.58905631 0
4.0640001 -0.42933089 0.58905631 0
4.066 -0.43615291 0.58915734 0
4.0680003 -0.44298214 0.58925831 0
4.072 -0.45003861 0.58946037 0
4.0770001 -0.45722139 0.58971292 0
4.2120004 0.18091185 0.58965516 0
4.2060003 0.17368941 0.58936298 0
4.2000003 0.1664886 0.58907074 0
4.198 0.1595259 0.58897334 0
4.2049999 0.15304121 0.58931422 0
4.2130003 0.14658178 0.58970386 0
4.2200003 0.14004478 0.5900448 0
4.2280002 0.13352941 0.59043443 0
4.2360001 0.12698521 0.59082401 0
4.243 0.12036884 0.59116495 0
4.2509999 0.1137687 0.59155458 0
4.2590003 0.10713971 0.59194422 0
4.2670002 0.10048185 0.59233379 0
4.2750001 0.093795136 0.59272349 0
4.2820001 0.087045282 0.59306437 0
4.29 0.080302656 0.593454 0
4.2980003 0.073531166 0.59384364 0
4.3060002 0.066730797 0.59423327 0
4.1150002 0.027712625 0.58493102 0
4.1090002 0.020903241 0.58463877 0
4.1040001 0.014131751 0.58439529 0
4.1010003 0.0074071549 0.58424914 0
4.1000004 0.00071863458 0.5842005 0
4.099 -0.0059662834 0.58415174 0
4.099 -0.012638565 0.58415174 0
4.1000004 -0.019303637 0.5842005 0
4.1020002 -0.025966905 0.58429784 0
4.105 -0.032633781 0.58444399 0
4.1090002 -0.039309677 0.58463877 0
4.1150002 -0.046 0.58493102 0
4.1230001 -0.052715577 0.58532065 0
4.131 -0.059460018 0.58571023 0
4.1389999 -0.066233315 0.58609986 0
4.1460004 -0.073028266 0.5864408 0
4.1540003 -0.079857484 0.58683038 0
4.1630001 -0.086726382 0.58726871 0
4.171 -0.09361513 0.58765835 0
4.1790004 -0.10053273 0.58804798 0
4.1870003 -0.10747919 0.58843762 0
4.1950002 -0.11445452 0.58882725 0
4.2030001 -0.12145871 0.58921683 0
3.8990002 -0.20378812 0.57441115 0
3.8920002 -0.20977135 0.57407027 0
3.8870003 -0.21582675 0.57382679 0
3.8820002 -0.22186409 0.57358325 0
3.8790002 -0.22798802 0.57343709 0
3.8760002 -0.23410112 0.573291 0
3.8740003 -0.24025933 0.57319361 0
3.8730001 -0.24646802 0.57314491 0
3.8720002 -0.25267312 0.57309622 0
3.8720002 -0.25893596 0.57309622 0
3.8730001 -0.26526189 0.57314491 0
3.8740003 -0.27159148 0.57319361 0
3.8760002 -0.27799135 0.573291 0
3.8790002 -0.28446704 0.57343709 0
3.8820002 -0.29095355 0.57358325 0
3.8870003 -0.29759517 0.57382679 0
3.8940003 -0.30440277 0.57416767 0
4.0910001 -0.3655771 0.58376217 0
4.0830002 -0.37152788 0.58337247 0
4.0770001 -0.37763017 0.58308029 0
4.073 -0.38389474 0.5828855 0
4.0690002 -0.39014497 0.58269066 0
4.066 -0.39647633 0.58254457 0
4.0650001 -0.40299168 0.58249587 0
4.0630002 -0.40940422 0.58239841 0
4.0630002 -0.41601157 0.58239841 0
4.0630002 -0.42261893 0.58239841 0
4.0630002 -0.42922628 0.58239841 0
4.0650001 -0.43604648 0.58249587 0
4.0669999 -0.44287387 0.58259326 0
4.0710001 -0.44992858 0.58278811 0
4.0750003 -0.45699769 0.5829829 0
4.2120004 0.18091185 0.58277905 0
4.2060003 0.17368941 0.58249766 0
4.2000003 0.1664886 0.58221626 0
4.198 0.1595259 0.58212245 0
4.2049999 0.15304121 0.58245075 0
4.2130003 0.14658178 0.58282596 0
4.2200003 0.14004478 0.58315426 0
4.2280002 0.13352941 0.58352941 0
4.2360001 0.12698521 0.58390462 0
4.243 0.12036884 0.58423293 0
4.2509999 0.1137687 0.58460808 0
4.2590003 0.10713971 0.58498335 0
4.2670002 0.10048185 0.5853585 0
4.2750001 0.093795136 0.58573371 0
4.283 0.087079555 0.58610886 0
4.29 0.080302656 0.58643717 0
4.2980003 0.073531166 0.58681238 0
4.3060002 0.066730797 0.58718753 0
4.1150002 0.027712625 0.57822984 0
4.1090002 0.020903241 0.57794845 0
4.1040001 0.014131751 0.57771397 0
4.1010003 0.0074071549 0.5775733 0
4.1000004 0.00071863458 0.57752633 0
4.099 -0.0059662834 0.57747948 0
4.099 -0.012638565 0.57747948 0
4.1000004 -0.019303637 0.57752633 0
4.1020002 -0.025966905 0.57762015 0
4.105 -0.032633781 0.57776088 0
4.1090002 -0.039309677 0.57794845 0
4.1150002 -0.046 0.57822984 0
4.1230001 -0.052715577 0.57860506 0
4.131 -0.059460018 0.57898021 0
4.1389999 -0.066233315 0.57935542 0
4.1460004 -0.073028266 0.57968372 0
4.1540003 -0.079857484 0.58005893 0
4.1630001 -0.086726382 0.58048099 0
4.171 -0.09361513 0.5808562 0
4.1790004 -0.10053273 0.58123136 0
4.1870003 -0.10747919 0.58160657 0
4.1950002 -0.11445452 0.58198178 0
4.2030001 -0.12145871 0.58235693 0
4.211 -0.12849176 0.58273214 0
3.9000003 -0.20383324 0.56814659 0
3.8930004 -0.20981827 0.56781828 0
3.8870003 -0.21582675 0.56753689 0
3.8830004 -0.2219146 0.56734931 0
3.8790002 -0.22798802 0.56716168 0
3.8770003 -0.23415524 0.56706786 0
3.8750002 -0.24031524 0.5669741 0
3.8740003 -0.24652576 0.56692719 0
3.8730001 -0.25273263 0.56688029 0
3.8730001 -0.25899726 0.56688029 0
3.8740003 -0.26532504 0.56692719 0
3.8750002 -0.27165639 0.5669741 0
3.8770003 -0.27805811 0.56706786 0
3.8790002 -0.28446704 0.56716168 0
3.8830004 -0.29102388 0.56734931 0
3.8880002 -0.29766732 0.5675838 0
3.8940003 -0.30440277 0.56786513 0
4.0900002 -0.3654905 0.57705736 0
4.0830002 -0.37152788 0.57672906 0
4.0770001 -0.37763017 0.57644773 0
4.072 -0.38380277 0.57621318 0
4.0690002 -0.39014497 0.57607251 0
4.066 -0.39647633 0.57593179 0
4.0640001 -0.40289429 0.57583803 0
4.0630002 -0.40940422 0.57579112 0
4.0620003 -0.41591057 0.57574421 0
4.0620003 -0.42251611 0.57574421 0
4.0630002 -0.42922628 0.57579112 0
4.0650001 -0.43604648 0.57588494 0
4.0669999 -0.44287387 0.5759787 0
4.0700002 -0.44981855 0.57611936 0
4.0750003 -0.45699769 0.57635391 0
4.0810003 -0.46430856 0.5766353 0
4.2120004 0.18091185 0.57590294 0
4.2060003 0.17368941 0.57563239 0
4.2000003 0.1664886 0.57536179 0
4.198 0.1595259 0.57527161 0
4.2049999 0.15304121 0.57558727 0
4.2130003 0.14658178 0.575948 0
4.2200003 0.14004478 0.57626373 0
4.2280002 0.13352941 0.57662445 0
4.2360001 0.12698521 0.57698524 0
4.243 0.12036884 0.57730091 0
4.2509999 0.1137687 0.57766163 0
4.2590003 0.10713971 0.57802242 0
4.2670002 0.10048185 0.57838321 0
4.2750001 0.093795136 0.57874393 0
4.283 0.087079555 0.57910466 0
4.29 0.080302656 0.57942033 0
4.2980003 0.073531166 0.57978112 0
4.3060002 0.066730797 0.5801419 0
4.1150002 0.027712625 0.57152867 0
4.1090002 0.020903241 0.57125813 0
4.1040001 0.014131751 0.57103264 0
4.1010003 0.0074071549 0.5708974 0
4.1000004 0.00071863458 0.57085228 0
4.099 -0.0059662834 0.57080722 0
4.099 -0.012638565 0.57080722 0
4.1000004 -0.019303637 0.57085228 0
4.1020002 -0.025966905 0.57094246 0
4.105 -0.032633781 0.57107776 0
4.1090002 -0.039309677 0.57125813 0
4.1150002 -0.046 0.57152867 0
4.1230001 -0.052715577 0.57188946 0
4.131 -0.059460018 0.57225025 0
4.1389999 -0.066233315 0.57261097 0
4.1460004 -0.073028266 0.57292664 0
4.1540003 -0.079857484 0.57328743 0
4.1630001 -0.086726382 0.57369328 0
4.171 -0.09361513 0.574054 0
4.1790004 -0.10053273 0.57441479 0
4.1870003 -0.10747919 0.57477558 0
4.1950002 -0.11445452 0.5751363 0
4.2030001 -0.12145871 0.57549709 0
4.211 -0.12849176 0.57585782 0
3.9020002 -0.20392342 0.56192344 0
3.8940003 -0.20986515 0.56156266 0
3.8890002 -0.21592414 0.56133717 0
3.8840003 -0.2219651 0.56111169 0
3.8810003 -0.22809264 0.56097639 0
3.8780003 -0.23420936 0.56084114 0
3.8760002 -0.24037117 0.56075096 0
3.8750002 -0.24658348 0.56070584 0
3.8740003 -0.25279218 0.56066078 0
3.8740003 -0.25905859 0.56066078 0
3.8750002 -0.26538819 0.56070584 0
3.8760002 -0.27172133 0.56075096 0
3.8780003 -0.27812487 0.56084114 0
3.8810003 -0.28460413 0.56097639 0
3.8850002 -0.29116461 0.56115681 0
3.8900003 -0.29781163 0.56138229 0
3.8960001 -0.30455065 0.56165284 0
4.0900002 -0.3654905 0.57040131 0
4.0830002 -0.37152788 0.57008564 0
4.0770001 -0.37763017 0.5698151 0
4.073 -0.38389474 0.56963468 0
4.0690002 -0.39014497 0.56945431 0
4.0669999 -0.3965719 0.56936413 0
4.0650001 -0.40299168 0.56927395 0
4.0630002 -0.40940422 0.56918377 0
4.0630002 -0.41601157 0.56918377 0
4.0630002 -0.42261893 0.56918377 0
4.0630002 -0.42922628 0.56918377 0
4.0650001 -0.43604648 0.56927395 0
4.0669999 -0.44287387 0.56936413 0
4.0710001 -0.44992858 0.56954455 0
4.0750003 -0.45699769 0.56972492 0
4.0810003 -0.46430856 0.56999546 0
4.2120004 0.18091185 0.56902683 0
4.2060003 0.17368941 0.56876707 0
4.2000003 0.1664886 0.56850731 0
4.198 0.1595259 0.56842077 0
4.2049999 0.15304121 0.5687238 0
4.2130003 0.14658178 0.5690701 0
4.2200003 0.14004478 0.56937313 0
4.2280002 0.13352941 0.56971949 0
4.2360001 0.12698521 0.5700658 0
4.243 0.12036884 0.57036889 0
4.2509999 0.1137687 0.57071519 0
4.2590003 0.10713971 0.57106149 0
4.2670002 0.10048185 0.57140785 0
4.2750001 0.093795136 0.57175422 0
4.283 0.087079555 0.57210052 0
4.29 0.080302656 0.57240355 0
4.2980003 0.073531166 0.57274985 0
4.3060002 0.066730797 0.57309622 0
4.1150002 0.027712625 0.56482756 0
4.1090002 0.020903241 0.5645678 0
4.1040001 0.014131751 0.56435132 0
4.1010003 0.0074071549 0.5642215 0
4.1000004 0.00071863458 0.56417817 0
4.099 -0.0059662834 0.5641349 0
4.099 -0.012638565 0.5641349 0
4.1000004 -0.019303637 0.56417817 0
4.1020002 -0.025966905 0.56426477 0
4.105 -0.032633781 0.56439465 0
4.1090002 -0.039309677 0.5645678 0
4.1150002 -0.046 0.56482756 0
4.1230001 -0.052715577 0.56517386 0
4.131 -0.059460018 0.56552023 0
4.1389999 -0.066233315 0.56586653 0
4.1460004 -0.073028266 0.56616962 0
4.1540003 -0.079857484 0.56651592 0
4.1630001 -0.086726382 0.56690556 0
4.171 -0.09361513 0.56725186 0
3.8970003 -0.21000585 0.55539006 0
3.8910003 -0.21602155 0.5551303 0
3.8860002 -0.22206612 0.55491382 0
3.8830004 -0.22819728 0.55478394 0
3.8800004 -0.23431759 0.55465406 0
3.8780003 -0.240483 0.55456746 0
3.8770003 -0.24669893 0.55452418 0
3.8760002 -0.25291121 0.55448091 0
3.8760002 -0.25918126 0.55448091 0
3.8770003 -0.26551443 0.55452418 0
3.8780003 -0.27185121 0.55456746 0
3.8800004 -0.27825835 0.55465406 0
3.8830004 -0.28474122 0.55478394 0
3.8870003 -0.2913053 0.55495715 0
3.8920002 -0.29795593 0.55517358 0
4.092 -0.36566368 0.56383187 0
4.0840001 -0.37161624 0.5634855 0
4.0780001 -0.37772033 0.56322575 0
4.0740004 -0.38398677 0.56305265 0
4.0700002 -0.39023873 0.56287944 0
4.0680003 -0.39666754 0.5627929 0
4.066 -0.40308908 0.56270629 0
4.0640001 -0.40950346 0.56261969 0
4.0640001 -0.4161126 0.56261969 0
4.0640001 -0.42272177 0.56261969 0
4.0650001 -0.42943552 0.56266296 0
4.066 -0.43615291 0.56270629 0
4.0690002 -0.44309035 0.56283617 0
4.072 -0.45003861 0.56296605 0
4.0770001 -0.45722139 0.56318247 0
4.2120004 0.18091185 0.56215072 0
4.2060003 0.17368941 0.56190181 0
4.2000003 0.1664886 0.56165284 0
4.198 0.1595259 0.56156987 0
4.2049999 0.15304121 0.56186026 0
4.2130003 0.14658178 0.5621922 0
4.2200003 0.14004478 0.5624826 0
4.2280002 0.13352941 0.56281447 0
4.2360001 0.12698521 0.56314641 0
4.243 0.12036884 0.56343681 0
4.2509999 0.1137687 0.56376874 0
4.2590003 0.10713971 0.56410062 0
4.2670002 0.10048185 0.5644325 0
4.2750001 0.093795136 0.56476444 0
4.283 0.087079555 0.56509632 0
4.29 0.080302656 0.56538671 0
4.2980003 0.073531166 0.56571865 0
4.3060002 0.066730797 0.56605053 0
4.1150002 0.027712625 0.55812645 0
4.1090002 0.020903241 0.55787748 0
4.1040001 0.014131751 0.55767006 0
4.1010003 0.0074071549 0.55754554 0
4.1000004 0.00071863458 0.55750412 0
4.099 -0.0059662834 0.55746257 0
4.099 -0.012638565 0.55746257 0
4.1000004 -0.019303637 0.55750412 0
4.1020002 -0.025966905 0.55758709 0
4.105 -0.032633781 0.55771154 0
4.1090002 -0.039309677 0.55787748 0
4.1150002 -0.046 0.55812645 0
4.1230001 -0.052715577 0.55845833 0
4.131 -0.059460018 0.55879021 0
3.9010003 -0.21019344 0.5492481 0
3.8940003 -0.21616766 0.54895765 0
3.8890002 -0.22221763 0.54875022 0
3.8860002 -0.22835419 0.54862577 0
3.8830004 -0.23447993 0.54850131 0
3.8810003 -0.24065074 0.54841828 0
3.8790002 -0.24681436 0.54833531 0
3.8790002 -0.25308982 0.54833531 0
3.8790002 -0.25936526 0.54833531 0
3.8790002 -0.26564071 0.54833531 0
3.8810003 -0.27204603 0.54841828 0
3.8830004 -0.2784586 0.54850131 0
3.8860002 -0.28494686 0.54862577 0
3.8900003 -0.29151636 0.54879171 0
3.8960001 -0.29824454 0.54904062 0
4.0870004 -0.37188143 0.55696476 0
4.0810003 -0.37799093 0.55671585 0
4.0760002 -0.38417077 0.55650842 0
4.072 -0.39042637 0.55634242 0
4.0690002 -0.39676312 0.55621797 0
4.0669999 -0.4031865 0.556135 0
4.066 -0.40970185 0.55609351 0
4.066 -0.4163146 0.55609351 0
4.066 -0.42292738 0.55609351 0
4.0669999 -0.42964476 0.556135 0
4.0680003 -0.43636575 0.55617648 0
4.0700002 -0.44319859 0.55625945 0
4.0740004 -0.4502587 0.55642545 0
4.079 -0.45744506 0.55663288 0
4.2120004 0.18091185 0.55527461 0
4.2060003 0.17368941 0.55503649 0
4.2000003 0.1664886 0.55479836 0
4.198 0.1595259 0.55471897 0
4.2049999 0.15304121 0.55499679 0
4.2130003 0.14658178 0.5553143 0
4.2200003 0.14004478 0.55559206 0
4.2280002 0.13352941 0.55590951 0
4.2360001 0.12698521 0.55622697 0
4.243 0.12036884 0.55650479 0
4.2509999 0.1137687 0.55682224 0
4.2590003 0.10713971 0.55713975 0
4.2670002 0.10048185 0.55745721 0
4.2750001 0.093795136 0.55777466 0
4.283 0.087079555 0.55809212 0
4.29 0.080302656 0.55836993 0
4.2980003 0.073531166 0.55868739 0
4.3060002 0.066730797 0.5590049 0
4.1150002 0.027712625 0.55142528 0
4.1090002 0.020903241 0.55118716 0
4.1040001 0.014131751 0.55098873 0
4.1010003 0.0074071549 0.5508697 0
4.1000004 0.00071863458 0.55083001 0
4.099 -0.0059662834 0.55079031 0
4.099 -0.012638565 0.55079031 0
4.1000004 -0.019303637 0.55083001 0
4.1020002 -0.025966905 0.5509094 0
4.105 -0.032633781 0.55102843 0
4.1090002 -0.039309677 0.55118716 0
4.1150002 -0.046 0.55142528 0
4.1230001 -0.052715577 0.55174273 0
3.9060004 -0.21042795 0.54313135 0
3.8990002 -0.21641117 0.54285359 0
3.8930004 -0.22241966 0.54261547 0
3.8890002 -0.22851111 0.54245675 0
3.8860002 -0.23464227 0.54233766 0
3.8840003 -0.24081852 0.54225832 0
3.8830004 -0.24704526 0.54221863 0
3.8820002 -0.25326839 0.54217893 0
3.8820002 -0.25954923 0.54217893 0
3.8830004 -0.26589325 0.54221863 0
3.8840003 -0.27224085 0.54225832 0
3.8870003 -0.27872553 0.54237735 0
3.8900003 -0.28522104 0.54249644 0
3.8940003 -0.29179773 0.54265511 0
3.9010003 -0.29860532 0.54293293 0
4.0900002 -0.37214655 0.55043316 0
4.0840001 -0.37826148 0.5501951 0
4.079 -0.38444674 0.54999661 0
4.0750003 -0.39070776 0.54983795 0
4.072 -0.39704996 0.54971886 0
4.0700002 -0.40347871 0.54963946 0
4.0690002 -0.40999949 0.54959983 0
4.0680003 -0.41651666 0.54956013 0
4.0680003 -0.42313305 0.54956013 0
4.0690002 -0.42985398 0.54959983 0
4.0710001 -0.43668506 0.54967916 0
4.073 -0.44352326 0.54975855 0
4.0770001 -0.45058879 0.54991728 0
4.0830002 -0.45789239 0.5501554 0
4.2120004 0.18091185 0.54839849 0
4.2060003 0.17368941 0.54817116 0
4.2000003 0.1664886 0.54794389 0
4.198 0.1595259 0.54786813 0
4.2049999 0.15304121 0.54813331 0
4.2130003 0.14658178 0.54843634 0
4.2200003 0.14004478 0.54870152 0
4.2280002 0.13352941 0.54900455 0
4.2360001 0.12698521 0.54930758 0
4.243 0.12036884 0.54957277 0
4.2509999 0.1137687 0.5498758 0
4.2590003 0.10713971 0.55017883 0
4.2670002 0.10048185 0.55048186 0
4.2750001 0.093795136 0.55078495 0
4.283 0.087079555 0.55108798 0
4.29 0.080302656 0.5513531 0
4.2980003 0.073531166 0.55165613 0
4.3060002 0.066730797 0.55195916 0
4.1150002 0.027712625 0.54472411 0
4.1090002 0.020903241 0.54449683 0
4.1040001 0.014131751 0.54430747 0
4.1010003 0.0074071549 0.5441938 0
4.1000004 0.00071863458 0.5441559 0
4.099 -0.0059662834 0.54411805 0
4.099 -0.012638565 0.54411805 0
4.1000004 -0.019303637 0.5441559 0
4.1020002 -0.025966905 0.54423165 0
4.105 -0.032633781 0.54434532 0
4.1090002 -0.039309677 0.54449683 0
4.1150002 -0.046 0.54472411 0
4.1230001 -0.052715577 0.54502714 0
3.9130003 -0.21075624 0.53707236 0
3.9050002 -0.21670339 0.53676933 0
3.8990002 -0.22272269 0.53654206 0
3.8940003 -0.22877267 0.53635263 0
3.8910003 -0.23491284 0.53623903 0
3.8880002 -0.24104218 0.53612536 0
3.8870003 -0.24727614 0.53608751 0
3.8860002 -0.25350648 0.5360496 0
3.8860002 -0.25979456 0.5360496 0
3.8870003 -0.26614577 0.53608751 0
3.8890002 -0.27256551 0.53616321 0
3.8910003 -0.2789925 0.53623903 0
3.8950002 -0.28556374 0.53639054 0
3.9010003 -0.29229015 0.53661782 0
4.0950003 -0.37258852 0.54396653 0
4.0880003 -0.37862223 0.54370135 0
4.0830002 -0.38481471 0.54351199 0
4.079 -0.39108297 0.54336041 0
4.0760002 -0.39743236 0.54324681 0
4.073 -0.40377092 0.54313314 0
4.072 -0.4102971 0.54309529 0
4.072 -0.41692069 0.54309529 0
4.072 -0.42354429 0.54309529 0
4.073 -0.43027249 0.54313314 0
4.0750003 -0.43711072 0.5432089 0
4.0770001 -0.44395617 0.54328465 0
4.0810003 -0.45102891 0.54343617 0
4.2120004 0.18091185 0.54152238 0
4.2060003 0.17368941 0.5413059 0
4.2000003 0.1664886 0.54108942 0
4.198 0.1595259 0.54101729 0
4.2049999 0.15304121 0.54126978 0
4.2130003 0.14658178 0.54155844 0
4.2200003 0.14004478 0.54181099 0
4.2280002 0.13352941 0.5420996 0
4.2360001 0.12698521 0.5423882 0
4.243 0.12036884 0.54264069 0
4.2509999 0.1137687 0.54292929 0
4.2590003 0.10713971 0.54321796 0
4.2670002 0.10048185 0.54350656 0
4.2750001 0.093795136 0.54379517 0
4.283 0.087079555 0.54408377 0
4.29 0.080302656 0.54433632 0
4.2980003 0.073531166 0.54462492 0
4.3060002 0.066730797 0.54491353 0
4.1150002 0.027712625 0.53802299 0
4.1090002 0.020903241 0.53780651 0
4.1040001 0.014131751 0.53762615 0
4.1010003 0.0074071549 0.53751791 0
4.1000004 0.00071863458 0.53748184 0
4.099 -0.0059662834 0.53744578 0
4.099 -0.012638565 0.53744578 0
4.1000004 -0.019303637 0.53748184 0
4.1020002 -0.025966905 0.53755397 0
4.105 -0.032633781 0.53766221 0
4.1090002 -0.039309677 0.53780651 0
4.1150002 -0.046 0.53802299 0
3.9130003 -0.21709302 0.53073561 0
3.9050002 -0.22302574 0.53044701 0
3.9000003 -0.22908655 0.53026658 0
3.8970003 -0.23523752 0.53015834 0
3.8940003 -0.24137768 0.53005016 0
3.8920002 -0.24756475 0.52997798 0
3.8920002 -0.25386363 0.52997798 0
3.8920002 -0.26016253 0.52997798 0
3.8930004 -0.26652458 0.53001404 0
3.8950002 -0.27295515 0.53008622 0
3.8980002 -0.27945969 0.53019446 0
3.9020002 -0.28604358 0.53033876 0
4.1020002 -0.37320721 0.53755397 0
4.0940003 -0.37916338 0.53726536 0
4.0880003 -0.38527471 0.53704894 0
4.0830002 -0.39145812 0.53686851 0
4.0799999 -0.39781475 0.53676027 0
4.0780001 -0.40425798 0.53668815 0
4.0770001 -0.41079319 0.53665209 0
4.0760002 -0.41732475 0.53661597 0
4.0760002 -0.42395556 0.53661597 0
4.0770001 -0.430691 0.53665209 0
4.079 -0.43753642 0.53672421 0
4.0830002 -0.44460556 0.53686851 0
4.0880003 -0.45179915 0.53704894 0
4.2120004 0.18091185 0.53464627 0
4.2060003 0.17368941 0.53444064 0
4.2000003 0.1664886 0.534235 0
4.198 0.1595259 0.53416646 0
4.2049999 0.15304121 0.5344063 0
4.2130003 0.14658178 0.53468049 0
4.2200003 0.14004478 0.53492039 0
4.2280002 0.13352941 0.53519458 0
4.2360001 0.12698521 0.53546876 0
4.243 0.12036884 0.53570867 0
4.2509999 0.1137687 0.53598285 0
4.2590003 0.10713971 0.53625703 0
4.2670002 0.10048185 0.53653121 0
4.2750001 0.093795136 0.53680539 0
4.283 0.087079555 0.53707957 0
4.29 0.080302656 0.53731948 0
4.2980003 0.073531166 0.53759366 0
4.3060002 0.066730797 0.53786784 0
4.1150002 0.027712625 0.53132182 0
4.1090002 0.020903241 0.53111619 0
4.1040001 0.014131751 0.53094482 0
4.1010003 0.0074071549 0.53084201 0
4.1000004 0.00071863458 0.53080773 0
4.099 -0.0059662834 0.53077346 0
4.099 -0.012638565 0.53077346 0
4.1000004 -0.019303637 0.53080773 0
4.1020002 -0.025966905 0.53087628 0
4.105 -0.032633781 0.5309791 0
4.1090002 -0.039309677 0.53111619 0
3.9160004 -0.22358131 0.52450162 0
3.9090002 -0.22955732 0.52426171 0
3.9050002 -0.23567043 0.52412462 0
3.9020002 -0.24182503 0.5240218 0
3.9000003 -0.24802653 0.52395326 0
3.8990002 -0.25428033 0.52391899 0
3.8990002 -0.26059183 0.52391899 0
3.9000003 -0.26696652 0.52395326 0
3.9030004 -0.27347466 0.52405608 0
3.9060004 -0.27999362 0.5241589 0
3.9120002 -0.28672904 0.52436453 0
4.1020002 -0.3798849 0.53087628 0
4.0950003 -0.38591865 0.53063637 0
4.0900002 -0.39211473 0.53046501 0
4.086 -0.39838836 0.53032792 0
4.0840001 -0.40484241 0.53025937 0
4.0820003 -0.41128922 0.53019083 0
4.0820003 -0.41793084 0.53019083 0
4.0820003 -0.42457244 0.53019083 0
4.0830002 -0.43131867 0.5302251 0
4.086 -0.43828139 0.53032792 0
4.0900002 -0.44536313 0.53046501 0
4.2120004 0.18091185 0.5277701 0
4.2060003 0.17368941 0.52757531 0
4.2000003 0.1664886 0.52738047 0
4.198 0.1595259 0.52731556 0
4.2049999 0.15304121 0.52754283 0
4.2130003 0.14658178 0.52780259 0
4.2200003 0.14004478 0.52802986 0
4.2280002 0.13352941 0.52828962 0
4.2360001 0.12698521 0.52854937 0
4.243 0.12036884 0.52877665 0
4.2509999 0.1137687 0.5290364 0
4.2590003 0.10713971 0.52929616 0
4.2670002 0.10048185 0.52955592 0
4.2750001 0.093795136 0.52981567 0
4.283 0.087079555 0.53007537 0
4.29 0.080302656 0.53030264 0
4.2980003 0.073531166 0.5305624 0
4.3060002 0.066730797 0.53082216 0
4.1150002 0.027712625 0.52462065 0
4.1090002 0.020903241 0.52442586 0
4.1040001 0.014131751 0.5242635 0
4.1010003 0.0074071549 0.52416611 0
4.1000004 0.00071863458 0.52413362 0
4.099 -0.0059662834 0.52410114 0
4.099 -0.012638565 0.52410114 0
4.1000004 -0.019303637 0.52413362 0
4.1020002 -0.025966905 0.52419859 0
4.105 -0.032633781 0.52429599 0
4.1090002 -0.039309677 0.52442586 0
3.9360003 -0.20545666 0.51880878 0
3.9310002 -0.21160041 0.51864648 0
3.9250002 -0.21767744 0.51845163 0
3.9200003 -0.22378334 0.51828933 0
3.9140003 -0.22981888 0.51809448 0
3.9090002 -0.2358869 0.51793218 0
3.9060004 -0.24204873 0.51783472 0
3.9030004 -0.2481997 0.51773733 0
3.9020002 -0.2544589 0.51770484 0
3.9030004 -0.26083717 0.51773733 0
3.9040003 -0.26721904 0.51776981 0
3.9070003 -0.27373439 0.51786721 0
3.9130003 -0.28046077 0.518062 0
4.105 -0.38683859 0.52429599 0
4.099 -0.39295891 0.52410114 0
4.0940003 -0.3991532 0.52393883 0
4.0910001 -0.40552425 0.52384144 0
4.0900002 -0.41208285 0.52380896 0
4.0890002 -0.41863793 0.52377647 0
4.0900002 -0.42539498 0.52380896 0
4.092 -0.43226027 0.52387387 0
4.0950003 -0.4392392 0.52397132 0
4.2120004 0.18091185 0.52089399 0
4.2060003 0.17368941 0.52070999 0
4.2000003 0.1664886 0.52052605 0
4.198 0.1595259 0.52046472 0
4.2049999 0.15304121 0.52067935 0
4.2130003 0.14658178 0.52092469 0
4.2200003 0.14004478 0.52113932 0
4.2280002 0.13352941 0.52138466 0
4.2360001 0.12698521 0.52162993 0
4.244 0.12041213 0.52187526 0
4.2509999 0.1137687 0.52208996 0
4.2590003 0.10713971 0.52233523 0
4.2670002 0.10048185 0.52258056 0
4.2750001 0.093795136 0.5228259 0
4.283 0.087079555 0.52307117 0
4.29 0.080302656 0.52328587 0
4.2980003 0.073531166 0.5235312 0
4.3060002 0.066730797 0.52377647 0
4.1150002 0.027712625 0.51791954 0
4.1090002 0.020903241 0.51773554 0
4.1040001 0.014131751 0.51758218 0
4.1010003 0.0074071549 0.51749021 0
4.1000004 0.00071863458 0.51745957 0
4.099 -0.0059662834 0.51742887 0
4.099 -0.012638565 0.51742887 0
4.1000004 -0.019303637 0.51745957 0
4.1020002 -0.025966905 0.5175209 0
4.105 -0.032633781 0.51761287 0
4.1090002 -0.039309677 0.51773554 0
3.9950004 -0.13030098 0.51423979 0
3.9890003 -0.13663414 0.51405579 0
3.9840002 -0.14297272 0.51390243 0
3.9780002 -0.14926441 0.51371843 0
3.9720004 -0.15553445 0.51353449 0
3.9670002 -0.16181532 0.51338112 0
3.9610002 -0.16804387 0.51319718 0
3.9560003 -0.17428684 0.51304382 0
3.9500003 -0.18047391 0.51285982 0
3.9450002 -0.18667901 0.51270652 0
3.9400003 -0.19286607 0.51255322 0
3.9340003 -0.19899181 0.51236922 0
3.9290004 -0.20514099 0.51221585 0
3.9230003 -0.21122524 0.51203191 0
3.9180002 -0.21733652 0.51187855 0
3.9130003 -0.2234298 0.51172525 0
3.9070003 -0.22945271 0.51154125 0
3.9030004 -0.23556222 0.51141858 0
3.9000003 -0.2417132 0.51132661 0
3.8980002 -0.24791108 0.51126528 0
3.8970003 -0.25416127 0.51123464 0
3.8970003 -0.2604692 0.51123464 0
3.8980002 -0.26684025 0.51126528 0
3.9010003 -0.27334476 0.51135725 0
3.9050002 -0.27992687 0.51147991 0
3.9110003 -0.28666046 0.51166391 0
4.119 -0.37470978 0.51804221 0
4.1129999 -0.38087699 0.51785821 0
4.1080003 -0.38711455 0.51770484 0
4.1020002 -0.3932403 0.5175209 0
4.0970001 -0.39943999 0.51736754 0
4.0940003 -0.40581647 0.51727557 0
4.092 -0.4122813 0.51721424 0
4.092 -0.41894096 0.51721424 0
4.0929999 -0.42570344 0.51724488 0
4.0950003 -0.43257415 0.51730621 0
4.099 -0.43966493 0.51742887 0
4.2120004 0.18091185 0.51401788 0
4.2060003 0.17368941 0.51384473 0
4.2000003 0.1664886 0.51367158 0
4.198 0.1595259 0.51361382 0
4.2049999 0.15304121 0.51381588 0
4.2130003 0.14658178 0.51404673 0
4.2200003 0.14004478 0.51424879 0
4.2280002 0.13352941 0.51447964 0
4.2360001 0.12698521 0.51471055 0
4.244 0.12041213 0.51494145 0
4.2509999 0.1137687 0.51514345 0
4.2590003 0.10713971 0.51537436 0
4.2670002 0.10048185 0.51560521 0
4.2750001 0.093795136 0.51583612 0
4.283 0.087079555 0.51606703 0
4.29 0.080302656 0.51626903 0
4.2980003 0.073531166 0.51649994 0
4.3060002 0.066730797 0.51673079 0
4.1150002 0.027712625 0.51121837 0
4.1090002 0.020903241 0.51104522 0
4.1040001 0.014131751 0.51090091 0
4.1010003 0.0074071549 0.51081431 0
4.1000004 0.00071863458 0.51078546 0
4.099 -0.0059662834 0.51075661 0
4.099 -0.012638565 0.51075661 0
4.1000004 -0.019303637 0.51078546 0
4.1020002 -0.025966905 0.51084316 0
4.105 -0.032633781 0.51092976 0
4.0450001 -0.065724641 0.50919813 0
4.039 -0.072256237 0.50902498 0
4.033 -0.078766182 0.50885177 0
4.0280004 -0.085265294 0.50870746 0
4.0220003 -0.091733754 0.50853431 0
4.0160003 -0.098180562 0.50836116 0
4.0110002 -0.10462196 0.50821686 0
4.0050001 -0.11102729 0.50804365 0
4 -0.11743081 0.50789934 0
3.9940002 -0.12379465 0.50772619 0
3.9890003 -0.13016027 0.50758189 0
3.9830003 -0.13648263 0.50740874 0
3.9780002 -0.14281039 0.50726444 0
3.9720004 -0.14909124 0.50709128 0
3.9670002 -0.15538113 0.50694698 0
3.9610002 -0.1616205 0.50677377 0
3.9560003 -0.1678725 0.50662947 0
3.9500003 -0.17407039 0.50645632 0
3.9450002 -0.1802845 0.50631201 0
3.9400003 -0.1864806 0.50616771 0
3.9340003 -0.19261715 0.50599456 0
3.9290004 -0.19877535 0.50585026 0
3.9230003 -0.20487042 0.5056771 0
3.9180002 -0.21099073 0.50553274 0
3.9130003 -0.21709302 0.5053885 0
3.9080002 -0.22317727 0.50524414 0
3.9020002 -0.22919117 0.50507098 0
3.8980002 -0.23529163 0.50495553 0
3.8950002 -0.24143361 0.50486898 0
3.8940003 -0.2476802 0.50484014 0
3.8930004 -0.25392318 0.50481123 0
3.8930004 -0.26022387 0.50481123 0
3.8940003 -0.2665877 0.50484014 0
3.8960001 -0.27302009 0.50489783 0
3.9000003 -0.27959317 0.50501329 0
3.9050002 -0.28624922 0.50515759 0
4.1340003 -0.34909391 0.51176673 0
4.1280003 -0.35533148 0.51159358 0
4.1230001 -0.3616322 0.51144928 0
4.1170001 -0.36782828 0.51127613 0
4.112 -0.37409106 0.51113176 0
4.1059999 -0.38024566 0.51095861 0
4.1010003 -0.38647062 0.51081431 0
4.0950003 -0.39258373 0.51064116 0
4.0910001 -0.39886639 0.5105257 0
4.0880003 -0.40523201 0.51043916 0
4.0870004 -0.41178527 0.51041025 0
4.086 -0.41833487 0.5103814 0
4.0870004 -0.42508653 0.51041025 0
4.0890002 -0.43194643 0.51046801 0
4.092 -0.43891993 0.51055455 0
4.0970001 -0.44612077 0.51069891 0
4.2120004 0.18091185 0.50714177 0
4.2060003 0.17368941 0.50697941 0
4.2000003 0.1664886 0.5068171 0
4.198 0.1595259 0.50676298 0
4.2049999 0.15304121 0.50695235 0
4.2130003 0.14658178 0.50716883 0
4.2200003 0.14004478 0.50735819 0
4.2280002 0.13352941 0.50757468 0
4.2360001 0.12698521 0.50779116 0
4.244 0.12041213 0.50800759 0
