# .PCD v0.7 - Point Cloud Data file format
VERSION 0.7
FIELDS x y z intensity
SIZE 4 4 4 4
TYPE F F F F
COUNT 1 1 1 1
WIDTH 1388
HEIGHT 1
VIEWPOINT 0 0 0 1 0 0 0
POINTS 1388
DATA ascii
3.8680003 -0.71534997 0.28514349 0
3.8650002 -0.72102118 0.28524628 0
3.8630002 -0.72687805 0.28531486 0
3.8610003 -0.73272783 0.2853834 0
3.8600004 -0.7387706 0.28541765 0
3.8600004 -0.74501175 0.28541765 0
3.8600004 -0.75125301 0.28541765 0
3.8620002 -0.75790542 0.28534913 0
3.8650002 -0.76477247 0.28524628 0
3.8690002 -0.77185965 0.28510922 0
3.8750002 -0.7793833 0.28490359 0
4.0540004 -0.88307166 0.27876884 0
4.0480003 -0.88827747 0.27897447 0
4.0420003 -0.89346159 0.27918008 0
4.0380001 -0.89909309 0.2793172 0
4.0350003 -0.90494645 0.27942002 0
4.0320001 -0.91078901 0.27952281 0
4.0310001 -0.91710049 0.27955708 0
4.0300002 -0.92340839 0.27959138 0
4.0300002 -0.9299562 0.27959138 0
4.0310001 -0.9367494 0.27955708 0
4.033 -0.94379324 0.27948856 0
4.0370002 -0.95134217 0.27935144 0
4.0430002 -0.95940697 0.27914584 0
4.223 -0.37700602 0.26608083 0
4.2160001 -0.38328329 0.26633334 0
4.2130003 -0.38989604 0.26644158 0
4.211 -0.39658996 0.26651376 0
4.211 -0.40346429 0.26651376 0
4.2120004 -0.41043422 0.26647767 0
4.2150002 -0.41760254 0.26636946 0
4.4200001 -0.60435081 0.25897384 0
4.4160004 -0.61103934 0.25911814 0
4.4150004 -0.61814094 0.2591542 0
3.9990003 -0.5848282 0.27416188 0
3.9950004 -0.59071404 0.27430618 0
3.9920003 -0.5967387 0.27441442 0
3.9910002 -0.60306287 0.27445051 0
3.9910002 -0.60954034 0.27445051 0
3.9930003 -0.61633533 0.27437836 0
3.9970002 -0.6234585 0.27423406 0
3.8850002 -0.69977224 0.2782746 0
3.8780003 -0.70473272 0.27852711 0
3.8730001 -0.71005034 0.2787075 0
3.8680003 -0.71534997 0.27888787 0
3.8650002 -0.72102118 0.27899611 0
3.8630002 -0.72687805 0.27906826 0
3.8610003 -0.73272783 0.27914041 0
3.8600004 -0.7387706 0.27917647 0
3.8600004 -0.74501175 0.27917647 0
3.8600004 -0.75125301 0.27917647 0
3.8620002 -0.75790542 0.27910432 0
3.8650002 -0.76477247 0.27899611 0
3.8690002 -0.77185965 0.27885181 0
3.8750002 -0.7793833 0.27863535 0
4.0550003 -0.88330072 0.27214164 0
4.0480003 -0.88827747 0.27239418 0
4.0420003 -0.89346159 0.2726106 0
4.0380001 -0.89909309 0.27275491 0
4.0350003 -0.90494645 0.27286315 0
4.0320001 -0.91078901 0.27297139 0
4.0310001 -0.91710049 0.27300745 0
4.0300002 -0.92340839 0.27304351 0
4.0300002 -0.9299562 0.27304351 0
4.0310001 -0.9367494 0.27300745 0
4.033 -0.94379324 0.2729353 0
4.0370002 -0.95134217 0.272791 0
4.0420003 -0.95915627 0.2726106 0
4.223 -0.37700602 0.2591849 0
4.2160001 -0.38328329 0.25945005 0
4.2130003 -0.38989604 0.25956368 0
4.211 -0.39658996 0.25963944 0
4.211 -0.40346429 0.25963944 0
4.2120004 -0.41043422 0.25960156 0
4.2150002 -0.41760254 0.25948793 0
4.4200001 -0.60435081 0.25172251 0
4.4170003 -0.61118001 0.25183618 0
4.4150004 -0.61814094 0.25191191 0
3.9990003 -0.5848282 0.26766998 0
3.9950004 -0.59071404 0.26782149 0
3.9920003 -0.5967387 0.26793516 0
3.9910002 -0.60306287 0.26797304 0
3.9910002 -0.60954034 0.26797304 0
3.9930003 -0.61633533 0.26789728 0
3.9970002 -0.6234585 0.26774573 0
3.8850002 -0.69977224 0.2719883 0
3.8780003 -0.70473272 0.27225345 0
3.8730001 -0.71005034 0.27244288 0
3.8680003 -0.71534997 0.27263227 0
3.8650002 -0.72102118 0.27274591 0
3.8630002 -0.72687805 0.27282166 0
3.8610003 -0.73272783 0.27289742 0
3.8600004 -0.7387706 0.2729353 0
3.8600004 -0.74501175 0.2729353 0
3.8600004 -0.75125301 0.2729353 0
3.8620002 -0.75790542 0.27285954 0
3.8650002 -0.76477247 0.27274591 0
3.8690002 -0.77185965 0.27259439 0
3.8750002 -0.7793833 0.27236712 0
4.0550003 -0.88330072 0.26554871 0
4.0480003 -0.88827747 0.26581389 0
4.0420003 -0.89346159 0.26604116 0
4.0380001 -0.89909309 0.26619267 0
4.0350003 -0.90494645 0.26630631 0
4.033 -0.91102707 0.2663821 0
4.0310001 -0.91710049 0.26645783 0
4.0300002 -0.92340839 0.2664957 0
4.0300002 -0.9299562 0.2664957 0
4.0310001 -0.9367494 0.26645783 0
4.033 -0.94379324 0.2663821 0
4.0370002 -0.95134217 0.26623058 0
4.0420003 -0.95915627 0.26604116 0
4.223 -0.37700602 0.25228894 0
4.217 -0.38337165 0.252527 0
4.2130003 -0.38989604 0.25268576 0
4.211 -0.39658996 0.25276512 0
4.211 -0.40346429 0.25276512 0
4.2120004 -0.41043422 0.25272542 0
4.2150002 -0.41760254 0.25260639 0
4.4200001 -0.60435081 0.24447122 0
4.4170003 -0.61118001 0.24459025 0
4.4150004 -0.61814094 0.24466962 0
3.9990003 -0.5848282 0.26117808 0
3.9950004 -0.59071404 0.2613368 0
3.9920003 -0.5967387 0.26145589 0
3.9910002 -0.60306287 0.26149556 0
3.9910002 -0.60954034 0.26149556 0
3.9930003 -0.61633533 0.2614162 0
3.9970002 -0.6234585 0.26125747 0
3.8850002 -0.69977224 0.26570204 0
3.8780003 -0.70473272 0.26597983 0
3.8730001 -0.71005034 0.26617825 0
3.8680003 -0.71534997 0.26637667 0
3.8650002 -0.72102118 0.2664957 0
3.8630002 -0.72687805 0.2665751 0
3.8610003 -0.73272783 0.26665443 0
3.8600004 -0.7387706 0.26669413 0
3.8600004 -0.74501175 0.26669413 0
3.8600004 -0.75125301 0.26669413 0
3.8620002 -0.75790542 0.26661476 0
3.8650002 -0.76477247 0.2664957 0
3.8690002 -0.77185965 0.26633698 0
3.8750002 -0.7793833 0.26609886 0
4.0550003 -0.88330072 0.25895578 0
4.0480003 -0.88827747 0.25923359 0
4.0420003 -0.89346159 0.25947165 0
4.0380001 -0.89909309 0.25963044 0
4.0350003 -0.90494645 0.25974947 0
4.033 -0.91102707 0.25982884 0
4.0310001 -0.91710049 0.2599082 0
4.0300002 -0.92340839 0.2599479 0
4.0300002 -0.9299562 0.2599479 0
4.0310001 -0.9367494 0.2599082 0
4.033 -0.94379324 0.25982884 0
4.0370002 -0.95134217 0.25967011 0
4.0420003 -0.95915627 0.25947165 0
4.223 -0.37700602 0.24539296 0
4.217 -0.38337165 0.24564189 0
4.2130003 -0.38989604 0.24580784 0
4.211 -0.39658996 0.24589083 0
4.211 -0.40346429 0.24589083 0
4.2120004 -0.41043422 0.24584931 0
4.2150002 -0.41760254 0.24572486 0
4.4200001 -0.60435081 0.23721991 0
4.4170003 -0.61118001 0.23734437 0
4.4150004 -0.61814094 0.23742734 0
3.9990003 -0.5848282 0.25468618 0
3.9950004 -0.59071404 0.25485212 0
3.9920003 -0.5967387 0.25497657 0
3.9910002 -0.60306287 0.25501809 0
3.9910002 -0.60954034 0.25501809 0
3.9930003 -0.61633533 0.25493509 0
3.9970002 -0.6234585 0.25476915 0
3.8850002 -0.69977224 0.25941575 0
3.8780003 -0.70473272 0.2597062 0
3.8730001 -0.71005034 0.25991362 0
3.8680003 -0.71534997 0.26012105 0
3.8650002 -0.72102118 0.2602455 0
3.8630002 -0.72687805 0.2603285 0
3.8610003 -0.73272783 0.26041147 0
3.8600004 -0.7387706 0.26045293 0
3.8600004 -0.74501175 0.26045293 0
3.8600004 -0.75125301 0.26045293 0
3.8620002 -0.75790542 0.26036999 0
3.8650002 -0.76477247 0.2602455 0
3.8690002 -0.77185965 0.26007956 0
3.8750002 -0.7793833 0.25983065 0
4.0550003 -0.88330072 0.25236288 0
4.0480003 -0.88827747 0.2526533 0
4.0430002 -0.89369428 0.25286072 0
4.0380001 -0.89909309 0.25306815 0
4.0350003 -0.90494645 0.25319263 0
4.033 -0.91102707 0.2532756 0
4.0310001 -0.91710049 0.25335857 0
4.0300002 -0.92340839 0.25340006 0
4.0300002 -0.9299562 0.25340006 0
4.0310001 -0.9367494 0.25335857 0
4.033 -0.94379324 0.2532756 0
4.0370002 -0.95134217 0.25310966 0
4.0420003 -0.95915627 0.25290221 0
4.223 -0.37700602 0.238497 0
4.217 -0.38337165 0.23875676 0
4.2130003 -0.38989604 0.23892991 0
4.211 -0.39658996 0.2390165 0
4.211 -0.40346429 0.2390165 0
4.2120004 -0.41043422 0.2389732 0
4.2150002 -0.41760254 0.23884334 0
4.4200001 -0.60435081 0.22996861 0
4.4170003 -0.61118001 0.23009847 0
4.4150004 -0.61814094 0.23018505 0
3.9990003 -0.5848282 0.24819426 0
3.9950004 -0.59071404 0.24836743 0
3.9920003 -0.5967387 0.24849731 0
3.9910002 -0.60306287 0.2485406 0
3.9910002 -0.60954034 0.2485406 0
3.9930003 -0.61633533 0.24845402 0
3.9970002 -0.6234585 0.24828085 0
3.8860002 -0.69995981 0.25308621 0
3.8780003 -0.70473272 0.25343254 0
3.8730001 -0.71005034 0.253649 0
3.8680003 -0.71534997 0.25386545 0
3.8650002 -0.72102118 0.25399533 0
3.8630002 -0.72687805 0.2540819 0
3.8610003 -0.73272783 0.25416851 0
3.8600004 -0.7387706 0.25421178 0
3.8600004 -0.74501175 0.25421178 0
3.8600004 -0.75125301 0.25421178 0
3.8620002 -0.75790542 0.25412518 0
3.8650002 -0.76477247 0.25399533 0
3.8690002 -0.77185965 0.25382215 0
3.8750002 -0.7793833 0.25356239 0
4.0550003 -0.88330072 0.24576996 0
4.0480003 -0.88827747 0.24607299 0
4.0430002 -0.89369428 0.24628945 0
4.0380001 -0.89909309 0.24650592 0
4.0350003 -0.90494645 0.24663578 0
4.033 -0.91102707 0.24672237 0
4.0310001 -0.91710049 0.24680895 0
4.0300002 -0.92340839 0.24685225 0
4.0300002 -0.9299562 0.24685225 0
4.0310001 -0.9367494 0.24680895 0
4.033 -0.94379324 0.24672237 0
4.0370002 -0.95134217 0.2465492 0
4.0420003 -0.95915627 0.24633275 0
4.217 -0.38337165 0.23187162 0
4.2130003 -0.38989604 0.232052 0
4.211 -0.39658996 0.2321422 0
4.211 -0.40346429 0.2321422 0
4.2120004 -0.41043422 0.23209709 0
4.2150002 -0.41760254 0.2319618 0
4.4200001 -0.60435081 0.2227173 0
4.4170003 -0.61118001 0.22285257 0
4.4150004 -0.61814094 0.22294275 0
4 -0.58497792 0.24165729 0
3.9950004 -0.59071404 0.24188274 0
3.9920003 -0.5967387 0.24201804 0
3.9910002 -0.60306287 0.24206313 0
3.9910002 -0.60954034 0.24206313 0
3.9930003 -0.61633533 0.24197294 0
3.9960003 -0.62329799 0.24183767 0
3.8860002 -0.69995981 0.24679813 0
3.8780003 -0.70473272 0.24715889 0
3.8730001 -0.71005034 0.24738437 0
3.8680003 -0.71534997 0.24760984 0
3.8650002 -0.72102118 0.24774513 0
3.8630002 -0.72687805 0.24783531 0
3.8610003 -0.73272783 0.24792551 0
3.8600004 -0.7387706 0.2479706 0
3.8600004 -0.74501175 0.2479706 0
3.8600004 -0.75125301 0.2479706 0
3.8620002 -0.75790542 0.24788041 0
3.8650002 -0.76477247 0.24774513 0
3.8690002 -0.77185965 0.24756475 0
3.8750002 -0.7793833 0.24729419 0
4.0550003 -0.88330072 0.23917703 0
4.0480003 -0.88827747 0.2394927 0
4.0430002 -0.89369428 0.23971818 0
4.0380001 -0.89909309 0.23994365 0
4.0350003 -0.90494645 0.24007894 0
4.033 -0.91102707 0.24016914 0
4.0310001 -0.91710049 0.24025932 0
4.0300002 -0.92340839 0.24030443 0
4.0300002 -0.9299562 0.24030443 0
4.0310001 -0.9367494 0.24025932 0
4.033 -0.94379324 0.24016914 0
4.0370002 -0.95134217 0.23998876 0
4.0420003 -0.95915627 0.23976327 0
4.217 -0.38337165 0.22498648 0
4.2130003 -0.38989604 0.22517407 0
4.211 -0.39658996 0.22526787 0
4.211 -0.40346429 0.22526787 0
4.2120004 -0.41043422 0.22522096 0
4.2150002 -0.41760254 0.22508027 0
4.4200001 -0.60435081 0.21546599 0
4.4170003 -0.61118001 0.21560667 0
4.4150004 -0.61814094 0.21570046 0
4 -0.58497792 0.23516355 0
3.9950004 -0.59071404 0.23539805 0
3.9920003 -0.5967387 0.23553875 0
3.9910002 -0.60306287 0.23558566 0
3.9910002 -0.60954034 0.23558566 0
3.9930003 -0.61633533 0.23549186 0
3.9960003 -0.62329799 0.23535116 0
3.8860002 -0.69995981 0.24051006 0
3.8780003 -0.70473272 0.24088524 0
3.8730001 -0.71005034 0.24111974 0
3.8690002 -0.71554297 0.24130735 0
3.8650002 -0.72102118 0.24149492 0
3.8630002 -0.72687805 0.24158873 0
3.8610003 -0.73272783 0.24168251 0
3.8600004 -0.7387706 0.24172942 0
3.8600004 -0.74501175 0.24172942 0
3.8600004 -0.75125301 0.24172942 0
3.8620002 -0.75790542 0.24163564 0
3.8650002 -0.76477247 0.24149492 0
3.8690002 -0.77185965 0.24130735 0
3.8750002 -0.7793833 0.24102594 0
4.0550003 -0.88330072 0.23258412 0
4.0480003 -0.88827747 0.23291241 0
4.0430002 -0.89369428 0.23314691 0
4.0380001 -0.89909309 0.23338141 0
4.0350003 -0.90494645 0.23352209 0
4.033 -0.91102707 0.23361591 0
4.0310001 -0.91710049 0.23370969 0
4.0300002 -0.92340839 0.23375659 0
4.0300002 -0.9299562 0.23375659 0
4.0310001 -0.9367494 0.23370969 0
4.033 -0.94379324 0.23361591 0
4.0370002 -0.95134217 0.2334283 0
4.0420003 -0.95915627 0.23319381 0
4.217 -0.38337165 0.21810134 0
4.2130003 -0.38989604 0.21829616 0
4.211 -0.39658996 0.21839356 0
4.211 -0.40346429 0.21839356 0
4.2120004 -0.41043422 0.21834484 0
4.2150002 -0.41760254 0.21819875 0
4.4200001 -0.60435081 0.20821467 0
4.4170003 -0.61118001 0.20836078 0
4.4150004 -0.61814094 0.20845819 0
4 -0.58497792 0.22866985 0
3.9950004 -0.59071404 0.22891335 0
3.9920003 -0.5967387 0.22905947 0
3.9910002 -0.60306287 0.22910818 0
3.9910002 -0.60954034 0.22910818 0
3.9930003 -0.61633533 0.22901078 0
3.9960003 -0.62329799 0.22886467 0
3.8860002 -0.69995981 0.23422198 0
3.8790002 -0.70492214 0.2345629 0
3.8730001 -0.71005034 0.23485512 0
3.8690002 -0.71554297 0.23504993 0
3.8650002 -0.72102118 0.23524472 0
3.8630002 -0.72687805 0.23534214 0
3.8610003 -0.73272783 0.23543954 0
3.8600004 -0.7387706 0.23548825 0
3.8600004 -0.74501175 0.23548825 0
3.8600004 -0.75125301 0.23548825 0
3.8620002 -0.75790542 0.23539084 0
3.8650002 -0.76477247 0.23524472 0
3.8690002 -0.77185965 0.23504993 0
3.8750002 -0.7793833 0.23475771 0
4.0550003 -0.88330072 0.2259912 0
4.0480003 -0.88827747 0.22633211 0
4.0430002 -0.89369428 0.22657564 0
4.0380001 -0.89909309 0.22681914 0
4.0350003 -0.90494645 0.22696525 0
4.033 -0.91102707 0.22706266 0
4.0310001 -0.91710049 0.22716005 0
4.0300002 -0.92340839 0.22720878 0
4.0300002 -0.9299562 0.22720878 0
4.0310001 -0.9367494 0.22716005 0
4.033 -0.94379324 0.22706266 0
4.0370002 -0.95134217 0.22686785 0
4.0420003 -0.95915627 0.22662432 0
4.217 -0.38337165 0.2112162 0
4.2130003 -0.38989604 0.21141823 0
4.211 -0.39658996 0.21151926 0
4.211 -0.40346429 0.21151926 0
4.2120004 -0.41043422 0.21146873 0
4.2150002 -0.41760254 0.21131721 0
4.4200001 -0.60435081 0.20096338 0
4.4170003 -0.61118001 0.20111488 0
4.4150004 -0.61814094 0.20121588 0
4 -0.58497792 0.22217615 0
3.9950004 -0.59071404 0.22242868 0
3.9930003 -0.59689206 0.22252969 0
3.9910002 -0.60306287 0.22263071 0
3.9910002 -0.60954034 0.22263071 0
3.9930003 -0.61633533 0.22252969 0
3.9960003 -0.62329799 0.22237818 0
3.8860002 -0.69995981 0.2279339 0
3.8790002 -0.70492214 0.22828744 0
3.8730001 -0.71005034 0.22859049 0
3.8690002 -0.71554297 0.22879252 0
3.8650002 -0.72102118 0.22899453 0
3.8630002 -0.72687805 0.22909555 0
3.8610003 -0.73272783 0.22919656 0
3.8600004 -0.7387706 0.22924708 0
3.8600004 -0.74501175 0.22924708 0
3.8600004 -0.75125301 0.22924708 0
3.8620002 -0.75790542 0.22914606 0
3.8650002 -0.76477247 0.22899453 0
3.8690002 -0.77185965 0.22879252 0
3.8750002 -0.7793833 0.22848947 0
4.0550003 -0.88330072 0.21939828 0
4.0480003 -0.88827747 0.21975182 0
4.0430002 -0.89369428 0.22000436 0
4.0380001 -0.89909309 0.22025689 0
4.0350003 -0.90494645 0.22040841 0
4.033 -0.91102707 0.22050942 0
4.0310001 -0.91710049 0.22061044 0
4.0300002 -0.92340839 0.22066095 0
4.0300002 -0.9299562 0.22066095 0
4.0310001 -0.9367494 0.22061044 0
4.033 -0.94379324 0.22050942 0
4.0370002 -0.95134217 0.22030741 0
4.0420003 -0.95915627 0.22005486 0
4.217 -0.38337165 0.20433107 0
4.2130003 -0.38989604 0.20454031 0
4.211 -0.39658996 0.20464493 0
4.211 -0.40346429 0.20464493 0
4.2120004 -0.41043422 0.20459263 0
4.2150002 -0.41760254 0.20443568 0
4.4200001 -0.60435081 0.19371206 0
4.4170003 -0.61118001 0.19386898 0
4.4150004 -0.61814094 0.19397359 0
4 -0.58497792 0.21568245 0
3.9950004 -0.59071404 0.21594399 0
3.9930003 -0.59689206 0.2160486 0
3.9910002 -0.60306287 0.21615323 0
3.9910002 -0.60954034 0.21615323 0
3.9930003 -0.61633533 0.2160486 0
3.9960003 -0.62329799 0.21589167 0
3.8860002 -0.69995981 0.22164583 0
3.8790002 -0.70492214 0.222012 0
3.8730001 -0.71005034 0.22232586 0
3.8690002 -0.71554297 0.2225351 0
3.8650002 -0.72102118 0.22274435 0
3.8630002 -0.72687805 0.22284897 0
3.8610003 -0.73272783 0.22295359 0
3.8600004 -0.7387706 0.22300589 0
3.8600004 -0.74501175 0.22300589 0
3.8600004 -0.75125301 0.22300589 0
3.8620002 -0.75790542 0.22290128 0
3.8650002 -0.76477247 0.22274435 0
3.8690002 -0.77185965 0.2225351 0
3.8750002 -0.7793833 0.22222124 0
4.0550003 -0.88330072 0.21280536 0
4.0480003 -0.88827747 0.21317153 0
4.0430002 -0.89369428 0.21343309 0
4.039 -0.89932758 0.21364233 0
4.0350003 -0.90494645 0.21385156 0
4.033 -0.91102707 0.21395619 0
4.0310001 -0.91710049 0.2140608 0
4.0300002 -0.92340839 0.21411312 0
4.0300002 -0.9299562 0.21411312 0
4.0310001 -0.9367494 0.2140608 0
4.033 -0.94379324 0.21395619 0
4.0370002 -0.95134217 0.21374696 0
4.0420003 -0.95915627 0.2134854 0
4.217 -0.38337165 0.19744594 0
4.2130003 -0.38989604 0.19766238 0
4.211 -0.39658996 0.19777063 0
4.211 -0.40346429 0.19777063 0
4.2120004 -0.41043422 0.1977165 0
4.2150002 -0.41760254 0.19755416 0
4.4200001 -0.60435081 0.18646075 0
4.4170003 -0.61118001 0.18662308 0
4.4150004 -0.61814094 0.18673129 0
4 -0.58497792 0.20918871 0
3.9950004 -0.59071404 0.20945929 0
3.9930003 -0.59689206 0.20956752 0
3.9910002 -0.60306287 0.20967576 0
3.9910002 -0.60954034 0.20967576 0
3.9930003 -0.61633533 0.20956752 0
3.9960003 -0.62329799 0.20940518 0
3.8860002 -0.69995981 0.21535775 0
3.8790002 -0.70492214 0.21573655 0
3.8730001 -0.71005034 0.21606123 0
3.8690002 -0.71554297 0.2162777 0
3.8650002 -0.72102118 0.21649414 0
3.8630002 -0.72687805 0.21660239 0
3.8610003 -0.73272783 0.2167106 0
3.8600004 -0.7387706 0.2167647 0
3.8600004 -0.74501175 0.2167647 0
3.8600004 -0.75125301 0.2167647 0
3.8620002 -0.75790542 0.21665651 0
3.8650002 -0.76477247 0.21649414 0
3.8690002 -0.77185965 0.2162777 0
3.8750002 -0.7793833 0.21595301 0
4.0560002 -0.88352978 0.20615833 0
4.0480003 -0.88827747 0.20659123 0
4.0430002 -0.89369428 0.20686182 0
4.039 -0.89932758 0.20707826 0
4.0350003 -0.90494645 0.20729473 0
4.033 -0.91102707 0.20740296 0
4.0310001 -0.91710049 0.20751117 0
4.0300002 -0.92340839 0.20756531 0
4.0300002 -0.9299562 0.20756531 0
4.0310001 -0.9367494 0.20751117 0
4.033 -0.94379324 0.20740296 0
4.0370002 -0.95134217 0.20718651 0
4.0420003 -0.95915627 0.20691592 0
4.217 -0.38337165 0.1905608 0
4.2130003 -0.38989604 0.19078447 0
4.211 -0.39658996 0.1908963 0
4.211 -0.40346429 0.1908963 0
4.2120004 -0.41043422 0.19084038 0
4.2150002 -0.41760254 0.19067264 0
4.4210005 -0.60448974 0.1791535 0
4.4170003 -0.61118001 0.17937718 0
4.4150004 -0.61814094 0.17948902 0
4 -0.58497792 0.20269501 0
3.9950004 -0.59071404 0.2029746 0
3.9930003 -0.59689206 0.20308645 0
3.9910002 -0.60306287 0.20319828 0
3.9910002 -0.60954034 0.20319828 0
3.9930003 -0.61633533 0.20308645 0
3.9960003 -0.62329799 0.20291869 0
3.8860002 -0.69995981 0.20906968 0
3.8790002 -0.70492214 0.20946111 0
3.8730001 -0.71005034 0.20979661 0
3.8690002 -0.71554297 0.21002029 0
3.8660002 -0.7212159 0.21018805 0
3.8630002 -0.72687805 0.21035579 0
3.8610003 -0.73272783 0.21046762 0
3.8600004 -0.7387706 0.21052353 0
3.8600004 -0.74501175 0.21052353 0
3.8600004 -0.75125301 0.21052353 0
3.8620002 -0.75790542 0.2104117 0
3.8650002 -0.76477247 0.21024394 0
3.8690002 -0.77185965 0.21002029 0
3.8750002 -0.7793833 0.20968477 0
4.0560002 -0.88352978 0.19956361 0
4.0490003 -0.88850832 0.19995503 0
4.0430002 -0.89369428 0.20029053 0
4.039 -0.89932758 0.20051421 0
4.0350003 -0.90494645 0.20073788 0
4.033 -0.91102707 0.20084973 0
4.0310001 -0.91710049 0.20096155 0
4.0300002 -0.92340839 0.20101747 0
4.0300002 -0.9299562 0.20101747 0
4.0310001 -0.9367494 0.20096155 0
4.033 -0.94379324 0.20084973 0
4.0370002 -0.95134217 0.20062606 0
4.0420003 -0.95915627 0.20034645 0
4.217 -0.38337165 0.18367566 0
4.2130003 -0.38989604 0.18390654 0
4.211 -0.39658996 0.18402199 0
4.211 -0.40346429 0.18402199 0
4.2120004 -0.41043422 0.18396427 0
4.2150002 -0.41760254 0.1837911 0
4.4210005 -0.60448974 0.17190039 0
4.4170003 -0.61118001 0.17213129 0
4.4150004 -0.61814094 0.17224672 0
4 -0.58497792 0.19620131 0
3.9960003 -0.59086555 0.19643219 0
3.9930003 -0.59689206 0.19660535 0
3.9910002 -0.60306287 0.19672081 0
3.9910002 -0.60954034 0.19672081 0
3.9930003 -0.61633533 0.19660535 0
3.9960003 -0.62329799 0.19643219 0
3.8860002 -0.69995981 0.2027816 0
3.8790002 -0.70492214 0.20318566 0
3.8730001 -0.71005034 0.203532 0
3.8690002 -0.71554297 0.20376287 0
3.8660002 -0.7212159 0.20393604 0
3.8630002 -0.72687805 0.20410921 0
3.8610003 -0.73272783 0.20422465 0
3.8600004 -0.7387706 0.20428236 0
3.8600004 -0.74501175 0.20428236 0
3.8600004 -0.75125301 0.20428236 0
3.8620002 -0.75790542 0.20416692 0
3.8650002 -0.76477247 0.20399375 0
3.8680003 -0.77165043 0.20382059 0
3.8750002 -0.7793833 0.20341654 0
4.0560002 -0.88352978 0.19296889 0
4.0490003 -0.88850832 0.19337294 0
4.0430002 -0.89369428 0.19371927 0
4.039 -0.89932758 0.19395015 0
4.0350003 -0.90494645 0.19418104 0
4.033 -0.91102707 0.19429648 0
4.0310001 -0.91710049 0.19441192 0
4.0300002 -0.92340839 0.19446966 0
4.0310001 -0.93019974 0.19441192 0
4.0310001 -0.9367494 0.19441192 0
4.033 -0.94379324 0.19429648 0
4.0370002 -0.95134217 0.1940656 0
4.0420003 -0.95915627 0.19377698 0
4.217 -0.38337165 0.17679052 0
4.2130003 -0.38989604 0.17702863 0
4.211 -0.39658996 0.17714769 0
4.211 -0.40346429 0.17714769 0
4.2120004 -0.41043422 0.17708816 0
4.2150002 -0.41760254 0.17690957 0
4.4210005 -0.60448974 0.16464728 0
4.4170003 -0.61118001 0.16488539 0
4.4150004 -0.61814094 0.16500443 0
4 -0.58497792 0.18970761 0
3.9960003 -0.59086555 0.1899457 0
3.9930003 -0.59689206 0.19012427 0
3.9910002 -0.60306287 0.19024333 0
3.9910002 -0.60954034 0.19024333 0
3.9930003 -0.61633533 0.19012427 0
3.9960003 -0.62329799 0.1899457 0
3.8860002 -0.69995981 0.19649354 0
3.8790002 -0.70492214 0.1969102 0
3.8730001 -0.71005034 0.19726737 0
3.8690002 -0.71554297 0.19750546 0
3.8660002 -0.7212159 0.19768403 0
3.8630002 -0.72687805 0.19786263 0
3.8610003 -0.73272783 0.19798167 0
3.8600004 -0.7387706 0.19804119 0
3.8600004 -0.74501175 0.19804119 0
3.8600004 -0.75125301 0.19804119 0
3.8620002 -0.75790542 0.19792214 0
3.8650002 -0.76477247 0.19774356 0
3.8680003 -0.77165043 0.19756497 0
3.8750002 -0.7793833 0.19714831 0
4.0560002 -0.88352978 0.18637416 0
4.0490003 -0.88850832 0.18679084 0
4.0430002 -0.89369428 0.187148 0
4.039 -0.89932758 0.1873861 0
4.0350003 -0.90494645 0.18762419 0
4.033 -0.91102707 0.18774325 0
4.0310001 -0.91710049 0.18786231 0
4.0300002 -0.92340839 0.18792184 0
4.0310001 -0.93019974 0.18786231 0
4.0310001 -0.9367494 0.18786231 0
4.033 -0.94379324 0.18774325 0
4.0370002 -0.95134217 0.18750516 0
4.0420003 -0.95915627 0.18720752 0
4.217 -0.38337165 0.16990539 0
4.2130003 -0.38989604 0.1701507 0
4.211 -0.39658996 0.17027336 0
4.211 -0.40346429 0.17027336 0
4.2120004 -0.41043422 0.17021205 0
4.2150002 -0.41760254 0.17002805 0
4.4210005 -0.60448974 0.15739416 0
4.4170003 -0.61118001 0.1576395 0
4.4150004 -0.61814094 0.15776214 0
4 -0.58497792 0.18321389 0
3.9960003 -0.59086555 0.18345921 0
3.9930003 -0.59689206 0.18364319 0
3.9910002 -0.60306287 0.18376586 0
3.9910002 -0.60954034 0.18376586 0
3.9930003 -0.61633533 0.18364319 0
3.9960003 -0.62329799 0.18345921 0
3.8870003 -0.70014745 0.19014412 0
3.8790002 -0.70492214 0.19063476 0
3.8730001 -0.71005034 0.19100274 0
3.8690002 -0.71554297 0.19124804 0
3.8660002 -0.7212159 0.19143204 0
3.8630002 -0.72687805 0.19161603 0
3.8610003 -0.73272783 0.19173869 0
3.8600004 -0.7387706 0.19180001 0
3.8600004 -0.74501175 0.19180001 0
3.8610003 -0.7514568 0.19173869 0
3.8620002 -0.75790542 0.19167735 0
3.8650002 -0.76477247 0.19149336 0
3.8680003 -0.77165043 0.19130938 0
3.8750002 -0.7793833 0.19088008 0
4.0560002 -0.88352978 0.17977944 0
4.0490003 -0.88850832 0.18020874 0
4.0430002 -0.89369428 0.18057671 0
4.039 -0.89932758 0.18082204 0
4.0350003 -0.90494645 0.18106735 0
4.033 -0.91102707 0.18119001 0
4.0310001 -0.91710049 0.18131267 0
4.0300002 -0.92340839 0.181374 0
4.0310001 -0.93019974 0.18131267 0
4.0310001 -0.9367494 0.18131267 0
4.033 -0.94379324 0.18119001 0
4.0370002 -0.95134217 0.1809447 0
4.0420003 -0.95915627 0.18063806 0
4.217 -0.38337165 0.16302027 0
4.2140002 -0.38998625 0.16320966 0
4.211 -0.39658996 0.16339904 0
4.211 -0.40346429 0.16339904 0
4.2120004 -0.41043422 0.1633359 0
4.2150002 -0.41760254 0.16314651 0
4.4210005 -0.60448974 0.15014106 0
4.4170003 -0.61118001 0.15039361 0
4.4150004 -0.61814094 0.15051985 0
4 -0.58497792 0.17672017 0
3.9960003 -0.59086555 0.1769727 0
3.9930003 -0.59689206 0.17716211 0
3.9910002 -0.60306287 0.17728838 0
3.9910002 -0.60954034 0.17728838 0
3.9930003 -0.61633533 0.17716211 0
3.9960003 -0.62329799 0.1769727 0
3.8870003 -0.70014745 0.18385424 0
3.8790002 -0.70492214 0.18435931 0
3.8740003 -0.71024156 0.18467498 0
3.8690002 -0.71554297 0.18499064 0
3.8660002 -0.7212159 0.18518004 0
3.8630002 -0.72687805 0.18536945 0
3.8610003 -0.73272783 0.18549569 0
3.8600004 -0.7387706 0.18555884 0
3.8600004 -0.74501175 0.18555884 0
3.8610003 -0.7514568 0.18549569 0
3.8620002 -0.75790542 0.18543257 0
3.8650002 -0.76477247 0.18524316 0
3.8680003 -0.77165043 0.18505377 0
3.8750002 -0.7793833 0.18461183 0
4.0560002 -0.88352978 0.17318471 0
4.0490003 -0.88850832 0.17362665 0
4.0430002 -0.89369428 0.17400545 0
4.039 -0.89932758 0.17425798 0
4.0350003 -0.90494645 0.17451051 0
4.033 -0.91102707 0.17463678 0
4.0310001 -0.91710049 0.17476304 0
4.0310001 -0.92365015 0.17476304 0
4.0310001 -0.93019974 0.17476304 0
4.0310001 -0.9367494 0.17476304 0
4.033 -0.94379324 0.17463678 0
4.0370002 -0.95134217 0.17438425 0
4.0420003 -0.95915627 0.17406857 0
4.2179999 -0.38346004 0.1560702 0
4.2140002 -0.38998625 0.15632994 0
4.211 -0.39658996 0.15652475 0
4.211 -0.40346429 0.15652475 0
4.2120004 -0.41043422 0.15645979 0
4.2150002 -0.41760254 0.15626498 0
4.4210005 -0.60448974 0.14288795 0
4.4170003 -0.61118001 0.14314771 0
4.4160004 -0.61828339 0.14321265 0
4 -0.58497792 0.17022647 0
3.9960003 -0.59086555 0.17048621 0
3.9930003 -0.59689206 0.17068103 0
3.9910002 -0.60306287 0.17081091 0
3.9910002 -0.60954034 0.17081091 0
3.9930003 -0.61633533 0.17068103 0
3.9960003 -0.62329799 0.17048621 0
3.8870003 -0.70014745 0.17756435 0
3.8790002 -0.70492214 0.17808387 0
3.8740003 -0.71024156 0.17840853 0
3.8690002 -0.71554297 0.17873323 0
3.8660002 -0.7212159 0.17892805 0
3.8630002 -0.72687805 0.17912287 0
3.8610003 -0.73272783 0.17925271 0
3.8600004 -0.7387706 0.17931765 0
3.8600004 -0.74501175 0.17931765 0
3.8610003 -0.7514568 0.17925271 0
3.8620002 -0.75790542 0.17918779 0
3.8650002 -0.76477247 0.17899297 0
3.8680003 -0.77165043 0.17879817 0
3.8750002 -0.7793833 0.17834361 0
4.0560002 -0.88352978 0.16659001 0
4.0490003 -0.88850832 0.16704454 0
4.0430002 -0.89369428 0.16743417 0
4.039 -0.89932758 0.16769391 0
4.0360003 -0.90518272 0.16788872 0
4.033 -0.91102707 0.16808353 0
4.0310001 -0.91710049 0.16821343 0
4.0310001 -0.92365015 0.16821343 0
4.0310001 -0.93019974 0.16821343 0
4.0310001 -0.9367494 0.16821343 0
4.033 -0.94379324 0.16808353 0
4.0370002 -0.95134217 0.16782379 0
4.0420003 -0.95915627 0.16749913 0
4.2179999 -0.38346004 0.14918324 0
4.2140002 -0.38998625 0.14945018 0
4.2120004 -0.39668199 0.1495837 0
4.211 -0.40346429 0.14965042 0
4.2120004 -0.41043422 0.1495837 0
4.2150002 -0.41760254 0.14938346 0
4.4210005 -0.60448974 0.13563484 0
4.4170003 -0.61118001 0.13590178 0
4.4160004 -0.61828339 0.13596854 0
4 -0.58497792 0.16373275 0
3.9960003 -0.59086555 0.16399974 0
3.9930003 -0.59689206 0.16419993 0
3.9910002 -0.60306287 0.16433343 0
3.9910002 -0.60954034 0.16433343 0
3.9930003 -0.61633533 0.16419993 0
3.9960003 -0.62329799 0.16399974 0
3.8870003 -0.70014745 0.17127447 0
3.8790002 -0.70492214 0.17180841 0
3.8740003 -0.71024156 0.1721421 0
3.8690002 -0.71554297 0.17247583 0
3.8660002 -0.7212159 0.17267604 0
3.8630002 -0.72687805 0.17287628 0
3.8610003 -0.73272783 0.17300974 0
3.8600004 -0.7387706 0.17307648 0
3.8600004 -0.74501175 0.17307648 0
3.8610003 -0.7514568 0.17300974 0
3.8620002 -0.75790542 0.172943 0
3.8650002 -0.76477247 0.17274278 0
3.8680003 -0.77165043 0.17254256 0
3.8750002 -0.7793833 0.17207536 0
4.0560002 -0.88352978 0.15999527 0
4.0490003 -0.88850832 0.16046247 0
4.0430002 -0.89369428 0.16086291 0
4.039 -0.89932758 0.16112986 0
4.0360003 -0.90518272 0.16133007 0
4.033 -0.91102707 0.16153032 0
4.0310001 -0.91710049 0.16166377 0
4.0310001 -0.92365015 0.16166377 0
4.0310001 -0.93019974 0.16166377 0
4.0310001 -0.9367494 0.16166377 0
4.033 -0.94379324 0.16153032 0
4.0370002 -0.95134217 0.16126336 0
4.0420003 -0.95915627 0.16092962 0
4.2179999 -0.38346004 0.14229631 0
4.2140002 -0.38998625 0.14257047 0
4.2120004 -0.39668199 0.14270756 0
4.211 -0.40346429 0.1427761 0
4.2120004 -0.41043422 0.14270756 0
4.2150002 -0.41760254 0.14250192 0
4.4210005 -0.60448974 0.1283817 0
4.4170003 -0.61118001 0.12865588 0
4.4160004 -0.61828339 0.12872443 0
4 -0.58497792 0.15723905 0
3.9960003 -0.59086555 0.15751322 0
3.9930003 -0.59689206 0.15771885 0
3.9920003 -0.60321802 0.15778741 0
3.9910002 -0.60954034 0.15785594 0
3.9930003 -0.61633533 0.15771885 0
3.9960003 -0.62329799 0.15751322 0
3.8870003 -0.70014745 0.16498458 0
3.8790002 -0.70492214 0.16553298 0
3.8740003 -0.71024156 0.16587567 0
3.8690002 -0.71554297 0.1662184 0
3.8660002 -0.7212159 0.16642404 0
3.8630002 -0.72687805 0.16662967 0
3.8610003 -0.73272783 0.16676676 0
3.8610003 -0.73897082 0.16676676 0
3.8600004 -0.74501175 0.16683529 0
3.8610003 -0.7514568 0.16676676 0
3.8620002 -0.75790542 0.16669823 0
3.8650002 -0.76477247 0.16649257 0
3.8680003 -0.77165043 0.16628695 0
3.8740003 -0.7791723 0.16587567 0
4.0560002 -0.88352978 0.15340054 0
4.0490003 -0.88850832 0.15388036 0
4.0430002 -0.89369428 0.15429163 0
4.039 -0.89932758 0.1545658 0
4.0360003 -0.90518272 0.15477145 0
4.033 -0.91102707 0.15497708 0
4.0310001 -0.91710049 0.15511416 0
4.0310001 -0.92365015 0.15511416 0
4.0310001 -0.93019974 0.15511416 0
4.0310001 -0.9367494 0.15511416 0
4.033 -0.94379324 0.15497708 0
4.0370002 -0.95134217 0.15470289 0
4.0420003 -0.95915627 0.15436016 0
4.2179999 -0.38346004 0.13540936 0
4.2140002 -0.38998625 0.13569075 0
4.2120004 -0.39668199 0.13583145 0
4.211 -0.40346429 0.13590181 0
4.2120004 -0.41043422 0.13583145 0
4.2150002 -0.41760254 0.13562039 0
4.4210005 -0.60448974 0.12112859 0
4.4170003 -0.61118001 0.12141001 0
4.4160004 -0.61828339 0.12148035 0
4.0009999 -0.58512759 0.150675 0
3.9960003 -0.59086555 0.15102673 0
3.9930003 -0.59689206 0.15123776 0
3.9920003 -0.60321802 0.15130812 0
3.9910002 -0.60954034 0.15137848 0
3.9930003 -0.61633533 0.15123776 0
3.9960003 -0.62329799 0.15102673 0
3.8870003 -0.70014745 0.15869471 0
3.8800004 -0.70511156 0.15918714 0
3.8740003 -0.71024156 0.15960924 0
3.8690002 -0.71554297 0.159961 0
3.8660002 -0.7212159 0.16017206 0
3.8630002 -0.72687805 0.16038309 0
3.8610003 -0.73272783 0.16052379 0
3.8610003 -0.73897082 0.16052379 0
3.8600004 -0.74501175 0.16059411 0
3.8610003 -0.7514568 0.16052379 0
3.8620002 -0.75790542 0.16045344 0
3.8650002 -0.76477247 0.16024238 0
3.8680003 -0.77165043 0.16003133 0
3.8740003 -0.7791723 0.15960924 0
4.0560002 -0.88352978 0.14680582 0
4.0490003 -0.88850832 0.14729828 0
4.0440001 -0.89392704 0.14765 0
4.039 -0.89932758 0.14800176 0
4.0360003 -0.90518272 0.14821279 0
4.033 -0.91102707 0.14842382 0
4.0320001 -0.9173404 0.14849418 0
4.0310001 -0.92365015 0.14856452 0
4.0310001 -0.93019974 0.14856452 0
4.0310001 -0.9367494 0.14856452 0
4.033 -0.94379324 0.14842382 0
4.0370002 -0.95134217 0.14814246 0
4.0420003 -0.95915627 0.1477907 0
4.2179999 -0.38346004 0.12852243 0
4.2140002 -0.38998625 0.12881106 0
4.2120004 -0.39668199 0.12895533 0
4.211 -0.40346429 0.12902749 0
4.2120004 -0.41043422 0.12895533 0
4.2150002 -0.41760254 0.12873888 0
4.4210005 -0.60448974 0.11387548 0
4.4180002 -0.61132073 0.11409196 0
4.4160004 -0.61828339 0.11423624 0
4.0009999 -0.58512759 0.14417946 0
3.9960003 -0.59086555 0.14454022 0
3.9930003 -0.59689206 0.1447567 0
3.9920003 -0.60321802 0.14482886 0
3.9910002 -0.60954034 0.14490101 0
3.9930003 -0.61633533 0.1447567 0
3.9960003 -0.62329799 0.14454022 0
3.8870003 -0.70014745 0.15240484 0
3.8800004 -0.70511156 0.1529099 0
3.8740003 -0.71024156 0.15334281 0
3.8690002 -0.71554297 0.15370357 0
3.8660002 -0.7212159 0.15392005 0
3.8630002 -0.72687805 0.15413651 0
3.8610003 -0.73272783 0.15428081 0
3.8610003 -0.73897082 0.15428081 0
3.8600004 -0.74501175 0.15435295 0
3.8610003 -0.7514568 0.15428081 0
3.8620002 -0.75790542 0.15420865 0
3.8650002 -0.76477247 0.15399221 0
3.8680003 -0.77165043 0.15377575 0
3.8740003 -0.7791723 0.15334281 0
4.0570002 -0.88375884 0.14013895 0
4.0490003 -0.88850832 0.14071617 0
4.0440001 -0.89392704 0.14107692 0
4.039 -0.89932758 0.14143768 0
4.0360003 -0.90518272 0.14165416 0
4.033 -0.91102707 0.14187059 0
4.0320001 -0.9173404 0.14194274 0
4.0310001 -0.92365015 0.14201492 0
4.0310001 -0.93019974 0.14201492 0
4.0310001 -0.9367494 0.14201492 0
4.033 -0.94379324 0.14187059 0
4.0370002 -0.95134217 0.14158198 0
4.0420003 -0.95915627 0.14122123 0
4.2179999 -0.38346004 0.12163547 0
4.2140002 -0.38998625 0.12193131 0
4.2120004 -0.39668199 0.12207922 0
4.211 -0.40346429 0.12215316 0
4.2120004 -0.41043422 0.12207922 0
4.2150002 -0.41760254 0.12185735 0
4.4210005 -0.60448974 0.10662237 0
4.4180002 -0.61132073 0.10684425 0
4.4160004 -0.61828339 0.10699216 0
4.0009999 -0.58512759 0.13768396 0
3.9960003 -0.59086555 0.13805375 0
3.9930003 -0.59689206 0.13827562 0
3.9920003 -0.60321802 0.13834956 0
3.9910002 -0.60954034 0.13842353 0
3.9930003 -0.61633533 0.13827562 0
3.9960003 -0.62329799 0.13805375 0
3.8870003 -0.70014745 0.14611495 0
3.8800004 -0.70511156 0.14663264 0
3.8740003 -0.71024156 0.1470764 0
3.8690002 -0.71554297 0.14744619 0
3.8660002 -0.7212159 0.14766803 0
3.8630002 -0.72687805 0.14788991 0
3.8610003 -0.73272783 0.14803782 0
3.8610003 -0.73897082 0.14803782 0
3.8600004 -0.74501175 0.14811176 0
3.8610003 -0.7514568 0.14803782 0
3.8620002 -0.75790542 0.14796388 0
3.8650002 -0.76477247 0.147742 0
3.8680003 -0.77165043 0.14752012 0
3.8740003 -0.7791723 0.1470764 0
4.0570002 -0.88375884 0.13354245 0
4.0490003 -0.88850832 0.13413405 0
4.0440001 -0.89392704 0.13450384 0
4.039 -0.89932758 0.13487363 0
4.0360003 -0.90518272 0.13509551 0
4.033 -0.91102707 0.13531739 0
4.0320001 -0.9173404 0.13539132 0
4.0310001 -0.92365015 0.13546526 0
4.0310001 -0.93019974 0.13546526 0
4.0310001 -0.9367494 0.13546526 0
4.033 -0.94379324 0.13531739 0
4.0370002 -0.95134217 0.13502154 0
4.0420003 -0.95915627 0.13465175 0
4.2179999 -0.38346004 0.11474854 0
4.2140002 -0.38998625 0.1150516 0
4.2120004 -0.39668199 0.11520311 0
4.211 -0.40346429 0.11527884 0
4.2120004 -0.41043422 0.11520311 0
4.2150002 -0.41760254 0.11497581 0
4.4210005 -0.60448974 0.099369258 0
4.4180002 -0.61132073 0.09959653 0
4.4160004 -0.61828339 0.099748075 0
4.0009999 -0.58512759 0.13118845 0
3.9960003 -0.59086555 0.13156724 0
3.9930003 -0.59689206 0.13179454 0
3.9920003 -0.60321802 0.13187027 0
3.9920003 -0.60969734 0.13187027 0
3.9930003 -0.61633533 0.13179454 0
3.9960003 -0.62329799 0.13156724 0
3.8870003 -0.70014745 0.13982508 0
3.8800004 -0.70511156 0.14035541 0
3.8740003 -0.71024156 0.14080995 0
3.8690002 -0.71554297 0.14118877 0
3.8660002 -0.7212159 0.14141604 0
3.8640003 -0.72707468 0.14156756 0
3.8620002 -0.73292625 0.14171907 0
3.8610003 -0.73897082 0.14179483 0
3.8600004 -0.74501175 0.14187059 0
3.8610003 -0.7514568 0.14179483 0
3.8620002 -0.75790542 0.14171907 0
3.8650002 -0.76477247 0.14149183 0
3.8680003 -0.77165043 0.14126453 0
3.8740003 -0.7791723 0.14080995 0
4.0570002 -0.88375884 0.12694588 0
4.0490003 -0.88850832 0.12755197 0
4.0440001 -0.89392704 0.12793076 0
4.039 -0.89932758 0.12830955 0
4.0360003 -0.90518272 0.12853685 0
4.033 -0.91102707 0.12876415 0
4.0320001 -0.9173404 0.12883988 0
4.0310001 -0.92365015 0.12891564 0
4.0310001 -0.93019974 0.12891564 0
4.0310001 -0.9367494 0.12891564 0
4.033 -0.94379324 0.12876415 0
4.0370002 -0.95134217 0.12846112 0
4.2179999 -0.38346004 0.10786161 0
4.2140002 -0.38998625 0.10817188 0
4.2120004 -0.39668199 0.10832697 0
4.211 -0.40346429 0.10840455 0
4.2120004 -0.41043422 0.10832697 0
4.2150002 -0.41760254 0.10809427 0
4.4210005 -0.60448974 0.092116147 0
4.4180002 -0.61132073 0.092348874 0
4.4160004 -0.61828339 0.092503965 0
4.0009999 -0.58512759 0.12469295 0
3.9960003 -0.59086555 0.12508076 0
3.9930003 -0.59689206 0.12531343 0
3.9920003 -0.60321802 0.12539101 0
3.9920003 -0.60969734 0.12539101 0
3.9930003 -0.61633533 0.12531343 0
3.9960003 -0.62329799 0.12508076 0
3.8870003 -0.70014745 0.13353521 0
3.8800004 -0.70511156 0.13407815 0
3.8740003 -0.71024156 0.13454354 0
3.8690002 -0.71554297 0.13493136 0
3.8660002 -0.7212159 0.13516405 0
3.8640003 -0.72707468 0.13531917 0
3.8620002 -0.73292625 0.13547429 0
3.8610003 -0.73897082 0.13555184 0
3.8600004 -0.74501175 0.13562942 0
3.8610003 -0.7514568 0.13555184 0
3.8620002 -0.75790542 0.13547429 0
3.8650002 -0.76477247 0.1352416 0
3.8680003 -0.77165043 0.1350089 0
3.8740003 -0.7791723 0.13454354 0
4.0570002 -0.88375884 0.12034938 0
4.0490003 -0.88850832 0.12096986 0
4.0440001 -0.89392704 0.12135768 0
4.039 -0.89932758 0.12174553 0
4.0360003 -0.90518272 0.12197819 0
4.033 -0.91102707 0.12221089 0
4.0320001 -0.9173404 0.12228847 0
4.0310001 -0.92365015 0.12236601 0
4.0310001 -0.93019974 0.12236601 0
4.0310001 -0.9367494 0.12236601 0
4.033 -0.94379324 0.12221089 0
4.0370002 -0.95134217 0.12190065 0
4.2179999 -0.38346004 0.10097468 0
4.2140002 -0.38998625 0.10129213 0
4.2120004 -0.39668199 0.10145086 0
4.211 -0.40346429 0.10153022 0
4.2120004 -0.41043422 0.10145086 0
4.2150002 -0.41760254 0.10121274 0
4.4210005 -0.60448974 0.084863037 0
4.4180002 -0.61132073 0.085101157 0
4.4160004 -0.61828339 0.085259885 0
4.0009999 -0.58512759 0.11819744 0
3.9960003 -0.59086555 0.11859426 0
3.9930003 -0.59689206 0.11883235 0
3.9920003 -0.60321802 0.11891174 0
3.9920003 -0.60969734 0.11891174 0
3.9930003 -0.61633533 0.11883235 0
3.9960003 -0.62329799 0.11859426 0
3.8880002 -0.70033503 0.12716597 0
3.8800004 -0.70511156 0.12780088 0
3.8740003 -0.71024156 0.12827712 0
3.8690002 -0.71554297 0.12867394 0
3.8660002 -0.7212159 0.12891206 0
3.8640003 -0.72707468 0.12907076 0
3.8620002 -0.73292625 0.12922952 0
3.8610003 -0.73897082 0.12930888 0
3.8600004 -0.74501175 0.12938824 0
3.8610003 -0.7514568 0.12930888 0
3.8620002 -0.75790542 0.12922952 0
3.8650002 -0.76477247 0.12899143 0
3.8680003 -0.77165043 0.1287533 0
3.8740003 -0.7791723 0.12827712 0
4.0570002 -0.88375884 0.11375284 0
4.0500002 -0.88873917 0.11430842 0
4.0440001 -0.89392704 0.1147846 0
4.039 -0.89932758 0.11518145 0
4.0360003 -0.90518272 0.11541957 0
4.0339999 -0.91126513 0.11557832 0
4.0320001 -0.9173404 0.11573702 0
4.0310001 -0.92365015 0.11581638 0
4.0310001 -0.93019974 0.11581638 0
4.0310001 -0.9367494 0.11581638 0
4.033 -0.94379324 0.11565766 0
4.0370002 -0.95134217 0.1153402 0
4.2179999 -0.38346004 0.09408775 0
4.2140002 -0.38998625 0.094412416 0
4.2120004 -0.39668199 0.094574749 0
4.211 -0.40346429 0.094655931 0
4.2120004 -0.41043422 0.094574749 0
4.2150002 -0.41760254 0.094331205 0
4.4210005 -0.60448974 0.077609897 0
4.4180002 -0.61132073 0.077853441 0
4.4160004 -0.61828339 0.078015774 0
4.0009999 -0.58512759 0.11170194 0
3.9960003 -0.59086555 0.11210775 0
3.9930003 -0.59689206 0.11235127 0
3.9920003 -0.60321802 0.11243245 0
3.9920003 -0.60969734 0.11243245 0
3.9930003 -0.61633533 0.11235127 0
3.9960003 -0.62329799 0.11210775 0
3.8880002 -0.70033503 0.12087429 0
3.8800004 -0.70511156 0.12152365 0
3.8740003 -0.71024156 0.12201065 0
3.8700004 -0.71573597 0.12233534 0
3.8660002 -0.7212159 0.12266004 0
3.8640003 -0.72707468 0.1228224 0
3.8620002 -0.73292625 0.12298474 0
3.8610003 -0.73897082 0.12306589 0
3.8600004 -0.74501175 0.12314707 0
3.8610003 -0.7514568 0.12306589 0
3.8620002 -0.75790542 0.12298474 0
3.8650002 -0.76477247 0.12274122 0
3.8680003 -0.77165043 0.12249768 0
3.8740003 -0.7791723 0.12201065 0
4.0570002 -0.88375884 0.10715634 0
4.0500002 -0.88873917 0.10772452 0
4.0440001 -0.89392704 0.10821155 0
4.039 -0.89932758 0.1086174 0
4.0360003 -0.90518272 0.10886091 0
4.0339999 -0.91126513 0.10902327 0
4.0320001 -0.9173404 0.10918561 0
4.0310001 -0.92365015 0.10926676 0
4.0310001 -0.93019974 0.10926676 0
4.0310001 -0.9367494 0.10926676 0
4.033 -0.94379324 0.10910442 0
4.2179999 -0.38346004 0.087200791 0
4.2140002 -0.38998625 0.087532699 0
4.2120004 -0.39668199 0.087698609 0
4.211 -0.40346429 0.087781638 0
4.2120004 -0.41043422 0.087698609 0
4.2150002 -0.41760254 0.0874497 0
4.4220004 -0.60462862 0.070273846 0
4.4180002 -0.61132073 0.070605755 0
4.0009999 -0.58512759 0.10520643 0
3.9960003 -0.59086555 0.10562125 0
3.9930003 -0.59689206 0.10587019 0
3.9920003 -0.60321802 0.10595316 0
3.9920003 -0.60969734 0.10595316 0
3.9930003 -0.61633533 0.10587019 0
3.9960003 -0.62329799 0.10562125 0
3.8880002 -0.70033503 0.11458257 0
3.8800004 -0.70511156 0.11524639 0
3.8740003 -0.71024156 0.11574423 0
3.8700004 -0.71573597 0.11607614 0
3.8660002 -0.7212159 0.11640805 0
3.8640003 -0.72707468 0.11657399 0
3.8620002 -0.73292625 0.11673996 0
3.8610003 -0.73897082 0.11682293 0
3.8600004 -0.74501175 0.11690587 0
3.8610003 -0.7514568 0.11682293 0
3.8620002 -0.75790542 0.11673996 0
3.8650002 -0.76477247 0.11649102 0
3.8680003 -0.77165043 0.11624208 0
3.8740003 -0.7791723 0.11574423 0
4.0500002 -0.88873917 0.10114062 0
4.0440001 -0.89392704 0.10163847 0
4.039 -0.89932758 0.10205334 0
4.0360003 -0.90518272 0.10230225 0
4.0339999 -0.91126513 0.10246822 0
4.0320001 -0.9173404 0.10263416 0
4.0310001 -0.92365015 0.10271713 0
4.0310001 -0.93019974 0.10271713 0
4.0310001 -0.9367494 0.10271713 0
4.033 -0.94379324 0.10255119 0
4.2179999 -0.38346004 0.080313861 0
4.2140002 -0.38998625 0.080652952 0
4.2120004 -0.39668199 0.080822498 0
4.211 -0.40346429 0.080907315 0
4.2120004 -0.41043422 0.080822498 0
4.2150002 -0.41760254 0.080568194 0
4.0009999 -0.58512759 0.098710895 0
3.9960003 -0.59086555 0.099134773 0
3.9930003 -0.59689206 0.099389136 0
3.9920003 -0.60321802 0.099473894 0
3.9920003 -0.60969734 0.099473894 0
3.9930003 -0.61633533 0.099389136 0
3.9960003 -0.62329799 0.099134773 0
3.8880002 -0.70033503 0.10829091 0
3.8800004 -0.70511156 0.10896912 0
3.8740003 -0.71024156 0.10947779 0
3.8700004 -0.71573597 0.10981691 0
3.8660002 -0.7212159 0.11015606 0
3.8640003 -0.72707468 0.1103256 0
3.8620002 -0.73292625 0.11049518 0
3.8610003 -0.73897082 0.11057994 0
3.8600004 -0.74501175 0.11066473 0
3.8610003 -0.7514568 0.11057994 0
3.8620002 -0.75790542 0.11049518 0
3.8650002 -0.76477247 0.11024082 0
3.8680003 -0.77165043 0.10998648 0
4.0490003 -0.88850832 0.094641507 0
4.0440001 -0.89392704 0.095065355 0
4.0380001 -0.89909309 0.095574051 0
4.0320001 -0.90423751 0.096082717 0
4.027 -0.90959841 0.096506625 0
4.0210004 -0.91470146 0.097015291 0
4.0160003 -0.92002451 0.0974392 0
4.0100002 -0.9250859 0.097947866 0
4.0050001 -0.93037111 0.098371744 0
3.9990003 -0.93539107 0.09888044 0
4.2190003 -0.38354844 0.073340327 0
4.2140002 -0.38998625 0.073773235 0
4.2120004 -0.39668199 0.073946387 0
4.211 -0.40346429 0.074032992 0
4.2120004 -0.41043422 0.073946387 0
4.2150002 -0.41760254 0.073686659 0
4.0009999 -0.58512759 0.092215359 0
3.9960003 -0.59086555 0.092648298 0
3.9930003 -0.59689206 0.092908025 0
3.9920003 -0.60321802 0.092994601 0
3.9920003 -0.60969734 0.092994601 0
3.9930003 -0.61633533 0.092908025 0
3.9960003 -0.62329799 0.092648298 0
3.9000003 -0.69627291 0.10096022 0
3.8880002 -0.70033503 0.10199922 0
3.8800004 -0.70511156 0.10269189 0
3.8740003 -0.71024156 0.10321137 0
3.8700004 -0.71573597 0.10355771 0
3.8660002 -0.7212159 0.10390404 0
3.8640003 -0.72707468 0.10407722 0
3.8620002 -0.73292625 0.10425037 0
3.8610003 -0.73897082 0.10433698 0
3.8600004 -0.74501175 0.10442352 0
3.8610003 -0.7514568 0.10433698 0
3.8620002 -0.75790542 0.10425037 0
3.8650002 -0.76477247 0.10399064 0
3.8680003 -0.77165043 0.10373089 0
4.0380001 -0.89909309 0.089011818 0
4.0320001 -0.90423751 0.089531302 0
4.027 -0.90959841 0.089964211 0
4.0210004 -0.91470146 0.090483695 0
4.0160003 -0.92002451 0.090916634 0
4.0100002 -0.9250859 0.091436148 0
4.0050001 -0.93037111 0.091869026 0
3.9990003 -0.93539107 0.092388511 0
3.9940002 -0.94063836 0.092821449 0
3.9880002 -0.94561684 0.093340963 0
3.9830003 -0.95082629 0.093773872 0
3.9770002 -0.95576334 0.094293356 0
3.9720004 -0.96093482 0.094726264 0
3.9660003 -0.96583039 0.095245749 0
3.9610002 -0.97096395 0.095678687 0
3.9550002 -0.9758181 0.096198201 0
4.2190003 -0.38354844 0.066451579 0
4.2140002 -0.38998625 0.066893518 0
4.2120004 -0.39668199 0.067070276 0
4.211 -0.40346429 0.067158699 0
4.2120004 -0.41043422 0.067070276 0
4.2150002 -0.41760254 0.066805124 0
4.0009999 -0.58512759 0.085719854 0
3.9960003 -0.59086555 0.086161792 0
3.9930003 -0.59689206 0.086426944 0
3.9920003 -0.60321802 0.086515337 0
3.9920003 -0.60969734 0.086515337 0
3.9930003 -0.61633533 0.086426944 0
3.9960003 -0.62329799 0.086161792 0
3.8970003 -0.68940759 0.094912052 0
3.8910003 -0.69460076 0.095442384 0
3.8850002 -0.69977224 0.095972717 0
3.8800004 -0.70511156 0.096414626 0
3.8740003 -0.71024156 0.096944958 0
3.8700004 -0.71573597 0.097298503 0
3.8660002 -0.7212159 0.097652048 0
3.8640003 -0.72707468 0.097828835 0
3.8620002 -0.73292625 0.098005593 0
3.8610003 -0.73897082 0.098093987 0
3.8600004 -0.74501175 0.09818238 0
3.8610003 -0.7514568 0.098093987 0
3.8620002 -0.75790542 0.098005593 0
3.8650002 -0.76477247 0.097740442 0
4.0160003 -0.92002451 0.084394068 0
4.0100002 -0.9250859 0.0849244 0
4.0050001 -0.93037111 0.085366279 0
3.9990003 -0.93539107 0.085896611 0
3.9940002 -0.94063836 0.08633858 0
3.9880002 -0.94561684 0.086868912 0
3.9830003 -0.95082629 0.087310791 0
3.9770002 -0.95576334 0.087841123 0
3.9720004 -0.96093482 0.088283062 0
3.9660003 -0.96583039 0.088813394 0
3.9610002 -0.97096395 0.089255333 0
3.9560003 -0.97607964 0.089697242 0
3.9500003 -0.98091388 0.090227574 0
3.9450002 -0.98599148 0.090669513 0
4.2190003 -0.38354844 0.059562832 0
4.2140002 -0.38998625 0.060013771 0
4.2120004 -0.39668199 0.060194165 0
4.211 -0.40346429 0.060284376 0
4.2120004 -0.41043422 0.060194165 0
4.2150002 -0.41760254 0.059923589 0
4.0009999 -0.58512759 0.079224348 0
3.9970002 -0.59101707 0.079585105 0
3.9930003 -0.59689206 0.079945862 0
3.9920003 -0.60321802 0.080036074 0
3.9920003 -0.60969734 0.080036074 0
3.9930003 -0.61633533 0.079945862 0
3.9960003 -0.62329799 0.079675317 0
3.8970003 -0.68940759 0.088604152 0
3.8910003 -0.69460076 0.089145303 0
3.8850002 -0.69977224 0.089686453 0
3.8800004 -0.70511156 0.090137362 0
3.8740003 -0.71024156 0.090678513 0
3.8690002 -0.71554297 0.091129482 0
3.8630002 -0.72063148 0.091670603 0
3.8570004 -0.72569841 0.092211753 0
3.8520002 -0.73094201 0.092662722 0
3.8460002 -0.73596746 0.093203872 0
3.8410003 -0.74117327 0.093654782 0
3.8350003 -0.74615723 0.094195932 0
3.8300002 -0.75132513 0.094646931 0
3.8250003 -0.75647497 0.09509784 0
3.8190002 -0.76139754 0.09563899 0
4.0050001 -0.93037111 0.078863561 0
3.9990003 -0.93539107 0.079404712 0
3.9940002 -0.94063836 0.07985568 0
3.9880002 -0.94561684 0.080396801 0
3.9830003 -0.95082629 0.08084777 0
3.9770002 -0.95576334 0.081388921 0
3.9720004 -0.96093482 0.081839859 0
3.9660003 -0.96583039 0.08238098 0
3.9610002 -0.97096395 0.082831979 0
3.9560003 -0.97607964 0.083282888 0
3.9500003 -0.98091388 0.083824039 0
3.9450002 -0.98599148 0.084275007 0
3.9400003 -0.99105126 0.084725946 0
3.9410002 -0.99770546 0.084635764 0
3.9480002 -1.0059867 0.084004432 0
3.9560003 -1.0145657 0.083282888 0
4.2140002 -0.38998625 0.053134054 0
4.2120004 -0.39668199 0.053318024 0
4.211 -0.40346429 0.053410053 0
4.2120004 -0.41043422 0.053318024 0
4.0020003 -0.58527738 0.072636843 0
3.9970002 -0.59101707 0.073096812 0
3.9940002 -0.59704542 0.073372781 0
3.9920003 -0.60321802 0.073556751 0
3.9920003 -0.60969734 0.073556751 0
3.9930003 -0.61633533 0.073464781 0
3.9960003 -0.62329799 0.073188782 0
3.8970003 -0.68940759 0.082296222 0
3.8910003 -0.69460076 0.082848191 0
3.8850002 -0.69977224 0.08340016 0
3.8800004 -0.70511156 0.083860129 0
3.8740003 -0.71024156 0.084412098 0
3.8690002 -0.71554297 0.084872067 0
3.8630002 -0.72063148 0.085424036 0
3.8580003 -0.72589505 0.085884005 0
3.8520002 -0.73094201 0.086435974 0
3.8470004 -0.73616773 0.086895943 0
3.8410003 -0.74117327 0.087447882 0
3.8360002 -0.74636102 0.087907881 0
3.8300002 -0.75132513 0.088459849 0
3.8250003 -0.75647497 0.088919818 0
3.8190002 -0.76139754 0.089471787 0
3.8140004 -0.76650953 0.089931726 0
3.8080003 -0.77139068 0.090483695 0
3.8030002 -0.77646476 0.090943694 0
3.7980003 -0.7815209 0.091403633 0
3.7920003 -0.78634065 0.091955632 0
3.7870002 -0.79135883 0.092415601 0
3.7820003 -0.796359 0.09287557 0
3.7760003 -0.80111742 0.093427539 0
4.0050001 -0.93037111 0.072360843 0
3.9990003 -0.93539107 0.072912812 0
3.9940002 -0.94063836 0.073372781 0
3.9880002 -0.94561684 0.07392475 0
3.9830003 -0.95082629 0.074384749 0
3.9770002 -0.95576334 0.074936688 0
3.9720004 -0.96093482 0.075396657 0
3.9660003 -0.96583039 0.075948626 0
3.9610002 -0.97096395 0.076408595 0
