# .PCD v0.7 - Point Cloud Data file format
VERSION 0.7
FIELDS x y z intensity
SIZE 4 4 4 4
TYPE F F F F
COUNT 1 1 1 1
WIDTH 1415
HEIGHT 1
VIEWPOINT 0 0 0 1 0 0 0
POINTS 1415
DATA ascii
2.9470003 0.55585325 0.72100669 0
2.9490001 0.55172789 0.7212556 0
2.9500003 0.54736269 0.72138011 0
2.9510002 0.5429939 0.72150457 0
2.9530003 0.53885055 0.72175348 0
2.9540002 0.5344727 0.72187793 0
2.8720002 0.50691772 0.71167195 0
2.8650002 0.50090563 0.71080077 0
2.8600001 0.49535888 0.71017838 0
2.8560002 0.49004853 0.70968056 0
2.8420002 0.48258793 0.70793808 0
2.8370001 0.47710973 0.7073158 0
2.8330002 0.47186255 0.70681792 0
2.8290002 0.46662968 0.70632005 0
2.8270001 0.46182972 0.70607114 0
2.8260002 0.45724446 0.70594668 0
2.8250003 0.45266277 0.70582223 0
2.8260002 0.44849235 0.70594668 0
2.8260002 0.44411632 0.70594668 0
2.8290002 0.44034097 0.70632005 0
2.8320003 0.43655479 0.70669347 0
2.8370001 0.43315095 0.7073158 0
2.8420002 0.42972919 0.70793808 0
2.8500001 0.42686829 0.70893383 0
3.0690002 0.86391485 0.73137677 0
3.0700002 0.85943955 0.73149943 0
3.0710003 0.8549608 0.7316221 0
3.0730002 0.85081375 0.73186743 0
3.0740001 0.84632587 0.7319901 0
2.7390003 0.7134394 0.69089937 0
2.7330003 0.70728296 0.69016337 0
2.7280002 0.70146924 0.68955004 0
2.7250001 0.69631213 0.6891821 0
2.7220001 0.69116586 0.6888141 0
2.7210002 0.68666178 0.68869144 0
2.7200003 0.68216133 0.68856883 0
2.7200003 0.67797649 0.68856883 0
2.7210002 0.67410189 0.68869144 0
2.7230003 0.67053217 0.68893683 0
2.7250001 0.66695517 0.6891821 0
2.7280002 0.66367584 0.68955004 0
2.7330003 0.66099185 0.69016337 0
2.7370002 0.65798849 0.69065404 0
2.7440002 0.65586895 0.69151258 0
2.7510002 0.65372425 0.69237125 0
2.7610002 0.65244174 0.69359779 0
2.9080002 0.67783219 0.71162868 0
2.9090002 0.67359501 0.71175134 0
2.9110003 0.66963929 0.71199667 0
2.9120002 0.66539305 0.71211934 0
2.9130001 0.6611433 0.71224201 0
2.9150002 0.65716952 0.71248728 0
2.9160001 0.65291077 0.71260995 0
2.9170003 0.64864838 0.71273261 0
2.9190001 0.64465648 0.71297795 0
2.9200003 0.64038509 0.71310061 0
2.9210002 0.63611007 0.71322322 0
2.9230001 0.63210016 0.71346855 0
2.9240003 0.6278162 0.71359122 0
2.9250002 0.62352854 0.71371388 0
2.9270003 0.61950064 0.71395922 0
2.9280002 0.61520398 0.71408188 0
2.9290001 0.61090362 0.71420455 0
2.9310002 0.60685772 0.71444982 0
2.9320002 0.60254842 0.71457249 0
2.9340003 0.59848988 0.71481782 0
2.9350002 0.59417152 0.71494043 0
2.9360001 0.58984959 0.7150631 0
2.9380002 0.58577299 0.71530843 0
2.9390001 0.58144206 0.71543109 0
2.9400003 0.57710755 0.71555376 0
2.9420002 0.57301289 0.71579909 0
2.9430003 0.56866932 0.71592176 0
2.9440002 0.56432211 0.71604443 0
2.9460001 0.56020939 0.71628976 0
2.9470003 0.55585325 0.71641243 0
2.9490001 0.55172789 0.7166577 0
2.9500003 0.54736269 0.71678036 0
2.9510002 0.5429939 0.71690297 0
2.9530003 0.53885055 0.71714836 0
2.9540002 0.5344727 0.71727097 0
2.8700001 0.50647038 0.70696765 0
2.8630002 0.50046188 0.70610905 0
2.8580003 0.49491882 0.70549572 0
2.8410003 0.48677462 0.70341057 0
2.8340001 0.4808563 0.7025519 0
2.8290002 0.47539258 0.70193863 0
2.8250003 0.47015977 0.70144796 0
2.8210001 0.46494126 0.70095736 0
2.8190002 0.46015579 0.70071203 0
2.8170002 0.45537752 0.70046675 0
2.8160002 0.45081207 0.70034409 0
2.8170002 0.4466579 0.70046675 0
2.8170002 0.44229808 0.70046675 0
2.8190002 0.43833873 0.70071203 0
2.8220003 0.43457058 0.70108002 0
2.8260002 0.43098825 0.70157063 0
2.8320003 0.42778105 0.70230663 0
3.0690002 0.86391485 0.72656238 0
3.0700002 0.85943955 0.72668326 0
3.0710003 0.8549608 0.72680414 0
3.0730002 0.85081375 0.72704583 0
3.0740001 0.84632587 0.72716665 0
2.7310002 0.71084183 0.68571335 0
2.7240002 0.70437706 0.68486738 0
2.7200003 0.69890064 0.68438399 0
2.7160003 0.69343877 0.68390059 0
2.7140002 0.68862617 0.68365884 0
2.7120001 0.68382078 0.68341708 0
2.7110002 0.67933655 0.68329626 0
2.7120001 0.67548001 0.68341708 0
2.7120001 0.67130959 0.68341708 0
2.7140002 0.66775614 0.68365884 0
2.7170002 0.66450202 0.68402141 0
2.7190001 0.66093224 0.68426311 0
2.7240002 0.65826446 0.68486738 0
2.7280002 0.65527731 0.68535078 0
2.7350001 0.6531741 0.6861968 0
2.7420001 0.65104556 0.68704277 0
2.7510002 0.6494835 0.6881305 0
2.9080002 0.67783219 0.70710474 0
2.9090002 0.67359501 0.70722556 0
2.9110003 0.66963929 0.70746732 0
2.9120002 0.66539305 0.70758814 0
2.9130001 0.6611433 0.70770901 0
2.9150002 0.65716952 0.70795071 0
2.9160001 0.65291077 0.70807159 0
2.9170003 0.64864838 0.70819247 0
2.9190001 0.64465648 0.7084341 0
2.9200003 0.64038509 0.70855498 0
2.9210002 0.63611007 0.70867586 0
2.9230001 0.63210016 0.70891756 0
2.9240003 0.6278162 0.70903844 0
2.9250002 0.62352854 0.70915926 0
2.9270003 0.61950064 0.70940101 0
2.9280002 0.61520398 0.70952183 0
2.9290001 0.61090362 0.70964265 0
2.9310002 0.60685772 0.70988441 0
2.9320002 0.60254842 0.71000522 0
2.9340003 0.59848988 0.71024698 0
2.9350002 0.59417152 0.7103678 0
2.9360001 0.58984959 0.71048868 0
2.9380002 0.58577299 0.71073037 0
2.9390001 0.58144206 0.71085125 0
2.9400003 0.57710755 0.71097207 0
2.9420002 0.57301289 0.71121383 0
2.9430003 0.56866932 0.71133471 0
2.9440002 0.56432211 0.71145552 0
2.9460001 0.56020939 0.71169722 0
2.9470003 0.55585325 0.7118181 0
2.9490001 0.55172789 0.7120598 0
2.9500003 0.54736269 0.71218061 0
2.9510002 0.5429939 0.71230149 0
2.9530003 0.53885055 0.71254325 0
2.9540002 0.5344727 0.71266407 0
2.8600001 0.49979627 0.70130372 0
2.8420002 0.49139774 0.69912827 0
2.8340001 0.48524678 0.69816148 0
2.8270001 0.47934109 0.69731545 0
2.8210001 0.47367531 0.6965903 0
2.8160002 0.46824408 0.69598603 0
2.8130002 0.46325296 0.69562352 0
2.8100002 0.45827258 0.69526088 0
2.8090003 0.45371801 0.69514012 0
2.8070002 0.44896138 0.69489837 0
2.8070002 0.44461957 0.69489837 0
2.8080003 0.44047987 0.69501925 0
2.8100002 0.43653673 0.69526088 0
2.8120003 0.4325864 0.69550264 0
2.8160002 0.4290221 0.69598603 0
2.8210001 0.42563808 0.6965903 0
2.8270001 0.42242911 0.69731545 0
3.0690002 0.86391485 0.72174805 0
3.0700002 0.85943955 0.72186708 0
3.0710003 0.8549608 0.72198617 0
3.0730002 0.85081375 0.72222424 0
3.0740001 0.84632587 0.72234333 0
2.7300003 0.71472007 0.68138969 0
2.7220001 0.70791966 0.68043721 0
2.7160003 0.70179397 0.67972291 0
2.7110002 0.69601095 0.67912769 0
2.7080002 0.69088453 0.67877054 0
2.7050002 0.6857689 0.67841339 0
2.7040002 0.68129545 0.6782943 0
2.7030003 0.6768257 0.67817527 0
2.7030003 0.6726715 0.67817527 0
2.7040002 0.66882759 0.6782943 0
2.7050002 0.66497999 0.67841339 0
2.7080002 0.66174221 0.67877054 0
2.7110002 0.65849352 0.67912769 0
2.7150002 0.65553707 0.67960387 0
2.7200003 0.6528675 0.68019915 0
2.7260003 0.65047926 0.68091345 0
2.7330003 0.64836699 0.68174684 0
2.7420001 0.64682108 0.68281829 0
2.9080002 0.67783219 0.70258081 0
2.9090002 0.67359501 0.70269984 0
2.9110003 0.66963929 0.70293796 0
2.9120002 0.66539305 0.70305699 0
2.9130001 0.6611433 0.70317602 0
2.9150002 0.65716952 0.70341414 0
2.9160001 0.65291077 0.70353317 0
2.9170003 0.64864838 0.70365226 0
2.9190001 0.64465648 0.70389032 0
2.9200003 0.64038509 0.70400941 0
2.9210002 0.63611007 0.7041285 0
2.9230001 0.63210016 0.70436656 0
2.9240003 0.6278162 0.70448565 0
2.9250002 0.62352854 0.70460463 0
2.9270003 0.61950064 0.70484281 0
2.9280002 0.61520398 0.70496178 0
2.9290001 0.61090362 0.70508087 0
2.9310002 0.60685772 0.70531893 0
2.9320002 0.60254842 0.70543802 0
2.9340003 0.59848988 0.70567608 0
2.9350002 0.59417152 0.70579517 0
2.9360001 0.58984959 0.70591426 0
2.9380002 0.58577299 0.70615232 0
2.9390001 0.58144206 0.70627141 0
2.9400003 0.57710755 0.70639044 0
2.9420002 0.57301289 0.70662856 0
2.9430003 0.56866932 0.70674759 0
2.9440002 0.56432211 0.70686662 0
2.9460001 0.56020939 0.70710468 0
2.9470003 0.55585325 0.70722377 0
2.9490001 0.55172789 0.70746189 0
2.9500003 0.54736269 0.70758092 0
2.9510002 0.5429939 0.70770001 0
2.9530003 0.53885055 0.70793808 0
2.9540002 0.5344727 0.70805717 0
2.8350003 0.48985732 0.69389004 0
2.8260002 0.48350072 0.69281858 0
2.8190002 0.47760946 0.69198525 0
2.8130002 0.4719581 0.69127095 0
2.8080003 0.46654129 0.69067562 0
2.8050003 0.46156454 0.69031847 0
2.8020003 0.4565987 0.68996131 0
2.8000002 0.45185104 0.68972325 0
2.7990003 0.44731632 0.68960416 0
2.7980001 0.44278511 0.68948513 0
2.7990003 0.43866163 0.68960416 0
2.8000002 0.43453452 0.68972325 0
2.8030002 0.43080065 0.6900804 0
2.8060002 0.42705595 0.69043756 0
2.8110001 0.42368999 0.69103277 0
2.8160002 0.42030609 0.6916281 0
3.0690002 0.86391485 0.71693373 0
3.0700002 0.85943955 0.71705091 0
3.0710003 0.8549608 0.71716821 0
3.0730002 0.85081375 0.7174027 0
3.0740001 0.84632587 0.71751988 0
3.0760002 0.8421663 0.71775436 0
2.7220001 0.71210814 0.67624879 0
2.7130003 0.70499754 0.67519355 0
2.7070003 0.69888806 0.67449009 0
2.7030003 0.6934424 0.67402112 0
2.6990001 0.68801105 0.67355204 0
2.6970003 0.68322921 0.67331761 0
2.6950002 0.67845446 0.67308307 0
2.6940002 0.67400092 0.67296588 0
2.6950002 0.67017496 0.67308307 0
2.6950002 0.66603523 0.67308307 0
2.6970003 0.66251242 0.67331761 0
2.6990001 0.65898234 0.67355204 0
2.7020001 0.65574992 0.67390382 0
2.7060001 0.65280968 0.67437279 0
2.7110002 0.65015632 0.67495906 0
2.7170002 0.64778435 0.67566252 0
2.7240002 0.6456883 0.67648327 0
2.7330003 0.64415872 0.67753851 0
2.7430003 0.64289063 0.678711 0
2.9080002 0.67783219 0.69805682 0
2.9090002 0.67359501 0.69817412 0
2.9110003 0.66963929 0.6984086 0
2.9120002 0.66539305 0.69852579 0
2.9130001 0.6611433 0.69864309 0
2.9150002 0.65716952 0.69887757 0
2.9160001 0.65291077 0.69899482 0
2.9170003 0.64864838 0.69911206 0
2.9190001 0.64465648 0.69934654 0
2.9200003 0.64038509 0.69946384 0
2.9210002 0.63611007 0.69958103 0
2.9230001 0.63210016 0.69981551 0
2.9240003 0.6278162 0.69993281 0
2.9250002 0.62352854 0.70005 0
2.9270003 0.61950064 0.70028454 0
2.9280002 0.61520398 0.70040178 0
2.9290001 0.61090362 0.70051903 0
2.9310002 0.60685772 0.70075357 0
2.9320002 0.60254842 0.70087075 0
2.9340003 0.59848988 0.70110524 0
2.9350002 0.59417152 0.70122254 0
2.9360001 0.58984959 0.70133972 0
2.9380002 0.58577299 0.70157421 0
2.9390001 0.58144206 0.70169151 0
2.9400003 0.57710755 0.70180875 0
2.9420002 0.57301289 0.70204329 0
2.9430003 0.56866932 0.70216048 0
2.9440002 0.56432211 0.70227778 0
2.9460001 0.56020939 0.70251226 0
2.9470003 0.55585325 0.70262945 0
2.9490001 0.55172789 0.70286393 0
2.9500003 0.54736269 0.70298123 0
2.9510002 0.5429939 0.70309848 0
2.9530003 0.53885055 0.70333296 0
2.9540002 0.5344727 0.7034502 0
2.8190002 0.48197287 0.68762183 0
2.8110001 0.47587776 0.68668377 0
2.8060002 0.47045559 0.68609762 0
2.8000002 0.4648385 0.68539405 0
2.7970002 0.45987618 0.68504238 0
2.7930002 0.45471549 0.68457341 0
2.7910001 0.4499841 0.68433887 0
2.7900002 0.44546559 0.68422163 0
2.7890003 0.44095069 0.68410438 0
2.7900002 0.4368434 0.68422163 0
2.7910001 0.43273249 0.68433887 0
2.7930002 0.42881644 0.68457341 0
2.7960002 0.42508975 0.68492508 0
2.8010001 0.4217419 0.68551135 0
2.8060002 0.418376 0.68609762 0
2.8140001 0.41556564 0.68703556 0
3.0690002 0.86391485 0.71211934 0
3.0700002 0.85943955 0.71223474 0
3.0710003 0.8549608 0.71235025 0
3.0730002 0.85081375 0.7125811 0
3.0740001 0.84632587 0.71269655 0
3.0760002 0.8421663 0.71292746 0
2.7130003 0.70916975 0.67102134 0
2.7050002 0.70240003 0.67009783 0
2.6990001 0.69630492 0.6694051 0
2.6940002 0.69055265 0.66882789 0
2.6910002 0.68545687 0.66848159 0
2.6880002 0.68037194 0.66813529 0
2.6870003 0.67592919 0.66801983 0
2.6860001 0.67148995 0.66790438 0
2.6860001 0.66736645 0.66790438 0
2.6870003 0.66355324 0.66801983 0
2.6880002 0.65973634 0.66813529 0
2.6910002 0.65652919 0.66848159 0
2.6930003 0.65300637 0.6687125 0
2.6980002 0.65038544 0.66928971 0
2.7020001 0.6474452 0.66975147 0
2.7080002 0.64508945 0.67044413 0
2.7150002 0.6430096 0.67125225 0
2.7240002 0.64149624 0.67229128 0
2.7330003 0.63995039 0.67333025 0
2.9090002 0.67359501 0.69364834 0
2.9110003 0.66963929 0.69387925 0
2.9120002 0.66539305 0.69399464 0
2.9130001 0.6611433 0.6941101 0
2.9150002 0.65716952 0.69434094 0
2.9160001 0.65291077 0.69445646 0
2.9170003 0.64864838 0.69457185 0
2.9190001 0.64465648 0.69480276 0
2.9200003 0.64038509 0.69491822 0
2.9210002 0.63611007 0.69503367 0
2.9230001 0.63210016 0.69526452 0
2.9240003 0.6278162 0.69537997 0
2.9250002 0.62352854 0.69549543 0
2.9270003 0.61950064 0.69572628 0
2.9280002 0.61520398 0.69584179 0
2.9290001 0.61090362 0.69595718 0
2.9310002 0.60685772 0.69618809 0
2.9320002 0.60254842 0.69630349 0
2.9340003 0.59848988 0.6965344 0
2.9350002 0.59417152 0.69664985 0
2.9360001 0.58984959 0.6967653 0
2.9380002 0.58577299 0.69699621 0
2.9390001 0.58144206 0.69711161 0
2.9400003 0.57710755 0.69722712 0
2.9420002 0.57301289 0.69745797 0
2.9430003 0.56866932 0.69757342 0
2.9440002 0.56432211 0.69768882 0
2.9460001 0.56020939 0.69791973 0
2.9470003 0.55585325 0.69803518 0
2.9490001 0.55172789 0.69826603 0
2.9500003 0.54736269 0.69838154 0
2.9510002 0.5429939 0.69849694 0
2.9530003 0.53885055 0.69872785 0
2.9540002 0.5344727 0.6988433 0
2.8120003 0.48044503 0.68245029 0
2.8040001 0.47436261 0.68152672 0
2.7980001 0.46873832 0.68083405 0
2.7930002 0.46334857 0.68025684 0
2.7890003 0.45818788 0.67979509 0
2.7850003 0.45304161 0.67933333 0
2.7830002 0.44832462 0.67910242 0
2.7820003 0.44382057 0.67898703 0
2.7800002 0.43911615 0.67875612 0
2.7810001 0.43502513 0.67887151 0
2.7820003 0.4309305 0.67898703 0
2.7840002 0.42703068 0.67921782 0
2.7860003 0.4231236 0.67944872 0
2.7900002 0.419599 0.67991054 0
2.7960002 0.41644591 0.68060315 0
2.8020003 0.41327122 0.68129587 0
3.0690002 0.86391485 0.70730495 0
3.0700002 0.85943955 0.70741856 0
3.0710003 0.8549608 0.70753223 0
3.0730002 0.85081375 0.7077595 0
3.0740001 0.84632587 0.70787317 0
2.7040002 0.7062313 0.66582638 0
2.6970003 0.69980258 0.66503096 0
2.6910002 0.69372189 0.66434908 0
2.6860001 0.68798393 0.66378087 0
2.6830001 0.68290263 0.66343993 0
2.6800003 0.67783219 0.66309905 0
2.6790001 0.6734038 0.66298532 0
2.6770003 0.66866523 0.66275811 0
2.6780002 0.66487002 0.66287172 0
2.6790001 0.66107118 0.66298532 0
2.6800003 0.65726876 0.66309905 0
2.6820002 0.65376931 0.66332626 0
2.6850002 0.65056759 0.6636672 0
2.6890001 0.64765805 0.66412175 0
2.6940002 0.64503533 0.66469002 0
2.6990001 0.64239454 0.66525817 0
2.7060001 0.64033091 0.66605365 0
2.7150002 0.63883382 0.66707641 0
2.7240002 0.63730419 0.66809916 0
2.9090002 0.67359501 0.68912256 0
2.9110003 0.66963929 0.68934989 0
2.9120002 0.66539305 0.6894635 0
2.9130001 0.6611433 0.6895771 0
2.9150002 0.65716952 0.68980443 0
2.9160001 0.65291077 0.68991804 0
2.9170003 0.64864838 0.69003171 0
2.9190001 0.64465648 0.69025898 0
2.9200003 0.64038509 0.69037259 0
2.9210002 0.63611007 0.69048625 0
2.9230001 0.63210016 0.69071352 0
2.9240003 0.6278162 0.69082713 0
2.9250002 0.62352854 0.69094086 0
2.9270003 0.61950064 0.69116807 0
2.9280002 0.61520398 0.69128174 0
2.9290001 0.61090362 0.69139534 0
2.9310002 0.60685772 0.69162261 0
2.9320002 0.60254842 0.69173628 0
2.9340003 0.59848988 0.69196355 0
2.9350002 0.59417152 0.69207716 0
2.9360001 0.58984959 0.69219089 0
2.9380002 0.58577299 0.6924181 0
2.9390001 0.58144206 0.69253176 0
2.9400003 0.57710755 0.69264543 0
2.9420002 0.57301289 0.69287264 0
2.9430003 0.56866932 0.69298637 0
2.9440002 0.56432211 0.69309998 0
2.9460001 0.56020939 0.69332719 0
2.9470003 0.55585325 0.69344091 0
2.9490001 0.55172789 0.69366813 0
2.9500003 0.54736269 0.69378185 0
2.9510002 0.5429939 0.69389546 0
2.9530003 0.53885055 0.69412279 0
2.9540002 0.5344727 0.6942364 0
2.8050003 0.47891724 0.67730403 0
2.7970002 0.4728474 0.67639488 0
2.7910001 0.46723568 0.67571306 0
2.7850003 0.46164578 0.67503124 0
2.7810001 0.45649946 0.67457664 0
2.7770002 0.45136768 0.6741221 0
2.7750001 0.44666511 0.67389482 0
2.7730002 0.44196978 0.67366755 0
2.7720003 0.43748555 0.67355394 0
2.7720003 0.43320695 0.67355394 0
2.7730002 0.4291285 0.67366755 0
2.7740002 0.42504647 0.67378116 0
2.7770002 0.42135409 0.6741221 0
2.7800002 0.41765085 0.67446303 0
2.7850003 0.41432285 0.67503124 0
2.7910001 0.41116795 0.67571306 0
3.0690002 0.86391485 0.70249057 0
3.0700002 0.85943955 0.70260239 0
3.0710003 0.8549608 0.70271432 0
3.0730002 0.85081375 0.70293796 0
3.0740001 0.84632587 0.70304978 0
2.6960001 0.70361936 0.66077572 0
2.6880002 0.6968804 0.659881 0
2.6820002 0.69081593 0.65921003 0
2.6780002 0.68541533 0.65876269 0
2.6740003 0.68002921 0.6583153 0
2.6720002 0.67529237 0.65809166 0
2.6700003 0.67056286 0.65786803 0
2.6690001 0.66615427 0.65775615 0
2.6700003 0.6623736 0.65786803 0
2.6700003 0.65827888 0.65786803 0
2.6720002 0.65480113 0.65809166 0
2.6740003 0.65131617 0.6583153 0
2.6760001 0.64782399 0.658539 0
2.6810002 0.64523375 0.65909815 0
2.6850002 0.64232415 0.65954554 0
2.6910002 0.63999909 0.66021657 0
2.6970003 0.63765234 0.6608876 0
2.7060001 0.63617134 0.66189408 0
2.7150002 0.63465798 0.66290057 0
2.9090002 0.67359501 0.68459678 0
2.9110003 0.66963929 0.68482047 0
2.9120002 0.66539305 0.68493235 0
2.9130001 0.6611433 0.68504417 0
2.9150002 0.65716952 0.68526781 0
2.9160001 0.65291077 0.68537962 0
2.9170003 0.64864838 0.68549156 0
2.9190001 0.64465648 0.6857152 0
2.9200003 0.64038509 0.68582702 0
2.9210002 0.63611007 0.68593884 0
2.9230001 0.63210016 0.68616247 0
2.9240003 0.6278162 0.68627435 0
2.9250002 0.62352854 0.68638623 0
2.9270003 0.61950064 0.68660986 0
2.9280002 0.61520398 0.68672168 0
2.9290001 0.61090362 0.6868335 0
2.9310002 0.60685772 0.68705726 0
2.9320002 0.60254842 0.68716908 0
2.9340003 0.59848988 0.68739271 0
2.9350002 0.59417152 0.68750453 0
2.9360001 0.58984959 0.68761635 0
2.9380002 0.58577299 0.68784004 0
2.9390001 0.58144206 0.68795192 0
2.9400003 0.57710755 0.68806374 0
2.9420002 0.57301289 0.68828738 0
2.9430003 0.56866932 0.68839926 0
2.9440002 0.56432211 0.68851107 0
2.9460001 0.56020939 0.68873477 0
2.9470003 0.55585325 0.68884659 0
2.9490001 0.55172789 0.68907022 0
2.9500003 0.54736269 0.6891821 0
2.9510002 0.5429939 0.68929392 0
2.9530003 0.53885055 0.68951762 0
2.9540002 0.5344727 0.68962944 0
2.7980001 0.47738934 0.67218298 0
2.7900002 0.47133219 0.67128831 0
2.7830002 0.46551853 0.67050546 0
2.7780001 0.46015579 0.66994631 0
2.7730002 0.45481116 0.6693871 0
2.7700002 0.44990295 0.66905159 0
2.7660003 0.4447982 0.66860425 0
2.7650001 0.44032475 0.66849244 0
2.7640002 0.43585491 0.66838062 0
2.7630002 0.43138865 0.66826874 0
2.7640002 0.4273265 0.66838062 0
2.7650001 0.42326069 0.66849244 0
2.7680001 0.41958451 0.66882789 0
2.7700002 0.41570273 0.66905159 0
2.7750001 0.41239274 0.66961074 0
2.7810001 0.40925592 0.67028177 0
2.7890003 0.40647629 0.67117649 0
3.0690002 0.86391485 0.69767618 0
3.0700002 0.85943955 0.69778627 0
3.0710003 0.8549608 0.6978963 0
3.0730002 0.85081375 0.69811636 0
3.0740001 0.84632587 0.69822633 0
2.6880002 0.70100749 0.65575391 0
2.6800003 0.69428289 0.65487367 0
2.6740003 0.6882329 0.65421343 0
2.6690001 0.68252569 0.65366328 0
2.6660001 0.67747498 0.65333319 0
2.6630001 0.6724351 0.6530031 0
2.6620002 0.66803747 0.65289307 0
2.6610003 0.66364342 0.65278304 0
2.6610003 0.65956497 0.65278304 0
2.6620002 0.65579689 0.65289307 0
2.6630001 0.65202504 0.6530031 0
2.6660001 0.64886296 0.65333319 0
2.6680002 0.64538527 0.65355325 0
2.6720002 0.64250636 0.65399343 0
2.6770003 0.63991433 0.65454358 0
2.6820002 0.63730419 0.65509373 0
2.6890001 0.63527125 0.65586394 0
2.6970003 0.63350904 0.65674424 0
2.7060001 0.63201177 0.65773451 0
2.9090002 0.67359501 0.68007106 0
2.9110003 0.66963929 0.68029112 0
2.9120002 0.66539305 0.68040121 0
2.9130001 0.6611433 0.68051118 0
2.9150002 0.65716952 0.6807313 0
2.9160001 0.65291077 0.68084127 0
2.9170003 0.64864838 0.68095136 0
2.9190001 0.64465648 0.68117136 0
2.9200003 0.64038509 0.68128145 0
2.9210002 0.63611007 0.68139148 0
2.9230001 0.63210016 0.68161154 0
2.9240003 0.6278162 0.68172157 0
2.9250002 0.62352854 0.6818316 0
2.9270003 0.61950064 0.68205166 0
2.9280002 0.61520398 0.68216169 0
2.9290001 0.61090362 0.68227172 0
2.9310002 0.60685772 0.68249178 0
2.9320002 0.60254842 0.68260181 0
2.9340003 0.59848988 0.68282187 0
2.9350002 0.59417152 0.6829319 0
2.9360001 0.58984959 0.68304193 0
2.9380002 0.58577299 0.68326199 0
2.9390001 0.58144206 0.68337202 0
2.9400003 0.57710755 0.68348205 0
2.9420002 0.57301289 0.68370211 0
2.9430003 0.56866932 0.68381214 0
2.9440002 0.56432211 0.68392217 0
2.9460001 0.56020939 0.68414223 0
2.9470003 0.55585325 0.68425226 0
2.9490001 0.55172789 0.68447232 0
2.9500003 0.54736269 0.68458241 0
2.9510002 0.5429939 0.68469238 0
2.9530003 0.53885055 0.6849125 0
2.9540002 0.5344727 0.68502247 0
2.9560003 0.53031677 0.68524259 0
2.7910001 0.47586155 0.6670872 0
2.7830002 0.46981704 0.66620696 0
2.7760003 0.46401596 0.66543674 0
2.7700002 0.458453 0.66477656 0
2.7650001 0.45312271 0.66422641 0
2.7620003 0.44822907 0.66389632 0
2.7590003 0.44334614 0.66356623 0
2.7570002 0.43867964 0.66334617 0
2.7550001 0.43402037 0.66312611 0
2.7550001 0.42977244 0.66312611 0
2.7550001 0.42552447 0.66312611 0
2.7560003 0.42147496 0.66323614 0
2.7580001 0.41761839 0.6634562 0
2.7610002 0.41394943 0.66378629 0
2.7650001 0.41046268 0.66422641 0
2.7710001 0.40734389 0.66488659 0
2.7780001 0.40439287 0.66565681 0
3.0690002 0.86391485 0.69286191 0
3.0700002 0.85943955 0.6929701 0
3.0710003 0.8549608 0.69307834 0
3.0730002 0.85081375 0.69329476 0
3.0740001 0.84632587 0.69340301 0
2.6790001 0.69806904 0.65065277 0
2.6720002 0.69168544 0.64989513 0
2.6660001 0.68564987 0.6492458 0
2.6610003 0.67995709 0.64870465 0
2.6580002 0.6749208 0.64837998 0
2.6550002 0.66989541 0.64805526 0
2.6540003 0.6655122 0.64794707 0
2.6530001 0.66113245 0.64783883 0
2.6530001 0.65706849 0.64783883 0
2.6540003 0.65331483 0.64794707 0
2.6550002 0.64955747 0.64805526 0
2.6570003 0.6461032 0.64827174 0
2.6600001 0.64294648 0.64859641 0
2.6640003 0.64008206 0.64902931 0
2.6680002 0.63720316 0.64946222 0
2.6740003 0.6349088 0.65011162 0
2.6800003 0.63259268 0.65076101 0
2.6880002 0.63084656 0.65162683 0
2.6970003 0.62936568 0.65260088 0
2.9090002 0.67359501 0.67554533 0
2.9110003 0.66963929 0.67576176 0
2.9120002 0.66539305 0.67586994 0
2.9130001 0.6611433 0.67597818 0
2.9150002 0.65716952 0.67619467 0
2.9160001 0.65291077 0.67630291 0
2.9170003 0.64864838 0.67641115 0
2.9190001 0.64465648 0.67662758 0
2.9200003 0.64038509 0.67673582 0
2.9210002 0.63611007 0.67684406 0
2.9230001 0.63210016 0.67706048 0
2.9240003 0.6278162 0.67716873 0
2.9250002 0.62352854 0.67727697 0
2.9270003 0.61950064 0.67749345 0
2.9280002 0.61520398 0.67760164 0
2.9290001 0.61090362 0.67770988 0
2.9310002 0.60685772 0.67792636 0
2.9320002 0.60254842 0.67803454 0
2.9340003 0.59848988 0.67825103 0
2.9350002 0.59417152 0.67835927 0
2.9360001 0.58984959 0.67846751 0
2.9380002 0.58577299 0.67868388 0
2.9390001 0.58144206 0.67879212 0
2.9400003 0.57710755 0.67890036 0
2.9420002 0.57301289 0.67911685 0
2.9430003 0.56866932 0.67922509 0
2.9440002 0.56432211 0.67933333 0
2.9460001 0.56020939 0.67954969 0
2.9470003 0.55585325 0.679658 0
2.9490001 0.55172789 0.67987442 0
2.9500003 0.54736269 0.67998266 0
2.9510002 0.5429939 0.6800909 0
2.9530003 0.53885055 0.68030739 0
2.9540002 0.5344727 0.68041557 0
2.9560003 0.53031677 0.68063205 0
2.7840002 0.47433376 0.66201675 0
2.7760003 0.46830183 0.66115093 0
2.7680001 0.46229869 0.66028512 0
2.7630002 0.45696306 0.65974396 0
2.7580001 0.45164543 0.65920281 0
2.7540002 0.44655511 0.65876985 0
2.7510002 0.44168663 0.65844518 0
2.7490003 0.43703458 0.65822875 0
2.7470002 0.43238977 0.65801227 0
2.7460003 0.42795423 0.65790403 0
2.7470002 0.42392275 0.65801227 0
2.7470002 0.41968918 0.65801227 0
2.7490003 0.41584888 0.65822875 0
2.7520001 0.41219613 0.65855342 0
2.7560003 0.40872565 0.65898633 0
2.7610002 0.40543187 0.65952748 0
2.7670002 0.40230945 0.66017687 0
3.0690002 0.86391485 0.68804753 0
3.0700002 0.85943955 0.68815392 0
3.0710003 0.8549608 0.68826038 0
3.0730002 0.85081375 0.68847322 0
3.0740001 0.84632587 0.68857962 0
2.6710002 0.69545716 0.6456905 0
2.6630001 0.6887632 0.64483905 0
2.6580002 0.68306684 0.64430696 0
2.6530001 0.67738837 0.64377481 0
2.6650002 0.63221383 0.64505196 0
2.6720002 0.63021159 0.6457969 0
2.6790001 0.62818414 0.64654183 0
2.6890001 0.62701344 0.64760613 0
2.9090002 0.67359501 0.67101955 0
2.9110003 0.66963929 0.6712324 0
2.9120002 0.66539305 0.6713388 0
2.9130001 0.6611433 0.67144525 0
2.9150002 0.65716952 0.6716581 0
2.9160001 0.65291077 0.67176449 0
2.9170003 0.64864838 0.67187095 0
2.9190001 0.64465648 0.6720838 0
2.9200003 0.64038509 0.67219019 0
2.9210002 0.63611007 0.67229664 0
2.9230001 0.63210016 0.67250943 0
2.9240003 0.6278162 0.67261595 0
2.9250002 0.62352854 0.67272234 0
2.9270003 0.61950064 0.67293525 0
2.9280002 0.61520398 0.67304158 0
2.9290001 0.61090362 0.67314804 0
2.9310002 0.60685772 0.67336088 0
2.9320002 0.60254842 0.67346728 0
2.9340003 0.59848988 0.67368019 0
2.9350002 0.59417152 0.67378658 0
2.9360001 0.58984959 0.67389297 0
2.9380002 0.58577299 0.67410588 0
2.9390001 0.58144206 0.67421228 0
2.9400003 0.57710755 0.67431873 0
2.9420002 0.57301289 0.67453158 0
2.9430003 0.56866932 0.67463803 0
2.9440002 0.56432211 0.67474443 0
2.9460001 0.56020939 0.67495728 0
2.9470003 0.55585325 0.67506373 0
2.9490001 0.55172789 0.67527652 0
2.9500003 0.54736269 0.67538297 0
2.9510002 0.5429939 0.67548937 0
2.9530003 0.53885055 0.67570221 0
2.9540002 0.5344727 0.67580867 0
2.9560003 0.53031677 0.67602152 0
2.7780001 0.47302413 0.65707791 0
2.7690003 0.46678662 0.65612006 0
2.7610002 0.46079618 0.65526867 0
2.7550001 0.45526028 0.65463018 0
2.7500002 0.44995707 0.65409803 0
2.7460003 0.44488117 0.65367234 0
2.7430003 0.44002709 0.6533531 0
2.7400002 0.43518388 0.65303379 0
2.7390003 0.43075919 0.65292734 0
2.7380002 0.42633802 0.65282094 0
2.7380002 0.42212069 0.65282094 0
2.7390003 0.41810188 0.65292734 0
2.7400002 0.41407934 0.65303379 0
2.7430003 0.41044286 0.6533531 0
2.7460003 0.40679556 0.65367234 0
2.7510002 0.40351984 0.65420443 0
2.7560003 0.40022609 0.65473658 0
3.0690002 0.86391485 0.68323314 0
3.0700002 0.85943955 0.68333775 0
3.0710003 0.8549608 0.68344235 0
3.0730002 0.85081375 0.68365163 0
3.0740001 0.84632587 0.68375623 0
2.6070001 0.65465683 0.6348983 0
2.6040001 0.64972883 0.63458443 0
2.6040001 0.6457532 0.63458443 0
2.6040001 0.64177758 0.63458443 0
2.6040001 0.63780206 0.63458443 0
2.6060002 0.63444334 0.63479364 0
2.6080003 0.63107753 0.63500291 0
2.6100001 0.62770432 0.63521218 0
2.6140001 0.62493002 0.63563061 0
2.9090002 0.67359501 0.66649377 0
2.9110003 0.66963929 0.66670305 0
2.9120002 0.66539305 0.66680765 0
2.9130001 0.6611433 0.66691226 0
2.9150002 0.65716952 0.66712153 0
2.9160001 0.65291077 0.66722614 0
2.9170003 0.64864838 0.66733074 0
2.9190001 0.64465648 0.66754001 0
2.9200003 0.64038509 0.66764462 0
2.9210002 0.63611007 0.66774923 0
2.9230001 0.63210016 0.6679585 0
2.9240003 0.6278162 0.66806316 0
2.9250002 0.62352854 0.66816771 0
2.9270003 0.61950064 0.66837698 0
2.9280002 0.61520398 0.66848159 0
2.9290001 0.61090362 0.66858625 0
2.9310002 0.60685772 0.66879547 0
2.9320002 0.60254842 0.66890007 0
2.9340003 0.59848988 0.66910934 0
2.9350002 0.59417152 0.66921389 0
2.9360001 0.58984959 0.66931856 0
2.9380002 0.58577299 0.66952777 0
2.9390001 0.58144206 0.66963243 0
2.9400003 0.57710755 0.66973704 0
2.9420002 0.57301289 0.66994631 0
2.9430003 0.56866932 0.67005092 0
2.9440002 0.56432211 0.67015553 0
2.9460001 0.56020939 0.67036474 0
2.9470003 0.55585325 0.6704694 0
2.9490001 0.55172789 0.67067862 0
2.9500003 0.54736269 0.67078328 0
2.9510002 0.5429939 0.67088789 0
2.9530003 0.53885055 0.6710971 0
2.9540002 0.5344727 0.67120171 0
2.9560003 0.53031677 0.67141104 0
2.7720003 0.47171462 0.65216076 0
2.7620003 0.46527141 0.65111458 0
2.7550001 0.45950818 0.65038216 0
2.7480001 0.45377028 0.64964986 0
2.7430003 0.44847974 0.64912677 0
2.7390003 0.44341651 0.64870828 0
2.7350001 0.43836758 0.6482898 0
2.7320001 0.43353876 0.64797586 0
2.7310002 0.4291285 0.64787126 0
2.7300003 0.42472181 0.64776671 0
2.7300003 0.4205189 0.64776671 0
2.7300003 0.41631606 0.64776671 0
2.7310002 0.4123098 0.64787126 0
2.7340002 0.40868953 0.64818513 0
3.0690002 0.86391485 0.67841876 0
3.0700002 0.85943955 0.67852157 0
3.0710003 0.8549608 0.67862439 0
3.0730002 0.85081375 0.67883003 0
3.0740001 0.84632587 0.67893285 0
2.6000001 0.6603713 0.63019753 0
2.5970001 0.6554451 0.62988913 0
2.5950003 0.65084726 0.62968349 0
2.5940001 0.64657217 0.62958062 0
2.5940001 0.6426146 0.62958062 0
2.5950003 0.63896912 0.62968349 0
2.5960002 0.63532001 0.62978631 0
2.5970001 0.63166732 0.62988913 0
2.5980003 0.62801099 0.62999195 0
2.6000001 0.6246559 0.63019753 0
2.6030002 0.62159663 0.63050604 0
2.6070001 0.61882776 0.63091731 0
2.6120002 0.61634398 0.63143134 0
2.6170001 0.61384201 0.63194543 0
2.9090002 0.67359501 0.66196799 0
2.9110003 0.66963929 0.66217369 0
2.9120002 0.66539305 0.66227651 0
2.9130001 0.6611433 0.66237926 0
2.9150002 0.65716952 0.66258496 0
2.9160001 0.65291077 0.66268778 0
2.9170003 0.64864838 0.6627906 0
2.9190001 0.64465648 0.66299617 0
2.9200003 0.64038509 0.66309905 0
2.9210002 0.63611007 0.66320181 0
2.9230001 0.63210016 0.66340744 0
2.9240003 0.6278162 0.66351032 0
2.9250002 0.62352854 0.66361308 0
2.9270003 0.61950064 0.66381878 0
2.9280002 0.61520398 0.66392159 0
2.9290001 0.61090362 0.66402435 0
2.9310002 0.60685772 0.66422999 0
2.9320002 0.60254842 0.66433287 0
2.9340003 0.59848988 0.6645385 0
2.9350002 0.59417152 0.66464126 0
2.9360001 0.58984959 0.66474408 0
2.9380002 0.58577299 0.66494972 0
2.9390001 0.58144206 0.66505253 0
2.9400003 0.57710755 0.66515541 0
2.9420002 0.57301289 0.66536099 0
2.9430003 0.56866932 0.66546381 0
2.9450002 0.56456202 0.66566944 0
2.9460001 0.56020939 0.66577226 0
2.9470003 0.55585325 0.66587508 0
2.9490001 0.55172789 0.66608071 0
2.9500003 0.54736269 0.66618353 0
2.9510002 0.5429939 0.66628635 0
2.9530003 0.53885055 0.66649199 0
2.9540002 0.5344727 0.6665948 0
2.9560003 0.53031677 0.6668005 0
2.7660003 0.47040504 0.6472652 0
2.7560003 0.46397269 0.64623702 0
2.7480001 0.45800567 0.64541447 0
2.7410002 0.45228037 0.64469481 0
2.7360003 0.44700244 0.64418066 0
2.7310002 0.44174251 0.64366663 0
2.7280002 0.43691552 0.64335811 0
2.7250001 0.43209937 0.64304972 0
3.0690002 0.86391485 0.67360437 0
3.0700002 0.85943955 0.67370546 0
3.0710003 0.8549608 0.67380643 0
3.0730002 0.85081375 0.67400849 0
3.0740001 0.84632587 0.67410946 0
2.5980003 0.66765875 0.62602717 0
2.5930002 0.66207951 0.62552208 0
2.5910003 0.65748167 0.62532008 0
2.5900002 0.65321016 0.62521905 0
2.5890002 0.64894241 0.62511802 0
2.5880003 0.64467818 0.62501705 0
2.5880003 0.64073145 0.62501705 0
2.5890002 0.63709676 0.62511802 0
2.5890002 0.63314825 0.62511802 0
2.5910003 0.62981665 0.62532008 0
2.5920002 0.62617111 0.62542105 0
2.5940001 0.62282681 0.62562311 0
2.5970001 0.61977839 0.62592614 0
2.6000001 0.61671913 0.62622917 0
2.6030002 0.61364901 0.6265322 0
2.6070001 0.61086577 0.62693626 0
2.6130002 0.60865968 0.62754238 0
2.6200001 0.60672605 0.62824941 0
2.9090002 0.67359501 0.65744227 0
2.9110003 0.66963929 0.65764433 0
2.9120002 0.66539305 0.6577453 0
2.9130001 0.6611433 0.65784633 0
2.9150002 0.65716952 0.65804839 0
2.9160001 0.65291077 0.65814936 0
2.9170003 0.64864838 0.65825039 0
2.9190001 0.64465648 0.65845239 0
2.9200003 0.64038509 0.65855348 0
2.9210002 0.63611007 0.65865445 0
2.9230001 0.63210016 0.65885645 0
2.9240003 0.6278162 0.65895748 0
2.9250002 0.62352854 0.65905851 0
2.9270003 0.61950064 0.65926051 0
2.9280002 0.61520398 0.65936154 0
2.9290001 0.61090362 0.65946257 0
2.9310002 0.60685772 0.65966457 0
2.9320002 0.60254842 0.6597656 0
2.9340003 0.59848988 0.65996766 0
2.9350002 0.59417152 0.66006863 0
2.9360001 0.58984959 0.6601696 0
2.9380002 0.58577299 0.66037166 0
2.9390001 0.58144206 0.66047269 0
2.9400003 0.57710755 0.66057372 0
2.9420002 0.57301289 0.66077572 0
2.9430003 0.56866932 0.66087675 0
2.9450002 0.56456202 0.66107875 0
2.9460001 0.56020939 0.66117978 0
2.9470003 0.55585325 0.66128075 0
2.9490001 0.55172789 0.66148281 0
2.9500003 0.54736269 0.66158384 0
2.9510002 0.5429939 0.66168487 0
2.9530003 0.53885055 0.66188693 0
2.9540002 0.5344727 0.6619879 0
2.9560003 0.53031677 0.66218996 0
2.9570003 0.52592987 0.66229093 0
2.7490003 0.46245748 0.64128017 0
2.7410002 0.45650309 0.64047205 0
2.7340002 0.45079044 0.63976496 0
2.7290001 0.44552511 0.63925987 0
2.6810002 0.41482249 0.63441128 0
2.6800003 0.4105078 0.63431025 0
2.6800003 0.40639511 0.63431025 0
2.6800003 0.40228245 0.63431025 0
2.6810002 0.39836457 0.63441128 0
2.6830001 0.39463606 0.63461328 0
2.6850002 0.39090037 0.63481534 0
3.0700002 0.85943955 0.66888928 0
3.0710003 0.8549608 0.66898847 0
3.0730002 0.85081375 0.66918683 0
2.6000001 0.6762448 0.62226081 0
2.5930002 0.66999102 0.62156636 0
2.5900002 0.66506118 0.62126875 0
2.5870001 0.66014218 0.62097108 0
2.5850003 0.65555513 0.62077266 0
2.5840001 0.65129447 0.62067342 0
2.5840001 0.64735502 0.62067342 0
2.5830002 0.64309984 0.62057424 0
2.5840001 0.63947594 0.62067342 0
2.5840001 0.63553643 0.62067342 0
2.5850003 0.63190722 0.62077266 0
2.5860002 0.62827438 0.6208719 0
2.5880003 0.62494451 0.62107033 0
2.5890002 0.6213026 0.62116951 0
2.5920002 0.61826319 0.62146711 0
2.5940001 0.61491174 0.62166554 0
2.5970001 0.61185241 0.62196314 0
2.6010003 0.60908008 0.62235999 0
2.6050003 0.60629314 0.62275684 0
2.6100001 0.60378581 0.62325287 0
2.6170001 0.60184491 0.62394738 0
2.9090002 0.67359501 0.65291655 0
2.9110003 0.66963929 0.65311497 0
2.9120002 0.66539305 0.65321416 0
2.9130001 0.6611433 0.65331334 0
2.9150002 0.65716952 0.65351176 0
2.9160001 0.65291077 0.653611 0
2.9170003 0.64864838 0.65371025 0
2.9190001 0.64465648 0.65390861 0
2.9200003 0.64038509 0.65400779 0
2.9210002 0.63611007 0.65410709 0
2.9230001 0.63210016 0.65430546 0
2.9240003 0.6278162 0.65440464 0
2.9250002 0.62352854 0.65450388 0
2.9270003 0.61950064 0.65470231 0
2.9280002 0.61520398 0.65480149 0
2.9290001 0.61090362 0.65490067 0
2.9310002 0.60685772 0.65509915 0
2.9320002 0.60254842 0.65519834 0
2.9340003 0.59848988 0.65539676 0
2.9350002 0.59417152 0.655496 0
2.9360001 0.58984959 0.65559518 0
2.9380002 0.58577299 0.65579361 0
2.9390001 0.58144206 0.65589285 0
2.9400003 0.57710755 0.65599203 0
2.9420002 0.57301289 0.6561904 0
2.9430003 0.56866932 0.65628964 0
2.9450002 0.56456202 0.65648806 0
2.9460001 0.56020939 0.65658724 0
2.9470003 0.55585325 0.65668648 0
2.9490001 0.55172789 0.65688491 0
2.9500003 0.54736269 0.65698409 0
2.9510002 0.5429939 0.65708333 0
2.9530003 0.53885055 0.65728176 0
2.9540002 0.5344727 0.65738094 0
2.9560003 0.53031677 0.65757942 0
2.9570003 0.52592987 0.6576786 0
2.6790001 0.42675105 0.63009834 0
2.6760001 0.42202327 0.62980074 0
2.6730001 0.4173063 0.62950307 0
2.6710002 0.41280225 0.62930465 0
2.6710002 0.40870577 0.62930465 0
2.6710002 0.40460932 0.62930465 0
2.6710002 0.4005129 0.62930465 0
2.6720002 0.39661124 0.62940389 0
2.6730001 0.39270598 0.62950307 0
2.6750002 0.38898835 0.6297015 0
2.6780002 0.3854529 0.62999916 0
2.6810002 0.3819066 0.63029677 0
2.6860001 0.37872106 0.6307928 0
2.5970001 0.67922288 0.61800021 0
2.5910003 0.67329025 0.61741579 0
2.5870001 0.66803205 0.61702615 0
2.5840001 0.66311306 0.61673391 0
2.5820003 0.65852785 0.61653912 0
2.5810001 0.65427077 0.61644173 0
2.5800002 0.65001744 0.61634433 0
2.5800002 0.64608514 0.61634433 0
2.5800002 0.64215279 0.61634433 0
2.5800002 0.63822049 0.61634433 0
2.5800002 0.63428825 0.61634433 0
2.5810001 0.63066614 0.61644173 0
2.5820003 0.62704057 0.61653912 0
2.5840001 0.6237179 0.61673391 0
2.5860002 0.62038809 0.61692876 0
2.5880003 0.61705106 0.6171236 0
2.5900002 0.61370677 0.61731839 0
2.5930002 0.61065477 0.61761057 0
2.5960002 0.60759187 0.61790282 0
2.6000001 0.60481399 0.61829245 0
2.6040001 0.60202169 0.61868203 0
2.6100001 0.59979939 0.61926651 0
2.6160002 0.59755546 0.61985093 0
2.9090002 0.67359501 0.64839077 0
2.9110003 0.66963929 0.64858556 0
2.9120002 0.66539305 0.64868301 0
2.9130001 0.6611433 0.64878035 0
2.9150002 0.65716952 0.64897525 0
2.9160001 0.65291077 0.64907259 0
2.9170003 0.64864838 0.64917004 0
2.9190001 0.64465648 0.64936483 0
2.9200003 0.64038509 0.64946222 0
2.9210002 0.63611007 0.64955962 0
2.9230001 0.63210016 0.64975446 0
2.9240003 0.6278162 0.64985186 0
2.9250002 0.62352854 0.64994925 0
2.9270003 0.61950064 0.6501441 0
2.9280002 0.61520398 0.65024149 0
2.9290001 0.61090362 0.65033889 0
2.9310002 0.60685772 0.65053368 0
2.9320002 0.60254842 0.65063107 0
2.9340003 0.59848988 0.65082592 0
2.9350002 0.59417152 0.65092331 0
2.9360001 0.58984959 0.65102071 0
2.9380002 0.58577299 0.65121555 0
2.9390001 0.58144206 0.65131295 0
2.9400003 0.57710755 0.65141034 0
2.9420002 0.57301289 0.65160513 0
2.9430003 0.56866932 0.65170258 0
2.9450002 0.56456202 0.65189737 0
2.9460001 0.56020939 0.65199476 0
2.9470003 0.55585325 0.65209222 0
2.9490001 0.55172789 0.65228701 0
2.9500003 0.54736269 0.6523844 0
2.9510002 0.5429939 0.65248179 0
2.9530003 0.53885055 0.65267664 0
2.9540002 0.5344727 0.65277404 0
2.9560003 0.53031677 0.65296888 0
2.9570003 0.52592987 0.65306628 0
2.6790001 0.43497282 0.62598747 0
2.6740003 0.42981577 0.62550044 0
2.6700003 0.42488414 0.62511086 0
2.6680002 0.42037821 0.62491602 0
2.6660001 0.41587952 0.62472117 0
2.6650002 0.41159007 0.62462378 0
2.6640003 0.40730423 0.62452638 0
2.6640003 0.40322042 0.62452638 0
2.6650002 0.39933318 0.62462378 0
2.6660001 0.39544234 0.62472117 0
2.6670003 0.39154795 0.62481862 0
2.6690001 0.38784114 0.62501341 0
2.6710002 0.38412711 0.62520826 0
2.6740003 0.38059345 0.62550044 0
2.6770003 0.37704897 0.62579268 0
2.6820002 0.37386161 0.62627971 0
2.6870003 0.37065625 0.62676674 0
2.5970001 0.68318588 0.61403728 0
2.5900002 0.67691225 0.61336803 0
2.5850003 0.67132044 0.61289001 0
2.5820003 0.6663996 0.61260325 0
2.5800002 0.66181433 0.61241198 0
2.5780003 0.65723628 0.61222082 0
2.5770001 0.65298653 0.61212522 0
2.5770001 0.64905959 0.61212522 0
2.5760002 0.64481527 0.61202961 0
2.5760002 0.64089018 0.61202961 0
2.5770001 0.63727891 0.61212522 0
2.5770001 0.63335204 0.61212522 0
2.5780003 0.62973541 0.61222082 0
2.5790002 0.62611514 0.61231643 0
2.5810001 0.62279791 0.61250758 0
2.5820003 0.6191687 0.61260325 0
2.5840001 0.61583883 0.6127944 0
2.5860002 0.6125018 0.61298561 0
2.5890002 0.60945702 0.61327243 0
2.5920002 0.60640138 0.61355925 0
2.5960002 0.60363072 0.61394167 0
2.6000001 0.60084563 0.61432403 0
2.6040001 0.59804612 0.61470646 0
2.6100001 0.59581298 0.61528009 0
2.6180003 0.59413552 0.61604488 0
2.9110003 0.66963929 0.6440562 0
2.9120002 0.66539305 0.64415181 0
2.9130001 0.6611433 0.64424741 0
2.9150002 0.65716952 0.64443862 0
2.9160001 0.65291077 0.64453423 0
2.9170003 0.64864838 0.64462984 0
2.9190001 0.64465648 0.64482105 0
2.9200003 0.64038509 0.64491665 0
2.9210002 0.63611007 0.64501226 0
2.9230001 0.63210016 0.64520341 0
2.9240003 0.6278162 0.64529908 0
2.9250002 0.62352854 0.64539468 0
2.9270003 0.61950064 0.64558589 0
2.9280002 0.61520398 0.64568144 0
2.9290001 0.61090362 0.64577705 0
2.9310002 0.60685772 0.64596826 0
2.9320002 0.60254842 0.64606386 0
2.9340003 0.59848988 0.64625508 0
2.9350002 0.59417152 0.64635068 0
2.9360001 0.58984959 0.64644629 0
2.9380002 0.58577299 0.64663744 0
2.9390001 0.58144206 0.64673305 0
2.9400003 0.57710755 0.64682865 0
2.9420002 0.57301289 0.64701986 0
2.9430003 0.56866932 0.64711547 0
2.9450002 0.56456202 0.64730668 0
2.9460001 0.56020939 0.64740229 0
2.9470003 0.55585325 0.64749789 0
2.9490001 0.55172789 0.6476891 0
2.9500003 0.54736269 0.64778471 0
2.9510002 0.5429939 0.64788032 0
2.9530003 0.53885055 0.64807153 0
2.9540002 0.5344727 0.64816713 0
2.9560003 0.53031677 0.64835835 0
2.9570003 0.52592987 0.64845395 0
2.6750002 0.4382323 0.62149417 0
2.6700003 0.43307346 0.6210162 0
2.6660001 0.42814183 0.62063378 0
2.6640003 0.42363951 0.62044257 0
2.6620002 0.41914442 0.62025136 0
2.6610003 0.41486037 0.62015575 0
2.6600001 0.41057992 0.62006015 0
2.6600001 0.40650332 0.62006015 0
2.6600001 0.40242672 0.62006015 0
2.6600001 0.39835009 0.62006015 0
2.6610003 0.39446834 0.62015575 0
2.6620002 0.39058292 0.62025136 0
2.6640003 0.38688514 0.62044257 0
2.6660001 0.38318008 0.62063378 0
2.6680002 0.37946784 0.62082499 0
2.6710002 0.37593418 0.62111175 0
2.6740003 0.3723897 0.62139857 0
2.6790001 0.36919874 0.6218766 0
2.6850002 0.3661702 0.62245023 0
2.6930003 0.36347711 0.62321502 0
2.5980003 0.6874826 0.6101681 0
2.5890002 0.68053067 0.60932386 0
2.5850003 0.6752618 0.60894871 0
2.5810001 0.67000717 0.6085735 0
2.5780003 0.66509372 0.6082921 0
2.5770001 0.66084027 0.60819829 0
2.5750003 0.6562677 0.60801071 0
2.5750003 0.65234435 0.60801071 0
2.5740001 0.64810175 0.60791695 0
2.5740001 0.6441803 0.60791695 0
2.5740001 0.64025885 0.60791695 0
2.5740001 0.63633734 0.60791695 0
2.5750003 0.63272792 0.60801071 0
2.5760002 0.62911493 0.60810453 0
2.5770001 0.62549824 0.60819829 0
2.5780003 0.62187809 0.6082921 0
2.5800002 0.618559 0.60847974 0
2.5820003 0.61523283 0.60866731 0
2.5840001 0.61189932 0.60885489 0
2.5860002 0.60855871 0.60904253 0
2.5890002 0.60550851 0.60932386 0
2.5920002 0.60244745 0.60960531 0
2.5960002 0.59966958 0.60998046 0
2.6000001 0.59687722 0.61035568 0
2.6060002 0.59465134 0.61091846 0
2.6110003 0.59211522 0.61138749 0
2.6200001 0.5907082 0.61223161 0
2.9120002 0.66539305 0.63962066 0
2.9130001 0.6611433 0.63971442 0
2.9150002 0.65716952 0.63990206 0
2.9160001 0.65291077 0.63999581 0
2.9170003 0.64864838 0.64008963 0
2.9190001 0.64465648 0.64027727 0
2.9200003 0.64038509 0.64037108 0
2.9210002 0.63611007 0.64046484 0
2.9230001 0.63210016 0.64065242 0
2.9240003 0.6278162 0.64074624 0
2.9250002 0.62352854 0.64084005 0
2.9270003 0.61950064 0.64102763 0
2.9280002 0.61520398 0.64112145 0
2.9290001 0.61090362 0.64121521 0
2.9310002 0.60685772 0.64140284 0
2.9320002 0.60254842 0.6414966 0
2.9340003 0.59848988 0.64168423 0
2.9350002 0.59417152 0.64177799 0
2.9360001 0.58984959 0.64187181 0
2.9380002 0.58577299 0.64205945 0
2.9390001 0.58144206 0.6421532 0
2.9400003 0.57710755 0.64224702 0
2.9420002 0.57301289 0.6424346 0
2.9430003 0.56866932 0.64252841 0
2.9450002 0.56456202 0.64271599 0
2.9460001 0.56020939 0.64280975 0
2.9470003 0.55585325 0.64290363 0
2.9490001 0.55172789 0.6430912 0
2.9500003 0.54736269 0.64318502 0
2.9510002 0.5429939 0.64327878 0
2.9530003 0.53885055 0.64346635 0
2.9540002 0.5344727 0.64356017 0
2.9560003 0.53031677 0.64374781 0
2.9570003 0.52592987 0.64384156 0
2.6730001 0.44190666 0.61720294 0
2.6680002 0.4367424 0.61673391 0
2.6640003 0.43180719 0.61635876 0
2.6610003 0.42709565 0.61607736 0
2.6590002 0.4226023 0.61588979 0
2.6580002 0.41832188 0.61579597 0
2.6570003 0.4140451 0.61570215 0
2.6560001 0.4097718 0.61560833 0
2.6560001 0.40570241 0.61560833 0
2.6560001 0.40163302 0.61560833 0
2.6560001 0.39756364 0.61560833 0
2.6570003 0.3936891 0.61570215 0
2.6580002 0.38981089 0.61579597 0
2.6600001 0.38612026 0.61598355 0
2.6620002 0.38242248 0.61617112 0
2.6640003 0.37871748 0.61635876 0
2.6670003 0.37519103 0.61664015 0
2.6700003 0.37165377 0.61692154 0
2.6740003 0.36828786 0.61729676 0
2.6780002 0.36490753 0.61767191 0
2.6840003 0.3618699 0.61823469 0
2.6930003 0.35934097 0.61907887 0
2.5910003 0.68514669 0.60555935 0
2.5850003 0.67920309 0.60500741 0
2.5810001 0.67394131 0.60463941 0
2.5780003 0.66902238 0.60436344 0
2.5760002 0.66444069 0.60417944 0
2.5740001 0.65986621 0.60399544 0
2.5730002 0.65562189 0.60390347 0
2.5720003 0.65138113 0.6038115 0
2.5720003 0.64746326 0.6038115 0
2.5710001 0.64322788 0.60371947 0
2.5710001 0.63931179 0.60371947 0
2.5720003 0.63570964 0.6038115 0
2.5720003 0.63179183 0.6038115 0
2.5730002 0.62818414 0.60390347 0
2.5740001 0.62457287 0.60399544 0
2.5760002 0.62126476 0.60417944 0
2.5770001 0.61764443 0.60427141 0
2.5790002 0.61432368 0.60445541 0
2.5810001 0.61099559 0.60463941 0
2.5840001 0.60795981 0.60491538 0
2.5870001 0.60491323 0.60519135 0
2.5900002 0.60185575 0.60546732 0
2.5930002 0.59878749 0.60574335 0
2.5970001 0.59600055 0.60611129 0
2.6020002 0.59348971 0.60657132 0
2.6070001 0.59096074 0.60703123 0
2.6140001 0.58898735 0.60767519 0
2.6230001 0.58755875 0.60850316 0
2.9120002 0.66539305 0.63508952 0
2.9130001 0.6611433 0.63518149 0
2.9150002 0.65716952 0.63536549 0
2.9160001 0.65291077 0.63545746 0
2.9170003 0.64864838 0.63554943 0
2.9190001 0.64465648 0.63573349 0
2.9200003 0.64038509 0.63582546 0
2.9210002 0.63611007 0.63591743 0
2.9230001 0.63210016 0.63610142 0
2.9240003 0.6278162 0.63619345 0
2.9250002 0.62352854 0.63628542 0
2.9270003 0.61950064 0.63646942 0
2.9280002 0.61520398 0.63656139 0
2.9290001 0.61090362 0.63665342 0
2.9310002 0.60685772 0.63683736 0
2.9320002 0.60254842 0.63692939 0
2.9340003 0.59848988 0.63711339 0
2.9350002 0.59417152 0.63720536 0
2.9360001 0.58984959 0.63729733 0
2.9380002 0.58577299 0.63748133 0
2.9390001 0.58144206 0.63757336 0
2.9400003 0.57710755 0.63766533 0
2.9420002 0.57301289 0.63784933 0
2.9430003 0.56866932 0.6379413 0
2.9450002 0.56456202 0.6381253 0
2.9460001 0.56020939 0.63821727 0
2.9470003 0.55585325 0.6383093 0
2.9490001 0.55172789 0.6384933 0
2.9500003 0.54736269 0.63858527 0
2.9510002 0.5429939 0.6386773 0
2.9530003 0.53885055 0.6388613 0
2.9540002 0.5344727 0.63895327 0
2.9560003 0.53031677 0.63913727 0
2.9570003 0.52592987 0.63922924 0
2.9580002 0.52153939 0.63932121 0
2.6730001 0.44600672 0.61310285 0
2.6670003 0.44061875 0.61255091 0
2.6620002 0.43546528 0.61209095 0
2.6600001 0.43096298 0.61190695 0
2.6570003 0.42625862 0.61163098 0
2.6550002 0.42177257 0.61144698 0
2.6540003 0.41749936 0.61135501 0
2.6530001 0.4132297 0.61126298 0
2.6530001 0.40916574 0.61126298 0
2.6530001 0.40510178 0.61126298 0
2.6530001 0.40103778 0.61126298 0
2.6530001 0.39697379 0.61126298 0
2.6540003 0.39310467 0.61135501 0
2.6550002 0.38923189 0.61144698 0
2.6570003 0.38554671 0.61163098 0
2.6580002 0.3816649 0.61172295 0
2.6600001 0.37796706 0.61190695 0
2.6630001 0.37444785 0.61218292 0
2.6660001 0.3709178 0.61245894 0
2.6690001 0.36737692 0.61273491 0
2.6740003 0.36418602 0.61319488 0
2.6790001 0.36097699 0.61365485 0
2.6850002 0.35792676 0.61420679 0
2.6940002 0.35537982 0.61503476 0
2.5940001 0.69010526 0.60187775 0
2.5860002 0.68347812 0.60115623 0
2.5810001 0.6778754 0.60070527 0
2.5780003 0.6729511 0.60043472 0
2.5750003 0.66803753 0.60016418 0
2.5730002 0.66346121 0.59998375 0
2.5720003 0.65921688 0.59989357 0
2.5710001 0.65497607 0.59980339 0
2.5700002 0.65073895 0.59971321 0
2.5700002 0.64682472 0.59971321 0
2.5700002 0.64291042 0.59971321 0
2.5700002 0.63899612 0.59971321 0
2.5700002 0.63508189 0.59971321 0
2.5710001 0.63147968 0.59980339 0
2.5720003 0.6278739 0.59989357 0
2.5730002 0.62426448 0.59998375 0
2.5740001 0.62065142 0.60007393 0
2.5760002 0.61733967 0.60025436 0
2.5780003 0.61402065 0.60043472 0
2.5800002 0.61069441 0.60061508 0
2.5820003 0.60736102 0.60079551 0
2.5840001 0.60402036 0.60097587 0
2.5870001 0.60096824 0.60124642 0
2.5910003 0.59819949 0.6016072 0
2.5950003 0.59541619 0.60196799 0
2.5990002 0.59261847 0.60232872 0
2.6040001 0.59009492 0.60277969 0
2.6100001 0.58784014 0.60332084 0
2.6180003 0.58613378 0.60404235 0
2.6290002 0.58524805 0.60503447 0
2.9130001 0.6611433 0.63064849 0
2.9150002 0.65716952 0.63082892 0
2.9160001 0.65291077 0.6309191 0
2.9170003 0.64864838 0.63100928 0
2.9190001 0.64465648 0.63118964 0
2.9200003 0.64038509 0.63127983 0
2.9210002 0.63611007 0.63137007 0
2.9230001 0.63210016 0.63155043 0
2.9240003 0.6278162 0.63164061 0
2.9250002 0.62352854 0.63173079 0
2.9270003 0.61950064 0.63191116 0
2.9280002 0.61520398 0.6320014 0
2.9290001 0.61090362 0.63209158 0
2.9310002 0.60685772 0.63227195 0
2.9320002 0.60254842 0.63236213 0
2.9340003 0.59848988 0.63254249 0
2.9350002 0.59417152 0.63263273 0
2.9360001 0.58984959 0.63272291 0
2.9380002 0.58577299 0.63290328 0
2.9390001 0.58144206 0.63299346 0
2.9400003 0.57710755 0.63308364 0
2.9420002 0.57301289 0.63326406 0
2.9430003 0.56866932 0.63335425 0
2.9450002 0.56456202 0.63353461 0
2.9460001 0.56020939 0.63362479 0
2.9470003 0.55585325 0.63371497 0
2.9490001 0.55172789 0.6338954 0
2.9500003 0.54736269 0.63398558 0
