# .PCD v0.7 - Point Cloud Data file format
VERSION 0.7
FIELDS x y z intensity
SIZE 4 4 4 4
TYPE F F F F
COUNT 1 1 1 1
WIDTH 1401
HEIGHT 1
VIEWPOINT 0 0 0 1 0 0 0
POINTS 1401
DATA ascii
2.8440001 -0.97619504 0.54066372 0
2.8410003 -0.97945642 0.54049599 0
2.5720003 -0.88050669 0.52545404 0
2.5630002 -0.88095033 0.52495074 0
2.5570002 -0.88252509 0.52461529 0
2.5520003 -0.88446778 0.52433568 0
2.5480001 -0.88678384 0.52411199 0
2.5450003 -0.8894788 0.52394426 0
2.5420003 -0.89216292 0.52377647 0
2.5390003 -0.89483613 0.52360874 0
2.5370002 -0.89789712 0.52349687 0
2.5350001 -0.90095097 0.52338505 0
2.5330002 -0.90399766 0.52327323 0
2.5310001 -0.90703696 0.52316141 0
2.5300002 -0.91047513 0.5231055 0
2.5300002 -0.91431725 0.5231055 0
2.5290003 -0.91774988 0.52304959 0
2.5290003 -0.92159021 0.52304959 0
2.5290003 -0.92543054 0.52304959 0
2.5300002 -0.92968565 0.5231055 0
2.5310001 -0.93394446 0.52316141 0
2.5320003 -0.93820691 0.52321732 0
2.5340002 -0.94289315 0.52332914 0
2.5390003 -0.94885296 0.52360874 0
2.5460002 -0.95567852 0.52400017 0
2.8110001 -1.0723597 0.53881842 0
2.8100002 -1.0762812 0.53876251 0
2.8090003 -1.080199 0.5387066 0
2.8080003 -1.0841134 0.53865069 0
2.8070002 -1.0880239 0.53859478 0
2.8060002 -1.091931 0.53853887 0
2.8050003 -1.0958345 0.53848296 0
2.8040001 -1.0997342 0.538427 0
2.8030002 -1.1036305 0.53837109 0
2.8020003 -1.1075232 0.53831518 0
2.8000002 -1.1109684 0.53820336 0
2.7990003 -1.114852 0.53814745 0
2.7980001 -1.1187319 0.53809148 0
2.7970002 -1.1226083 0.53803557 0
2.7960002 -1.1264812 0.53797966 0
2.7950003 -1.1303504 0.53792375 0
2.7940001 -1.1342158 0.53786784 0
2.7930002 -1.1380779 0.53781193 0
2.7920003 -1.1419362 0.53775603 0
2.7910001 -1.1457909 0.53770006 0
2.7900002 -1.149642 0.53764415 0
2.7890003 -1.1534896 0.53758824 0
2.7880001 -1.1573334 0.53753233 0
2.7860003 -1.1607066 0.53742051 0
2.7850003 -1.1645415 0.5373646 0
2.7840002 -1.1683728 0.53730863 0
2.7830002 -1.1722004 0.53725272 0
2.7820003 -1.1760246 0.53719682 0
2.7810001 -1.179845 0.53714091 0
2.7800002 -1.1836618 0.537085 0
2.7790003 -1.1874751 0.53702909 0
2.7780001 -1.1912848 0.53697312 0
2.7770002 -1.1950908 0.53691721 0
2.7760003 -1.1988932 0.5368613 0
2.7750001 -1.202692 0.53680539 0
2.7740002 -1.2064872 0.53674948 0
2.7730002 -1.2102789 0.53669357 0
2.7720003 -1.2140669 0.53663766 0
2.7710001 -1.2178512 0.5365817 0
2.7690003 -1.221136 0.53646988 0
2.7680001 -1.2249113 0.53641397 0
2.7670002 -1.2286831 0.53635806 0
2.7660003 -1.2324513 0.53630215 0
2.7650001 -1.2362158 0.53624618 0
2.7650001 -1.2404817 0.53624618 0
2.7640002 -1.2442409 0.53619027 0
2.5090003 -1.1264018 0.52193117 0
2.5010002 -1.1260933 0.52148384 0
2.4950001 -1.1267877 0.52114832 0
2.4900002 -1.1279783 0.52086878 0
2.4870002 -1.1301898 0.52070099 0
2.4830003 -1.1318692 0.52047729 0
2.4800003 -1.1340572 0.52030957 0
2.4770002 -1.1362344 0.52014184 0
2.4750001 -1.1389275 0.52002996 0
2.4730003 -1.1416132 0.51991814 0
2.4710002 -1.1442919 0.51980633 0
2.4700003 -1.1474955 0.51975042 0
2.4690001 -1.1506954 0.51969445 0
2.4680002 -1.1538918 0.51963854 0
2.4670002 -1.1570846 0.51958263 0
2.4670002 -1.160813 0.51958263 0
2.4670002 -1.1645415 0.51958263 0
2.4670002 -1.16827 0.51958263 0
2.4670002 -1.1719985 0.51958263 0
2.4690001 -1.1768199 0.51969445 0
2.4720001 -1.1821971 0.51986223 0
2.4770002 -1.1886855 0.52014184 0
3.0680003 -0.98444939 0.5483768 0
3.0540001 -0.98431218 0.54761922 0
3.0530002 -0.9887442 0.5475651 0
3.0520003 -0.99317247 0.54751098 0
3.0510001 -0.99759722 0.54745686 0
3.0490003 -1.0016576 0.54734862 0
3.0480003 -1.0060734 0.54729456 0
3.0470002 -1.0104854 0.54724044 0
3.0460002 -1.0148939 0.54718632 0
2.8840003 -0.96005464 0.53841978 0
2.8730001 -0.96046758 0.53782451 0
2.8660002 -0.9623273 0.53744578 0
2.8600001 -0.96453518 0.53712106 0
2.8550003 -0.96709669 0.53685045 0
2.8510003 -0.97001702 0.53663403 0
2.8470001 -0.97292286 0.5364176 0
2.8440001 -0.97619504 0.53625524 0
2.8410003 -0.97945642 0.53609288 0
2.5760002 -0.88596857 0.5217526 0
2.5660002 -0.88601547 0.5212115 0
2.5590003 -0.88719517 0.52083266 0
2.5550003 -0.88952392 0.52061623 0
2.5500002 -0.89144492 0.52034563 0
2.5470002 -0.89413804 0.52018332 0
2.5440001 -0.89682025 0.52002096 0
2.5420003 -0.89989042 0.51991272 0
2.5400002 -0.90295321 0.51980448 0
2.5380001 -0.90600884 0.51969624 0
2.5370002 -0.90946138 0.51964217 0
2.5360003 -0.91291028 0.51958805 0
2.5350001 -0.91635549 0.51953393 0
2.5340002 -0.91979712 0.51947981 0
2.5340002 -0.92364645 0.51947981 0
2.5350001 -0.9279089 0.51953393 0
2.5350001 -0.93175995 0.51953393 0
2.5370002 -0.93644452 0.51964217 0
2.5400002 -0.94155467 0.51980448 0
2.5440001 -0.94709599 0.52002096 0
2.8140001 -1.0649281 0.53463179 0
2.8120003 -1.0684347 0.53452361 0
2.8110001 -1.0723597 0.53446949 0
2.8100002 -1.0762812 0.53441536 0
2.8090003 -1.080199 0.53436124 0
2.8080003 -1.0841134 0.53430712 0
2.8070002 -1.0880239 0.534253 0
2.8060002 -1.091931 0.53419888 0
2.8050003 -1.0958345 0.53414476 0
2.8040001 -1.0997342 0.53409064 0
2.8030002 -1.1036305 0.53403652 0
2.8020003 -1.1075232 0.53398246 0
2.8000002 -1.1109684 0.53387421 0
2.7990003 -1.114852 0.53382009 0
2.7980001 -1.1187319 0.53376597 0
2.7970002 -1.1226083 0.53371185 0
2.7960002 -1.1264812 0.53365779 0
2.7950003 -1.1303504 0.53360367 0
2.7940001 -1.1342158 0.53354955 0
2.7930002 -1.1380779 0.53349543 0
2.7920003 -1.1419362 0.53344131 0
2.7910001 -1.1457909 0.53338718 0
2.7900002 -1.149642 0.53333306 0
2.7890003 -1.1534896 0.53327894 0
2.7880001 -1.1573334 0.53322482 0
2.7860003 -1.1607066 0.53311658 0
2.7850003 -1.1645415 0.53306246 0
2.7840002 -1.1683728 0.5330084 0
2.7830002 -1.1722004 0.53295428 0
2.7820003 -1.1760246 0.53290015 0
2.7810001 -1.179845 0.53284603 0
2.7800002 -1.1836618 0.53279191 0
2.7790003 -1.1874751 0.53273779 0
2.7780001 -1.1912848 0.53268373 0
2.7770002 -1.1950908 0.53262961 0
2.7760003 -1.1988932 0.53257549 0
2.7750001 -1.202692 0.53252137 0
2.7740002 -1.2064872 0.53246725 0
2.7730002 -1.2102789 0.53241313 0
2.7720003 -1.2140669 0.532359 0
2.7710001 -1.2178512 0.53230488 0
2.7690003 -1.221136 0.53219664 0
2.7680001 -1.2249113 0.53214252 0
2.7670002 -1.2286831 0.5320884 0
2.7660003 -1.2324513 0.53203434 0
2.5120001 -1.1317482 0.51828933 0
2.4990003 -1.1288514 0.51758581 0
2.4930003 -1.1295314 0.51726115 0
2.4880002 -1.1307092 0.51699054 0
2.4840002 -1.1323905 0.51677412 0
2.4800003 -1.1340572 0.51655763 0
2.4770002 -1.1362344 0.51639533 0
2.4750001 -1.1389275 0.51628709 0
2.4720001 -1.1410847 0.51612473 0
2.4700003 -1.1437618 0.51601648 0
2.4690001 -1.1469632 0.51596236 0
2.4670002 -1.1496276 0.51585418 0
2.4660001 -1.1528202 0.51580006 0
2.4650002 -1.1560094 0.51574594 0
2.4650002 -1.1597342 0.51574594 0
2.4650002 -1.1634592 0.51574594 0
2.4650002 -1.167184 0.51574594 0
2.4660001 -1.1714536 0.51580006 0
2.4680002 -1.1762735 0.51590824 0
2.4700003 -1.1811005 0.51601648 0
2.4760003 -1.1881354 0.51634121 0
3.0680003 -0.98444939 0.54356426 0
3.0540001 -0.98431218 0.5428319 0
3.0530002 -0.9887442 0.54277962 0
3.0520003 -0.99317247 0.54272729 0
3.0510001 -0.99759722 0.54267496 0
3.0490003 -1.0016576 0.54257035 0
3.0480003 -1.0060734 0.54251808 0
3.0470002 -1.0104854 0.54246575 0
3.0460002 -1.0148939 0.54241341 0
2.8840003 -0.96005464 0.53393912 0
2.8730001 -0.96046758 0.5333637 0
2.8660002 -0.9623273 0.53299755 0
2.8600001 -0.96453518 0.53268373 0
2.8550003 -0.96709669 0.53242218 0
2.8510003 -0.97001702 0.53221291 0
2.8470001 -0.97292286 0.53200364 0
2.8440001 -0.97619504 0.5318467 0
2.8410003 -0.97945642 0.53168982 0
2.5730002 -0.88873017 0.51767057 0
2.5620003 -0.88836402 0.51709521 0
2.5560002 -0.88991529 0.51678133 0
2.5510001 -0.89183813 0.51651978 0
2.5470002 -0.89413804 0.51631051 0
2.5440001 -0.89682025 0.51615357 0
2.5410001 -0.89949167 0.51599663 0
2.5380001 -0.9021523 0.5158397 0
2.5360003 -0.90520442 0.51573509 0
2.5350001 -0.9086532 0.51568282 0
2.5340002 -0.91209853 0.51563048 0
2.5330002 -0.91554022 0.51557815 0
2.5320003 -0.91897827 0.51552588 0
2.5320003 -0.92282403 0.51552588 0
2.5320003 -0.92666978 0.51552588 0
2.5330002 -0.93093032 0.51557815 0
2.5350001 -0.93561113 0.51568282 0
2.5370002 -0.94029927 0.51578742 0
2.5420003 -0.94625551 0.51604897 0
2.8140001 -1.0649281 0.53027743 0
2.8120003 -1.0684347 0.53017282 0
2.8110001 -1.0723597 0.53012049 0
2.8100002 -1.0762812 0.53006816 0
2.8090003 -1.080199 0.53001589 0
2.8080003 -1.0841134 0.52996355 0
2.8070002 -1.0880239 0.52991122 0
2.8060002 -1.091931 0.52985895 0
2.8050003 -1.0958345 0.52980661 0
2.8040001 -1.0997342 0.52975428 0
2.8030002 -1.1036305 0.52970201 0
2.8020003 -1.1075232 0.52964967 0
2.8000002 -1.1109684 0.52954507 0
2.7990003 -1.114852 0.52949274 0
2.7980001 -1.1187319 0.5294404 0
2.7970002 -1.1226083 0.52938813 0
2.7960002 -1.1264812 0.52933586 0
2.7950003 -1.1303504 0.52928352 0
2.7940001 -1.1342158 0.52923119 0
2.7930002 -1.1380779 0.52917886 0
2.7920003 -1.1419362 0.52912658 0
2.7910001 -1.1457909 0.52907431 0
2.7900002 -1.149642 0.52902198 0
2.7890003 -1.1534896 0.52896965 0
2.7880001 -1.1573334 0.52891731 0
2.7860003 -1.1607066 0.52881271 0
2.7850003 -1.1645415 0.52876043 0
2.7840002 -1.1683728 0.5287081 0
2.7830002 -1.1722004 0.52865577 0
2.7820003 -1.1760246 0.52860349 0
2.7810001 -1.179845 0.52855116 0
2.7800002 -1.1836618 0.52849889 0
2.7790003 -1.1874751 0.52844656 0
2.7780001 -1.1912848 0.52839422 0
2.7770002 -1.1950908 0.52834195 0
2.7760003 -1.1988932 0.52828962 0
2.7750001 -1.202692 0.52823728 0
2.7740002 -1.2064872 0.52818501 0
2.7730002 -1.2102789 0.52813268 0
2.7720003 -1.2140669 0.5280804 0
2.7710001 -1.2178512 0.52802807 0
2.7690003 -1.221136 0.52792346 0
2.5100002 -1.1269141 0.51437503 0
2.4990003 -1.1250652 0.51379961 0
2.4930003 -1.125756 0.51348579 0
2.4880002 -1.126943 0.51322418 0
2.4840002 -1.1286312 0.51301497 0
2.4800003 -1.1303053 0.5128057 0
2.4770002 -1.1324878 0.51264882 0
2.4740002 -1.1346596 0.51249188 0
2.4720001 -1.1373472 0.51238722 0
2.4690001 -1.1394992 0.51223028 0
2.4670002 -1.1421707 0.51212567 0
2.4660001 -1.1453669 0.5120734 0
2.4640002 -1.1480259 0.51196873 0
2.4630003 -1.1512132 0.51191646 0
2.4620001 -1.1543969 0.51186413 0
2.4620001 -1.1581163 0.51186413 0
2.4610002 -1.1612947 0.51181185 0
2.4610002 -1.1650122 0.51181185 0
2.4620001 -1.1692746 0.51186413 0
2.4630003 -1.1735407 0.51191646 0
2.4640002 -1.1778103 0.51196873 0
2.4680002 -1.1837341 0.512178 0
2.4740002 -1.1907761 0.51249188 0
3.0680003 -0.98444939 0.53875172 0
3.0540001 -0.98431218 0.53804463 0
3.0530002 -0.9887442 0.53799409 0
3.0520003 -0.99317247 0.5379436 0
3.0510001 -0.99759722 0.53789306 0
3.0490003 -1.0016576 0.53779209 0
3.0480003 -1.0060734 0.53774154 0
3.0470002 -1.0104854 0.53769106 0
3.0460002 -1.0148939 0.53764057 0
2.8840003 -0.96005464 0.52945846 0
2.8730001 -0.96046758 0.52890289 0
2.8660002 -0.9623273 0.52854937 0
2.8600001 -0.96453518 0.52824634 0
2.8550003 -0.96709669 0.5279938 0
2.8510003 -0.97001702 0.52779174 0
2.8470001 -0.97292286 0.52758974 0
2.8440001 -0.97619504 0.52743822 0
2.5730002 -0.88481051 0.51375091 0
2.5620003 -0.8844642 0.51319534 0
2.5550003 -0.88563669 0.51284182 0
2.5510001 -0.88795811 0.51263976 0
2.5460002 -0.88987201 0.51238728 0
2.5430002 -0.89255786 0.51223576 0
2.5400002 -0.89523292 0.51208419 0
2.5370002 -0.89789712 0.51193267 0
2.5350001 -0.90095097 0.51183164 0
2.5330002 -0.90399766 0.51173067 0
2.5320003 -0.90744114 0.51168013 0
2.5310001 -0.91088092 0.51162964 0
2.5300002 -0.91431725 0.51157916 0
2.5290003 -0.91774988 0.51152861 0
2.5290003 -0.92159021 0.51152861 0
2.5290003 -0.92543054 0.51152861 0
2.5300002 -0.92968565 0.51157916 0
2.5310001 -0.93394446 0.51162964 0
2.5320003 -0.93820691 0.51168013 0
2.5350001 -0.94331336 0.51183164 0
2.5400002 -0.94927502 0.51208419 0
2.8120003 -1.0684347 0.52582198 0
2.8110001 -1.0723597 0.5257715 0
2.8100002 -1.0762812 0.52572101 0
2.8090003 -1.080199 0.52567047 0
2.8080003 -1.0841134 0.52561998 0
2.8070002 -1.0880239 0.5255695 0
2.8060002 -1.091931 0.52551895 0
2.8050003 -1.0958345 0.52546847 0
2.8040001 -1.0997342 0.52541792 0
2.8030002 -1.1036305 0.52536744 0
2.8020003 -1.1075232 0.52531695 0
2.8000002 -1.1109684 0.52521592 0
2.7990003 -1.114852 0.52516544 0
2.7980001 -1.1187319 0.52511489 0
2.7970002 -1.1226083 0.52506441 0
2.7960002 -1.1264812 0.52501392 0
2.7950003 -1.1303504 0.52496338 0
2.7940001 -1.1342158 0.52491289 0
2.7930002 -1.1380779 0.52486241 0
2.7920003 -1.1419362 0.52481186 0
2.7910001 -1.1457909 0.52476138 0
2.7900002 -1.149642 0.52471089 0
2.7890003 -1.1534896 0.52466035 0
2.7880001 -1.1573334 0.52460986 0
2.7860003 -1.1607066 0.52450883 0
2.7850003 -1.1645415 0.52445835 0
2.7840002 -1.1683728 0.5244078 0
2.7830002 -1.1722004 0.52435732 0
2.7820003 -1.1760246 0.52430683 0
2.7810001 -1.179845 0.52425629 0
2.7800002 -1.1836618 0.5242058 0
2.7790003 -1.1874751 0.52415532 0
2.7780001 -1.1912848 0.52410477 0
2.7770002 -1.1950908 0.52405429 0
2.7760003 -1.1988932 0.52400374 0
2.7750001 -1.202692 0.52395326 0
2.7740002 -1.2064872 0.52390277 0
2.7730002 -1.2102789 0.52385223 0
2.7720003 -1.2140669 0.52380174 0
2.5140002 -1.12515 0.51077104 0
2.5010002 -1.1223035 0.51011443 0
2.4940002 -1.1224947 0.50976092 0
2.4890001 -1.1236924 0.50950837 0
2.4840002 -1.1248721 0.50925583 0
2.4800003 -1.1265533 0.50905383 0
2.4770002 -1.1287414 0.50890231 0
2.4740002 -1.1309185 0.5087508 0
2.4710002 -1.1330849 0.50859922 0
2.4690001 -1.1357671 0.50849825 0
2.4670002 -1.1384422 0.50839722 0
2.4650002 -1.1411101 0.50829619 0
2.4630003 -1.1437707 0.50819522 0
2.4620001 -1.1469579 0.50814468 0
2.4610002 -1.1501416 0.50809419 0
2.4600003 -1.1533219 0.50804365 0
2.4590001 -1.1564982 0.50799316 0
2.4580002 -1.1596712 0.50794268 0
2.4580002 -1.1633834 0.50794268 0
2.4590001 -1.1676403 0.50799316 0
2.4590001 -1.1713544 0.50799316 0
2.4610002 -1.1761652 0.50809419 0
2.4630003 -1.1809833 0.50819522 0
2.4660001 -1.1863602 0.50834668 0
2.4730003 -1.1939635 0.50870025 0
3.0680003 -0.98444939 0.53393912 0
3.0540001 -0.98431218 0.53325731 0
3.0530002 -0.9887442 0.53320861 0
3.0520003 -0.99317247 0.53315991 0
3.0510001 -0.99759722 0.53311121 0
3.0490003 -1.0016576 0.53301382 0
3.0480003 -1.0060734 0.53296506 0
3.0470002 -1.0104854 0.53291637 0
3.0460002 -1.0148939 0.53286767 0
2.8840003 -0.96005464 0.5249778 0
2.8730001 -0.96046758 0.52444208 0
2.8660002 -0.9623273 0.52410114 0
2.8600001 -0.96453518 0.52380896 0
2.8550003 -0.96709669 0.52356541 0
2.8510003 -0.97001702 0.52337062 0
2.8470001 -0.97292286 0.52317584 0
2.5780003 -0.8828119 0.51007479 0
2.5640001 -0.88133633 0.50939292 0
2.5570002 -0.88252509 0.50905198 0
2.5510001 -0.88407815 0.5087598 0
2.5470002 -0.88639247 0.50856495 0
2.5430002 -0.88869232 0.50837016 0
2.5400002 -0.8913728 0.50822407 0
2.5370002 -0.89404237 0.50807792 0
2.5350001 -0.89709979 0.50798053 0
2.5320003 -0.8997497 0.50783443 0
2.5310001 -0.90319312 0.50778574 0
2.5290003 -0.90622902 0.50768834 0
2.5280001 -0.90966338 0.50763965 0
2.5270002 -0.91309422 0.50759089 0
2.5260003 -0.91652149 0.50754219 0
2.5260003 -0.92035639 0.50754219 0
2.5260003 -0.9241913 0.50754219 0
2.5260003 -0.9280262 0.50754219 0
2.5270002 -0.93227774 0.50759089 0
2.5290003 -0.9369514 0.50768834 0
2.5310001 -0.94163227 0.50778574 0
2.5340002 -0.94674248 0.50793183 0
2.5400002 -0.95313519 0.50822407 0
2.8110001 -1.0723597 0.52142251 0
2.8100002 -1.0762812 0.52137381 0
2.8090003 -1.080199 0.52132511 0
2.8080003 -1.0841134 0.52127641 0
2.8070002 -1.0880239 0.52122772 0
2.8060002 -1.091931 0.52117902 0
2.8050003 -1.0958345 0.52113032 0
2.8040001 -1.0997342 0.52108163 0
2.8030002 -1.1036305 0.52103293 0
2.8020003 -1.1075232 0.52098417 0
2.8000002 -1.1109684 0.52088678 0
2.7990003 -1.114852 0.52083808 0
2.7980001 -1.1187319 0.52078938 0
2.7970002 -1.1226083 0.52074069 0
2.7960002 -1.1264812 0.52069199 0
2.7950003 -1.1303504 0.52064329 0
2.7940001 -1.1342158 0.5205946 0
2.7930002 -1.1380779 0.52054584 0
2.7920003 -1.1419362 0.5204972 0
2.7910001 -1.1457909 0.52044845 0
2.7900002 -1.149642 0.52039975 0
2.7890003 -1.1534896 0.52035105 0
2.7880001 -1.1573334 0.52030236 0
2.7860003 -1.1607066 0.52020496 0
2.7850003 -1.1645415 0.52015626 0
2.7840002 -1.1683728 0.52010757 0
2.7830002 -1.1722004 0.52005887 0
2.7820003 -1.1760246 0.52001011 0
2.7810001 -1.179845 0.51996142 0
2.7800002 -1.1836618 0.51991272 0
2.7790003 -1.1874751 0.51986402 0
2.7780001 -1.1912848 0.51981533 0
2.7770002 -1.1950908 0.51976663 0
2.7760003 -1.1988932 0.51971793 0
2.7750001 -1.202692 0.51966923 0
2.7740002 -1.2064872 0.51962054 0
2.7470002 -1.1975223 0.51830554 0
2.5190003 -1.12388 0.50720131 0
2.5040002 -1.1200451 0.50647074 0
2.4960003 -1.1197422 0.5060811 0
2.4910002 -1.1209524 0.50583762 0
2.4860003 -1.1221448 0.50559413 0
2.4820001 -1.1238366 0.50539929 0
2.4780002 -1.1255143 0.5052045 0
2.4750001 -1.1276987 0.50505835 0
2.4720001 -1.1298722 0.50491226 0
2.4690001 -1.132035 0.50476617 0
2.4670002 -1.1347138 0.50466877 0
2.4650002 -1.1373851 0.50457132 0
2.4630003 -1.1400493 0.50447392 0
2.4610002 -1.1427064 0.50437653 0
2.4600003 -1.1458902 0.50432783 0
2.4590001 -1.1490701 0.50427914 0
2.4580002 -1.1522467 0.50423044 0
2.4570003 -1.1554196 0.50418174 0
2.4570003 -1.1591301 0.50418174 0
2.4560001 -1.1622975 0.50413299 0
2.4560001 -1.1660061 0.50413299 0
2.4570003 -1.1702614 0.50418174 0
2.4580002 -1.1745201 0.50423044 0
2.4590001 -1.1787825 0.50427914 0
2.4620001 -1.1841524 0.50442523 0
2.4660001 -1.190087 0.50462002 0
3.0680003 -0.98444939 0.52912658 0
3.0540001 -0.98431218 0.52846998 0
3.0530002 -0.9887442 0.52842307 0
3.0520003 -0.99317247 0.52837622 0
3.0510001 -0.99759722 0.52832931 0
3.0490003 -1.0016576 0.5282355 0
3.0480003 -1.0060734 0.52818859 0
3.0470002 -1.0104854 0.52814168 0
3.0460002 -1.0148939 0.52809483 0
2.8840003 -0.96005464 0.5204972 0
2.8730001 -0.96046758 0.51998127 0
2.8660002 -0.9623273 0.51965296 0
2.8600001 -0.96453518 0.51937157 0
2.8550003 -0.96709669 0.51913708 0
2.5670002 -0.87858558 0.5056302 0
2.5590003 -0.87940633 0.50525498 0
2.5530002 -0.88097382 0.50497359 0
2.5480001 -0.88290924 0.50473911 0
2.5440001 -0.88521814 0.50455153 0
2.5410001 -0.88790584 0.5044108 0
2.5380001 -0.89058268 0.50427008 0
2.5350001 -0.89324874 0.50412941 0
2.5320003 -0.895904 0.50398874 0
2.5300002 -0.89894873 0.50389493 0
2.5290003 -0.90238863 0.50384802 0
2.5270002 -0.90542084 0.5037542 0
2.5260003 -0.90885168 0.50370729 0
2.5250001 -0.91227889 0.50366044 0
2.5240002 -0.91570252 0.50361353 0
2.5240002 -0.91953379 0.50361353 0
2.5240002 -0.92336512 0.50361353 0
2.5240002 -0.92719638 0.50361353 0
2.5250001 -0.93144435 0.50366044 0
2.5260003 -0.93569595 0.50370729 0
2.5270002 -0.93995112 0.5037542 0
2.5300002 -0.94505411 0.50389493 0
2.5340002 -0.9505918 0.5040825 0
2.5430002 -0.9582724 0.50450462 0
2.8100002 -1.0762812 0.51702666 0
2.8090003 -1.080199 0.51697975 0
2.8080003 -1.0841134 0.51693285 0
2.8070002 -1.0880239 0.51688594 0
2.8060002 -1.091931 0.51683903 0
2.8050003 -1.0958345 0.51679218 0
2.8040001 -1.0997342 0.51674521 0
2.8030002 -1.1036305 0.51669836 0
2.8020003 -1.1075232 0.51665145 0
2.8000002 -1.1109684 0.51655763 0
2.7990003 -1.114852 0.51651073 0
2.7980001 -1.1187319 0.51646388 0
2.7970002 -1.1226083 0.51641697 0
2.7960002 -1.1264812 0.51637006 0
2.7950003 -1.1303504 0.51632315 0
2.7940001 -1.1342158 0.51627624 0
2.7930002 -1.1380779 0.51622933 0
2.7920003 -1.1419362 0.51618248 0
2.7910001 -1.1457909 0.51613557 0
2.7900002 -1.149642 0.51608866 0
2.7890003 -1.1534896 0.51604176 0
2.7880001 -1.1573334 0.51599485 0
2.7860003 -1.1607066 0.51590109 0
2.7850003 -1.1645415 0.51585418 0
2.7840002 -1.1683728 0.51580727 0
2.7830002 -1.1722004 0.51576036 0
2.7820003 -1.1760246 0.51571345 0
2.7810001 -1.179845 0.51566654 0
2.7800002 -1.1836618 0.5156197 0
2.7790003 -1.1874751 0.51557279 0
2.7780001 -1.1912848 0.51552588 0
2.7770002 -1.1950908 0.51547897 0
2.7760003 -1.1988932 0.51543206 0
2.7750001 -1.202692 0.51538515 0
2.5280001 -1.1246196 0.50380111 0
2.5090003 -1.1187934 0.50291002 0
2.5000002 -1.1180032 0.50248796 0
2.4930003 -1.1182053 0.50215966 0
2.4880002 -1.1194102 0.50192517 0
2.4830003 -1.1205971 0.50169069 0
2.4790001 -1.1222836 0.50150305 0
2.4760003 -1.1244754 0.50136238 0
2.4730003 -1.1266562 0.50122166 0
2.4700003 -1.1288261 0.50108099 0
2.4680002 -1.1315101 0.50098717 0
2.4650002 -1.1336603 0.50084651 0
2.4630003 -1.1363281 0.50075269 0
2.4610002 -1.1389887 0.50065887 0
2.4600003 -1.1421744 0.50061202 0
2.4580002 -1.1448222 0.5005182 0
2.4570003 -1.1479988 0.50047129 0
2.4560001 -1.1511716 0.50042439 0
2.4550002 -1.1543409 0.50037748 0
2.4550002 -1.1580477 0.50037748 0
2.4540002 -1.1612116 0.50033057 0
2.4540002 -1.1649168 0.50033057 0
2.4550002 -1.1691682 0.50037748 0
2.4560001 -1.1734234 0.50042439 0
2.4570003 -1.1776823 0.50047129 0
2.4590001 -1.1824965 0.50056505 0
2.4620001 -1.1878719 0.50070578 0
2.4680002 -1.1949248 0.50098717 0
3.0680003 -0.98444939 0.52431405 0
3.0540001 -0.98431218 0.52368271 0
3.0530002 -0.9887442 0.52363759 0
3.0520003 -0.99317247 0.52359247 0
3.0510001 -0.99759722 0.52354741 0
3.0490003 -1.0016576 0.52345723 0
3.0480003 -1.0060734 0.52341211 0
3.0470002 -1.0104854 0.52336705 0
3.0460002 -1.0148939 0.52332193 0
2.8730001 -0.96046758 0.51552045 0
2.8660002 -0.9623273 0.51520479 0
2.8600001 -0.96453518 0.51493418 0
2.5740001 -0.87735355 0.50203699 0
2.5630002 -0.87704873 0.50154096 0
2.5560002 -0.87824827 0.50122529 0
2.5500002 -0.87981039 0.50095469 0
2.5460002 -0.88213009 0.50077432 0
2.5420003 -0.88443542 0.50059396 0
2.5390003 -0.88711941 0.50045866 0
2.5360003 -0.88979262 0.50032336 0
2.5330002 -0.8924551 0.50018811 0
2.5310001 -0.89550531 0.50009787 0
2.5290003 -0.89854831 0.50000769 0
2.5270002 -0.90158409 0.49991751 0
2.5250001 -0.90461266 0.49982733 0
2.5240002 -0.90803999 0.49978223 0
2.5230002 -0.91146362 0.49973714 0
2.5220003 -0.91488367 0.49969205 0
2.5220003 -0.9187113 0.49969205 0
2.5220003 -0.922539 0.49969205 0
2.5220003 -0.92636669 0.49969205 0
2.5230002 -0.93061101 0.49973714 0
2.5240002 -0.93485892 0.49978223 0
2.5250001 -0.93911052 0.49982733 0
2.5270002 -0.94378781 0.49991751 0
2.5310001 -0.94932008 0.50009787 0
2.5360003 -0.95529252 0.50032336 0
2.8100002 -1.0762812 0.51267946 0
2.8090003 -1.080199 0.5126344 0
2.8080003 -1.0841134 0.51258928 0
2.8070002 -1.0880239 0.51254416 0
2.8060002 -1.091931 0.51249909 0
2.8050003 -1.0958345 0.51245397 0
2.8040001 -1.0997342 0.51240891 0
2.8030002 -1.1036305 0.51236379 0
2.8020003 -1.1075232 0.51231873 0
2.8000002 -1.1109684 0.51222849 0
2.7990003 -1.114852 0.51218343 0
2.7980001 -1.1187319 0.51213831 0
2.7970002 -1.1226083 0.51209325 0
2.7960002 -1.1264812 0.51204813 0
2.7950003 -1.1303504 0.51200306 0
2.7940001 -1.1342158 0.51195794 0
2.7930002 -1.1380779 0.51191282 0
2.7920003 -1.1419362 0.51186776 0
2.7910001 -1.1457909 0.51182264 0
2.7900002 -1.149642 0.51177758 0
2.7890003 -1.1534896 0.51173246 0
2.7880001 -1.1573334 0.51168734 0
2.7860003 -1.1607066 0.51159716 0
2.7850003 -1.1645415 0.5115521 0
2.7840002 -1.1683728 0.51150697 0
2.7830002 -1.1722004 0.51146191 0
2.7820003 -1.1760246 0.51141679 0
2.7810001 -1.179845 0.51137167 0
2.7800002 -1.1836618 0.51132661 0
2.7790003 -1.1874751 0.51128149 0
2.7780001 -1.1912848 0.51123643 0
2.7770002 -1.1950908 0.51119131 0
2.7760003 -1.1988932 0.51114625 0
2.7500002 -1.1905164 0.50997376 0
2.5180001 -1.1195509 0.49951166 0
2.5040002 -1.1162499 0.49888033 0
2.4960003 -1.1159613 0.49851957 0
2.4910002 -1.1171806 0.49829409 0
2.4860003 -1.1183821 0.49806863 0
2.4820001 -1.1200812 0.49788824 0
2.4780002 -1.121766 0.49770784 0
2.4740002 -1.1234363 0.49752748 0
2.4710002 -1.1256136 0.49739218 0
2.4680002 -1.1277798 0.4972569 0
2.4660001 -1.1304603 0.49716669 0
2.4640002 -1.1331336 0.49707651 0
2.4620001 -1.1357995 0.49698633 0
2.4600003 -1.1384585 0.49689615 0
2.4580002 -1.1411101 0.49680594 0
2.4570003 -1.1442884 0.49676085 0
2.4560001 -1.147463 0.49671575 0
2.4550002 -1.1506341 0.49667066 0
2.4540002 -1.1538017 0.49662557 0
2.4530003 -1.1569656 0.49658048 0
2.4530003 -1.1606687 0.49658048 0
2.4530003 -1.164372 0.49658048 0
2.4530003 -1.1680752 0.49658048 0
2.4540002 -1.1723267 0.49662557 0
2.4550002 -1.1765819 0.49667066 0
2.4570003 -1.1813928 0.49676085 0
2.4600003 -1.1867645 0.49689615 0
2.4640002 -1.1927025 0.49707651 0
3.0680003 -0.98444939 0.51950145 0
3.0540001 -0.98431218 0.51889539 0
3.0530002 -0.9887442 0.51885211 0
3.0520003 -0.99317247 0.51880878 0
3.0510001 -0.99759722 0.51876551 0
3.0490003 -1.0016576 0.5186789 0
3.0480003 -1.0060734 0.51863563 0
3.0470002 -1.0104854 0.51859236 0
3.0460002 -1.0148939 0.51854908 0
2.8730001 -0.96046758 0.51105964 0
2.8660002 -0.9623273 0.51075661 0
2.5680003 -0.87505919 0.49785578 0
2.5600002 -0.8758961 0.49750942 0
2.5530002 -0.87709022 0.49720639 0
2.5480001 -0.8790347 0.49698994 0
2.5440001 -0.88135076 0.49681675 0
2.5400002 -0.88365251 0.4966436 0
2.5370002 -0.88633293 0.49651372 0
2.5340002 -0.88900256 0.49638385 0
2.5320003 -0.89205825 0.4962973 0
2.5290003 -0.89470804 0.49616742 0
2.5270002 -0.89774746 0.49608082 0
2.5260003 -0.90118188 0.49603754 0
2.5240002 -0.90420866 0.49595094 0
2.5230002 -0.90763408 0.49590766 0
2.5220003 -0.91105598 0.49586436 0
2.5210001 -0.91447413 0.49582106 0
2.5210001 -0.91829997 0.49582106 0
2.5210001 -0.92212588 0.49582106 0
2.5210001 -0.92595178 0.49582106 0
2.5210001 -0.92977762 0.49582106 0
2.5220003 -0.93402207 0.49586436 0
2.5230002 -0.93826997 0.49590766 0
2.5250001 -0.94294363 0.49599424 0
2.5280001 -0.94804841 0.49612409 0
2.5330002 -0.95401543 0.49634057 0
2.5420003 -0.96171051 0.49673021 0
2.8090003 -1.080199 0.50828898 0
2.8080003 -1.0841134 0.50824571 0
2.8070002 -1.0880239 0.50820243 0
2.8060002 -1.091931 0.5081591 0
2.8050003 -1.0958345 0.50811583 0
2.8040001 -1.0997342 0.5080725 0
2.8030002 -1.1036305 0.50802922 0
2.8020003 -1.1075232 0.50798595 0
2.8000002 -1.1109684 0.50789934 0
2.7990003 -1.114852 0.50785607 0
2.7980001 -1.1187319 0.5078128 0
2.7970002 -1.1226083 0.50776947 0
2.7960002 -1.1264812 0.50772619 0
2.7950003 -1.1303504 0.50768292 0
2.7940001 -1.1342158 0.50763965 0
2.7930002 -1.1380779 0.50759631 0
2.7920003 -1.1419362 0.50755304 0
2.7910001 -1.1457909 0.50750977 0
2.7900002 -1.149642 0.50746644 0
2.7890003 -1.1534896 0.50742316 0
2.7880001 -1.1573334 0.50737989 0
2.7860003 -1.1607066 0.50729328 0
2.7850003 -1.1645415 0.50725001 0
2.7840002 -1.1683728 0.50720668 0
2.7830002 -1.1722004 0.50716341 0
2.7820003 -1.1760246 0.50712013 0
2.7810001 -1.179845 0.50707686 0
2.7800002 -1.1836618 0.50703353 0
2.7790003 -1.1874751 0.50699025 0
2.7780001 -1.1912848 0.50694692 0
2.7770002 -1.1950908 0.50690365 0
2.7760003 -1.1988932 0.50686038 0
2.5300002 -1.1217912 0.49621069 0
2.5110002 -1.1160028 0.49538815 0
2.5010002 -1.1147238 0.49495524 0
2.4940002 -1.1149404 0.49465221 0
2.4890001 -1.1161561 0.49443573 0
2.4840002 -1.1173538 0.4942193 0
2.4800003 -1.1190495 0.49404612 0
2.4760003 -1.1207306 0.49387297 0
2.4730003 -1.1229168 0.49374309 0
2.4700003 -1.1250923 0.49361321 0
2.4680002 -1.1277798 0.49352664 0
2.4650002 -1.1299355 0.49339676 0
2.4630003 -1.1326069 0.49331015 0
2.4610002 -1.1352711 0.49322358 0
2.4590001 -1.137928 0.493137 0
2.4570003 -1.1405779 0.49305043 0
2.4560001 -1.1437544 0.49300712 0
2.4550002 -1.1469272 0.49296382 0
2.4540002 -1.1500967 0.49292055 0
2.4530003 -1.1532623 0.49287724 0
2.4520001 -1.1564244 0.49283397 0
2.4520001 -1.1601257 0.49283397 0
2.4520001 -1.1638272 0.49283397 0
2.4520001 -1.1675286 0.49283397 0
2.4530003 -1.1717784 0.49287724 0
2.4540002 -1.1760317 0.49292055 0
2.4550002 -1.1802887 0.49296382 0
2.4580002 -1.1856569 0.4930937 0
2.4610002 -1.1910359 0.49322358 0
2.4680002 -1.1986551 0.49352664 0
3.0680003 -0.98444939 0.51468891 0
3.0540001 -0.98431218 0.51410806 0
3.0530002 -0.9887442 0.51406658 0
3.0520003 -0.99317247 0.51402509 0
3.0510001 -0.99759722 0.51398361 0
3.0490003 -1.0016576 0.51390064 0
3.0480003 -1.0060734 0.51385915 0
3.0470002 -1.0104854 0.51381767 0
3.0460002 -1.0148939 0.51377618 0
2.8730001 -0.96046758 0.50659883 0
2.8660002 -0.9623273 0.50630844 0
2.5780003 -0.87495452 0.49436 0
2.5650003 -0.87391192 0.49382067 0
2.5580001 -0.87512761 0.49353021 0
2.5520003 -0.87670422 0.4932813 0
2.5470002 -0.87864691 0.49307388 0
2.5430002 -0.88096118 0.49290791 0
2.5390003 -0.88326102 0.49274197 0
2.5360003 -0.88593972 0.49261749 0
2.5330002 -0.88860756 0.49249303 0
2.5310001 -0.89166135 0.49241006 0
2.5280001 -0.89430934 0.49228561 0
2.5260003 -0.89734703 0.49220264 0
2.5250001 -0.9007796 0.49216115 0
2.5230002 -0.90380466 0.49207816 0
2.5220003 -0.90722829 0.49203667 0
2.5210001 -0.91064823 0.49199519 0
2.5200002 -0.91406465 0.4919537 0
2.5200002 -0.91788876 0.4919537 0
2.5190003 -0.92129976 0.49191222 0
2.5200002 -0.92553693 0.4919537 0
2.5200002 -0.92936099 0.4919537 0
2.5210001 -0.93360353 0.49199519 0
2.5220003 -0.93784976 0.49203667 0
2.5240002 -0.94252157 0.49211967 0
2.5270002 -0.94762456 0.49224412 0
2.5300002 -0.95273834 0.49236858 0
2.5370002 -0.95957297 0.49265897 0
2.8090003 -1.080199 0.50394362 0
2.8080003 -1.0841134 0.50390214 0
2.8070002 -1.0880239 0.50386065 0
2.8060002 -1.091931 0.50381917 0
2.8050003 -1.0958345 0.50377768 0
2.8040001 -1.0997342 0.5037362 0
2.8030002 -1.1036305 0.50369471 0
2.8020003 -1.1075232 0.50365323 0
2.8000002 -1.1109684 0.5035702 0
2.7990003 -1.114852 0.50352871 0
2.7980001 -1.1187319 0.50348723 0
2.7970002 -1.1226083 0.50344574 0
2.7960002 -1.1264812 0.50340426 0
2.7950003 -1.1303504 0.50336277 0
2.7940001 -1.1342158 0.50332129 0
2.7930002 -1.1380779 0.50327981 0
2.7920003 -1.1419362 0.50323832 0
2.7910001 -1.1457909 0.50319684 0
2.7900002 -1.149642 0.50315535 0
2.7890003 -1.1534896 0.50311387 0
2.7880001 -1.1573334 0.50307238 0
2.7860003 -1.1607066 0.50298941 0
2.7850003 -1.1645415 0.50294793 0
2.7840002 -1.1683728 0.50290644 0
2.7830002 -1.1722004 0.50286496 0
2.7820003 -1.1760246 0.50282347 0
2.7810001 -1.179845 0.50278199 0
2.7800002 -1.1836618 0.5027405 0
2.7790003 -1.1874751 0.50269902 0
2.7780001 -1.1912848 0.50265747 0
2.7770002 -1.1950908 0.50261599 0
2.5250001 -1.1192658 0.49216115 0
2.5080001 -1.1144822 0.49145585 0
2.4990003 -1.1137067 0.49108246 0
2.4930003 -1.11443 0.49083355 0
2.4880002 -1.1156439 0.4906261 0
2.4830003 -1.1168398 0.49041867 0
2.4790001 -1.1185335 0.4902527 0
2.4760003 -1.1207306 0.49012825 0
2.4720001 -1.1223973 0.48996231 0
2.4690001 -1.1245708 0.48983783 0
2.4670002 -1.1272569 0.48975486 0
2.4640002 -1.1294105 0.4896304 0
2.4620001 -1.1320801 0.48954743 0
2.4600003 -1.1347426 0.48946446 0
2.4580002 -1.1373978 0.48938149 0
2.4570003 -1.1405779 0.48934001 0
2.4550002 -1.1432204 0.48925701 0
2.4540002 -1.1463915 0.48921552 0
2.4530003 -1.1495591 0.48917404 0
2.4520001 -1.152723 0.48913252 0
2.4520001 -1.1564244 0.48913252 0
2.4510002 -1.1595827 0.48909107 0
2.4510002 -1.1632824 0.48909107 0
2.4510002 -1.1669821 0.48909107 0
2.4520001 -1.17123 0.48913252 0
2.4530003 -1.1754816 0.48917404 0
2.4540002 -1.1797369 0.48921552 0
2.4560001 -1.1845493 0.48929849 0
2.4600003 -1.1904802 0.48946446 0
2.4650002 -1.196983 0.48967189 0
3.0680003 -0.98444939 0.50987637 0
3.0540001 -0.98431218 0.50932074 0
3.0530002 -0.9887442 0.5092811 0
3.0520003 -0.99317247 0.5092414 0
3.0510001 -0.99759722 0.50920171 0
3.0490003 -1.0016576 0.50912237 0
3.0480003 -1.0060734 0.50908267 0
3.0470002 -1.0104854 0.50904298 0
3.0460002 -1.0148939 0.50900328 0
2.5740001 -0.8734321 0.49027255 0
2.5630002 -0.87314713 0.48983604 0
2.5560002 -0.87435925 0.48955825 0
2.5510001 -0.87631816 0.48935983 0
2.5460002 -0.87825912 0.4891614 0
2.5420003 -0.8805716 0.48900267 0
2.5380001 -0.8828696 0.48884392 0
2.5350001 -0.88554645 0.48872489 0
2.5320003 -0.88821256 0.48860583 0
2.5300002 -0.89126456 0.48852646 0
2.5280001 -0.89430934 0.4884471 0
2.5260003 -0.89734703 0.48836774 0
2.5240002 -0.90037733 0.48828837 0
2.5220003 -0.90340066 0.48820901 0
2.5210001 -0.90682238 0.48816931 0
2.5200002 -0.91024059 0.48812962 0
2.5190003 -0.91365522 0.48808995 0
2.5190003 -0.91747755 0.48808995 0
2.5190003 -0.92129976 0.48808995 0
2.5190003 -0.92512208 0.48808995 0
2.5190003 -0.92894435 0.48808995 0
2.5200002 -0.93318504 0.48812962 0
2.5210001 -0.93742943 0.48816931 0
2.5230002 -0.94209951 0.48824868 0
2.5250001 -0.94677669 0.48832804 0
2.5290003 -0.95231265 0.4884868 0
2.5350001 -0.95871788 0.48872489 0
2.8090003 -1.080199 0.49959826 0
2.8080003 -1.0841134 0.49955857 0
2.8070002 -1.0880239 0.49951887 0
2.8060002 -1.091931 0.49947917 0
2.8050003 -1.0958345 0.49943951 0
2.8040001 -1.0997342 0.49939981 0
2.8030002 -1.1036305 0.49936014 0
2.8020003 -1.1075232 0.49932045 0
2.8000002 -1.1109684 0.49924108 0
2.7990003 -1.114852 0.49920142 0
2.7980001 -1.1187319 0.49916172 0
2.7970002 -1.1226083 0.49912202 0
2.7960002 -1.1264812 0.49908236 0
2.7950003 -1.1303504 0.49904269 0
2.7940001 -1.1342158 0.49900299 0
2.7930002 -1.1380779 0.4989633 0
2.7920003 -1.1419362 0.49892363 0
2.7910001 -1.1457909 0.49888393 0
2.7900002 -1.149642 0.49884427 0
2.7890003 -1.1534896 0.49880457 0
2.7880001 -1.1573334 0.49876487 0
2.7860003 -1.1607066 0.49868551 0
2.7850003 -1.1645415 0.49864584 0
2.7840002 -1.1683728 0.49860615 0
2.7830002 -1.1722004 0.49856645 0
2.7820003 -1.1760246 0.49852678 0
2.7810001 -1.179845 0.49848709 0
2.7800002 -1.1836618 0.49844742 0
2.7790003 -1.1874751 0.49840772 0
2.7780001 -1.1912848 0.49836805 0
2.7770002 -1.1950908 0.49832836 0
2.5220003 -1.1177508 0.48820901 0
2.5060003 -1.1134685 0.48757407 0
2.4980001 -1.1131978 0.48725659 0
2.4920001 -1.1139194 0.48701847 0
2.4870002 -1.1151315 0.48682007 0
2.4820001 -1.1163256 0.48662165 0
2.4790001 -1.1185335 0.48650259 0
2.4750001 -1.1202129 0.48634386 0
2.4720001 -1.1223973 0.4862248 0
2.4690001 -1.1245708 0.48610574 0
2.4660001 -1.1267337 0.48598671 0
2.4640002 -1.1294105 0.48590735 0
2.4620001 -1.1320801 0.48582798 0
2.4600003 -1.1347426 0.48574859 0
2.4580002 -1.1373978 0.48566923 0
2.4560001 -1.1400458 0.48558986 0
2.4550002 -1.1432204 0.48555019 0
2.4540002 -1.1463915 0.4855105 0
2.4530003 -1.1495591 0.48547083 0
2.4520001 -1.152723 0.48543113 0
2.4510002 -1.1558832 0.48539144 0
2.4510002 -1.1595827 0.48539144 0
2.4510002 -1.1632824 0.48539144 0
2.4510002 -1.1669821 0.48539144 0
2.4510002 -1.1706816 0.48539144 0
2.4520001 -1.1749313 0.48543113 0
2.4540002 -1.1797369 0.4855105 0
2.4560001 -1.1845493 0.48558986 0
2.4590001 -1.1899246 0.48570892 0
2.4630003 -1.1958683 0.48586765 0
3.0680003 -0.98444939 0.50506377 0
3.0540001 -0.98431218 0.50453347 0
3.0530002 -0.9887442 0.50449556 0
3.0520003 -0.99317247 0.50445771 0
3.0510001 -0.99759722 0.5044198 0
3.0490003 -1.0016576 0.50434405 0
3.0480003 -1.0060734 0.5043062 0
3.0470002 -1.0104854 0.50426829 0
3.0460002 -1.0148939 0.50423044 0
2.5720003 -0.87267089 0.48627532 0
2.5620003 -0.87276471 0.48589653 0
2.5550003 -0.8739751 0.48563135 0
2.5500002 -0.87593216 0.48544195 0
2.5450003 -0.87787133 0.48525256 0
2.5410001 -0.88018191 0.48510104 0
2.5380001 -0.8828696 0.48498738 0
2.5350001 -0.88554645 0.48487374 0
2.5320003 -0.88821256 0.48476011 0
2.5290003 -0.89086771 0.48464647 0
2.5270002 -0.89391071 0.48457071 0
2.5250001 -0.89694649 0.48449495 0
2.5240002 -0.90037733 0.48445708 0
2.5220003 -0.90340066 0.48438132 0
2.5210001 -0.90682238 0.48434344 0
2.5200002 -0.91024059 0.48430556 0
2.5190003 -0.91365522 0.48426768 0
2.5190003 -0.91747755 0.48426768 0
2.5180001 -0.92088664 0.4842298 0
2.5180001 -0.92470711 0.4842298 0
2.5190003 -0.92894435 0.48426768 0
2.5200002 -0.93318504 0.48430556 0
2.5210001 -0.93742943 0.48434344 0
2.5220003 -0.94167745 0.48438132 0
2.5250001 -0.94677669 0.48449495 0
2.5280001 -0.95188689 0.48460859 0
2.5340002 -0.95829046 0.48483586 0
2.8090003 -1.080199 0.49525288 0
2.8080003 -1.0841134 0.495215 0
2.8070002 -1.0880239 0.49517709 0
2.8060002 -1.091931 0.49513924 0
2.8050003 -1.0958345 0.49510136 0
2.8040001 -1.0997342 0.49506348 0
2.8030002 -1.1036305 0.49502558 0
2.8020003 -1.1075232 0.49498773 0
2.8000002 -1.1109684 0.49491194 0
2.7990003 -1.114852 0.49487406 0
2.7980001 -1.1187319 0.49483618 0
2.7970002 -1.1226083 0.4947983 0
2.7960002 -1.1264812 0.49476042 0
2.7950003 -1.1303504 0.49472255 0
2.7940001 -1.1342158 0.49468467 0
2.7930002 -1.1380779 0.49464679 0
2.7920003 -1.1419362 0.49460891 0
2.7910001 -1.1457909 0.49457103 0
2.7900002 -1.149642 0.49453315 0
2.7890003 -1.1534896 0.49449527 0
2.7880001 -1.1573334 0.49445739 0
2.7860003 -1.1607066 0.49438164 0
2.7850003 -1.1645415 0.49434376 0
2.7840002 -1.1683728 0.49430588 0
2.7830002 -1.1722004 0.494268 0
2.7820003 -1.1760246 0.49423012 0
2.7810001 -1.179845 0.49419224 0
2.7800002 -1.1836618 0.49415433 0
2.7790003 -1.1874751 0.49411649 0
2.7780001 -1.1912848 0.49407858 0
2.7530003 -1.1834887 0.49313158 0
2.5370002 -1.121472 0.48494953 0
2.5200002 -1.1167406 0.48430556 0
2.5050001 -1.1129615 0.48373735 0
2.4980001 -1.1131978 0.4834722 0
2.4920001 -1.1139194 0.4832449 0
2.4870002 -1.1151315 0.48305553 0
2.4820001 -1.1163256 0.48286611 0
2.4780002 -1.1180177 0.48271459 0
2.4750001 -1.1202129 0.48260096 0
2.4720001 -1.1223973 0.48248732 0
2.4690001 -1.1245708 0.48237368 0
2.4660001 -1.1267337 0.48226005 0
2.4640002 -1.1294105 0.48218429 0
2.4610002 -1.1315534 0.48207062 0
2.4590001 -1.134214 0.48199487 0
2.4580002 -1.1373978 0.48195699 0
2.4560001 -1.1400458 0.48188123 0
2.4550002 -1.1432204 0.48184335 0
2.4530003 -1.1458559 0.48176759 0
2.4520001 -1.1490215 0.48172972 0
2.4520001 -1.152723 0.48172972 0
2.4510002 -1.1558832 0.48169184 0
2.4510002 -1.1595827 0.48169184 0
2.4500003 -1.1627377 0.48165396 0
2.4510002 -1.1669821 0.48169184 0
2.4510002 -1.1706816 0.48169184 0
2.4520001 -1.1749313 0.48172972 0
2.4530003 -1.1791849 0.48176759 0
2.4550002 -1.1839955 0.48184335 0
2.4580002 -1.1893691 0.48195699 0
2.4630003 -1.1958683 0.48214641 0
3.0680003 -0.98444939 0.50025123 0
3.0540001 -0.98431218 0.49974614 0
3.0530002 -0.9887442 0.49971008 0
3.0520003 -0.99317247 0.49967402 0
3.0510001 -0.99759722 0.49963793 0
3.0490003 -1.0016576 0.49956578 0
3.0480003 -1.0060734 0.49952972 0
3.0470002 -1.0104854 0.49949363 0
3.0460002 -1.0148939 0.49945754 0
2.5710001 -0.87229025 0.48232135 0
2.5620003 -0.87276471 0.48199669 0
2.5550003 -0.8739751 0.48174417 0
2.5500002 -0.87593216 0.48156375 0
2.5450003 -0.87787133 0.48138338 0
2.5410001 -0.88018191 0.48123908 0
2.5370002 -0.88247818 0.48109478 0
2.5340002 -0.88515323 0.48098654 0
2.5320003 -0.88821256 0.48091441 0
2.5290003 -0.89086771 0.48080617 0
2.5270002 -0.89391071 0.48073402 0
2.5250001 -0.89694649 0.48066187 0
2.5230002 -0.89997518 0.48058972 0
2.5220003 -0.90340066 0.48055363 0
2.5210001 -0.90682238 0.48051757 0
2.5200002 -0.91024059 0.48048148 0
2.5190003 -0.91365522 0.48044541 0
2.5180001 -0.91706616 0.48040932 0
2.5180001 -0.92088664 0.48040932 0
2.5180001 -0.92470711 0.48040932 0
2.5190003 -0.92894435 0.48044541 0
2.5190003 -0.93276656 0.48044541 0
2.5200002 -0.9370091 0.48048148 0
2.5220003 -0.94167745 0.48055363 0
2.5240002 -0.94635284 0.48062581 0
2.5280001 -0.95188689 0.48077008 0
2.5330002 -0.95786297 0.48095047 0
2.8090003 -1.080199 0.49090749 0
2.8080003 -1.0841134 0.49087143 0
2.8070002 -1.0880239 0.49083534 0
2.8060002 -1.091931 0.49079928 0
2.8050003 -1.0958345 0.49076319 0
2.8040001 -1.0997342 0.49072713 0
2.8030002 -1.1036305 0.49069104 0
2.8020003 -1.1075232 0.49065498 0
2.8000002 -1.1109684 0.49058282 0
2.7990003 -1.114852 0.49054673 0
2.7980001 -1.1187319 0.49051064 0
2.7970002 -1.1226083 0.49047458 0
2.7960002 -1.1264812 0.49043852 0
2.7950003 -1.1303504 0.49040243 0
2.7940001 -1.1342158 0.49036634 0
2.7930002 -1.1380779 0.49033028 0
2.7920003 -1.1419362 0.49029422 0
2.7910001 -1.1457909 0.49025813 0
2.7900002 -1.149642 0.49022204 0
2.7890003 -1.1534896 0.49018598 0
2.7880001 -1.1573334 0.49014989 0
2.7860003 -1.1607066 0.49007773 0
2.7850003 -1.1645415 0.49004167 0
2.7840002 -1.1683728 0.49000558 0
2.7830002 -1.1722004 0.48996952 0
2.7820003 -1.1760246 0.48993343 0
2.7810001 -1.179845 0.48989737 0
2.7800002 -1.1836618 0.48986128 0
2.7790003 -1.1874751 0.48982522 0
2.7780001 -1.1912848 0.48978913 0
2.7480001 -1.1810716 0.48870683 0
2.5350001 -1.1204654 0.48102263 0
2.5190003 -1.1162356 0.48044541 0
2.5050001 -1.1129615 0.47994033 0
2.4980001 -1.1131978 0.47968781 0
2.4920001 -1.1139194 0.47947136 0
2.4870002 -1.1151315 0.47929096 0
2.4820001 -1.1163256 0.4791106 0
2.4780002 -1.1180177 0.4789663 0
2.4750001 -1.1202129 0.47885805 0
2.4720001 -1.1223973 0.47874981 0
2.4690001 -1.1245708 0.4786416 0
2.4660001 -1.1267337 0.47853336 0
2.4640002 -1.1294105 0.47846121 0
2.4610002 -1.1315534 0.47835299 0
2.4590001 -1.134214 0.47828084 0
2.4580002 -1.1373978 0.47824478 0
2.4560001 -1.1400458 0.4781726 0
2.4550002 -1.1432204 0.47813654 0
2.4530003 -1.1458559 0.47806439 0
2.4520001 -1.1490215 0.4780283 0
2.4520001 -1.152723 0.4780283 0
2.4510002 -1.1558832 0.47799224 0
2.4510002 -1.1595827 0.47799224 0
2.4510002 -1.1632824 0.47799224 0
2.4510002 -1.1669821 0.47799224 0
2.4510002 -1.1706816 0.47799224 0
2.4520001 -1.1749313 0.4780283 0
2.4530003 -1.1791849 0.47806439 0
2.4550002 -1.1839955 0.47813654 0
2.4580002 -1.1893691 0.47824478 0
2.4630003 -1.1958683 0.47842515 0
3.0680003 -0.98444939 0.49543867 0
3.0540001 -0.98431218 0.49495885 0
3.0530002 -0.9887442 0.49492458 0
3.0520003 -0.99317247 0.4948903 0
3.0510001 -0.99759722 0.49485603 0
3.0490003 -1.0016576 0.49478748 0
3.0480003 -1.0060734 0.49475321 0
3.0470002 -1.0104854 0.49471894 0
3.0460002 -1.0148939 0.49468467 0
2.5710001 -0.87229025 0.4784053 0
2.5620003 -0.87276471 0.47809684 0
2.5550003 -0.8739751 0.47785693 0
2.5500002 -0.87593216 0.47768557 0
2.5450003 -0.87787133 0.47751421 0
2.5410001 -0.88018191 0.47737712 0
2.5380001 -0.8828696 0.4772743 0
2.5340002 -0.88515323 0.47713721 0
2.5320003 -0.88821256 0.47706866 0
2.5290003 -0.89086771 0.47696587 0
2.5270002 -0.89391071 0.4768973 0
2.5250001 -0.89694649 0.47682875 0
2.5230002 -0.89997518 0.47676021 0
2.5220003 -0.90340066 0.47672597 0
2.5210001 -0.90682238 0.47669166 0
2.5200002 -0.91024059 0.47665742 0
2.5190003 -0.91365522 0.47662315 0
2.5180001 -0.91706616 0.47658885 0
2.5180001 -0.92088664 0.47658885 0
2.5180001 -0.92470711 0.47658885 0
2.5190003 -0.92894435 0.47662315 0
2.5190003 -0.93276656 0.47662315 0
2.5200002 -0.9370091 0.47665742 0
2.5220003 -0.94167745 0.47672597 0
2.5240002 -0.94635284 0.47679451 0
2.5280001 -0.95188689 0.47693157 0
2.5340002 -0.95829046 0.47713721 0
2.8090003 -1.080199 0.48656213 0
2.8080003 -1.0841134 0.48652786 0
2.8070002 -1.0880239 0.48649359 0
2.8060002 -1.091931 0.48645931 0
2.8050003 -1.0958345 0.48642504 0
2.8040001 -1.0997342 0.48639077 0
2.8030002 -1.1036305 0.4863565 0
2.8020003 -1.1075232 0.48632222 0
2.8000002 -1.1109684 0.48625368 0
2.7990003 -1.114852 0.48621941 0
2.7980001 -1.1187319 0.48618513 0
2.7970002 -1.1226083 0.48615086 0
2.7960002 -1.1264812 0.48611659 0
2.7950003 -1.1303504 0.48608232 0
2.7940001 -1.1342158 0.48604804 0
2.7930002 -1.1380779 0.48601377 0
2.7920003 -1.1419362 0.4859795 0
2.7910001 -1.1457909 0.48594522 0
2.7900002 -1.149642 0.48591095 0
2.7890003 -1.1534896 0.48587668 0
2.7880001 -1.1573334 0.48584241 0
2.7860003 -1.1607066 0.48577386 0
2.7850003 -1.1645415 0.48573959 0
2.7840002 -1.1683728 0.48570532 0
2.7830002 -1.1722004 0.48567104 0
2.7820003 -1.1760246 0.48563677 0
2.7810001 -1.179845 0.4856025 0
2.7800002 -1.1836618 0.48556823 0
2.7790003 -1.1874751 0.48553395 0
2.7780001 -1.1912848 0.48549968 0
2.5200002 -1.1167406 0.47665742 0
2.5050001 -1.1129615 0.4761433 0
2.4980001 -1.1131978 0.47590342 0
2.4920001 -1.1139194 0.47569779 0
2.4870002 -1.1151315 0.47552642 0
2.4820001 -1.1163256 0.47535506 0
2.4780002 -1.1180177 0.47521797 0
2.4750001 -1.1202129 0.47511515 0
2.4720001 -1.1223973 0.47501233 0
2.4690001 -1.1245708 0.47490951 0
2.4660001 -1.1267337 0.4748067 0
2.4640002 -1.1294105 0.47473815 0
2.4610002 -1.1315534 0.47463533 0
2.4590001 -1.134214 0.47456679 0
2.4580002 -1.1373978 0.47453251 0
2.4560001 -1.1400458 0.47446397 0
2.4550002 -1.1432204 0.4744297 0
2.4530003 -1.1458559 0.47436118 0
2.4520001 -1.1490215 0.47432688 0
2.4520001 -1.152723 0.47432688 0
2.4510002 -1.1558832 0.47429261 0
2.4510002 -1.1595827 0.47429261 0
2.4510002 -1.1632824 0.47429261 0
2.4510002 -1.1669821 0.47429261 0
2.4510002 -1.1706816 0.47429261 0
2.4520001 -1.1749313 0.47432688 0
2.4530003 -1.1791849 0.47436118 0
2.4550002 -1.1839955 0.4744297 0
2.4580002 -1.1893691 0.47453251 0
2.4630003 -1.1958683 0.47470388 0
3.0680003 -0.98444939 0.4906261 0
3.0540001 -0.98431218 0.49017155 0
3.0530002 -0.9887442 0.49013907 0
3.0520003 -0.99317247 0.49010661 0
3.0510001 -0.99759722 0.49007413 0
3.0490003 -1.0016576 0.49000919 0
3.0480003 -1.0060734 0.48997673 0
3.0470002 -1.0104854 0.48994425 0
3.0460002 -1.0148939 0.48991179 0
2.5710001 -0.87229025 0.47448921 0
2.5620003 -0.87276471 0.47419703 0
2.5550003 -0.8739751 0.47396976 0
2.5500002 -0.87593216 0.47380739 0
2.5450003 -0.87787133 0.47364506 0
2.5410001 -0.88018191 0.47351518 0
2.5380001 -0.8828696 0.47341776 0
2.5340002 -0.88515323 0.47328788 0
2.5320003 -0.88821256 0.47322297 0
2.5290003 -0.89086771 0.47312555 0
2.5270002 -0.89391071 0.47306061 0
2.5250001 -0.89694649 0.47299567 0
2.5230002 -0.89997518 0.47293073 0
2.5220003 -0.90340066 0.47289827 0
2.5210001 -0.90682238 0.47286582 0
2.5200002 -0.91024059 0.47283334 0
2.5190003 -0.91365522 0.47280085 0
2.5180001 -0.91706616 0.4727684 0
2.5180001 -0.92088664 0.4727684 0
2.5180001 -0.92470711 0.4727684 0
2.5190003 -0.92894435 0.47280085 0
2.5190003 -0.93276656 0.47280085 0
2.5200002 -0.9370091 0.47283334 0
2.5220003 -0.94167745 0.47289827 0
2.5240002 -0.94635284 0.47296321 0
2.5280001 -0.95188689 0.47309309 0
2.5340002 -0.95829046 0.47328788 0
2.8090003 -1.080199 0.48221675 0
2.8080003 -1.0841134 0.48218429 0
2.8070002 -1.0880239 0.48215181 0
2.8060002 -1.091931 0.48211935 0
2.8050003 -1.0958345 0.48208687 0
2.8040001 -1.0997342 0.48205441 0
2.8030002 -1.1036305 0.48202193 0
2.8020003 -1.1075232 0.48198947 0
2.8000002 -1.1109684 0.48192453 0
2.7990003 -1.114852 0.48189205 0
2.7980001 -1.1187319 0.48185959 0
2.7970002 -1.1226083 0.48182711 0
2.7960002 -1.1264812 0.48179466 0
2.7950003 -1.1303504 0.4817622 0
2.7940001 -1.1342158 0.48172972 0
2.7930002 -1.1380779 0.48169726 0
2.7920003 -1.1419362 0.48166478 0
2.7910001 -1.1457909 0.48163232 0
2.7900002 -1.149642 0.48159984 0
2.7890003 -1.1534896 0.48156738 0
2.7880001 -1.1573334 0.4815349 0
2.7860003 -1.1607066 0.48146996 0
2.7850003 -1.1645415 0.4814375 0
2.7840002 -1.1683728 0.48140502 0
2.7830002 -1.1722004 0.48137257 0
2.7820003 -1.1760246 0.48134011 0
2.7810001 -1.179845 0.48130763 0
2.7800002 -1.1836618 0.48127517 0
2.7790003 -1.1874751 0.48124269 0
2.7780001 -1.1912848 0.48121023 0
2.5220003 -1.1177508 0.47289827 0
2.5050001 -1.1129615 0.47234631 0
2.4980001 -1.1131978 0.47211903 0
2.4920001 -1.1139194 0.47192422 0
2.4870002 -1.1151315 0.47176188 0
2.4820001 -1.1163256 0.47159952 0
2.4780002 -1.1180177 0.47146964 0
2.4750001 -1.1202129 0.47137225 0
2.4720001 -1.1223973 0.47127485 0
2.4690001 -1.1245708 0.47117743 0
2.4660001 -1.1267337 0.47108003 0
2.4640002 -1.1294105 0.4710151 0
2.4610002 -1.1315534 0.4709177 0
2.4590001 -1.134214 0.47085276 0
2.4580002 -1.1373978 0.47082028 0
2.4560001 -1.1400458 0.47075534 0
2.4550002 -1.1432204 0.47072288 0
2.4530003 -1.1458559 0.47065794 0
2.4520001 -1.1490215 0.47062546 0
2.4520001 -1.152723 0.47062546 0
2.4510002 -1.1558832 0.47059301 0
2.4510002 -1.1595827 0.47059301 0
2.4510002 -1.1632824 0.47059301 0
2.4510002 -1.1669821 0.47059301 0
2.4510002 -1.1706816 0.47059301 0
2.4520001 -1.1749313 0.47062546 0
2.4530003 -1.1791849 0.47065794 0
2.4550002 -1.1839955 0.47072288 0
2.4580002 -1.1893691 0.47082028 0
2.4630003 -1.1958683 0.47098264 0
3.0680003 -0.98444939 0.48581356 0
3.0540001 -0.98431218 0.48538423 0
3.0530002 -0.9887442 0.48535356 0
3.0520003 -0.99317247 0.48532289 0
3.0510001 -0.99759722 0.48529226 0
3.0490003 -1.0016576 0.48523092 0
3.0480003 -1.0060734 0.48520026 0
3.0470002 -1.0104854 0.48516959 0
3.0460002 -1.0148939 0.48513892 0
2.5710001 -0.87229025 0.47057316 0
2.5620003 -0.87276471 0.47029719 0
2.5550003 -0.8739751 0.47008252 0
2.5500002 -0.87593216 0.46992922 0
2.5450003 -0.87787133 0.46977589 0
2.5410001 -0.88018191 0.46965322 0
2.5380001 -0.8828696 0.46956122 0
