# .PCD v0.7 - Point Cloud Data file format
VERSION 0.7
FIELDS x y z intensity
SIZE 4 4 4 4
TYPE F F F F
COUNT 1 1 1 1
WIDTH 622
HEIGHT 1
VIEWPOINT 0 0 0 1 0 0 0
POINTS 622
DATA ascii
4.7750001 -0.39323306 0.30140841 0
4.7750001 -0.40112475 0.30140841 0
4.7740002 -0.40893343 0.30143189 0
4.7730002 -0.41673851 0.30145532 0
4.7730002 -0.42462656 0.30145532 0
4.7720003 -0.43242624 0.30147877 0
4.7710004 -0.44022229 0.30150223 0
4.7710004 -0.44810677 0.30150223 0
4.7700005 -0.45589739 0.30152565 0
4.7700005 -0.46378005 0.30152565 0
4.7690005 -0.47156528 0.30154911 0
4.7680001 -0.47934687 0.30157256 0
4.7680001 -0.48722592 0.30157256 0
4.7670002 -0.49500212 0.30159602 0
4.7660003 -0.50277472 0.30161947 0
4.7660003 -0.51065022 0.30161947 0
4.7650003 -0.51841736 0.30164292 0
4.7640004 -0.52618092 0.30166638 0
4.7760005 -0.38541901 0.29349148 0
4.7750001 -0.39323306 0.29351676 0
4.7750001 -0.40112475 0.29351676 0
4.7740002 -0.40893343 0.29354203 0
4.7730002 -0.41673851 0.29356727 0
4.7730002 -0.42462656 0.29356727 0
4.7720003 -0.43242624 0.29359251 0
4.7710004 -0.44022229 0.29361778 0
4.7710004 -0.44810677 0.29361778 0
4.7700005 -0.45589739 0.29364303 0
4.7700005 -0.46378005 0.29364303 0
4.7690005 -0.47156528 0.29366827 0
4.7680001 -0.47934687 0.29369354 0
4.7680001 -0.48722592 0.29369354 0
4.7670002 -0.49500212 0.29371879 0
4.7660003 -0.50277472 0.29374403 0
4.7660003 -0.51065022 0.29374403 0
4.7650003 -0.51841736 0.2937693 0
4.7640004 -0.52618092 0.29379454 0
4.7760005 -0.38541901 0.28559804 0
4.7750001 -0.39323306 0.2856251 0
4.7750001 -0.40112475 0.2856251 0
4.7740002 -0.40893343 0.28565216 0
4.7730002 -0.41673851 0.28567922 0
4.7730002 -0.42462656 0.28567922 0
4.7720003 -0.43242624 0.28570628 0
4.7710004 -0.44022229 0.28573334 0
4.7710004 -0.44810677 0.28573334 0
4.7700005 -0.45589739 0.2857604 0
4.7700005 -0.46378005 0.2857604 0
4.7690005 -0.47156528 0.28578743 0
4.7680001 -0.47934687 0.28581449 0
4.7680001 -0.48722592 0.28581449 0
4.7670002 -0.49500212 0.28584155 0
4.7660003 -0.50277472 0.28586861 0
4.7660003 -0.51065022 0.28586861 0
4.7650003 -0.51841736 0.28589568 0
4.7640004 -0.52618092 0.28592271 0
4.7760005 -0.38541901 0.27770457 0
4.7750001 -0.39323306 0.27773345 0
4.7750001 -0.40112475 0.27773345 0
4.7740002 -0.40893343 0.27776229 0
4.7730002 -0.41673851 0.27779114 0
4.7730002 -0.42462656 0.27779114 0
4.7720003 -0.43242624 0.27782002 0
4.7710004 -0.44022229 0.2778489 0
4.7710004 -0.44810677 0.2778489 0
4.7700005 -0.45589739 0.27787775 0
4.7700005 -0.46378005 0.27787775 0
4.7690005 -0.47156528 0.2779066 0
4.7680001 -0.47934687 0.27793548 0
4.7680001 -0.48722592 0.27793548 0
4.7670002 -0.49500212 0.27796432 0
4.7660003 -0.50277472 0.2779932 0
4.7660003 -0.51065022 0.2779932 0
4.7650003 -0.51841736 0.27802205 0
4.7640004 -0.52618092 0.2780509 0
4.7760005 -0.38541901 0.26981109 0
4.7750001 -0.39323306 0.26984179 0
4.7750001 -0.40112475 0.26984179 0
4.7740002 -0.40893343 0.26987243 0
4.7730002 -0.41673851 0.26990312 0
4.7730002 -0.42462656 0.26990312 0
4.7720003 -0.43242624 0.26993376 0
4.7710004 -0.44022229 0.26996443 0
4.7710004 -0.44810677 0.26996443 0
4.7700005 -0.45589739 0.26999509 0
4.7700005 -0.46378005 0.26999509 0
4.7690005 -0.47156528 0.27002576 0
4.7680001 -0.47934687 0.27005643 0
4.7680001 -0.48722592 0.27005643 0
4.7670002 -0.49500212 0.27008712 0
4.7660003 -0.50277472 0.27011776 0
4.7660003 -0.51065022 0.27011776 0
4.7650003 -0.51841736 0.27014843 0
4.7640004 -0.52618092 0.27017909 0
4.7760005 -0.38541901 0.26191765 0
4.7750001 -0.39323306 0.26195014 0
4.7750001 -0.40112475 0.26195014 0
4.7740002 -0.40893343 0.26198259 0
4.7730002 -0.41673851 0.26201504 0
4.7730002 -0.42462656 0.26201504 0
4.7720003 -0.43242624 0.26204753 0
4.7710004 -0.44022229 0.26207998 0
4.7710004 -0.44810677 0.26207998 0
4.7700005 -0.45589739 0.26211244 0
4.7700005 -0.46378005 0.26211244 0
4.7690005 -0.47156528 0.26214492 0
4.7680001 -0.47934687 0.26217741 0
4.7680001 -0.48722592 0.26217741 0
4.7670002 -0.49500212 0.26220986 0
4.7660003 -0.50277472 0.26224232 0
4.7660003 -0.51065022 0.26224232 0
4.7650003 -0.51841736 0.2622748 0
4.7640004 -0.52618092 0.26230729 0
4.7760005 -0.38541901 0.25402418 0
4.7750001 -0.39323306 0.25405848 0
4.7750001 -0.40112475 0.25405848 0
4.7740002 -0.40893343 0.25409272 0
4.7730002 -0.41673851 0.254127 0
4.7730002 -0.42462656 0.254127 0
4.7720003 -0.43242624 0.2541613 0
4.7710004 -0.44022229 0.25419554 0
4.7710004 -0.44810677 0.25419554 0
4.7700005 -0.45589739 0.25422981 0
4.7690005 -0.46368444 0.25426409 0
4.7690005 -0.47156528 0.25426409 0
4.7680001 -0.47934687 0.25429836 0
4.7680001 -0.48722592 0.25429836 0
4.7670002 -0.49500212 0.25433266 0
4.7660003 -0.50277472 0.2543669 0
4.7660003 -0.51065022 0.2543669 0
4.7650003 -0.51841736 0.25440118 0
4.7640004 -0.52618092 0.25443545 0
4.7760005 -0.38541901 0.24613072 0
4.7750001 -0.39323306 0.2461668 0
4.7750001 -0.40112475 0.2461668 0
4.7740002 -0.40893343 0.24620287 0
4.7730002 -0.41673851 0.24623895 0
4.7730002 -0.42462656 0.24623895 0
4.7720003 -0.43242624 0.24627502 0
4.7710004 -0.44022229 0.2463111 0
4.7710004 -0.44810677 0.2463111 0
4.7700005 -0.45589739 0.24634716 0
4.7690005 -0.46368444 0.24638325 0
4.7690005 -0.47156528 0.24638325 0
4.7680001 -0.47934687 0.24641934 0
4.7680001 -0.48722592 0.24641934 0
4.7670002 -0.49500212 0.2464554 0
4.7660003 -0.50277472 0.24649148 0
4.7660003 -0.51065022 0.24649148 0
4.7650003 -0.51841736 0.24652755 0
4.7640004 -0.52618092 0.24656363 0
4.7760005 -0.38541901 0.23823725 0
4.7750001 -0.39323306 0.23827514 0
4.7750001 -0.40112475 0.23827514 0
4.7740002 -0.40893343 0.23831302 0
4.7730002 -0.41673851 0.2383509 0
4.7730002 -0.42462656 0.2383509 0
4.7720003 -0.43242624 0.23838878 0
4.7710004 -0.44022229 0.23842664 0
4.7710004 -0.44810677 0.23842664 0
4.7700005 -0.45589739 0.23846453 0
4.7690005 -0.46368444 0.23850241 0
4.7690005 -0.47156528 0.23850241 0
4.7680001 -0.47934687 0.23854031 0
4.7680001 -0.48722592 0.23854031 0
4.7670002 -0.49500212 0.23857819 0
4.7660003 -0.50277472 0.23861605 0
4.7660003 -0.51065022 0.23861605 0
4.7650003 -0.51841736 0.23865393 0
4.7640004 -0.52618092 0.23869181 0
4.7760005 -0.38541901 0.23034377 0
4.7750001 -0.39323306 0.23038349 0
4.7750001 -0.40112475 0.23038349 0
4.7740002 -0.40893343 0.23042315 0
4.7730002 -0.41673851 0.23046285 0
4.7730002 -0.42462656 0.23046285 0
4.7720003 -0.43242624 0.23050252 0
4.7710004 -0.44022229 0.23054221 0
4.7710004 -0.44810677 0.23054221 0
4.7700005 -0.45589739 0.23058188 0
4.7690005 -0.46368444 0.23062156 0
4.7690005 -0.47156528 0.23062156 0
4.7680001 -0.47934687 0.23066126 0
4.7680001 -0.48722592 0.23066126 0
4.7670002 -0.49500212 0.23070094 0
4.7660003 -0.50277472 0.23074064 0
4.7660003 -0.51065022 0.23074064 0
4.7650003 -0.51841736 0.2307803 0
4.7640004 -0.52618092 0.23081999 0
4.7760005 -0.38541901 0.22245032 0
4.7750001 -0.39323306 0.22249182 0
4.7750001 -0.40112475 0.22249182 0
4.7740002 -0.40893343 0.2225333 0
4.7730002 -0.41673851 0.22257479 0
4.7730002 -0.42462656 0.22257479 0
4.7720003 -0.43242624 0.22261627 0
4.7710004 -0.44022229 0.22265776 0
4.7710004 -0.44810677 0.22265776 0
4.7700005 -0.45589739 0.22269924 0
4.7690005 -0.46368444 0.22274072 0
4.7690005 -0.47156528 0.22274072 0
4.7680001 -0.47934687 0.22278222 0
4.7680001 -0.48722592 0.22278222 0
4.7670002 -0.49500212 0.22282371 0
4.7660003 -0.50277472 0.22286519 0
4.7660003 -0.51065022 0.22286519 0
4.7650003 -0.51841736 0.22290669 0
4.7640004 -0.52618092 0.22294816 0
4.7760005 -0.38541901 0.21455684 0
4.7750001 -0.39323306 0.21460016 0
4.7750001 -0.40112475 0.21460016 0
4.7740002 -0.40893343 0.21464345 0
4.7730002 -0.41673851 0.21468674 0
4.7730002 -0.42462656 0.21468674 0
4.7720003 -0.43242624 0.21473001 0
4.7710004 -0.44022229 0.21477331 0
4.7710004 -0.44810677 0.21477331 0
4.7700005 -0.45589739 0.2148166 0
4.7690005 -0.46368444 0.21485989 0
4.7690005 -0.47156528 0.21485989 0
4.7680001 -0.47934687 0.21490319 0
4.7680001 -0.48722592 0.21490319 0
4.7670002 -0.49500212 0.21494649 0
4.7660003 -0.50277472 0.21498977 0
4.7660003 -0.51065022 0.21498977 0
4.7650003 -0.51841736 0.21503305 0
4.7640004 -0.52618092 0.21507636 0
4.7760005 -0.38541901 0.20666339 0
4.7750001 -0.39323306 0.20670849 0
4.7750001 -0.40112475 0.20670849 0
4.7740002 -0.40893343 0.2067536 0
4.7730002 -0.41673851 0.20679869 0
4.7730002 -0.42462656 0.20679869 0
4.7720003 -0.43242624 0.20684378 0
4.7710004 -0.44022229 0.20688887 0
4.7710004 -0.44810677 0.20688887 0
4.7700005 -0.45589739 0.20693396 0
4.7690005 -0.46368444 0.20697905 0
4.7690005 -0.47156528 0.20697905 0
4.7680001 -0.47934687 0.20702417 0
4.7680001 -0.48722592 0.20702417 0
4.7670002 -0.49500212 0.20706925 0
4.7660003 -0.50277472 0.20711435 0
4.7660003 -0.51065022 0.20711435 0
4.7650003 -0.51841736 0.20715943 0
4.7640004 -0.52618092 0.20720454 0
4.7760005 -0.38541901 0.19876993 0
4.7750001 -0.39323306 0.19881684 0
4.7750001 -0.40112475 0.19881684 0
4.7740002 -0.40893343 0.19886374 0
4.7730002 -0.41673851 0.19891062 0
4.7730002 -0.42462656 0.19891062 0
4.7720003 -0.43242624 0.19895753 0
4.7710004 -0.44022229 0.19900441 0
4.7710004 -0.44810677 0.19900441 0
4.7700005 -0.45589739 0.19905132 0
4.7690005 -0.46368444 0.19909821 0
4.7690005 -0.47156528 0.19909821 0
4.7680001 -0.47934687 0.19914512 0
4.7680001 -0.48722592 0.19914512 0
4.7670002 -0.49500212 0.19919203 0
4.7660003 -0.50277472 0.19923891 0
4.7660003 -0.51065022 0.19923891 0
4.7650003 -0.51841736 0.19928582 0
4.7640004 -0.52618092 0.19933271 0
4.7760005 -0.38541901 0.19087645 0
4.7750001 -0.39323306 0.19092518 0
4.7750001 -0.40112475 0.19092518 0
4.7740002 -0.40893343 0.19097388 0
4.7730002 -0.41673851 0.19102257 0
4.7730002 -0.42462656 0.19102257 0
4.7720003 -0.43242624 0.19107127 0
4.7710004 -0.44022229 0.19111998 0
4.7710004 -0.44810677 0.19111998 0
4.7700005 -0.45589739 0.19116867 0
4.7690005 -0.46368444 0.19121738 0
4.7690005 -0.47156528 0.19121738 0
4.7680001 -0.47934687 0.19126609 0
4.7680001 -0.48722592 0.19126609 0
4.7670002 -0.49500212 0.19131479 0
4.7660003 -0.50277472 0.1913635 0
4.7660003 -0.51065022 0.1913635 0
4.7650003 -0.51841736 0.1914122 0
4.7640004 -0.52618092 0.19146089 0
4.7760005 -0.38541901 0.18298298 0
4.7750001 -0.39323306 0.18303351 0
4.7750001 -0.40112475 0.18303351 0
4.7740002 -0.40893343 0.18308403 0
4.7730002 -0.41673851 0.18313453 0
4.7730002 -0.42462656 0.18313453 0
4.7720003 -0.43242624 0.18318503 0
4.7710004 -0.44022229 0.18323553 0
4.7710004 -0.44810677 0.18323553 0
4.7700005 -0.45589739 0.18328604 0
4.7690005 -0.46368444 0.18333653 0
4.7690005 -0.47156528 0.18333653 0
4.7680001 -0.47934687 0.18338706 0
4.7680001 -0.48722592 0.18338706 0
4.7670002 -0.49500212 0.18343757 0
4.7660003 -0.50277472 0.18348807 0
4.7660003 -0.51065022 0.18348807 0
4.7650003 -0.51841736 0.18353857 0
4.7640004 -0.52618092 0.18358907 0
4.7760005 -0.38541901 0.17508952 0
4.7750001 -0.39323306 0.17514186 0
4.7750001 -0.40112475 0.17514186 0
4.7740002 -0.40893343 0.17519416 0
4.7730002 -0.41673851 0.17524648 0
4.7730002 -0.42462656 0.17524648 0
4.7720003 -0.43242624 0.17529877 0
4.7710004 -0.44022229 0.17535108 0
4.7710004 -0.44810677 0.17535108 0
4.7700005 -0.45589739 0.17540339 0
4.7690005 -0.46368444 0.1754557 0
4.7690005 -0.47156528 0.1754557 0
4.7680001 -0.47934687 0.17550804 0
4.7680001 -0.48722592 0.17550804 0
4.7670002 -0.49500212 0.17556033 0
4.7660003 -0.50277472 0.17561264 0
4.7660003 -0.51065022 0.17561264 0
4.7650003 -0.51841736 0.17566495 0
4.7640004 -0.52618092 0.17571725 0
4.7640004 -0.53405279 0.17571725 0
4.7760005 -0.38541901 0.16719605 0
4.7750001 -0.39323306 0.1672502 0
4.7750001 -0.40112475 0.1672502 0
4.7740002 -0.40893343 0.16730431 0
4.7730002 -0.41673851 0.16735841 0
4.7730002 -0.42462656 0.16735841 0
4.7720003 -0.43242624 0.16741253 0
4.7710004 -0.44022229 0.16746664 0
4.7710004 -0.44810677 0.16746664 0
4.7700005 -0.45589739 0.16752076 0
4.7690005 -0.46368444 0.16757487 0
4.7690005 -0.47156528 0.16757487 0
4.7680001 -0.47934687 0.16762897 0
4.7680001 -0.48722592 0.16762897 0
4.7670002 -0.49500212 0.16768309 0
4.7660003 -0.50277472 0.1677372 0
4.7660003 -0.51065022 0.1677372 0
4.7650003 -0.51841736 0.16779132 0
4.7640004 -0.52618092 0.16784543 0
4.7640004 -0.53405279 0.16784543 0
4.7760005 -0.38541901 0.15930261 0
4.7750001 -0.39323306 0.15935853 0
4.7750001 -0.40112475 0.15935853 0
4.7740002 -0.40893343 0.15941444 0
4.7730002 -0.41673851 0.15947036 0
4.7730002 -0.42462656 0.15947036 0
4.7720003 -0.43242624 0.15952626 0
4.7710004 -0.44022229 0.1595822 0
4.7710004 -0.44810677 0.1595822 0
4.7700005 -0.45589739 0.15963809 0
4.7690005 -0.46368444 0.15969402 0
4.7690005 -0.47156528 0.15969402 0
4.7680001 -0.47934687 0.15974995 0
4.7680001 -0.48722592 0.15974995 0
4.7670002 -0.49500212 0.15980588 0
4.7660003 -0.50277472 0.15986179 0
4.7660003 -0.51065022 0.15986179 0
4.7650003 -0.51841736 0.15991771 0
4.7640004 -0.52618092 0.15997361 0
4.7640004 -0.53405279 0.15997361 0
4.7760005 -0.38541901 0.15140912 0
4.7750001 -0.39323306 0.15146688 0
4.7750001 -0.40112475 0.15146688 0
4.7740002 -0.40893343 0.1515246 0
4.7730002 -0.41673851 0.1515823 0
4.7730002 -0.42462656 0.1515823 0
4.7720003 -0.43242624 0.15164003 0
4.7710004 -0.44022229 0.15169775 0
4.7710004 -0.44810677 0.15169775 0
4.7700005 -0.45589739 0.15175545 0
4.7690005 -0.46368444 0.15181318 0
4.7690005 -0.47156528 0.15181318 0
4.7680001 -0.47934687 0.15187094 0
4.7680001 -0.48722592 0.15187094 0
4.7670002 -0.49500212 0.15192863 0
4.7660003 -0.50277472 0.15198636 0
4.7660003 -0.51065022 0.15198636 0
4.7650003 -0.51841736 0.15204409 0
4.7640004 -0.52618092 0.15210178 0
4.7640004 -0.53405279 0.15210178 0
4.7760005 -0.38541901 0.14351565 0
4.7750001 -0.39323306 0.14357522 0
4.7740002 -0.40104356 0.14363474 0
4.7740002 -0.40893343 0.14363474 0
4.7730002 -0.41673851 0.14369425 0
4.7730002 -0.42462656 0.14369425 0
4.7720003 -0.43242624 0.1437538 0
4.7710004 -0.44022229 0.14381328 0
4.7710004 -0.44810677 0.14381328 0
4.7700005 -0.45589739 0.14387283 0
4.7690005 -0.46368444 0.14393234 0
4.7690005 -0.47156528 0.14393234 0
4.7680001 -0.47934687 0.14399189 0
4.7680001 -0.48722592 0.14399189 0
4.7670002 -0.49500212 0.1440514 0
4.7660003 -0.50277472 0.14411095 0
4.7660003 -0.51065022 0.14411095 0
4.7650003 -0.51841736 0.14417043 0
4.7640004 -0.52618092 0.14422998 0
4.7640004 -0.53405279 0.14422998 0
4.7760005 -0.38541901 0.1356222 0
4.7750001 -0.39323306 0.13568357 0
4.7740002 -0.40104356 0.13574487 0
4.7740002 -0.40893343 0.13574487 0
4.7730002 -0.41673851 0.1358062 0
4.7730002 -0.42462656 0.1358062 0
4.7720003 -0.43242624 0.13586754 0
4.7710004 -0.44022229 0.13592884 0
4.7710004 -0.44810677 0.13592884 0
4.7700005 -0.45589739 0.13599017 0
4.7690005 -0.46368444 0.13605151 0
4.7690005 -0.47156528 0.13605151 0
4.7680001 -0.47934687 0.13611287 0
4.7680001 -0.48722592 0.13611287 0
4.7670002 -0.49500212 0.1361742 0
4.7660003 -0.50277472 0.13623551 0
4.7660003 -0.51065022 0.13623551 0
4.7650003 -0.51841736 0.13629684 0
4.7640004 -0.52618092 0.13635817 0
4.7640004 -0.53405279 0.13635817 0
4.7760005 -0.38541901 0.12772873 0
4.7750001 -0.39323306 0.12779188 0
4.7740002 -0.40104356 0.12785503 0
4.7740002 -0.40893343 0.12785503 0
4.7730002 -0.41673851 0.12791815 0
4.7730002 -0.42462656 0.12791815 0
4.7720003 -0.43242624 0.12798128 0
4.7710004 -0.44022229 0.1280444 0
4.7710004 -0.44810677 0.1280444 0
4.7700005 -0.45589739 0.12810755 0
4.7690005 -0.46368444 0.12817067 0
4.7690005 -0.47156528 0.12817067 0
4.7680001 -0.47934687 0.12823382 0
4.7670002 -0.48712489 0.12829694 0
4.7670002 -0.49500212 0.12829694 0
4.7660003 -0.50277472 0.12836006 0
4.7660003 -0.51065022 0.12836006 0
4.7650003 -0.51841736 0.12842321 0
4.7640004 -0.52618092 0.12848634 0
4.7640004 -0.53405279 0.12848634 0
4.7760005 -0.38541901 0.11983529 0
4.7750001 -0.39323306 0.11990023 0
4.7740002 -0.40104356 0.11996517 0
4.7740002 -0.40893343 0.11996517 0
4.7730002 -0.41673851 0.12003008 0
4.7730002 -0.42462656 0.12003008 0
4.7720003 -0.43242624 0.12009501 0
4.7710004 -0.44022229 0.12015995 0
4.7710004 -0.44810677 0.12015995 0
4.7700005 -0.45589739 0.12022489 0
4.7690005 -0.46368444 0.12028983 0
4.7690005 -0.47156528 0.12028983 0
4.7680001 -0.47934687 0.1203548 0
4.7670002 -0.48712489 0.12041971 0
4.7670002 -0.49500212 0.12041971 0
4.7660003 -0.50277472 0.12048465 0
4.7660003 -0.51065022 0.12048465 0
4.7650003 -0.51841736 0.12054959 0
4.7640004 -0.52618092 0.12061453 0
4.7640004 -0.53405279 0.12061453 0
4.7760005 -0.38541901 0.11194178 0
4.7750001 -0.39323306 0.11200857 0
4.7740002 -0.40104356 0.11207533 0
4.7740002 -0.40893343 0.11207533 0
4.7730002 -0.41673851 0.11214203 0
4.7730002 -0.42462656 0.11214203 0
4.7720003 -0.43242624 0.11220878 0
4.7710004 -0.44022229 0.11227551 0
4.7710004 -0.44810677 0.11227551 0
4.7700005 -0.45589739 0.11234224 0
4.7690005 -0.46368444 0.112409 0
4.7690005 -0.47156528 0.112409 0
4.7680001 -0.47934687 0.11247575 0
4.7670002 -0.48712489 0.11254248 0
4.7670002 -0.49500212 0.11254248 0
4.7660003 -0.50277472 0.11260924 0
4.7660003 -0.51065022 0.11260924 0
4.7650003 -0.51841736 0.11267596 0
4.7640004 -0.52618092 0.11274269 0
4.7640004 -0.53405279 0.11274269 0
4.7760005 -0.38541901 0.10404834 0
4.7750001 -0.39323306 0.10411692 0
4.7740002 -0.40104356 0.10418543 0
4.7740002 -0.40893343 0.10418543 0
4.7730002 -0.41673851 0.10425398 0
4.7730002 -0.42462656 0.10425398 0
4.7720003 -0.43242624 0.10432255 0
4.7710004 -0.44022229 0.10439107 0
4.7710004 -0.44810677 0.10439107 0
4.7700005 -0.45589739 0.10445961 0
4.7690005 -0.46368444 0.10452816 0
4.7690005 -0.47156528 0.10452816 0
4.7680001 -0.47934687 0.1045967 0
4.7670002 -0.48712489 0.10466528 0
4.7670002 -0.49500212 0.10466528 0
4.7660003 -0.50277472 0.10473379 0
4.7660003 -0.51065022 0.10473379 0
4.7650003 -0.51841736 0.10480234 0
4.7640004 -0.52618092 0.10487089 0
4.7640004 -0.53405279 0.10487089 0
4.7760005 -0.38541901 0.096154869 0
4.7750001 -0.39323306 0.096225262 0
4.7740002 -0.40104356 0.096295595 0
4.7740002 -0.40893343 0.096295595 0
4.7730002 -0.41673851 0.096365929 0
4.7730002 -0.42462656 0.096365929 0
4.7720003 -0.43242624 0.096436262 0
4.7710004 -0.44022229 0.096506625 0
4.7710004 -0.44810677 0.096506625 0
4.7700005 -0.45589739 0.096576989 0
4.7690005 -0.46368444 0.096647292 0
4.7690005 -0.47156528 0.096647292 0
4.7680001 -0.47934687 0.096717685 0
4.7670002 -0.48712489 0.096788019 0
4.7670002 -0.49500212 0.096788019 0
4.7660003 -0.50277472 0.096858382 0
4.7660003 -0.51065022 0.096858382 0
4.7650003 -0.51841736 0.096928716 0
4.7640004 -0.52618092 0.096999049 0
4.7640004 -0.53405279 0.096999049 0
4.7760005 -0.38541901 0.088261425 0
4.7750001 -0.39323306 0.088333577 0
4.7740002 -0.40104356 0.088405728 0
4.7740002 -0.40893343 0.088405728 0
4.7730002 -0.41673851 0.08847788 0
4.7730002 -0.42462656 0.08847788 0
4.7720003 -0.43242624 0.088550031 0
4.7710004 -0.44022229 0.088622183 0
4.7710004 -0.44810677 0.088622183 0
4.7700005 -0.45589739 0.088694304 0
4.7690005 -0.46368444 0.088766485 0
4.7690005 -0.47156528 0.088766485 0
4.7680001 -0.47934687 0.088838667 0
4.7670002 -0.48712489 0.088910788 0
4.7670002 -0.49500212 0.088910788 0
4.7660003 -0.50277472 0.08898294 0
4.7660003 -0.51065022 0.08898294 0
4.7650003 -0.51841736 0.089055091 0
4.7640004 -0.52618092 0.089127243 0
4.7640004 -0.53405279 0.089127243 0
4.7760005 -0.38541901 0.080367953 0
4.7750001 -0.39323306 0.080441922 0
4.7740002 -0.40104356 0.080515891 0
4.7740002 -0.40893343 0.080515891 0
4.7730002 -0.41673851 0.080589831 0
4.7730002 -0.42462656 0.080589831 0
4.7720003 -0.43242624 0.08066377 0
4.7710004 -0.44022229 0.08073774 0
4.7710004 -0.44810677 0.08073774 0
4.7700005 -0.45589739 0.080811679 0
4.7690005 -0.46368444 0.080885649 0
4.7690005 -0.47156528 0.080885649 0
4.7680001 -0.47934687 0.080959618 0
4.7670002 -0.48712489 0.081033587 0
4.7670002 -0.49500212 0.081033587 0
4.7660003 -0.50277472 0.081107497 0
4.7660003 -0.51065022 0.081107497 0
4.7650003 -0.51841736 0.081181467 0
4.7640004 -0.52618092 0.081255436 0
4.7640004 -0.53405279 0.081255436 0
4.7760005 -0.38541901 0.07247448 0
4.7750001 -0.39323306 0.072550267 0
4.7740002 -0.40104356 0.072626024 0
4.7740002 -0.40893343 0.072626024 0
4.7730002 -0.41673851 0.072701782 0
4.7730002 -0.42462656 0.072701782 0
4.7720003 -0.43242624 0.072777539 0
4.7710004 -0.44022229 0.072853267 0
4.7710004 -0.44810677 0.072853267 0
4.7700005 -0.45589739 0.072929054 0
4.7690005 -0.46368444 0.073004812 0
4.7690005 -0.47156528 0.073004812 0
4.7680001 -0.47934687 0.073080599 0
4.7670002 -0.48712489 0.073156357 0
4.7670002 -0.49500212 0.073156357 0
4.7660003 -0.50277472 0.073232085 0
4.7660003 -0.51065022 0.073232085 0
4.7650003 -0.51841736 0.073307842 0
4.7640004 -0.52618092 0.0733836 0
4.7640004 -0.53405279 0.0733836 0
4.7760005 -0.38541901 0.064581007 0
4.7750001 -0.39323306 0.064658612 0
4.7740002 -0.40104356 0.064736158 0
4.7740002 -0.40893343 0.064736158 0
4.7730002 -0.41673851 0.064813733 0
4.7730002 -0.42462656 0.064813733 0
4.7720003 -0.43242624 0.064891309 0
4.7710004 -0.44022229 0.064968824 0
4.7710004 -0.44810677 0.064968824 0
4.7700005 -0.45589739 0.0650464 0
4.7690005 -0.46368444 0.065123945 0
4.7690005 -0.47156528 0.065123945 0
4.7680001 -0.47934687 0.065201551 0
4.7670002 -0.48712489 0.065279096 0
4.7670002 -0.49500212 0.065279096 0
4.7660003 -0.50277472 0.065356672 0
4.7660003 -0.51065022 0.065356672 0
4.7650003 -0.51841736 0.065434217 0
4.7640004 -0.52618092 0.065511793 0
4.7640004 -0.53405279 0.065511793 0
4.7750001 -0.39323306 0.056766957 0
4.7740002 -0.40104356 0.056846291 0
4.7740002 -0.40893343 0.056846291 0
4.7730002 -0.41673851 0.056925684 0
4.7730002 -0.42462656 0.056925684 0
4.7720003 -0.43242624 0.057005018 0
4.7710004 -0.44022229 0.057084411 0
4.7710004 -0.44810677 0.057084411 0
4.7700005 -0.45589739 0.057163745 0
4.7690005 -0.46368444 0.057243109 0
4.7690005 -0.47156528 0.057243109 0
4.7680001 -0.47934687 0.057322502 0
4.7670002 -0.48712489 0.057401866 0
4.7670002 -0.49500212 0.057401866 0
4.7660003 -0.50277472 0.057481259 0
4.7660003 -0.51065022 0.057481259 0
4.7650003 -0.51841736 0.057560593 0
4.7640004 -0.52618092 0.057639956 0
4.7640004 -0.53405279 0.057639956 0
