# .PCD v0.7 - Point Cloud Data file format
VERSION 0.7
FIELDS x y z intensity
SIZE 4 4 4 4
TYPE F F F F
COUNT 1 1 1 1
WIDTH 1379
HEIGHT 1
VIEWPOINT 0 0 0 1 0 0 0
POINTS 1379
DATA ascii
2.7720003 0.15509576 0.51096582 0
2.7730002 0.1509001 0.51101094 0
2.7740002 0.14670083 0.51105601 0
2.7760003 0.14257732 0.51114625 0
2.7780001 0.13844658 0.51123643 0
2.7800002 0.13430867 0.51132661 0
2.7830002 0.13023748 0.51146191 0
2.7870002 0.1262276 0.51164228 0
2.7920003 0.12227367 0.51186776 0
2.7980001 0.11837021 0.51213831 0
2.8070002 0.11464536 0.51254416 0
2.8110001 0.084469438 0.51272458 0
2.7960002 0.079335809 0.51204813 0
2.7960002 0.075013891 0.51204813 0
2.7970002 0.07074067 0.51209325 0
2.7980001 0.066463828 0.51213831 0
2.7990003 0.062183406 0.51218343 0
2.7990003 0.057856064 0.51218343 0
2.8000002 0.053570215 0.51222849 0
2.8010001 0.049280751 0.51227361 0
2.8020003 0.044987697 0.51231873 0
2.8020003 0.040654954 0.51231873 0
2.8030002 0.036356468 0.51236379 0
2.8040001 0.032054383 0.51240891 0
2.8050003 0.0277487 0.51245397 0
2.8050003 0.02341054 0.51245397 0
2.8060002 0.01909944 0.51249909 0
2.8070002 0.014784731 0.51254416 0
2.8080003 0.010466415 0.51258928 0
2.8080003 0.0061228462 0.51258928 0
2.8090003 0.0017991178 0.5126344 0
2.8100002 -0.0025282241 0.51267946 0
2.8110001 -0.0068591684 0.51272458 0
2.8110001 -0.011208147 0.51272458 0
2.8120003 -0.015544502 0.51276964 0
2.8130002 -0.019884465 0.51281476 0
2.8140001 -0.024228036 0.51285982 0
2.8140001 -0.028582428 0.51285982 0
2.8150003 -0.03293141 0.51290494 0
2.8160002 -0.037283998 0.51295 0
2.8170002 -0.041640196 0.51299512 0
2.8180003 -0.046 0.51304024 0
2.8180003 -0.050361607 0.51304024 0
2.8190002 -0.054726824 0.51308531 0
2.8200002 -0.059095647 0.51313043 0
2.8210001 -0.063468076 0.51317549 0
2.8210001 -0.067835093 0.51317549 0
2.8220003 -0.072212942 0.51322061 0
2.8230002 -0.07659439 0.51326567 0
2.8240001 -0.080979452 0.51331079 0
2.8240001 -0.085351877 0.51331079 0
2.8250003 -0.089742348 0.51335591 0
2.8260002 -0.094136424 0.51340097 0
2.8270001 -0.098534107 0.51344609 0
2.8270001 -0.10291195 0.51344609 0
2.8280003 -0.10731506 0.51349115 0
2.8290002 -0.11172175 0.51353627 0
2.8300002 -0.11613207 0.51358134 0
2.8310003 -0.12054598 0.51362646 0
2.8310003 -0.12493104 0.51362646 0
2.8320003 -0.12935038 0.51367158 0
2.8330002 -0.13377331 0.51371664 0
2.8340001 -0.13819985 0.51376176 0
2.8340001 -0.14259031 0.51376176 0
2.8350003 -0.14702228 0.51380682 0
2.8360002 -0.15145785 0.51385194 0
2.8370001 -0.15589701 0.513897 0
2.8370001 -0.16029289 0.513897 0
2.8380003 -0.16473748 0.51394212 0
2.8390002 -0.16918568 0.51398724 0
2.8410003 -0.1736898 0.51407743 0
2.8440001 -0.17825522 0.51421267 0
2.8470001 -0.18283148 0.51434797 0
2.8530002 -0.18759173 0.51461858 0
2.8630002 -0.19261172 0.51506948 0
2.7140002 0.34635714 0.50417632 0
2.7150002 0.34235087 0.50421959 0
2.7160003 0.33834106 0.50426292 0
2.7160003 0.33416343 0.50426292 0
2.7170002 0.33014813 0.5043062 0
2.7180002 0.32612923 0.50434947 0
2.7180002 0.32194802 0.50434947 0
2.7190001 0.31792372 0.50439274 0
2.7200003 0.31389582 0.50443608 0
2.7200003 0.30971098 0.50443608 0
2.8080003 0.21027064 0.50824571 0
2.7950003 0.20456702 0.50768292 0
2.7880001 0.19952714 0.50737989 0
2.7840002 0.19481559 0.50720668 0
2.7800002 0.19011851 0.50703353 0
2.7770002 0.18553321 0.50690365 0
2.7750001 0.18105435 0.5068171 0
2.7740002 0.17667651 0.50677377 0
2.7720003 0.17221029 0.50668722 0
2.7720003 0.16793166 0.50668722 0
2.7710001 0.16356462 0.50664389 0
2.7720003 0.1593744 0.50668722 0
2.7720003 0.15509576 0.50668722 0
2.7730002 0.1509001 0.5067305 0
2.7740002 0.14670083 0.50677377 0
2.7760003 0.14257732 0.50686038 0
2.7780001 0.13844658 0.50694692 0
2.7800002 0.13430867 0.50703353 0
2.7830002 0.13023748 0.50716341 0
2.7870002 0.1262276 0.50733656 0
2.7920003 0.12227367 0.50755304 0
2.7980001 0.11837021 0.5078128 0
2.8070002 0.11464536 0.50820243 0
2.8110001 0.084469438 0.50837559 0
2.7920003 0.079126567 0.50755304 0
2.7930002 0.074862376 0.50759631 0
2.7940001 0.070594549 0.50763965 0
2.7950003 0.066323146 0.50768292 0
2.7950003 0.06200302 0.50768292 0
2.7960002 0.057726193 0.50772619 0
2.7970002 0.053445745 0.50776947 0
2.7980001 0.049161706 0.5078128 0
2.7980001 0.044836175 0.5078128 0
2.7990003 0.040546719 0.50785607 0
2.8000002 0.036253657 0.50789934 0
2.8010001 0.031956982 0.50794268 0
2.8010001 0.027626041 0.50794268 0
2.8020003 0.023323957 0.50798595 0
2.8030002 0.019018266 0.50802922 0
2.8030002 0.014683716 0.50802922 0
2.8040001 0.010372613 0.5080725 0
2.8050003 0.0060579069 0.50811583 0
2.8060002 0.0017395876 0.5081591 0
2.8060002 -0.0026003718 0.5081591 0
2.8070002 -0.0069241039 0.50820243 0
2.8080003 -0.011251438 0.50824571 0
2.8090003 -0.015582381 0.50828898 0
2.8090003 -0.019927757 0.50828898 0
2.8100002 -0.024264112 0.50833225 0
2.8110001 -0.028604073 0.50837559 0
2.8120003 -0.032947645 0.50841886 0
2.8120003 -0.03729843 0.50841886 0
2.8130002 -0.041647412 0.50846213 0
2.8140001 -0.046 0.50850546 0
2.8150003 -0.050356198 0.50854874 0
2.8150003 -0.054712392 0.50854874 0
2.8160002 -0.059074 0.50859201 0
2.8170002 -0.06343922 0.50863534 0
2.8180003 -0.067808047 0.50867862 0
2.8180003 -0.072169647 0.50867862 0
2.8190002 -0.076543882 0.50872189 0
2.8200002 -0.080921724 0.50876522 0
2.8210001 -0.085303172 0.50880849 0
2.8210001 -0.089670196 0.50880849 0
2.8220003 -0.094057061 0.50885177 0
2.8230002 -0.098447531 0.50889504 0
2.8240001 -0.1028416 0.50893837 0
2.8240001 -0.10721403 0.50893837 0
2.8250003 -0.11161353 0.50898165 0
2.8260002 -0.11601663 0.50902498 0
2.8270001 -0.12042333 0.50906825 0
2.8280003 -0.12483363 0.50911152 0
2.8280003 -0.12921329 0.50911152 0
2.8290002 -0.13362901 0.5091548 0
2.8300002 -0.13804834 0.50919813 0
2.8310003 -0.14247128 0.5092414 0
2.8310003 -0.14685634 0.5092414 0
2.8320003 -0.15128468 0.50928468 0
2.8330002 -0.15571663 0.50932801 0
2.8340001 -0.1601522 0.50937128 0
2.8340001 -0.16454268 0.50937128 0
2.8360002 -0.16903415 0.50945789 0
2.8370001 -0.17348054 0.50950116 0
2.8390002 -0.17798465 0.50958776 0
2.8420002 -0.18255189 0.50971758 0
2.8470001 -0.1872454 0.50993407 0
2.8530002 -0.19201648 0.51019382 0
2.7140002 0.34635714 0.50000226 0
2.7150002 0.34235087 0.50004381 0
2.7160003 0.33834106 0.50008529 0
2.7160003 0.33416343 0.50008529 0
2.7170002 0.33014813 0.50012678 0
2.7180002 0.32612923 0.50016826 0
2.7180002 0.32194802 0.50016826 0
2.7190001 0.31792372 0.50020975 0
2.7200003 0.31389582 0.50025123 0
2.7200003 0.30971098 0.50025123 0
2.8080003 0.21027064 0.50390214 0
2.7950003 0.20456702 0.50336277 0
2.7880001 0.19952714 0.50307238 0
2.7840002 0.19481559 0.50290644 0
2.7800002 0.19011851 0.5027405 0
2.7770002 0.18553321 0.50261599 0
2.7750001 0.18105435 0.50253302 0
2.7740002 0.17667651 0.50249153 0
2.7720003 0.17221029 0.50240856 0
2.7720003 0.16793166 0.50240856 0
2.7710001 0.16356462 0.50236708 0
2.7720003 0.1593744 0.50240856 0
2.7720003 0.15509576 0.50240856 0
2.7730002 0.1509001 0.50245005 0
2.7740002 0.14670083 0.50249153 0
2.7760003 0.14257732 0.5025745 0
2.7780001 0.13844658 0.50265747 0
2.7800002 0.13430867 0.5027405 0
2.7830002 0.13023748 0.50286496 0
2.7870002 0.1262276 0.5030309 0
2.7920003 0.12227367 0.50323832 0
2.7980001 0.11837021 0.50348723 0
2.8070002 0.11464536 0.50386065 0
2.8110001 0.084469438 0.50402659 0
2.7900002 0.079021946 0.50315535 0
2.7910001 0.074761346 0.50319684 0
2.7910001 0.070448443 0.50319684 0
2.7920003 0.066182449 0.50323832 0
2.7930002 0.061912831 0.50327981 0
2.7940001 0.057639603 0.50332129 0
2.7940001 0.053321283 0.50332129 0
2.7950003 0.049042661 0.50336277 0
2.7960002 0.044760417 0.50340426 0
2.7970002 0.040474568 0.50344574 0
2.7970002 0.036150839 0.50344574 0
2.7980001 0.03185958 0.50348723 0
2.7990003 0.027564716 0.50352871 0
2.8000002 0.023266237 0.5035702 0
2.8000002 0.018937092 0.5035702 0
2.8010001 0.014633205 0.50361168 0
2.8020003 0.010325715 0.50365323 0
2.8030002 0.0060146153 0.50369471 0
2.8030002 0.0016800612 0.50369471 0
2.8040001 -0.0026364513 0.5037362 0
2.8050003 -0.0069565699 0.50377768 0
2.8060002 -0.011280298 0.50381917 0
2.8060002 -0.015620261 0.50381917 0
2.8070002 -0.019949403 0.50386065 0
2.8080003 -0.024282148 0.50390214 0
2.8090003 -0.028618503 0.50394362 0
2.8090003 -0.032963879 0.50394362 0
2.8100002 -0.037305646 0.50398511 0
2.8110001 -0.041651018 0.50402659 0
2.8120003 -0.046 0.50406808 0
2.8120003 -0.050350785 0.50406808 0
2.8130002 -0.05470518 0.50410956 0
2.8140001 -0.059063178 0.50415105 0
2.8150003 -0.063424788 0.50419253 0
2.8150003 -0.067780986 0.50419253 0
2.8160002 -0.072148003 0.50423402 0
2.8170002 -0.076518632 0.5042755 0
2.8180003 -0.080892868 0.50431699 0
2.8180003 -0.085254475 0.50431699 0
2.8190002 -0.08963412 0.50435853 0
2.8200002 -0.094017372 0.50440001 0
2.8210001 -0.098404236 0.50444144 0
2.8210001 -0.10277125 0.50444144 0
2.8220003 -0.10716353 0.50448298 0
2.8230002 -0.11155941 0.50452447 0
2.8240001 -0.1159589 0.50456595 0
2.8240001 -0.12033133 0.50456595 0
2.8250003 -0.12473623 0.50460744 0
2.8260002 -0.12914474 0.50464892 0
2.8270001 -0.13355684 0.50469041 0
2.8270001 -0.1379347 0.50469041 0
2.8280003 -0.14235222 0.50473189 0
2.8290002 -0.14677335 0.50477338 0
2.8300002 -0.15119809 0.50481486 0
2.8300002 -0.15558134 0.50481486 0
2.8310003 -0.1600115 0.50485635 0
2.8320003 -0.16444527 0.50489783 0
2.8330002 -0.16888262 0.50493932 0
2.8340001 -0.1733236 0.5049808 0
2.8360002 -0.17782231 0.50506377 0
2.8390002 -0.18238413 0.50518823 0
2.8420002 -0.18695679 0.50531268 0
2.8480003 -0.19171885 0.50556165 0
2.8550003 -0.19656388 0.50585204 0
2.7140002 0.34635714 0.49582827 0
2.7150002 0.34235087 0.49586797 0
2.7160003 0.33834106 0.49590766 0
2.7160003 0.33416343 0.49590766 0
2.7170002 0.33014813 0.49594733 0
2.7180002 0.32612923 0.49598703 0
2.7180002 0.32194802 0.49598703 0
2.7190001 0.31792372 0.49602669 0
2.7200003 0.31389582 0.49606639 0
2.7200003 0.30971098 0.49606639 0
2.8080003 0.21027064 0.49955857 0
2.7950003 0.20456702 0.49904269 0
2.7880001 0.19952714 0.49876487 0
2.7840002 0.19481559 0.49860615 0
2.7800002 0.19011851 0.49844742 0
2.7770002 0.18553321 0.49832836 0
2.7750001 0.18105435 0.49824899 0
2.7740002 0.17667651 0.4982093 0
2.7720003 0.17221029 0.49812996 0
2.7720003 0.16793166 0.49812996 0
2.7710001 0.16356462 0.49809027 0
2.7720003 0.1593744 0.49812996 0
2.7720003 0.15509576 0.49812996 0
2.7730002 0.1509001 0.49816963 0
2.7740002 0.14670083 0.4982093 0
2.7760003 0.14257732 0.49828869 0
2.7780001 0.13844658 0.49836805 0
2.7800002 0.13430867 0.49844742 0
2.7830002 0.13023748 0.49856645 0
2.7870002 0.1262276 0.49872521 0
2.7920003 0.12227367 0.49892363 0
2.7980001 0.11837021 0.49916172 0
2.8070002 0.11464536 0.49951887 0
2.8110001 0.084469438 0.4996776 0
2.7880001 0.078917325 0.49876487 0
2.7890003 0.074660346 0.49880457 0
2.7890003 0.070351049 0.49880457 0
2.7900002 0.066088647 0.49884427 0
2.7910001 0.061822634 0.49888393 0
2.7920003 0.057553027 0.49892363 0
2.7920003 0.053238321 0.49892363 0
2.7930002 0.04896329 0.4989633 0
2.7940001 0.044684652 0.49900299 0
2.7950003 0.040402416 0.49904269 0
2.7950003 0.036082301 0.49904269 0
2.7960002 0.031794641 0.49908236 0
2.7970002 0.027503382 0.49912202 0
2.7980001 0.02320851 0.49916172 0
2.7980001 0.018882979 0.49916172 0
2.7990003 0.014582705 0.49920142 0
2.8000002 0.010278817 0.49924108 0
2.8000002 0.005949676 0.49924108 0
2.8010001 0.0016403757 0.49928075 0
2.8020003 -0.0026725233 0.49932045 0
2.8030002 -0.0069890395 0.49936014 0
2.8030002 -0.01132359 0.49936014 0
2.8040001 -0.015645515 0.49939981 0
2.8050003 -0.019971047 0.49943951 0
2.8060002 -0.024300186 0.49947917 0
2.8060002 -0.028640149 0.49947917 0
2.8070002 -0.032974701 0.49951887 0
2.8080003 -0.037312858 0.49955857 0
2.8090003 -0.041654624 0.49959826 0
2.8090003 -0.046 0.49959826 0
2.8100002 -0.050347179 0.49963793 0
2.8110001 -0.054697964 0.4996776 0
2.8120003 -0.059052356 0.4997173 0
2.8120003 -0.063403144 0.4997173 0
2.8130002 -0.067762949 0.49975699 0
2.8140001 -0.072126359 0.49979666 0
2.8140001 -0.076480754 0.49979666 0
2.8150003 -0.080849573 0.49983636 0
2.8160002 -0.085222006 0.49987602 0
2.8170002 -0.089598045 0.49991572 0
2.8170002 -0.093957849 0.49991572 0
2.8180003 -0.098339304 0.49995542 0
2.8190002 -0.10272436 0.49999508 0
2.8200002 -0.10711302 0.50003475 0
2.8200002 -0.11147824 0.50003475 0
2.8210001 -0.11587231 0.50007445 0
2.8220003 -0.12027 0.50011414 0
2.8230002 -0.1246713 0.50015384 0
2.8230002 -0.12904193 0.50015384 0
2.8240001 -0.13344862 0.50019348 0
2.8250003 -0.13785894 0.50023317 0
2.8260002 -0.14227284 0.50027287 0
2.8260002 -0.1466489 0.50027287 0
2.8270001 -0.15106823 0.50031257 0
2.8280003 -0.15549116 0.50035226 0
2.8290002 -0.15991771 0.5003919 0
2.8290002 -0.16429915 0.5003919 0
2.8300002 -0.16873111 0.5004316 0
2.8320003 -0.173219 0.50051099 0
2.8340001 -0.17771408 0.50059032 0
2.8360002 -0.18221639 0.50066972 0
2.8390002 -0.18678363 0.50078875 0
2.8440001 -0.19148074 0.50098717 0
2.8500001 -0.19625723 0.50122529 0
2.8620002 -0.20143417 0.50170147 0
2.7140002 0.34635714 0.49165428 0
2.7150002 0.34235087 0.49169216 0
2.7160003 0.33834106 0.49173003 0
2.7160003 0.33416343 0.49173003 0
2.7170002 0.33014813 0.49176791 0
2.7180002 0.32612923 0.49180579 0
2.7180002 0.32194802 0.49180579 0
2.7190001 0.31792372 0.49184367 0
2.7200003 0.31389582 0.49188155 0
2.7200003 0.30971098 0.49188155 0
2.8080003 0.21027064 0.495215 0
2.7950003 0.20456702 0.49472255 0
2.7880001 0.19952714 0.49445739 0
2.7840002 0.19481559 0.49430588 0
2.7800002 0.19011851 0.49415433 0
2.7770002 0.18553321 0.49404073 0
2.7750001 0.18105435 0.49396494 0
2.7740002 0.17667651 0.49392706 0
2.7720003 0.17221029 0.4938513 0
2.7720003 0.16793166 0.4938513 0
2.7710001 0.16356462 0.49381343 0
2.7720003 0.1593744 0.4938513 0
2.7720003 0.15509576 0.4938513 0
2.7730002 0.1509001 0.49388918 0
2.7740002 0.14670083 0.49392706 0
2.7760003 0.14257732 0.49400282 0
2.7780001 0.13844658 0.49407858 0
2.7800002 0.13430867 0.49415433 0
2.7830002 0.13023748 0.494268 0
2.7870002 0.1262276 0.49441952 0
2.7920003 0.12227367 0.49460891 0
2.7980001 0.11837021 0.49483618 0
2.8070002 0.11464536 0.49517709 0
2.8110001 0.084469438 0.49532863 0
2.7870002 0.078865007 0.49441952 0
2.7870002 0.074559316 0.49441952 0
2.7880001 0.070302337 0.49445739 0
2.7890003 0.066041753 0.49449527 0
2.7900002 0.061777543 0.49453315 0
2.7900002 0.057466436 0.49453315 0
2.7910001 0.053196821 0.49457103 0
2.7920003 0.048923608 0.49460891 0
2.7930002 0.044646773 0.49464679 0
2.7930002 0.040330257 0.49464679 0
2.7940001 0.036048014 0.49468467 0
2.7950003 0.031762179 0.49472255 0
2.7950003 0.027442057 0.49472255 0
2.7960002 0.02315079 0.49476042 0
2.7970002 0.018855926 0.4947983 0
2.7980001 0.014557444 0.49483618 0
2.7980001 0.010231916 0.49483618 0
2.7990003 0.0059280321 0.49487406 0
2.8000002 0.0016205385 0.49491194 0
2.8010001 -0.0026905648 0.49494982 0
2.8010001 -0.0070215091 0.49494982 0
2.8020003 -0.011338022 0.49498773 0
2.8030002 -0.015658142 0.49502558 0
2.8040001 -0.019981872 0.49506348 0
2.8040001 -0.024318226 0.49506348 0
2.8050003 -0.028647365 0.49510136 0
2.8060002 -0.032980114 0.49513924 0
2.8060002 -0.037320074 0.49513924 0
2.8070002 -0.041658234 0.49517709 0
2.8080003 -0.046 0.495215 0
2.8090003 -0.050345376 0.49525288 0
2.8090003 -0.054690748 0.49525288 0
2.8100002 -0.059041534 0.49529076 0
2.8110001 -0.063395925 0.49532863 0
2.8120003 -0.067753926 0.49536651 0
2.8120003 -0.072104715 0.49536651 0
2.8130002 -0.076468125 0.49540439 0
2.8140001 -0.080835149 0.49544227 0
2.8150003 -0.085205778 0.49548015 0
2.8150003 -0.089561969 0.49548015 0
2.8160002 -0.093938008 0.49551803 0
2.8170002 -0.098317653 0.49555591 0
2.8180003 -0.1027009 0.49559379 0
2.8180003 -0.10706252 0.49559379 0
2.8190002 -0.11145118 0.49563166 0
2.8200002 -0.11584346 0.49566954 0
2.8210001 -0.12023933 0.49570742 0
2.8210001 -0.12460636 0.49570742 0
2.8220003 -0.12900765 0.4957453 0
2.8230002 -0.13341255 0.49578318 0
2.8240001 -0.13782105 0.49582106 0
2.8240001 -0.14219348 0.49582106 0
2.8250003 -0.14660741 0.49585897 0
2.8260002 -0.15102494 0.49589682 0
2.8270001 -0.15544607 0.49593472 0
2.8270001 -0.15982391 0.49593472 0
2.8280003 -0.16425046 0.49597257 0
2.8290002 -0.16868061 0.49601048 0
2.8300002 -0.17311436 0.49604833 0
2.8320003 -0.17760585 0.49612412 0
2.8340001 -0.18210454 0.49619985 0
2.8370001 -0.18666819 0.49631351 0
2.8410003 -0.19130218 0.49646503 0
2.8470001 -0.19607323 0.4966923 0
2.8550003 -0.20099223 0.49699536 0
2.7140002 0.34635714 0.48748025 0
2.7150002 0.34235087 0.48751634 0
2.7160003 0.33834106 0.4875524 0
2.7160003 0.33416343 0.4875524 0
2.7170002 0.33014813 0.4875885 0
2.7180002 0.32612923 0.48762456 0
2.7180002 0.32194802 0.48762456 0
2.7190001 0.31792372 0.48766065 0
2.7200003 0.31389582 0.48769671 0
2.7200003 0.30971098 0.48769671 0
2.8080003 0.21027064 0.49087143 0
2.7950003 0.20456702 0.49040243 0
2.7880001 0.19952714 0.49014989 0
2.7840002 0.19481559 0.49000558 0
2.7800002 0.19011851 0.48986128 0
2.7770002 0.18553321 0.48975307 0
2.7750001 0.18105435 0.48968089 0
2.7740002 0.17667651 0.48964483 0
2.7720003 0.17221029 0.48957267 0
2.7720003 0.16793166 0.48957267 0
2.7710001 0.16356462 0.48953658 0
2.7720003 0.1593744 0.48957267 0
2.7720003 0.15509576 0.48957267 0
2.7730002 0.1509001 0.48960876 0
2.7740002 0.14670083 0.48964483 0
2.7760003 0.14257732 0.48971698 0
2.7780001 0.13844658 0.48978913 0
2.7800002 0.13430867 0.48986128 0
2.7830002 0.13023748 0.48996952 0
2.7870002 0.1262276 0.49011382 0
2.7920003 0.12227367 0.49029422 0
2.7980001 0.11837021 0.49051064 0
2.8070002 0.11464536 0.49083534 0
2.8110001 0.084469438 0.49097964 0
2.7860003 0.078812718 0.49007773 0
2.7860003 0.074508831 0.49007773 0
2.7870002 0.07025364 0.49011382 0
2.7880001 0.065994844 0.49014989 0
2.7880001 0.061687347 0.49014989 0
2.7890003 0.057423156 0.49018598 0
2.7900002 0.053155337 0.49022204 0
2.7910001 0.048883919 0.49025813 0
2.7910001 0.044571016 0.49025813 0
2.7920003 0.040294189 0.49029422 0
2.7930002 0.036013748 0.49033028 0
2.7940001 0.031729709 0.49036634 0
2.7940001 0.02741139 0.49036634 0
2.7950003 0.023121934 0.49040243 0
2.7960002 0.018828873 0.49043852 0
2.7960002 0.014506944 0.49043852 0
2.7970002 0.010208469 0.49047458 0
2.7980001 0.0059063844 0.49051064 0
2.7990003 0.0016006976 0.49054673 0
2.7990003 -0.0027266406 0.49054673 0
2.8000002 -0.0070377439 0.49058282 0
2.8010001 -0.011352453 0.49061888 0
2.8020003 -0.015670767 0.49065498 0
2.8020003 -0.020003516 0.49065498 0
2.8030002 -0.024327245 0.49069104 0
2.8040001 -0.028654581 0.49072713 0
2.8040001 -0.032990936 0.49072713 0
2.8050003 -0.037323684 0.49076319 0
2.8060002 -0.041660037 0.49079928 0
2.8070002 -0.046 0.49083534 0
2.8070002 -0.050341766 0.49083534 0
2.8080003 -0.054687142 0.49087143 0
2.8090003 -0.059036121 0.49090749 0
2.8100002 -0.063388713 0.49094355 0
2.8100002 -0.067735888 0.49094355 0
2.8110001 -0.072093889 0.49097964 0
2.8120003 -0.076455496 0.49101573 0
2.8130002 -0.080820709 0.49105179 0
2.8130002 -0.085173309 0.49105179 0
2.8140001 -0.089543924 0.49108785 0
2.8150003 -0.093918167 0.49112394 0
2.8150003 -0.098274365 0.49112394 0
2.8160002 -0.10265401 0.49116004 0
2.8170002 -0.10703726 0.4911961 0
2.8180003 -0.11142413 0.49123219 0
2.8180003 -0.11578573 0.49123219 0
2.8190002 -0.120178 0.49126828 0
2.8200002 -0.12457389 0.49130434 0
2.8210001 -0.12897336 0.4913404 0
2.8210001 -0.13334039 0.4913404 0
2.8220003 -0.13774529 0.49137649 0
2.8230002 -0.1421538 0.49141258 0
2.8240001 -0.14656591 0.49144864 0
2.8240001 -0.15093835 0.49144864 0
2.8250003 -0.15535587 0.4914847 0
2.8260002 -0.15977702 0.49152079 0
2.8270001 -0.16420174 0.49155685 0
2.8270001 -0.16857959 0.49155685 0
2.8290002 -0.17306206 0.491629 0
2.8300002 -0.17749763 0.4916651 0
2.8330002 -0.18204863 0.49177331 0
2.8360002 -0.18661046 0.49188155 0
2.8390002 -0.19118312 0.49198979 0
2.8450003 -0.19595058 0.49220625 0
2.8520002 -0.20080283 0.49245876 0
2.7140002 0.34635714 0.48330626 0
2.7150002 0.34235087 0.4833405 0
2.7160003 0.33834106 0.4833748 0
2.7160003 0.33416343 0.4833748 0
2.7170002 0.33014813 0.48340905 0
2.7180002 0.32612923 0.48344332 0
2.7180002 0.32194802 0.48344332 0
2.7190001 0.31792372 0.48347759 0
2.7200003 0.31389582 0.48351187 0
2.7200003 0.30971098 0.48351187 0
2.8080003 0.21027064 0.48652786 0
2.7950003 0.20456702 0.48608232 0
2.7880001 0.19952714 0.48584241 0
2.7840002 0.19481559 0.48570532 0
2.7800002 0.19011851 0.48556823 0
2.7770002 0.18553321 0.48546541 0
2.7750001 0.18105435 0.48539686 0
2.7740002 0.17667651 0.48536259 0
2.7720003 0.17221029 0.48529404 0
2.7720003 0.16793166 0.48529404 0
2.7710001 0.16356462 0.48525977 0
2.7720003 0.1593744 0.48529404 0
2.7720003 0.15509576 0.48529404 0
2.7730002 0.1509001 0.48532832 0
2.7740002 0.14670083 0.48536259 0
2.7760003 0.14257732 0.48543113 0
2.7780001 0.13844658 0.48549968 0
2.7800002 0.13430867 0.48556823 0
2.7830002 0.13023748 0.48567104 0
2.7870002 0.1262276 0.48580813 0
2.7920003 0.12227367 0.4859795 0
2.7980001 0.11837021 0.48618513 0
2.8070002 0.11464536 0.48649359 0
3.0340002 0.11554185 0.49427339 0
3.0350003 0.11085016 0.49430767 0
2.8110001 0.084469438 0.48663068 0
2.7850003 0.0787604 0.48573959 0
2.7860003 0.074508831 0.48577386 0
2.7870002 0.07025364 0.48580813 0
2.7870002 0.06594795 0.48580813 0
2.7880001 0.061687347 0.48584241 0
2.7890003 0.057423156 0.48587668 0
2.7890003 0.053113852 0.48587668 0
2.7900002 0.048844237 0.48591095 0
2.7910001 0.044571016 0.48594522 0
2.7920003 0.040294189 0.4859795 0
2.7920003 0.035979483 0.4859795 0
2.7930002 0.031697232 0.48601377 0
2.7940001 0.02741139 0.48604804 0
2.7950003 0.023121934 0.48608232 0
2.7950003 0.018801812 0.48608232 0
2.7960002 0.014506944 0.48611659 0
2.7970002 0.010208469 0.48615086 0
2.7970002 0.0058847368 0.48615086 0
2.7980001 0.001580853 0.48618513 0
2.7990003 -0.0027266406 0.48621941 0
2.8000002 -0.0070377439 0.48625368 0
2.8000002 -0.011366881 0.48625368 0
2.8010001 -0.015683398 0.48628795 0
2.8020003 -0.020003516 0.48632222 0
2.8030002 -0.024327245 0.4863565 0
2.8030002 -0.028661795 0.4863565 0
2.8040001 -0.032990936 0.48639077 0
2.8050003 -0.037323684 0.48642504 0
2.8050003 -0.04166184 0.48642504 0
2.8060002 -0.046 0.48645931 0
2.8070002 -0.050341766 0.48649359 0
2.8080003 -0.054687142 0.48652786 0
2.8080003 -0.059030712 0.48652786 0
2.8090003 -0.063381493 0.48656213 0
2.8100002 -0.067735888 0.48659641 0
2.8110001 -0.072093889 0.48663068 0
2.8110001 -0.076442868 0.48663068 0
2.8120003 -0.080806285 0.48666495 0
2.8130002 -0.085173309 0.48669922 0
2.8140001 -0.089543924 0.4867335 0
2.8140001 -0.093898326 0.4867335 0
2.8150003 -0.098274365 0.48676777 0
2.8160002 -0.10265401 0.48680204 0
2.8170002 -0.10703726 0.48683631 0
2.8170002 -0.11139707 0.48683631 0
2.8180003 -0.11578573 0.48687059 0
2.8190002 -0.120178 0.48690486 0
2.8190002 -0.12454142 0.48690486 0
2.8200002 -0.12893911 0.48693913 0
2.8210001 -0.13334039 0.48697338 0
2.8220003 -0.13774529 0.48700768 0
2.8220003 -0.14211412 0.48700768 0
2.8230002 -0.14652443 0.48704195 0
2.8240001 -0.15093835 0.48707619 0
2.8250003 -0.15535587 0.4871105 0
2.8250003 -0.15973011 0.4871105 0
2.8260002 -0.16415305 0.48714477 0
2.8270001 -0.16857959 0.48717901 0
2.8280003 -0.17300975 0.48721331 0
2.8300002 -0.17749763 0.48728183 0
2.8320003 -0.18199272 0.4873504 0
2.8350003 -0.18655275 0.48745322 0
2.8380003 -0.1911236 0.48755601 0
2.8430002 -0.19582792 0.48772737 0
2.8500001 -0.20067655 0.48796728 0
2.7140002 0.34635714 0.47913224 0
2.7150002 0.34235087 0.47916472 0
2.7160003 0.33834106 0.47919717 0
2.7160003 0.33416343 0.47919717 0
2.7170002 0.33014813 0.47922963 0
2.7180002 0.32612923 0.47926211 0
2.7180002 0.32194802 0.47926211 0
2.7190001 0.31792372 0.47929457 0
2.7200003 0.31389582 0.47932705 0
2.7200003 0.30971098 0.47932705 0
2.8080003 0.21027064 0.48218429 0
2.7950003 0.20456702 0.4817622 0
2.7880001 0.19952714 0.4815349 0
2.7840002 0.19481559 0.48140502 0
2.7800002 0.19011851 0.48127517 0
2.7770002 0.18553321 0.48117775 0
2.7750001 0.18105435 0.48111281 0
2.7740002 0.17667651 0.48108035 0
2.7720003 0.17221029 0.48101541 0
2.7720003 0.16793166 0.48101541 0
2.7710001 0.16356462 0.48098296 0
2.7720003 0.1593744 0.48101541 0
2.7720003 0.15509576 0.48101541 0
2.7730002 0.1509001 0.48104787 0
2.7740002 0.14670083 0.48108035 0
2.7760003 0.14257732 0.48114529 0
2.7780001 0.13844658 0.48121023 0
2.7800002 0.13430867 0.48127517 0
2.7830002 0.13023748 0.48137257 0
2.7870002 0.1262276 0.48150244 0
2.7920003 0.12227367 0.48166478 0
2.7980001 0.11837021 0.48185959 0
2.8070002 0.11464536 0.48215181 0
3.0320003 0.12016682 0.48945725 0
3.0330002 0.11548051 0.4894897 0
3.0340002 0.11079061 0.48952216 0
2.8110001 0.084469438 0.48228168 0
2.7850003 0.0787604 0.4814375 0
2.7850003 0.074458316 0.4814375 0
2.7860003 0.070204943 0.48146996 0
2.7870002 0.06594795 0.48150244 0
2.7880001 0.061687347 0.4815349 0
2.7880001 0.057379853 0.4815349 0
2.7890003 0.053113852 0.48156738 0
2.7900002 0.048844237 0.48159984 0
2.7900002 0.044533137 0.48159984 0
2.7910001 0.040258106 0.48163232 0
2.7920003 0.035979483 0.48166478 0
2.7930002 0.031697232 0.48169726 0
2.7930002 0.027380724 0.48169726 0
2.7940001 0.023093071 0.48172972 0
2.7950003 0.018801812 0.4817622 0
2.7960002 0.014506944 0.48179466 0
2.7960002 0.010185022 0.48179466 0
2.7970002 0.0058847368 0.48182711 0
2.7980001 0.001580853 0.48185959 0
2.7980001 -0.0027446821 0.48185959 0
2.7990003 -0.007053975 0.48189205 0
2.8000002 -0.011366881 0.48192453 0
2.8010001 -0.015683398 0.48195699 0
2.8010001 -0.02001434 0.48195699 0
2.8020003 -0.024336262 0.48198947 0
2.8030002 -0.028661795 0.48202193 0
2.8040001 -0.032990936 0.48205441 0
2.8040001 -0.03732729 0.48205441 0
2.8050003 -0.04166184 0.48208687 0
2.8060002 -0.046 0.48211935 0
2.8060002 -0.050339963 0.48211935 0
2.8070002 -0.054683533 0.48215181 0
2.8080003 -0.059030712 0.48218429 0
2.8090003 -0.063381493 0.48221675 0
2.8090003 -0.067726873 0.48221675 0
2.8100002 -0.072083071 0.4822492 0
2.8110001 -0.076442868 0.48228168 0
2.8120003 -0.080806285 0.48231417 0
2.8120003 -0.085157067 0.48231417 0
2.8130002 -0.089525893 0.48234662 0
2.8140001 -0.093898326 0.48237908 0
2.8150003 -0.098274365 0.48241156 0
2.8150003 -0.10263056 0.48241156 0
2.8160002 -0.107012 0.48244402 0
2.8170002 -0.11139707 0.4824765 0
2.8180003 -0.11578573 0.48250896 0
2.8180003 -0.12014735 0.48250896 0
2.8190002 -0.12454142 0.48254144 0
2.8200002 -0.12893911 0.4825739 0
2.8210001 -0.13334039 0.48260635 0
2.8210001 -0.13770741 0.48260635 0
2.8220003 -0.14211412 0.48263884 0
2.8230002 -0.14652443 0.48267132 0
2.8230002 -0.15089506 0.48267132 0
2.8240001 -0.15531078 0.48270378 0
2.8250003 -0.15973011 0.48273623 0
2.8260002 -0.16415305 0.48276871 0
2.8260002 -0.16852908 0.48276871 0
2.8280003 -0.17300975 0.48283365 0
2.8290002 -0.1774435 0.48286611 0
2.8310003 -0.1819368 0.48293105 0
2.8340001 -0.18649502 0.48302847 0
2.8380003 -0.1911236 0.48315835 0
2.8430002 -0.19582792 0.48332068 0
2.8490002 -0.20061342 0.4835155 0
2.7140002 0.34635714 0.47495821 0
2.7150002 0.34235087 0.47498888 0
2.7160003 0.33834106 0.47501957 0
2.7160003 0.33416343 0.47501957 0
2.7170002 0.33014813 0.47505021 0
2.7180002 0.32612923 0.47508088 0
2.7180002 0.32194802 0.47508088 0
2.7190001 0.31792372 0.47511154 0
2.7200003 0.31389582 0.47514221 0
2.7200003 0.30971098 0.47514221 0
2.8080003 0.21027064 0.47784072 0
2.7950003 0.20456702 0.47744209 0
2.7880001 0.19952714 0.47722742 0
2.7840002 0.19481559 0.47710475 0
2.7800002 0.19011851 0.47698209 0
2.7770002 0.18553321 0.47689009 0
2.7750001 0.18105435 0.47682875 0
2.7740002 0.17667651 0.47679812 0
2.7720003 0.17221029 0.47673678 0
2.7720003 0.16793166 0.47673678 0
2.7710001 0.16356462 0.47670612 0
2.7720003 0.1593744 0.47673678 0
2.7720003 0.15509576 0.47673678 0
2.7730002 0.1509001 0.47676745 0
2.7740002 0.14670083 0.47679812 0
2.7760003 0.14257732 0.47685945 0
2.7780001 0.13844658 0.47692075 0
2.7800002 0.13430867 0.47698209 0
2.7830002 0.13023748 0.47707409 0
2.7870002 0.1262276 0.47719675 0
2.7920003 0.12227367 0.47735006 0
2.7980001 0.11837021 0.47753406 0
2.8070002 0.11464536 0.47781006 0
3.0320003 0.12016682 0.48470962 0
3.0320003 0.11541919 0.48470962 0
3.0330002 0.1107311 0.48474026 0
3.0340002 0.10603938 0.48477095 0
2.8110001 0.084469438 0.47793269 0
2.7850003 0.0787604 0.47713542 0
2.7860003 0.074508831 0.47716609 0
2.7870002 0.07025364 0.47719675 0
2.7870002 0.06594795 0.47719675 0
2.7880001 0.061687347 0.47722742 0
2.7890003 0.057423156 0.47725809 0
2.7890003 0.053113852 0.47725809 0
2.7900002 0.048844237 0.47728872 0
2.7910001 0.044571016 0.47731942 0
2.7920003 0.040294189 0.47735006 0
2.7920003 0.035979483 0.47735006 0
2.7930002 0.031697232 0.47738075 0
2.7940001 0.02741139 0.47741139 0
2.7940001 0.023093071 0.47741139 0
2.7950003 0.018801812 0.47744209 0
2.7960002 0.014506944 0.47747272 0
2.7970002 0.010208469 0.47750339 0
2.7970002 0.0058847368 0.47750339 0
2.7980001 0.001580853 0.47753406 0
2.7990003 -0.0027266406 0.47756472 0
2.7990003 -0.007053975 0.47756472 0
2.8000002 -0.011366881 0.47759539 0
2.8010001 -0.015683398 0.47762606 0
2.8020003 -0.020003516 0.47765672 0
2.8020003 -0.024336262 0.47765672 0
2.8030002 -0.028661795 0.47768739 0
2.8040001 -0.032990936 0.47771806 0
2.8050003 -0.037323684 0.47774872 0
2.8050003 -0.04166184 0.47774872 0
2.8060002 -0.046 0.47777939 0
2.8070002 -0.050341766 0.47781006 0
2.8070002 -0.054683533 0.47781006 0
2.8080003 -0.059030712 0.47784072 0
2.8090003 -0.063381493 0.47787136 0
2.8100002 -0.067735888 0.47790202 0
2.8100002 -0.072083071 0.47790202 0
2.8110001 -0.076442868 0.47793269 0
2.8120003 -0.080806285 0.47796336 0
2.8130002 -0.085173309 0.47799402 0
2.8130002 -0.089525893 0.47799402 0
2.8140001 -0.093898326 0.47802469 0
2.8150003 -0.098274365 0.47805536 0
2.8160002 -0.10265401 0.47808602 0
2.8160002 -0.107012 0.47808602 0
2.8170002 -0.11139707 0.47811669 0
2.8180003 -0.11578573 0.47814736 0
2.8180003 -0.12014735 0.47814736 0
2.8190002 -0.12454142 0.47817802 0
2.8200002 -0.12893911 0.47820869 0
2.8210001 -0.13334039 0.47823936 0
2.8210001 -0.13770741 0.47823936 0
2.8220003 -0.14211412 0.47827002 0
2.8230002 -0.14652443 0.47830069 0
2.8240001 -0.15093835 0.47833133 0
2.8240001 -0.15531078 0.47833133 0
2.8250003 -0.15973011 0.47836202 0
2.8260002 -0.16415305 0.47839266 0
2.8260002 -0.16852908 0.47839266 0
2.8280003 -0.17300975 0.47845399 0
2.8290002 -0.1774435 0.47848466 0
2.8310003 -0.1819368 0.47854599 0
2.8340001 -0.18649502 0.47863799 0
2.8380003 -0.1911236 0.47876066 0
2.8430002 -0.19582792 0.47891396 0
2.8490002 -0.20061342 0.47909796 0
2.8610003 -0.2058102 0.47946593 0
2.7140002 0.34635714 0.47078422 0
2.7150002 0.34235087 0.47081307 0
2.7160003 0.33834106 0.47084194 0
2.7160003 0.33416343 0.47084194 0
2.7170002 0.33014813 0.47087079 0
2.7180002 0.32612923 0.47089964 0
2.7180002 0.32194802 0.47089964 0
2.7190001 0.31792372 0.47092852 0
2.7200003 0.31389582 0.47095737 0
2.7200003 0.30971098 0.47095737 0
2.8080003 0.21027064 0.47349715 0
2.7950003 0.20456702 0.47312194 0
2.7880001 0.19952714 0.47291991 0
2.7840002 0.19481559 0.47280449 0
2.7800002 0.19011851 0.47268903 0
2.7770002 0.18553321 0.47260246 0
2.7750001 0.18105435 0.47254473 0
2.7740002 0.17667651 0.47251588 0
2.7720003 0.17221029 0.47245815 0
2.7720003 0.16793166 0.47245815 0
2.7710001 0.16356462 0.47242928 0
2.7720003 0.1593744 0.47245815 0
2.7720003 0.15509576 0.47245815 0
2.7730002 0.1509001 0.472487 0
2.7740002 0.14670083 0.47251588 0
2.7760003 0.14257732 0.47257358 0
2.7780001 0.13844658 0.47263131 0
2.7800002 0.13430867 0.47268903 0
2.7830002 0.13023748 0.47277561 0
2.7870002 0.1262276 0.47289106 0
2.7920003 0.12227367 0.47303537 0
2.7980001 0.11837021 0.47320852 0
2.8070002 0.11464536 0.47346827 0
3.0310001 0.12010367 0.47993311 0
3.0320003 0.11541919 0.47996199 0
3.0330002 0.1107311 0.47999084 0
3.0340002 0.10603938 0.48001969 0
2.8110001 0.084469438 0.47358373 0
2.7860003 0.078812718 0.47286218 0
2.7860003 0.074508831 0.47286218 0
2.7870002 0.07025364 0.47289106 0
2.7880001 0.065994844 0.47291991 0
2.7880001 0.061687347 0.47291991 0
2.7890003 0.057423156 0.47294879 0
2.7900002 0.053155337 0.47297764 0
2.7910001 0.048883919 0.47300649 0
2.7910001 0.044571016 0.47300649 0
2.7920003 0.040294189 0.47303537 0
2.7930002 0.036013748 0.47306421 0
2.7930002 0.031697232 0.47306421 0
2.7940001 0.02741139 0.47309309 0
2.7950003 0.023121934 0.47312194 0
2.7960002 0.018828873 0.47315079 0
2.7960002 0.014506944 0.47315079 0
2.7970002 0.010208469 0.47317967 0
2.7980001 0.0059063844 0.47320852 0
2.7980001 0.001580853 0.47320852 0
2.7990003 -0.0027266406 0.4732374 0
2.8000002 -0.0070377439 0.47326624 0
2.8010001 -0.011352453 0.47329509 0
2.8010001 -0.015683398 0.47329509 0
2.8020003 -0.020003516 0.47332397 0
2.8030002 -0.024327245 0.47335285 0
2.8040001 -0.028654581 0.4733817 0
2.8040001 -0.032990936 0.4733817 0
2.8050003 -0.037323684 0.47341055 0
2.8060002 -0.041660037 0.47343943 0
2.8060002 -0.046 0.47343943 0
2.8070002 -0.050341766 0.47346827 0
2.8080003 -0.054687142 0.47349715 0
2.8090003 -0.059036121 0.473526 0
2.8090003 -0.063381493 0.473526 0
2.8100002 -0.067735888 0.47355485 0
2.8110001 -0.072093889 0.47358373 0
2.8120003 -0.076455496 0.47361258 0
2.8120003 -0.080806285 0.47361258 0
2.8130002 -0.085173309 0.47364146 0
2.8140001 -0.089543924 0.4736703 0
2.8140001 -0.093898326 0.4736703 0
2.8150003 -0.098274365 0.47369915 0
2.8160002 -0.10265401 0.47372803 0
2.8170002 -0.10703726 0.47375688 0
2.8170002 -0.11139707 0.47375688 0
2.8180003 -0.11578573 0.47378576 0
2.8190002 -0.120178 0.47381461 0
2.8200002 -0.12457389 0.47384346 0
2.8200002 -0.12893911 0.47384346 0
2.8210001 -0.13334039 0.47387233 0
2.8220003 -0.13774529 0.47390118 0
2.8230002 -0.1421538 0.47393006 0
2.8230002 -0.14652443 0.47393006 0
2.8240001 -0.15093835 0.47395891 0
2.8250003 -0.15535587 0.47398776 0
2.8250003 -0.15973011 0.47398776 0
2.8260002 -0.16415305 0.47401664 0
2.8270001 -0.16857959 0.47404549 0
2.8280003 -0.17300975 0.47407436 0
2.8290002 -0.1774435 0.47410321 0
2.8320003 -0.18199272 0.47418982 0
2.8340001 -0.18649502 0.47424752 0
2.8380003 -0.1911236 0.47436297 0
2.8430002 -0.19582792 0.47450727 0
2.8490002 -0.20061342 0.47468042 0
2.8610003 -0.2058102 0.47502679 0
2.7140002 0.34635714 0.46661019 0
2.7150002 0.34235087 0.46663725 0
2.7160003 0.33834106 0.46666431 0
2.7160003 0.33416343 0.46666431 0
2.7170002 0.33014813 0.46669137 0
2.7180002 0.32612923 0.46671844 0
2.7180002 0.32194802 0.46671844 0
2.7190001 0.31792372 0.4667455 0
2.7200003 0.31389582 0.46677256 0
2.7200003 0.30971098 0.46677256 0
2.8080003 0.21027064 0.46915358 0
2.7950003 0.20456702 0.46880183 0
2.7880001 0.19952714 0.46861243 0
2.7840002 0.19481559 0.46850419 0
2.7800002 0.19011851 0.46839595 0
2.7770002 0.18553321 0.4683148 0
2.7750001 0.18105435 0.46826068 0
2.7740002 0.17667651 0.46823362 0
2.7720003 0.17221029 0.46817952 0
2.7720003 0.16793166 0.46817952 0
2.7710001 0.16356462 0.46815246 0
2.7720003 0.1593744 0.46817952 0
2.7720003 0.15509576 0.46817952 0
2.7730002 0.1509001 0.46820658 0
2.7740002 0.14670083 0.46823362 0
2.7760003 0.14257732 0.46828774 0
2.7780001 0.13844658 0.46834186 0
2.7800002 0.13430867 0.46839595 0
2.7830002 0.13023748 0.46847713 0
2.7870002 0.1262276 0.46858537 0
2.7920003 0.12227367 0.46872067 0
2.7980001 0.11837021 0.46888298 0
2.8070002 0.11464536 0.46912652 0
3.0320003 0.12016682 0.47521436 0
3.0330002 0.11548051 0.47524142 0
3.0330002 0.1107311 0.47524142 0
3.0340002 0.10603938 0.47526848 0
2.8110001 0.084469438 0.46923473 0
2.7870002 0.078865007 0.46858537 0
2.7870002 0.074559316 0.46858537 0
2.7880001 0.070302337 0.46861243 0
2.7890003 0.066041753 0.46863949 0
2.7890003 0.061732452 0.46863949 0
2.7900002 0.057466436 0.46866655 0
2.7910001 0.053196821 0.46869361 0
2.7920003 0.048923608 0.46872067 0
2.7920003 0.044608895 0.46872067 0
2.7930002 0.040330257 0.46874771 0
2.7940001 0.036048014 0.46877477 0
2.7940001 0.031729709 0.46877477 0
2.7950003 0.027442057 0.46880183 0
2.7960002 0.02315079 0.46882889 0
2.7970002 0.018855926 0.46885595 0
2.7970002 0.014532197 0.46885595 0
2.7980001 0.010231916 0.46888298 0
2.7990003 0.0059280321 0.46891004 0
2.7990003 0.0016006976 0.46891004 0
2.8000002 -0.0027086027 0.4689371 0
2.8010001 -0.0070215091 0.46896416 0
2.8020003 -0.011338022 0.46899122 0
2.8020003 -0.015670767 0.46899122 0
2.8030002 -0.019992692 0.46901828 0
2.8040001 -0.024318226 0.46904534 0
2.8040001 -0.028654581 0.46904534 0
2.8050003 -0.032985523 0.4690724 0
2.8060002 -0.037320074 0.46909946 0
2.8070002 -0.041658234 0.46912652 0
2.8070002 -0.046 0.46912652 0
2.8080003 -0.050343569 0.46915358 0
2.8090003 -0.054690748 0.46918064 0
2.8100002 -0.059041534 0.46920767 0
2.8100002 -0.063388713 0.46920767 0
2.8110001 -0.067744911 0.46923473 0
2.8120003 -0.072104715 0.4692618 0
2.8120003 -0.076455496 0.4692618 0
2.8130002 -0.080820709 0.46928886 0
2.8140001 -0.085189536 0.46931592 0
2.8150003 -0.089561969 0.46934298 0
2.8150003 -0.093918167 0.46934298 0
2.8160002 -0.098296002 0.46937001 0
2.8170002 -0.10267746 0.46939707 0
2.8180003 -0.10706252 0.46942413 0
2.8180003 -0.11142413 0.46942413 0
2.8190002 -0.1158146 0.46945119 0
2.8200002 -0.12020867 0.46947825 0
2.8210001 -0.12460636 0.46950531 0
2.8210001 -0.12897336 0.46950531 0
2.8220003 -0.13337646 0.46953237 0
2.8230002 -0.13778317 0.46955943 0
2.8230002 -0.1421538 0.46955943 0
2.8240001 -0.14656591 0.46958649 0
2.8250003 -0.15098165 0.46961355 0
2.8250003 -0.15535587 0.46961355 0
2.8250003 -0.15973011 0.46961355 0
2.8260002 -0.16415305 0.46964061 0
2.8270001 -0.16857959 0.46966764 0
2.8280003 -0.17300975 0.4696947 0
2.8290002 -0.1774435 0.46972176 0
2.8320003 -0.18199272 0.46980295 0
2.8340001 -0.18649502 0.46985704 0
2.8380003 -0.1911236 0.46996528 0
2.8430002 -0.19582792 0.47010058 0
2.8490002 -0.20061342 0.47026291 0
2.8610003 -0.2058102 0.47058761 0
2.7140002 0.34635714 0.4624362 0
2.7150002 0.34235087 0.46246144 0
2.7160003 0.33834106 0.46248668 0
2.7160003 0.33416343 0.46248668 0
2.7170002 0.33014813 0.46251196 0
2.7180002 0.32612923 0.4625372 0
2.7180002 0.32194802 0.4625372 0
2.7190001 0.31792372 0.46256244 0
2.7200003 0.31389582 0.46258771 0
2.7200003 0.30971098 0.46258771 0
2.8080003 0.21027064 0.46481001 0
2.7950003 0.20456702 0.46448171 0
2.7880001 0.19952714 0.46430492 0
2.7840002 0.19481559 0.46420392 0
2.7800002 0.19011851 0.46410289 0
2.7770002 0.18553321 0.46402714 0
2.7750001 0.18105435 0.46397662 0
2.7740002 0.17667651 0.46395138 0
2.7720003 0.17221029 0.46390089 0
2.7720003 0.16793166 0.46390089 0
2.7710001 0.16356462 0.46387562 0
2.7720003 0.1593744 0.46390089 0
2.7720003 0.15509576 0.46390089 0
2.7730002 0.1509001 0.46392614 0
2.7740002 0.14670083 0.46395138 0
2.7760003 0.14257732 0.46400189 0
2.7780001 0.13844658 0.46405238 0
2.7800002 0.13430867 0.46410289 0
2.7830002 0.13023748 0.46417868 0
2.7870002 0.1262276 0.46427968 0
2.7920003 0.12227367 0.46440595 0
2.7980001 0.11837021 0.46455747 0
2.8070002 0.11464536 0.46478474 0
3.0330002 0.12022994 0.47049201 0
3.0330002 0.11548051 0.47049201 0
3.0340002 0.11079061 0.47051725 0
3.0350003 0.10609712 0.47054249 0
2.8110001 0.084469438 0.46488577 0
2.7880001 0.078917325 0.46430492 0
2.7890003 0.074660346 0.4643302 0
2.7890003 0.070351049 0.4643302 0
2.7900002 0.066088647 0.46435544 0
2.7910001 0.061822634 0.46438068 0
2.7910001 0.057509732 0.46438068 0
2.7920003 0.053238321 0.46440595 0
2.7930002 0.04896329 0.4644312 0
2.7940001 0.044684652 0.46445644 0
2.7940001 0.040366333 0.46445644 0
2.7950003 0.036082301 0.46448171 0
2.7960002 0.031794641 0.46450695 0
2.7960002 0.027472716 0.46450695 0
2.7970002 0.023179654 0.4645322 0
2.7980001 0.018882979 0.46455747 0
2.7990003 0.014582705 0.46458271 0
2.7990003 0.01025537 0.46458271 0
2.8000002 0.005949676 0.46460798 0
2.8010001 0.0016403757 0.46463323 0
2.8010001 -0.0026905648 0.46463323 0
2.8020003 -0.0070052706 0.46465847 0
2.8030002 -0.01132359 0.46468374 0
2.8040001 -0.015645515 0.46470898 0
2.8040001 -0.019981872 0.46470898 0
2.8050003 -0.024309205 0.46473423 0
2.8060002 -0.028640149 0.4647595 0
2.8070002 -0.032974701 0.46478474 0
2.8070002 -0.037316468 0.46478474 0
2.8080003 -0.041656431 0.46481001 0
2.8090003 -0.046 0.46483526 0
2.8090003 -0.050345376 0.46483526 0
2.8100002 -0.054694355 0.4648605 0
2.8110001 -0.059046943 0.46488577 0
2.8120003 -0.063403144 0.46491101 0
2.8120003 -0.067753926 0.46491101 0
2.8130002 -0.072115533 0.46493626 0
2.8140001 -0.076480754 0.46496153 0
2.8150003 -0.080849573 0.46498677 0
2.8150003 -0.085205778 0.46498677 0
2.8160002 -0.089580007 0.46501201 0
2.8170002 -0.093957849 0.46503729 0
2.8170002 -0.098317653 0.46503729 0
2.8180003 -0.1027009 0.46506253 0
2.8190002 -0.10708777 0.46508777 0
2.8200002 -0.11147824 0.46511304 0
2.8200002 -0.11584346 0.46511304 0
2.8210001 -0.12023933 0.46513829 0
2.8220003 -0.12463883 0.46516353 0
2.8230002 -0.12904193 0.4651888 0
2.8230002 -0.13341255 0.4651888 0
2.8240001 -0.13782105 0.46521404 0
2.8250003 -0.14223318 0.46523932 0
2.8260002 -0.1466489 0.46526456 0
2.8260002 -0.15102494 0.46526456 0
2.8250003 -0.15535587 0.46523932 0
2.8250003 -0.15973011 0.46523932 0
2.8260002 -0.16415305 0.46526456 0
2.8270001 -0.16857959 0.4652898 0
2.8280003 -0.17300975 0.46531507 0
2.8290002 -0.1774435 0.46534032 0
2.8320003 -0.18199272 0.46541607 0
2.8340001 -0.18649502 0.46546659 0
2.8380003 -0.1911236 0.46556759 0
2.8430002 -0.19582792 0.46569386 0
2.8490002 -0.20061342 0.46584538 0
2.8610003 -0.2058102 0.46614844 0
2.7140002 0.34635714 0.45826218 0
2.7150002 0.34235087 0.45828563 0
2.7160003 0.33834106 0.45830908 0
2.7160003 0.33416343 0.45830908 0
2.7170002 0.33014813 0.45833254 0
2.7180002 0.32612923 0.45835596 0
2.7180002 0.32194802 0.45835596 0
2.7190001 0.31792372 0.45837942 0
2.7200003 0.31389582 0.45840287 0
2.7200003 0.30971098 0.45840287 0
2.8080003 0.21027064 0.46046644 0
2.7950003 0.20456702 0.4601616 0
2.7880001 0.19952714 0.45999745 0
2.7840002 0.19481559 0.45990363 0
2.7800002 0.19011851 0.45980984 0
2.7770002 0.18553321 0.45973951 0
2.7750001 0.18105435 0.4596926 0
2.7740002 0.17667651 0.45966914 0
2.7720003 0.17221029 0.45962223 0
2.7720003 0.16793166 0.45962223 0
2.7710001 0.16356462 0.45959878 0
2.7720003 0.1593744 0.45962223 0
2.7720003 0.15509576 0.45962223 0
2.7730002 0.1509001 0.45964569 0
2.7740002 0.14670083 0.45966914 0
2.7760003 0.14257732 0.45971605 0
2.7780001 0.13844658 0.45976293 0
2.7800002 0.13430867 0.45980984 0
2.7830002 0.13023748 0.4598802 0
2.7870002 0.1262276 0.45997399 0
2.7920003 0.12227367 0.46009123 0
2.7980001 0.11837021 0.46023193 0
2.8070002 0.11464536 0.46044296 0
3.0350003 0.11560319 0.46578947 0
3.0360003 0.11090967 0.46581292 0
2.8110001 0.084469438 0.46053678 0
2.7900002 0.079021946 0.46004432 0
2.7900002 0.074710846 0.46004432 0
2.7910001 0.070448443 0.46006778 0
2.7920003 0.066182449 0.46009123 0
2.7920003 0.061867733 0.46009123 0
2.7930002 0.057596315 0.46011469 0
2.7940001 0.053321283 0.46013814 0
2.7950003 0.049042661 0.4601616 0
2.7950003 0.044722538 0.4601616 0
2.7960002 0.040438492 0.46018505 0
2.7970002 0.036150839 0.46020848 0
2.7970002 0.031827103 0.46020848 0
2.7980001 0.027534042 0.46023193 0
2.7990003 0.023237374 0.46025538 0
2.8000002 0.018937092 0.46027884 0
2.8000002 0.014607958 0.46027884 0
2.8010001 0.010302264 0.46030229 0
2.8020003 0.0059929676 0.46032572 0
2.8020003 0.0016602241 0.46032572 0
2.8030002 -0.0026544891 0.46034917 0
2.8040001 -0.0069728084 0.46037263 0
2.8050003 -0.01129473 0.46039608 0
2.8050003 -0.015632888 0.46039608 0
2.8060002 -0.019960225 0.46041954 0
2.8070002 -0.024291169 0.46044296 0
2.8080003 -0.028625719 0.46046644 0
2.8080003 -0.032969289 0.46046644 0
2.8090003 -0.037309252 0.46048987 0
2.8100002 -0.041652821 0.46051332 0
2.8100002 -0.046 0.46051332 0
2.8110001 -0.050348982 0.46053678 0
2.8120003 -0.05470157 0.46056023 0
2.8130002 -0.059057768 0.46058369 0
2.8130002 -0.063410357 0.46058369 0
2.8140001 -0.067771964 0.46060711 0
2.8150003 -0.072137184 0.46063057 0
2.8150003 -0.076493382 0.46063057 0
2.8160002 -0.080864005 0.46065402 0
2.8170002 -0.085238241 0.46067747 0
2.8180003 -0.08961609 0.46070093 0
2.8180003 -0.09397769 0.46070093 0
2.8190002 -0.098360941 0.46072438 0
2.8200002 -0.10274781 0.46074781 0
2.8210001 -0.10713828 0.46077126 0
2.8210001 -0.11150528 0.46077126 0
2.8220003 -0.11590117 0.46079472 0
2.8230002 -0.12030067 0.46081817 0
2.8230002 -0.1246713 0.46081817 0
2.8240001 -0.12907618 0.46084163 0
2.8250003 -0.13348471 0.46086508 0
2.8260002 -0.13789682 0.4608885 0
2.8260002 -0.14227284 0.4608885 0
2.8270001 -0.14669037 0.46091196 0
2.8260002 -0.15102494 0.4608885 0
2.8250003 -0.15535587 0.46086508 0
2.8250003 -0.15973011 0.46086508 0
2.8260002 -0.16415305 0.4608885 0
2.8270001 -0.16857959 0.46091196 0
2.8280003 -0.17300975 0.46093541 0
2.8290002 -0.1774435 0.46095887 0
2.8320003 -0.18199272 0.4610292 0
2.8340001 -0.18649502 0.46107611 0
2.8380003 -0.1911236 0.4611699 0
2.8430002 -0.19582792 0.46128717 0
2.8490002 -0.20061342 0.46142787 0
2.8610003 -0.2058102 0.46170926 0
2.7140002 0.34635714 0.45408815 0
2.7150002 0.34235087 0.45410982 0
2.7160003 0.33834106 0.45413145 0
2.7160003 0.33416343 0.45413145 0
2.7170002 0.33014813 0.45415309 0
2.7180002 0.32612923 0.45417476 0
2.7180002 0.32194802 0.45417476 0
2.7190001 0.31792372 0.45419639 0
2.7200003 0.31389582 0.45421803 0
2.7200003 0.30971098 0.45421803 0
2.7950003 0.20456702 0.45584145 0
2.7880001 0.19952714 0.45568994 0
2.7840002 0.19481559 0.45560336 0
2.7800002 0.19011851 0.45551679 0
2.7770002 0.18553321 0.45545185 0
2.7750001 0.18105435 0.45540854 0
2.7740002 0.17667651 0.45538691 0
2.7720003 0.17221029 0.4553436 0
2.7720003 0.16793166 0.4553436 0
2.7710001 0.16356462 0.45532197 0
2.7720003 0.1593744 0.4553436 0
2.7720003 0.15509576 0.4553436 0
2.7730002 0.1509001 0.45536527 0
2.7740002 0.14670083 0.45538691 0
2.7760003 0.14257732 0.45543021 0
2.7780001 0.13844658 0.45547348 0
2.7800002 0.13430867 0.45551679 0
2.7830002 0.13023748 0.45558172 0
2.7870002 0.1262276 0.4556683 0
2.7920003 0.12227367 0.45577651 0
2.7980001 0.11837021 0.45590639 0
2.8070002 0.11464536 0.45610121 0
3.0370002 0.11572583 0.46107972 0
3.0370002 0.11096919 0.46107972 0
2.8110001 0.084469438 0.45618778 0
2.7920003 0.079126567 0.45577651 0
2.7930002 0.074862376 0.45579818 0
2.7930002 0.070545852 0.45579818 0
2.7940001 0.066276237 0.45581982 0
2.7950003 0.06200302 0.45584145 0
2.7950003 0.057682898 0.45584145 0
2.7960002 0.05340426 0.45586312 0
2.7970002 0.049122024 0.45588475 0
2.7980001 0.044836175 0.45590639 0
2.7980001 0.040510636 0.45590639 0
2.7990003 0.036219385 0.45592806 0
2.8000002 0.031924512 0.45594969 0
2.8000002 0.027595375 0.45594969 0
2.8010001 0.023295093 0.45597133 0
2.8020003 0.018991213 0.455993 0
2.8030002 0.014683716 0.45601463 0
2.8030002 0.010349166 0.45601463 0
2.8040001 0.0060362555 0.45603627 0
2.8050003 0.0017197467 0.45605791 0
2.8060002 -0.0026003718 0.45607957 0
2.8060002 -0.006940335 0.45607957 0
2.8070002 -0.01126587 0.45610121 0
2.8080003 -0.015595008 0.45612288 0
2.8080003 -0.019938577 0.45612288 0
2.8090003 -0.024273129 0.45614451 0
2.8100002 -0.028611289 0.45616615 0
2.8110001 -0.032953057 0.45618778 0
2.8110001 -0.037302036 0.45618778 0
2.8120003 -0.041649215 0.45620945 0
2.8130002 -0.046 0.45623109 0
2.8130002 -0.050352588 0.45623109 0
2.8140001 -0.054708786 0.45625272 0
2.8150003 -0.05906859 0.45627439 0
2.8160002 -0.063432001 0.45629603 0
2.8160002 -0.067790002 0.45629603 0
2.8170002 -0.072158828 0.45631766 0
2.8180003 -0.076531261 0.4563393 0
2.8190002 -0.0809073 0.45636097 0
2.8190002 -0.08527071 0.45636097 0
2.8200002 -0.089652158 0.4563826 0
2.8210001 -0.09403722 0.45640424 0
2.8210001 -0.098404236 0.45640424 0
2.8220003 -0.10279471 0.45642591 0
2.8230002 -0.10718878 0.45644754 0
2.8240001 -0.11158647 0.45646918 0
2.8240001 -0.1159589 0.45646918 0
2.8250003 -0.120362 0.45649084 0
2.8260002 -0.1247687 0.45651248 0
2.8270001 -0.129179 0.45653412 0
2.8270001 -0.13355684 0.45653412 0
2.8280003 -0.13797258 0.45655578 0
2.8280003 -0.14235222 0.45655578 0
2.8270001 -0.14669037 0.45653412 0
2.8260002 -0.15102494 0.45651248 0
2.8250003 -0.15535587 0.45649084 0
2.8250003 -0.15973011 0.45649084 0
