# .PCD v0.7 - Point Cloud Data file format
VERSION 0.7
FIELDS x y z intensity
SIZE 4 4 4 4
TYPE F F F F
COUNT 1 1 1 1
WIDTH 1508
HEIGHT 1
VIEWPOINT 0 0 0 1 0 0 0
POINTS 1508
DATA ascii
3.6940002 1.7543485 1.6517664 0
3.6970003 1.750041 1.6529028 0
3.7000003 1.7457228 1.6540391 0
3.7030003 1.7413937 1.6551756 0
3.7060003 1.7370536 1.656312 0
3.7100003 1.7332404 1.6578271 0
3.7130003 1.7288769 1.6589636 0
3.7160003 1.7245028 1.6601 0
3.7190003 1.7201178 1.6612364 0
3.7220004 1.7157218 1.6623728 0
3.7250001 1.711315 1.6635091 0
3.7280002 1.7068975 1.6646454 0
3.7310002 1.7024692 1.6657819 0
3.7340002 1.69803 1.6669183 0
3.7380002 1.6941012 1.6684335 0
3.7410002 1.6896386 1.66957 0
3.7440002 1.6851653 1.6707064 0
3.7470002 1.680681 1.6718427 0
3.7500002 1.676186 1.6729791 0
3.7530003 1.6716801 1.6741155 0
3.7560003 1.6671633 1.6752518 0
3.7600002 1.6631444 1.6767671 0
3.7630002 1.6586041 1.6779035 0
3.7660003 1.6540532 1.67904 0
3.7690003 1.6494913 1.6801764 0
3.7720003 1.6449188 1.6813128 0
3.7760003 1.6408348 1.6828279 0
3.7790003 1.6362388 1.6839644 0
3.7820003 1.6316319 1.6851007 0
3.7850003 1.6270142 1.6862371 0
3.6430004 1.8259202 1.6265979 0
3.6460001 1.8217964 1.6277287 0
3.6490002 1.8176621 1.6288598 0
3.6520002 1.813517 1.6299908 0
3.6550002 1.8093611 1.6311218 0
3.6580002 1.8051943 1.6322528 0
3.6610003 1.8010167 1.6333838 0
3.6640003 1.7968283 1.6345147 0
3.6670003 1.792629 1.6356457 0
3.6700003 1.7884189 1.6367767 0
3.6730003 1.7841979 1.6379077 0
3.6760004 1.7799662 1.6390388 0
3.6790001 1.7757236 1.6401696 0
3.6820002 1.7714703 1.6413006 0
3.6850002 1.7672061 1.6424316 0
3.6880002 1.762931 1.6435626 0
3.6910002 1.7586452 1.6446936 0
3.6940002 1.7543485 1.6458247 0
3.6970003 1.750041 1.6469556 0
3.7000003 1.7457228 1.6480865 0
3.7030003 1.7413937 1.6492176 0
3.7060003 1.7370536 1.6503485 0
3.7100003 1.7332404 1.6518565 0
3.7130003 1.7288769 1.6529876 0
3.7160003 1.7245028 1.6541185 0
3.7190003 1.7201178 1.6552495 0
3.7220004 1.7157218 1.6563805 0
3.7250001 1.711315 1.6575114 0
3.7280002 1.7068975 1.6586424 0
3.7310002 1.7024692 1.6597735 0
3.7340002 1.69803 1.6609044 0
3.7380002 1.6941012 1.6624124 0
3.7410002 1.6896386 1.6635435 0
3.7440002 1.6851653 1.6646743 0
3.7470002 1.680681 1.6658053 0
3.7500002 1.676186 1.6669364 0
3.7530003 1.6716801 1.6680673 0
3.7560003 1.6671633 1.6691984 0
3.7600002 1.6631444 1.6707064 0
3.7630002 1.6586041 1.6718373 0
3.7660003 1.6540532 1.6729683 0
3.7690003 1.6494913 1.6740993 0
3.7720003 1.6449188 1.6752303 0
3.7760003 1.6408348 1.6767383 0
3.7790003 1.6362388 1.6778693 0
3.7820003 1.6316319 1.6790004 0
3.7850003 1.6270142 1.6801312 0
3.6430004 1.8259202 1.6207482 0
3.6460001 1.8217964 1.6218736 0
3.6490002 1.8176621 1.6229992 0
3.6520002 1.813517 1.6241248 0
3.6550002 1.8093611 1.6252503 0
3.6580002 1.8051943 1.6263759 0
3.6610003 1.8010167 1.6275015 0
3.6640003 1.7968283 1.6286272 0
3.6670003 1.792629 1.6297526 0
3.6700003 1.7884189 1.6308782 0
3.6730003 1.7841979 1.6320039 0
3.6760004 1.7799662 1.6331295 0
3.6790001 1.7757236 1.6342549 0
3.6820002 1.7714703 1.6353805 0
3.6850002 1.7672061 1.6365061 0
3.6880002 1.762931 1.6376318 0
3.6910002 1.7586452 1.6387572 0
3.6940002 1.7543485 1.6398829 0
3.6970003 1.750041 1.6410085 0
3.7000003 1.7457228 1.642134 0
3.7030003 1.7413937 1.6432596 0
3.7060003 1.7370536 1.6443852 0
3.7100003 1.7332404 1.6458859 0
3.7130003 1.7288769 1.6470115 0
3.7160003 1.7245028 1.6481371 0
3.7190003 1.7201178 1.6492627 0
3.7220004 1.7157218 1.6503884 0
3.7250001 1.711315 1.6515138 0
3.7280002 1.7068975 1.6526394 0
3.7310002 1.7024692 1.653765 0
3.7340002 1.69803 1.6548905 0
3.7380002 1.6941012 1.6563913 0
3.7410002 1.6896386 1.657517 0
3.7440002 1.6851653 1.6586424 0
3.7470002 1.680681 1.659768 0
3.7500002 1.676186 1.6608937 0
3.7530003 1.6716801 1.6620191 0
3.7560003 1.6671633 1.6631448 0
3.7600002 1.6631444 1.6646454 0
3.7630002 1.6586041 1.6657711 0
3.7660003 1.6540532 1.6668967 0
3.7690003 1.6494913 1.6680223 0
3.7720003 1.6449188 1.6691478 0
3.7760003 1.6408348 1.6706486 0
3.7790003 1.6362388 1.6717741 0
3.7820003 1.6316319 1.6728998 0
3.7850003 1.6270142 1.6740254 0
3.6430004 1.8259202 1.6148983 0
3.6460001 1.8217964 1.6160184 0
3.6490002 1.8176621 1.6171386 0
3.6520002 1.813517 1.6182587 0
3.6550002 1.8093611 1.6193789 0
3.6580002 1.8051943 1.6204991 0
3.6610003 1.8010167 1.6216193 0
3.6640003 1.7968283 1.6227394 0
3.6670003 1.792629 1.6238596 0
3.6700003 1.7884189 1.6249799 0
3.6730003 1.7841979 1.6260999 0
3.6760004 1.7799662 1.6272203 0
3.6790001 1.7757236 1.6283402 0
3.6820002 1.7714703 1.6294605 0
3.6850002 1.7672061 1.6305805 0
3.6880002 1.762931 1.6317008 0
3.6910002 1.7586452 1.6328208 0
3.6940002 1.7543485 1.6339412 0
3.6970003 1.750041 1.6350614 0
3.7000003 1.7457228 1.6361815 0
3.7030003 1.7413937 1.6373017 0
3.7060003 1.7370536 1.6384218 0
3.7100003 1.7332404 1.6399153 0
3.7130003 1.7288769 1.6410354 0
3.7160003 1.7245028 1.6421556 0
3.7190003 1.7201178 1.6432759 0
3.7220004 1.7157218 1.6443961 0
3.7250001 1.711315 1.6455162 0
3.7280002 1.7068975 1.6466362 0
3.7310002 1.7024692 1.6477565 0
3.7340002 1.69803 1.6488765 0
3.7380002 1.6941012 1.6503701 0
3.7410002 1.6896386 1.6514903 0
3.7440002 1.6851653 1.6526105 0
3.7470002 1.680681 1.6537308 0
3.7500002 1.676186 1.6548508 0
3.7530003 1.6716801 1.6559711 0
3.7560003 1.6671633 1.6570911 0
3.7600002 1.6631444 1.6585847 0
3.7630002 1.6586041 1.6597049 0
3.7660003 1.6540532 1.660825 0
3.7690003 1.6494913 1.6619452 0
3.7720003 1.6449188 1.6630654 0
3.7760003 1.6408348 1.664559 0
3.7790003 1.6362388 1.6656792 0
3.7820003 1.6316319 1.6667993 0
3.7850003 1.6270142 1.6679195 0
3.6430004 1.8259202 1.6090486 0
3.6460001 1.8217964 1.6101633 0
3.6490002 1.8176621 1.6112781 0
3.6520002 1.813517 1.6123929 0
3.6550002 1.8093611 1.6135076 0
3.6580002 1.8051943 1.6146222 0
3.6610003 1.8010167 1.6157371 0
3.6640003 1.7968283 1.6168518 0
3.6670003 1.792629 1.6179665 0
3.6700003 1.7884189 1.6190814 0
3.6730003 1.7841979 1.6201961 0
3.6760004 1.7799662 1.6213109 0
3.6790001 1.7757236 1.6224256 0
3.6820002 1.7714703 1.6235404 0
3.6850002 1.7672061 1.6246551 0
3.6880002 1.762931 1.6257699 0
3.6910002 1.7586452 1.6268847 0
3.6940002 1.7543485 1.6279993 0
3.6970003 1.750041 1.629114 0
3.7000003 1.7457228 1.6302289 0
3.7030003 1.7413937 1.6313436 0
3.7060003 1.7370536 1.6324584 0
3.7100003 1.7332404 1.6339447 0
3.7130003 1.7288769 1.6350595 0
3.7160003 1.7245028 1.6361743 0
3.7190003 1.7201178 1.637289 0
3.7220004 1.7157218 1.6384038 0
3.7250001 1.711315 1.6395185 0
3.7280002 1.7068975 1.6406332 0
3.7310002 1.7024692 1.641748 0
3.7340002 1.69803 1.6428627 0
3.7380002 1.6941012 1.644349 0
3.7410002 1.6896386 1.6454638 0
3.7440002 1.6851653 1.6465786 0
3.7470002 1.680681 1.6476934 0
3.7500002 1.676186 1.6488081 0
3.7530003 1.6716801 1.6499228 0
3.7560003 1.6671633 1.6510377 0
3.7600002 1.6631444 1.652524 0
3.7630002 1.6586041 1.6536387 0
3.7660003 1.6540532 1.6547534 0
3.7690003 1.6494913 1.6558682 0
3.7720003 1.6449188 1.6569829 0
3.7760003 1.6408348 1.6584693 0
3.7790003 1.6362388 1.659584 0
3.7820003 1.6316319 1.6606988 0
3.7850003 1.6270142 1.6618136 0
3.6430004 1.8259202 1.6031989 0
3.6460001 1.8217964 1.6043081 0
3.6490002 1.8176621 1.6054175 0
3.6520002 1.813517 1.6065269 0
3.6550002 1.8093611 1.6076362 0
3.6580002 1.8051943 1.6087455 0
3.6610003 1.8010167 1.6098548 0
3.6640003 1.7968283 1.6109643 0
3.6670003 1.792629 1.6120735 0
3.6700003 1.7884189 1.6131829 0
3.6730003 1.7841979 1.6142923 0
3.6760004 1.7799662 1.6154016 0
3.6790001 1.7757236 1.6165109 0
3.6820002 1.7714703 1.6176202 0
3.6850002 1.7672061 1.6187295 0
3.6880002 1.762931 1.619839 0
3.6910002 1.7586452 1.6209483 0
3.6940002 1.7543485 1.6220576 0
3.6970003 1.750041 1.6231669 0
3.7000003 1.7457228 1.6242764 0
3.7030003 1.7413937 1.6253856 0
3.7060003 1.7370536 1.626495 0
3.7100003 1.7332404 1.6279742 0
3.7130003 1.7288769 1.6290835 0
3.7160003 1.7245028 1.6301928 0
3.7190003 1.7201178 1.6313021 0
3.7220004 1.7157218 1.6324116 0
3.7250001 1.711315 1.6335207 0
3.7280002 1.7068975 1.6346301 0
3.7310002 1.7024692 1.6357396 0
3.7340002 1.69803 1.6368488 0
3.7380002 1.6941012 1.638328 0
3.7410002 1.6896386 1.6394373 0
3.7440002 1.6851653 1.6405467 0
3.7470002 1.680681 1.6416559 0
3.7500002 1.676186 1.6427653 0
3.7530003 1.6716801 1.6438748 0
3.7560003 1.6671633 1.644984 0
3.7600002 1.6631444 1.6464632 0
3.7630002 1.6586041 1.6475725 0
3.7660003 1.6540532 1.6486819 0
3.7690003 1.6494913 1.6497911 0
3.7720003 1.6449188 1.6509006 0
3.7760003 1.6408348 1.6523796 0
3.7790003 1.6362388 1.653489 0
3.7820003 1.6316319 1.6545984 0
3.7850003 1.6270142 1.6557077 0
3.6430004 1.8259202 1.5973492 0
3.6460001 1.8217964 1.5984529 0
3.6490002 1.8176621 1.5995569 0
3.6520002 1.813517 1.6006608 0
3.6550002 1.8093611 1.6017648 0
3.6580002 1.8051943 1.6028687 0
3.6610003 1.8010167 1.6039727 0
3.6640003 1.7968283 1.6050766 0
3.6670003 1.792629 1.6061804 0
3.6700003 1.7884189 1.6072844 0
3.6730003 1.7841979 1.6083884 0
3.6760004 1.7799662 1.6094924 0
3.6790001 1.7757236 1.6105962 0
3.6820002 1.7714703 1.6117002 0
3.6850002 1.7672061 1.6128041 0
3.6880002 1.762931 1.6139079 0
3.6910002 1.7586452 1.6150119 0
3.6940002 1.7543485 1.6161158 0
3.6970003 1.750041 1.6172198 0
3.7000003 1.7457228 1.6183237 0
3.7030003 1.7413937 1.6194278 0
3.7060003 1.7370536 1.6205317 0
3.7100003 1.7332404 1.6220036 0
3.7130003 1.7288769 1.6231074 0
3.7160003 1.7245028 1.6242114 0
3.7190003 1.7201178 1.6253153 0
3.7220004 1.7157218 1.6264193 0
3.7250001 1.711315 1.6275231 0
3.7280002 1.7068975 1.6286271 0
3.7310002 1.7024692 1.6297311 0
3.7340002 1.69803 1.6308349 0
3.7380002 1.6941012 1.6323068 0
3.7410002 1.6896386 1.6334108 0
3.7440002 1.6851653 1.6345147 0
3.7470002 1.680681 1.6356187 0
3.7500002 1.676186 1.6367226 0
3.7530003 1.6716801 1.6378266 0
3.7560003 1.6671633 1.6389304 0
3.7600002 1.6631444 1.6404023 0
3.7630002 1.6586041 1.6415062 0
3.7660003 1.6540532 1.6426103 0
3.7690003 1.6494913 1.6437142 0
3.7720003 1.6449188 1.6448182 0
3.7760003 1.6408348 1.6462899 0
3.7790003 1.6362388 1.6473939 0
3.7820003 1.6316319 1.6484978 0
3.7850003 1.6270142 1.6496018 0
3.6430004 1.8259202 1.5914993 0
3.6460001 1.8217964 1.5925977 0
3.6490002 1.8176621 1.5936962 0
3.6520002 1.813517 1.5947949 0
3.6550002 1.8093611 1.5958934 0
3.6580002 1.8051943 1.5969919 0
3.6610003 1.8010167 1.5980904 0
3.6640003 1.7968283 1.5991889 0
3.6670003 1.792629 1.6002876 0
3.6700003 1.7884189 1.6013861 0
3.6730003 1.7841979 1.6024846 0
3.6760004 1.7799662 1.6035831 0
3.6790001 1.7757236 1.6046815 0
3.6820002 1.7714703 1.6057801 0
3.6850002 1.7672061 1.6068786 0
3.6880002 1.762931 1.6079772 0
3.6910002 1.7586452 1.6090755 0
3.6940002 1.7543485 1.6101741 0
3.6970003 1.750041 1.6112726 0
3.7000003 1.7457228 1.6123712 0
3.7030003 1.7413937 1.6134697 0
3.7060003 1.7370536 1.6145682 0
3.7100003 1.7332404 1.616033 0
3.7130003 1.7288769 1.6171315 0
3.7160003 1.7245028 1.61823 0
3.7190003 1.7201178 1.6193285 0
3.7220004 1.7157218 1.620427 0
3.7250001 1.711315 1.6215255 0
3.7280002 1.7068975 1.6226239 0
3.7310002 1.7024692 1.6237224 0
3.7340002 1.69803 1.6248211 0
3.7380002 1.6941012 1.6262857 0
3.7410002 1.6896386 1.6273843 0
3.7440002 1.6851653 1.6284828 0
3.7470002 1.680681 1.6295813 0
3.7500002 1.676186 1.6306798 0
3.7530003 1.6716801 1.6317784 0
3.7560003 1.6671633 1.6328769 0
3.7600002 1.6631444 1.6343415 0
3.7630002 1.6586041 1.6354401 0
3.7660003 1.6540532 1.6365386 0
3.7690003 1.6494913 1.6376371 0
3.7720003 1.6449188 1.6387357 0
3.7760003 1.6408348 1.6402004 0
3.7790003 1.6362388 1.6412988 0
3.7820003 1.6316319 1.6423974 0
3.7850003 1.6270142 1.6434959 0
3.6430004 1.8259202 1.5856496 0
3.6460001 1.8217964 1.5867426 0
3.6490002 1.8176621 1.5878358 0
3.6520002 1.813517 1.5889288 0
3.6550002 1.8093611 1.590022 0
3.6580002 1.8051943 1.5911151 0
3.6610003 1.8010167 1.5922083 0
3.6640003 1.7968283 1.5933014 0
3.6670003 1.792629 1.5943944 0
3.6700003 1.7884189 1.5954876 0
3.6730003 1.7841979 1.5965807 0
3.6760004 1.7799662 1.5976738 0
3.6790001 1.7757236 1.5987668 0
3.6820002 1.7714703 1.5998598 0
3.6850002 1.7672061 1.600953 0
3.6880002 1.762931 1.6020461 0
3.6910002 1.7586452 1.6031393 0
3.6940002 1.7543485 1.6042323 0
3.6970003 1.750041 1.6053255 0
3.7000003 1.7457228 1.6064186 0
3.7030003 1.7413937 1.6075118 0
3.7060003 1.7370536 1.6086049 0
3.7100003 1.7332404 1.6100624 0
3.7130003 1.7288769 1.6111554 0
3.7160003 1.7245028 1.6122485 0
3.7190003 1.7201178 1.6133417 0
3.7220004 1.7157218 1.6144348 0
3.7250001 1.711315 1.6155279 0
3.7280002 1.7068975 1.616621 0
3.7310002 1.7024692 1.617714 0
3.7340002 1.69803 1.6188072 0
3.7380002 1.6941012 1.6202645 0
3.7410002 1.6896386 1.6213577 0
3.7440002 1.6851653 1.6224508 0
3.7470002 1.680681 1.6235439 0
3.7500002 1.676186 1.624637 0
3.7530003 1.6716801 1.6257302 0
3.7560003 1.6671633 1.6268233 0
3.7600002 1.6631444 1.6282808 0
3.7630002 1.6586041 1.6293739 0
3.7660003 1.6540532 1.6304669 0
3.7690003 1.6494913 1.6315601 0
3.7720003 1.6449188 1.6326532 0
3.7760003 1.6408348 1.6341107 0
3.7790003 1.6362388 1.6352038 0
3.7820003 1.6316319 1.636297 0
3.7850003 1.6270142 1.63739 0
3.6430004 1.8259202 1.5797999 0
3.6460001 1.8217964 1.5808874 0
3.6490002 1.8176621 1.5819752 0
3.6520002 1.813517 1.5830629 0
3.6550002 1.8093611 1.5841506 0
3.6580002 1.8051943 1.5852383 0
3.6610003 1.8010167 1.586326 0
3.6640003 1.7968283 1.5874137 0
3.6670003 1.792629 1.5885015 0
3.6700003 1.7884189 1.5895891 0
3.6730003 1.7841979 1.5906768 0
3.6760004 1.7799662 1.5917646 0
3.6790001 1.7757236 1.5928521 0
3.6820002 1.7714703 1.5939398 0
3.6850002 1.7672061 1.5950276 0
3.6880002 1.762931 1.5961152 0
3.6910002 1.7586452 1.5972029 0
3.6940002 1.7543485 1.5982907 0
3.6970003 1.750041 1.5993783 0
3.7000003 1.7457228 1.6004661 0
3.7030003 1.7413937 1.6015537 0
3.7060003 1.7370536 1.6026415 0
3.7100003 1.7332404 1.6040918 0
3.7130003 1.7288769 1.6051794 0
3.7160003 1.7245028 1.6062671 0
3.7190003 1.7201178 1.6073548 0
3.7220004 1.7157218 1.6084425 0
3.7250001 1.711315 1.6095301 0
3.7280002 1.7068975 1.6106179 0
3.7310002 1.7024692 1.6117055 0
3.7340002 1.69803 1.6127933 0
3.7380002 1.6941012 1.6142435 0
3.7410002 1.6896386 1.6153312 0
3.7440002 1.6851653 1.616419 0
3.7470002 1.680681 1.6175066 0
3.7500002 1.676186 1.6185943 0
3.7530003 1.6716801 1.619682 0
3.7560003 1.6671633 1.6207697 0
3.7600002 1.6631444 1.62222 0
3.7630002 1.6586041 1.6233076 0
3.7660003 1.6540532 1.6243954 0
3.7690003 1.6494913 1.6254832 0
3.7720003 1.6449188 1.6265707 0
3.7760003 1.6408348 1.628021 0
3.7790003 1.6362388 1.6291087 0
3.7820003 1.6316319 1.6301965 0
3.7850003 1.6270142 1.6312842 0
3.6430004 1.8259202 1.5739501 0
3.6460001 1.8217964 1.5750324 0
3.6490002 1.8176621 1.5761145 0
3.6520002 1.813517 1.577197 0
3.6550002 1.8093611 1.5782791 0
3.6580002 1.8051943 1.5793616 0
3.6610003 1.8010167 1.5804437 0
3.6640003 1.7968283 1.581526 0
3.6670003 1.792629 1.5826083 0
3.6700003 1.7884189 1.5836906 0
3.6730003 1.7841979 1.5847729 0
3.6760004 1.7799662 1.5858552 0
3.6790001 1.7757236 1.5869374 0
3.6820002 1.7714703 1.5880197 0
3.6850002 1.7672061 1.589102 0
3.6880002 1.762931 1.5901843 0
3.6910002 1.7586452 1.5912666 0
3.6940002 1.7543485 1.5923489 0
3.6970003 1.750041 1.5934312 0
3.7000003 1.7457228 1.5945135 0
3.7030003 1.7413937 1.5955957 0
3.7060003 1.7370536 1.5966781 0
3.7100003 1.7332404 1.5981212 0
3.7130003 1.7288769 1.5992033 0
3.7160003 1.7245028 1.6002858 0
3.7190003 1.7201178 1.601368 0
3.7220004 1.7157218 1.6024503 0
3.7250001 1.711315 1.6035324 0
3.7280002 1.7068975 1.6046149 0
3.7310002 1.7024692 1.605697 0
3.7340002 1.69803 1.6067795 0
3.7380002 1.6941012 1.6082225 0
3.7410002 1.6896386 1.6093047 0
3.7440002 1.6851653 1.610387 0
3.7470002 1.680681 1.6114693 0
3.7500002 1.676186 1.6125515 0
3.7530003 1.6716801 1.6136339 0
3.7560003 1.6671633 1.6147161 0
3.7600002 1.6631444 1.6161591 0
3.7630002 1.6586041 1.6172415 0
3.7660003 1.6540532 1.6183237 0
3.7690003 1.6494913 1.6194061 0
3.7720003 1.6449188 1.6204883 0
3.7760003 1.6408348 1.6219313 0
3.7790003 1.6362388 1.6230137 0
3.7820003 1.6316319 1.6240959 0
3.7850003 1.6270142 1.6251782 0
3.6430004 1.8259202 1.5681003 0
3.6460001 1.8217964 1.5691772 0
3.6490002 1.8176621 1.5702541 0
3.6520002 1.813517 1.5713309 0
3.6550002 1.8093611 1.5724077 0
3.6580002 1.8051943 1.5734847 0
3.6610003 1.8010167 1.5745616 0
3.6640003 1.7968283 1.5756384 0
3.6670003 1.792629 1.5767154 0
3.6700003 1.7884189 1.5777922 0
3.6730003 1.7841979 1.578869 0
3.6760004 1.7799662 1.579946 0
3.6790001 1.7757236 1.5810227 0
3.6820002 1.7714703 1.5820997 0
3.6850002 1.7672061 1.5831765 0
3.6880002 1.762931 1.5842534 0
3.6910002 1.7586452 1.5853302 0
3.6940002 1.7543485 1.5864072 0
3.6970003 1.750041 1.587484 0
3.7000003 1.7457228 1.5885608 0
3.7030003 1.7413937 1.5896379 0
3.7060003 1.7370536 1.5907147 0
3.7100003 1.7332404 1.5921506 0
3.7130003 1.7288769 1.5932274 0
3.7160003 1.7245028 1.5943042 0
3.7190003 1.7201178 1.5953811 0
3.7220004 1.7157218 1.5964581 0
3.7250001 1.711315 1.5975348 0
3.7280002 1.7068975 1.5986117 0
3.7310002 1.7024692 1.5996885 0
3.7340002 1.69803 1.6007655 0
3.7380002 1.6941012 1.6022013 0
3.7410002 1.6896386 1.6032782 0
3.7440002 1.6851653 1.604355 0
3.7470002 1.680681 1.6054319 0
3.7500002 1.676186 1.6065087 0
3.7530003 1.6716801 1.6075857 0
3.7560003 1.6671633 1.6086626 0
3.7600002 1.6631444 1.6100984 0
3.7630002 1.6586041 1.6111753 0
3.7660003 1.6540532 1.6122521 0
3.7690003 1.6494913 1.6133291 0
3.7720003 1.6449188 1.6144059 0
3.7760003 1.6408348 1.6158417 0
3.7790003 1.6362388 1.6169186 0
3.7820003 1.6316319 1.6179955 0
3.7850003 1.6270142 1.6190723 0
3.6430004 1.8259202 1.5622506 0
3.6460001 1.8217964 1.5633219 0
3.6490002 1.8176621 1.5643934 0
3.6520002 1.813517 1.5654649 0
3.6550002 1.8093611 1.5665364 0
3.6580002 1.8051943 1.5676079 0
3.6610003 1.8010167 1.5686793 0
3.6640003 1.7968283 1.5697508 0
3.6670003 1.792629 1.5708222 0
3.6700003 1.7884189 1.5718937 0
3.6730003 1.7841979 1.5729653 0
3.6760004 1.7799662 1.5740367 0
3.6790001 1.7757236 1.5751081 0
3.6820002 1.7714703 1.5761795 0
3.6850002 1.7672061 1.577251 0
3.6880002 1.762931 1.5783225 0
3.6910002 1.7586452 1.579394 0
3.6940002 1.7543485 1.5804654 0
3.6970003 1.750041 1.5815369 0
3.7000003 1.7457228 1.5826083 0
3.7030003 1.7413937 1.5836798 0
3.7060003 1.7370536 1.5847514 0
3.7100003 1.7332404 1.58618 0
3.7130003 1.7288769 1.5872514 0
3.7160003 1.7245028 1.5883229 0
3.7190003 1.7201178 1.5893943 0
3.7220004 1.7157218 1.5904658 0
3.7250001 1.711315 1.5915372 0
3.7280002 1.7068975 1.5926087 0
3.7310002 1.7024692 1.5936801 0
3.7340002 1.69803 1.5947516 0
3.7380002 1.6941012 1.5961802 0
3.7410002 1.6896386 1.5972517 0
3.7440002 1.6851653 1.5983231 0
3.7470002 1.680681 1.5993947 0
3.7500002 1.676186 1.6004661 0
3.7530003 1.6716801 1.6015376 0
3.7560003 1.6671633 1.602609 0
3.7600002 1.6631444 1.6040375 0
3.7630002 1.6586041 1.605109 0
3.7660003 1.6540532 1.6061804 0
3.7690003 1.6494913 1.6072519 0
3.7720003 1.6449188 1.6083235 0
3.7760003 1.6408348 1.6097521 0
3.7790003 1.6362388 1.6108235 0
3.7820003 1.6316319 1.611895 0
3.7850003 1.6270142 1.6129664 0
3.6430004 1.8259202 1.5564008 0
3.6460001 1.8217964 1.5574669 0
3.6490002 1.8176621 1.558533 0
3.6520002 1.813517 1.559599 0
3.6550002 1.8093611 1.560665 0
3.6580002 1.8051943 1.5617311 0
3.6610003 1.8010167 1.5627972 0
3.6640003 1.7968283 1.5638632 0
3.6670003 1.792629 1.5649292 0
3.6700003 1.7884189 1.5659953 0
3.6730003 1.7841979 1.5670614 0
3.6760004 1.7799662 1.5681274 0
3.6790001 1.7757236 1.5691934 0
3.6820002 1.7714703 1.5702595 0
3.6850002 1.7672061 1.5713255 0
3.6880002 1.762931 1.5723915 0
3.6910002 1.7586452 1.5734576 0
3.6940002 1.7543485 1.5745237 0
3.6970003 1.750041 1.5755898 0
3.7000003 1.7457228 1.5766557 0
3.7030003 1.7413937 1.5777218 0
3.7060003 1.7370536 1.5787879 0
3.7100003 1.7332404 1.5802093 0
3.7130003 1.7288769 1.5812753 0
3.7160003 1.7245028 1.5823413 0
3.7190003 1.7201178 1.5834074 0
3.7220004 1.7157218 1.5844736 0
3.7250001 1.711315 1.5855395 0
3.7280002 1.7068975 1.5866055 0
3.7310002 1.7024692 1.5876716 0
3.7340002 1.69803 1.5887377 0
3.7380002 1.6941012 1.5901591 0
3.7410002 1.6896386 1.591225 0
3.7440002 1.6851653 1.5922911 0
3.7470002 1.680681 1.5933572 0
3.7500002 1.676186 1.5944233 0
3.7530003 1.6716801 1.5954893 0
3.7560003 1.6671633 1.5965554 0
3.7600002 1.6631444 1.5979768 0
3.7630002 1.6586041 1.5990429 0
3.7660003 1.6540532 1.600109 0
3.7690003 1.6494913 1.601175 0
3.7720003 1.6449188 1.602241 0
3.7760003 1.6408348 1.6036624 0
3.7790003 1.6362388 1.6047285 0
3.7820003 1.6316319 1.6057944 0
3.7850003 1.6270142 1.6068605 0
3.6430004 1.8259202 1.5505511 0
3.6460001 1.8217964 1.5516117 0
3.6490002 1.8176621 1.5526723 0
3.6520002 1.813517 1.553733 0
3.6550002 1.8093611 1.5547936 0
3.6580002 1.8051943 1.5558543 0
3.6610003 1.8010167 1.5569148 0
3.6640003 1.7968283 1.5579755 0
3.6670003 1.792629 1.5590361 0
3.6700003 1.7884189 1.5600969 0
3.6730003 1.7841979 1.5611575 0
3.6760004 1.7799662 1.5622182 0
3.6790001 1.7757236 1.5632787 0
3.6820002 1.7714703 1.5643394 0
3.6850002 1.7672061 1.5654 0
3.6880002 1.762931 1.5664606 0
3.6910002 1.7586452 1.5675212 0
3.6940002 1.7543485 1.5685819 0
3.6970003 1.750041 1.5696425 0
3.7000003 1.7457228 1.5707033 0
3.7030003 1.7413937 1.5717639 0
3.7060003 1.7370536 1.5728246 0
3.7100003 1.7332404 1.5742387 0
3.7130003 1.7288769 1.5752993 0
3.7160003 1.7245028 1.57636 0
3.7190003 1.7201178 1.5774206 0
3.7220004 1.7157218 1.5784813 0
3.7250001 1.711315 1.5795418 0
3.7280002 1.7068975 1.5806025 0
3.7310002 1.7024692 1.5816631 0
3.7340002 1.69803 1.5827239 0
3.7380002 1.6941012 1.5841379 0
3.7410002 1.6896386 1.5851985 0
3.7440002 1.6851653 1.5862592 0
3.7470002 1.680681 1.5873199 0
3.7500002 1.676186 1.5883806 0
3.7530003 1.6716801 1.5894412 0
3.7560003 1.6671633 1.5905019 0
3.7600002 1.6631444 1.591916 0
3.7630002 1.6586041 1.5929766 0
3.7660003 1.6540532 1.5940373 0
3.7690003 1.6494913 1.5950979 0
3.7720003 1.6449188 1.5961586 0
3.7760003 1.6408348 1.5975728 0
3.7790003 1.6362388 1.5986334 0
3.7820003 1.6316319 1.5996941 0
3.7850003 1.6270142 1.6007546 0
3.6430004 1.8259202 1.5447013 0
3.6460001 1.8217964 1.5457566 0
3.6490002 1.8176621 1.5468117 0
3.6520002 1.813517 1.5478669 0
3.6550002 1.8093611 1.5489222 0
3.6580002 1.8051943 1.5499774 0
3.6610003 1.8010167 1.5510327 0
3.6640003 1.7968283 1.5520879 0
3.6670003 1.792629 1.5531431 0
3.6700003 1.7884189 1.5541984 0
3.6730003 1.7841979 1.5552536 0
3.6760004 1.7799662 1.5563089 0
3.6790001 1.7757236 1.557364 0
3.6820002 1.7714703 1.5584192 0
3.6850002 1.7672061 1.5594745 0
3.6880002 1.762931 1.5605297 0
3.6910002 1.7586452 1.5615849 0
3.6940002 1.7543485 1.5626402 0
3.6970003 1.750041 1.5636954 0
3.7000003 1.7457228 1.5647507 0
3.7030003 1.7413937 1.5658059 0
3.7060003 1.7370536 1.5668612 0
3.7100003 1.7332404 1.5682681 0
3.7130003 1.7288769 1.5693233 0
3.7160003 1.7245028 1.5703785 0
3.7190003 1.7201178 1.5714338 0
3.7220004 1.7157218 1.572489 0
3.7250001 1.711315 1.5735441 0
3.7280002 1.7068975 1.5745994 0
3.7310002 1.7024692 1.5756547 0
3.7340002 1.69803 1.5767099 0
3.7380002 1.6941012 1.5781169 0
3.7410002 1.6896386 1.579172 0
3.7440002 1.6851653 1.5802273 0
3.7470002 1.680681 1.5812826 0
3.7500002 1.676186 1.5823377 0
3.7530003 1.6716801 1.583393 0
3.7560003 1.6671633 1.5844482 0
3.7600002 1.6631444 1.5858551 0
3.7630002 1.6586041 1.5869105 0
3.7660003 1.6540532 1.5879657 0
3.7690003 1.6494913 1.5890208 0
3.7720003 1.6449188 1.5900761 0
3.7760003 1.6408348 1.591483 0
3.7790003 1.6362388 1.5925384 0
3.7820003 1.6316319 1.5935936 0
3.7850003 1.6270142 1.5946488 0
3.6430004 1.8259202 1.5388516 0
3.6460001 1.8217964 1.5399014 0
3.6490002 1.8176621 1.5409513 0
3.6520002 1.813517 1.542001 0
3.6550002 1.8093611 1.5430509 0
3.6580002 1.8051943 1.5441006 0
3.6610003 1.8010167 1.5451505 0
3.6640003 1.7968283 1.5462004 0
3.6670003 1.792629 1.5472502 0
3.6700003 1.7884189 1.5483 0
3.6730003 1.7841979 1.5493498 0
3.6760004 1.7799662 1.5503997 0
3.6790001 1.7757236 1.5514494 0
3.6820002 1.7714703 1.5524992 0
3.6850002 1.7672061 1.5535491 0
3.6880002 1.762931 1.5545988 0
3.6910002 1.7586452 1.5556487 0
3.6940002 1.7543485 1.5566984 0
3.6970003 1.750041 1.5577483 0
3.7000003 1.7457228 1.5587981 0
3.7030003 1.7413937 1.559848 0
3.7060003 1.7370536 1.5608978 0
3.7100003 1.7332404 1.5622975 0
3.7130003 1.7288769 1.5633473 0
3.7160003 1.7245028 1.5643971 0
3.7190003 1.7201178 1.565447 0
3.7220004 1.7157218 1.5664968 0
3.7250001 1.711315 1.5675465 0
3.7280002 1.7068975 1.5685964 0
3.7310002 1.7024692 1.5696461 0
3.7340002 1.69803 1.570696 0
3.7380002 1.6941012 1.5720958 0
3.7410002 1.6896386 1.5731455 0
3.7440002 1.6851653 1.5741954 0
3.7470002 1.680681 1.5752451 0
3.7500002 1.676186 1.576295 0
3.7530003 1.6716801 1.5773449 0
3.7560003 1.6671633 1.5783947 0
3.7600002 1.6631444 1.5797944 0
3.7630002 1.6586041 1.5808443 0
3.7660003 1.6540532 1.581894 0
3.7690003 1.6494913 1.5829439 0
3.7720003 1.6449188 1.5839937 0
3.7760003 1.6408348 1.5853934 0
3.7790003 1.6362388 1.5864433 0
3.7820003 1.6316319 1.5874931 0
3.7850003 1.6270142 1.5885429 0
3.6430004 1.8259202 1.5330019 0
3.6460001 1.8217964 1.5340462 0
3.6490002 1.8176621 1.5350906 0
3.6520002 1.813517 1.5361351 0
3.6550002 1.8093611 1.5371795 0
3.6580002 1.8051943 1.5382237 0
3.6610003 1.8010167 1.5392683 0
3.6640003 1.7968283 1.5403126 0
3.6670003 1.792629 1.5413572 0
3.6700003 1.7884189 1.5424014 0
3.6730003 1.7841979 1.5434458 0
3.6760004 1.7799662 1.5444903 0
3.6790001 1.7757236 1.5455346 0
3.6820002 1.7714703 1.5465791 0
3.6850002 1.7672061 1.5476234 0
3.6880002 1.762931 1.5486679 0
3.6910002 1.7586452 1.5497123 0
3.6940002 1.7543485 1.5507567 0
3.6970003 1.750041 1.5518011 0
3.7000003 1.7457228 1.5528455 0
3.7030003 1.7413937 1.55389 0
3.7060003 1.7370536 1.5549344 0
3.7100003 1.7332404 1.5563269 0
3.7130003 1.7288769 1.5573713 0
3.7160003 1.7245028 1.5584157 0
3.7190003 1.7201178 1.55946 0
3.7220004 1.7157218 1.5605046 0
3.7250001 1.711315 1.5615489 0
3.7280002 1.7068975 1.5625932 0
3.7310002 1.7024692 1.5636376 0
3.7340002 1.69803 1.5646821 0
3.7380002 1.6941012 1.5660746 0
3.7410002 1.6896386 1.567119 0
3.7440002 1.6851653 1.5681634 0
3.7470002 1.680681 1.5692078 0
3.7500002 1.676186 1.5702523 0
3.7530003 1.6716801 1.5712967 0
3.7560003 1.6671633 1.5723411 0
3.7600002 1.6631444 1.5737336 0
3.7630002 1.6586041 1.574778 0
3.7660003 1.6540532 1.5758225 0
3.7690003 1.6494913 1.5768669 0
3.7720003 1.6449188 1.5779113 0
3.7760003 1.6408348 1.5793039 0
3.7790003 1.6362388 1.5803481 0
3.7820003 1.6316319 1.5813925 0
3.7850003 1.6270142 1.582437 0
3.6430004 1.8259202 1.5271522 0
3.6460001 1.8217964 1.528191 0
3.6490002 1.8176621 1.52923 0
3.6520002 1.813517 1.530269 0
3.6550002 1.8093611 1.5313081 0
3.6580002 1.8051943 1.532347 0
3.6610003 1.8010167 1.5333861 0
3.6640003 1.7968283 1.534425 0
3.6670003 1.792629 1.535464 0
3.6700003 1.7884189 1.536503 0
3.6730003 1.7841979 1.537542 0
3.6760004 1.7799662 1.538581 0
3.6790001 1.7757236 1.5396199 0
3.6820002 1.7714703 1.540659 0
3.6850002 1.7672061 1.541698 0
3.6880002 1.762931 1.542737 0
3.6910002 1.7586452 1.5437759 0
3.6940002 1.7543485 1.5448149 0
3.6970003 1.750041 1.545854 0
3.7000003 1.7457228 1.546893 0
3.7030003 1.7413937 1.5479319 0
3.7060003 1.7370536 1.5489711 0
3.7100003 1.7332404 1.5503563 0
3.7130003 1.7288769 1.5513953 0
3.7160003 1.7245028 1.5524343 0
3.7190003 1.7201178 1.5534732 0
3.7220004 1.7157218 1.5545123 0
3.7250001 1.711315 1.5555512 0
3.7280002 1.7068975 1.5565902 0
3.7310002 1.7024692 1.5576291 0
3.7340002 1.69803 1.5586683 0
3.7380002 1.6941012 1.5600535 0
3.7410002 1.6896386 1.5610925 0
3.7440002 1.6851653 1.5621315 0
3.7470002 1.680681 1.5631706 0
3.7500002 1.676186 1.5642095 0
3.7530003 1.6716801 1.5652485 0
3.7560003 1.6671633 1.5662875 0
3.7600002 1.6631444 1.5676727 0
3.7630002 1.6586041 1.5687119 0
3.7660003 1.6540532 1.5697508 0
3.7690003 1.6494913 1.5707898 0
3.7720003 1.6449188 1.5718288 0
3.7760003 1.6408348 1.5732141 0
3.7790003 1.6362388 1.5742532 0
3.7820003 1.6316319 1.5752921 0
3.7850003 1.6270142 1.5763311 0
3.6430004 1.8259202 1.5213023 0
3.6460001 1.8217964 1.5223359 0
3.6490002 1.8176621 1.5233694 0
3.6520002 1.813517 1.5244031 0
3.6550002 1.8093611 1.5254366 0
3.6580002 1.8051943 1.5264702 0
3.6610003 1.8010167 1.5275037 0
3.6640003 1.7968283 1.5285374 0
3.6670003 1.792629 1.5295709 0
3.6700003 1.7884189 1.5306046 0
3.6730003 1.7841979 1.5316381 0
3.6760004 1.7799662 1.5326718 0
3.6790001 1.7757236 1.5337052 0
3.6820002 1.7714703 1.5347388 0
3.6850002 1.7672061 1.5357724 0
3.6880002 1.762931 1.536806 0
3.6910002 1.7586452 1.5378397 0
3.6940002 1.7543485 1.5388732 0
3.6970003 1.750041 1.5399069 0
3.7000003 1.7457228 1.5409404 0
3.7030003 1.7413937 1.5419739 0
3.7060003 1.7370536 1.5430076 0
3.7100003 1.7332404 1.5443857 0
3.7130003 1.7288769 1.5454192 0
3.7160003 1.7245028 1.5464528 0
3.7190003 1.7201178 1.5474864 0
3.7220004 1.7157218 1.5485201 0
3.7250001 1.711315 1.5495535 0
3.7280002 1.7068975 1.5505871 0
3.7310002 1.7024692 1.5516207 0
3.7340002 1.69803 1.5526543 0
3.7380002 1.6941012 1.5540323 0
3.7410002 1.6896386 1.555066 0
3.7440002 1.6851653 1.5560997 0
3.7470002 1.680681 1.5571332 0
3.7500002 1.676186 1.5581667 0
3.7530003 1.6716801 1.5592003 0
3.7560003 1.6671633 1.560234 0
3.7600002 1.6631444 1.561612 0
3.7630002 1.6586041 1.5626456 0
3.7660003 1.6540532 1.5636791 0
3.7690003 1.6494913 1.5647129 0
3.7720003 1.6449188 1.5657464 0
3.7760003 1.6408348 1.5671245 0
3.7790003 1.6362388 1.568158 0
3.7820003 1.6316319 1.5691916 0
3.7850003 1.6270142 1.5702252 0
3.6430004 1.8259202 1.5154526 0
3.6460001 1.8217964 1.5164807 0
3.6490002 1.8176621 1.5175089 0
3.6520002 1.813517 1.518537 0
3.6550002 1.8093611 1.5195652 0
3.6580002 1.8051943 1.5205934 0
3.6610003 1.8010167 1.5216216 0
3.6640003 1.7968283 1.5226498 0
3.6670003 1.792629 1.5236779 0
3.6700003 1.7884189 1.5247061 0
3.6730003 1.7841979 1.5257343 0
3.6760004 1.7799662 1.5267625 0
3.6790001 1.7757236 1.5277905 0
3.6820002 1.7714703 1.5288187 0
3.6850002 1.7672061 1.5298469 0
3.6880002 1.762931 1.5308751 0
3.6910002 1.7586452 1.5319033 0
3.6940002 1.7543485 1.5329314 0
3.6970003 1.750041 1.5339596 0
3.7000003 1.7457228 1.5349878 0
3.7030003 1.7413937 1.536016 0
3.7060003 1.7370536 1.5370442 0
3.7100003 1.7332404 1.5384151 0
3.7130003 1.7288769 1.5394433 0
3.7160003 1.7245028 1.5404714 0
3.7190003 1.7201178 1.5414996 0
3.7220004 1.7157218 1.5425278 0
3.7250001 1.711315 1.5435559 0
3.7280002 1.7068975 1.544584 0
3.7310002 1.7024692 1.5456122 0
3.7340002 1.69803 1.5466404 0
3.7380002 1.6941012 1.5480113 0
3.7410002 1.6896386 1.5490395 0
3.7440002 1.6851653 1.5500677 0
3.7470002 1.680681 1.5510958 0
3.7500002 1.676186 1.5521239 0
3.7530003 1.6716801 1.5531521 0
3.7560003 1.6671633 1.5541803 0
3.7600002 1.6631444 1.5555512 0
3.7630002 1.6586041 1.5565794 0
3.7660003 1.6540532 1.5576075 0
3.7690003 1.6494913 1.5586357 0
3.7720003 1.6449188 1.5596639 0
3.7760003 1.6408348 1.5610348 0
3.7790003 1.6362388 1.562063 0
3.7820003 1.6316319 1.5630912 0
3.7850003 1.6270142 1.5641193 0
3.6430004 1.8259202 1.5096029 0
3.6460001 1.8217964 1.5106256 0
3.6490002 1.8176621 1.5116483 0
3.6520002 1.813517 1.512671 0
3.6550002 1.8093611 1.5136938 0
3.6580002 1.8051943 1.5147166 0
3.6610003 1.8010167 1.5157394 0
3.6640003 1.7968283 1.5167621 0
3.6670003 1.792629 1.5177848 0
3.6700003 1.7884189 1.5188076 0
3.6730003 1.7841979 1.5198305 0
3.6760004 1.7799662 1.5208533 0
3.6790001 1.7757236 1.5218759 0
3.6820002 1.7714703 1.5228987 0
3.6850002 1.7672061 1.5239214 0
3.6880002 1.762931 1.5249442 0
3.6910002 1.7586452 1.525967 0
3.6940002 1.7543485 1.5269897 0
3.6970003 1.750041 1.5280125 0
3.7000003 1.7457228 1.5290352 0
3.7030003 1.7413937 1.530058 0
3.7060003 1.7370536 1.5310808 0
3.7100003 1.7332404 1.5324445 0
3.7130003 1.7288769 1.5334672 0
3.7160003 1.7245028 1.53449 0
3.7190003 1.7201178 1.5355127 0
3.7220004 1.7157218 1.5365355 0
3.7250001 1.711315 1.5375582 0
3.7280002 1.7068975 1.5385809 0
3.7310002 1.7024692 1.5396037 0
3.7340002 1.69803 1.5406265 0
3.7380002 1.6941012 1.5419902 0
3.7410002 1.6896386 1.543013 0
3.7440002 1.6851653 1.5440357 0
3.7470002 1.680681 1.5450584 0
3.7500002 1.676186 1.5460812 0
3.7530003 1.6716801 1.547104 0
3.7560003 1.6671633 1.5481268 0
3.7600002 1.6631444 1.5494905 0
3.7630002 1.6586041 1.5505133 0
3.7660003 1.6540532 1.551536 0
3.7690003 1.6494913 1.5525587 0
3.7720003 1.6449188 1.5535815 0
3.7760003 1.6408348 1.5549451 0
3.7790003 1.6362388 1.5559679 0
3.7820003 1.6316319 1.5569907 0
3.7850003 1.6270142 1.5580134 0
3.6430004 1.8259202 1.5037531 0
3.6460001 1.8217964 1.5047703 0
3.6490002 1.8176621 1.5057877 0
3.6520002 1.813517 1.5068051 0
3.6550002 1.8093611 1.5078224 0
3.6580002 1.8051943 1.5088398 0
3.6610003 1.8010167 1.5098572 0
3.6640003 1.7968283 1.5108745 0
3.6670003 1.792629 1.5118918 0
3.6700003 1.7884189 1.5129093 0
3.6730003 1.7841979 1.5139265 0
3.6760004 1.7799662 1.514944 0
3.6790001 1.7757236 1.5159613 0
3.6820002 1.7714703 1.5169785 0
3.6850002 1.7672061 1.517996 0
3.6880002 1.762931 1.5190133 0
3.6910002 1.7586452 1.5200306 0
3.6940002 1.7543485 1.5210479 0
3.6970003 1.750041 1.5220654 0
3.7000003 1.7457228 1.5230826 0
3.7030003 1.7413937 1.5241001 0
3.7060003 1.7370536 1.5251174 0
3.7100003 1.7332404 1.5264739 0
3.7130003 1.7288769 1.5274912 0
3.7160003 1.7245028 1.5285085 0
3.7190003 1.7201178 1.5295259 0
3.7220004 1.7157218 1.5305433 0
3.7250001 1.711315 1.5315605 0
3.7280002 1.7068975 1.5325779 0
3.7310002 1.7024692 1.5335952 0
3.7340002 1.69803 1.5346125 0
3.7380002 1.6941012 1.535969 0
3.7410002 1.6896386 1.5369865 0
3.7440002 1.6851653 1.5380037 0
3.7470002 1.680681 1.5390211 0
3.7500002 1.676186 1.5400385 0
3.7530003 1.6716801 1.5410558 0
3.7560003 1.6671633 1.5420731 0
3.7600002 1.6631444 1.5434296 0
3.7630002 1.6586041 1.5444469 0
3.7660003 1.6540532 1.5454644 0
3.7690003 1.6494913 1.5464816 0
3.7720003 1.6449188 1.5474991 0
3.7760003 1.6408348 1.5488555 0
3.7790003 1.6362388 1.5498728 0
3.7820003 1.6316319 1.5508902 0
3.7850003 1.6270142 1.5519075 0
3.6430004 1.8259202 1.4979033 0
3.6460001 1.8217964 1.4989152 0
3.6490002 1.8176621 1.4999272 0
3.6520002 1.813517 1.5009391 0
3.6550002 1.8093611 1.501951 0
3.6580002 1.8051943 1.5029629 0
3.6610003 1.8010167 1.5039749 0
3.6640003 1.7968283 1.5049869 0
3.6670003 1.792629 1.5059987 0
3.6700003 1.7884189 1.5070108 0
3.6730003 1.7841979 1.5080227 0
3.6760004 1.7799662 1.5090346 0
3.6790001 1.7757236 1.5100466 0
3.6820002 1.7714703 1.5110584 0
3.6850002 1.7672061 1.5120704 0
3.6880002 1.762931 1.5130824 0
3.6910002 1.7586452 1.5140944 0
3.6940002 1.7543485 1.5151062 0
3.6970003 1.750041 1.5161182 0
3.7000003 1.7457228 1.5171301 0
3.7030003 1.7413937 1.518142 0
3.7060003 1.7370536 1.519154 0
3.7100003 1.7332404 1.5205033 0
3.7130003 1.7288769 1.5215153 0
3.7160003 1.7245028 1.5225271 0
3.7190003 1.7201178 1.5235391 0
3.7220004 1.7157218 1.524551 0
3.7250001 1.711315 1.5255629 0
3.7280002 1.7068975 1.5265747 0
3.7310002 1.7024692 1.5275868 0
3.7340002 1.69803 1.5285987 0
3.7380002 1.6941012 1.5299479 0
3.7410002 1.6896386 1.5309598 0
3.7440002 1.6851653 1.5319718 0
3.7470002 1.680681 1.5329838 0
3.7500002 1.676186 1.5339956 0
3.7530003 1.6716801 1.5350077 0
3.7560003 1.6671633 1.5360196 0
3.7600002 1.6631444 1.5373688 0
3.7630002 1.6586041 1.5383807 0
3.7660003 1.6540532 1.5393927 0
3.7690003 1.6494913 1.5404047 0
3.7720003 1.6449188 1.5414165 0
3.7760003 1.6408348 1.5427657 0
3.7790003 1.6362388 1.5437778 0
3.7820003 1.6316319 1.5447897 0
3.7850003 1.6270142 1.5458016 0
3.6430004 1.8259202 1.4920536 0
3.6460001 1.8217964 1.49306 0
3.6490002 1.8176621 1.4940666 0
3.6520002 1.813517 1.4950731 0
3.6550002 1.8093611 1.4960796 0
3.6580002 1.8051943 1.4970862 0
3.6610003 1.8010167 1.4980927 0
3.6640003 1.7968283 1.4990991 0
3.6670003 1.792629 1.5001057 0
3.6700003 1.7884189 1.5011123 0
3.6730003 1.7841979 1.5021188 0
3.6760004 1.7799662 1.5031254 0
3.6790001 1.7757236 1.5041318 0
3.6820002 1.7714703 1.5051384 0
3.6850002 1.7672061 1.5061449 0
3.6880002 1.762931 1.5071514 0
3.6910002 1.7586452 1.508158 0
3.6940002 1.7543485 1.5091645 0
3.6970003 1.750041 1.5101709 0
3.7000003 1.7457228 1.5111775 0
3.7030003 1.7413937 1.512184 0
3.7060003 1.7370536 1.5131905 0
3.7100003 1.7332404 1.5145327 0
3.7130003 1.7288769 1.5155392 0
3.7160003 1.7245028 1.5165458 0
3.7190003 1.7201178 1.5175523 0
3.7220004 1.7157218 1.5185587 0
3.7250001 1.711315 1.5195652 0
3.7280002 1.7068975 1.5205717 0
3.7310002 1.7024692 1.5215783 0
3.7340002 1.69803 1.5225848 0
3.7380002 1.6941012 1.5239267 0
3.7410002 1.6896386 1.5249333 0
3.7440002 1.6851653 1.5259398 0
3.7470002 1.680681 1.5269463 0
3.7500002 1.676186 1.5279529 0
3.7530003 1.6716801 1.5289595 0
3.7560003 1.6671633 1.5299661 0
3.7600002 1.6631444 1.5313081 0
3.7630002 1.6586041 1.5323145 0
3.7660003 1.6540532 1.5333211 0
3.7690003 1.6494913 1.5343276 0
3.7720003 1.6449188 1.5353341 0
3.7760003 1.6408348 1.5366762 0
3.7790003 1.6362388 1.5376827 0
3.7820003 1.6316319 1.5386893 0
3.7850003 1.6270142 1.5396957 0
3.6430004 1.8259202 1.4862039 0
3.6460001 1.8217964 1.4872049 0
3.6490002 1.8176621 1.488206 0
3.6520002 1.813517 1.4892071 0
3.6550002 1.8093611 1.4902083 0
3.6580002 1.8051943 1.4912094 0
3.6610003 1.8010167 1.4922105 0
3.6640003 1.7968283 1.4932116 0
3.6670003 1.792629 1.4942127 0
3.6700003 1.7884189 1.4952137 0
3.6730003 1.7841979 1.496215 0
3.6760004 1.7799662 1.4972161 0
3.6790001 1.7757236 1.4982171 0
3.6820002 1.7714703 1.4992182 0
3.6850002 1.7672061 1.5002195 0
3.6880002 1.762931 1.5012205 0
3.6910002 1.7586452 1.5022216 0
3.6940002 1.7543485 1.5032227 0
3.6970003 1.750041 1.5042238 0
3.7000003 1.7457228 1.5052251 0
3.7030003 1.7413937 1.5062262 0
3.7060003 1.7370536 1.5072272 0
3.7100003 1.7332404 1.5085621 0
3.7130003 1.7288769 1.5095631 0
3.7160003 1.7245028 1.5105642 0
3.7190003 1.7201178 1.5115653 0
3.7220004 1.7157218 1.5125666 0
3.7250001 1.711315 1.5135676 0
3.7280002 1.7068975 1.5145687 0
3.7310002 1.7024692 1.5155698 0
3.7340002 1.69803 1.5165709 0
3.7380002 1.6941012 1.5179057 0
3.7410002 1.6896386 1.5189068 0
3.7440002 1.6851653 1.519908 0
3.7470002 1.680681 1.5209091 0
3.7500002 1.676186 1.5219102 0
3.7530003 1.6716801 1.5229113 0
3.7560003 1.6671633 1.5239124 0
3.7600002 1.6631444 1.5252472 0
3.7630002 1.6586041 1.5262483 0
3.7660003 1.6540532 1.5272495 0
3.7690003 1.6494913 1.5282506 0
3.7720003 1.6449188 1.5292518 0
3.7760003 1.6408348 1.5305866 0
3.7790003 1.6362388 1.5315877 0
3.7820003 1.6316319 1.5325887 0
3.7850003 1.6270142 1.5335898 0
3.6430004 1.8259202 1.4803541 0
3.6460001 1.8217964 1.4813498 0
3.6490002 1.8176621 1.4823455 0
3.6520002 1.813517 1.4833412 0
3.6550002 1.8093611 1.4843369 0
3.6580002 1.8051943 1.4853326 0
3.6610003 1.8010167 1.4863284 0
3.6640003 1.7968283 1.487324 0
3.6670003 1.792629 1.4883198 0
3.6700003 1.7884189 1.4893154 0
3.6730003 1.7841979 1.4903111 0
3.6760004 1.7799662 1.4913068 0
3.6790001 1.7757236 1.4923024 0
3.6820002 1.7714703 1.4932982 0
3.6850002 1.7672061 1.4942938 0
3.6880002 1.762931 1.4952896 0
3.6910002 1.7586452 1.4962852 0
3.6940002 1.7543485 1.497281 0
3.6970003 1.750041 1.4982767 0
3.7000003 1.7457228 1.4992723 0
3.7030003 1.7413937 1.5002681 0
3.7060003 1.7370536 1.5012637 0
3.7100003 1.7332404 1.5025914 0
3.7130003 1.7288769 1.5035871 0
3.7160003 1.7245028 1.5045829 0
3.7190003 1.7201178 1.5055785 0
3.7220004 1.7157218 1.5065743 0
3.7250001 1.711315 1.5075698 0
3.7280002 1.7068975 1.5085655 0
3.7310002 1.7024692 1.5095613 0
3.7340002 1.69803 1.5105569 0
3.7380002 1.6941012 1.5118846 0
3.7410002 1.6896386 1.5128803 0
3.7440002 1.6851653 1.513876 0
3.7470002 1.680681 1.5148717 0
3.7500002 1.676186 1.5158675 0
3.7530003 1.6716801 1.5168631 0
3.7560003 1.6671633 1.5178589 0
3.7600002 1.6631444 1.5191865 0
3.7630002 1.6586041 1.5201821 0
3.7660003 1.6540532 1.5211779 0
3.7690003 1.6494913 1.5221736 0
3.7720003 1.6449188 1.5231693 0
3.7760003 1.6408348 1.5244968 0
3.7790003 1.6362388 1.5254925 0
3.7820003 1.6316319 1.5264883 0
3.7850003 1.6270142 1.5274839 0
3.6430004 1.8259202 1.4745044 0
3.6460001 1.8217964 1.4754945 0
3.6490002 1.8176621 1.4764849 0
3.6520002 1.813517 1.4774752 0
3.6550002 1.8093611 1.4784654 0
3.6580002 1.8051943 1.4794558 0
3.6610003 1.8010167 1.480446 0
3.6640003 1.7968283 1.4814364 0
3.6670003 1.792629 1.4824266 0
3.6700003 1.7884189 1.4834169 0
3.6730003 1.7841979 1.4844073 0
3.6760004 1.7799662 1.4853976 0
3.6790001 1.7757236 1.4863877 0
3.6820002 1.7714703 1.4873781 0
3.6850002 1.7672061 1.4883684 0
3.6880002 1.762931 1.4893587 0
3.6910002 1.7586452 1.4903491 0
3.6940002 1.7543485 1.4913392 0
3.6970003 1.750041 1.4923295 0
3.7000003 1.7457228 1.4933199 0
3.7030003 1.7413937 1.4943101 0
3.7060003 1.7370536 1.4953004 0
3.7100003 1.7332404 1.4966208 0
3.7130003 1.7288769 1.4976112 0
3.7160003 1.7245028 1.4986014 0
3.7190003 1.7201178 1.4995917 0
3.7220004 1.7157218 1.500582 0
3.7250001 1.711315 1.5015723 0
3.7280002 1.7068975 1.5025625 0
3.7310002 1.7024692 1.5035528 0
3.7340002 1.69803 1.5045431 0
3.7380002 1.6941012 1.5058634 0
3.7410002 1.6896386 1.5068538 0
3.7440002 1.6851653 1.5078441 0
3.7470002 1.680681 1.5088344 0
3.7500002 1.676186 1.5098248 0
3.7530003 1.6716801 1.510815 0
3.7560003 1.6671633 1.5118052 0
3.7600002 1.6631444 1.5131257 0
3.7630002 1.6586041 1.5141159 0
3.7660003 1.6540532 1.5151062 0
3.7690003 1.6494913 1.5160966 0
3.7720003 1.6449188 1.5170869 0
3.7760003 1.6408348 1.5184072 0
3.7790003 1.6362388 1.5193975 0
3.7820003 1.6316319 1.5203879 0
3.7850003 1.6270142 1.521378 0
3.6430004 1.8259202 1.4686546 0
3.6460001 1.8217964 1.4696394 0
3.6490002 1.8176621 1.4706242 0
3.6520002 1.813517 1.4716091 0
3.6550002 1.8093611 1.4725941 0
3.6580002 1.8051943 1.473579 0
3.6610003 1.8010167 1.4745638 0
3.6640003 1.7968283 1.4755487 0
3.6670003 1.792629 1.4765337 0
3.6700003 1.7884189 1.4775184 0
3.6730003 1.7841979 1.4785033 0
3.6760004 1.7799662 1.4794883 0
3.6790001 1.7757236 1.480473 0
3.6820002 1.7714703 1.4814579 0
3.6850002 1.7672061 1.4824429 0
3.6880002 1.762931 1.4834278 0
3.6910002 1.7586452 1.4844127 0
3.6940002 1.7543485 1.4853976 0
3.6970003 1.750041 1.4863824 0
3.7000003 1.7457228 1.4873673 0
3.7030003 1.7413937 1.4883522 0
3.7060003 1.7370536 1.489337 0
3.7100003 1.7332404 1.4906502 0
3.7130003 1.7288769 1.4916351 0
3.7160003 1.7245028 1.49262 0
3.7190003 1.7201178 1.4936049 0
3.7220004 1.7157218 1.4945898 0
3.7250001 1.711315 1.4955746 0
3.7280002 1.7068975 1.4965594 0
3.7310002 1.7024692 1.4975443 0
3.7340002 1.69803 1.4985292 0
3.7380002 1.6941012 1.4998423 0
3.7410002 1.6896386 1.5008273 0
3.7440002 1.6851653 1.5018122 0
3.7470002 1.680681 1.5027971 0
3.7500002 1.676186 1.5037819 0
3.7530003 1.6716801 1.5047668 0
3.7560003 1.6671633 1.5057517 0
3.7600002 1.6631444 1.5070648 0
3.7630002 1.6586041 1.5080497 0
3.7660003 1.6540532 1.5090346 0
3.7690003 1.6494913 1.5100194 0
3.7720003 1.6449188 1.5110044 0
3.7760003 1.6408348 1.5123175 0
3.7790003 1.6362388 1.5133024 0
3.7820003 1.6316319 1.5142874 0
3.7850003 1.6270142 1.5152723 0
3.6430004 1.8259202 1.4628048 0
3.6460001 1.8217964 1.4637842 0
3.6490002 1.8176621 1.4647638 0
3.6520002 1.813517 1.4657432 0
3.6550002 1.8093611 1.4667227 0
3.6580002 1.8051943 1.4677022 0
3.6610003 1.8010167 1.4686816 0
3.6640003 1.7968283 1.4696611 0
3.6670003 1.792629 1.4706405 0
3.6700003 1.7884189 1.4716201 0
3.6730003 1.7841979 1.4725995 0
3.6760004 1.7799662 1.473579 0
3.6790001 1.7757236 1.4745585 0
3.6820002 1.7714703 1.4755378 0
3.6850002 1.7672061 1.4765173 0
3.6880002 1.762931 1.4774967 0
3.6910002 1.7586452 1.4784763 0
3.6940002 1.7543485 1.4794558 0
3.6970003 1.750041 1.4804353 0
3.7000003 1.7457228 1.4814148 0
3.7030003 1.7413937 1.4823941 0
3.7060003 1.7370536 1.4833736 0
3.7100003 1.7332404 1.4846796 0
3.7130003 1.7288769 1.485659 0
3.7160003 1.7245028 1.4866385 0
3.7190003 1.7201178 1.487618 0
3.7220004 1.7157218 1.4885975 0
3.7250001 1.711315 1.4895769 0
3.7280002 1.7068975 1.4905565 0
3.7310002 1.7024692 1.4915358 0
3.7340002 1.69803 1.4925153 0
3.7380002 1.6941012 1.4938213 0
3.7410002 1.6896386 1.4948007 0
3.7440002 1.6851653 1.4957802 0
3.7470002 1.680681 1.4967597 0
3.7500002 1.676186 1.4977392 0
3.7530003 1.6716801 1.4987186 0
3.7560003 1.6671633 1.4996982 0
3.7600002 1.6631444 1.5010041 0
3.7630002 1.6586041 1.5019835 0
3.7660003 1.6540532 1.5029629 0
3.7690003 1.6494913 1.5039425 0
3.7720003 1.6449188 1.5049219 0
3.7760003 1.6408348 1.5062279 0
3.7790003 1.6362388 1.5072074 0
3.7820003 1.6316319 1.5081868 0
3.7850003 1.6270142 1.5091664 0
3.6430004 1.8259202 1.4569551 0
3.6460001 1.8217964 1.4579291 0
3.6490002 1.8176621 1.4589032 0
3.6520002 1.813517 1.4598773 0
3.6550002 1.8093611 1.4608513 0
3.6580002 1.8051943 1.4618253 0
3.6610003 1.8010167 1.4627994 0
3.6640003 1.7968283 1.4637735 0
3.6670003 1.792629 1.4647475 0
3.6700003 1.7884189 1.4657216 0
3.6730003 1.7841979 1.4666955 0
3.6760004 1.7799662 1.4676697 0
3.6790001 1.7757236 1.4686438 0
3.6820002 1.7714703 1.4696177 0
3.6850002 1.7672061 1.4705918 0
3.6880002 1.762931 1.471566 0
3.6910002 1.7586452 1.4725399 0
3.6940002 1.7543485 1.4735141 0
3.6970003 1.750041 1.474488 0
3.7000003 1.7457228 1.4754622 0
3.7030003 1.7413937 1.4764363 0
3.7060003 1.7370536 1.4774102 0
3.7100003 1.7332404 1.478709 0
3.7130003 1.7288769 1.479683 0
3.7160003 1.7245028 1.4806572 0
3.7190003 1.7201178 1.4816312 0
3.7220004 1.7157218 1.4826052 0
3.7250001 1.711315 1.4835793 0
3.7280002 1.7068975 1.4845533 0
3.7310002 1.7024692 1.4855274 0
3.7340002 1.69803 1.4865013 0
3.7380002 1.6941012 1.4878001 0
3.7410002 1.6896386 1.4887742 0
3.7440002 1.6851653 1.4897484 0
3.7470002 1.680681 1.4907223 0
3.7500002 1.676186 1.4916964 0
3.7530003 1.6716801 1.4926705 0
3.7560003 1.6671633 1.4936445 0
3.7600002 1.6631444 1.4949433 0
3.7630002 1.6586041 1.4959173 0
3.7660003 1.6540532 1.4968914 0
3.7690003 1.6494913 1.4978654 0
3.7720003 1.6449188 1.4988395 0
3.7760003 1.6408348 1.5001383 0
3.7790003 1.6362388 1.5011123 0
3.7820003 1.6316319 1.5020863 0
3.7850003 1.6270142 1.5030605 0
3.6430004 1.8259202 1.4511054 0
3.6460001 1.8217964 1.4520739 0
3.6490002 1.8176621 1.4530425 0
3.6520002 1.813517 1.4540112 0
3.6550002 1.8093611 1.4549799 0
3.6580002 1.8051943 1.4559485 0
3.6610003 1.8010167 1.4569173 0
3.6640003 1.7968283 1.4578859 0
3.6670003 1.792629 1.4588544 0
3.6700003 1.7884189 1.4598231 0
3.6730003 1.7841979 1.4607918 0
3.6760004 1.7799662 1.4617604 0
3.6790001 1.7757236 1.462729 0
3.6820002 1.7714703 1.4636977 0
3.6850002 1.7672061 1.4646664 0
3.6880002 1.762931 1.4656349 0
3.6910002 1.7586452 1.4666036 0
3.6940002 1.7543485 1.4675723 0
3.6970003 1.750041 1.4685409 0
3.7000003 1.7457228 1.4695095 0
3.7030003 1.7413937 1.4704783 0
3.7060003 1.7370536 1.4714469 0
3.7100003 1.7332404 1.4727384 0
3.7130003 1.7288769 1.4737071 0
3.7160003 1.7245028 1.4746757 0
3.7190003 1.7201178 1.4756444 0
3.7220004 1.7157218 1.476613 0
3.7250001 1.711315 1.4775815 0
3.7280002 1.7068975 1.4785503 0
3.7310002 1.7024692 1.4795189 0
3.7340002 1.69803 1.4804875 0
3.7380002 1.6941012 1.4817791 0
3.7410002 1.6896386 1.4827477 0
3.7440002 1.6851653 1.4837162 0
3.7470002 1.680681 1.4846851 0
3.7500002 1.676186 1.4856536 0
3.7530003 1.6716801 1.4866222 0
3.7560003 1.6671633 1.487591 0
3.7600002 1.6631444 1.4888824 0
3.7630002 1.6586041 1.4898511 0
3.7660003 1.6540532 1.4908198 0
3.7690003 1.6494913 1.4917884 0
3.7720003 1.6449188 1.492757 0
3.7760003 1.6408348 1.4940486 0
3.7790003 1.6362388 1.4950172 0
3.7820003 1.6316319 1.4959859 0
3.7850003 1.6270142 1.4969546 0
3.6430004 1.8259202 1.4452555 0
3.6460001 1.8217964 1.4462188 0
3.6490002 1.8176621 1.4471821 0
3.6520002 1.813517 1.4481453 0
3.6550002 1.8093611 1.4491085 0
3.6580002 1.8051943 1.4500717 0
3.6610003 1.8010167 1.4510349 0
3.6640003 1.7968283 1.4519981 0
3.6670003 1.792629 1.4529614 0
3.6700003 1.7884189 1.4539248 0
3.6730003 1.7841979 1.454888 0
3.6760004 1.7799662 1.4558512 0
3.6790001 1.7757236 1.4568143 0
3.6820002 1.7714703 1.4577775 0
3.6850002 1.7672061 1.4587408 0
3.6880002 1.762931 1.459704 0
3.6910002 1.7586452 1.4606673 0
3.6940002 1.7543485 1.4616306 0
3.6970003 1.750041 1.4625938 0
3.7000003 1.7457228 1.463557 0
3.7030003 1.7413937 1.4645202 0
