# .PCD v0.7 - Point Cloud Data file format
VERSION 0.7
FIELDS x y z intensity
SIZE 4 4 4 4
TYPE F F F F
COUNT 1 1 1 1
WIDTH 1414
HEIGHT 1
VIEWPOINT 0 0 0 1 0 0 0
POINTS 1414
DATA ascii
4.6050005 -2.2987492 0.48743516 0
4.6000004 -2.3036466 0.48733595 0
4.5950003 -2.3085256 0.48723674 0
4.5890002 -2.3128459 0.48711771 0
4.5840001 -2.3176873 0.48701847 0
4.5790005 -2.3225107 0.48691928 0
4.5730004 -2.3267694 0.48680022 0
4.5680003 -2.3315549 0.48670101 0
4.5630002 -2.3363223 0.4866018 0
4.5580001 -2.3410718 0.48650259 0
4.5530005 -2.3458033 0.48640338 0
4.5470004 -2.349961 0.48628435 0
4.5420003 -2.3546546 0.48618513 0
4.5370002 -2.3593297 0.48608592 0
4.5320001 -2.3639872 0.48598671 0
4.5270004 -2.3686268 0.4858875 0
4.5220003 -2.3732481 0.48578829 0
4.5160003 -2.377285 0.48566923 0
4.5110002 -2.3818684 0.48557001 0
4.5060005 -2.3864341 0.48547083 0
4.8300004 -2.099654 0.48390871 0
4.8240004 -2.1048524 0.4838005 0
4.8180003 -2.1100292 0.48369226 0
4.8120003 -2.1151843 0.48358405 0
4.8060002 -2.1203182 0.4834758 0
4.8000002 -2.1254301 0.48336756 0
4.7940001 -2.1305206 0.48325935 0
4.7890005 -2.1360655 0.48316917 0
4.7830005 -2.1411145 0.48306093 0
4.7770004 -2.1461415 0.48295271 0
4.7710004 -2.1511471 0.48284447 0
4.7660003 -2.1566143 0.48275429 0
4.7600002 -2.1615784 0.48264605 0
4.7540002 -2.1665208 0.48253781 0
4.7480001 -2.1714416 0.48242959 0
4.7430005 -2.1768317 0.48233941 0
4.7370005 -2.1817107 0.48223117 0
4.7310004 -2.1865685 0.48212296 0
4.7260003 -2.1919005 0.48203278 0
4.7200003 -2.1967165 0.48192453 0
4.7140002 -2.2015111 0.48181629 0
4.7090001 -2.2067854 0.48172611 0
4.7030001 -2.2115383 0.48161787 0
4.6980004 -2.2167749 0.48152769 0
4.6920004 -2.2214866 0.48141947 0
4.6870003 -2.226685 0.48132926 0
4.6810002 -2.2313552 0.48122105 0
4.6760001 -2.2365158 0.48113084 0
4.6700001 -2.2411442 0.48102263 0
4.6650004 -2.2462673 0.48093244 0
4.6590004 -2.2508545 0.4808242 0
4.6540003 -2.2559392 0.48073402 0
4.6480002 -2.2604847 0.48062581 0
4.6430001 -2.2655318 0.4805356 0
4.6370001 -2.270036 0.48042735 0
4.6320004 -2.2750454 0.48033717 0
4.6270003 -2.2800364 0.48024699 0
4.6210003 -2.2844789 0.48013878 0
4.6160002 -2.2894323 0.48004857 0
4.6100001 -2.2938337 0.47994033 0
4.6050005 -2.2987492 0.47985014 0
4.6000004 -2.3036466 0.47975996 0
4.5950003 -2.3085256 0.47966975 0
4.5890002 -2.3128459 0.47956154 0
4.5840001 -2.3176873 0.47947136 0
4.5790005 -2.3225107 0.47938117 0
4.5730004 -2.3267694 0.47927293 0
4.5680003 -2.3315549 0.47918272 0
4.5630002 -2.3363223 0.47909254 0
4.5580001 -2.3410718 0.47900236 0
4.5530005 -2.3458033 0.47891217 0
4.5470004 -2.349961 0.47880393 0
4.5420003 -2.3546546 0.47871375 0
4.5370002 -2.3593297 0.47862357 0
4.5320001 -2.3639872 0.47853336 0
4.5270004 -2.3686268 0.47844318 0
4.5220003 -2.3732481 0.47835299 0
4.5160003 -2.377285 0.47824478 0
4.5110002 -2.3818684 0.47815457 0
4.5060005 -2.3864341 0.47806439 0
4.5010004 -2.3909814 0.47797418 0
4.9080005 -2.0301025 0.47718412 0
4.9020004 -2.0355825 0.47708672 0
4.8960004 -2.0410409 0.47698933 0
4.8900003 -2.0464773 0.47689191 0
4.8830004 -2.0514452 0.47677827 0
4.8770003 -2.0568368 0.47668087 0
4.8710003 -2.0622065 0.47658345 0
4.8650002 -2.067555 0.47648606 0
4.8590002 -2.0728815 0.47638863 0
4.8530002 -2.0781865 0.47629124 0
4.8470001 -2.0834699 0.47619382 0
4.8410001 -2.0887315 0.47609642 0
4.8360004 -2.0944335 0.47601527 0
4.8300004 -2.099654 0.47591785 0
4.8240004 -2.1048524 0.47582045 0
4.8180003 -2.1100292 0.47572303 0
4.8120003 -2.1151843 0.47562563 0
4.8060002 -2.1203182 0.47552821 0
4.8000002 -2.1254301 0.47543082 0
4.7940001 -2.1305206 0.47533342 0
4.7890005 -2.1360655 0.47525224 0
4.7830005 -2.1411145 0.47515485 0
4.7770004 -2.1461415 0.47505742 0
4.7710004 -2.1511471 0.47496003 0
4.7660003 -2.1566143 0.47487885 0
4.7600002 -2.1615784 0.47478145 0
4.7540002 -2.1665208 0.47468406 0
4.7480001 -2.1714416 0.47458664 0
4.7430005 -2.1768317 0.47450548 0
4.7370005 -2.1817107 0.47440806 0
4.7310004 -2.1865685 0.47431067 0
4.7260003 -2.1919005 0.47422948 0
4.7200003 -2.1967165 0.47413206 0
4.7140002 -2.2015111 0.47403467 0
4.7090001 -2.2067854 0.47395349 0
4.7030001 -2.2115383 0.47385609 0
4.6980004 -2.2167749 0.47377491 0
4.6920004 -2.2214866 0.47367752 0
4.6870003 -2.226685 0.47359633 0
4.6810002 -2.2313552 0.47349894 0
4.6760001 -2.2365158 0.47341776 0
4.6700001 -2.2411442 0.47332036 0
4.6650004 -2.2462673 0.47323918 0
4.6590004 -2.2508545 0.47314179 0
4.6540003 -2.2559392 0.47306061 0
4.6480002 -2.2604847 0.47296321 0
4.6430001 -2.2655318 0.47288203 0
4.6370001 -2.270036 0.47278464 0
4.6320004 -2.2750454 0.47270346 0
4.6270003 -2.2800364 0.47262228 0
4.6210003 -2.2844789 0.47252488 0
4.6160002 -2.2894323 0.4724437 0
4.6100001 -2.2938337 0.47234631 0
4.6050005 -2.2987492 0.47226512 0
4.6000004 -2.3036466 0.47218397 0
4.5950003 -2.3085256 0.47210279 0
4.5890002 -2.3128459 0.47200537 0
4.5840001 -2.3176873 0.47192422 0
4.5790005 -2.3225107 0.47184306 0
4.5730004 -2.3267694 0.47174564 0
4.5680003 -2.3315549 0.47166446 0
4.5630002 -2.3363223 0.47158331 0
4.5580001 -2.3410718 0.47150213 0
4.5530005 -2.3458033 0.47142094 0
4.5470004 -2.349961 0.47132355 0
4.5420003 -2.3546546 0.47124237 0
4.5370002 -2.3593297 0.47116122 0
4.5320001 -2.3639872 0.47108003 0
4.5270004 -2.3686268 0.47099885 0
4.5220003 -2.3732481 0.4709177 0
4.5160003 -2.377285 0.47082028 0
4.5110002 -2.3818684 0.47073913 0
4.5060005 -2.3864341 0.47065794 0
4.5010004 -2.3909814 0.47057676 0
4.9080005 -2.0301025 0.46905255 0
4.9020004 -2.0355825 0.46896598 0
4.8960004 -2.0410409 0.4688794 0
4.8900003 -2.0464773 0.4687928 0
4.8830004 -2.0514452 0.4686918 0
4.8770003 -2.0568368 0.46860522 0
4.8710003 -2.0622065 0.46851861 0
4.8650002 -2.067555 0.46843204 0
4.8590002 -2.0728815 0.46834546 0
4.8530002 -2.0781865 0.46825889 0
4.8470001 -2.0834699 0.46817228 0
4.8410001 -2.0887315 0.46808571 0
4.8360004 -2.0944335 0.46801355 0
4.8300004 -2.099654 0.46792698 0
4.8240004 -2.1048524 0.4678404 0
4.8180003 -2.1100292 0.46775383 0
4.8120003 -2.1151843 0.46766722 0
4.8060002 -2.1203182 0.46758065 0
4.8000002 -2.1254301 0.46749407 0
4.7940001 -2.1305206 0.46740746 0
4.7890005 -2.1360655 0.46733534 0
4.7830005 -2.1411145 0.46724874 0
4.7770004 -2.1461415 0.46716216 0
4.7710004 -2.1511471 0.46707559 0
4.7660003 -2.1566143 0.46700343 0
4.7600002 -2.1615784 0.46691686 0
4.7540002 -2.1665208 0.46683025 0
4.7480001 -2.1714416 0.46674368 0
4.7430005 -2.1768317 0.46667153 0
4.7370005 -2.1817107 0.46658495 0
4.7310004 -2.1865685 0.46649837 0
4.7260003 -2.1919005 0.46642619 0
4.7200003 -2.1967165 0.46633962 0
4.7140002 -2.2015111 0.46625304 0
4.7090001 -2.2067854 0.46618089 0
4.7030001 -2.2115383 0.46609432 0
4.6980004 -2.2167749 0.46602216 0
4.6920004 -2.2214866 0.46593559 0
4.6870003 -2.226685 0.46586341 0
4.6810002 -2.2313552 0.46577683 0
4.6760001 -2.2365158 0.46570468 0
4.6700001 -2.2411442 0.4656181 0
4.6650004 -2.2462673 0.46554595 0
4.6590004 -2.2508545 0.46545938 0
4.6540003 -2.2559392 0.46538723 0
4.6480002 -2.2604847 0.46530062 0
4.6430001 -2.2655318 0.46522847 0
4.6370001 -2.270036 0.46514189 0
4.6320004 -2.2750454 0.46506974 0
4.6270003 -2.2800364 0.46499759 0
4.6210003 -2.2844789 0.46491101 0
4.6160002 -2.2894323 0.46483886 0
4.6100001 -2.2938337 0.46475226 0
4.6050005 -2.2987492 0.46468014 0
4.6000004 -2.3036466 0.46460798 0
4.5950003 -2.3085256 0.46453583 0
4.5890002 -2.3128459 0.46444923 0
4.5840001 -2.3176873 0.46437708 0
4.5790005 -2.3225107 0.46430492 0
4.5730004 -2.3267694 0.46421835 0
4.5680003 -2.3315549 0.4641462 0
4.5630002 -2.3363223 0.46407405 0
4.5580001 -2.3410718 0.46400189 0
4.5530005 -2.3458033 0.46392974 0
4.5470004 -2.349961 0.46384317 0
4.5420003 -2.3546546 0.46377102 0
4.5370002 -2.3593297 0.46369886 0
4.5320001 -2.3639872 0.46362668 0
4.5270004 -2.3686268 0.46355456 0
4.5220003 -2.3732481 0.46348238 0
4.5160003 -2.377285 0.4633958 0
4.5110002 -2.3818684 0.46332365 0
4.5060005 -2.3864341 0.4632515 0
4.5010004 -2.3909814 0.46317935 0
4.9140005 -2.024601 0.46099675 0
4.9080005 -2.0301025 0.46092099 0
4.9020004 -2.0355825 0.46084523 0
4.8960004 -2.0410409 0.46076947 0
4.8900003 -2.0464773 0.46069372 0
4.8830004 -2.0514452 0.46060532 0
4.8770003 -2.0568368 0.46052957 0
4.8710003 -2.0622065 0.46045381 0
4.8650002 -2.067555 0.46037805 0
4.8590002 -2.0728815 0.46030229 0
4.8530002 -2.0781865 0.46022654 0
4.8470001 -2.0834699 0.46015075 0
4.8410001 -2.0887315 0.46007499 0
4.8360004 -2.0944335 0.46001187 0
4.8300004 -2.099654 0.45993611 0
4.8240004 -2.1048524 0.45986035 0
4.8180003 -2.1100292 0.4597846 0
4.8120003 -2.1151843 0.45970881 0
4.8060002 -2.1203182 0.45963305 0
4.8000002 -2.1254301 0.45955729 0
4.7940001 -2.1305206 0.45948154 0
4.7890005 -2.1360655 0.45941842 0
4.7830005 -2.1411145 0.45934266 0
4.7770004 -2.1461415 0.4592669 0
4.7710004 -2.1511471 0.45919114 0
4.7660003 -2.1566143 0.45912799 0
4.7600002 -2.1615784 0.45905223 0
4.7540002 -2.1665208 0.45897648 0
4.7480001 -2.1714416 0.45890072 0
4.7430005 -2.1768317 0.4588376 0
4.7370005 -2.1817107 0.45876184 0
4.7310004 -2.1865685 0.45868605 0
4.7260003 -2.1919005 0.45862293 0
4.7200003 -2.1967165 0.45854717 0
4.7140002 -2.2015111 0.45847142 0
4.7090001 -2.2067854 0.4584083 0
4.7030001 -2.2115383 0.45833251 0
4.6980004 -2.2167749 0.45826939 0
4.6920004 -2.2214866 0.45819363 0
4.6870003 -2.226685 0.45813048 0
4.6810002 -2.2313552 0.45805472 0
4.6760001 -2.2365158 0.4579916 0
4.6700001 -2.2411442 0.45791584 0
4.6650004 -2.2462673 0.45785272 0
4.6590004 -2.2508545 0.45777696 0
4.6540003 -2.2559392 0.45771381 0
4.6480002 -2.2604847 0.45763806 0
4.6430001 -2.2655318 0.4575749 0
4.6370001 -2.270036 0.45749915 0
4.6320004 -2.2750454 0.45743603 0
4.6270003 -2.2800364 0.4573729 0
4.6210003 -2.2844789 0.45729715 0
4.6160002 -2.2894323 0.457234 0
4.6100001 -2.2938337 0.45715824 0
4.6050005 -2.2987492 0.45709512 0
4.6000004 -2.3036466 0.45703197 0
4.5950003 -2.3085256 0.45696884 0
4.5890002 -2.3128459 0.45689309 0
4.5840001 -2.3176873 0.45682994 0
4.5790005 -2.3225107 0.45676681 0
4.5730004 -2.3267694 0.45669106 0
4.5680003 -2.3315549 0.45662794 0
4.5630002 -2.3363223 0.45656478 0
4.5580001 -2.3410718 0.45650166 0
4.5530005 -2.3458033 0.45643854 0
4.5470004 -2.349961 0.45636275 0
4.5420003 -2.3546546 0.45629963 0
4.5370002 -2.3593297 0.45623648 0
4.5320001 -2.3639872 0.45617336 0
4.5270004 -2.3686268 0.45611024 0
4.5220003 -2.3732481 0.45604709 0
4.5160003 -2.377285 0.45597133 0
4.5110002 -2.3818684 0.45590821 0
4.5060005 -2.3864341 0.45584506 0
4.5010004 -2.3909814 0.45578194 0
4.9140005 -2.024601 0.45285437 0
4.9080005 -2.0301025 0.45278943 0
4.9020004 -2.0355825 0.45272449 0
4.8960004 -2.0410409 0.45265955 0
4.8900003 -2.0464773 0.45259461 0
4.8830004 -2.0514452 0.45251885 0
4.8770003 -2.0568368 0.45245391 0
4.8710003 -2.0622065 0.45238897 0
4.8650002 -2.067555 0.45232403 0
4.8590002 -2.0728815 0.45225909 0
4.8530002 -2.0781865 0.45219415 0
4.8470001 -2.0834699 0.45212922 0
4.8410001 -2.0887315 0.45206428 0
4.8360004 -2.0944335 0.45201018 0
4.8300004 -2.099654 0.45194525 0
4.8240004 -2.1048524 0.45188031 0
4.8180003 -2.1100292 0.45181537 0
4.8120003 -2.1151843 0.45175043 0
4.8060002 -2.1203182 0.45168549 0
4.8000002 -2.1254301 0.45162055 0
4.7940001 -2.1305206 0.45155561 0
4.7890005 -2.1360655 0.45150149 0
4.7830005 -2.1411145 0.45143658 0
4.7770004 -2.1461415 0.45137161 0
4.7710004 -2.1511471 0.4513067 0
4.7660003 -2.1566143 0.45125258 0
4.7600002 -2.1615784 0.45118764 0
4.7540002 -2.1665208 0.4511227 0
4.7480001 -2.1714416 0.45105776 0
4.7430005 -2.1768317 0.45100364 0
4.7370005 -2.1817107 0.4509387 0
4.7310004 -2.1865685 0.45087379 0
4.7260003 -2.1919005 0.45081967 0
4.7200003 -2.1967165 0.45075473 0
4.7140002 -2.2015111 0.45068979 0
4.7090001 -2.2067854 0.45063567 0
4.7030001 -2.2115383 0.45057073 0
4.6980004 -2.2167749 0.45051661 0
4.6920004 -2.2214866 0.45045167 0
4.6870003 -2.226685 0.45039755 0
4.6810002 -2.2313552 0.45033264 0
4.6760001 -2.2365158 0.45027852 0
4.6700001 -2.2411442 0.45021358 0
4.6650004 -2.2462673 0.45015946 0
4.6590004 -2.2508545 0.45009452 0
4.6540003 -2.2559392 0.45004043 0
4.6480002 -2.2604847 0.44997549 0
4.6430001 -2.2655318 0.44992137 0
4.6370001 -2.270036 0.44985643 0
4.6320004 -2.2750454 0.44980231 0
4.6270003 -2.2800364 0.44974819 0
4.6210003 -2.2844789 0.44968325 0
4.6160002 -2.2894323 0.44962916 0
4.6100001 -2.2938337 0.44956422 0
4.6050005 -2.2987492 0.4495101 0
4.6000004 -2.3036466 0.44945598 0
4.5950003 -2.3085256 0.44940186 0
4.5890002 -2.3128459 0.44933695 0
4.5840001 -2.3176873 0.44928282 0
4.5790005 -2.3225107 0.4492287 0
4.5730004 -2.3267694 0.44916376 0
4.5680003 -2.3315549 0.44910964 0
4.5630002 -2.3363223 0.44905552 0
4.5580001 -2.3410718 0.44900143 0
4.5530005 -2.3458033 0.44894731 0
4.5470004 -2.349961 0.44888237 0
4.5420003 -2.3546546 0.44882825 0
4.5370002 -2.3593297 0.44877413 0
4.5320001 -2.3639872 0.44872004 0
4.5270004 -2.3686268 0.44866592 0
4.5220003 -2.3732481 0.4486118 0
4.5160003 -2.377285 0.44854686 0
4.5110002 -2.3818684 0.44849274 0
4.5060005 -2.3864341 0.44843864 0
4.5010004 -2.3909814 0.44838452 0
4.9140005 -2.024601 0.44471198 0
4.9080005 -2.0301025 0.44465786 0
4.9020004 -2.0355825 0.44460374 0
4.8960004 -2.0410409 0.44454962 0
4.8900003 -2.0464773 0.4444955 0
4.8830004 -2.0514452 0.44443238 0
4.8770003 -2.0568368 0.44437826 0
4.8710003 -2.0622065 0.44432414 0
4.8650002 -2.067555 0.44427004 0
4.8590002 -2.0728815 0.44421592 0
4.8530002 -2.0781865 0.4441618 0
4.8470001 -2.0834699 0.44410768 0
4.8410001 -2.0887315 0.44405359 0
4.8360004 -2.0944335 0.44400847 0
4.8300004 -2.099654 0.44395438 0
4.8240004 -2.1048524 0.44390026 0
4.8180003 -2.1100292 0.44384614 0
4.8120003 -2.1151843 0.44379202 0
4.8060002 -2.1203182 0.44373792 0
4.8000002 -2.1254301 0.4436838 0
4.7940001 -2.1305206 0.44362968 0
4.7890005 -2.1360655 0.44358459 0
4.7830005 -2.1411145 0.44353047 0
4.7770004 -2.1461415 0.44347635 0
4.7710004 -2.1511471 0.44342226 0
4.7660003 -2.1566143 0.44337714 0
4.7600002 -2.1615784 0.44332305 0
4.7540002 -2.1665208 0.44326892 0
4.7480001 -2.1714416 0.4432148 0
4.7430005 -2.1768317 0.44316971 0
4.7370005 -2.1817107 0.44311559 0
4.7310004 -2.1865685 0.44306147 0
4.7260003 -2.1919005 0.44301638 0
4.7200003 -2.1967165 0.44296226 0
4.7140002 -2.2015111 0.44290817 0
4.7090001 -2.2067854 0.44286305 0
4.7030001 -2.2115383 0.44280896 0
4.6980004 -2.2167749 0.44276386 0
4.6920004 -2.2214866 0.44270974 0
4.6870003 -2.226685 0.44266465 0
4.6810002 -2.2313552 0.44261053 0
4.6760001 -2.2365158 0.44256544 0
4.6700001 -2.2411442 0.44251132 0
4.6650004 -2.2462673 0.44246623 0
4.6590004 -2.2508545 0.44241211 0
4.6540003 -2.2559392 0.44236702 0
4.6480002 -2.2604847 0.4423129 0
4.6430001 -2.2655318 0.44226781 0
4.6370001 -2.270036 0.44221368 0
4.6320004 -2.2750454 0.44216859 0
4.6270003 -2.2800364 0.4421235 0
4.6210003 -2.2844789 0.44206938 0
4.6160002 -2.2894323 0.44202429 0
4.6100001 -2.2938337 0.44197017 0
4.6050005 -2.2987492 0.44192508 0
4.6000004 -2.3036466 0.44187999 0
4.5950003 -2.3085256 0.4418349 0
4.5890002 -2.3128459 0.44178078 0
4.5840001 -2.3176873 0.44173568 0
4.5790005 -2.3225107 0.44169059 0
4.5730004 -2.3267694 0.44163647 0
4.5680003 -2.3315549 0.44159138 0
4.5630002 -2.3363223 0.44154629 0
4.5580001 -2.3410718 0.4415012 0
4.5530005 -2.3458033 0.44145608 0
4.5470004 -2.349961 0.44140199 0
4.5420003 -2.3546546 0.4413569 0
4.5370002 -2.3593297 0.44131178 0
4.5320001 -2.3639872 0.44126669 0
4.5270004 -2.3686268 0.44122159 0
4.5220003 -2.3732481 0.4411765 0
4.5160003 -2.377285 0.44112238 0
4.5110002 -2.3818684 0.44107729 0
4.5060005 -2.3864341 0.4410322 0
4.5010004 -2.3909814 0.44098711 0
4.9140005 -2.024601 0.43656957 0
4.9080005 -2.0301025 0.4365263 0
4.9020004 -2.0355825 0.436483 0
4.8960004 -2.0410409 0.43643969 0
4.8900003 -2.0464773 0.43639642 0
4.8830004 -2.0514452 0.43634591 0
4.8770003 -2.0568368 0.4363026 0
4.8710003 -2.0622065 0.43625933 0
4.8650002 -2.067555 0.43621603 0
4.8590002 -2.0728815 0.43617272 0
4.8530002 -2.0781865 0.43612945 0
4.8470001 -2.0834699 0.43608615 0
4.8410001 -2.0887315 0.43604285 0
4.8360004 -2.0944335 0.43600678 0
4.8300004 -2.099654 0.43596351 0
4.8240004 -2.1048524 0.43592021 0
4.8180003 -2.1100292 0.43587691 0
4.8120003 -2.1151843 0.43583363 0
4.8060002 -2.1203182 0.43579033 0
4.8000002 -2.1254301 0.43574703 0
4.7940001 -2.1305206 0.43570375 0
4.7890005 -2.1360655 0.43566766 0
4.7830005 -2.1411145 0.43562439 0
4.7770004 -2.1461415 0.43558109 0
4.7710004 -2.1511471 0.43553779 0
4.7660003 -2.1566143 0.43550172 0
4.7600002 -2.1615784 0.43545842 0
4.7540002 -2.1665208 0.43541515 0
4.7480001 -2.1714416 0.43537185 0
4.7430005 -2.1768317 0.43533579 0
4.7370005 -2.1817107 0.43529248 0
4.7310004 -2.1865685 0.43524918 0
4.7260003 -2.1919005 0.43521312 0
4.7200003 -2.1967165 0.43516982 0
4.7140002 -2.2015111 0.43512654 0
4.7090001 -2.2067854 0.43509045 0
4.7030001 -2.2115383 0.43504715 0
4.6980004 -2.2167749 0.43501109 0
4.6920004 -2.2214866 0.43496779 0
4.6870003 -2.226685 0.43493173 0
4.6810002 -2.2313552 0.43488842 0
4.6760001 -2.2365158 0.43485236 0
4.6700001 -2.2411442 0.43480906 0
4.6650004 -2.2462673 0.43477297 0
4.6590004 -2.2508545 0.4347297 0
4.6540003 -2.2559392 0.4346936 0
4.6480002 -2.2604847 0.43465033 0
4.6430001 -2.2655318 0.43461424 0
4.6370001 -2.270036 0.43457097 0
4.6320004 -2.2750454 0.43453488 0
4.6270003 -2.2800364 0.43449882 0
4.6210003 -2.2844789 0.43445551 0
4.6160002 -2.2894323 0.43441942 0
4.6100001 -2.2938337 0.43437615 0
4.6050005 -2.2987492 0.43434006 0
4.6000004 -2.3036466 0.434304 0
4.5950003 -2.3085256 0.43426791 0
4.5890002 -2.3128459 0.43422464 0
4.5840001 -2.3176873 0.43418854 0
4.5790005 -2.3225107 0.43415248 0
4.5730004 -2.3267694 0.43410918 0
4.5680003 -2.3315549 0.43407309 0
4.5630002 -2.3363223 0.43403703 0
4.5580001 -2.3410718 0.43400094 0
4.5530005 -2.3458033 0.43396488 0
4.5470004 -2.349961 0.43392158 0
4.5420003 -2.3546546 0.43388551 0
4.5370002 -2.3593297 0.43384942 0
4.5320001 -2.3639872 0.43381336 0
4.5270004 -2.3686268 0.43377727 0
4.5220003 -2.3732481 0.43374121 0
4.5160003 -2.377285 0.43369791 0
4.5110002 -2.3818684 0.43366185 0
4.5060005 -2.3864341 0.43362576 0
4.5010004 -2.3909814 0.4335897 0
4.9140005 -2.024601 0.42842719 0
4.9080005 -2.0301025 0.42839471 0
4.9020004 -2.0355825 0.42836225 0
4.8960004 -2.0410409 0.42832977 0
4.8900003 -2.0464773 0.42829731 0
4.8830004 -2.0514452 0.42825943 0
4.8770003 -2.0568368 0.42822695 0
4.8710003 -2.0622065 0.42819449 0
4.8650002 -2.067555 0.42816204 0
4.8590002 -2.0728815 0.42812955 0
4.8530002 -2.0781865 0.4280971 0
4.8470001 -2.0834699 0.42806461 0
4.8410001 -2.0887315 0.42803216 0
4.8360004 -2.0944335 0.4280051 0
4.8300004 -2.099654 0.42797261 0
4.8240004 -2.1048524 0.42794016 0
4.8180003 -2.1100292 0.42790768 0
4.8120003 -2.1151843 0.42787522 0
4.8060002 -2.1203182 0.42784274 0
4.8000002 -2.1254301 0.42781028 0
4.7940001 -2.1305206 0.42777783 0
4.7890005 -2.1360655 0.42775077 0
4.7830005 -2.1411145 0.42771828 0
4.7770004 -2.1461415 0.42768583 0
4.7710004 -2.1511471 0.42765334 0
4.7660003 -2.1566143 0.42762628 0
4.7600002 -2.1615784 0.42759383 0
4.7540002 -2.1665208 0.42756134 0
4.7480001 -2.1714416 0.42752889 0
4.7430005 -2.1768317 0.42750183 0
4.7370005 -2.1817107 0.42746937 0
4.7310004 -2.1865685 0.42743689 0
4.7260003 -2.1919005 0.42740983 0
4.7200003 -2.1967165 0.42737737 0
4.7140002 -2.2015111 0.42734489 0
4.7090001 -2.2067854 0.42731786 0
4.7030001 -2.2115383 0.42728537 0
4.6980004 -2.2167749 0.42725831 0
4.6920004 -2.2214866 0.42722586 0
4.6870003 -2.226685 0.4271988 0
4.6810002 -2.2313552 0.42716631 0
4.6760001 -2.2365158 0.42713925 0
4.6700001 -2.2411442 0.4271068 0
4.6650004 -2.2462673 0.42707974 0
4.6590004 -2.2508545 0.42704728 0
4.6540003 -2.2559392 0.42702022 0
4.6480002 -2.2604847 0.42698774 0
4.6430001 -2.2655318 0.42696068 0
4.6370001 -2.270036 0.42692822 0
4.6320004 -2.2750454 0.42690116 0
4.6270003 -2.2800364 0.4268741 0
4.6210003 -2.2844789 0.42684165 0
4.6160002 -2.2894323 0.42681459 0
4.6100001 -2.2938337 0.4267821 0
4.6050005 -2.2987492 0.42675507 0
4.6000004 -2.3036466 0.42672801 0
4.5950003 -2.3085256 0.42670095 0
4.5890002 -2.3128459 0.42666847 0
4.5840001 -2.3176873 0.4266414 0
4.5790005 -2.3225107 0.42661434 0
4.5730004 -2.3267694 0.42658189 0
4.5680003 -2.3315549 0.42655483 0
4.5630002 -2.3363223 0.42652777 0
4.5580001 -2.3410718 0.42650071 0
4.5530005 -2.3458033 0.42647368 0
4.5470004 -2.349961 0.42644119 0
4.5420003 -2.3546546 0.42641413 0
4.5370002 -2.3593297 0.42638707 0
4.5320001 -2.3639872 0.42636001 0
4.5270004 -2.3686268 0.42633295 0
4.5220003 -2.3732481 0.42630592 0
4.5160003 -2.377285 0.42627344 0
4.5110002 -2.3818684 0.42624637 0
4.5060005 -2.3864341 0.42621931 0
4.5010004 -2.3909814 0.42619228 0
4.9140005 -2.024601 0.42028481 0
4.9080005 -2.0301025 0.42026314 0
4.9020004 -2.0355825 0.4202415 0
4.8960004 -2.0410409 0.42021987 0
4.8900003 -2.0464773 0.4201982 0
4.8830004 -2.0514452 0.42017296 0
4.8770003 -2.0568368 0.42015132 0
4.8710003 -2.0622065 0.42012966 0
4.8650002 -2.067555 0.42010802 0
4.8590002 -2.0728815 0.42008638 0
4.8530002 -2.0781865 0.42006472 0
4.8470001 -2.0834699 0.42004308 0
4.8410001 -2.0887315 0.42002144 0
4.8360004 -2.0944335 0.42000341 0
4.8300004 -2.099654 0.41998175 0
4.8240004 -2.1048524 0.41996011 0
4.8180003 -2.1100292 0.41993847 0
4.8120003 -2.1151843 0.41991681 0
4.8060002 -2.1203182 0.41989517 0
4.8000002 -2.1254301 0.41987354 0
4.7940001 -2.1305206 0.41985187 0
4.7890005 -2.1360655 0.41983384 0
4.7830005 -2.1411145 0.4198122 0
4.7770004 -2.1461415 0.41979057 0
4.7710004 -2.1511471 0.4197689 0
4.7660003 -2.1566143 0.41975087 0
4.7600002 -2.1615784 0.41972923 0
4.7540002 -2.1665208 0.41970757 0
4.7480001 -2.1714416 0.41968593 0
4.7430005 -2.1768317 0.4196679 0
4.7370005 -2.1817107 0.41964623 0
4.7310004 -2.1865685 0.4196246 0
4.7260003 -2.1919005 0.41960657 0
4.7200003 -2.1967165 0.41958493 0
4.7140002 -2.2015111 0.41956326 0
4.7090001 -2.2067854 0.41954523 0
4.7030001 -2.2115383 0.4195236 0
4.6980004 -2.2167749 0.41950554 0
4.6920004 -2.2214866 0.4194839 0
4.6870003 -2.226685 0.41946587 0
4.6810002 -2.2313552 0.41944423 0
4.6760001 -2.2365158 0.41942617 0
4.6700001 -2.2411442 0.41940454 0
4.6650004 -2.2462673 0.41938651 0
4.6590004 -2.2508545 0.41936484 0
4.6540003 -2.2559392 0.41934681 0
4.6480002 -2.2604847 0.41932517 0
4.6430001 -2.2655318 0.41930714 0
4.6370001 -2.270036 0.41928548 0
4.6320004 -2.2750454 0.41926745 0
4.6270003 -2.2800364 0.41924942 0
4.6210003 -2.2844789 0.41922775 0
4.6160002 -2.2894323 0.41920972 0
4.6100001 -2.2938337 0.41918808 0
4.6050005 -2.2987492 0.41917005 0
4.6000004 -2.3036466 0.41915199 0
4.5950003 -2.3085256 0.41913396 0
4.5890002 -2.3128459 0.41911232 0
4.5840001 -2.3176873 0.41909429 0
4.5790005 -2.3225107 0.41907623 0
4.5730004 -2.3267694 0.4190546 0
4.5680003 -2.3315549 0.41903657 0
4.5630002 -2.3363223 0.41901851 0
4.5580001 -2.3410718 0.41900048 0
4.5530005 -2.3458033 0.41898245 0
4.5470004 -2.349961 0.41896081 0
4.5420003 -2.3546546 0.41894275 0
4.5370002 -2.3593297 0.41892472 0
4.5320001 -2.3639872 0.41890669 0
4.5270004 -2.3686268 0.41888866 0
4.5220003 -2.3732481 0.4188706 0
4.5160003 -2.377285 0.41884896 0
4.5110002 -2.3818684 0.41883093 0
4.5060005 -2.3864341 0.4188129 0
4.5010004 -2.3909814 0.41879484 0
4.9140005 -2.024601 0.4121424 0
4.9080005 -2.0301025 0.41213158 0
4.9020004 -2.0355825 0.41212076 0
4.8960004 -2.0410409 0.41210994 0
4.8900003 -2.0464773 0.41209912 0
4.8830004 -2.0514452 0.41208649 0
4.8770003 -2.0568368 0.41207567 0
4.8710003 -2.0622065 0.41206485 0
4.8650002 -2.067555 0.41205403 0
4.8590002 -2.0728815 0.41204318 0
4.8530002 -2.0781865 0.41203237 0
4.8470001 -2.0834699 0.41202155 0
4.8410001 -2.0887315 0.41201073 0
4.8360004 -2.0944335 0.4120017 0
4.8300004 -2.099654 0.41199088 0
4.8240004 -2.1048524 0.41198006 0
4.8180003 -2.1100292 0.41196924 0
4.8120003 -2.1151843 0.41195843 0
4.8060002 -2.1203182 0.41194761 0
4.8000002 -2.1254301 0.41193676 0
4.7940001 -2.1305206 0.41192594 0
4.7890005 -2.1360655 0.41191694 0
4.7830005 -2.1411145 0.41190609 0
4.7770004 -2.1461415 0.41189528 0
4.7710004 -2.1511471 0.41188446 0
4.7660003 -2.1566143 0.41187543 0
4.7600002 -2.1615784 0.41186461 0
4.7540002 -2.1665208 0.41185379 0
4.7480001 -2.1714416 0.41184297 0
4.7430005 -2.1768317 0.41183394 0
4.7370005 -2.1817107 0.41182312 0
4.7310004 -2.1865685 0.41181231 0
4.7260003 -2.1919005 0.41180328 0
4.7200003 -2.1967165 0.41179246 0
4.7140002 -2.2015111 0.41178164 0
4.7090001 -2.2067854 0.41177261 0
4.7030001 -2.2115383 0.41176179 0
4.6980004 -2.2167749 0.41175279 0
4.6920004 -2.2214866 0.41174197 0
4.6870003 -2.226685 0.41173294 0
4.6810002 -2.2313552 0.41172212 0
4.6760001 -2.2365158 0.41171309 0
4.6700001 -2.2411442 0.41170228 0
4.6650004 -2.2462673 0.41169325 0
4.6590004 -2.2508545 0.41168243 0
4.6540003 -2.2559392 0.41167343 0
4.6480002 -2.2604847 0.41166258 0
4.6430001 -2.2655318 0.41165358 0
4.6370001 -2.270036 0.41164276 0
4.6320004 -2.2750454 0.41163373 0
4.6270003 -2.2800364 0.4116247 0
4.6210003 -2.2844789 0.41161388 0
4.6160002 -2.2894323 0.41160488 0
4.6100001 -2.2938337 0.41159403 0
4.6050005 -2.2987492 0.41158503 0
4.6000004 -2.3036466 0.411576 0
4.5950003 -2.3085256 0.411567 0
4.5890002 -2.3128459 0.41155615 0
4.5840001 -2.3176873 0.41154715 0
4.5790005 -2.3225107 0.41153812 0
4.5730004 -2.3267694 0.41152731 0
4.5680003 -2.3315549 0.41151828 0
4.5630002 -2.3363223 0.41150928 0
4.5580001 -2.3410718 0.41150025 0
4.5530005 -2.3458033 0.41149122 0
4.5470004 -2.349961 0.4114804 0
4.5420003 -2.3546546 0.4114714 0
4.5370002 -2.3593297 0.41146237 0
4.5320001 -2.3639872 0.41145334 0
4.5270004 -2.3686268 0.41144434 0
4.5220003 -2.3732481 0.41143531 0
4.5160003 -2.377285 0.41142449 0
4.5110002 -2.3818684 0.41141546 0
4.5060005 -2.3864341 0.41140646 0
4.5010004 -2.3909814 0.41139743 0
4.9140005 -2.024601 0.40400001 0
4.9080005 -2.0301025 0.40400001 0
4.9020004 -2.0355825 0.40400001 0
4.8960004 -2.0410409 0.40400001 0
4.8900003 -2.0464773 0.40400001 0
4.8830004 -2.0514452 0.40400001 0
4.8770003 -2.0568368 0.40400001 0
4.8710003 -2.0622065 0.40400001 0
4.8650002 -2.067555 0.40400001 0
4.8590002 -2.0728815 0.40400001 0
4.8530002 -2.0781865 0.40400001 0
4.8470001 -2.0834699 0.40400001 0
4.8410001 -2.0887315 0.40400001 0
4.8360004 -2.0944335 0.40400001 0
4.8300004 -2.099654 0.40400001 0
4.8240004 -2.1048524 0.40400001 0
4.8180003 -2.1100292 0.40400001 0
4.8120003 -2.1151843 0.40400001 0
4.8060002 -2.1203182 0.40400001 0
4.8000002 -2.1254301 0.40400001 0
4.7940001 -2.1305206 0.40400001 0
4.7890005 -2.1360655 0.40400001 0
4.7830005 -2.1411145 0.40400001 0
4.7770004 -2.1461415 0.40400001 0
4.7710004 -2.1511471 0.40400001 0
4.7660003 -2.1566143 0.40400001 0
4.7600002 -2.1615784 0.40400001 0
4.7540002 -2.1665208 0.40400001 0
4.7480001 -2.1714416 0.40400001 0
4.7430005 -2.1768317 0.40400001 0
4.7370005 -2.1817107 0.40400001 0
4.7310004 -2.1865685 0.40400001 0
4.7260003 -2.1919005 0.40400001 0
4.7200003 -2.1967165 0.40400001 0
4.7140002 -2.2015111 0.40400001 0
4.7090001 -2.2067854 0.40400001 0
4.7030001 -2.2115383 0.40400001 0
4.6980004 -2.2167749 0.40400001 0
4.6920004 -2.2214866 0.40400001 0
4.6870003 -2.226685 0.40400001 0
4.6810002 -2.2313552 0.40400001 0
4.6760001 -2.2365158 0.40400001 0
4.6700001 -2.2411442 0.40400001 0
4.6650004 -2.2462673 0.40400001 0
4.6590004 -2.2508545 0.40400001 0
4.6540003 -2.2559392 0.40400001 0
4.6480002 -2.2604847 0.40400001 0
4.6430001 -2.2655318 0.40400001 0
4.6370001 -2.270036 0.40400001 0
4.6320004 -2.2750454 0.40400001 0
4.6270003 -2.2800364 0.40400001 0
4.6210003 -2.2844789 0.40400001 0
4.6160002 -2.2894323 0.40400001 0
4.6100001 -2.2938337 0.40400001 0
4.6050005 -2.2987492 0.40400001 0
4.6000004 -2.3036466 0.40400001 0
4.5950003 -2.3085256 0.40400001 0
4.5890002 -2.3128459 0.40400001 0
4.5840001 -2.3176873 0.40400001 0
4.5790005 -2.3225107 0.40400001 0
4.5730004 -2.3267694 0.40400001 0
4.5680003 -2.3315549 0.40400001 0
4.5630002 -2.3363223 0.40400001 0
4.5580001 -2.3410718 0.40400001 0
4.5530005 -2.3458033 0.40400001 0
4.5470004 -2.349961 0.40400001 0
4.5420003 -2.3546546 0.40400001 0
4.5370002 -2.3593297 0.40400001 0
4.5320001 -2.3639872 0.40400001 0
4.5270004 -2.3686268 0.40400001 0
4.5220003 -2.3732481 0.40400001 0
4.5160003 -2.377285 0.40400001 0
4.5110002 -2.3818684 0.40400001 0
4.5060005 -2.3864341 0.40400001 0
4.5010004 -2.3909814 0.40400001 0
4.9140005 -2.024601 0.39585763 0
4.9080005 -2.0301025 0.39586845 0
4.9020004 -2.0355825 0.39587927 0
4.8960004 -2.0410409 0.39589009 0
4.8900003 -2.0464773 0.39590091 0
4.8830004 -2.0514452 0.39591354 0
4.8770003 -2.0568368 0.39592436 0
4.8710003 -2.0622065 0.39593518 0
4.8650002 -2.067555 0.395946 0
4.8590002 -2.0728815 0.39595684 0
4.8530002 -2.0781865 0.39596766 0
4.8470001 -2.0834699 0.39597848 0
4.8410001 -2.0887315 0.3959893 0
4.8360004 -2.0944335 0.39599833 0
4.8300004 -2.099654 0.39600915 0
4.8240004 -2.1048524 0.39601997 0
4.8180003 -2.1100292 0.39603078 0
4.8120003 -2.1151843 0.3960416 0
4.8060002 -2.1203182 0.39605242 0
4.8000002 -2.1254301 0.39606327 0
4.7940001 -2.1305206 0.39607409 0
4.7890005 -2.1360655 0.39608309 0
4.7830005 -2.1411145 0.39609393 0
4.7770004 -2.1461415 0.39610475 0
4.7710004 -2.1511471 0.39611557 0
4.7660003 -2.1566143 0.3961246 0
4.7600002 -2.1615784 0.39613542 0
4.7540002 -2.1665208 0.39614624 0
4.7480001 -2.1714416 0.39615706 0
4.7430005 -2.1768317 0.39616609 0
4.7370005 -2.1817107 0.3961769 0
4.7310004 -2.1865685 0.39618772 0
4.7260003 -2.1919005 0.39619675 0
4.7200003 -2.1967165 0.39620757 0
4.7140002 -2.2015111 0.39621839 0
4.7090001 -2.2067854 0.39622742 0
4.7030001 -2.2115383 0.39623824 0
4.6980004 -2.2167749 0.39624724 0
4.6920004 -2.2214866 0.39625806 0
4.6870003 -2.226685 0.39626709 0
4.6810002 -2.2313552 0.3962779 0
4.6760001 -2.2365158 0.39628693 0
4.6700001 -2.2411442 0.39629775 0
4.6650004 -2.2462673 0.39630678 0
4.6590004 -2.2508545 0.3963176 0
4.6540003 -2.2559392 0.3963266 0
4.6480002 -2.2604847 0.39633745 0
4.6430001 -2.2655318 0.39634645 0
4.6370001 -2.270036 0.39635727 0
4.6320004 -2.2750454 0.3963663 0
4.6270003 -2.2800364 0.39637533 0
4.6210003 -2.2844789 0.39638615 0
4.6160002 -2.2894323 0.39639515 0
4.6100001 -2.2938337 0.39640599 0
4.6050005 -2.2987492 0.396415 0
4.6000004 -2.3036466 0.39642403 0
4.5950003 -2.3085256 0.39643303 0
4.5890002 -2.3128459 0.39644387 0
4.5840001 -2.3176873 0.39645287 0
4.5790005 -2.3225107 0.3964619 0
4.5730004 -2.3267694 0.39647272 0
4.5680003 -2.3315549 0.39648175 0
4.5630002 -2.3363223 0.39649075 0
4.5580001 -2.3410718 0.39649978 0
4.5530005 -2.3458033 0.39650881 0
4.5470004 -2.349961 0.39651963 0
4.5420003 -2.3546546 0.39652863 0
4.5370002 -2.3593297 0.39653766 0
4.5320001 -2.3639872 0.39654669 0
4.5270004 -2.3686268 0.39655569 0
4.5220003 -2.3732481 0.39656472 0
4.5160003 -2.377285 0.39657554 0
4.5110002 -2.3818684 0.39658457 0
4.5060005 -2.3864341 0.39659357 0
4.5010004 -2.3909814 0.3966026 0
4.9140005 -2.024601 0.38771522 0
4.9080005 -2.0301025 0.38773689 0
4.9020004 -2.0355825 0.38775852 0
4.8960004 -2.0410409 0.38778016 0
4.8900003 -2.0464773 0.38780183 0
4.8830004 -2.0514452 0.38782707 0
4.8770003 -2.0568368 0.38784871 0
4.8710003 -2.0622065 0.38787037 0
4.8650002 -2.067555 0.38789201 0
4.8590002 -2.0728815 0.38791364 0
4.8530002 -2.0781865 0.38793531 0
4.8470001 -2.0834699 0.38795695 0
4.8410001 -2.0887315 0.38797858 0
4.8360004 -2.0944335 0.38799661 0
4.8300004 -2.099654 0.38801828 0
4.8240004 -2.1048524 0.38803992 0
4.8180003 -2.1100292 0.38806155 0
4.8120003 -2.1151843 0.38808322 0
4.8060002 -2.1203182 0.38810486 0
4.8000002 -2.1254301 0.38812649 0
4.7940001 -2.1305206 0.38814816 0
4.7890005 -2.1360655 0.38816619 0
4.7830005 -2.1411145 0.38818783 0
4.7770004 -2.1461415 0.38820946 0
4.7710004 -2.1511471 0.38823113 0
4.7660003 -2.1566143 0.38824916 0
4.7600002 -2.1615784 0.3882708 0
4.7540002 -2.1665208 0.38829246 0
4.7480001 -2.1714416 0.3883141 0
4.7430005 -2.1768317 0.38833213 0
4.7370005 -2.1817107 0.38835379 0
4.7310004 -2.1865685 0.38837543 0
4.7260003 -2.1919005 0.38839346 0
4.7200003 -2.1967165 0.3884151 0
4.7140002 -2.2015111 0.38843676 0
4.7090001 -2.2067854 0.38845479 0
4.7030001 -2.2115383 0.38847643 0
4.6980004 -2.2167749 0.38849449 0
4.6920004 -2.2214866 0.38851613 0
4.6870003 -2.226685 0.38853416 0
4.6810002 -2.2313552 0.38855579 0
4.6760001 -2.2365158 0.38857386 0
4.6700001 -2.2411442 0.38859549 0
4.6650004 -2.2462673 0.38861352 0
4.6590004 -2.2508545 0.38863519 0
4.6540003 -2.2559392 0.38865322 0
4.6480002 -2.2604847 0.38867486 0
4.6430001 -2.2655318 0.38869289 0
4.6370001 -2.270036 0.38871455 0
4.6320004 -2.2750454 0.38873258 0
4.6270003 -2.2800364 0.38875061 0
4.6210003 -2.2844789 0.38877228 0
4.6160002 -2.2894323 0.38879031 0
4.6100001 -2.2938337 0.38881195 0
4.6050005 -2.2987492 0.38882998 0
4.6000004 -2.3036466 0.38884804 0
4.5950003 -2.3085256 0.38886607 0
4.5890002 -2.3128459 0.3888877 0
4.5840001 -2.3176873 0.38890573 0
4.5790005 -2.3225107 0.38892379 0
4.5730004 -2.3267694 0.38894543 0
4.5680003 -2.3315549 0.38896346 0
4.5630002 -2.3363223 0.38898152 0
4.5580001 -2.3410718 0.38899955 0
4.5530005 -2.3458033 0.38901758 0
4.5470004 -2.349961 0.38903922 0
4.5420003 -2.3546546 0.38905728 0
4.5370002 -2.3593297 0.38907531 0
4.5320001 -2.3639872 0.38909334 0
4.5270004 -2.3686268 0.38911137 0
4.5220003 -2.3732481 0.38912943 0
4.5160003 -2.377285 0.38915107 0
4.5110002 -2.3818684 0.3891691 0
4.5060005 -2.3864341 0.38918713 0
4.5010004 -2.3909814 0.38920519 0
4.9140005 -2.024601 0.37957284 0
4.9080005 -2.0301025 0.37960532 0
4.9020004 -2.0355825 0.37963778 0
4.8960004 -2.0410409 0.37967026 0
4.8900003 -2.0464773 0.37970272 0
4.8830004 -2.0514452 0.3797406 0
4.8770003 -2.0568368 0.37977308 0
4.8710003 -2.0622065 0.37980554 0
4.8650002 -2.067555 0.37983799 0
4.8590002 -2.0728815 0.37987047 0
4.8530002 -2.0781865 0.37990293 0
4.8470001 -2.0834699 0.37993541 0
4.8410001 -2.0887315 0.37996787 0
4.8360004 -2.0944335 0.37999493 0
4.8300004 -2.099654 0.38002741 0
4.8240004 -2.1048524 0.38005987 0
4.8180003 -2.1100292 0.38009235 0
4.8120003 -2.1151843 0.38012481 0
4.8060002 -2.1203182 0.38015729 0
4.8000002 -2.1254301 0.38018975 0
4.7940001 -2.1305206 0.3802222 0
4.7890005 -2.1360655 0.38024926 0
4.7830005 -2.1411145 0.38028175 0
4.7770004 -2.1461415 0.3803142 0
4.7710004 -2.1511471 0.38034669 0
4.7660003 -2.1566143 0.38037375 0
4.7600002 -2.1615784 0.3804062 0
4.7540002 -2.1665208 0.38043869 0
4.7480001 -2.1714416 0.38047114 0
4.7430005 -2.1768317 0.3804982 0
4.7370005 -2.1817107 0.38053066 0
4.7310004 -2.1865685 0.38056314 0
4.7260003 -2.1919005 0.3805902 0
4.7200003 -2.1967165 0.38062266 0
4.7140002 -2.2015111 0.38065514 0
4.7090001 -2.2067854 0.38068217 0
4.7030001 -2.2115383 0.38071465 0
4.6980004 -2.2167749 0.38074172 0
4.6920004 -2.2214866 0.38077417 0
4.6870003 -2.226685 0.38080123 0
4.6810002 -2.2313552 0.38083372 0
4.6760001 -2.2365158 0.38086078 0
4.6700001 -2.2411442 0.38089323 0
4.6650004 -2.2462673 0.38092029 0
4.6590004 -2.2508545 0.38095275 0
4.6540003 -2.2559392 0.38097981 0
4.6480002 -2.2604847 0.38101229 0
4.6430001 -2.2655318 0.38103935 0
4.6370001 -2.270036 0.38107181 0
4.6320004 -2.2750454 0.38109887 0
4.6270003 -2.2800364 0.38112593 0
4.6210003 -2.2844789 0.38115838 0
4.6160002 -2.2894323 0.38118544 0
4.6100001 -2.2938337 0.38121793 0
4.6050005 -2.2987492 0.38124496 0
4.6000004 -2.3036466 0.38127202 0
4.5950003 -2.3085256 0.38129908 0
4.5890002 -2.3128459 0.38133156 0
4.5840001 -2.3176873 0.38135862 0
4.5790005 -2.3225107 0.38138568 0
4.5730004 -2.3267694 0.38141814 0
4.5680003 -2.3315549 0.3814452 0
4.5630002 -2.3363223 0.38147226 0
4.5580001 -2.3410718 0.38149932 0
4.5530005 -2.3458033 0.38152635 0
4.5470004 -2.349961 0.38155884 0
4.5420003 -2.3546546 0.3815859 0
4.5370002 -2.3593297 0.38161296 0
4.5320001 -2.3639872 0.38164002 0
4.5270004 -2.3686268 0.38166708 0
4.5220003 -2.3732481 0.38169411 0
4.5160003 -2.377285 0.38172659 0
4.5110002 -2.3818684 0.38175365 0
4.5060005 -2.3864341 0.38178071 0
4.5010004 -2.3909814 0.38180774 0
4.9140005 -2.024601 0.37143046 0
4.9080005 -2.0301025 0.37147373 0
4.9020004 -2.0355825 0.37151703 0
4.8960004 -2.0410409 0.37156034 0
4.8900003 -2.0464773 0.37160361 0
4.8830004 -2.0514452 0.37165412 0
4.8770003 -2.0568368 0.37169743 0
4.8710003 -2.0622065 0.3717407 0
4.8650002 -2.067555 0.371784 0
4.8590002 -2.0728815 0.3718273 0
4.8530002 -2.0781865 0.37187058 0
4.8470001 -2.0834699 0.37191388 0
4.8410001 -2.0887315 0.37195718 0
4.8360004 -2.0944335 0.37199324 0
4.8300004 -2.099654 0.37203652 0
4.8240004 -2.1048524 0.37207982 0
4.8180003 -2.1100292 0.37212312 0
4.8120003 -2.1151843 0.3721664 0
4.8060002 -2.1203182 0.3722097 0
4.8000002 -2.1254301 0.372253 0
4.7940001 -2.1305206 0.37229627 0
4.7890005 -2.1360655 0.37233236 0
4.7830005 -2.1411145 0.37237564 0
4.7770004 -2.1461415 0.37241894 0
4.7710004 -2.1511471 0.37246224 0
4.7660003 -2.1566143 0.3724983 0
4.7600002 -2.1615784 0.37254161 0
4.7540002 -2.1665208 0.37258488 0
4.7480001 -2.1714416 0.37262818 0
4.7430005 -2.1768317 0.37266424 0
4.7370005 -2.1817107 0.37270755 0
4.7310004 -2.1865685 0.37275085 0
4.7260003 -2.1919005 0.37278691 0
4.7200003 -2.1967165 0.37283021 0
4.7140002 -2.2015111 0.37287349 0
4.7090001 -2.2067854 0.37290958 0
4.7030001 -2.2115383 0.37295288 0
4.6980004 -2.2167749 0.37298894 0
4.6920004 -2.2214866 0.37303224 0
4.6870003 -2.226685 0.3730683 0
4.6810002 -2.2313552 0.37311161 0
4.6760001 -2.2365158 0.37314767 0
4.6700001 -2.2411442 0.37319097 0
4.6650004 -2.2462673 0.37322706 0
4.6590004 -2.2508545 0.37327033 0
4.6540003 -2.2559392 0.37330642 0
4.6480002 -2.2604847 0.3733497 0
4.6430001 -2.2655318 0.37338579 0
4.6370001 -2.270036 0.37342906 0
4.6320004 -2.2750454 0.37346515 0
4.6270003 -2.2800364 0.37350121 0
4.6210003 -2.2844789 0.37354451 0
4.6160002 -2.2894323 0.3735806 0
4.6100001 -2.2938337 0.37362388 0
4.6050005 -2.2987492 0.37365997 0
4.6000004 -2.3036466 0.37369603 0
4.5950003 -2.3085256 0.37373212 0
4.5890002 -2.3128459 0.37377539 0
4.5840001 -2.3176873 0.37381148 0
4.5790005 -2.3225107 0.37384754 0
4.5730004 -2.3267694 0.37389085 0
4.5680003 -2.3315549 0.37392694 0
4.5630002 -2.3363223 0.373963 0
4.5580001 -2.3410718 0.37399909 0
4.5530005 -2.3458033 0.37403515 0
4.5470004 -2.349961 0.37407845 0
4.5420003 -2.3546546 0.37411451 0
4.5370002 -2.3593297 0.3741506 0
4.5320001 -2.3639872 0.37418666 0
4.5270004 -2.3686268 0.37422276 0
4.5220003 -2.3732481 0.37425882 0
4.5160003 -2.377285 0.37430212 0
4.5110002 -2.3818684 0.37433818 0
4.5060005 -2.3864341 0.37437427 0
4.5010004 -2.3909814 0.37441033 0
4.9140005 -2.024601 0.36328804 0
4.9080005 -2.0301025 0.36334217 0
4.9020004 -2.0355825 0.36339629 0
4.8960004 -2.0410409 0.36345041 0
4.8900003 -2.0464773 0.36350453 0
4.8830004 -2.0514452 0.36356765 0
4.8770003 -2.0568368 0.36362177 0
4.8710003 -2.0622065 0.36367589 0
4.8650002 -2.067555 0.36372998 0
4.8590002 -2.0728815 0.3637841 0
4.8530002 -2.0781865 0.36383823 0
4.8470001 -2.0834699 0.36389235 0
4.8410001 -2.0887315 0.36394644 0
4.8360004 -2.0944335 0.36399156 0
4.8300004 -2.099654 0.36404565 0
4.8240004 -2.1048524 0.36409977 0
4.8180003 -2.1100292 0.36415389 0
4.8120003 -2.1151843 0.36420801 0
4.8060002 -2.1203182 0.3642621 0
4.8000002 -2.1254301 0.36431623 0
4.7940001 -2.1305206 0.36437035 0
4.7890005 -2.1360655 0.36441544 0
4.7830005 -2.1411145 0.36446956 0
4.7770004 -2.1461415 0.36452368 0
4.7710004 -2.1511471 0.36457777 0
4.7660003 -2.1566143 0.36462289 0
4.7600002 -2.1615784 0.36467698 0
4.7540002 -2.1665208 0.3647311 0
4.7480001 -2.1714416 0.36478522 0
4.7430005 -2.1768317 0.36483032 0
4.7370005 -2.1817107 0.36488444 0
4.7310004 -2.1865685 0.36493856 0
4.7260003 -2.1919005 0.36498365 0
4.7200003 -2.1967165 0.36503777 0
4.7140002 -2.2015111 0.36509186 0
4.7090001 -2.2067854 0.36513698 0
4.7030001 -2.2115383 0.36519107 0
4.6980004 -2.2167749 0.36523616 0
4.6920004 -2.2214866 0.36529028 0
4.6870003 -2.226685 0.36533538 0
4.6810002 -2.2313552 0.3653895 0
4.6760001 -2.2365158 0.36543459 0
4.6700001 -2.2411442 0.36548871 0
4.6650004 -2.2462673 0.3655338 0
4.6590004 -2.2508545 0.36558792 0
4.6540003 -2.2559392 0.36563301 0
4.6480002 -2.2604847 0.36568713 0
4.6430001 -2.2655318 0.36573222 0
4.6370001 -2.270036 0.36578634 0
4.6320004 -2.2750454 0.36583143 0
4.6270003 -2.2800364 0.36587653 0
4.6210003 -2.2844789 0.36593065 0
4.6160002 -2.2894323 0.36597574 0
4.6100001 -2.2938337 0.36602986 0
4.6050005 -2.2987492 0.36607495 0
4.6000004 -2.3036466 0.36612004 0
4.5950003 -2.3085256 0.36616513 0
4.5890002 -2.3128459 0.36621925 0
4.5840001 -2.3176873 0.36626434 0
4.5790005 -2.3225107 0.36630943 0
4.5730004 -2.3267694 0.36636356 0
4.5680003 -2.3315549 0.36640865 0
4.5630002 -2.3363223 0.36645374 0
4.5580001 -2.3410718 0.36649883 0
4.5530005 -2.3458033 0.36654395 0
4.5470004 -2.349961 0.36659804 0
4.5420003 -2.3546546 0.36664313 0
4.5370002 -2.3593297 0.36668825 0
4.5320001 -2.3639872 0.36673334 0
4.5270004 -2.3686268 0.36677843 0
4.5220003 -2.3732481 0.36682352 0
4.5160003 -2.377285 0.36687765 0
4.5110002 -2.3818684 0.36692274 0
4.5060005 -2.3864341 0.36696783 0
4.5010004 -2.3909814 0.36701292 0
4.9140005 -2.024601 0.35514566 0
4.9080005 -2.0301025 0.3552106 0
4.9020004 -2.0355825 0.35527554 0
4.8960004 -2.0410409 0.35534048 0
4.8900003 -2.0464773 0.35540542 0
4.8830004 -2.0514452 0.35548118 0
4.8770003 -2.0568368 0.35554612 0
4.8710003 -2.0622065 0.35561106 0
4.8650002 -2.067555 0.355676 0
4.8590002 -2.0728815 0.35574093 0
4.8530002 -2.0781865 0.35580587 0
4.8470001 -2.0834699 0.35587081 0
4.8410001 -2.0887315 0.35593575 0
4.8360004 -2.0944335 0.35598984 0
4.8300004 -2.099654 0.35605478 0
4.8240004 -2.1048524 0.35611972 0
4.8180003 -2.1100292 0.35618466 0
4.8120003 -2.1151843 0.3562496 0
4.8060002 -2.1203182 0.35631454 0
4.8000002 -2.1254301 0.35637948 0
4.7940001 -2.1305206 0.35644442 0
4.7890005 -2.1360655 0.35649854 0
4.7830005 -2.1411145 0.35656345 0
4.7770004 -2.1461415 0.35662842 0
4.7710004 -2.1511471 0.35669333 0
4.7660003 -2.1566143 0.35674745 0
4.7600002 -2.1615784 0.35681239 0
4.7540002 -2.1665208 0.35687733 0
4.7480001 -2.1714416 0.35694227 0
4.7430005 -2.1768317 0.35699639 0
4.7370005 -2.1817107 0.35706133 0
4.7310004 -2.1865685 0.35712624 0
4.7260003 -2.1919005 0.35718036 0
4.7200003 -2.1967165 0.3572453 0
4.7140002 -2.2015111 0.35731024 0
4.7090001 -2.2067854 0.35736436 0
4.7030001 -2.2115383 0.3574293 0
4.6980004 -2.2167749 0.35748342 0
4.6920004 -2.2214866 0.35754836 0
4.6870003 -2.226685 0.35760248 0
4.6810002 -2.2313552 0.35766739 0
4.6760001 -2.2365158 0.35772151 0
4.6700001 -2.2411442 0.35778645 0
4.6650004 -2.2462673 0.35784057 0
4.6590004 -2.2508545 0.35790551 0
4.6540003 -2.2559392 0.3579596 0
4.6480002 -2.2604847 0.35802454 0
4.6430001 -2.2655318 0.35807866 0
4.6370001 -2.270036 0.3581436 0
4.6320004 -2.2750454 0.35819772 0
4.6270003 -2.2800364 0.35825184 0
4.6210003 -2.2844789 0.35831678 0
4.6160002 -2.2894323 0.35837087 0
4.6100001 -2.2938337 0.35843581 0
4.6050005 -2.2987492 0.35848993 0
4.6000004 -2.3036466 0.35854405 0
4.5950003 -2.3085256 0.35859817 0
4.5890002 -2.3128459 0.35866308 0
4.5840001 -2.3176873 0.3587172 0
4.5790005 -2.3225107 0.35877132 0
4.5730004 -2.3267694 0.35883626 0
4.5680003 -2.3315549 0.35889038 0
4.5630002 -2.3363223 0.35894451 0
4.5580001 -2.3410718 0.3589986 0
4.5530005 -2.3458033 0.35905272 0
4.5470004 -2.349961 0.35911766 0
4.5420003 -2.3546546 0.35917178 0
4.5370002 -2.3593297 0.3592259 0
4.5320001 -2.3639872 0.35927999 0
4.5270004 -2.3686268 0.35933411 0
4.5220003 -2.3732481 0.35938823 0
4.5160003 -2.377285 0.35945317 0
4.5110002 -2.3818684 0.35950729 0
4.5060005 -2.3864341 0.35956138 0
4.5010004 -2.3909814 0.3596155 0
4.9140005 -2.024601 0.34700328 0
4.9080005 -2.0301025 0.34707904 0
4.9020004 -2.0355825 0.3471548 0
4.8960004 -2.0410409 0.34723055 0
4.8900003 -2.0464773 0.34730631 0
4.8830004 -2.0514452 0.3473947 0
4.8770003 -2.0568368 0.34747046 0
4.8710003 -2.0622065 0.34754622 0
4.8650002 -2.067555 0.34762198 0
4.8590002 -2.0728815 0.34769773 0
4.8530002 -2.0781865 0.34777349 0
4.8470001 -2.0834699 0.34784928 0
4.8410001 -2.0887315 0.34792504 0
4.8360004 -2.0944335 0.34798816 0
4.8300004 -2.099654 0.34806392 0
4.8240004 -2.1048524 0.34813967 0
4.8180003 -2.1100292 0.34821543 0
4.8120003 -2.1151843 0.34829122 0
4.8060002 -2.1203182 0.34836698 0
4.8000002 -2.1254301 0.34844273 0
4.7940001 -2.1305206 0.34851849 0
4.7890005 -2.1360655 0.34858161 0
4.7830005 -2.1411145 0.34865737 0
4.7770004 -2.1461415 0.34873313 0
4.7710004 -2.1511471 0.34880888 0
4.7660003 -2.1566143 0.34887204 0
4.7600002 -2.1615784 0.34894779 0
4.7540002 -2.1665208 0.34902355 0
4.7480001 -2.1714416 0.34909931 0
4.7430005 -2.1768317 0.34916243 0
4.7370005 -2.1817107 0.34923819 0
4.7310004 -2.1865685 0.34931397 0
4.7260003 -2.1919005 0.3493771 0
4.7200003 -2.1967165 0.34945285 0
4.7140002 -2.2015111 0.34952861 0
4.7090001 -2.2067854 0.34959173 0
4.7030001 -2.2115383 0.34966752 0
4.6980004 -2.2167749 0.34973064 0
4.6920004 -2.2214866 0.3498064 0
4.6870003 -2.226685 0.34986955 0
4.6810002 -2.2313552 0.34994531 0
4.6760001 -2.2365158 0.35000843 0
4.6700001 -2.2411442 0.35008419 0
4.6650004 -2.2462673 0.35014731 0
4.6590004 -2.2508545 0.35022306 0
4.6540003 -2.2559392 0.35028622 0
4.6480002 -2.2604847 0.35036197 0
4.6430001 -2.2655318 0.35042512 0
4.6370001 -2.270036 0.35050088 0
4.6320004 -2.2750454 0.350564 0
4.6270003 -2.2800364 0.35062712 0
4.6210003 -2.2844789 0.35070288 0
4.6160002 -2.2894323 0.35076603 0
4.6100001 -2.2938337 0.35084179 0
4.6050005 -2.2987492 0.35090491 0
4.6000004 -2.3036466 0.35096806 0
4.5950003 -2.3085256 0.35103118 0
4.5890002 -2.3128459 0.35110694 0
4.5840001 -2.3176873 0.35117009 0
4.5790005 -2.3225107 0.35123321 0
4.5730004 -2.3267694 0.35130897 0
4.5680003 -2.3315549 0.35137209 0
4.5630002 -2.3363223 0.35143524 0
4.5580001 -2.3410718 0.35149837 0
4.5530005 -2.3458033 0.35156149 0
4.5470004 -2.349961 0.35163727 0
4.5420003 -2.3546546 0.3517004 0
4.5370002 -2.3593297 0.35176355 0
4.5320001 -2.3639872 0.35182667 0
4.5270004 -2.3686268 0.35188979 0
4.5220003 -2.3732481 0.35195294 0
4.5160003 -2.377285 0.3520287 0
4.5110002 -2.3818684 0.35209182 0
4.5060005 -2.3864341 0.35215497 0
4.5010004 -2.3909814 0.35221809 0
4.9140005 -2.024601 0.3388609 0
4.9080005 -2.0301025 0.33894747 0
4.9020004 -2.0355825 0.33903405 0
4.8960004 -2.0410409 0.33912063 0
4.8900003 -2.0464773 0.33920723 0
4.8830004 -2.0514452 0.33930823 0
4.8770003 -2.0568368 0.33939481 0
4.8710003 -2.0622065 0.33948141 0
4.8650002 -2.067555 0.33956799 0
4.8590002 -2.0728815 0.33965456 0
4.8530002 -2.0781865 0.33974114 0
4.8470001 -2.0834699 0.33982775 0
4.8410001 -2.0887315 0.33991432 0
4.8360004 -2.0944335 0.33998647 0
4.8300004 -2.099654 0.34007305 0
4.8240004 -2.1048524 0.34015962 0
4.8180003 -2.1100292 0.3402462 0
4.8120003 -2.1151843 0.34033281 0
4.8060002 -2.1203182 0.34041938 0
4.8000002 -2.1254301 0.34050596 0
4.7940001 -2.1305206 0.34059256 0
4.7890005 -2.1360655 0.34066468 0
4.7830005 -2.1411145 0.34075129 0
4.7770004 -2.1461415 0.34083787 0
4.7710004 -2.1511471 0.34092444 0
4.7660003 -2.1566143 0.34099659 0
4.7600002 -2.1615784 0.34108317 0
4.7540002 -2.1665208 0.34116977 0
4.7480001 -2.1714416 0.34125635 0
4.7430005 -2.1768317 0.3413285 0
4.7370005 -2.1817107 0.34141508 0
4.7310004 -2.1865685 0.34150165 0
4.7260003 -2.1919005 0.34157383 0
4.7200003 -2.1967165 0.34166041 0
4.7140002 -2.2015111 0.34174699 0
4.7090001 -2.2067854 0.34181914 0
4.7030001 -2.2115383 0.34190571 0
4.6980004 -2.2167749 0.34197786 0
4.6920004 -2.2214866 0.34206444 0
4.6870003 -2.226685 0.34213662 0
4.6810002 -2.2313552 0.3422232 0
4.6760001 -2.2365158 0.34229535 0
4.6700001 -2.2411442 0.34238192 0
4.6650004 -2.2462673 0.34245408 0
4.6590004 -2.2508545 0.34254065 0
4.6540003 -2.2559392 0.3426128 0
4.6480002 -2.2604847 0.34269941 0
4.6430001 -2.2655318 0.34277156 0
4.6370001 -2.270036 0.34285814 0
4.6320004 -2.2750454 0.34293029 0
4.6270003 -2.2800364 0.34300244 0
4.6210003 -2.2844789 0.34308901 0
4.6160002 -2.2894323 0.34316117 0
4.6100001 -2.2938337 0.34324777 0
4.6050005 -2.2987492 0.34331989 0
4.6000004 -2.3036466 0.34339204 0
4.5950003 -2.3085256 0.3434642 0
4.5890002 -2.3128459 0.3435508 0
4.5840001 -2.3176873 0.34362295 0
4.5790005 -2.3225107 0.3436951 0
