# .PCD v0.7 - Point Cloud Data file format
VERSION 0.7
FIELDS x y z intensity
SIZE 4 4 4 4
TYPE F F F F
COUNT 1 1 1 1
WIDTH 1410
HEIGHT 1
VIEWPOINT 0 0 0 1 0 0 0
POINTS 1410
DATA ascii
2.8130002 0.17162946 0.18201797 0
2.8130002 0.16727687 0.18201797 0
2.8130002 0.16292427 0.18201797 0
2.8140001 0.15865646 0.18192598 0
2.8140001 0.15430206 0.18192598 0
2.8160002 0.15011004 0.18174198 0
2.8180003 0.14591077 0.18155798 0
2.8200002 0.14170428 0.181374 0
2.8230002 0.13756634 0.18109801 0
2.8260002 0.13341758 0.18082204 0
2.8300002 0.12933016 0.18045408 0
2.8360002 0.125369 0.17990209 0
2.8430002 0.12145472 0.17925814 0
2.8550003 0.11784892 0.1781542 0
2.6870003 0.6388014 0.18948391 0
2.6820002 0.63318789 0.18995292 0
2.6790001 0.62818414 0.19023432 0
2.6780002 0.62377924 0.19032811 0
2.6770003 0.61937797 0.19042191 0
2.6760001 0.61498022 0.1905157 0
2.6770003 0.61116344 0.19042191 0
2.6780002 0.60734296 0.19032811 0
2.6790001 0.60351884 0.19023432 0
2.6810002 0.59997439 0.19004671 0
2.6840003 0.59670407 0.18976532 0
2.6870003 0.59342295 0.18948391 0
2.6910002 0.5904088 0.18910873 0
2.6970003 0.58793223 0.18854594 0
2.7060001 0.58625638 0.18770176 0
3.0680003 0.4400686 0.15374687 0
3.0570002 0.43327186 0.15477866 0
3.0530002 0.4277648 0.15515384 0
3.0500002 0.42244899 0.15543525 0
3.0490003 0.41749391 0.15552902 0
3.0480003 0.41254249 0.15562283 0
3.0490003 0.40793735 0.15552902 0
3.0500002 0.40332863 0.15543525 0
2.7720003 0.35191289 0.18151109 0
2.7660003 0.34663856 0.18207386 0
2.7630002 0.34187829 0.18235527 0
2.7610002 0.33729121 0.18254288 0
2.7600002 0.33287188 0.18263666 0
2.7600002 0.32861489 0.18263666 0
2.7600002 0.3243579 0.18263666 0
2.7610002 0.32025602 0.18254288 0
2.7630002 0.31630391 0.18235527 0
2.7650001 0.31234452 0.18216768 0
2.7670002 0.30837798 0.18198007 0
2.7710001 0.30469999 0.18160491 0
2.7770002 0.30129981 0.1810421 0
2.7870002 0.29845521 0.18010412 0
3.0850003 0.28333932 0.1521523 0
3.0730002 0.27704582 0.1532779 0
3.0670002 0.27150992 0.15384066 0
3.0620003 0.26611295 0.15430966 0
3.0590003 0.26096487 0.15459105 0
3.0570002 0.25594127 0.15477866 0
3.0550003 0.25092489 0.15496624 0
3.0540001 0.24602571 0.15506007 0
3.0530002 0.2411302 0.15515384 0
2.8470001 0.21442118 0.17447625 0
2.8350003 0.20875183 0.17560181 0
2.8290002 0.20374265 0.1761646 0
2.8240001 0.19885613 0.1766336 0
2.8210001 0.19418606 0.176915 0
2.8180003 0.18952684 0.17719638 0
2.8160002 0.18497403 0.17738399 0
2.8150003 0.18052223 0.17747778 0
2.8140001 0.17607403 0.17757158 0
2.8130002 0.17162946 0.17766537 0
2.8130002 0.16727687 0.17766537 0
2.8130002 0.16292427 0.17766537 0
2.8140001 0.15865646 0.17757158 0
2.8140001 0.15430206 0.17757158 0
2.8160002 0.15011004 0.17738399 0
2.8180003 0.14591077 0.17719638 0
2.8200002 0.14170428 0.17700879 0
2.8230002 0.13756634 0.1767274 0
2.8260002 0.13341758 0.17644599 0
2.8300002 0.12933016 0.17607081 0
2.8360002 0.125369 0.17550802 0
2.8430002 0.12145472 0.17485143 0
2.8550003 0.11784892 0.17372584 0
2.6870003 0.6388014 0.18535861 0
2.6820002 0.63318789 0.18583663 0
2.6790001 0.62818414 0.18612343 0
2.6780002 0.62377924 0.18621902 0
2.6770003 0.61937797 0.18631463 0
2.6760001 0.61498022 0.18641025 0
2.6770003 0.61116344 0.18631463 0
2.6780002 0.60734296 0.18621902 0
2.6790001 0.60351884 0.18612343 0
2.6810002 0.59997439 0.18593222 0
2.6840003 0.59670407 0.18564542 0
2.6870003 0.59342295 0.18535861 0
2.6910002 0.5904088 0.18497621 0
2.6970003 0.58793223 0.18440259 0
2.7060001 0.58625638 0.18354219 0
3.0680003 0.4400686 0.1489343 0
3.0570002 0.43327186 0.14998594 0
3.0530002 0.4277648 0.15036833 0
3.0500002 0.42244899 0.15065515 0
3.0490003 0.41749391 0.15075076 0
3.0480003 0.41254249 0.15084633 0
3.0490003 0.40793735 0.15075076 0
3.0500002 0.40332863 0.15065515 0
2.7720003 0.35191289 0.17723244 0
2.7660003 0.34663856 0.17780606 0
2.7630002 0.34187829 0.17809288 0
2.7610002 0.33729121 0.17828408 0
2.7600002 0.33287188 0.17837967 0
2.7600002 0.32861489 0.17837967 0
2.7600002 0.3243579 0.17837967 0
2.7610002 0.32025602 0.17828408 0
2.7630002 0.31630391 0.17809288 0
2.7650001 0.31234452 0.17790169 0
2.7670002 0.30837798 0.17771047 0
2.7710001 0.30469999 0.17732807 0
2.7770002 0.30129981 0.17675446 0
2.7870002 0.29845521 0.17579845 0
3.0850003 0.28333932 0.14730909 0
3.0730002 0.27704582 0.14845631 0
3.0670002 0.27150992 0.14902994 0
3.0620003 0.26611295 0.14950791 0
3.0590003 0.26096487 0.14979473 0
3.0570002 0.25594127 0.14998594 0
3.0550003 0.25092489 0.15017712 0
3.0540001 0.24602571 0.15027276 0
3.0530002 0.2411302 0.15036833 0
2.8470001 0.21442118 0.17006235 0
2.8350003 0.20875183 0.17120954 0
2.8290002 0.20374265 0.17178313 0
2.8240001 0.19885613 0.17226118 0
2.8210001 0.19418606 0.17254797 0
2.8180003 0.18952684 0.17283477 0
2.8160002 0.18497403 0.17302598 0
2.8150003 0.18052223 0.17312157 0
2.8140001 0.17607403 0.17321719 0
2.8130002 0.17162946 0.17331278 0
2.8130002 0.16727687 0.17331278 0
2.8130002 0.16292427 0.17331278 0
2.8140001 0.15865646 0.17321719 0
2.8140001 0.15430206 0.17321719 0
2.8160002 0.15011004 0.17302598 0
2.8180003 0.14591077 0.17283477 0
2.8200002 0.14170428 0.17264356 0
2.8230002 0.13756634 0.17235677 0
2.8260002 0.13341758 0.17206997 0
2.8300002 0.12933016 0.17168754 0
2.8360002 0.125369 0.17111395 0
2.8430002 0.12145472 0.17044473 0
2.8550003 0.11784892 0.1692975 0
2.6870003 0.6388014 0.1812333 0
2.6820002 0.63318789 0.18172033 0
2.6790001 0.62818414 0.18201256 0
2.6780002 0.62377924 0.18210995 0
2.6770003 0.61937797 0.18220736 0
2.6760001 0.61498022 0.18230478 0
2.6770003 0.61116344 0.18220736 0
2.6780002 0.60734296 0.18210995 0
2.6790001 0.60351884 0.18201256 0
2.6810002 0.59997439 0.18181773 0
2.6840003 0.59670407 0.18152553 0
2.6870003 0.59342295 0.1812333 0
2.6910002 0.5904088 0.18084368 0
2.6970003 0.58793223 0.18025924 0
2.7060001 0.58625638 0.17938261 0
3.0680003 0.4400686 0.14412177 0
3.0570002 0.43327186 0.14519325 0
3.0530002 0.4277648 0.14558282 0
3.0500002 0.42244899 0.14587507 0
3.0490003 0.41749391 0.14597246 0
3.0480003 0.41254249 0.14606985 0
3.0490003 0.40793735 0.14597246 0
3.0500002 0.40332863 0.14587507 0
2.7720003 0.35191289 0.17295381 0
2.7660003 0.34663856 0.17353825 0
2.7630002 0.34187829 0.17383048 0
2.7610002 0.33729121 0.1740253 0
2.7600002 0.33287188 0.17412269 0
2.7600002 0.32861489 0.17412269 0
2.7600002 0.3243579 0.17412269 0
2.7610002 0.32025602 0.1740253 0
2.7630002 0.31630391 0.17383048 0
2.7650001 0.31234452 0.17363568 0
2.7670002 0.30837798 0.17344084 0
2.7710001 0.30469999 0.17305125 0
2.7770002 0.30129981 0.1724668 0
2.7870002 0.29845521 0.17149273 0
3.0850003 0.28333932 0.14246586 0
3.0730002 0.27704582 0.14363471 0
3.0670002 0.27150992 0.14421916 0
3.0620003 0.26611295 0.14470616 0
3.0590003 0.26096487 0.1449984 0
3.0570002 0.25594127 0.14519325 0
3.0550003 0.25092489 0.14538801 0
3.0540001 0.24602571 0.14548543 0
3.0530002 0.2411302 0.14558282 0
2.8470001 0.21442118 0.16564842 0
2.8350003 0.20875183 0.16681728 0
2.8290002 0.20374265 0.16740172 0
2.8240001 0.19885613 0.16788875 0
2.8210001 0.19418606 0.16818097 0
2.8180003 0.18952684 0.16847317 0
2.8160002 0.18497403 0.16866799 0
2.8150003 0.18052223 0.16876538 0
2.8140001 0.17607403 0.16886279 0
2.8130002 0.17162946 0.1689602 0
2.8130002 0.16727687 0.1689602 0
2.8130002 0.16292427 0.1689602 0
2.8140001 0.15865646 0.16886279 0
2.8140001 0.15430206 0.16886279 0
2.8160002 0.15011004 0.16866799 0
2.8180003 0.14591077 0.16847317 0
2.8200002 0.14170428 0.16827835 0
2.8230002 0.13756634 0.16798612 0
2.8260002 0.13341758 0.16769391 0
2.8300002 0.12933016 0.16730431 0
2.8360002 0.125369 0.16671987 0
2.8430002 0.12145472 0.16603804 0
2.8550003 0.11784892 0.16486916 0
2.6870003 0.6388014 0.17710799 0
2.6820002 0.63318789 0.17760405 0
2.6790001 0.62818414 0.17790169 0
2.6780002 0.62377924 0.17800088 0
2.6770003 0.61937797 0.17810008 0
2.6760001 0.61498022 0.17819931 0
2.6770003 0.61116344 0.17810008 0
2.6780002 0.60734296 0.17800088 0
2.6790001 0.60351884 0.17790169 0
2.6810002 0.59997439 0.17770325 0
2.6840003 0.59670407 0.17740561 0
2.6870003 0.59342295 0.17710799 0
2.6910002 0.5904088 0.17671116 0
2.6970003 0.58793223 0.1761159 0
2.7060001 0.58625638 0.17522302 0
3.0680003 0.4400686 0.1393092 0
3.0570002 0.43327186 0.1404005 0
3.0530002 0.4277648 0.14079735 0
3.0500002 0.42244899 0.14109498 0
3.0490003 0.41749391 0.14119416 0
3.0480003 0.41254249 0.14129338 0
3.0490003 0.40793735 0.14119416 0
3.0500002 0.40332863 0.14109498 0
2.7720003 0.35191289 0.16867518 0
2.7660003 0.34663856 0.16927046 0
2.7630002 0.34187829 0.16956806 0
2.7610002 0.33729121 0.16976649 0
2.7600002 0.33287188 0.16986571 0
2.7600002 0.32861489 0.16986571 0
2.7600002 0.3243579 0.16986571 0
2.7610002 0.32025602 0.16976649 0
2.7630002 0.31630391 0.16956806 0
2.7650001 0.31234452 0.16936967 0
2.7670002 0.30837798 0.16917123 0
2.7710001 0.30469999 0.16877441 0
2.7770002 0.30129981 0.16817915 0
2.7870002 0.29845521 0.16718705 0
3.0850003 0.28333932 0.13762265 0
3.0730002 0.27704582 0.13881317 0
3.0670002 0.27150992 0.13940841 0
3.0620003 0.26611295 0.13990447 0
3.0590003 0.26096487 0.14020208 0
3.0570002 0.25594127 0.1404005 0
3.0550003 0.25092489 0.14059892 0
3.0540001 0.24602571 0.14069813 0
3.0530002 0.2411302 0.14079735 0
2.8470001 0.21442118 0.16123448 0
2.8350003 0.20875183 0.162425 0
2.8290002 0.20374265 0.16302027 0
2.8240001 0.19885613 0.1635163 0
2.8210001 0.19418606 0.16381395 0
2.8180003 0.18952684 0.16411155 0
2.8160002 0.18497403 0.16430998 0
2.8150003 0.18052223 0.16440918 0
2.8140001 0.17607403 0.1645084 0
2.8130002 0.17162946 0.1646076 0
2.8130002 0.16727687 0.1646076 0
2.8130002 0.16292427 0.1646076 0
2.8140001 0.15865646 0.1645084 0
2.8140001 0.15430206 0.1645084 0
2.8160002 0.15011004 0.16430998 0
2.8180003 0.14591077 0.16411155 0
2.8200002 0.14170428 0.16391315 0
2.8230002 0.13756634 0.16361552 0
2.8260002 0.13341758 0.16331787 0
2.8300002 0.12933016 0.16292104 0
2.8360002 0.125369 0.16232578 0
2.8430002 0.12145472 0.16163132 0
2.8550003 0.11784892 0.1604408 0
2.6870003 0.6388014 0.17298269 0
2.6820002 0.63318789 0.17348775 0
2.6790001 0.62818414 0.1737908 0
2.6780002 0.62377924 0.1738918 0
2.6770003 0.61937797 0.17399281 0
2.6760001 0.61498022 0.17409384 0
2.6770003 0.61116344 0.17399281 0
2.6780002 0.60734296 0.1738918 0
2.6790001 0.60351884 0.1737908 0
2.6810002 0.59997439 0.17358877 0
2.6840003 0.59670407 0.17328572 0
2.6870003 0.59342295 0.17298269 0
2.6910002 0.5904088 0.17257863 0
2.6970003 0.58793223 0.17197256 0
2.7060001 0.58625638 0.17106344 0
3.0680003 0.4400686 0.1344966 0
3.0570002 0.43327186 0.13560778 0
3.0530002 0.4277648 0.13601184 0
3.0500002 0.42244899 0.13631487 0
3.0490003 0.41749391 0.13641587 0
3.0480003 0.41254249 0.1365169 0
3.0490003 0.40793735 0.13641587 0
3.0500002 0.40332863 0.13631487 0
2.7720003 0.35191289 0.16439654 0
2.7660003 0.34663856 0.16500264 0
2.7630002 0.34187829 0.16530569 0
2.7610002 0.33729121 0.1655077 0
2.7600002 0.33287188 0.16560872 0
2.7600002 0.32861489 0.16560872 0
2.7600002 0.3243579 0.16560872 0
2.7610002 0.32025602 0.1655077 0
2.7630002 0.31630391 0.16530569 0
2.7650001 0.31234452 0.16510366 0
2.7670002 0.30837798 0.16490163 0
2.7710001 0.30469999 0.16449758 0
2.7770002 0.30129981 0.16389151 0
2.7870002 0.29845521 0.16288137 0
3.0850003 0.28333932 0.13277939 0
3.0730002 0.27704582 0.13399157 0
3.0670002 0.27150992 0.13459766 0
3.0620003 0.26611295 0.13510272 0
3.0590003 0.26096487 0.13540575 0
3.0570002 0.25594127 0.13560778 0
3.0550003 0.25092489 0.13580981 0
3.0540001 0.24602571 0.13591081 0
3.0530002 0.2411302 0.13601184 0
2.8470001 0.21442118 0.15682058 0
2.8350003 0.20875183 0.1580327 0
2.8290002 0.20374265 0.15863881 0
2.8240001 0.19885613 0.15914388 0
2.8210001 0.19418606 0.15944691 0
2.8180003 0.18952684 0.15974993 0
2.8160002 0.18497403 0.15995198 0
2.8150003 0.18052223 0.16005298 0
2.8140001 0.17607403 0.160154 0
2.8130002 0.17162946 0.16025501 0
2.8130002 0.16727687 0.16025501 0
2.8130002 0.16292427 0.16025501 0
2.8140001 0.15865646 0.160154 0
2.8140001 0.15430206 0.160154 0
2.8160002 0.15011004 0.15995198 0
2.8180003 0.14591077 0.15974993 0
2.8200002 0.14170428 0.15954792 0
2.8230002 0.13756634 0.15924489 0
2.8260002 0.13341758 0.15894185 0
2.8300002 0.12933016 0.15853781 0
2.8360002 0.125369 0.15793172 0
2.8430002 0.12145472 0.15722463 0
2.8550003 0.11784892 0.15601245 0
2.6870003 0.6388014 0.16885737 0
2.6820002 0.63318789 0.16937147 0
2.6790001 0.62818414 0.16967992 0
2.6780002 0.62377924 0.16978273 0
2.6770003 0.61937797 0.16988553 0
2.6760001 0.61498022 0.16998838 0
2.6770003 0.61116344 0.16988553 0
2.6780002 0.60734296 0.16978273 0
2.6790001 0.60351884 0.16967992 0
2.6810002 0.59997439 0.16947426 0
2.6840003 0.59670407 0.16916583 0
2.6870003 0.59342295 0.16885737 0
2.6910002 0.5904088 0.16844611 0
2.6970003 0.58793223 0.16782919 0
2.7060001 0.58625638 0.16690387 0
3.0680003 0.4400686 0.12968406 0
3.0570002 0.43327186 0.13081506 0
3.0530002 0.4277648 0.13122633 0
3.0500002 0.42244899 0.13153479 0
3.0490003 0.41749391 0.1316376 0
3.0480003 0.41254249 0.13174039 0
3.0490003 0.40793735 0.1316376 0
3.0500002 0.40332863 0.13153479 0
2.7720003 0.35191289 0.16011792 0
2.7660003 0.34663856 0.16073482 0
2.7630002 0.34187829 0.16104327 0
2.7610002 0.33729121 0.16124894 0
2.7600002 0.33287188 0.16135174 0
2.7600002 0.32861489 0.16135174 0
2.7600002 0.3243579 0.16135174 0
2.7610002 0.32025602 0.16124894 0
2.7630002 0.31630391 0.16104327 0
2.7650001 0.31234452 0.16083764 0
2.7670002 0.30837798 0.16063201 0
2.7710001 0.30469999 0.16022074 0
2.7770002 0.30129981 0.15960385 0
2.7870002 0.29845521 0.15857567 0
3.0850003 0.28333932 0.12793618 0
3.0730002 0.27704582 0.12917 0
3.0670002 0.27150992 0.12978691 0
3.0620003 0.26611295 0.13030097 0
3.0590003 0.26096487 0.13060942 0
3.0570002 0.25594127 0.13081506 0
3.0550003 0.25092489 0.13102069 0
3.0540001 0.24602571 0.13112351 0
3.0530002 0.2411302 0.13122633 0
2.8470001 0.21442118 0.15240666 0
2.8350003 0.20875183 0.15364045 0
2.8290002 0.20374265 0.15425736 0
2.8240001 0.19885613 0.15477145 0
2.8210001 0.19418606 0.15507992 0
2.8180003 0.18952684 0.15538831 0
2.8160002 0.18497403 0.15559398 0
2.8150003 0.18052223 0.15569678 0
2.8140001 0.17607403 0.15579961 0
2.8130002 0.17162946 0.15590243 0
2.8130002 0.16727687 0.15590243 0
2.8130002 0.16292427 0.15590243 0
2.8140001 0.15865646 0.15579961 0
2.8140001 0.15430206 0.15579961 0
2.8160002 0.15011004 0.15559398 0
2.8180003 0.14591077 0.15538831 0
2.8200002 0.14170428 0.15518272 0
2.8230002 0.13756634 0.15487425 0
2.8260002 0.13341758 0.1545658 0
2.8300002 0.12933016 0.15415452 0
2.8360002 0.125369 0.15353763 0
2.8430002 0.12145472 0.1528179 0
2.8550003 0.11784892 0.15158409 0
2.6870003 0.6388014 0.16473205 0
2.6820002 0.63318789 0.16525517 0
2.6790001 0.62818414 0.16556904 0
2.6780002 0.62377924 0.16567366 0
2.6770003 0.61937797 0.16577826 0
2.6760001 0.61498022 0.16588292 0
2.6770003 0.61116344 0.16577826 0
2.6780002 0.60734296 0.16567366 0
2.6790001 0.60351884 0.16556904 0
2.6810002 0.59997439 0.1653598 0
2.6840003 0.59670407 0.16504592 0
2.6870003 0.59342295 0.16473205 0
2.6910002 0.5904088 0.16431358 0
2.6970003 0.58793223 0.16368584 0
2.7060001 0.58625638 0.16274428 0
3.0680003 0.4400686 0.12487149 0
3.0570002 0.43327186 0.12602234 0
3.0530002 0.4277648 0.12644082 0
3.0500002 0.42244899 0.12675467 0
3.0490003 0.41749391 0.12685931 0
3.0480003 0.41254249 0.12696391 0
3.0490003 0.40793735 0.12685931 0
3.0500002 0.40332863 0.12675467 0
2.7720003 0.35191289 0.15583926 0
2.7660003 0.34663856 0.15646701 0
2.7630002 0.34187829 0.15678087 0
2.7610002 0.33729121 0.15699013 0
2.7600002 0.33287188 0.15709475 0
2.7600002 0.32861489 0.15709475 0
2.7600002 0.3243579 0.15709475 0
2.7610002 0.32025602 0.15699013 0
2.7630002 0.31630391 0.15678087 0
2.7650001 0.31234452 0.15657166 0
2.7670002 0.30837798 0.15636238 0
2.7710001 0.30469999 0.15594392 0
2.7770002 0.30129981 0.15531617 0
2.7870002 0.29845521 0.15426999 0
3.0850003 0.28333932 0.12309295 0
3.0730002 0.27704582 0.1243484 0
3.0670002 0.27150992 0.12497613 0
3.0620003 0.26611295 0.12549922 0
3.0590003 0.26096487 0.1258131 0
3.0570002 0.25594127 0.12602234 0
3.0550003 0.25092489 0.12623158 0
3.0540001 0.24602571 0.12633622 0
3.0530002 0.2411302 0.12644082 0
2.8470001 0.21442118 0.14799276 0
2.8350003 0.20875183 0.14924818 0
2.8290002 0.20374265 0.14987591 0
2.8240001 0.19885613 0.15039903 0
2.8210001 0.19418606 0.15071288 0
2.8180003 0.18952684 0.1510267 0
2.8160002 0.18497403 0.15123597 0
2.8150003 0.18052223 0.1513406 0
2.8140001 0.17607403 0.15144521 0
2.8130002 0.17162946 0.15154982 0
2.8130002 0.16727687 0.15154982 0
2.8130002 0.16292427 0.15154982 0
2.8140001 0.15865646 0.15144521 0
2.8140001 0.15430206 0.15144521 0
2.8160002 0.15011004 0.15123597 0
2.8180003 0.14591077 0.1510267 0
2.8200002 0.14170428 0.15081751 0
2.8230002 0.13756634 0.15050361 0
2.8260002 0.13341758 0.15018976 0
2.8300002 0.12933016 0.1497713 0
2.8360002 0.125369 0.14914355 0
2.8430002 0.12145472 0.14841121 0
2.8560002 0.11791566 0.14705116 0
2.6870003 0.6388014 0.16060674 0
2.6820002 0.63318789 0.16113889 0
2.6790001 0.62818414 0.16145816 0
2.6780002 0.62377924 0.16156457 0
2.6770003 0.61937797 0.16167098 0
2.6760001 0.61498022 0.16177745 0
2.6770003 0.61116344 0.16167098 0
2.6780002 0.60734296 0.16156457 0
2.6790001 0.60351884 0.16145816 0
2.6810002 0.59997439 0.1612453 0
2.6840003 0.59670407 0.16092603 0
2.6870003 0.59342295 0.16060674 0
2.6910002 0.5904088 0.16018106 0
2.6970003 0.58793223 0.1595425 0
2.7060001 0.58625638 0.1585847 0
3.0680003 0.4400686 0.12005892 0
3.0570002 0.43327186 0.12122965 0
3.0530002 0.4277648 0.12165532 0
3.0500002 0.42244899 0.12197459 0
3.0490003 0.41749391 0.12208101 0
3.0480003 0.41254249 0.12218744 0
3.0490003 0.40793735 0.12208101 0
3.0500002 0.40332863 0.12197459 0
2.7720003 0.35191289 0.15156063 0
2.7660003 0.34663856 0.15219921 0
2.7630002 0.34187829 0.15251848 0
2.7610002 0.33729121 0.15273133 0
2.7600002 0.33287188 0.15283775 0
2.7600002 0.32861489 0.15283775 0
2.7600002 0.3243579 0.15283775 0
2.7610002 0.32025602 0.15273133 0
2.7630002 0.31630391 0.15251848 0
2.7650001 0.31234452 0.15230563 0
2.7670002 0.30837798 0.15209278 0
2.7710001 0.30469999 0.15166709 0
2.7770002 0.30129981 0.15102851 0
2.7870002 0.29845521 0.14996427 0
3.0850003 0.28333932 0.11824974 0
3.0730002 0.27704582 0.11952683 0
3.0670002 0.27150992 0.12016541 0
3.0620003 0.26611295 0.1206975 0
3.0590003 0.26096487 0.12101677 0
3.0570002 0.25594127 0.12122965 0
3.0550003 0.25092489 0.12144244 0
3.0540001 0.24602571 0.12154892 0
3.0530002 0.2411302 0.12165532 0
2.8470001 0.21442118 0.14357883 0
2.8350003 0.20875183 0.14485589 0
2.8290002 0.20374265 0.14549446 0
2.8240001 0.19885613 0.14602658 0
2.8210001 0.19418606 0.14634585 0
2.8180003 0.18952684 0.1466651 0
2.8160002 0.18497403 0.14687797 0
2.8150003 0.18052223 0.14698437 0
2.8140001 0.17607403 0.14709085 0
2.8130002 0.17162946 0.14719725 0
2.8130002 0.16727687 0.14719725 0
2.8130002 0.16292427 0.14719725 0
2.8140001 0.15865646 0.14709085 0
2.8140001 0.15430206 0.14709085 0
2.8160002 0.15011004 0.14687797 0
2.8180003 0.14591077 0.1466651 0
2.8200002 0.14170428 0.14645228 0
2.8230002 0.13756634 0.14613301 0
2.8260002 0.13341758 0.14581373 0
2.8300002 0.12933016 0.14538801 0
2.8360002 0.125369 0.14474949 0
2.8430002 0.12145472 0.14400449 0
2.8560002 0.11791566 0.14262098 0
2.6870003 0.6388014 0.15648143 0
2.6820002 0.63318789 0.15702261 0
2.6790001 0.62818414 0.15734728 0
2.6780002 0.62377924 0.1574555 0
2.6770003 0.61937797 0.15756373 0
2.6760001 0.61498022 0.15767197 0
2.6770003 0.61116344 0.15756373 0
2.6780002 0.60734296 0.1574555 0
2.6790001 0.60351884 0.15734728 0
2.6810002 0.59997439 0.15713081 0
2.6840003 0.59670407 0.15680613 0
2.6870003 0.59342295 0.15648143 0
2.6910002 0.5904088 0.15604854 0
2.6970003 0.58793223 0.15539916 0
2.7060001 0.58625638 0.15442511 0
3.0680003 0.4400686 0.11524639 0
3.0570002 0.43327186 0.11643693 0
3.0530002 0.4277648 0.11686981 0
3.0500002 0.42244899 0.11719453 0
3.0490003 0.41749391 0.11730275 0
3.0480003 0.41254249 0.11741093 0
3.0490003 0.40793735 0.11730275 0
3.0500002 0.40332863 0.11719453 0
2.7720003 0.35191289 0.14728203 0
2.7660003 0.34663856 0.1479314 0
2.7630002 0.34187829 0.14825606 0
2.7610002 0.33729121 0.14847255 0
2.7600002 0.33287188 0.14858076 0
2.7600002 0.32861489 0.14858076 0
2.7600002 0.3243579 0.14858076 0
2.7610002 0.32025602 0.14847255 0
2.7630002 0.31630391 0.14825606 0
2.7650001 0.31234452 0.14803964 0
2.7670002 0.30837798 0.14782318 0
2.7710001 0.30469999 0.14739025 0
2.7770002 0.30129981 0.14674088 0
2.7870002 0.29845521 0.14565861 0
3.0850003 0.28333932 0.11340651 0
3.0730002 0.27704582 0.11470526 0
3.0670002 0.27150992 0.11535463 0
3.0620003 0.26611295 0.11589575 0
3.0590003 0.26096487 0.11622044 0
3.0570002 0.25594127 0.11643693 0
3.0550003 0.25092489 0.11665335 0
3.0540001 0.24602571 0.1167616 0
3.0530002 0.2411302 0.11686981 0
2.8470001 0.21442118 0.13916489 0
2.8350003 0.20875183 0.14046362 0
2.8290002 0.20374265 0.14111301 0
2.8240001 0.19885613 0.14165416 0
2.8210001 0.19418606 0.14197886 0
2.8180003 0.18952684 0.1423035 0
2.8160002 0.18497403 0.14251998 0
2.8150003 0.18052223 0.14262819 0
2.8140001 0.17607403 0.14273643 0
2.8130002 0.17162946 0.14284468 0
2.8130002 0.16727687 0.14284468 0
2.8130002 0.16292427 0.14284468 0
2.8140001 0.15865646 0.14273643 0
2.8140001 0.15430206 0.14273643 0
2.8160002 0.15011004 0.14251998 0
2.8180003 0.14591077 0.1423035 0
2.8200002 0.14170428 0.14208704 0
2.8230002 0.13756634 0.14176238 0
2.8260002 0.13341758 0.14143768 0
2.8300002 0.12933016 0.14100477 0
2.8360002 0.125369 0.14035541 0
2.8430002 0.12145472 0.1395978 0
2.8560002 0.11791566 0.13819084 0
2.6870003 0.6388014 0.15235615 0
2.6820002 0.63318789 0.1529063 0
2.6790001 0.62818414 0.15323642 0
2.6780002 0.62377924 0.15334642 0
2.6770003 0.61937797 0.15345645 0
2.6760001 0.61498022 0.15356651 0
2.6770003 0.61116344 0.15345645 0
2.6780002 0.60734296 0.15334642 0
2.6790001 0.60351884 0.15323642 0
2.6810002 0.59997439 0.15301633 0
2.6840003 0.59670407 0.15268624 0
2.6870003 0.59342295 0.15235615 0
2.6910002 0.5904088 0.151916 0
2.6970003 0.58793223 0.15125582 0
2.7060001 0.58625638 0.15026554 0
3.0680003 0.4400686 0.11043382 0
3.0570002 0.43327186 0.11164418 0
3.0530002 0.4277648 0.11208433 0
3.0500002 0.42244899 0.11241442 0
3.0490003 0.41749391 0.11252445 0
3.0480003 0.41254249 0.11263445 0
3.0490003 0.40793735 0.11252445 0
3.0500002 0.40332863 0.11241442 0
2.7720003 0.35191289 0.14300337 0
2.7660003 0.34663856 0.14366359 0
2.7630002 0.34187829 0.14399368 0
2.7610002 0.33729121 0.14421377 0
2.7600002 0.33287188 0.14432377 0
2.7600002 0.32861489 0.14432377 0
2.7600002 0.3243579 0.14432377 0
2.7610002 0.32025602 0.14421377 0
2.7630002 0.31630391 0.14399368 0
2.7650001 0.31234452 0.14377365 0
2.7670002 0.30837798 0.14355356 0
2.7710001 0.30469999 0.14311343 0
2.7770002 0.30129981 0.14245322 0
2.7870002 0.29845521 0.14135289 0
3.0850003 0.28333932 0.1085633 0
3.0730002 0.27704582 0.10988367 0
3.0670002 0.27150992 0.11054388 0
3.0620003 0.26611295 0.11109403 0
3.0590003 0.26096487 0.11142412 0
3.0570002 0.25594127 0.11164418 0
3.0550003 0.25092489 0.11186424 0
3.0540001 0.24602571 0.1119743 0
3.0530002 0.2411302 0.11208433 0
2.8470001 0.21442118 0.13475099 0
2.8350003 0.20875183 0.13607135 0
2.8290002 0.20374265 0.13673156 0
2.8240001 0.19885613 0.13728172 0
2.8210001 0.19418606 0.13761184 0
2.8180003 0.18952684 0.1379419 0
2.8160002 0.18497403 0.13816196 0
2.8150003 0.18052223 0.13827199 0
2.8140001 0.17607403 0.13838205 0
2.8130002 0.17162946 0.13849208 0
2.8130002 0.16727687 0.13849208 0
2.8130002 0.16292427 0.13849208 0
2.8140001 0.15865646 0.13838205 0
2.8140001 0.15430206 0.13838205 0
2.8160002 0.15011004 0.13816196 0
2.8180003 0.14591077 0.1379419 0
2.8200002 0.14170428 0.13772184 0
2.8230002 0.13756634 0.13739175 0
2.8260002 0.13341758 0.13706166 0
2.8300002 0.12933016 0.13662151 0
2.8360002 0.125369 0.13596132 0
2.8430002 0.12145472 0.13519108 0
2.8560002 0.11791566 0.13376066 0
2.6870003 0.6388014 0.14823082 0
2.6820002 0.63318789 0.14879 0
2.6790001 0.62818414 0.14912552 0
2.6780002 0.62377924 0.14923736 0
2.6770003 0.61937797 0.14934918 0
2.6760001 0.61498022 0.14946103 0
2.6770003 0.61116344 0.14934918 0
2.6780002 0.60734296 0.14923736 0
2.6790001 0.60351884 0.14912552 0
2.6810002 0.59997439 0.14890185 0
2.6840003 0.59670407 0.14856631 0
2.6870003 0.59342295 0.14823082 0
2.6910002 0.5904088 0.14778349 0
2.6970003 0.58793223 0.14711246 0
2.7060001 0.58625638 0.14610595 0
3.0680003 0.4400686 0.10562125 0
3.0570002 0.43327186 0.10685146 0
3.0530002 0.4277648 0.10729882 0
3.0500002 0.42244899 0.10763434 0
3.0490003 0.41749391 0.10774615 0
3.0480003 0.41254249 0.107858 0
3.0490003 0.40793735 0.10774615 0
3.0500002 0.40332863 0.10763434 0
2.7720003 0.35191289 0.13872474 0
2.7660003 0.34663856 0.13939577 0
2.7630002 0.34187829 0.13973129 0
2.7610002 0.33729121 0.13995495 0
2.7600002 0.33287188 0.1400668 0
2.7600002 0.32861489 0.1400668 0
2.7600002 0.3243579 0.1400668 0
2.7610002 0.32025602 0.13995495 0
2.7630002 0.31630391 0.13973129 0
2.7650001 0.31234452 0.13950762 0
2.7670002 0.30837798 0.13928393 0
2.7710001 0.30469999 0.13883662 0
2.7770002 0.30129981 0.13816556 0
2.7870002 0.29845521 0.13704723 0
3.0850003 0.28333932 0.10372004 0
3.0730002 0.27704582 0.10506207 0
3.0670002 0.27150992 0.10573313 0
3.0620003 0.26611295 0.10629228 0
3.0590003 0.26096487 0.10662779 0
3.0570002 0.25594127 0.10685146 0
3.0550003 0.25092489 0.10707512 0
3.0540001 0.24602571 0.10718697 0
3.0530002 0.2411302 0.10729882 0
2.8470001 0.21442118 0.13033706 0
2.8350003 0.20875183 0.13167906 0
2.8290002 0.20374265 0.13235009 0
2.8240001 0.19885613 0.1329093 0
2.8210001 0.19418606 0.13324478 0
2.8180003 0.18952684 0.1335803 0
2.8160002 0.18497403 0.13380396 0
2.8150003 0.18052223 0.13391581 0
2.8140001 0.17607403 0.13402766 0
2.8130002 0.17162946 0.13413948 0
2.8130002 0.16727687 0.13413948 0
2.8130002 0.16292427 0.13413948 0
2.8140001 0.15865646 0.13402766 0
2.8140001 0.15430206 0.13402766 0
2.8160002 0.15011004 0.13380396 0
2.8180003 0.14591077 0.1335803 0
2.8200002 0.14170428 0.13335663 0
2.8230002 0.13756634 0.13302112 0
2.8260002 0.13341758 0.13268563 0
2.8300002 0.12933016 0.13223827 0
2.8360002 0.125369 0.13156724 0
2.8430002 0.12145472 0.13078439 0
2.8560002 0.11791566 0.12933055 0
2.6870003 0.6388014 0.14410552 0
2.6820002 0.63318789 0.14467373 0
2.6790001 0.62818414 0.14501467 0
2.6780002 0.62377924 0.14512828 0
2.6770003 0.61937797 0.14524189 0
2.6760001 0.61498022 0.14535558 0
2.6770003 0.61116344 0.14524189 0
2.6780002 0.60734296 0.14512828 0
2.6790001 0.60351884 0.14501467 0
2.6810002 0.59997439 0.14478737 0
2.6840003 0.59670407 0.14444643 0
2.6870003 0.59342295 0.14410552 0
2.6910002 0.5904088 0.14365095 0
2.6970003 0.58793223 0.1429691 0
2.7060001 0.58625638 0.14194638 0
3.0680003 0.4400686 0.10080871 0
3.0570002 0.43327186 0.10205874 0
3.0530002 0.4277648 0.10251331 0
3.0500002 0.42244899 0.10285422 0
3.0490003 0.41749391 0.10296786 0
3.0480003 0.41254249 0.10308149 0
3.0490003 0.40793735 0.10296786 0
3.0500002 0.40332863 0.10285422 0
2.7720003 0.35191289 0.13444611 0
2.7660003 0.34663856 0.13512796 0
2.7630002 0.34187829 0.1354689 0
2.7610002 0.33729121 0.13569617 0
2.7600002 0.33287188 0.13580981 0
2.7600002 0.32861489 0.13580981 0
2.7600002 0.3243579 0.13580981 0
2.7610002 0.32025602 0.13569617 0
2.7630002 0.31630391 0.1354689 0
2.7650001 0.31234452 0.13524163 0
2.7670002 0.30837798 0.13501433 0
2.7710001 0.30469999 0.13455978 0
2.7770002 0.30129981 0.13387793 0
2.7870002 0.29845521 0.13274151 0
3.0730002 0.27704582 0.10024053 0
3.0670002 0.27150992 0.10092238 0
3.0620003 0.26611295 0.10149056 0
3.0590003 0.26096487 0.10183147 0
3.0570002 0.25594127 0.10205874 0
3.0550003 0.25092489 0.10228601 0
3.0540001 0.24602571 0.10239968 0
3.0530002 0.2411302 0.10251331 0
2.8470001 0.21442118 0.12592316 0
2.8350003 0.20875183 0.12728679 0
2.8290002 0.20374265 0.12796864 0
2.8240001 0.19885613 0.12853685 0
2.8210001 0.19418606 0.12887779 0
2.8180003 0.18952684 0.12921867 0
2.8160002 0.18497403 0.12944597 0
2.8150003 0.18052223 0.12955958 0
2.8140001 0.17607403 0.12967327 0
2.8130002 0.17162946 0.12978688 0
2.8130002 0.16727687 0.12978688 0
2.8130002 0.16292427 0.12978688 0
2.8140001 0.15865646 0.12967327 0
2.8140001 0.15430206 0.12967327 0
2.8160002 0.15011004 0.12944597 0
2.8180003 0.14591077 0.12921867 0
2.8200002 0.14170428 0.12899143 0
2.8230002 0.13756634 0.12865049 0
2.8260002 0.13341758 0.12830955 0
2.8300002 0.12933016 0.127855 0
2.8360002 0.125369 0.12717319 0
2.8430002 0.12145472 0.12637767 0
2.8560002 0.11791566 0.12490037 0
2.6870003 0.6388014 0.1399802 0
2.6820002 0.63318789 0.14055744 0
2.6790001 0.62818414 0.14090377 0
2.6780002 0.62377924 0.1410192 0
2.6770003 0.61937797 0.14113465 0
2.6760001 0.61498022 0.1412501 0
2.6770003 0.61116344 0.14113465 0
2.6780002 0.60734296 0.1410192 0
2.6790001 0.60351884 0.14090377 0
2.6810002 0.59997439 0.14067286 0
2.6840003 0.59670407 0.14032653 0
2.6870003 0.59342295 0.1399802 0
2.6910002 0.5904088 0.13951844 0
2.6970003 0.58793223 0.13882577 0
2.7060001 0.58625638 0.13778681 0
3.0680003 0.4400686 0.095996141 0
3.0570002 0.43327186 0.097266048 0
3.0530002 0.4277648 0.097727805 0
3.0500002 0.42244899 0.098074138 0
3.0490003 0.41749391 0.098189563 0
3.0480003 0.41254249 0.098305017 0
3.0490003 0.40793735 0.098189563 0
3.0500002 0.40332863 0.098074138 0
2.7720003 0.35191289 0.13016748 0
2.7660003 0.34663856 0.13086015 0
2.7630002 0.34187829 0.13120648 0
2.7610002 0.33729121 0.13143739 0
2.7600002 0.33287188 0.13155282 0
2.7600002 0.32861489 0.13155282 0
2.7600002 0.3243579 0.13155282 0
2.7610002 0.32025602 0.13143739 0
2.7630002 0.31630391 0.13120648 0
2.7650001 0.31234452 0.1309756 0
2.7670002 0.30837798 0.13074473 0
2.7710001 0.30469999 0.13028294 0
2.7770002 0.30129981 0.12959027 0
2.7870002 0.29845521 0.12843585 0
3.0730002 0.27704582 0.09541893 0
3.0670002 0.27150992 0.096111596 0
3.0620003 0.26611295 0.096688807 0
3.0590003 0.26096487 0.09703514 0
3.0570002 0.25594127 0.097266048 0
3.0550003 0.25092489 0.097496897 0
3.0540001 0.24602571 0.097612381 0
3.0530002 0.2411302 0.097727805 0
2.8470001 0.21442118 0.12150922 0
2.8350003 0.20875183 0.12289453 0
2.8290002 0.20374265 0.12358719 0
2.8240001 0.19885613 0.12416443 0
2.8210001 0.19418606 0.12451077 0
2.8180003 0.18952684 0.12485707 0
2.8160002 0.18497403 0.12508798 0
2.8150003 0.18052223 0.1252034 0
2.8140001 0.17607403 0.12531886 0
2.8130002 0.17162946 0.12543431 0
2.8130002 0.16727687 0.12543431 0
2.8130002 0.16292427 0.12543431 0
2.8140001 0.15865646 0.12531886 0
2.8140001 0.15430206 0.12531886 0
2.8160002 0.15011004 0.12508798 0
2.8180003 0.14591077 0.12485707 0
2.8200002 0.14170428 0.12462619 0
2.8230002 0.13756634 0.12427986 0
2.8260002 0.13341758 0.12393352 0
2.8300002 0.12933016 0.12347177 0
2.8360002 0.125369 0.1227791 0
2.8430002 0.12145472 0.12197098 0
2.8560002 0.11791566 0.12047023 0
2.6870003 0.6388014 0.1358549 0
2.6820002 0.63318789 0.13644114 0
2.6790001 0.62818414 0.13679287 0
2.6780002 0.62377924 0.13691014 0
2.6770003 0.61937797 0.13702738 0
2.6760001 0.61498022 0.13714463 0
2.6770003 0.61116344 0.13702738 0
2.6780002 0.60734296 0.13691014 0
2.6790001 0.60351884 0.13679287 0
2.6810002 0.59997439 0.13655838 0
2.6840003 0.59670407 0.13620666 0
2.6870003 0.59342295 0.1358549 0
2.6910002 0.5904088 0.1353859 0
2.6970003 0.58793223 0.13468242 0
2.7060001 0.58625638 0.13362721 0
3.0680003 0.4400686 0.091183573 0
3.0570002 0.43327186 0.092473328 0
3.0530002 0.4277648 0.092942297 0
3.0500002 0.42244899 0.093294054 0
3.0490003 0.41749391 0.093411297 0
3.0480003 0.41254249 0.093528539 0
3.0490003 0.40793735 0.093411297 0
3.0500002 0.40332863 0.093294054 0
2.7720003 0.35191289 0.12588885 0
2.7660003 0.34663856 0.12659234 0
2.7630002 0.34187829 0.12694407 0
2.7610002 0.33729121 0.12717861 0
2.7600002 0.33287188 0.12729582 0
2.7600002 0.32861489 0.12729582 0
2.7600002 0.3243579 0.12729582 0
2.7610002 0.32025602 0.12717861 0
2.7630002 0.31630391 0.12694407 0
2.7650001 0.31234452 0.12670961 0
2.7670002 0.30837798 0.1264751 0
2.7710001 0.30469999 0.12600613 0
2.7770002 0.30129981 0.12530261 0
2.7870002 0.29845521 0.12413016 0
3.0730002 0.27704582 0.090597361 0
3.0670002 0.27150992 0.091300845 0
3.0620003 0.26611295 0.091887057 0
3.0590003 0.26096487 0.092238814 0
3.0570002 0.25594127 0.092473328 0
3.0550003 0.25092489 0.092707813 0
3.0540001 0.24602571 0.092825055 0
3.0530002 0.2411302 0.092942297 0
2.8470001 0.21442118 0.11709529 0
2.8350003 0.20875183 0.11850226 0
2.8290002 0.20374265 0.11920574 0
2.8240001 0.19885613 0.11979201 0
2.8210001 0.19418606 0.12014374 0
2.8180003 0.18952684 0.12049547 0
2.8160002 0.18497403 0.12072995 0
2.8150003 0.18052223 0.12084723 0
2.8140001 0.17607403 0.12096447 0
2.8130002 0.17162946 0.12108171 0
2.8130002 0.16727687 0.12108171 0
2.8130002 0.16292427 0.12108171 0
2.8140001 0.15865646 0.12096447 0
2.8140001 0.15430206 0.12096447 0
2.8160002 0.15011004 0.12072995 0
2.8180003 0.14591077 0.12049547 0
2.8200002 0.14170428 0.12026098 0
2.8230002 0.13756634 0.11990923 0
2.8260002 0.13341758 0.1195575 0
2.8300002 0.12933016 0.11908853 0
2.8360002 0.125369 0.11838502 0
2.8430002 0.12145472 0.11756429 0
2.8560002 0.11791566 0.11604008 0
2.6870003 0.6388014 0.13172957 0
2.6820002 0.63318789 0.13232487 0
2.6790001 0.62818414 0.13268203 0
2.6780002 0.62377924 0.13280106 0
2.6770003 0.61937797 0.13292009 0
2.6760001 0.61498022 0.13303918 0
2.6770003 0.61116344 0.13292009 0
2.6780002 0.60734296 0.13280106 0
2.6790001 0.60351884 0.13268203 0
2.6810002 0.59997439 0.1324439 0
2.6840003 0.59670407 0.13208675 0
2.6870003 0.59342295 0.13172957 0
2.6910002 0.5904088 0.13125339 0
2.6970003 0.58793223 0.13053909 0
2.7060001 0.58625638 0.12946764 0
3.0680003 0.4400686 0.086371034 0
3.0570002 0.43327186 0.087680608 0
3.0530002 0.4277648 0.08815679 0
3.0500002 0.42244899 0.088513941 0
3.0490003 0.41749391 0.088633001 0
3.0480003 0.41254249 0.088752031 0
3.0490003 0.40793735 0.088633001 0
3.0500002 0.40332863 0.088513941 0
2.7720003 0.35191289 0.12161022 0
2.7660003 0.34663856 0.12232453 0
2.7630002 0.34187829 0.12268168 0
2.7610002 0.33729121 0.1229198 0
2.7600002 0.33287188 0.12303883 0
2.7600002 0.32861489 0.12303883 0
2.7600002 0.3243579 0.12303883 0
2.7610002 0.32025602 0.1229198 0
2.7630002 0.31630391 0.12268168 0
2.7650001 0.31234452 0.12244362 0
2.7670002 0.30837798 0.1222055 0
2.7710001 0.30469999 0.12172928 0
2.7770002 0.30129981 0.12101498 0
2.7870002 0.29845521 0.11982447 0
3.0730002 0.27704582 0.085775793 0
3.0670002 0.27150992 0.086490095 0
3.0620003 0.26611295 0.087085336 0
3.0590003 0.26096487 0.087442487 0
3.0570002 0.25594127 0.087680608 0
3.0550003 0.25092489 0.087918699 0
3.0540001 0.24602571 0.088037759 0
3.0530002 0.2411302 0.08815679 0
2.8470001 0.21442118 0.11268139 0
2.8350003 0.20875183 0.11410999 0
2.8290002 0.20374265 0.1148243 0
2.8240001 0.19885613 0.11541957 0
2.8210001 0.19418606 0.11577675 0
2.8180003 0.18952684 0.11613387 0
2.8160002 0.18497403 0.11637196 0
2.8150003 0.18052223 0.11649102 0
2.8140001 0.17607403 0.11661008 0
2.8130002 0.17162946 0.11672911 0
2.8130002 0.16727687 0.11672911 0
2.8130002 0.16292427 0.11672911 0
2.8140001 0.15865646 0.11661008 0
2.8140001 0.15430206 0.11661008 0
2.8160002 0.15011004 0.11637196 0
2.8180003 0.14591077 0.11613387 0
2.8200002 0.14170428 0.11589578 0
2.8230002 0.13756634 0.11553863 0
2.8260002 0.13341758 0.11518145 0
2.8300002 0.12933016 0.11470526 0
2.8360002 0.125369 0.11399096 0
2.8430002 0.12145472 0.11315757 0
2.8560002 0.11791566 0.11160991 0
2.6870003 0.6388014 0.12760425 0
2.6820002 0.63318789 0.12820858 0
2.6790001 0.62818414 0.12857112 0
2.6780002 0.62377924 0.12869197 0
2.6770003 0.61937797 0.12881285 0
2.6760001 0.61498022 0.1289337 0
2.6770003 0.61116344 0.12881285 0
2.6780002 0.60734296 0.12869197 0
2.6790001 0.60351884 0.12857112 0
2.6810002 0.59997439 0.1283294 0
2.6840003 0.59670407 0.12796682 0
2.6870003 0.59342295 0.12760425 0
2.6910002 0.5904088 0.12712085 0
2.6970003 0.58793223 0.1263957 0
2.7060001 0.58625638 0.12530804 0
3.0680003 0.4400686 0.081558466 0
3.0570002 0.43327186 0.082887888 0
3.0530002 0.4277648 0.083371311 0
3.0500002 0.42244899 0.083733886 0
3.0490003 0.41749391 0.083854705 0
3.0480003 0.41254249 0.083975554 0
3.0490003 0.40793735 0.083854705 0
3.0500002 0.40332863 0.083733886 0
2.7720003 0.35191289 0.11733159 0
2.7660003 0.34663856 0.11805671 0
2.7630002 0.34187829 0.11841929 0
2.7610002 0.33729121 0.11866099 0
2.7600002 0.33287188 0.11878186 0
2.7600002 0.32861489 0.11878186 0
2.7600002 0.3243579 0.11878186 0
2.7610002 0.32025602 0.11866099 0
2.7630002 0.31630391 0.11841929 0
2.7650001 0.31234452 0.11817759 0
2.7670002 0.30837798 0.11793587 0
2.7710001 0.30469999 0.11745244 0
2.7770002 0.30129981 0.11672732 0
2.7870002 0.29845521 0.11551878 0
3.0730002 0.27704582 0.080954194 0
3.0670002 0.27150992 0.081679314 0
3.0620003 0.26611295 0.082283586 0
3.0590003 0.26096487 0.082646161 0
3.0570002 0.25594127 0.082887888 0
3.0550003 0.25092489 0.083129585 0
3.0540001 0.24602571 0.083250433 0
3.0530002 0.2411302 0.083371311 0
2.8470001 0.21442118 0.10826746 0
2.8350003 0.20875183 0.1097177 0
2.8290002 0.20374265 0.11044285 0
2.8240001 0.19885613 0.11104712 0
2.8210001 0.19418606 0.11140969 0
2.8180003 0.18952684 0.11177224 0
2.8160002 0.18497403 0.11201397 0
2.8150003 0.18052223 0.11213481 0
2.8140001 0.17607403 0.11225569 0
2.8130002 0.17162946 0.11237654 0
2.8130002 0.16727687 0.11237654 0
2.8130002 0.16292427 0.11237654 0
2.8140001 0.15865646 0.11225569 0
2.8140001 0.15430206 0.11225569 0
2.8160002 0.15011004 0.11201397 0
2.8180003 0.14591077 0.11177224 0
2.8200002 0.14170428 0.11153057 0
2.8230002 0.13756634 0.111168 0
2.8260002 0.13341758 0.11080542 0
2.8300002 0.12933016 0.11032203 0
2.8360002 0.125369 0.10959688 0
2.8430002 0.12145472 0.10875088 0
2.8560002 0.11791566 0.10717976 0
2.6870003 0.6388014 0.12347898 0
2.6820002 0.63318789 0.12409225 0
2.6790001 0.62818414 0.12446025 0
2.6780002 0.62377924 0.12458292 0
2.6770003 0.61937797 0.12470555 0
2.6760001 0.61498022 0.12482822 0
2.6770003 0.61116344 0.12470555 0
2.6780002 0.60734296 0.12458292 0
2.6790001 0.60351884 0.12446025 0
2.6810002 0.59997439 0.12421495 0
2.6840003 0.59670407 0.12384695 0
2.6870003 0.59342295 0.12347898 0
2.6910002 0.5904088 0.12298834 0
2.6970003 0.58793223 0.12225237 0
2.7060001 0.58625638 0.12114847 0
3.0680003 0.4400686 0.076745898 0
3.0570002 0.43327186 0.078095168 0
3.0530002 0.4277648 0.078585804 0
3.0500002 0.42244899 0.078953773 0
3.0490003 0.41749391 0.079076409 0
3.0480003 0.41254249 0.079199076 0
3.0490003 0.40793735 0.079076409 0
3.0500002 0.40332863 0.078953773 0
2.7720003 0.35191289 0.11305293 0
2.7660003 0.34663856 0.1137889 0
2.7630002 0.34187829 0.1141569 0
2.7610002 0.33729121 0.1144022 0
2.7600002 0.33287188 0.11452487 0
2.7600002 0.32861489 0.11452487 0
2.7600002 0.3243579 0.11452487 0
2.7610002 0.32025602 0.1144022 0
2.7630002 0.31630391 0.1141569 0
2.7650001 0.31234452 0.11391157 0
2.7680001 0.30852768 0.1135436 0
2.7710001 0.30469999 0.11317563 0
2.7770002 0.30129981 0.11243969 0
2.7870002 0.29845521 0.11121309 0
3.0730002 0.27704582 0.076132625 0
3.0670002 0.27150992 0.076868564 0
3.0620003 0.26611295 0.077481866 0
3.0590003 0.26096487 0.077849835 0
3.0570002 0.25594127 0.078095168 0
3.0550003 0.25092489 0.078340471 0
3.0540001 0.24602571 0.078463137 0
3.0530002 0.2411302 0.078585804 0
2.8470001 0.21442118 0.10385355 0
2.8350003 0.20875183 0.10532543 0
2.8290002 0.20374265 0.1060614 0
2.8240001 0.19885613 0.1066747 0
2.8210001 0.19418606 0.10704267 0
2.8180003 0.18952684 0.10741064 0
2.8160002 0.18497403 0.10765597 0
2.8150003 0.18052223 0.10777861 0
2.8140001 0.17607403 0.10790128 0
2.8130002 0.17162946 0.10802394 0
2.8130002 0.16727687 0.10802394 0
2.8130002 0.16292427 0.10802394 0
2.8140001 0.15865646 0.10790128 0
2.8140001 0.15430206 0.10790128 0
2.8160002 0.15011004 0.10765597 0
2.8180003 0.14591077 0.10741064 0
2.8200002 0.14170428 0.10716534 0
2.8230002 0.13756634 0.10679737 0
2.8260002 0.13341758 0.1064294 0
2.8300002 0.12933016 0.10593873 0
2.8360002 0.125369 0.10520279 0
2.8430002 0.12145472 0.10434419 0
2.8560002 0.11791566 0.10274962 0
2.6870003 0.6388014 0.11935365 0
2.6820002 0.63318789 0.11997598 0
2.6790001 0.62818414 0.12034938 0
2.6780002 0.62377924 0.12047383 0
2.6770003 0.61937797 0.12059829 0
2.6760001 0.61498022 0.12072277 0
2.6770003 0.61116344 0.12059829 0
2.6780002 0.60734296 0.12047383 0
2.6790001 0.60351884 0.12034938 0
2.6810002 0.59997439 0.12010044 0
2.6840003 0.59670407 0.11972705 0
2.6870003 0.59342295 0.11935365 0
2.6910002 0.5904088 0.1188558 0
2.6970003 0.58793223 0.11810902 0
2.7060001 0.58625638 0.1169889 0
3.0680003 0.4400686 0.071933359 0
3.0570002 0.43327186 0.073302448 0
3.0530002 0.4277648 0.073800296 0
3.0500002 0.42244899 0.074173689 0
3.0490003 0.41749391 0.074298143 0
3.0480003 0.41254249 0.074422568 0
3.0490003 0.40793735 0.074298143 0
3.0500002 0.40332863 0.074173689 0
2.7720003 0.35191289 0.1087743 0
2.7660003 0.34663856 0.10952109 0
2.7630002 0.34187829 0.10989448 0
2.7610002 0.33729121 0.11014345 0
2.7600002 0.33287188 0.11026788 0
2.7600002 0.32861489 0.11026788 0
2.7600002 0.3243579 0.11026788 0
2.7610002 0.32025602 0.11014345 0
2.7630002 0.31630391 0.10989448 0
2.7650001 0.31234452 0.10964558 0
2.7680001 0.30852768 0.10927218 0
2.7710001 0.30469999 0.10889882 0
2.7770002 0.30129981 0.10815203 0
2.7870002 0.29845521 0.1069074 0
3.0680003 0.27644154 0.071933359 0
3.0670002 0.27150992 0.072057813 0
3.0620003 0.26611295 0.072680116 0
3.0590003 0.26096487 0.073053509 0
3.0570002 0.25594127 0.073302448 0
3.0550003 0.25092489 0.073551357 0
3.0540001 0.24602571 0.073675841 0
3.0530002 0.2411302 0.073800296 0
2.8470001 0.21442118 0.099439621 0
2.8350003 0.20875183 0.10093316 0
2.8290002 0.20374265 0.10167995 0
2.8240001 0.19885613 0.10230228 0
2.8210001 0.19418606 0.10267568 0
2.8180003 0.18952684 0.10304904 0
2.8160002 0.18497403 0.10329795 0
2.8150003 0.18052223 0.10342243 0
2.8140001 0.17607403 0.10354689 0
2.8130002 0.17162946 0.10367134 0
2.8130002 0.16727687 0.10367134 0
2.8130002 0.16292427 0.10367134 0
2.8140001 0.15865646 0.10354689 0
2.8140001 0.15430206 0.10354689 0
2.8160002 0.15011004 0.10329795 0
2.8180003 0.14591077 0.10304904 0
2.8200002 0.14170428 0.1028001 0
2.8230002 0.13756634 0.10242671 0
2.8260002 0.13341758 0.10205334 0
2.8300002 0.12933016 0.1015555 0
2.8360002 0.125369 0.10080871 0
2.8430002 0.12145472 0.099937499 0
2.8560002 0.11791566 0.098319471 0
2.6870003 0.6388014 0.11522835 0
2.6820002 0.63318789 0.11585969 0
2.6790001 0.62818414 0.1162385 0
2.6780002 0.62377924 0.11636475 0
2.6770003 0.61937797 0.11649102 0
2.6760001 0.61498022 0.11661729 0
2.6770003 0.61116344 0.11649102 0
2.6780002 0.60734296 0.11636475 0
2.6790001 0.60351884 0.1162385 0
2.6810002 0.59997439 0.11598593 0
2.6840003 0.59670407 0.11560717 0
2.6870003 0.59342295 0.11522835 0
2.6910002 0.5904088 0.11472329 0
2.6970003 0.58793223 0.11396569 0
2.7060001 0.58625638 0.1128293 0
3.0680003 0.4400686 0.06712079 0
3.0570002 0.43327186 0.068509728 0
3.0530002 0.4277648 0.069014788 0
3.0500002 0.42244899 0.069393605 0
3.0490003 0.41749391 0.069519848 0
3.0480003 0.41254249 0.06964612 0
3.0490003 0.40793735 0.069519848 0
3.0500002 0.40332863 0.069393605 0
2.7720003 0.35191289 0.1044957 0
2.7660003 0.34663856 0.10525328 0
2.7630002 0.34187829 0.1056321 0
2.7610002 0.33729121 0.10588464 0
2.7600002 0.33287188 0.10601088 0
2.7600002 0.32861489 0.10601088 0
2.7600002 0.3243579 0.10601088 0
2.7610002 0.32025602 0.10588464 0
2.7630002 0.31630391 0.1056321 0
2.7650001 0.31234452 0.10537958 0
2.7680001 0.30852768 0.10500076 0
2.7710001 0.30469999 0.10462198 0
2.7770002 0.30129981 0.10386437 0
2.7870002 0.29845521 0.10260168 0
3.0530002 0.2746287 0.069014788 0
3.0420003 0.26853365 0.070403695 0
3.0430002 0.26388523 0.070277452 0
3.0440001 0.25923321 0.07015121 0
3.0460002 0.25469124 0.069898635 0
3.0470002 0.25003016 0.069772393 0
3.0480003 0.24536556 0.06964612 0
3.0500002 0.24080548 0.069393605 0
2.8470001 0.21442118 0.095025688 0
2.8350003 0.20875183 0.096540898 0
2.8290002 0.20374265 0.097298503 0
2.8240001 0.19885613 0.097929835 0
2.8210001 0.19418606 0.098308653 0
2.8180003 0.18952684 0.09868744 0
2.8160002 0.18497403 0.098939955 0
2.8150003 0.18052223 0.099066228 0
2.8140001 0.17607403 0.09919253 0
2.8130002 0.17162946 0.099318773 0
2.8130002 0.16727687 0.099318773 0
2.8130002 0.16292427 0.099318773 0
2.8140001 0.15865646 0.09919253 0
2.8140001 0.15430206 0.09919253 0
2.8160002 0.15011004 0.098939955 0
2.8180003 0.14591077 0.09868744 0
2.8200002 0.14170428 0.098434895 0
2.8230002 0.13756634 0.098056108 0
2.8260002 0.13341758 0.09767729 0
2.8300002 0.12933016 0.09717223 0
2.8360002 0.125369 0.096414655 0
2.8430002 0.12145472 0.095530778 0
2.8560002 0.11791566 0.093889296 0
2.6870003 0.6388014 0.11110303 0
2.6820002 0.63318789 0.11174339 0
2.6790001 0.62818414 0.1121276 0
2.6780002 0.62377924 0.11225569 0
2.6770003 0.61937797 0.11238375 0
2.6760001 0.61498022 0.11251181 0
2.6770003 0.61116344 0.11238375 0
2.6780002 0.60734296 0.11225569 0
2.6790001 0.60351884 0.1121276 0
2.6810002 0.59997439 0.11187148 0
2.6840003 0.59670407 0.11148724 0
2.6870003 0.59342295 0.11110303 0
2.6910002 0.5904088 0.11059076 0
2.6970003 0.58793223 0.10982233 0
2.7060001 0.58625638 0.10866973 0
3.0680003 0.4400686 0.062308222 0
3.0570002 0.43327186 0.063717008 0
3.0530002 0.4277648 0.06422928 0
3.0500002 0.42244899 0.064613491 0
3.0490003 0.41749391 0.064741552 0
3.0480003 0.41254249 0.064869642 0
3.0490003 0.40793735 0.064741552 0
3.0500002 0.40332863 0.064613491 0
2.7720003 0.35191289 0.10021704 0
2.7660003 0.34663856 0.1009855 0
2.7630002 0.34187829 0.10136968 0
2.7610002 0.33729121 0.10162583 0
2.7600002 0.33287188 0.10175389 0
2.7600002 0.32861489 0.10175389 0
2.7600002 0.3243579 0.10175389 0
2.7610002 0.32025602 0.10162583 0
2.7630002 0.31630391 0.10136968 0
2.7650001 0.31234452 0.10111359 0
2.7680001 0.30852768 0.10072935 0
2.7710001 0.30469999 0.10034513 0
2.7770002 0.30129981 0.099576712 0
2.7870002 0.29845521 0.098296016 0
3.0530002 0.2746287 0.06422928 0
3.0420003 0.26853365 0.065638036 0
3.0430002 0.26388523 0.065509975 0
3.0440001 0.25923321 0.065381944 0
3.0460002 0.25469124 0.065125763 0
3.0470002 0.25003016 0.064997703 0
3.0480003 0.24536556 0.064869642 0
3.0500002 0.24080548 0.064613491 0
2.8470001 0.21442118 0.090611786 0
2.8350003 0.20875183 0.092148632 0
2.8290002 0.20374265 0.092917025 0
2.8240001 0.19885613 0.093557417 0
2.8210001 0.19418606 0.093941629 0
2.8180003 0.18952684 0.094325811 0
2.8160002 0.18497403 0.094581962 0
2.8150003 0.18052223 0.094710022 0
2.8140001 0.17607403 0.094838113 0
2.8130002 0.17162946 0.094966173 0
2.8130002 0.16727687 0.094966173 0
2.8130002 0.16292427 0.094966173 0
2.8140001 0.15865646 0.094838113 0
2.8140001 0.15430206 0.094838113 0
2.8160002 0.15011004 0.094581962 0
2.8180003 0.14591077 0.094325811 0
2.8200002 0.14170428 0.09406969 0
2.8230002 0.13756634 0.093685478 0
2.8260002 0.13341758 0.093301266 0
2.8300002 0.12933016 0.092788994 0
2.8360002 0.125369 0.092020541 0
2.8430002 0.12145472 0.091124088 0
2.8560002 0.11791566 0.089459151 0
2.6870003 0.6388014 0.10697773 0
2.6820002 0.63318789 0.10762712 0
2.6790001 0.62818414 0.10801676 0
2.6780002 0.62377924 0.10814661 0
2.6770003 0.61937797 0.10827646 0
2.6760001 0.61498022 0.10840634 0
2.6770003 0.61116344 0.10827646 0
2.6780002 0.60734296 0.10814661 0
2.6790001 0.60351884 0.10801676 0
2.6810002 0.59997439 0.10775697 0
2.6840003 0.59670407 0.10736734 0
2.6870003 0.59342295 0.10697773 0
2.6910002 0.5904088 0.10645825 0
2.6970003 0.58793223 0.10567898 0
2.7060001 0.58625638 0.10451016 0
3.0680003 0.4400686 0.057495683 0
3.0570002 0.43327186 0.058924288 0
3.0530002 0.4277648 0.059443772 0
3.0500002 0.42244899 0.059833407 0
3.0490003 0.41749391 0.059963286 0
3.0480003 0.41254249 0.060093135 0
3.0490003 0.40793735 0.059963286 0
3.0500002 0.40332863 0.059833407 0
2.7720003 0.35191289 0.095938414 0
2.7660003 0.34663856 0.096717656 0
