# .PCD v0.7 - Point Cloud Data file format
VERSION 0.7
FIELDS x y z intensity
SIZE 4 4 4 4
TYPE F F F F
COUNT 1 1 1 1
WIDTH 1373
HEIGHT 1
VIEWPOINT 0 0 0 1 0 0 0
POINTS 1373
DATA ascii
2.5930002 -0.84901756 0.85495567 0
2.5920002 -0.85260534 0.85475004 0
2.5920002 -0.85655928 0.85475004 0
2.5910003 -0.86014169 0.85454446 0
2.5910003 -0.86409384 0.85454446 0
2.5900002 -0.86767071 0.85433877 0
2.5900002 -0.87162107 0.85433877 0
2.5890002 -0.87519264 0.85413313 0
2.5890002 -0.87914115 0.85413313 0
2.5880003 -0.8827073 0.85392749 0
2.5880003 -0.88665402 0.85392749 0
2.5870001 -0.89021468 0.85372186 0
2.5870001 -0.89415962 0.85372186 0
2.5860002 -0.89771497 0.85351622 0
2.5860002 -0.90165812 0.85351622 0
2.5850003 -0.90520805 0.85331064 0
2.5850003 -0.90914935 0.85331064 0
2.5840001 -0.91269374 0.85310495 0
2.5840001 -0.91663325 0.85310495 0
2.5830002 -0.92017233 0.85289931 0
2.5830002 -0.92411005 0.85289931 0
2.5820003 -0.92764378 0.85269368 0
2.5820003 -0.93157971 0.85269368 0
2.5810001 -0.93510789 0.85248804 0
2.5810001 -0.93904197 0.85248804 0
2.5800002 -0.94256485 0.8522824 0
2.5800002 -0.94649708 0.8522824 0
2.5790002 -0.95001459 0.85207683 0
2.5780003 -0.9535284 0.85187119 0
2.5780003 -0.95745713 0.85187119 0
2.5770001 -0.96096545 0.8516655 0
2.5770001 -0.96489233 0.8516655 0
2.8140001 -0.62077987 0.8960464 0
2.8040001 -0.6227352 0.89400816 0
2.7970002 -0.62537956 0.89258134 0
2.7920003 -0.62848574 0.89156216 0
2.7880001 -0.63181919 0.89074683 0
2.7840002 -0.63513815 0.8899315 0
2.7810001 -0.63869166 0.88932002 0
2.7780001 -0.64223433 0.88870847 0
2.7760003 -0.64601874 0.8883009 0
2.7740002 -0.64979595 0.8878932 0
2.7720003 -0.65356594 0.88748556 0
2.7710001 -0.65758657 0.88728172 0
2.7700002 -0.66160369 0.88707793 0
2.7690003 -0.66561717 0.88687408 0
2.7690003 -0.6698904 0.88687408 0
2.7680001 -0.6738984 0.88667023 0
2.7680001 -0.67816979 0.88667023 0
2.7670002 -0.68217248 0.88646638 0
2.7670002 -0.68644214 0.88646638 0
2.7660003 -0.69043934 0.88626266 0
2.7660003 -0.69470716 0.88626266 0
2.7650001 -0.69869894 0.88605869 0
2.7640002 -0.7026872 0.88585496 0
2.7640002 -0.70695138 0.88585496 0
2.6170001 -0.66985065 0.85589182 0
2.6170001 -0.6738497 0.85589182 0
2.6160002 -0.67756379 0.85568798 0
2.6160002 -0.68156105 0.85568798 0
2.6150002 -0.68526965 0.85548419 0
2.6150002 -0.68926507 0.85548419 0
2.6140001 -0.69296825 0.85528034 0
2.6140001 -0.69696188 0.85528034 0
2.6130002 -0.70065969 0.85507655 0
2.6130002 -0.70465159 0.85507655 0
2.6120002 -0.70834398 0.8548727 0
2.6120002 -0.71233398 0.8548727 0
2.6110003 -0.716021 0.85466886 0
2.6110003 -0.72000921 0.85466886 0
2.6100001 -0.72369075 0.85446501 0
2.6100001 -0.72767717 0.85446501 0
2.6090002 -0.73135334 0.85426122 0
2.6090002 -0.73533791 0.85426122 0
2.6080003 -0.73900867 0.85405743 0
2.6070001 -0.74267584 0.85385358 0
2.6070001 -0.74665684 0.85385358 0
2.6060002 -0.75031853 0.85364974 0
2.6060002 -0.75429779 0.85364974 0
2.6050003 -0.75795412 0.85344589 0
2.6050003 -0.76193148 0.85344589 0
2.6040001 -0.76558238 0.85324204 0
2.6040001 -0.76955795 0.85324204 0
2.6030002 -0.77320349 0.85303819 0
2.6030002 -0.77717727 0.85303819 0
2.6020002 -0.78081739 0.8528344 0
2.6020002 -0.78478932 0.8528344 0
2.6010003 -0.78842407 0.85263062 0
2.6010003 -0.79239422 0.85263062 0
2.6000001 -0.79602349 0.85242677 0
2.6000001 -0.79999179 0.85242677 0
2.5990002 -0.80361575 0.85222292 0
2.5990002 -0.80758226 0.85222292 0
2.5980003 -0.81120074 0.85201907 0
2.5980003 -0.81516552 0.85201907 0
2.5970001 -0.81877851 0.85181522 0
2.5970001 -0.82274145 0.85181522 0
2.5960002 -0.82634908 0.85161138 0
2.5950003 -0.82995313 0.85140759 0
2.5950003 -0.83391249 0.85140759 0
2.5940001 -0.837511 0.85120374 0
2.5940001 -0.84146857 0.85120374 0
2.5930002 -0.84506178 0.85099995 0
2.5930002 -0.84901756 0.85099995 0
2.5920002 -0.85260534 0.8507961 0
2.5920002 -0.85655928 0.8507961 0
2.5910003 -0.86014169 0.85059226 0
2.5910003 -0.86409384 0.85059226 0
2.5900002 -0.86767071 0.85038841 0
2.5900002 -0.87162107 0.85038841 0
2.5890002 -0.87519264 0.85018456 0
2.5890002 -0.87914115 0.85018456 0
2.5880003 -0.8827073 0.84998083 0
2.5880003 -0.88665402 0.84998083 0
2.5870001 -0.89021468 0.84977692 0
2.5870001 -0.89415962 0.84977692 0
2.5860002 -0.89771497 0.84957314 0
2.5860002 -0.90165812 0.84957314 0
2.5850003 -0.90520805 0.84936929 0
2.5850003 -0.90914935 0.84936929 0
2.5840001 -0.91269374 0.84916544 0
2.5840001 -0.91663325 0.84916544 0
2.5830002 -0.92017233 0.84896159 0
2.5830002 -0.92411005 0.84896159 0
2.5820003 -0.92764378 0.84875786 0
2.5820003 -0.93157971 0.84875786 0
2.5810001 -0.93510789 0.84855396 0
2.5810001 -0.93904197 0.84855396 0
2.5800002 -0.94256485 0.84835017 0
2.5800002 -0.94649708 0.84835017 0
2.5790002 -0.95001459 0.84814632 0
2.5780003 -0.9535284 0.84794247 0
2.5780003 -0.95745713 0.84794247 0
2.5770001 -0.96096545 0.84773862 0
2.5770001 -0.96489233 0.84773862 0
2.6310003 -0.56915855 0.85472119 0
2.6310003 -0.57318282 0.85472119 0
2.6300001 -0.57696903 0.85451913 0
2.6300001 -0.58099145 0.85451913 0
2.6290002 -0.58477223 0.85431713 0
2.6290002 -0.58879292 0.85431713 0
2.6280003 -0.59256834 0.85411513 0
2.6280003 -0.59658724 0.85411513 0
2.6270001 -0.60035712 0.85391307 0
2.6270001 -0.60437423 0.85391307 0
2.6260002 -0.6081388 0.85371101 0
2.6250002 -0.61189973 0.85350907 0
2.6250002 -0.61591321 0.85350907 0
2.6240003 -0.61966878 0.85330701 0
2.6240003 -0.62368047 0.85330701 0
2.6230001 -0.62743056 0.85310495 0
2.6230001 -0.6314404 0.85310495 0
2.6220002 -0.63518512 0.85290295 0
2.6220002 -0.63919318 0.85290295 0
2.6210003 -0.64293247 0.85270095 0
2.6210003 -0.64693874 0.85270095 0
2.6200001 -0.65067255 0.85249889 0
2.6200001 -0.65467703 0.85249889 0
2.6190002 -0.65840554 0.85229683 0
2.6190002 -0.66240817 0.85229683 0
2.6180003 -0.66613126 0.85209489 0
2.6170001 -0.66985065 0.85189283 0
2.6170001 -0.6738497 0.85189283 0
2.6160002 -0.67756379 0.85169077 0
2.6160002 -0.68156105 0.85169077 0
2.6150002 -0.68526965 0.85148877 0
2.6150002 -0.68926507 0.85148877 0
2.6140001 -0.69296825 0.85128671 0
2.6140001 -0.69696188 0.85128671 0
2.6130002 -0.70065969 0.85108471 0
2.6130002 -0.70465159 0.85108471 0
2.6120002 -0.70834398 0.85088265 0
2.6120002 -0.71233398 0.85088265 0
2.6110003 -0.716021 0.85068071 0
2.6110003 -0.72000921 0.85068071 0
2.6100001 -0.72369075 0.85047865 0
2.6100001 -0.72767717 0.85047865 0
2.6090002 -0.73135334 0.85027659 0
2.6090002 -0.73533791 0.85027659 0
2.6080003 -0.73900867 0.85007459 0
2.6070001 -0.74267584 0.84987253 0
2.6070001 -0.74665684 0.84987253 0
2.6060002 -0.75031853 0.84967053 0
2.6060002 -0.75429779 0.84967053 0
2.6050003 -0.75795412 0.84946847 0
2.6050003 -0.76193148 0.84946847 0
2.6040001 -0.76558238 0.84926641 0
2.6040001 -0.76955795 0.84926641 0
2.6030002 -0.77320349 0.84906447 0
2.6030002 -0.77717727 0.84906447 0
2.6020002 -0.78081739 0.84886241 0
2.6020002 -0.78478932 0.84886241 0
2.6010003 -0.78842407 0.84866041 0
2.6010003 -0.79239422 0.84866041 0
2.6000001 -0.79602349 0.84845835 0
2.6000001 -0.79999179 0.84845835 0
2.5990002 -0.80361575 0.84825635 0
2.5990002 -0.80758226 0.84825635 0
2.5980003 -0.81120074 0.84805429 0
2.5980003 -0.81516552 0.84805429 0
2.5970001 -0.81877851 0.84785223 0
2.5970001 -0.82274145 0.84785223 0
2.5960002 -0.82634908 0.84765029 0
2.5950003 -0.82995313 0.84744823 0
2.5950003 -0.83391249 0.84744823 0
2.5940001 -0.837511 0.84724617 0
2.5940001 -0.84146857 0.84724617 0
2.5930002 -0.84506178 0.84704417 0
2.5930002 -0.84901756 0.84704417 0
2.5920002 -0.85260534 0.84684217 0
2.5920002 -0.85655928 0.84684217 0
2.5910003 -0.86014169 0.84664017 0
2.5910003 -0.86409384 0.84664017 0
2.5900002 -0.86767071 0.84643805 0
2.5900002 -0.87162107 0.84643805 0
2.5890002 -0.87519264 0.84623611 0
2.5890002 -0.87914115 0.84623611 0
2.5880003 -0.8827073 0.84603405 0
2.5880003 -0.88665402 0.84603405 0
2.5870001 -0.89021468 0.84583199 0
2.5870001 -0.89415962 0.84583199 0
2.5860002 -0.89771497 0.84562999 0
2.5860002 -0.90165812 0.84562999 0
2.5850003 -0.90520805 0.84542799 0
2.5850003 -0.90914935 0.84542799 0
2.5840001 -0.91269374 0.84522593 0
2.5840001 -0.91663325 0.84522593 0
2.5830002 -0.92017233 0.84502387 0
2.5830002 -0.92411005 0.84502387 0
2.5820003 -0.92764378 0.84482193 0
2.5820003 -0.93157971 0.84482193 0
2.5810001 -0.93510789 0.84461987 0
2.5810001 -0.93904197 0.84461987 0
2.5800002 -0.94256485 0.84441781 0
2.5800002 -0.94649708 0.84441781 0
2.5790002 -0.95001459 0.84421581 0
2.5780003 -0.9535284 0.84401381 0
2.5780003 -0.95745713 0.84401381 0
2.5770001 -0.96096545 0.84381175 0
2.5770001 -0.96489233 0.84381175 0
2.6310003 -0.56915855 0.85069692 0
2.6310003 -0.57318282 0.85069692 0
2.6300001 -0.57696903 0.85049665 0
2.6300001 -0.58099145 0.85049665 0
2.6290002 -0.58477223 0.85029644 0
2.6290002 -0.58879292 0.85029644 0
2.6280003 -0.59256834 0.85009623 0
2.6280003 -0.59658724 0.85009623 0
2.6270001 -0.60035712 0.84989595 0
2.6270001 -0.60437423 0.84989595 0
2.6260002 -0.6081388 0.8496958 0
2.6250002 -0.61189973 0.84949553 0
2.6250002 -0.61591321 0.84949553 0
2.6240003 -0.61966878 0.84929538 0
2.6240003 -0.62368047 0.84929538 0
2.6230001 -0.62743056 0.84909511 0
2.6230001 -0.6314404 0.84909511 0
2.6220002 -0.63518512 0.84889489 0
2.6220002 -0.63919318 0.84889489 0
2.6210003 -0.64293247 0.84869468 0
2.6210003 -0.64693874 0.84869468 0
2.6200001 -0.65067255 0.84849441 0
2.6200001 -0.65467703 0.84849441 0
2.6190002 -0.65840554 0.8482942 0
2.6190002 -0.66240817 0.8482942 0
2.6180003 -0.66613126 0.84809399 0
2.6170001 -0.66985065 0.84789377 0
2.6170001 -0.6738497 0.84789377 0
2.6160002 -0.67756379 0.84769356 0
2.6160002 -0.68156105 0.84769356 0
2.6150002 -0.68526965 0.84749335 0
2.6150002 -0.68926507 0.84749335 0
2.6140001 -0.69296825 0.84729308 0
2.6140001 -0.69696188 0.84729308 0
2.6130002 -0.70065969 0.84709287 0
2.6130002 -0.70465159 0.84709287 0
2.6120002 -0.70834398 0.84689265 0
2.6120002 -0.71233398 0.84689265 0
2.6110003 -0.716021 0.84669244 0
2.6110003 -0.72000921 0.84669244 0
2.6100001 -0.72369075 0.84649217 0
2.6100001 -0.72767717 0.84649217 0
2.6090002 -0.73135334 0.84629202 0
2.6090002 -0.73533791 0.84629202 0
2.6080003 -0.73900867 0.84609175 0
2.6070001 -0.74267584 0.84589154 0
2.6070001 -0.74665684 0.84589154 0
2.6060002 -0.75031853 0.84569132 0
2.6060002 -0.75429779 0.84569132 0
2.6050003 -0.75795412 0.84549111 0
2.6050003 -0.76193148 0.84549111 0
2.6040001 -0.76558238 0.84529084 0
2.6040001 -0.76955795 0.84529084 0
2.6030002 -0.77320349 0.84509063 0
2.6030002 -0.77717727 0.84509063 0
2.6020002 -0.78081739 0.84489048 0
2.6020002 -0.78478932 0.84489048 0
2.6010003 -0.78842407 0.8446902 0
2.6010003 -0.79239422 0.8446902 0
2.6000001 -0.79602349 0.84448999 0
2.6000001 -0.79999179 0.84448999 0
2.5990002 -0.80361575 0.84428978 0
2.5990002 -0.80758226 0.84428978 0
2.5980003 -0.81120074 0.84408957 0
2.5980003 -0.81516552 0.84408957 0
2.5970001 -0.81877851 0.8438893 0
2.5970001 -0.82274145 0.8438893 0
2.5960002 -0.82634908 0.84368908 0
2.5950003 -0.82995313 0.84348887 0
2.5950003 -0.83391249 0.84348887 0
2.5940001 -0.837511 0.84328866 0
2.5940001 -0.84146857 0.84328866 0
2.5930002 -0.84506178 0.84308839 0
2.5930002 -0.84901756 0.84308839 0
2.5920002 -0.85260534 0.84288824 0
2.5920002 -0.85655928 0.84288824 0
2.5910003 -0.86014169 0.84268796 0
2.5910003 -0.86409384 0.84268796 0
2.5900002 -0.86767071 0.84248775 0
2.5900002 -0.87162107 0.84248775 0
2.5890002 -0.87519264 0.84228754 0
2.5890002 -0.87914115 0.84228754 0
2.5880003 -0.8827073 0.84208733 0
2.5880003 -0.88665402 0.84208733 0
2.5870001 -0.89021468 0.84188712 0
2.5870001 -0.89415962 0.84188712 0
2.5860002 -0.89771497 0.84168684 0
2.5860002 -0.90165812 0.84168684 0
2.5850003 -0.90520805 0.84148669 0
2.5850003 -0.90914935 0.84148669 0
2.5840001 -0.91269374 0.84128642 0
2.5840001 -0.91663325 0.84128642 0
2.5830002 -0.92017233 0.84108615 0
2.5830002 -0.92411005 0.84108615 0
2.5820003 -0.92764378 0.840886 0
2.5820003 -0.93157971 0.840886 0
2.5810001 -0.93510789 0.84068573 0
2.5810001 -0.93904197 0.84068573 0
2.5800002 -0.94256485 0.84048557 0
2.5800002 -0.94649708 0.84048557 0
2.5790002 -0.95001459 0.8402853 0
2.5780003 -0.9535284 0.84008515 0
2.5780003 -0.95745713 0.84008515 0
2.5770001 -0.96096545 0.83988488 0
2.5770001 -0.96489233 0.83988488 0
2.6310003 -0.56915855 0.84667259 0
2.6310003 -0.57318282 0.84667259 0
2.6300001 -0.57696903 0.84647417 0
2.6300001 -0.58099145 0.84647417 0
2.6290002 -0.58477223 0.84627575 0
2.6290002 -0.58879292 0.84627575 0
2.6280003 -0.59256834 0.84607732 0
2.6280003 -0.59658724 0.84607732 0
2.6270001 -0.60035712 0.8458789 0
2.6270001 -0.60437423 0.8458789 0
2.6260002 -0.6081388 0.84568048 0
2.6250002 -0.61189973 0.84548211 0
2.6250002 -0.61591321 0.84548211 0
2.6240003 -0.61966878 0.84528369 0
2.6240003 -0.62368047 0.84528369 0
2.6230001 -0.62743056 0.8450852 0
2.6230001 -0.6314404 0.8450852 0
2.6220002 -0.63518512 0.84488684 0
2.6220002 -0.63919318 0.84488684 0
2.6210003 -0.64293247 0.84468842 0
2.6210003 -0.64693874 0.84468842 0
2.6200001 -0.65067255 0.84448993 0
2.6200001 -0.65467703 0.84448993 0
2.6190002 -0.65840554 0.84429157 0
2.6190002 -0.66240817 0.84429157 0
2.6180003 -0.66613126 0.8440932 0
2.6170001 -0.66985065 0.84389472 0
2.6170001 -0.6738497 0.84389472 0
2.6160002 -0.67756379 0.8436963 0
2.6160002 -0.68156105 0.8436963 0
2.6150002 -0.68526965 0.84349787 0
2.6150002 -0.68926507 0.84349787 0
2.6140001 -0.69296825 0.84329945 0
2.6140001 -0.69696188 0.84329945 0
2.6130002 -0.70065969 0.84310102 0
2.6130002 -0.70465159 0.84310102 0
2.6120002 -0.70834398 0.84290266 0
2.6120002 -0.71233398 0.84290266 0
2.6110003 -0.716021 0.84270424 0
2.6110003 -0.72000921 0.84270424 0
2.6100001 -0.72369075 0.84250581 0
2.6100001 -0.72767717 0.84250581 0
2.6090002 -0.73135334 0.84230733 0
2.6090002 -0.73533791 0.84230733 0
2.6080003 -0.73900867 0.84210896 0
2.6070001 -0.74267584 0.84191048 0
2.6070001 -0.74665684 0.84191048 0
2.6060002 -0.75031853 0.84171212 0
2.6060002 -0.75429779 0.84171212 0
2.6050003 -0.75795412 0.84151375 0
2.6050003 -0.76193148 0.84151375 0
2.6040001 -0.76558238 0.84131527 0
2.6040001 -0.76955795 0.84131527 0
2.6030002 -0.77320349 0.84111685 0
2.6030002 -0.77717727 0.84111685 0
2.6020002 -0.78081739 0.84091842 0
2.6020002 -0.78478932 0.84091842 0
2.6010003 -0.78842407 0.84072006 0
2.6010003 -0.79239422 0.84072006 0
2.6000001 -0.79602349 0.84052157 0
2.6000001 -0.79999179 0.84052157 0
2.5990002 -0.80361575 0.84032321 0
2.5990002 -0.80758226 0.84032321 0
2.5980003 -0.81120074 0.84012479 0
2.5980003 -0.81516552 0.84012479 0
2.5970001 -0.81877851 0.83992636 0
2.5970001 -0.82274145 0.83992636 0
2.5960002 -0.82634908 0.83972794 0
2.5950003 -0.82995313 0.83952951 0
2.5950003 -0.83391249 0.83952951 0
2.5940001 -0.837511 0.83933103 0
2.5940001 -0.84146857 0.83933103 0
2.5930002 -0.84506178 0.83913267 0
2.5930002 -0.84901756 0.83913267 0
2.5920002 -0.85260534 0.83893424 0
2.5920002 -0.85655928 0.83893424 0
2.5910003 -0.86014169 0.83873582 0
2.5910003 -0.86409384 0.83873582 0
2.5900002 -0.86767071 0.83853745 0
2.5900002 -0.87162107 0.83853745 0
2.5890002 -0.87519264 0.83833897 0
2.5890002 -0.87914115 0.83833897 0
2.5880003 -0.8827073 0.83814061 0
2.5880003 -0.88665402 0.83814061 0
2.5870001 -0.89021468 0.83794212 0
2.5870001 -0.89415962 0.83794212 0
2.5860002 -0.89771497 0.83774376 0
2.5860002 -0.90165812 0.83774376 0
2.5850003 -0.90520805 0.83754534 0
2.5850003 -0.90914935 0.83754534 0
2.5840001 -0.91269374 0.83734691 0
2.5840001 -0.91663325 0.83734691 0
2.5830002 -0.92017233 0.83714849 0
2.5830002 -0.92411005 0.83714849 0
2.5820003 -0.92764378 0.83695006 0
2.5820003 -0.93157971 0.83695006 0
2.5810001 -0.93510789 0.83675164 0
2.5810001 -0.93904197 0.83675164 0
2.5800002 -0.94256485 0.83655322 0
2.5800002 -0.94649708 0.83655322 0
2.5790002 -0.95001459 0.83635485 0
2.5780003 -0.9535284 0.83615637 0
2.5780003 -0.95745713 0.83615637 0
2.5770001 -0.96096545 0.83595794 0
2.5770001 -0.96489233 0.83595794 0
2.6310003 -0.56915855 0.84264827 0
2.6310003 -0.57318282 0.84264827 0
2.6300001 -0.57696903 0.84245169 0
2.6300001 -0.58099145 0.84245169 0
2.6290002 -0.58477223 0.84225506 0
2.6290002 -0.58879292 0.84225506 0
2.6280003 -0.59256834 0.84205848 0
2.6280003 -0.59658724 0.84205848 0
2.6270001 -0.60035712 0.84186184 0
2.6270001 -0.60437423 0.84186184 0
2.6260002 -0.6081388 0.84166521 0
2.6250002 -0.61189973 0.84146857 0
2.6250002 -0.61591321 0.84146857 0
2.6240003 -0.61966878 0.841272 0
2.6240003 -0.62368047 0.841272 0
2.6230001 -0.62743056 0.84107536 0
2.6230001 -0.6314404 0.84107536 0
2.6220002 -0.63518512 0.84087873 0
2.6220002 -0.63919318 0.84087873 0
2.6210003 -0.64293247 0.84068215 0
2.6210003 -0.64693874 0.84068215 0
2.6200001 -0.65067255 0.84048551 0
2.6200001 -0.65467703 0.84048551 0
2.6190002 -0.65840554 0.84028894 0
2.6190002 -0.66240817 0.84028894 0
2.6180003 -0.66613126 0.8400923 0
2.6170001 -0.66985065 0.83989567 0
2.6170001 -0.6738497 0.83989567 0
2.6160002 -0.67756379 0.83969903 0
2.6160002 -0.68156105 0.83969903 0
2.6150002 -0.68526965 0.83950245 0
2.6150002 -0.68926507 0.83950245 0
2.6140001 -0.69296825 0.83930582 0
2.6140001 -0.69696188 0.83930582 0
2.6130002 -0.70065969 0.83910918 0
2.6130002 -0.70465159 0.83910918 0
2.6120002 -0.70834398 0.83891261 0
2.6120002 -0.71233398 0.83891261 0
2.6110003 -0.716021 0.83871603 0
2.6110003 -0.72000921 0.83871603 0
2.6100001 -0.72369075 0.83851933 0
2.6100001 -0.72767717 0.83851933 0
2.6090002 -0.73135334 0.83832276 0
2.6090002 -0.73533791 0.83832276 0
2.6080003 -0.73900867 0.83812618 0
2.6070001 -0.74267584 0.83792949 0
2.6070001 -0.74665684 0.83792949 0
2.6060002 -0.75031853 0.83773291 0
2.6060002 -0.75429779 0.83773291 0
2.6050003 -0.75795412 0.83753633 0
2.6050003 -0.76193148 0.83753633 0
2.6040001 -0.76558238 0.83733964 0
2.6040001 -0.76955795 0.83733964 0
2.6030002 -0.77320349 0.83714306 0
2.6030002 -0.77717727 0.83714306 0
2.6020002 -0.78081739 0.83694649 0
2.6020002 -0.78478932 0.83694649 0
2.6010003 -0.78842407 0.83674991 0
2.6010003 -0.79239422 0.83674991 0
2.6000001 -0.79602349 0.83655322 0
2.6000001 -0.79999179 0.83655322 0
2.5990002 -0.80361575 0.83635664 0
2.5990002 -0.80758226 0.83635664 0
2.5980003 -0.81120074 0.83616 0
2.5980003 -0.81516552 0.83616 0
2.5970001 -0.81877851 0.83596337 0
2.5970001 -0.82274145 0.83596337 0
2.5960002 -0.82634908 0.83576679 0
2.5950003 -0.82995313 0.83557016 0
2.5950003 -0.83391249 0.83557016 0
2.5940001 -0.837511 0.83537352 0
2.5940001 -0.84146857 0.83537352 0
2.5930002 -0.84506178 0.83517694 0
2.5930002 -0.84901756 0.83517694 0
2.5920002 -0.85260534 0.83498031 0
2.5920002 -0.85655928 0.83498031 0
2.5910003 -0.86014169 0.83478373 0
2.5910003 -0.86409384 0.83478373 0
2.5900002 -0.86767071 0.8345871 0
2.5900002 -0.87162107 0.8345871 0
2.5890002 -0.87519264 0.83439046 0
2.5890002 -0.87914115 0.83439046 0
2.5880003 -0.8827073 0.83419383 0
2.5880003 -0.88665402 0.83419383 0
2.5870001 -0.89021468 0.83399725 0
2.5870001 -0.89415962 0.83399725 0
2.5860002 -0.89771497 0.83380061 0
2.5860002 -0.90165812 0.83380061 0
2.5850003 -0.90520805 0.83360404 0
2.5850003 -0.90914935 0.83360404 0
2.5840001 -0.91269374 0.8334074 0
2.5840001 -0.91663325 0.8334074 0
2.5830002 -0.92017233 0.83321077 0
2.5830002 -0.92411005 0.83321077 0
2.5820003 -0.92764378 0.83301413 0
2.5820003 -0.93157971 0.83301413 0
2.5810001 -0.93510789 0.83281755 0
2.5810001 -0.93904197 0.83281755 0
2.5800002 -0.94256485 0.83262092 0
2.5800002 -0.94649708 0.83262092 0
2.5790002 -0.95001459 0.83242428 0
2.5780003 -0.9535284 0.83222771 0
2.5780003 -0.95745713 0.83222771 0
2.5770001 -0.96096545 0.83203107 0
2.5770001 -0.96489233 0.83203107 0
2.6310003 -0.56915855 0.838624 0
2.6310003 -0.57318282 0.838624 0
2.6300001 -0.57696903 0.83842915 0
2.6300001 -0.58099145 0.83842915 0
2.6290002 -0.58477223 0.83823436 0
2.6290002 -0.58879292 0.83823436 0
2.6280003 -0.59256834 0.83803958 0
2.6280003 -0.59658724 0.83803958 0
2.6270001 -0.60035712 0.83784473 0
2.6270001 -0.60437423 0.83784473 0
2.6260002 -0.6081388 0.83764994 0
2.6250002 -0.61189973 0.83745515 0
2.6250002 -0.61591321 0.83745515 0
2.6240003 -0.61966878 0.83726037 0
2.6240003 -0.62368047 0.83726037 0
2.6230001 -0.62743056 0.83706546 0
2.6230001 -0.6314404 0.83706546 0
2.6220002 -0.63518512 0.83687067 0
2.6220002 -0.63919318 0.83687067 0
2.6210003 -0.64293247 0.83667588 0
2.6210003 -0.64693874 0.83667588 0
2.6200001 -0.65067255 0.83648109 0
2.6200001 -0.65467703 0.83648109 0
2.6190002 -0.65840554 0.83628625 0
2.6190002 -0.66240817 0.83628625 0
2.6180003 -0.66613126 0.83609146 0
2.6170001 -0.66985065 0.83589661 0
2.6170001 -0.6738497 0.83589661 0
2.6160002 -0.67756379 0.83570182 0
2.6160002 -0.68156105 0.83570182 0
2.6150002 -0.68526965 0.83550704 0
2.6150002 -0.68926507 0.83550704 0
2.6140001 -0.69296825 0.83531219 0
2.6140001 -0.69696188 0.83531219 0
2.6130002 -0.70065969 0.8351174 0
2.6130002 -0.70465159 0.8351174 0
2.6120002 -0.70834398 0.83492255 0
2.6120002 -0.71233398 0.83492255 0
2.6110003 -0.716021 0.83472776 0
2.6110003 -0.72000921 0.83472776 0
2.6100001 -0.72369075 0.83453298 0
2.6100001 -0.72767717 0.83453298 0
2.6090002 -0.73135334 0.83433813 0
2.6090002 -0.73533791 0.83433813 0
2.6080003 -0.73900867 0.8341434 0
2.6070001 -0.74267584 0.83394849 0
2.6070001 -0.74665684 0.83394849 0
2.6060002 -0.75031853 0.83375371 0
2.6060002 -0.75429779 0.83375371 0
2.6050003 -0.75795412 0.83355892 0
2.6050003 -0.76193148 0.83355892 0
2.6040001 -0.76558238 0.83336407 0
2.6040001 -0.76955795 0.83336407 0
2.6030002 -0.77320349 0.83316928 0
2.6030002 -0.77717727 0.83316928 0
2.6020002 -0.78081739 0.83297443 0
2.6020002 -0.78478932 0.83297443 0
2.6010003 -0.78842407 0.83277965 0
2.6010003 -0.79239422 0.83277965 0
2.6000001 -0.79602349 0.83258486 0
2.6000001 -0.79999179 0.83258486 0
2.5990002 -0.80361575 0.83239007 0
2.5990002 -0.80758226 0.83239007 0
2.5980003 -0.81120074 0.83219528 0
2.5980003 -0.81516552 0.83219528 0
2.5970001 -0.81877851 0.83200037 0
2.5970001 -0.82274145 0.83200037 0
2.5960002 -0.82634908 0.83180559 0
2.5950003 -0.82995313 0.8316108 0
2.5950003 -0.83391249 0.8316108 0
2.5940001 -0.837511 0.83141595 0
2.5940001 -0.84146857 0.83141595 0
2.5930002 -0.84506178 0.83122116 0
2.5930002 -0.84901756 0.83122116 0
2.5920002 -0.85260534 0.83102638 0
2.5920002 -0.85655928 0.83102638 0
2.5910003 -0.86014169 0.83083153 0
2.5910003 -0.86409384 0.83083153 0
2.5900002 -0.86767071 0.83063674 0
2.5900002 -0.87162107 0.83063674 0
2.5890002 -0.87519264 0.83044195 0
2.5890002 -0.87914115 0.83044195 0
2.5880003 -0.8827073 0.83024716 0
2.5880003 -0.88665402 0.83024716 0
2.5870001 -0.89021468 0.83005226 0
2.5870001 -0.89415962 0.83005226 0
2.5860002 -0.89771497 0.82985747 0
2.5860002 -0.90165812 0.82985747 0
2.5850003 -0.90520805 0.82966268 0
2.5850003 -0.90914935 0.82966268 0
2.5840001 -0.91269374 0.82946789 0
2.5840001 -0.91663325 0.82946789 0
2.5830002 -0.92017233 0.82927305 0
2.5830002 -0.92411005 0.82927305 0
2.5820003 -0.92764378 0.82907826 0
2.5820003 -0.93157971 0.82907826 0
2.5810001 -0.93510789 0.82888341 0
2.5810001 -0.93904197 0.82888341 0
2.5800002 -0.94256485 0.82868862 0
2.5800002 -0.94649708 0.82868862 0
2.5790002 -0.95001459 0.82849383 0
2.5780003 -0.9535284 0.82829905 0
2.5780003 -0.95745713 0.82829905 0
2.5770001 -0.96096545 0.82810414 0
2.5770001 -0.96489233 0.82810414 0
2.6310003 -0.56915855 0.83459973 0
2.6310003 -0.57318282 0.83459973 0
2.6300001 -0.57696903 0.83440667 0
2.6300001 -0.58099145 0.83440667 0
2.6290002 -0.58477223 0.83421367 0
2.6290002 -0.58879292 0.83421367 0
2.6280003 -0.59256834 0.83402067 0
2.6280003 -0.59658724 0.83402067 0
2.6270001 -0.60035712 0.83382761 0
2.6270001 -0.60437423 0.83382761 0
2.6260002 -0.6081388 0.83363461 0
2.6250002 -0.61189973 0.83344167 0
2.6250002 -0.61591321 0.83344167 0
2.6240003 -0.61966878 0.83324867 0
2.6240003 -0.62368047 0.83324867 0
2.6230001 -0.62743056 0.83305562 0
2.6230001 -0.6314404 0.83305562 0
2.6220002 -0.63518512 0.83286262 0
2.6220002 -0.63919318 0.83286262 0
2.6210003 -0.64293247 0.83266962 0
2.6210003 -0.64693874 0.83266962 0
2.6200001 -0.65067255 0.83247662 0
2.6200001 -0.65467703 0.83247662 0
2.6190002 -0.65840554 0.83228362 0
2.6190002 -0.66240817 0.83228362 0
2.6180003 -0.66613126 0.83209062 0
2.6170001 -0.66985065 0.83189756 0
2.6170001 -0.6738497 0.83189756 0
2.6160002 -0.67756379 0.83170462 0
2.6160002 -0.68156105 0.83170462 0
2.6150002 -0.68526965 0.83151162 0
2.6150002 -0.68926507 0.83151162 0
2.6140001 -0.69296825 0.83131856 0
2.6140001 -0.69696188 0.83131856 0
2.6130002 -0.70065969 0.83112556 0
2.6130002 -0.70465159 0.83112556 0
2.6120002 -0.70834398 0.83093262 0
2.6120002 -0.71233398 0.83093262 0
2.6110003 -0.716021 0.83073962 0
2.6110003 -0.72000921 0.83073962 0
2.6100001 -0.72369075 0.8305465 0
2.6100001 -0.72767717 0.8305465 0
2.6090002 -0.73135334 0.8303535 0
2.6090002 -0.73533791 0.8303535 0
2.6080003 -0.73900867 0.8301605 0
2.6070001 -0.74267584 0.8299675 0
2.6070001 -0.74665684 0.8299675 0
2.6060002 -0.75031853 0.8297745 0
2.6060002 -0.75429779 0.8297745 0
2.6050003 -0.75795412 0.8295815 0
2.6050003 -0.76193148 0.8295815 0
2.6040001 -0.76558238 0.8293885 0
2.6040001 -0.76955795 0.8293885 0
2.6030002 -0.77320349 0.8291955 0
2.6030002 -0.77717727 0.8291955 0
2.6020002 -0.78081739 0.8290025 0
2.6020002 -0.78478932 0.8290025 0
2.6010003 -0.78842407 0.8288095 0
2.6010003 -0.79239422 0.8288095 0
2.6000001 -0.79602349 0.8286165 0
2.6000001 -0.79999179 0.8286165 0
2.5990002 -0.80361575 0.8284235 0
2.5990002 -0.80758226 0.8284235 0
2.5980003 -0.81120074 0.8282305 0
2.5980003 -0.81516552 0.8282305 0
2.5970001 -0.81877851 0.82803744 0
2.5970001 -0.82274145 0.82803744 0
2.5960002 -0.82634908 0.82784444 0
2.5950003 -0.82995313 0.82765144 0
2.5950003 -0.83391249 0.82765144 0
2.5940001 -0.837511 0.82745838 0
2.5940001 -0.84146857 0.82745838 0
2.5930002 -0.84506178 0.82726538 0
2.5930002 -0.84901756 0.82726538 0
2.5920002 -0.85260534 0.82707244 0
2.5920002 -0.85655928 0.82707244 0
2.5910003 -0.86014169 0.82687944 0
2.5910003 -0.86409384 0.82687944 0
2.5900002 -0.86767071 0.82668638 0
2.5900002 -0.87162107 0.82668638 0
2.5890002 -0.87519264 0.82649338 0
2.5890002 -0.87914115 0.82649338 0
2.5880003 -0.8827073 0.82630038 0
2.5880003 -0.88665402 0.82630038 0
2.5870001 -0.89021468 0.82610738 0
2.5870001 -0.89415962 0.82610738 0
2.5860002 -0.89771497 0.82591438 0
2.5860002 -0.90165812 0.82591438 0
2.5850003 -0.90520805 0.82572138 0
2.5850003 -0.90914935 0.82572138 0
2.5840001 -0.91269374 0.82552838 0
2.5840001 -0.91663325 0.82552838 0
2.5830002 -0.92017233 0.82533538 0
2.5830002 -0.92411005 0.82533538 0
2.5820003 -0.92764378 0.82514238 0
2.5820003 -0.93157971 0.82514238 0
2.5810001 -0.93510789 0.82494932 0
2.5810001 -0.93904197 0.82494932 0
2.5800002 -0.94256485 0.82475632 0
2.5800002 -0.94649708 0.82475632 0
2.5790002 -0.95001459 0.82456332 0
2.5780003 -0.9535284 0.82437032 0
2.5780003 -0.95745713 0.82437032 0
2.5770001 -0.96096545 0.82417727 0
2.5770001 -0.96489233 0.82417727 0
2.6310003 -0.56915855 0.83057547 0
2.6310003 -0.57318282 0.83057547 0
2.6300001 -0.57696903 0.83038419 0
2.6300001 -0.58099145 0.83038419 0
2.6290002 -0.58477223 0.83019304 0
2.6290002 -0.58879292 0.83019304 0
2.6280003 -0.59256834 0.83000183 0
2.6280003 -0.59658724 0.83000183 0
2.6270001 -0.60035712 0.82981056 0
2.6270001 -0.60437423 0.82981056 0
2.6260002 -0.6081388 0.82961941 0
2.6250002 -0.61189973 0.8294282 0
2.6250002 -0.61591321 0.8294282 0
2.6240003 -0.61966878 0.82923698 0
2.6240003 -0.62368047 0.82923698 0
2.6230001 -0.62743056 0.82904577 0
2.6230001 -0.6314404 0.82904577 0
2.6220002 -0.63518512 0.82885456 0
2.6220002 -0.63919318 0.82885456 0
2.6210003 -0.64293247 0.82866341 0
2.6210003 -0.64693874 0.82866341 0
2.6200001 -0.65067255 0.82847214 0
2.6200001 -0.65467703 0.82847214 0
2.6190002 -0.65840554 0.82828093 0
2.6190002 -0.66240817 0.82828093 0
2.6180003 -0.66613126 0.82808977 0
2.6170001 -0.66985065 0.8278985 0
2.6170001 -0.6738497 0.8278985 0
2.6160002 -0.67756379 0.82770735 0
2.6160002 -0.68156105 0.82770735 0
2.6150002 -0.68526965 0.82751614 0
2.6150002 -0.68926507 0.82751614 0
2.6140001 -0.69296825 0.82732493 0
2.6140001 -0.69696188 0.82732493 0
2.6130002 -0.70065969 0.82713372 0
2.6130002 -0.70465159 0.82713372 0
2.6120002 -0.70834398 0.82694256 0
2.6120002 -0.71233398 0.82694256 0
2.6110003 -0.716021 0.82675135 0
2.6110003 -0.72000921 0.82675135 0
2.6100001 -0.72369075 0.82656014 0
2.6100001 -0.72767717 0.82656014 0
2.6090002 -0.73135334 0.82636893 0
2.6090002 -0.73533791 0.82636893 0
2.6080003 -0.73900867 0.82617772 0
2.6070001 -0.74267584 0.8259865 0
2.6070001 -0.74665684 0.8259865 0
2.6060002 -0.75031853 0.82579529 0
2.6060002 -0.75429779 0.82579529 0
2.6050003 -0.75795412 0.82560408 0
2.6050003 -0.76193148 0.82560408 0
2.6040001 -0.76558238 0.82541287 0
2.6040001 -0.76955795 0.82541287 0
2.6030002 -0.77320349 0.82522166 0
2.6030002 -0.77717727 0.82522166 0
2.6020002 -0.78081739 0.82503051 0
2.6020002 -0.78478932 0.82503051 0
2.6010003 -0.78842407 0.82483935 0
2.6010003 -0.79239422 0.82483935 0
2.6000001 -0.79602349 0.82464808 0
2.6000001 -0.79999179 0.82464808 0
2.5990002 -0.80361575 0.82445693 0
2.5990002 -0.80758226 0.82445693 0
2.5980003 -0.81120074 0.82426572 0
2.5980003 -0.81516552 0.82426572 0
2.5970001 -0.81877851 0.82407451 0
2.5970001 -0.82274145 0.82407451 0
2.5960002 -0.82634908 0.8238833 0
2.5950003 -0.82995313 0.82369208 0
2.5950003 -0.83391249 0.82369208 0
2.5940001 -0.837511 0.82350087 0
2.5940001 -0.84146857 0.82350087 0
2.5930002 -0.84506178 0.82330966 0
2.5930002 -0.84901756 0.82330966 0
2.5920002 -0.85260534 0.82311845 0
2.5920002 -0.85655928 0.82311845 0
2.5910003 -0.86014169 0.82292724 0
2.5910003 -0.86409384 0.82292724 0
2.5900002 -0.86767071 0.82273602 0
2.5900002 -0.87162107 0.82273602 0
2.5890002 -0.87519264 0.82254481 0
2.5890002 -0.87914115 0.82254481 0
2.5880003 -0.8827073 0.82235366 0
2.5880003 -0.88665402 0.82235366 0
2.5870001 -0.89021468 0.82216245 0
2.5870001 -0.89415962 0.82216245 0
2.5860002 -0.89771497 0.8219713 0
2.5860002 -0.90165812 0.8219713 0
2.5850003 -0.90520805 0.82178009 0
2.5850003 -0.90914935 0.82178009 0
2.5840001 -0.91269374 0.82158881 0
2.5840001 -0.91663325 0.82158881 0
2.5830002 -0.92017233 0.82139766 0
2.5830002 -0.92411005 0.82139766 0
2.5820003 -0.92764378 0.82120645 0
2.5820003 -0.93157971 0.82120645 0
2.5810001 -0.93510789 0.82101524 0
2.5810001 -0.93904197 0.82101524 0
2.5800002 -0.94256485 0.82082403 0
2.5800002 -0.94649708 0.82082403 0
2.5790002 -0.95001459 0.82063282 0
2.5780003 -0.9535284 0.8204416 0
2.5780003 -0.95745713 0.8204416 0
2.5770001 -0.96096545 0.82025039 0
2.5770001 -0.96489233 0.82025039 0
2.6310003 -0.56915855 0.82655114 0
2.6310003 -0.57318282 0.82655114 0
2.6300001 -0.57696903 0.82636172 0
2.6300001 -0.58099145 0.82636172 0
2.6290002 -0.58477223 0.82617235 0
2.6290002 -0.58879292 0.82617235 0
2.6280003 -0.59256834 0.82598293 0
2.6280003 -0.59658724 0.82598293 0
2.6270001 -0.60035712 0.8257935 0
2.6270001 -0.60437423 0.8257935 0
2.6260002 -0.6081388 0.82560408 0
2.6250002 -0.61189973 0.82541472 0
2.6250002 -0.61591321 0.82541472 0
2.6240003 -0.61966878 0.82522535 0
2.6240003 -0.62368047 0.82522535 0
2.6230001 -0.62743056 0.82503593 0
2.6230001 -0.6314404 0.82503593 0
2.6220002 -0.63518512 0.82484651 0
2.6220002 -0.63919318 0.82484651 0
2.6210003 -0.64293247 0.82465708 0
2.6210003 -0.64693874 0.82465708 0
2.6200001 -0.65067255 0.82446772 0
2.6200001 -0.65467703 0.82446772 0
2.6190002 -0.65840554 0.82427835 0
2.6190002 -0.66240817 0.82427835 0
2.6180003 -0.66613126 0.82408893 0
2.6170001 -0.66985065 0.82389951 0
2.6170001 -0.6738497 0.82389951 0
2.6160002 -0.67756379 0.82371008 0
2.6160002 -0.68156105 0.82371008 0
2.6150002 -0.68526965 0.82352072 0
2.6150002 -0.68926507 0.82352072 0
2.6140001 -0.69296825 0.8233313 0
2.6140001 -0.69696188 0.8233313 0
2.6130002 -0.70065969 0.82314193 0
2.6130002 -0.70465159 0.82314193 0
2.6120002 -0.70834398 0.82295251 0
2.6120002 -0.71233398 0.82295251 0
2.6110003 -0.716021 0.82276309 0
2.6110003 -0.72000921 0.82276309 0
2.6100001 -0.72369075 0.82257366 0
2.6100001 -0.72767717 0.82257366 0
2.6090002 -0.73135334 0.8223843 0
2.6090002 -0.73533791 0.8223843 0
2.6080003 -0.73900867 0.82219493 0
2.6070001 -0.74267584 0.82200551 0
2.6070001 -0.74665684 0.82200551 0
2.6060002 -0.75031853 0.82181609 0
2.6060002 -0.75429779 0.82181609 0
2.6050003 -0.75795412 0.82162678 0
2.6050003 -0.76193148 0.82162678 0
2.6040001 -0.76558238 0.8214373 0
2.6040001 -0.76955795 0.8214373 0
2.6030002 -0.77320349 0.82124794 0
2.6030002 -0.77717727 0.82124794 0
2.6020002 -0.78081739 0.82105851 0
2.6020002 -0.78478932 0.82105851 0
2.6010003 -0.78842407 0.82086915 0
2.6010003 -0.79239422 0.82086915 0
2.6000001 -0.79602349 0.82067966 0
2.6000001 -0.79999179 0.82067966 0
2.5990002 -0.80361575 0.82049036 0
2.5990002 -0.80758226 0.82049036 0
2.5980003 -0.81120074 0.82030094 0
2.5980003 -0.81516552 0.82030094 0
2.5970001 -0.81877851 0.82011151 0
2.5970001 -0.82274145 0.82011151 0
2.5960002 -0.82634908 0.81992209 0
2.5950003 -0.82995313 0.81973273 0
2.5950003 -0.83391249 0.81973273 0
2.5940001 -0.837511 0.8195433 0
2.5940001 -0.84146857 0.8195433 0
2.5930002 -0.84506178 0.81935394 0
2.5930002 -0.84901756 0.81935394 0
2.5920002 -0.85260534 0.81916451 0
2.5920002 -0.85655928 0.81916451 0
2.5910003 -0.86014169 0.81897515 0
2.5910003 -0.86409384 0.81897515 0
2.5900002 -0.86767071 0.81878573 0
2.5900002 -0.87162107 0.81878573 0
2.5890002 -0.87519264 0.81859636 0
2.5890002 -0.87914115 0.81859636 0
2.5880003 -0.8827073 0.81840694 0
2.5880003 -0.88665402 0.81840694 0
2.5870001 -0.89021468 0.81821752 0
2.5870001 -0.89415962 0.81821752 0
2.5860002 -0.89771497 0.81802809 0
2.5860002 -0.90165812 0.81802809 0
2.5850003 -0.90520805 0.81783873 0
2.5850003 -0.90914935 0.81783873 0
2.5840001 -0.91269374 0.8176493 0
2.5840001 -0.91663325 0.8176493 0
2.5830002 -0.92017233 0.81745994 0
2.5830002 -0.92411005 0.81745994 0
2.5820003 -0.92764378 0.81727052 0
2.5820003 -0.93157971 0.81727052 0
2.5810001 -0.93510789 0.81708109 0
2.5810001 -0.93904197 0.81708109 0
2.5800002 -0.94256485 0.81689173 0
2.5800002 -0.94649708 0.81689173 0
2.5790002 -0.95001459 0.81670237 0
2.5780003 -0.9535284 0.81651294 0
2.5780003 -0.95745713 0.81651294 0
2.5770001 -0.96096545 0.81632352 0
2.5770001 -0.96489233 0.81632352 0
2.6310003 -0.56915855 0.82252681 0
2.6310003 -0.57318282 0.82252681 0
2.6300001 -0.57696903 0.82233918 0
2.6300001 -0.58099145 0.82233918 0
2.6290002 -0.58477223 0.82215166 0
2.6290002 -0.58879292 0.82215166 0
2.6280003 -0.59256834 0.82196403 0
2.6280003 -0.59658724 0.82196403 0
2.6270001 -0.60035712 0.82177639 0
2.6270001 -0.60437423 0.82177639 0
2.6260002 -0.6081388 0.82158887 0
2.6250002 -0.61189973 0.82140124 0
2.6250002 -0.61591321 0.82140124 0
2.6240003 -0.61966878 0.82121366 0
2.6240003 -0.62368047 0.82121366 0
2.6230001 -0.62743056 0.82102603 0
2.6230001 -0.6314404 0.82102603 0
2.6220002 -0.63518512 0.82083845 0
2.6220002 -0.63919318 0.82083845 0
2.6210003 -0.64293247 0.82065088 0
2.6210003 -0.64693874 0.82065088 0
2.6200001 -0.65067255 0.82046324 0
2.6200001 -0.65467703 0.82046324 0
2.6190002 -0.65840554 0.82027566 0
2.6190002 -0.66240817 0.82027566 0
2.6180003 -0.66613126 0.82008803 0
2.6170001 -0.66985065 0.81990045 0
2.6170001 -0.6738497 0.81990045 0
2.6160002 -0.67756379 0.81971288 0
2.6160002 -0.68156105 0.81971288 0
2.6150002 -0.68526965 0.8195253 0
2.6150002 -0.68926507 0.8195253 0
2.6140001 -0.69296825 0.81933767 0
2.6140001 -0.69696188 0.81933767 0
2.6130002 -0.70065969 0.81915009 0
2.6130002 -0.70465159 0.81915009 0
2.6120002 -0.70834398 0.81896251 0
2.6120002 -0.71233398 0.81896251 0
2.6110003 -0.716021 0.81877494 0
2.6110003 -0.72000921 0.81877494 0
2.6100001 -0.72369075 0.8185873 0
2.6100001 -0.72767717 0.8185873 0
2.6090002 -0.73135334 0.81839967 0
2.6090002 -0.73533791 0.81839967 0
2.6080003 -0.73900867 0.81821215 0
2.6070001 -0.74267584 0.81802452 0
2.6070001 -0.74665684 0.81802452 0
2.6060002 -0.75031853 0.81783688 0
2.6060002 -0.75429779 0.81783688 0
2.6050003 -0.75795412 0.81764936 0
2.6050003 -0.76193148 0.81764936 0
2.6040001 -0.76558238 0.81746173 0
2.6040001 -0.76955795 0.81746173 0
2.6030002 -0.77320349 0.81727409 0
2.6030002 -0.77717727 0.81727409 0
2.6020002 -0.78081739 0.81708652 0
2.6020002 -0.78478932 0.81708652 0
2.6010003 -0.78842407 0.81689894 0
2.6010003 -0.79239422 0.81689894 0
2.6000001 -0.79602349 0.81671131 0
2.6000001 -0.79999179 0.81671131 0
2.5990002 -0.80361575 0.81652379 0
2.5990002 -0.80758226 0.81652379 0
2.5980003 -0.81120074 0.81633615 0
2.5980003 -0.81516552 0.81633615 0
2.5970001 -0.81877851 0.81614852 0
2.5970001 -0.82274145 0.81614852 0
2.5960002 -0.82634908 0.81596094 0
2.5950003 -0.82995313 0.81577337 0
2.5950003 -0.83391249 0.81577337 0
2.5940001 -0.837511 0.81558573 0
2.5940001 -0.84146857 0.81558573 0
2.5930002 -0.84506178 0.81539816 0
2.5930002 -0.84901756 0.81539816 0
2.5920002 -0.85260534 0.81521058 0
2.5920002 -0.85655928 0.81521058 0
2.5910003 -0.86014169 0.81502301 0
2.5910003 -0.86409384 0.81502301 0
2.5900002 -0.86767071 0.81483537 0
2.5900002 -0.87162107 0.81483537 0
2.5890002 -0.87519264 0.81464779 0
2.5890002 -0.87914115 0.81464779 0
2.5880003 -0.8827073 0.81446016 0
2.5880003 -0.88665402 0.81446016 0
2.5870001 -0.89021468 0.81427252 0
2.5870001 -0.89415962 0.81427252 0
2.5860002 -0.89771497 0.81408501 0
2.5860002 -0.90165812 0.81408501 0
2.5850003 -0.90520805 0.81389737 0
2.5850003 -0.90914935 0.81389737 0
2.5840001 -0.91269374 0.8137098 0
2.5840001 -0.91663325 0.8137098 0
2.5830002 -0.92017233 0.81352222 0
2.5830002 -0.92411005 0.81352222 0
2.5820003 -0.92764378 0.81333458 0
2.5820003 -0.93157971 0.81333458 0
2.5810001 -0.93510789 0.81314701 0
2.5810001 -0.93904197 0.81314701 0
2.5800002 -0.94256485 0.81295943 0
2.5800002 -0.94649708 0.81295943 0
2.5790002 -0.95001459 0.8127718 0
2.5780003 -0.9535284 0.81258428 0
2.5780003 -0.95745713 0.81258428 0
2.5770001 -0.96096545 0.81239665 0
2.5770001 -0.96489233 0.81239665 0
2.6310003 -0.56915855 0.81850255 0
2.6310003 -0.57318282 0.81850255 0
2.6300001 -0.57696903 0.8183167 0
2.6300001 -0.58099145 0.8183167 0
2.6290002 -0.58477223 0.81813091 0
2.6290002 -0.58879292 0.81813091 0
2.6280003 -0.59256834 0.81794512 0
2.6280003 -0.59658724 0.81794512 0
2.6270001 -0.60035712 0.81775934 0
2.6270001 -0.60437423 0.81775934 0
2.6260002 -0.6081388 0.81757355 0
2.6250002 -0.61189973 0.81738782 0
2.6250002 -0.61591321 0.81738782 0
2.6240003 -0.61966878 0.81720197 0
2.6240003 -0.62368047 0.81720197 0
2.6230001 -0.62743056 0.81701618 0
2.6230001 -0.6314404 0.81701618 0
2.6220002 -0.63518512 0.8168304 0
2.6220002 -0.63919318 0.8168304 0
2.6210003 -0.64293247 0.81664461 0
2.6210003 -0.64693874 0.81664461 0
2.6200001 -0.65067255 0.81645882 0
2.6200001 -0.65467703 0.81645882 0
2.6190002 -0.65840554 0.81627297 0
2.6190002 -0.66240817 0.81627297 0
2.6180003 -0.66613126 0.81608725 0
2.6170001 -0.66985065 0.8159014 0
2.6170001 -0.6738497 0.8159014 0
2.6160002 -0.67756379 0.81571561 0
2.6160002 -0.68156105 0.81571561 0
2.6150002 -0.68526965 0.81552982 0
2.6150002 -0.68926507 0.81552982 0
2.6140001 -0.69296825 0.81534398 0
2.6140001 -0.69696188 0.81534398 0
2.6130002 -0.70065969 0.81515825 0
2.6130002 -0.70465159 0.81515825 0
2.6120002 -0.70834398 0.81497246 0
2.6120002 -0.71233398 0.81497246 0
2.6110003 -0.716021 0.81478667 0
2.6110003 -0.72000921 0.81478667 0
2.6100001 -0.72369075 0.81460088 0
2.6100001 -0.72767717 0.81460088 0
2.6090002 -0.73135334 0.8144151 0
2.6090002 -0.73533791 0.8144151 0
2.6080003 -0.73900867 0.81422931 0
2.6070001 -0.74267584 0.81404352 0
2.6070001 -0.74665684 0.81404352 0
2.6060002 -0.75031853 0.81385767 0
2.6060002 -0.75429779 0.81385767 0
2.6050003 -0.75795412 0.81367195 0
2.6050003 -0.76193148 0.81367195 0
2.6040001 -0.76558238 0.8134861 0
2.6040001 -0.76955795 0.8134861 0
2.6030002 -0.77320349 0.81330037 0
2.6030002 -0.77717727 0.81330037 0
2.6020002 -0.78081739 0.81311452 0
2.6020002 -0.78478932 0.81311452 0
2.6010003 -0.78842407 0.8129288 0
2.6010003 -0.79239422 0.8129288 0
2.6000001 -0.79602349 0.81274295 0
2.6000001 -0.79999179 0.81274295 0
2.5990002 -0.80361575 0.81255716 0
2.5990002 -0.80758226 0.81255716 0
2.5980003 -0.81120074 0.81237137 0
2.5980003 -0.81516552 0.81237137 0
2.5970001 -0.81877851 0.81218553 0
2.5970001 -0.82274145 0.81218553 0
2.5960002 -0.82634908 0.8119998 0
2.5950003 -0.82995313 0.81181401 0
2.5950003 -0.83391249 0.81181401 0
2.5940001 -0.837511 0.81162816 0
2.5940001 -0.84146857 0.81162816 0
2.5930002 -0.84506178 0.81144238 0
2.5930002 -0.84901756 0.81144238 0
2.5920002 -0.85260534 0.81125665 0
2.5920002 -0.85655928 0.81125665 0
2.5910003 -0.86014169 0.81107086 0
2.5910003 -0.86409384 0.81107086 0
2.5900002 -0.86767071 0.81088507 0
2.5900002 -0.87162107 0.81088507 0
2.5890002 -0.87519264 0.81069922 0
2.5890002 -0.87914115 0.81069922 0
2.5880003 -0.8827073 0.8105135 0
2.5880003 -0.88665402 0.8105135 0
2.5870001 -0.89021468 0.81032765 0
2.5870001 -0.89415962 0.81032765 0
2.5860002 -0.89771497 0.81014186 0
2.5860002 -0.90165812 0.81014186 0
2.5850003 -0.90520805 0.80995607 0
2.5850003 -0.90914935 0.80995607 0
2.5840001 -0.91269374 0.80977023 0
2.5840001 -0.91663325 0.80977023 0
2.5830002 -0.92017233 0.8095845 0
2.5830002 -0.92411005 0.8095845 0
2.5820003 -0.92764378 0.80939871 0
2.5820003 -0.93157971 0.80939871 0
2.5810001 -0.93510789 0.80921292 0
2.5810001 -0.93904197 0.80921292 0
2.5800002 -0.94256485 0.80902708 0
2.5800002 -0.94649708 0.80902708 0
2.5790002 -0.95001459 0.80884135 0
2.5780003 -0.9535284 0.8086555 0
2.5780003 -0.95745713 0.8086555 0
2.5770001 -0.96096545 0.80846971 0
2.5770001 -0.96489233 0.80846971 0
2.6310003 -0.56915855 0.81447822 0
2.6310003 -0.57318282 0.81447822 0
2.6300001 -0.57696903 0.81429422 0
2.6300001 -0.58099145 0.81429422 0
2.6290002 -0.58477223 0.81411022 0
2.6290002 -0.58879292 0.81411022 0
2.6280003 -0.59256834 0.81392622 0
2.6280003 -0.59658724 0.81392622 0
2.6270001 -0.60035712 0.81374228 0
2.6270001 -0.60437423 0.81374228 0
2.6260002 -0.6081388 0.81355822 0
2.6250002 -0.61189973 0.81337428 0
2.6250002 -0.61591321 0.81337428 0
2.6240003 -0.61966878 0.81319034 0
2.6240003 -0.62368047 0.81319034 0
2.6230001 -0.62743056 0.81300628 0
2.6230001 -0.6314404 0.81300628 0
2.6220002 -0.63518512 0.81282234 0
2.6220002 -0.63919318 0.81282234 0
2.6210003 -0.64293247 0.8126384 0
2.6210003 -0.64693874 0.8126384 0
2.6200001 -0.65067255 0.81245434 0
2.6200001 -0.65467703 0.81245434 0
2.6190002 -0.65840554 0.8122704 0
2.6190002 -0.66240817 0.8122704 0
2.6180003 -0.66613126 0.8120864 0
2.6170001 -0.66985065 0.8119024 0
2.6170001 -0.6738497 0.8119024 0
2.6160002 -0.67756379 0.8117184 0
2.6160002 -0.68156105 0.8117184 0
2.6150002 -0.68526965 0.8115344 0
2.6150002 -0.68926507 0.8115344 0
2.6140001 -0.69296825 0.81135041 0
2.6140001 -0.69696188 0.81135041 0
2.6130002 -0.70065969 0.81116641 0
2.6130002 -0.70465159 0.81116641 0
2.6120002 -0.70834398 0.81098247 0
2.6120002 -0.71233398 0.81098247 0
2.6110003 -0.716021 0.81079847 0
2.6110003 -0.72000921 0.81079847 0
2.6100001 -0.72369075 0.81061447 0
2.6100001 -0.72767717 0.81061447 0
2.6090002 -0.73135334 0.81043047 0
2.6090002 -0.73533791 0.81043047 0
2.6080003 -0.73900867 0.81024647 0
2.6070001 -0.74267584 0.81006247 0
2.6070001 -0.74665684 0.81006247 0
2.6060002 -0.75031853 0.80987847 0
2.6060002 -0.75429779 0.80987847 0
2.6050003 -0.75795412 0.80969453 0
2.6050003 -0.76193148 0.80969453 0
2.6040001 -0.76558238 0.80951047 0
2.6040001 -0.76955795 0.80951047 0
2.6030002 -0.77320349 0.80932653 0
2.6030002 -0.77717727 0.80932653 0
2.6020002 -0.78081739 0.80914259 0
2.6020002 -0.78478932 0.80914259 0
2.6010003 -0.78842407 0.80895859 0
2.6010003 -0.79239422 0.80895859 0
2.6000001 -0.79602349 0.80877459 0
2.6000001 -0.79999179 0.80877459 0
2.5990002 -0.80361575 0.80859065 0
2.5990002 -0.80758226 0.80859065 0
2.5980003 -0.81120074 0.80840659 0
2.5980003 -0.81516552 0.80840659 0
2.5970001 -0.81877851 0.80822265 0
2.5970001 -0.82274145 0.80822265 0
2.5960002 -0.82634908 0.80803859 0
2.5950003 -0.82995313 0.80785465 0
2.5950003 -0.83391249 0.80785465 0
2.5940001 -0.837511 0.80767059 0
2.5940001 -0.84146857 0.80767059 0
2.5930002 -0.84506178 0.80748665 0
2.5930002 -0.84901756 0.80748665 0
2.5920002 -0.85260534 0.80730271 0
2.5920002 -0.85655928 0.80730271 0
2.5910003 -0.86014169 0.80711871 0
2.5910003 -0.86409384 0.80711871 0
2.5900002 -0.86767071 0.80693471 0
2.5900002 -0.87162107 0.80693471 0
2.5890002 -0.87519264 0.80675071 0
2.5890002 -0.87914115 0.80675071 0
2.5880003 -0.8827073 0.80656672 0
2.5880003 -0.88665402 0.80656672 0
2.5870001 -0.89021468 0.80638272 0
2.5870001 -0.89415962 0.80638272 0
2.5860002 -0.89771497 0.80619872 0
2.5860002 -0.90165812 0.80619872 0
2.5850003 -0.90520805 0.80601478 0
2.5850003 -0.90914935 0.80601478 0
2.5840001 -0.91269374 0.80583072 0
2.5840001 -0.91663325 0.80583072 0
2.5830002 -0.92017233 0.80564678 0
2.5830002 -0.92411005 0.80564678 0
2.5820003 -0.92764378 0.80546278 0
2.5820003 -0.93157971 0.80546278 0
2.5810001 -0.93510789 0.80527878 0
2.5810001 -0.93904197 0.80527878 0
2.5800002 -0.94256485 0.80509484 0
2.5800002 -0.94649708 0.80509484 0
2.5790002 -0.95001459 0.80491084 0
2.5780003 -0.9535284 0.80472684 0
2.5780003 -0.95745713 0.80472684 0
2.5770001 -0.96096545 0.80454284 0
2.5770001 -0.96489233 0.80454284 0
2.6310003 -0.56915855 0.81045395 0
2.6310003 -0.57318282 0.81045395 0
2.6300001 -0.57696903 0.81027174 0
2.6300001 -0.58099145 0.81027174 0
2.6290002 -0.58477223 0.81008959 0
2.6290002 -0.58879292 0.81008959 0
2.6280003 -0.59256834 0.80990738 0
2.6280003 -0.59658724 0.80990738 0
2.6270001 -0.60035712 0.80972517 0
2.6270001 -0.60437423 0.80972517 0
2.6260002 -0.6081388 0.80954301 0
2.6250002 -0.61189973 0.80936086 0
2.6250002 -0.61591321 0.80936086 0
2.6240003 -0.61966878 0.80917865 0
2.6240003 -0.62368047 0.80917865 0
2.6230001 -0.62743056 0.80899644 0
2.6230001 -0.6314404 0.80899644 0
2.6220002 -0.63518512 0.80881429 0
2.6220002 -0.63919318 0.80881429 0
2.6210003 -0.64293247 0.80863208 0
2.6210003 -0.64693874 0.80863208 0
2.6200001 -0.65067255 0.80844986 0
2.6200001 -0.65467703 0.80844986 0
2.6190002 -0.65840554 0.80826771 0
2.6190002 -0.66240817 0.80826771 0
2.6180003 -0.66613126 0.80808556 0
2.6170001 -0.66985065 0.80790335 0
2.6170001 -0.6738497 0.80790335 0
2.6160002 -0.67756379 0.80772114 0
2.6160002 -0.68156105 0.80772114 0
2.6150002 -0.68526965 0.80753899 0
2.6150002 -0.68926507 0.80753899 0
2.6140001 -0.69296825 0.80735677 0
2.6140001 -0.69696188 0.80735677 0
2.6130002 -0.70065969 0.80717456 0
2.6130002 -0.70465159 0.80717456 0
2.6120002 -0.70834398 0.80699241 0
2.6120002 -0.71233398 0.80699241 0
2.6110003 -0.716021 0.80681026 0
2.6110003 -0.72000921 0.80681026 0
2.6100001 -0.72369075 0.80662805 0
2.6100001 -0.72767717 0.80662805 0
2.6090002 -0.73135334 0.80644584 0
2.6090002 -0.73533791 0.80644584 0
2.6080003 -0.73900867 0.80626369 0
2.6070001 -0.74267584 0.80608147 0
2.6070001 -0.74665684 0.80608147 0
2.6060002 -0.75031853 0.80589932 0
2.6060002 -0.75429779 0.80589932 0
2.6050003 -0.75795412 0.80571711 0
2.6050003 -0.76193148 0.80571711 0
2.6040001 -0.76558238 0.80553496 0
2.6040001 -0.76955795 0.80553496 0
2.6030002 -0.77320349 0.80535275 0
2.6030002 -0.77717727 0.80535275 0
2.6020002 -0.78081739 0.80517054 0
2.6020002 -0.78478932 0.80517054 0
2.6010003 -0.78842407 0.80498838 0
2.6010003 -0.79239422 0.80498838 0
2.6000001 -0.79602349 0.80480623 0
2.6000001 -0.79999179 0.80480623 0
2.5990002 -0.80361575 0.80462402 0
2.5990002 -0.80758226 0.80462402 0
2.5980003 -0.81120074 0.80444181 0
2.5980003 -0.81516552 0.80444181 0
2.5970001 -0.81877851 0.80425966 0
2.5970001 -0.82274145 0.80425966 0
2.5960002 -0.82634908 0.80407745 0
2.5950003 -0.82995313 0.80389529 0
2.5950003 -0.83391249 0.80389529 0
2.5940001 -0.837511 0.80371308 0
2.5940001 -0.84146857 0.80371308 0
2.5930002 -0.84506178 0.80353093 0
2.5930002 -0.84901756 0.80353093 0
2.5920002 -0.85260534 0.80334872 0
2.5920002 -0.85655928 0.80334872 0
2.5910003 -0.86014169 0.80316651 0
2.5910003 -0.86409384 0.80316651 0
2.5900002 -0.86767071 0.80298436 0
2.5900002 -0.87162107 0.80298436 0
2.5890002 -0.87519264 0.80280221 0
2.5890002 -0.87914115 0.80280221 0
2.5880003 -0.8827073 0.80261999 0
