# .PCD v0.7 - Point Cloud Data file format
VERSION 0.7
FIELDS x y z intensity
SIZE 4 4 4 4
TYPE F F F F
COUNT 1 1 1 1
WIDTH 1427
HEIGHT 1
VIEWPOINT 0 0 0 1 0 0 0
POINTS 1427
DATA ascii
4.223 -0.1287515 0.57639897 0
4.2309999 -0.13583507 0.57675976 0
4.2860003 0.51476789 0.5722304 0
4.2780004 0.50661832 0.57188404 0
4.2730002 0.49891967 0.57166761 0
4.27 0.49151683 0.57153773 0
4.2670002 0.48412478 0.57140785 0
4.2660003 0.47701418 0.57136452 0
4.2650003 0.46990716 0.57132125 0
4.2650003 0.46293551 0.57132125 0
4.2660003 0.45609361 0.57136452 0
4.2650003 0.44899201 0.57132125 0
4.263 0.44176775 0.5712347 0
4.2620001 0.43467525 0.57119137 0
4.2610002 0.42758629 0.5711481 0
4.2620001 0.42074263 0.57119137 0
4.263 0.41389534 0.5712347 0
4.2650003 0.40716174 0.57132125 0
4.2690001 0.40065178 0.57149446 0
4.4740005 0.35083061 0.58036917 0
4.4670005 0.34281269 0.58006614 0
4.4630003 0.3351014 0.57989299 0
4.4600005 0.32749656 0.57976311 0
4.4580002 0.31999269 0.57967651 0
4.4570003 0.31258446 0.57963324 0
4.4570003 0.30526638 0.57963324 0
4.4560003 0.29786354 0.57958996 0
4.0950003 0.26059327 0.56396174 0
4.085 0.25311652 0.56352878 0
4.079 0.24599326 0.56326908 0
4.0750003 0.23904678 0.56309593 0
4.073 0.23226628 0.56300932 0
4.0710001 0.22549298 0.56292272 0
4.0710001 0.21887121 0.56292272 0
4.0710001 0.21224943 0.56292272 0
4.072 0.2056962 0.56296605 0
4.0740004 0.19920607 0.56305265 0
4.0780001 0.19283864 0.56322575 0
4.0820003 0.18645677 0.56339896 0
4.0880003 0.18018311 0.56365871 0
4.0950003 0.17394735 0.56396174 0
4.1030002 0.16774406 0.56430805 0
4.1100001 0.16145599 0.56461108 0
4.118 0.15519677 0.56495744 0
3.9570003 0.14006823 0.55798751 0
3.9520004 0.13339956 0.55777109 0
3.9460003 0.12670021 0.55751133 0
3.9400003 0.12002252 0.55725157 0
3.9350002 0.11341155 0.55703509 0
3.9410002 0.10729483 0.55729485 0
3.9480002 0.10119796 0.55759788 0
3.9560003 0.095115513 0.55794424 0
3.9630003 0.08896634 0.55824727 0
3.9700003 0.082791895 0.5585503 0
3.9780002 0.076626495 0.55889666 0
3.9850004 0.070399746 0.55919969 0
3.9930003 0.064178407 0.55954599 0
4 0.057899352 0.55984902 0
4.0080004 0.051622104 0.56019539 0
4.0150003 0.045290735 0.56049842 0
4.0230002 0.038957562 0.56084478 0
4.0300002 0.032573882 0.56114781 0
4.0380001 0.026184794 0.56149411 0
4.046 0.019766849 0.56184042 0
4.053 0.013303805 0.5621435 0
4.0610003 0.0068299361 0.56248981 0
4.0690002 0.00032720715 0.56283617 0
4.0770001 -0.0062043816 0.56318247 0
4.0840001 -0.012773849 0.5634855 0
4.092 -0.01936136 0.56383187 0
4.1000004 -0.025977729 0.56417817 0
4.1080003 -0.032622959 0.56452453 0
4.1160002 -0.039297048 0.56487083 0
4.1240001 -0.046 0.5652172 0
4.132 -0.052731812 0.5655635 0
4.1400003 -0.059492484 0.56590986 0
4.1480002 -0.066282019 0.56625617 0
4.1560001 -0.073100418 0.56660247 0
4.164 -0.079947673 0.56694883 0
4.1730003 -0.08683461 0.56733847 0
4.1810002 -0.093741387 0.56768477 0
4.1890001 -0.10067704 0.56803113 0
4.197 -0.10764153 0.56837744 0
4.2060003 -0.11465295 0.56876707 0
4.2140002 -0.12167697 0.56911337 0
4.223 -0.1287515 0.56950301 0
4.2309999 -0.13583507 0.56984937 0
4.2870002 0.51491219 0.56526226 0
4.2800002 0.50690329 0.56497186 0
4.2750001 0.49920106 0.56476444 0
4.2710004 0.49165571 0.56459844 0
4.2680001 0.48426193 0.56447399 0
4.2670002 0.47714943 0.5644325 0
4.2660003 0.47004068 0.56439102 0
4.2660003 0.46306717 0.56439102 0
4.2670002 0.45622349 0.5644325 0
4.2690001 0.44950429 0.56451547 0
4.2690001 0.44252539 0.56451547 0
4.2690001 0.43554643 0.56451547 0
4.2690001 0.4285675 0.56451547 0
4.27 0.42170942 0.56455696 0
4.2720003 0.41496682 0.56463999 0
4.277 0.40856868 0.56484741 0
4.4740005 0.35083061 0.57302046 0
4.4670005 0.34281269 0.57273006 0
4.4630003 0.3351014 0.57256413 0
4.4600005 0.32749656 0.57243967 0
4.4580002 0.31999269 0.57235664 0
4.4570003 0.31258446 0.57231516 0
4.4570003 0.30526638 0.57231516 0
4.0950003 0.26059327 0.55729663 0
4.085 0.25311652 0.55688179 0
4.079 0.24599326 0.55663288 0
4.0750003 0.23904678 0.55646694 0
4.073 0.23226628 0.55638391 0
4.0710001 0.22549298 0.55630094 0
4.0710001 0.21887121 0.55630094 0
4.0710001 0.21224943 0.55630094 0
4.072 0.2056962 0.55634242 0
4.0740004 0.19920607 0.55642545 0
4.0780001 0.19283864 0.55659139 0
4.0820003 0.18645677 0.55675733 0
4.0880003 0.18018311 0.55700624 0
4.0950003 0.17394735 0.55729663 0
4.1030002 0.16774406 0.55762851 0
4.1100001 0.16145599 0.55791897 0
4.118 0.15519677 0.5582509 0
3.9570003 0.14006823 0.55157137 0
3.9520004 0.13339956 0.55136395 0
3.9460003 0.12670021 0.55111504 0
3.9400003 0.12002252 0.55086607 0
3.9350002 0.11341155 0.55065864 0
3.9410002 0.10729483 0.55090755 0
3.9480002 0.10119796 0.55119801 0
3.9560003 0.095115513 0.55152988 0
3.9630003 0.08896634 0.55182028 0
3.9700003 0.082791895 0.55211067 0
3.9780002 0.076626495 0.55244261 0
3.9850004 0.070399746 0.55273306 0
3.9930003 0.064178407 0.55306494 0
4 0.057899352 0.55335534 0
4.0080004 0.051622104 0.55368721 0
4.0150003 0.045290735 0.55397767 0
4.0230002 0.038957562 0.55430955 0
4.0300002 0.032573882 0.5546 0
4.0380001 0.026184794 0.55493188 0
4.046 0.019766849 0.55526376 0
4.053 0.013303805 0.55555415 0
4.0610003 0.0068299361 0.55588609 0
4.0690002 0.00032720715 0.55621797 0
4.0770001 -0.0062043816 0.55654991 0
4.0840001 -0.012773849 0.5568403 0
4.092 -0.01936136 0.55717218 0
4.1000004 -0.025977729 0.55750412 0
4.1080003 -0.032622959 0.557836 0
4.1160002 -0.039297048 0.55816787 0
4.1240001 -0.046 0.55849981 0
4.132 -0.052731812 0.55883169 0
4.1400003 -0.059492484 0.55916357 0
4.1480002 -0.066282019 0.55949551 0
4.1560001 -0.073100418 0.55982739 0
4.164 -0.079947673 0.56015933 0
4.1730003 -0.08683461 0.56053269 0
4.1810002 -0.093741387 0.56086457 0
4.1890001 -0.10067704 0.56119651 0
4.197 -0.10764153 0.56152838 0
4.2060003 -0.11465295 0.56190181 0
4.2140002 -0.12167697 0.56223369 0
4.223 -0.1287515 0.56260705 0
4.2309999 -0.13583507 0.56293893 0
4.29 0.5153451 0.55836993 0
4.2820001 0.50718826 0.55805242 0
4.277 0.49948239 0.55785406 0
4.2730002 0.49193347 0.55769527 0
4.27 0.48453605 0.55757624 0
4.2690001 0.47742003 0.55753654 0
4.2680001 0.47030765 0.55749691 0
4.2680001 0.46333051 0.55749691 0
4.2690001 0.45648324 0.55753654 0
4.2710004 0.4497605 0.55761594 0
4.2730002 0.44303045 0.55769527 0
4.276 0.43641767 0.55781436 0
4.2780004 0.42967144 0.55789375 0
4.2800002 0.42291799 0.55797309 0
4.2850003 0.41651446 0.55817151 0
4.4750004 0.35092801 0.56571144 0
4.4690003 0.34300387 0.56547332 0
4.4640002 0.33519518 0.56527489 0
4.4610004 0.32758856 0.56515586 0
4.4590001 0.32008284 0.56507647 0
4.4580002 0.31267282 0.56503677 0
4.4570003 0.30526638 0.56499714 0
4.0950003 0.26059327 0.55063158 0
4.085 0.25311652 0.55023474 0
4.079 0.24599326 0.54999661 0
4.0750003 0.23904678 0.54983795 0
4.073 0.23226628 0.54975855 0
4.0710001 0.22549298 0.54967916 0
4.0710001 0.21887121 0.54967916 0
4.0710001 0.21224943 0.54967916 0
4.072 0.2056962 0.54971886 0
4.0740004 0.19920607 0.54979825 0
4.0780001 0.19283864 0.54995698 0
4.0820003 0.18645677 0.5501157 0
4.0880003 0.18018311 0.55035377 0
4.0950003 0.17394735 0.55063158 0
4.1030002 0.16774406 0.55094904 0
4.1100001 0.16145599 0.55122685 0
4.118 0.15519677 0.55154431 0
3.9570003 0.14006823 0.54515523 0
3.9520004 0.13339956 0.5449568 0
3.9460003 0.12670021 0.54471874 0
3.9400003 0.12002252 0.54448062 0
3.9350002 0.11341155 0.5442822 0
3.9410002 0.10729483 0.54452026 0
3.9480002 0.10119796 0.54479808 0
3.9560003 0.095115513 0.54511553 0
3.9630003 0.08896634 0.54539335 0
3.9700003 0.082791895 0.54567111 0
3.9780002 0.076626495 0.54598856 0
3.9850004 0.070399746 0.54626638 0
3.9930003 0.064178407 0.54658383 0
4 0.057899352 0.54686165 0
4.0080004 0.051622104 0.5471791 0
4.0150003 0.045290735 0.54745686 0
4.0230002 0.038957562 0.54777431 0
4.0300002 0.032573882 0.54805213 0
4.0380001 0.026184794 0.54836959 0
4.046 0.019766849 0.5486871 0
4.053 0.013303805 0.54896486 0
4.0610003 0.0068299361 0.54928231 0
4.0690002 0.00032720715 0.54959983 0
4.0770001 -0.0062043816 0.54991728 0
4.0840001 -0.012773849 0.5501951 0
4.092 -0.01936136 0.55051255 0
4.1000004 -0.025977729 0.55083001 0
4.1080003 -0.032622959 0.55114746 0
4.1160002 -0.039297048 0.55146492 0
4.1240001 -0.046 0.55178243 0
4.132 -0.052731812 0.55209988 0
4.1400003 -0.059492484 0.55241734 0
4.1480002 -0.066282019 0.55273485 0
4.1560001 -0.073100418 0.55305231 0
4.164 -0.079947673 0.55336976 0
4.1730003 -0.08683461 0.55372691 0
4.1810002 -0.093741387 0.55404437 0
4.1890001 -0.10067704 0.55436188 0
4.197 -0.10764153 0.55467933 0
4.2060003 -0.11465295 0.55503649 0
4.2140002 -0.12167697 0.55535394 0
4.223 -0.1287515 0.55571109 0
4.2309999 -0.13583507 0.5560286 0
4.2860003 0.50775832 0.55120158 0
4.2800002 0.49990451 0.55097431 0
4.276 0.49235022 0.55082279 0
4.2730002 0.48494738 0.55070913 0
4.2710004 0.47769064 0.55063343 0
4.27 0.47057456 0.55059552 0
4.2710004 0.46372551 0.55063343 0
4.2710004 0.45674306 0.55063343 0
4.2730002 0.45001659 0.55070913 0
4.2750001 0.44328302 0.55078495 0
4.2790003 0.43679106 0.55093646 0
4.283 0.43028474 0.55108798 0
4.289 0.42400569 0.55131525 0
4.296 0.41782403 0.55158037 0
4.4710002 0.34319505 0.55820942 0
4.4660001 0.33538276 0.55802 0
4.4630003 0.32777253 0.55790633 0
4.4610004 0.32026327 0.55783057 0
4.4600005 0.31284961 0.55779272 0
4.0950003 0.26059327 0.54396653 0
4.085 0.25311652 0.54358768 0
4.079 0.24599326 0.54336041 0
4.0750003 0.23904678 0.5432089 0
4.073 0.23226628 0.54313314 0
4.0710001 0.22549298 0.54305738 0
4.0710001 0.21887121 0.54305738 0
4.0710001 0.21224943 0.54305738 0
4.072 0.2056962 0.54309529 0
4.0740004 0.19920607 0.54317105 0
4.0780001 0.19283864 0.54332256 0
4.0820003 0.18645677 0.54347408 0
4.0880003 0.18018311 0.54370135 0
4.0950003 0.17394735 0.54396653 0
4.1030002 0.16774406 0.54426956 0
4.1100001 0.16145599 0.54453468 0
4.118 0.15519677 0.54483777 0
3.9570003 0.14006823 0.53873909 0
3.9520004 0.13339956 0.53854966 0
3.9460003 0.12670021 0.53832239 0
3.9400003 0.12002252 0.53809512 0
3.9350002 0.11341155 0.53790569 0
3.9410002 0.10729483 0.53813303 0
3.9480002 0.10119796 0.53839815 0
3.9560003 0.095115513 0.53870118 0
3.9630003 0.08896634 0.53896636 0
3.9700003 0.082791895 0.53923154 0
3.9780002 0.076626495 0.53953457 0
3.9850004 0.070399746 0.53979969 0
3.9930003 0.064178407 0.54010272 0
4 0.057899352 0.5403679 0
4.0080004 0.051622104 0.54067099 0
4.0150003 0.045290735 0.54093611 0
4.0230002 0.038957562 0.54123914 0
4.0300002 0.032573882 0.54150432 0
4.0380001 0.026184794 0.54180735 0
4.046 0.019766849 0.54211038 0
4.053 0.013303805 0.54237556 0
4.0610003 0.0068299361 0.54267859 0
4.0690002 0.00032720715 0.54298162 0
4.0770001 -0.0062043816 0.54328465 0
4.0840001 -0.012773849 0.54354984 0
4.092 -0.01936136 0.54385287 0
4.1000004 -0.025977729 0.5441559 0
4.1080003 -0.032622959 0.54445899 0
4.1160002 -0.039297048 0.54476202 0
4.1240001 -0.046 0.54506505 0
4.132 -0.052731812 0.54536808 0
4.1400003 -0.059492484 0.54567111 0
4.1480002 -0.066282019 0.54597414 0
4.1560001 -0.073100418 0.54627717 0
4.164 -0.079947673 0.54658026 0
4.1730003 -0.08683461 0.54692113 0
4.1810002 -0.093741387 0.54722416 0
4.1890001 -0.10067704 0.54752725 0
4.197 -0.10764153 0.54783028 0
4.2060003 -0.11465295 0.54817116 0
4.2140002 -0.12167697 0.54847419 0
4.223 -0.1287515 0.54881513 0
4.2309999 -0.13583507 0.54911816 0
4.2920003 0.50861329 0.54440844 0
4.2850003 0.50060803 0.5441559 0
4.2800002 0.49290574 0.54397553 0
4.277 0.48549569 0.54386729 0
4.2750001 0.47823179 0.54379517 0
4.2740002 0.4711085 0.54375911 0
4.2740002 0.46412057 0.54375911 0
4.2750001 0.45726252 0.54379517 0
4.277 0.45052886 0.54386729 0
4.2790003 0.44378802 0.54393947 0
4.283 0.43728891 0.54408377 0
4.2870002 0.43077537 0.54422808 0
4.2930002 0.42448908 0.5444445 0
4.4690003 0.33566418 0.55079395 0
4.4660001 0.32804847 0.5506857 0
4.0950003 0.26059327 0.53730142 0
4.085 0.25311652 0.53694069 0
4.079 0.24599326 0.53672421 0
4.0750003 0.23904678 0.53657991 0
4.073 0.23226628 0.53650773 0
4.0710001 0.22549298 0.5364356 0
4.0710001 0.21887121 0.5364356 0
4.0710001 0.21224943 0.5364356 0
4.072 0.2056962 0.53647172 0
4.0740004 0.19920607 0.53654385 0
4.0780001 0.19283864 0.53668815 0
4.0820003 0.18645677 0.53683245 0
4.0880003 0.18018311 0.53704894 0
4.0950003 0.17394735 0.53730142 0
4.1030002 0.16774406 0.53759003 0
4.1100001 0.16145599 0.53784257 0
4.118 0.15519677 0.53813118 0
3.9570003 0.14006823 0.53232294 0
3.9520004 0.13339956 0.53214258 0
3.9460003 0.12670021 0.5319261 0
3.9400003 0.12002252 0.53170967 0
3.9350002 0.11341155 0.53152925 0
3.9410002 0.10729483 0.53174567 0
3.9480002 0.10119796 0.53199822 0
3.9560003 0.095115513 0.53228688 0
3.9630003 0.08896634 0.53253937 0
3.9700003 0.082791895 0.53279191 0
3.9780002 0.076626495 0.53308052 0
3.9850004 0.070399746 0.53333306 0
3.9930003 0.064178407 0.53362167 0
4 0.057899352 0.53387421 0
4.0080004 0.051622104 0.53416282 0
4.0150003 0.045290735 0.53441536 0
4.0230002 0.038957562 0.53470397 0
4.0300002 0.032573882 0.53495651 0
4.0380001 0.026184794 0.53524512 0
4.046 0.019766849 0.53553373 0
4.053 0.013303805 0.53578627 0
4.0610003 0.0068299361 0.53607488 0
4.0690002 0.00032720715 0.53636348 0
4.0770001 -0.0062043816 0.53665209 0
4.0840001 -0.012773849 0.53690463 0
4.092 -0.01936136 0.53719318 0
4.1000004 -0.025977729 0.53748184 0
4.1080003 -0.032622959 0.53777045 0
4.1160002 -0.039297048 0.53805906 0
4.1240001 -0.046 0.53834766 0
4.132 -0.052731812 0.53863627 0
4.1400003 -0.059492484 0.53892487 0
4.1480002 -0.066282019 0.53921348 0
4.1560001 -0.073100418 0.53950208 0
4.164 -0.079947673 0.53979069 0
4.1730003 -0.08683461 0.54011536 0
4.1810002 -0.093741387 0.54040396 0
4.1890001 -0.10067704 0.54069263 0
4.197 -0.10764153 0.54098117 0
4.2060003 -0.11465295 0.5413059 0
4.2140002 -0.12167697 0.54159451 0
4.223 -0.1287515 0.54191923 0
4.2309999 -0.13583507 0.54220778 0
4.3000002 0.50975329 0.53766221 0
4.2910004 0.50145221 0.53735375 0
4.2860003 0.49373913 0.53718239 0
4.2820001 0.48618114 0.5370453 0
4.2800002 0.47890818 0.53697675 0
4.2790003 0.47177595 0.53694248 0
4.2790003 0.46477896 0.53694248 0
4.2800002 0.45791185 0.53697675 0
4.2810001 0.45104119 0.53701103 0
4.2840004 0.44441941 0.53711385 0
4.2880001 0.43791121 0.53725094 0
4.2930002 0.43151131 0.5374223 0
4.0950003 0.26059327 0.53063637 0
4.085 0.25311652 0.53029364 0
4.079 0.24599326 0.53008801 0
4.0750003 0.23904678 0.52995092 0
4.073 0.23226628 0.52988237 0
4.0710001 0.22549298 0.52981383 0
4.0710001 0.21887121 0.52981383 0
4.0710001 0.21224943 0.52981383 0
4.072 0.2056962 0.5298481 0
4.0740004 0.19920607 0.52991664 0
4.0780001 0.19283864 0.53005373 0
4.0820003 0.18645677 0.53019083 0
4.0880003 0.18018311 0.53039646 0
4.0950003 0.17394735 0.53063637 0
4.1030002 0.16774406 0.53091055 0
4.1100001 0.16145599 0.53115046 0
4.118 0.15519677 0.53142464 0
3.9570003 0.14006823 0.5259068 0
3.9520004 0.13339956 0.52573544 0
3.9460003 0.12670021 0.5255298 0
3.9400003 0.12002252 0.52532417 0
3.9350002 0.11341155 0.5251528 0
3.9410002 0.10729483 0.52535844 0
3.9480002 0.10119796 0.52559835 0
3.9560003 0.095115513 0.52587253 0
3.9630003 0.08896634 0.52611244 0
3.9700003 0.082791895 0.52635235 0
3.9780002 0.076626495 0.52662653 0
3.9850004 0.070399746 0.52686644 0
3.9930003 0.064178407 0.52714062 0
4 0.057899352 0.52738047 0
4.0080004 0.051622104 0.52765465 0
4.0150003 0.045290735 0.52789462 0
4.0230002 0.038957562 0.5281688 0
4.0300002 0.032573882 0.52840865 0
4.0380001 0.026184794 0.52868283 0
4.046 0.019766849 0.52895701 0
4.053 0.013303805 0.52919692 0
4.0610003 0.0068299361 0.5294711 0
4.0690002 0.00032720715 0.52974528 0
4.0770001 -0.0062043816 0.53001946 0
4.0840001 -0.012773849 0.53025937 0
4.092 -0.01936136 0.53053355 0
4.1000004 -0.025977729 0.53080773 0
4.1080003 -0.032622959 0.53108191 0
4.1160002 -0.039297048 0.5313561 0
4.1240001 -0.046 0.53163028 0
4.132 -0.052731812 0.53190446 0
4.1400003 -0.059492484 0.53217864 0
4.1480002 -0.066282019 0.53245282 0
4.1560001 -0.073100418 0.532727 0
4.164 -0.079947673 0.53300118 0
4.1730003 -0.08683461 0.53330958 0
4.1810002 -0.093741387 0.53358376 0
4.1890001 -0.10067704 0.53385794 0
4.197 -0.10764153 0.53413212 0
4.2060003 -0.11465295 0.53444064 0
4.2140002 -0.12167697 0.53471482 0
4.223 -0.1287515 0.53502321 0
4.2309999 -0.13583507 0.53529739 0
4.3010001 0.50285918 0.53065979 0
4.2940001 0.49485022 0.53043252 0
4.289 0.48714077 0.53027022 0
4.2860003 0.47971988 0.53017282 0
4.2850003 0.47257686 0.53014034 0
4.2850003 0.46556902 0.53014034 0
4.2860003 0.45869112 0.53017282 0
4.2870002 0.45180959 0.53020525 0
4.29 0.44517699 0.53030264 0
4.2850003 0.43753782 0.53014034 0
4.2780004 0.42967144 0.52991307 0
4.27 0.42170942 0.52965331 0
4.2620001 0.41377628 0.52939355 0
4.164 0.30705577 0.52621162 0
4.1570001 0.29962227 0.52598435 0
4.151 0.29230422 0.52578956 0
4.0950003 0.26059327 0.52397132 0
4.085 0.25311652 0.52364659 0
4.079 0.24599326 0.52345181 0
4.0750003 0.23904678 0.52332193 0
4.073 0.23226628 0.52325696 0
4.0710001 0.22549298 0.52319205 0
4.0710001 0.21887121 0.52319205 0
4.0710001 0.21224943 0.52319205 0
4.072 0.2056962 0.52322453 0
4.0740004 0.19920607 0.52328944 0
4.0780001 0.19283864 0.52341932 0
4.0820003 0.18645677 0.5235492 0
4.0880003 0.18018311 0.52374399 0
4.0950003 0.17394735 0.52397132 0
4.1030002 0.16774406 0.52423102 0
4.1100001 0.16145599 0.52445835 0
4.118 0.15519677 0.52471805 0
3.9570003 0.14006823 0.51949066 0
3.9520004 0.13339956 0.5193283 0
3.9460003 0.12670021 0.51913351 0
3.9400003 0.12002252 0.51893866 0
3.9350002 0.11341155 0.5187763 0
3.9410002 0.10729483 0.51897115 0
3.9480002 0.10119796 0.51919842 0
3.9560003 0.095115513 0.51945817 0
3.9630003 0.08896634 0.51968545 0
3.9700003 0.082791895 0.51991272 0
3.9780002 0.076626495 0.52017248 0
3.9850004 0.070399746 0.52039975 0
3.9930003 0.064178407 0.52065951 0
4 0.057899352 0.52088678 0
4.0080004 0.051622104 0.52114654 0
4.0150003 0.045290735 0.52137381 0
4.0230002 0.038957562 0.52163357 0
4.0300002 0.032573882 0.52186084 0
4.0380001 0.026184794 0.52212059 0
4.046 0.019766849 0.52238035 0
4.053 0.013303805 0.52260762 0
4.0610003 0.0068299361 0.52286738 0
4.0690002 0.00032720715 0.52312708 0
4.0770001 -0.0062043816 0.52338684 0
4.0840001 -0.012773849 0.52361417 0
4.092 -0.01936136 0.52387387 0
4.1000004 -0.025977729 0.52413362 0
4.1080003 -0.032622959 0.52439338 0
4.1160002 -0.039297048 0.52465314 0
4.1240001 -0.046 0.52491289 0
4.132 -0.052731812 0.52517265 0
4.1400003 -0.059492484 0.52543241 0
4.1480002 -0.066282019 0.52569211 0
4.1560001 -0.073100418 0.52595186 0
4.164 -0.079947673 0.52621162 0
4.1730003 -0.08683461 0.52650386 0
4.1810002 -0.093741387 0.52676356 0
4.1890001 -0.10067704 0.52702332 0
4.197 -0.10764153 0.52728307 0
4.2060003 -0.11465295 0.52757531 0
4.2140002 -0.12167697 0.52783507 0
4.223 -0.1287515 0.52812725 0
4.2309999 -0.13583507 0.52838701 0
4.3070002 0.49665588 0.52380717 0
4.2990003 0.48851162 0.52356184 0
4.296 0.48107278 0.52346987 0
4.2930002 0.47364467 0.52337784 0
4.2910004 0.46635914 0.5233165 0
4.2840004 0.45843136 0.52310187 0
4.277 0.45052886 0.52288723 0
4.27 0.4426516 0.52267253 0
4.263 0.43479964 0.5224579 0
4.257 0.42709559 0.5222739 0
4.25 0.41929233 0.52205926 0
4.1890001 0.35040849 0.52018869 0
4.1820002 0.34285414 0.51997405 0
4.1760001 0.33542606 0.51979005 0
4.1690001 0.32792044 0.51957542 0
4.1630001 0.32053745 0.51939142 0
4.1560001 0.31308049 0.51917678 0
4.1500001 0.30574262 0.51899278 0
4.1430001 0.29833439 0.51877815 0
4.1490002 0.29212382 0.51896214 0
4.1560001 0.28598008 0.51917678 0
4.0950003 0.26059327 0.51730621 0
4.085 0.25311652 0.5169996 0
4.079 0.24599326 0.5168156 0
4.0750003 0.23904678 0.51669294 0
4.073 0.23226628 0.5166316 0
4.0710001 0.22549298 0.51657027 0
4.0710001 0.21887121 0.51657027 0
4.0710001 0.21224943 0.51657027 0
4.072 0.2056962 0.51660097 0
4.0740004 0.19920607 0.51666224 0
4.0780001 0.19283864 0.51678491 0
4.0820003 0.18645677 0.51690757 0
4.0880003 0.18018311 0.51709157 0
4.0950003 0.17394735 0.51730621 0
4.1030002 0.16774406 0.51755154 0
4.1100001 0.16145599 0.51776618 0
4.118 0.15519677 0.51801151 0
3.9570003 0.14006823 0.51307452 0
3.9520004 0.13339956 0.51292115 0
3.9460003 0.12670021 0.51273715 0
3.9400003 0.12002252 0.51255322 0
3.9350002 0.11341155 0.51239985 0
3.9410002 0.10729483 0.51258385 0
3.9480002 0.10119796 0.51279849 0
3.9560003 0.095115513 0.51304382 0
3.9630003 0.08896634 0.51325846 0
3.9700003 0.082791895 0.51347315 0
3.9780002 0.076626495 0.51371843 0
3.9850004 0.070399746 0.51393312 0
3.9930003 0.064178407 0.5141784 0
4 0.057899352 0.51439309 0
4.0080004 0.051622104 0.51463842 0
4.0150003 0.045290735 0.51485306 0
4.0230002 0.038957562 0.51509839 0
4.0300002 0.032573882 0.51531303 0
4.0380001 0.026184794 0.51555836 0
4.046 0.019766849 0.51580364 0
4.053 0.013303805 0.51601833 0
4.0610003 0.0068299361 0.5162636 0
4.0690002 0.00032720715 0.51650894 0
4.0770001 -0.0062043816 0.51675427 0
4.0840001 -0.012773849 0.51696891 0
4.092 -0.01936136 0.51721424 0
4.1000004 -0.025977729 0.51745957 0
4.1080003 -0.032622959 0.51770484 0
4.1160002 -0.039297048 0.51795018 0
4.1240001 -0.046 0.51819551 0
4.132 -0.052731812 0.51844084 0
4.1400003 -0.059492484 0.51868618 0
4.1480002 -0.066282019 0.51893145 0
4.1560001 -0.073100418 0.51917678 0
4.164 -0.079947673 0.51942211 0
4.1730003 -0.08683461 0.51969808 0
4.1810002 -0.093741387 0.51994342 0
4.1890001 -0.10067704 0.52018869 0
4.197 -0.10764153 0.52043402 0
4.2060003 -0.11465295 0.52070999 0
4.2140002 -0.12167697 0.52095532 0
4.223 -0.1287515 0.52123129 0
4.2309999 -0.13583507 0.52147663 0
4.3000002 0.48864871 0.51655763 0
4.2930002 0.48066688 0.51635563 0
4.2860003 0.47271031 0.51615357 0
4.2790003 0.46477896 0.51595157 0
4.2730002 0.45700276 0.51577842 0
4.2660003 0.44912013 0.51557636 0
4.2590003 0.44126269 0.51537436 0
4.2520003 0.43343061 0.5151723 0
4.2450004 0.42562371 0.5149703 0
4.2390003 0.41796294 0.51479715 0
4.2320004 0.41020477 0.51459509 0
4.2250004 0.40247181 0.51439309 0
4.2190003 0.39487961 0.51421994 0
4.2120004 0.38719538 0.51401788 0
4.2060003 0.37964824 0.51384473 0
4.1990004 0.3720127 0.51364267 0
4.1920004 0.36440247 0.51344067 0
4.1860003 0.35692385 0.51326752 0
4.1790004 0.34936231 0.51306546 0
4.1730003 0.34192881 0.51289231 0
4.1670003 0.33451694 0.51271915 0
4.1600003 0.32702756 0.51251709 0
4.1540003 0.31966078 0.51234394 0
4.1470003 0.3122201 0.51214194 0
4.1410003 0.30489844 0.51196873 0
4.1420002 0.29824236 0.51199764 0
4.1490002 0.29212382 0.51219964 0
4.1560001 0.28598008 0.5124017 0
4.164 0.27989763 0.51263255 0
4.0950003 0.26059327 0.51064116 0
4.085 0.25311652 0.51035255 0
4.079 0.24599326 0.5101794 0
4.0750003 0.23904678 0.51006395 0
4.073 0.23226628 0.51000619 0
4.0710001 0.22549298 0.50994849 0
4.0710001 0.21887121 0.50994849 0
4.0710001 0.21224943 0.50994849 0
4.072 0.2056962 0.50997734 0
4.0740004 0.19920607 0.5100351 0
4.0780001 0.19283864 0.51015055 0
4.0820003 0.18645677 0.51026595 0
4.0880003 0.18018311 0.51043916 0
4.0950003 0.17394735 0.51064116 0
4.1030002 0.16774406 0.51087207 0
4.1100001 0.16145599 0.51107407 0
4.118 0.15519677 0.51130497 0
3.9570003 0.14006823 0.50665832 0
3.9520004 0.13339956 0.50651407 0
3.9460003 0.12670021 0.50634086 0
3.9400003 0.12002252 0.50616771 0
3.9350002 0.11341155 0.50602341 0
3.9410002 0.10729483 0.50619656 0
3.9480002 0.10119796 0.50639862 0
3.9560003 0.095115513 0.50662947 0
3.9630003 0.08896634 0.50683153 0
3.9700003 0.082791895 0.50703353 0
3.9780002 0.076626495 0.50726444 0
3.9850004 0.070399746 0.50746644 0
3.9930003 0.064178407 0.50769734 0
4 0.057899352 0.50789934 0
4.0080004 0.051622104 0.50813025 0
4.0150003 0.045290735 0.50833225 0
4.0230002 0.038957562 0.50856316 0
4.0300002 0.032573882 0.50876522 0
4.0380001 0.026184794 0.50899607 0
4.046 0.019766849 0.50922698 0
4.053 0.013303805 0.50942898 0
4.0610003 0.0068299361 0.50965989 0
4.0690002 0.00032720715 0.50989079 0
4.0770001 -0.0062043816 0.51012164 0
4.0840001 -0.012773849 0.5103237 0
4.092 -0.01936136 0.51055455 0
4.1000004 -0.025977729 0.51078546 0
4.1080003 -0.032622959 0.51101637 0
4.1160002 -0.039297048 0.51124722 0
4.1240001 -0.046 0.51147813 0
4.132 -0.052731812 0.51170903 0
4.1400003 -0.059492484 0.51193988 0
4.1480002 -0.066282019 0.51217079 0
4.1560001 -0.073100418 0.5124017 0
4.164 -0.079947673 0.51263255 0
4.1730003 -0.08683461 0.51289231 0
4.1810002 -0.093741387 0.51312321 0
4.1890001 -0.10067704 0.51335406 0
4.197 -0.10764153 0.51358497 0
4.2060003 -0.11465295 0.51384473 0
4.2140002 -0.12167697 0.51407564 0
4.223 -0.1287515 0.51433533 0
4.2309999 -0.13583507 0.51456624 0
4.2990003 0.49554473 0.50949574 0
4.2920003 0.48755205 0.50930631 0
4.2850003 0.47958463 0.50911695 0
4.2780004 0.47164243 0.50892752 0
4.2710004 0.46372551 0.50873816 0
4.2650003 0.45596379 0.5085758 0
4.2580004 0.44809556 0.50838637 0
4.2509999 0.44025257 0.50819701 0
4.2450004 0.43255937 0.50803465 0
4.2380004 0.42476508 0.50784528 0
4.2309999 0.41699606 0.50765586 0
4.2250004 0.40937138 0.5074935 0
4.2179999 0.40165105 0.50730413 0
4.2120004 0.39407149 0.50714177 0
4.2049999 0.38639989 0.50695235 0
4.1990004 0.37886539 0.50679004 0
4.1920004 0.37124249 0.50660062 0
4.1860003 0.36375308 0.50643826 0
4.1790004 0.35617888 0.50624889 0
4.1730003 0.34873459 0.50608653 0
4.1670003 0.3413119 0.50592422 0
4.1600003 0.33380985 0.5057348 0
4.1540003 0.32643229 0.50557244 0
4.1480002 0.31907636 0.50541013 0
4.1410003 0.31164646 0.50522071 0
4.1350002 0.30433562 0.50505835 0
4.1420002 0.29824236 0.50524777 0
4.1490002 0.29212382 0.50543714 0
4.1560001 0.28598008 0.50562656 0
4.164 0.27989763 0.50584304 0
4.0950003 0.26059327 0.50397611 0
4.085 0.25311652 0.5037055 0
4.079 0.24599326 0.50354314 0
4.0750003 0.23904678 0.50343496 0
4.073 0.23226628 0.50338084 0
4.0710001 0.22549298 0.50332671 0
4.0710001 0.21887121 0.50332671 0
4.0710001 0.21224943 0.50332671 0
4.072 0.2056962 0.50335377 0
4.0740004 0.19920607 0.5034079 0
4.0780001 0.19283864 0.50351614 0
4.0820003 0.18645677 0.50362432 0
4.0880003 0.18018311 0.50378668 0
4.0950003 0.17394735 0.50397611 0
4.1030002 0.16774406 0.50419253 0
4.1100001 0.16145599 0.50438195 0
4.118 0.15519677 0.50459838 0
3.9570003 0.14006823 0.50024223 0
3.9520004 0.13339956 0.50010693 0
3.9460003 0.12670021 0.49994457 0
3.9400003 0.12002252 0.49978223 0
3.9350002 0.11341155 0.49964696 0
3.9410002 0.10729483 0.49980929 0
3.9480002 0.10119796 0.49999869 0
3.9560003 0.095115513 0.50021517 0
3.9630003 0.08896634 0.50040454 0
3.9700003 0.082791895 0.50059396 0
3.9780002 0.076626495 0.50081038 0
3.9850004 0.070399746 0.50099981 0
3.9930003 0.064178407 0.50121629 0
4 0.057899352 0.50140566 0
4.0080004 0.051622104 0.50162214 0
4.0150003 0.045290735 0.5018115 0
4.0230002 0.038957562 0.50202799 0
4.0300002 0.032573882 0.50221735 0
4.0380001 0.026184794 0.50243384 0
4.046 0.019766849 0.50265026 0
4.053 0.013303805 0.50283968 0
4.0610003 0.0068299361 0.50305617 0
4.0690002 0.00032720715 0.50327259 0
4.0770001 -0.0062043816 0.50348908 0
4.0840001 -0.012773849 0.50367844 0
4.092 -0.01936136 0.50389493 0
4.1000004 -0.025977729 0.50411135 0
4.1080003 -0.032622959 0.50432783 0
4.1160002 -0.039297048 0.50454426 0
4.1240001 -0.046 0.50476074 0
4.132 -0.052731812 0.50497723 0
4.1400003 -0.059492484 0.50519365 0
4.1480002 -0.066282019 0.50541013 0
4.1560001 -0.073100418 0.50562656 0
4.164 -0.079947673 0.50584304 0
4.1730003 -0.08683461 0.50608653 0
4.1810002 -0.093741387 0.50630301 0
4.1890001 -0.10067704 0.50651944 0
4.197 -0.10764153 0.50673592 0
4.2060003 -0.11465295 0.50697941 0
4.2140002 -0.12167697 0.50719589 0
4.223 -0.1287515 0.50743937 0
4.2309999 -0.13583507 0.50765586 0
4.3010001 0.50285918 0.50251317 0
4.2930002 0.49471134 0.50231117 0
4.2860003 0.4867295 0.50213438 0
4.2790003 0.47877294 0.50195765 0
4.2730002 0.47097504 0.50180608 0
4.2660003 0.46306717 0.50162935 0
4.2590003 0.45518452 0.50145257 0
4.2530003 0.4474552 0.50130105 0
4.2460003 0.43962124 0.50112426 0
4.2390003 0.43181258 0.50094748 0
4.2330003 0.42415178 0.50079596 0
4.2260003 0.41639179 0.50061917 0
4.2200003 0.40877613 0.50046766 0
4.2130003 0.40106484 0.50029093 0
4.2070003 0.39349425 0.50013936 0
4.2000003 0.38583168 0.49996263 0
4.1940002 0.37830621 0.49981108 0
4.1880002 0.37080234 0.49965957 0
4.1810002 0.36321193 0.49948281 0
4.1750002 0.35575318 0.4993313 0
4.1690001 0.3483161 0.49917975 0
4.1620002 0.34079781 0.49900299 0
4.1560001 0.33340582 0.49885148 0
4.1500001 0.32603544 0.49869996 0
4.1430001 0.31858933 0.49852318 0
4.1370001 0.31126404 0.49837166 0
4.1340003 0.30424184 0.4982959 0
4.1420002 0.29824236 0.4984979 0
4.1490002 0.29212382 0.49867469 0
4.1560001 0.28598008 0.49885148 0
4.164 0.27989763 0.49905348 0
4.0950003 0.26059327 0.49731103 0
4.085 0.25311652 0.49705848 0
4.079 0.24599326 0.49690697 0
4.0750003 0.23904678 0.49680597 0
4.073 0.23226628 0.49675542 0
4.0710001 0.22549298 0.49670494 0
4.0710001 0.21887121 0.49670494 0
4.0710001 0.21224943 0.49670494 0
4.072 0.2056962 0.49673018 0
4.0740004 0.19920607 0.49678069 0
4.0780001 0.19283864 0.49688172 0
4.0820003 0.18645677 0.49698272 0
4.0880003 0.18018311 0.49713424 0
4.0950003 0.17394735 0.49731103 0
4.1030002 0.16774406 0.49751306 0
4.1100001 0.16145599 0.49768981 0
4.118 0.15519677 0.49789184 0
3.9570003 0.14006823 0.49382606 0
3.9520004 0.13339956 0.49369979 0
3.9460003 0.12670021 0.49354827 0
3.9400003 0.12002252 0.49339676 0
3.9350002 0.11341155 0.49327049 0
3.9410002 0.10729483 0.493422 0
3.9480002 0.10119796 0.49359876 0
3.9560003 0.095115513 0.49380082 0
3.9630003 0.08896634 0.49397758 0
3.9700003 0.082791895 0.49415433 0
3.9780002 0.076626495 0.49435639 0
3.9850004 0.070399746 0.49453315 0
3.9930003 0.064178407 0.49473518 0
4 0.057899352 0.49491194 0
4.0080004 0.051622104 0.49511397 0
4.0150003 0.045290735 0.49529076 0
4.0230002 0.038957562 0.49549276 0
4.0300002 0.032573882 0.49566954 0
4.0380001 0.026184794 0.49587157 0
4.046 0.019766849 0.4960736 0
4.053 0.013303805 0.49625039 0
4.0610003 0.0068299361 0.49645239 0
4.0690002 0.00032720715 0.49665442 0
4.0770001 -0.0062043816 0.49685645 0
4.0840001 -0.012773849 0.49703324 0
4.092 -0.01936136 0.49723524 0
4.1000004 -0.025977729 0.4974373 0
4.1080003 -0.032622959 0.4976393 0
4.1160002 -0.039297048 0.49784133 0
4.1240001 -0.046 0.49804336 0
4.132 -0.052731812 0.49824539 0
4.1400003 -0.059492484 0.49844742 0
4.1480002 -0.066282019 0.49864942 0
4.1560001 -0.073100418 0.49885148 0
4.164 -0.079947673 0.49905348 0
4.1730003 -0.08683461 0.49928078 0
4.1810002 -0.093741387 0.49948281 0
4.1890001 -0.10067704 0.49968484 0
4.197 -0.10764153 0.49988684 0
4.2060003 -0.11465295 0.50011414 0
4.2140002 -0.12167697 0.50031614 0
4.223 -0.1287515 0.50054342 0
4.2309999 -0.13583507 0.50074548 0
4.296 0.50215566 0.4953593 0
4.289 0.49415576 0.49519515 0
4.283 0.48631823 0.49505445 0
4.276 0.47836703 0.4948903 0
4.2690001 0.4704411 0.49472615 0
4.263 0.46267211 0.49458545 0
4.256 0.45479488 0.4944213 0
4.2490001 0.44694293 0.49425715 0
4.243 0.43924245 0.49411649 0
4.2360001 0.43143919 0.49395233 0
4.23 0.42378381 0.49381161 0
4.223 0.41602924 0.49364749 0
4.217 0.40841898 0.49350679 0
4.21 0.40071309 0.49334264 0
4.204 0.39314792 0.49320194 0
4.197 0.38549078 0.49303779 0
4.191 0.3779707 0.49289709 0
4.1849999 0.37047225 0.4927564 0
4.178 0.36288723 0.49259225 0
4.1719999 0.35543391 0.49245155 0
4.1660004 0.34800223 0.49231085 0
4.1589999 0.34048933 0.4921467 0
4.1530004 0.33310276 0.492006 0
4.1470003 0.3257378 0.49186531 0
4.1410003 0.31839451 0.49172461 0
4.1350002 0.31107283 0.49158391 0
4.1340003 0.30424184 0.49156046 0
4.1420002 0.29824236 0.49174806 0
4.1490002 0.29212382 0.49191222 0
4.1560001 0.28598008 0.49207637 0
4.164 0.27989763 0.49226397 0
4.171 0.27370155 0.49242812 0
4.0950003 0.26059327 0.49064595 0
4.085 0.25311652 0.49041146 0
4.079 0.24599326 0.49027076 0
4.0750003 0.23904678 0.49017695 0
4.073 0.23226628 0.49013007 0
4.0710001 0.22549298 0.49008316 0
4.0710001 0.21887121 0.49008316 0
4.0710001 0.21224943 0.49008316 0
4.072 0.2056962 0.49010661 0
4.0740004 0.19920607 0.49015349 0
4.0780001 0.19283864 0.49024731 0
4.0820003 0.18645677 0.4903411 0
4.0880003 0.18018311 0.49048179 0
4.0950003 0.17394735 0.49064595 0
4.1030002 0.16774406 0.49083352 0
4.1100001 0.16145599 0.49099767 0
4.118 0.15519677 0.49118528 0
3.9570003 0.14006823 0.48740992 0
3.9520004 0.13339956 0.48729265 0
3.9460003 0.12670021 0.48715198 0
3.9400003 0.12002252 0.48701128 0
3.9350002 0.11341155 0.48689401 0
3.9410002 0.10729483 0.48703471 0
3.9480002 0.10119796 0.48719886 0
3.9560003 0.095115513 0.48738647 0
3.9630003 0.08896634 0.48755062 0
3.9700003 0.082791895 0.48771477 0
3.9780002 0.076626495 0.48790234 0
3.9850004 0.070399746 0.48806649 0
3.9930003 0.064178407 0.4882541 0
4 0.057899352 0.48841825 0
4.0080004 0.051622104 0.48860583 0
4.0150003 0.045290735 0.48876998 0
4.0230002 0.038957562 0.48895758 0
4.0300002 0.032573882 0.48912174 0
4.0380001 0.026184794 0.48930931 0
4.046 0.019766849 0.48949692 0
4.053 0.013303805 0.48966107 0
4.0610003 0.0068299361 0.48984867 0
4.0690002 0.00032720715 0.49003625 0
4.0770001 -0.0062043816 0.49022385 0
4.0840001 -0.012773849 0.49038801 0
4.092 -0.01936136 0.49057561 0
4.1000004 -0.025977729 0.49076319 0
4.1080003 -0.032622959 0.49095079 0
4.1160002 -0.039297048 0.4911384 0
4.1240001 -0.046 0.49132597 0
4.132 -0.052731812 0.49151358 0
4.1400003 -0.059492484 0.49170119 0
4.1480002 -0.066282019 0.49188876 0
4.1560001 -0.073100418 0.49207637 0
4.164 -0.079947673 0.49226397 0
4.1730003 -0.08683461 0.492475 0
4.1810002 -0.093741387 0.49266261 0
4.1890001 -0.10067704 0.49285018 0
4.197 -0.10764153 0.49303779 0
4.2060003 -0.11465295 0.49324885 0
4.2140002 -0.12167697 0.49343643 0
4.223 -0.1287515 0.49364749 0
4.2309999 -0.13583507 0.49383509 0
4.2940001 0.50187427 0.48828837 0
4.2880001 0.49401689 0.48815849 0
4.2810001 0.48604405 0.48800698 0
4.2740002 0.47809649 0.48785543 0
4.2680001 0.47030765 0.48772559 0
4.2610002 0.46240878 0.48757407 0
4.2540002 0.45453513 0.48742253 0
4.2480001 0.44681484 0.48729265 0
4.2410002 0.43898988 0.48714113 0
4.2350001 0.43131474 0.48701128 0
4.2280002 0.42353851 0.48685974 0
4.2220001 0.41590837 0.48672986 0
4.2150002 0.40818089 0.48657835 0
4.2090001 0.40059587 0.48644847 0
4.2030001 0.39303249 0.48631859 0
4.1960001 0.38537714 0.48616707 0
4.1900001 0.37785885 0.48603722 0
4.184 0.37036222 0.48590735 0
4.177 0.36277902 0.4857558 0
4.171 0.35532749 0.48562595 0
4.165 0.34789759 0.48549607 0
4.158 0.34038654 0.48534453 0
4.152 0.33300173 0.48521468 0
4.1460004 0.32563862 0.4850848 0
4.1400003 0.31829709 0.48495492 0
4.1340003 0.31097725 0.48482504 0
4.1340003 0.30424184 0.48482504 0
4.1420002 0.29824236 0.48499823 0
4.1490002 0.29212382 0.48514974 0
4.1560001 0.28598008 0.48530126 0
4.164 0.27989763 0.48547441 0
4.171 0.27370155 0.48562595 0
4.0950003 0.26059327 0.48398086 0
4.085 0.25311652 0.48376441 0
4.079 0.24599326 0.48363453 0
4.0750003 0.23904678 0.48354796 0
4.073 0.23226628 0.48350465 0
4.0710001 0.22549298 0.48346138 0
4.0710001 0.21887121 0.48346138 0
4.0710001 0.21224943 0.48346138 0
4.072 0.2056962 0.48348302 0
4.0740004 0.19920607 0.48352632 0
4.0780001 0.19283864 0.4836129 0
4.0820003 0.18645677 0.48369947 0
4.0880003 0.18018311 0.48382935 0
4.0950003 0.17394735 0.48398086 0
4.1030002 0.16774406 0.48415405 0
4.1100001 0.16145599 0.48430556 0
4.118 0.15519677 0.48447871 0
3.9570003 0.14006823 0.48099375 0
3.9520004 0.13339956 0.48088554 0
3.9460003 0.12670021 0.48075566 0
3.9400003 0.12002252 0.48062581 0
3.9350002 0.11341155 0.48051757 0
3.9410002 0.10729483 0.48064744 0
3.9480002 0.10119796 0.48079896 0
3.9560003 0.095115513 0.48097211 0
3.9630003 0.08896634 0.48112363 0
3.9700003 0.082791895 0.48127517 0
3.9780002 0.076626495 0.48144832 0
3.9850004 0.070399746 0.48159984 0
3.9930003 0.064178407 0.48177302 0
4 0.057899352 0.48192453 0
4.0080004 0.051622104 0.48209769 0
4.0150003 0.045290735 0.48224923 0
4.0230002 0.038957562 0.48242238 0
4.0300002 0.032573882 0.4825739 0
4.0380001 0.026184794 0.48274708 0
4.046 0.019766849 0.48292023 0
4.053 0.013303805 0.48307174 0
4.0610003 0.0068299361 0.48324493 0
4.0690002 0.00032720715 0.48341808 0
4.0770001 -0.0062043816 0.48359126 0
4.0840001 -0.012773849 0.48374277 0
4.092 -0.01936136 0.48391593 0
4.1000004 -0.025977729 0.48408911 0
4.1080003 -0.032622959 0.48426226 0
4.1160002 -0.039297048 0.48443544 0
4.1240001 -0.046 0.48460859 0
4.132 -0.052731812 0.48478174 0
4.1400003 -0.059492484 0.48495492 0
4.1480002 -0.066282019 0.4851281 0
4.1560001 -0.073100418 0.48530126 0
4.164 -0.079947673 0.48547441 0
4.1730003 -0.08683461 0.48566923 0
4.1810002 -0.093741387 0.48584241 0
4.1890001 -0.10067704 0.48601556 0
4.197 -0.10764153 0.48618874 0
4.2060003 -0.11465295 0.48638356 0
4.2140002 -0.12167697 0.48655671 0
4.223 -0.1287515 0.48675153 0
4.2309999 -0.13583507 0.48692468 0
4.2940001 0.50187427 0.48126435 0
4.2870002 0.49387801 0.48112544 0
4.2800002 0.48590696 0.48098654 0
4.2740002 0.47809649 0.48086751 0
4.2670002 0.47017419 0.4807286 0
4.2610002 0.46240878 0.48060957 0
4.2540002 0.45453513 0.48047066 0
4.2480001 0.44681484 0.48035163 0
4.2410002 0.43898988 0.48021272 0
4.2350001 0.43131474 0.48009366 0
4.2280002 0.42353851 0.47995478 0
4.2220001 0.41590837 0.47983572 0
4.2150002 0.40818089 0.47969684 0
4.2090001 0.40059587 0.47957778 0
4.2030001 0.39303249 0.47945872 0
4.1960001 0.38537714 0.47931984 0
4.1900001 0.37785885 0.47920078 0
4.184 0.37036222 0.47908172 0
4.177 0.36277902 0.47894284 0
4.171 0.35532749 0.47882378 0
4.165 0.34789759 0.47870472 0
4.1589999 0.34048933 0.47858566 0
4.152 0.33300173 0.47844678 0
4.1460004 0.32563862 0.47832775 0
4.1400003 0.31829709 0.47820869 0
4.1340003 0.31097725 0.47808963 0
4.1340003 0.30424184 0.47808963 0
4.1420002 0.29824236 0.47824836 0
4.1490002 0.29212382 0.47838727 0
4.1560001 0.28598008 0.47852615 0
4.164 0.27989763 0.4786849 0
4.171 0.27370155 0.47882378 0
4.0950003 0.26059327 0.47731578 0
4.085 0.25311652 0.47711739 0
4.079 0.24599326 0.47699833 0
4.0750003 0.23904678 0.47691897 0
4.073 0.23226628 0.47687927 0
4.0710001 0.22549298 0.4768396 0
4.0710001 0.21887121 0.4768396 0
4.0710001 0.21224943 0.4768396 0
4.072 0.2056962 0.47685945 0
4.0740004 0.19920607 0.47689912 0
4.0780001 0.19283864 0.47697848 0
4.0820003 0.18645677 0.47705787 0
4.0880003 0.18018311 0.4771769 0
4.0950003 0.17394735 0.47731578 0
4.1030002 0.16774406 0.47747454 0
4.1100001 0.16145599 0.47761342 0
4.118 0.15519677 0.47777218 0
3.9570003 0.14006823 0.47457761 0
3.9520004 0.13339956 0.47447842 0
3.9460003 0.12670021 0.47435936 0
3.9400003 0.12002252 0.4742403 0
3.9350002 0.11341155 0.47414109 0
3.9410002 0.10729483 0.47426015 0
3.9480002 0.10119796 0.47439903 0
3.9560003 0.095115513 0.47455776 0
3.9630003 0.08896634 0.47469667 0
3.9700003 0.082791895 0.47483557 0
3.9780002 0.076626495 0.4749943 0
3.9850004 0.070399746 0.47513318 0
3.9930003 0.064178407 0.47529194 0
4 0.057899352 0.47543082 0
4.0080004 0.051622104 0.47558957 0
4.0150003 0.045290735 0.47572845 0
4.0230002 0.038957562 0.47588718 0
4.0300002 0.032573882 0.47602606 0
4.0380001 0.026184794 0.47618482 0
4.046 0.019766849 0.47634354 0
4.053 0.013303805 0.47648245 0
4.0610003 0.0068299361 0.47664118 0
4.0690002 0.00032720715 0.47679991 0
4.0770001 -0.0062043816 0.47695863 0
4.0840001 -0.012773849 0.47709754 0
4.092 -0.01936136 0.47725627 0
4.1000004 -0.025977729 0.47741503 0
4.1080003 -0.032622959 0.47757375 0
4.1160002 -0.039297048 0.47773248 0
4.1240001 -0.046 0.47789121 0
4.132 -0.052731812 0.47804993 0
4.1400003 -0.059492484 0.47820869 0
4.1480002 -0.066282019 0.47836742 0
4.1560001 -0.073100418 0.47852615 0
4.164 -0.079947673 0.4786849 0
4.1730003 -0.08683461 0.47886348 0
4.1810002 -0.093741387 0.4790222 0
4.1890001 -0.10067704 0.47918093 0
4.197 -0.10764153 0.47933966 0
4.2060003 -0.11465295 0.47951823 0
4.2140002 -0.12167697 0.47967699 0
4.223 -0.1287515 0.47985557 0
4.2309999 -0.13583507 0.48001429 0
4.2940001 0.50187427 0.4742403 0
4.2880001 0.49401689 0.47413206 0
4.2810001 0.48604405 0.47400582 0
4.2750001 0.47823179 0.47389758 0
4.2680001 0.47030765 0.47377133 0
4.2620001 0.46254045 0.47366309 0
4.2550001 0.45466506 0.47353682 0
4.2490001 0.44694293 0.47342861 0
4.2420001 0.43911615 0.47330233 0
4.2360001 0.43143919 0.47319409 0
4.2290001 0.42366114 0.47306782 0
4.223 0.41602924 0.47295961 0
4.2160001 0.40829992 0.47283334 0
4.21 0.40071309 0.47272509 0
4.204 0.39314792 0.47261688 0
4.197 0.38549078 0.47249061 0
4.191 0.3779707 0.47238237 0
4.1849999 0.37047225 0.47227415 0
4.178 0.36288723 0.47214788 0
4.1719999 0.35543391 0.47203967 0
4.1660004 0.34800223 0.47193143 0
4.1600003 0.34059218 0.47182322 0
4.1540003 0.33320379 0.47171497 0
4.1470003 0.3257378 0.4715887 0
4.1410003 0.31839451 0.47148049 0
4.1350002 0.31107283 0.47137225 0
4.1340003 0.30424184 0.47135422 0
4.1420002 0.29824236 0.47149852 0
4.1490002 0.29212382 0.47162479 0
4.1560001 0.28598008 0.47175103 0
4.164 0.27989763 0.47189537 0
4.171 0.27370155 0.47202164 0
4.0950003 0.26059327 0.47065073 0
4.085 0.25311652 0.47047034 0
4.079 0.24599326 0.47036213 0
4.0750003 0.23904678 0.47028995 0
4.073 0.23226628 0.47025388 0
4.0710001 0.22549298 0.47021782 0
4.0710001 0.21887121 0.47021782 0
4.0710001 0.21224943 0.47021782 0
4.072 0.2056962 0.47023585 0
4.0740004 0.19920607 0.47027194 0
4.0780001 0.19283864 0.47034407 0
4.0820003 0.18645677 0.47041625 0
4.0880003 0.18018311 0.47052446 0
4.0950003 0.17394735 0.47065073 0
4.1030002 0.16774406 0.47079504 0
4.1100001 0.16145599 0.47092131 0
4.118 0.15519677 0.47106561 0
3.9570003 0.14006823 0.46816146 0
3.9520004 0.13339956 0.46807128 0
3.9460003 0.12670021 0.46796304 0
3.9400003 0.12002252 0.46785483 0
3.9350002 0.11341155 0.46776465 0
3.9410002 0.10729483 0.46787286 0
3.9480002 0.10119796 0.46799913 0
3.9560003 0.095115513 0.46814343 0
3.9630003 0.08896634 0.46826971 0
3.9700003 0.082791895 0.46839595 0
3.9780002 0.076626495 0.46854025 0
3.9850004 0.070399746 0.46866655 0
3.9930003 0.064178407 0.46881086 0
4 0.057899352 0.4689371 0
4.0080004 0.051622104 0.4690814 0
4.0150003 0.045290735 0.46920767 0
4.0230002 0.038957562 0.46935201 0
4.0300002 0.032573882 0.46947825 0
4.0380001 0.026184794 0.46962255 0
4.046 0.019766849 0.46976686 0
4.053 0.013303805 0.46989313 0
4.0610003 0.0068299361 0.47003743 0
4.0690002 0.00032720715 0.47018173 0
4.0770001 -0.0062043816 0.47032604 0
4.0840001 -0.012773849 0.47045231 0
4.092 -0.01936136 0.47059661 0
4.1000004 -0.025977729 0.47074091 0
4.1080003 -0.032622959 0.47088522 0
4.1160002 -0.039297048 0.47102952 0
4.1240001 -0.046 0.47117382 0
4.132 -0.052731812 0.47131813 0
4.1400003 -0.059492484 0.47146243 0
4.1480002 -0.066282019 0.47160673 0
4.1560001 -0.073100418 0.47175103 0
4.164 -0.079947673 0.47189537 0
4.1730003 -0.08683461 0.4720577 0
4.1810002 -0.093741387 0.472202 0
4.1890001 -0.10067704 0.47234631 0
4.197 -0.10764153 0.47249061 0
4.2060003 -0.11465295 0.47265297 0
4.2140002 -0.12167697 0.47279724 0
4.223 -0.1287515 0.47295961 0
4.2309999 -0.13583507 0.47310391 0
4.2940001 0.50187427 0.46721628 0
4.2880001 0.49401689 0.46711886 0
4.2840004 0.48645532 0.46705395 0
4.2780004 0.47863764 0.46695653 0
4.2710004 0.47070807 0.46684289 0
4.2639999 0.46280378 0.46672925 0
4.2580004 0.45505464 0.46663183 0
4.2509999 0.44719902 0.46651819 0
4.2450004 0.439495 0.4664208 0
4.2390003 0.43181258 0.46632341 0
4.2320004 0.42402914 0.46620977 0
4.2260003 0.41639179 0.46611235 0
4.2190003 0.40865707 0.46599871 0
4.2130003 0.40106484 0.46590132 0
4.2070003 0.39349425 0.46580389 0
4.2000003 0.38583168 0.46569026 0
4.1940002 0.37830621 0.46559286 0
4.1880002 0.37080234 0.46549544 0
4.1810002 0.36321193 0.4653818 0
4.1750002 0.35575318 0.46528441 0
4.1690001 0.3483161 0.46518698 0
4.1630001 0.34090063 0.46508959 0
4.1570001 0.33350682 0.4649922 0
4.1500001 0.32603544 0.46487856 0
4.1440001 0.31868672 0.46478114 0
4.138 0.31135967 0.46468374 0
4.1340003 0.30424184 0.4646188 0
4.1420002 0.29824236 0.46474868 0
4.1490002 0.29212382 0.46486232 0
4.1560001 0.28598008 0.46497595 0
4.164 0.27989763 0.46510583 0
4.171 0.27370155 0.46521947 0
4.0950003 0.26059327 0.46398565 0
4.085 0.25311652 0.46382332 0
4.079 0.24599326 0.46372589 0
4.0750003 0.23904678 0.46366096 0
4.073 0.23226628 0.4636285 0
4.0710001 0.22549298 0.46359605 0
4.0710001 0.21887121 0.46359605 0
4.0710001 0.21224943 0.46359605 0
4.072 0.2056962 0.46361226 0
4.0740004 0.19920607 0.46364474 0
4.0780001 0.19283864 0.46370968 0
4.0820003 0.18645677 0.46377462 0
4.0880003 0.18018311 0.46387202 0
4.0950003 0.17394735 0.46398565 0
4.1030002 0.16774406 0.46411553 0
4.1100001 0.16145599 0.46422917 0
3.9570003 0.14006823 0.46174532 0
3.9520004 0.13339956 0.46166417 0
3.9460003 0.12670021 0.46156675 0
3.9400003 0.12002252 0.46146935 0
3.9350002 0.11341155 0.46138817 0
3.9410002 0.10729483 0.46148556 0
3.9480002 0.10119796 0.46159923 0
3.9560003 0.095115513 0.46172911 0
3.9630003 0.08896634 0.46184272 0
3.9700003 0.082791895 0.46195638 0
3.9780002 0.076626495 0.46208623 0
3.9850004 0.070399746 0.4621999 0
3.9930003 0.064178407 0.46232975 0
4 0.057899352 0.46244341 0
4.0080004 0.051622104 0.46257329 0
4.0150003 0.045290735 0.46268693 0
4.0230002 0.038957562 0.46281677 0
4.0300002 0.032573882 0.46293044 0
4.0380001 0.026184794 0.46306029 0
4.046 0.019766849 0.46319017 0
4.053 0.013303805 0.4633038 0
4.0610003 0.0068299361 0.46343368 0
4.0690002 0.00032720715 0.46356356 0
4.0770001 -0.0062043816 0.46369344 0
4.0840001 -0.012773849 0.46380708 0
4.092 -0.01936136 0.46393695 0
4.1000004 -0.025977729 0.46406683 0
4.1080003 -0.032622959 0.46419671 0
4.1160002 -0.039297048 0.46432656 0
4.1240001 -0.046 0.46445644 0
4.132 -0.052731812 0.46458632 0
4.1400003 -0.059492484 0.4647162 0
4.1480002 -0.066282019 0.46484607 0
4.1560001 -0.073100418 0.46497595 0
4.164 -0.079947673 0.46510583 0
4.1730003 -0.08683461 0.46525192 0
4.1810002 -0.093741387 0.4653818 0
4.1890001 -0.10067704 0.46551168 0
4.197 -0.10764153 0.46564156 0
4.2060003 -0.11465295 0.46578765 0
4.2140002 -0.12167697 0.46591753 0
4.223 -0.1287515 0.46606365 0
4.2309999 -0.13583507 0.46619353 0
4.2940001 0.50187427 0.46019226 0
4.2880001 0.49401689 0.46010566 0
4.2840004 0.48645532 0.46004796 0
4.2810001 0.47904348 0.46000466 0
4.2750001 0.47124201 0.45991808 0
4.2690001 0.46346217 0.45983148 0
4.2620001 0.45557415 0.45973048 0
4.256 0.44783938 0.4596439 0
4.2490001 0.44000006 0.45954287 0
4.243 0.43231043 0.45945629 0
4.237 0.42464244 0.45936972 0
4.23 0.41687524 0.45926869 0
4.224 0.40925232 0.45918211 0
4.217 0.40153384 0.45908111 0
4.211 0.39395604 0.45899451 0
4.2049999 0.38639989 0.45890793 0
4.198 0.37875354 0.45880693 0
4.1920004 0.37124249 0.45872033 0
4.1860003 0.36375308 0.45863375 0
4.1800003 0.35628533 0.45854717 0
4.1730003 0.34873459 0.45844617 0
4.1670003 0.3413119 0.45835957 0
4.1610003 0.33391088 0.45827299 0
4.1550002 0.3265315 0.45818642 0
4.1490002 0.31917375 0.45809984 0
4.1430001 0.31183767 0.45801324 0
4.1370001 0.30452323 0.45792666 0
4.1420002 0.29824236 0.45799881 0
4.1490002 0.29212382 0.45809984 0
4.1560001 0.28598008 0.45820084 0
4.164 0.27989763 0.4583163 0
4.0950003 0.26059327 0.45732057 0
4.085 0.25311652 0.45717627 0
4.079 0.24599326 0.45708969 0
4.0750003 0.23904678 0.45703197 0
4.073 0.23226628 0.45700312 0
4.0710001 0.22549298 0.45697427 0
4.0710001 0.21887121 0.45697427 0
4.0710001 0.21224943 0.45697427 0
4.072 0.2056962 0.45698869 0
4.0740004 0.19920607 0.45701754 0
4.0780001 0.19283864 0.45707527 0
4.0820003 0.18645677 0.457133 0
4.0880003 0.18018311 0.45721957 0
4.0950003 0.17394735 0.45732057 0
4.1030002 0.16774406 0.45743603 0
4.1100001 0.16145599 0.45753706 0
3.9570003 0.14006823 0.45532918 0
3.9520004 0.13339956 0.45525703 0
3.9460003 0.12670021 0.45517045 0
3.9400003 0.12002252 0.45508385 0
3.9350002 0.11341155 0.45501173 0
3.9410002 0.10729483 0.4550983 0
3.9480002 0.10119796 0.4551993 0
3.9560003 0.095115513 0.45531476 0
3.9630003 0.08896634 0.45541576 0
3.9700003 0.082791895 0.45551679 0
3.9780002 0.076626495 0.45563221 0
3.9850004 0.070399746 0.45573324 0
3.9930003 0.064178407 0.45584869 0
4 0.057899352 0.45594969 0
4.0080004 0.051622104 0.45606515 0
4.0150003 0.045290735 0.45616615 0
