# .PCD v0.7 - Point Cloud Data file format
VERSION 0.7
FIELDS x y z intensity
SIZE 4 4 4 4
TYPE F F F F
COUNT 1 1 1 1
WIDTH 1415
HEIGHT 1
VIEWPOINT 0 0 0 1 0 0 0
POINTS 1415
DATA ascii
4.8580003 -1.774896 0.27533799 0
4.8530002 -1.7809893 0.2754823 0
4.8480005 -1.7870646 0.2756266 0
4.8420005 -1.7927285 0.27579975 0
4.8370004 -1.7987659 0.27594405 0
4.8310003 -1.8043884 0.27611721 0
4.8260002 -1.8103877 0.27626154 0
4.8200002 -1.8159688 0.27643472 0
4.8150005 -1.8219305 0.27657899 0
4.8100004 -1.8278739 0.2767233 0
4.8040004 -1.8333937 0.27689648 0
4.7990003 -1.8392992 0.27704078 0
4.7940001 -1.8451868 0.27718508 0
4.7880001 -1.8506451 0.27735823 0
4.7830005 -1.856495 0.27750254 0
4.7780004 -1.8623267 0.27764684 0
4.7730002 -1.8681403 0.27779114 0
4.7670002 -1.8735175 0.27796432 0
4.7620001 -1.8792932 0.27810866 0
4.7570004 -1.8850511 0.27825293 0
4.7520003 -1.8907907 0.27839723 0
4.7460003 -1.8960867 0.27857041 0
4.7410002 -1.9017885 0.27871472 0
4.7360005 -1.9074725 0.27885902 0
4.7310004 -1.9131383 0.27900332 0
4.7260003 -1.9187858 0.27914762 0
4.7210002 -1.9244156 0.27929193 0
4.7150002 -1.9295906 0.27946511 0
4.7100005 -1.9351826 0.27960938 0
4.7050004 -1.9407562 0.27975368 0
4.7000003 -1.9463118 0.27989802 0
4.6950002 -1.9518497 0.28004232 0
4.6900005 -1.9573694 0.28018659 0
4.6850004 -1.962871 0.28033093 0
4.6800003 -1.9683546 0.28047523 0
4.6750002 -1.97382 0.28061953 0
4.6700001 -1.9792675 0.28076383 0
4.6650004 -1.984697 0.28090814 0
4.6600003 -1.9901084 0.28105244 0
4.6550002 -1.9955018 0.28119674 0
4.6500001 -2.0008771 0.28134108 0
4.6450005 -2.0062344 0.28148535 0
4.6400003 -2.0115738 0.28162965 0
4.6350002 -2.0168948 0.28177398 0
4.6300001 -2.022198 0.28191829 0
4.6250005 -2.0274835 0.28206259 0
4.6200004 -2.0327504 0.28220689 0
4.6150002 -2.0379996 0.2823512 0
4.6100001 -2.0432303 0.2824955 0
4.6060004 -2.0489197 0.28261092 0
4.6010003 -2.0541165 0.28275526 0
4.5960002 -2.0592952 0.28289956 0
4.5910001 -2.0644557 0.28304386 0
4.5860004 -2.0695989 0.28318816 0
4.5810003 -2.0747232 0.28333247 0
4.5770001 -2.0803168 0.28344792 0
4.5720005 -2.0854073 0.28359219 0
4.5670004 -2.0904796 0.28373653 0
4.5620003 -2.0955338 0.28388083 0
4.5570002 -2.10057 0.28402513 0
4.5530005 -2.1060843 0.28414056 0
4.5480003 -2.1110861 0.28428486 0
4.5430002 -2.1160703 0.28442919 0
4.5390005 -2.1215377 0.28454462 0
4.5340004 -2.1264873 0.28468892 0
4.5290003 -2.1314187 0.28483322 0
4.5240002 -2.1363323 0.28497753 0
4.5200005 -2.1417365 0.28509298 0
4.5150003 -2.1466157 0.28523728 0
4.5100002 -2.1514771 0.28538159 0
4.5060005 -2.1568346 0.28549701 0
4.5010004 -2.1616616 0.28564131 0
4.4970002 -2.1669879 0.28575677 0
4.4920001 -2.1717806 0.28590107 0
4.4870005 -2.1765554 0.28604537 0
4.4830003 -2.1818352 0.28616083 0
4.4780002 -2.1865754 0.28630513 0
4.4740005 -2.1918249 0.28642058 0
4.4690003 -2.1965308 0.28656489 0
4.4640002 -2.2012188 0.28670919 0
4.4600005 -2.2064211 0.28682461 0
4.4550004 -2.2110748 0.28696895 0
4.4510002 -2.2162466 0.28708437 0
4.4460001 -2.220866 0.2872287 0
4.4420004 -2.226007 0.28734413 0
4.4370003 -2.2305923 0.28748843 0
4.4330001 -2.2357023 0.28760388 0
4.4280005 -2.2402534 0.28774816 0
4.4240003 -2.245333 0.28786361 0
4.4190001 -2.2498496 0.28800792 0
4.4150004 -2.2548985 0.28812337 0
4.4110003 -2.259933 0.28823882 0
4.4060001 -2.2643991 0.28838313 0
4.4020004 -2.269403 0.28849855 0
4.3970003 -2.2738349 0.28864288 0
4.3930001 -2.2788079 0.28875831 0
4.3889999 -2.2837665 0.28887376 0
4.3840003 -2.2881482 0.28901806 0
4.3800001 -2.2930763 0.28913349 0
4.3759999 -2.2979896 0.28924894 0
4.3710003 -2.3023207 0.28939325 0
4.3670001 -2.3072035 0.2895087 0
4.362 -2.3115003 0.289653 0
4.3580003 -2.3163524 0.28976846 0
5.0760002 -1.5389255 0.26061168 0
5.0700002 -1.5454336 0.26079568 0
5.0640001 -1.5519201 0.26097965 0
5.0590005 -1.5587097 0.26113299 0
5.0530005 -1.5651547 0.26131696 0
5.0470004 -1.571578 0.26150095 0
5.0410004 -1.5779798 0.26168495 0
5.0350003 -1.5843598 0.26186895 0
5.0290003 -1.5907183 0.26205295 0
5.0230002 -1.5970551 0.26223692 0
5.0170002 -1.6033701 0.26242092 0
5.0110002 -1.6096636 0.26260489 0
5.0050001 -1.6159354 0.26278889 0
5.0000005 -1.6225284 0.26294219 0
4.9940004 -1.6287588 0.26312619 0
4.9880004 -1.6349674 0.26331019 0
4.9820004 -1.6411545 0.26349419 0
4.9760003 -1.6473199 0.26367816 0
4.9710002 -1.6538154 0.2638315 0
4.9650002 -1.6599393 0.2640155 0
4.9590001 -1.6660416 0.2641995 0
4.9530005 -1.6721224 0.26438344 0
4.9480004 -1.6785402 0.26453677 0
4.9420004 -1.6845795 0.26472077 0
4.9360003 -1.6905968 0.26490474 0
4.9310002 -1.6969571 0.2650581 0
4.9250002 -1.7029331 0.26524207 0
4.9190001 -1.7088875 0.26542607 0
4.9140005 -1.7151901 0.26557937 0
4.9080005 -1.721103 0.26576334 0
4.9030004 -1.7273675 0.26591671 0
4.8970003 -1.7332389 0.26610067 0
4.8920002 -1.7394656 0.26625401 0
4.8860002 -1.7452955 0.26643801 0
4.8800001 -1.7511039 0.26662198 0
4.8750005 -1.757273 0.26677531 0
4.8690004 -1.7630397 0.26695928 0
4.8640003 -1.7691708 0.26711261 0
4.8580003 -1.774896 0.26729661 0
4.8530002 -1.7809893 0.26744992 0
4.8480005 -1.7870646 0.26760325 0
4.8420005 -1.7927285 0.26778722 0
4.8370004 -1.7987659 0.26794058 0
4.8310003 -1.8043884 0.26812455 0
4.8260002 -1.8103877 0.26827788 0
4.8200002 -1.8159688 0.26846188 0
4.8150005 -1.8219305 0.26861519 0
4.8100004 -1.8278739 0.26876849 0
4.8040004 -1.8333937 0.26895249 0
4.7990003 -1.8392992 0.26910582 0
4.7940001 -1.8451868 0.26925915 0
4.7880001 -1.8506451 0.26944315 0
4.7830005 -1.856495 0.26959646 0
4.7780004 -1.8623267 0.26974979 0
4.7730002 -1.8681403 0.26990312 0
4.7670002 -1.8735175 0.27008712 0
4.7620001 -1.8792932 0.27024043 0
4.7570004 -1.8850511 0.27039373 0
4.7520003 -1.8907907 0.27054709 0
4.7460003 -1.8960867 0.27073103 0
4.7410002 -1.9017885 0.27088439 0
4.7360005 -1.9074725 0.2710377 0
4.7310004 -1.9131383 0.271191 0
4.7260003 -1.9187858 0.27134436 0
4.7210002 -1.9244156 0.27149767 0
4.7150002 -1.9295906 0.27168167 0
4.7100005 -1.9351826 0.27183497 0
4.7050004 -1.9407562 0.2719883 0
4.7000003 -1.9463118 0.27214164 0
4.6950002 -1.9518497 0.27229497 0
4.6900005 -1.9573694 0.27244827 0
4.6850004 -1.962871 0.2726016 0
4.6800003 -1.9683546 0.27275491 0
4.6750002 -1.97382 0.27290827 0
4.6700001 -1.9792675 0.27306157 0
4.6650004 -1.984697 0.27321488 0
4.6600003 -1.9901084 0.27336824 0
4.6550002 -1.9955018 0.27352154 0
4.6500001 -2.0008771 0.27367488 0
4.6450005 -2.0062344 0.27382818 0
4.6400003 -2.0115738 0.27398151 0
4.6350002 -2.0168948 0.27413484 0
4.6300001 -2.022198 0.27428818 0
4.6250005 -2.0274835 0.27444148 0
4.6200004 -2.0327504 0.27459481 0
4.6150002 -2.0379996 0.27474815 0
4.6100001 -2.0432303 0.27490145 0
4.6060004 -2.0489197 0.27502412 0
4.6010003 -2.0541165 0.27517742 0
4.5960002 -2.0592952 0.27533078 0
4.5910001 -2.0644557 0.27548409 0
4.5860004 -2.0695989 0.27563742 0
4.5810003 -2.0747232 0.27579075 0
4.5770001 -2.0803168 0.27591342 0
4.5720005 -2.0854073 0.27606672 0
4.5670004 -2.0904796 0.27622002 0
4.5620003 -2.0955338 0.27637336 0
4.5570002 -2.10057 0.27652669 0
4.5530005 -2.1060843 0.27664936 0
4.5480003 -2.1110861 0.27680266 0
4.5430002 -2.1160703 0.27695602 0
4.5390005 -2.1215377 0.27707863 0
4.5340004 -2.1264873 0.27723199 0
4.5290003 -2.1314187 0.27738529 0
4.5240002 -2.1363323 0.27753863 0
4.5200005 -2.1417365 0.27766126 0
4.5150003 -2.1466157 0.27781463 0
4.5100002 -2.1514771 0.27796793 0
4.5060005 -2.1568346 0.2780906 0
4.5010004 -2.1616616 0.2782439 0
4.4970002 -2.1669879 0.27836657 0
4.4920001 -2.1717806 0.2785199 0
4.4870005 -2.1765554 0.27867323 0
4.4830003 -2.1818352 0.2787959 0
4.4780002 -2.1865754 0.2789492 0
4.4740005 -2.1918249 0.27907187 0
4.4690003 -2.1965308 0.27922517 0
4.4640002 -2.2012188 0.2793785 0
4.4600005 -2.2064211 0.27950117 0
4.4550004 -2.2110748 0.2796545 0
4.4510002 -2.2162466 0.27977714 0
4.4460001 -2.220866 0.27993047 0
4.4420004 -2.226007 0.28005314 0
4.4370003 -2.2305923 0.28020644 0
4.4330001 -2.2357023 0.28032914 0
4.4280005 -2.2402534 0.28048244 0
4.4240003 -2.245333 0.28060511 0
4.4190001 -2.2498496 0.28075844 0
4.4150004 -2.2548985 0.28088108 0
4.4110003 -2.259933 0.28100374 0
4.4060001 -2.2643991 0.28115708 0
4.4020004 -2.269403 0.28127971 0
4.3970003 -2.2738349 0.28143305 0
4.3930001 -2.2788079 0.28155571 0
4.3889999 -2.2837665 0.28167838 0
4.3840003 -2.2881482 0.28183168 0
4.3800001 -2.2930763 0.28195435 0
4.3759999 -2.2979896 0.28207701 0
4.3710003 -2.3023207 0.28223032 0
4.3670001 -2.3072035 0.28235298 0
4.362 -2.3115003 0.28250632 0
4.3580003 -2.3163524 0.28262898 0
5.0770001 -1.5392447 0.25214463 0
5.0700002 -1.5454336 0.25237191 0
5.0640001 -1.5519201 0.2525667 0
5.0590005 -1.5587097 0.25272906 0
5.0530005 -1.5651547 0.25292385 0
5.0470004 -1.571578 0.25311866 0
5.0410004 -1.5779798 0.25331348 0
5.0350003 -1.5843598 0.25350827 0
5.0290003 -1.5907183 0.25370312 0
5.0230002 -1.5970551 0.25389791 0
5.0170002 -1.6033701 0.25409272 0
5.0110002 -1.6096636 0.25428754 0
5.0050001 -1.6159354 0.25448236 0
5.0000005 -1.6225284 0.25464469 0
4.9940004 -1.6287588 0.25483948 0
4.9880004 -1.6349674 0.25503433 0
4.9820004 -1.6411545 0.25522912 0
4.9760003 -1.6473199 0.25542393 0
4.9710002 -1.6538154 0.25558627 0
4.9650002 -1.6599393 0.25578111 0
4.9590001 -1.6660416 0.2559759 0
4.9530005 -1.6721224 0.25617069 0
4.9480004 -1.6785402 0.25633305 0
4.9420004 -1.6845795 0.25652787 0
4.9360003 -1.6905968 0.25672269 0
4.9310002 -1.6969571 0.25688505 0
4.9250002 -1.7029331 0.25707984 0
4.9190001 -1.7088875 0.25727463 0
4.9140005 -1.7151901 0.25743699 0
4.9080005 -1.721103 0.25763178 0
4.9030004 -1.7273675 0.25779414 0
4.8970003 -1.7332389 0.25798893 0
4.8920002 -1.7394656 0.25815129 0
4.8860002 -1.7452955 0.25834611 0
4.8800001 -1.7511039 0.25854093 0
4.8750005 -1.757273 0.25870326 0
4.8690004 -1.7630397 0.25889808 0
4.8640003 -1.7691708 0.25906041 0
4.8580003 -1.774896 0.25925523 0
4.8530002 -1.7809893 0.25941759 0
4.8480005 -1.7870646 0.2595799 0
4.8420005 -1.7927285 0.25977471 0
4.8370004 -1.7987659 0.25993705 0
4.8310003 -1.8043884 0.2601319 0
4.8260002 -1.8103877 0.26029423 0
4.8200002 -1.8159688 0.26048905 0
4.8150005 -1.8219305 0.26065135 0
4.8100004 -1.8278739 0.26081371 0
4.8040004 -1.8333937 0.26100853 0
4.7990003 -1.8392992 0.26117086 0
4.7940001 -1.8451868 0.26133323 0
4.7880001 -1.8506451 0.26152802 0
4.7830005 -1.856495 0.26169038 0
4.7780004 -1.8623267 0.26185271 0
4.7730002 -1.8681403 0.26201504 0
4.7670002 -1.8735175 0.26220986 0
4.7620001 -1.8792932 0.2623722 0
4.7570004 -1.8850511 0.26253456 0
4.7520003 -1.8907907 0.26269689 0
4.7460003 -1.8960867 0.26289171 0
4.7410002 -1.9017885 0.26305407 0
4.7360005 -1.9074725 0.26321638 0
4.7310004 -1.9131383 0.26337874 0
4.7260003 -1.9187858 0.26354107 0
4.7210002 -1.9244156 0.26370341 0
4.7150002 -1.9295906 0.26389825 0
4.7100005 -1.9351826 0.26406056 0
4.7050004 -1.9407562 0.26422292 0
4.7000003 -1.9463118 0.26438528 0
4.6950002 -1.9518497 0.26454762 0
4.6900005 -1.9573694 0.26470995 0
4.6850004 -1.962871 0.26487228 0
4.6800003 -1.9683546 0.26503462 0
4.6750002 -1.97382 0.26519698 0
4.6700001 -1.9792675 0.26535931 0
4.6650004 -1.984697 0.26552165 0
4.6600003 -1.9901084 0.26568401 0
4.6550002 -1.9955018 0.26584634 0
4.6500001 -2.0008771 0.26600868 0
4.6450005 -2.0062344 0.26617104 0
4.6400003 -2.0115738 0.26633334 0
4.6350002 -2.0168948 0.2664957 0
4.6300001 -2.022198 0.26665807 0
4.6250005 -2.0274835 0.2668204 0
4.6200004 -2.0327504 0.26698273 0
4.6150002 -2.0379996 0.2671451 0
4.6100001 -2.0432303 0.26730743 0
4.6060004 -2.0489197 0.26743728 0
4.6010003 -2.0541165 0.26759964 0
4.5960002 -2.0592952 0.26776201 0
4.5910001 -2.0644557 0.26792431 0
4.5860004 -2.0695989 0.26808667 0
4.5810003 -2.0747232 0.26824903 0
4.5770001 -2.0803168 0.26837888 0
4.5720005 -2.0854073 0.26854122 0
4.5670004 -2.0904796 0.26870358 0
4.5620003 -2.0955338 0.26886594 0
4.5570002 -2.10057 0.26902825 0
4.5530005 -2.1060843 0.26915812 0
4.5480003 -2.1110861 0.26932049 0
4.5430002 -2.1160703 0.26948282 0
4.5390005 -2.1215377 0.26961267 0
4.5340004 -2.1264873 0.26977503 0
4.5290003 -2.1314187 0.2699374 0
4.5240002 -2.1363323 0.27009973 0
4.5200005 -2.1417365 0.27022958 0
4.5150003 -2.1466157 0.27039194 0
4.5100002 -2.1514771 0.27055427 0
4.5060005 -2.1568346 0.27068415 0
4.5010004 -2.1616616 0.27084649 0
4.4970002 -2.1669879 0.27097636 0
4.4920001 -2.1717806 0.27113873 0
4.4870005 -2.1765554 0.27130103 0
4.4830003 -2.1818352 0.27143094 0
4.4780002 -2.1865754 0.27159327 0
4.4740005 -2.1918249 0.27172315 0
4.4690003 -2.1965308 0.27188548 0
4.4640002 -2.2012188 0.27204782 0
4.4600005 -2.2064211 0.2721777 0
4.4550004 -2.2110748 0.27234006 0
4.4510002 -2.2162466 0.27246994 0
4.4460001 -2.220866 0.27263227 0
4.4420004 -2.226007 0.27276212 0
4.4370003 -2.2305923 0.27292448 0
4.4330001 -2.2357023 0.27305436 0
4.4280005 -2.2402534 0.27321669 0
4.4240003 -2.245333 0.27334657 0
4.4190001 -2.2498496 0.27350891 0
4.4150004 -2.2548985 0.27363878 0
4.4110003 -2.259933 0.27376866 0
4.4060001 -2.2643991 0.27393103 0
4.4020004 -2.269403 0.2740609 0
4.3970003 -2.2738349 0.27422321 0
4.3930001 -2.2788079 0.27435309 0
4.3889999 -2.2837665 0.27448297 0
4.3840003 -2.2881482 0.27464533 0
4.3800001 -2.2930763 0.27477521 0
4.3759999 -2.2979896 0.27490509 0
4.3710003 -2.3023207 0.27506739 0
4.3670001 -2.3072035 0.27519727 0
4.3630004 -2.312072 0.27532715 0
4.3580003 -2.3163524 0.27548951 0
5.0770001 -1.5392447 0.24370821 0
5.0700002 -1.5454336 0.24394812 0
5.0640001 -1.5519201 0.24415375 0
5.0590005 -1.5587097 0.24432509 0
5.0530005 -1.5651547 0.24453074 0
5.0470004 -1.571578 0.24473637 0
5.0410004 -1.5779798 0.24494199 0
5.0350003 -1.5843598 0.24514765 0
5.0290003 -1.5907183 0.24535328 0
5.0230002 -1.5970551 0.2455589 0
5.0170002 -1.6033701 0.24576455 0
5.0110002 -1.6096636 0.24597019 0
5.0050001 -1.6159354 0.24617581 0
5.0000005 -1.6225284 0.24634716 0
4.9940004 -1.6287588 0.24655281 0
4.9880004 -1.6349674 0.24675845 0
4.9820004 -1.6411545 0.24696407 0
4.9760003 -1.6473199 0.24716972 0
4.9710002 -1.6538154 0.24734108 0
4.9650002 -1.6599393 0.24754672 0
4.9590001 -1.6660416 0.24775234 0
4.9530005 -1.6721224 0.24795796 0
4.9480004 -1.6785402 0.24812934 0
4.9420004 -1.6845795 0.24833497 0
4.9360003 -1.6905968 0.2485406 0
4.9310002 -1.6969571 0.24871197 0
4.9250002 -1.7029331 0.24891761 0
4.9190001 -1.7088875 0.24912325 0
4.9140005 -1.7151901 0.24929459 0
4.9080005 -1.721103 0.24950023 0
4.9030004 -1.7273675 0.24967159 0
4.8970003 -1.7332389 0.24987723 0
4.8920002 -1.7394656 0.25004858 0
4.8860002 -1.7452955 0.25025421 0
4.8800001 -1.7511039 0.25045985 0
4.8750005 -1.757273 0.25063121 0
4.8690004 -1.7630397 0.25083685 0
4.8640003 -1.7691708 0.25100821 0
4.8580003 -1.774896 0.25121385 0
4.8530002 -1.7809893 0.25138521 0
4.8480005 -1.7870646 0.25155658 0
4.8420005 -1.7927285 0.25176221 0
4.8370004 -1.7987659 0.25193357 0
4.8310003 -1.8043884 0.25213921 0
4.8260002 -1.8103877 0.25231057 0
4.8200002 -1.8159688 0.25251621 0
4.8150005 -1.8219305 0.25268754 0
4.8100004 -1.8278739 0.25285891 0
4.8040004 -1.8333937 0.25306457 0
4.7990003 -1.8392992 0.25323594 0
4.7940001 -1.8451868 0.2534073 0
4.7880001 -1.8506451 0.25361294 0
4.7830005 -1.856495 0.25378427 0
4.7780004 -1.8623267 0.25395563 0
4.7730002 -1.8681403 0.254127 0
4.7670002 -1.8735175 0.25433266 0
4.7620001 -1.8792932 0.25450402 0
4.7570004 -1.8850511 0.25467536 0
4.7520003 -1.8907907 0.25484672 0
4.7460003 -1.8960867 0.25505236 0
4.7410002 -1.9017885 0.25522372 0
4.7360005 -1.9074725 0.25539505 0
4.7310004 -1.9131383 0.25556642 0
4.7260003 -1.9187858 0.25573781 0
4.7210002 -1.9244156 0.25590917 0
4.7150002 -1.9295906 0.25611478 0
4.7100005 -1.9351826 0.25628614 0
4.7050004 -1.9407562 0.25645751 0
4.7000003 -1.9463118 0.25662887 0
4.6950002 -1.9518497 0.25680023 0
4.6900005 -1.9573694 0.2569716 0
4.6850004 -1.962871 0.25714296 0
4.6800003 -1.9683546 0.25731432 0
4.6750002 -1.97382 0.25748569 0
4.6700001 -1.9792675 0.25765705 0
4.6650004 -1.984697 0.25782841 0
4.6600003 -1.9901084 0.25799978 0
4.6550002 -1.9955018 0.25817114 0
4.6500001 -2.0008771 0.2583425 0
4.6450005 -2.0062344 0.25851387 0
4.6400003 -2.0115738 0.25868523 0
4.6350002 -2.0168948 0.25885659 0
4.6300001 -2.022198 0.25902796 0
4.6250005 -2.0274835 0.25919929 0
4.6200004 -2.0327504 0.25937068 0
4.6150002 -2.0379996 0.25954205 0
4.6100001 -2.0432303 0.25971341 0
4.6060004 -2.0489197 0.25985047 0
4.6010003 -2.0541165 0.26002187 0
4.5960002 -2.0592952 0.26019323 0
4.5910001 -2.0644557 0.26036459 0
4.5860004 -2.0695989 0.26053593 0
4.5810003 -2.0747232 0.26070729 0
4.5770001 -2.0803168 0.26084441 0
4.5720005 -2.0854073 0.26101574 0
4.5670004 -2.0904796 0.26118711 0
4.5620003 -2.0955338 0.26135847 0
4.5570002 -2.10057 0.26152983 0
4.5530005 -2.1060843 0.26166689 0
4.5480003 -2.1110861 0.26183826 0
4.5430002 -2.1160703 0.26200962 0
4.5390005 -2.1215377 0.26214671 0
4.5340004 -2.1264873 0.26231807 0
4.5290003 -2.1314187 0.26248944 0
4.5240002 -2.1363323 0.2626608 0
4.5200005 -2.1417365 0.26279789 0
4.5150003 -2.1466157 0.26296926 0
4.5100002 -2.1514771 0.26314062 0
4.5060005 -2.1568346 0.26327771 0
4.5010004 -2.1616616 0.26344907 0
4.4970002 -2.1669879 0.26358616 0
4.4920001 -2.1717806 0.26375753 0
4.4870005 -2.1765554 0.26392889 0
4.4830003 -2.1818352 0.26406598 0
4.4780002 -2.1865754 0.26423734 0
4.4740005 -2.1918249 0.26437443 0
4.4690003 -2.1965308 0.2645458 0
4.4640002 -2.2012188 0.26471716 0
4.4600005 -2.2064211 0.26485425 0
4.4550004 -2.2110748 0.26502562 0
4.4510002 -2.2162466 0.26516271 0
4.4460001 -2.220866 0.26533407 0
4.4420004 -2.226007 0.26547116 0
4.4370003 -2.2305923 0.26564252 0
4.4330001 -2.2357023 0.26577961 0
4.4280005 -2.2402534 0.26595098 0
4.4240003 -2.245333 0.26608807 0
4.4190001 -2.2498496 0.26625943 0
4.4150004 -2.2548985 0.26639652 0
4.4110003 -2.259933 0.26653361 0
4.4060001 -2.2643991 0.26670498 0
4.4020004 -2.269403 0.26684204 0
4.3970003 -2.2738349 0.26701343 0
4.3930001 -2.2788079 0.26715049 0
4.3889999 -2.2837665 0.26728761 0
4.3840003 -2.2881482 0.26745895 0
4.3800001 -2.2930763 0.26759604 0
4.3759999 -2.2979896 0.26773313 0
4.3710003 -2.3023207 0.26790449 0
4.3670001 -2.3072035 0.26804158 0
4.3630004 -2.312072 0.26817864 0
4.3580003 -2.3163524 0.26835003 0
5.0770001 -1.5392447 0.2352718 0
5.0700002 -1.5454336 0.23552433 0
5.0650005 -1.5522431 0.23570469 0
5.0590005 -1.5587097 0.23592116 0
5.0530005 -1.5651547 0.23613761 0
5.0470004 -1.571578 0.23635408 0
5.0410004 -1.5779798 0.23657052 0
5.0350003 -1.5843598 0.23678699 0
5.0290003 -1.5907183 0.23700345 0
5.0230002 -1.5970551 0.2372199 0
5.0170002 -1.6033701 0.23743637 0
5.0110002 -1.6096636 0.23765282 0
5.0050001 -1.6159354 0.23786929 0
5.0000005 -1.6225284 0.23804966 0
4.9940004 -1.6287588 0.23826611 0
4.9880004 -1.6349674 0.23848256 0
4.9820004 -1.6411545 0.23869902 0
4.9760003 -1.6473199 0.23891549 0
4.9710002 -1.6538154 0.23909588 0
4.9650002 -1.6599393 0.23931232 0
4.9590001 -1.6660416 0.23952879 0
4.9530005 -1.6721224 0.23974521 0
4.9480004 -1.6785402 0.23992561 0
4.9420004 -1.6845795 0.24014208 0
4.9360003 -1.6905968 0.24035853 0
4.9310002 -1.6969571 0.24053891 0
4.9250002 -1.7029331 0.24075538 0
4.9190001 -1.7088875 0.24097182 0
4.9140005 -1.7151901 0.2411522 0
4.9080005 -1.721103 0.24136867 0
4.9030004 -1.7273675 0.24154904 0
4.8970003 -1.7332389 0.2417655 0
4.8920002 -1.7394656 0.24194588 0
4.8860002 -1.7452955 0.24216235 0
4.8800001 -1.7511039 0.2423788 0
4.8750005 -1.757273 0.24255916 0
4.8690004 -1.7630397 0.24277563 0
4.8640003 -1.7691708 0.24295601 0
4.8580003 -1.774896 0.24317247 0
4.8530002 -1.7809893 0.24335286 0
4.8480005 -1.7870646 0.24353322 0
4.8420005 -1.7927285 0.24374968 0
4.8370004 -1.7987659 0.24393007 0
4.8310003 -1.8043884 0.24414653 0
4.8260002 -1.8103877 0.2443269 0
4.8200002 -1.8159688 0.24454337 0
4.8150005 -1.8219305 0.24472374 0
4.8100004 -1.8278739 0.24490413 0
4.8040004 -1.8333937 0.24512058 0
4.7990003 -1.8392992 0.24530096 0
4.7940001 -1.8451868 0.24548134 0
4.7880001 -1.8506451 0.24569781 0
4.7830005 -1.856495 0.24587819 0
4.7780004 -1.8623267 0.24605857 0
4.7730002 -1.8681403 0.24623895 0
4.7670002 -1.8735175 0.2464554 0
4.7620001 -1.8792932 0.24663579 0
4.7570004 -1.8850511 0.24681616 0
4.7520003 -1.8907907 0.24699654 0
4.7460003 -1.8960867 0.24721301 0
4.7410002 -1.9017885 0.24739338 0
4.7360005 -1.9074725 0.24757375 0
4.7310004 -1.9131383 0.24775413 0
4.7260003 -1.9187858 0.24793452 0
4.7210002 -1.9244156 0.24811491 0
4.7150002 -1.9295906 0.24833137 0
4.7100005 -1.9351826 0.24851173 0
4.7050004 -1.9407562 0.24869213 0
4.7000003 -1.9463118 0.24887252 0
4.6950002 -1.9518497 0.2490529 0
4.6900005 -1.9573694 0.24923326 0
4.6850004 -1.962871 0.24941365 0
4.6800003 -1.9683546 0.24959403 0
4.6750002 -1.97382 0.24977441 0
4.6700001 -1.9792675 0.24995479 0
4.6650004 -1.984697 0.25013518 0
4.6600003 -1.9901084 0.25031555 0
4.6550002 -1.9955018 0.25049591 0
4.6500001 -2.0008771 0.25067633 0
4.6450005 -2.0062344 0.2508567 0
4.6400003 -2.0115738 0.25103706 0
4.6350002 -2.0168948 0.25121745 0
4.6300001 -2.022198 0.25139785 0
4.6250005 -2.0274835 0.25157821 0
4.6200004 -2.0327504 0.25175858 0
4.6150002 -2.0379996 0.251939 0
4.6100001 -2.0432303 0.25211936 0
4.6060004 -2.0489197 0.25226367 0
4.6010003 -2.0541165 0.25244403 0
4.5960002 -2.0592952 0.25262445 0
4.5910001 -2.0644557 0.25280482 0
4.5860004 -2.0695989 0.25298518 0
4.5810003 -2.0747232 0.25316557 0
4.5770001 -2.0803168 0.25330988 0
4.5720005 -2.0854073 0.25349024 0
4.5670004 -2.0904796 0.25367063 0
4.5620003 -2.0955338 0.253851 0
4.5570002 -2.10057 0.25403142 0
4.5530005 -2.1060843 0.25417569 0
4.5480003 -2.1110861 0.25435609 0
4.5430002 -2.1160703 0.25453645 0
4.5390005 -2.1215377 0.25468075 0
4.5340004 -2.1264873 0.25486115 0
4.5290003 -2.1314187 0.25504154 0
4.5240002 -2.1363323 0.2552219 0
4.5200005 -2.1417365 0.25536621 0
4.5150003 -2.1466157 0.2555466 0
4.5100002 -2.1514771 0.25572699 0
4.5060005 -2.1568346 0.25587127 0
4.5010004 -2.1616616 0.25605166 0
4.4970002 -2.1669879 0.25619596 0
4.4920001 -2.1717806 0.25637636 0
4.4870005 -2.1765554 0.25655672 0
4.4830003 -2.1818352 0.25670105 0
4.4780002 -2.1865754 0.25688142 0
4.4740005 -2.1918249 0.25702572 0
4.4690003 -2.1965308 0.25720608 0
4.4640002 -2.2012188 0.25738651 0
4.4600005 -2.2064211 0.25753075 0
4.4550004 -2.2110748 0.25771117 0
4.4510002 -2.2162466 0.25785547 0
4.4460001 -2.220866 0.25803587 0
4.4420004 -2.226007 0.25818014 0
4.4370003 -2.2305923 0.25836053 0
4.4330001 -2.2357023 0.25850484 0
4.4280005 -2.2402534 0.25868523 0
4.4240003 -2.245333 0.25882953 0
4.4190001 -2.2498496 0.2590099 0
4.4150004 -2.2548985 0.2591542 0
4.4110003 -2.259933 0.2592985 0
4.4060001 -2.2643991 0.2594789 0
4.4020004 -2.269403 0.2596232 0
4.3970003 -2.2738349 0.25980359 0
4.3930001 -2.2788079 0.2599479 0
4.3889999 -2.2837665 0.2600922 0
4.3840003 -2.2881482 0.26027256 0
4.3800001 -2.2930763 0.26041687 0
4.3759999 -2.2979896 0.26056117 0
4.3710003 -2.3023207 0.26074156 0
4.3670001 -2.3072035 0.26088586 0
4.3630004 -2.312072 0.26103017 0
4.3580003 -2.3163524 0.26121056 0
5.0770001 -1.5392447 0.22683538 0
5.0710001 -1.5457547 0.22706266 0
5.0650005 -1.5522431 0.22728993 0
5.0590005 -1.5587097 0.22751722 0
5.0530005 -1.5651547 0.2277445 0
5.0470004 -1.571578 0.22797178 0
5.0410004 -1.5779798 0.22819905 0
5.0350003 -1.5843598 0.22842634 0
5.0290003 -1.5907183 0.22865361 0
5.0230002 -1.5970551 0.22888091 0
5.0170002 -1.6033701 0.22910818 0
5.0110002 -1.6096636 0.22933547 0
5.0050001 -1.6159354 0.22956274 0
5.0000005 -1.6225284 0.22975214 0
4.9940004 -1.6287588 0.22997941 0
4.9880004 -1.6349674 0.2302067 0
4.9820004 -1.6411545 0.23043397 0
4.9760003 -1.6473199 0.23066126 0
4.9710002 -1.6538154 0.23085065 0
4.9650002 -1.6599393 0.23107795 0
4.9590001 -1.6660416 0.23130523 0
4.9530005 -1.6721224 0.2315325 0
4.9480004 -1.6785402 0.23172189 0
4.9420004 -1.6845795 0.23194918 0
4.9360003 -1.6905968 0.23217645 0
4.9310002 -1.6969571 0.23236586 0
4.9250002 -1.7029331 0.23259315 0
4.9190001 -1.7088875 0.23282042 0
4.9140005 -1.7151901 0.23300982 0
4.9080005 -1.721103 0.23323709 0
4.9030004 -1.7273675 0.2334265 0
4.8970003 -1.7332389 0.23365378 0
4.8920002 -1.7394656 0.23384318 0
4.8860002 -1.7452955 0.23407046 0
4.8800001 -1.7511039 0.23429774 0
4.8750005 -1.757273 0.23448713 0
4.8690004 -1.7630397 0.23471442 0
4.8640003 -1.7691708 0.23490381 0
4.8580003 -1.774896 0.2351311 0
4.8530002 -1.7809893 0.23532051 0
4.8480005 -1.7870646 0.23550989 0
4.8420005 -1.7927285 0.23573717 0
4.8370004 -1.7987659 0.23592658 0
4.8310003 -1.8043884 0.23615386 0
4.8260002 -1.8103877 0.23634326 0
4.8200002 -1.8159688 0.23657054 0
4.8150005 -1.8219305 0.23675992 0
4.8100004 -1.8278739 0.23694932 0
4.8040004 -1.8333937 0.23717661 0
4.7990003 -1.8392992 0.23736601 0
4.7940001 -1.8451868 0.23755541 0
4.7880001 -1.8506451 0.2377827 0
4.7830005 -1.856495 0.2379721 0
4.7780004 -1.8623267 0.23816149 0
4.7730002 -1.8681403 0.2383509 0
4.7670002 -1.8735175 0.23857819 0
4.7620001 -1.8792932 0.23876758 0
4.7570004 -1.8850511 0.23895696 0
4.7520003 -1.8907907 0.23914637 0
4.7460003 -1.8960867 0.23937365 0
4.7410002 -1.9017885 0.23956305 0
4.7360005 -1.9074725 0.23975244 0
4.7310004 -1.9131383 0.23994185 0
4.7260003 -1.9187858 0.24013124 0
4.7210002 -1.9244156 0.24032065 0
4.7150002 -1.9295906 0.24054794 0
4.7100005 -1.9351826 0.24073732 0
4.7050004 -1.9407562 0.24092673 0
4.7000003 -1.9463118 0.24111614 0
4.6950002 -1.9518497 0.24130554 0
4.6900005 -1.9573694 0.24149492 0
4.6850004 -1.962871 0.24168432 0
4.6800003 -1.9683546 0.24187373 0
4.6750002 -1.97382 0.24206313 0
4.6700001 -1.9792675 0.24225254 0
4.6650004 -1.984697 0.24244192 0
4.6600003 -1.9901084 0.24263133 0
4.6550002 -1.9955018 0.24282072 0
4.6500001 -2.0008771 0.24301013 0
4.6450005 -2.0062344 0.24319953 0
4.6400003 -2.0115738 0.24338892 0
4.6350002 -2.0168948 0.24357833 0
4.6300001 -2.022198 0.24376774 0
4.6250005 -2.0274835 0.24395713 0
4.6200004 -2.0327504 0.24414653 0
4.6150002 -2.0379996 0.24433593 0
4.6100001 -2.0432303 0.24452533 0
4.6060004 -2.0489197 0.24467684 0
4.6010003 -2.0541165 0.24486624 0
4.5960002 -2.0592952 0.24505565 0
4.5910001 -2.0644557 0.24524505 0
4.5860004 -2.0695989 0.24543445 0
4.5810003 -2.0747232 0.24562386 0
4.5770001 -2.0803168 0.24577537 0
4.5720005 -2.0854073 0.24596477 0
4.5670004 -2.0904796 0.24615417 0
4.5620003 -2.0955338 0.24634357 0
4.5570002 -2.10057 0.24653296 0
4.5530005 -2.1060843 0.24668449 0
4.5480003 -2.1110861 0.24687389 0
4.5430002 -2.1160703 0.24706328 0
4.5390005 -2.1215377 0.24721481 0
4.5340004 -2.1264873 0.2474042 0
4.5290003 -2.1314187 0.2475936 0
4.5240002 -2.1363323 0.24778301 0
4.5200005 -2.1417365 0.24793452 0
4.5150003 -2.1466157 0.24812391 0
4.5100002 -2.1514771 0.24831332 0
4.5060005 -2.1568346 0.24846484 0
4.5010004 -2.1616616 0.24865423 0
4.4970002 -2.1669879 0.24880576 0
4.4920001 -2.1717806 0.24899517 0
4.4870005 -2.1765554 0.24918455 0
4.4830003 -2.1818352 0.24933608 0
4.4780002 -2.1865754 0.24952549 0
4.4740005 -2.1918249 0.249677 0
4.4690003 -2.1965308 0.2498664 0
4.4640002 -2.2012188 0.25005579 0
4.4600005 -2.2064211 0.2502073 0
4.4550004 -2.2110748 0.25039673 0
4.4510002 -2.2162466 0.25054824 0
4.4460001 -2.220866 0.25073767 0
4.4420004 -2.226007 0.25088918 0
4.4370003 -2.2305923 0.25107858 0
4.4330001 -2.2357023 0.25123009 0
4.4280005 -2.2402534 0.25141948 0
4.4240003 -2.245333 0.251571 0
4.4190001 -2.2498496 0.25176042 0
4.4150004 -2.2548985 0.25191191 0
4.4110003 -2.259933 0.25206345 0
4.4060001 -2.2643991 0.25225285 0
4.4020004 -2.269403 0.25240436 0
4.3970003 -2.2738349 0.25259376 0
4.3930001 -2.2788079 0.25274527 0
4.3889999 -2.2837665 0.25289679 0
4.3840003 -2.2881482 0.25308621 0
4.3800001 -2.2930763 0.25323772 0
4.3759999 -2.2979896 0.25338924 0
4.3710003 -2.3023207 0.25357863 0
4.3670001 -2.3072035 0.25373018 0
4.3630004 -2.312072 0.25388169 0
4.3580003 -2.3163524 0.25407109 0
5.0770001 -1.5392447 0.21839899 0
5.0710001 -1.5457547 0.21863708 0
5.0650005 -1.5522431 0.21887515 0
5.0590005 -1.5587097 0.21911328 0
5.0530005 -1.5651547 0.21935138 0
5.0470004 -1.571578 0.21958947 0
5.0410004 -1.5779798 0.21982759 0
5.0350003 -1.5843598 0.2200657 0
5.0290003 -1.5907183 0.22030379 0
5.0230002 -1.5970551 0.22054189 0
5.0170002 -1.6033701 0.22078 0
5.0110002 -1.6096636 0.22101811 0
5.0050001 -1.6159354 0.22125621 0
5.0000005 -1.6225284 0.22145461 0
4.9940004 -1.6287588 0.22169271 0
4.9880004 -1.6349674 0.22193083 0
4.9820004 -1.6411545 0.22216892 0
4.9760003 -1.6473199 0.22240703 0
4.9710002 -1.6538154 0.22260545 0
4.9650002 -1.6599393 0.22284356 0
4.9590001 -1.6660416 0.22308166 0
4.9530005 -1.6721224 0.22331975 0
4.9480004 -1.6785402 0.22351818 0
4.9420004 -1.6845795 0.22375628 0
4.9360003 -1.6905968 0.22399437 0
4.9310002 -1.6969571 0.2241928 0
4.9250002 -1.7029331 0.2244309 0
4.9190001 -1.7088875 0.22466902 0
4.9140005 -1.7151901 0.22486742 0
4.9080005 -1.721103 0.22510552 0
4.9030004 -1.7273675 0.22530393 0
4.8970003 -1.7332389 0.22554205 0
4.8920002 -1.7394656 0.22574046 0
4.8860002 -1.7452955 0.22597858 0
4.8800001 -1.7511039 0.22621669 0
4.8750005 -1.757273 0.22641508 0
4.8690004 -1.7630397 0.22665319 0
4.8640003 -1.7691708 0.22685161 0
4.8580003 -1.774896 0.22708972 0
4.8530002 -1.7809893 0.22728814 0
4.8480005 -1.7870646 0.22748655 0
4.8420005 -1.7927285 0.22772466 0
4.8370004 -1.7987659 0.22792308 0
4.8310003 -1.8043884 0.22816119 0
4.8260002 -1.8103877 0.22835961 0
4.8200002 -1.8159688 0.2285977 0
4.8150005 -1.8219305 0.22879611 0
4.8100004 -1.8278739 0.22899453 0
4.8040004 -1.8333937 0.22923264 0
4.7990003 -1.8392992 0.22943106 0
4.7940001 -1.8451868 0.22962949 0
4.7880001 -1.8506451 0.22986759 0
4.7830005 -1.856495 0.23006599 0
4.7780004 -1.8623267 0.23026441 0
4.7730002 -1.8681403 0.23046285 0
4.7670002 -1.8735175 0.23070094 0
4.7620001 -1.8792932 0.23089938 0
4.7570004 -1.8850511 0.23109779 0
4.7520003 -1.8907907 0.2312962 0
4.7460003 -1.8960867 0.2315343 0
4.7410002 -1.9017885 0.23173273 0
4.7360005 -1.9074725 0.23193112 0
4.7310004 -1.9131383 0.23212956 0
4.7260003 -1.9187858 0.23232798 0
4.7210002 -1.9244156 0.23252639 0
4.7150002 -1.9295906 0.23276451 0
4.7100005 -1.9351826 0.23296291 0
4.7050004 -1.9407562 0.23316133 0
4.7000003 -1.9463118 0.23335975 0
4.6950002 -1.9518497 0.23355818 0
4.6900005 -1.9573694 0.23375657 0
4.6850004 -1.962871 0.23395501 0
4.6800003 -1.9683546 0.23415343 0
4.6750002 -1.97382 0.23435186 0
4.6700001 -1.9792675 0.23455027 0
4.6650004 -1.984697 0.23474868 0
4.6600003 -1.9901084 0.23494712 0
4.6550002 -1.9955018 0.23514554 0
4.6500001 -2.0008771 0.23534395 0
4.6450005 -2.0062344 0.23554236 0
4.6400003 -2.0115738 0.23574078 0
4.6350002 -2.0168948 0.2359392 0
4.6300001 -2.022198 0.23613763 0
4.6250005 -2.0274835 0.23633602 0
4.6200004 -2.0327504 0.23653446 0
4.6150002 -2.0379996 0.23673289 0
4.6100001 -2.0432303 0.23693129 0
4.6060004 -2.0489197 0.23709004 0
4.6010003 -2.0541165 0.23728845 0
4.5960002 -2.0592952 0.23748687 0
4.5910001 -2.0644557 0.23768531 0
4.5860004 -2.0695989 0.2378837 0
4.5810003 -2.0747232 0.23808213 0
4.5770001 -2.0803168 0.23824087 0
4.5720005 -2.0854073 0.23843926 0
4.5670004 -2.0904796 0.2386377 0
4.5620003 -2.0955338 0.23883612 0
4.5570002 -2.10057 0.23903453 0
4.5530005 -2.1060843 0.23919328 0
4.5480003 -2.1110861 0.23939168 0
4.5430002 -2.1160703 0.23959011 0
4.5390005 -2.1215377 0.23974884 0
4.5340004 -2.1264873 0.23994726 0
4.5290003 -2.1314187 0.24014568 0
4.5240002 -2.1363323 0.24034411 0
4.5200005 -2.1417365 0.24050283 0
4.5150003 -2.1466157 0.24070126 0
4.5100002 -2.1514771 0.24089967 0
4.5060005 -2.1568346 0.24105839 0
4.5010004 -2.1616616 0.24125682 0
4.4970002 -2.1669879 0.24141556 0
4.4920001 -2.1717806 0.24161398 0
4.4870005 -2.1765554 0.24181239 0
4.4830003 -2.1818352 0.24197114 0
4.4780002 -2.1865754 0.24216956 0
4.4740005 -2.1918249 0.24232829 0
4.4690003 -2.1965308 0.24252671 0
4.4640002 -2.2012188 0.24272513 0
4.4600005 -2.2064211 0.24288386 0
4.4550004 -2.2110748 0.24308227 0
4.4510002 -2.2162466 0.24324103 0
4.4460001 -2.220866 0.24343944 0
4.4420004 -2.226007 0.24359818 0
4.4370003 -2.2305923 0.24379659 0
4.4330001 -2.2357023 0.24395533 0
4.4280005 -2.2402534 0.24415374 0
4.4240003 -2.245333 0.24431248 0
4.4190001 -2.2498496 0.2445109 0
4.4150004 -2.2548985 0.24466962 0
4.4110003 -2.259933 0.24482837 0
4.4060001 -2.2643991 0.24502678 0
4.4020004 -2.269403 0.24518552 0
4.3970003 -2.2738349 0.24538393 0
4.3930001 -2.2788079 0.24554268 0
4.3889999 -2.2837665 0.24570142 0
4.3840003 -2.2881482 0.24589983 0
4.3800001 -2.2930763 0.24605857 0
4.3759999 -2.2979896 0.24621731 0
4.3710003 -2.3023207 0.24641572 0
4.3670001 -2.3072035 0.24657446 0
4.3630004 -2.312072 0.24673319 0
4.3580003 -2.3163524 0.24693161 0
5.0770001 -1.5392447 0.20996258 0
5.0710001 -1.5457547 0.2102115 0
5.0650005 -1.5522431 0.21046039 0
5.0590005 -1.5587097 0.21070932 0
5.0530005 -1.5651547 0.21095826 0
5.0470004 -1.571578 0.21120718 0
5.0410004 -1.5779798 0.21145612 0
5.0350003 -1.5843598 0.21170504 0
5.0290003 -1.5907183 0.21195397 0
5.0230002 -1.5970551 0.21220289 0
5.0170002 -1.6033701 0.21245182 0
5.0110002 -1.6096636 0.21270074 0
5.0050001 -1.6159354 0.21294968 0
5.0000005 -1.6225284 0.21315709 0
4.9940004 -1.6287588 0.21340603 0
4.9880004 -1.6349674 0.21365495 0
4.9820004 -1.6411545 0.21390387 0
4.9760003 -1.6473199 0.21415281 0
4.9710002 -1.6538154 0.21436025 0
4.9650002 -1.6599393 0.21460918 0
4.9590001 -1.6660416 0.2148581 0
4.9530005 -1.6721224 0.21510701 0
4.9480004 -1.6785402 0.21531446 0
4.9420004 -1.6845795 0.21556339 0
4.9360003 -1.6905968 0.21581231 0
4.9310002 -1.6969571 0.21601975 0
4.9250002 -1.7029331 0.21626867 0
4.9190001 -1.7088875 0.2165176 0
4.9140005 -1.7151901 0.21672504 0
4.9080005 -1.721103 0.21697396 0
4.9030004 -1.7273675 0.2171814 0
4.8970003 -1.7332389 0.21743032 0
4.8920002 -1.7394656 0.21763776 0
4.8860002 -1.7452955 0.2178867 0
4.8800001 -1.7511039 0.21813563 0
4.8750005 -1.757273 0.21834303 0
4.8690004 -1.7630397 0.21859197 0
4.8640003 -1.7691708 0.21879941 0
4.8580003 -1.774896 0.21904834 0
4.8530002 -1.7809893 0.21925579 0
4.8480005 -1.7870646 0.21946321 0
4.8420005 -1.7927285 0.21971214 0
4.8370004 -1.7987659 0.21991958 0
4.8310003 -1.8043884 0.22016852 0
4.8260002 -1.8103877 0.22037594 0
4.8200002 -1.8159688 0.22062486 0
4.8150005 -1.8219305 0.22083229 0
4.8100004 -1.8278739 0.22103974 0
4.8040004 -1.8333937 0.22128867 0
4.7990003 -1.8392992 0.22149612 0
4.7940001 -1.8451868 0.22170354 0
4.7880001 -1.8506451 0.22195247 0
4.7830005 -1.856495 0.22215991 0
4.7780004 -1.8623267 0.22236735 0
4.7730002 -1.8681403 0.22257479 0
4.7670002 -1.8735175 0.22282371 0
4.7620001 -1.8792932 0.22303116 0
4.7570004 -1.8850511 0.22323859 0
4.7520003 -1.8907907 0.22344601 0
4.7460003 -1.8960867 0.22369495 0
4.7410002 -1.9017885 0.22390239 0
4.7360005 -1.9074725 0.22410981 0
4.7310004 -1.9131383 0.22431727 0
4.7260003 -1.9187858 0.22452471 0
4.7210002 -1.9244156 0.22473215 0
4.7150002 -1.9295906 0.22498107 0
4.7100005 -1.9351826 0.22518849 0
4.7050004 -1.9407562 0.22539593 0
4.7000003 -1.9463118 0.22560339 0
4.6950002 -1.9518497 0.22581083 0
4.6900005 -1.9573694 0.22601824 0
4.6850004 -1.962871 0.22622569 0
4.6800003 -1.9683546 0.22643314 0
4.6750002 -1.97382 0.22664057 0
4.6700001 -1.9792675 0.22684802 0
4.6650004 -1.984697 0.22705545 0
4.6600003 -1.9901084 0.22726288 0
4.6550002 -1.9955018 0.22747032 0
4.6500001 -2.0008771 0.22767776 0
4.6450005 -2.0062344 0.22788519 0
4.6400003 -2.0115738 0.22809264 0
4.6350002 -2.0168948 0.22830006 0
4.6300001 -2.022198 0.22850752 0
4.6250005 -2.0274835 0.22871494 0
4.6200004 -2.0327504 0.22892238 0
4.6150002 -2.0379996 0.22912982 0
4.6100001 -2.0432303 0.22933728 0
4.6060004 -2.0489197 0.22950321 0
4.6010003 -2.0541165 0.22971065 0
4.5960002 -2.0592952 0.22991809 0
4.5910001 -2.0644557 0.23012555 0
4.5860004 -2.0695989 0.23033296 0
4.5810003 -2.0747232 0.23054041 0
4.5770001 -2.0803168 0.23070636 0
4.5720005 -2.0854073 0.23091379 0
4.5670004 -2.0904796 0.23112123 0
4.5620003 -2.0955338 0.23132867 0
4.5570002 -2.10057 0.23153612 0
4.5530005 -2.1060843 0.23170206 0
4.5480003 -2.1110861 0.23190948 0
4.5430002 -2.1160703 0.23211694 0
4.5390005 -2.1215377 0.23228288 0
4.5340004 -2.1264873 0.23249032 0
4.5290003 -2.1314187 0.23269776 0
4.5240002 -2.1363323 0.23290519 0
4.5200005 -2.1417365 0.23307113 0
4.5150003 -2.1466157 0.23327859 0
4.5100002 -2.1514771 0.23348601 0
4.5060005 -2.1568346 0.23365197 0
4.5010004 -2.1616616 0.2338594 0
4.4970002 -2.1669879 0.23402536 0
4.4920001 -2.1717806 0.23423281 0
4.4870005 -2.1765554 0.23444024 0
4.4830003 -2.1818352 0.23460619 0
4.4780002 -2.1865754 0.23481363 0
4.4740005 -2.1918249 0.23497957 0
4.4690003 -2.1965308 0.23518701 0
4.4640002 -2.2012188 0.23539446 0
4.4600005 -2.2064211 0.23556039 0
4.4550004 -2.2110748 0.23576784 0
4.4510002 -2.2162466 0.2359338 0
4.4460001 -2.220866 0.23614123 0
4.4420004 -2.226007 0.23630717 0
4.4370003 -2.2305923 0.23651461 0
4.4330001 -2.2357023 0.23668057 0
4.4280005 -2.2402534 0.23688801 0
4.4240003 -2.245333 0.23705396 0
4.4200001 -2.2503977 0.23721991 0
4.4150004 -2.2548985 0.23742734 0
4.4110003 -2.259933 0.23759329 0
4.4060001 -2.2643991 0.23780073 0
4.4020004 -2.269403 0.23796669 0
4.3970003 -2.2738349 0.23817411 0
4.3930001 -2.2788079 0.23834006 0
4.3889999 -2.2837665 0.23850602 0
4.3840003 -2.2881482 0.23871346 0
4.3800001 -2.2930763 0.2388794 0
4.3759999 -2.2979896 0.23904537 0
4.3710003 -2.3023207 0.23925279 0
4.3670001 -2.3072035 0.23941875 0
4.3630004 -2.312072 0.23958468 0
4.3580003 -2.3163524 0.23979214 0
5.0770001 -1.5392447 0.20152615 0
5.0710001 -1.5457547 0.20178589 0
5.0650005 -1.5522431 0.20204563 0
5.0590005 -1.5587097 0.20230539 0
5.0530005 -1.5651547 0.20256513 0
5.0470004 -1.571578 0.20282489 0
5.0410004 -1.5779798 0.20308465 0
5.0350003 -1.5843598 0.20334439 0
5.0290003 -1.5907183 0.20360413 0
5.0230002 -1.5970551 0.20386389 0
5.0170002 -1.6033701 0.20412365 0
5.0110002 -1.6096636 0.20438339 0
5.0050001 -1.6159354 0.20464313 0
5.0000005 -1.6225284 0.20485958 0
4.9940004 -1.6287588 0.20511933 0
4.9880004 -1.6349674 0.20537908 0
4.9820004 -1.6411545 0.20563884 0
4.9760003 -1.6473199 0.20589858 0
4.9710002 -1.6538154 0.20611504 0
4.9650002 -1.6599393 0.20637479 0
4.9590001 -1.6660416 0.20663454 0
4.9530005 -1.6721224 0.20689426 0
4.9480004 -1.6785402 0.20711073 0
4.9420004 -1.6845795 0.20737047 0
4.9360003 -1.6905968 0.20763023 0
4.9310002 -1.6969571 0.2078467 0
4.9250002 -1.7029331 0.20810644 0
4.9190001 -1.7088875 0.2083662 0
4.9140005 -1.7151901 0.20858262 0
4.9080005 -1.721103 0.20884238 0
4.9030004 -1.7273675 0.20905885 0
4.8970003 -1.7332389 0.20931859 0
4.8920002 -1.7394656 0.20953506 0
4.8860002 -1.7452955 0.2097948 0
4.8800001 -1.7511039 0.21005456 0
4.8750005 -1.757273 0.210271 0
4.8690004 -1.7630397 0.21053074 0
4.8640003 -1.7691708 0.21074723 0
4.8580003 -1.774896 0.21100697 0
4.8530002 -1.7809893 0.21122342 0
4.8480005 -1.7870646 0.21143986 0
4.8420005 -1.7927285 0.21169962 0
4.8370004 -1.7987659 0.21191607 0
4.8310003 -1.8043884 0.21217582 0
4.8260002 -1.8103877 0.2123923 0
4.8210001 -1.8163691 0.21260875 0
4.8150005 -1.8219305 0.2128685 0
4.8100004 -1.8278739 0.21308494 0
4.8040004 -1.8333937 0.21334469 0
4.7990003 -1.8392992 0.21356116 0
4.7940001 -1.8451868 0.21377762 0
4.7880001 -1.8506451 0.21403737 0
4.7830005 -1.856495 0.21425381 0
4.7780004 -1.8623267 0.21447027 0
4.7730002 -1.8681403 0.21468674 0
4.7670002 -1.8735175 0.21494649 0
4.7620001 -1.8792932 0.21516295 0
4.7570004 -1.8850511 0.21537939 0
4.7520003 -1.8907907 0.21559586 0
4.7460003 -1.8960867 0.21585561 0
4.7410002 -1.9017885 0.21607205 0
4.7360005 -1.9074725 0.21628851 0
4.7310004 -1.9131383 0.21650496 0
4.7260003 -1.9187858 0.21672143 0
4.7210002 -1.9244156 0.21693788 0
4.7150002 -1.9295906 0.21719764 0
4.7100005 -1.9351826 0.21741408 0
4.7050004 -1.9407562 0.21763055 0
4.7000003 -1.9463118 0.217847 0
4.6950002 -1.9518497 0.21806347 0
4.6900005 -1.9573694 0.21827991 0
4.6850004 -1.962871 0.21849637 0
4.6800003 -1.9683546 0.21871284 0
4.6750002 -1.97382 0.21892929 0
4.6700001 -1.9792675 0.21914576 0
4.6650004 -1.984697 0.2193622 0
4.6600003 -1.9901084 0.21957865 0
4.6550002 -1.9955018 0.21979512 0
4.6500001 -2.0008771 0.22001158 0
4.6450005 -2.0062344 0.22022803 0
4.6400003 -2.0115738 0.22044449 0
4.6350002 -2.0168948 0.22066095 0
4.6300001 -2.022198 0.22087741 0
4.6250005 -2.0274835 0.22109385 0
4.6200004 -2.0327504 0.22131032 0
4.6150002 -2.0379996 0.22152677 0
4.6100001 -2.0432303 0.22174324 0
4.6060004 -2.0489197 0.22191639 0
4.6010003 -2.0541165 0.22213285 0
4.5960002 -2.0592952 0.22234932 0
4.5910001 -2.0644557 0.22256577 0
4.5860004 -2.0695989 0.22278222 0
4.5810003 -2.0747232 0.22299868 0
4.5770001 -2.0803168 0.22317186 0
4.5720005 -2.0854073 0.2233883 0
4.5670004 -2.0904796 0.22360475 0
4.5620003 -2.0955338 0.22382122 0
4.5570002 -2.10057 0.22403768 0
4.5530005 -2.1060843 0.22421083 0
4.5480003 -2.1110861 0.2244273 0
4.5430002 -2.1160703 0.22464375 0
4.5390005 -2.1215377 0.2248169 0
4.5340004 -2.1264873 0.22503337 0
4.5290003 -2.1314187 0.22524983 0
4.5240002 -2.1363323 0.2254663 0
4.5200005 -2.1417365 0.22563946 0
4.5150003 -2.1466157 0.2258559 0
4.5100002 -2.1514771 0.22607239 0
4.5060005 -2.1568346 0.22624554 0
4.5010004 -2.1616616 0.22646198 0
4.4970002 -2.1669879 0.22663516 0
4.4920001 -2.1717806 0.22685163 0
4.4870005 -2.1765554 0.22706805 0
4.4830003 -2.1818352 0.22724123 0
4.4780002 -2.1865754 0.2274577 0
4.4740005 -2.1918249 0.22763085 0
4.4690003 -2.1965308 0.22784731 0
4.4640002 -2.2012188 0.22806378 0
4.4600005 -2.2064211 0.22823693 0
4.4550004 -2.2110748 0.2284534 0
4.4510002 -2.2162466 0.22862658 0
4.4460001 -2.220866 0.22884302 0
4.4420004 -2.226007 0.22901617 0
4.4370003 -2.2305923 0.22923265 0
4.4330001 -2.2357023 0.22940582 0
4.4280005 -2.2402534 0.22962224 0
4.4240003 -2.245333 0.22979543 0
4.4200001 -2.2503977 0.22996861 0
4.4150004 -2.2548985 0.23018505 0
4.4110003 -2.259933 0.23035821 0
4.4060001 -2.2643991 0.23057468 0
4.4020004 -2.269403 0.23074785 0
4.3970003 -2.2738349 0.23096429 0
4.3930001 -2.2788079 0.23113745 0
4.3889999 -2.2837665 0.23131064 0
4.3840003 -2.2881482 0.23152709 0
4.3800001 -2.2930763 0.23170026 0
4.3759999 -2.2979896 0.23187342 0
4.3710003 -2.3023207 0.23208988 0
4.3670001 -2.3072035 0.23226303 0
4.3630004 -2.312072 0.2324362 0
4.3580003 -2.3163524 0.23265266 0
5.0770001 -1.5392447 0.19308974 0
5.0710001 -1.5457547 0.19336031 0
5.0650005 -1.5522431 0.19363087 0
5.0590005 -1.5587097 0.19390145 0
5.0530005 -1.5651547 0.19417201 0
5.0470004 -1.571578 0.19444259 0
5.0410004 -1.5779798 0.19471316 0
5.0350003 -1.5843598 0.19498374 0
5.0290003 -1.5907183 0.19525431 0
5.0230002 -1.5970551 0.19552489 0
5.0170002 -1.6033701 0.19579545 0
5.0110002 -1.6096636 0.19606602 0
5.0050001 -1.6159354 0.1963366 0
5.0000005 -1.6225284 0.19656207 0
4.9940004 -1.6287588 0.19683264 0
4.9880004 -1.6349674 0.19710322 0
4.9820004 -1.6411545 0.19737379 0
4.9760003 -1.6473199 0.19764435 0
4.9710002 -1.6538154 0.19786984 0
4.9650002 -1.6599393 0.19814041 0
4.9590001 -1.6660416 0.19841099 0
4.9530005 -1.6721224 0.19868153 0
4.9480004 -1.6785402 0.198907 0
4.9420004 -1.6845795 0.19917758 0
4.9360003 -1.6905968 0.19944815 0
4.9310002 -1.6969571 0.19967364 0
4.9250002 -1.7029331 0.19994421 0
4.9190001 -1.7088875 0.20021479 0
4.9140005 -1.7151901 0.20044024 0
4.9080005 -1.721103 0.20071082 0
4.9030004 -1.7273675 0.2009363 0
4.8970003 -1.7332389 0.20120688 0
4.8920002 -1.7394656 0.20143235 0
4.8860002 -1.7452955 0.20170292 0
4.8800001 -1.7511039 0.2019735 0
4.8750005 -1.757273 0.20219897 0
4.8690004 -1.7630397 0.20246954 0
4.8640003 -1.7691708 0.20269501 0
4.8580003 -1.774896 0.20296559 0
4.8530002 -1.7809893 0.20319106 0
4.8480005 -1.7870646 0.20341653 0
4.8420005 -1.7927285 0.2036871 0
4.8370004 -1.7987659 0.20391259 0
4.8310003 -1.8043884 0.20418315 0
4.8260002 -1.8103877 0.20440865 0
4.8210001 -1.8163691 0.20463412 0
4.8150005 -1.8219305 0.20490468 0
4.8100004 -1.8278739 0.20513014 0
4.8040004 -1.8333937 0.20540072 0
4.7990003 -1.8392992 0.2056262 0
4.7940001 -1.8451868 0.20585169 0
4.7880001 -1.8506451 0.20612226 0
4.7830005 -1.856495 0.20634772 0
4.7780004 -1.8623267 0.2065732 0
4.7730002 -1.8681403 0.20679869 0
4.7670002 -1.8735175 0.20706925 0
4.7620001 -1.8792932 0.20729473 0
4.7570004 -1.8850511 0.20752019 0
4.7520003 -1.8907907 0.20774569 0
4.7460003 -1.8960867 0.20801626 0
4.7410002 -1.9017885 0.20824173 0
4.7360005 -1.9074725 0.2084672 0
4.7310004 -1.9131383 0.20869267 0
4.7260003 -1.9187858 0.20891814 0
4.7210002 -1.9244156 0.20914364 0
4.7150002 -1.9295906 0.20941421 0
4.7100005 -1.9351826 0.20963967 0
4.7050004 -1.9407562 0.20986515 0
4.7000003 -1.9463118 0.21009062 0
4.6950002 -1.9518497 0.21031612 0
4.6900005 -1.9573694 0.21054158 0
4.6850004 -1.962871 0.21076705 0
4.6800003 -1.9683546 0.21099253 0
4.6750002 -1.97382 0.21121801 0
4.6700001 -1.9792675 0.2114435 0
4.6650004 -1.984697 0.21166895 0
4.6600003 -1.9901084 0.21189444 0
4.6550002 -1.9955018 0.21211992 0
4.6500001 -2.0008771 0.21234539 0
4.6450005 -2.0062344 0.21257086 0
4.6400003 -2.0115738 0.21279633 0
4.6350002 -2.0168948 0.21302183 0
4.6300001 -2.022198 0.2132473 0
4.6250005 -2.0274835 0.21347277 0
4.6200004 -2.0327504 0.21369824 0
4.6150002 -2.0379996 0.21392374 0
4.6100001 -2.0432303 0.21414921 0
4.6060004 -2.0489197 0.21432957 0
4.6010003 -2.0541165 0.21455504 0
4.5960002 -2.0592952 0.21478054 0
4.5910001 -2.0644557 0.21500601 0
4.5860004 -2.0695989 0.21523148 0
4.5810003 -2.0747232 0.21545695 0
4.5770001 -2.0803168 0.21563734 0
4.5720005 -2.0854073 0.21586281 0
4.5670004 -2.0904796 0.21608828 0
4.5620003 -2.0955338 0.21631376 0
4.5570002 -2.10057 0.21653925 0
4.5530005 -2.1060843 0.21671961 0
4.5480003 -2.1110861 0.2169451 0
4.5430002 -2.1160703 0.21717058 0
4.5390005 -2.1215377 0.21735094 0
4.5340004 -2.1264873 0.21757643 0
4.5290003 -2.1314187 0.21780191 0
4.5240002 -2.1363323 0.2180274 0
4.5200005 -2.1417365 0.21820776 0
4.5150003 -2.1466157 0.21843323 0
4.5100002 -2.1514771 0.21865873 0
4.5060005 -2.1568346 0.21883909 0
4.5010004 -2.1616616 0.21906456 0
4.4970002 -2.1669879 0.21924496 0
4.4920001 -2.1717806 0.21947044 0
4.4870005 -2.1765554 0.2196959 0
4.4830003 -2.1818352 0.21987629 0
4.4780002 -2.1865754 0.22010176 0
4.4740005 -2.1918249 0.22028214 0
4.4690003 -2.1965308 0.22050762 0
4.4640002 -2.2012188 0.22073309 0
4.4600005 -2.2064211 0.22091347 0
4.4550004 -2.2110748 0.22113895 0
4.4510002 -2.2162466 0.22131935 0
4.4460001 -2.220866 0.22154482 0
4.4420004 -2.226007 0.22172518 0
4.4370003 -2.2305923 0.22195067 0
4.4330001 -2.2357023 0.22213106 0
4.4280005 -2.2402534 0.22235651 0
4.4240003 -2.245333 0.22253691 0
4.4200001 -2.2503977 0.2227173 0
4.4150004 -2.2548985 0.22294275 0
4.4110003 -2.259933 0.22312315 0
4.4060001 -2.2643991 0.22334863 0
4.4020004 -2.269403 0.223529 0
4.3970003 -2.2738349 0.22375448 0
4.3930001 -2.2788079 0.22393486 0
4.3889999 -2.2837665 0.22411525 0
4.3840003 -2.2881482 0.22434071 0
4.3800001 -2.2930763 0.22452109 0
4.3759999 -2.2979896 0.22470148 0
4.3710003 -2.3023207 0.22492696 0
4.3670001 -2.3072035 0.22510734 0
4.3630004 -2.312072 0.22528772 0
4.3580003 -2.3163524 0.22551319 0
5.0770001 -1.5392447 0.18465333 0
5.0710001 -1.5457547 0.18493474 0
5.0650005 -1.5522431 0.18521611 0
5.0590005 -1.5587097 0.18549749 0
5.0530005 -1.5651547 0.18577889 0
5.0470004 -1.571578 0.18606029 0
5.0410004 -1.5779798 0.18634169 0
5.0350003 -1.5843598 0.18662308 0
5.0290003 -1.5907183 0.18690448 0
5.0230002 -1.5970551 0.18718587 0
5.0170002 -1.6033701 0.18746728 0
5.0110002 -1.6096636 0.18774867 0
5.0050001 -1.6159354 0.18803006 0
5.0000005 -1.6225284 0.18826455 0
4.9940004 -1.6287588 0.18854594 0
4.9880004 -1.6349674 0.18882734 0
4.9820004 -1.6411545 0.18910873 0
4.9760003 -1.6473199 0.18939012 0
4.9710002 -1.6538154 0.18962462 0
4.9650002 -1.6599393 0.18990602 0
4.9590001 -1.6660416 0.19018742 0
4.9530005 -1.6721224 0.19046879 0
4.9480004 -1.6785402 0.19070329 0
4.9420004 -1.6845795 0.19098468 0
4.9360003 -1.6905968 0.19126609 0
4.9310002 -1.6969571 0.19150059 0
4.9250002 -1.7029331 0.19178198 0
4.9190001 -1.7088875 0.19206338 0
4.9140005 -1.7151901 0.19229785 0
4.9080005 -1.721103 0.19257925 0
4.9030004 -1.7273675 0.19281375 0
4.8970003 -1.7332389 0.19309515 0
4.8920002 -1.7394656 0.19332965 0
