# .PCD v0.7 - Point Cloud Data file format
VERSION 0.7
FIELDS x y z intensity
SIZE 4 4 4 4
TYPE F F F F
COUNT 1 1 1 1
WIDTH 1380
HEIGHT 1
VIEWPOINT 0 0 0 1 0 0 0
POINTS 1380
DATA ascii
3.8380003 -0.69095528 0.67066419 0
3.8450003 -0.69848251 0.67120719 0
3.8520002 -0.70603508 0.67175007 0
3.9820004 -0.73735279 0.68183339 0
3.9770002 -0.74283999 0.6814456 0
3.9730003 -0.74850577 0.6811353 0
3.9700003 -0.75435549 0.6809026 0
3.9680002 -0.76039463 0.68074751 0
3.9660003 -0.76642662 0.68059236 0
3.9650002 -0.77265507 0.68051481 0
3.9660003 -0.77929133 0.68059236 0
3.9670002 -0.78593117 0.6806699 0
3.9690003 -0.79278386 0.68082505 0
3.9720004 -0.79985482 0.68105775 0
3.9780002 -0.80757505 0.68152308 0
4.0550003 -0.83715034 0.68749553 0
4.052 -0.84308845 0.68726289 0
4.0500002 -0.84923583 0.68710768 0
4.0490003 -0.85559785 0.6870302 0
4.0480003 -0.86195624 0.68695259 0
4.0490003 -0.86876208 0.6870302 0
4.0500002 -0.87557143 0.68710768 0
4.052 -0.88261348 0.68726289 0
4.0550003 -0.88989365 0.68749553 0
4.0599999 -0.89765 0.68788338 0
4.0669999 -0.90589345 0.68842626 0
4.1150002 -0.41456312 0.68544817 0
4.1080003 -0.42055717 0.68491793 0
4.1020002 -0.4266288 0.68446332 0
4.0950003 -0.43257415 0.68393302 0
4.0890002 -0.43860066 0.68347847 0
4.0820003 -0.44449732 0.68294811 0
4.0750003 -0.45036873 0.68241781 0
4.0690002 -0.45632669 0.68196326 0
4.0620003 -0.46214938 0.68143296 0
4.0560002 -0.46806225 0.68097836 0
4.0500002 -0.47395349 0.68052381 0
4.0430002 -0.47970402 0.67999351 0
4.0370002 -0.48555017 0.67953891 0
4.0300002 -0.49125203 0.6790086 0
4.0240002 -0.49705306 0.67855406 0
4.0180001 -0.50283247 0.67809951 0
4.0110002 -0.50846213 0.67756915 0
4.0050001 -0.51419646 0.67711461 0
3.9990003 -0.51990914 0.67666006 0
3.9930003 -0.52560014 0.67620552 0
3.9860003 -0.53113419 0.67567515 0
3.9800003 -0.53678012 0.67522061 0
3.9740002 -0.54240435 0.67476606 0
3.9680002 -0.54800707 0.67431152 0
3.9620004 -0.55358803 0.67385697 0
3.9560003 -0.55914736 0.67340237 0
3.9500003 -0.56468505 0.67294782 0
3.9430003 -0.57005322 0.67241752 0
3.9370003 -0.57554579 0.67196292 0
3.9310002 -0.58101672 0.67150837 0
3.9250002 -0.58646601 0.67105383 0
3.9190001 -0.59189367 0.67059922 0
3.9130003 -0.5972997 0.67014468 0
3.9070003 -0.60268408 0.66969013 0
3.9020002 -0.60820735 0.66931134 0
3.8960001 -0.61355025 0.66885674 0
3.8900003 -0.61887151 0.66840225 0
3.8840003 -0.62417108 0.66794765 0
3.8780003 -0.62944901 0.6674931 0
3.8720002 -0.63470531 0.66703856 0
3.8660002 -0.63993996 0.66658401 0
3.8610003 -0.64532608 0.66620517 0
3.8550003 -0.65051925 0.66575062 0
3.8490002 -0.65569079 0.66529608 0
3.8430002 -0.66084063 0.66484153 0
3.8380003 -0.66614926 0.66446269 0
3.8320003 -0.67125767 0.66400814 0
3.8260002 -0.67634439 0.6635536 0
3.8310003 -0.68345326 0.66393238 0
3.8380003 -0.69095528 0.66446269 0
3.8450003 -0.69848251 0.66499305 0
3.8520002 -0.70603508 0.66552335 0
3.9820004 -0.73735279 0.67537212 0
3.9770002 -0.74283999 0.67499334 0
3.9730003 -0.74850577 0.67469031 0
3.9700003 -0.75435549 0.67446303 0
3.9680002 -0.76039463 0.67431152 0
3.9660003 -0.76642662 0.67416 0
3.9650002 -0.77265507 0.67408419 0
3.9660003 -0.77929133 0.67416 0
3.9670002 -0.78593117 0.67423576 0
3.9690003 -0.79278386 0.67438728 0
3.9720004 -0.79985482 0.67461455 0
3.9780002 -0.80757505 0.67506909 0
4.059 -0.83801609 0.68120563 0
4.0560002 -0.84396148 0.68097836 0
4.053 -0.84989601 0.68075109 0
4.052 -0.85626346 0.68067533 0
4.0510001 -0.86262727 0.68059957 0
4.0510001 -0.86921299 0.68059957 0
4.052 -0.87602597 0.68067533 0
4.0540004 -0.88307166 0.6808269 0
4.0560002 -0.8901245 0.68097836 0
4.0610003 -0.89788276 0.68135715 0
4.0680003 -0.90612793 0.68188751 0
4.0900002 -0.91794282 0.68355417 0
4.0830002 -0.92293215 0.68302393 0
4.1150002 -0.41456312 0.67874706 0
4.1080003 -0.42055717 0.67822939 0
4.1020002 -0.4266288 0.67778563 0
4.0950003 -0.43257415 0.67726791 0
4.0890002 -0.43860066 0.67682421 0
4.0820003 -0.44449732 0.67630649 0
4.0750003 -0.45036873 0.67578882 0
4.0690002 -0.45632669 0.67534506 0
4.0620003 -0.46214938 0.6748274 0
4.0560002 -0.46806225 0.67438364 0
4.0500002 -0.47395349 0.67393994 0
4.0430002 -0.47970402 0.67342222 0
4.0370002 -0.48555017 0.67297852 0
4.0300002 -0.49125203 0.67246079 0
4.0240002 -0.49705306 0.67201704 0
4.0180001 -0.50283247 0.67157334 0
4.0110002 -0.50846213 0.67105561 0
4.0050001 -0.51419646 0.67061186 0
3.9990003 -0.51990914 0.67016816 0
3.9930003 -0.52560014 0.6697244 0
3.9860003 -0.53113419 0.66920674 0
3.9800003 -0.53678012 0.66876304 0
3.9740002 -0.54240435 0.66831923 0
3.9680002 -0.54800707 0.66787553 0
3.9620004 -0.55358803 0.66743177 0
3.9560003 -0.55914736 0.66698802 0
3.9500003 -0.56468505 0.66654432 0
3.9430003 -0.57005322 0.66602659 0
3.9370003 -0.57554579 0.6655829 0
3.9310002 -0.58101672 0.66513914 0
3.9250002 -0.58646601 0.66469538 0
3.9190001 -0.59189367 0.66425169 0
3.9130003 -0.5972997 0.66380793 0
3.9070003 -0.60268408 0.66336417 0
3.9020002 -0.60820735 0.66299438 0
3.8960001 -0.61355025 0.66255069 0
3.8900003 -0.61887151 0.66210693 0
3.8840003 -0.62417108 0.66166317 0
3.8780003 -0.62944901 0.66121948 0
3.8720002 -0.63470531 0.66077572 0
3.8660002 -0.63993996 0.66033196 0
3.8610003 -0.64532608 0.65996218 0
3.8550003 -0.65051925 0.65951848 0
3.8490002 -0.65569079 0.65907478 0
3.8430002 -0.66084063 0.65863097 0
3.8380003 -0.66614926 0.65826118 0
3.8320003 -0.67125767 0.65781748 0
3.8260002 -0.67634439 0.65737373 0
3.8310003 -0.68345326 0.65774351 0
3.8380003 -0.69095528 0.65826118 0
3.8450003 -0.69848251 0.65877891 0
3.8520002 -0.70603508 0.65929663 0
3.9820004 -0.73735279 0.66891092 0
3.9770002 -0.74283999 0.66854113 0
3.9730003 -0.74850577 0.66824532 0
3.9700003 -0.75435549 0.66802347 0
3.9680002 -0.76039463 0.66787553 0
3.9660003 -0.76642662 0.66772759 0
3.9650002 -0.77265507 0.66765368 0
3.9660003 -0.77929133 0.66772759 0
3.9670002 -0.78593117 0.66780156 0
3.9690003 -0.79278386 0.66794944 0
3.9720004 -0.79985482 0.66817135 0
3.9780002 -0.80757505 0.6686151 0
4.0630002 -0.83888191 0.67490137 0
4.059 -0.84461623 0.67460549 0
4.0560002 -0.85055619 0.67438364 0
4.0550003 -0.85692906 0.67430973 0
4.0540004 -0.86329836 0.67423576 0
4.053 -0.86966389 0.67416179 0
4.0540004 -0.87648052 0.67423576 0
4.0560002 -0.88352978 0.67438364 0
4.0580001 -0.89058632 0.67453158 0
4.0630002 -0.89834809 0.67490137 0
4.0710001 -0.90683144 0.675493 0
4.085 -0.91676134 0.67652839 0
4.0820003 -0.92269409 0.67630649 0
4.0910001 -0.93149489 0.67697215 0
4.1150002 -0.41456312 0.67204595 0
4.1080003 -0.42055717 0.67154086 0
4.1020002 -0.4266288 0.67110789 0
4.0950003 -0.43257415 0.67060286 0
4.0890002 -0.43860066 0.67016995 0
4.0820003 -0.44449732 0.66966486 0
4.0750003 -0.45036873 0.66915977 0
4.0690002 -0.45632669 0.66872692 0
4.0620003 -0.46214938 0.66822183 0
4.0560002 -0.46806225 0.66778892 0
4.0500002 -0.47395349 0.66735601 0
4.0430002 -0.47970402 0.66685092 0
4.0370002 -0.48555017 0.66641808 0
4.0300002 -0.49125203 0.66591299 0
4.0240002 -0.49705306 0.66548002 0
4.0180001 -0.50283247 0.66504717 0
4.0110002 -0.50846213 0.66454208 0
4.0050001 -0.51419646 0.66410917 0
3.9990003 -0.51990914 0.66367626 0
3.9930003 -0.52560014 0.66324329 0
3.9860003 -0.53113419 0.66273826 0
3.9800003 -0.53678012 0.66230536 0
3.9740002 -0.54240435 0.66187245 0
3.9680002 -0.54800707 0.66143954 0
3.9620004 -0.55358803 0.66100663 0
3.9560003 -0.55914736 0.66057372 0
3.9500003 -0.56468505 0.66014075 0
3.9430003 -0.57005322 0.65963566 0
3.9370003 -0.57554579 0.65920281 0
3.9310002 -0.58101672 0.65876985 0
3.9250002 -0.58646601 0.658337 0
3.9190001 -0.59189367 0.65790403 0
3.9130003 -0.5972997 0.65747118 0
3.9070003 -0.60268408 0.65703821 0
3.9020002 -0.60820735 0.65667748 0
3.8960001 -0.61355025 0.65624452 0
3.8900003 -0.61887151 0.65581167 0
3.8840003 -0.62417108 0.65537876 0
3.8780003 -0.62944901 0.65494585 0
3.8720002 -0.63470531 0.65451288 0
3.8660002 -0.63993996 0.65407997 0
3.8610003 -0.64532608 0.65371919 0
3.8550003 -0.65051925 0.65328634 0
3.8490002 -0.65569079 0.65285337 0
3.8430002 -0.66084063 0.65242046 0
3.8380003 -0.66614926 0.65205973 0
3.8320003 -0.67125767 0.65162683 0
3.8260002 -0.67634439 0.65119392 0
3.8310003 -0.68345326 0.65155464 0
3.8380003 -0.69095528 0.65205973 0
3.8450003 -0.69848251 0.65256476 0
3.8520002 -0.70603508 0.65306985 0
3.9820004 -0.73735279 0.66244966 0
3.9770002 -0.74283999 0.66208887 0
3.9730003 -0.74850577 0.66180027 0
3.9700003 -0.75435549 0.66158378 0
3.9680002 -0.76039463 0.66143954 0
3.9660003 -0.76642662 0.66129524 0
3.9650002 -0.77265507 0.66122305 0
3.9660003 -0.77929133 0.66129524 0
3.9670002 -0.78593117 0.66136742 0
3.9690003 -0.79278386 0.66151166 0
3.9720004 -0.79985482 0.66172814 0
3.9780002 -0.80757505 0.66216099 0
4.0669999 -0.83974773 0.66858262 0
4.0630002 -0.84548932 0.66829395 0
4.0599999 -0.85143644 0.66807753 0
4.0570002 -0.85737276 0.6678611 0
4.0560002 -0.86374563 0.66778892 0
4.0560002 -0.87034041 0.66778892 0
4.0570002 -0.87716234 0.6678611 0
4.0580001 -0.88398802 0.66793323 0
4.0620003 -0.89150989 0.66822183 0
4.0669999 -0.89927882 0.66858262 0
4.0780001 -0.90847284 0.66937625 0
4.0799999 -0.91557986 0.66952056 0
4.0830002 -0.92293215 0.66973704 0
4.0900002 -0.93125498 0.67024207 0
4.099 -0.94008642 0.67089152 0
4.1150002 -0.41456312 0.66534477 0
4.1080003 -0.42055717 0.66485232 0
4.1020002 -0.4266288 0.66443026 0
4.0950003 -0.43257415 0.66393781 0
4.0890002 -0.43860066 0.66351569 0
4.0820003 -0.44449732 0.66302323 0
4.0750003 -0.45036873 0.66253084 0
4.0690002 -0.45632669 0.66210872 0
4.0620003 -0.46214938 0.66161633 0
4.0560002 -0.46806225 0.66119421 0
4.0500002 -0.47395349 0.66077209 0
4.0430002 -0.47970402 0.66027969 0
4.0370002 -0.48555017 0.65985757 0
4.0300002 -0.49125203 0.65936518 0
4.0240002 -0.49705306 0.65894306 0
4.0180001 -0.50283247 0.65852094 0
4.0110002 -0.50846213 0.65802854 0
4.0050001 -0.51419646 0.65760648 0
3.9990003 -0.51990914 0.65718436 0
3.9930003 -0.52560014 0.65676224 0
3.9860003 -0.53113419 0.65626979 0
3.9800003 -0.53678012 0.65584773 0
3.9740002 -0.54240435 0.65542561 0
3.9680002 -0.54800707 0.65500355 0
3.9620004 -0.55358803 0.65458143 0
3.9560003 -0.55914736 0.65415937 0
3.9500003 -0.56468505 0.65373731 0
3.9430003 -0.57005322 0.65324485 0
3.9370003 -0.57554579 0.65282273 0
3.9310002 -0.58101672 0.65240061 0
3.9250002 -0.58646601 0.65197855 0
3.9190001 -0.59189367 0.65155643 0
3.9130003 -0.5972997 0.65113437 0
3.9070003 -0.60268408 0.65071225 0
3.9020002 -0.60820735 0.65036052 0
3.8960001 -0.61355025 0.64993846 0
3.8900003 -0.61887151 0.64951634 0
3.8840003 -0.62417108 0.64909428 0
3.8780003 -0.62944901 0.64867216 0
3.8720002 -0.63470531 0.6482501 0
3.8660002 -0.63993996 0.64782798 0
3.8610003 -0.64532608 0.64747626 0
3.8550003 -0.65051925 0.6470542 0
3.8490002 -0.65569079 0.64663208 0
3.8430002 -0.66084063 0.64620996 0
3.8380003 -0.66614926 0.64585823 0
3.8320003 -0.67125767 0.64543617 0
3.8260002 -0.67634439 0.64501405 0
3.8310003 -0.68345326 0.64536577 0
3.8380003 -0.69095528 0.64585823 0
3.8450003 -0.69848251 0.64635068 0
3.8520002 -0.70603508 0.64684308 0
3.9820004 -0.73735279 0.65598845 0
3.9770002 -0.74283999 0.65563667 0
3.9730003 -0.74850577 0.65535527 0
3.9700003 -0.75435549 0.65514421 0
3.9680002 -0.76039463 0.65500355 0
3.9660003 -0.76642662 0.65486288 0
3.9650002 -0.77265507 0.65479249 0
3.9660003 -0.77929133 0.65486288 0
3.9670002 -0.78593117 0.65493321 0
3.9690003 -0.79278386 0.65507388 0
3.9720004 -0.79985482 0.65528494 0
3.9780002 -0.80757505 0.655707 0
4.0669999 -0.84636229 0.66196799 0
4.0630002 -0.85209662 0.66168666 0
4.0610003 -0.85826027 0.66154599 0
4.0599999 -0.8646403 0.6614756 0
4.0599999 -0.87124223 0.6614756 0
4.0610003 -0.87807155 0.66154599 0
4.0630002 -0.88513339 0.66168666 0
4.0669999 -0.89266425 0.66196799 0
4.073 -0.900675 0.66239011 0
4.0810003 -0.90917635 0.6629529 0
4.079 -0.91534352 0.66281223 0
4.0840001 -0.92317033 0.66316396 0
4.0900002 -0.93125498 0.66358602 0
4.0970001 -0.93960303 0.66407847 0
4.1059999 -0.94846326 0.66471159 0
4.1150002 -0.41456312 0.6586436 0
4.1080003 -0.42055717 0.65816379 0
4.1020002 -0.4266288 0.65775251 0
4.0950003 -0.43257415 0.6572727 0
4.0890002 -0.43860066 0.65686142 0
4.0820003 -0.44449732 0.65638161 0
4.0750003 -0.45036873 0.65590185 0
4.0690002 -0.45632669 0.65549058 0
4.0620003 -0.46214938 0.65501076 0
4.0560002 -0.46806225 0.65459949 0
4.0500002 -0.47395349 0.65418816 0
4.0430002 -0.47970402 0.6537084 0
4.0370002 -0.48555017 0.65329713 0
4.0300002 -0.49125203 0.65281731 0
4.0240002 -0.49705306 0.65240604 0
4.0180001 -0.50283247 0.65199482 0
4.0110002 -0.50846213 0.65151495 0
4.0050001 -0.51419646 0.65110373 0
3.9990003 -0.51990914 0.65069246 0
3.9930003 -0.52560014 0.65028119 0
3.9860003 -0.53113419 0.64980137 0
3.9800003 -0.53678012 0.6493901 0
3.9740002 -0.54240435 0.64897883 0
3.9680002 -0.54800707 0.64856756 0
3.9620004 -0.55358803 0.64815629 0
3.9560003 -0.55914736 0.64774501 0
3.9500003 -0.56468505 0.64733374 0
3.9430003 -0.57005322 0.64685392 0
3.9370003 -0.57554579 0.64644265 0
3.9310002 -0.58101672 0.64603138 0
3.9250002 -0.58646601 0.64562011 0
3.9190001 -0.59189367 0.64520884 0
3.9130003 -0.5972997 0.64479756 0
3.9070003 -0.60268408 0.64438629 0
3.9020002 -0.60820735 0.64404356 0
3.8960001 -0.61355025 0.64363235 0
3.8900003 -0.61887151 0.64322108 0
3.8840003 -0.62417108 0.64280981 0
3.8780003 -0.62944901 0.64239854 0
3.8720002 -0.63470531 0.64198726 0
3.8660002 -0.63993996 0.64157599 0
3.8610003 -0.64532608 0.64123327 0
3.8550003 -0.65051925 0.64082199 0
3.8490002 -0.65569079 0.64041072 0
3.8430002 -0.66084063 0.63999945 0
3.8380003 -0.66614926 0.63965678 0
3.8320003 -0.67125767 0.63924545 0
3.8260002 -0.67634439 0.63883418 0
3.8310003 -0.68345326 0.63917691 0
3.8380003 -0.69095528 0.63965678 0
3.8450003 -0.69848251 0.64013654 0
3.8520002 -0.70603508 0.64061636 0
3.9820004 -0.73735279 0.64952719 0
3.9770002 -0.74283999 0.64918447 0
3.9730003 -0.74850577 0.64891028 0
3.9700003 -0.75435549 0.64870465 0
3.9680002 -0.76039463 0.64856756 0
3.9660003 -0.76642662 0.64843047 0
3.9650002 -0.77265507 0.64836192 0
3.9660003 -0.77929133 0.64843047 0
3.9670002 -0.78593117 0.64849901 0
3.9690003 -0.79278386 0.6486361 0
3.9720004 -0.79985482 0.64884174 0
3.9780002 -0.80757505 0.64925301 0
4.072 -0.84745365 0.65569621 0
4.0680003 -0.85319698 0.65542197 0
4.066 -0.85936964 0.65528488 0
4.0650001 -0.86575872 0.6552164 0
4.0650001 -0.87236965 0.6552164 0
4.066 -0.87920785 0.65528488 0
4.0690002 -0.88650787 0.65549058 0
4.0740004 -0.89428055 0.6558333 0
4.0830002 -0.9030019 0.65645021 0
4.0770001 -0.90823841 0.65603894 0
4.0810003 -0.91581619 0.65631306 0
4.086 -0.92364645 0.65665579 0
4.0910001 -0.93149489 0.65699852 0
4.098 -0.93984467 0.65747833 0
4.105 -0.94821978 0.65795815 0
4.1150002 -0.41456312 0.65194249 0
4.1080003 -0.42055717 0.65147531 0
4.1020002 -0.4266288 0.65107483 0
4.0950003 -0.43257415 0.65060765 0
4.0890002 -0.43860066 0.65020722 0
4.0820003 -0.44449732 0.64974004 0
4.0760002 -0.45047873 0.64933956 0
4.0690002 -0.45632669 0.64887238 0
4.0630002 -0.46226302 0.64847195 0
4.0560002 -0.46806225 0.64800477 0
4.0500002 -0.47395349 0.64760435 0
4.0430002 -0.47970402 0.64713711 0
4.0370002 -0.48555017 0.64673668 0
4.0300002 -0.49125203 0.6462695 0
4.0240002 -0.49705306 0.64586902 0
4.0180001 -0.50283247 0.64546859 0
4.0110002 -0.50846213 0.64500141 0
4.0050001 -0.51419646 0.64460099 0
3.9990003 -0.51990914 0.64420056 0
3.9930003 -0.52560014 0.64380008 0
3.9860003 -0.53113419 0.6433329 0
3.9800003 -0.53678012 0.64293247 0
3.9740002 -0.54240435 0.64253199 0
3.9680002 -0.54800707 0.64213157 0
3.9620004 -0.55358803 0.64173114 0
3.9560003 -0.55914736 0.64133066 0
3.9500003 -0.56468505 0.64093024 0
3.9430003 -0.57005322 0.64046305 0
3.9370003 -0.57554579 0.64006257 0
3.9310002 -0.58101672 0.63966215 0
3.9250002 -0.58646601 0.63926172 0
3.9190001 -0.59189367 0.63886124 0
3.9130003 -0.5972997 0.63846081 0
3.9070003 -0.60268408 0.63806033 0
3.9020002 -0.60820735 0.63772666 0
3.8960001 -0.61355025 0.63732624 0
3.8900003 -0.61887151 0.63692576 0
3.8840003 -0.62417108 0.63652533 0
3.8780003 -0.62944901 0.63612485 0
3.8720002 -0.63470531 0.63572443 0
3.8660002 -0.63993996 0.635324 0
3.8610003 -0.64532608 0.63499027 0
3.8550003 -0.65051925 0.63458985 0
3.8490002 -0.65569079 0.63418937 0
3.8430002 -0.66084063 0.63378894 0
3.8380003 -0.66614926 0.63345528 0
3.8320003 -0.67125767 0.63305479 0
3.8260002 -0.67634439 0.63265431 0
3.8310003 -0.68345326 0.6329881 0
3.8380003 -0.69095528 0.63345528 0
3.8450003 -0.69848251 0.63392246 0
3.8520002 -0.70603508 0.63438964 0
3.9820004 -0.73735279 0.64306593 0
3.9770002 -0.74283999 0.6427322 0
3.9730003 -0.74850577 0.64246523 0
3.9700003 -0.75435549 0.64226508 0
3.9680002 -0.76039463 0.64213157 0
3.9660003 -0.76642662 0.64199805 0
3.9650002 -0.77265507 0.6419313 0
3.9660003 -0.77929133 0.64199805 0
3.9670002 -0.78593117 0.64206481 0
3.9690003 -0.79278386 0.64219832 0
3.9720004 -0.79985482 0.64239854 0
3.9780002 -0.80757505 0.64279896 0
4.0760002 -0.85495746 0.64933956 0
4.073 -0.86092269 0.64913934 0
4.072 -0.86732441 0.64907265 0
4.072 -0.87394798 0.64907265 0
4.0740004 -0.88102615 0.6492061 0
4.079 -0.88879877 0.64953983 0
4.0840001 -0.8965894 0.6498735 0
4.079 -0.90207112 0.64953983 0
4.0810003 -0.90917635 0.64967328 0
4.085 -0.91676134 0.64994025 0
4.0890002 -0.92436081 0.65020722 0
4.0940003 -0.93221462 0.65054095 0
4.099 -0.94008642 0.65087461 0
4.1059999 -0.94846326 0.6513418 0
4.1129999 -0.95686543 0.65180898 0
4.1150002 -0.41456312 0.64524132 0
4.1080003 -0.42055717 0.64478678 0
4.1020002 -0.4266288 0.64439714 0
4.0950003 -0.43257415 0.64394259 0
4.0890002 -0.43860066 0.64355296 0
4.0820003 -0.44449732 0.64309841 0
4.0760002 -0.45047873 0.64270878 0
4.0690002 -0.45632669 0.64225423 0
4.0630002 -0.46226302 0.6418646 0
4.0560002 -0.46806225 0.64140999 0
4.0500002 -0.47395349 0.64102042 0
4.0430002 -0.47970402 0.64056587 0
4.0370002 -0.48555017 0.64017624 0
4.0300002 -0.49125203 0.63972169 0
4.0240002 -0.49705306 0.63933206 0
4.0180001 -0.50283247 0.63894248 0
4.0110002 -0.50846213 0.63848788 0
4.0050001 -0.51419646 0.63809824 0
3.9990003 -0.51990914 0.63770866 0
3.9930003 -0.52560014 0.63731897 0
3.9860003 -0.53113419 0.63686442 0
3.9800003 -0.53678012 0.63647485 0
3.9740002 -0.54240435 0.63608515 0
3.9680002 -0.54800707 0.63569558 0
3.9620004 -0.55358803 0.63530594 0
3.9560003 -0.55914736 0.63491631 0
3.9500003 -0.56468505 0.63452673 0
3.9430003 -0.57005322 0.63407212 0
3.9370003 -0.57554579 0.63368255 0
3.9310002 -0.58101672 0.63329291 0
3.9250002 -0.58646601 0.63290328 0
3.9190001 -0.59189367 0.63251364 0
3.9130003 -0.5972997 0.63212407 0
3.9070003 -0.60268408 0.63173443 0
3.9020002 -0.60820735 0.6314097 0
3.8960001 -0.61355025 0.63102007 0
3.8900003 -0.61887151 0.63063049 0
3.8840003 -0.62417108 0.63024086 0
3.8780003 -0.62944901 0.62985122 0
3.8720002 -0.63470531 0.62946165 0
3.8660002 -0.63993996 0.62907195 0
3.8610003 -0.64532608 0.62874734 0
3.8550003 -0.65051925 0.62835765 0
3.8490002 -0.65569079 0.62796807 0
3.8430002 -0.66084063 0.62757844 0
3.8380003 -0.66614926 0.62725377 0
3.8320003 -0.67125767 0.62686414 0
3.8260002 -0.67634439 0.6264745 0
3.8310003 -0.68345326 0.62679923 0
3.8380003 -0.69095528 0.62725377 0
3.8450003 -0.69848251 0.62770832 0
3.8520002 -0.70603508 0.62816286 0
3.9820004 -0.73735279 0.63660467 0
3.9770002 -0.74283999 0.63628 0
3.9730003 -0.74850577 0.63602024 0
3.9700003 -0.75435549 0.63582546 0
3.9680002 -0.76039463 0.63569558 0
3.9660003 -0.76642662 0.6355657 0
3.9650002 -0.77265507 0.63550073 0
3.9660003 -0.77929133 0.6355657 0
3.9670002 -0.78593117 0.63563061 0
3.9690003 -0.79278386 0.63576055 0
3.9720004 -0.79985482 0.63595533 0
3.9780002 -0.80757505 0.63634491 0
4.0840001 -0.86336321 0.64322829 0
4.0830002 -0.86978477 0.64316332 0
4.085 -0.87687922 0.6432932 0
4.0900002 -0.88466257 0.64361787 0
4.086 -0.89040232 0.64335811 0
4.0820003 -0.89612758 0.64309841 0
4.0830002 -0.9030019 0.64316332 0
4.086 -0.91034883 0.64335811 0
4.0880003 -0.91747028 0.64348805 0
4.092 -0.92507511 0.64374775 0
4.0960002 -0.93269444 0.6440075 0
4.1010003 -0.94056982 0.64433223 0
4.1070004 -0.94870687 0.64472187 0
4.1129999 -0.95686543 0.64511144 0
4.1210003 -0.96553999 0.64563096 0
4.1150002 -0.41456312 0.63854015 0
4.1080003 -0.42055717 0.63809824 0
4.1020002 -0.4266288 0.63771945 0
4.0950003 -0.43257415 0.63727754 0
4.0890002 -0.43860066 0.6368987 0
4.0820003 -0.44449732 0.63645679 0
4.0760002 -0.45047873 0.636078 0
4.0690002 -0.45632669 0.63563603 0
4.0630002 -0.46226302 0.63525724 0
4.0560002 -0.46806225 0.63481534 0
4.0500002 -0.47395349 0.63443649 0
4.0430002 -0.47970402 0.63399458 0
4.0370002 -0.48555017 0.63361579 0
4.0300002 -0.49125203 0.63317382 0
4.0240002 -0.49705306 0.63279504 0
4.0180001 -0.50283247 0.63241625 0
4.0110002 -0.50846213 0.63197434 0
4.0050001 -0.51419646 0.63159549 0
3.9990003 -0.51990914 0.6312167 0
3.9930003 -0.52560014 0.63083792 0
3.9860003 -0.53113419 0.63039601 0
3.9800003 -0.53678012 0.63001716 0
3.9740002 -0.54240435 0.62963837 0
3.9680002 -0.54800707 0.62925959 0
3.9620004 -0.55358803 0.6288808 0
3.9560003 -0.55914736 0.62850201 0
3.9500003 -0.56468505 0.62812316 0
3.9430003 -0.57005322 0.62768126 0
3.9370003 -0.57554579 0.62730247 0
3.9310002 -0.58101672 0.62692368 0
3.9250002 -0.58646601 0.62654483 0
3.9190001 -0.59189367 0.62616605 0
3.9130003 -0.5972997 0.62578726 0
3.9070003 -0.60268408 0.62540847 0
3.9020002 -0.60820735 0.62509274 0
3.8960001 -0.61355025 0.62471402 0
3.8900003 -0.61887151 0.62433517 0
3.8840003 -0.62417108 0.62395638 0
3.8780003 -0.62944901 0.62357759 0
3.8720002 -0.63470531 0.62319881 0
3.8660002 -0.63993996 0.62282002 0
3.8610003 -0.64532608 0.62250435 0
3.8550003 -0.65051925 0.62212551 0
3.8490002 -0.65569079 0.62174672 0
3.8430002 -0.66084063 0.62136793 0
3.8380003 -0.66614926 0.62105227 0
3.8320003 -0.67125767 0.62067342 0
3.8260002 -0.67634439 0.62029469 0
3.8310003 -0.68345326 0.62061036 0
3.8380003 -0.69095528 0.62105227 0
3.8450003 -0.69848251 0.62149417 0
3.8520002 -0.70603508 0.62193614 0
3.9820004 -0.73735279 0.63014346 0
3.9770002 -0.74283999 0.6298278 0
3.9730003 -0.74850577 0.62957525 0
3.9700003 -0.75435549 0.62938583 0
3.9680002 -0.76039463 0.62925959 0
3.9660003 -0.76642662 0.62913334 0
3.9650002 -0.77265507 0.62907016 0
3.9660003 -0.77929133 0.62913334 0
3.9670002 -0.78593117 0.62919647 0
3.9690003 -0.79278386 0.62932271 0
3.9720004 -0.79985482 0.62951213 0
3.9780002 -0.80757505 0.62989092 0
4.099 -0.87336355 0.63753009 0
4.0929999 -0.87868291 0.63715124 0
4.0880003 -0.88420802 0.63683558 0
4.0880003 -0.8908605 0.63683558 0
4.0880003 -0.89751291 0.63683558 0
4.0890002 -0.90439802 0.6368987 0
4.0910001 -0.91152132 0.637025 0
4.0929999 -0.91865176 0.63715124 0
4.0960002 -0.92602754 0.63734066 0
4.1000004 -0.93365407 0.63759321 0
4.1040001 -0.94129497 0.63784575 0
4.1090002 -0.94919384 0.63816136 0
4.1140003 -0.95711076 0.63847703 0
4.1210003 -0.96553999 0.638919 0
4.1290002 -0.97424328 0.63942403 0
4.1150002 -0.41456312 0.63183904 0
4.1080003 -0.42055717 0.6314097 0
4.1020002 -0.4266288 0.63104177 0
4.0950003 -0.43257415 0.63061243 0
4.0890002 -0.43860066 0.63024449 0
4.0820003 -0.44449732 0.62981516 0
4.0760002 -0.45047873 0.62944716 0
4.0690002 -0.45632669 0.62901789 0
4.0630002 -0.46226302 0.62864989 0
4.0560002 -0.46806225 0.62822056 0
4.0500002 -0.47395349 0.62785262 0
4.0430002 -0.47970402 0.62742329 0
4.0370002 -0.48555017 0.62705535 0
4.0300002 -0.49125203 0.62662601 0
4.0240002 -0.49705306 0.62625802 0
4.0180001 -0.50283247 0.62589008 0
4.0110002 -0.50846213 0.62546074 0
4.0050001 -0.51419646 0.6250928 0
3.9990003 -0.51990914 0.62472481 0
3.9930003 -0.52560014 0.62435687 0
3.9860003 -0.53113419 0.62392753 0
3.9800003 -0.53678012 0.62355959 0
3.9740002 -0.54240435 0.6231916 0
3.9680002 -0.54800707 0.6228236 0
3.9620004 -0.55358803 0.6224556 0
3.9560003 -0.55914736 0.62208766 0
3.9500003 -0.56468505 0.62171966 0
3.9430003 -0.57005322 0.62129033 0
3.9370003 -0.57554579 0.62092239 0
3.9310002 -0.58101672 0.62055439 0
3.9250002 -0.58646601 0.62018645 0
3.9190001 -0.59189367 0.61981845 0
3.9130003 -0.5972997 0.61945045 0
3.9070003 -0.60268408 0.61908251 0
3.9020002 -0.60820735 0.61877584 0
3.8960001 -0.61355025 0.61840785 0
3.8900003 -0.61887151 0.61803991 0
3.8840003 -0.62417108 0.61767191 0
3.8780003 -0.62944901 0.61730397 0
3.8720002 -0.63470531 0.61693597 0
3.8660002 -0.63993996 0.61656797 0
3.8610003 -0.64532608 0.61626136 0
3.8550003 -0.65051925 0.61589336 0
3.8490002 -0.65569079 0.61552536 0
3.8430002 -0.66084063 0.61515743 0
3.8380003 -0.66614926 0.61485076 0
3.8320003 -0.67125767 0.61448276 0
3.8260002 -0.67634439 0.61411482 0
3.8310003 -0.68345326 0.61442149 0
3.8380003 -0.69095528 0.61485076 0
3.8450003 -0.69848251 0.61528009 0
3.8520002 -0.70603508 0.61570936 0
3.9820004 -0.73735279 0.6236822 0
3.9770002 -0.74283999 0.62337554 0
3.9730003 -0.74850577 0.62313026 0
3.9700003 -0.75435549 0.62294626 0
3.9680002 -0.76039463 0.6228236 0
3.9660003 -0.76642662 0.62270093 0
3.9650002 -0.77265507 0.6226396 0
3.9660003 -0.77929133 0.62270093 0
3.9670002 -0.78593117 0.62276226 0
3.9690003 -0.79278386 0.62288493 0
3.9720004 -0.79985482 0.62306893 0
3.9770002 -0.8073622 0.62337554 0
4.1020002 -0.87403452 0.63104177 0
4.098 -0.87981039 0.63079643 0
4.0970001 -0.88625354 0.6307351 0
4.0950003 -0.89246404 0.63061243 0
4.0950003 -0.89912915 0.63061243 0
4.0950003 -0.9057942 0.63061243 0
4.0970001 -0.91292834 0.6307351 0
4.098 -0.91983324 0.63079643 0
4.1010003 -0.92721808 0.63098043 0
4.1030002 -0.93437374 0.63110304 0
4.1070004 -0.94202012 0.63134837 0
4.1110001 -0.94968086 0.6315937 0
4.1160002 -0.95760137 0.63190037 0
4.1220002 -0.96578705 0.63226831 0
4.1290002 -0.97424328 0.63269764 0
4.1370001 -0.9829756 0.63318825 0
4.1150002 -0.41456312 0.62513787 0
4.1080003 -0.42055717 0.62472117 0
4.1020002 -0.4266288 0.62436402 0
4.0950003 -0.43257415 0.62394738 0
4.0890002 -0.43860066 0.62359023 0
4.0820003 -0.44449732 0.62317353 0
4.0760002 -0.45047873 0.62281638 0
4.0690002 -0.45632669 0.62239969 0
4.0630002 -0.46226302 0.62204254 0
4.0560002 -0.46806225 0.6216259 0
4.0500002 -0.47395349 0.62126875 0
4.0430002 -0.47970402 0.62085199 0
4.0370002 -0.48555017 0.62049484 0
4.0300002 -0.49125203 0.62007821 0
4.0240002 -0.49705306 0.61972106 0
4.0180001 -0.50283247 0.6193639 0
4.0110002 -0.50846213 0.61894721 0
4.0050001 -0.51419646 0.61859006 0
3.9990003 -0.51990914 0.61823291 0
3.9930003 -0.52560014 0.61787575 0
3.9860003 -0.53113419 0.61745906 0
3.9800003 -0.53678012 0.61710191 0
3.9740002 -0.54240435 0.61674476 0
3.9680002 -0.54800707 0.61638761 0
3.9620004 -0.55358803 0.61603045 0
3.9560003 -0.55914736 0.6156733 0
3.9500003 -0.56468505 0.61531615 0
3.9430003 -0.57005322 0.61489946 0
3.9370003 -0.57554579 0.61454231 0
3.9310002 -0.58101672 0.61418515 0
3.9250002 -0.58646601 0.613828 0
3.9190001 -0.59189367 0.61347085 0
3.9130003 -0.5972997 0.6131137 0
3.9080002 -0.60284281 0.6128161 0
3.9020002 -0.60820735 0.61245894 0
3.8960001 -0.61355025 0.61210179 0
3.8900003 -0.61887151 0.61174464 0
3.8840003 -0.62417108 0.61138749 0
3.8780003 -0.62944901 0.61103028 0
3.8720002 -0.63470531 0.61067313 0
3.8660002 -0.63993996 0.61031598 0
3.8610003 -0.64532608 0.61001837 0
3.8550003 -0.65051925 0.60966122 0
3.8490002 -0.65569079 0.60930407 0
3.8430002 -0.66084063 0.60894692 0
3.8380003 -0.66614926 0.60864925 0
3.8320003 -0.67125767 0.6082921 0
3.8260002 -0.67634439 0.60793495 0
3.8310003 -0.68345326 0.60823262 0
3.8380003 -0.69095528 0.60864925 0
3.8450003 -0.69848251 0.60906595 0
3.8520002 -0.70603508 0.60948265 0
3.9820004 -0.73735279 0.617221 0
3.9770002 -0.74283999 0.61692333 0
3.9730003 -0.74850577 0.61668527 0
3.9700003 -0.75435549 0.6165067 0
3.9680002 -0.76039463 0.61638761 0
3.9660003 -0.76642662 0.61626858 0
3.9650002 -0.77265507 0.61620903 0
3.9660003 -0.77929133 0.61626858 0
3.9670002 -0.78593117 0.61632812 0
3.9690003 -0.79278386 0.61644715 0
3.9720004 -0.79985482 0.61662573 0
3.9770002 -0.8073622 0.61692333 0
4.1090002 -0.88229054 0.62478071 0
4.1059999 -0.88829911 0.62460214 0
4.1040001 -0.89452583 0.62448311 0
4.1020002 -0.90074533 0.62436402 0
4.1020002 -0.90742302 0.62436402 0
4.1030002 -0.91433525 0.62442356 0
4.1040001 -0.92125106 0.62448311 0
4.105 -0.92817044 0.62454259 0
4.1080003 -0.93557328 0.62472117 0
4.1110001 -0.94298691 0.62489974 0
4.1150002 -0.95065492 0.62513787 0
4.119 -0.95833737 0.62537599 0
4.1240001 -0.96628129 0.62567365 0
4.1300001 -0.97449231 0.6260308 0
4.1370001 -0.9829756 0.62644744 0
4.145 -0.99173659 0.62692368 0
4.1150002 -0.41456312 0.61843675 0
4.1080003 -0.42055717 0.61803269 0
4.1020002 -0.4266288 0.61768633 0
4.0950003 -0.43257415 0.61728227 0
4.0890002 -0.43860066 0.61693597 0
4.0820003 -0.44449732 0.61653191 0
4.0760002 -0.45047873 0.61618555 0
4.0690002 -0.45632669 0.61578155 0
4.0630002 -0.46226302 0.61543518 0
4.0560002 -0.46806225 0.61503112 0
4.0500002 -0.47395349 0.61468482 0
4.0430002 -0.47970402 0.61428076 0
4.0370002 -0.48555017 0.6139344 0
4.0300002 -0.49125203 0.6135304 0
4.0240002 -0.49705306 0.61318403 0
4.0180001 -0.50283247 0.61283773 0
4.0110002 -0.50846213 0.61243367 0
4.0050001 -0.51419646 0.61208737 0
3.9990003 -0.51990914 0.61174101 0
3.9930003 -0.52560014 0.61139464 0
3.9860003 -0.53113419 0.61099064 0
3.9800003 -0.53678012 0.61064428 0
3.9740002 -0.54240435 0.61029792 0
3.9680002 -0.54800707 0.60995162 0
3.9620004 -0.55358803 0.60960531 0
3.9560003 -0.55914736 0.60925895 0
3.9500003 -0.56468505 0.60891265 0
3.9440002 -0.5702011 0.60856628 0
3.9370003 -0.57554579 0.60816222 0
3.9310002 -0.58101672 0.60781592 0
3.9250002 -0.58646601 0.60746956 0
3.9190001 -0.59189367 0.60712326 0
3.9130003 -0.5972997 0.60677695 0
3.9080002 -0.60284281 0.60648829 0
3.9020002 -0.60820735 0.60614198 0
3.8960001 -0.61355025 0.60579562 0
3.8900003 -0.61887151 0.60544932 0
3.8840003 -0.62417108 0.60510302 0
3.8780003 -0.62944901 0.60475665 0
3.8720002 -0.63470531 0.60441029 0
3.8660002 -0.63993996 0.60406399 0
3.8610003 -0.64532608 0.60377538 0
3.8550003 -0.65051925 0.60342908 0
3.8490002 -0.65569079 0.60308272 0
3.8430002 -0.66084063 0.60273635 0
3.8380003 -0.66614926 0.60244775 0
3.8320003 -0.67125767 0.60210145 0
3.8260002 -0.67634439 0.60175514 0
3.8310003 -0.68345326 0.60204375 0
3.8380003 -0.69095528 0.60244775 0
3.8450003 -0.69848251 0.60285187 0
3.8520002 -0.70603508 0.60325587 0
3.9820004 -0.73735279 0.61075974 0
3.9770002 -0.74283999 0.61047113 0
3.9730003 -0.74850577 0.61024022 0
3.9700003 -0.75435549 0.61006707 0
3.9680002 -0.76039463 0.60995162 0
3.9660003 -0.76642662 0.60983616 0
3.9650002 -0.77265507 0.60977846 0
3.9660003 -0.77929133 0.60983616 0
3.9670002 -0.78593117 0.60989392 0
3.9690003 -0.79278386 0.61000931 0
3.9720004 -0.79985482 0.61018252 0
3.9770002 -0.8073622 0.61047113 0
4.1170001 -0.89079916 0.61855221 0
4.1129999 -0.89658755 0.6183213 0
4.1110001 -0.90282333 0.61820585 0
4.1100001 -0.90928459 0.61814815 0
4.1100001 -0.91597676 0.61814815 0
4.1100001 -0.92266887 0.61814815 0
4.1110001 -0.92959905 0.61820585 0
4.1129999 -0.93677282 0.6183213 0
4.1150002 -0.94395381 0.61843675 0
4.118 -0.9513855 0.61860991 0
4.1220002 -0.95907331 0.61884081 0
4.1259999 -0.96677554 0.61907166 0
4.132 -0.97499007 0.61941803 0
4.138 -0.9832263 0.61976433 0
4.145 -0.99173659 0.62016839 0
4.1530004 -1.0005265 0.62063015 0
4.1150002 -0.41456312 0.61173558 0
4.1080003 -0.42055717 0.61134416 0
4.1020002 -0.4266288 0.61100864 0
4.0950003 -0.43257415 0.61061722 0
4.0890002 -0.43860066 0.61028171 0
4.0820003 -0.44449732 0.60989028 0
4.0760002 -0.45047873 0.60955477 0
4.0690002 -0.45632669 0.60916334 0
4.0630002 -0.46226302 0.60882783 0
4.0560002 -0.46806225 0.60843641 0
4.0500002 -0.47395349 0.60810089 0
4.0430002 -0.47970402 0.60770953 0
4.0370002 -0.48555017 0.60737395 0
4.0300002 -0.49125203 0.60698259 0
4.0240002 -0.49705306 0.60664701 0
4.0180001 -0.50283247 0.60631156 0
4.0110002 -0.50846213 0.60592008 0
4.0050001 -0.51419646 0.60558462 0
3.9990003 -0.51990914 0.60524911 0
3.9930003 -0.52560014 0.60491359 0
3.9860003 -0.53113419 0.60452217 0
3.9800003 -0.53678012 0.60418665 0
3.9740002 -0.54240435 0.60385114 0
3.9680002 -0.54800707 0.60351562 0
3.9620004 -0.55358803 0.60318017 0
3.9560003 -0.55914736 0.6028446 0
3.9500003 -0.56468505 0.60250914 0
3.9440002 -0.5702011 0.60217357 0
3.9370003 -0.57554579 0.6017822 0
3.9310002 -0.58101672 0.60144669 0
3.9250002 -0.58646601 0.60111117 0
3.9190001 -0.59189367 0.60077566 0
3.9130003 -0.5972997 0.60044014 0
3.9080002 -0.60284281 0.60016054 0
3.9020002 -0.60820735 0.59982502 0
3.8960001 -0.61355025 0.59948951 0
3.8900003 -0.61887151 0.59915406 0
3.8840003 -0.62417108 0.59881854 0
3.8780003 -0.62944901 0.59848303 0
3.8720002 -0.63470531 0.59814751 0
3.8660002 -0.63993996 0.597812 0
3.8610003 -0.64532608 0.59753239 0
3.8550003 -0.65051925 0.59719688 0
3.8490002 -0.65569079 0.59686136 0
3.8430002 -0.66084063 0.59652591 0
3.8380003 -0.66614926 0.5962463 0
3.8320003 -0.67125767 0.59591079 0
3.8260002 -0.67634439 0.59557527 0
3.8310003 -0.68345326 0.59585488 0
3.8380003 -0.69095528 0.5962463 0
3.8450003 -0.69848251 0.59663773 0
3.8510003 -0.70584393 0.59697324 0
3.9820004 -0.73735279 0.60429847 0
3.9770002 -0.74283999 0.60401893 0
3.9730003 -0.74850577 0.60379523 0
3.9700003 -0.75435549 0.60362744 0
3.9680002 -0.76039463 0.60351562 0
3.9660003 -0.76642662 0.60340381 0
3.9650002 -0.77265507 0.6033479 0
3.9660003 -0.77929133 0.60340381 0
3.9670002 -0.78593117 0.60345972 0
3.9690003 -0.79278386 0.60357153 0
3.9720004 -0.79985482 0.60373932 0
3.9770002 -0.8073622 0.60401893 0
4.1240001 -0.89910752 0.61223888 0
4.1200004 -0.90490133 0.61201519 0
4.118 -0.9111461 0.61190331 0
4.1170001 -0.91761816 0.6118474 0
4.1170001 -0.92432296 0.6118474 0
4.1170001 -0.93102771 0.6118474 0
4.119 -0.93821222 0.61195922 0
4.1200004 -0.94516236 0.61201519 0
4.1230001 -0.9526031 0.61218297 0
4.1259999 -0.96005458 0.6123507 0
4.1300001 -0.96776408 0.61257434 0
4.1340003 -0.97548801 0.61279804 0
4.1389999 -0.983477 0.61307764 0
4.145 -0.99173659 0.6134131 0
4.152 -1.0002723 0.61380458 0
4.1610003 -1.0093454 0.61430782 0
4.1719999 -1.0189669 0.61492288 0
4.1150002 -0.41456312 0.60503447 0
4.1080003 -0.42055717 0.60465562 0
4.1020002 -0.4266288 0.60433096 0
4.0950003 -0.43257415 0.60395217 0
4.0890002 -0.43860066 0.60362744 0
4.0820003 -0.44449732 0.60324866 0
4.0760002 -0.45047873 0.60292399 0
4.0690002 -0.45632669 0.6025452 0
4.0630002 -0.46226302 0.60222048 0
4.0560002 -0.46806225 0.60184169 0
4.0500002 -0.47395349 0.60151702 0
4.0430002 -0.47970402 0.60113823 0
4.0370002 -0.48555017 0.60081351 0
4.0300002 -0.49125203 0.60043472 0
4.0240002 -0.49705306 0.60011005 0
4.0180001 -0.50283247 0.59978539 0
4.0110002 -0.50846213 0.59940654 0
4.0050001 -0.51419646 0.59908187 0
3.9990003 -0.51990914 0.59875721 0
3.9930003 -0.52560014 0.59843254 0
3.9860003 -0.53113419 0.59805369 0
3.9800003 -0.53678012 0.59772903 0
3.9740002 -0.54240435 0.59740436 0
3.9680002 -0.54800707 0.59707963 0
3.9620004 -0.55358803 0.59675497 0
3.9560003 -0.55914736 0.5964303 0
3.9500003 -0.56468505 0.59610558 0
3.9440002 -0.5702011 0.59578091 0
3.9370003 -0.57554579 0.59540212 0
3.9310002 -0.58101672 0.5950774 0
3.9250002 -0.58646601 0.59475273 0
3.9190001 -0.59189367 0.59442806 0
3.9130003 -0.5972997 0.59410334 0
3.9080002 -0.60284281 0.59383279 0
3.9020002 -0.60820735 0.59350812 0
3.8960001 -0.61355025 0.5931834 0
3.8900003 -0.61887151 0.59285873 0
3.8840003 -0.62417108 0.59253407 0
3.8780003 -0.62944901 0.59220934 0
3.8720002 -0.63470531 0.59188467 0
3.8660002 -0.63993996 0.59156001 0
3.8610003 -0.64532608 0.5912894 0
3.8550003 -0.65051925 0.59096473 0
3.8490002 -0.65569079 0.59064007 0
3.8430002 -0.66084063 0.59031534 0
3.8380003 -0.66614926 0.5900448 0
3.8320003 -0.67125767 0.58972013 0
3.8260002 -0.67634439 0.5893954 0
3.8310003 -0.68345326 0.58966601 0
3.8380003 -0.69095528 0.5900448 0
3.8450003 -0.69848251 0.59042358 0
3.8510003 -0.70584393 0.59074831 0
3.9820004 -0.73735279 0.59783727 0
3.9770002 -0.74283999 0.59756666 0
3.9730003 -0.74850577 0.59735024 0
3.9700003 -0.75435549 0.59718788 0
3.9680002 -0.76039463 0.59707963 0
3.9660003 -0.76642662 0.59697139 0
3.9650002 -0.77265507 0.59691727 0
3.9660003 -0.77929133 0.59697139 0
3.9670002 -0.78593117 0.59702551 0
3.9690003 -0.79278386 0.59713376 0
3.9720004 -0.79985482 0.59729612 0
3.9770002 -0.8073622 0.59756666 0
4.131 -0.90744108 0.60590029 0
4.1270003 -0.91324031 0.6056838 0
4.125 -0.91949415 0.60557556 0
4.1240001 -0.92597705 0.60552144 0
4.1240001 -0.93269444 0.60552144 0
4.125 -0.93965167 0.60557556 0
4.1259999 -0.94661254 0.60562968 0
4.1280003 -0.95382065 0.60573792 0
4.1300001 -0.96103585 0.60584617 0
4.1340003 -0.9687525 0.60606259 0
4.1370001 -0.97623479 0.60622495 0
4.1420002 -0.98422915 0.6064955 0
4.1470003 -0.99224174 0.6067661 0
4.1530004 -1.0005265 0.60709083 0
4.1600003 -1.0090894 0.60746956 0
4.1690001 -1.0181931 0.60795665 0
4.178 -1.0273294 0.60844362 0
4.1800003 -1.0346673 0.60855186 0
4.1150002 -0.41456312 0.5983333 0
4.1080003 -0.42055717 0.59796715 0
4.1020002 -0.4266288 0.59765327 0
4.0950003 -0.43257415 0.59728706 0
4.0890002 -0.43860066 0.59697324 0
4.0820003 -0.44449732 0.59660709 0
4.0760002 -0.45047873 0.59629321 0
4.0690002 -0.45632669 0.595927 0
4.0630002 -0.46226302 0.59561312 0
4.0560002 -0.46806225 0.59524697 0
4.0500002 -0.47395349 0.59493315 0
4.0430002 -0.47970402 0.59456694 0
4.0370002 -0.48555017 0.59425306 0
4.0300002 -0.49125203 0.59388691 0
4.0240002 -0.49705306 0.59357303 0
4.0180001 -0.50283247 0.59325922 0
4.0110002 -0.50846213 0.592893 0
4.0050001 -0.51419646 0.59257913 0
3.9990003 -0.51990914 0.59226531 0
3.9930003 -0.52560014 0.59195143 0
3.9860003 -0.53113419 0.59158528 0
3.9800003 -0.53678012 0.5912714 0
3.9740002 -0.54240435 0.59095752 0
3.9680002 -0.54800707 0.59064364 0
3.9620004 -0.55358803 0.59032977 0
3.9560003 -0.55914736 0.59001595 0
3.9500003 -0.56468505 0.58970207 0
3.9440002 -0.5702011 0.58938819 0
3.9370003 -0.57554579 0.58902204 0
3.9310002 -0.58101672 0.58870816 0
3.9250002 -0.58646601 0.58839428 0
3.9190001 -0.59189367 0.58808047 0
3.9130003 -0.5972997 0.58776659 0
3.9080002 -0.60284281 0.58750504 0
3.9020002 -0.60820735 0.58719116 0
3.8960001 -0.61355025 0.58687729 0
3.8900003 -0.61887151 0.58656347 0
3.8840003 -0.62417108 0.58624959 0
3.8780003 -0.62944901 0.58593571 0
3.8720002 -0.63470531 0.58562183 0
3.8660002 -0.63993996 0.58530796 0
3.8610003 -0.64532608 0.58504641 0
3.8550003 -0.65051925 0.58473259 0
3.8490002 -0.65569079 0.58441871 0
3.8430002 -0.66084063 0.58410484 0
3.8380003 -0.66614926 0.58384329 0
3.8320003 -0.67125767 0.58352947 0
3.8260002 -0.67634439 0.58321559 0
3.8310003 -0.68345326 0.58347714 0
3.8380003 -0.69095528 0.58384329 0
3.8450003 -0.69848251 0.58420944 0
3.8510003 -0.70584393 0.58452332 0
3.9820004 -0.73735279 0.59137601 0
3.9770002 -0.74283999 0.59111446 0
3.9730003 -0.74850577 0.59090519 0
3.9700003 -0.75435549 0.59074831 0
3.9680002 -0.76039463 0.59064364 0
3.9660003 -0.76642662 0.59053904 0
3.9650002 -0.77265507 0.59048671 0
3.9660003 -0.77929133 0.59053904 0
3.9670002 -0.78593117 0.59059131 0
3.9690003 -0.79278386 0.59069598 0
3.9720004 -0.79985482 0.59085292 0
3.9770002 -0.8073622 0.59111446 0
4.1340003 -0.92160457 0.59932721 0
4.1330004 -0.92810374 0.59927487 0
4.132 -0.93459922 0.59922254 0
4.132 -0.94133103 0.59922254 0
4.132 -0.94806284 0.59922254 0
4.1340003 -0.95528167 0.59932721 0
4.1350002 -0.96226245 0.59937948 0
4.138 -0.96974099 0.59953642 0
4.1410003 -0.97723037 0.59969336 0
4.145 -0.98498136 0.59990263 0
4.1500001 -0.99299937 0.60016418 0
4.1550002 -1.0010352 0.60042572 0
4.1610003 -1.0093454 0.6007396 0
4.1680002 -1.0179352 0.60110575 0
4.1750002 -1.0265502 0.6014719 0
4.1760001 -1.0336211 0.60152423 0
4.1790004 -1.0412223 0.60168117 0
4.184 -1.0493648 0.60194272 0
4.1150002 -0.41456312 0.59163213 0
4.1080003 -0.42055717 0.59127861 0
4.1020002 -0.4266288 0.59097558 0
4.0950003 -0.43257415 0.59062201 0
4.0890002 -0.43860066 0.59031898 0
4.0820003 -0.44449732 0.58996546 0
4.0760002 -0.45047873 0.58966237 0
4.0690002 -0.45632669 0.58930886 0
4.0630002 -0.46226302 0.58900583 0
4.0560002 -0.46806225 0.58865225 0
4.0500002 -0.47395349 0.58834922 0
4.0430002 -0.47970402 0.58799565 0
4.0370002 -0.48555017 0.58769262 0
4.0300002 -0.49125203 0.58733904 0
4.0240002 -0.49705306 0.58703601 0
4.0180001 -0.50283247 0.58673298 0
4.0110002 -0.50846213 0.58637947 0
4.0050001 -0.51419646 0.58607644 0
3.9990003 -0.51990914 0.58577335 0
3.9930003 -0.52560014 0.58547032 0
3.9860003 -0.53113419 0.5851168 0
3.9800003 -0.53678012 0.58481377 0
3.9740002 -0.54240435 0.58451068 0
3.9680002 -0.54800707 0.58420765 0
3.9620004 -0.55358803 0.58390462 0
3.9560003 -0.55914736 0.58360159 0
3.9500003 -0.56468505 0.58329856 0
3.9440002 -0.5702011 0.58299553 0
3.9370003 -0.57554579 0.58264196 0
3.9310002 -0.58101672 0.58233893 0
3.9250002 -0.58646601 0.5820359 0
3.9190001 -0.59189367 0.58173287 0
3.9130003 -0.5972997 0.58142984 0
3.9080002 -0.60284281 0.58117729 0
3.9020002 -0.60820735 0.5808742 0
3.8960001 -0.61355025 0.58057117 0
3.8900003 -0.61887151 0.58026814 0
3.8840003 -0.62417108 0.57996511 0
3.8780003 -0.62944901 0.57966208 0
3.8720002 -0.63470531 0.57935905 0
3.8660002 -0.63993996 0.57905602 0
3.8610003 -0.64532608 0.57880348 0
3.8550003 -0.65051925 0.57850039 0
3.8490002 -0.65569079 0.57819736 0
3.8430002 -0.66084063 0.57789433 0
3.8380003 -0.66614926 0.57764184 0
3.8320003 -0.67125767 0.57733876 0
3.8260002 -0.67634439 0.57703573 0
3.8310003 -0.68345326 0.57728827 0
3.8380003 -0.69095528 0.57764184 0
3.8450003 -0.69848251 0.57799536 0
3.8510003 -0.70584393 0.57829839 0
3.9820004 -0.73735279 0.58491474 0
3.9770002 -0.74283999 0.5846622 0
3.9730003 -0.74850577 0.5844602 0
3.9700003 -0.75435549 0.58430868 0
3.9680002 -0.76039463 0.58420765 0
3.9660003 -0.76642662 0.58410668 0
3.9650002 -0.77265507 0.58405614 0
3.9660003 -0.77929133 0.58410668 0
3.9670002 -0.78593117 0.58415717 0
3.9690003 -0.79278386 0.5842582 0
3.9720004 -0.79985482 0.58440971 0
3.9770002 -0.8073622 0.5846622 0
4.1420002 -0.93023044 0.59299582 0
4.1400003 -0.93650407 0.59289479 0
4.1389999 -0.94301039 0.59284431 0
4.1389999 -0.94975477 0.59284431 0
4.1400003 -0.95674276 0.59289479 0
4.1410003 -0.96373433 0.59294534 0
4.1430001 -0.97097659 0.59304631 0
4.1460004 -0.97847515 0.59319782 0
4.1490002 -0.98598433 0.59334934 0
4.1530004 -0.99375695 0.5935514 0
4.1570001 -1.0015439 0.59375346 0
4.1630001 -1.0098577 0.59405649 0
4.1690001 -1.0181931 0.59435952 0
4.1719999 -1.0257709 0.59451103 0
4.1740003 -1.033098 0.594612 0
4.1760001 -1.0404322 0.59471303 0
4.1800003 -1.0483041 0.59491509 0
4.1150002 -0.41456312 0.58493102 0
4.1080003 -0.42055717 0.58459008 0
4.1020002 -0.4266288 0.58429784 0
4.0950003 -0.43257415 0.58395696 0
4.0890002 -0.43860066 0.58366472 0
4.0820003 -0.44449732 0.58332384 0
4.0760002 -0.45047873 0.58303159 0
4.0690002 -0.45632669 0.58269066 0
4.0630002 -0.46226302 0.58239841 0
4.0560002 -0.46806225 0.58205754 0
4.0500002 -0.47395349 0.58176529 0
4.0430002 -0.47970402 0.58142436 0
4.0370002 -0.48555017 0.58113217 0
4.0300002 -0.49125203 0.58079123 0
4.0240002 -0.49705306 0.58049905 0
4.0180001 -0.50283247 0.58020681 0
4.0110002 -0.50846213 0.57986593 0
4.0050001 -0.51419646 0.57957369 0
3.9990003 -0.51990914 0.57928145 0
3.9930003 -0.52560014 0.57898927 0
3.9860003 -0.53113419 0.57864833 0
3.9800003 -0.53678012 0.57835615 0
3.9740002 -0.54240435 0.57806391 0
3.9680002 -0.54800707 0.57777166 0
3.9620004 -0.55358803 0.57747948 0
3.9560003 -0.55914736 0.57718724 0
3.9500003 -0.56468505 0.57689506 0
3.9440002 -0.5702011 0.57660282 0
3.9370003 -0.57554579 0.57626188 0
3.9310002 -0.58101672 0.5759697 0
3.9250002 -0.58646601 0.57567745 0
3.9190001 -0.59189367 0.57538521 0
3.9130003 -0.5972997 0.57509303 0
3.9080002 -0.60284281 0.57484949 0
3.9020002 -0.60820735 0.5745573 0
3.8960001 -0.61355025 0.57426506 0
3.8900003 -0.61887151 0.57397288 0
3.8840003 -0.62417108 0.57368064 0
3.8780003 -0.62944901 0.57338846 0
3.8720002 -0.63470531 0.57309622 0
3.8660002 -0.63993996 0.57280397 0
3.8610003 -0.64532608 0.57256049 0
3.8550003 -0.65051925 0.57226825 0
3.8490002 -0.65569079 0.57197607 0
3.8430002 -0.66084063 0.57168382 0
3.8380003 -0.66614926 0.57144034 0
3.8320003 -0.67125767 0.5711481 0
3.8260002 -0.67634439 0.57085586 0
3.8310003 -0.68345326 0.5710994 0
3.8380003 -0.69095528 0.57144034 0
3.8450003 -0.69848251 0.57178128 0
3.8510003 -0.70584393 0.57207346 0
3.9820004 -0.73735279 0.57845354 0
3.9770002 -0.74283999 0.57821 0
3.9730003 -0.74850577 0.57801521 0
3.9700003 -0.75435549 0.57786906 0
3.9680002 -0.76039463 0.57777166 0
3.9660003 -0.76642662 0.57767427 0
3.9650002 -0.77265507 0.57762557 0
3.9660003 -0.77929133 0.57767427 0
3.9670002 -0.78593117 0.57772297 0
3.9690003 -0.79278386 0.57782042 0
3.9720004 -0.79985482 0.57796651 0
3.9770002 -0.8073622 0.57821 0
4.1490002 -0.93864697 0.58658689 0
4.1470003 -0.94492966 0.5864895 0
4.1470003 -0.95168853 0.5864895 0
4.1460004 -0.95820391 0.5864408 0
4.1470003 -0.96520627 0.5864895 0
4.1490002 -0.97245938 0.58658689 0
4.151 -0.97971964 0.58668429 0
4.1530004 -0.98698729 0.58678174 0
4.1570001 -0.99476707 0.58697653 0
4.1600003 -1.0023069 0.58712262 0
4.165 -1.0103699 0.58736616 0
4.1700001 -1.0184511 0.58760965 0
4.1700001 -1.0252514 0.58760965 0
4.1719999 -1.0325748 0.58770704 0
4.1740003 -1.0399055 0.58780444 0
4.178 -1.0477737 0.58799928 0
4.184 -1.0561904 0.58829153 0
4.1150002 -0.41456312 0.57822984 0
4.1080003 -0.42055717 0.57790154 0
4.1020002 -0.4266288 0.57762015 0
4.0950003 -0.43257415 0.57729185 0
4.0890002 -0.43860066 0.57701045 0
4.0820003 -0.44449732 0.57668221 0
4.0760002 -0.45047873 0.57640076 0
4.0690002 -0.45632669 0.57607251 0
4.0630002 -0.46226302 0.57579112 0
4.0560002 -0.46806225 0.57546282 0
4.0500002 -0.47395349 0.57518142 0
4.0430002 -0.47970402 0.57485312 0
4.0370002 -0.48555017 0.57457173 0
4.0300002 -0.49125203 0.57424343 0
4.0240002 -0.49705306 0.57396203 0
4.0180001 -0.50283247 0.57368064 0
4.0110002 -0.50846213 0.57335234 0
4.0050001 -0.51419646 0.57307094 0
3.9990003 -0.51990914 0.57278955 0
3.9930003 -0.52560014 0.57250816 0
3.9860003 -0.53113419 0.57217991 0
3.9800003 -0.53678012 0.57189846 0
3.9740002 -0.54240435 0.57161707 0
3.9680002 -0.54800707 0.57133567 0
3.9620004 -0.55358803 0.57105434 0
3.9560003 -0.55914736 0.57077289 0
3.9500003 -0.56468505 0.57049149 0
3.9440002 -0.5702011 0.5702101 0
3.9370003 -0.57554579 0.5698818 0
3.9310002 -0.58101672 0.5696004 0
3.9250002 -0.58646601 0.56931901 0
3.9190001 -0.59189367 0.56903768 0
3.9130003 -0.5972997 0.56875622 0
3.9080002 -0.60284281 0.56852174 0
3.9020002 -0.60820735 0.56824034 0
3.8960001 -0.61355025 0.56795895 0
3.8900003 -0.61887151 0.56767756 0
3.8840003 -0.62417108 0.56739616 0
3.8780003 -0.62944901 0.56711477 0
3.8720002 -0.63470531 0.56683338 0
3.8660002 -0.63993996 0.56655198 0
3.8610003 -0.64532608 0.5663175 0
3.8550003 -0.65051925 0.56603611 0
3.8490002 -0.65569079 0.56575471 0
3.8430002 -0.66084063 0.56547332 0
3.8380003 -0.66614926 0.56523883 0
3.8320003 -0.67125767 0.56495744 0
3.8260002 -0.67634439 0.56467605 0
3.8310003 -0.68345326 0.56491053 0
3.8380003 -0.69095528 0.56523883 0
3.8450003 -0.69848251 0.56556714 0
3.8510003 -0.70584393 0.56584853 0
3.9820004 -0.73735279 0.57199228 0
3.9770002 -0.74283999 0.57175779 0
3.9730003 -0.74850577 0.57157016 0
3.9700003 -0.75435549 0.57142949 0
3.9680002 -0.76039463 0.57133567 0
3.9660003 -0.76642662 0.57124192 0
3.9650002 -0.77265507 0.57119501 0
3.9660003 -0.77929133 0.57124192 0
3.9670002 -0.78593117 0.57128882 0
3.9690003 -0.79278386 0.57138258 0
3.9720004 -0.79985482 0.57152331 0
3.9770002 -0.8073622 0.57175779 0
4.1570001 -0.94732875 0.5801996 0
4.1550002 -0.95362216 0.58010578 0
4.1540003 -0.96015203 0.58005893 0
4.1540003 -0.96692348 0.58005893 0
4.1550002 -0.97394204 0.58010578 0
4.1560001 -0.98096436 0.58015275 0
4.158 -0.98824084 0.58024651 0
4.1610003 -0.99577719 0.58038723 0
4.164 -1.0033243 0.5805279 0
4.1680002 -1.0111384 0.58071548 0
4.1690001 -1.0181931 0.58076239 0
4.1700001 -1.0252514 0.5808093 0
4.171 -1.0323133 0.5808562 0
4.1730003 -1.0396422 0.58095002 0
