# .PCD v0.7 - Point Cloud Data file format
VERSION 0.7
FIELDS x y z intensity
SIZE 4 4 4 4
TYPE F F F F
COUNT 1 1 1 1
WIDTH 1465
HEIGHT 1
VIEWPOINT 0 0 0 1 0 0 0
POINTS 1465
DATA ascii
3.7620003 1.021335 0.3858068 0
3.7710001 1.0181115 0.3857581 0
4.3010001 1.1431949 0.38289005 0
4.3000002 1.1358551 0.38289547 0
4.3000002 1.1288202 0.38289547 0
4.3010001 1.1220849 0.38289005 0
4.303 1.1156434 0.38287923 0
4.3060002 1.1094908 0.38286299 0
4.3099999 1.1036211 0.38284135 0
4.3140001 1.0977371 0.38281971 0
4.0540004 0.94925839 0.38422668 0
4.0540004 0.94266731 0.38422668 0
4.0550003 0.93634492 0.38422126 0
4.0580001 0.9305529 0.38420501 0
4.0610003 0.92475009 0.3841888 0
4.0669999 0.91972643 0.38415632 0
4.0760002 0.91546583 0.38410762 0
4.21 0.92302382 0.3833825 0
4.2080002 0.9156462 0.38339332 0
4.2060003 0.90827596 0.38340414 0
4.2049999 0.90116167 0.38340956 0
4.2060003 0.89454538 0.38340414 0
4.2070003 0.88792533 0.38339871 0
4.21 0.88178879 0.3833825 0
4.2130003 0.87564135 0.38336626 0
4.217 0.86972308 0.38334462 0
4.2220001 0.86402845 0.38331756 0
4.23 0.8590247 0.38327426 0
4.2400002 0.85446107 0.38322014 0
3.8900003 1.3956217 0.37881884 0
3.8870003 1.3880925 0.37884051 0
3.8840003 1.3805742 0.37886214 0
3.8810003 1.3730668 0.37888378 0
3.8780003 1.3655702 0.37890545 0
3.8750002 1.3580843 0.37892708 0
3.8720002 1.3506093 0.37894872 0
3.8690002 1.3431453 0.37897038 0
3.8660002 1.3356918 0.37899202 0
3.8630002 1.3282492 0.37901366 0
3.8600004 1.3208177 0.37903529 0
3.8570004 1.3133968 0.37905696 0
3.8530002 1.3055953 0.37908581 0
3.8500001 1.2981979 0.37910748 0
3.8470004 1.2908113 0.37912911 0
3.8440003 1.2834356 0.37915075 0
3.8410003 1.2760706 0.37917238 0
3.8380003 1.2687165 0.37919405 0
3.8350003 1.2613732 0.37921569 0
3.8320003 1.2540407 0.37923732 0
3.8290002 1.246719 0.37925899 0
3.8260002 1.2394081 0.37928063 0
3.8230002 1.2321081 0.37930226 0
3.8200002 1.2248189 0.37932393 0
3.8180003 1.2179104 0.37933835 0
3.8150003 1.210641 0.37935999 0
3.8120003 1.2033825 0.37938163 0
3.8090003 1.1961348 0.37940329 0
3.8060002 1.188898 0.37942493 0
3.8030002 1.1816719 0.37944657 0
3.8000002 1.1744566 0.37946823 0
3.7970002 1.1672522 0.37948987 0
3.7940001 1.1600585 0.37951151 0
3.7910004 1.1528759 0.37953317 0
3.7880003 1.1457039 0.37955481 0
3.7850003 1.1385429 0.37957644 0
3.7820003 1.1313925 0.37959808 0
3.7790003 1.1242532 0.37961975 0
3.7770002 1.117469 0.37963417 0
3.7740002 1.1103493 0.37965581 0
3.7710001 1.1032405 0.37967747 0
3.7680004 1.0961425 0.37969911 0
3.7650003 1.0890554 0.37972075 0
3.7620003 1.081979 0.37974241 0
3.7590003 1.0749135 0.37976405 0
3.7560003 1.0678588 0.37978569 0
3.7540002 1.0611451 0.37980011 0
3.7510002 1.0541102 0.37982178 0
3.7480001 1.0470861 0.37984341 0
3.7450004 1.0400729 0.37986505 0
3.7420003 1.0330706 0.37988672 0
3.7460003 1.0283265 0.37985784 0
3.7540002 1.0248451 0.37980011 0
3.7620003 1.021335 0.37974241 0
3.7710001 1.0181115 0.37967747 0
4.303 1.1508448 0.37583897 0
4.3010001 1.1431949 0.37585339 0
4.3000002 1.1358551 0.3758606 0
4.3000002 1.1288202 0.3758606 0
4.3010001 1.1220849 0.37585339 0
4.303 1.1156434 0.37583897 0
4.3060002 1.1094908 0.3758173 0
4.3099999 1.1036211 0.37578845 0
4.3140001 1.0977371 0.3757596 0
4.3210001 1.0927099 0.37570909 0
4.0570002 0.95667207 0.3776139 0
4.0540004 0.94925839 0.37763554 0
4.0540004 0.94266731 0.37763554 0
4.0550003 0.93634492 0.37762833 0
4.0580001 0.9305529 0.37760669 0
4.0610003 0.92475009 0.37758505 0
4.0669999 0.91972643 0.37754175 0
4.0760002 0.91546583 0.37747681 0
4.2150002 0.93117708 0.3764739 0
4.21 0.92302382 0.37650996 0
4.2080002 0.9156462 0.37652442 0
4.2060003 0.90827596 0.37653884 0
4.2049999 0.90116167 0.37654606 0
4.2060003 0.89454538 0.37653884 0
4.2070003 0.88792533 0.37653163 0
4.21 0.88178879 0.37650996 0
4.2130003 0.87564135 0.37648833 0
4.217 0.86972308 0.37645948 0
4.2220001 0.86402845 0.37642339 0
4.23 0.8590247 0.37636566 0
4.2400002 0.85446107 0.37629351 0
3.8870003 1.3880925 0.37255061 0
3.8840003 1.3805742 0.37257767 0
3.8810003 1.3730668 0.37260473 0
3.8780003 1.3655702 0.37263179 0
3.8750002 1.3580843 0.37265885 0
3.8720002 1.3506093 0.37268591 0
3.8690002 1.3431453 0.37271297 0
3.8660002 1.3356918 0.37274003 0
3.8630002 1.3282492 0.37276709 0
3.8600004 1.3208177 0.37279412 0
3.8570004 1.3133968 0.37282118 0
3.8530002 1.3055953 0.37285727 0
3.8500001 1.2981979 0.37288433 0
3.8470004 1.2908113 0.37291139 0
3.8440003 1.2834356 0.37293842 0
3.8410003 1.2760706 0.37296548 0
3.8380003 1.2687165 0.37299255 0
3.8350003 1.2613732 0.37301961 0
3.8320003 1.2540407 0.37304667 0
3.8290002 1.246719 0.37307373 0
3.8260002 1.2394081 0.37310079 0
3.8230002 1.2321081 0.37312785 0
3.8210003 1.2251906 0.37314588 0
3.8180003 1.2179104 0.37317294 0
3.8150003 1.210641 0.3732 0
3.8120003 1.2033825 0.37322706 0
3.8090003 1.1961348 0.37325409 0
3.8060002 1.188898 0.37328115 0
3.8030002 1.1816719 0.37330821 0
3.8000002 1.1744566 0.37333527 0
3.7970002 1.1672522 0.37336233 0
3.7940001 1.1600585 0.37338939 0
3.7910004 1.1528759 0.37341645 0
3.7880003 1.1457039 0.37344351 0
3.7850003 1.1385429 0.37347054 0
3.7820003 1.1313925 0.37349761 0
3.7790003 1.1242532 0.37352467 0
3.7770002 1.117469 0.37354273 0
3.7740002 1.1103493 0.37356976 0
3.7710001 1.1032405 0.37359682 0
3.7680004 1.0961425 0.37362388 0
3.7650003 1.0890554 0.37365094 0
3.7620003 1.081979 0.373678 0
3.7590003 1.0749135 0.37370506 0
3.7560003 1.0678588 0.37373212 0
3.7540002 1.0611451 0.37375015 0
3.7510002 1.0541102 0.37377721 0
3.7480001 1.0470861 0.37380427 0
3.7450004 1.0400729 0.37383133 0
3.7420003 1.0330706 0.37385839 0
3.7460003 1.0283265 0.3738223 0
3.7540002 1.0248451 0.37375015 0
3.7620003 1.021335 0.373678 0
3.7710001 1.0181115 0.37359682 0
4.3070002 1.1591189 0.36876261 0
4.303 1.1508448 0.3687987 0
4.3010001 1.1431949 0.36881673 0
4.3000002 1.1358551 0.36882576 0
4.3000002 1.1288202 0.36882576 0
4.3010001 1.1220849 0.36881673 0
4.303 1.1156434 0.3687987 0
4.3060002 1.1094908 0.36877164 0
4.3099999 1.1036211 0.36873555 0
4.3140001 1.0977371 0.36869949 0
4.3210001 1.0927099 0.36863634 0
4.329 1.0879459 0.36856419 0
4.0620003 0.96464849 0.37097228 0
4.0570002 0.95667207 0.3710174 0
4.0540004 0.94925839 0.37104443 0
4.0540004 0.94266731 0.37104443 0
4.0550003 0.93634492 0.37103543 0
4.0580001 0.9305529 0.37100837 0
4.0610003 0.92475009 0.37098131 0
4.0669999 0.91972643 0.37092718 0
4.0760002 0.91546583 0.37084603 0
4.2150002 0.93117708 0.36959237 0
4.21 0.92302382 0.36963746 0
4.2080002 0.9156462 0.36965549 0
4.2060003 0.90827596 0.36967355 0
4.2049999 0.90116167 0.36968255 0
4.2060003 0.89454538 0.36967355 0
4.2070003 0.88792533 0.36966452 0
4.21 0.88178879 0.36963746 0
4.2130003 0.87564135 0.3696104 0
4.217 0.86972308 0.36957434 0
4.2220001 0.86402845 0.36952925 0
4.23 0.8590247 0.3694571 0
4.2400002 0.85446107 0.36936688 0
3.8870003 1.3880925 0.36626074 0
3.8840003 1.3805742 0.36629319 0
3.8810003 1.3730668 0.36632568 0
3.8780003 1.3655702 0.36635816 0
3.8750002 1.3580843 0.36639062 0
3.8720002 1.3506093 0.36642307 0
3.8690002 1.3431453 0.36645555 0
3.8660002 1.3356918 0.36648801 0
3.8630002 1.3282492 0.36652049 0
3.8600004 1.3208177 0.36655295 0
3.8570004 1.3133968 0.36658543 0
3.8530002 1.3055953 0.36662871 0
3.8500001 1.2981979 0.36666119 0
3.8470004 1.2908113 0.36669365 0
3.8440003 1.2834356 0.36672613 0
3.8410003 1.2760706 0.36675858 0
3.8380003 1.2687165 0.36679107 0
3.8350003 1.2613732 0.36682352 0
3.8320003 1.2540407 0.36685598 0
3.8290002 1.246719 0.36688846 0
3.8260002 1.2394081 0.36692095 0
3.8230002 1.2321081 0.3669534 0
3.8210003 1.2251906 0.36697504 0
3.8180003 1.2179104 0.36700752 0
3.8150003 1.210641 0.36703998 0
3.8120003 1.2033825 0.36707246 0
3.8090003 1.1961348 0.36710492 0
3.8060002 1.188898 0.3671374 0
3.8030002 1.1816719 0.36716986 0
3.8000002 1.1744566 0.36720234 0
3.7970002 1.1672522 0.3672348 0
3.7940001 1.1600585 0.36726725 0
3.7910004 1.1528759 0.36729974 0
3.7880003 1.1457039 0.36733219 0
3.7850003 1.1385429 0.36736467 0
3.7820003 1.1313925 0.36739713 0
3.7790003 1.1242532 0.36742961 0
3.7770002 1.117469 0.36745125 0
3.7740002 1.1103493 0.36748374 0
3.7710001 1.1032405 0.36751619 0
3.7680004 1.0961425 0.36754864 0
3.7650003 1.0890554 0.36758113 0
3.7620003 1.081979 0.36761358 0
3.7590003 1.0749135 0.36764607 0
3.7560003 1.0678588 0.36767852 0
3.7540002 1.0611451 0.36770019 0
3.7510002 1.0541102 0.36773264 0
3.7480001 1.0470861 0.36776513 0
3.7450004 1.0400729 0.36779758 0
3.7420003 1.0330706 0.36783004 0
3.7460003 1.0283265 0.36778677 0
3.7540002 1.0248451 0.36770019 0
3.7620003 1.021335 0.36761358 0
3.7710001 1.0181115 0.36751619 0
4.3070002 1.1591189 0.36171514 0
4.303 1.1508448 0.36175844 0
4.3010001 1.1431949 0.36178008 0
4.3000002 1.1358551 0.3617909 0
4.3000002 1.1288202 0.3617909 0
4.3010001 1.1220849 0.36178008 0
4.303 1.1156434 0.36175844 0
4.3060002 1.1094908 0.36172596 0
4.3099999 1.1036211 0.36168268 0
4.3140001 1.0977371 0.36163938 0
4.3210001 1.0927099 0.36156362 0
4.329 1.0879459 0.36147705 0
4.0620003 0.96464849 0.36436674 0
4.0570002 0.95667207 0.36442086 0
4.0540004 0.94925839 0.36445332 0
4.0540004 0.94266731 0.36445332 0
4.0550003 0.93634492 0.3644425 0
4.0580001 0.9305529 0.36441004 0
4.0610003 0.92475009 0.36437756 0
4.0669999 0.91972643 0.36431262 0
4.0760002 0.91546583 0.36421522 0
4.2150002 0.93117708 0.36271083 0
4.21 0.92302382 0.36276495 0
4.2080002 0.9156462 0.36278659 0
4.2060003 0.90827596 0.36280826 0
4.2049999 0.90116167 0.36281908 0
4.2060003 0.89454538 0.36280826 0
4.2070003 0.88792533 0.36279744 0
4.21 0.88178879 0.36276495 0
4.2130003 0.87564135 0.3627325 0
4.217 0.86972308 0.3626892 0
4.2220001 0.86402845 0.36263508 0
4.23 0.8590247 0.3625485 0
4.2400002 0.85446107 0.36244029 0
3.8840003 1.3805742 0.36000875 0
3.8810003 1.3730668 0.36004663 0
3.8780003 1.3655702 0.3600845 0
3.8750002 1.3580843 0.36012238 0
3.8720002 1.3506093 0.36016026 0
3.8690002 1.3431453 0.36019814 0
3.8660002 1.3356918 0.36023602 0
3.8630002 1.3282492 0.3602739 0
3.8600004 1.3208177 0.36031178 0
3.8570004 1.3133968 0.36034966 0
3.8530002 1.3055953 0.36040017 0
3.8500001 1.2981979 0.36043805 0
3.8470004 1.2908113 0.36047593 0
3.8440003 1.2834356 0.36051381 0
3.8410003 1.2760706 0.36055169 0
3.8380003 1.2687165 0.36058956 0
3.8350003 1.2613732 0.36062744 0
3.8320003 1.2540407 0.36066532 0
3.8290002 1.246719 0.3607032 0
3.8260002 1.2394081 0.36074108 0
3.8230002 1.2321081 0.36077896 0
3.8210003 1.2251906 0.3608042 0
3.8180003 1.2179104 0.36084211 0
3.8150003 1.210641 0.36087999 0
3.8120003 1.2033825 0.36091787 0
3.8090003 1.1961348 0.36095574 0
3.8060002 1.188898 0.36099362 0
3.8030002 1.1816719 0.3610315 0
3.8000002 1.1744566 0.36106938 0
3.7970002 1.1672522 0.36110726 0
3.7940001 1.1600585 0.36114514 0
3.7910004 1.1528759 0.36118302 0
3.7880003 1.1457039 0.3612209 0
3.7850003 1.1385429 0.36125877 0
3.7820003 1.1313925 0.36129665 0
3.7790003 1.1242532 0.36133453 0
3.7770002 1.117469 0.3613598 0
3.7740002 1.1103493 0.36139768 0
3.7710001 1.1032405 0.36143556 0
3.7680004 1.0961425 0.36147344 0
3.7650003 1.0890554 0.36151132 0
3.7620003 1.081979 0.3615492 0
3.7590003 1.0749135 0.36158708 0
3.7560003 1.0678588 0.36162496 0
3.7540002 1.0611451 0.3616502 0
3.7510002 1.0541102 0.36168808 0
3.7480001 1.0470861 0.36172596 0
3.7450004 1.0400729 0.36176383 0
3.7420003 1.0330706 0.36180171 0
3.7460003 1.0283265 0.36175123 0
3.7540002 1.0248451 0.3616502 0
3.7620003 1.021335 0.3615492 0
3.7710001 1.0181115 0.36143556 0
4.3070002 1.1591189 0.35466766 0
4.303 1.1508448 0.35471818 0
4.3010001 1.1431949 0.35474342 0
4.3000002 1.1358551 0.35475606 0
4.3000002 1.1288202 0.35475606 0
4.3010001 1.1220849 0.35474342 0
4.303 1.1156434 0.35471818 0
4.3060002 1.1094908 0.3546803 0
4.3099999 1.1036211 0.35462978 0
4.3140001 1.0977371 0.35457927 0
4.3210001 1.0927099 0.35449088 0
4.329 1.0879459 0.35438988 0
4.0620003 0.96464849 0.3577612 0
4.0570002 0.95667207 0.35782433 0
4.0540004 0.94925839 0.3578622 0
4.0540004 0.94266731 0.3578622 0
4.0550003 0.93634492 0.35784957 0
4.0580001 0.9305529 0.35781169 0
4.0610003 0.92475009 0.35777381 0
4.0669999 0.91972643 0.35769805 0
4.0760002 0.91546583 0.35758442 0
4.2150002 0.93117708 0.3558293 0
4.21 0.92302382 0.35589245 0
4.2080002 0.9156462 0.35591769 0
4.2060003 0.90827596 0.35594296 0
4.2049999 0.90116167 0.35595557 0
4.2060003 0.89454538 0.35594296 0
4.2070003 0.88792533 0.35593033 0
4.21 0.88178879 0.35589245 0
4.2130003 0.87564135 0.35585457 0
4.217 0.86972308 0.35580406 0
4.2220001 0.86402845 0.35574093 0
4.23 0.8590247 0.3556399 0
4.2400002 0.85446107 0.35551366 0
3.8960001 1.3539572 0.35355112 0
3.8920002 1.3460565 0.35360882 0
3.8900003 1.338964 0.3536377 0
3.8900003 1.3326687 0.3536377 0
3.8910003 1.3267666 0.35362327 0
3.8930004 1.3212525 0.35359439 0
3.8960001 1.3161204 0.35355112 0
3.9010003 1.3117535 0.35347897 0
3.9080002 1.3081405 0.35337794 0
3.7830002 1.0768201 0.35518175 0
3.7790003 1.0693974 0.35523948 0
3.7770002 1.0626458 0.35526833 0
3.7760003 1.0562278 0.35528275 0
3.7770002 1.0504628 0.35526833 0
3.7790003 1.0450171 0.35523948 0
3.7820003 1.0398854 0.35519618 0
3.7860003 1.035062 0.35513845 0
3.7920003 1.0308591 0.35505188 0
3.8020003 1.0278972 0.35490757 0
4.3070002 1.1591189 0.34762019 0
4.303 1.1508448 0.34767792 0
4.3010001 1.1431949 0.34770676 0
4.3000002 1.1358551 0.34772119 0
4.3000002 1.1288202 0.34772119 0
4.3010001 1.1220849 0.34770676 0
4.303 1.1156434 0.34767792 0
4.3060002 1.1094908 0.34763461 0
4.3099999 1.1036211 0.34757689 0
4.3140001 1.0977371 0.34751916 0
4.3210001 1.0927099 0.34741816 0
4.329 1.0879459 0.34730271 0
4.0620003 0.96464849 0.35115564 0
4.0570002 0.95667207 0.35122779 0
4.0540004 0.94925839 0.35127109 0
4.0540004 0.94266731 0.35127109 0
4.0550003 0.93634492 0.35125667 0
4.0580001 0.9305529 0.35121337 0
4.0610003 0.92475009 0.35117006 0
4.0669999 0.91972643 0.35108349 0
4.0760002 0.91546583 0.35095364 0
4.2150002 0.93117708 0.34894779 0
4.21 0.92302382 0.34901994 0
4.2080002 0.9156462 0.34904879 0
4.2060003 0.90827596 0.34907767 0
4.2049999 0.90116167 0.3490921 0
4.2060003 0.89454538 0.34907767 0
4.2070003 0.88792533 0.34906322 0
4.21 0.88178879 0.34901994 0
4.2130003 0.87564135 0.34897664 0
4.217 0.86972308 0.34891891 0
4.2220001 0.86402845 0.34884676 0
4.23 0.8590247 0.34873134 0
4.2400002 0.85446107 0.34858704 0
3.8960001 1.3539572 0.34724498 0
3.8920002 1.3460565 0.34730992 0
3.8900003 1.338964 0.3473424 0
3.8900003 1.3326687 0.3473424 0
3.8910003 1.3267666 0.34732616 0
3.8930004 1.3212525 0.3472937 0
3.8960001 1.3161204 0.34724498 0
3.9010003 1.3117535 0.34716383 0
3.9080002 1.3081405 0.34705019 0
3.7830002 1.0768201 0.34907946 0
3.7790003 1.0693974 0.3491444 0
3.7770002 1.0626458 0.34917688 0
3.7760003 1.0562278 0.3491931 0
3.7770002 1.0504628 0.34917688 0
3.7790003 1.0450171 0.3491444 0
3.7820003 1.0398854 0.3490957 0
3.7860003 1.035062 0.34903076 0
3.7920003 1.0308591 0.34893334 0
3.8020003 1.0278972 0.34877101 0
4.3150001 1.1686484 0.34044284 0
4.3070002 1.1591189 0.34057271 0
4.303 1.1508448 0.34063762 0
4.3010001 1.1431949 0.34067011 0
4.3000002 1.1358551 0.34068635 0
4.3000002 1.1288202 0.34068635 0
4.3010001 1.1220849 0.34067011 0
4.303 1.1156434 0.34063762 0
4.3060002 1.1094908 0.34058893 0
4.3099999 1.1036211 0.34052402 0
4.3140001 1.0977371 0.34045905 0
4.3210001 1.0927099 0.34034544 0
4.329 1.0879459 0.34021556 0
4.3400002 1.0840137 0.34003699 0
4.0620003 0.96464849 0.3445501 0
4.0570002 0.95667207 0.34463128 0
4.0540004 0.94925839 0.34467998 0
4.0540004 0.94266731 0.34467998 0
4.0550003 0.93634492 0.34466374 0
4.0580001 0.9305529 0.34461504 0
4.0610003 0.92475009 0.34456635 0
4.0669999 0.91972643 0.34446892 0
4.0760002 0.91546583 0.34432283 0
4.224 0.9403801 0.34192014 0
4.2150002 0.93117708 0.34206626 0
4.21 0.92302382 0.34214744 0
4.2080002 0.9156462 0.34217989 0
4.2060003 0.90827596 0.34221238 0
4.2049999 0.90116167 0.34222859 0
4.2060003 0.89454538 0.34221238 0
4.2070003 0.88792533 0.34219614 0
4.21 0.88178879 0.34214744 0
4.2130003 0.87564135 0.34209871 0
4.217 0.86972308 0.3420338 0
4.2220001 0.86402845 0.34195262 0
4.23 0.8590247 0.34182274 0
4.2400002 0.85446107 0.34166041 0
3.8960001 1.3539572 0.34093887 0
3.8920002 1.3460565 0.34101105 0
3.8900003 1.338964 0.34104711 0
3.8900003 1.3326687 0.34104711 0
3.8910003 1.3267666 0.34102905 0
3.8930004 1.3212525 0.34099299 0
3.8960001 1.3161204 0.34093887 0
3.9010003 1.3117535 0.34084868 0
3.9080002 1.3081405 0.34072241 0
3.9180002 1.3056549 0.34054205 0
3.7830002 1.0768201 0.34297717 0
3.7790003 1.0693974 0.34304935 0
3.7770002 1.0626458 0.34308541 0
3.7760003 1.0562278 0.34310344 0
3.7770002 1.0504628 0.34308541 0
3.7790003 1.0450171 0.34304935 0
3.7820003 1.0398854 0.34299523 0
3.7860003 1.035062 0.34292307 0
3.7920003 1.0308591 0.34281483 0
3.8020003 1.0278972 0.34263447 0
4.3150001 1.1686484 0.33338094 0
4.3070002 1.1591189 0.33352524 0
4.303 1.1508448 0.33359736 0
4.3010001 1.1431949 0.33363345 0
4.3000002 1.1358551 0.33365148 0
4.3000002 1.1288202 0.33365148 0
4.3010001 1.1220849 0.33363345 0
4.303 1.1156434 0.33359736 0
4.3060002 1.1094908 0.33354327 0
4.3099999 1.1036211 0.33347112 0
4.3140001 1.0977371 0.33339897 0
4.3210001 1.0927099 0.3332727 0
4.329 1.0879459 0.33312839 0
4.3400002 1.0840137 0.33292997 0
4.0620003 0.96464849 0.33794457 0
4.0570002 0.95667207 0.33803475 0
4.0540004 0.94925839 0.33808887 0
4.0540004 0.94266731 0.33808887 0
4.0550003 0.93634492 0.33807081 0
4.0580001 0.9305529 0.33801672 0
4.0610003 0.92475009 0.3379626 0
4.0669999 0.91972643 0.33785436 0
4.0760002 0.91546583 0.33769202 0
4.224 0.9403801 0.33502239 0
4.2150002 0.93117708 0.33518472 0
4.21 0.92302382 0.33527493 0
4.2080002 0.9156462 0.335311 0
4.2060003 0.90827596 0.33534706 0
4.2049999 0.90116167 0.33536512 0
4.2060003 0.89454538 0.33534706 0
4.2070003 0.88792533 0.33532906 0
4.21 0.88178879 0.33527493 0
4.2130003 0.87564135 0.33522081 0
4.217 0.86972308 0.33514866 0
4.2220001 0.86402845 0.33505845 0
4.23 0.8590247 0.33491415 0
4.2400002 0.85446107 0.33473378 0
3.8960001 1.3539572 0.33463275 0
3.8920002 1.3460565 0.33471215 0
3.8900003 1.338964 0.33475181 0
3.8900003 1.3326687 0.33475181 0
3.8910003 1.3267666 0.33473197 0
3.8930004 1.3212525 0.3346923 0
3.8960001 1.3161204 0.33463275 0
3.9010003 1.3117535 0.33453357 0
3.9080002 1.3081405 0.33439466 0
3.9180002 1.3056549 0.33419624 0
3.7830002 1.0768201 0.3368749 0
3.7790003 1.0693974 0.33695427 0
3.7770002 1.0626458 0.33699396 0
3.7760003 1.0562278 0.33701378 0
3.7770002 1.0504628 0.33699396 0
3.7790003 1.0450171 0.33695427 0
3.7820003 1.0398854 0.33689475 0
3.7860003 1.035062 0.33681536 0
3.7920003 1.0308591 0.33669633 0
3.8020003 1.0278972 0.3364979 0
4.3150001 1.1686484 0.32631901 0
4.3070002 1.1591189 0.32647774 0
4.303 1.1508448 0.3265571 0
4.3010001 1.1431949 0.3265968 0
4.3000002 1.1358551 0.32661664 0
4.3000002 1.1288202 0.32661664 0
4.3010001 1.1220849 0.3265968 0
4.303 1.1156434 0.3265571 0
4.3060002 1.1094908 0.32649758 0
4.3099999 1.1036211 0.32641822 0
4.3140001 1.0977371 0.32633886 0
4.3210001 1.0927099 0.32619995 0
4.329 1.0879459 0.32604122 0
4.3400002 1.0840137 0.32582295 0
4.0620003 0.96464849 0.331339 0
4.0570002 0.95667207 0.33143821 0
4.0540004 0.94925839 0.33149773 0
4.0540004 0.94266731 0.33149773 0
4.0550003 0.93634492 0.33147791 0
4.0580001 0.9305529 0.3314184 0
4.0610003 0.92475009 0.33135885 0
4.0669999 0.91972643 0.33123982 0
4.0760002 0.91546583 0.33106124 0
4.224 0.9403801 0.32812461 0
4.2150002 0.93117708 0.32830319 0
4.21 0.92302382 0.3284024 0
4.2080002 0.9156462 0.3284421 0
4.2060003 0.90827596 0.32848179 0
4.2049999 0.90116167 0.32850164 0
4.2060003 0.89454538 0.32848179 0
4.2070003 0.88792533 0.32846195 0
4.21 0.88178879 0.3284024 0
4.2130003 0.87564135 0.32834288 0
4.217 0.86972308 0.32826352 0
4.2220001 0.86402845 0.32816431 0
4.23 0.8590247 0.32800558 0
4.2400002 0.85446107 0.32780716 0
3.8960001 1.3539572 0.32832664 0
3.8920002 1.3460565 0.32841325 0
3.8900003 1.338964 0.32845652 0
3.8900003 1.3326687 0.32845652 0
3.8910003 1.3267666 0.32843488 0
3.8930004 1.3212525 0.32839158 0
3.8960001 1.3161204 0.32832664 0
3.9010003 1.3117535 0.32821843 0
3.9080002 1.3081405 0.32806692 0
3.9180002 1.3056549 0.32785046 0
3.7830002 1.0768201 0.33077261 0
3.7790003 1.0693974 0.33085918 0
3.7770002 1.0626458 0.33090249 0
3.7760003 1.0562278 0.33092415 0
3.7770002 1.0504628 0.33090249 0
3.7790003 1.0450171 0.33085918 0
3.7820003 1.0398854 0.33079427 0
3.7860003 1.035062 0.33070767 0
3.7920003 1.0308591 0.33057779 0
3.8020003 1.0278972 0.33036137 0
4.3150001 1.1686484 0.31925711 0
4.3070002 1.1591189 0.31943026 0
4.303 1.1508448 0.31951684 0
4.3010001 1.1431949 0.31956014 0
4.3000002 1.1358551 0.31958178 0
4.3000002 1.1288202 0.31958178 0
4.3010001 1.1220849 0.31956014 0
4.303 1.1156434 0.31951684 0
4.3060002 1.1094908 0.31945193 0
4.3099999 1.1036211 0.31936532 0
4.3140001 1.0977371 0.31927875 0
4.3210001 1.0927099 0.31912723 0
4.329 1.0879459 0.31895405 0
4.3400002 1.0840137 0.31871596 0
4.0620003 0.96464849 0.32473347 0
4.0570002 0.95667207 0.32484168 0
4.0540004 0.94925839 0.32490662 0
4.0540004 0.94266731 0.32490662 0
4.0550003 0.93634492 0.32488498 0
4.0580001 0.9305529 0.32482004 0
4.0610003 0.92475009 0.3247551 0
4.0669999 0.91972643 0.32462525 0
4.0760002 0.91546583 0.32443044 0
4.224 0.9403801 0.32122687 0
4.2150002 0.93117708 0.32142168 0
4.21 0.92302382 0.3215299 0
4.2080002 0.9156462 0.3215732 0
4.2060003 0.90827596 0.32161647 0
4.2049999 0.90116167 0.32163814 0
4.2060003 0.89454538 0.32161647 0
4.2070003 0.88792533 0.32159483 0
4.21 0.88178879 0.3215299 0
4.2130003 0.87564135 0.32146496 0
4.217 0.86972308 0.32137838 0
4.2220001 0.86402845 0.32127017 0
4.23 0.8590247 0.32109699 0
4.2400002 0.85446107 0.32088053 0
3.8960001 1.3539572 0.32202053 0
3.8920002 1.3460565 0.32211435 0
3.8900003 1.338964 0.32216123 0
3.8900003 1.3326687 0.32216123 0
3.8910003 1.3267666 0.32213777 0
3.8930004 1.3212525 0.32209086 0
3.8960001 1.3161204 0.32202053 0
3.9010003 1.3117535 0.32190329 0
3.9080002 1.3081405 0.32173914 0
3.9180002 1.3056549 0.32150465 0
3.7830002 1.0768201 0.32467034 0
3.7790003 1.0693974 0.32476413 0
3.7770002 1.0626458 0.32481104 0
3.7760003 1.0562278 0.32483447 0
3.7770002 1.0504628 0.32481104 0
3.7790003 1.0450171 0.32476413 0
3.7820003 1.0398854 0.32469377 0
3.7860003 1.035062 0.32459998 0
3.7920003 1.0308591 0.32445928 0
3.8020003 1.0278972 0.3242248 0
4.3150001 1.1686484 0.31219518 0
4.3070002 1.1591189 0.31238279 0
4.303 1.1508448 0.31247658 0
4.3010001 1.1431949 0.31252348 0
4.3000002 1.1358551 0.31254694 0
4.3000002 1.1288202 0.31254694 0
4.3010001 1.1220849 0.31252348 0
4.303 1.1156434 0.31247658 0
4.3060002 1.1094908 0.31240624 0
4.3099999 1.1036211 0.31231242 0
4.3140001 1.0977371 0.31221864 0
4.3210001 1.0927099 0.31205449 0
4.329 1.0879459 0.31186691 0
4.3400002 1.0840137 0.31160897 0
4.0620003 0.96464849 0.31812793 0
4.0570002 0.95667207 0.31824517 0
4.0540004 0.94925839 0.31831551 0
4.0540004 0.94266731 0.31831551 0
4.0550003 0.93634492 0.31829208 0
4.0580001 0.9305529 0.31822172 0
4.0610003 0.92475009 0.31815135 0
4.0669999 0.91972643 0.31801069 0
4.0760002 0.91546583 0.31779963 0
4.224 0.9403801 0.31432909 0
4.2150002 0.93117708 0.31454015 0
4.21 0.92302382 0.31465739 0
4.2080002 0.9156462 0.3147043 0
4.2060003 0.90827596 0.31475118 0
4.2049999 0.90116167 0.31477463 0
4.2060003 0.89454538 0.31475118 0
4.2070003 0.88792533 0.31472775 0
4.21 0.88178879 0.31465739 0
4.2130003 0.87564135 0.31458706 0
4.217 0.86972308 0.31449324 0
4.2220001 0.86402845 0.314376 0
4.23 0.8590247 0.31418842 0
4.2400002 0.85446107 0.31395391 0
3.8960001 1.3539572 0.31571442 0
3.8920002 1.3460565 0.31581545 0
3.8900003 1.338964 0.31586593 0
3.8900003 1.3326687 0.31586593 0
3.8910003 1.3267666 0.31584069 0
3.8930004 1.3212525 0.31579018 0
3.8960001 1.3161204 0.31571442 0
3.9010003 1.3117535 0.31558815 0
3.9080002 1.3081405 0.31541139 0
3.9180002 1.3056549 0.31515884 0
3.7830002 1.0768201 0.31856805 0
3.7790003 1.0693974 0.31866905 0
3.7770002 1.0626458 0.31871957 0
3.7760003 1.0562278 0.31874481 0
3.7770002 1.0504628 0.31871957 0
3.7790003 1.0450171 0.31866905 0
3.7820003 1.0398854 0.31859329 0
3.7860003 1.035062 0.31849229 0
3.7920003 1.0308591 0.31834078 0
3.8020003 1.0278972 0.31808823 0
4.3150001 1.1686484 0.30513328 0
4.3070002 1.1591189 0.30533531 0
4.303 1.1508448 0.30543631 0
4.3010001 1.1431949 0.30548683 0
4.3000002 1.1358551 0.30551207 0
4.3000002 1.1288202 0.30551207 0
4.3010001 1.1220849 0.30548683 0
4.303 1.1156434 0.30543631 0
4.3060002 1.1094908 0.30536056 0
4.3099999 1.1036211 0.30525956 0
4.3140001 1.0977371 0.30515853 0
4.3210001 1.0927099 0.30498177 0
4.329 1.0879459 0.30477974 0
4.3400002 1.0840137 0.30450195 0
4.0620003 0.96464849 0.31152236 0
4.0570002 0.95667207 0.31164864 0
4.0540004 0.94925839 0.31172439 0
4.0540004 0.94266731 0.31172439 0
4.0550003 0.93634492 0.31169915 0
4.0580001 0.9305529 0.31162339 0
4.0610003 0.92475009 0.31154764 0
4.0669999 0.91972643 0.31139612 0
4.0760002 0.91546583 0.31116882 0
4.224 0.9403801 0.30743134 0
4.2150002 0.93117708 0.30765861 0
4.21 0.92302382 0.30778489 0
4.2080002 0.9156462 0.3078354 0
4.2060003 0.90827596 0.30788589 0
4.2049999 0.90116167 0.30791116 0
4.2060003 0.89454538 0.30788589 0
4.2070003 0.88792533 0.30786064 0
4.21 0.88178879 0.30778489 0
4.2130003 0.87564135 0.30770913 0
4.217 0.86972308 0.3076081 0
4.2220001 0.86402845 0.30748183 0
4.23 0.8590247 0.30727983 0
4.2400002 0.85446107 0.30702728 0
3.8960001 1.3539572 0.30940831 0
3.8920002 1.3460565 0.30951655 0
3.8900003 1.338964 0.30957067 0
3.8900003 1.3326687 0.30957067 0
3.8910003 1.3267666 0.30954361 0
3.8930004 1.3212525 0.30948949 0
3.8960001 1.3161204 0.30940831 0
3.9010003 1.3117535 0.30927303 0
3.9080002 1.3081405 0.30908364 0
3.9180002 1.3056549 0.30881307 0
4.1690001 1.2321281 0.30202171 0
4.1680002 1.2249922 0.30204877 0
4.1680002 1.2181953 0.30204877 0
3.7830002 1.0768201 0.31246576 0
3.7790003 1.0693974 0.312574 0
3.7770002 1.0626458 0.31262809 0
3.7760003 1.0562278 0.31265515 0
3.7770002 1.0504628 0.31262809 0
3.7790003 1.0450171 0.312574 0
3.7820003 1.0398854 0.31249282 0
3.7860003 1.035062 0.31238461 0
3.7920003 1.0308591 0.31222224 0
3.8020003 1.0278972 0.3119517 0
4.3150001 1.1686484 0.29807138 0
4.3070002 1.1591189 0.29828784 0
4.303 1.1508448 0.29839605 0
4.3010001 1.1431949 0.29845017 0
4.3000002 1.1358551 0.29847723 0
4.3000002 1.1288202 0.29847723 0
4.3010001 1.1220849 0.29845017 0
4.303 1.1156434 0.29839605 0
4.3060002 1.1094908 0.29831487 0
4.3099999 1.1036211 0.29820666 0
4.3140001 1.0977371 0.29809844 0
4.3210001 1.0927099 0.29790902 0
4.329 1.0879459 0.2976926 0
4.3400002 1.0840137 0.29739493 0
4.0620003 0.96464849 0.30491683 0
4.0570002 0.95667207 0.3050521 0
4.0540004 0.94925839 0.30513328 0
4.0540004 0.94266731 0.30513328 0
4.0550003 0.93634492 0.30510622 0
4.0580001 0.9305529 0.30502504 0
4.0610003 0.92475009 0.30494389 0
4.0669999 0.91972643 0.30478156 0
4.0760002 0.91546583 0.30453801 0
4.224 0.9403801 0.30053359 0
4.2150002 0.93117708 0.30077708 0
4.21 0.92302382 0.30091238 0
4.2080002 0.9156462 0.3009665 0
4.2060003 0.90827596 0.30102059 0
4.2049999 0.90116167 0.30104765 0
4.2060003 0.89454538 0.30102059 0
4.2070003 0.88792533 0.30099356 0
4.21 0.88178879 0.30091238 0
4.2130003 0.87564135 0.3008312 0
4.217 0.86972308 0.30072299 0
4.2220001 0.86402845 0.30058768 0
4.23 0.8590247 0.30037123 0
4.2400002 0.85446107 0.30010065 0
3.8960001 1.3539572 0.3031022 0
3.8920002 1.3460565 0.30321765 0
3.8900003 1.338964 0.30327535 0
3.8900003 1.3326687 0.30327535 0
3.8910003 1.3267666 0.3032465 0
3.8930004 1.3212525 0.30318877 0
3.8960001 1.3161204 0.3031022 0
3.9010003 1.3117535 0.30295789 0
3.9080002 1.3081405 0.30275586 0
3.9180002 1.3056549 0.30246726 0
4.1690001 1.2321281 0.29522318 0
4.1680002 1.2249922 0.29525203 0
4.1680002 1.2181953 0.29525203 0
3.7830002 1.0768201 0.30636349 0
3.7790003 1.0693974 0.30647892 0
3.7770002 1.0626458 0.30653664 0
3.7760003 1.0562278 0.30656552 0
3.7770002 1.0504628 0.30653664 0
3.7790003 1.0450171 0.30647892 0
3.7820003 1.0398854 0.30639234 0
3.7860003 1.035062 0.30627692 0
3.7920003 1.0308591 0.30610374 0
3.8020003 1.0278972 0.30581513 0
4.3150001 1.1686484 0.29100946 0
4.3070002 1.1591189 0.29124033 0
4.303 1.1508448 0.29135579 0
4.3010001 1.1431949 0.29141352 0
4.3000002 1.1358551 0.29144239 0
4.3000002 1.1288202 0.29144239 0
4.3010001 1.1220849 0.29141352 0
4.303 1.1156434 0.29135579 0
4.3060002 1.1094908 0.29126921 0
4.3099999 1.1036211 0.29115379 0
4.3140001 1.0977371 0.29103833 0
4.3210001 1.0927099 0.2908363 0
4.329 1.0879459 0.29060543 0
4.3400002 1.0840137 0.29028794 0
4.0620003 0.96464849 0.29831129 0
4.0570002 0.95667207 0.2984556 0
4.0540004 0.94925839 0.29854217 0
4.0540004 0.94266731 0.29854217 0
4.0550003 0.93634492 0.29851329 0
4.0580001 0.9305529 0.29842672 0
4.0610003 0.92475009 0.29834014 0
4.0669999 0.91972643 0.29816699 0
4.0760002 0.91546583 0.29790723 0
4.224 0.9403801 0.29363582 0
4.2150002 0.93117708 0.29389554 0
4.211 0.92327815 0.294011 0
4.2080002 0.9156462 0.2940976 0
4.2060003 0.90827596 0.2941553 0
4.2049999 0.90116167 0.29418418 0
4.2060003 0.89454538 0.2941553 0
4.2070003 0.88792533 0.29412645 0
4.21 0.88178879 0.29403988 0
4.2130003 0.87564135 0.29395327 0
4.217 0.86972308 0.29383785 0
4.2220001 0.86402845 0.29369354 0
4.23 0.8590247 0.29346263 0
4.2400002 0.85446107 0.29317403 0
3.8960001 1.3539572 0.29679608 0
3.8920002 1.3460565 0.29691875 0
3.8900003 1.338964 0.29698008 0
3.8900003 1.3326687 0.29698008 0
3.8910003 1.3267666 0.29694939 0
3.8930004 1.3212525 0.29688808 0
3.8960001 1.3161204 0.29679608 0
3.9010003 1.3117535 0.29664275 0
3.9080002 1.3081405 0.29642811 0
3.9180002 1.3056549 0.29612145 0
4.1690001 1.2321281 0.28842461 0
4.1680002 1.2249922 0.28845528 0
4.1680002 1.2181953 0.28845528 0
4.1690001 1.2117324 0.28842461 0
3.7830002 1.0768201 0.3002612 0
3.7790003 1.0693974 0.30038387 0
3.7770002 1.0626458 0.3004452 0
3.7760003 1.0562278 0.30047584 0
3.7770002 1.0504628 0.3004452 0
3.7790003 1.0450171 0.30038387 0
3.7820003 1.0398854 0.30029187 0
3.7860003 1.035062 0.3001692 0
3.7920003 1.0308591 0.29998523 0
3.8020003 1.0278972 0.29967856 0
4.3150001 1.1686484 0.28394756 0
4.3070002 1.1591189 0.28419286 0
4.303 1.1508448 0.28431553 0
4.3010001 1.1431949 0.28437686 0
4.3000002 1.1358551 0.28440753 0
4.3000002 1.1288202 0.28440753 0
4.3010001 1.1220849 0.28437686 0
4.303 1.1156434 0.28431553 0
4.3060002 1.1094908 0.28422356 0
4.3099999 1.1036211 0.28410089 0
4.3140001 1.0977371 0.28397822 0
4.3210001 1.0927099 0.28376356 0
4.329 1.0879459 0.28351825 0
4.3400002 1.0840137 0.28318095 0
4.0620003 0.96464849 0.29170573 0
4.0570002 0.95667207 0.29185906 0
4.0540004 0.94925839 0.29195106 0
4.0540004 0.94266731 0.29195106 0
4.0550003 0.93634492 0.29192039 0
4.0580001 0.9305529 0.29182839 0
4.0610003 0.92475009 0.29173639 0
4.0669999 0.91972643 0.29155242 0
4.0760002 0.91546583 0.29127643 0
4.224 0.9403801 0.28673804 0
4.2150002 0.93117708 0.28701404 0
4.211 0.92327815 0.28713667 0
4.2080002 0.9156462 0.2872287 0
4.2060003 0.90827596 0.28729001 0
4.2049999 0.90116167 0.28732067 0
4.2060003 0.89454538 0.28729001 0
4.2070003 0.88792533 0.28725934 0
4.21 0.88178879 0.28716737 0
4.2130003 0.87564135 0.28707534 0
4.217 0.86972308 0.2869527 0
4.2220001 0.86402845 0.28679937 0
4.23 0.8590247 0.28655407 0
4.2400002 0.85446107 0.28624743 0
3.8960001 1.3539572 0.29048997 0
3.8920002 1.3460565 0.29061985 0
3.8900003 1.338964 0.29068479 0
3.8900003 1.3326687 0.29068479 0
3.8910003 1.3267666 0.2906523 0
3.8930004 1.3212525 0.29058737 0
3.8960001 1.3161204 0.29048997 0
3.9010003 1.3117535 0.29032764 0
3.9080002 1.3081405 0.29010034 0
3.9180002 1.3056549 0.28977567 0
4.1690001 1.2321281 0.28162605 0
4.1680002 1.2249922 0.28165853 0
4.1680002 1.2181953 0.28165853 0
4.1690001 1.2117324 0.28162605 0
3.7830002 1.0768201 0.29415894 0
3.7790003 1.0693974 0.29428878 0
3.7770002 1.0626458 0.29435372 0
3.7760003 1.0562278 0.29438621 0
3.7770002 1.0504628 0.29435372 0
3.7790003 1.0450171 0.29428878 0
3.7820003 1.0398854 0.29419139 0
3.7860003 1.035062 0.29406151 0
3.7920003 1.0308591 0.29386669 0
3.8020003 1.0278972 0.29354203 0
4.3150001 1.1686484 0.27688566 0
4.3070002 1.1591189 0.27714539 0
4.303 1.1508448 0.27727526 0
4.3010001 1.1431949 0.2773402 0
4.3000002 1.1358551 0.27737266 0
4.3000002 1.1288202 0.27737266 0
4.3010001 1.1220849 0.2773402 0
4.303 1.1156434 0.27727526 0
4.3060002 1.1094908 0.27717787 0
4.3099999 1.1036211 0.27704799 0
4.3140001 1.0977371 0.27691811 0
4.3210001 1.0927099 0.27669084 0
4.329 1.0879459 0.27643108 0
4.3400002 1.0840137 0.27607393 0
4.0620003 0.96464849 0.28510019 0
4.0570002 0.95667207 0.28526253 0
4.0540004 0.94925839 0.28535995 0
4.0540004 0.94266731 0.28535995 0
4.0550003 0.93634492 0.28532746 0
4.0580001 0.9305529 0.28523007 0
4.0610003 0.92475009 0.28513265 0
4.0669999 0.91972643 0.28493786 0
4.0760002 0.91546583 0.28464565 0
4.224 0.9403801 0.27984029 0
4.2150002 0.93117708 0.2801325 0
4.211 0.92327815 0.28026238 0
4.2080002 0.9156462 0.2803598 0
4.2060003 0.90827596 0.28042471 0
4.2049999 0.90116167 0.2804572 0
4.2060003 0.89454538 0.28042471 0
4.2070003 0.88792533 0.28039226 0
4.21 0.88178879 0.28029484 0
4.2130003 0.87564135 0.28019744 0
4.217 0.86972308 0.28006756 0
4.2220001 0.86402845 0.27990523 0
4.23 0.8590247 0.27964547 0
4.2400002 0.85446107 0.27932078 0
3.8960001 1.3539572 0.28418386 0
3.8920002 1.3460565 0.28432095 0
3.8900003 1.338964 0.2843895 0
3.8900003 1.3326687 0.2843895 0
3.8910003 1.3267666 0.28435522 0
3.8930004 1.3212525 0.28428668 0
3.8960001 1.3161204 0.28418386 0
3.9010003 1.3117535 0.2840125 0
3.9080002 1.3081405 0.28377259 0
3.9180002 1.3056549 0.28342986 0
4.1690001 1.2321281 0.27482748 0
4.1680002 1.2249922 0.27486178 0
4.1680002 1.2181953 0.27486178 0
4.1690001 1.2117324 0.27482748 0
3.7830002 1.0768201 0.28805664 0
3.7790003 1.0693974 0.2881937 0
3.7770002 1.0626458 0.28826228 0
3.7760003 1.0562278 0.28829652 0
3.7770002 1.0504628 0.28826228 0
3.7790003 1.0450171 0.2881937 0
3.7820003 1.0398854 0.28809091 0
3.7860003 1.035062 0.28795382 0
3.7920003 1.0308591 0.28774816 0
3.8020003 1.0278972 0.28740546 0
4.3150001 1.1686484 0.26982373 0
4.3070002 1.1591189 0.27009791 0
4.303 1.1508448 0.270235 0
4.3010001 1.1431949 0.27030355 0
4.3000002 1.1358551 0.27033782 0
4.3000002 1.1288202 0.27033782 0
4.3010001 1.1220849 0.27030355 0
4.303 1.1156434 0.270235 0
4.3060002 1.1094908 0.27013218 0
4.3099999 1.1036211 0.26999509 0
4.3140001 1.0977371 0.269858 0
4.3210001 1.0927099 0.26961809 0
4.329 1.0879459 0.26934391 0
4.3400002 1.0840137 0.26896691 0
4.0620003 0.96464849 0.27849466 0
4.0570002 0.95667207 0.27866602 0
4.0540004 0.94925839 0.27876884 0
4.0540004 0.94266731 0.27876884 0
4.0550003 0.93634492 0.27873456 0
4.0580001 0.9305529 0.27863175 0
4.0610003 0.92475009 0.27852893 0
4.0669999 0.91972643 0.27832329 0
4.0760002 0.91546583 0.27801484 0
4.224 0.9403801 0.27294251 0
4.2150002 0.93117708 0.27325097 0
4.211 0.92327815 0.27338806 0
4.2080002 0.9156462 0.27349088 0
4.2060003 0.90827596 0.27355942 0
4.2049999 0.90116167 0.27359372 0
4.2060003 0.89454538 0.27355942 0
4.2070003 0.88792533 0.27352518 0
4.21 0.88178879 0.27342233 0
4.2130003 0.87564135 0.27331951 0
4.217 0.86972308 0.27318245 0
4.2220001 0.86402845 0.27301109 0
4.23 0.8590247 0.27273691 0
4.2400002 0.85446107 0.27239418 0
3.8960001 1.3539572 0.27787775 0
3.8920002 1.3460565 0.27802205 0
3.8900003 1.338964 0.2780942 0
3.8900003 1.3326687 0.2780942 0
3.8910003 1.3267666 0.27805811 0
3.8930004 1.3212525 0.27798596 0
3.8960001 1.3161204 0.27787775 0
3.9010003 1.3117535 0.27769735 0
3.9080002 1.3081405 0.27744484 0
3.9180002 1.3056549 0.27708405 0
4.1690001 1.2321281 0.26802894 0
4.1680002 1.2249922 0.26806504 0
4.1680002 1.2181953 0.26806504 0
4.1690001 1.2117324 0.26802894 0
3.7830002 1.0768201 0.28195435 0
3.7790003 1.0693974 0.28209865 0
3.7770002 1.0626458 0.2821708 0
3.7760003 1.0562278 0.28220689 0
3.7770002 1.0504628 0.2821708 0
3.7790003 1.0450171 0.28209865 0
3.7820003 1.0398854 0.28199041 0
3.7860003 1.035062 0.28184611 0
3.7920003 1.0308591 0.28162965 0
3.8020003 1.0278972 0.28126889 0
4.3150001 1.1686484 0.26276183 0
4.3070002 1.1591189 0.26305044 0
4.303 1.1508448 0.26319474 0
4.3010001 1.1431949 0.26326689 0
4.3000002 1.1358551 0.26330298 0
4.3000002 1.1288202 0.26330298 0
4.3010001 1.1220849 0.26326689 0
4.303 1.1156434 0.26319474 0
4.3060002 1.1094908 0.2630865 0
4.3099999 1.1036211 0.26294219 0
4.3140001 1.0977371 0.26279789 0
4.3210001 1.0927099 0.26254535 0
4.329 1.0879459 0.26225677 0
4.3400002 1.0840137 0.26185992 0
4.0620003 0.96464849 0.27188909 0
4.0570002 0.95667207 0.27206948 0
4.0540004 0.94925839 0.2721777 0
4.0540004 0.94266731 0.2721777 0
4.0550003 0.93634492 0.27214164 0
4.0580001 0.9305529 0.27203339 0
4.0610003 0.92475009 0.27192518 0
4.0669999 0.91972643 0.27170873 0
4.0760002 0.91546583 0.27138403 0
4.224 0.9403801 0.26604477 0
4.2150002 0.93117708 0.26636946 0
4.211 0.92327815 0.26651376 0
4.2080002 0.9156462 0.26662198 0
4.2060003 0.90827596 0.26669413 0
4.2049999 0.90116167 0.26673022 0
4.2060003 0.89454538 0.26669413 0
4.2070003 0.88792533 0.26665807 0
4.21 0.88178879 0.26654983 0
4.2130003 0.87564135 0.26644158 0
4.217 0.86972308 0.26629728 0
4.2220001 0.86402845 0.26611692 0
4.23 0.8590247 0.26582831 0
4.2400002 0.85446107 0.26546752 0
3.8960001 1.3539572 0.27157164 0
3.8920002 1.3460565 0.27172315 0
3.8900003 1.338964 0.27179891 0
3.8900003 1.3326687 0.27179891 0
3.8910003 1.3267666 0.27176103 0
3.8930004 1.3212525 0.27168527 0
3.8960001 1.3161204 0.27157164 0
3.9010003 1.3117535 0.27138221 0
3.9080002 1.3081405 0.27111709 0
3.9180002 1.3056549 0.27073824 0
4.1690001 1.2321281 0.26123038 0
4.1680002 1.2249922 0.26126826 0
4.1680002 1.2181953 0.26126826 0
4.1690001 1.2117324 0.26123038 0
3.7840002 1.077152 0.27581418 0
3.7790003 1.0693974 0.2760036 0
3.7770002 1.0626458 0.27607936 0
3.7760003 1.0562278 0.27611721 0
3.7770002 1.0504628 0.27607936 0
3.7790003 1.0450171 0.2760036 0
3.7820003 1.0398854 0.27588993 0
3.7860003 1.035062 0.27573842 0
3.7920003 1.0308591 0.27551115 0
3.8020003 1.0278972 0.27513236 0
4.3150001 1.1686484 0.25569993 0
4.3070002 1.1591189 0.25600296 0
4.303 1.1508448 0.25615448 0
4.3010001 1.1431949 0.25623024 0
4.3000002 1.1358551 0.25626814 0
4.3000002 1.1288202 0.25626814 0
4.3010001 1.1220849 0.25623024 0
4.303 1.1156434 0.25615448 0
4.3060002 1.1094908 0.25604084 0
4.3099999 1.1036211 0.25588933 0
4.3140001 1.0977371 0.25573778 0
4.3210001 1.0927099 0.25547266 0
4.329 1.0879459 0.2551696 0
4.3400002 1.0840137 0.25475293 0
4.0620003 0.96464849 0.26528355 0
4.0570002 0.95667207 0.26547295 0
4.0540004 0.94925839 0.26558658 0
4.0540004 0.94266731 0.26558658 0
4.0550003 0.93634492 0.26554871 0
4.0580001 0.9305529 0.26543507 0
4.0610003 0.92475009 0.26532143 0
4.0669999 0.91972643 0.26509416 0
4.0760002 0.91546583 0.26475322 0
4.224 0.9403801 0.25914699 0
4.2150002 0.93117708 0.25948793 0
4.211 0.92327815 0.25963944 0
4.2080002 0.9156462 0.25975308 0
4.2060003 0.90827596 0.25982884 0
4.2049999 0.90116167 0.25986671 0
4.2060003 0.89454538 0.25982884 0
4.2070003 0.88792533 0.25979096 0
4.21 0.88178879 0.25967732 0
4.2130003 0.87564135 0.25956368 0
4.217 0.86972308 0.25941217 0
4.2220001 0.86402845 0.25922275 0
4.23 0.8590247 0.25891972 0
4.2400002 0.85446107 0.25854093 0
3.8960001 1.3539572 0.26526552 0
3.8920002 1.3460565 0.26542425 0
3.8900003 1.338964 0.26550362 0
3.8900003 1.3326687 0.26550362 0
3.8910003 1.3267666 0.26546395 0
3.8930004 1.3212525 0.26538455 0
3.8960001 1.3161204 0.26526552 0
3.9010003 1.3117535 0.2650671 0
3.9080002 1.3081405 0.26478931 0
3.9180002 1.3056549 0.26439247 0
4.1690001 1.2321281 0.25443184 0
4.1680002 1.2249922 0.25447154 0
4.1680002 1.2181953 0.25447154 0
4.1690001 1.2117324 0.25443184 0
3.7840002 1.077152 0.26971012 0
3.7790003 1.0693974 0.26990852 0
3.7770002 1.0626458 0.26998788 0
3.7760003 1.0562278 0.27002758 0
3.7770002 1.0504628 0.26998788 0
3.7790003 1.0450171 0.26990852 0
3.7820003 1.0398854 0.26978946 0
3.7860003 1.035062 0.26963073 0
3.7920003 1.0308591 0.26939261 0
3.8020003 1.0278972 0.26899579 0
4.3150001 1.1686484 0.248638 0
4.3070002 1.1591189 0.24895547 0
4.303 1.1508448 0.24911422 0
4.3010001 1.1431949 0.24919358 0
4.3000002 1.1358551 0.24923328 0
4.3000002 1.1288202 0.24923328 0
4.3010001 1.1220849 0.24919358 0
4.303 1.1156434 0.24911422 0
4.3060002 1.1094908 0.24899516 0
4.3099999 1.1036211 0.24883643 0
4.3140001 1.0977371 0.24867769 0
4.3210001 1.0927099 0.2483999 0
4.329 1.0879459 0.24808244 0
4.3400002 1.0840137 0.24764591 0
4.0620003 0.96464849 0.25867802 0
4.0570002 0.95667207 0.25887644 0
4.0540004 0.94925839 0.25899547 0
4.0540004 0.94266731 0.25899547 0
4.0550003 0.93634492 0.25895578 0
4.0580001 0.9305529 0.25883675 0
4.0610003 0.92475009 0.25871769 0
4.0669999 0.91972643 0.2584796 0
4.0760002 0.91546583 0.25812244 0
4.224 0.9403801 0.25224924 0
4.2150002 0.93117708 0.25260639 0
4.211 0.92327815 0.25276512 0
4.2080002 0.9156462 0.25288418 0
4.2060003 0.90827596 0.25296354 0
4.2049999 0.90116167 0.25300324 0
4.2060003 0.89454538 0.25296354 0
4.2070003 0.88792533 0.25292385 0
4.21 0.88178879 0.25280482 0
4.2130003 0.87564135 0.25268576 0
4.217 0.86972308 0.252527 0
4.2220001 0.86402845 0.25232857 0
4.23 0.8590247 0.25201112 0
4.2400002 0.85446107 0.2516143 0
3.8960001 1.3539572 0.25895941 0
3.8920002 1.3460565 0.25912535 0
3.8900003 1.338964 0.25920832 0
3.8900003 1.3326687 0.25920832 0
3.8910003 1.3267666 0.25916684 0
3.8930004 1.3212525 0.25908387 0
3.8960001 1.3161204 0.25895941 0
3.9010003 1.3117535 0.25875196 0
3.9080002 1.3081405 0.25846153 0
3.9180002 1.3056549 0.25804669 0
4.1690001 1.2321281 0.24763329 0
4.1680002 1.2249922 0.24767478 0
4.1680002 1.2181953 0.24767478 0
4.1690001 1.2117324 0.24763329 0
3.7840002 1.077152 0.26360601 0
3.7790003 1.0693974 0.26381344 0
3.7770002 1.0626458 0.26389641 0
3.7760003 1.0562278 0.26393792 0
3.7770002 1.0504628 0.26389641 0
3.7790003 1.0450171 0.26381344 0
3.7820003 1.0398854 0.26368898 0
3.7860003 1.035062 0.26352304 0
3.7920003 1.0308591 0.2632741 0
3.8020003 1.0278972 0.26285923 0
4.3150001 1.1686484 0.24157611 0
4.3070002 1.1591189 0.241908 0
4.303 1.1508448 0.24207395 0
4.3010001 1.1431949 0.24215692 0
4.3000002 1.1358551 0.24219841 0
4.3000002 1.1288202 0.24219841 0
4.3010001 1.1220849 0.24215692 0
4.303 1.1156434 0.24207395 0
4.3060002 1.1094908 0.24194948 0
4.3099999 1.1036211 0.24178354 0
4.3140001 1.0977371 0.24161759 0
4.3210001 1.0927099 0.24132717 0
4.329 1.0879459 0.24099527 0
4.3400002 1.0840137 0.2405389 0
4.0620003 0.96464849 0.25207245 0
4.0570002 0.95667207 0.25227991 0
4.0540004 0.94925839 0.25240436 0
4.0540004 0.94266731 0.25240436 0
4.0550003 0.93634492 0.25236288 0
4.0580001 0.9305529 0.25223839 0
4.0610003 0.92475009 0.25211394 0
4.0669999 0.91972643 0.25186503 0
4.0760002 0.91546583 0.25149164 0
4.224 0.9403801 0.24535148 0
4.2150002 0.93117708 0.24572486 0
4.211 0.92327815 0.24589083 0
4.2080002 0.9156462 0.24601528 0
4.2060003 0.90827596 0.24609825 0
4.2049999 0.90116167 0.24613975 0
4.2060003 0.89454538 0.24609825 0
4.2070003 0.88792533 0.24605677 0
4.21 0.88178879 0.2459323 0
4.2130003 0.87564135 0.24580784 0
4.217 0.86972308 0.24564189 0
4.2220001 0.86402845 0.24543445 0
4.23 0.8590247 0.24510255 0
4.2400002 0.85446107 0.24468766 0
3.8960001 1.3539572 0.2526533 0
3.8920002 1.3460565 0.25282645 0
3.8900003 1.338964 0.25291303 0
3.8900003 1.3326687 0.25291303 0
3.8910003 1.3267666 0.25286973 0
3.8930004 1.3212525 0.25278315 0
3.8960001 1.3161204 0.2526533 0
3.9010003 1.3117535 0.25243682 0
3.9080002 1.3081405 0.25213379 0
3.9180002 1.3056549 0.25170088 0
4.1690001 1.2321281 0.24083473 0
4.1680002 1.2249922 0.24087803 0
4.1680002 1.2181953 0.24087803 0
4.1690001 1.2117324 0.24083473 0
3.7840002 1.077152 0.25750193 0
3.7790003 1.0693974 0.25771838 0
3.7770002 1.0626458 0.25780496 0
3.7760003 1.0562278 0.25784826 0
3.7770002 1.0504628 0.25780496 0
3.7790003 1.0450171 0.25771838 0
3.7820003 1.0398854 0.25758851 0
3.7860003 1.035062 0.25741535 0
3.7920003 1.0308591 0.2571556 0
3.8020003 1.0278972 0.25672269 0
4.3150001 1.1686484 0.23451419 0
4.3070002 1.1591189 0.23486052 0
4.303 1.1508448 0.23503369 0
4.3010001 1.1431949 0.23512027 0
4.3000002 1.1358551 0.23516355 0
4.3000002 1.1288202 0.23516355 0
4.3010001 1.1220849 0.23512027 0
4.303 1.1156434 0.23503369 0
4.3060002 1.1094908 0.23490381 0
4.3099999 1.1036211 0.23473065 0
4.3140001 1.0977371 0.23455748 0
4.3210001 1.0927099 0.23425445 0
4.329 1.0879459 0.23390812 0
4.3400002 1.0840137 0.23343191 0
4.0620003 0.96464849 0.24546692 0
4.0570002 0.95667207 0.24568337 0
4.0540004 0.94925839 0.24581324 0
4.0540004 0.94266731 0.24581324 0
4.0550003 0.93634492 0.24576996 0
4.0580001 0.9305529 0.24564007 0
4.0610003 0.92475009 0.24551021 0
4.0669999 0.91972643 0.24525046 0
4.0760002 0.91546583 0.24486084 0
4.224 0.9403801 0.23845372 0
4.2150002 0.93117708 0.23884334 0
4.211 0.92327815 0.2390165 0
4.2080002 0.9156462 0.23914638 0
4.2060003 0.90827596 0.23923294 0
4.2049999 0.90116167 0.23927626 0
4.2060003 0.89454538 0.23923294 0
4.2070003 0.88792533 0.23918967 0
4.21 0.88178879 0.23905979 0
4.2130003 0.87564135 0.23892991 0
4.217 0.86972308 0.23875676 0
4.2220001 0.86402845 0.23854029 0
4.23 0.8590247 0.23819396 0
4.2400002 0.85446107 0.23776105 0
3.8960001 1.3539572 0.24634717 0
3.8920002 1.3460565 0.24652755 0
3.8900003 1.338964 0.24661773 0
3.8900003 1.3326687 0.24661773 0
3.8910003 1.3267666 0.24657266 0
3.8930004 1.3212525 0.24648246 0
3.8960001 1.3161204 0.24634717 0
3.9010003 1.3117535 0.2461217 0
3.9080002 1.3081405 0.24580604 0
3.9180002 1.3056549 0.24535508 0
4.1690001 1.2321281 0.23403618 0
4.1680002 1.2249922 0.23408128 0
4.1680002 1.2181953 0.23408128 0
4.1690001 1.2117324 0.23403618 0
3.7840002 1.077152 0.25139785 0
3.7790003 1.0693974 0.2516233 0
3.7770002 1.0626458 0.25171351 0
3.7760003 1.0562278 0.25175861 0
3.7770002 1.0504628 0.25171351 0
3.7790003 1.0450171 0.2516233 0
3.7820003 1.0398854 0.25148803 0
3.7860003 1.035062 0.25130767 0
3.7920003 1.0308591 0.25103706 0
3.8020003 1.0278972 0.25058612 0
4.3150001 1.1686484 0.22745228 0
4.3070002 1.1591189 0.22781304 0
4.303 1.1508448 0.22799343 0
4.3010001 1.1431949 0.22808361 0
4.3000002 1.1358551 0.22812872 0
4.3000002 1.1288202 0.22812872 0
4.3010001 1.1220849 0.22808361 0
4.303 1.1156434 0.22799343 0
4.3060002 1.1094908 0.22785814 0
4.3099999 1.1036211 0.22767776 0
4.3140001 1.0977371 0.22749737 0
4.3210001 1.0927099 0.2271817 0
4.329 1.0879459 0.22682095 0
4.3400002 1.0840137 0.2263249 0
4.0620003 0.96464849 0.23886137 0
4.0570002 0.95667207 0.23908685 0
4.0540004 0.94925839 0.23922212 0
4.0540004 0.94266731 0.23922212 0
4.0550003 0.93634492 0.23917703 0
4.0580001 0.9305529 0.23904175 0
4.0610003 0.92475009 0.23890646 0
4.0669999 0.91972643 0.2386359 0
4.0760002 0.91546583 0.23823005 0
4.224 0.9403801 0.23155594 0
4.2150002 0.93117708 0.2319618 0
4.211 0.92327815 0.2321422 0
4.2080002 0.9156462 0.23227747 0
4.2060003 0.90827596 0.23236765 0
4.2049999 0.90116167 0.23241277 0
4.2060003 0.89454538 0.23236765 0
4.2070003 0.88792533 0.23232257 0
4.21 0.88178879 0.23218727 0
4.2130003 0.87564135 0.232052 0
4.217 0.86972308 0.23187162 0
4.2220001 0.86402845 0.23164614 0
4.23 0.8590247 0.23128536 0
4.2400002 0.85446107 0.23083442 0
3.8960001 1.3539572 0.24004106 0
3.8920002 1.3460565 0.24022867 0
3.8900003 1.338964 0.24032246 0
3.8900003 1.3326687 0.24032246 0
3.8910003 1.3267666 0.24027555 0
3.8930004 1.3212525 0.24018174 0
3.8960001 1.3161204 0.24004106 0
3.9010003 1.3117535 0.23980658 0
3.9080002 1.3081405 0.23947828 0
3.9180002 1.3056549 0.23900929 0
4.1690001 1.2321281 0.22723761 0
4.1680002 1.2249922 0.22728454 0
4.1680002 1.2181953 0.22728454 0
4.1690001 1.2117324 0.22723761 0
3.7840002 1.077152 0.24529375 0
3.7790003 1.0693974 0.24552825 0
3.7770002 1.0626458 0.24562205 0
3.7760003 1.0562278 0.24566895 0
3.7770002 1.0504628 0.24562205 0
3.7790003 1.0450171 0.24552825 0
3.7820003 1.0398854 0.24538754 0
3.7860003 1.035062 0.24519995 0
3.7920003 1.0308591 0.24491857 0
3.8020003 1.0278972 0.24444957 0
