# .PCD v0.7 - Point Cloud Data file format
VERSION 0.7
FIELDS x y z intensity
SIZE 4 4 4 4
TYPE F F F F
COUNT 1 1 1 1
WIDTH 1401
HEIGHT 1
VIEWPOINT 0 0 0 1 0 0 0
POINTS 1401
DATA ascii
4.1070004 -0.17304763 0.89213037 0
4.105 -0.1796622 0.89186704 0
4.105 -0.18634529 0.89186704 0
4.1059999 -0.1930681 0.89199865 0
4.1080003 -0.19983599 0.89226204 0
4.1110001 -0.20665438 0.89265704 0
4.1849999 -0.25764981 0.90240121 0
4.1920004 -0.26488131 0.90332299 0
4.1990004 -0.27213803 0.90424478 0
4.2060003 -0.27941999 0.90516651 0
4.2130003 -0.28672722 0.90608823 0
4.2200003 -0.29405969 0.90700996 0
4.2270002 -0.30141744 0.90793169 0
4.2340002 -0.30880043 0.90885353 0
4.2420001 -0.31627902 0.90990686 0
4.2490001 -0.32371432 0.91082871 0
4.257 -0.33124882 0.91188204 0
4.2639999 -0.33873644 0.91280377 0
4.2720003 -0.34632686 0.91385722 0
4.2790003 -0.35386679 0.91477895 0
4.132 -0.13351355 0.88869047 0
4.1259999 -0.14009385 0.8879112 0
4.119 -0.14662544 0.88700211 0
4.1140003 -0.1531895 0.88635278 0
4.1100001 -0.15976618 0.88583326 0
4.1070004 -0.16636091 0.88544369 0
4.1040001 -0.17294481 0.88505399 0
4.1030002 -0.17959003 0.88492411 0
4.1030002 -0.18626954 0.88492411 0
4.1030002 -0.19294904 0.88492411 0
4.1040001 -0.19967005 0.88505399 0
4.1070004 -0.20648122 0.88544369 0
4.1110001 -0.21334831 0.88596314 0
4.1849999 -0.25764981 0.89557385 0
4.1920004 -0.26488131 0.89648294 0
4.1990004 -0.27213803 0.89739203 0
4.2060003 -0.27941999 0.89830118 0
4.2130003 -0.28672722 0.89921033 0
4.2200003 -0.29405969 0.90011942 0
4.2270002 -0.30141744 0.90102851 0
4.2340002 -0.30880043 0.90193766 0
4.2420001 -0.31627902 0.90297669 0
4.2490001 -0.32371432 0.90388578 0
4.256 -0.33117488 0.90479493 0
4.2639999 -0.33873644 0.90583384 0
4.2710004 -0.34624931 0.90674305 0
4.2780004 -0.35378742 0.90765214 0
4.2860003 -0.36143196 0.90869117 0
4.2880001 -0.36860749 0.90895081 0
4.132 -0.13351355 0.88195872 0
4.1259999 -0.14009385 0.88119024 0
4.119 -0.14662544 0.88029379 0
4.1129999 -0.15316063 0.87952536 0
4.1090002 -0.15973552 0.87901306 0
4.105 -0.16629598 0.87850082 0
4.1020002 -0.17287627 0.87811661 0
4.1010003 -0.17951789 0.87798858 0
4.1000004 -0.1861559 0.87786043 0
4.1000004 -0.19283 0.87786043 0
4.1010003 -0.19954556 0.87798858 0
4.1020002 -0.20626476 0.87811661 0
4.1059999 -0.21312283 0.87862885 0
4.1849999 -0.25764981 0.88874638 0
4.1920004 -0.26488131 0.88964295 0
4.1990004 -0.27213803 0.89053941 0
4.2060003 -0.27941999 0.89143586 0
4.2130003 -0.28672722 0.89233243 0
4.2200003 -0.29405969 0.89322889 0
4.2270002 -0.30141744 0.89412534 0
4.2340002 -0.30880043 0.89502192 0
4.2420001 -0.31627902 0.8960464 0
4.2490001 -0.32371432 0.89694297 0
4.256 -0.33117488 0.89783943 0
4.2639999 -0.33873644 0.89886391 0
4.2710004 -0.34624931 0.89976048 0
4.2780004 -0.35378742 0.90065694 0
4.2840004 -0.36126962 0.90142536 0
4.2840004 -0.36827561 0.90142536 0
4.2860003 -0.37545115 0.90168154 0
4.132 -0.13351355 0.87522686 0
4.1270003 -0.14011911 0.87459552 0
4.119 -0.14662544 0.87358546 0
4.1129999 -0.15316063 0.87282777 0
4.1070004 -0.1596742 0.87207019 0
4.1030002 -0.16623102 0.8715651 0
4.1010003 -0.172842 0.87131262 0
4.098 -0.17940967 0.87093383 0
4.0970001 -0.18604228 0.87080753 0
4.0970001 -0.19271095 0.87080753 0
4.0970001 -0.19937962 0.87080753 0
4.099 -0.20613487 0.87106013 0
4.1010003 -0.21289738 0.87131262 0
4.1059999 -0.21980774 0.87194395 0
4.1920004 -0.26488131 0.8828029 0
4.1990004 -0.27213803 0.88368678 0
4.2060003 -0.27941999 0.8845706 0
4.2130003 -0.28672722 0.88545442 0
4.2200003 -0.29405969 0.88633835 0
4.2270002 -0.30141744 0.88722217 0
4.2340002 -0.30880043 0.88810605 0
4.2420001 -0.31627902 0.88911617 0
4.2490001 -0.32371432 0.8900001 0
4.256 -0.33117488 0.89088392 0
4.2639999 -0.33873644 0.8918941 0
4.2710004 -0.34624931 0.89277798 0
4.2780004 -0.35378742 0.89366186 0
4.2810001 -0.36102611 0.89404058 0
4.2810001 -0.36802667 0.89404058 0
4.2820001 -0.37511203 0.89416689 0
4.2850003 -0.38237417 0.89454567 0
4.132 -0.13351355 0.86849505 0
4.1270003 -0.14011911 0.86787277 0
4.119 -0.14662544 0.86687702 0
4.112 -0.15313178 0.86600584 0
4.1059999 -0.15964353 0.86525905 0
4.1020002 -0.16619857 0.86476117 0
4.099 -0.17277345 0.86438775 0
4.0960002 -0.1793375 0.86401439 0
4.0950003 -0.18596651 0.86388993 0
4.0940003 -0.19259189 0.86376548 0
4.0940003 -0.19925517 0.86376548 0
4.0950003 -0.20596172 0.86388993 0
4.0970001 -0.21271698 0.86413884 0
4.1000004 -0.21952635 0.86451226 0
4.1920004 -0.26488131 0.87596285 0
4.1990004 -0.27213803 0.87683403 0
4.2060003 -0.27941999 0.87770534 0
4.2130003 -0.28672722 0.87857652 0
4.2200003 -0.29405969 0.87944782 0
4.2270002 -0.30141744 0.880319 0
4.2340002 -0.30880043 0.8811903 0
4.2420001 -0.31627902 0.882186 0
4.2490001 -0.32371432 0.88305724 0
4.256 -0.33117488 0.88392848 0
4.2639999 -0.33873644 0.88492411 0
4.2710004 -0.34624931 0.88579541 0
4.2780004 -0.35378742 0.88666666 0
4.2780004 -0.36078259 0.88666666 0
4.2780004 -0.36777776 0.88666666 0
4.2780004 -0.37477291 0.88666666 0
4.2800002 -0.38194123 0.88691556 0
4.132 -0.13351355 0.86176324 0
4.1270003 -0.14011911 0.86114997 0
4.1200004 -0.1466525 0.86029136 0
4.112 -0.15313178 0.85931009 0
4.1059999 -0.15964353 0.85857415 0
4.1010003 -0.1661661 0.85796082 0
4.0970001 -0.17270491 0.85747015 0
4.0940003 -0.17926537 0.85710222 0
4.092 -0.18585287 0.85685694 0
4.0910001 -0.19247285 0.85673428 0
4.0910001 -0.1991307 0.85673428 0
4.0910001 -0.20578855 0.85673428 0
4.0929999 -0.2125366 0.85697955 0
4.0960002 -0.21933876 0.85734749 0
4.1000004 -0.22620046 0.85783815 0
4.1990004 -0.27213803 0.86998141 0
4.2060003 -0.27941999 0.87084001 0
4.2130003 -0.28672722 0.87169862 0
4.2200003 -0.29405969 0.87255722 0
4.2270002 -0.30141744 0.87341583 0
4.2340002 -0.30880043 0.87427449 0
4.2420001 -0.31627902 0.8752557 0
4.2490001 -0.32371432 0.87611437 0
4.256 -0.33117488 0.87697291 0
4.2639999 -0.33873644 0.87795424 0
4.2710004 -0.34624931 0.87881291 0
4.276 -0.35362867 0.87942612 0
4.2750001 -0.36053908 0.87930351 0
4.2750001 -0.36752883 0.87930351 0
4.2750001 -0.3745186 0.87930351 0
4.276 -0.3815949 0.87942612 0
4.2790003 -0.38885164 0.87979412 0
4.132 -0.13351355 0.85503143 0
4.1270003 -0.14011911 0.85442716 0
4.1220002 -0.14670661 0.85382289 0
4.112 -0.15313178 0.85261434 0
4.1059999 -0.15964353 0.85188919 0
4.1000004 -0.16613363 0.8511641 0
4.0960002 -0.17267063 0.85068065 0
4.0929999 -0.17922927 0.85031807 0
4.0900002 -0.1857771 0.84995556 0
4.0890002 -0.19239347 0.84983468 0
4.0880003 -0.19900623 0.8497138 0
4.0880003 -0.20565869 0.8497138 0
4.0890002 -0.21235622 0.84983468 0
4.0910001 -0.21910426 0.85007638 0
4.0950003 -0.22595693 0.85055983 0
4.1990004 -0.27213803 0.86312878 0
4.2060003 -0.27941999 0.86397469 0
4.2130003 -0.28672722 0.86482072 0
4.2200003 -0.29405969 0.86566675 0
4.2270002 -0.30141744 0.86651266 0
4.2340002 -0.30880043 0.86735868 0
4.2420001 -0.31627902 0.86832547 0
4.2490001 -0.32371432 0.8691715 0
4.256 -0.33117488 0.87001753 0
4.2639999 -0.33873644 0.87098432 0
4.2710004 -0.34624931 0.87183034 0
4.2750001 -0.35354933 0.87231374 0
4.2730002 -0.36037672 0.87207198 0
4.2710004 -0.36719692 0.87183034 0
4.2720003 -0.37426424 0.87195116 0
4.2720003 -0.38124859 0.87195116 0
4.2750001 -0.3884981 0.87231374 0
4.132 -0.13351355 0.84829962 0
4.1270003 -0.14011911 0.84770441 0
4.1230001 -0.14673367 0.84722817 0
4.1129999 -0.15316063 0.84603763 0
4.105 -0.15961286 0.84508526 0
4.099 -0.16610116 0.84437096 0
4.0950003 -0.17263636 0.84389472 0
4.0910001 -0.17915714 0.84341854 0
4.0880003 -0.18570134 0.84306139 0
4.086 -0.19227442 0.84282327 0
4.085 -0.19888178 0.84270418 0
4.085 -0.2055288 0.84270418 0
4.086 -0.21222092 0.84282327 0
4.0870004 -0.21891667 0.84294236 0
4.0900002 -0.22571342 0.84329951 0
4.1990004 -0.27213803 0.85627609 0
4.2060003 -0.27941999 0.85710943 0
4.2130003 -0.28672722 0.85794282 0
4.2200003 -0.29405969 0.85877615 0
4.2270002 -0.30141744 0.85960948 0
4.2340002 -0.30880043 0.86044288 0
4.2420001 -0.31627902 0.8613953 0
4.2490001 -0.32371432 0.86222863 0
4.256 -0.33117488 0.86306202 0
4.2639999 -0.33873644 0.86401439 0
4.2710004 -0.34624931 0.86484778 0
4.2730002 -0.35339057 0.86508584 0
4.27 -0.3601332 0.86472869 0
4.2690001 -0.36703098 0.86460972 0
4.2680001 -0.37392512 0.86449063 0
4.2690001 -0.38098884 0.86460972 0
4.27 -0.38805616 0.86472869 0
4.2730002 -0.39530748 0.86508584 0
4.132 -0.13351355 0.84156775 0
4.1270003 -0.14011911 0.8409816 0
4.1230001 -0.14673367 0.84051263 0
4.1140003 -0.1531895 0.83945739 0
4.1059999 -0.15964353 0.83851933 0
4.099 -0.16610116 0.83769864 0
4.0940003 -0.17260209 0.83711243 0
4.0900002 -0.17912105 0.8366434 0
4.0870004 -0.18566346 0.83629167 0
4.0840001 -0.19219506 0.83593994 0
4.0830002 -0.19879879 0.8358227 0
4.0820003 -0.20539893 0.83570546 0
4.0820003 -0.21204054 0.83570546 0
4.0840001 -0.21877597 0.83593994 0
4.086 -0.2255186 0.83617443 0
4.0900002 -0.23236947 0.8366434 0
4.2060003 -0.27941999 0.85024416 0
4.2130003 -0.28672722 0.85106486 0
4.2200003 -0.29405969 0.85188562 0
4.2270002 -0.30141744 0.85270631 0
4.2340002 -0.30880043 0.85352707 0
4.2420001 -0.31627902 0.85446501 0
4.2490001 -0.32371432 0.85528576 0
4.256 -0.33117488 0.85610652 0
4.2639999 -0.33873644 0.85704446 0
4.2710004 -0.34624931 0.85786521 0
4.2710004 -0.35323182 0.85786521 0
4.2680001 -0.35997087 0.85751349 0
4.2670002 -0.36686501 0.85739625 0
4.2650003 -0.37367079 0.85716176 0
4.2650003 -0.38064253 0.85716176 0
4.2670002 -0.38779098 0.85739625 0
4.2690001 -0.39494672 0.85763073 0
4.132 -0.13351355 0.83483601 0
4.1270003 -0.14011911 0.83425879 0
4.1230001 -0.14673367 0.83379698 0
4.1160002 -0.15324722 0.83298886 0
4.1059999 -0.15964353 0.83183444 0
4.099 -0.16610116 0.83102632 0
4.0929999 -0.17256781 0.83033371 0
4.0890002 -0.17908497 0.82987189 0
4.085 -0.1855877 0.82941014 0
4.0820003 -0.19211569 0.82906377 0
4.0810003 -0.19871582 0.82894838 0
4.079 -0.20526905 0.82871747 0
4.079 -0.21190527 0.82871747 0
4.0799999 -0.21858837 0.82883292 0
4.0820003 -0.2253238 0.82906377 0
4.085 -0.23211694 0.82941014 0
4.2060003 -0.27941999 0.84337884 0
4.2130003 -0.28672722 0.84418696 0
4.2200003 -0.29405969 0.84499502 0
4.2270002 -0.30141744 0.84580314 0
4.2340002 -0.30880043 0.84661126 0
4.2420001 -0.31627902 0.84753478 0
4.2490001 -0.32371432 0.8483429 0
4.256 -0.33117488 0.84915102 0
4.2639999 -0.33873644 0.85007453 0
4.2710004 -0.34624931 0.85088265 0
4.2690001 -0.35307309 0.8506518 0
4.2660003 -0.3598085 0.85030544 0
4.2639999 -0.36661607 0.85007453 0
4.263 -0.37350121 0.84995914 0
4.2620001 -0.38038275 0.84984368 0
4.263 -0.38743743 0.84995914 0
4.2639999 -0.39449573 0.85007453 0
4.2680001 -0.40183365 0.85053635 0
4.2380004 -0.011384916 0.84015 0
4.2450004 -0.018257428 0.84094548 0
4.2509999 -0.025160603 0.84162736 0
4.132 -0.13351355 0.8281042 0
4.1270003 -0.14011911 0.82753599 0
4.1230001 -0.14673367 0.82708144 0
4.119 -0.1533338 0.8266269 0
4.1070004 -0.1596742 0.8252632 0
4.099 -0.16610116 0.82435405 0
4.0929999 -0.17256781 0.82367224 0
4.0870004 -0.17901282 0.82299042 0
4.0830002 -0.18551195 0.82253581 0
4.0810003 -0.192076 0.82230854 0
4.0780001 -0.19859135 0.82196766 0
4.0770001 -0.20518248 0.821854 0
4.0760002 -0.21176997 0.82174039 0
4.0770001 -0.21844769 0.821854 0
4.0780001 -0.22512899 0.82196766 0
4.0810003 -0.23191492 0.82230854 0
4.085 -0.23876397 0.82276309 0
4.2130003 -0.28672722 0.837309 0
4.2200003 -0.29405969 0.83810449 0
4.2270002 -0.30141744 0.83889997 0
4.2340002 -0.30880043 0.83969545 0
4.2420001 -0.31627902 0.8406046 0
4.2490001 -0.32371432 0.84140003 0
4.256 -0.33117488 0.84219551 0
4.2639999 -0.33873644 0.84310466 0
4.2710004 -0.34624931 0.84390014 0
4.2680001 -0.35299376 0.84355927 0
4.2650003 -0.35972738 0.84321833 0
4.2620001 -0.36645013 0.84287739 0
4.2600002 -0.37324691 0.84265006 0
4.2590003 -0.38012302 0.84253645 0
4.2590003 -0.38708389 0.84253645 0
4.2610002 -0.39422521 0.84276378 0
4.263 -0.40137365 0.84299099 0
4.243 0.0094562806 0.83378619 0
4.2360001 0.0024358593 0.83300334 0
4.2309999 -0.0045376644 0.83244413 0
4.2380004 -0.011384916 0.83322704 0
4.2450004 -0.018257428 0.83400989 0
4.2509999 -0.025160603 0.83468091 0
4.2580004 -0.032081816 0.83546376 0
4.2650003 -0.039028279 0.83624661 0
4.132 -0.13351355 0.82137239 0
4.1270003 -0.14011911 0.82081318 0
4.1230001 -0.14673367 0.82036591 0
4.1200004 -0.15336266 0.82003033 0
4.1090002 -0.15973552 0.81880015 0
4.099 -0.16610116 0.81768179 0
4.092 -0.17253354 0.81689894 0
4.0870004 -0.17901282 0.81633979 0
4.0820003 -0.18547407 0.81578058 0
4.079 -0.19199663 0.81544507 0
4.0760002 -0.19850838 0.81510955 0
4.0750003 -0.20509589 0.81499767 0
4.0740004 -0.21167979 0.81488585 0
4.0740004 -0.21830699 0.81488585 0
4.0750003 -0.22498287 0.81499767 0
4.0760002 -0.23166238 0.81510955 0
4.0799999 -0.23850241 0.81555688 0
4.2130003 -0.28672722 0.8304311 0
4.2200003 -0.29405969 0.83121395 0
4.2270002 -0.30141744 0.8319968 0
4.2340002 -0.30880043 0.83277965 0
4.2420001 -0.31627902 0.83367431 0
4.2490001 -0.32371432 0.83445722 0
4.256 -0.33117488 0.83524001 0
4.2639999 -0.33873644 0.83613473 0
4.2710004 -0.34624931 0.83691764 0
4.2670002 -0.35291436 0.83647025 0
4.263 -0.35956502 0.83602291 0
4.2600002 -0.36628419 0.8356874 0
4.2580004 -0.37307736 0.83546376 0
4.257 -0.37994984 0.83535188 0
4.256 -0.38681877 0.83524001 0
4.257 -0.39386442 0.83535188 0
4.2590003 -0.40100569 0.83557558 0
4.2620001 -0.40824798 0.83591104 0
4.243 0.0094562806 0.82685411 0
4.2360001 0.0024358593 0.8260839 0
4.2309999 -0.0045376644 0.82553375 0
4.2380004 -0.011384916 0.82630396 0
4.2450004 -0.018257428 0.82707423 0
4.2509999 -0.025160603 0.82773441 0
4.2580004 -0.032081816 0.82850468 0
4.2650003 -0.039028279 0.82927489 0
4.2720003 -0.046 0.8300451 0
4.2780004 -0.052995168 0.83070529 0
4.2850003 -0.060015589 0.8314755 0
4.2920003 -0.067061268 0.83224571 0
4.2990003 -0.074132189 0.83301592 0
4.132 -0.13351355 0.81464052 0
4.1270003 -0.14011911 0.81409037 0
4.1230001 -0.14673367 0.81365025 0
4.1200004 -0.15336266 0.81332016 0
4.1110001 -0.15979685 0.81232989 0
4.1000004 -0.16613363 0.81111956 0
4.092 -0.17253354 0.81023926 0
4.086 -0.17897674 0.80957907 0
4.0810003 -0.18543619 0.80902892 0
4.0770001 -0.19191727 0.8085888 0
4.0750003 -0.1984669 0.80836874 0
4.072 -0.20496602 0.80803859 0
4.0710001 -0.21154451 0.80792856 0
4.0710001 -0.21816629 0.80792856 0
4.0710001 -0.22478807 0.80792856 0
4.073 -0.23151085 0.80814862 0
4.0750003 -0.23824087 0.80836874 0
4.0799999 -0.24514043 0.80891889 0
4.2200003 -0.29405969 0.82432342 0
4.2270002 -0.30141744 0.82509363 0
4.2340002 -0.30880043 0.82586384 0
4.2420001 -0.31627902 0.82674414 0
4.2490001 -0.32371432 0.82751435 0
4.256 -0.33117488 0.82828462 0
4.2639999 -0.33873644 0.82916486 0
4.2710004 -0.34624931 0.82993507 0
4.2660003 -0.352835 0.82938492 0
4.2620001 -0.35948384 0.8289448 0
4.2580004 -0.36611825 0.82850468 0
4.256 -0.37290779 0.82828462 0
4.2540002 -0.37969008 0.8280645 0
4.2530003 -0.38655359 0.82795447 0
4.2530003 -0.39350367 0.82795447 0
4.2550001 -0.40063772 0.82817453 0
4.257 -0.40777901 0.82839459 0
4.243 0.0094562806 0.81992209 0
4.2360001 0.0024358593 0.81916451 0
4.2309999 -0.0045376644 0.81862336 0
4.2380004 -0.011384916 0.819381 0
4.2450004 -0.018257428 0.82013857 0
4.2509999 -0.025160603 0.82078791 0
4.2580004 -0.032081816 0.82154554 0
4.2650003 -0.039028279 0.82230318 0
4.2720003 -0.046 0.82306075 0
4.2780004 -0.052995168 0.82371014 0
4.2850003 -0.060015589 0.82446772 0
4.2920003 -0.067061268 0.82522535 0
4.2990003 -0.074132189 0.82598293 0
4.3060002 -0.081228375 0.8267405 0
4.3130002 -0.088349804 0.82749808 0
4.132 -0.13351355 0.80790877 0
4.1270003 -0.14011911 0.80736762 0
4.1230001 -0.14673367 0.80693471 0
4.1200004 -0.15336266 0.80660999 0
4.1150002 -0.15991952 0.8060689 0
4.1020002 -0.16619857 0.80466187 0
4.0929999 -0.17256781 0.80368781 0
4.086 -0.17897674 0.80293024 0
4.0799999 -0.1853983 0.8022809 0
4.0760002 -0.19187757 0.80184793 0
4.073 -0.19838391 0.80152327 0
4.0700002 -0.20487943 0.8011986 0
4.0690002 -0.21145432 0.80109036 0
4.0680003 -0.21802558 0.80098212 0
4.0680003 -0.22464195 0.80098212 0
4.0690002 -0.23130883 0.80109036 0
4.0710001 -0.23803163 0.80130684 0
4.0740004 -0.24481575 0.80163151 0
4.2200003 -0.29405969 0.81743288 0
4.2270002 -0.30141744 0.81819046 0
4.2340002 -0.30880043 0.81894803 0
4.2420001 -0.31627902 0.81981391 0
4.2490001 -0.32371432 0.82057154 0
4.256 -0.33117488 0.82132912 0
4.2639999 -0.33873644 0.82219493 0
4.2710004 -0.34624931 0.82295251 0
4.2660003 -0.352835 0.82241136 0
4.2610002 -0.35940266 0.82187021 0
4.257 -0.36603528 0.82143736 0
4.2540002 -0.37273821 0.82111263 0
4.2520003 -0.37951693 0.82089615 0
4.2509999 -0.3863768 0.82078791 0
4.25 -0.39323306 0.82067972 0
4.2509999 -0.40026972 0.82078791 0
4.2530003 -0.4074038 0.82100439 0
4.256 -0.41464069 0.82132912 0
4.25 0.016501952 0.81373501 0
4.243 0.0094562806 0.81299007 0
4.2360001 0.0024358593 0.81224513 0
4.2309999 -0.0045376644 0.81171298 0
4.2380004 -0.011384916 0.81245798 0
4.2450004 -0.018257428 0.81320292 0
4.2509999 -0.025160603 0.81384146 0
4.2580004 -0.032081816 0.81458646 0
4.2650003 -0.039028279 0.81533146 0
4.2720003 -0.046 0.8160764 0
4.2780004 -0.052995168 0.81671494 0
4.2850003 -0.060015589 0.81745994 0
4.2920003 -0.067061268 0.81820488 0
4.2990003 -0.074132189 0.81894988 0
4.3060002 -0.081228375 0.81969488 0
4.3130002 -0.088349804 0.82043982 0
4.3200002 -0.095496498 0.82118475 0
4.132 -0.13351355 0.80117691 0
4.1270003 -0.14011911 0.80064487 0
4.1230001 -0.14673367 0.80021912 0
4.1200004 -0.15336266 0.79989982 0
4.119 -0.16004217 0.79979342 0
4.1040001 -0.16626351 0.79819703 0
4.0929999 -0.17256781 0.7970264 0
4.085 -0.17894067 0.796175 0
4.0799999 -0.1853983 0.79564285 0
4.0750003 -0.19183791 0.7951107 0
4.0710001 -0.19830094 0.79468507 0
4.0680003 -0.20479286 0.79436576 0
4.066 -0.21131903 0.79415292 0
4.0650001 -0.2178849 0.79404652 0
4.0650001 -0.22449584 0.79404652 0
4.0650001 -0.2311068 0.79404652 0
4.0669999 -0.23782238 0.79425931 0
4.0700002 -0.2445993 0.79457855 0
4.0740004 -0.25144294 0.79500437 0
4.2270002 -0.30141744 0.81128728 0
4.2340002 -0.30880043 0.81203222 0
4.2420001 -0.31627902 0.81288362 0
4.2490001 -0.32371432 0.81362867 0
4.256 -0.33117488 0.81437361 0
4.2639999 -0.33873644 0.81522501 0
4.2710004 -0.34624931 0.81597 0
4.2650003 -0.35275564 0.81533146 0
4.2600002 -0.3593215 0.81479931 0
4.256 -0.36595228 0.81437361 0
4.2520003 -0.37256867 0.81394792 0
4.25 -0.37934375 0.81373501 0
4.2480001 -0.38611168 0.81352222 0
4.2470002 -0.39296252 0.81341577 0
4.2470002 -0.39990175 0.81341577 0
4.2490001 -0.40702862 0.81362867 0
4.2509999 -0.41416267 0.81384146 0
4.25 0.016501952 0.80679035 0
4.243 0.0094562806 0.80605805 0
4.2360001 0.0024358593 0.80532569 0
4.2309999 -0.0045376644 0.80480254 0
4.2380004 -0.011384916 0.80553496 0
4.2450004 -0.018257428 0.80626726 0
4.2509999 -0.025160603 0.80689502 0
4.2580004 -0.032081816 0.80762738 0
4.2650003 -0.039028279 0.80835974 0
4.2720003 -0.046 0.80909204 0
4.2780004 -0.052995168 0.8097198 0
4.2850003 -0.060015589 0.8104521 0
4.2920003 -0.067061268 0.81118447 0
4.2990003 -0.074132189 0.81191683 0
4.3060002 -0.081228375 0.81264913 0
4.3130002 -0.088349804 0.81338149 0
4.3200002 -0.095496498 0.81411386 0
4.132 -0.13351355 0.79444516 0
4.1270003 -0.14011911 0.79392207 0
4.1230001 -0.14673367 0.79350352 0
4.1200004 -0.15336266 0.79318964 0
4.119 -0.16004217 0.7930851 0
4.1080003 -0.16639338 0.79193425 0
4.0950003 -0.17263636 0.79057419 0
4.086 -0.17897674 0.78963256 0
4.079 -0.18536042 0.7889002 0
4.0740004 -0.19179821 0.78837711 0
4.0700002 -0.19825946 0.78795862 0
4.0669999 -0.20474955 0.78764474 0
4.0640001 -0.21122885 0.78733087 0
4.0630002 -0.2177911 0.78722632 0
4.0620003 -0.22434975 0.78712165 0
4.0620003 -0.23095529 0.78712165 0
4.0630002 -0.23761314 0.78722632 0
4.066 -0.24438283 0.78754014 0
4.0690002 -0.25116333 0.78785396 0
4.2270002 -0.30141744 0.80438411 0
4.2350001 -0.30886897 0.80522108 0
4.2420001 -0.31627902 0.80595344 0
4.2490001 -0.32371432 0.80668581 0
4.256 -0.33117488 0.80741811 0
4.2639999 -0.33873644 0.80825508 0
4.2710004 -0.34624931 0.80898744 0
4.2650003 -0.35275564 0.80835974 0
4.2590003 -0.35924032 0.80773199 0
4.2540002 -0.36578631 0.8072089 0
4.25 -0.37239912 0.80679035 0
4.2480001 -0.3791706 0.80658114 0
4.2460003 -0.38593489 0.80637193 0
4.244 -0.39269194 0.80616266 0
4.244 -0.39962578 0.80616266 0
4.2450004 -0.40665343 0.80626726 0
4.2470002 -0.41378027 0.80647653 0
4.25 -0.42101175 0.80679035 0
4.25 0.016501952 0.7998457 0
4.243 0.0094562806 0.79912603 0
4.2360001 0.0024358593 0.79840624 0
4.2309999 -0.0045376644 0.79789221 0
4.2380004 -0.011384916 0.79861194 0
4.2450004 -0.018257428 0.79933167 0
4.2509999 -0.025160603 0.79994857 0
4.2580004 -0.032081816 0.8006683 0
4.2650003 -0.039028279 0.80138803 0
4.2720003 -0.046 0.80210769 0
4.2780004 -0.052995168 0.8027246 0
4.2850003 -0.060015589 0.80344433 0
4.2920003 -0.067061268 0.80416405 0
4.2990003 -0.074132189 0.80488378 0
4.3060002 -0.081228375 0.8056035 0
4.3130002 -0.088349804 0.80632317 0
4.3200002 -0.095496498 0.8070429 0
4.132 -0.13351355 0.78771329 0
4.1270003 -0.14011911 0.78719926 0
4.1230001 -0.14673367 0.78678799 0
4.1200004 -0.15336266 0.78647947 0
4.119 -0.16004217 0.78637671 0
4.1140003 -0.16658819 0.78586262 0
4.0960002 -0.17267063 0.7840119 0
4.086 -0.17897674 0.78298372 0
4.079 -0.18536042 0.78226399 0
4.073 -0.19175853 0.78164709 0
4.0690002 -0.19821796 0.78123581 0
4.0650001 -0.20466298 0.78082454 0
4.0620003 -0.21113865 0.78051615 0
4.0610003 -0.21769729 0.78041333 0
4.059 -0.22420363 0.78020763 0
4.059 -0.23080376 0.78020763 0
4.0599999 -0.2374562 0.78031051 0
4.0610003 -0.24411227 0.78041333 0
4.0650001 -0.25093967 0.78082454 0
4.0690002 -0.25778151 0.78123581 0
4.2350001 -0.30886897 0.79830348 0
4.2420001 -0.31627902 0.79902321 0
4.2490001 -0.32371432 0.79974294 0
4.256 -0.33117488 0.8004626 0
4.2639999 -0.33873644 0.80128515 0
4.2710004 -0.34624931 0.80200493 0
4.2660003 -0.352835 0.80149078 0
4.2590003 -0.35924032 0.80077112 0
4.2530003 -0.36570337 0.80015421 0
4.2490001 -0.37231433 0.79974294 0
4.2460003 -0.37899742 0.79943448 0
4.243 -0.38566971 0.79912603 0
4.2420001 -0.39251155 0.79902321 0
4.2410002 -0.39934981 0.79892039 0
4.2410002 -0.40627822 0.79892039 0
4.243 -0.41339788 0.79912603 0
4.2460003 -0.42062211 0.79943448 0
4.25 0.016501952 0.79290104 0
4.243 0.0094562806 0.79219401 0
4.2360001 0.0024358593 0.79148686 0
4.2309999 -0.0045376644 0.79098183 0
4.2380004 -0.011384916 0.79168892 0
4.2450004 -0.018257428 0.79239601 0
4.2509999 -0.025160603 0.79300207 0
4.2580004 -0.032081816 0.79370916 0
4.2650003 -0.039028279 0.79441631 0
4.2720003 -0.046 0.79512334 0
4.2780004 -0.052995168 0.79572946 0
4.2850003 -0.060015589 0.79643655 0
4.2920003 -0.067061268 0.79714364 0
4.2990003 -0.074132189 0.79785073 0
4.3060002 -0.081228375 0.79855782 0
4.3130002 -0.088349804 0.79926491 0
4.3200002 -0.095496498 0.799972 0
4.132 -0.13351355 0.78098148 0
4.1270003 -0.14011911 0.78047645 0
4.1230001 -0.14673367 0.78007245 0
4.1200004 -0.15336266 0.7797693 0
4.119 -0.16004217 0.77966833 0
4.118 -0.16671807 0.7795673 0
4.1000004 -0.17280772 0.77774906 0
4.0880003 -0.1790489 0.77653694 0
4.079 -0.18536042 0.77562779 0
4.073 -0.19175853 0.77502167 0
4.0680003 -0.19817649 0.7745167 0
4.0640001 -0.20461969 0.77411258 0
4.0610003 -0.21109356 0.77380955 0
4.0580001 -0.21755661 0.77350652 0
4.0570002 -0.22410621 0.77340549 0
4.0560002 -0.23065224 0.77330446 0
4.0570002 -0.23729928 0.77340549 0
4.0580001 -0.24394992 0.77350652 0
4.0599999 -0.25066006 0.77370858 0
4.0640001 -0.2574929 0.77411258 0
4.2350001 -0.30886897 0.79138589 0
4.2420001 -0.31627902 0.79209292 0
4.2490001 -0.32371432 0.79280007 0
4.256 -0.33117488 0.7935071 0
4.2639999 -0.33873644 0.79431522 0
4.2710004 -0.34624931 0.79502237 0
4.2660003 -0.352835 0.79451728 0
4.2580004 -0.35915917 0.79370916 0
4.2530003 -0.36570337 0.79320407 0
4.2480001 -0.37222958 0.7926991 0
4.244 -0.37882426 0.79229498 0
4.2420001 -0.38558134 0.79209292 0
4.2400002 -0.39233118 0.79189092 0
4.2380004 -0.39907384 0.79168892 0
4.2380004 -0.40599686 0.79168892 0
4.2390003 -0.41301546 0.79178989 0
4.2410002 -0.42013508 0.79199195 0
4.2450004 -0.42746037 0.79239601 0
4.25 0.016501952 0.78595638 0
4.243 0.0094562806 0.78526193 0
4.2360001 0.0024358593 0.78456748 0
4.2309999 -0.0045376644 0.78407145 0
4.2380004 -0.011384916 0.7847659 0
4.2450004 -0.018257428 0.78546035 0
4.2509999 -0.025160603 0.78605562 0
4.2580004 -0.032081816 0.78675008 0
4.2650003 -0.039028279 0.78744459 0
4.2720003 -0.046 0.78813899 0
4.2780004 -0.052995168 0.78873426 0
4.2850003 -0.060015589 0.78942871 0
4.2920003 -0.067061268 0.79012322 0
4.2990003 -0.074132189 0.79081768 0
4.3060002 -0.081228375 0.79151213 0
4.3130002 -0.088349804 0.79220665 0
4.3200002 -0.095496498 0.79290104 0
4.132 -0.13351355 0.77424967 0
4.1270003 -0.14011911 0.77375364 0
4.1230001 -0.14673367 0.7733568 0
4.1200004 -0.15336266 0.77305919 0
4.119 -0.16004217 0.77295995 0
4.118 -0.16671807 0.77286077 0
4.1040001 -0.17294481 0.77147186 0
4.0890002 -0.17908497 0.76998365 0
4.0799999 -0.1853983 0.76909077 0
4.072 -0.19171885 0.76829708 0
4.0669999 -0.19813499 0.76780105 0
4.0630002 -0.20457639 0.7674042 0
4.059 -0.21100336 0.76700741 0
4.0560002 -0.21746279 0.76670974 0
4.0550003 -0.22400881 0.76661056 0
4.0540004 -0.23055124 0.76651138 0
4.0540004 -0.23714235 0.76651138 0
4.0540004 -0.24373347 0.76651138 0
4.0560002 -0.2504364 0.76670974 0
4.059 -0.25720429 0.76700741 0
4.2420001 -0.31627902 0.78516275 0
4.2490001 -0.32371432 0.7858572 0
4.256 -0.33117488 0.78655171 0
4.2639999 -0.33873644 0.78734529 0
4.2710004 -0.34624931 0.7880398 0
4.2680001 -0.35299376 0.7877422 0
4.2590003 -0.35924032 0.78684926 0
4.2520003 -0.3656204 0.78615487 0
4.2470002 -0.37214476 0.78565878 0
4.243 -0.37873769 0.78526193 0
4.2400002 -0.38540456 0.78496432 0
4.237 -0.39206061 0.78466666 0
4.2360001 -0.39888984 0.78456748 0
4.2350001 -0.40571544 0.78446829 0
4.2350001 -0.41263306 0.78446829 0
4.237 -0.41974548 0.78466666 0
4.2400002 -0.42696431 0.78496432 0
4.25 0.016501952 0.77901173 0
4.243 0.0094562806 0.77832991 0
4.2360001 0.0024358593 0.77764809 0
4.2309999 -0.0045376644 0.777161 0
4.2380004 -0.011384916 0.77784288 0
4.2450004 -0.018257428 0.77852476 0
4.2509999 -0.025160603 0.77910912 0
4.2580004 -0.032081816 0.779791 0
4.2650003 -0.039028279 0.78047282 0
4.2720003 -0.046 0.78115463 0
4.2780004 -0.052995168 0.78173912 0
4.2850003 -0.060015589 0.78242093 0
4.2920003 -0.067061268 0.78310275 0
4.2990003 -0.074132189 0.78378463 0
4.3060002 -0.081228375 0.78446651 0
4.3130002 -0.088349804 0.78514826 0
4.3200002 -0.095496498 0.78583014 0
4.132 -0.13351355 0.76751786 0
4.1270003 -0.14011911 0.76703084 0
4.1230001 -0.14673367 0.76664126 0
4.1200004 -0.15336266 0.76634902 0
4.119 -0.16004217 0.76625156 0
4.118 -0.16671807 0.76615417 0
4.118 -0.17342463 0.76615417 0
4.092 -0.1791932 0.76362169 0
4.0799999 -0.1853983 0.76245278 0
4.073 -0.19175853 0.76177096 0
4.066 -0.1980935 0.76108909 0
4.0610003 -0.20448981 0.76060212 0
4.0580001 -0.21095827 0.76030988 0
4.0550003 -0.2174159 0.76001763 0
4.052 -0.22386271 0.75972545 0
4.0510001 -0.23039971 0.75962806 0
4.0510001 -0.23698542 0.75962806 0
4.0510001 -0.24357112 0.75962806 0
4.052 -0.25021273 0.75972545 0
4.0550003 -0.25697342 0.76001763 0
4.059 -0.26380444 0.76040727 0
4.2420001 -0.31627902 0.77823251 0
4.2490001 -0.32371432 0.77891433 0
4.256 -0.33117488 0.77959621 0
4.2639999 -0.33873644 0.78037542 0
4.2710004 -0.34624931 0.78105724 0
4.2690001 -0.35307309 0.78086245 0
4.2590003 -0.35924032 0.77988839 0
4.2520003 -0.3656204 0.77920651 0
4.2460003 -0.37206 0.77862215 0
4.2420001 -0.37865111 0.77823251 0
4.2380004 -0.3852278 0.77784288 0
4.2350001 -0.39188024 0.7775507 0
4.2340002 -0.39870584 0.77745324 0
4.2320004 -0.40543404 0.77725846 0
4.2320004 -0.41234624 0.77725846 0
4.2330003 -0.41935584 0.77735585 0
4.2350001 -0.42646828 0.7775507 0
4.2390003 -0.43378991 0.77794027 0
4.25 0.016501952 0.77206707 0
4.243 0.0094562806 0.77139789 0
4.2360001 0.0024358593 0.77072871 0
4.2309999 -0.0045376644 0.77025062 0
4.2380004 -0.011384916 0.77091992 0
4.2450004 -0.018257428 0.7715891 0
4.2509999 -0.025160603 0.77216268 0
4.2580004 -0.032081816 0.77283192 0
4.2650003 -0.039028279 0.77350116 0
4.2720003 -0.046 0.77417034 0
4.2780004 -0.052995168 0.77474391 0
4.2850003 -0.060015589 0.77541316 0
4.2920003 -0.067061268 0.7760824 0
4.2990003 -0.074132189 0.77675152 0
4.3060002 -0.081228375 0.77742076 0
4.3130002 -0.088349804 0.77809 0
4.3200002 -0.095496498 0.77875924 0
4.132 -0.13351355 0.76078606 0
4.1270003 -0.14011911 0.76030803 0
4.1230001 -0.14673367 0.75992566 0
4.1200004 -0.15336266 0.75963891 0
4.119 -0.16004217 0.75954324 0
4.118 -0.16671807 0.75944769 0
4.118 -0.17342463 0.75944769 0
4.0960002 -0.1793375 0.75734437 0
4.073 -0.19175853 0.75514555 0
4.066 -0.1980935 0.75447631 0
4.0610003 -0.20448981 0.7539984 0
4.0560002 -0.21086808 0.75352031 0
4.053 -0.2173221 0.75323355 0
4.0510001 -0.22381401 0.75304234 0
4.0490003 -0.2302987 0.75285113 0
4.0480003 -0.23682849 0.75275552 0
4.0480003 -0.24340878 0.75275552 0
4.0490003 -0.25004497 0.75285113 0
4.0510001 -0.25674254 0.75304234 0
4.0540004 -0.2635068 0.75332916 0
4.2490001 -0.32371432 0.77197146 0
4.256 -0.33117488 0.77264071 0
4.2639999 -0.33873644 0.77340549 0
4.2710004 -0.34624931 0.77407473 0
4.2720003 -0.35331121 0.77417034 0
4.2610002 -0.35940266 0.77311873 0
4.2520003 -0.3656204 0.77225828 0
4.2460003 -0.37206 0.77168465 0
4.2410002 -0.37856454 0.77120662 0
4.237 -0.38513938 0.77082425 0
4.2340002 -0.39179006 0.7705375 0
4.2309999 -0.39842987 0.77025062 0
4.23 -0.40524644 0.77015507 0
4.2290001 -0.41205943 0.77005947 0
4.23 -0.41906363 0.77015507 0
4.2309999 -0.42607141 0.77025062 0
4.2340002 -0.43328485 0.7705375 0
4.25 0.016501952 0.76512241 0
4.243 0.0094562806 0.76446581 0
4.2360001 0.0024358593 0.76380926 0
4.2309999 -0.0045376644 0.76334023 0
4.2380004 -0.011384916 0.76399684 0
4.2450004 -0.018257428 0.76465344 0
4.2509999 -0.025160603 0.76521623 0
4.2580004 -0.032081816 0.76587284 0
4.2650003 -0.039028279 0.76652938 0
4.2720003 -0.046 0.76718599 0
4.2780004 -0.052995168 0.76774877 0
4.2850003 -0.060015589 0.76840538 0
4.2920003 -0.067061268 0.76906192 0
4.2990003 -0.074132189 0.76971853 0
4.3060002 -0.081228375 0.77037513 0
4.3130002 -0.088349804 0.77103174 0
4.3200002 -0.095496498 0.77168822 0
4.132 -0.13351355 0.75405425 0
4.1270003 -0.14011911 0.75358528 0
4.1230001 -0.14673367 0.75321007 0
4.1200004 -0.15336266 0.75292873 0
4.119 -0.16004217 0.75283486 0
4.118 -0.16671807 0.7527411 0
4.118 -0.17342463 0.7527411 0
4.105 -0.1796622 0.75152171 0
4.0740004 -0.19179821 0.74861395 0
4.066 -0.1980935 0.74786353 0
4.0599999 -0.20444652 0.7473008 0
4.0550003 -0.21082298 0.74683177 0
4.0510001 -0.21722831 0.74645662 0
4.0490003 -0.2237166 0.74626899 0
4.0469999 -0.23019768 0.74608141 0
4.0450001 -0.23667157 0.74589384 0
4.0450001 -0.24324644 0.74589384 0
4.0450001 -0.24982132 0.74589384 0
4.0469999 -0.25651163 0.74608141 0
4.0500002 -0.26326871 0.74636281 0
4.0540004 -0.27009791 0.74673802 0
4.2490001 -0.32371432 0.7650286 0
4.256 -0.33117488 0.7656852 0
4.2639999 -0.33873644 0.76643562 0
4.2710004 -0.34624931 0.76709223 0
4.276 -0.35362867 0.7675612 0
4.2620001 -0.35948384 0.76624799 0
4.2530003 -0.36570337 0.76540381 0
4.2450004 -0.37197521 0.76465344 0
4.2400002 -0.37847793 0.76418447 0
4.2350001 -0.38496262 0.76371545 0
4.2320004 -0.39160967 0.76343405 0
4.2290001 -0.39824587 0.76315272 0
4.2280002 -0.40505883 0.76305884 0
4.2260003 -0.41177264 0.76287127 0
4.2270002 -0.41877139 0.76296508 0
4.2280002 -0.4257738 0.76305884 0
4.23 -0.43288079 0.76324642 0
4.2330003 -0.44009784 0.76352787 0
4.25 0.016501952 0.75817776 0
4.243 0.0094562806 0.75753379 0
4.2360001 0.0024358593 0.75688982 0
4.2309999 -0.0045376644 0.75642991 0
4.2380004 -0.011384916 0.75707388 0
4.2450004 -0.018257428 0.75771779 0
4.2509999 -0.025160603 0.75826973 0
4.2580004 -0.032081816 0.75891376 0
4.2650003 -0.039028279 0.75955766 0
4.2720003 -0.046 0.76020163 0
4.2780004 -0.052995168 0.76075363 0
4.2850003 -0.060015589 0.7613976 0
4.2920003 -0.067061268 0.76204151 0
4.2990003 -0.074132189 0.76268548 0
4.3060002 -0.081228375 0.76332945 0
4.3130002 -0.088349804 0.76397336 0
4.3200002 -0.095496498 0.76461732 0
4.132 -0.13351355 0.74732244 0
4.1270003 -0.14011911 0.74686247 0
4.1230001 -0.14673367 0.74649453 0
4.1200004 -0.15336266 0.74621856 0
4.119 -0.16004217 0.74612653 0
4.118 -0.16671807 0.7460345 0
4.118 -0.17342463 0.7460345 0
4.119 -0.18016726 0.74612653 0
4.066 -0.1980935 0.74125081 0
4.0599999 -0.20444652 0.74069881 0
4.0540004 -0.21077789 0.74014688 0
4.0500002 -0.2171814 0.73977888 0
4.0469999 -0.22361919 0.73950291 0
4.0450001 -0.23009667 0.73931897 0
4.0430002 -0.23656693 0.73913491 0
4.0420003 -0.2430841 0.739043 0
4.0420003 -0.24965356 0.739043 0
4.0430002 -0.25628075 0.73913491 0
4.0450001 -0.26297107 0.73931897 0
4.0490003 -0.26979128 0.73968697 0
4.2490001 -0.32371432 0.75808573 0
4.256 -0.33117488 0.7587297 0
4.2639999 -0.33873644 0.75946569 0
4.2710004 -0.34624931 0.76010966 0
4.2650003 -0.35972738 0.75955766 0
4.2540002 -0.36578631 0.75854576 0
4.2460003 -0.37206 0.75780976 0
4.2390003 -0.37839136 0.75716585 0
4.2340002 -0.38487425 0.75670588 0
4.23 -0.39142931 0.75633788 0
4.2270002 -0.39806187 0.75606191 0
4.2250004 -0.40477747 0.75587791 0
4.224 -0.41158143 0.75578594 0
4.224 -0.41847917 0.75578594 0
4.224 -0.42537695 0.75578594 0
4.2260003 -0.43247673 0.75596988 0
4.2290001 -0.43968657 0.75624585 0
4.25 0.016501952 0.7512331 0
4.243 0.0094562806 0.75060177 0
4.2360001 0.0024358593 0.74997044 0
4.2309999 -0.0045376644 0.74951947 0
4.2380004 -0.011384916 0.7501508 0
4.2450004 -0.018257428 0.75078213 0
4.2509999 -0.025160603 0.75132328 0
4.2580004 -0.032081816 0.75195462 0
4.2650003 -0.039028279 0.75258601 0
4.2720003 -0.046 0.75321728 0
4.2780004 -0.052995168 0.75375843 0
4.2850003 -0.060015589 0.75438976 0
4.2920003 -0.067061268 0.7550211 0
4.2990003 -0.074132189 0.75565243 0
4.3060002 -0.081228375 0.75628376 0
4.3130002 -0.088349804 0.75691509 0
4.3200002 -0.095496498 0.75754642 0
4.132 -0.13351355 0.74059063 0
4.1270003 -0.14011911 0.74013966 0
4.1230001 -0.14673367 0.73977888 0
4.1200004 -0.15336266 0.73950839 0
4.119 -0.16004217 0.73941815 0
4.118 -0.16671807 0.73932797 0
4.118 -0.17342463 0.73932797 0
4.119 -0.18016726 0.73941815 0
4.0669999 -0.19813499 0.73472822 0
4.059 -0.20440322 0.73400676 0
4.0540004 -0.21077789 0.73355579 0
4.0490003 -0.21713451 0.73310483 0
4.0450001 -0.2235218 0.7327441 0
4.0430002 -0.22999565 0.73256367 0
4.0410004 -0.23646231 0.73238331 0
4.04 -0.24297586 0.73229313 0
4.04 -0.24954173 0.73229313 0
4.04 -0.25610757 0.73229313 0
4.0410004 -0.26273298 0.73238331 0
4.0440001 -0.26948464 0.73265386 0
4.256 -0.33117488 0.75177419 0
4.2639999 -0.33873644 0.75249577 0
4.2710004 -0.34624931 0.7531271 0
4.2690001 -0.36005205 0.75294673 0
4.2550001 -0.36586934 0.75168407 0
4.2460003 -0.37206 0.75087231 0
4.2390003 -0.37839136 0.75024104 0
4.2330003 -0.38478586 0.74969983 0
4.2290001 -0.39133909 0.7493391 0
4.2260003 -0.39796987 0.74906856 0
4.223 -0.40458986 0.74879795 0
4.2210002 -0.41129461 0.74861753 0
4.2210002 -0.41818696 0.74861753 0
4.2210002 -0.42507932 0.74861753 0
4.2220001 -0.4320727 0.74870777 0
4.224 -0.43917248 0.74888813 0
4.25 0.016501952 0.74428844 0
4.243 0.0094562806 0.74366975 0
4.2360001 0.0024358593 0.74305105 0
4.2309999 -0.0045376644 0.74260908 0
4.2380004 -0.011384916 0.74322784 0
4.2450004 -0.018257428 0.74384654 0
4.2509999 -0.025160603 0.74437678 0
4.2580004 -0.032081816 0.74499553 0
4.2650003 -0.039028279 0.74561423 0
4.2720003 -0.046 0.74623299 0
4.2780004 -0.052995168 0.74676329 0
4.2850003 -0.060015589 0.74738193 0
4.2920003 -0.067061268 0.74800068 0
4.2990003 -0.074132189 0.74861938 0
4.3060002 -0.081228375 0.74923813 0
4.3130002 -0.088349804 0.74985677 0
4.3200002 -0.095496498 0.75047553 0
4.132 -0.13351355 0.73385882 0
4.1270003 -0.14011911 0.73341691 0
4.1230001 -0.14673367 0.73306334 0
4.1200004 -0.15336266 0.73279822 0
4.119 -0.16004217 0.73270977 0
4.118 -0.16671807 0.73262143 0
4.118 -0.17342463 0.73262143 0
4.119 -0.18016726 0.73270977 0
4.0599999 -0.20444652 0.72749496 0
4.053 -0.21073279 0.72687626 0
4.0480003 -0.21708761 0.72643435 0
4.0440001 -0.2234731 0.72608078 0
4.0410004 -0.22989465 0.72581565 0
4.039 -0.23635769 0.72563887 0
4.0370002 -0.24281351 0.72546208 0
4.0370002 -0.24937396 0.72546208 0
4.0370002 -0.25593442 0.72546208 0
4.0380001 -0.26255441 0.72555047 0
4.04 -0.26923931 0.7257272 0
4.2639999 -0.33873644 0.74552584 0
4.2710004 -0.34624931 0.74614453 0
4.2580004 -0.36611825 0.74499553 0
4.2470002 -0.37214476 0.74402326 0
4.2390003 -0.37839136 0.74331617 0
4.2330003 -0.38478586 0.74278587 0
4.2280002 -0.39124891 0.7423439 0
4.224 -0.3977859 0.74199039 0
4.2210002 -0.40440226 0.74172521 0
4.2190003 -0.41110343 0.74154842 0
4.2179999 -0.41789472 0.74146008 0
4.2179999 -0.42478168 0.74146008 0
4.2179999 -0.43166861 0.74146008 0
4.2200003 -0.4387612 0.74163687 0
4.223 -0.44596562 0.74190199 0
4.25 0.016501952 0.73734379 0
4.243 0.0094562806 0.73673773 0
4.2360001 0.0024358593 0.73613161 0
4.2309999 -0.0045376644 0.7356987 0
4.2380004 -0.011384916 0.73630476 0
4.2450004 -0.018257428 0.73691088 0
4.2509999 -0.025160603 0.73743033 0
4.2580004 -0.032081816 0.73803645 0
4.2650003 -0.039028279 0.73864257 0
4.2720003 -0.046 0.73924863 0
4.2780004 -0.052995168 0.73976809 0
4.2850003 -0.060015589 0.74037421 0
4.2920003 -0.067061268 0.74098027 0
4.2990003 -0.074132189 0.74158633 0
4.3060002 -0.081228375 0.74219239 0
4.3130002 -0.088349804 0.74279845 0
4.3200002 -0.095496498 0.74340457 0
4.132 -0.13351355 0.72712696 0
4.1270003 -0.14011911 0.72669411 0
4.1230001 -0.14673367 0.7263478 0
4.1200004 -0.15336266 0.72608805 0
4.119 -0.16004217 0.72600144 0
4.118 -0.16671807 0.72591484 0
4.118 -0.17342463 0.72591484 0
4.119 -0.18016726 0.72600144 0
4.1210003 -0.18695138 0.72617459 0
4.0599999 -0.20444652 0.72089303 0
4.053 -0.21073279 0.72028697 0
4.0469999 -0.2170407 0.71976745 0
4.0430002 -0.22342438 0.71942115 0
4.039 -0.22979364 0.71907485 0
4.0370002 -0.23625305 0.71890163 0
4.0350003 -0.24270529 0.71872848 0
4.0339999 -0.2492062 0.71864188 0
4.0339999 -0.25576124 0.71864188 0
4.0339999 -0.26231629 0.71864188 0
4.0360003 -0.268994 0.71881509 0
4.039 -0.27574202 0.71907485 0
4.2610002 -0.36636719 0.73829621 0
4.2490001 -0.37231433 0.73725724 0
4.2400002 -0.37847793 0.73647797 0
4.2330003 -0.38478586 0.73587191 0
4.2270002 -0.3911587 0.7353524 0
4.223 -0.3976939 0.73500603 0
4.2200003 -0.40430847 0.73474634 0
4.217 -0.41091222 0.73448652 0
4.2150002 -0.41760254 0.73431337 0
4.2150002 -0.42448407 0.73431337 0
4.2150002 -0.43136561 0.73431337 0
4.2160001 -0.43834993 0.73439997 0
4.2179999 -0.4454425 0.73457313 0
4.25 0.016501952 0.73039913 0
4.243 0.0094562806 0.72980565 0
4.2360001 0.0024358593 0.72921216 0
4.2309999 -0.0045376644 0.72878832 0
4.2380004 -0.011384916 0.7293818 0
4.2450004 -0.018257428 0.72997522 0
4.2509999 -0.025160603 0.73048389 0
4.2580004 -0.032081816 0.73107737 0
4.2650003 -0.039028279 0.7316708 0
4.2720003 -0.046 0.73226428 0
4.2780004 -0.052995168 0.73277295 0
4.2850003 -0.060015589 0.73336637 0
4.2920003 -0.067061268 0.73395979 0
4.2990003 -0.074132189 0.73455328 0
4.3060002 -0.081228375 0.73514676 0
4.3130002 -0.088349804 0.73574018 0
4.3200002 -0.095496498 0.73633361 0
4.132 -0.13351355 0.72039521 0
4.1270003 -0.14011911 0.7199713 0
4.1230001 -0.14673367 0.71963221 0
4.1200004 -0.15336266 0.71937788 0
4.119 -0.16004217 0.71929306 0
4.118 -0.16671807 0.71920824 0
4.118 -0.17342463 0.71920824 0
4.119 -0.18016726 0.71929306 0
4.1210003 -0.18695138 0.71946263 0
4.0610003 -0.20448981 0.71437591 0
4.053 -0.21073279 0.71369767 0
4.0469999 -0.2170407 0.71318895 0
4.0420003 -0.22337569 0.7127651 0
4.0380001 -0.22974312 0.71242595 0
4.0350003 -0.23614846 0.71217167 0
4.033 -0.24259706 0.71200204 0
4.0320001 -0.24909438 0.71191728 0
4.0310001 -0.25558808 0.71183252 0
4.0310001 -0.26213771 0.71183252 0
4.0220003 -0.26813537 0.71106946 0
4.02 -0.27454251 0.71089995 0
4.02 -0.28107229 0.71089995 0
4.2400002 -0.37847793 0.72955132 0
4.2320004 -0.38469747 0.72887313 0
4.2270002 -0.3911587 0.72844923 0
4.2220001 -0.39760193 0.72802532 0
4.2179999 -0.40412089 0.72768617 0
4.2150002 -0.41072103 0.72743183 0
4.2130003 -0.41740772 0.72726226 0
4.2120004 -0.42418647 0.7271775 0
4.2120004 -0.43106258 0.7271775 0
4.2120004 -0.43793866 0.7271775 0
4.2140002 -0.44502401 0.72734708 0
4.25 0.016501952 0.72345448 0
4.243 0.0094562806 0.72287363 0
4.2360001 0.0024358593 0.72229278 0
4.2309999 -0.0045376644 0.72187793 0
4.2380004 -0.011384916 0.72245878 0
4.2450004 -0.018257428 0.72303957 0
4.2509999 -0.025160603 0.72353745 0
4.2580004 -0.032081816 0.72411823 0
4.2650003 -0.039028279 0.72469908 0
4.2720003 -0.046 0.72527993 0
4.2780004 -0.052995168 0.72577775 0
4.2850003 -0.060015589 0.72635859 0
4.2920003 -0.067061268 0.72693944 0
4.2990003 -0.074132189 0.72752023 0
4.3060002 -0.081228375 0.72810107 0
4.3130002 -0.088349804 0.72868186 0
4.3200002 -0.095496498 0.72926271 0
4.132 -0.13351355 0.7136634 0
4.1270003 -0.14011911 0.71324849 0
4.1230001 -0.14673367 0.71291661 0
4.1200004 -0.15336266 0.7126677 0
4.119 -0.16004217 0.71258473 0
4.118 -0.16671807 0.71250176 0
4.118 -0.17342463 0.71250176 0
4.119 -0.18016726 0.71258473 0
4.1210003 -0.18695138 0.71275067 0
4.0540004 -0.21077789 0.70719135 0
4.0469999 -0.2170407 0.7066105 0
4.0410004 -0.22332698 0.70611262 0
4.0370002 -0.22969261 0.70578074 0
4.0339999 -0.23609613 0.70553184 0
4.0310001 -0.24248885 0.70528293 0
4.0290003 -0.24892662 0.70511693 0
4.0290003 -0.25547263 0.70511693 0
4.0180001 -0.26136389 0.7042042 0
4.0150003 -0.26770607 0.70395529 0
4.013 -0.27410057 0.70378935 0
4.0120001 -0.2805528 0.70370638 0
4.0110002 -0.28700137 0.70362341 0
4.2330003 -0.38478586 0.72204387 0
4.2260003 -0.39106855 0.72146302 0
4.2210002 -0.3975099 0.72104818 0
4.217 -0.40402707 0.72071624 0
4.2130003 -0.41052979 0.72038436 0
4.211 -0.4172129 0.72021842 0
4.2090001 -0.4238888 0.72005248 0
4.2090001 -0.43075952 0.72005248 0
4.2090001 -0.43763024 0.72005248 0
4.21 -0.44460556 0.72013545 0
4.25 0.016501952 0.71650982 0
4.243 0.0094562806 0.71594161 0
4.2360001 0.0024358593 0.7153734 0
4.2309999 -0.0045376644 0.71496749 0
4.2380004 -0.011384916 0.71553576 0
4.2450004 -0.018257428 0.71610391 0
4.2509999 -0.025160603 0.71659094 0
4.2580004 -0.032081816 0.71715915 0
4.2650003 -0.039028279 0.71772742 0
4.2720003 -0.046 0.71829557 0
4.2780004 -0.052995168 0.7187826 0
4.2850003 -0.060015589 0.71935081 0
4.2920003 -0.067061268 0.71991897 0
4.2990003 -0.074132189 0.72048718 0
4.3060002 -0.081228375 0.72105539 0
4.3130002 -0.088349804 0.72162354 0
4.3200002 -0.095496498 0.72219181 0
4.132 -0.13351355 0.70693159 0
4.1270003 -0.14011911 0.70652568 0
4.1230001 -0.14673367 0.70620108 0
4.1200004 -0.15336266 0.70595753 0
4.119 -0.16004217 0.70587635 0
4.118 -0.16671807 0.70579517 0
4.118 -0.17342463 0.70579517 0
4.119 -0.18016726 0.70587635 0
4.1210003 -0.18695138 0.70603871 0
4.125 -0.19382209 0.70636332 0
4.0540004 -0.21077789 0.70060021 0
4.0469999 -0.2170407 0.700032 0
4.0410004 -0.22332698 0.69954503 0
4.0360003 -0.22964211 0.69913912 0
4.0320001 -0.23599151 0.69881439 0
4.0290003 -0.2423806 0.69857091 0
4.0280004 -0.24887072 0.69848979 0
4.0170002 -0.25477996 0.69759685 0
4.013 -0.26106626 0.69727218 0
4.0100002 -0.26739943 0.69702864 0
4.0080004 -0.27378491 0.69686633 0
4.0050001 -0.28009823 0.69662279 0
4.0030003 -0.28646746 0.69646049 0
4.0020003 -0.29289806 0.6963793 0
4.2260003 -0.39106855 0.7145617 0
4.2200003 -0.39741793 0.71407461 0
4.2160001 -0.40393329 0.71375 0
4.2120004 -0.41043422 0.71342528 0
4.2090001 -0.41701812 0.71318173 0
4.2070003 -0.42369038 0.71301937 0
4.2060003 -0.43045649 0.71293825 0
4.2060003 -0.43732178 0.71293825 0
4.2060003 -0.44418707 0.71293825 0
4.1960001 -0.44998813 0.71212649 0
4.25 0.016501952 0.70956516 0
4.243 0.0094562806 0.70900953 0
4.2360001 0.0024358593 0.70845401 0
4.2309999 -0.0045376644 0.70805717 0
4.2380004 -0.011384916 0.70861268 0
4.2450004 -0.018257428 0.70916831 0
4.2509999 -0.025160603 0.7096445 0
4.2580004 -0.032081816 0.71020007 0
4.2650003 -0.039028279 0.71075565 0
4.2720003 -0.046 0.71131122 0
4.2780004 -0.052995168 0.71178746 0
4.2850003 -0.060015589 0.71234298 0
4.2920003 -0.067061268 0.71289861 0
4.2990003 -0.074132189 0.71345413 0
4.3060002 -0.081228375 0.71400976 0
4.3130002 -0.088349804 0.71456528 0
4.3200002 -0.095496498 0.71512085 0
4.132 -0.13351355 0.70019972 0
4.1270003 -0.14011911 0.69980288 0
4.1230001 -0.14673367 0.69948542 0
4.1200004 -0.15336266 0.69924736 0
4.119 -0.16004217 0.69916797 0
4.118 -0.16671807 0.69908857 0
4.118 -0.17342463 0.69908857 0
4.119 -0.18016726 0.69916797 0
4.1210003 -0.18695138 0.69932675 0
4.125 -0.19382209 0.69964421 0
4.0469999 -0.2170407 0.69345349 0
4.04 -0.22327828 0.69289792 0
4.0350003 -0.22959161 0.69250107 0
4.0310001 -0.23593922 0.69218361 0
4.0290003 -0.2423806 0.69202495 0
4.0180001 -0.24831152 0.69115186 0
4.0139999 -0.25460681 0.6908344 0
4.0100002 -0.26088768 0.69051695 0
4.006 -0.2671541 0.69019943 0
4.0030003 -0.27346924 0.68996131 0
4 -0.27977353 0.68972325 0
3.9970002 -0.28606704 0.68948513 0
3.9950004 -0.29241824 0.68932641 0
3.9940002 -0.29883257 0.68924701 0
3.9930003 -0.30524331 0.68916768 0
4.2260003 -0.39106855 0.70766032 0
4.2200003 -0.39741793 0.70718408 0
4.2140002 -0.40374568 0.70670789 0
4.21 -0.410243 0.70639044 0
4.2070003 -0.41682327 0.70615232 0
4.2049999 -0.42349198 0.70599353 0
4.2030001 -0.43015346 0.70583487 0
4.2030001 -0.43701333 0.70583487 0
4.1920004 -0.44272238 0.70496178 0
4.1890001 -0.44924313 0.70472372 0
4.1880002 -0.45596951 0.70464432 0
4.25 0.016501952 0.70262045 0
4.243 0.0094562806 0.70207751 0
4.2360001 0.0024358593 0.70153463 0
4.2309999 -0.0045376644 0.70114672 0
4.2380004 -0.011384916 0.70168972 0
4.2450004 -0.018257428 0.70223266 0
4.2509999 -0.025160603 0.70269799 0
4.2580004 -0.032081816 0.70324099 0
4.2650003 -0.039028279 0.70378393 0
4.2720003 -0.046 0.70432687 0
4.2780004 -0.052995168 0.70479226 0
4.2850003 -0.060015589 0.7053352 0
4.2920003 -0.067061268 0.70587814 0
4.2990003 -0.074132189 0.70642114 0
4.3060002 -0.081228375 0.70696402 0
4.3130002 -0.088349804 0.70750701 0
4.3200002 -0.095496498 0.70804989 0
4.132 -0.13351355 0.69346792 0
4.1270003 -0.14011911 0.69308013 0
4.1230001 -0.14673367 0.69276989 0
4.1200004 -0.15336266 0.69253719 0
4.119 -0.16004217 0.69245958 0
4.118 -0.16671807 0.69238204 0
4.118 -0.17342463 0.69238204 0
4.119 -0.18016726 0.69245958 0
4.1210003 -0.18695138 0.69261473 0
4.125 -0.19382209 0.69292498 0
4.0480003 -0.21708761 0.68695259 0
4.04 -0.22327828 0.68633211 0
4.0350003 -0.22959161 0.68594426 0
4.0320001 -0.23599151 0.68571156 0
4.0290003 -0.2423806 0.68547893 0
4.0160003 -0.2481997 0.68447053 0
4.0120001 -0.25449136 0.68416029 0
4.007 -0.26070911 0.68377244 0
4.0030003 -0.26697013 0.6834622 0
3.9990003 -0.27321669 0.68315196 0
3.9950004 -0.27944887 0.68284172 0
3.9920003 -0.28573331 0.68260902 0
3.9890003 -0.29200697 0.68237633 0
3.9870002 -0.29834014 0.68222117 0
3.9850004 -0.3046661 0.68206608 0
3.9840002 -0.31105879 0.68198848 0
4.2190003 -0.39732593 0.700216 0
4.2140002 -0.40374568 0.69982815 0
4.2090001 -0.4101474 0.69944036 0
4.2060003 -0.4167259 0.69920766 0
4.2030001 -0.42329356 0.69897497 0
4.2020001 -0.43005243 0.69889742 0
4.191 -0.43577951 0.69804418 0
4.1870003 -0.44219926 0.69773394 0
4.184 -0.44871101 0.69750124 0
4.1810002 -0.45521194 0.69726861 0
4.1790004 -0.46181208 0.69711345 0
4.177 -0.46840498 0.6969583 0
4.25 0.016501952 0.69567585 0
4.243 0.0094562806 0.69514549 0
4.2360001 0.0024358593 0.69461519 0
4.2309999 -0.0045376644 0.6942364 0
4.2380004 -0.011384916 0.6947667 0
4.2450004 -0.018257428 0.695297 0
4.2509999 -0.025160603 0.69575155 0
4.2580004 -0.032081816 0.69628191 0
4.2650003 -0.039028279 0.69681221 0
4.2720003 -0.046 0.69734251 0
4.2780004 -0.052995168 0.69779706 0
4.2850003 -0.060015589 0.69832742 0
4.2920003 -0.067061268 0.69885772 0
4.2990003 -0.074132189 0.69938803 0
