# .PCD v0.7 - Point Cloud Data file format
VERSION 0.7
FIELDS x y z intensity
SIZE 4 4 4 4
TYPE F F F F
COUNT 1 1 1 1
WIDTH 1399
HEIGHT 1
VIEWPOINT 0 0 0 1 0 0 0
POINTS 1399
DATA ascii
4.2190003 0.098663613 0.63821733 0
4.2270002 0.092063472 0.63870794 0
4.2350001 0.085434482 0.6391986 0
4.2420001 0.078744173 0.63962787 0
4.25 0.072059259 0.64011854 0
4.2580004 0.065345481 0.64060915 0
4.2660003 0.058602836 0.64109975 0
4.2730002 0.051806089 0.64152908 0
4.2810001 0.045007538 0.64201975 0
4.289 0.038180124 0.64251035 0
4.2969999 0.031323846 0.64300096 0
4.3050003 0.024438713 0.64349163 0
4.112 -0.019217055 0.63165504 0
4.1070004 -0.025939848 0.63134837 0
4.1040001 -0.032637388 0.63116443 0
4.1010003 -0.039324105 0.63098043 0
4.1000004 -0.046 0.6309191 0
4.1000004 -0.052674092 0.6309191 0
4.1000004 -0.059348181 0.6309191 0
4.1010003 -0.066027686 0.63098043 0
4.1040001 -0.072725222 0.63116443 0
4.1070004 -0.07943359 0.63134837 0
4.1129999 -0.086185239 0.63171637 0
4.1200004 -0.092971161 0.6321457 0
4.1280003 -0.099796772 0.63263631 0
4.1350002 -0.10663502 0.63306564 0
4.1430001 -0.11351654 0.63355625 0
3.9840002 -0.17529698 0.62380487 0
3.9760003 -0.1814588 0.62331426 0
3.9690003 -0.18763143 0.62288493 0
3.9620004 -0.19377881 0.6224556 0
3.9560003 -0.19994423 0.62208766 0
3.9500003 -0.20608799 0.62171966 0
3.9450002 -0.212257 0.62141299 0
3.9400003 -0.21840799 0.62110639 0
3.9350002 -0.22454093 0.62079972 0
3.9310002 -0.23070815 0.62055439 0
3.9270003 -0.23686095 0.62030911 0
3.9230003 -0.24299932 0.62006378 0
3.9200003 -0.24918097 0.61987978 0
3.9110003 -0.25499463 0.61932784 0
3.9020002 -0.26077583 0.61877584 0
3.8960001 -0.26671398 0.61840785 0
3.8920002 -0.27276033 0.61816257 0
3.8890002 -0.27885902 0.61797857 0
3.8870003 -0.28501543 0.61785591 0
3.8850002 -0.29116461 0.61773324 0
3.8850002 -0.29745087 0.61773324 0
3.8850002 -0.30373713 0.61773324 0
3.8860002 -0.31009915 0.61779457 0
3.8880002 -0.31654239 0.61791724 0
3.8920002 -0.32315153 0.61816257 0
4.131 -0.38250041 0.63282031 0
4.1270003 -0.38886246 0.63257498 0
4.1240001 -0.39530388 0.63239098 0
4.1200004 -0.40163887 0.6321457 0
4.1170001 -0.4080568 0.6319617 0
4.1150002 -0.41456312 0.63183904 0
4.1129999 -0.42106223 0.63171637 0
4.217 0.13989867 0.63120949 0
4.211 0.13273214 0.63085234 0
4.2049999 0.12558724 0.63049519 0
4.198 0.11842072 0.63007849 0
4.204 0.11181879 0.63043571 0
4.2120004 0.10527457 0.63091189 0
4.2190003 0.098663613 0.63132858 0
4.2270002 0.092063472 0.63180476 0
4.2350001 0.085434482 0.63228095 0
4.2420001 0.078744173 0.63269764 0
4.25 0.072059259 0.63317382 0
4.2580004 0.065345481 0.63365006 0
4.2660003 0.058602836 0.63412625 0
4.2730002 0.051806089 0.63454294 0
4.2810001 0.045007538 0.63501918 0
4.289 0.038180124 0.63549536 0
4.2969999 0.031323846 0.63597155 0
4.3050003 0.024438713 0.63644779 0
4.112 -0.019217055 0.62495929 0
4.1070004 -0.025939848 0.62466168 0
4.1040001 -0.032637388 0.62448311 0
4.1010003 -0.039324105 0.62430453 0
4.1000004 -0.046 0.62424499 0
4.1000004 -0.052674092 0.62424499 0
4.1000004 -0.059348181 0.62424499 0
4.1010003 -0.066027686 0.62430453 0
4.1040001 -0.072725222 0.62448311 0
4.1070004 -0.07943359 0.62466168 0
4.1129999 -0.086185239 0.62501884 0
4.1200004 -0.092971161 0.62543553 0
4.1280003 -0.099796772 0.62591171 0
4.1350002 -0.10663502 0.62632841 0
4.1430001 -0.11351654 0.62680459 0
4.151 -0.12042694 0.62728083 0
3.9720004 -0.18775047 0.61662573 0
3.9640002 -0.19386177 0.61614954 0
3.9570003 -0.1999875 0.61573279 0
3.9510002 -0.20613307 0.6153757 0
3.9450002 -0.212257 0.61501849 0
3.9390004 -0.21835931 0.6146614 0
3.9350002 -0.22454093 0.61442327 0
3.9300003 -0.23065585 0.61412561 0
3.9250002 -0.23675272 0.613828 0
3.9210002 -0.24288747 0.61358988 0
3.9140003 -0.24883464 0.61317325 0
3.9030004 -0.25451842 0.61251843 0
3.8960001 -0.26040784 0.61210179 0
3.8910003 -0.26639831 0.61180413 0
3.8870003 -0.27243567 0.61156607 0
3.8840003 -0.27852529 0.61138749 0
3.8820002 -0.28467268 0.6112684 0
3.8810003 -0.29088318 0.61120892 0
3.8800004 -0.29709011 0.61114937 0
3.8810003 -0.30344132 0.61120892 0
3.8810003 -0.3097204 0.61120892 0
3.8830004 -0.31615457 0.61132795 0
3.8860002 -0.32267532 0.61150646 0
3.8900003 -0.3292881 0.61174464 0
4.1290002 -0.38232005 0.62597126 0
4.125 -0.38867846 0.62573314 0
4.1210003 -0.39502245 0.62549508 0
4.1170001 -0.40135202 0.62525696 0
4.1140003 -0.40776458 0.62507832 0
4.1110001 -0.41416627 0.62489974 0
4.1070004 -0.42045617 0.62466168 0
4.0960002 -0.42601189 0.62400687 0
4.0900002 -0.43205103 0.62364972 0
4.085 -0.43817496 0.62335211 0
4.0810003 -0.4443891 0.62311399 0
4.079 -0.45080882 0.62299496 0
4.0780001 -0.45733321 0.62293541 0
4.0780001 -0.46396765 0.62293541 0
4.079 -0.47071746 0.62299496 0
4.217 0.13989867 0.62432438 0
4.211 0.13273214 0.62397802 0
4.2049999 0.12558724 0.62363172 0
4.198 0.11842072 0.62322766 0
4.204 0.11181879 0.62357396 0
4.2120004 0.10527457 0.62403578 0
4.2190003 0.098663613 0.62443984 0
4.2270002 0.092063472 0.62490159 0
4.2350001 0.085434482 0.62536335 0
4.2420001 0.078744173 0.62576741 0
4.25 0.072059259 0.62622917 0
4.2580004 0.065345481 0.62669098 0
4.2660003 0.058602836 0.62715274 0
4.2730002 0.051806089 0.6275568 0
4.2810001 0.045007538 0.62801856 0
4.289 0.038180124 0.62848032 0
4.2969999 0.031323846 0.62894213 0
4.3050003 0.024438713 0.62940389 0
4.112 -0.019217055 0.6182636 0
4.1070004 -0.025939848 0.617975 0
4.1040001 -0.032637388 0.61780179 0
4.1010003 -0.039324105 0.61762863 0
4.1000004 -0.046 0.61757094 0
4.1000004 -0.052674092 0.61757094 0
4.1000004 -0.059348181 0.61757094 0
4.1010003 -0.066027686 0.61762863 0
4.1040001 -0.072725222 0.61780179 0
4.1070004 -0.07943359 0.617975 0
4.1129999 -0.086185239 0.6183213 0
4.1200004 -0.092971161 0.61872536 0
4.1280003 -0.099796772 0.61918712 0
4.1350002 -0.10663502 0.61959118 0
4.1430001 -0.11351654 0.62005293 0
4.151 -0.12042694 0.62051475 0
4.1589999 -0.12736619 0.62097651 0
3.9680002 -0.19402772 0.60995162 0
3.9600003 -0.20011738 0.60948986 0
3.9530003 -0.20622326 0.6090858 0
3.9460003 -0.21230391 0.60868174 0
3.9400003 -0.21840799 0.60833538 0
3.9340003 -0.22449043 0.60798907 0
3.9290004 -0.23060355 0.60770047 0
3.9240003 -0.2366986 0.60741186 0
3.9190001 -0.24277563 0.60712326 0
3.9060004 -0.24837287 0.60637289 0
3.8980002 -0.25422078 0.60591108 0
3.8920002 -0.26016253 0.60556477 0
3.8870003 -0.26614577 0.60527617 0
3.8830004 -0.27217591 0.60504526 0
3.8810003 -0.27832511 0.6049298 0
3.8790002 -0.28446704 0.60481435 0
3.8770003 -0.29060182 0.60469896 0
3.8770003 -0.29687366 0.60469896 0
3.8770003 -0.3031455 0.60469896 0
3.8780003 -0.30949309 0.60475665 0
3.8800004 -0.31592187 0.60487211 0
3.8820002 -0.32235786 0.60498756 0
3.8860002 -0.32896337 0.60521841 0
3.8910003 -0.33566636 0.60550702 0
4.1240001 -0.38858649 0.61895621 0
4.119 -0.39483485 0.6186676 0
4.1150002 -0.40116081 0.61843675 0
4.1110001 -0.40747234 0.61820585 0
4.1080003 -0.41386864 0.61803269 0
4.0960002 -0.41934502 0.61734003 0
4.0880003 -0.42518938 0.61687827 0
4.0830002 -0.43131867 0.61658967 0
4.0780001 -0.43742999 0.61630106 0
4.0760002 -0.44384795 0.61618555 0
4.0740004 -0.4502587 0.61607015 0
4.072 -0.45666221 0.6159547 0
4.072 -0.4632858 0.6159547 0
4.073 -0.47002479 0.61601239 0
4.0740004 -0.47676745 0.61607015 0
4.0770001 -0.4837518 0.6162433 0
4.217 0.13989867 0.61743921 0
4.211 0.13273214 0.6171037 0
4.2049999 0.12558724 0.61676824 0
4.198 0.11842072 0.61637676 0
4.204 0.11181879 0.61671227 0
4.2120004 0.10527457 0.61715966 0
4.2190003 0.098663613 0.61755109 0
4.2270002 0.092063472 0.61799842 0
4.2350001 0.085434482 0.61844575 0
4.2420001 0.078744173 0.61883718 0
4.25 0.072059259 0.61928451 0
4.2580004 0.065345481 0.6197319 0
4.2660003 0.058602836 0.62017924 0
4.2730002 0.051806089 0.62057066 0
4.2810001 0.045007538 0.62101799 0
4.289 0.038180124 0.62146533 0
4.2969999 0.031323846 0.62191266 0
4.3050003 0.024438713 0.62235999 0
4.112 -0.019217055 0.61156785 0
4.1070004 -0.025939848 0.61128825 0
4.1040001 -0.032637388 0.61112046 0
4.1010003 -0.039324105 0.61095273 0
4.1000004 -0.046 0.61089683 0
4.1000004 -0.052674092 0.61089683 0
4.1000004 -0.059348181 0.61089683 0
4.1010003 -0.066027686 0.61095273 0
4.1040001 -0.072725222 0.61112046 0
4.1070004 -0.07943359 0.61128825 0
4.1129999 -0.086185239 0.61162376 0
4.1200004 -0.092971161 0.61201519 0
4.1280003 -0.099796772 0.61246252 0
4.1350002 -0.10663502 0.61285394 0
4.1430001 -0.11351654 0.61330128 0
4.151 -0.12042694 0.61374867 0
4.1589999 -0.12736619 0.61419594 0
4.1670003 -0.1343343 0.61464334 0
3.9550002 -0.20631345 0.60278869 0
3.9480002 -0.21239769 0.60239726 0
3.9410002 -0.2184567 0.60200584 0
3.9350002 -0.22454093 0.60167032 0
3.9290004 -0.23060355 0.60133481 0
3.9240003 -0.2366986 0.60105526 0
3.9120002 -0.24238421 0.60038424 0
3.9010003 -0.24808425 0.59976912 0
3.8940003 -0.25398269 0.59937769 0
3.8880002 -0.25991723 0.59904218 0
3.8840003 -0.26595637 0.59881854 0
3.8810003 -0.27204603 0.59865075 0
3.8780003 -0.27812487 0.59848303 0
3.8760002 -0.28426141 0.59837115 0
3.8750002 -0.29046112 0.59831524 0
3.8740003 -0.2966572 0.59825933 0
3.8750002 -0.30299759 0.59831524 0
3.8760002 -0.30934158 0.59837115 0
3.8770003 -0.31568921 0.59842712 0
3.8800004 -0.32219914 0.59859484 0
3.8830004 -0.32871991 0.59876263 0
3.8870003 -0.33533445 0.59898627 0
3.8930004 -0.34213302 0.59932178 0
4.1230001 -0.38849449 0.61218297 0
4.118 -0.39474109 0.61190331 0
4.1129999 -0.40096959 0.61162376 0
4.1090002 -0.40727755 0.61140007 0
4.098 -0.41287658 0.61078501 0
4.0890002 -0.41863793 0.61028171 0
4.0820003 -0.42457244 0.60989028 0
4.0780001 -0.43079558 0.60966659 0
4.0740004 -0.43700433 0.60944295 0
4.0710001 -0.4433068 0.60927522 0
4.0690002 -0.44970852 0.60916334 0
4.0680003 -0.45621487 0.60910743 0
4.0680003 -0.46283123 0.60910743 0
4.0680003 -0.46944761 0.60910743 0
4.0700002 -0.47629845 0.60921925 0
4.072 -0.48315653 0.60933113 0
4.0760002 -0.49026352 0.60955477 0
4.217 0.13989867 0.6105541 0
4.211 0.13273214 0.61022937 0
4.2049999 0.12558724 0.60990471 0
4.198 0.11842072 0.60952592 0
4.204 0.11181879 0.60985059 0
4.2120004 0.10527457 0.61028349 0
4.2190003 0.098663613 0.61066234 0
4.2270002 0.092063472 0.61109525 0
4.2350001 0.085434482 0.61152816 0
4.2420001 0.078744173 0.61190695 0
4.25 0.072059259 0.61233985 0
4.2580004 0.065345481 0.61277276 0
4.2660003 0.058602836 0.61320567 0
4.2730002 0.051806089 0.61358452 0
4.2810001 0.045007538 0.61401743 0
4.289 0.038180124 0.61445034 0
4.2969999 0.031323846 0.61488324 0
4.3050003 0.024438713 0.61531615 0
4.112 -0.019217055 0.60487211 0
4.1070004 -0.025939848 0.6046015 0
4.1040001 -0.032637388 0.6044392 0
4.1010003 -0.039324105 0.60427684 0
4.1000004 -0.046 0.60422271 0
4.1000004 -0.052674092 0.60422271 0
4.1000004 -0.059348181 0.60422271 0
4.1010003 -0.066027686 0.60427684 0
4.1040001 -0.072725222 0.6044392 0
4.1070004 -0.07943359 0.6046015 0
4.1129999 -0.086185239 0.60492623 0
4.1200004 -0.092971161 0.60530502 0
4.1280003 -0.099796772 0.60573792 0
4.1350002 -0.10663502 0.60611671 0
4.1430001 -0.11351654 0.60654962 0
4.151 -0.12042694 0.60698259 0
4.1589999 -0.12736619 0.60741544 0
4.1670003 -0.1343343 0.60784841 0
4.1750002 -0.14133127 0.60828125 0
3.9510002 -0.21253841 0.5961597 0
3.9440002 -0.21860281 0.59578091 0
3.9370003 -0.22464195 0.59540212 0
3.9300003 -0.23065585 0.59502333 0
3.9240003 -0.2366986 0.59469861 0
3.9080002 -0.24216053 0.59383279 0
3.8980002 -0.24791108 0.59329164 0
3.8910003 -0.25380412 0.59291285 0
3.8860002 -0.25979456 0.59264231 0
3.8820002 -0.2658301 0.59242582 0
3.8790002 -0.27191615 0.59226346 0
3.8760002 -0.27799135 0.5921011 0
3.8740003 -0.28412434 0.59199291 0
3.8730001 -0.2903204 0.59193879 0
3.8730001 -0.29658502 0.59193879 0
3.8730001 -0.30284968 0.59193879 0
3.8740003 -0.30919006 0.59199291 0
3.8750002 -0.31553406 0.59204704 0
3.8770003 -0.32196102 0.59215522 0
3.8800004 -0.32847637 0.59231758 0
3.8850002 -0.33516851 0.59258819 0
3.8900003 -0.34187868 0.59285873 0
4.1170001 -0.39464727 0.60514271 0
4.112 -0.40087402 0.60487211 0
4.1030002 -0.4066931 0.60438508 0
4.092 -0.4122813 0.60378981 0
4.0840001 -0.41813287 0.6033569 0
4.0780001 -0.4241612 0.60303223 0
4.0740004 -0.4303771 0.60281575 0
4.0700002 -0.43657857 0.60259932 0
4.0680003 -0.44298214 0.60249108 0
4.066 -0.44937843 0.60238284 0
4.0650001 -0.45587936 0.60232872 0
4.0650001 -0.46249032 0.60232872 0
4.0650001 -0.46910128 0.60232872 0
4.066 -0.47582945 0.60238284 0
4.0680003 -0.48268032 0.60249108 0
4.072 -0.48978013 0.60270751 0
4.0760002 -0.49689433 0.60292399 0
4.217 0.13989867 0.60366893 0
4.211 0.13273214 0.60335511 0
4.2049999 0.12558724 0.60304123 0
4.198 0.11842072 0.60267508 0
4.204 0.11181879 0.6029889 0
4.2120004 0.10527457 0.60340738 0
4.2190003 0.098663613 0.60377359 0
4.2270002 0.092063472 0.60419208 0
4.2350001 0.085434482 0.60461056 0
4.2420001 0.078744173 0.60497671 0
4.25 0.072059259 0.6053952 0
4.2580004 0.065345481 0.60581368 0
4.2660003 0.058602836 0.60623217 0
4.2730002 0.051806089 0.60659832 0
4.2810001 0.045007538 0.6070168 0
4.289 0.038180124 0.60743535 0
4.2969999 0.031323846 0.60785377 0
4.3050003 0.024438713 0.60827225 0
4.112 -0.019217055 0.59817636 0
4.1070004 -0.025939848 0.59791481 0
4.1040001 -0.032637388 0.59775788 0
4.1010003 -0.039324105 0.59760094 0
4.1000004 -0.046 0.59754866 0
4.1000004 -0.052674092 0.59754866 0
4.1000004 -0.059348181 0.59754866 0
4.1010003 -0.066027686 0.59760094 0
4.1040001 -0.072725222 0.59775788 0
4.1070004 -0.07943359 0.59791481 0
4.1129999 -0.086185239 0.59822869 0
4.1200004 -0.092971161 0.59859484 0
4.1280003 -0.099796772 0.59901333 0
4.1350002 -0.10663502 0.59937948 0
4.1430001 -0.11351654 0.59979796 0
4.151 -0.12042694 0.60021651 0
4.1589999 -0.12736619 0.60063493 0
4.1670003 -0.1343343 0.60105342 0
4.1750002 -0.14133127 0.6014719 0
4.184 -0.14838415 0.60194272 0
3.9200003 -0.23648216 0.58813274 0
3.9050002 -0.24199279 0.5873481 0
3.8960001 -0.24779563 0.58687729 0
3.8900003 -0.2537446 0.58656347 0
3.8850002 -0.25973323 0.58630192 0
3.8810003 -0.26576698 0.58609265 0
3.8770003 -0.2717863 0.58588338 0
3.8750002 -0.27792466 0.58577877 0
3.8730001 -0.28405577 0.58567417 0
3.8720002 -0.29025006 0.58562183 0
3.8720002 -0.2965129 0.58562183 0
3.8720002 -0.30277571 0.58562183 0
3.8730001 -0.30911428 0.58567417 0
3.8740003 -0.31545648 0.5857265 0
3.8760002 -0.32188165 0.58583111 0
3.8790002 -0.32839519 0.58598804 0
3.8830004 -0.33500257 0.58619726 0
3.8890002 -0.34179386 0.58651114 0
4.112 -0.40087402 0.59817636 0
4.098 -0.4062061 0.597444 0
4.0880003 -0.41188446 0.59692091 0
4.0810003 -0.41782984 0.59655476 0
4.0760002 -0.42395556 0.59629321 0
4.0710001 -0.43006325 0.59603167 0
4.0680003 -0.43636575 0.59587473 0
4.0650001 -0.44265744 0.59571779 0
4.0640001 -0.44915837 0.59566545 0
4.0630002 -0.45565566 0.59561312 0
4.0620003 -0.46214938 0.59556085 0
4.0630002 -0.46887037 0.59561312 0
4.0640001 -0.475595 0.59566545 0
4.066 -0.48244223 0.59577006 0
4.0690002 -0.48941755 0.595927 0
4.073 -0.49652636 0.59613627 0
4.217 0.13989867 0.59678382 0
4.211 0.13273214 0.59648079 0
4.2049999 0.12558724 0.59617776 0
4.198 0.11842072 0.59582418 0
4.204 0.11181879 0.59612721 0
4.2120004 0.10527457 0.59653127 0
4.2190003 0.098663613 0.59688485 0
4.2270002 0.092063472 0.59728891 0
4.2350001 0.085434482 0.59769297 0
4.2420001 0.078744173 0.59804648 0
4.25 0.072059259 0.59845054 0
4.2580004 0.065345481 0.5988546 0
4.2660003 0.058602836 0.59925866 0
4.2730002 0.051806089 0.59961218 0
4.2810001 0.045007538 0.60001624 0
4.289 0.038180124 0.6004203 0
4.2969999 0.031323846 0.60082436 0
4.3050003 0.024438713 0.60122842 0
4.112 -0.019217055 0.59148061 0
4.1070004 -0.025939848 0.59122813 0
4.1040001 -0.032637388 0.59107655 0
4.1010003 -0.039324105 0.59092504 0
4.1000004 -0.046 0.59087455 0
4.1000004 -0.052674092 0.59087455 0
4.1000004 -0.059348181 0.59087455 0
4.1010003 -0.066027686 0.59092504 0
4.1040001 -0.072725222 0.59107655 0
4.1070004 -0.07943359 0.59122813 0
4.1129999 -0.086185239 0.59153116 0
4.1200004 -0.092971161 0.59188467 0
4.1280003 -0.099796772 0.59228873 0
4.1350002 -0.10663502 0.59264231 0
4.1430001 -0.11351654 0.59304631 0
4.151 -0.12042694 0.59345037 0
4.1589999 -0.12736619 0.59385443 0
4.1670003 -0.1343343 0.59425849 0
4.1750002 -0.14133127 0.59466255 0
4.184 -0.14838415 0.59511709 0
4.1920004 -0.15544066 0.59552115 0
4.2000003 -0.16252601 0.59592521 0
3.9040003 -0.24193688 0.58097523 0
3.8960001 -0.24779563 0.58057117 0
3.8890002 -0.25368506 0.58021766 0
3.8840003 -0.2596719 0.57996511 0
3.8800004 -0.26570386 0.57976311 0
3.8770003 -0.2717863 0.57961154 0
3.8740003 -0.2778579 0.57946002 0
3.8730001 -0.28405577 0.57940954 0
3.8720002 -0.29025006 0.57935905 0
3.8710003 -0.29644075 0.57930851 0
3.8710003 -0.30270174 0.57930851 0
3.8720002 -0.30903852 0.57935905 0
3.8740003 -0.31545648 0.57946002 0
3.8760002 -0.32188165 0.57956105 0
3.8790002 -0.32839519 0.57971257 0
3.8830004 -0.33500257 0.57991463 0
3.8880002 -0.34170911 0.58016711 0
3.8950002 -0.34860688 0.58052069 0
4.0950003 -0.40591386 0.59062201 0
4.086 -0.41168606 0.59016746 0
4.079 -0.41762778 0.58981389 0
4.0740004 -0.42374992 0.5895614 0
4.0700002 -0.42995861 0.58935934 0
4.066 -0.43615291 0.58915734 0
4.0640001 -0.4425492 0.58905631 0
4.0620003 -0.44893828 0.58895528 0
4.0610003 -0.455432 0.5889048 0
4.0610003 -0.46203578 0.5889048 0
4.0610003 -0.46863949 0.5889048 0
4.0620003 -0.47536048 0.58895528 0
4.0640001 -0.48220414 0.58905631 0
4.0669999 -0.48917586 0.58920783 0
4.0710001 -0.49628106 0.58940983 0
4.0770001 -0.50364959 0.58971292 0
4.217 0.13989867 0.58989871 0
4.211 0.13273214 0.58960646 0
4.2049999 0.12558724 0.58931422 0
4.198 0.11842072 0.58897334 0
4.204 0.11181879 0.58926553 0
4.2120004 0.10527457 0.58965516 0
4.2190003 0.098663613 0.5899961 0
4.2270002 0.092063472 0.59038568 0
4.2350001 0.085434482 0.59077537 0
4.2420001 0.078744173 0.59111625 0
4.25 0.072059259 0.59150589 0
4.2580004 0.065345481 0.59189552 0
4.2660003 0.058602836 0.59228516 0
4.2730002 0.051806089 0.59262604 0
4.2810001 0.045007538 0.59301567 0
4.289 0.038180124 0.59340531 0
4.2969999 0.031323846 0.59379494 0
4.3050003 0.024438713 0.59418452 0
4.112 -0.019217055 0.58478487 0
4.1070004 -0.025939848 0.58454138 0
4.1040001 -0.032637388 0.58439529 0
4.1010003 -0.039324105 0.58424914 0
4.1000004 -0.046 0.5842005 0
4.1000004 -0.052674092 0.5842005 0
4.1000004 -0.059348181 0.5842005 0
4.1010003 -0.066027686 0.58424914 0
4.1040001 -0.072725222 0.58439529 0
4.1070004 -0.07943359 0.58454138 0
4.1129999 -0.086185239 0.58483356 0
4.1200004 -0.092971161 0.5851745 0
4.1280003 -0.099796772 0.58556414 0
4.1350002 -0.10663502 0.58590508 0
4.1430001 -0.11351654 0.58629465 0
4.151 -0.12042694 0.58668429 0
4.1589999 -0.12736619 0.58707392 0
4.1670003 -0.1343343 0.58746356 0
4.1750002 -0.14133127 0.58785319 0
4.184 -0.14838415 0.58829153 0
4.1920004 -0.15544066 0.5886811 0
4.2000003 -0.16252601 0.58907074 0
4.2080002 -0.16964023 0.58946037 0
3.9040003 -0.24193688 0.5746547 0
3.8960001 -0.24779563 0.57426506 0
3.8890002 -0.25368506 0.57392418 0
3.8840003 -0.2596719 0.57368064 0
3.8800004 -0.26570386 0.57348585 0
3.8770003 -0.2717863 0.5733397 0
3.8750002 -0.27792466 0.57324231 0
3.8730001 -0.28405577 0.57314491 0
3.8720002 -0.29025006 0.57309622 0
3.8710003 -0.29644075 0.57304752 0
3.8720002 -0.30277571 0.57309622 0
3.8720002 -0.30903852 0.57309622 0
3.8740003 -0.31545648 0.57319361 0
3.8760002 -0.32188165 0.573291 0
3.8790002 -0.32839519 0.57343709 0
3.8830004 -0.33500257 0.57363194 0
3.8880002 -0.34170911 0.57387543 0
4.0929999 -0.40571901 0.5838595 0
4.0840001 -0.41148764 0.58342123 0
4.0780001 -0.41752678 0.58312899 0
4.073 -0.42364711 0.5828855 0
4.0690002 -0.42985398 0.58269066 0
4.066 -0.43615291 0.58254457 0
4.0630002 -0.44244096 0.58239841 0
4.0620003 -0.44893828 0.58234978 0
4.0610003 -0.455432 0.58230102 0
4.0599999 -0.46192208 0.58225232 0
4.0599999 -0.46852404 0.58225232 0
4.0620003 -0.47536048 0.58234978 0
4.0630002 -0.48208508 0.58239841 0
4.066 -0.48905498 0.58254457 0
4.0700002 -0.49615836 0.58273935 0
4.0750003 -0.50340068 0.5829829 0
4.217 0.13989867 0.58301353 0
4.211 0.13273214 0.58273214 0
4.2049999 0.12558724 0.58245075 0
4.198 0.11842072 0.58212245 0
4.204 0.11181879 0.5824039 0
4.2120004 0.10527457 0.58277905 0
4.2190003 0.098663613 0.58310735 0
4.2270002 0.092063472 0.58348256 0
4.2350001 0.085434482 0.58385772 0
4.2420001 0.078744173 0.58418602 0
4.25 0.072059259 0.58456123 0
4.2580004 0.065345481 0.58493638 0
4.2660003 0.058602836 0.58531159 0
4.2730002 0.051806089 0.58563989 0
4.2810001 0.045007538 0.58601511 0
4.289 0.038180124 0.58639026 0
4.2969999 0.031323846 0.58676547 0
4.3050003 0.024438713 0.58714068 0
4.112 -0.019217055 0.57808912 0
4.1070004 -0.025939848 0.57785463 0
4.1040001 -0.032637388 0.57771397 0
4.1010003 -0.039324105 0.5775733 0
4.1000004 -0.046 0.57752633 0
4.1000004 -0.052674092 0.57752633 0
4.1000004 -0.059348181 0.57752633 0
4.1010003 -0.066027686 0.5775733 0
4.1040001 -0.072725222 0.57771397 0
4.1070004 -0.07943359 0.57785463 0
4.1129999 -0.086185239 0.57813603 0
4.1200004 -0.092971161 0.57846439 0
4.1280003 -0.099796772 0.57883954 0
4.1350002 -0.10663502 0.57916784 0
4.1430001 -0.11351654 0.57954299 0
4.151 -0.12042694 0.57991821 0
4.1589999 -0.12736619 0.58029342 0
4.1670003 -0.1343343 0.58066857 0
4.1750002 -0.14133127 0.58104378 0
4.184 -0.14838415 0.5814659 0
4.1920004 -0.15544066 0.58184111 0
4.2000003 -0.16252601 0.58221626 0
4.2080002 -0.16964023 0.58259147 0
4.2160001 -0.17678332 0.58296669 0
3.9050002 -0.24199279 0.56838107 0
3.8970003 -0.24785337 0.56800586 0
3.8900003 -0.2537446 0.56767756 0
3.8850002 -0.25973323 0.56744307 0
3.8810003 -0.26576698 0.5672555 0
3.8780003 -0.27185121 0.56711477 0
3.8760002 -0.27799135 0.56702101 0
3.8740003 -0.28412434 0.56692719 0
3.8730001 -0.2903204 0.56688029 0
3.8720002 -0.2965129 0.56683338 0
3.8720002 -0.30277571 0.56683338 0
3.8730001 -0.30911428 0.56688029 0
3.8750002 -0.31553406 0.5669741 0
3.8770003 -0.32196102 0.56706786 0
3.8800004 -0.32847637 0.56720859 0
3.8840003 -0.33508554 0.56739616 0
3.8890002 -0.34179386 0.56763065 0
4.0929999 -0.40571901 0.57719809 0
4.0840001 -0.41148764 0.57677597 0
4.0780001 -0.41752678 0.57649457 0
4.073 -0.42364711 0.57626009 0
4.0690002 -0.42985398 0.57607251 0
4.0650001 -0.43604648 0.57588494 0
4.0630002 -0.44244096 0.57579112 0
4.0610003 -0.44882828 0.5756973 0
4.0599999 -0.45532015 0.57565039 0
4.0599999 -0.46192208 0.57565039 0
4.0610003 -0.46863949 0.5756973 0
4.0620003 -0.47536048 0.57574421 0
4.0630002 -0.48208508 0.57579112 0
4.066 -0.48905498 0.57593179 0
4.0700002 -0.49615836 0.57611936 0
4.0750003 -0.50340068 0.57635391 0
4.217 0.13989867 0.57612842 0
4.211 0.13273214 0.57585782 0
4.2049999 0.12558724 0.57558727 0
4.198 0.11842072 0.57527161 0
4.204 0.11181879 0.57554221 0
4.2120004 0.10527457 0.57590294 0
4.2190003 0.098663613 0.57621861 0
4.2270002 0.092063472 0.57657933 0
4.2350001 0.085434482 0.57694012 0
4.2420001 0.078744173 0.57725579 0
4.25 0.072059259 0.57761657 0
4.2580004 0.065345481 0.5779773 0
4.2660003 0.058602836 0.57833809 0
4.2730002 0.051806089 0.57865375 0
4.2810001 0.045007538 0.57901454 0
4.289 0.038180124 0.57937527 0
4.2969999 0.031323846 0.57973599 0
4.3050003 0.024438713 0.58009678 0
4.112 -0.019217055 0.57139343 0
4.1070004 -0.025939848 0.57116795 0
4.1040001 -0.032637388 0.57103264 0
4.1010003 -0.039324105 0.5708974 0
4.1000004 -0.046 0.57085228 0
4.1000004 -0.052674092 0.57085228 0
4.1000004 -0.059348181 0.57085228 0
4.1010003 -0.066027686 0.5708974 0
4.1040001 -0.072725222 0.57103264 0
4.1070004 -0.07943359 0.57116795 0
4.1129999 -0.086185239 0.57143849 0
4.1200004 -0.092971161 0.57175422 0
4.1280003 -0.099796772 0.57211494 0
4.1350002 -0.10663502 0.57243061 0
4.1430001 -0.11351654 0.57279134 0
4.151 -0.12042694 0.57315212 0
4.1589999 -0.12736619 0.57351291 0
4.1670003 -0.1343343 0.57387364 0
4.1750002 -0.14133127 0.57423443 0
4.184 -0.14838415 0.57464027 0
4.1920004 -0.15544066 0.57500106 0
4.2000003 -0.16252601 0.57536179 0
4.2080002 -0.16964023 0.57572258 0
4.2160001 -0.17678332 0.5760833 0
3.8990002 -0.24796879 0.56178814 0
3.8920002 -0.25386363 0.56147248 0
3.8870003 -0.2598559 0.56124699 0
3.8830004 -0.26589325 0.56106663 0
3.8790002 -0.27191615 0.56088626 0
3.8770003 -0.27805811 0.56079602 0
3.8750002 -0.28419286 0.56070584 0
3.8740003 -0.29039076 0.56066078 0
3.8740003 -0.2966572 0.56066078 0
3.8740003 -0.30292362 0.56066078 0
3.8750002 -0.30926582 0.56070584 0
3.8760002 -0.3156116 0.56075096 0
3.8780003 -0.32204041 0.56084114 0
3.8810003 -0.32855755 0.56097639 0
3.8860002 -0.33525148 0.56120193 0
3.8910003 -0.34196344 0.56142735 0
4.085 -0.41158682 0.57017589 0
4.0780001 -0.41752678 0.56986016 0
4.073 -0.42364711 0.56963468 0
4.0690002 -0.42985398 0.56945431 0
4.066 -0.43615291 0.56931901 0
4.0640001 -0.4425492 0.56922889 0
4.0620003 -0.44893828 0.56913865 0
4.0610003 -0.455432 0.56909359 0
4.0610003 -0.46203578 0.56909359 0
4.0610003 -0.46863949 0.56909359 0
4.0620003 -0.47536048 0.56913865 0
4.0640001 -0.48220414 0.56922889 0
4.0669999 -0.48917586 0.56936413 0
4.0700002 -0.49615836 0.56949943 0
4.0760002 -0.50352514 0.56976998 0
4.217 0.13989867 0.56924325 0
4.211 0.13273214 0.56898355 0
4.2049999 0.12558724 0.5687238 0
4.198 0.11842072 0.56842077 0
4.204 0.11181879 0.56868052 0
4.2120004 0.10527457 0.56902683 0
4.2190003 0.098663613 0.56932986 0
4.2270002 0.092063472 0.56967616 0
4.2350001 0.085434482 0.57002252 0
4.2420001 0.078744173 0.57032555 0
4.25 0.072059259 0.57067192 0
4.2580004 0.065345481 0.57101822 0
4.2660003 0.058602836 0.57136452 0
4.2730002 0.051806089 0.57166761 0
4.2810001 0.045007538 0.57201391 0
4.289 0.038180124 0.57236028 0
4.2969999 0.031323846 0.57270658 0
4.3050003 0.024438713 0.57305288 0
4.112 -0.019217055 0.56469768 0
4.1070004 -0.025939848 0.56448126 0
4.1040001 -0.032637388 0.56435132 0
4.1010003 -0.039324105 0.5642215 0
4.1000004 -0.046 0.56417817 0
4.1000004 -0.052674092 0.56417817 0
4.1000004 -0.059348181 0.56417817 0
4.1010003 -0.066027686 0.5642215 0
4.1040001 -0.072725222 0.56435132 0
4.1070004 -0.07943359 0.56448126 0
4.1129999 -0.086185239 0.56474096 0
4.1200004 -0.092971161 0.56504405 0
4.1280003 -0.099796772 0.56539035 0
4.1350002 -0.10663502 0.56569338 0
4.1430001 -0.11351654 0.56603974 0
4.151 -0.12042694 0.56638604 0
4.1589999 -0.12736619 0.56673241 0
3.9020002 -0.24814196 0.55560648 0
3.8950002 -0.25404221 0.55530345 0
3.8890002 -0.25997853 0.5550437 0
3.8850002 -0.26601949 0.55487055 0
3.8820002 -0.27211097 0.55474067 0
3.8790002 -0.2781916 0.55461079 0
3.8770003 -0.28432995 0.55452418 0
3.8760002 -0.29053143 0.55448091 0
3.8760002 -0.29680151 0.55448091 0
3.8760002 -0.30307153 0.55448091 0
3.8770003 -0.30941734 0.55452418 0
3.8780003 -0.31576672 0.55456746 0
3.8810003 -0.32227847 0.55469739 0
3.8840003 -0.32880107 0.55482721 0
3.8880002 -0.33541745 0.55500042 0
3.8940003 -0.34221777 0.55526018 0
4.0870004 -0.41178527 0.56361538 0
4.0799999 -0.41772878 0.56331235 0
4.0750003 -0.42385271 0.56309593 0
4.0710001 -0.43006325 0.56292272 0
4.0669999 -0.4362593 0.56274956 0
4.0650001 -0.44265744 0.56266296 0
4.0630002 -0.44904831 0.56257641 0
4.0620003 -0.45554385 0.56253314 0
4.0620003 -0.46214938 0.56253314 0
4.0620003 -0.46875495 0.56253314 0
4.0630002 -0.4754777 0.56257641 0
4.0650001 -0.48232317 0.56266296 0
4.0680003 -0.4892967 0.5627929 0
4.072 -0.49640369 0.56296605 0
4.0780001 -0.50377405 0.56322575 0
4.217 0.13989867 0.56235814 0
4.211 0.13273214 0.56210923 0
4.2049999 0.12558724 0.56186026 0
4.198 0.11842072 0.56156987 0
4.204 0.11181879 0.56181884 0
4.2120004 0.10527457 0.56215072 0
4.2190003 0.098663613 0.56244111 0
4.2270002 0.092063472 0.56277299 0
4.2350001 0.085434482 0.56310493 0
4.2420001 0.078744173 0.56339532 0
4.25 0.072059259 0.56372726 0
4.2580004 0.065345481 0.56405914 0
4.2660003 0.058602836 0.56439102 0
4.2730002 0.051806089 0.56468141 0
4.2810001 0.045007538 0.56501335 0
4.289 0.038180124 0.56534529 0
4.2969999 0.031323846 0.56567717 0
4.3050003 0.024438713 0.56600904 0
4.112 -0.019217055 0.55800194 0
4.1070004 -0.025939848 0.55779451 0
4.1040001 -0.032637388 0.55767006 0
4.1010003 -0.039324105 0.55754554 0
4.1000004 -0.046 0.55750412 0
4.1000004 -0.052674092 0.55750412 0
4.1000004 -0.059348181 0.55750412 0
4.1010003 -0.066027686 0.55754554 0
4.1040001 -0.072725222 0.55767006 0
4.1070004 -0.07943359 0.55779451 0
4.1129999 -0.086185239 0.55804342 0
4.1200004 -0.092971161 0.55833387 0
4.1280003 -0.099796772 0.55866575 0
4.1350002 -0.10663502 0.55895615 0
3.9060004 -0.24837287 0.54945552 0
3.8980002 -0.25422078 0.54912359 0
3.8930004 -0.26022387 0.54891616 0
3.8880002 -0.26620889 0.54870874 0
3.8850002 -0.27230579 0.54858428 0
3.8820002 -0.27839181 0.54845977 0
3.8800004 -0.28453559 0.5483768 0
3.8790002 -0.29074249 0.54833531 0
3.8790002 -0.29701796 0.54833531 0
3.8790002 -0.30329341 0.54833531 0
3.8800004 -0.30964461 0.5483768 0
3.8810003 -0.31599945 0.54841828 0
3.8840003 -0.32251659 0.5485428 0
3.8870003 -0.32904458 0.54866725 0
3.8920002 -0.33574933 0.54887468 0
4.0900002 -0.41208285 0.55708921 0
4.0830002 -0.41803184 0.55679882 0
4.0770001 -0.42405838 0.55654991 0
4.073 -0.43027249 0.55638391 0
4.0700002 -0.43657857 0.55625945 0
4.0669999 -0.44287387 0.556135 0
4.0650001 -0.4492684 0.55605203 0
4.0640001 -0.45576751 0.55601054 0
4.0640001 -0.46237668 0.55601054 0
4.0640001 -0.46898583 0.55601054 0
4.066 -0.47582945 0.55609351 0
4.0680003 -0.48268032 0.55617648 0
4.0710001 -0.48965928 0.55630094 0
4.0750003 -0.49677166 0.55646694 0
4.0799999 -0.50402296 0.55667436 0
4.217 0.13989867 0.55547303 0
4.211 0.13273214 0.55523491 0
4.2049999 0.12558724 0.55499679 0
4.198 0.11842072 0.55471897 0
4.204 0.11181879 0.55495715 0
4.2120004 0.10527457 0.55527461 0
4.2190003 0.098663613 0.55555236 0
4.2270002 0.092063472 0.55586982 0
4.2350001 0.085434482 0.55618733 0
4.2420001 0.078744173 0.55646509 0
4.25 0.072059259 0.5567826 0
4.2580004 0.065345481 0.55710006 0
4.2660003 0.058602836 0.55741751 0
4.2730002 0.051806089 0.55769527 0
4.2810001 0.045007538 0.55801278 0
4.289 0.038180124 0.55833024 0
4.2969999 0.031323846 0.55864769 0
4.3050003 0.024438713 0.55896521 0
4.112 -0.019217055 0.55130619 0
4.1070004 -0.025939848 0.55110776 0
4.1040001 -0.032637388 0.55098873 0
4.1010003 -0.039324105 0.5508697 0
4.1000004 -0.046 0.55083001 0
4.1000004 -0.052674092 0.55083001 0
4.1000004 -0.059348181 0.55083001 0
4.1010003 -0.066027686 0.5508697 0
4.1040001 -0.072725222 0.55098873 0
4.1070004 -0.07943359 0.55110776 0
4.1129999 -0.086185239 0.55134588 0
4.1200004 -0.092971161 0.5516237 0
4.1280003 -0.099796772 0.55194116 0
3.9040003 -0.25457793 0.54305196 0
3.8970003 -0.2604692 0.5427742 0
3.8920002 -0.26646143 0.54257578 0
3.8890002 -0.27256551 0.54245675 0
3.8860002 -0.27865878 0.54233766 0
3.8840003 -0.2848098 0.54225832 0
3.8830004 -0.29102388 0.54221863 0
3.8820002 -0.29723439 0.54217893 0
3.8820002 -0.30351529 0.54217893 0
3.8830004 -0.30987191 0.54221863 0
3.8850002 -0.31630969 0.54229796 0
3.8880002 -0.32283404 0.54241705 0
3.8920002 -0.32945043 0.54257578 0
3.8970003 -0.33616421 0.5427742 0
4.086 -0.41833487 0.55027443 0
4.0799999 -0.42436683 0.55003631 0
4.0760002 -0.43058634 0.54987758 0
4.072 -0.43679145 0.54971886 0
4.0700002 -0.44319859 0.54963946 0
4.0680003 -0.44959849 0.54956013 0
4.0669999 -0.456103 0.54952043 0
4.0669999 -0.46271756 0.54952043 0
4.0669999 -0.46933213 0.54952043 0
4.0690002 -0.47618121 0.54959983 0
4.0710001 -0.48303747 0.54967916 0
4.0740004 -0.49002185 0.54979825 0
4.079 -0.49726233 0.54999661 0
4.217 0.13989867 0.54858786 0
4.211 0.13273214 0.54836059 0
4.2049999 0.12558724 0.54813331 0
4.198 0.11842072 0.54786813 0
4.204 0.11181879 0.54809546 0
4.2120004 0.10527457 0.54839849 0
4.2190003 0.098663613 0.54866362 0
4.2270002 0.092063472 0.54896665 0
4.2350001 0.085434482 0.54926968 0
4.2420001 0.078744173 0.54953486 0
4.25 0.072059259 0.54983795 0
4.2580004 0.065345481 0.55014098 0
4.2660003 0.058602836 0.55044401 0
4.2730002 0.051806089 0.55070913 0
4.2810001 0.045007538 0.55101216 0
4.289 0.038180124 0.55131525 0
4.2969999 0.031323846 0.55161828 0
4.3050003 0.024438713 0.55192131 0
4.112 -0.019217055 0.5446105 0
4.1070004 -0.025939848 0.54442108 0
4.1040001 -0.032637388 0.54430747 0
4.1010003 -0.039324105 0.5441938 0
4.1000004 -0.046 0.5441559 0
4.1000004 -0.052674092 0.5441559 0
4.1000004 -0.059348181 0.5441559 0
4.1010003 -0.066027686 0.5441938 0
4.1040001 -0.072725222 0.54430747 0
4.1080003 -0.079442605 0.54445899 0
4.1129999 -0.086185239 0.54464835 0
4.1200004 -0.092971161 0.54491353 0
3.9110003 -0.25499463 0.5369966 0
3.9030004 -0.26083717 0.53669357 0
3.8980002 -0.26684025 0.53650415 0
3.8940003 -0.27289021 0.53635263 0
3.8910003 -0.2789925 0.53623903 0
3.8880002 -0.28508395 0.53612536 0
3.8870003 -0.2913053 0.53608751 0
3.8870003 -0.29759517 0.53608751 0
3.8870003 -0.30388507 0.53608751 0
3.8880002 -0.3102507 0.53612536 0
3.8900003 -0.31669751 0.53620112 0
3.8930004 -0.32323092 0.53631473 0
3.8980002 -0.32993746 0.53650415 0
3.9040003 -0.33674502 0.53673148 0
4.0910001 -0.41883996 0.54381502 0
4.085 -0.42488092 0.54358768 0
4.0799999 -0.43100482 0.54339832 0
4.0760002 -0.43721715 0.54324681 0
4.0740004 -0.4436315 0.54317105 0
4.072 -0.45003861 0.54309529 0
4.0710001 -0.45655039 0.54305738 0
4.0710001 -0.46317214 0.54305738 0
4.0710001 -0.46979395 0.54305738 0
4.073 -0.47665021 0.54313314 0
4.0750003 -0.48351371 0.5432089 0
4.079 -0.4906261 0.54336041 0
4.0840001 -0.49787563 0.54354984 0
4.217 0.13989867 0.54170275 0
4.211 0.13273214 0.54148626 0
4.2049999 0.12558724 0.54126978 0
4.198 0.11842072 0.54101729 0
4.204 0.11181879 0.54123378 0
4.2120004 0.10527457 0.54152238 0
4.2190003 0.098663613 0.54177487 0
4.2270002 0.092063472 0.54206347 0
4.2350001 0.085434482 0.54235208 0
4.2420001 0.078744173 0.54260463 0
4.25 0.072059259 0.54289323 0
4.2580004 0.065345481 0.54318184 0
4.2660003 0.058602836 0.5434705 0
4.2730002 0.051806089 0.54372299 0
4.2810001 0.045007538 0.54401159 0
4.289 0.038180124 0.5443002 0
4.2969999 0.031323846 0.5445888 0
4.3050003 0.024438713 0.54487741 0
4.112 -0.019217055 0.53791475 0
4.1070004 -0.025939848 0.53773439 0
4.1040001 -0.032637388 0.53762615 0
4.1010003 -0.039324105 0.53751791 0
4.1000004 -0.046 0.53748184 0
4.1000004 -0.052674092 0.53748184 0
4.1000004 -0.059348181 0.53748184 0
4.1010003 -0.066027686 0.53751791 0
4.1040001 -0.072725222 0.53762615 0
4.1080003 -0.079442605 0.53777045 0
4.1129999 -0.086185239 0.53795081 0
3.9240003 -0.25576848 0.5311324 0
3.9120002 -0.26138914 0.53069949 0
3.9050002 -0.26728216 0.53044701 0
3.9000003 -0.27327985 0.53026658 0
3.8970003 -0.27939293 0.53015834 0
3.8950002 -0.28556374 0.53008622 0
3.8930004 -0.29172736 0.53001404 0
3.8930004 -0.29802811 0.53001404 0
3.8930004 -0.3043288 0.53001404 0
3.8940003 -0.31070524 0.53005016 0
3.8970003 -0.31724045 0.53015834 0
3.9010003 -0.32386583 0.53030264 0
3.9070003 -0.330668 0.53051913 0
4.098 -0.41954705 0.53740966 0
4.0910001 -0.4254978 0.53715718 0
4.085 -0.43152794 0.53694069 0
4.0810003 -0.4377493 0.53679639 0
4.079 -0.44417262 0.53672421 0
4.0770001 -0.45058879 0.53665209 0
4.0760002 -0.45710954 0.53661597 0
4.0750003 -0.46362671 0.53657991 0
4.0760002 -0.47037113 0.53661597 0
4.0780001 -0.47723642 0.53668815 0
4.0799999 -0.48410892 0.53676027 0
4.0840001 -0.4912304 0.53690463 0
4.217 0.13989867 0.53481758 0
4.211 0.13273214 0.53461194 0
4.2049999 0.12558724 0.5344063 0
4.198 0.11842072 0.53416646 0
4.204 0.11181879 0.53437203 0
4.2120004 0.10527457 0.53464627 0
4.2190003 0.098663613 0.53488612 0
4.2270002 0.092063472 0.5351603 0
4.2350001 0.085434482 0.53543448 0
4.2420001 0.078744173 0.53567439 0
4.25 0.072059259 0.53594857 0
4.2580004 0.065345481 0.53622276 0
4.2660003 0.058602836 0.53649694 0
4.2730002 0.051806089 0.53673685 0
4.2810001 0.045007538 0.53701103 0
4.289 0.038180124 0.53728521 0
4.2969999 0.031323846 0.53755939 0
4.3050003 0.024438713 0.53783357 0
4.112 -0.019217055 0.53121901 0
4.1070004 -0.025939848 0.53104764 0
4.1040001 -0.032637388 0.53094482 0
4.1010003 -0.039324105 0.53084201 0
4.1000004 -0.046 0.53080773 0
4.1000004 -0.052674092 0.53080773 0
4.1000004 -0.059348181 0.53080773 0
4.1010003 -0.066027686 0.53084201 0
4.1040001 -0.072725222 0.53094482 0
4.1080003 -0.079442605 0.53108191 0
4.1129999 -0.086185239 0.53125328 0
3.9160004 -0.26797664 0.52450162 0
3.9100003 -0.27392921 0.52429599 0
3.9050002 -0.27992687 0.52412462 0
3.9030004 -0.28611213 0.52405608 0
3.9010003 -0.29229015 0.52398753 0
3.9010003 -0.29860532 0.52398753 0
3.9010003 -0.30492043 0.52398753 0
3.9030004 -0.31138709 0.52405608 0
3.9060004 -0.31793854 0.5241589 0
3.9120002 -0.32473886 0.52436453 0
4.1090002 -0.4206582 0.53111619 0
4.099 -0.42632031 0.53077346 0
4.0929999 -0.43236488 0.53056782 0
4.0880003 -0.43849424 0.53039646 0
4.085 -0.44482198 0.53029364 0
4.0830002 -0.45124897 0.5302251 0
4.0820003 -0.45778057 0.53019083 0
4.0820003 -0.46442217 0.53019083 0
4.0830002 -0.47117925 0.5302251 0
4.0840001 -0.47793993 0.53025937 0
4.0880003 -0.48506138 0.53039646 0
4.217 0.13989867 0.52793247 0
4.211 0.13273214 0.52773762 0
4.2049999 0.12558724 0.52754283 0
4.198 0.11842072 0.52731556 0
4.204 0.11181879 0.52751034 0
4.2120004 0.10527457 0.5277701 0
4.2190003 0.098663613 0.52799737 0
4.2270002 0.092063472 0.52825713 0
4.2350001 0.085434482 0.52851689 0
4.2420001 0.078744173 0.52874416 0
4.25 0.072059259 0.52900392 0
4.2580004 0.065345481 0.52926368 0
4.2660003 0.058602836 0.52952343 0
4.2730002 0.051806089 0.5297507 0
4.2810001 0.045007538 0.53001046 0
4.289 0.038180124 0.53027022 0
4.2969999 0.031323846 0.53052998 0
4.3050003 0.024438713 0.53078967 0
4.112 -0.019217055 0.52452326 0
4.1070004 -0.025939848 0.5243609 0
4.1040001 -0.032637388 0.5242635 0
4.1010003 -0.039324105 0.52416611 0
4.1000004 -0.046 0.52413362 0
4.1000004 -0.052674092 0.52413362 0
4.1000004 -0.059348181 0.52413362 0
4.1010003 -0.066027686 0.52416611 0
4.1040001 -0.072725222 0.5242635 0
4.1080003 -0.079442605 0.52439338 0
3.9470003 -0.23154514 0.51916593 0
3.9410002 -0.23761855 0.51897115 0
3.9360003 -0.24372625 0.51880878 0
3.9310002 -0.2498159 0.51864648 0
3.9250002 -0.25582799 0.51845163 0
3.9200003 -0.26187977 0.51828933 0
3.9140003 -0.26785037 0.51809448 0
3.9090002 -0.27386427 0.51793218 0
3.9040003 -0.27986014 0.51776981 0
3.9010003 -0.28597504 0.51767242 0
3.9000003 -0.29221985 0.51763994 0
3.8990002 -0.29846099 0.51760745 0
3.9000003 -0.3048465 0.51763994 0
3.9020002 -0.31131133 0.51770484 0
3.9050002 -0.31786096 0.5178023 0
3.9110003 -0.32465953 0.51799709 0
4.1040001 -0.43351576 0.5242635 0
4.098 -0.43955848 0.52406871 0
4.0940003 -0.44579607 0.52393883 0
4.0910001 -0.45212924 0.52384144 0
4.0900002 -0.45867524 0.52380896 0
4.0900002 -0.46533129 0.52380896 0
4.0910001 -0.47210279 0.52384144 0
4.0940003 -0.47911242 0.52393883 0
4.217 0.13989867 0.52104735 0
4.211 0.13273214 0.52086335 0
4.2049999 0.12558724 0.52067935 0
4.198 0.11842072 0.52046472 0
4.204 0.11181879 0.52064866 0
4.2120004 0.10527457 0.52089399 0
4.2190003 0.098663613 0.52110863 0
4.2270002 0.092063472 0.52135396 0
4.2350001 0.085434482 0.52159929 0
4.2420001 0.078744173 0.52181393 0
4.25 0.072059259 0.52205926 0
4.2580004 0.065345481 0.52230459 0
4.2660003 0.058602836 0.52254987 0
4.2730002 0.051806089 0.52276456 0
4.2810001 0.045007538 0.5230099 0
4.289 0.038180124 0.52325517 0
4.2969999 0.031323846 0.5235005 0
4.3050003 0.024438713 0.52374583 0
4.112 -0.019217055 0.51782751 0
4.1070004 -0.025939848 0.51767421 0
4.1040001 -0.032637388 0.51758218 0
4.1010003 -0.039324105 0.51749021 0
4.1000004 -0.046 0.51745957 0
4.1000004 -0.052674092 0.51745957 0
4.1000004 -0.059348181 0.51745957 0
4.1010003 -0.066027686 0.51749021 0
4.1040001 -0.072725222 0.51758218 0
4.1080003 -0.079442605 0.51770484 0
4.0180001 -0.14389268 0.51494503 0
4.013 -0.15027454 0.51479173 0
4.007 -0.15660772 0.51460773 0
4.0009999 -0.16291924 0.51442373 0
3.9960003 -0.1692434 0.51427042 0
3.9900002 -0.17551343 0.51408643 0
3.9840002 -0.18176182 0.51390243 0
3.9790003 -0.18802826 0.51374912 0
3.9730003 -0.19423516 0.51356512 0
3.9680002 -0.20046371 0.51341182 0
3.9620004 -0.20662913 0.51322782 0
3.9570003 -0.2128198 0.51307452 0
3.9510002 -0.21894373 0.51289052 0
3.9460003 -0.22509652 0.51273715 0
3.9400003 -0.23117895 0.51255322 0
3.9350002 -0.23729387 0.51239985 0
3.9290004 -0.24333483 0.51221585 0
3.9240003 -0.24941185 0.51206255 0
3.9180002 -0.2554113 0.51187855 0
3.9130003 -0.26145047 0.51172525 0
3.9080002 -0.26747158 0.51157194 0
3.9030004 -0.27347466 0.51141858 0
3.8990002 -0.27952641 0.51129591 0
3.8960001 -0.28563231 0.51120394 0
3.8950002 -0.29186809 0.51117325 0
3.8940003 -0.29810026 0.51114261 0
3.8950002 -0.30447668 0.51117325 0
3.8970003 -0.31093255 0.51123464 0
3.8990002 -0.31739557 0.51129591 0
3.9040003 -0.32410395 0.51144928 0
3.9110003 -0.3309927 0.51166391 0
4.1230001 -0.40864125 0.51816487 0
4.1170001 -0.41476154 0.51798087 0
4.112 -0.42096123 0.51782751 0
4.1059999 -0.42704004 0.51764357 0
4.1010003 -0.43320188 0.51749021 0
4.0950003 -0.4392392 0.51730621 0
4.0910001 -0.44547138 0.51718354 0
4.0890002 -0.45190915 0.51712227 0
4.0880003 -0.45845157 0.51709157 0
4.0880003 -0.46510401 0.51709157 0
4.0890002 -0.47187191 0.51712227 0
4.092 -0.4788779 0.51721424 0
4.0970001 -0.48613283 0.51736754 0
4.217 0.13989867 0.51416218 0
4.211 0.13273214 0.51398903 0
4.2049999 0.12558724 0.51381588 0
4.198 0.11842072 0.51361382 0
4.204 0.11181879 0.51378697 0
4.2120004 0.10527457 0.51401788 0
4.2190003 0.098663613 0.51421994 0
4.2270002 0.092063472 0.51445079 0
4.2350001 0.085434482 0.5146817 0
4.2420001 0.078744173 0.5148837 0
4.25 0.072059259 0.51511461 0
4.2580004 0.065345481 0.51534551 0
4.2660003 0.058602836 0.51557636 0
4.2730002 0.051806089 0.51577842 0
4.2810001 0.045007538 0.51600927 0
4.289 0.038180124 0.51624018 0
4.2969999 0.031323846 0.51647103 0
4.3050003 0.024438713 0.51670194 0
4.112 -0.019217055 0.51113176 0
4.1070004 -0.025939848 0.51098752 0
4.1040001 -0.032637388 0.51090091 0
4.1010003 -0.039324105 0.51081431 0
4.1000004 -0.046 0.51078546 0
4.1000004 -0.052674092 0.51078546 0
4.1000004 -0.059348181 0.51078546 0
4.1010003 -0.066027686 0.51081431 0
4.1040001 -0.072725222 0.51090091 0
4.0469999 -0.1052064 0.50925583 0
4.0410004 -0.11167666 0.50908267 0
4.0350003 -0.11812527 0.50890952 0
4.0300002 -0.12457389 0.50876522 0
4.0240002 -0.13098101 0.50859201 0
4.0180001 -0.1373665 0.50841886 0
4.013 -0.14375739 0.50827456 0
4.007 -0.15010138 0.5081014 0
4.0009999 -0.15642373 0.50792825 0
3.9960003 -0.1627569 0.50778395 0
3.9900002 -0.16903776 0.50761074 0
3.9850004 -0.17533305 0.50746644 0
3.9790003 -0.18157242 0.50729328 0
3.9740002 -0.18782984 0.50714898 0
3.9680002 -0.19402772 0.50697583 0
3.9630003 -0.20024726 0.50683153 0
3.9570003 -0.20640364 0.50665832 0
3.9520004 -0.2125853 0.50651407 0
3.9460003 -0.21870022 0.50634086 0
3.9410002 -0.22484398 0.50619656 0
3.9350002 -0.23091739 0.50602341 0
3.9300003 -0.23702331 0.5058791 0
3.9250002 -0.24311115 0.5057348 0
3.9190001 -0.24912323 0.50556165 0
3.9140003 -0.25517321 0.50541735 0
3.9090002 -0.26120514 0.50527304 0
3.9030004 -0.26715592 0.50509989 0
3.8990002 -0.27321491 0.50498438 0
3.8950002 -0.27925944 0.50486898 0
3.8930004 -0.28542668 0.50481123 0
3.8910003 -0.29158667 0.50475353 0
3.8910003 -0.29788381 0.50475353 0
3.8910003 -0.30418089 0.50475353 0
3.8930004 -0.31062949 0.50481123 0
3.8950002 -0.31708533 0.50486898 0
3.8990002 -0.3237071 0.50498438 0
3.9050002 -0.33050567 0.50515759 0
4.1330004 -0.38941443 0.51173788 0
4.1270003 -0.39558527 0.51156473 0
4.1220002 -0.40183005 0.51142037 0
4.1160002 -0.40795937 0.51124722 0
4.1110001 -0.41416627 0.51110291 0
4.105 -0.42025414 0.51092976 0
4.1000004 -0.42642316 0.51078546 0
4.0950003 -0.43257415 0.51064116 0
4.0900002 -0.43870708 0.51049685 0
4.086 -0.44493023 0.5103814 0
4.0840001 -0.451359 0.5103237 0
4.0830002 -0.45789239 0.5102948 0
4.0830002 -0.4645358 0.5102948 0
4.0840001 -0.4712947 0.5103237 0
4.086 -0.47817442 0.5103814 0
4.0900002 -0.48529947 0.51049685 0
4.217 0.13989867 0.50727707 0
4.211 0.13273214 0.50711471 0
4.2049999 0.12558724 0.50695235 0
4.198 0.11842072 0.50676298 0
4.204 0.11181879 0.50692528 0
4.2120004 0.10527457 0.50714177 0
4.2190003 0.098663613 0.50733119 0
4.2270002 0.092063472 0.50754762 0
4.2350001 0.085434482 0.5077641 0
4.2420001 0.078744173 0.50795346 0
4.25 0.072059259 0.50816995 0
4.2580004 0.065345481 0.50838637 0
4.2660003 0.058602836 0.50860286 0
4.2730002 0.051806089 0.50879228 0
4.2810001 0.045007538 0.50900871 0
4.289 0.038180124 0.50922519 0
4.2969999 0.031323846 0.50944161 0
4.3050003 0.024438713 0.5096581 0
4.112 -0.019217055 0.50443608 0
4.1070004 -0.025939848 0.50430077 0
4.1040001 -0.032637388 0.50421959 0
4.1010003 -0.039324105 0.50413841 0
4.1000004 -0.046 0.50411135 0
4.1000004 -0.052674092 0.50411135 0
4.1000004 -0.059348181 0.50411135 0
4.1010003 -0.066027686 0.50413841 0
4.1040001 -0.072725222 0.50421959 0
4.0480003 -0.098642342 0.50270438 0
4.0420003 -0.10512522 0.50254208 0
4.0370002 -0.11160451 0.50240678 0
4.0310001 -0.11804591 0.50224441 0
4.0250001 -0.12446566 0.50208211 0
4.02 -0.13088721 0.50194681 0
4.0139999 -0.13726547 0.50178444 0
4.0090003 -0.14364916 0.50164914 0
4.0030003 -0.14998594 0.50148684 0
3.9970002 -0.15630107 0.50132447 0
3.9920003 -0.16262703 0.50118923 0
3.9860003 -0.16890067 0.50102687 0
3.9810002 -0.17518875 0.50089157 0
3.9750004 -0.18142091 0.5007292 0
3.9700003 -0.1876711 0.50059396 0
3.9650002 -0.19390325 0.50045866 0
3.9590003 -0.20007409 0.50029629 0
3.9540002 -0.20626837 0.50016105 0
3.9480002 -0.21239769 0.49999869 0
3.9430003 -0.21855409 0.49986342 0
3.9380002 -0.22469246 0.49972811 0
3.9320002 -0.23076047 0.49956578 0
3.9270003 -0.23686095 0.49943048 0
3.9220002 -0.24294338 0.4992952 0
3.9160004 -0.24895008 0.49913287 0
3.9110003 -0.25499463 0.49899757 0
3.9060004 -0.26102117 0.4988623 0
3.9000003 -0.26696652 0.49869996 0
3.8960001 -0.27302009 0.49859172 0
3.8930004 -0.27912599 0.49851054 0
3.8900003 -0.28522104 0.49842936 0
3.8890002 -0.29144597 0.49840233 0
3.8890002 -0.29773948 0.49840233 0
3.8890002 -0.30403295 0.49840233 0
3.8900003 -0.31040224 0.49842936 0
3.8930004 -0.3169302 0.49851054 0
3.8960001 -0.32346898 0.49859172 0
3.9010003 -0.33018097 0.49872699 0
4.1340003 -0.38277102 0.50503129 0
4.1280003 -0.38895446 0.50486898 0
4.1230001 -0.39521006 0.50473368 0
4.1170001 -0.40135202 0.50457132 0
4.112 -0.40756977 0.50443608 0
4.1059999 -0.41367021 0.50427371 0
4.1010003 -0.41985008 0.50413841 0
4.0960002 -0.42601189 0.50400317 0
4.0900002 -0.43205103 0.5038408 0
4.086 -0.43828139 0.50373256 0
4.0830002 -0.44460556 0.50365138 0
4.0799999 -0.45091888 0.5035702 0
4.079 -0.45744506 0.50354314 0
4.079 -0.46408126 0.50354314 0
4.0799999 -0.47083291 0.5035702 0
4.0820003 -0.47770545 0.50362432 0
4.085 -0.4847042 0.5037055 0
4.0910001 -0.49207637 0.50386786 0
4.217 0.13989867 0.5003919 0
4.211 0.13273214 0.50024039 0
4.2049999 0.12558724 0.50008887 0
4.198 0.11842072 0.49991211 0
4.204 0.11181879 0.5000636 0
4.2120004 0.10527457 0.50026566 0
4.2190003 0.098663613 0.50044245 0
4.2270002 0.092063472 0.50064445 0
4.2350001 0.085434482 0.50084651 0
4.2420001 0.078744173 0.50102323 0
4.25 0.072059259 0.50122529 0
4.2580004 0.065345481 0.50142729 0
4.2660003 0.058602836 0.50162935 0
4.2730002 0.051806089 0.50180608 0
4.2810001 0.045007538 0.50200814 0
4.289 0.038180124 0.50221014 0
4.2969999 0.031323846 0.5024122 0
4.3050003 0.024438713 0.5026142 0
4.112 -0.019217055 0.49774033 0
4.1070004 -0.025939848 0.49761406 0
4.1040001 -0.032637388 0.4975383 0
4.1010003 -0.039324105 0.49746254 0
4.1000004 -0.046 0.4974373 0
4.1000004 -0.052674092 0.4974373 0
4.1000004 -0.059348181 0.4974373 0
4.1010003 -0.066027686 0.49746254 0
4.1040001 -0.072725222 0.4975383 0
4.0510001 -0.092099927 0.49619988 0
4.0450001 -0.098599046 0.49604833 0
4.04 -0.10509276 0.49592209 0
4.0339999 -0.11155039 0.49577057 0
4.0280004 -0.11798638 0.49561906 0
4.0230002 -0.12442237 0.49549276 0
4.0170002 -0.13081686 0.49534124 0
4.0120001 -0.13721497 0.495215 0
4.006 -0.14356799 0.49506348 0
4 -0.14989935 0.49491194 0
3.9950004 -0.15623975 0.49478567 0
