# .PCD v0.7 - Point Cloud Data file format
VERSION 0.7
FIELDS x y z intensity
SIZE 4 4 4 4
TYPE F F F F
COUNT 1 1 1 1
WIDTH 1374
HEIGHT 1
VIEWPOINT 0 0 0 1 0 0 0
POINTS 1374
DATA ascii
2.7450001 -0.54513174 0.26441231 0
2.7370002 -0.5476445 0.26488853 0
2.7310002 -0.55056125 0.26524568 0
2.7260003 -0.55367464 0.26554328 0
2.7220001 -0.55698997 0.2657814 0
2.7190001 -0.56051284 0.26595998 0
2.7160003 -0.56402487 0.26613855 0
2.7130003 -0.5675261 0.26631713 0
2.7110002 -0.5712437 0.26643619 0
2.7090001 -0.57495415 0.26655525 0
2.7080002 -0.57888824 0.26661476 0
2.7070003 -0.58281875 0.26667428 0
2.7060001 -0.58674562 0.26673383 0
2.7060001 -0.59090519 0.26673383 0
2.7050002 -0.5948267 0.26679334 0
2.7060001 -0.59922433 0.26673383 0
2.7060001 -0.60338396 0.26673383 0
2.7070003 -0.60778707 0.26667428 0
2.7090001 -0.61243904 0.26655525 0
2.7110002 -0.61709833 0.26643619 0
2.7140002 -0.62201375 0.26625758 0
2.7180002 -0.62719059 0.26601952 0
2.7240002 -0.63288707 0.26566237 0
2.7360003 -0.64013118 0.26494804 0
3.2170002 -0.29498506 0.23123486 0
3.2110002 -0.29952523 0.23160285 0
3.2070003 -0.3042278 0.23184817 0
3.2040002 -0.3090097 0.23203215 0
3.2030003 -0.31397194 0.23209347 0
2.9220002 -0.29165703 0.24932708 0
2.9140003 -0.29541257 0.2498177 0
2.9100003 -0.29954329 0.250063 0
2.9070003 -0.30376241 0.250247 0
2.9040003 -0.30797067 0.250431 0
2.7450001 -0.29556587 0.26018238 0
2.7360003 -0.29882178 0.26073435 0
2.7290001 -0.30226523 0.26116365 0
2.7250001 -0.30601898 0.26140898 0
2.7210002 -0.30975825 0.26165432 0
2.7170002 -0.31348312 0.26189959 0
2.7150002 -0.31742805 0.26202226 0
2.7120001 -0.32124668 0.26220626 0
2.7100003 -0.32517543 0.26232892 0
2.7090001 -0.32921952 0.26239026 0
2.7080002 -0.33326006 0.26245159 0
2.7070003 -0.33729699 0.26251292 0
2.7070003 -0.34145838 0.26251292 0
2.7070003 -0.34561977 0.26251292 0
2.7070003 -0.34978116 0.26251292 0
2.7080002 -0.35407603 0.26245159 0
2.7090001 -0.35837448 0.26239026 0
2.7100003 -0.36267659 0.26232892 0
2.7120001 -0.36712116 0.26220626 0
2.7150002 -0.37171367 0.26202226 0
2.7190001 -0.37645948 0.26177695 0
2.7230003 -0.38121974 0.26153162 0
2.7300003 -0.38643274 0.26110232 0
3.2260003 -0.59143913 0.23068289 0
3.2160003 -0.59458858 0.23129618 0
3.2110002 -0.59868503 0.23160285 0
3.2070003 -0.6029619 0.23184817 0
3.2040002 -0.6074245 0.23203215 0
3.2020001 -0.61207831 0.23215482 0
3.2010002 -0.61692876 0.23221615 0
3.2000003 -0.62177557 0.23227747 0
3.2010002 -0.62703371 0.23221615 0
3.2020001 -0.63229537 0.23215482 0
2.7450001 -0.54513174 0.26018238 0
2.7370002 -0.5476445 0.26067302 0
2.7310002 -0.55056125 0.26104099 0
2.7260003 -0.55367464 0.26134765 0
2.7220001 -0.55698997 0.26159298 0
2.7190001 -0.56051284 0.26177695 0
2.7160003 -0.56402487 0.26196092 0
2.7130003 -0.5675261 0.26214492 0
2.7110002 -0.5712437 0.26226759 0
2.7090001 -0.57495415 0.26239026 0
2.7080002 -0.57888824 0.26245159 0
2.7070003 -0.58281875 0.26251292 0
2.7060001 -0.58674562 0.26257426 0
2.7060001 -0.59090519 0.26257426 0
2.7050002 -0.5948267 0.26263556 0
2.7060001 -0.59922433 0.26257426 0
2.7060001 -0.60338396 0.26257426 0
2.7070003 -0.60778707 0.26251292 0
2.7090001 -0.61243904 0.26239026 0
2.7110002 -0.61709833 0.26226759 0
2.7140002 -0.62201375 0.26208359 0
2.7180002 -0.62719059 0.26183826 0
2.7240002 -0.63288707 0.26147032 0
2.7360003 -0.64013118 0.26073435 0
3.2170002 -0.29498506 0.22615354 0
3.2110002 -0.29952523 0.22653234 0
3.2070003 -0.3042278 0.22678488 0
3.2040002 -0.3090097 0.22697426 0
3.2030003 -0.31397194 0.2270374 0
2.9220002 -0.29165703 0.24477786 0
2.9140003 -0.29541257 0.24528292 0
2.9100003 -0.29954329 0.24553546 0
2.9070003 -0.30376241 0.24572486 0
2.9040003 -0.30797067 0.24591425 0
2.7450001 -0.29556587 0.25595245 0
2.7360003 -0.29882178 0.25652063 0
2.7290001 -0.30226523 0.2569626 0
2.7250001 -0.30601898 0.25721514 0
2.7210002 -0.30975825 0.25746766 0
2.7170002 -0.31348312 0.25772017 0
2.7150002 -0.31742805 0.25784647 0
2.7120001 -0.32124668 0.25803587 0
2.7100003 -0.32517543 0.25816211 0
2.7090001 -0.32921952 0.25822526 0
2.7080002 -0.33326006 0.25828838 0
2.7070003 -0.33729699 0.2583515 0
2.7070003 -0.34145838 0.2583515 0
2.7070003 -0.34561977 0.2583515 0
2.7070003 -0.34978116 0.2583515 0
2.7080002 -0.35407603 0.25828838 0
2.7090001 -0.35837448 0.25822526 0
2.7100003 -0.36267659 0.25816211 0
2.7120001 -0.36712116 0.25803587 0
2.7150002 -0.37171367 0.25784647 0
2.7190001 -0.37645948 0.25759393 0
2.7230003 -0.38121974 0.25734138 0
2.7300003 -0.38643274 0.25689948 0
3.2260003 -0.59143913 0.22558534 0
3.2160003 -0.59458858 0.22621667 0
3.2110002 -0.59868503 0.22653234 0
3.2070003 -0.6029619 0.22678488 0
3.2040002 -0.6074245 0.22697426 0
3.2020001 -0.61207831 0.22710055 0
3.2010002 -0.61692876 0.22716367 0
3.2000003 -0.62177557 0.22722681 0
3.2010002 -0.62703371 0.22716367 0
3.2020001 -0.63229537 0.22710055 0
2.7450001 -0.54513174 0.25595245 0
2.7370002 -0.5476445 0.25645751 0
2.7310002 -0.55056125 0.2568363 0
2.7260003 -0.55367464 0.25715199 0
2.7220001 -0.55698997 0.25740451 0
2.7190001 -0.56051284 0.25759393 0
2.7160003 -0.56402487 0.25778332 0
2.7130003 -0.5675261 0.25797272 0
2.7110002 -0.5712437 0.25809899 0
2.7090001 -0.57495415 0.25822526 0
2.7080002 -0.57888824 0.25828838 0
2.7070003 -0.58281875 0.2583515 0
2.7060001 -0.58674562 0.25841466 0
2.7060001 -0.59090519 0.25841466 0
2.7050002 -0.5948267 0.25847781 0
2.7060001 -0.59922433 0.25841466 0
2.7060001 -0.60338396 0.25841466 0
2.7070003 -0.60778707 0.2583515 0
2.7090001 -0.61243904 0.25822526 0
2.7110002 -0.61709833 0.25809899 0
2.7140002 -0.62201375 0.2579096 0
2.7180002 -0.62719059 0.25765705 0
2.7240002 -0.63288707 0.25727826 0
2.7360003 -0.64013118 0.25652063 0
3.2170002 -0.29498506 0.22107221 0
3.2110002 -0.29952523 0.22146183 0
3.2070003 -0.3042278 0.22172159 0
3.2040002 -0.3090097 0.22191639 0
3.2030003 -0.31397194 0.22198133 0
2.9220002 -0.29165703 0.24022867 0
2.9140003 -0.29541257 0.24074815 0
2.9100003 -0.29954329 0.24100789 0
2.9070003 -0.30376241 0.24120271 0
2.9040003 -0.30797067 0.24139753 0
2.7450001 -0.29556587 0.25172251 0
2.7360003 -0.29882178 0.25230694 0
2.7290001 -0.30226523 0.25276154 0
2.7250001 -0.30601898 0.25302127 0
2.7210002 -0.30975825 0.25328103 0
2.7170002 -0.31348312 0.25354075 0
2.7150002 -0.31742805 0.25367063 0
2.7120001 -0.32124668 0.25386545 0
2.7100003 -0.32517543 0.25399533 0
2.7090001 -0.32921952 0.25406027 0
2.7080002 -0.33326006 0.25412518 0
2.7070003 -0.33729699 0.25419015 0
2.7070003 -0.34145838 0.25419015 0
2.7070003 -0.34561977 0.25419015 0
2.7070003 -0.34978116 0.25419015 0
2.7080002 -0.35407603 0.25412518 0
2.7090001 -0.35837448 0.25406027 0
2.7100003 -0.36267659 0.25399533 0
2.7120001 -0.36712116 0.25386545 0
2.7150002 -0.37171367 0.25367063 0
2.7190001 -0.37645948 0.25341088 0
2.7230003 -0.38121974 0.25315112 0
2.7300003 -0.38643274 0.25269657 0
3.2260003 -0.59143913 0.22048777 0
3.2160003 -0.59458858 0.22113715 0
3.2110002 -0.59868503 0.22146183 0
3.2070003 -0.6029619 0.22172159 0
3.2040002 -0.6074245 0.22191639 0
3.2020001 -0.61207831 0.22204627 0
3.2010002 -0.61692876 0.22211121 0
3.2000003 -0.62177557 0.22217615 0
3.2010002 -0.62703371 0.22211121 0
3.2020001 -0.63229537 0.22204627 0
2.7450001 -0.54513174 0.25172251 0
2.7370002 -0.5476445 0.25224203 0
2.7310002 -0.55056125 0.25263166 0
2.7260003 -0.55367464 0.25295633 0
2.7220001 -0.55698997 0.25321609 0
2.7190001 -0.56051284 0.25341088 0
2.7160003 -0.56402487 0.25360569 0
2.7130003 -0.5675261 0.25380051 0
2.7110002 -0.5712437 0.25393039 0
2.7090001 -0.57495415 0.25406027 0
2.7080002 -0.57888824 0.25412518 0
2.7070003 -0.58281875 0.25419015 0
2.7060001 -0.58674562 0.25425509 0
2.7060001 -0.59090519 0.25425509 0
2.7050002 -0.5948267 0.25432003 0
2.7060001 -0.59922433 0.25425509 0
2.7060001 -0.60338396 0.25425509 0
2.7070003 -0.60778707 0.25419015 0
2.7090001 -0.61243904 0.25406027 0
2.7110002 -0.61709833 0.25393039 0
2.7140002 -0.62201375 0.25373557 0
2.7180002 -0.62719059 0.25347582 0
2.7240002 -0.63288707 0.25308621 0
2.7360003 -0.64013118 0.25230694 0
3.2170002 -0.29498506 0.21599089 0
3.2110002 -0.29952523 0.21639134 0
3.2070003 -0.3042278 0.21665829 0
3.2040002 -0.3090097 0.21685851 0
3.2030003 -0.31397194 0.21692526 0
2.9220002 -0.29165703 0.23567946 0
2.9140003 -0.29541257 0.23621337 0
2.9100003 -0.29954329 0.23648033 0
2.9070003 -0.30376241 0.23668055 0
2.9040003 -0.30797067 0.23688078 0
2.7450001 -0.29556587 0.2474926 0
2.7360003 -0.29882178 0.24809326 0
2.7290001 -0.30226523 0.24856046 0
2.7250001 -0.30601898 0.24882741 0
2.7210002 -0.30975825 0.24909437 0
2.7170002 -0.31348312 0.24936134 0
2.7150002 -0.31742805 0.24949484 0
2.7120001 -0.32124668 0.24969505 0
2.7100003 -0.32517543 0.24982852 0
2.7090001 -0.32921952 0.24989527 0
2.7080002 -0.33326006 0.249962 0
2.7070003 -0.33729699 0.25002873 0
2.7070003 -0.34145838 0.25002873 0
2.7070003 -0.34561977 0.25002873 0
2.7070003 -0.34978116 0.25002873 0
2.7080002 -0.35407603 0.249962 0
2.7090001 -0.35837448 0.24989527 0
2.7100003 -0.36267659 0.24982852 0
2.7120001 -0.36712116 0.24969505 0
2.7150002 -0.37171367 0.24949484 0
2.7190001 -0.37645948 0.24922787 0
2.7230003 -0.38121974 0.2489609 0
2.7300003 -0.38643274 0.2484937 0
3.2260003 -0.59143913 0.21539021 0
3.2160003 -0.59458858 0.21605761 0
3.2110002 -0.59868503 0.21639134 0
3.2070003 -0.6029619 0.21665829 0
3.2040002 -0.6074245 0.21685851 0
3.2020001 -0.61207831 0.21699201 0
3.2010002 -0.61692876 0.21705875 0
3.2000003 -0.62177557 0.21712548 0
3.2010002 -0.62703371 0.21705875 0
3.2020001 -0.63229537 0.21699201 0
2.7450001 -0.54513174 0.2474926 0
2.7370002 -0.5476445 0.24802652 0
2.7310002 -0.55056125 0.24842697 0
2.7260003 -0.55367464 0.24876066 0
2.7220001 -0.55698997 0.24902764 0
2.7190001 -0.56051284 0.24922787 0
2.7160003 -0.56402487 0.24942806 0
2.7130003 -0.5675261 0.24962829 0
2.7110002 -0.5712437 0.24976179 0
2.7090001 -0.57495415 0.24989527 0
2.7080002 -0.57888824 0.249962 0
2.7070003 -0.58281875 0.25002873 0
2.7060001 -0.58674562 0.25009549 0
2.7060001 -0.59090519 0.25009549 0
2.7050002 -0.5948267 0.25016224 0
2.7060001 -0.59922433 0.25009549 0
2.7060001 -0.60338396 0.25009549 0
2.7070003 -0.60778707 0.25002873 0
2.7090001 -0.61243904 0.24989527 0
2.7110002 -0.61709833 0.24976179 0
2.7140002 -0.62201375 0.24956156 0
2.7180002 -0.62719059 0.24929459 0
2.7240002 -0.63288707 0.24889414 0
2.7360003 -0.64013118 0.24809326 0
3.2170002 -0.29498506 0.21090956 0
3.2110002 -0.29952523 0.21132083 0
3.2070003 -0.3042278 0.211595 0
3.2040002 -0.3090097 0.21180065 0
3.2030003 -0.31397194 0.21186918 0
2.9220002 -0.29165703 0.23113024 0
2.9140003 -0.29541257 0.23167861 0
2.9100003 -0.29954329 0.23195279 0
2.9070003 -0.30376241 0.23215842 0
2.9040003 -0.30797067 0.23236404 0
2.7450001 -0.29556587 0.24326266 0
2.7360003 -0.29882178 0.24387956 0
2.7290001 -0.30226523 0.24435939 0
2.7250001 -0.30601898 0.24463357 0
2.7210002 -0.30975825 0.24490774 0
2.7170002 -0.31348312 0.24518192 0
2.7150002 -0.31742805 0.24531901 0
2.7120001 -0.32124668 0.24552464 0
2.7100003 -0.32517543 0.24566172 0
2.7090001 -0.32921952 0.24573027 0
2.7080002 -0.33326006 0.24579883 0
2.7070003 -0.33729699 0.24586736 0
2.7070003 -0.34145838 0.24586736 0
2.7070003 -0.34561977 0.24586736 0
2.7070003 -0.34978116 0.24586736 0
2.7080002 -0.35407603 0.24579883 0
2.7090001 -0.35837448 0.24573027 0
2.7100003 -0.36267659 0.24566172 0
2.7120001 -0.36712116 0.24552464 0
2.7150002 -0.37171367 0.24531901 0
2.7190001 -0.37645948 0.24504483 0
2.7230003 -0.38121974 0.24477063 0
2.7300003 -0.38643274 0.24429083 0
3.2260003 -0.59143913 0.21029265 0
3.2160003 -0.59458858 0.21097809 0
3.2110002 -0.59868503 0.21132083 0
3.2070003 -0.6029619 0.211595 0
3.2040002 -0.6074245 0.21180065 0
3.2020001 -0.61207831 0.21193774 0
3.2010002 -0.61692876 0.21200627 0
3.2000003 -0.62177557 0.21207482 0
3.2010002 -0.62703371 0.21200627 0
3.2020001 -0.63229537 0.21193774 0
2.7450001 -0.54513174 0.24326266 0
2.7370002 -0.5476445 0.24381101 0
2.7310002 -0.55056125 0.24422228 0
2.7260003 -0.55367464 0.24456501 0
2.7220001 -0.55698997 0.24483919 0
2.7190001 -0.56051284 0.24504483 0
2.7160003 -0.56402487 0.24525045 0
2.7130003 -0.5675261 0.2454561 0
2.7110002 -0.5712437 0.24559319 0
2.7090001 -0.57495415 0.24573027 0
2.7080002 -0.57888824 0.24579883 0
2.7070003 -0.58281875 0.24586736 0
2.7060001 -0.58674562 0.24593592 0
2.7060001 -0.59090519 0.24593592 0
2.7050002 -0.5948267 0.24600445 0
2.7060001 -0.59922433 0.24593592 0
2.7060001 -0.60338396 0.24593592 0
2.7070003 -0.60778707 0.24586736 0
2.7090001 -0.61243904 0.24573027 0
2.7110002 -0.61709833 0.24559319 0
2.7140002 -0.62201375 0.24538754 0
2.7180002 -0.62719059 0.24511337 0
2.7240002 -0.63288707 0.2447021 0
2.7360003 -0.64013118 0.24387956 0
3.2170002 -0.29498506 0.20582823 0
3.2110002 -0.29952523 0.20625032 0
3.2070003 -0.3042278 0.20653172 0
3.2040002 -0.3090097 0.20674276 0
3.2030003 -0.31397194 0.2068131 0
2.9220002 -0.29165703 0.22658105 0
2.9140003 -0.29541257 0.22714382 0
2.9100003 -0.29954329 0.22742522 0
2.9070003 -0.30376241 0.22763626 0
2.9040003 -0.30797067 0.22784731 0
2.7450001 -0.29556587 0.23903273 0
2.7360003 -0.29882178 0.23966585 0
2.7290001 -0.30226523 0.24015832 0
2.7250001 -0.30601898 0.2404397 0
2.7210002 -0.30975825 0.24072109 0
2.7170002 -0.31348312 0.24100249 0
2.7150002 -0.31742805 0.24114318 0
2.7120001 -0.32124668 0.24135424 0
2.7100003 -0.32517543 0.24149492 0
2.7090001 -0.32921952 0.24156529 0
2.7080002 -0.33326006 0.24163564 0
2.7070003 -0.33729699 0.24170597 0
2.7070003 -0.34145838 0.24170597 0
2.7070003 -0.34561977 0.24170597 0
2.7070003 -0.34978116 0.24170597 0
2.7080002 -0.35407603 0.24163564 0
2.7090001 -0.35837448 0.24156529 0
2.7100003 -0.36267659 0.24149492 0
2.7120001 -0.36712116 0.24135424 0
2.7150002 -0.37171367 0.24114318 0
2.7190001 -0.37645948 0.2408618 0
2.7230003 -0.38121974 0.24058039 0
2.7300003 -0.38643274 0.24008796 0
3.2260003 -0.59143913 0.2051951 0
3.2160003 -0.59458858 0.20589858 0
3.2110002 -0.59868503 0.20625032 0
3.2070003 -0.6029619 0.20653172 0
3.2040002 -0.6074245 0.20674276 0
3.2020001 -0.61207831 0.20688346 0
3.2010002 -0.61692876 0.20695381 0
3.2000003 -0.62177557 0.20702416 0
3.2010002 -0.62703371 0.20695381 0
3.2020001 -0.63229537 0.20688346 0
2.7450001 -0.54513174 0.23903273 0
2.7370002 -0.5476445 0.23959552 0
2.7310002 -0.55056125 0.24001761 0
2.7260003 -0.55367464 0.24036935 0
2.7220001 -0.55698997 0.24065076 0
2.7190001 -0.56051284 0.2408618 0
2.7160003 -0.56402487 0.24107283 0
2.7130003 -0.5675261 0.24128388 0
2.7110002 -0.5712437 0.24142458 0
2.7090001 -0.57495415 0.24156529 0
2.7080002 -0.57888824 0.24163564 0
2.7070003 -0.58281875 0.24170597 0
2.7060001 -0.58674562 0.24177633 0
2.7060001 -0.59090519 0.24177633 0
2.7050002 -0.5948267 0.24184667 0
2.7060001 -0.59922433 0.24177633 0
2.7060001 -0.60338396 0.24177633 0
2.7070003 -0.60778707 0.24170597 0
2.7090001 -0.61243904 0.24156529 0
2.7110002 -0.61709833 0.24142458 0
2.7140002 -0.62201375 0.24121355 0
2.7180002 -0.62719059 0.24093215 0
2.7240002 -0.63288707 0.24051006 0
2.7360003 -0.64013118 0.23966585 0
3.2170002 -0.29498506 0.20074689 0
3.2110002 -0.29952523 0.20117982 0
3.2070003 -0.3042278 0.20146842 0
3.2040002 -0.3090097 0.20168489 0
3.2030003 -0.31397194 0.20175703 0
2.9220002 -0.29165703 0.22203185 0
2.9140003 -0.29541257 0.22260906 0
2.9100003 -0.29954329 0.22289766 0
2.9070003 -0.30376241 0.22311412 0
2.9040003 -0.30797067 0.22333059 0
2.7450001 -0.29556587 0.2348028 0
2.7360003 -0.29882178 0.23545216 0
2.7290001 -0.30226523 0.23595724 0
2.7250001 -0.30601898 0.23624586 0
2.7210002 -0.30975825 0.23653446 0
2.7170002 -0.31348312 0.23682307 0
2.7150002 -0.31742805 0.23696737 0
2.7120001 -0.32124668 0.23718382 0
2.7100003 -0.32517543 0.23732813 0
2.7090001 -0.32921952 0.23740029 0
2.7080002 -0.33326006 0.23747243 0
2.7070003 -0.33729699 0.23754458 0
2.7070003 -0.34145838 0.23754458 0
2.7070003 -0.34561977 0.23754458 0
2.7070003 -0.34978116 0.23754458 0
2.7080002 -0.35407603 0.23747243 0
2.7090001 -0.35837448 0.23740029 0
2.7100003 -0.36267659 0.23732813 0
2.7120001 -0.36712116 0.23718382 0
2.7150002 -0.37171367 0.23696737 0
2.7190001 -0.37645948 0.23667876 0
2.7230003 -0.38121974 0.23639014 0
2.7300003 -0.38643274 0.23588508 0
3.2260003 -0.59143913 0.20009753 0
3.2160003 -0.59458858 0.20081905 0
3.2110002 -0.59868503 0.20117982 0
3.2070003 -0.6029619 0.20146842 0
3.2040002 -0.6074245 0.20168489 0
3.2020001 -0.61207831 0.2018292 0
3.2010002 -0.61692876 0.20190133 0
3.2000003 -0.62177557 0.20197348 0
3.2010002 -0.62703371 0.20190133 0
3.2020001 -0.63229537 0.2018292 0
2.7450001 -0.54513174 0.2348028 0
2.7370002 -0.5476445 0.23538002 0
2.7310002 -0.55056125 0.23581293 0
2.7260003 -0.55367464 0.23617369 0
2.7220001 -0.55698997 0.23646231 0
2.7190001 -0.56051284 0.23667876 0
2.7160003 -0.56402487 0.23689522 0
2.7130003 -0.5675261 0.23711167 0
2.7110002 -0.5712437 0.23725599 0
2.7090001 -0.57495415 0.23740029 0
2.7080002 -0.57888824 0.23747243 0
2.7070003 -0.58281875 0.23754458 0
2.7060001 -0.58674562 0.23761675 0
2.7060001 -0.59090519 0.23761675 0
2.7050002 -0.5948267 0.2376889 0
2.7060001 -0.59922433 0.23761675 0
2.7060001 -0.60338396 0.23761675 0
2.7070003 -0.60778707 0.23754458 0
2.7090001 -0.61243904 0.23740029 0
2.7110002 -0.61709833 0.23725599 0
2.7140002 -0.62201375 0.23703952 0
2.7180002 -0.62719059 0.23675092 0
2.7240002 -0.63288707 0.23631799 0
2.7360003 -0.64013118 0.23545216 0
3.2170002 -0.29498506 0.19566557 0
3.2110002 -0.29952523 0.19610931 0
3.2070003 -0.3042278 0.19640514 0
3.2040002 -0.3090097 0.19662701 0
3.2030003 -0.31397194 0.19670095 0
2.9220002 -0.29165703 0.21748264 0
2.9140003 -0.29541257 0.21807428 0
2.9100003 -0.29954329 0.21837009 0
2.9070003 -0.30376241 0.21859197 0
2.9040003 -0.30797067 0.21881384 0
2.7450001 -0.29556587 0.23057288 0
2.7360003 -0.29882178 0.23123847 0
2.7290001 -0.30226523 0.23175618 0
2.7250001 -0.30601898 0.232052 0
2.7210002 -0.30975825 0.23234782 0
2.7170002 -0.31348312 0.23264363 0
2.7150002 -0.31742805 0.23279156 0
2.7120001 -0.32124668 0.23301344 0
2.7100003 -0.32517543 0.23316133 0
2.7090001 -0.32921952 0.2332353 0
2.7080002 -0.33326006 0.23330924 0
2.7070003 -0.33729699 0.23338321 0
2.7070003 -0.34145838 0.23338321 0
2.7070003 -0.34561977 0.23338321 0
2.7070003 -0.34978116 0.23338321 0
2.7080002 -0.35407603 0.23330924 0
2.7090001 -0.35837448 0.2332353 0
2.7100003 -0.36267659 0.23316133 0
2.7120001 -0.36712116 0.23301344 0
2.7150002 -0.37171367 0.23279156 0
2.7190001 -0.37645948 0.23249574 0
2.7230003 -0.38121974 0.23219989 0
2.7300003 -0.38643274 0.23168221 0
3.2260003 -0.59143913 0.19499996 0
3.2160003 -0.59458858 0.19573952 0
3.2110002 -0.59868503 0.19610931 0
3.2070003 -0.6029619 0.19640514 0
3.2040002 -0.6074245 0.19662701 0
3.2020001 -0.61207831 0.19677491 0
3.2010002 -0.61692876 0.19684887 0
3.2000003 -0.62177557 0.19692282 0
3.2010002 -0.62703371 0.19684887 0
3.2020001 -0.63229537 0.19677491 0
2.7450001 -0.54513174 0.23057288 0
2.7370002 -0.5476445 0.23116452 0
2.7310002 -0.55056125 0.23160826 0
2.7260003 -0.55367464 0.23197803 0
2.7220001 -0.55698997 0.23227386 0
2.7190001 -0.56051284 0.23249574 0
2.7160003 -0.56402487 0.23271759 0
2.7130003 -0.5675261 0.23293947 0
2.7110002 -0.5712437 0.23308738 0
2.7090001 -0.57495415 0.2332353 0
2.7080002 -0.57888824 0.23330924 0
2.7070003 -0.58281875 0.23338321 0
2.7060001 -0.58674562 0.23345718 0
2.7060001 -0.59090519 0.23345718 0
2.7050002 -0.5948267 0.23353112 0
2.7060001 -0.59922433 0.23345718 0
2.7060001 -0.60338396 0.23345718 0
2.7070003 -0.60778707 0.23338321 0
2.7090001 -0.61243904 0.2332353 0
2.7110002 -0.61709833 0.23308738 0
2.7140002 -0.62201375 0.23286551 0
2.7180002 -0.62719059 0.23256969 0
2.7240002 -0.63288707 0.23212595 0
2.7360003 -0.64013118 0.23123847 0
3.2170002 -0.29498506 0.19058426 0
3.2110002 -0.29952523 0.1910388 0
3.2070003 -0.3042278 0.19134185 0
3.2040002 -0.3090097 0.19156912 0
3.2030003 -0.31397194 0.19164489 0
2.9220002 -0.29165703 0.21293344 0
2.9140003 -0.29541257 0.21353951 0
2.9100003 -0.29954329 0.21384254 0
2.9070003 -0.30376241 0.21406983 0
2.9040003 -0.30797067 0.2142971 0
2.7450001 -0.29556587 0.22634295 0
2.7360003 -0.29882178 0.22702478 0
2.7290001 -0.30226523 0.22755511 0
2.7250001 -0.30601898 0.22785814 0
2.7210002 -0.30975825 0.22816119 0
2.7170002 -0.31348312 0.22846422 0
2.7150002 -0.31742805 0.22861575 0
2.7120001 -0.32124668 0.22884302 0
2.7100003 -0.32517543 0.22899453 0
2.7090001 -0.32921952 0.22907032 0
2.7080002 -0.33326006 0.22914606 0
2.7070003 -0.33729699 0.22922182 0
2.7070003 -0.34145838 0.22922182 0
2.7070003 -0.34561977 0.22922182 0
2.7070003 -0.34978116 0.22922182 0
2.7080002 -0.35407603 0.22914606 0
2.7090001 -0.35837448 0.22907032 0
2.7100003 -0.36267659 0.22899453 0
2.7120001 -0.36712116 0.22884302 0
2.7150002 -0.37171367 0.22861575 0
2.7190001 -0.37645948 0.2283127 0
2.7230003 -0.38121974 0.22800966 0
2.7300003 -0.38643274 0.22747934 0
3.2260003 -0.59143913 0.1899024 0
3.2160003 -0.59458858 0.19066 0
3.2110002 -0.59868503 0.1910388 0
3.2070003 -0.6029619 0.19134185 0
3.2040002 -0.6074245 0.19156912 0
3.2020001 -0.61207831 0.19172065 0
3.2010002 -0.61692876 0.19179641 0
3.2000003 -0.62177557 0.19187216 0
3.2010002 -0.62703371 0.19179641 0
3.2020001 -0.63229537 0.19172065 0
2.7450001 -0.54513174 0.22634295 0
2.7370002 -0.5476445 0.22694902 0
2.7310002 -0.55056125 0.22740358 0
2.7260003 -0.55367464 0.22778237 0
2.7220001 -0.55698997 0.22808543 0
2.7190001 -0.56051284 0.2283127 0
2.7160003 -0.56402487 0.22853997 0
2.7130003 -0.5675261 0.22876725 0
2.7110002 -0.5712437 0.22891878 0
2.7090001 -0.57495415 0.22907032 0
2.7080002 -0.57888824 0.22914606 0
2.7070003 -0.58281875 0.22922182 0
2.7060001 -0.58674562 0.22929759 0
2.7060001 -0.59090519 0.22929759 0
2.7050002 -0.5948267 0.22937334 0
2.7060001 -0.59922433 0.22929759 0
2.7060001 -0.60338396 0.22929759 0
2.7070003 -0.60778707 0.22922182 0
2.7090001 -0.61243904 0.22907032 0
2.7110002 -0.61709833 0.22891878 0
2.7140002 -0.62201375 0.2286915 0
2.7180002 -0.62719059 0.22838846 0
2.7240002 -0.63288707 0.2279339 0
2.7360003 -0.64013118 0.22702478 0
3.2170002 -0.29498506 0.18550292 0
3.2110002 -0.29952523 0.18596831 0
3.2070003 -0.3042278 0.18627857 0
3.2040002 -0.3090097 0.18651125 0
3.2030003 -0.31397194 0.18658881 0
2.9220002 -0.29165703 0.20838423 0
2.9140003 -0.29541257 0.20900473 0
2.9100003 -0.29954329 0.20931499 0
2.9070003 -0.30376241 0.20954767 0
2.9040003 -0.30797067 0.20978038 0
2.7450001 -0.29556587 0.22211303 0
2.7360003 -0.29882178 0.22281109 0
2.7290001 -0.30226523 0.22335403 0
2.7250001 -0.30601898 0.2236643 0
2.7210002 -0.30975825 0.22397454 0
2.7170002 -0.31348312 0.2242848 0
2.7150002 -0.31742805 0.22443992 0
2.7120001 -0.32124668 0.22467262 0
2.7100003 -0.32517543 0.22482774 0
2.7090001 -0.32921952 0.22490531 0
2.7080002 -0.33326006 0.22498287 0
2.7070003 -0.33729699 0.22506043 0
2.7070003 -0.34145838 0.22506043 0
2.7070003 -0.34561977 0.22506043 0
2.7070003 -0.34978116 0.22506043 0
2.7080002 -0.35407603 0.22498287 0
2.7090001 -0.35837448 0.22490531 0
2.7100003 -0.36267659 0.22482774 0
2.7120001 -0.36712116 0.22467262 0
2.7150002 -0.37171367 0.22443992 0
2.7190001 -0.37645948 0.22412968 0
2.7230003 -0.38121974 0.2238194 0
2.7300003 -0.38643274 0.22327645 0
3.2260003 -0.59143913 0.18480484 0
3.2160003 -0.59458858 0.18558048 0
3.2110002 -0.59868503 0.18596831 0
3.2070003 -0.6029619 0.18627857 0
3.2040002 -0.6074245 0.18651125 0
3.2020001 -0.61207831 0.18666638 0
3.2010002 -0.61692876 0.18674393 0
3.2000003 -0.62177557 0.18682149 0
3.2010002 -0.62703371 0.18674393 0
3.2020001 -0.63229537 0.18666638 0
2.7450001 -0.54513174 0.22211303 0
2.7370002 -0.5476445 0.22273353 0
2.7310002 -0.55056125 0.22319891 0
2.7260003 -0.55367464 0.22358672 0
2.7220001 -0.55698997 0.22389698 0
2.7190001 -0.56051284 0.22412968 0
2.7160003 -0.56402487 0.22436234 0
2.7130003 -0.5675261 0.22459504 0
2.7110002 -0.5712437 0.22475019 0
2.7090001 -0.57495415 0.22490531 0
2.7080002 -0.57888824 0.22498287 0
2.7070003 -0.58281875 0.22506043 0
2.7060001 -0.58674562 0.22513801 0
2.7060001 -0.59090519 0.22513801 0
2.7050002 -0.5948267 0.22521555 0
2.7060001 -0.59922433 0.22513801 0
2.7060001 -0.60338396 0.22513801 0
2.7070003 -0.60778707 0.22506043 0
2.7090001 -0.61243904 0.22490531 0
2.7110002 -0.61709833 0.22475019 0
2.7140002 -0.62201375 0.22451748 0
2.7180002 -0.62719059 0.22420724 0
2.7240002 -0.63288707 0.22374184 0
2.7360003 -0.64013118 0.22281109 0
3.2170002 -0.29498506 0.18042159 0
3.2110002 -0.29952523 0.1808978 0
3.2070003 -0.3042278 0.18121526 0
3.2040002 -0.3090097 0.18145336 0
3.2030003 -0.31397194 0.18153273 0
2.9220002 -0.29165703 0.20383503 0
2.9140003 -0.29541257 0.20446996 0
2.9100003 -0.29954329 0.20478742 0
2.9070003 -0.30376241 0.20502554 0
2.9040003 -0.30797067 0.20526363 0
2.7450001 -0.29556587 0.2178831 0
2.7360003 -0.29882178 0.21859738 0
2.7290001 -0.30226523 0.21915297 0
2.7250001 -0.30601898 0.21947044 0
2.7210002 -0.30975825 0.2197879 0
2.7170002 -0.31348312 0.22010536 0
2.7150002 -0.31742805 0.22026412 0
2.7120001 -0.32124668 0.22050221 0
2.7100003 -0.32517543 0.22066094 0
2.7090001 -0.32921952 0.22074032 0
2.7080002 -0.33326006 0.22081968 0
2.7070003 -0.33729699 0.22089903 0
2.7070003 -0.34145838 0.22089903 0
2.7070003 -0.34561977 0.22089903 0
2.7070003 -0.34978116 0.22089903 0
2.7080002 -0.35407603 0.22081968 0
2.7090001 -0.35837448 0.22074032 0
2.7100003 -0.36267659 0.22066094 0
2.7120001 -0.36712116 0.22050221 0
2.7150002 -0.37171367 0.22026412 0
2.7190001 -0.37645948 0.21994664 0
2.7230003 -0.38121974 0.21962917 0
2.7300003 -0.38643274 0.21907359 0
3.2260003 -0.59143913 0.17970727 0
3.2160003 -0.59458858 0.18050095 0
3.2110002 -0.59868503 0.1808978 0
3.2070003 -0.6029619 0.18121526 0
3.2040002 -0.6074245 0.18145336 0
3.2020001 -0.61207831 0.1816121 0
3.2010002 -0.61692876 0.18169148 0
3.2000003 -0.62177557 0.18177083 0
3.2010002 -0.62703371 0.18169148 0
3.2020001 -0.63229537 0.1816121 0
2.7450001 -0.54513174 0.2178831 0
2.7370002 -0.5476445 0.21851802 0
2.7310002 -0.55056125 0.21899423 0
2.7260003 -0.55367464 0.21939106 0
2.7220001 -0.55698997 0.21970855 0
2.7190001 -0.56051284 0.21994664 0
2.7160003 -0.56402487 0.22018474 0
2.7130003 -0.5675261 0.22042283 0
2.7110002 -0.5712437 0.22058158 0
2.7090001 -0.57495415 0.22074032 0
2.7080002 -0.57888824 0.22081968 0
2.7070003 -0.58281875 0.22089903 0
2.7060001 -0.58674562 0.22097842 0
2.7060001 -0.59090519 0.22097842 0
2.7050002 -0.5948267 0.22105779 0
2.7060001 -0.59922433 0.22097842 0
2.7060001 -0.60338396 0.22097842 0
2.7070003 -0.60778707 0.22089903 0
2.7090001 -0.61243904 0.22074032 0
2.7110002 -0.61709833 0.22058158 0
2.7140002 -0.62201375 0.22034347 0
2.7180002 -0.62719059 0.220026 0
2.7240002 -0.63288707 0.2195498 0
2.7360003 -0.64013118 0.21859738 0
3.2170002 -0.29498506 0.17534027 0
3.2110002 -0.29952523 0.17582729 0
3.2070003 -0.3042278 0.17615198 0
3.2040002 -0.3090097 0.17639549 0
3.2030003 -0.31397194 0.17647666 0
2.9220002 -0.29165703 0.19928582 0
2.9140003 -0.29541257 0.19993518 0
2.9100003 -0.29954329 0.20025986 0
2.9070003 -0.30376241 0.20050338 0
2.9040003 -0.30797067 0.20074689 0
2.7450001 -0.29556587 0.21365316 0
2.7360003 -0.29882178 0.21438368 0
2.7290001 -0.30226523 0.2149519 0
2.7250001 -0.30601898 0.21527658 0
2.7210002 -0.30975825 0.21560127 0
2.7170002 -0.31348312 0.21592595 0
2.7150002 -0.31742805 0.21608829 0
2.7120001 -0.32124668 0.21633181 0
2.7100003 -0.32517543 0.21649414 0
2.7090001 -0.32921952 0.21657532 0
2.7080002 -0.33326006 0.21665651 0
2.7070003 -0.33729699 0.21673766 0
2.7070003 -0.34145838 0.21673766 0
2.7070003 -0.34561977 0.21673766 0
2.7070003 -0.34978116 0.21673766 0
2.7080002 -0.35407603 0.21665651 0
2.7090001 -0.35837448 0.21657532 0
2.7100003 -0.36267659 0.21649414 0
2.7120001 -0.36712116 0.21633181 0
2.7150002 -0.37171367 0.21608829 0
2.7190001 -0.37645948 0.21576361 0
2.7230003 -0.38121974 0.2154389 0
2.7300003 -0.38643274 0.21487072 0
3.2260003 -0.59143913 0.17460971 0
3.2160003 -0.59458858 0.17542143 0
3.2110002 -0.59868503 0.17582729 0
3.2070003 -0.6029619 0.17615198 0
3.2040002 -0.6074245 0.17639549 0
3.2020001 -0.61207831 0.17655784 0
3.2010002 -0.61692876 0.17663901 0
3.2000003 -0.62177557 0.17672017 0
3.2010002 -0.62703371 0.17663901 0
3.2020001 -0.63229537 0.17655784 0
2.7450001 -0.54513174 0.21365316 0
2.7370002 -0.5476445 0.21430251 0
2.7310002 -0.55056125 0.21478955 0
2.7260003 -0.55367464 0.21519539 0
2.7220001 -0.55698997 0.2155201 0
2.7190001 -0.56051284 0.21576361 0
2.7160003 -0.56402487 0.21600711 0
2.7130003 -0.5675261 0.21625063 0
2.7110002 -0.5712437 0.21641298 0
2.7090001 -0.57495415 0.21657532 0
2.7080002 -0.57888824 0.21665651 0
2.7070003 -0.58281875 0.21673766 0
2.7060001 -0.58674562 0.21681885 0
2.7060001 -0.59090519 0.21681885 0
2.7050002 -0.5948267 0.21690001 0
2.7060001 -0.59922433 0.21681885 0
2.7060001 -0.60338396 0.21681885 0
2.7070003 -0.60778707 0.21673766 0
2.7090001 -0.61243904 0.21657532 0
2.7110002 -0.61709833 0.21641298 0
2.7140002 -0.62201375 0.21616946 0
2.7180002 -0.62719059 0.21584478 0
2.7240002 -0.63288707 0.21535775 0
2.7360003 -0.64013118 0.21438368 0
3.2170002 -0.29498506 0.17025894 0
3.2110002 -0.29952523 0.1707568 0
3.2070003 -0.3042278 0.17108868 0
3.2040002 -0.3090097 0.1713376 0
3.2030003 -0.31397194 0.17142059 0
2.9220002 -0.29165703 0.19473661 0
2.9140003 -0.29541257 0.19540042 0
2.9100003 -0.29954329 0.19573231 0
2.9070003 -0.30376241 0.19598123 0
2.9040003 -0.30797067 0.19623017 0
2.7450001 -0.29556587 0.20942323 0
2.7360003 -0.29882178 0.21016999 0
2.7290001 -0.30226523 0.21075083 0
2.7250001 -0.30601898 0.21108273 0
2.7210002 -0.30975825 0.21141462 0
2.7170002 -0.31348312 0.21174651 0
2.7150002 -0.31742805 0.21191247 0
2.7120001 -0.32124668 0.21216141 0
2.7100003 -0.32517543 0.21232735 0
2.7090001 -0.32921952 0.21241033 0
2.7080002 -0.33326006 0.2124933 0
2.7070003 -0.33729699 0.21257627 0
2.7070003 -0.34145838 0.21257627 0
2.7070003 -0.34561977 0.21257627 0
2.7070003 -0.34978116 0.21257627 0
2.7080002 -0.35407603 0.2124933 0
2.7090001 -0.35837448 0.21241033 0
2.7100003 -0.36267659 0.21232735 0
2.7120001 -0.36712116 0.21216141 0
2.7150002 -0.37171367 0.21191247 0
2.7190001 -0.37645948 0.21158057 0
2.7230003 -0.38121974 0.21124867 0
2.7300003 -0.38643274 0.21066785 0
3.2260003 -0.59143913 0.16951217 0
3.2160003 -0.59458858 0.17034191 0
3.2110002 -0.59868503 0.1707568 0
3.2070003 -0.6029619 0.17108868 0
3.2040002 -0.6074245 0.1713376 0
3.2020001 -0.61207831 0.17150357 0
3.2010002 -0.61692876 0.17158653 0
3.2000003 -0.62177557 0.17166951 0
3.2010002 -0.62703371 0.17158653 0
3.2020001 -0.63229537 0.17150357 0
2.7450001 -0.54513174 0.20942323 0
2.7370002 -0.5476445 0.21008702 0
2.7310002 -0.55056125 0.21058488 0
2.7260003 -0.55367464 0.21099974 0
2.7220001 -0.55698997 0.21133165 0
2.7190001 -0.56051284 0.21158057 0
2.7160003 -0.56402487 0.21182948 0
2.7130003 -0.5675261 0.21207842 0
2.7110002 -0.5712437 0.21224438 0
2.7090001 -0.57495415 0.21241033 0
2.7080002 -0.57888824 0.2124933 0
2.7070003 -0.58281875 0.21257627 0
2.7060001 -0.58674562 0.21265927 0
2.7060001 -0.59090519 0.21265927 0
2.7050002 -0.5948267 0.21274222 0
2.7060001 -0.59922433 0.21265927 0
2.7060001 -0.60338396 0.21265927 0
2.7070003 -0.60778707 0.21257627 0
2.7090001 -0.61243904 0.21241033 0
2.7110002 -0.61709833 0.21224438 0
2.7140002 -0.62201375 0.21199545 0
2.7180002 -0.62719059 0.21166354 0
2.7240002 -0.63288707 0.2111657 0
2.7360003 -0.64013118 0.21016999 0
3.2170002 -0.29498506 0.16517761 0
3.2110002 -0.29952523 0.16568628 0
3.2070003 -0.3042278 0.1660254 0
3.2040002 -0.3090097 0.16627973 0
3.2030003 -0.31397194 0.16636451 0
2.9220002 -0.29165703 0.19018741 0
2.9140003 -0.29541257 0.19086564 0
2.9100003 -0.29954329 0.19120476 0
2.9070003 -0.30376241 0.19145909 0
2.9040003 -0.30797067 0.19171342 0
2.7450001 -0.29556587 0.2051933 0
2.7360003 -0.29882178 0.2059563 0
2.7290001 -0.30226523 0.20654976 0
2.7250001 -0.30601898 0.20688887 0
2.7210002 -0.30975825 0.20722799 0
2.7170002 -0.31348312 0.2075671 0
2.7150002 -0.31742805 0.20773667 0
2.7120001 -0.32124668 0.207991 0
2.7100003 -0.32517543 0.20816055 0
2.7090001 -0.32921952 0.20824534 0
2.7080002 -0.33326006 0.20833011 0
2.7070003 -0.33729699 0.20841488 0
2.7070003 -0.34145838 0.20841488 0
2.7070003 -0.34561977 0.20841488 0
2.7070003 -0.34978116 0.20841488 0
2.7080002 -0.35407603 0.20833011 0
2.7090001 -0.35837448 0.20824534 0
2.7100003 -0.36267659 0.20816055 0
2.7120001 -0.36712116 0.207991 0
2.7150002 -0.37171367 0.20773667 0
2.7190001 -0.37645948 0.20739755 0
2.7230003 -0.38121974 0.20705843 0
2.7300003 -0.38643274 0.20646496 0
3.2260003 -0.59143913 0.1644146 0
3.2160003 -0.59458858 0.16526239 0
3.2110002 -0.59868503 0.16568628 0
3.2070003 -0.6029619 0.1660254 0
3.2040002 -0.6074245 0.16627973 0
3.2020001 -0.61207831 0.16644931 0
3.2010002 -0.61692876 0.16653408 0
3.2000003 -0.62177557 0.16661885 0
3.2010002 -0.62703371 0.16653408 0
3.2020001 -0.63229537 0.16644931 0
2.7450001 -0.54513174 0.2051933 0
2.7370002 -0.5476445 0.20587152 0
2.7310002 -0.55056125 0.20638019 0
2.7260003 -0.55367464 0.20680408 0
2.7220001 -0.55698997 0.20714322 0
2.7190001 -0.56051284 0.20739755 0
2.7160003 -0.56402487 0.20765187 0
2.7130003 -0.5675261 0.20790622 0
2.7110002 -0.5712437 0.20807578 0
2.7090001 -0.57495415 0.20824534 0
2.7080002 -0.57888824 0.20833011 0
2.7070003 -0.58281875 0.20841488 0
2.7060001 -0.58674562 0.20849968 0
2.7060001 -0.59090519 0.20849968 0
2.7050002 -0.5948267 0.20858444 0
2.7060001 -0.59922433 0.20849968 0
2.7060001 -0.60338396 0.20849968 0
2.7070003 -0.60778707 0.20841488 0
2.7090001 -0.61243904 0.20824534 0
2.7110002 -0.61709833 0.20807578 0
2.7140002 -0.62201375 0.20782144 0
2.7180002 -0.62719059 0.20748232 0
2.7240002 -0.63288707 0.20697366 0
2.7360003 -0.64013118 0.2059563 0
3.2170002 -0.29498506 0.16009629 0
3.2110002 -0.29952523 0.16061577 0
3.2070003 -0.3042278 0.1609621 0
3.2040002 -0.3090097 0.16122185 0
3.2030003 -0.31397194 0.16130844 0
2.9220002 -0.29165703 0.18563822 0
2.9140003 -0.29541257 0.18633085 0
2.9100003 -0.29954329 0.18667719 0
2.9070003 -0.30376241 0.18693693 0
2.9040003 -0.30797067 0.18719669 0
2.7450001 -0.29556587 0.20096338 0
2.7360003 -0.29882178 0.2017426 0
2.7290001 -0.30226523 0.20234869 0
2.7250001 -0.30601898 0.20269501 0
2.7210002 -0.30975825 0.20304134 0
2.7170002 -0.31348312 0.20338768 0
2.7150002 -0.31742805 0.20356084 0
2.7120001 -0.32124668 0.2038206 0
2.7100003 -0.32517543 0.20399375 0
2.7090001 -0.32921952 0.20408034 0
2.7080002 -0.33326006 0.20416692 0
2.7070003 -0.33729699 0.20425349 0
2.7070003 -0.34145838 0.20425349 0
2.7070003 -0.34561977 0.20425349 0
2.7070003 -0.34978116 0.20425349 0
2.7080002 -0.35407603 0.20416692 0
2.7090001 -0.35837448 0.20408034 0
2.7100003 -0.36267659 0.20399375 0
2.7120001 -0.36712116 0.2038206 0
2.7150002 -0.37171367 0.20356084 0
2.7190001 -0.37645948 0.20321453 0
2.7230003 -0.38121974 0.20286816 0
2.7300003 -0.38643274 0.20226209 0
3.2260003 -0.59143913 0.15931703 0
3.2160003 -0.59458858 0.16018285 0
3.2110002 -0.59868503 0.16061577 0
3.2070003 -0.6029619 0.1609621 0
3.2040002 -0.6074245 0.16122185 0
3.2020001 -0.61207831 0.16139503 0
3.2010002 -0.61692876 0.16148162 0
3.2000003 -0.62177557 0.16156818 0
3.2010002 -0.62703371 0.16148162 0
3.2020001 -0.63229537 0.16139503 0
2.7450001 -0.54513174 0.20096338 0
2.7370002 -0.5476445 0.20165601 0
2.7310002 -0.55056125 0.20217553 0
2.7260003 -0.55367464 0.20260842 0
2.7220001 -0.55698997 0.20295477 0
2.7190001 -0.56051284 0.20321453 0
2.7160003 -0.56402487 0.20347424 0
2.7130003 -0.5675261 0.203734 0
2.7110002 -0.5712437 0.20390716 0
2.7090001 -0.57495415 0.20408034 0
2.7080002 -0.57888824 0.20416692 0
2.7070003 -0.58281875 0.20425349 0
2.7060001 -0.58674562 0.20434009 0
2.7060001 -0.59090519 0.20434009 0
2.7050002 -0.5948267 0.20442668 0
2.7060001 -0.59922433 0.20434009 0
2.7060001 -0.60338396 0.20434009 0
2.7070003 -0.60778707 0.20425349 0
2.7090001 -0.61243904 0.20408034 0
2.7110002 -0.61709833 0.20390716 0
2.7140002 -0.62201375 0.20364742 0
2.7180002 -0.62719059 0.20330109 0
2.7240002 -0.63288707 0.2027816 0
2.7360003 -0.64013118 0.2017426 0
3.2170002 -0.29498506 0.15501496 0
3.2110002 -0.29952523 0.15554528 0
3.2070003 -0.3042278 0.15589881 0
3.2040002 -0.3090097 0.15616398 0
3.2030003 -0.31397194 0.15625235 0
2.9220002 -0.29165703 0.181089 0
2.9140003 -0.29541257 0.18179609 0
2.9100003 -0.29954329 0.18214963 0
2.9070003 -0.30376241 0.18241479 0
2.9040003 -0.30797067 0.18267995 0
2.7450001 -0.29556587 0.19673344 0
2.7360003 -0.29882178 0.1975289 0
2.7290001 -0.30226523 0.19814762 0
2.7250001 -0.30601898 0.19850117 0
2.7210002 -0.30975825 0.19885471 0
2.7170002 -0.31348312 0.19920826 0
2.7150002 -0.31742805 0.19938503 0
2.7120001 -0.32124668 0.1996502 0
2.7100003 -0.32517543 0.19982696 0
2.7090001 -0.32921952 0.19991536 0
2.7080002 -0.33326006 0.20000374 0
2.7070003 -0.33729699 0.20009212 0
2.7070003 -0.34145838 0.20009212 0
2.7070003 -0.34561977 0.20009212 0
2.7070003 -0.34978116 0.20009212 0
2.7080002 -0.35407603 0.20000374 0
2.7090001 -0.35837448 0.19991536 0
2.7100003 -0.36267659 0.19982696 0
2.7120001 -0.36712116 0.1996502 0
2.7150002 -0.37171367 0.19938503 0
2.7190001 -0.37645948 0.1990315 0
2.7230003 -0.38121974 0.19867793 0
2.7300003 -0.38643274 0.19805923 0
3.2260003 -0.59143913 0.15421946 0
3.2160003 -0.59458858 0.15510334 0
3.2110002 -0.59868503 0.15554528 0
3.2070003 -0.6029619 0.15589881 0
3.2040002 -0.6074245 0.15616398 0
3.2020001 -0.61207831 0.15634076 0
3.2010002 -0.61692876 0.15642914 0
3.2000003 -0.62177557 0.15651752 0
3.2010002 -0.62703371 0.15642914 0
3.2020001 -0.63229537 0.15634076 0
2.7450001 -0.54513174 0.19673344 0
2.7370002 -0.5476445 0.19744052 0
2.7310002 -0.55056125 0.19797085 0
2.7260003 -0.55367464 0.19841276 0
2.7220001 -0.55698997 0.19876634 0
2.7190001 -0.56051284 0.1990315 0
2.7160003 -0.56402487 0.19929664 0
2.7130003 -0.5675261 0.19956179 0
2.7110002 -0.5712437 0.19973858 0
2.7090001 -0.57495415 0.19991536 0
2.7080002 -0.57888824 0.20000374 0
2.7070003 -0.58281875 0.20009212 0
2.7060001 -0.58674562 0.20018052 0
2.7060001 -0.59090519 0.20018052 0
2.7050002 -0.5948267 0.20026891 0
2.7060001 -0.59922433 0.20018052 0
2.7060001 -0.60338396 0.20018052 0
2.7070003 -0.60778707 0.20009212 0
2.7090001 -0.61243904 0.19991536 0
2.7110002 -0.61709833 0.19973858 0
2.7140002 -0.62201375 0.19947341 0
2.7180002 -0.62719059 0.19911988 0
2.7240002 -0.63288707 0.19858955 0
2.7360003 -0.64013118 0.1975289 0
3.2170002 -0.29498506 0.14993364 0
3.2110002 -0.29952523 0.15047479 0
3.2070003 -0.3042278 0.15083554 0
3.2040002 -0.3090097 0.15110609 0
3.2030003 -0.31397194 0.15119627 0
2.9220002 -0.29165703 0.17653979 0
2.9140003 -0.29541257 0.17726131 0
2.9100003 -0.29954329 0.17762206 0
2.9070003 -0.30376241 0.17789264 0
2.9040003 -0.30797067 0.17816322 0
2.7450001 -0.29556587 0.19250351 0
2.7360003 -0.29882178 0.19331521 0
2.7290001 -0.30226523 0.19394656 0
2.7250001 -0.30601898 0.19430731 0
2.7210002 -0.30975825 0.19466807 0
2.7170002 -0.31348312 0.19502883 0
2.7150002 -0.31742805 0.19520922 0
2.7120001 -0.32124668 0.1954798 0
2.7100003 -0.32517543 0.19566016 0
2.7090001 -0.32921952 0.19575037 0
2.7080002 -0.33326006 0.19584055 0
2.7070003 -0.33729699 0.19593073 0
2.7070003 -0.34145838 0.19593073 0
2.7070003 -0.34561977 0.19593073 0
2.7070003 -0.34978116 0.19593073 0
2.7080002 -0.35407603 0.19584055 0
2.7090001 -0.35837448 0.19575037 0
2.7100003 -0.36267659 0.19566016 0
2.7120001 -0.36712116 0.1954798 0
2.7150002 -0.37171367 0.19520922 0
2.7190001 -0.37645948 0.19484846 0
2.7230003 -0.38121974 0.19448768 0
2.7300003 -0.38643274 0.19385636 0
3.2260003 -0.59143913 0.14912188 0
3.2160003 -0.59458858 0.15002379 0
3.2110002 -0.59868503 0.15047479 0
3.2070003 -0.6029619 0.15083554 0
3.2040002 -0.6074245 0.15110609 0
3.2020001 -0.61207831 0.15128648 0
3.2010002 -0.61692876 0.15137666 0
3.2000003 -0.62177557 0.15146685 0
3.2010002 -0.62703371 0.15137666 0
3.2020001 -0.63229537 0.15128648 0
2.7450001 -0.54513174 0.19250351 0
2.7370002 -0.5476445 0.19322503 0
2.7310002 -0.55056125 0.19376616 0
2.7260003 -0.55367464 0.1942171 0
2.7220001 -0.55698997 0.19457789 0
2.7190001 -0.56051284 0.19484846 0
2.7160003 -0.56402487 0.19511901 0
2.7130003 -0.5675261 0.19538958 0
2.7110002 -0.5712437 0.19556998 0
2.7090001 -0.57495415 0.19575037 0
2.7080002 -0.57888824 0.19584055 0
2.7070003 -0.58281875 0.19593073 0
2.7060001 -0.58674562 0.19602093 0
2.7060001 -0.59090519 0.19602093 0
2.7050002 -0.5948267 0.19611113 0
2.7060001 -0.59922433 0.19602093 0
2.7060001 -0.60338396 0.19602093 0
2.7070003 -0.60778707 0.19593073 0
2.7090001 -0.61243904 0.19575037 0
2.7110002 -0.61709833 0.19556998 0
2.7140002 -0.62201375 0.1952994 0
2.7180002 -0.62719059 0.19493864 0
2.7240002 -0.63288707 0.19439749 0
2.7360003 -0.64013118 0.19331521 0
3.2170002 -0.29498506 0.14485231 0
3.2110002 -0.29952523 0.14540425 0
3.2070003 -0.3042278 0.14577222 0
3.2040002 -0.3090097 0.14604822 0
3.2030003 -0.31397194 0.14614019 0
2.9220002 -0.29165703 0.17199059 0
2.9140003 -0.29541257 0.17272654 0
2.9100003 -0.29954329 0.17309451 0
2.9070003 -0.30376241 0.1733705 0
2.9040003 -0.30797067 0.17364648 0
2.7450001 -0.29556587 0.18827358 0
2.7360003 -0.29882178 0.18910152 0
2.7290001 -0.30226523 0.18974549 0
2.7250001 -0.30601898 0.19011346 0
2.7210002 -0.30975825 0.19048144 0
2.7170002 -0.31348312 0.19084941 0
2.7150002 -0.31742805 0.19103341 0
2.7120001 -0.32124668 0.19130938 0
2.7100003 -0.32517543 0.19149335 0
2.7090001 -0.32921952 0.19158536 0
2.7080002 -0.33326006 0.19167735 0
2.7070003 -0.33729699 0.19176935 0
2.7070003 -0.34145838 0.19176935 0
2.7070003 -0.34561977 0.19176935 0
2.7070003 -0.34978116 0.19176935 0
2.7080002 -0.35407603 0.19167735 0
2.7090001 -0.35837448 0.19158536 0
2.7100003 -0.36267659 0.19149335 0
2.7120001 -0.36712116 0.19130938 0
2.7150002 -0.37171367 0.19103341 0
2.7190001 -0.37645948 0.19066544 0
2.7230003 -0.38121974 0.19029744 0
2.7300003 -0.38643274 0.18965347 0
3.2260003 -0.59143913 0.14402434 0
3.2160003 -0.59458858 0.14494428 0
3.2110002 -0.59868503 0.14540425 0
3.2070003 -0.6029619 0.14577222 0
3.2040002 -0.6074245 0.14604822 0
3.2020001 -0.61207831 0.14623222 0
3.2010002 -0.61692876 0.14632419 0
3.2000003 -0.62177557 0.14641622 0
3.2010002 -0.62703371 0.14632419 0
3.2020001 -0.63229537 0.14623222 0
2.7450001 -0.54513174 0.18827358 0
2.7370002 -0.5476445 0.18900953 0
2.7310002 -0.55056125 0.18956149 0
2.7260003 -0.55367464 0.19002146 0
2.7220001 -0.55698997 0.19038944 0
2.7190001 -0.56051284 0.19066544 0
2.7160003 -0.56402487 0.19094139 0
2.7130003 -0.5675261 0.19121738 0
2.7110002 -0.5712437 0.19140136 0
2.7090001 -0.57495415 0.19158536 0
2.7080002 -0.57888824 0.19167735 0
2.7070003 -0.58281875 0.19176935 0
2.7060001 -0.58674562 0.19186135 0
2.7060001 -0.59090519 0.19186135 0
2.7050002 -0.5948267 0.19195335 0
2.7060001 -0.59922433 0.19186135 0
2.7060001 -0.60338396 0.19186135 0
2.7070003 -0.60778707 0.19176935 0
2.7090001 -0.61243904 0.19158536 0
2.7110002 -0.61709833 0.19140136 0
2.7140002 -0.62201375 0.19112539 0
2.7180002 -0.62719059 0.19075742 0
2.7240002 -0.63288707 0.19020544 0
2.7360003 -0.64013118 0.18910152 0
3.2170002 -0.29498506 0.13977095 0
3.2110002 -0.29952523 0.14033374 0
3.2070003 -0.3042278 0.14070895 0
3.2040002 -0.3090097 0.14099032 0
3.2030003 -0.31397194 0.14108413 0
2.9220002 -0.29165703 0.1674414 0
2.9140003 -0.29541257 0.16819176 0
2.9100003 -0.29954329 0.16856694 0
2.9070003 -0.30376241 0.16884835 0
2.9040003 -0.30797067 0.16912974 0
2.7450001 -0.29556587 0.18404365 0
2.7360003 -0.29882178 0.18488781 0
2.7290001 -0.30226523 0.18554442 0
2.7250001 -0.30601898 0.18591961 0
2.7210002 -0.30975825 0.18629479 0
2.7170002 -0.31348312 0.18666998 0
2.7150002 -0.31742805 0.18685758 0
2.7120001 -0.32124668 0.18713899 0
2.7100003 -0.32517543 0.18732657 0
2.7090001 -0.32921952 0.18742038 0
2.7080002 -0.33326006 0.18751417 0
2.7070003 -0.33729699 0.18760796 0
2.7070003 -0.34145838 0.18760796 0
2.7070003 -0.34561977 0.18760796 0
2.7070003 -0.34978116 0.18760796 0
2.7080002 -0.35407603 0.18751417 0
2.7090001 -0.35837448 0.18742038 0
2.7100003 -0.36267659 0.18732657 0
2.7120001 -0.36712116 0.18713899 0
2.7150002 -0.37171367 0.18685758 0
2.7190001 -0.37645948 0.1864824 0
2.7230003 -0.38121974 0.18610719 0
2.7300003 -0.38643274 0.1854506 0
3.2260003 -0.59143913 0.13892677 0
3.2160003 -0.59458858 0.13986477 0
3.2110002 -0.59868503 0.14033374 0
3.2070003 -0.6029619 0.14070895 0
3.2040002 -0.6074245 0.14099032 0
3.2020001 -0.61207831 0.14117792 0
3.2010002 -0.61692876 0.14127174 0
3.2000003 -0.62177557 0.14136553 0
3.2010002 -0.62703371 0.14127174 0
3.2020001 -0.63229537 0.14117792 0
2.7450001 -0.54513174 0.18404365 0
2.7370002 -0.5476445 0.18479401 0
2.7310002 -0.55056125 0.18535681 0
2.7260003 -0.55367464 0.18582579 0
2.7220001 -0.55698997 0.18620099 0
2.7190001 -0.56051284 0.1864824 0
2.7160003 -0.56402487 0.18676376 0
2.7130003 -0.5675261 0.18704517 0
2.7110002 -0.5712437 0.18723278 0
2.7090001 -0.57495415 0.18742038 0
2.7080002 -0.57888824 0.18751417 0
2.7070003 -0.58281875 0.18760796 0
2.7060001 -0.58674562 0.18770176 0
2.7060001 -0.59090519 0.18770176 0
2.7050002 -0.5948267 0.18779556 0
2.7060001 -0.59922433 0.18770176 0
2.7060001 -0.60338396 0.18770176 0
2.7070003 -0.60778707 0.18760796 0
2.7090001 -0.61243904 0.18742038 0
2.7110002 -0.61709833 0.18723278 0
2.7140002 -0.62201375 0.18695138 0
2.7180002 -0.62719059 0.18657619 0
2.7240002 -0.63288707 0.1860134 0
2.7360003 -0.64013118 0.18488781 0
3.2170002 -0.29498506 0.13468963 0
3.2110002 -0.29952523 0.13526326 0
3.2070003 -0.3042278 0.13564566 0
3.2040002 -0.3090097 0.13593245 0
3.2030003 -0.31397194 0.13602808 0
2.9220002 -0.29165703 0.16289219 0
2.9140003 -0.29541257 0.16365699 0
2.9100003 -0.29954329 0.16403939 0
2.9070003 -0.30376241 0.16432619 0
2.9040003 -0.30797067 0.16461302 0
2.7450001 -0.29556587 0.17981371 0
2.7360003 -0.29882178 0.18067411 0
2.7290001 -0.30226523 0.18134335 0
2.7250001 -0.30601898 0.18172574 0
2.7210002 -0.30975825 0.18210815 0
2.7170002 -0.31348312 0.18249056 0
2.7150002 -0.31742805 0.18268177 0
2.7120001 -0.32124668 0.18296857 0
2.7100003 -0.32517543 0.18315977 0
2.7090001 -0.32921952 0.18325539 0
2.7080002 -0.33326006 0.18335098 0
2.7070003 -0.33729699 0.18344657 0
2.7070003 -0.34145838 0.18344657 0
2.7070003 -0.34561977 0.18344657 0
2.7070003 -0.34978116 0.18344657 0
2.7080002 -0.35407603 0.18335098 0
2.7090001 -0.35837448 0.18325539 0
2.7100003 -0.36267659 0.18315977 0
2.7120001 -0.36712116 0.18296857 0
2.7150002 -0.37171367 0.18268177 0
2.7190001 -0.37645948 0.18229938 0
2.7230003 -0.38121974 0.18191694 0
2.7300003 -0.38643274 0.18124774 0
3.2260003 -0.59143913 0.13382921 0
3.2160003 -0.59458858 0.13478523 0
3.2110002 -0.59868503 0.13526326 0
3.2070003 -0.6029619 0.13564566 0
3.2040002 -0.6074245 0.13593245 0
3.2020001 -0.61207831 0.13612369 0
3.2010002 -0.61692876 0.13621926 0
3.2000003 -0.62177557 0.13631487 0
3.2010002 -0.62703371 0.13621926 0
3.2020001 -0.63229537 0.13612369 0
2.7450001 -0.54513174 0.17981371 0
2.7370002 -0.5476445 0.18057851 0
2.7310002 -0.55056125 0.18115214 0
2.7260003 -0.55367464 0.18163012 0
2.7220001 -0.55698997 0.18201256 0
2.7190001 -0.56051284 0.18229938 0
2.7160003 -0.56402487 0.18258616 0
2.7130003 -0.5675261 0.18287295 0
2.7110002 -0.5712437 0.18306416 0
2.7090001 -0.57495415 0.18325539 0
2.7080002 -0.57888824 0.18335098 0
2.7070003 -0.58281875 0.18344657 0
2.7060001 -0.58674562 0.18354219 0
2.7060001 -0.59090519 0.18354219 0
2.7050002 -0.5948267 0.18363778 0
2.7060001 -0.59922433 0.18354219 0
2.7060001 -0.60338396 0.18354219 0
2.7070003 -0.60778707 0.18344657 0
2.7090001 -0.61243904 0.18325539 0
2.7110002 -0.61709833 0.18306416 0
2.7140002 -0.62201375 0.18277736 0
2.7180002 -0.62719059 0.18239497 0
2.7240002 -0.63288707 0.18182135 0
2.7360003 -0.64013118 0.18067411 0
3.2170002 -0.29498506 0.1296083 0
3.2110002 -0.29952523 0.13019276 0
3.2070003 -0.3042278 0.13058239 0
3.2040002 -0.3090097 0.1308746 0
3.2030003 -0.31397194 0.13097197 0
2.9220002 -0.29165703 0.15834299 0
2.9140003 -0.29541257 0.15912221 0
2.9100003 -0.29954329 0.15951185 0
2.9070003 -0.30376241 0.15980406 0
2.9040003 -0.30797067 0.16009629 0
