# .PCD v0.7 - Point Cloud Data file format
VERSION 0.7
FIELDS x y z intensity
SIZE 4 4 4 4
TYPE F F F F
COUNT 1 1 1 1
WIDTH 1427
HEIGHT 1
VIEWPOINT 0 0 0 1 0 0 0
POINTS 1427
DATA ascii
2.5770001 0.84540415 0.71422434 0
2.5790002 0.84229261 0.71450937 0
2.5800002 0.83876789 0.71465182 0
2.5820003 0.83564377 0.71493685 0
2.5840001 0.83251232 0.71522188 0
2.5860002 0.82937372 0.71550691 0
2.5870001 0.82582915 0.71564937 0
2.5890002 0.82267797 0.7159344 0
2.5910003 0.81951952 0.71621943 0
2.5930002 0.8163538 0.7165044 0
2.5940001 0.81278944 0.71664691 0
2.5960002 0.8096112 0.71693188 0
2.5980003 0.80642569 0.71721685 0
2.6000001 0.80323291 0.71750188 0
2.6010003 0.79964882 0.71764439 0
2.6030002 0.79644334 0.71792936 0
2.6050003 0.79323083 0.71821439 0
2.6070001 0.79001099 0.71849936 0
2.6080003 0.78640705 0.71864188 0
2.6100001 0.78317451 0.71892691 0
2.6120002 0.77993494 0.71921194 0
2.6140001 0.77668798 0.71949691 0
2.6160002 0.77343404 0.71978188 0
2.6170001 0.76980472 0.71992439 0
2.6190002 0.76653808 0.72020936 0
2.6210003 0.76326412 0.72049439 0
2.6230001 0.75998294 0.72077942 0
2.6250002 0.75669467 0.72106445 0
2.6260002 0.75304008 0.7212069 0
2.6280003 0.74973923 0.72149193 0
2.6300001 0.74643093 0.7217769 0
2.6320002 0.7431156 0.72206187 0
2.6340003 0.739793 0.7223469 0
2.4470003 1.0875655 0.69200689 0
2.4480002 1.084425 0.69214755 0
2.4500003 1.0818311 0.69242895 0
2.4510002 1.0786816 0.69256961 0
2.4530003 1.0760752 0.69285107 0
2.4540002 1.0729167 0.69299173 0
2.4560001 1.0702975 0.69327307 0
2.4570003 1.0671301 0.69341385 0
2.4590001 1.0644982 0.69369519 0
2.4600003 1.0613219 0.69383591 0
2.4620001 1.0586773 0.69411731 0
2.4630003 1.0554919 0.69425803 0
2.4650002 1.0528347 0.69453943 0
2.4670002 1.0501707 0.69482082 0
2.4680002 1.0469706 0.69496149 0
2.4700003 1.0442939 0.69524288 0
2.4710002 1.0410849 0.69538355 0
2.4730003 1.0383954 0.695665 0
2.4740002 1.0351775 0.69580567 0
2.4760003 1.0324754 0.69608706 0
2.4780002 1.029766 0.69636846 0
2.4790001 1.0265335 0.69650912 0
2.4810002 1.0238116 0.69679058 0
2.4820001 1.0205702 0.69693124 0
2.4840002 1.0178356 0.69721264 0
2.4860003 1.0150939 0.69749403 0
2.4870002 1.011838 0.69763476 0
2.4890001 1.0090834 0.69791615 0
2.4900002 1.0058186 0.69805682 0
2.4920001 1.0030515 0.69833821 0
2.4940002 1.0002773 0.6986196 0
2.4950001 0.99699795 0.69876027 0
2.4970002 0.9942112 0.69904172 0
2.4980001 0.99092269 0.69918239 0
2.5000002 0.9881233 0.69946384 0
2.5020001 0.98531651 0.69974518 0
2.5030003 0.9820137 0.6998859 0
2.5050001 0.97919428 0.7001673 0
2.5060003 0.97588265 0.70030797 0
2.5080001 0.97305059 0.70058936 0
2.5100002 0.97021151 0.70087075 0
2.5110002 0.96688521 0.70101148 0
2.5130002 0.96403348 0.70129287 0
2.5150001 0.96117425 0.70157421 0
2.5160003 0.95783377 0.70171499 0
2.5180001 0.95496202 0.70199633 0
2.5190003 0.95161235 0.70213705 0
2.5210001 0.94872808 0.70241845 0
2.5230002 0.9458366 0.70269984 0
2.5240002 0.94247246 0.70284057 0
2.5260003 0.93956834 0.7031219 0
2.5280001 0.93665695 0.70340335 0
2.5290003 0.93327844 0.70354402 0
2.5310001 0.93035442 0.70382541 0
2.5330002 0.92742336 0.70410681 0
2.5340002 0.9240303 0.70424747 0
2.5360003 0.92108655 0.70452893 0
2.5380001 0.91813546 0.70481026 0
2.5390003 0.91472811 0.70495099 0
2.5410001 0.91176444 0.70523238 0
2.5430002 0.90879363 0.70551378 0
2.5440001 0.90537173 0.7056545 0
2.5460002 0.90238822 0.7059359 0
2.5480001 0.89939749 0.70621729 0
2.5490003 0.89596128 0.70635796 0
2.5510001 0.89295787 0.70663935 0
2.5530002 0.88994741 0.70692074 0
2.5550003 0.88692969 0.70720214 0
2.5560002 0.88347358 0.70734286 0
2.5580001 0.8804431 0.7076242 0
2.5600002 0.87740546 0.70790565 0
2.5610001 0.87393492 0.70804632 0
2.5630002 0.87088472 0.70832771 0
2.5650003 0.8678273 0.7086091 0
2.5660002 0.86434233 0.70874983 0
2.5680003 0.86127228 0.70903122 0
2.5700002 0.85819495 0.70931256 0
2.5720003 0.85511047 0.70959401 0
2.5730002 0.85160565 0.70973468 0
2.5750003 0.84850854 0.71001607 0
2.5770001 0.84540415 0.71029747 0
2.5790002 0.84229261 0.71057886 0
2.5800002 0.83876789 0.71071959 0
2.5820003 0.83564377 0.71100098 0
2.5840001 0.83251232 0.71128237 0
2.5860002 0.82937372 0.71156377 0
2.5870001 0.82582915 0.71170443 0
2.5890002 0.82267797 0.71198583 0
2.5910003 0.81951952 0.71226728 0
2.5930002 0.8163538 0.71254861 0
2.5940001 0.81278944 0.71268928 0
2.5960002 0.8096112 0.71297073 0
2.5980003 0.80642569 0.71325213 0
2.6000001 0.80323291 0.71353352 0
2.6010003 0.79964882 0.71367419 0
2.6030002 0.79644334 0.71395558 0
2.6050003 0.79323083 0.71423697 0
2.6070001 0.79001099 0.71451837 0
2.6080003 0.78640705 0.71465909 0
2.6100001 0.78317451 0.71494043 0
2.6120002 0.77993494 0.71522188 0
2.6140001 0.77668798 0.71550322 0
2.6160002 0.77343404 0.71578467 0
2.6170001 0.76980472 0.71592534 0
2.6190002 0.76653808 0.71620673 0
2.6210003 0.76326412 0.71648818 0
2.6230001 0.75998294 0.71676952 0
2.6250002 0.75669467 0.71705091 0
2.6260002 0.75304008 0.71719164 0
2.6280003 0.74973923 0.71747303 0
2.6300001 0.74643093 0.71775436 0
2.6320002 0.7431156 0.71803582 0
2.6340003 0.739793 0.71831721 0
2.4470003 1.0875655 0.6883145 0
2.4480002 1.084425 0.68845338 0
2.4500003 1.0818311 0.68873119 0
2.4510002 1.0786816 0.68887001 0
2.4530003 1.0760752 0.68914783 0
2.4540002 1.0729167 0.68928671 0
2.4560001 1.0702975 0.68956447 0
2.4570003 1.0671301 0.6897034 0
2.4590001 1.0644982 0.68998116 0
2.4600003 1.0613219 0.6901201 0
2.4620001 1.0586773 0.69039786 0
2.4630003 1.0554919 0.69053674 0
2.4650002 1.0528347 0.6908145 0
2.4670002 1.0501707 0.69109237 0
2.4680002 1.0469706 0.69123125 0
2.4700003 1.0442939 0.69150901 0
2.4710002 1.0410849 0.69164789 0
2.4730003 1.0383954 0.6919257 0
2.4740002 1.0351775 0.69206458 0
2.4760003 1.0324754 0.6923424 0
2.4780002 1.029766 0.69262016 0
2.4790001 1.0265335 0.69275904 0
2.4810002 1.0238116 0.69303679 0
2.4820001 1.0205702 0.69317567 0
2.4840002 1.0178356 0.69345349 0
2.4860003 1.0150939 0.69373131 0
2.4870002 1.011838 0.69387019 0
2.4890001 1.0090834 0.69414794 0
2.4900002 1.0058186 0.69428688 0
2.4920001 1.0030515 0.69456464 0
2.4940002 1.0002773 0.69484246 0
2.4950001 0.99699795 0.69498134 0
2.4970002 0.9942112 0.69525909 0
2.4980001 0.99092269 0.69539797 0
2.5000002 0.9881233 0.69567585 0
2.5020001 0.98531651 0.69595361 0
2.5030003 0.9820137 0.69609249 0
2.5050001 0.97919428 0.69637024 0
2.5060003 0.97588265 0.69650918 0
2.5080001 0.97305059 0.69678694 0
2.5100002 0.97021151 0.69706476 0
2.5110002 0.96688521 0.69720364 0
2.5130002 0.96403348 0.69748139 0
2.5150001 0.96117425 0.69775915 0
2.5160003 0.95783377 0.69789809 0
2.5180001 0.95496202 0.69817591 0
2.5190003 0.95161235 0.69831479 0
2.5210001 0.94872808 0.69859254 0
2.5230002 0.9458366 0.69887036 0
2.5240002 0.94247246 0.69900924 0
2.5260003 0.93956834 0.69928706 0
2.5280001 0.93665695 0.69956481 0
2.5290003 0.93327844 0.69970369 0
2.5310001 0.93035442 0.69998145 0
2.5330002 0.92742336 0.70025933 0
2.5340002 0.9240303 0.70039821 0
2.5360003 0.92108655 0.70067596 0
2.5380001 0.91813546 0.70095372 0
2.5390003 0.91472811 0.70109266 0
2.5410001 0.91176444 0.70137042 0
2.5430002 0.90879363 0.70164824 0
2.5440001 0.90537173 0.70178711 0
2.5460002 0.90238822 0.70206487 0
2.5480001 0.89939749 0.70234263 0
2.5490003 0.89596128 0.70248157 0
2.5510001 0.89295787 0.70275939 0
2.5530002 0.88994741 0.70303714 0
2.5550003 0.88692969 0.7033149 0
2.5560002 0.88347358 0.70345384 0
2.5580001 0.8804431 0.7037316 0
2.5600002 0.87740546 0.70400941 0
2.5610001 0.87393492 0.70414829 0
2.5630002 0.87088472 0.70442605 0
2.5650003 0.8678273 0.70470387 0
2.5660002 0.86434233 0.70484281 0
2.5680003 0.86127228 0.70512056 0
2.5700002 0.85819495 0.70539832 0
2.5720003 0.85511047 0.70567614 0
2.5730002 0.85160565 0.70581502 0
2.5750003 0.84850854 0.70609283 0
2.5770001 0.84540415 0.70637059 0
2.5790002 0.84229261 0.70664835 0
2.5800002 0.83876789 0.70678723 0
2.5820003 0.83564377 0.70706505 0
2.5840001 0.83251232 0.70734286 0
2.5860002 0.82937372 0.70762062 0
2.5870001 0.82582915 0.7077595 0
2.5890002 0.82267797 0.70803732 0
2.5910003 0.81951952 0.70831513 0
2.5930002 0.8163538 0.70859289 0
2.5940001 0.81278944 0.70873177 0
2.5960002 0.8096112 0.70900953 0
2.5980003 0.80642569 0.70928735 0
2.6000001 0.80323291 0.70956516 0
2.6010003 0.79964882 0.70970404 0
2.6030002 0.79644334 0.7099818 0
2.6050003 0.79323083 0.71025962 0
2.6070001 0.79001099 0.71053731 0
2.6080003 0.78640705 0.71067631 0
2.6100001 0.78317451 0.71095407 0
2.6120002 0.77993494 0.71123183 0
2.6140001 0.77668798 0.71150959 0
2.6160002 0.77343404 0.7117874 0
2.6170001 0.76980472 0.71192634 0
2.6190002 0.76653808 0.7122041 0
2.6210003 0.76326412 0.71248186 0
2.6230001 0.75998294 0.71275967 0
2.6250002 0.75669467 0.71303749 0
2.6260002 0.75304008 0.71317637 0
2.6280003 0.74973923 0.71345413 0
2.6300001 0.74643093 0.71373188 0
2.6320002 0.7431156 0.71400976 0
2.6340003 0.739793 0.71428752 0
2.4470003 1.0875655 0.68462205 0
2.4480002 1.084425 0.68475914 0
2.4500003 1.0818311 0.68503332 0
2.4510002 1.0786816 0.68517041 0
2.4530003 1.0760752 0.68544459 0
2.4540002 1.0729167 0.68558168 0
2.4560001 1.0702975 0.68585587 0
2.4570003 1.0671301 0.68599296 0
2.4590001 1.0644982 0.68626714 0
2.4600003 1.0613219 0.68640423 0
2.4620001 1.0586773 0.68667841 0
2.4630003 1.0554919 0.6868155 0
2.4650002 1.0528347 0.68708968 0
2.4670002 1.0501707 0.68736386 0
2.4680002 1.0469706 0.68750095 0
2.4700003 1.0442939 0.68777514 0
2.4710002 1.0410849 0.68791223 0
2.4730003 1.0383954 0.68818641 0
2.4740002 1.0351775 0.6883235 0
2.4760003 1.0324754 0.68859768 0
2.4780002 1.029766 0.68887186 0
2.4790001 1.0265335 0.68900895 0
2.4810002 1.0238116 0.68928313 0
2.4820001 1.0205702 0.68942016 0
2.4840002 1.0178356 0.6896944 0
2.4860003 1.0150939 0.68996859 0
2.4870002 1.011838 0.69010568 0
2.4890001 1.0090834 0.6903798 0
2.4900002 1.0058186 0.69051695 0
2.4920001 1.0030515 0.69079113 0
2.4940002 1.0002773 0.69106531 0
2.4950001 0.99699795 0.69120234 0
2.4970002 0.9942112 0.69147658 0
2.4980001 0.99092269 0.69161361 0
2.5000002 0.9881233 0.6918878 0
2.5020001 0.98531651 0.69216198 0
2.5030003 0.9820137 0.69229913 0
2.5050001 0.97919428 0.69257319 0
2.5060003 0.97588265 0.6927104 0
2.5080001 0.97305059 0.69298452 0
2.5100002 0.97021151 0.6932587 0
2.5110002 0.96688521 0.69339579 0
2.5130002 0.96403348 0.69366997 0
2.5150001 0.96117425 0.69394416 0
2.5160003 0.95783377 0.69408125 0
2.5180001 0.95496202 0.69435537 0
2.5190003 0.95161235 0.69449252 0
2.5210001 0.94872808 0.69476664 0
2.5230002 0.9458366 0.69504082 0
2.5240002 0.94247246 0.69517797 0
2.5260003 0.93956834 0.69545215 0
2.5280001 0.93665695 0.69572628 0
2.5290003 0.93327844 0.69586343 0
2.5310001 0.93035442 0.69613755 0
2.5330002 0.92742336 0.69641179 0
2.5340002 0.9240303 0.69654882 0
2.5360003 0.92108655 0.696823 0
2.5380001 0.91813546 0.69709718 0
2.5390003 0.91472811 0.69723427 0
2.5410001 0.91176444 0.69750845 0
2.5430002 0.90879363 0.69778264 0
2.5440001 0.90537173 0.69791973 0
2.5460002 0.90238822 0.69819391 0
2.5480001 0.89939749 0.69846809 0
2.5490003 0.89596128 0.69860518 0
2.5510001 0.89295787 0.69887936 0
2.5530002 0.88994741 0.69915354 0
2.5550003 0.88692969 0.69942772 0
2.5560002 0.88347358 0.69956481 0
2.5580001 0.8804431 0.699839 0
2.5600002 0.87740546 0.70011318 0
2.5610001 0.87393492 0.70025027 0
2.5630002 0.87088472 0.70052445 0
2.5650003 0.8678273 0.70079863 0
2.5660002 0.86434233 0.70093572 0
2.5680003 0.86127228 0.7012099 0
2.5700002 0.85819495 0.70148408 0
2.5720003 0.85511047 0.70175827 0
2.5730002 0.85160565 0.70189536 0
2.5750003 0.84850854 0.70216954 0
2.5770001 0.84540415 0.70244366 0
2.5790002 0.84229261 0.7027179 0
2.5800002 0.83876789 0.70285499 0
2.5820003 0.83564377 0.70312917 0
2.5840001 0.83251232 0.70340335 0
2.5860002 0.82937372 0.70367748 0
2.5870001 0.82582915 0.70381463 0
2.5890002 0.82267797 0.70408881 0
2.5910003 0.81951952 0.70436299 0
2.5930002 0.8163538 0.70463711 0
2.5940001 0.81278944 0.7047742 0
2.5960002 0.8096112 0.70504844 0
2.5980003 0.80642569 0.70532262 0
2.6000001 0.80323291 0.70559675 0
2.6010003 0.79964882 0.7057339 0
2.6030002 0.79644334 0.70600802 0
2.6050003 0.79323083 0.70628226 0
2.6070001 0.79001099 0.70655632 0
2.6080003 0.78640705 0.70669347 0
2.6100001 0.78317451 0.70696765 0
2.6120002 0.77993494 0.70724183 0
2.6140001 0.77668798 0.70751595 0
2.6160002 0.77343404 0.70779014 0
2.6170001 0.76980472 0.70792723 0
2.6190002 0.76653808 0.70820147 0
2.6210003 0.76326412 0.70847565 0
2.6230001 0.75998294 0.70874977 0
2.6250002 0.75669467 0.70902395 0
2.6260002 0.75304008 0.70916104 0
2.6280003 0.74973923 0.70943528 0
2.6300001 0.74643093 0.70970941 0
2.6320002 0.7431156 0.70998359 0
2.6340003 0.739793 0.71025777 0
2.4470003 1.0875655 0.68092966 0
2.4480002 1.084425 0.68106496 0
2.4500003 1.0818311 0.68133557 0
2.4510002 1.0786816 0.68147081 0
2.4530003 1.0760752 0.68174142 0
2.4540002 1.0729167 0.68187666 0
2.4560001 1.0702975 0.68214726 0
2.4570003 1.0671301 0.68228257 0
2.4590001 1.0644982 0.68255305 0
2.4600003 1.0613219 0.68268842 0
2.4620001 1.0586773 0.68295896 0
2.4630003 1.0554919 0.68309426 0
2.4650002 1.0528347 0.68336481 0
2.4670002 1.0501707 0.68363535 0
2.4680002 1.0469706 0.68377066 0
2.4700003 1.0442939 0.68404126 0
2.4710002 1.0410849 0.68417656 0
2.4730003 1.0383954 0.68444711 0
2.4740002 1.0351775 0.68458235 0
2.4760003 1.0324754 0.68485296 0
2.4780002 1.029766 0.68512356 0
2.4790001 1.0265335 0.68525881 0
2.4810002 1.0238116 0.68552935 0
2.4820001 1.0205702 0.68566465 0
2.4840002 1.0178356 0.68593526 0
2.4860003 1.0150939 0.68620586 0
2.4870002 1.011838 0.68634111 0
2.4890001 1.0090834 0.68661165 0
2.4900002 1.0058186 0.68674695 0
2.4920001 1.0030515 0.6870175 0
2.4940002 1.0002773 0.68728805 0
2.4950001 0.99699795 0.68742335 0
2.4970002 0.9942112 0.68769395 0
2.4980001 0.99092269 0.68782926 0
2.5000002 0.9881233 0.68809986 0
2.5020001 0.98531651 0.68837035 0
2.5030003 0.9820137 0.68850565 0
2.5050001 0.97919428 0.68877625 0
2.5060003 0.97588265 0.68891156 0
2.5080001 0.97305059 0.6891821 0
2.5100002 0.97021151 0.68945265 0
2.5110002 0.96688521 0.68958795 0
2.5130002 0.96403348 0.68985856 0
2.5150001 0.96117425 0.69012904 0
2.5160003 0.95783377 0.6902644 0
2.5180001 0.95496202 0.69053495 0
2.5190003 0.95161235 0.69067025 0
2.5210001 0.94872808 0.6909408 0
2.5230002 0.9458366 0.69121134 0
2.5240002 0.94247246 0.69134665 0
2.5260003 0.93956834 0.69161725 0
2.5280001 0.93665695 0.6918878 0
2.5290003 0.93327844 0.6920231 0
2.5310001 0.93035442 0.69229364 0
2.5330002 0.92742336 0.69256425 0
2.5340002 0.9240303 0.69269955 0
2.5360003 0.92108655 0.6929701 0
2.5380001 0.91813546 0.69324064 0
2.5390003 0.91472811 0.69337595 0
2.5410001 0.91176444 0.69364649 0
2.5430002 0.90879363 0.6939171 0
2.5440001 0.90537173 0.69405234 0
2.5460002 0.90238822 0.69432294 0
2.5480001 0.89939749 0.69459355 0
2.5490003 0.89596128 0.69472885 0
2.5510001 0.89295787 0.69499934 0
2.5530002 0.88994741 0.69526994 0
2.5550003 0.88692969 0.69554055 0
2.5560002 0.88347358 0.69567585 0
2.5580001 0.8804431 0.69594634 0
2.5600002 0.87740546 0.69621694 0
2.5610001 0.87393492 0.69635224 0
2.5630002 0.87088472 0.69662279 0
2.5650003 0.8678273 0.69689339 0
2.5660002 0.86434233 0.69702864 0
2.5680003 0.86127228 0.69729924 0
2.5700002 0.85819495 0.69756979 0
2.5720003 0.85511047 0.69784039 0
2.5730002 0.85160565 0.69797564 0
2.5750003 0.84850854 0.69824624 0
2.5770001 0.84540415 0.69851685 0
2.5790002 0.84229261 0.69878733 0
2.5800002 0.83876789 0.69892263 0
2.5820003 0.83564377 0.69919324 0
2.5840001 0.83251232 0.69946378 0
2.5860002 0.82937372 0.69973439 0
2.5870001 0.82582915 0.69986963 0
2.5890002 0.82267797 0.70014024 0
2.5910003 0.81951952 0.70041084 0
2.5930002 0.8163538 0.70068133 0
2.5940001 0.81278944 0.70081663 0
2.5960002 0.8096112 0.70108724 0
2.5980003 0.80642569 0.70135784 0
2.6000001 0.80323291 0.70162833 0
2.6010003 0.79964882 0.70176363 0
2.6030002 0.79644334 0.70203424 0
2.6050003 0.79323083 0.70230484 0
2.6070001 0.79001099 0.70257533 0
2.6080003 0.78640705 0.70271063 0
2.6100001 0.78317451 0.70298123 0
2.6120002 0.77993494 0.70325184 0
2.6140001 0.77668798 0.70352232 0
2.6160002 0.77343404 0.70379293 0
2.6170001 0.76980472 0.70392823 0
2.6190002 0.76653808 0.70419878 0
2.6210003 0.76326412 0.70446938 0
2.6230001 0.75998294 0.70473993 0
2.6250002 0.75669467 0.70501053 0
2.6260002 0.75304008 0.70514584 0
2.6280003 0.74973923 0.70541632 0
2.6300001 0.74643093 0.70568693 0
2.6320002 0.7431156 0.70595753 0
2.6340003 0.739793 0.70622814 0
2.4470003 1.0875655 0.67723727 0
2.4480002 1.084425 0.67737079 0
2.4500003 1.0818311 0.6776377 0
2.4510002 1.0786816 0.67777121 0
2.4530003 1.0760752 0.67803818 0
2.4540002 1.0729167 0.67817163 0
2.4560001 1.0702975 0.6784386 0
2.4570003 1.0671301 0.67857212 0
2.4590001 1.0644982 0.67883903 0
2.4600003 1.0613219 0.6789726 0
2.4620001 1.0586773 0.67923951 0
2.4630003 1.0554919 0.67937303 0
2.4650002 1.0528347 0.67963994 0
2.4670002 1.0501707 0.6799069 0
2.4680002 1.0469706 0.68004042 0
2.4700003 1.0442939 0.68030739 0
2.4710002 1.0410849 0.68044084 0
2.4730003 1.0383954 0.68070781 0
2.4740002 1.0351775 0.68084133 0
2.4760003 1.0324754 0.68110824 0
2.4780002 1.029766 0.68137521 0
2.4790001 1.0265335 0.68150866 0
2.4810002 1.0238116 0.68177569 0
2.4820001 1.0205702 0.68190914 0
2.4840002 1.0178356 0.68217611 0
2.4860003 1.0150939 0.68244308 0
2.4870002 1.011838 0.68257654 0
2.4890001 1.0090834 0.68284351 0
2.4900002 1.0058186 0.68297696 0
2.4920001 1.0030515 0.68324393 0
2.4940002 1.0002773 0.6835109 0
2.4950001 0.99699795 0.68364441 0
2.4970002 0.9942112 0.68391138 0
2.4980001 0.99092269 0.68404484 0
2.5000002 0.9881233 0.68431181 0
2.5020001 0.98531651 0.68457878 0
2.5030003 0.9820137 0.68471229 0
2.5050001 0.97919428 0.6849792 0
2.5060003 0.97588265 0.68511271 0
2.5080001 0.97305059 0.68537962 0
2.5100002 0.97021151 0.68564665 0
2.5110002 0.96688521 0.68578011 0
2.5130002 0.96403348 0.68604708 0
2.5150001 0.96117425 0.68631399 0
2.5160003 0.95783377 0.6864475 0
2.5180001 0.95496202 0.68671447 0
2.5190003 0.95161235 0.68684798 0
2.5210001 0.94872808 0.68711495 0
2.5230002 0.9458366 0.68738186 0
2.5240002 0.94247246 0.68751538 0
2.5260003 0.93956834 0.68778235 0
2.5280001 0.93665695 0.68804932 0
2.5290003 0.93327844 0.68818283 0
2.5310001 0.93035442 0.68844974 0
2.5330002 0.92742336 0.68871671 0
2.5340002 0.9240303 0.68885016 0
2.5360003 0.92108655 0.68911719 0
2.5380001 0.91813546 0.6893841 0
2.5390003 0.91472811 0.68951762 0
2.5410001 0.91176444 0.68978453 0
2.5430002 0.90879363 0.69005156 0
2.5440001 0.90537173 0.69018501 0
2.5460002 0.90238822 0.69045198 0
2.5480001 0.89939749 0.69071889 0
2.5490003 0.89596128 0.6908524 0
2.5510001 0.89295787 0.69111937 0
2.5530002 0.88994741 0.69138634 0
2.5550003 0.88692969 0.69165337 0
2.5560002 0.88347358 0.69178677 0
2.5580001 0.8804431 0.69205374 0
2.5600002 0.87740546 0.6923207 0
2.5610001 0.87393492 0.69245422 0
2.5630002 0.87088472 0.69272119 0
2.5650003 0.8678273 0.69298816 0
2.5660002 0.86434233 0.69312161 0
2.5680003 0.86127228 0.69338858 0
2.5700002 0.85819495 0.69365549 0
2.5720003 0.85511047 0.69392252 0
2.5730002 0.85160565 0.69405597 0
2.5750003 0.84850854 0.69432294 0
2.5770001 0.84540415 0.69458991 0
2.5790002 0.84229261 0.69485688 0
2.5800002 0.83876789 0.6949904 0
2.5820003 0.83564377 0.69525731 0
2.5840001 0.83251232 0.69552428 0
2.5860002 0.82937372 0.69579124 0
2.5870001 0.82582915 0.6959247 0
2.5890002 0.82267797 0.69619167 0
2.5910003 0.81951952 0.6964587 0
2.5930002 0.8163538 0.69672561 0
2.5940001 0.81278944 0.69685912 0
2.5960002 0.8096112 0.69712609 0
2.5980003 0.80642569 0.69739306 0
2.6000001 0.80323291 0.69765997 0
2.6010003 0.79964882 0.69779348 0
2.6030002 0.79644334 0.69806039 0
2.6050003 0.79323083 0.69832742 0
2.6070001 0.79001099 0.69859433 0
2.6080003 0.78640705 0.69872785 0
2.6100001 0.78317451 0.69899482 0
2.6120002 0.77993494 0.69926178 0
2.6140001 0.77668798 0.69952869 0
2.6160002 0.77343404 0.69979572 0
2.6170001 0.76980472 0.69992918 0
2.6190002 0.76653808 0.70019615 0
2.6210003 0.76326412 0.70046318 0
2.6230001 0.75998294 0.70073009 0
2.6250002 0.75669467 0.70099705 0
2.6260002 0.75304008 0.70113051 0
2.6280003 0.74973923 0.70139748 0
2.6300001 0.74643093 0.70166445 0
2.6320002 0.7431156 0.70193142 0
2.6340003 0.739793 0.70219839 0
2.4470003 1.0875655 0.67354488 0
2.4480002 1.084425 0.67367661 0
2.4500003 1.0818311 0.67393994 0
2.4510002 1.0786816 0.67407155 0
2.4530003 1.0760752 0.674335 0
2.4540002 1.0729167 0.67446661 0
2.4560001 1.0702975 0.67472994 0
2.4570003 1.0671301 0.67486167 0
2.4590001 1.0644982 0.675125 0
2.4600003 1.0613219 0.67525673 0
2.4620001 1.0586773 0.67552006 0
2.4630003 1.0554919 0.67565173 0
2.4650002 1.0528347 0.67591512 0
2.4670002 1.0501707 0.67617846 0
2.4680002 1.0469706 0.67631012 0
2.4700003 1.0442939 0.67657351 0
2.4710002 1.0410849 0.67670512 0
2.4730003 1.0383954 0.67696851 0
2.4740002 1.0351775 0.67710018 0
2.4760003 1.0324754 0.67736357 0
2.4780002 1.029766 0.67762685 0
2.4790001 1.0265335 0.67775857 0
2.4810002 1.0238116 0.67802191 0
2.4820001 1.0205702 0.67815363 0
2.4840002 1.0178356 0.67841697 0
2.4860003 1.0150939 0.6786803 0
2.4870002 1.011838 0.67881203 0
2.4890001 1.0090834 0.67907536 0
2.4900002 1.0058186 0.67920703 0
2.4920001 1.0030515 0.67947042 0
2.4940002 1.0002773 0.67973375 0
2.4950001 0.99699795 0.67986542 0
2.4970002 0.9942112 0.68012881 0
2.4980001 0.99092269 0.68026042 0
2.5000002 0.9881233 0.68052381 0
2.5020001 0.98531651 0.68078715 0
2.5030003 0.9820137 0.68091887 0
2.5050001 0.97919428 0.68118221 0
2.5060003 0.97588265 0.68131387 0
2.5080001 0.97305059 0.68157721 0
2.5100002 0.97021151 0.6818406 0
2.5110002 0.96688521 0.68197227 0
2.5130002 0.96403348 0.6822356 0
2.5150001 0.96117425 0.68249899 0
2.5160003 0.95783377 0.68263066 0
2.5180001 0.95496202 0.68289399 0
2.5190003 0.95161235 0.68302572 0
2.5210001 0.94872808 0.68328905 0
2.5230002 0.9458366 0.68355238 0
2.5240002 0.94247246 0.68368411 0
2.5260003 0.93956834 0.68394744 0
2.5280001 0.93665695 0.68421078 0
2.5290003 0.93327844 0.6843425 0
2.5310001 0.93035442 0.68460584 0
2.5330002 0.92742336 0.68486917 0
2.5340002 0.9240303 0.68500084 0
2.5360003 0.92108655 0.68526423 0
2.5380001 0.91813546 0.68552756 0
2.5390003 0.91472811 0.68565929 0
2.5410001 0.91176444 0.68592262 0
2.5430002 0.90879363 0.68618596 0
2.5440001 0.90537173 0.68631768 0
2.5460002 0.90238822 0.68658102 0
2.5480001 0.89939749 0.68684435 0
2.5490003 0.89596128 0.68697608 0
2.5510001 0.89295787 0.68723941 0
2.5530002 0.88994741 0.68750274 0
2.5550003 0.88692969 0.68776613 0
2.5560002 0.88347358 0.6878978 0
2.5580001 0.8804431 0.68816113 0
2.5600002 0.87740546 0.68842447 0
2.5610001 0.87393492 0.68855619 0
2.5630002 0.87088472 0.68881953 0
2.5650003 0.8678273 0.68908286 0
2.5660002 0.86434233 0.68921459 0
2.5680003 0.86127228 0.68947792 0
2.5700002 0.85819495 0.68974125 0
2.5720003 0.85511047 0.69000465 0
2.5730002 0.85160565 0.69013631 0
2.5750003 0.84850854 0.69039965 0
2.5770001 0.84540415 0.69066298 0
2.5790002 0.84229261 0.69092643 0
2.5800002 0.83876789 0.69105804 0
2.5820003 0.83564377 0.69132143 0
2.5840001 0.83251232 0.69158477 0
2.5860002 0.82937372 0.69184816 0
2.5870001 0.82582915 0.69197977 0
2.5890002 0.82267797 0.69224316 0
2.5910003 0.81951952 0.69250655 0
2.5930002 0.8163538 0.69276989 0
2.5940001 0.81278944 0.69290155 0
2.5960002 0.8096112 0.69316494 0
2.5980003 0.80642569 0.69342828 0
2.6000001 0.80323291 0.69369161 0
2.6010003 0.79964882 0.69382334 0
2.6030002 0.79644334 0.69408667 0
2.6050003 0.79323083 0.69435 0
2.6070001 0.79001099 0.69461334 0
2.6080003 0.78640705 0.69474506 0
2.6100001 0.78317451 0.6950084 0
2.6120002 0.77993494 0.69527173 0
2.6140001 0.77668798 0.69553506 0
2.6160002 0.77343404 0.69579846 0
2.6170001 0.76980472 0.69593012 0
2.6190002 0.76653808 0.69619352 0
2.6210003 0.76326412 0.69645685 0
2.6230001 0.75998294 0.69672024 0
2.6250002 0.75669467 0.69698358 0
2.6260002 0.75304008 0.69711524 0
2.6280003 0.74973923 0.69737864 0
2.6300001 0.74643093 0.69764197 0
2.6320002 0.7431156 0.6979053 0
2.6340003 0.739793 0.69816869 0
2.4470003 1.0875655 0.6698525 0
2.4480002 1.084425 0.66998237 0
2.4500003 1.0818311 0.67024207 0
2.4510002 1.0786816 0.67037201 0
2.4530003 1.0760752 0.67063177 0
2.4540002 1.0729167 0.67076159 0
2.4560001 1.0702975 0.67102134 0
2.4570003 1.0671301 0.67115122 0
2.4590001 1.0644982 0.67141098 0
2.4600003 1.0613219 0.67154086 0
2.4620001 1.0586773 0.67180061 0
2.4630003 1.0554919 0.67193049 0
2.4650002 1.0528347 0.67219019 0
2.4670002 1.0501707 0.67244995 0
2.4680002 1.0469706 0.67257988 0
2.4700003 1.0442939 0.67283958 0
2.4710002 1.0410849 0.67296946 0
2.4730003 1.0383954 0.67322922 0
2.4740002 1.0351775 0.6733591 0
2.4760003 1.0324754 0.67361885 0
2.4780002 1.029766 0.67387855 0
2.4790001 1.0265335 0.67400849 0
2.4810002 1.0238116 0.67426819 0
2.4820001 1.0205702 0.67439806 0
2.4840002 1.0178356 0.67465782 0
2.4860003 1.0150939 0.67491758 0
2.4870002 1.011838 0.67504746 0
2.4890001 1.0090834 0.67530715 0
2.4900002 1.0058186 0.67543709 0
2.4920001 1.0030515 0.67569679 0
2.4940002 1.0002773 0.67595661 0
2.4950001 0.99699795 0.67608643 0
2.4970002 0.9942112 0.67634618 0
2.4980001 0.99092269 0.67647606 0
2.5000002 0.9881233 0.67673582 0
2.5020001 0.98531651 0.67699552 0
2.5030003 0.9820137 0.67712545 0
2.5050001 0.97919428 0.67738521 0
2.5060003 0.97588265 0.67751509 0
2.5080001 0.97305059 0.67777479 0
2.5100002 0.97021151 0.67803454 0
2.5110002 0.96688521 0.67816442 0
2.5130002 0.96403348 0.67842424 0
2.5150001 0.96117425 0.67868388 0
2.5160003 0.95783377 0.67881382 0
2.5180001 0.95496202 0.67907357 0
2.5190003 0.95161235 0.67920339 0
2.5210001 0.94872808 0.67946315 0
2.5230002 0.9458366 0.67972291 0
2.5240002 0.94247246 0.67985284 0
2.5260003 0.93956834 0.68011254 0
2.5280001 0.93665695 0.6803723 0
2.5290003 0.93327844 0.68050218 0
2.5310001 0.93035442 0.68076193 0
2.5330002 0.92742336 0.68102169 0
2.5340002 0.9240303 0.68115151 0
2.5360003 0.92108655 0.68141127 0
2.5380001 0.91813546 0.68167102 0
2.5390003 0.91472811 0.68180096 0
2.5410001 0.91176444 0.68206066 0
2.5430002 0.90879363 0.68232042 0
2.5440001 0.90537173 0.68245029 0
2.5460002 0.90238822 0.68271005 0
2.5480001 0.89939749 0.68296981 0
2.5490003 0.89596128 0.68309963 0
2.5510001 0.89295787 0.68335938 0
2.5530002 0.88994741 0.68361914 0
2.5550003 0.88692969 0.6838789 0
2.5560002 0.88347358 0.68400878 0
2.5580001 0.8804431 0.68426853 0
2.5600002 0.87740546 0.68452823 0
2.5610001 0.87393492 0.68465811 0
2.5630002 0.87088472 0.68491793 0
2.5650003 0.8678273 0.68517768 0
2.5660002 0.86434233 0.6853075 0
2.5680003 0.86127228 0.68556726 0
2.5700002 0.85819495 0.68582702 0
2.5720003 0.85511047 0.68608677 0
2.5730002 0.85160565 0.68621665 0
2.5750003 0.84850854 0.68647635 0
2.5770001 0.84540415 0.68673611 0
2.5790002 0.84229261 0.68699586 0
2.5800002 0.83876789 0.68712574 0
2.5820003 0.83564377 0.6873855 0
2.5840001 0.83251232 0.6876452 0
2.5860002 0.82937372 0.68790501 0
2.5870001 0.82582915 0.68803489 0
2.5890002 0.82267797 0.68829465 0
2.5910003 0.81951952 0.68855441 0
2.5930002 0.8163538 0.68881416 0
2.5940001 0.81278944 0.68894398 0
2.5960002 0.8096112 0.68920374 0
2.5980003 0.80642569 0.6894635 0
2.6000001 0.80323291 0.68972325 0
2.6010003 0.79964882 0.68985313 0
2.6030002 0.79644334 0.69011283 0
2.6050003 0.79323083 0.69037259 0
2.6070001 0.79001099 0.69063234 0
2.6080003 0.78640705 0.69076228 0
2.6100001 0.78317451 0.69102192 0
2.6120002 0.77993494 0.69128174 0
2.6140001 0.77668798 0.69154143 0
2.6160002 0.77343404 0.69180119 0
2.6170001 0.76980472 0.69193107 0
2.6190002 0.76653808 0.69219089 0
2.6210003 0.76326412 0.69245064 0
2.6230001 0.75998294 0.69271034 0
2.6250002 0.75669467 0.6929701 0
2.6260002 0.75304008 0.69309998 0
2.6280003 0.74973923 0.69335973 0
2.6300001 0.74643093 0.69361949 0
2.6320002 0.7431156 0.69387925 0
2.6340003 0.739793 0.694139 0
2.4470003 1.0875655 0.66616011 0
2.4480002 1.084425 0.66628814 0
2.4500003 1.0818311 0.66654432 0
2.4510002 1.0786816 0.66667235 0
2.4530003 1.0760752 0.66692853 0
2.4540002 1.0729167 0.66705656 0
2.4560001 1.0702975 0.66731274 0
2.4570003 1.0671301 0.66744077 0
2.4590001 1.0644982 0.66769695 0
2.4600003 1.0613219 0.66782498 0
2.4620001 1.0586773 0.66808116 0
2.4630003 1.0554919 0.6682092 0
2.4650002 1.0528347 0.66846538 0
2.4670002 1.0501707 0.6687215 0
2.4680002 1.0469706 0.66884959 0
2.4700003 1.0442939 0.66910577 0
2.4710002 1.0410849 0.6692338 0
2.4730003 1.0383954 0.66948992 0
2.4740002 1.0351775 0.66961801 0
2.4760003 1.0324754 0.66987413 0
2.4780002 1.029766 0.67013025 0
2.4790001 1.0265335 0.67025828 0
2.4810002 1.0238116 0.67051446 0
2.4820001 1.0205702 0.67064255 0
2.4840002 1.0178356 0.67089868 0
2.4860003 1.0150939 0.67115486 0
2.4870002 1.011838 0.67128289 0
2.4890001 1.0090834 0.67153907 0
2.4900002 1.0058186 0.6716671 0
2.4920001 1.0030515 0.67192328 0
2.4940002 1.0002773 0.6721794 0
2.4950001 0.99699795 0.67230749 0
2.4970002 0.9942112 0.67256361 0
2.4980001 0.99092269 0.6726917 0
2.5000002 0.9881233 0.67294782 0
2.5020001 0.98531651 0.67320395 0
2.5030003 0.9820137 0.6733321 0
2.5050001 0.97919428 0.67358816 0
2.5060003 0.97588265 0.67371625 0
2.5080001 0.97305059 0.67397237 0
2.5100002 0.97021151 0.67422855 0
2.5110002 0.96688521 0.67435658 0
2.5130002 0.96403348 0.67461276 0
2.5150001 0.96117425 0.67486882 0
2.5160003 0.95783377 0.67499697 0
2.5180001 0.95496202 0.67525309 0
2.5190003 0.95161235 0.67538118 0
2.5210001 0.94872808 0.6756373 0
2.5230002 0.9458366 0.67589343 0
2.5240002 0.94247246 0.67602146 0
2.5260003 0.93956834 0.67627764 0
2.5280001 0.93665695 0.67653382 0
2.5290003 0.93327844 0.67666185 0
2.5310001 0.93035442 0.67691803 0
2.5330002 0.92742336 0.67717415 0
2.5340002 0.9240303 0.67730224 0
2.5360003 0.92108655 0.67755836 0
2.5380001 0.91813546 0.67781448 0
2.5390003 0.91472811 0.67794257 0
2.5410001 0.91176444 0.6781987 0
2.5430002 0.90879363 0.67845488 0
2.5440001 0.90537173 0.67858291 0
2.5460002 0.90238822 0.67883909 0
2.5480001 0.89939749 0.67909515 0
2.5490003 0.89596128 0.6792233 0
2.5510001 0.89295787 0.67947942 0
2.5530002 0.88994741 0.67973554 0
2.5550003 0.88692969 0.67999172 0
2.5560002 0.88347358 0.68011975 0
2.5580001 0.8804431 0.68037593 0
2.5600002 0.87740546 0.680632 0
2.5610001 0.87393492 0.68076015 0
2.5630002 0.87088472 0.68101627 0
2.5650003 0.8678273 0.68127239 0
2.5660002 0.86434233 0.68140048 0
2.5680003 0.86127228 0.6816566 0
2.5700002 0.85819495 0.68191278 0
2.5720003 0.85511047 0.6821689 0
2.5730002 0.85160565 0.68229699 0
2.5750003 0.84850854 0.68255311 0
2.5770001 0.84540415 0.68280923 0
2.5790002 0.84229261 0.68306541 0
2.5800002 0.83876789 0.68319345 0
2.5820003 0.83564377 0.68344963 0
2.5840001 0.83251232 0.68370569 0
2.5860002 0.82937372 0.68396187 0
2.5870001 0.82582915 0.68408996 0
2.5890002 0.82267797 0.68434608 0
2.5910003 0.81951952 0.68460226 0
2.5930002 0.8163538 0.68485832 0
2.5940001 0.81278944 0.68498647 0
2.5960002 0.8096112 0.68524253 0
2.5980003 0.80642569 0.68549871 0
2.6000001 0.80323291 0.68575484 0
2.6010003 0.79964882 0.68588293 0
2.6030002 0.79644334 0.68613911 0
2.6050003 0.79323083 0.68639517 0
2.6070001 0.79001099 0.68665135 0
2.6080003 0.78640705 0.68677938 0
2.6100001 0.78317451 0.68703556 0
2.6120002 0.77993494 0.68729168 0
2.6140001 0.77668798 0.6875478 0
2.6160002 0.77343404 0.68780398 0
2.6170001 0.76980472 0.68793201 0
2.6190002 0.76653808 0.6881882 0
2.6210003 0.76326412 0.68844438 0
2.6230001 0.75998294 0.68870044 0
2.6250002 0.75669467 0.68895662 0
2.6260002 0.75304008 0.68908465 0
2.6280003 0.74973923 0.68934083 0
2.6300001 0.74643093 0.68959695 0
2.6320002 0.7431156 0.68985313 0
2.6340003 0.739793 0.69010925 0
2.4470003 1.0875655 0.66246772 0
2.4480002 1.084425 0.66259396 0
2.4500003 1.0818311 0.66284651 0
2.4510002 1.0786816 0.66297275 0
2.4530003 1.0760752 0.66322529 0
2.4540002 1.0729167 0.66335154 0
2.4560001 1.0702975 0.66360408 0
2.4570003 1.0671301 0.66373038 0
2.4590001 1.0644982 0.66398287 0
2.4600003 1.0613219 0.66410917 0
2.4620001 1.0586773 0.66436172 0
2.4630003 1.0554919 0.66448796 0
2.4650002 1.0528347 0.66474044 0
2.4670002 1.0501707 0.66499305 0
2.4680002 1.0469706 0.66511929 0
2.4700003 1.0442939 0.66537184 0
2.4710002 1.0410849 0.66549808 0
2.4730003 1.0383954 0.66575062 0
2.4740002 1.0351775 0.66587687 0
2.4760003 1.0324754 0.66612947 0
2.4780002 1.029766 0.66638196 0
2.4790001 1.0265335 0.6665082 0
2.4810002 1.0238116 0.6667608 0
2.4820001 1.0205702 0.66688704 0
2.4840002 1.0178356 0.66713953 0
2.4860003 1.0150939 0.66739213 0
2.4870002 1.011838 0.66751838 0
2.4890001 1.0090834 0.66777086 0
2.4900002 1.0058186 0.66789716 0
2.4920001 1.0030515 0.66814971 0
2.4940002 1.0002773 0.66840219 0
2.4950001 0.99699795 0.6685285 0
2.4970002 0.9942112 0.66878104 0
2.4980001 0.99092269 0.66890728 0
2.5000002 0.9881233 0.66915983 0
2.5020001 0.98531651 0.66941237 0
2.5030003 0.9820137 0.66953862 0
2.5050001 0.97919428 0.66979116 0
2.5060003 0.97588265 0.66991746 0
2.5080001 0.97305059 0.67016995 0
2.5100002 0.97021151 0.67042249 0
2.5110002 0.96688521 0.67054874 0
2.5130002 0.96403348 0.67080128 0
2.5150001 0.96117425 0.67105383 0
2.5160003 0.95783377 0.67118013 0
2.5180001 0.95496202 0.67143261 0
2.5190003 0.95161235 0.67155892 0
2.5210001 0.94872808 0.6718114 0
2.5230002 0.9458366 0.67206395 0
2.5240002 0.94247246 0.67219019 0
2.5260003 0.93956834 0.67244279 0
2.5280001 0.93665695 0.67269528 0
2.5290003 0.93327844 0.67282158 0
2.5310001 0.93035442 0.67307407 0
2.5330002 0.92742336 0.67332661 0
2.5340002 0.9240303 0.67345285 0
2.5360003 0.92108655 0.67370546 0
2.5380001 0.91813546 0.67395794 0
2.5390003 0.91472811 0.67408419 0
2.5410001 0.91176444 0.67433673 0
2.5430002 0.90879363 0.67458928 0
2.5440001 0.90537173 0.67471552 0
2.5460002 0.90238822 0.67496812 0
2.5480001 0.89939749 0.67522061 0
2.5490003 0.89596128 0.67534685 0
2.5510001 0.89295787 0.67559946 0
2.5530002 0.88994741 0.67585194 0
2.5550003 0.88692969 0.67610455 0
2.5560002 0.88347358 0.67623079 0
2.5580001 0.8804431 0.67648327 0
2.5600002 0.87740546 0.67673582 0
2.5610001 0.87393492 0.67686212 0
2.5630002 0.87088472 0.67711461 0
2.5650003 0.8678273 0.67736721 0
2.5660002 0.86434233 0.67749345 0
2.5680003 0.86127228 0.67774594 0
2.5700002 0.85819495 0.67799848 0
2.5720003 0.85511047 0.67825103 0
2.5730002 0.85160565 0.67837727 0
2.5750003 0.84850854 0.67862988 0
2.5770001 0.84540415 0.67888236 0
2.5790002 0.84229261 0.67913491 0
2.5800002 0.83876789 0.67926115 0
2.5820003 0.83564377 0.67951369 0
2.5840001 0.83251232 0.67976618 0
2.5860002 0.82937372 0.68001878 0
2.5870001 0.82582915 0.68014503 0
2.5890002 0.82267797 0.68039757 0
2.5910003 0.81951952 0.68065012 0
2.5930002 0.8163538 0.6809026 0
2.5940001 0.81278944 0.68102884 0
2.5960002 0.8096112 0.68128145 0
2.5980003 0.80642569 0.68153393 0
2.6000001 0.80323291 0.68178648 0
2.6010003 0.79964882 0.68191278 0
2.6030002 0.79644334 0.68216527 0
2.6050003 0.79323083 0.68241781 0
2.6070001 0.79001099 0.68267035 0
2.6080003 0.78640705 0.6827966 0
2.6100001 0.78317451 0.68304914 0
2.6120002 0.77993494 0.68330169 0
2.6140001 0.77668798 0.68355417 0
2.6160002 0.77343404 0.68380678 0
2.6170001 0.76980472 0.68393302 0
2.6190002 0.76653808 0.6841855 0
2.6210003 0.76326412 0.68443811 0
2.6230001 0.75998294 0.68469059 0
2.6250002 0.75669467 0.6849432 0
2.6260002 0.75304008 0.68506944 0
2.6280003 0.74973923 0.68532193 0
2.6300001 0.74643093 0.68557447 0
2.6320002 0.7431156 0.68582702 0
2.6340003 0.739793 0.68607956 0
2.4470003 1.0875655 0.65877533 0
2.4480002 1.084425 0.65889978 0
2.4500003 1.0818311 0.65914869 0
2.4510002 1.0786816 0.65927315 0
2.4530003 1.0760752 0.65952206 0
2.4540002 1.0729167 0.65964651 0
2.4560001 1.0702975 0.65989542 0
2.4570003 1.0671301 0.66001993 0
2.4590001 1.0644982 0.66026884 0
2.4600003 1.0613219 0.66039336 0
2.4620001 1.0586773 0.66064227 0
2.4630003 1.0554919 0.66076672 0
2.4650002 1.0528347 0.66101563 0
2.4670002 1.0501707 0.66126454 0
2.4680002 1.0469706 0.66138899 0
2.4700003 1.0442939 0.66163796 0
2.4710002 1.0410849 0.66176236 0
2.4730003 1.0383954 0.66201138 0
2.4740002 1.0351775 0.66213578 0
2.4760003 1.0324754 0.66238475 0
2.4780002 1.029766 0.66263366 0
2.4790001 1.0265335 0.66275811 0
2.4810002 1.0238116 0.66300702 0
2.4820001 1.0205702 0.66313148 0
2.4840002 1.0178356 0.66338038 0
2.4860003 1.0150939 0.66362941 0
2.4870002 1.011838 0.66375381 0
2.4890001 1.0090834 0.66400278 0
2.4900002 1.0058186 0.66412723 0
2.4920001 1.0030515 0.66437614 0
2.4940002 1.0002773 0.66462505 0
2.4950001 0.99699795 0.6647495 0
2.4970002 0.9942112 0.66499841 0
2.4980001 0.99092269 0.66512287 0
2.5000002 0.9881233 0.66537184 0
2.5020001 0.98531651 0.66562074 0
2.5030003 0.9820137 0.66574526 0
2.5050001 0.97919428 0.66599411 0
2.5060003 0.97588265 0.66611862 0
2.5080001 0.97305059 0.66636753 0
2.5100002 0.97021151 0.66661644 0
2.5110002 0.96688521 0.66674089 0
2.5130002 0.96403348 0.66698986 0
2.5150001 0.96117425 0.66723871 0
2.5160003 0.95783377 0.66736329 0
2.5180001 0.95496202 0.66761214 0
2.5190003 0.95161235 0.66773665 0
2.5210001 0.94872808 0.66798556 0
2.5230002 0.9458366 0.66823447 0
2.5240002 0.94247246 0.66835892 0
2.5260003 0.93956834 0.66860783 0
2.5280001 0.93665695 0.66885674 0
2.5290003 0.93327844 0.66898125 0
2.5310001 0.93035442 0.66923016 0
2.5330002 0.92742336 0.66947913 0
2.5340002 0.9240303 0.66960359 0
2.5360003 0.92108655 0.6698525 0
2.5380001 0.91813546 0.6701014 0
2.5390003 0.91472811 0.67022586 0
2.5410001 0.91176444 0.67047477 0
2.5430002 0.90879363 0.67072368 0
2.5440001 0.90537173 0.67084819 0
2.5460002 0.90238822 0.6710971 0
2.5480001 0.89939749 0.67134607 0
2.5490003 0.89596128 0.67147052 0
2.5510001 0.89295787 0.67171943 0
2.5530002 0.88994741 0.67196834 0
2.5550003 0.88692969 0.67221725 0
2.5560002 0.88347358 0.6723417 0
2.5580001 0.8804431 0.67259061 0
2.5600002 0.87740546 0.67283958 0
2.5610001 0.87393492 0.67296404 0
2.5630002 0.87088472 0.67321301 0
2.5650003 0.8678273 0.67346191 0
2.5660002 0.86434233 0.67358637 0
2.5680003 0.86127228 0.67383528 0
2.5700002 0.85819495 0.67408419 0
2.5720003 0.85511047 0.67433316 0
2.5730002 0.85160565 0.67445761 0
2.5750003 0.84850854 0.67470658 0
2.5770001 0.84540415 0.67495549 0
2.5790002 0.84229261 0.6752044 0
2.5800002 0.83876789 0.67532885 0
2.5820003 0.83564377 0.67557776 0
2.5840001 0.83251232 0.67582667 0
2.5860002 0.82937372 0.67607564 0
2.5870001 0.82582915 0.67620003 0
2.5890002 0.82267797 0.67644906 0
2.5910003 0.81951952 0.67669797 0
2.5930002 0.8163538 0.67694688 0
2.5940001 0.81278944 0.67707133 0
2.5960002 0.8096112 0.67732024 0
2.5980003 0.80642569 0.67756921 0
2.6000001 0.80323291 0.67781806 0
2.6010003 0.79964882 0.67794257 0
2.6030002 0.79644334 0.67819148 0
2.6050003 0.79323083 0.67844045 0
2.6070001 0.79001099 0.67868936 0
2.6080003 0.78640705 0.67881382 0
2.6100001 0.78317451 0.67906272 0
2.6120002 0.77993494 0.67931163 0
2.6140001 0.77668798 0.67956054 0
2.6160002 0.77343404 0.67980951 0
2.6170001 0.76980472 0.67993397 0
2.6190002 0.76653808 0.68018293 0
2.6210003 0.76326412 0.68043184 0
2.6230001 0.75998294 0.68068075 0
2.6250002 0.75669467 0.68092966 0
2.6260002 0.75304008 0.68105412 0
2.6280003 0.74973923 0.68130302 0
2.6300001 0.74643093 0.68155193 0
2.6320002 0.7431156 0.68180096 0
2.6340003 0.739793 0.68204987 0
2.4470003 1.0875655 0.65508294 0
2.4480002 1.084425 0.65520561 0
2.4500003 1.0818311 0.65545088 0
2.4510002 1.0786816 0.65557355 0
2.4530003 1.0760752 0.65581888 0
2.4540002 1.0729167 0.65594149 0
2.4560001 1.0702975 0.65618682 0
2.4570003 1.0671301 0.65630949 0
2.4590001 1.0644982 0.65655482 0
2.4600003 1.0613219 0.65667748 0
2.4620001 1.0586773 0.65692282 0
2.4630003 1.0554919 0.65704548 0
2.4650002 1.0528347 0.65729076 0
2.4670002 1.0501707 0.65753609 0
2.4680002 1.0469706 0.65765876 0
2.4700003 1.0442939 0.65790403 0
2.4710002 1.0410849 0.6580267 0
2.4730003 1.0383954 0.65827203 0
2.4740002 1.0351775 0.65839469 0
2.4760003 1.0324754 0.65864003 0
2.4780002 1.029766 0.65888536 0
2.4790001 1.0265335 0.65900797 0
2.4810002 1.0238116 0.65925336 0
2.4820001 1.0205702 0.65937597 0
2.4840002 1.0178356 0.6596213 0
2.4860003 1.0150939 0.65986657 0
2.4870002 1.011838 0.65998924 0
2.4890001 1.0090834 0.66023457 0
2.4900002 1.0058186 0.66035724 0
2.4920001 1.0030515 0.66060257 0
2.4940002 1.0002773 0.6608479 0
2.4950001 0.99699795 0.66097057 0
2.4970002 0.9942112 0.66121584 0
2.4980001 0.99092269 0.66133851 0
2.5000002 0.9881233 0.66158378 0
2.5020001 0.98531651 0.66182911 0
2.5030003 0.9820137 0.66195178 0
2.5050001 0.97919428 0.66219711 0
2.5060003 0.97588265 0.66231978 0
2.5080001 0.97305059 0.66256511 0
2.5100002 0.97021151 0.66281044 0
2.5110002 0.96688521 0.66293311 0
2.5130002 0.96403348 0.66317838 0
2.5150001 0.96117425 0.66342372 0
2.5160003 0.95783377 0.66354638 0
2.5180001 0.95496202 0.66379166 0
2.5190003 0.95161235 0.66391432 0
2.5210001 0.94872808 0.66415966 0
2.5230002 0.9458366 0.66440499 0
2.5240002 0.94247246 0.66452765 0
2.5260003 0.93956834 0.66477299 0
2.5280001 0.93665695 0.66501826 0
2.5290003 0.93327844 0.66514099 0
2.5310001 0.93035442 0.66538626 0
2.5330002 0.92742336 0.66563153 0
2.5340002 0.9240303 0.6657542 0
2.5360003 0.92108655 0.66599953 0
2.5380001 0.91813546 0.66624486 0
2.5390003 0.91472811 0.66636753 0
2.5410001 0.91176444 0.66661286 0
2.5430002 0.90879363 0.6668582 0
2.5440001 0.90537173 0.66698086 0
2.5460002 0.90238822 0.66722614 0
2.5480001 0.89939749 0.66747141 0
2.5490003 0.89596128 0.66759413 0
2.5510001 0.89295787 0.66783941 0
2.5530002 0.88994741 0.66808474 0
2.5550003 0.88692969 0.66833007 0
2.5560002 0.88347358 0.66845274 0
2.5580001 0.8804431 0.66869807 0
2.5600002 0.87740546 0.66894341 0
2.5610001 0.87393492 0.66906601 0
2.5630002 0.87088472 0.66931134 0
2.5650003 0.8678273 0.66955668 0
2.5660002 0.86434233 0.66967928 0
2.5680003 0.86127228 0.66992462 0
2.5700002 0.85819495 0.67016995 0
2.5720003 0.85511047 0.67041528 0
2.5730002 0.85160565 0.67053795 0
2.5750003 0.84850854 0.67078328 0
2.5770001 0.84540415 0.67102861 0
2.5790002 0.84229261 0.67127389 0
2.5800002 0.83876789 0.67139655 0
2.5820003 0.83564377 0.67164183 0
2.5840001 0.83251232 0.67188716 0
2.5860002 0.82937372 0.67213249 0
2.5870001 0.82582915 0.67225516 0
2.5890002 0.82267797 0.67250049 0
2.5910003 0.81951952 0.67274582 0
2.5930002 0.8163538 0.67299116 0
2.5940001 0.81278944 0.67311376 0
2.5960002 0.8096112 0.6733591 0
2.5980003 0.80642569 0.67360443 0
2.6000001 0.80323291 0.6738497 0
2.6010003 0.79964882 0.67397237 0
2.6030002 0.79644334 0.6742177 0
2.6050003 0.79323083 0.67446303 0
2.6070001 0.79001099 0.67470837 0
2.6080003 0.78640705 0.67483103 0
2.6100001 0.78317451 0.67507631 0
2.6120002 0.77993494 0.67532164 0
2.6140001 0.77668798 0.67556691 0
2.6160002 0.77343404 0.67581224 0
2.6170001 0.76980472 0.67593491 0
2.6190002 0.76653808 0.67618024 0
2.6210003 0.76326412 0.67642558 0
2.6230001 0.75998294 0.67667091 0
2.6250002 0.75669467 0.67691618 0
2.6260002 0.75304008 0.67703891 0
2.6280003 0.74973923 0.67728418 0
2.6300001 0.74643093 0.67752945 0
2.6320002 0.7431156 0.67777479 0
2.6340003 0.739793 0.67802012 0
2.4470003 1.0875655 0.65139055 0
2.4480002 1.084425 0.65151137 0
2.4500003 1.0818311 0.65175307 0
2.4510002 1.0786816 0.65187395 0
2.4530003 1.0760752 0.65211564 0
2.4540002 1.0729167 0.65223652 0
2.4560001 1.0702975 0.65247822 0
2.4570003 1.0671301 0.6525991 0
2.4590001 1.0644982 0.65284073 0
2.4600003 1.0613219 0.65296167 0
2.4620001 1.0586773 0.65320337 0
2.4630003 1.0554919 0.65332419 0
2.4650002 1.0528347 0.65356588 0
2.4670002 1.0501707 0.65380764 0
2.4680002 1.0469706 0.65392846 0
2.4700003 1.0442939 0.65417016 0
2.4710002 1.0410849 0.65429103 0
2.4730003 1.0383954 0.65453273 0
2.4740002 1.0351775 0.65465361 0
2.4760003 1.0324754 0.65489531 0
2.4780002 1.029766 0.655137 0
2.4790001 1.0265335 0.65525782 0
2.4810002 1.0238116 0.65549958 0
2.4820001 1.0205702 0.65562046 0
2.4840002 1.0178356 0.65586215 0
2.4860003 1.0150939 0.65610385 0
2.4870002 1.011838 0.65622473 0
2.4890001 1.0090834 0.65646636 0
2.4900002 1.0058186 0.6565873 0
2.4920001 1.0030515 0.656829 0
2.4940002 1.0002773 0.6570707 0
2.4950001 0.99699795 0.65719151 0
2.4970002 0.9942112 0.65743327 0
2.4980001 0.99092269 0.65755415 0
2.5000002 0.9881233 0.65779585 0
2.5020001 0.98531651 0.65803754 0
2.5030003 0.9820137 0.65815842 0
2.5050001 0.97919428 0.65840006 0
2.5060003 0.97588265 0.65852094 0
2.5080001 0.97305059 0.65876269 0
2.5100002 0.97021151 0.65900439 0
2.5110002 0.96688521 0.65912521 0
2.5130002 0.96403348 0.65936697 0
2.5150001 0.96117425 0.65960866 0
2.5160003 0.95783377 0.65972954 0
2.5180001 0.95496202 0.65997124 0
2.5190003 0.95161235 0.66009212 0
2.5210001 0.94872808 0.66033375 0
2.5230002 0.9458366 0.66057551 0
2.5240002 0.94247246 0.66069633 0
2.5260003 0.93956834 0.66093808 0
2.5280001 0.93665695 0.66117978 0
2.5290003 0.93327844 0.66130066 0
2.5310001 0.93035442 0.66154236 0
2.5330002 0.92742336 0.66178405 0
2.5340002 0.9240303 0.66190493 0
2.5360003 0.92108655 0.66214663 0
2.5380001 0.91813546 0.66238832 0
2.5390003 0.91472811 0.6625092 0
2.5410001 0.91176444 0.6627509 0
2.5430002 0.90879363 0.6629926 0
2.5440001 0.90537173 0.66311347 0
2.5460002 0.90238822 0.66335517 0
2.5480001 0.89939749 0.66359687 0
2.5490003 0.89596128 0.66371775 0
2.5510001 0.89295787 0.66395944 0
2.5530002 0.88994741 0.66420114 0
2.5550003 0.88692969 0.6644429 0
2.5560002 0.88347358 0.66456372 0
2.5580001 0.8804431 0.66480541 0
2.5600002 0.87740546 0.66504717 0
2.5610001 0.87393492 0.66516799 0
2.5630002 0.87088472 0.66540968 0
2.5650003 0.8678273 0.66565144 0
2.5660002 0.86434233 0.66577232 0
2.5680003 0.86127228 0.66601396 0
2.5700002 0.85819495 0.66625571 0
2.5720003 0.85511047 0.66649741 0
2.5730002 0.85160565 0.66661823 0
2.5750003 0.84850854 0.66685998 0
2.5770001 0.84540415 0.66710168 0
2.5790002 0.84229261 0.66734338 0
2.5800002 0.83876789 0.66746426 0
2.5820003 0.83564377 0.66770601 0
2.5840001 0.83251232 0.66794765 0
2.5860002 0.82937372 0.66818941 0
2.5870001 0.82582915 0.66831023 0
2.5890002 0.82267797 0.66855192 0
2.5910003 0.81951952 0.66879368 0
2.5930002 0.8163538 0.66903532 0
2.5940001 0.81278944 0.66915619 0
2.5960002 0.8096112 0.66939795 0
2.5980003 0.80642569 0.66963965 0
2.6000001 0.80323291 0.66988134 0
2.6010003 0.79964882 0.67000222 0
2.6030002 0.79644334 0.67024386 0
2.6050003 0.79323083 0.67048562 0
2.6070001 0.79001099 0.67072731 0
2.6080003 0.78640705 0.67084819 0
2.6100001 0.78317451 0.67108989 0
2.6120002 0.77993494 0.67133164 0
2.6140001 0.77668798 0.67157328 0
2.6160002 0.77343404 0.67181504 0
2.6170001 0.76980472 0.67193592 0
2.6190002 0.76653808 0.67217755 0
2.6210003 0.76326412 0.67241931 0
2.6230001 0.75998294 0.67266101 0
2.6250002 0.75669467 0.6729027 0
2.6260002 0.75304008 0.67302358 0
2.6280003 0.74973923 0.67326534 0
2.6300001 0.74643093 0.67350698 0
2.6320002 0.7431156 0.67374873 0
2.6340003 0.739793 0.67399043 0
2.4470003 1.0875655 0.6476981 0
2.4480002 1.084425 0.64781713 0
2.4500003 1.0818311 0.64805532 0
2.4510002 1.0786816 0.64817435 0
2.4530003 1.0760752 0.64841247 0
2.4540002 1.0729167 0.6485315 0
2.4560001 1.0702975 0.64876956 0
2.4570003 1.0671301 0.64888865 0
2.4590001 1.0644982 0.64912671 0
2.4600003 1.0613219 0.6492458 0
2.4620001 1.0586773 0.64948386 0
2.4630003 1.0554919 0.64960295 0
2.4650002 1.0528347 0.64984107 0
2.4670002 1.0501707 0.65007913 0
2.4680002 1.0469706 0.65019822 0
2.4700003 1.0442939 0.65043628 0
2.4710002 1.0410849 0.65055537 0
2.4730003 1.0383954 0.65079343 0
2.4740002 1.0351775 0.65091252 0
2.4760003 1.0324754 0.65115064 0
2.4780002 1.029766 0.6513887 0
2.4790001 1.0265335 0.65150774 0
2.4810002 1.0238116 0.65174586 0
2.4820001 1.0205702 0.65186489 0
2.4840002 1.0178356 0.65210301 0
2.4860003 1.0150939 0.65234113 0
2.4870002 1.011838 0.65246016 0
2.4890001 1.0090834 0.65269828 0
2.4900002 1.0058186 0.65281731 0
2.4920001 1.0030515 0.65305543 0
2.4940002 1.0002773 0.65329355 0
2.4950001 0.99699795 0.65341258 0
2.4970002 0.9942112 0.6536507 0
2.4980001 0.99092269 0.65376973 0
2.5000002 0.9881233 0.65400779 0
2.5020001 0.98531651 0.65424591 0
2.5030003 0.9820137 0.65436494 0
2.5050001 0.97919428 0.65460312 0
