# .PCD v0.7 - Point Cloud Data file format
VERSION 0.7
FIELDS x y z intensity
SIZE 4 4 4 4
TYPE F F F F
COUNT 1 1 1 1
WIDTH 1410
HEIGHT 1
VIEWPOINT 0 0 0 1 0 0 0
POINTS 1410
DATA ascii
2.5260003 -1.2233132 0.64943337 0
2.5250001 -1.2265924 0.64931792 0
2.5240002 -1.2298682 0.64920247 0
2.5230002 -1.2331403 0.64908707 0
2.5220003 -1.2364089 0.64897162 0
2.5210001 -1.2396737 0.64885616 0
2.5200002 -1.2429351 0.64874071 0
2.5190003 -1.2461928 0.64862525 0
2.5180001 -1.2494466 0.6485098 0
2.5170002 -1.2526972 0.64839441 0
2.5170002 -1.2565159 0.64839441 0
2.5160003 -1.259761 0.64827895 0
2.5150001 -1.2630023 0.6481635 0
2.6200001 -0.8548997 0.65628064 0
2.6040001 -0.8530454 0.6544624 0
2.6030002 -0.85665303 0.65434873 0
2.6020002 -0.86025709 0.65423512 0
2.6010003 -0.86385751 0.65412152 0
2.6000001 -0.86745429 0.65400779 0
2.5990002 -0.8710475 0.65389419 0
2.5980003 -0.87463707 0.65378058 0
2.5970001 -0.87822294 0.65366691 0
2.5960002 -0.88180536 0.65355325 0
2.5940001 -0.88500166 0.65332597 0
2.5930002 -0.88857502 0.65321237 0
2.6250002 -1.013247 0.65684879 0
2.6170001 -1.0137683 0.6559397 0
2.6100001 -1.0146991 0.65514421 0
2.6050003 -1.0164849 0.65457606 0
2.6010003 -1.0186946 0.65412152 0
2.5960002 -1.0204459 0.65355325 0
2.5930002 -1.0230706 0.65321237 0
2.5900002 -1.0256842 0.65287143 0
2.5870001 -1.0282872 0.65253055 0
2.5840001 -1.0308793 0.65218961 0
2.5820003 -1.0339134 0.65196228 0
2.5800002 -1.0369401 0.65173507 0
2.5780003 -1.0399597 0.65150779 0
2.5770001 -1.0434301 0.65139413 0
2.5750003 -1.0464373 0.65116686 0
2.5740001 -1.0498986 0.65105319 0
2.5730002 -1.0533565 0.65093958 0
2.5730002 -1.0572762 0.65093958 0
2.5720003 -1.0607288 0.65082592 0
2.5720003 -1.0646466 0.65082592 0
2.5730002 -1.0690353 0.65093958 0
2.5730002 -1.072955 0.65093958 0
2.5740001 -1.0773489 0.65105319 0
2.5760002 -1.0822229 0.65128052 0
2.5780003 -1.0871041 0.65150779 0
2.5820003 -1.092952 0.65196228 0
2.5890002 -1.1002592 0.65275782 0
2.8060002 -1.20911 0.67741764 0
2.8020003 -1.2115091 0.67696309 0
2.7990003 -1.2143807 0.67662215 0
2.7960002 -1.2172415 0.67628127 0
2.7930002 -1.2200916 0.67594033 0
2.7910001 -1.2234231 0.67571306 0
2.7880001 -1.2262534 0.67537212 0
2.7860003 -1.2295687 0.67514485 0
2.7850003 -1.2333748 0.67503124 0
2.7830002 -1.2366776 0.67480397 0
2.7820003 -1.2404746 0.67469031 0
2.5950003 -1.1506612 0.65343964 0
2.5870001 -1.1505799 0.65253055 0
2.5820003 -1.1519905 0.65196228 0
2.5770001 -1.1533831 0.65139413 0
2.5730002 -1.1552682 0.65093958 0
2.5700002 -1.1576509 0.65059865 0
2.5670002 -1.160023 0.65025771 0
2.5650003 -1.1629001 0.65003049 0
2.5630002 -1.1657698 0.64980316 0
2.5610001 -1.1686324 0.64957589 0
2.5590003 -1.171488 0.64934862 0
2.5580001 -1.1748593 0.64923495 0
2.5570002 -1.1782269 0.64912128 0
2.5560002 -1.1815912 0.64900768 0
2.5560002 -1.1854801 0.64900768 0
2.5470002 -1.1845962 0.64798492 0
2.5450003 -1.1874049 0.64775765 0
2.5430002 -1.1902062 0.64753032 0
2.5420003 -1.1935359 0.64741671 0
2.5400002 -1.1963246 0.64718944 0
2.5380001 -1.1991061 0.64696217 0
2.5370002 -1.2024214 0.64684856 0
2.5350001 -1.2051903 0.64662123 0
2.5330002 -1.2079519 0.64639395 0
2.5320003 -1.2112529 0.64628035 0
2.5310001 -1.2145503 0.64616668 0
2.5290003 -1.2172939 0.64593941 0
2.5280001 -1.2205822 0.64582574 0
2.5270002 -1.2238669 0.64571214 0
2.5250001 -1.2265924 0.64548481 0
2.5240002 -1.2298682 0.6453712 0
2.5230002 -1.2331403 0.64525759 0
2.5220003 -1.2364089 0.64514393 0
2.5210001 -1.2396737 0.64503026 0
2.5200002 -1.2429351 0.64491665 0
2.5190003 -1.2461928 0.64480299 0
2.5180001 -1.2494466 0.64468938 0
2.5170002 -1.2526972 0.64457572 0
2.5160003 -1.255944 0.64446211 0
2.5160003 -1.259761 0.64446211 0
2.5150001 -1.2630023 0.64434844 0
2.6200001 -0.8548997 0.65227616 0
2.6040001 -0.8530454 0.65048677 0
2.6030002 -0.85665303 0.65037495 0
2.6020002 -0.86025709 0.65026313 0
2.6010003 -0.86385751 0.65015131 0
2.6000001 -0.86745429 0.65003943 0
2.5990002 -0.8710475 0.64992762 0
2.5980003 -0.87463707 0.6498158 0
2.5970001 -0.87822294 0.64970398 0
2.5960002 -0.88180536 0.6495921 0
2.5940001 -0.88500166 0.64936841 0
2.5930002 -0.88857502 0.64925659 0
2.6250002 -1.013247 0.65283537 0
2.6170001 -1.0137683 0.65194064 0
2.6100001 -1.0146991 0.6511578 0
2.6050003 -1.0164849 0.65059865 0
2.6010003 -1.0186946 0.65015131 0
2.5960002 -1.0204459 0.6495921 0
2.5930002 -1.0230706 0.64925659 0
2.5900002 -1.0256842 0.64892107 0
2.5870001 -1.0282872 0.64858556 0
2.5840001 -1.0308793 0.6482501 0
2.5820003 -1.0339134 0.64802641 0
2.5800002 -1.0369401 0.64780271 0
2.5780003 -1.0399597 0.64757907 0
2.5770001 -1.0434301 0.6474672 0
2.5750003 -1.0464373 0.64724356 0
2.5740001 -1.0498986 0.64713168 0
2.5730002 -1.0533565 0.64701986 0
2.5730002 -1.0572762 0.64701986 0
2.5720003 -1.0607288 0.64690804 0
2.5720003 -1.0646466 0.64690804 0
2.5730002 -1.0690353 0.64701986 0
2.5730002 -1.072955 0.64701986 0
2.5740001 -1.0773489 0.64713168 0
2.5760002 -1.0822229 0.64735538 0
2.5780003 -1.0871041 0.64757907 0
2.5820003 -1.092952 0.64802641 0
2.5890002 -1.1002592 0.64880925 0
2.8080003 -1.2100768 0.6733014 0
2.8040001 -1.2124795 0.67285401 0
2.8010001 -1.2153548 0.67251849 0
2.7970002 -1.2177304 0.67207116 0
2.7940001 -1.2205822 0.67173564 0
2.7920003 -1.2239157 0.67151201 0
2.7890003 -1.2267476 0.67117649 0
2.7870002 -1.2300649 0.6709528 0
2.7860003 -1.2338728 0.67084098 0
2.7840002 -1.2371773 0.67061728 0
2.7830002 -1.2409761 0.67050546 0
2.7820003 -1.2447714 0.67039359 0
2.5960002 -1.1551256 0.6495921 0
2.5880003 -1.1550319 0.64869744 0
2.5830002 -1.1564351 0.64813823 0
2.5780003 -1.1578206 0.64757907 0
2.5750003 -1.1602124 0.64724356 0
2.5720003 -1.1625934 0.64690804 0
2.5690002 -1.1649636 0.64657253 0
2.5670002 -1.1678406 0.64634883 0
2.5650003 -1.1707106 0.6461252 0
2.5630002 -1.1735733 0.6459015 0
2.5620003 -1.1769518 0.64578968 0
2.5610001 -1.1803266 0.6456778 0
2.5610001 -1.1842246 0.6456778 0
2.5530002 -1.1838945 0.64478314 0
2.5490003 -1.1856569 0.64433581 0
2.5470002 -1.1884691 0.64411211 0
2.5450003 -1.1912739 0.64388847 0
2.5430002 -1.1940717 0.64366484 0
2.5410001 -1.1968621 0.64344114 0
2.5400002 -1.2001848 0.64332926 0
2.5380001 -1.2029626 0.64310563 0
2.5360003 -1.2057333 0.64288193 0
2.5350001 -1.2090415 0.64277011 0
2.5330002 -1.2117994 0.64254642 0
2.5310001 -1.2145503 0.64232278 0
2.5300002 -1.217844 0.64221096 0
2.5290003 -1.2211342 0.64209914 0
2.5270002 -1.2238669 0.64187545 0
2.5260003 -1.2271481 0.64176357 0
2.5250001 -1.2304255 0.64165175 0
2.5230002 -1.2331403 0.64142811 0
2.5220003 -1.2364089 0.64131624 0
2.5210001 -1.2396737 0.64120436 0
2.5200002 -1.2429351 0.64109254 0
2.5190003 -1.2461928 0.64098072 0
2.5180001 -1.2494466 0.6408689 0
2.5170002 -1.2526972 0.64075708 0
2.5160003 -1.255944 0.64064527 0
2.5150001 -1.2591872 0.64053339 0
2.5150001 -1.2630023 0.64053339 0
2.6200001 -0.8548997 0.64827168 0
2.6040001 -0.8530454 0.6465112 0
2.6030002 -0.85665303 0.64640117 0
2.6020002 -0.86025709 0.64629114 0
2.6010003 -0.86385751 0.64618111 0
2.6000001 -0.86745429 0.64607108 0
2.5990002 -0.8710475 0.64596105 0
2.5980003 -0.87463707 0.64585102 0
2.5970001 -0.87822294 0.64574099 0
2.5960002 -0.88180536 0.64563096 0
2.5940001 -0.88500166 0.6454109 0
2.5930002 -0.88857502 0.64530087 0
2.6250002 -1.013247 0.64882189 0
2.6170001 -1.0137683 0.64794159 0
2.6110003 -1.0151376 0.64728147 0
2.6050003 -1.0164849 0.64662123 0
2.6010003 -1.0186946 0.64618111 0
2.5960002 -1.0204459 0.64563096 0
2.5930002 -1.0230706 0.64530087 0
2.5900002 -1.0256842 0.64497077 0
2.5870001 -1.0282872 0.64464062 0
2.5840001 -1.0308793 0.64431053 0
2.5820003 -1.0339134 0.64409047 0
2.5800002 -1.0369401 0.64387047 0
2.5780003 -1.0399597 0.64365041 0
2.5770001 -1.0434301 0.64354032 0
2.5750003 -1.0464373 0.64332032 0
2.5740001 -1.0498986 0.64321023 0
2.5730002 -1.0533565 0.6431002 0
2.5730002 -1.0572762 0.6431002 0
2.5720003 -1.0607288 0.64299017 0
2.5720003 -1.0646466 0.64299017 0
2.5730002 -1.0690353 0.6431002 0
2.5730002 -1.072955 0.6431002 0
2.5740001 -1.0773489 0.64321023 0
2.5760002 -1.0822229 0.64343029 0
2.5780003 -1.0871041 0.64365041 0
2.5820003 -1.092952 0.64409047 0
2.5890002 -1.1002592 0.64486074 0
2.8100002 -1.2110436 0.66917789 0
2.8060002 -1.21345 0.66873777 0
2.8020003 -1.2158418 0.66829765 0
2.7990003 -1.218708 0.6679675 0
2.7960002 -1.2215635 0.66763741 0
2.7930002 -1.2244081 0.66730732 0
2.7910001 -1.2277361 0.6670872 0
2.7890003 -1.2310569 0.66686714 0
2.7870002 -1.2343705 0.66664714 0
2.7860003 -1.2381766 0.66653705 0
2.7850003 -1.2419791 0.66642708 0
2.7840002 -1.2457778 0.66631699 0
2.7830002 -1.249573 0.66620696 0
2.7830002 -1.2538716 0.66620696 0
2.5910003 -1.1605046 0.6450808 0
2.5850003 -1.1613939 0.64442062 0
2.5810001 -1.163286 0.64398044 0
2.5770001 -1.1651638 0.64354032 0
2.5740001 -1.1675429 0.64321023 0
2.5720003 -1.1704292 0.64299017 0
2.5700002 -1.173308 0.64277011 0
2.5690002 -1.1767011 0.64266008 0
2.5680003 -1.1800904 0.64255005 0
2.5670002 -1.1834761 0.64243996 0
2.5610001 -1.1842246 0.64177978 0
2.5540001 -1.184423 0.64100957 0
2.5520003 -1.1872479 0.64078957 0
2.5500002 -1.1900653 0.64056945 0
2.5480001 -1.1928756 0.64034939 0
2.5460002 -1.1956788 0.64012933 0
2.5440001 -1.1984746 0.63990927 0
2.5420003 -1.2012634 0.63968921 0
2.5400002 -1.2040449 0.63946915 0
2.5380001 -1.2068192 0.63924909 0
2.5360003 -1.2095861 0.63902903 0
2.5350001 -1.2128924 0.638919 0
2.5330002 -1.2156471 0.63869894 0
2.5310001 -1.2183942 0.63847882 0
2.5300002 -1.2216861 0.63836884 0
2.5280001 -1.2244207 0.63814873 0
2.5270002 -1.2277037 0.63803875 0
2.5260003 -1.2309829 0.63792866 0
2.5240002 -1.2336994 0.63770866 0
2.5230002 -1.2369698 0.63759857 0
2.5220003 -1.2402366 0.6374886 0
2.5200002 -1.2429351 0.63726848 0
2.5190003 -1.2461928 0.63715851 0
2.5180001 -1.2494466 0.63704842 0
2.5170002 -1.2526972 0.63693839 0
2.5160003 -1.255944 0.63682836 0
2.5150001 -1.2591872 0.63671833 0
2.5140002 -1.262427 0.6366083 0
2.6200001 -0.8548997 0.64426726 0
2.6040001 -0.8530454 0.64253563 0
2.6030002 -0.85665303 0.64242738 0
2.6020002 -0.86025709 0.6423192 0
2.6010003 -0.86385751 0.64221096 0
2.6000001 -0.86745429 0.64210272 0
2.5990002 -0.8710475 0.64199448 0
2.5980003 -0.87463707 0.64188623 0
2.5970001 -0.87822294 0.64177799 0
2.5960002 -0.88180536 0.64166981 0
2.5940001 -0.88500166 0.64145333 0
2.5930002 -0.88857502 0.64134508 0
2.6250002 -1.013247 0.64480841 0
2.6170001 -1.0137683 0.64394259 0
2.6110003 -1.0151376 0.64329326 0
2.6050003 -1.0164849 0.64264381 0
2.6010003 -1.0186946 0.64221096 0
2.5960002 -1.0204459 0.64166981 0
2.5930002 -1.0230706 0.64134508 0
2.5900002 -1.0256842 0.64102042 0
2.5870001 -1.0282872 0.64069569 0
2.5840001 -1.0308793 0.64037108 0
2.5820003 -1.0339134 0.6401546 0
2.5800002 -1.0369401 0.63993812 0
2.5780003 -1.0399597 0.63972169 0
2.5770001 -1.0434301 0.63961339 0
2.5750003 -1.0464373 0.63939703 0
2.5740001 -1.0498986 0.63928878 0
2.5730002 -1.0533565 0.63918054 0
2.5730002 -1.0572762 0.63918054 0
2.5720003 -1.0607288 0.6390723 0
2.5720003 -1.0646466 0.6390723 0
2.5730002 -1.0690353 0.63918054 0
2.5730002 -1.072955 0.63918054 0
2.5740001 -1.0773489 0.63928878 0
2.5760002 -1.0822229 0.63950521 0
2.5780003 -1.0871041 0.63972169 0
2.5820003 -1.092952 0.6401546 0
2.5890002 -1.1002592 0.64091218 0
2.8120003 -1.2120106 0.66504717 0
2.8080003 -1.2144204 0.6646142 0
2.8040001 -1.2168158 0.66418135 0
2.8010001 -1.2196857 0.66385663 0
2.7980001 -1.2225447 0.6635319 0
2.7950003 -1.2253931 0.66320729 0
2.7930002 -1.2287246 0.66299081 0
2.7910001 -1.232049 0.66277432 0
2.7890003 -1.2353663 0.6625579 0
2.7880001 -1.2391758 0.66244966 0
2.7870002 -1.2429818 0.66234142 0
2.7860003 -1.2467843 0.66223323 0
2.7850003 -1.2505832 0.66212499 0
2.7860003 -1.2553922 0.66223323 0
2.7860003 -1.259696 0.66223323 0
2.7770002 -1.2594056 0.66125917 0
2.5920002 -1.1689211 0.6412369 0
2.5860002 -1.1697905 0.64058751 0
2.5820003 -1.1716702 0.6401546 0
2.5800002 -1.1745707 0.63993812 0
2.5780003 -1.177464 0.63972169 0
2.5760002 -1.1803501 0.63950521 0
2.5760002 -1.1842752 0.63950521 0
2.5700002 -1.1850508 0.63885587 0
2.5600002 -1.1836979 0.63777357 0
2.5570002 -1.1860086 0.63744885 0
2.5550003 -1.1888388 0.63723242 0
2.5530002 -1.1916617 0.63701594 0
2.5500002 -1.1939435 0.63669127 0
2.5480001 -1.1967502 0.63647485 0
2.5460002 -1.1995498 0.63625836 0
2.5440001 -1.2023422 0.63604188 0
2.5420003 -1.2051272 0.63582546 0
2.5400002 -1.2079051 0.63560903 0
2.5380001 -1.2106757 0.63539255 0
2.5360003 -1.2134392 0.63517606 0
2.5340002 -1.2161953 0.63495964 0
2.5330002 -1.2194946 0.6348514 0
2.5310001 -1.2222381 0.63463491 0
2.5290003 -1.2249745 0.63441849 0
2.5280001 -1.2282592 0.63431025 0
2.5260003 -1.2309829 0.63409382 0
2.5250001 -1.2342587 0.63398552 0
2.5240002 -1.2375308 0.63387734 0
2.5220003 -1.2402366 0.63366091 0
2.5210001 -1.2434995 0.63355267 0
2.5200002 -1.2467591 0.63344443 0
2.5190003 -1.250015 0.63333619 0
2.5170002 -1.2526972 0.6331197 0
2.5160003 -1.255944 0.63301152 0
2.5150001 -1.2591872 0.63290328 0
2.5140002 -1.262427 0.63279504 0
2.6200001 -0.8548997 0.64026278 0
2.6040001 -0.8530454 0.63856 0
2.6030002 -0.85665303 0.6384536 0
2.6020002 -0.86025709 0.63834721 0
2.6010003 -0.86385751 0.63824075 0
2.6000001 -0.86745429 0.6381343 0
2.5990002 -0.8710475 0.63802791 0
2.5980003 -0.87463707 0.63792145 0
2.5970001 -0.87822294 0.63781506 0
2.5960002 -0.88180536 0.63770866 0
2.5940001 -0.88500166 0.63749576 0
2.5930002 -0.88857502 0.63738936 0
2.6250002 -1.013247 0.64079493 0
2.6170001 -1.0137683 0.63994354 0
2.6110003 -1.0151376 0.639305 0
2.6050003 -1.0164849 0.63866645 0
2.6010003 -1.0186946 0.63824075 0
2.5960002 -1.0204459 0.63770866 0
2.5930002 -1.0230706 0.63738936 0
2.5900002 -1.0256842 0.63707006 0
2.5870001 -1.0282872 0.63675082 0
2.5840001 -1.0308793 0.63643152 0
2.5820003 -1.0339134 0.63621867 0
2.5800002 -1.0369401 0.63600582 0
2.5780003 -1.0399597 0.63579297 0
2.5770001 -1.0434301 0.63568658 0
2.5750003 -1.0464373 0.63547373 0
2.5740001 -1.0498986 0.63536727 0
2.5730002 -1.0533565 0.63526082 0
2.5730002 -1.0572762 0.63526082 0
2.5720003 -1.0607288 0.63515443 0
2.5720003 -1.0646466 0.63515443 0
2.5730002 -1.0690353 0.63526082 0
2.5730002 -1.072955 0.63526082 0
2.5740001 -1.0773489 0.63536727 0
2.5760002 -1.0822229 0.63558012 0
2.5780003 -1.0871041 0.63579297 0
2.5820003 -1.092952 0.63621867 0
2.5890002 -1.1002592 0.63696361 0
2.8150003 -1.2134608 0.66101563 0
2.8110001 -1.2158761 0.66058993 0
2.8070002 -1.2182769 0.66016424 0
2.8030002 -1.2206633 0.65973854 0
2.8000002 -1.223526 0.6594193 0
2.7980001 -1.2268702 0.65920639 0
2.7950003 -1.2297131 0.65888715 0
2.7930002 -1.233041 0.6586743 0
2.7920003 -1.2368598 0.65856791 0
2.7900002 -1.2401751 0.658355 0
2.7890003 -1.2439848 0.65824854 0
2.7890003 -1.2482941 0.65824854 0
2.7880001 -1.2520983 0.65814215 0
2.7880001 -1.2564058 0.65814215 0
2.7800002 -1.2566439 0.65729082 0
2.7780001 -1.2599159 0.65707791 0
2.7770002 -1.2636932 0.65697151 0
2.7750001 -1.2669526 0.65675867 0
2.7740002 -1.2707208 0.65665221 0
2.7720003 -1.2739677 0.65643942 0
2.7710001 -1.2777269 0.65633297 0
2.5790002 -1.1858444 0.63589942 0
2.5670002 -1.1834761 0.63462234 0
2.5640001 -1.1858047 0.63430303 0
2.5610001 -1.1881226 0.63398373 0
2.5580001 -1.1904297 0.63366449 0
2.5560002 -1.193258 0.63345164 0
2.5530002 -1.1955453 0.63313234 0
2.5510001 -1.1983573 0.63291949 0
2.5480001 -1.2006248 0.63260025 0
2.5460002 -1.2034208 0.6323874 0
2.5440001 -1.2062094 0.63217455 0
2.5420003 -1.2089911 0.6319617 0
2.5400002 -1.2117652 0.63174886 0
2.5380001 -1.2145323 0.63153601 0
2.5360003 -1.2172921 0.63132316 0
2.5340002 -1.2200446 0.63111031 0
2.5330002 -1.2233421 0.63100386 0
2.5310001 -1.2260821 0.63079101 0
2.5290003 -1.2288148 0.63057816 0
2.5280001 -1.2320976 0.63047171 0
2.5260003 -1.2348179 0.63025892 0
2.5250001 -1.2380917 0.63015246 0
2.5230002 -1.2407993 0.62993962 0
2.5220003 -1.2440643 0.62983322 0
2.5210001 -1.2473254 0.62972677 0
2.5190003 -1.250015 0.62951392 0
2.5180001 -1.2532672 0.62940753 0
2.5170002 -1.2565159 0.62930107 0
2.5160003 -1.259761 0.62919468 0
2.5150001 -1.2630023 0.62908822 0
2.6200001 -0.8548997 0.63625836 0
2.6040001 -0.8530454 0.63458443 0
2.6030002 -0.85665303 0.63447982 0
2.6020002 -0.86025709 0.63437521 0
2.6010003 -0.86385751 0.63427055 0
2.6000001 -0.86745429 0.63416594 0
2.5990002 -0.8710475 0.63406134 0
2.5980003 -0.87463707 0.63395667 0
2.5970001 -0.87822294 0.63385206 0
2.5960002 -0.88180536 0.63374746 0
2.5940001 -0.88500166 0.63353819 0
2.5930002 -0.88857502 0.63343358 0
2.6250002 -1.013247 0.63678145 0
2.6170001 -1.0137683 0.63594449 0
2.6110003 -1.0151376 0.63531679 0
2.6050003 -1.0164849 0.63468903 0
2.6010003 -1.0186946 0.63427055 0
2.5960002 -1.0204459 0.63374746 0
2.5930002 -1.0230706 0.63343358 0
2.5900002 -1.0256842 0.6331197 0
2.5870001 -1.0282872 0.63280588 0
2.5840001 -1.0308793 0.63249201 0
2.5820003 -1.0339134 0.63228279 0
2.5800002 -1.0369401 0.63207352 0
2.5780003 -1.0399597 0.63186431 0
2.5770001 -1.0434301 0.63175964 0
2.5750003 -1.0464373 0.63155043 0
2.5740001 -1.0498986 0.63144577 0
2.5730002 -1.0533565 0.63134116 0
2.5730002 -1.0572762 0.63134116 0
2.5720003 -1.0607288 0.63123655 0
2.5720003 -1.0646466 0.63123655 0
2.5730002 -1.0690353 0.63134116 0
2.5730002 -1.072955 0.63134116 0
2.5740001 -1.0773489 0.63144577 0
2.5760002 -1.0822229 0.63165504 0
2.5780003 -1.0871041 0.63186431 0
2.5820003 -1.092952 0.63228279 0
2.5890002 -1.1002592 0.6330151 0
2.8190002 -1.2153945 0.65707791 0
2.8140001 -1.2173318 0.65655482 0
2.8100002 -1.219738 0.65613627 0
2.8060002 -1.2221299 0.65571785 0
2.8030002 -1.2249979 0.65540397 0
2.8010001 -1.2283475 0.65519476 0
2.7980001 -1.2311958 0.65488088 0
2.7960002 -1.2345293 0.65467167 0
2.7950003 -1.2383534 0.654567 0
2.7930002 -1.2416741 0.65435779 0
2.7920003 -1.2454892 0.65425313 0
2.7920003 -1.2498039 0.65425313 0
2.7910001 -1.2536135 0.65414858 0
2.7830002 -1.2538716 0.65331155 0
2.7810001 -1.2571526 0.65310234 0
2.7800002 -1.260937 0.65299773 0
2.7780001 -1.2642055 0.65278846 0
2.7760003 -1.2674668 0.65257925 0
2.7740002 -1.2707208 0.65236998 0
2.7730002 -1.2744853 0.65226537 0
2.7710001 -1.2777269 0.6520561 0
2.5880003 -1.1866057 0.63291049 0
2.5770001 -1.1847982 0.63175964 0
2.5730002 -1.1866255 0.63134116 0
2.5690002 -1.1884383 0.63092268 0
2.5650003 -1.1902367 0.63050425 0
2.5620003 -1.192551 0.63019037 0
2.5590003 -1.1948545 0.62987649 0
2.5560002 -1.1971471 0.62956262 0
2.5540001 -1.1999646 0.6293534 0
2.5510001 -1.2022374 0.62903953 0
2.5490003 -1.2050388 0.62883031 0
2.5460002 -1.2072917 0.62851644 0
2.5440001 -1.2100768 0.62830716 0
2.5420003 -1.2128547 0.62809795 0
2.5400002 -1.2156254 0.62788868 0
2.5380001 -1.2183888 0.62767947 0
2.5360003 -1.221145 0.6274702 0
2.5340002 -1.223894 0.62726098 0
2.5320003 -1.2266358 0.62705171 0
2.5310001 -1.2299259 0.6269471 0
2.5290003 -1.2326552 0.62673783 0
2.5270002 -1.2353771 0.62652862 0
2.5260003 -1.2386527 0.62642401 0
2.5240002 -1.2413621 0.62621474 0
2.5230002 -1.2446288 0.62611014 0
2.5210001 -1.2473254 0.62590086 0
2.5200002 -1.2505832 0.62579626 0
2.5190003 -1.2538372 0.62569165 0
2.5170002 -1.2565159 0.62548244 0
2.5160003 -1.259761 0.62537777 0
2.5150001 -1.2630023 0.62527317 0
2.6200001 -0.8548997 0.63225389 0
2.6040001 -0.8530454 0.6306088 0
2.6030002 -0.85665303 0.63050604 0
2.6020002 -0.86025709 0.63040322 0
2.6010003 -0.86385751 0.6303004 0
2.6000001 -0.86745429 0.63019753 0
2.5990002 -0.8710475 0.63009477 0
2.5980003 -0.87463707 0.62999195 0
2.5970001 -0.87822294 0.62988913 0
2.5960002 -0.88180536 0.62978631 0
2.5940001 -0.88500166 0.62958062 0
2.5930002 -0.88857502 0.62947786 0
2.6250002 -1.013247 0.63276798 0
2.6170001 -1.0137683 0.63194543 0
2.6110003 -1.0151376 0.63132858 0
2.6050003 -1.0164849 0.63071167 0
2.6010003 -1.0186946 0.6303004 0
2.5960002 -1.0204459 0.62978631 0
2.5930002 -1.0230706 0.62947786 0
2.5900002 -1.0256842 0.6291694 0
2.5870001 -1.0282872 0.62886095 0
2.5840001 -1.0308793 0.6285525 0
2.5820003 -1.0339134 0.62834686 0
2.5800002 -1.0369401 0.62814122 0
2.5780003 -1.0399597 0.62793559 0
2.5770001 -1.0434301 0.62783277 0
2.5750003 -1.0464373 0.62762713 0
2.5740001 -1.0498986 0.62752432 0
2.5730002 -1.0533565 0.6274215 0
2.5730002 -1.0572762 0.6274215 0
2.5720003 -1.0607288 0.62731868 0
2.5720003 -1.0646466 0.62731868 0
2.5730002 -1.0690353 0.6274215 0
2.5730002 -1.072955 0.6274215 0
2.5740001 -1.0773489 0.62752432 0
2.5760002 -1.0822229 0.62772995 0
2.5780003 -1.0871041 0.62793559 0
2.5820003 -1.092952 0.62834686 0
2.5890002 -1.1002592 0.62906659 0
2.8250003 -1.218295 0.6533314 0
2.8190002 -1.2197579 0.65271449 0
2.8140001 -1.2216861 0.6522004 0
2.8100002 -1.2240852 0.65178919 0
2.8070002 -1.2269605 0.65148067 0
2.8040001 -1.2298249 0.65117222 0
2.8020003 -1.2331729 0.65096664 0
2.8000002 -1.2365134 0.65076101 0
2.7980001 -1.2398468 0.65055537 0
2.7970002 -1.2436727 0.65045249 0
2.7960002 -1.2474949 0.65034974 0
2.7960002 -1.251817 0.65034974 0
2.7910001 -1.2536135 0.64983559 0
2.7850003 -1.2548853 0.64921874 0
2.7830002 -1.25817 0.6490131 0
2.7810001 -1.2614474 0.64880741 0
2.7790003 -1.2647178 0.64860183 0
2.7770002 -1.2679808 0.64839619 0
2.7760003 -1.2717527 0.64829338 0
2.7740002 -1.2750031 0.64808774 0
2.7720003 -1.2782464 0.6478821 0
2.7710001 -1.2820036 0.64777929 0
2.5810001 -1.1908247 0.62824404 0
2.5750003 -1.1915987 0.62762713 0
2.5710001 -1.1934078 0.62721586 0
2.5670002 -1.1952026 0.62680459 0
2.5640001 -1.197515 0.62649614 0
2.5600002 -1.1992829 0.62608486 0
2.5570002 -1.2015718 0.62577641 0
2.5540001 -1.20385 0.62546796 0
2.5520003 -1.2066568 0.62526238 0
2.5490003 -1.2089152 0.62495393 0
2.5470002 -1.2117056 0.62474823 0
2.5450003 -1.214489 0.62454265 0
2.5420003 -1.2167186 0.6242342 0
2.5400002 -1.2194855 0.62402856 0
2.5380001 -1.2222453 0.62382293 0
2.5360003 -1.2249979 0.62361729 0
2.5340002 -1.2277433 0.62341166 0
2.5320003 -1.2304816 0.62320602 0
2.5300002 -1.2332125 0.62300038 0
2.5290003 -1.2364955 0.62289757 0
2.5270002 -1.2392137 0.62269193 0
2.5260003 -1.2424877 0.62258911 0
2.5240002 -1.2451934 0.62238348 0
2.5220003 -1.2478919 0.62217784 0
2.5210001 -1.2511513 0.62207502 0
2.5200002 -1.2544073 0.6219722 0
2.5180001 -1.2570876 0.62176657 0
2.5170002 -1.2603346 0.62166375 0
2.5150001 -1.2630023 0.62145811 0
2.6200001 -0.8548997 0.62824941 0
2.6040001 -0.8530454 0.62663323 0
2.6030002 -0.85665303 0.6265322 0
2.6020002 -0.86025709 0.62643123 0
2.6010003 -0.86385751 0.6263302 0
2.6000001 -0.86745429 0.62622917 0
2.5990002 -0.8710475 0.6261282 0
2.5980003 -0.87463707 0.62602717 0
2.5970001 -0.87822294 0.62592614 0
2.5960002 -0.88180536 0.62582517 0
2.5940001 -0.88500166 0.62562311 0
2.5930002 -0.88857502 0.62552208 0
2.6250002 -1.013247 0.6287545 0
2.6170001 -1.0137683 0.62794638 0
2.6110003 -1.0151376 0.62734032 0
2.6050003 -1.0164849 0.62673426 0
2.6010003 -1.0186946 0.6263302 0
2.5960002 -1.0204459 0.62582517 0
2.5930002 -1.0230706 0.62552208 0
2.5900002 -1.0256842 0.62521905 0
2.5870001 -1.0282872 0.62491602 0
2.5840001 -1.0308793 0.62461299 0
2.5820003 -1.0339134 0.62441099 0
2.5800002 -1.0369401 0.62420893 0
2.5780003 -1.0399597 0.62400687 0
2.5770001 -1.0434301 0.6239059 0
2.5750003 -1.0464373 0.62370384 0
2.5740001 -1.0498986 0.62360287 0
2.5730002 -1.0533565 0.62350184 0
2.5730002 -1.0572762 0.62350184 0
2.5720003 -1.0607288 0.62340081 0
2.5720003 -1.0646466 0.62340081 0
2.5730002 -1.0690353 0.62350184 0
2.5730002 -1.072955 0.62350184 0
2.5740001 -1.0773489 0.62360287 0
2.5760002 -1.0822229 0.62380487 0
2.5780003 -1.0871041 0.62400687 0
2.5820003 -1.092952 0.62441099 0
2.5890002 -1.1002592 0.62511802 0
2.8250003 -1.2226692 0.64895719 0
2.8200002 -1.2246083 0.6484521 0
2.8150003 -1.2265294 0.64794707 0
2.8120003 -1.2294136 0.64764398 0
2.8090003 -1.2322872 0.64734095 0
2.8060002 -1.2351497 0.64703792 0
2.8040001 -1.2384976 0.64683592 0
2.8030002 -1.2423362 0.64673489 0
2.8010001 -1.2456714 0.64653283 0
2.8010001 -1.2500023 0.64653283 0
2.8010001 -1.2543333 0.64653283 0
2.7900002 -1.2531084 0.64542174 0
2.7880001 -1.2564058 0.64521968 0
2.7850003 -1.2591873 0.64491665 0
2.7830002 -1.2624685 0.64471459 0
2.7810001 -1.2657423 0.64451259 0
2.7790003 -1.2690091 0.64431059 0
2.7770002 -1.2722685 0.64410853 0
2.7750001 -1.2755207 0.64390647 0
2.7740002 -1.2792853 0.6438055 0
2.7720003 -1.2825251 0.6436035 0
2.7700002 -1.2857574 0.64340144 0
2.7690003 -1.2895075 0.64330041 0
2.5790002 -1.1976359 0.6241079 0
2.5730002 -1.1983845 0.62350184 0
2.5690002 -1.2001758 0.62309778 0
2.5650003 -1.2019526 0.62269372 0
2.5620003 -1.2042506 0.62239069 0
2.5590003 -1.2065377 0.62208766 0
2.5560002 -1.2088141 0.62178463 0
2.5530002 -1.2110797 0.62148154 0
2.5500002 -1.2133344 0.62117851 0
2.5480001 -1.2161231 0.62097651 0
2.5450003 -1.2183582 0.62067348 0
2.5430002 -1.2211306 0.62047148 0
2.5400002 -1.2233456 0.62016839 0
2.5380001 -1.2261019 0.61996633 0
2.5360003 -1.228851 0.61976433 0
2.5340002 -1.2315927 0.61956233 0
2.5320003 -1.2343273 0.61936033 0
2.5300002 -1.2370546 0.61915827 0
2.5290003 -1.2403358 0.6190573 0
2.5270002 -1.2430505 0.61885524 0
2.5250001 -1.2457579 0.61865318 0
2.5240002 -1.2490246 0.61855221 0
2.5220003 -1.2517196 0.61835015 0
2.5200002 -1.2544073 0.61814815 0
2.5190003 -1.2576596 0.61804712 0
2.5180001 -1.260908 0.61794609 0
2.5160003 -1.2635778 0.61774409 0
2.6200001 -0.8548997 0.62424499 0
2.6040001 -0.8530454 0.62265766 0
2.6030002 -0.85665303 0.62255841 0
2.6020002 -0.86025709 0.62245923 0
2.6010003 -0.86385751 0.62235999 0
2.6000001 -0.86745429 0.62226081 0
2.5990002 -0.8710475 0.62216163 0
2.5980003 -0.87463707 0.62206239 0
2.5970001 -0.87822294 0.62196314 0
2.5960002 -0.88180536 0.62186396 0
2.5940001 -0.88500166 0.62166554 0
2.5930002 -0.88857502 0.62156636 0
2.6250002 -1.013247 0.62474108 0
2.6170001 -1.0137683 0.62394738 0
2.6110003 -1.0151376 0.62335211 0
2.6050003 -1.0164849 0.62275684 0
2.6010003 -1.0186946 0.62235999 0
2.5960002 -1.0204459 0.62186396 0
2.5930002 -1.0230706 0.62156636 0
2.5900002 -1.0256842 0.62126875 0
2.5870001 -1.0282872 0.62097108 0
2.5840001 -1.0308793 0.62067342 0
2.5820003 -1.0339134 0.62047505 0
2.5800002 -1.0369401 0.62027663 0
2.5780003 -1.0399597 0.62007821 0
2.5770001 -1.0434301 0.61997896 0
2.5750003 -1.0464373 0.61978054 0
2.5740001 -1.0498986 0.61968136 0
2.5730002 -1.0533565 0.61958218 0
2.5730002 -1.0572762 0.61958218 0
2.5720003 -1.0607288 0.61948293 0
2.5720003 -1.0646466 0.61948293 0
2.5730002 -1.0690353 0.61958218 0
2.5730002 -1.072955 0.61958218 0
2.5740001 -1.0773489 0.61968136 0
2.5760002 -1.0822229 0.61987978 0
2.5780003 -1.0871041 0.62007821 0
2.5820003 -1.092952 0.62047505 0
2.5890002 -1.1002592 0.62116951 0
2.8220003 -1.2299513 0.64428532 0
2.8180003 -1.2323575 0.64388847 0
2.8150003 -1.2352418 0.64359087 0
2.8120003 -1.2381153 0.6432932 0
2.8100002 -1.2414738 0.64309478 0
2.8080003 -1.2448255 0.64289641 0
2.8080003 -1.249169 0.64289641 0
2.8070002 -1.253011 0.64279717 0
2.7950003 -1.2513138 0.64160669 0
2.7930002 -1.2546237 0.64140821 0
2.7900002 -1.2574196 0.6411106 0
2.7880001 -1.2607133 0.64091218 0
2.7850003 -1.2634895 0.64061457 0
2.7830002 -1.2667669 0.64041615 0
2.7810001 -1.2700372 0.64021772 0
2.7790003 -1.2733003 0.6400193 0
2.7770002 -1.2765561 0.63982087 0
2.7750001 -1.2798048 0.63962245 0
2.7730002 -1.2830464 0.63942409 0
2.7710001 -1.2862805 0.6392256 0
2.7700002 -1.2900325 0.63912642 0
2.7680001 -1.293254 0.638928 0
2.7670002 -1.2969968 0.63882881 0
2.5780003 -1.2049649 0.62007821 0
2.5720003 -1.20569 0.61948293 0
2.5670002 -1.2069291 0.6189869 0
2.5630002 -1.2086879 0.61859006 0
2.5600002 -1.2109715 0.61829245 0
2.5570002 -1.2132443 0.61799479 0
2.5540001 -1.2155062 0.61769718 0
2.5510001 -1.2177573 0.61739957 0
2.5480001 -1.2199976 0.61710191 0
2.5460002 -1.2227756 0.61690348 0
2.5430002 -1.2249962 0.61660588 0
2.5410001 -1.2277577 0.61640745 0
2.5380001 -1.2299584 0.61610985 0
2.5360003 -1.2327038 0.61591142 0
2.5340002 -1.2354419 0.615713 0
2.5320003 -1.238173 0.61551458 0
2.5300002 -1.2408967 0.61531615 0
2.5290003 -1.244176 0.61521697 0
2.5270002 -1.2468872 0.61501855 0
2.5250001 -1.249591 0.61482012 0
2.5230002 -1.2522877 0.6146217 0
2.5220003 -1.2555473 0.61452246 0
2.5200002 -1.2582313 0.61432403 0
2.5190003 -1.2614818 0.61422485 0
2.5170002 -1.2641532 0.61402643 0
2.6200001 -0.8548997 0.62024057 0
2.6040001 -0.8530454 0.61868203 0
2.6030002 -0.85665303 0.61858463 0
2.6020002 -0.86025709 0.61848724 0
2.6010003 -0.86385751 0.61838984 0
2.6000001 -0.86745429 0.61829245 0
2.5990002 -0.8710475 0.61819506 0
2.5980003 -0.87463707 0.61809766 0
2.5970001 -0.87822294 0.61800021 0
2.5960002 -0.88180536 0.61790282 0
2.5940001 -0.88500166 0.61770797 0
2.5930002 -0.88857502 0.61761057 0
2.6250002 -1.013247 0.6207276 0
2.6170001 -1.0137683 0.61994833 0
2.6110003 -1.0151376 0.6193639 0
2.6050003 -1.0164849 0.61877948 0
2.6010003 -1.0186946 0.61838984 0
2.5960002 -1.0204459 0.61790282 0
2.5930002 -1.0230706 0.61761057 0
2.5900002 -1.0256842 0.61731839 0
2.5870001 -1.0282872 0.61702615 0
2.5840001 -1.0308793 0.61673391 0
2.5820003 -1.0339134 0.61653912 0
2.5800002 -1.0369401 0.61634433 0
2.5780003 -1.0399597 0.61614954 0
2.5770001 -1.0434301 0.61605209 0
2.5750003 -1.0464373 0.6158573 0
2.5740001 -1.0498986 0.61575985 0
2.5730002 -1.0533565 0.61566246 0
2.5730002 -1.0572762 0.61566246 0
2.5720003 -1.0607288 0.61556506 0
2.5720003 -1.0646466 0.61556506 0
2.5730002 -1.0690353 0.61566246 0
2.5730002 -1.072955 0.61566246 0
2.5740001 -1.0773489 0.61575985 0
2.5760002 -1.0822229 0.6159547 0
2.5780003 -1.0871041 0.61614954 0
2.5820003 -1.092952 0.61653912 0
2.5890002 -1.1002592 0.617221 0
2.8240001 -1.2396737 0.64011127 0
2.8210001 -1.2425634 0.63981903 0
2.8190002 -1.2459383 0.63962424 0
2.8170002 -1.2493061 0.63942945 0
2.8170002 -1.2536658 0.63942945 0
2.8020003 -1.2505038 0.63796836 0
2.7990003 -1.2533268 0.63767612 0
2.7960002 -1.2561389 0.63738394 0
2.7930002 -1.2589402 0.6370917 0
2.7900002 -1.2617307 0.63679951 0
2.7880001 -1.2650208 0.63660467 0
2.7860003 -1.2683038 0.63640988 0
2.7830002 -1.2710654 0.6361177 0
2.7810001 -1.274332 0.63592285 0
2.7790003 -1.2775916 0.635728 0
2.7770002 -1.2808439 0.63553321 0
2.7750001 -1.2840889 0.63533843 0
2.7730002 -1.2873267 0.63514364 0
2.7710001 -1.2905573 0.63494879 0
2.7690003 -1.2937808 0.634754 0
2.7680001 -1.2975254 0.63465655 0
2.7660003 -1.3007363 0.63446176 0
2.7650001 -1.3044719 0.63436437 0
2.5760002 -1.2117507 0.6159547 0
2.5700002 -1.2124506 0.61537027 0
2.5660002 -1.2142075 0.61498064 0
2.5620003 -1.21595 0.614591 0
2.5580001 -1.217678 0.61420137 0
2.5550003 -1.2199365 0.61390918 0
2.5520003 -1.2221839 0.61361694 0
2.5490003 -1.2244207 0.61332476 0
2.5460002 -1.2266467 0.61303252 0
2.5440001 -1.2294136 0.61283767 0
2.5410001 -1.2316196 0.61254549 0
2.5390003 -1.2343706 0.6123507 0
2.5370002 -1.2371141 0.61215585 0
2.5350001 -1.2398504 0.61196107 0
2.5330002 -1.2425797 0.61176628 0
2.5310001 -1.2453016 0.61157143 0
2.5290003 -1.2480164 0.61137664 0
2.5270002 -1.2507238 0.6111818 0
2.5250001 -1.253424 0.61098701 0
2.5230002 -1.2561172 0.61079222 0
2.5220003 -1.259375 0.61069483 0
2.5200002 -1.2620554 0.61049998 0
2.5180001 -1.2647285 0.61030519 0
2.6200001 -0.8548997 0.61623609 0
2.6040001 -0.8530454 0.61470646 0
2.6030002 -0.85665303 0.61461085 0
2.6020002 -0.86025709 0.61451524 0
2.6010003 -0.86385751 0.6144197 0
2.6000001 -0.86745429 0.61432403 0
2.5990002 -0.8710475 0.61422849 0
2.5980003 -0.87463707 0.61413288 0
2.5970001 -0.87822294 0.61403728 0
2.5960002 -0.88180536 0.61394167 0
2.5940001 -0.88500166 0.61375046 0
2.5930002 -0.88857502 0.61365485 0
2.6260002 -1.0136818 0.61680973 0
2.6170001 -1.0137683 0.61594927 0
2.6110003 -1.0151376 0.6153757 0
2.6050003 -1.0164849 0.61480206 0
2.6010003 -1.0186946 0.6144197 0
2.5960002 -1.0204459 0.61394167 0
2.5930002 -1.0230706 0.61365485 0
2.5900002 -1.0256842 0.61336803 0
2.5870001 -1.0282872 0.61308122 0
2.5840001 -1.0308793 0.6127944 0
2.5820003 -1.0339134 0.61260325 0
2.5800002 -1.0369401 0.61241198 0
2.5780003 -1.0399597 0.61222082 0
2.5770001 -1.0434301 0.61212522 0
2.5750003 -1.0464373 0.61193401 0
2.5740001 -1.0498986 0.6118384 0
2.5730002 -1.0533565 0.61174279 0
2.5730002 -1.0572762 0.61174279 0
2.5720003 -1.0607288 0.61164725 0
2.5720003 -1.0646466 0.61164725 0
2.5730002 -1.0690353 0.61174279 0
2.5730002 -1.072955 0.61174279 0
2.5740001 -1.0773489 0.6118384 0
2.5760002 -1.0822229 0.61202961 0
2.5780003 -1.0871041 0.61222082 0
2.5820003 -1.092952 0.61260325 0
2.5890002 -1.1002592 0.61327243 0
2.8110001 -1.2506678 0.63449603 0
2.8070002 -1.253011 0.63411367 0
2.8030002 -1.2553397 0.63373125 0
2.8000002 -1.258159 0.63344443 0
2.7970002 -1.2609676 0.63315761 0
2.7940001 -1.2637653 0.63287079 0
2.7910001 -1.2665522 0.63258398 0
2.7880001 -1.2693282 0.63229716 0
2.7860003 -1.2726077 0.63210601 0
2.7830002 -1.2753638 0.63181919 0
2.7810001 -1.2786269 0.63162798 0
2.7790003 -1.2818829 0.63143682 0
2.7770002 -1.2851315 0.63124555 0
2.7750001 -1.2883729 0.6310544 0
2.7730002 -1.2916071 0.63086319 0
2.7710001 -1.2948341 0.63067198 0
2.7690003 -1.298054 0.63048077 0
2.7670002 -1.3012666 0.63028955 0
2.7660003 -1.305004 0.63019395 0
2.7640002 -1.3082039 0.63000274 0
2.7630002 -1.3119324 0.62990713 0
2.5740001 -1.2185222 0.6118384 0
2.5680003 -1.219197 0.61126482 0
2.5640001 -1.2209357 0.6108824 0
2.5600002 -1.2226602 0.61049998 0
2.5560002 -1.2243702 0.61011755 0
2.5530002 -1.2266141 0.60983074 0
2.5500002 -1.2288471 0.60954398 0
2.5470002 -1.2310694 0.60925716 0
2.5440001 -1.233281 0.60897034 0
2.5420003 -1.2360374 0.60877913 0
2.5400002 -1.2387862 0.60858798 0
2.5370002 -1.2409688 0.60830116 0
2.5350001 -1.2437016 0.60810995 0
2.5330002 -1.2464272 0.60791874 0
2.5310001 -1.2491454 0.60772753 0
2.5290003 -1.2518567 0.60753632 0
2.5270002 -1.2545605 0.6073451 0
2.5250001 -1.2572572 0.60715389 0
2.5230002 -1.2599467 0.60696268 0
2.5210001 -1.2626289 0.60677147 0
2.5200002 -1.2658794 0.60667592 0
2.6200001 -0.8548997 0.61223161 0
2.6040001 -0.8530454 0.61073089 0
2.6030002 -0.85665303 0.61063707 0
2.6020002 -0.86025709 0.61054325 0
2.6010003 -0.86385751 0.61044949 0
2.6000001 -0.86745429 0.61035568 0
2.5990002 -0.8710475 0.61026192 0
2.5980003 -0.87463707 0.6101681 0
2.5970001 -0.87822294 0.61007428 0
2.5950003 -0.88142484 0.60988671 0
2.5940001 -0.88500166 0.60979289 0
2.5930002 -0.88857502 0.60969907 0
2.6260002 -1.0136818 0.6127944 0
2.6170001 -1.0137683 0.61195022 0
2.6110003 -1.0151376 0.61138749 0
2.6050003 -1.0164849 0.6108247 0
2.6010003 -1.0186946 0.61044949 0
2.5960002 -1.0204459 0.60998046 0
2.5930002 -1.0230706 0.60969907 0
2.5900002 -1.0256842 0.60941768 0
2.5870001 -1.0282872 0.60913628 0
2.5840001 -1.0308793 0.60885489 0
2.5820003 -1.0339134 0.60866731 0
2.5800002 -1.0369401 0.60847974 0
2.5780003 -1.0399597 0.6082921 0
2.5770001 -1.0434301 0.60819829 0
2.5750003 -1.0464373 0.60801071 0
2.5740001 -1.0498986 0.60791695 0
2.5730002 -1.0533565 0.60782313 0
2.5730002 -1.0572762 0.60782313 0
2.5720003 -1.0607288 0.60772932 0
2.5720003 -1.0646466 0.60772932 0
2.5730002 -1.0690353 0.60782313 0
2.5730002 -1.072955 0.60782313 0
2.5740001 -1.0773489 0.60791695 0
2.5760002 -1.0822229 0.60810453 0
2.5780003 -1.0871041 0.6082921 0
2.5820003 -1.092952 0.60866731 0
2.5890002 -1.1002592 0.60932386 0
2.8180003 -1.2541655 0.63080364 0
2.8130002 -1.2560198 0.63033468 0
2.8090003 -1.2583593 0.62995946 0
2.8050003 -1.2606846 0.62958431 0
2.8010001 -1.2629951 0.62920904 0
2.7980001 -1.2658 0.62892771 0
2.7940001 -1.2680837 0.6285525 0
2.7920003 -1.2713774 0.62836492 0
2.7890003 -1.2741499 0.62808353 0
2.7860003 -1.2769116 0.62780213 0
2.7840002 -1.28018 0.6276145 0
2.7810001 -1.2829218 0.6273331 0
2.7790003 -1.2861742 0.62714553 0
2.7770002 -1.2894191 0.62695789 0
2.7750001 -1.2926569 0.62677032 0
2.7730002 -1.2958876 0.62658274 0
2.7710001 -1.2991109 0.62639511 0
2.7690003 -1.3023273 0.62620753 0
2.7670002 -1.3055362 0.62601995 0
2.7650001 -1.3087379 0.62583232 0
2.7630002 -1.3119324 0.62564474 0
2.7620003 -1.3156574 0.62555099 0
2.7600002 -1.3188392 0.62536335 0
2.5720003 -1.2252793 0.60772932 0
2.5660002 -1.2259287 0.60716653 0
2.5620003 -1.2276496 0.60679138 0
2.5580001 -1.2293558 0.60641617 0
2.5540001 -1.2310479 0.60604095 0
2.5510001 -1.2332773 0.60575956 0
2.5480001 -1.235496 0.60547817 0
2.5450003 -1.237704 0.60519677 0
2.5430002 -1.2404584 0.6050092 0
2.5400002 -1.2426463 0.6047278 0
2.5380001 -1.2453846 0.60454023 0
2.5350001 -1.2475526 0.60425878 0
2.5330002 -1.2502747 0.6040712 0
2.5310001 -1.2529894 0.60388362 0
2.5290003 -1.255697 0.60369599 0
2.5270002 -1.2583972 0.60350841 0
2.5250001 -1.2610903 0.60332084 0
2.5230002 -1.2637763 0.6031332 0
2.5210001 -1.2664548 0.60294563 0
2.6200001 -0.8548997 0.60822719 0
2.6040001 -0.8530454 0.60675526 0
2.6030002 -0.85665303 0.60666329 0
2.6020002 -0.86025709 0.60657132 0
2.6010003 -0.86385751 0.60647929 0
2.6000001 -0.86745429 0.60638732 0
2.5990002 -0.8710475 0.60629535 0
2.5980003 -0.87463707 0.60620332 0
2.5970001 -0.87822294 0.60611129 0
2.5950003 -0.88142484 0.60592735 0
2.5940001 -0.88500166 0.60583532 0
2.5930002 -0.88857502 0.60574335 0
2.6260002 -1.0136818 0.60877913 0
2.6170001 -1.0137683 0.60795116 0
2.6110003 -1.0151376 0.60739923 0
2.6050003 -1.0164849 0.60684729 0
2.6010003 -1.0186946 0.60647929 0
2.5960002 -1.0204459 0.60601932 0
2.5930002 -1.0230706 0.60574335 0
2.5900002 -1.0256842 0.60546732 0
2.5870001 -1.0282872 0.60519135 0
2.5840001 -1.0308793 0.60491538 0
2.5820003 -1.0339134 0.60473138 0
2.5800002 -1.0369401 0.60454738 0
2.5780003 -1.0399597 0.60436344 0
2.5770001 -1.0434301 0.60427141 0
2.5750003 -1.0464373 0.60408747 0
2.5740001 -1.0498986 0.60399544 0
2.5730002 -1.0533565 0.60390347 0
2.5730002 -1.0572762 0.60390347 0
2.5720003 -1.0607288 0.6038115 0
2.5720003 -1.0646466 0.6038115 0
2.5730002 -1.0690353 0.60390347 0
2.5730002 -1.072955 0.60390347 0
2.5740001 -1.0773489 0.60399544 0
2.5760002 -1.0822229 0.60417944 0
2.5780003 -1.0871041 0.60436344 0
2.5820003 -1.092952 0.60473138 0
2.5890002 -1.1002592 0.60537535 0
2.8160002 -1.2618822 0.62625802 0
2.8110001 -1.2637148 0.62579805 0
2.8060002 -1.2655295 0.62533808 0
2.8030002 -1.2683434 0.62506211 0
2.7990003 -1.2706361 0.62469417 0
2.7960002 -1.2734267 0.62441814 0
2.7920003 -1.2756921 0.6240502 0
2.7900002 -1.2789751 0.6238662 0
2.7870002 -1.2817332 0.62359023 0
2.7840002 -1.2844803 0.6233142 0
2.7820003 -1.2877381 0.62313026 0
2.7790003 -1.2904654 0.62285429 0
2.7770002 -1.2937068 0.62267029 0
2.7750001 -1.2969409 0.62248629 0
2.7720003 -1.2996396 0.62221032 0
2.7700002 -1.3028575 0.62202632 0
2.7690003 -1.3066005 0.62193429 0
2.7670002 -1.3098058 0.62175035 0
2.7650001 -1.3130039 0.6215663 0
2.7630002 -1.3161949 0.62138236 0
2.7610002 -1.3193786 0.62119836 0
2.7600002 -1.3230963 0.62110639 0
2.7580001 -1.3262672 0.62092239 0
2.5700002 -1.2320219 0.60362744 0
2.5640001 -1.2326461 0.6030755 0
2.5600002 -1.2343489 0.60270751 0
2.5560002 -1.2360373 0.60233957 0
2.5520003 -1.2377112 0.60197157 0
2.5490003 -1.2399262 0.6016956 0
2.5460002 -1.2421305 0.60141963 0
2.5430002 -1.2443238 0.6011436 0
2.5410001 -1.2470675 0.60095966 0
2.5380001 -1.2492411 0.60068363 0
2.5360003 -1.2519685 0.60049963 0
2.5330002 -1.2541223 0.60022366 0
2.5310001 -1.2568333 0.60003972 0
2.5290003 -1.2595372 0.59985572 0
2.5270002 -1.262234 0.59967172 0
2.5250001 -1.2649233 0.59948772 0
2.5230002 -1.2676058 0.59930372 0
2.6200001 -0.8548997 0.60422271 0
2.6040001 -0.8530454 0.60277969 0
2.6030002 -0.85665303 0.6026895 0
2.6020002 -0.86025709 0.60259932 0
2.6010003 -0.86385751 0.60250914 0
2.6000001 -0.86745429 0.6024189 0
2.5990002 -0.8710475 0.60232872 0
2.5980003 -0.87463707 0.60223854 0
2.5970001 -0.87822294 0.60214835 0
2.5950003 -0.88142484 0.60196799 0
2.5940001 -0.88500166 0.60187775 0
2.5930002 -0.88857502 0.60178757 0
2.6260002 -1.0136818 0.60476387 0
2.6170001 -1.0137683 0.60395217 0
2.6110003 -1.0151376 0.60341102 0
2.6050003 -1.0164849 0.60286987 0
2.6010003 -1.0186946 0.60250914 0
2.5960002 -1.0204459 0.60205817 0
2.5930002 -1.0230706 0.60178757 0
2.5900002 -1.0256842 0.60151702 0
2.5870001 -1.0282872 0.60124642 0
2.5840001 -1.0308793 0.60097587 0
2.5820003 -1.0339134 0.60079551 0
2.5800002 -1.0369401 0.60061508 0
2.5780003 -1.0399597 0.60043472 0
2.5770001 -1.0434301 0.60034454 0
2.5750003 -1.0464373 0.60016418 0
2.5740001 -1.0498986 0.60007393 0
2.5730002 -1.0533565 0.59998375 0
2.5730002 -1.0572762 0.59998375 0
2.5720003 -1.0607288 0.59989357 0
2.5720003 -1.0646466 0.59989357 0
2.5730002 -1.0690353 0.59998375 0
2.5730002 -1.072955 0.59998375 0
2.5740001 -1.0773489 0.60007393 0
2.5760002 -1.0822229 0.60025436 0
2.5780003 -1.0871041 0.60043472 0
2.5820003 -1.092952 0.60079551 0
2.5890002 -1.1002592 0.60142684 0
2.8140001 -1.2695844 0.62171966 0
2.8090003 -1.2713956 0.62126875 0
2.8040001 -1.2731885 0.62081778 0
2.8000002 -1.2754757 0.62045699 0
2.7970002 -1.2782626 0.62018645 0
2.7930002 -1.2805227 0.61982566 0
2.7900002 -1.2832862 0.61955512 0
2.7870002 -1.2860389 0.61928451 0
2.7850003 -1.289302 0.61910415 0
2.7820003 -1.2920347 0.6188336 0
2.7790003 -1.2947567 0.618563 0
2.7770002 -1.2979945 0.61838263 0
2.7750001 -1.3012249 0.61820221 0
2.7730002 -1.3044485 0.61802185 0
2.7700002 -1.3071325 0.6177513 0
2.7680001 -1.3103396 0.61757088 0
2.7670002 -1.3140754 0.61748075 0
2.7650001 -1.3172699 0.61730033 0
2.7630002 -1.3204573 0.61711997 0
2.7610002 -1.3236374 0.61693954 0
2.7590003 -1.3268104 0.61675918 0
2.7580001 -1.3305207 0.616669 0
2.7560003 -1.333681 0.61648864 0
2.5680003 -1.2387502 0.59953284 0
2.5620003 -1.2393491 0.59899169 0
2.5580001 -1.2410337 0.59863091 0
2.5540001 -1.242704 0.59827018 0
2.5500002 -1.24436 0.59790939 0
2.5470002 -1.2465606 0.59763885 0
2.5440001 -1.2487504 0.59736824 0
2.5410001 -1.2509295 0.59709769 0
2.5390003 -1.2536623 0.59691733 0
2.5360003 -1.2558215 0.59664673 0
2.5340002 -1.2585379 0.59646636 0
2.5320003 -1.2612473 0.596286 0
2.5290003 -1.2633777 0.59601539 0
2.5270002 -1.2660707 0.59583503 0
2.5250001 -1.2687565 0.59565461 0
2.6200001 -0.8548997 0.6002183 0
2.6040001 -0.8530454 0.59880412 0
2.6030002 -0.85665303 0.59871572 0
2.6020002 -0.86025709 0.59862733 0
2.6010003 -0.86385751 0.59853894 0
2.6000001 -0.86745429 0.59845054 0
2.5990002 -0.8710475 0.59836215 0
2.5980003 -0.87463707 0.59827375 0
2.5970001 -0.87822294 0.59818536 0
2.5950003 -0.88142484 0.59800863 0
2.5940001 -0.88500166 0.59792018 0
2.5930002 -0.88857502 0.59783185 0
2.6260002 -1.0136818 0.6007486 0
2.6170001 -1.0137683 0.59995311 0
2.6110003 -1.0151376 0.59942281 0
2.6050003 -1.0164849 0.59889245 0
2.6010003 -1.0186946 0.59853894 0
2.5960002 -1.0204459 0.59809697 0
2.5930002 -1.0230706 0.59783185 0
2.5900002 -1.0256842 0.59756666 0
2.5870001 -1.0282872 0.59730148 0
2.5840001 -1.0308793 0.59703636 0
2.5820003 -1.0339134 0.59685957 0
2.5800002 -1.0369401 0.59668279 0
2.5780003 -1.0399597 0.59650606 0
2.5770001 -1.0434301 0.59641767 0
2.5750003 -1.0464373 0.59624088 0
2.5740001 -1.0498986 0.59615248 0
2.5730002 -1.0533565 0.59606409 0
2.5730002 -1.0572762 0.59606409 0
2.5720003 -1.0607288 0.59597576 0
2.5720003 -1.0646466 0.59597576 0
2.5730002 -1.0690353 0.59606409 0
2.5730002 -1.072955 0.59606409 0
2.5740001 -1.0773489 0.59615248 0
2.5760002 -1.0822229 0.59632927 0
2.5780003 -1.0871041 0.59650606 0
2.5820003 -1.092952 0.59685957 0
2.5890002 -1.1002592 0.59747827 0
2.8120003 -1.2772723 0.61718851 0
2.8070002 -1.2790617 0.61674654 0
2.8020003 -1.2808331 0.61630464 0
2.7980001 -1.2831022 0.61595106 0
2.7950003 -1.2858747 0.61568594 0
2.7910001 -1.2881168 0.61533237 0
2.7880001 -1.2908658 0.61506724 0
2.7850003 -1.293604 0.61480206 0
2.7830002 -1.2968563 0.61462528 0
2.7800002 -1.2995745 0.61436009 0
2.7770002 -1.302282 0.61409497 0
2.7750001 -1.3055091 0.61391819 0
2.7730002 -1.3087289 0.6137414 0
2.7710001 -1.3119415 0.61356461 0
2.7680001 -1.3146111 0.61329949 0
2.7660003 -1.3178076 0.6131227 0
2.7640002 -1.3209965 0.61294591 0
2.7630002 -1.3247197 0.61285758 0
2.7610002 -1.3278961 0.61268079 0
2.7590003 -1.3310655 0.61250401 0
2.7570002 -1.3342276 0.61232722 0
2.7560003 -1.3379308 0.61223888 0
2.7540002 -1.3410802 0.6120621 0
2.5660002 -1.245464 0.59544539 0
2.5600002 -1.2460375 0.59491509 0
2.5560002 -1.2477043 0.59456152 0
2.5520003 -1.2493566 0.594208 0
2.5490003 -1.2515554 0.59394282 0
2.5460002 -1.2537435 0.59367764 0
2.5430002 -1.2559206 0.59341252 0
2.5400002 -1.2580869 0.59314734 0
2.5370002 -1.2602426 0.59288216 0
2.5350001 -1.2629572 0.59270537 0
2.5320003 -1.265093 0.59244025 0
2.5300002 -1.2677915 0.59226346 0
2.5270002 -1.2699072 0.59199834 0
2.6210003 -0.85526413 0.59630042 0
2.6040001 -0.8530454 0.59482849 0
2.6030002 -0.85665303 0.59474194 0
2.6020002 -0.86025709 0.59465533 0
2.6010003 -0.86385751 0.59456873 0
2.6000001 -0.86745429 0.59448218 0
2.5990002 -0.8710475 0.59439558 0
2.5980003 -0.87463707 0.59430903 0
2.5970001 -0.87822294 0.59422243 0
2.5950003 -0.88142484 0.59404927 0
2.5940001 -0.88500166 0.59396267 0
2.5930002 -0.88857502 0.59387612 0
2.6260002 -1.0136818 0.59673333 0
2.6170001 -1.0137683 0.59595406 0
2.6110003 -1.0151376 0.59543455 0
2.6050003 -1.0164849 0.59491509 0
2.6010003 -1.0186946 0.59456873 0
2.5960002 -1.0204459 0.59413582 0
2.5930002 -1.0230706 0.59387612 0
2.5900002 -1.0256842 0.59361637 0
2.5870001 -1.0282872 0.59335661 0
2.5840001 -1.0308793 0.59309685 0
2.5820003 -1.0339134 0.59292364 0
2.5800002 -1.0369401 0.59275049 0
2.5780003 -1.0399597 0.59257734 0
2.5770001 -1.0434301 0.59249073 0
2.5750003 -1.0464373 0.59231758 0
2.5740001 -1.0498986 0.59223104 0
2.5730002 -1.0533565 0.59214443 0
2.5730002 -1.0572762 0.59214443 0
2.5720003 -1.0607288 0.59205782 0
2.5720003 -1.0646466 0.59205782 0
2.5730002 -1.0690353 0.59214443 0
2.5730002 -1.072955 0.59214443 0
2.5740001 -1.0773489 0.59223104 0
2.5760002 -1.0822229 0.59240419 0
2.5780003 -1.0871041 0.59257734 0
2.5820003 -1.092952 0.59292364 0
2.5890002 -1.1002592 0.59352976 0
2.8090003 -1.2844317 0.61257797 0
2.8050003 -1.2867135 0.61223161 0
2.8000002 -1.2884631 0.6117987 0
2.7960002 -1.2907143 0.6114524 0
2.7930002 -1.2934723 0.61119264 0
2.7890003 -1.2956964 0.61084634 0
2.7860003 -1.298431 0.61058658 0
2.7830002 -1.3011547 0.61032683 0
2.7810001 -1.304396 0.61015368 0
2.7780001 -1.3071001 0.60989392 0
2.7750001 -1.3097931 0.60963416 0
2.7730002 -1.3130093 0.60946101 0
2.7710001 -1.3162183 0.6092878 0
2.7680001 -1.3188825 0.6090281 0
2.7660003 -1.3220754 0.60885489 0
2.7640002 -1.3252608 0.60868174 0
2.7620003 -1.3284392 0.60850859 0
2.7610002 -1.332155 0.60842198 0
2.7590003 -1.3353206 0.60824883 0
2.7570002 -1.338479 0.60807562 0
2.7550001 -1.3416303 0.60790247 0
2.7540002 -1.3453264 0.60781592 0
2.7520001 -1.348465 0.60764271 0
2.5650003 -1.2527207 0.59145176 0
2.5580001 -1.2527115 0.5908457 0
2.5540001 -1.2543603 0.59049934 0
2.5500002 -1.2559946 0.59015304 0
2.5470002 -1.2581789 0.58989328 0
2.5440001 -1.2603525 0.58963352 0
2.5410001 -1.2625153 0.58937377 0
2.5380001 -1.2646673 0.58911401 0
2.5350001 -1.2668083 0.58885425 0
2.5330002 -1.2695124 0.5886811 0
2.5300002 -1.2716336 0.58842134 0
2.6210003 -0.85526413 0.59229416 0
2.6040001 -0.8530454 0.59085286 0
2.6030002 -0.85665303 0.5907681 0
2.6020002 -0.86025709 0.59068334 0
2.6010003 -0.86385751 0.59059858 0
2.6000001 -0.86745429 0.59051377 0
2.5990002 -0.8710475 0.59042901 0
2.5980003 -0.87463707 0.59034425 0
2.5970001 -0.87822294 0.59025943 0
2.5950003 -0.88142484 0.59008992 0
2.5940001 -0.88500166 0.5900051 0
2.5930002 -0.88857502 0.58992034 0
2.6260002 -1.0136818 0.59271801 0
2.6170001 -1.0137683 0.59195501 0
2.6110003 -1.0151376 0.59144634 0
2.6050003 -1.0164849 0.59093767 0
2.6010003 -1.0186946 0.59059858 0
2.5960002 -1.0204459 0.59017467 0
2.5930002 -1.0230706 0.58992034 0
2.5900002 -1.0256842 0.58966601 0
2.5870001 -1.0282872 0.58941162 0
2.5840001 -1.0308793 0.58915734 0
2.5820003 -1.0339134 0.58898777 0
2.5800002 -1.0369401 0.58881819 0
2.5780003 -1.0399597 0.58864868 0
2.5770001 -1.0434301 0.58856386 0
2.5750003 -1.0464373 0.58839428 0
2.5740001 -1.0498986 0.58830953 0
2.5730002 -1.0533565 0.58822477 0
2.5730002 -1.0572762 0.58822477 0
2.5720003 -1.0607288 0.58814001 0
2.5720003 -1.0646466 0.58814001 0
2.5730002 -1.0690353 0.58822477 0
2.5730002 -1.072955 0.58822477 0
2.5740001 -1.0773489 0.58830953 0
