# .PCD v0.7 - Point Cloud Data file format
VERSION 0.7
FIELDS x y z intensity
SIZE 4 4 4 4
TYPE F F F F
COUNT 1 1 1 1
WIDTH 1508
HEIGHT 1
VIEWPOINT 0 0 0 1 0 0 0
POINTS 1508
DATA ascii
3.7890003 1.6778959 1.3759838 0
3.7920003 1.6733034 1.3768443 0
3.7950003 1.6687001 1.3777047 0
3.7980003 1.664086 1.3785652 0
3.8010004 1.659461 1.3794255 0
3.6720002 1.8426594 1.3365256 0
3.6750002 1.8384835 1.3373805 0
3.6780002 1.8342969 1.3382356 0
3.6810002 1.8300995 1.3390906 0
3.6840003 1.8258911 1.3399456 0
3.6870003 1.8216721 1.3408005 0
3.6900003 1.8174422 1.3416556 0
3.6930003 1.8132014 1.3425106 0
3.6960003 1.8089498 1.3433657 0
3.6990004 1.8046875 1.3442208 0
3.7020001 1.8004141 1.3450756 0
3.7050002 1.7961301 1.3459306 0
3.7080002 1.7918352 1.3467855 0
3.7110002 1.7875296 1.3476406 0
3.7140002 1.783213 1.3484956 0
3.7170002 1.7788857 1.3493506 0
3.7200003 1.7745476 1.3502057 0
3.7230003 1.7701987 1.3510607 0
3.7260003 1.7658389 1.3519157 0
3.7290003 1.7614682 1.3527707 0
3.7320004 1.7570868 1.3536258 0
3.7360003 1.7532338 1.3547657 0
3.7390003 1.748829 1.3556206 0
3.7420003 1.7444133 1.3564757 0
3.7450004 1.7399867 1.3573308 0
3.7480001 1.7355492 1.3581856 0
3.7510002 1.731101 1.3590407 0
3.7540002 1.726642 1.3598957 0
3.7570002 1.7221721 1.3607507 0
3.7600002 1.7176914 1.3616056 0
3.7630002 1.7132 1.3624607 0
3.7670002 1.7092191 1.3636007 0
3.7700002 1.7047042 1.3644557 0
3.7730002 1.7001783 1.3653108 0
3.7760003 1.6956419 1.3661658 0
3.7790003 1.6910944 1.3670207 0
3.7820003 1.6865362 1.3678757 0
3.7850003 1.6819671 1.3687308 0
3.7890003 1.6778959 1.3698708 0
3.7920003 1.6733034 1.3707258 0
3.7950003 1.6687001 1.3715808 0
3.7980003 1.664086 1.3724358 0
3.8010004 1.659461 1.3732908 0
3.6720002 1.8426594 1.3306235 0
3.6750002 1.8384835 1.331473 0
3.6780002 1.8342969 1.3323226 0
3.6810002 1.8300995 1.3331723 0
3.6840003 1.8258911 1.3340219 0
3.6870003 1.8216721 1.3348715 0
3.6900003 1.8174422 1.3357211 0
3.6930003 1.8132014 1.3365707 0
3.6960003 1.8089498 1.3374203 0
3.6990004 1.8046875 1.3382699 0
3.7020001 1.8004141 1.3391194 0
3.7050002 1.7961301 1.339969 0
3.7080002 1.7918352 1.3408186 0
3.7110002 1.7875296 1.3416682 0
3.7140002 1.783213 1.3425179 0
3.7170002 1.7788857 1.3433675 0
3.7200003 1.7745476 1.3442171 0
3.7230003 1.7701987 1.3450667 0
3.7260003 1.7658389 1.3459162 0
3.7290003 1.7614682 1.3467658 0
3.7320004 1.7570868 1.3476154 0
3.7360003 1.7532338 1.3487482 0
3.7390003 1.748829 1.3495978 0
3.7420003 1.7444133 1.3504474 0
3.7450004 1.7399867 1.351297 0
3.7480001 1.7355492 1.3521465 0
3.7510002 1.731101 1.3529961 0
3.7540002 1.726642 1.3538457 0
3.7570002 1.7221721 1.3546953 0
3.7600002 1.7176914 1.3555449 0
3.7630002 1.7132 1.3563945 0
3.7660003 1.7086978 1.3572441 0
3.7700002 1.7047042 1.3583769 0
3.7730002 1.7001783 1.3592265 0
3.7760003 1.6956419 1.3600762 0
3.7790003 1.6910944 1.3609258 0
3.7820003 1.6865362 1.3617754 0
3.7850003 1.6819671 1.3626249 0
3.7890003 1.6778959 1.3637576 0
3.7920003 1.6733034 1.3646072 0
3.7950003 1.6687001 1.3654568 0
3.7980003 1.664086 1.3663064 0
3.8010004 1.659461 1.367156 0
3.6720002 1.8426594 1.3247215 0
3.6750002 1.8384835 1.3255657 0
3.6780002 1.8342969 1.3264098 0
3.6810002 1.8300995 1.3272541 0
3.6840003 1.8258911 1.3280982 0
3.6870003 1.8216721 1.3289424 0
3.6900003 1.8174422 1.3297867 0
3.6930003 1.8132014 1.3306307 0
3.6960003 1.8089498 1.3314749 0
3.6990004 1.8046875 1.3323191 0
3.7020001 1.8004141 1.3331633 0
3.7050002 1.7961301 1.3340075 0
3.7080002 1.7918352 1.3348516 0
3.7110002 1.7875296 1.3356957 0
3.7140002 1.783213 1.33654 0
3.7170002 1.7788857 1.3373842 0
3.7200003 1.7745476 1.3382285 0
3.7230003 1.7701987 1.3390725 0
3.7260003 1.7658389 1.3399167 0
3.7290003 1.7614682 1.3407609 0
3.7320004 1.7570868 1.3416052 0
3.7360003 1.7532338 1.3427306 0
3.7390003 1.748829 1.3435749 0
3.7420003 1.7444133 1.3444191 0
3.7450004 1.7399867 1.3452634 0
3.7480001 1.7355492 1.3461074 0
3.7510002 1.731101 1.3469515 0
3.7540002 1.726642 1.3477957 0
3.7570002 1.7221721 1.34864 0
3.7600002 1.7176914 1.3494842 0
3.7630002 1.7132 1.3503283 0
3.7660003 1.7086978 1.3511724 0
3.7700002 1.7047042 1.3522981 0
3.7730002 1.7001783 1.3531423 0
3.7760003 1.6956419 1.3539864 0
3.7790003 1.6910944 1.3548306 0
3.7820003 1.6865362 1.3556749 0
3.7850003 1.6819671 1.3565191 0
3.7890003 1.6778959 1.3576446 0
3.7920003 1.6733034 1.3584888 0
3.7950003 1.6687001 1.359333 0
3.7980003 1.664086 1.360177 0
3.8010004 1.659461 1.3610213 0
3.6720002 1.8426594 1.3188194 0
3.6750002 1.8384835 1.3196582 0
3.6780002 1.8342969 1.3204969 0
3.6810002 1.8300995 1.3213357 0
3.6840003 1.8258911 1.3221744 0
3.6870003 1.8216721 1.3230132 0
3.6900003 1.8174422 1.3238521 0
3.6930003 1.8132014 1.3246908 0
3.6960003 1.8089498 1.3255296 0
3.6990004 1.8046875 1.3263683 0
3.7020001 1.8004141 1.3272071 0
3.7050002 1.7961301 1.3280458 0
3.7080002 1.7918352 1.3288846 0
3.7110002 1.7875296 1.3297234 0
3.7140002 1.783213 1.3305622 0
3.7170002 1.7788857 1.331401 0
3.7200003 1.7745476 1.3322397 0
3.7230003 1.7701987 1.3330785 0
3.7260003 1.7658389 1.3339173 0
3.7290003 1.7614682 1.3347561 0
3.7320004 1.7570868 1.3355948 0
3.7360003 1.7532338 1.3367132 0
3.7390003 1.748829 1.337552 0
3.7420003 1.7444133 1.3383907 0
3.7450004 1.7399867 1.3392295 0
3.7480001 1.7355492 1.3400682 0
3.7510002 1.731101 1.3409071 0
3.7540002 1.726642 1.3417457 0
3.7570002 1.7221721 1.3425846 0
3.7600002 1.7176914 1.3434234 0
3.7630002 1.7132 1.3442621 0
3.7660003 1.7086978 1.3451009 0
3.7700002 1.7047042 1.3462193 0
3.7730002 1.7001783 1.3470579 0
3.7760003 1.6956419 1.3478968 0
3.7790003 1.6910944 1.3487356 0
3.7820003 1.6865362 1.3495743 0
3.7850003 1.6819671 1.3504131 0
3.7890003 1.6778959 1.3515315 0
3.7920003 1.6733034 1.3523703 0
3.7950003 1.6687001 1.353209 0
3.7980003 1.664086 1.3540479 0
3.8010004 1.659461 1.3548865 0
3.6720002 1.8426594 1.3129174 0
3.6750002 1.8384835 1.3137506 0
3.6780002 1.8342969 1.314584 0
3.6810002 1.8300995 1.3154174 0
3.6840003 1.8258911 1.3162508 0
3.6870003 1.8216721 1.3170842 0
3.6900003 1.8174422 1.3179175 0
3.6930003 1.8132014 1.3187509 0
3.6960003 1.8089498 1.3195843 0
3.6990004 1.8046875 1.3204176 0
3.7020001 1.8004141 1.3212509 0
3.7050002 1.7961301 1.3220843 0
3.7080002 1.7918352 1.3229176 0
3.7110002 1.7875296 1.323751 0
3.7140002 1.783213 1.3245844 0
3.7170002 1.7788857 1.3254178 0
3.7200003 1.7745476 1.3262511 0
3.7230003 1.7701987 1.3270844 0
3.7260003 1.7658389 1.3279178 0
3.7290003 1.7614682 1.3287512 0
3.7320004 1.7570868 1.3295846 0
3.7360003 1.7532338 1.3306956 0
3.7390003 1.748829 1.3315291 0
3.7420003 1.7444133 1.3323624 0
3.7450004 1.7399867 1.3331958 0
3.7480001 1.7355492 1.3340291 0
3.7510002 1.731101 1.3348625 0
3.7540002 1.726642 1.3356957 0
3.7570002 1.7221721 1.3365291 0
3.7600002 1.7176914 1.3373625 0
3.7630002 1.7132 1.3381959 0
3.7660003 1.7086978 1.3390292 0
3.7700002 1.7047042 1.3401405 0
3.7730002 1.7001783 1.3409737 0
3.7760003 1.6956419 1.3418071 0
3.7790003 1.6910944 1.3426405 0
3.7820003 1.6865362 1.3434738 0
3.7850003 1.6819671 1.3443072 0
3.7890003 1.6778959 1.3454183 0
3.7920003 1.6733034 1.3462517 0
3.7950003 1.6687001 1.347085 0
3.7980003 1.664086 1.3479185 0
3.8010004 1.659461 1.3487518 0
3.6720002 1.8426594 1.3070152 0
3.6750002 1.8384835 1.3078432 0
3.6780002 1.8342969 1.3086712 0
3.6810002 1.8300995 1.3094991 0
3.6840003 1.8258911 1.3103271 0
3.6870003 1.8216721 1.3111551 0
3.6900003 1.8174422 1.311983 0
3.6930003 1.8132014 1.3128109 0
3.6960003 1.8089498 1.3136388 0
3.6990004 1.8046875 1.3144668 0
3.7020001 1.8004141 1.3152947 0
3.7050002 1.7961301 1.3161227 0
3.7080002 1.7918352 1.3169507 0
3.7110002 1.7875296 1.3177786 0
3.7140002 1.783213 1.3186065 0
3.7170002 1.7788857 1.3194345 0
3.7200003 1.7745476 1.3202624 0
3.7230003 1.7701987 1.3210905 0
3.7260003 1.7658389 1.3219184 0
3.7290003 1.7614682 1.3227463 0
3.7320004 1.7570868 1.3235743 0
3.7360003 1.7532338 1.3246782 0
3.7390003 1.748829 1.3255061 0
3.7420003 1.7444133 1.3263341 0
3.7450004 1.7399867 1.327162 0
3.7480001 1.7355492 1.3279899 0
3.7510002 1.731101 1.3288178 0
3.7540002 1.726642 1.3296458 0
3.7570002 1.7221721 1.3304738 0
3.7600002 1.7176914 1.3313017 0
3.7630002 1.7132 1.3321296 0
3.7660003 1.7086978 1.3329577 0
3.7700002 1.7047042 1.3340616 0
3.7730002 1.7001783 1.3348895 0
3.7760003 1.6956419 1.3357174 0
3.7790003 1.6910944 1.3365453 0
3.7820003 1.6865362 1.3373734 0
3.7850003 1.6819671 1.3382013 0
3.7890003 1.6778959 1.3393053 0
3.7920003 1.6733034 1.3401332 0
3.7950003 1.6687001 1.3409612 0
3.7980003 1.664086 1.3417891 0
3.8010004 1.659461 1.342617 0
3.6720002 1.8426594 1.3011132 0
3.6750002 1.8384835 1.3019358 0
3.6780002 1.8342969 1.3027582 0
3.6810002 1.8300995 1.3035809 0
3.6840003 1.8258911 1.3044034 0
3.6870003 1.8216721 1.3052258 0
3.6900003 1.8174422 1.3060484 0
3.6930003 1.8132014 1.3068711 0
3.6960003 1.8089498 1.3076935 0
3.6990004 1.8046875 1.308516 0
3.7020001 1.8004141 1.3093386 0
3.7050002 1.7961301 1.3101611 0
3.7080002 1.7918352 1.3109837 0
3.7110002 1.7875296 1.3118062 0
3.7140002 1.783213 1.3126287 0
3.7170002 1.7788857 1.3134513 0
3.7200003 1.7745476 1.3142738 0
3.7230003 1.7701987 1.3150964 0
3.7260003 1.7658389 1.3159189 0
3.7290003 1.7614682 1.3167415 0
3.7320004 1.7570868 1.317564 0
3.7360003 1.7532338 1.3186606 0
3.7390003 1.748829 1.3194833 0
3.7420003 1.7444133 1.3203057 0
3.7450004 1.7399867 1.3211282 0
3.7480001 1.7355492 1.3219508 0
3.7510002 1.731101 1.3227733 0
3.7540002 1.726642 1.3235959 0
3.7570002 1.7221721 1.3244184 0
3.7600002 1.7176914 1.325241 0
3.7630002 1.7132 1.3260635 0
3.7660003 1.7086978 1.3268861 0
3.7700002 1.7047042 1.3279827 0
3.7730002 1.7001783 1.3288053 0
3.7760003 1.6956419 1.3296279 0
3.7790003 1.6910944 1.3304504 0
3.7820003 1.6865362 1.3312728 0
3.7850003 1.6819671 1.3320954 0
3.7880003 1.6773874 1.3329179 0
3.7920003 1.6733034 1.3340148 0
3.7950003 1.6687001 1.3348372 0
3.7980003 1.664086 1.3356597 0
3.8010004 1.659461 1.3364823 0
3.6720002 1.8426594 1.2952112 0
3.6750002 1.8384835 1.2960283 0
3.6780002 1.8342969 1.2968454 0
3.6810002 1.8300995 1.2976625 0
3.6840003 1.8258911 1.2984797 0
3.6870003 1.8216721 1.2992969 0
3.6900003 1.8174422 1.3001139 0
3.6930003 1.8132014 1.3009311 0
3.6960003 1.8089498 1.3017482 0
3.6990004 1.8046875 1.3025653 0
3.7020001 1.8004141 1.3033824 0
3.7050002 1.7961301 1.3041996 0
3.7080002 1.7918352 1.3050166 0
3.7110002 1.7875296 1.3058338 0
3.7140002 1.783213 1.3066509 0
3.7170002 1.7788857 1.3074681 0
3.7200003 1.7745476 1.3082852 0
3.7230003 1.7701987 1.3091023 0
3.7260003 1.7658389 1.3099195 0
3.7290003 1.7614682 1.3107365 0
3.7320004 1.7570868 1.3115537 0
3.7360003 1.7532338 1.3126432 0
3.7390003 1.748829 1.3134602 0
3.7420003 1.7444133 1.3142774 0
3.7450004 1.7399867 1.3150946 0
3.7480001 1.7355492 1.3159117 0
3.7510002 1.731101 1.3167287 0
3.7540002 1.726642 1.3175459 0
3.7570002 1.7221721 1.3183631 0
3.7600002 1.7176914 1.3191801 0
3.7630002 1.7132 1.3199973 0
3.7660003 1.7086978 1.3208144 0
3.7700002 1.7047042 1.3219039 0
3.7730002 1.7001783 1.322721 0
3.7760003 1.6956419 1.3235382 0
3.7790003 1.6910944 1.3243552 0
3.7820003 1.6865362 1.3251724 0
3.7850003 1.6819671 1.3259896 0
3.7880003 1.6773874 1.3268067 0
3.7920003 1.6733034 1.3278961 0
3.7950003 1.6687001 1.3287133 0
3.7980003 1.664086 1.3295304 0
3.8010004 1.659461 1.3303475 0
3.6720002 1.8426594 1.2893091 0
3.6750002 1.8384835 1.2901207 0
3.6780002 1.8342969 1.2909325 0
3.6810002 1.8300995 1.2917442 0
3.6840003 1.8258911 1.2925559 0
3.6870003 1.8216721 1.2933676 0
3.6900003 1.8174422 1.2941794 0
3.6930003 1.8132014 1.2949911 0
3.6960003 1.8089498 1.2958028 0
3.6990004 1.8046875 1.2966145 0
3.7020001 1.8004141 1.2974262 0
3.7050002 1.7961301 1.2982379 0
3.7080002 1.7918352 1.2990496 0
3.7110002 1.7875296 1.2998614 0
3.7140002 1.783213 1.300673 0
3.7170002 1.7788857 1.3014848 0
3.7200003 1.7745476 1.3022965 0
3.7230003 1.7701987 1.3031082 0
3.7260003 1.7658389 1.3039199 0
3.7290003 1.7614682 1.3047317 0
3.7320004 1.7570868 1.3055434 0
3.7360003 1.7532338 1.3066256 0
3.7390003 1.748829 1.3074374 0
3.7420003 1.7444133 1.3082491 0
3.7450004 1.7399867 1.3090608 0
3.7480001 1.7355492 1.3098725 0
3.7510002 1.731101 1.3106842 0
3.7540002 1.726642 1.3114959 0
3.7570002 1.7221721 1.3123076 0
3.7600002 1.7176914 1.3131194 0
3.7630002 1.7132 1.3139311 0
3.7660003 1.7086978 1.3147428 0
3.7700002 1.7047042 1.3158251 0
3.7730002 1.7001783 1.3166368 0
3.7760003 1.6956419 1.3174485 0
3.7790003 1.6910944 1.3182602 0
3.7820003 1.6865362 1.3190719 0
3.7850003 1.6819671 1.3198837 0
3.7880003 1.6773874 1.3206954 0
3.7920003 1.6733034 1.3217776 0
3.7950003 1.6687001 1.3225894 0
3.7980003 1.664086 1.3234011 0
3.8010004 1.659461 1.3242128 0
3.6720002 1.8426594 1.283407 0
3.6750002 1.8384835 1.2842133 0
3.6780002 1.8342969 1.2850196 0
3.6810002 1.8300995 1.285826 0
3.6840003 1.8258911 1.2866322 0
3.6870003 1.8216721 1.2874385 0
3.6900003 1.8174422 1.2882448 0
3.6930003 1.8132014 1.2890512 0
3.6960003 1.8089498 1.2898575 0
3.6990004 1.8046875 1.2906637 0
3.7020001 1.8004141 1.2914701 0
3.7050002 1.7961301 1.2922764 0
3.7080002 1.7918352 1.2930826 0
3.7110002 1.7875296 1.2938889 0
3.7140002 1.783213 1.2946953 0
3.7170002 1.7788857 1.2955016 0
3.7200003 1.7745476 1.2963079 0
3.7230003 1.7701987 1.2971141 0
3.7260003 1.7658389 1.2979205 0
3.7290003 1.7614682 1.2987268 0
3.7320004 1.7570868 1.2995331 0
3.7360003 1.7532338 1.3006082 0
3.7390003 1.748829 1.3014145 0
3.7420003 1.7444133 1.3022208 0
3.7450004 1.7399867 1.303027 0
3.7480001 1.7355492 1.3038334 0
3.7510002 1.731101 1.3046397 0
3.7540002 1.726642 1.3054459 0
3.7570002 1.7221721 1.3062522 0
3.7600002 1.7176914 1.3070586 0
3.7630002 1.7132 1.3078649 0
3.7660003 1.7086978 1.3086712 0
3.7700002 1.7047042 1.3097463 0
3.7730002 1.7001783 1.3105526 0
3.7760003 1.6956419 1.3113588 0
3.7790003 1.6910944 1.3121651 0
3.7820003 1.6865362 1.3129715 0
3.7850003 1.6819671 1.3137778 0
3.7880003 1.6773874 1.3145841 0
3.7920003 1.6733034 1.3156592 0
3.7950003 1.6687001 1.3164655 0
3.7980003 1.664086 1.3172717 0
3.8010004 1.659461 1.318078 0
3.6720002 1.8426594 1.2775049 0
3.6750002 1.8384835 1.2783059 0
3.6780002 1.8342969 1.2791067 0
3.6810002 1.8300995 1.2799076 0
3.6840003 1.8258911 1.2807086 0
3.6870003 1.8216721 1.2815094 0
3.6900003 1.8174422 1.2823104 0
3.6930003 1.8132014 1.2831112 0
3.6960003 1.8089498 1.2839122 0
3.6990004 1.8046875 1.284713 0
3.7020001 1.8004141 1.2855139 0
3.7050002 1.7961301 1.2863147 0
3.7080002 1.7918352 1.2871157 0
3.7110002 1.7875296 1.2879165 0
3.7140002 1.783213 1.2887174 0
3.7170002 1.7788857 1.2895184 0
3.7200003 1.7745476 1.2903192 0
3.7230003 1.7701987 1.2911201 0
3.7260003 1.7658389 1.291921 0
3.7290003 1.7614682 1.292722 0
3.7320004 1.7570868 1.2935228 0
3.7350004 1.7526945 1.2943237 0
3.7390003 1.748829 1.2953916 0
3.7420003 1.7444133 1.2961924 0
3.7450004 1.7399867 1.2969934 0
3.7480001 1.7355492 1.2977941 0
3.7510002 1.731101 1.2985951 0
3.7540002 1.726642 1.299396 0
3.7570002 1.7221721 1.3001969 0
3.7600002 1.7176914 1.3009977 0
3.7630002 1.7132 1.3017987 0
3.7660003 1.7086978 1.3025995 0
3.7700002 1.7047042 1.3036674 0
3.7730002 1.7001783 1.3044683 0
3.7760003 1.6956419 1.3052691 0
3.7790003 1.6910944 1.3060701 0
3.7820003 1.6865362 1.3068711 0
3.7850003 1.6819671 1.3076719 0
3.7880003 1.6773874 1.3084728 0
3.7920003 1.6733034 1.3095406 0
3.7950003 1.6687001 1.3103415 0
3.7980003 1.664086 1.3111424 0
3.8010004 1.659461 1.3119433 0
3.6720002 1.8426594 1.2716029 0
3.6750002 1.8384835 1.2723984 0
3.6780002 1.8342969 1.2731938 0
3.6810002 1.8300995 1.2739893 0
3.6840003 1.8258911 1.2747848 0
3.6870003 1.8216721 1.2755803 0
3.6900003 1.8174422 1.2763758 0
3.6930003 1.8132014 1.2771713 0
3.6960003 1.8089498 1.2779667 0
3.6990004 1.8046875 1.2787622 0
3.7020001 1.8004141 1.2795577 0
3.7050002 1.7961301 1.2803532 0
3.7080002 1.7918352 1.2811487 0
3.7110002 1.7875296 1.2819442 0
3.7140002 1.783213 1.2827396 0
3.7170002 1.7788857 1.2835351 0
3.7200003 1.7745476 1.2843306 0
3.7230003 1.7701987 1.2851261 0
3.7260003 1.7658389 1.2859216 0
3.7290003 1.7614682 1.2867171 0
3.7320004 1.7570868 1.2875125 0
3.7350004 1.7526945 1.288308 0
3.7390003 1.748829 1.2893686 0
3.7420003 1.7444133 1.2901641 0
3.7450004 1.7399867 1.2909596 0
3.7480001 1.7355492 1.2917551 0
3.7510002 1.731101 1.2925506 0
3.7540002 1.726642 1.293346 0
3.7570002 1.7221721 1.2941414 0
3.7600002 1.7176914 1.294937 0
3.7630002 1.7132 1.2957325 0
3.7660003 1.7086978 1.296528 0
3.7700002 1.7047042 1.2975886 0
3.7730002 1.7001783 1.2983841 0
3.7760003 1.6956419 1.2991796 0
3.7790003 1.6910944 1.299975 0
3.7820003 1.6865362 1.3007705 0
3.7850003 1.6819671 1.301566 0
3.7880003 1.6773874 1.3023615 0
3.7920003 1.6733034 1.3034221 0
3.7950003 1.6687001 1.3042176 0
3.7980003 1.664086 1.3050131 0
3.8010004 1.659461 1.3058085 0
3.6720002 1.8426594 1.2657008 0
3.6750002 1.8384835 1.2664909 0
3.6780002 1.8342969 1.2672809 0
3.6810002 1.8300995 1.2680711 0
3.6840003 1.8258911 1.2688612 0
3.6870003 1.8216721 1.2696512 0
3.6900003 1.8174422 1.2704413 0
3.6930003 1.8132014 1.2712314 0
3.6960003 1.8089498 1.2720214 0
3.6990004 1.8046875 1.2728115 0
3.7020001 1.8004141 1.2736015 0
3.7050002 1.7961301 1.2743915 0
3.7080002 1.7918352 1.2751817 0
3.7110002 1.7875296 1.2759717 0
3.7140002 1.783213 1.2767618 0
3.7170002 1.7788857 1.2775519 0
3.7200003 1.7745476 1.278342 0
3.7230003 1.7701987 1.279132 0
3.7260003 1.7658389 1.2799221 0
3.7290003 1.7614682 1.2807121 0
3.7320004 1.7570868 1.2815022 0
3.7350004 1.7526945 1.2822922 0
3.7390003 1.748829 1.2833457 0
3.7420003 1.7444133 1.2841358 0
3.7450004 1.7399867 1.2849258 0
3.7480001 1.7355492 1.2857159 0
3.7510002 1.731101 1.2865059 0
3.7540002 1.726642 1.2872961 0
3.7570002 1.7221721 1.2880861 0
3.7600002 1.7176914 1.2888762 0
3.7630002 1.7132 1.2896663 0
3.7660003 1.7086978 1.2904563 0
3.7700002 1.7047042 1.2915097 0
3.7730002 1.7001783 1.2922997 0
3.7760003 1.6956419 1.2930899 0
3.7790003 1.6910944 1.29388 0
3.7820003 1.6865362 1.29467 0
3.7850003 1.6819671 1.2954601 0
3.7880003 1.6773874 1.2962502 0
3.7920003 1.6733034 1.2973036 0
3.7950003 1.6687001 1.2980937 0
3.7980003 1.664086 1.2988837 0
3.8010004 1.659461 1.2996738 0
3.6720002 1.8426594 1.2597988 0
3.6750002 1.8384835 1.2605834 0
3.6780002 1.8342969 1.2613682 0
3.6810002 1.8300995 1.2621528 0
3.6840003 1.8258911 1.2629374 0
3.6870003 1.8216721 1.2637221 0
3.6900003 1.8174422 1.2645067 0
3.6930003 1.8132014 1.2652915 0
3.6960003 1.8089498 1.2660761 0
3.6990004 1.8046875 1.2668607 0
3.7020001 1.8004141 1.2676454 0
3.7050002 1.7961301 1.26843 0
3.7080002 1.7918352 1.2692146 0
3.7110002 1.7875296 1.2699993 0
3.7140002 1.783213 1.270784 0
3.7170002 1.7788857 1.2715687 0
3.7200003 1.7745476 1.2723533 0
3.7230003 1.7701987 1.2731379 0
3.7260003 1.7658389 1.2739226 0
3.7290003 1.7614682 1.2747073 0
3.7320004 1.7570868 1.275492 0
3.7350004 1.7526945 1.2762766 0
3.7390003 1.748829 1.2773228 0
3.7420003 1.7444133 1.2781074 0
3.7450004 1.7399867 1.2788922 0
3.7480001 1.7355492 1.2796768 0
3.7510002 1.731101 1.2804614 0
3.7540002 1.726642 1.2812461 0
3.7570002 1.7221721 1.2820307 0
3.7600002 1.7176914 1.2828153 0
3.7630002 1.7132 1.2836 0
3.7660003 1.7086978 1.2843847 0
3.7700002 1.7047042 1.2854309 0
3.7730002 1.7001783 1.2862155 0
3.7760003 1.6956419 1.2870002 0
3.7790003 1.6910944 1.2877848 0
3.7820003 1.6865362 1.2885696 0
3.7850003 1.6819671 1.2893542 0
3.7880003 1.6773874 1.2901388 0
3.7920003 1.6733034 1.291185 0
3.7950003 1.6687001 1.2919697 0
3.7980003 1.664086 1.2927544 0
3.8010004 1.659461 1.293539 0
3.6720002 1.8426594 1.2538967 0
3.6750002 1.8384835 1.254676 0
3.6780002 1.8342969 1.2554553 0
3.6810002 1.8300995 1.2562344 0
3.6840003 1.8258911 1.2570137 0
3.6870003 1.8216721 1.2577929 0
3.6900003 1.8174422 1.2585722 0
3.6930003 1.8132014 1.2593515 0
3.6960003 1.8089498 1.2601306 0
3.6990004 1.8046875 1.2609099 0
3.7020001 1.8004141 1.2616892 0
3.7050002 1.7961301 1.2624685 0
3.7080002 1.7918352 1.2632477 0
3.7110002 1.7875296 1.2640269 0
3.7140002 1.783213 1.2648062 0
3.7170002 1.7788857 1.2655854 0
3.7200003 1.7745476 1.2663647 0
3.7230003 1.7701987 1.2671438 0
3.7260003 1.7658389 1.2679231 0
3.7290003 1.7614682 1.2687024 0
3.7320004 1.7570868 1.2694817 0
3.7350004 1.7526945 1.2702609 0
3.7390003 1.748829 1.2713 0
3.7420003 1.7444133 1.2720791 0
3.7450004 1.7399867 1.2728584 0
3.7480001 1.7355492 1.2736375 0
3.7510002 1.731101 1.2744168 0
3.7540002 1.726642 1.2751961 0
3.7570002 1.7221721 1.2759753 0
3.7600002 1.7176914 1.2767546 0
3.7630002 1.7132 1.2775339 0
3.7660003 1.7086978 1.2783132 0
3.7700002 1.7047042 1.2793521 0
3.7730002 1.7001783 1.2801313 0
3.7760003 1.6956419 1.2809105 0
3.7790003 1.6910944 1.2816898 0
3.7820003 1.6865362 1.282469 0
3.7850003 1.6819671 1.2832483 0
3.7880003 1.6773874 1.2840276 0
3.7920003 1.6733034 1.2850666 0
3.7950003 1.6687001 1.2858458 0
3.7980003 1.664086 1.286625 0
3.8010004 1.659461 1.2874043 0
3.6720002 1.8426594 1.2479947 0
3.6750002 1.8384835 1.2487684 0
3.6780002 1.8342969 1.2495424 0
3.6810002 1.8300995 1.2503161 0
3.6840003 1.8258911 1.25109 0
3.6870003 1.8216721 1.2518638 0
3.6900003 1.8174422 1.2526377 0
3.6930003 1.8132014 1.2534115 0
3.6960003 1.8089498 1.2541853 0
3.6990004 1.8046875 1.2549592 0
3.7020001 1.8004141 1.255733 0
3.7050002 1.7961301 1.2565068 0
3.7080002 1.7918352 1.2572806 0
3.7110002 1.7875296 1.2580545 0
3.7140002 1.783213 1.2588283 0
3.7170002 1.7788857 1.2596022 0
3.7200003 1.7745476 1.260376 0
3.7230003 1.7701987 1.2611499 0
3.7260003 1.7658389 1.2619237 0
3.7290003 1.7614682 1.2626976 0
3.7320004 1.7570868 1.2634714 0
3.7350004 1.7526945 1.2642452 0
3.7390003 1.748829 1.2652769 0
3.7420003 1.7444133 1.2660508 0
3.7450004 1.7399867 1.2668247 0
3.7480001 1.7355492 1.2675984 0
3.7510002 1.731101 1.2683723 0
3.7540002 1.726642 1.2691461 0
3.7570002 1.7221721 1.26992 0
3.7600002 1.7176914 1.2706938 0
3.7630002 1.7132 1.2714677 0
3.7660003 1.7086978 1.2722415 0
3.7700002 1.7047042 1.2732732 0
3.7730002 1.7001783 1.274047 0
3.7760003 1.6956419 1.2748209 0
3.7790003 1.6910944 1.2755947 0
3.7820003 1.6865362 1.2763686 0
3.7850003 1.6819671 1.2771424 0
3.7880003 1.6773874 1.2779163 0
3.7920003 1.6733034 1.2789481 0
3.7950003 1.6687001 1.2797219 0
3.7980003 1.664086 1.2804958 0
3.8010004 1.659461 1.2812696 0
3.6720002 1.8426594 1.2420926 0
3.6750002 1.8384835 1.242861 0
3.6780002 1.8342969 1.2436295 0
3.6810002 1.8300995 1.2443979 0
3.6840003 1.8258911 1.2451663 0
3.6870003 1.8216721 1.2459347 0
3.6900003 1.8174422 1.2467031 0
3.6930003 1.8132014 1.2474716 0
3.6960003 1.8089498 1.24824 0
3.6990004 1.8046875 1.2490084 0
3.7020001 1.8004141 1.2497768 0
3.7050002 1.7961301 1.2505453 0
3.7080002 1.7918352 1.2513137 0
3.7110002 1.7875296 1.2520821 0
3.7140002 1.783213 1.2528505 0
3.7170002 1.7788857 1.253619 0
3.7200003 1.7745476 1.2543874 0
3.7230003 1.7701987 1.2551558 0
3.7260003 1.7658389 1.2559242 0
3.7290003 1.7614682 1.2566926 0
3.7320004 1.7570868 1.2574611 0
3.7350004 1.7526945 1.2582295 0
3.7390003 1.748829 1.2592541 0
3.7420003 1.7444133 1.2600225 0
3.7450004 1.7399867 1.2607909 0
3.7480001 1.7355492 1.2615592 0
3.7510002 1.731101 1.2623277 0
3.7540002 1.726642 1.2630961 0
3.7570002 1.7221721 1.2638646 0
3.7600002 1.7176914 1.2646331 0
3.7630002 1.7132 1.2654014 0
3.7660003 1.7086978 1.2661698 0
3.7700002 1.7047042 1.2671944 0
3.7730002 1.7001783 1.2679628 0
3.7760003 1.6956419 1.2687312 0
3.7790003 1.6910944 1.2694997 0
3.7820003 1.6865362 1.2702681 0
3.7850003 1.6819671 1.2710365 0
3.7880003 1.6773874 1.2718049 0
3.7920003 1.6733034 1.2728295 0
3.7950003 1.6687001 1.273598 0
3.7980003 1.664086 1.2743664 0
3.8010004 1.659461 1.2751348 0
3.6720002 1.8426594 1.2361906 0
3.6750002 1.8384835 1.2369536 0
3.6780002 1.8342969 1.2377166 0
3.6810002 1.8300995 1.2384796 0
3.6840003 1.8258911 1.2392427 0
3.6870003 1.8216721 1.2400056 0
3.6900003 1.8174422 1.2407686 0
3.6930003 1.8132014 1.2415316 0
3.6960003 1.8089498 1.2422947 0
3.6990004 1.8046875 1.2430576 0
3.7020001 1.8004141 1.2438207 0
3.7050002 1.7961301 1.2445836 0
3.7080002 1.7918352 1.2453467 0
3.7110002 1.7875296 1.2461097 0
3.7140002 1.783213 1.2468727 0
3.7170002 1.7788857 1.2476357 0
3.7200003 1.7745476 1.2483988 0
3.7230003 1.7701987 1.2491617 0
3.7260003 1.7658389 1.2499248 0
3.7290003 1.7614682 1.2506878 0
3.7320004 1.7570868 1.2514508 0
3.7350004 1.7526945 1.2522138 0
3.7390003 1.748829 1.2532312 0
3.7420003 1.7444133 1.2539942 0
3.7450004 1.7399867 1.2547572 0
3.7480001 1.7355492 1.2555201 0
3.7510002 1.731101 1.2562832 0
3.7540002 1.726642 1.2570461 0
3.7570002 1.7221721 1.2578092 0
3.7600002 1.7176914 1.2585722 0
3.7630002 1.7132 1.2593352 0
3.7660003 1.7086978 1.2600982 0
3.7700002 1.7047042 1.2611156 0
3.7730002 1.7001783 1.2618786 0
3.7760003 1.6956419 1.2626415 0
3.7790003 1.6910944 1.2634046 0
3.7820003 1.6865362 1.2641677 0
3.7850003 1.6819671 1.2649306 0
3.7880003 1.6773874 1.2656937 0
3.7920003 1.6733034 1.266711 0
3.7950003 1.6687001 1.2674741 0
3.7980003 1.664086 1.268237 0
3.8010004 1.659461 1.2690001 0
3.6720002 1.8426594 1.2302885 0
3.6750002 1.8384835 1.2310461 0
3.6780002 1.8342969 1.2318037 0
3.6810002 1.8300995 1.2325613 0
3.6840003 1.8258911 1.2333189 0
3.6870003 1.8216721 1.2340765 0
3.6900003 1.8174422 1.2348341 0
3.6930003 1.8132014 1.2355917 0
3.6960003 1.8089498 1.2363493 0
3.6990004 1.8046875 1.2371069 0
3.7020001 1.8004141 1.2378645 0
3.7050002 1.7961301 1.2386221 0
3.7080002 1.7918352 1.2393796 0
3.7110002 1.7875296 1.2401372 0
3.7140002 1.783213 1.2408949 0
3.7170002 1.7788857 1.2416525 0
3.7200003 1.7745476 1.2424101 0
3.7230003 1.7701987 1.2431676 0
3.7260003 1.7658389 1.2439252 0
3.7290003 1.7614682 1.2446829 0
3.7320004 1.7570868 1.2454405 0
3.7350004 1.7526945 1.2461981 0
3.7390003 1.748829 1.2472082 0
3.7420003 1.7444133 1.2479658 0
3.7450004 1.7399867 1.2487235 0
3.7480001 1.7355492 1.249481 0
3.7510002 1.731101 1.2502385 0
3.7540002 1.726642 1.2509961 0
3.7570002 1.7221721 1.2517538 0
3.7600002 1.7176914 1.2525114 0
3.7630002 1.7132 1.253269 0
3.7660003 1.7086978 1.2540267 0
3.7700002 1.7047042 1.2550367 0
3.7730002 1.7001783 1.2557944 0
3.7760003 1.6956419 1.256552 0
3.7790003 1.6910944 1.2573096 0
3.7820003 1.6865362 1.2580671 0
3.7850003 1.6819671 1.2588247 0
3.7880003 1.6773874 1.2595824 0
3.7920003 1.6733034 1.2605925 0
3.7950003 1.6687001 1.26135 0
3.7980003 1.664086 1.2621077 0
3.8010004 1.659461 1.2628653 0
3.6720002 1.8426594 1.2243865 0
3.6750002 1.8384835 1.2251385 0
3.6780002 1.8342969 1.2258909 0
3.6810002 1.8300995 1.226643 0
3.6840003 1.8258911 1.2273952 0
3.6870003 1.8216721 1.2281474 0
3.6900003 1.8174422 1.2288996 0
3.6930003 1.8132014 1.2296517 0
3.6960003 1.8089498 1.230404 0
3.6990004 1.8046875 1.2311561 0
3.7020001 1.8004141 1.2319083 0
3.7050002 1.7961301 1.2326605 0
3.7080002 1.7918352 1.2334126 0
3.7110002 1.7875296 1.2341648 0
3.7140002 1.783213 1.234917 0
3.7170002 1.7788857 1.2356693 0
3.7200003 1.7745476 1.2364215 0
3.7230003 1.7701987 1.2371737 0
3.7260003 1.7658389 1.2379258 0
3.7290003 1.7614682 1.238678 0
3.7320004 1.7570868 1.2394302 0
3.7350004 1.7526945 1.2401824 0
3.7390003 1.748829 1.2411853 0
3.7420003 1.7444133 1.2419375 0
3.7450004 1.7399867 1.2426897 0
3.7480001 1.7355492 1.2434418 0
3.7510002 1.731101 1.244194 0
3.7540002 1.726642 1.2449462 0
3.7570002 1.7221721 1.2456985 0
3.7600002 1.7176914 1.2464505 0
3.7630002 1.7132 1.2472029 0
3.7660003 1.7086978 1.247955 0
3.7700002 1.7047042 1.2489579 0
3.7730002 1.7001783 1.2497101 0
3.7760003 1.6956419 1.2504623 0
3.7790003 1.6910944 1.2512145 0
3.7820003 1.6865362 1.2519667 0
3.7850003 1.6819671 1.2527189 0
3.7880003 1.6773874 1.253471 0
3.7920003 1.6733034 1.2544739 0
3.7950003 1.6687001 1.2552261 0
3.7980003 1.664086 1.2559783 0
3.8010004 1.659461 1.2567306 0
3.6720002 1.8426594 1.2184844 0
3.6750002 1.8384835 1.2192311 0
3.6780002 1.8342969 1.2199779 0
3.6810002 1.8300995 1.2207247 0
3.6840003 1.8258911 1.2214714 0
3.6870003 1.8216721 1.2222183 0
3.6900003 1.8174422 1.222965 0
3.6930003 1.8132014 1.2237118 0
3.6960003 1.8089498 1.2244586 0
3.6990004 1.8046875 1.2252054 0
3.7020001 1.8004141 1.225952 0
3.7050002 1.7961301 1.2266989 0
3.7080002 1.7918352 1.2274456 0
3.7110002 1.7875296 1.2281924 0
3.7140002 1.783213 1.2289393 0
3.7170002 1.7788857 1.229686 0
3.7200003 1.7745476 1.2304329 0
3.7230003 1.7701987 1.2311796 0
3.7260003 1.7658389 1.2319263 0
3.7290003 1.7614682 1.2326732 0
3.7320004 1.7570868 1.2334199 0
3.7350004 1.7526945 1.2341667 0
3.7390003 1.748829 1.2351624 0
3.7420003 1.7444133 1.2359092 0
3.7450004 1.7399867 1.236656 0
3.7480001 1.7355492 1.2374027 0
3.7510002 1.731101 1.2381495 0
3.7540002 1.726642 1.2388963 0
3.7570002 1.7221721 1.2396431 0
3.7600002 1.7176914 1.2403898 0
3.7630002 1.7132 1.2411366 0
3.7660003 1.7086978 1.2418834 0
3.7700002 1.7047042 1.242879 0
3.7730002 1.7001783 1.2436259 0
3.7760003 1.6956419 1.2443726 0
3.7790003 1.6910944 1.2451195 0
3.7820003 1.6865362 1.2458662 0
3.7850003 1.6819671 1.246613 0
3.7880003 1.6773874 1.2473598 0
3.7920003 1.6733034 1.2483555 0
3.7950003 1.6687001 1.2491022 0
3.7980003 1.664086 1.249849 0
3.8010004 1.659461 1.2505958 0
3.6720002 1.8426594 1.2125822 0
3.6750002 1.8384835 1.2133237 0
3.6780002 1.8342969 1.2140651 0
3.6810002 1.8300995 1.2148064 0
3.6840003 1.8258911 1.2155478 0
3.6870003 1.8216721 1.2162892 0
3.6900003 1.8174422 1.2170305 0
3.6930003 1.8132014 1.2177719 0
3.6960003 1.8089498 1.2185133 0
3.6990004 1.8046875 1.2192546 0
3.7020001 1.8004141 1.2199959 0
3.7050002 1.7961301 1.2207373 0
3.7080002 1.7918352 1.2214787 0
3.7110002 1.7875296 1.2222201 0
3.7140002 1.783213 1.2229614 0
3.7170002 1.7788857 1.2237028 0
3.7200003 1.7745476 1.2244442 0
3.7230003 1.7701987 1.2251855 0
3.7260003 1.7658389 1.2259269 0
3.7290003 1.7614682 1.2266682 0
3.7320004 1.7570868 1.2274096 0
3.7350004 1.7526945 1.2281511 0
3.7390003 1.748829 1.2291394 0
3.7420003 1.7444133 1.2298808 0
3.7450004 1.7399867 1.2306223 0
3.7480001 1.7355492 1.2313635 0
3.7510002 1.731101 1.2321049 0
3.7540002 1.726642 1.2328463 0
3.7570002 1.7221721 1.2335876 0
3.7600002 1.7176914 1.234329 0
3.7630002 1.7132 1.2350703 0
3.7660003 1.7086978 1.2358117 0
3.7700002 1.7047042 1.2368002 0
3.7730002 1.7001783 1.2375416 0
3.7760003 1.6956419 1.2382829 0
3.7790003 1.6910944 1.2390244 0
3.7820003 1.6865362 1.2397656 0
3.7850003 1.6819671 1.2405071 0
3.7880003 1.6773874 1.2412485 0
3.7920003 1.6733034 1.242237 0
3.7950003 1.6687001 1.2429783 0
3.7980003 1.664086 1.2437197 0
3.8010004 1.659461 1.2444611 0
3.6720002 1.8426594 1.2066802 0
3.6750002 1.8384835 1.2074162 0
3.6780002 1.8342969 1.2081522 0
3.6810002 1.8300995 1.2088881 0
3.6840003 1.8258911 1.2096241 0
3.6870003 1.8216721 1.2103601 0
3.6900003 1.8174422 1.211096 0
3.6930003 1.8132014 1.2118319 0
3.6960003 1.8089498 1.2125679 0
3.6990004 1.8046875 1.2133038 0
3.7020001 1.8004141 1.2140398 0
3.7050002 1.7961301 1.2147757 0
3.7080002 1.7918352 1.2155117 0
3.7110002 1.7875296 1.2162477 0
3.7140002 1.783213 1.2169836 0
3.7170002 1.7788857 1.2177196 0
3.7200003 1.7745476 1.2184556 0
3.7230003 1.7701987 1.2191916 0
3.7260003 1.7658389 1.2199274 0
3.7290003 1.7614682 1.2206633 0
3.7320004 1.7570868 1.2213993 0
3.7350004 1.7526945 1.2221353 0
3.7390003 1.748829 1.2231165 0
3.7420003 1.7444133 1.2238525 0
3.7450004 1.7399867 1.2245885 0
3.7480001 1.7355492 1.2253244 0
3.7510002 1.731101 1.2260604 0
3.7540002 1.726642 1.2267963 0
3.7570002 1.7221721 1.2275323 0
3.7600002 1.7176914 1.2282683 0
3.7630002 1.7132 1.2290041 0
3.7660003 1.7086978 1.2297401 0
3.7700002 1.7047042 1.2307214 0
3.7730002 1.7001783 1.2314574 0
3.7760003 1.6956419 1.2321934 0
3.7790003 1.6910944 1.2329293 0
3.7820003 1.6865362 1.2336652 0
3.7850003 1.6819671 1.2344012 0
3.7880003 1.6773874 1.2351371 0
3.7920003 1.6733034 1.2361184 0
3.7950003 1.6687001 1.2368543 0
3.7980003 1.664086 1.2375903 0
3.8010004 1.659461 1.2383263 0
3.6720002 1.8426594 1.2007781 0
3.6750002 1.8384835 1.2015086 0
3.6780002 1.8342969 1.2022393 0
3.6810002 1.8300995 1.2029698 0
3.6840003 1.8258911 1.2037004 0
3.6870003 1.8216721 1.2044309 0
3.6900003 1.8174422 1.2051615 0
3.6930003 1.8132014 1.205892 0
3.6960003 1.8089498 1.2066225 0
3.6990004 1.8046875 1.2073531 0
3.7020001 1.8004141 1.2080836 0
3.7050002 1.7961301 1.2088141 0
3.7080002 1.7918352 1.2095447 0
3.7110002 1.7875296 1.2102752 0
3.7140002 1.783213 1.2110058 0
3.7170002 1.7788857 1.2117363 0
3.7200003 1.7745476 1.2124668 0
3.7230003 1.7701987 1.2131974 0
3.7260003 1.7658389 1.213928 0
3.7290003 1.7614682 1.2146585 0
3.7320004 1.7570868 1.215389 0
3.7350004 1.7526945 1.2161196 0
3.7390003 1.748829 1.2170937 0
3.7420003 1.7444133 1.2178242 0
3.7450004 1.7399867 1.2185547 0
3.7480001 1.7355492 1.2192852 0
3.7510002 1.731101 1.2200158 0
3.7540002 1.726642 1.2207463 0
3.7570002 1.7221721 1.2214769 0
3.7600002 1.7176914 1.2222074 0
3.7630002 1.7132 1.2229379 0
3.7660003 1.7086978 1.2236686 0
3.7700002 1.7047042 1.2246425 0
3.7730002 1.7001783 1.2253731 0
3.7760003 1.6956419 1.2261037 0
3.7790003 1.6910944 1.2268342 0
3.7820003 1.6865362 1.2275648 0
3.7850003 1.6819671 1.2282953 0
3.7880003 1.6773874 1.2290258 0
3.7920003 1.6733034 1.2299999 0
3.7950003 1.6687001 1.2307304 0
3.7980003 1.664086 1.231461 0
3.8010004 1.659461 1.2321916 0
3.6720002 1.8426594 1.1948761 0
3.6750002 1.8384835 1.1956012 0
3.6780002 1.8342969 1.1963264 0
3.6810002 1.8300995 1.1970515 0
3.6840003 1.8258911 1.1977767 0
3.6870003 1.8216721 1.1985018 0
3.6900003 1.8174422 1.1992269 0
3.6930003 1.8132014 1.199952 0
3.6960003 1.8089498 1.2006772 0
3.6990004 1.8046875 1.2014023 0
3.7020001 1.8004141 1.2021275 0
3.7050002 1.7961301 1.2028525 0
3.7080002 1.7918352 1.2035776 0
3.7110002 1.7875296 1.2043028 0
3.7140002 1.783213 1.2050279 0
3.7170002 1.7788857 1.2057531 0
3.7200003 1.7745476 1.2064782 0
3.7230003 1.7701987 1.2072034 0
3.7260003 1.7658389 1.2079285 0
3.7290003 1.7614682 1.2086536 0
3.7320004 1.7570868 1.2093787 0
3.7350004 1.7526945 1.2101039 0
3.7390003 1.748829 1.2110708 0
3.7420003 1.7444133 1.2117959 0
3.7450004 1.7399867 1.212521 0
3.7480001 1.7355492 1.2132461 0
3.7510002 1.731101 1.2139711 0
3.7540002 1.726642 1.2146963 0
3.7570002 1.7221721 1.2154214 0
3.7600002 1.7176914 1.2161466 0
3.7630002 1.7132 1.2168717 0
3.7660003 1.7086978 1.2175969 0
3.7700002 1.7047042 1.2185637 0
3.7730002 1.7001783 1.2192888 0
3.7760003 1.6956419 1.220014 0
3.7790003 1.6910944 1.2207391 0
3.7820003 1.6865362 1.2214643 0
3.7850003 1.6819671 1.2221894 0
3.7880003 1.6773874 1.2229146 0
3.7920003 1.6733034 1.2238814 0
3.7950003 1.6687001 1.2246065 0
3.7980003 1.664086 1.2253317 0
3.8010004 1.659461 1.2260568 0
3.6720002 1.8426594 1.188974 0
3.6750002 1.8384835 1.1896938 0
3.6780002 1.8342969 1.1904135 0
3.6810002 1.8300995 1.1911333 0
3.6840003 1.8258911 1.1918529 0
3.6870003 1.8216721 1.1925727 0
3.6900003 1.8174422 1.1932924 0
3.6930003 1.8132014 1.1940122 0
3.6960003 1.8089498 1.1947318 0
3.6990004 1.8046875 1.1954515 0
3.7020001 1.8004141 1.1961713 0
3.7050002 1.7961301 1.196891 0
3.7080002 1.7918352 1.1976107 0
3.7110002 1.7875296 1.1983304 0
3.7140002 1.783213 1.1990502 0
3.7170002 1.7788857 1.1997699 0
3.7200003 1.7745476 1.2004896 0
3.7230003 1.7701987 1.2012093 0
3.7260003 1.7658389 1.2019291 0
3.7290003 1.7614682 1.2026488 0
3.7320004 1.7570868 1.2033684 0
3.7350004 1.7526945 1.2040882 0
3.7390003 1.748829 1.2050478 0
3.7420003 1.7444133 1.2057675 0
3.7450004 1.7399867 1.2064873 0
3.7480001 1.7355492 1.207207 0
3.7510002 1.731101 1.2079266 0
3.7540002 1.726642 1.2086464 0
3.7570002 1.7221721 1.2093661 0
3.7600002 1.7176914 1.2100857 0
3.7630002 1.7132 1.2108055 0
3.7660003 1.7086978 1.2115252 0
3.7700002 1.7047042 1.212485 0
3.7730002 1.7001783 1.2132046 0
3.7760003 1.6956419 1.2139244 0
3.7790003 1.6910944 1.2146441 0
3.7820003 1.6865362 1.2153637 0
3.7850003 1.6819671 1.2160835 0
3.7880003 1.6773874 1.2168032 0
3.7920003 1.6733034 1.2177628 0
3.7950003 1.6687001 1.2184826 0
3.7980003 1.664086 1.2192023 0
3.8010004 1.659461 1.2199221 0
3.6720002 1.8426594 1.183072 0
3.6750002 1.8384835 1.1837863 0
3.6780002 1.8342969 1.1845006 0
3.6810002 1.8300995 1.1852149 0
3.6840003 1.8258911 1.1859292 0
3.6870003 1.8216721 1.1866436 0
3.6900003 1.8174422 1.1873579 0
3.6930003 1.8132014 1.1880722 0
3.6960003 1.8089498 1.1887865 0
3.6990004 1.8046875 1.1895008 0
3.7020001 1.8004141 1.1902151 0
3.7050002 1.7961301 1.1909294 0
3.7080002 1.7918352 1.1916437 0
3.7110002 1.7875296 1.192358 0
3.7140002 1.783213 1.1930723 0
3.7170002 1.7788857 1.1937866 0
3.7200003 1.7745476 1.1945009 0
3.7230003 1.7701987 1.1952152 0
3.7260003 1.7658389 1.1959296 0
3.7290003 1.7614682 1.1966439 0
3.7320004 1.7570868 1.1973583 0
3.7350004 1.7526945 1.1980726 0
3.7390003 1.748829 1.1990249 0
3.7420003 1.7444133 1.1997392 0
3.7450004 1.7399867 1.2004535 0
3.7480001 1.7355492 1.2011678 0
3.7510002 1.731101 1.2018821 0
3.7540002 1.726642 1.2025964 0
3.7570002 1.7221721 1.2033107 0
3.7600002 1.7176914 1.204025 0
3.7630002 1.7132 1.2047393 0
3.7660003 1.7086978 1.2054536 0
3.7700002 1.7047042 1.2064061 0
3.7730002 1.7001783 1.2071204 0
3.7760003 1.6956419 1.2078347 0
3.7790003 1.6910944 1.208549 0
3.7820003 1.6865362 1.2092633 0
3.7850003 1.6819671 1.2099776 0
3.7880003 1.6773874 1.2106919 0
3.7920003 1.6733034 1.2116443 0
3.7950003 1.6687001 1.2123586 0
3.7980003 1.664086 1.213073 0
3.8010004 1.659461 1.2137873 0
3.6720002 1.8426594 1.1771699 0
3.6750002 1.8384835 1.1778789 0
3.6780002 1.8342969 1.1785878 0
3.6810002 1.8300995 1.1792966 0
3.6840003 1.8258911 1.1800056 0
3.6870003 1.8216721 1.1807144 0
3.6900003 1.8174422 1.1814233 0
3.6930003 1.8132014 1.1821322 0
3.6960003 1.8089498 1.1828412 0
3.6990004 1.8046875 1.18355 0
3.7020001 1.8004141 1.1842589 0
3.7050002 1.7961301 1.1849678 0
3.7080002 1.7918352 1.1856767 0
3.7110002 1.7875296 1.1863856 0
3.7140002 1.783213 1.1870944 0
3.7170002 1.7788857 1.1878034 0
3.7200003 1.7745476 1.1885123 0
3.7230003 1.7701987 1.1892211 0
3.7260003 1.7658389 1.1899301 0
3.7290003 1.7614682 1.190639 0
3.7320004 1.7570868 1.191348 0
3.7350004 1.7526945 1.1920568 0
3.7390003 1.748829 1.193002 0
3.7420003 1.7444133 1.1937109 0
3.7450004 1.7399867 1.1944197 0
3.7480001 1.7355492 1.1951287 0
3.7510002 1.731101 1.1958375 0
3.7540002 1.726642 1.1965464 0
3.7570002 1.7221721 1.1972554 0
3.7600002 1.7176914 1.1979642 0
3.7630002 1.7132 1.1986731 0
3.7660003 1.7086978 1.1993821 0
3.7700002 1.7047042 1.2003272 0
3.7730002 1.7001783 1.2010361 0
3.7760003 1.6956419 1.201745 0
3.7790003 1.6910944 1.202454 0
3.7820003 1.6865362 1.2031628 0
3.7850003 1.6819671 1.2038717 0
3.7880003 1.6773874 1.2045807 0
3.7920003 1.6733034 1.2055258 0
3.7950003 1.6687001 1.2062347 0
3.7980003 1.664086 1.2069436 0
3.8010004 1.659461 1.2076526 0
3.6720002 1.8426594 1.1712679 0
3.6750002 1.8384835 1.1719713 0
3.6780002 1.8342969 1.1726749 0
3.6810002 1.8300995 1.1733783 0
3.6840003 1.8258911 1.1740818 0
3.6870003 1.8216721 1.1747854 0
3.6900003 1.8174422 1.1754888 0
3.6930003 1.8132014 1.1761923 0
3.6960003 1.8089498 1.1768959 0
3.6990004 1.8046875 1.1775993 0
3.7020001 1.8004141 1.1783028 0
3.7050002 1.7961301 1.1790062 0
3.7080002 1.7918352 1.1797097 0
3.7110002 1.7875296 1.1804132 0
3.7140002 1.783213 1.1811167 0
3.7170002 1.7788857 1.1818202 0
3.7200003 1.7745476 1.1825237 0
3.7230003 1.7701987 1.1832272 0
3.7260003 1.7658389 1.1839306 0
3.7290003 1.7614682 1.1846341 0
3.7320004 1.7570868 1.1853377 0
3.7350004 1.7526945 1.1860411 0
3.7390003 1.748829 1.1869791 0
3.7420003 1.7444133 1.1876825 0
3.7450004 1.7399867 1.1883861 0
3.7480001 1.7355492 1.1890895 0
3.7510002 1.731101 1.189793 0
3.7540002 1.726642 1.1904964 0
3.7570002 1.7221721 1.1911999 0
3.7600002 1.7176914 1.1919035 0
3.7630002 1.7132 1.1926069 0
3.7660003 1.7086978 1.1933104 0
3.7700002 1.7047042 1.1942483 0
3.7730002 1.7001783 1.1949519 0
3.7760003 1.6956419 1.1956553 0
3.7790003 1.6910944 1.1963588 0
3.7820003 1.6865362 1.1970624 0
3.7850003 1.6819671 1.1977658 0
3.7880003 1.6773874 1.1984693 0
3.7920003 1.6733034 1.1994073 0
3.7950003 1.6687001 1.2001108 0
3.7980003 1.664086 1.2008142 0
3.8010004 1.659461 1.2015178 0
3.6720002 1.8426594 1.1653658 0
3.6750002 1.8384835 1.1660639 0
3.6780002 1.8342969 1.166762 0
3.6810002 1.8300995 1.1674601 0
3.6840003 1.8258911 1.1681581 0
3.6870003 1.8216721 1.1688561 0
3.6900003 1.8174422 1.1695542 0
3.6930003 1.8132014 1.1702523 0
3.6960003 1.8089498 1.1709504 0
3.6990004 1.8046875 1.1716485 0
3.7020001 1.8004141 1.1723466 0
3.7050002 1.7961301 1.1730446 0
3.7080002 1.7918352 1.1737428 0
3.7110002 1.7875296 1.1744407 0
3.7140002 1.783213 1.1751388 0
3.7170002 1.7788857 1.1758369 0
3.7200003 1.7745476 1.176535 0
3.7230003 1.7701987 1.1772331 0
3.7260003 1.7658389 1.1779312 0
3.7290003 1.7614682 1.1786293 0
3.7320004 1.7570868 1.1793274 0
3.7350004 1.7526945 1.1800253 0
3.7380002 1.7482913 1.1807234 0
3.7420003 1.7444133 1.1816542 0
3.7450004 1.7399867 1.1823523 0
3.7480001 1.7355492 1.1830503 0
3.7510002 1.731101 1.1837485 0
3.7540002 1.726642 1.1844465 0
3.7570002 1.7221721 1.1851445 0
3.7600002 1.7176914 1.1858426 0
3.7630002 1.7132 1.1865407 0
3.7660003 1.7086978 1.1872388 0
3.7700002 1.7047042 1.1881696 0
3.7730002 1.7001783 1.1888676 0
3.7760003 1.6956419 1.1895658 0
3.7790003 1.6910944 1.1902637 0
3.7820003 1.6865362 1.1909618 0
3.7850003 1.6819671 1.1916599 0
3.7880003 1.6773874 1.192358 0
3.7920003 1.6733034 1.1932888 0
3.7950003 1.6687001 1.1939869 0
3.7980003 1.664086 1.194685 0
3.8010004 1.659461 1.1953831 0
3.6720002 1.8426594 1.1594638 0
3.6750002 1.8384835 1.1601564 0
3.6780002 1.8342969 1.1608491 0
3.6810002 1.8300995 1.1615417 0
3.6840003 1.8258911 1.1622344 0
3.6870003 1.8216721 1.162927 0
3.6900003 1.8174422 1.1636198 0
3.6930003 1.8132014 1.1643124 0
3.6960003 1.8089498 1.1650051 0
3.6990004 1.8046875 1.1656977 0
3.7020001 1.8004141 1.1663904 0
3.7050002 1.7961301 1.167083 0
3.7080002 1.7918352 1.1677758 0
3.7110002 1.7875296 1.1684684 0
3.7140002 1.783213 1.1691611 0
3.7170002 1.7788857 1.1698537 0
3.7200003 1.7745476 1.1705464 0
3.7230003 1.7701987 1.171239 0
3.7260003 1.7658389 1.1719317 0
3.7290003 1.7614682 1.1726243 0
3.7320004 1.7570868 1.1733171 0
3.7350004 1.7526945 1.1740097 0
3.7380002 1.7482913 1.1747023 0
3.7420003 1.7444133 1.1756259 0
3.7450004 1.7399867 1.1763185 0
3.7480001 1.7355492 1.1770111 0
3.7510002 1.731101 1.1777039 0
3.7540002 1.726642 1.1783965 0
3.7570002 1.7221721 1.1790892 0
3.7600002 1.7176914 1.1797818 0
3.7630002 1.7132 1.1804745 0
3.7660003 1.7086978 1.1811672 0
3.7700002 1.7047042 1.1820908 0
3.7730002 1.7001783 1.1827834 0
3.7760003 1.6956419 1.1834761 0
3.7790003 1.6910944 1.1841687 0
3.7820003 1.6865362 1.1848614 0
3.7850003 1.6819671 1.185554 0
3.7880003 1.6773874 1.1862468 0
3.7920003 1.6733034 1.1871703 0
3.7950003 1.6687001 1.187863 0
3.7980003 1.664086 1.1885556 0
3.8010004 1.659461 1.1892483 0
3.6720002 1.8426594 1.1535617 0
3.6750002 1.8384835 1.154249 0
3.6780002 1.8342969 1.1549362 0
3.6810002 1.8300995 1.1556234 0
3.6840003 1.8258911 1.1563107 0
3.6870003 1.8216721 1.156998 0
3.6900003 1.8174422 1.1576852 0
3.6930003 1.8132014 1.1583725 0
3.6960003 1.8089498 1.1590598 0
3.6990004 1.8046875 1.159747 0
3.7020001 1.8004141 1.1604341 0
3.7050002 1.7961301 1.1611215 0
3.7080002 1.7918352 1.1618087 0
3.7110002 1.7875296 1.162496 0
3.7140002 1.783213 1.1631832 0
3.7170002 1.7788857 1.1638705 0
3.7200003 1.7745476 1.1645577 0
3.7230003 1.7701987 1.1652449 0
3.7260003 1.7658389 1.1659323 0
3.7290003 1.7614682 1.1666194 0
3.7320004 1.7570868 1.1673068 0
3.7350004 1.7526945 1.167994 0
3.7380002 1.7482913 1.1686811 0
3.7420003 1.7444133 1.1695975 0
3.7450004 1.7399867 1.1702849 0
3.7480001 1.7355492 1.170972 0
3.7510002 1.731101 1.1716592 0
3.7540002 1.726642 1.1723466 0
3.7570002 1.7221721 1.1730338 0
3.7600002 1.7176914 1.1737211 0
3.7630002 1.7132 1.1744083 0
3.7660003 1.7086978 1.1750956 0
3.7700002 1.7047042 1.1760119 0
3.7730002 1.7001783 1.1766992 0
3.7760003 1.6956419 1.1773864 0
3.7790003 1.6910944 1.1780736 0
3.7820003 1.6865362 1.1787609 0
3.7850003 1.6819671 1.1794481 0
3.7880003 1.6773874 1.1801354 0
3.7920003 1.6733034 1.1810517 0
3.7950003 1.6687001 1.181739 0
3.7980003 1.664086 1.1824262 0
3.8010004 1.659461 1.1831135 0
3.6720002 1.8426594 1.1476597 0
3.6750002 1.8384835 1.1483415 0
3.6780002 1.8342969 1.1490233 0
3.6810002 1.8300995 1.1497052 0
3.6840003 1.8258911 1.150387 0
3.6870003 1.8216721 1.1510688 0
3.6900003 1.8174422 1.1517507 0
3.6930003 1.8132014 1.1524326 0
3.6960003 1.8089498 1.1531143 0
3.6990004 1.8046875 1.1537962 0
3.7020001 1.8004141 1.154478 0
3.7050002 1.7961301 1.1551598 0
3.7080002 1.7918352 1.1558417 0
3.7110002 1.7875296 1.1565236 0
3.7140002 1.783213 1.1572055 0
3.7170002 1.7788857 1.1578872 0
3.7200003 1.7745476 1.1585691 0
3.7230003 1.7701987 1.159251 0
3.7260003 1.7658389 1.1599327 0
3.7290003 1.7614682 1.1606146 0
3.7320004 1.7570868 1.1612965 0
3.7350004 1.7526945 1.1619782 0
3.7380002 1.7482913 1.1626601 0
3.7420003 1.7444133 1.1635692 0
3.7450004 1.7399867 1.1642511 0
3.7480001 1.7355492 1.1649328 0
3.7510002 1.731101 1.1656147 0
3.7540002 1.726642 1.1662966 0
3.7570002 1.7221721 1.1669785 0
3.7600002 1.7176914 1.1676602 0
3.7630002 1.7132 1.1683421 0
3.7660003 1.7086978 1.169024 0
3.7700002 1.7047042 1.1699331 0
3.7730002 1.7001783 1.170615 0
3.7760003 1.6956419 1.1712967 0
3.7790003 1.6910944 1.1719786 0
3.7820003 1.6865362 1.1726605 0
3.7850003 1.6819671 1.1733423 0
3.7880003 1.6773874 1.1740241 0
3.7920003 1.6733034 1.1749332 0
3.7950003 1.6687001 1.1756151 0
3.7980003 1.664086 1.1762969 0
3.8010004 1.659461 1.1769787 0
3.6720002 1.8426594 1.1417575 0
3.6750002 1.8384835 1.142434 0
3.6780002 1.8342969 1.1431104 0
3.6810002 1.8300995 1.1437869 0
3.6840003 1.8258911 1.1444633 0
3.6870003 1.8216721 1.1451397 0
3.6900003 1.8174422 1.1458162 0
3.6930003 1.8132014 1.1464926 0
3.6960003 1.8089498 1.147169 0
3.6990004 1.8046875 1.1478455 0
3.7020001 1.8004141 1.1485218 0
3.7050002 1.7961301 1.1491983 0
3.7080002 1.7918352 1.1498747 0
3.7110002 1.7875296 1.1505511 0
3.7140002 1.783213 1.1512276 0
3.7170002 1.7788857 1.151904 0
3.7200003 1.7745476 1.1525805 0
3.7230003 1.7701987 1.1532569 0
3.7260003 1.7658389 1.1539333 0
3.7290003 1.7614682 1.1546097 0
3.7320004 1.7570868 1.1552862 0
3.7350004 1.7526945 1.1559626 0
3.7380002 1.7482913 1.156639 0
3.7420003 1.7444133 1.1575409 0
3.7450004 1.7399867 1.1582173 0
3.7480001 1.7355492 1.1588937 0
3.7510002 1.731101 1.1595701 0
3.7540002 1.726642 1.1602466 0
3.7570002 1.7221721 1.160923 0
3.7600002 1.7176914 1.1615995 0
3.7630002 1.7132 1.1622759 0
3.7660003 1.7086978 1.1629523 0
3.7700002 1.7047042 1.1638542 0
3.7730002 1.7001783 1.1645306 0
3.7760003 1.6956419 1.1652071 0
3.7790003 1.6910944 1.1658835 0
3.7820003 1.6865362 1.1665599 0
3.7850003 1.6819671 1.1672364 0
3.7880003 1.6773874 1.1679128 0
3.7920003 1.6733034 1.1688148 0
3.7950003 1.6687001 1.1694912 0
3.7980003 1.664086 1.1701676 0
3.8010004 1.659461 1.170844 0
3.6720002 1.8426594 1.1358554 0
3.6750002 1.8384835 1.1365265 0
3.6780002 1.8342969 1.1371975 0
3.6810002 1.8300995 1.1378685 0
3.6840003 1.8258911 1.1385397 0
3.6870003 1.8216721 1.1392106 0
3.6900003 1.8174422 1.1398816 0
3.6930003 1.8132014 1.1405526 0
3.6960003 1.8089498 1.1412237 0
3.6990004 1.8046875 1.1418947 0
3.7020001 1.8004141 1.1425656 0
3.7050002 1.7961301 1.1432366 0
3.7080002 1.7918352 1.1439077 0
3.7110002 1.7875296 1.1445787 0
3.7140002 1.783213 1.1452497 0
3.7170002 1.7788857 1.1459208 0
3.7200003 1.7745476 1.1465918 0
3.7230003 1.7701987 1.1472628 0
3.7260003 1.7658389 1.1479338 0
3.7290003 1.7614682 1.1486049 0
3.7320004 1.7570868 1.1492759 0
3.7350004 1.7526945 1.1499469 0
3.7380002 1.7482913 1.1506178 0
3.7420003 1.7444133 1.1515126 0
3.7450004 1.7399867 1.1521837 0
3.7480001 1.7355492 1.1528546 0
3.7510002 1.731101 1.1535256 0
3.7540002 1.726642 1.1541966 0
3.7570002 1.7221721 1.1548676 0
3.7600002 1.7176914 1.1555387 0
3.7630002 1.7132 1.1562097 0
3.7660003 1.7086978 1.1568807 0
3.7690003 1.7041847 1.1575518 0
3.7730002 1.7001783 1.1584464 0
3.7760003 1.6956419 1.1591175 0
3.7790003 1.6910944 1.1597885 0
3.7820003 1.6865362 1.1604594 0
3.7850003 1.6819671 1.1611304 0
3.7880003 1.6773874 1.1618015 0
3.7920003 1.6733034 1.1626962 0
3.7950003 1.6687001 1.1633673 0
