# .PCD v0.7 - Point Cloud Data file format
VERSION 0.7
FIELDS x y z intensity
SIZE 4 4 4 4
TYPE F F F F
COUNT 1 1 1 1
WIDTH 1387
HEIGHT 1
VIEWPOINT 0 0 0 1 0 0 0
POINTS 1387
DATA ascii
4.0710001 -0.21154451 0.85428107 0
4.0650001 -0.2178849 0.85354507 0
4.059 -0.22420363 0.85280919 0
4.053 -0.23050073 0.85207319 0
4.0469999 -0.23677617 0.85133719 0
4.0410004 -0.24302998 0.85060132 0
4.0350003 -0.24926214 0.84986532 0
4.0290003 -0.25547263 0.84912938 0
4.0230002 -0.2616615 0.84839344 0
4.0170002 -0.26782873 0.84765744 0
4.0110002 -0.2739743 0.8469215 0
4.0050001 -0.28009823 0.84618556 0
3.9990003 -0.28620052 0.84544957 0
3.9930003 -0.29228115 0.84471369 0
3.9870002 -0.29834014 0.84397769 0
3.9810002 -0.3043775 0.84324175 0
3.9760003 -0.31046715 0.84262848 0
3.9700003 -0.31646299 0.84189248 0
3.9640002 -0.3224372 0.84115654 0
3.9580002 -0.32838979 0.8404206 0
3.9520004 -0.33432072 0.83968467 0
3.9470003 -0.34031296 0.83907139 0
3.9410002 -0.34620237 0.83833539 0
3.9350002 -0.35207018 0.8375994 0
3.9300003 -0.35800472 0.83698612 0
3.9240003 -0.36383101 0.83625019 0
3.9180002 -0.36963564 0.83551425 0
3.9130003 -0.37551248 0.83490098 0
3.9070003 -0.38127565 0.83416498 0
3.9020002 -0.38711455 0.83355165 0
3.8960001 -0.39283624 0.83281571 0
3.8910003 -0.39863729 0.83220243 0
3.8850002 -0.40431747 0.8314665 0
3.8800004 -0.41008067 0.83085322 0
3.8740003 -0.41571939 0.83011723 0
3.8750002 -0.42209402 0.83023989 0
3.8820002 -0.42913246 0.8310985 0
3.8900003 -0.43630806 0.83207977 0
3.8970003 -0.4433988 0.83293843 0
4.0339999 -0.4655225 0.84974265 0
4.0290003 -0.47149131 0.84912938 0
4.0250001 -0.47756112 0.84863877 0
4.0210004 -0.48361653 0.84814811 0
4.0190001 -0.48990276 0.84790277 0
4.0180001 -0.4963063 0.84778011 0
4.0170002 -0.50270617 0.84765744 0
4.0180001 -0.50935864 0.84778011 0
4.0190001 -0.5160147 0.84790277 0
4.0210004 -0.52280605 0.84814811 0
4.0250001 -0.52987158 0.84863877 0
4.0310001 -0.53722209 0.84937471 0
4.04 -0.5450055 0.85047865 0
4.0490003 -0.55282146 0.85158253 0
4.0550003 -0.56024772 0.85231853 0
4.1080003 -0.1730819 0.85213089 0
4.1020002 -0.17955396 0.8514058 0
4.0950003 -0.18596651 0.85055983 0
4.0890002 -0.19239347 0.84983468 0
4.0830002 -0.19879879 0.84910953 0
4.0770001 -0.20518248 0.84838444 0
4.0710001 -0.21154451 0.84765929 0
4.0650001 -0.2178849 0.84693414 0
4.059 -0.22420363 0.84620905 0
4.053 -0.23050073 0.8454839 0
4.0469999 -0.23677617 0.84475875 0
4.0410004 -0.24302998 0.8440336 0
4.0350003 -0.24926214 0.84330845 0
4.0290003 -0.25547263 0.84258336 0
4.0230002 -0.2616615 0.84185827 0
4.0170002 -0.26782873 0.84113312 0
4.0110002 -0.2739743 0.84040797 0
4.0050001 -0.28009823 0.83968282 0
3.9990003 -0.28620052 0.83895767 0
3.9930003 -0.29228115 0.83823258 0
3.9870002 -0.29834014 0.83750743 0
3.9810002 -0.3043775 0.83678234 0
3.9760003 -0.31046715 0.83617806 0
3.9700003 -0.31646299 0.83545291 0
3.9640002 -0.3224372 0.83472776 0
3.9580002 -0.32838979 0.83400261 0
3.9520004 -0.33432072 0.83327752 0
3.9470003 -0.34031296 0.83267325 0
3.9410002 -0.34620237 0.8319481 0
3.9350002 -0.35207018 0.83122295 0
3.9300003 -0.35800472 0.83061874 0
3.9240003 -0.36383101 0.82989359 0
3.9180002 -0.36963564 0.82916844 0
3.9130003 -0.37551248 0.82856417 0
3.9070003 -0.38127565 0.82783902 0
3.9020002 -0.38711455 0.82723475 0
3.8960001 -0.39283624 0.82650959 0
3.8910003 -0.39863729 0.82590532 0
3.8850002 -0.40431747 0.82518017 0
3.8800004 -0.41008067 0.82457596 0
3.8740003 -0.41571939 0.82385081 0
3.8750002 -0.42209402 0.82397163 0
3.8820002 -0.42913246 0.82481766 0
3.8900003 -0.43630806 0.8257845 0
3.8970003 -0.4433988 0.82663047 0
4.0339999 -0.4655225 0.84318757 0
4.0290003 -0.47149131 0.84258336 0
4.0250001 -0.47756112 0.84209991 0
4.0210004 -0.48361653 0.84161651 0
4.0190001 -0.48990276 0.84137481 0
4.0180001 -0.4963063 0.841254 0
4.0170002 -0.50270617 0.84113312 0
4.0180001 -0.50935864 0.841254 0
4.0190001 -0.5160147 0.84137481 0
4.0210004 -0.52280605 0.84161651 0
4.0250001 -0.52987158 0.84209991 0
4.0310001 -0.53722209 0.84282506 0
4.04 -0.5450055 0.84391272 0
4.0500002 -0.55296034 0.84512126 0
4.0550003 -0.56024772 0.8457256 0
4.0630002 -0.56798065 0.84669244 0
4.1270003 -0.15356469 0.84770441 0
4.1200004 -0.16007283 0.84687102 0
4.1140003 -0.16658819 0.84615672 0
4.1080003 -0.1730819 0.84544241 0
4.1020002 -0.17955396 0.84472811 0
4.0950003 -0.18596651 0.84389472 0
4.0890002 -0.19239347 0.84318042 0
4.0830002 -0.19879879 0.84246612 0
4.0770001 -0.20518248 0.84175181 0
4.0710001 -0.21154451 0.84103751 0
4.0650001 -0.2178849 0.84032321 0
4.059 -0.22420363 0.83960891 0
4.053 -0.23050073 0.83889461 0
4.0469999 -0.23677617 0.8381803 0
4.0410004 -0.24302998 0.837466 0
4.0350003 -0.24926214 0.8367517 0
4.0290003 -0.25547263 0.83603734 0
4.0230002 -0.2616615 0.83532304 0
4.0170002 -0.26782873 0.83460867 0
4.0110002 -0.2739743 0.83389437 0
4.0050001 -0.28009823 0.83318013 0
3.9990003 -0.28620052 0.83246577 0
3.9930003 -0.29228115 0.83175147 0
3.9870002 -0.29834014 0.83103716 0
3.9810002 -0.3043775 0.83032286 0
3.9760003 -0.31046715 0.82972765 0
3.9700003 -0.31646299 0.82901335 0
3.9640002 -0.3224372 0.82829905 0
3.9580002 -0.32838979 0.82758468 0
3.9520004 -0.33432072 0.82687044 0
3.9470003 -0.34031296 0.82627511 0
3.9410002 -0.34620237 0.82556081 0
3.9350002 -0.35207018 0.82484651 0
3.9300003 -0.35800472 0.82425129 0
3.9240003 -0.36383101 0.82353699 0
3.9180002 -0.36963564 0.82282263 0
3.9130003 -0.37551248 0.82222736 0
3.9070003 -0.38127565 0.82151306 0
3.9020002 -0.38711455 0.82091784 0
3.8960001 -0.39283624 0.82020354 0
3.8910003 -0.39863729 0.81960821 0
3.8850002 -0.40431747 0.81889391 0
3.8800004 -0.41008067 0.8182987 0
3.8740003 -0.41571939 0.8175844 0
3.8750002 -0.42209402 0.81770343 0
3.8820002 -0.42913246 0.81853676 0
3.8900003 -0.43630806 0.81948924 0
3.8970003 -0.4433988 0.82032257 0
4.0339999 -0.4655225 0.83663261 0
4.0290003 -0.47149131 0.83603734 0
4.0250001 -0.47756112 0.83556116 0
4.0210004 -0.48361653 0.83508492 0
4.0190001 -0.48990276 0.83484685 0
4.0180001 -0.4963063 0.83472776 0
4.0170002 -0.50270617 0.83460867 0
4.0180001 -0.50935864 0.83472776 0
4.0190001 -0.5160147 0.83484685 0
4.0210004 -0.52280605 0.83508492 0
4.0250001 -0.52987158 0.83556116 0
4.0310001 -0.53722209 0.83627546 0
4.04 -0.5450055 0.83734691 0
4.0510001 -0.55309922 0.83865649 0
4.0560002 -0.56038839 0.83925176 0
4.0620003 -0.56783807 0.83996606 0
4.1330004 -0.14700425 0.84168506 0
4.1270003 -0.15356469 0.8409816 0
4.1200004 -0.16007283 0.84016085 0
4.1140003 -0.16658819 0.83945739 0
4.1080003 -0.1730819 0.83875388 0
4.1020002 -0.17955396 0.83805037 0
4.0950003 -0.18596651 0.83722967 0
4.0890002 -0.19239347 0.83652616 0
4.0830002 -0.19879879 0.8358227 0
4.0770001 -0.20518248 0.83511925 0
4.0710001 -0.21154451 0.83441573 0
4.0650001 -0.2178849 0.83371222 0
4.059 -0.22420363 0.83300877 0
4.053 -0.23050073 0.83230525 0
4.0469999 -0.23677617 0.83160174 0
4.0410004 -0.24302998 0.83089828 0
4.0350003 -0.24926214 0.83019483 0
4.0290003 -0.25547263 0.82949132 0
4.0230002 -0.2616615 0.8287878 0
4.0170002 -0.26782873 0.82808435 0
4.0110002 -0.2739743 0.82738084 0
4.0050001 -0.28009823 0.82667738 0
3.9990003 -0.28620052 0.82597387 0
3.9930003 -0.29228115 0.82527041 0
3.9870002 -0.29834014 0.82456696 0
3.9810002 -0.3043775 0.82386339 0
3.9760003 -0.31046715 0.82327724 0
3.9700003 -0.31646299 0.82257372 0
3.9640002 -0.3224372 0.82187021 0
3.9580002 -0.32838979 0.82116675 0
3.9520004 -0.33432072 0.8204633 0
3.9470003 -0.34031296 0.81987703 0
3.9410002 -0.34620237 0.81917357 0
3.9350002 -0.35207018 0.81847006 0
3.9300003 -0.35800472 0.81788385 0
3.9240003 -0.36383101 0.81718034 0
3.9180002 -0.36963564 0.81647682 0
3.9130003 -0.37551248 0.81589061 0
3.9070003 -0.38127565 0.8151871 0
3.9020002 -0.38711455 0.81460088 0
3.8960001 -0.39283624 0.81389737 0
3.8910003 -0.39863729 0.81331116 0
3.8850002 -0.40431747 0.81260765 0
3.8800004 -0.41008067 0.81202143 0
3.8740003 -0.41571939 0.81131792 0
3.8750002 -0.42209402 0.81143522 0
3.8820002 -0.42913246 0.81225592 0
3.8900003 -0.43630806 0.81319392 0
3.8970003 -0.4433988 0.81401467 0
4.0339999 -0.4655225 0.83007753 0
4.0290003 -0.47149131 0.82949132 0
4.0250001 -0.47756112 0.82902235 0
4.0210004 -0.48361653 0.82855332 0
4.0190001 -0.48990276 0.82831883 0
4.0180001 -0.4963063 0.82820159 0
4.0170002 -0.50270617 0.82808435 0
4.0180001 -0.50935864 0.82820159 0
4.0190001 -0.5160147 0.82831883 0
4.0210004 -0.52280605 0.82855332 0
4.0250001 -0.52987158 0.82902235 0
4.0310001 -0.53722209 0.82972586 0
4.04 -0.5450055 0.83078104 0
4.052 -0.55323809 0.83218801 0
4.0570002 -0.56052905 0.83277422 0
4.0630002 -0.56798065 0.83347774 0
4.1330004 -0.14700425 0.83495146 0
4.1270003 -0.15356469 0.83425879 0
4.1200004 -0.16007283 0.83345068 0
4.1140003 -0.16658819 0.83275801 0
4.1080003 -0.1730819 0.83206534 0
4.1020002 -0.17955396 0.83137268 0
4.0950003 -0.18596651 0.83056462 0
4.0890002 -0.19239347 0.82987189 0
4.0830002 -0.19879879 0.82917929 0
4.0770001 -0.20518248 0.82848662 0
4.0710001 -0.21154451 0.82779396 0
4.0650001 -0.2178849 0.82710129 0
4.059 -0.22420363 0.82640862 0
4.053 -0.23050073 0.8257159 0
4.0469999 -0.23677617 0.82502329 0
4.0410004 -0.24302998 0.82433063 0
4.0350003 -0.24926214 0.82363796 0
4.0290003 -0.25547263 0.8229453 0
4.0230002 -0.2616615 0.82225263 0
4.0170002 -0.26782873 0.82155997 0
4.0110002 -0.2739743 0.8208673 0
4.0050001 -0.28009823 0.82017469 0
3.9990003 -0.28620052 0.81948197 0
3.9930003 -0.29228115 0.81878936 0
3.9870002 -0.29834014 0.81809664 0
3.9810002 -0.3043775 0.81740403 0
3.9760003 -0.31046715 0.81682682 0
3.9700003 -0.31646299 0.8161341 0
3.9640002 -0.3224372 0.81544149 0
3.9580002 -0.32838979 0.81474876 0
3.9520004 -0.33432072 0.81405616 0
3.9470003 -0.34031296 0.81347895 0
3.9410002 -0.34620237 0.81278622 0
3.9350002 -0.35207018 0.81209362 0
3.9300003 -0.35800472 0.8115164 0
3.9240003 -0.36383101 0.81082368 0
3.9180002 -0.36963564 0.81013107 0
3.9130003 -0.37551248 0.80955386 0
3.9070003 -0.38127565 0.80886114 0
3.9020002 -0.38711455 0.80828393 0
3.8960001 -0.39283624 0.80759126 0
3.8910003 -0.39863729 0.80701411 0
3.8850002 -0.40431747 0.80632138 0
3.8800004 -0.41008067 0.80574417 0
3.8740003 -0.41571939 0.80505157 0
3.8750002 -0.42209402 0.80516696 0
3.8820002 -0.42913246 0.80597508 0
3.8900003 -0.43630806 0.80689859 0
3.8970003 -0.4433988 0.80770671 0
4.0339999 -0.4655225 0.82352251 0
4.0290003 -0.47149131 0.8229453 0
4.0250001 -0.47756112 0.82248354 0
4.0210004 -0.48361653 0.82202172 0
4.0190001 -0.48990276 0.82179087 0
4.0180001 -0.4963063 0.82167542 0
4.0170002 -0.50270617 0.82155997 0
4.0180001 -0.50935864 0.82167542 0
4.0190001 -0.5160147 0.82179087 0
4.0210004 -0.52280605 0.82202172 0
4.0250001 -0.52987158 0.82248354 0
4.0310001 -0.53722209 0.82317621 0
4.04 -0.5450055 0.82421517 0
4.0540004 -0.55351591 0.82583141 0
4.0580001 -0.56066978 0.82629317 0
4.0630002 -0.56798065 0.82687038 0
4.0710001 -0.57574242 0.82779396 0
4.1389999 -0.14042214 0.82889962 0
4.1330004 -0.14700425 0.82821786 0
4.1270003 -0.15356469 0.82753599 0
4.1200004 -0.16007283 0.8267405 0
4.1140003 -0.16658819 0.82605863 0
4.1080003 -0.1730819 0.82537681 0
4.1020002 -0.17955396 0.82469499 0
4.0950003 -0.18596651 0.82389951 0
4.0890002 -0.19239347 0.82321769 0
4.0830002 -0.19879879 0.82253581 0
4.0770001 -0.20518248 0.821854 0
4.0710001 -0.21154451 0.82117212 0
4.0650001 -0.2178849 0.82049036 0
4.059 -0.22420363 0.81980848 0
4.053 -0.23050073 0.81912661 0
4.0469999 -0.23677617 0.81844479 0
4.0410004 -0.24302998 0.81776297 0
4.0350003 -0.24926214 0.81708109 0
4.0290003 -0.25547263 0.81639928 0
4.0230002 -0.2616615 0.81571746 0
4.0170002 -0.26782873 0.81503558 0
4.0110002 -0.2739743 0.81435376 0
4.0050001 -0.28009823 0.81367195 0
3.9990003 -0.28620052 0.81299007 0
3.9930003 -0.29228115 0.81230825 0
3.9870002 -0.29834014 0.81162637 0
3.9810002 -0.3043775 0.81094456 0
3.9760003 -0.31046715 0.81037641 0
3.9700003 -0.31646299 0.80969453 0
3.9640002 -0.3224372 0.80901265 0
3.9580002 -0.32838979 0.80833083 0
3.9520004 -0.33432072 0.80764902 0
3.9470003 -0.34031296 0.80708081 0
3.9410002 -0.34620237 0.80639899 0
3.9350002 -0.35207018 0.80571711 0
3.9300003 -0.35800472 0.80514896 0
3.9240003 -0.36383101 0.80446708 0
3.9180002 -0.36963564 0.8037852 0
3.9130003 -0.37551248 0.80321705 0
3.9070003 -0.38127565 0.80253518 0
3.9020002 -0.38711455 0.80196702 0
3.8960001 -0.39283624 0.80128515 0
3.8910003 -0.39863729 0.800717 0
3.8850002 -0.40431747 0.80003512 0
3.8800004 -0.41008067 0.79946697 0
3.8740003 -0.41571939 0.79878509 0
3.8750002 -0.42209402 0.7988987 0
3.8820002 -0.42913246 0.79969418 0
3.8900003 -0.43630806 0.80060333 0
3.8970003 -0.4433988 0.80139881 0
4.0339999 -0.4655225 0.81696749 0
4.0290003 -0.47149131 0.81639928 0
4.0250001 -0.47756112 0.81594473 0
4.0210004 -0.48361653 0.81549013 0
4.0190001 -0.48990276 0.81526291 0
4.0180001 -0.4963063 0.81514925 0
4.0170002 -0.50270617 0.81503558 0
4.0180001 -0.50935864 0.81514925 0
4.0190001 -0.5160147 0.81526291 0
4.0210004 -0.52280605 0.81549013 0
4.0250001 -0.52987158 0.81594473 0
4.0310001 -0.53722209 0.81662655 0
4.04 -0.5450055 0.8176493 0
4.0560002 -0.55379367 0.81946754 0
4.059 -0.56081045 0.81980848 0
4.0640001 -0.56812316 0.82037669 0
4.0710001 -0.57574242 0.82117212 0
4.1389999 -0.14042214 0.82215524 0
4.1330004 -0.14700425 0.82148421 0
4.1270003 -0.15356469 0.82081318 0
4.1200004 -0.16007283 0.82003033 0
4.1140003 -0.16658819 0.8193593 0
4.1080003 -0.1730819 0.81868827 0
4.1020002 -0.17955396 0.81801724 0
4.0950003 -0.18596651 0.81723446 0
4.0890002 -0.19239347 0.81656337 0
4.0830002 -0.19879879 0.8158924 0
4.0770001 -0.20518248 0.81522143 0
4.0710001 -0.21154451 0.8145504 0
4.0650001 -0.2178849 0.81387937 0
4.059 -0.22420363 0.81320834 0
4.053 -0.23050073 0.81253731 0
4.0469999 -0.23677617 0.81186628 0
4.0410004 -0.24302998 0.81119531 0
4.0350003 -0.24926214 0.81052428 0
4.0290003 -0.25547263 0.80985326 0
4.0230002 -0.2616615 0.80918223 0
4.0170002 -0.26782873 0.80851126 0
4.0110002 -0.2739743 0.80784023 0
4.0050001 -0.28009823 0.8071692 0
3.9990003 -0.28620052 0.80649817 0
3.9930003 -0.29228115 0.80582714 0
3.9870002 -0.29834014 0.80515611 0
3.9810002 -0.3043775 0.80448508 0
3.9760003 -0.31046715 0.80392593 0
3.9700003 -0.31646299 0.80325496 0
3.9640002 -0.3224372 0.80258393 0
3.9580002 -0.32838979 0.8019129 0
3.9520004 -0.33432072 0.80124187 0
3.9470003 -0.34031296 0.80068272 0
3.9410002 -0.34620237 0.80001163 0
3.9350002 -0.35207018 0.79934061 0
3.9300003 -0.35800472 0.79878151 0
3.9240003 -0.36383101 0.79811049 0
3.9180002 -0.36963564 0.79743946 0
3.9130003 -0.37551248 0.79688025 0
3.9070003 -0.38127565 0.79620922 0
3.9020002 -0.38711455 0.79565006 0
3.8960001 -0.39283624 0.79497904 0
3.8910003 -0.39863729 0.79441988 0
3.8850002 -0.40431747 0.79374886 0
3.8800004 -0.41008067 0.79318964 0
3.8740003 -0.41571939 0.79251868 0
3.8750002 -0.42209402 0.79263049 0
3.8820002 -0.42913246 0.79341334 0
3.8900003 -0.43630806 0.79430807 0
3.8970003 -0.4433988 0.79509091 0
4.0339999 -0.4655225 0.81041241 0
4.0290003 -0.47149131 0.80985326 0
4.0250001 -0.47756112 0.80940592 0
4.0210004 -0.48361653 0.80895859 0
4.0190001 -0.48990276 0.80873489 0
4.0180001 -0.4963063 0.80862308 0
4.0170002 -0.50270617 0.80851126 0
4.0180001 -0.50935864 0.80862308 0
4.0190001 -0.5160147 0.80873489 0
4.0210004 -0.52280605 0.80895859 0
4.0250001 -0.52987158 0.80940592 0
4.0310001 -0.53722209 0.81007695 0
4.04 -0.5450055 0.81108344 0
4.0570002 -0.55393255 0.8129847 0
4.0599999 -0.56095117 0.81332016 0
4.0650001 -0.56826562 0.81387937 0
4.0710001 -0.57574242 0.8145504 0
4.1389999 -0.14042214 0.81541079 0
4.1330004 -0.14700425 0.81475061 0
4.1270003 -0.15356469 0.81409037 0
4.1200004 -0.16007283 0.81332016 0
4.1140003 -0.16658819 0.81265998 0
4.1080003 -0.1730819 0.8119998 0
4.1020002 -0.17955396 0.81133962 0
4.0950003 -0.18596651 0.81056935 0
4.0890002 -0.19239347 0.80990916 0
4.0830002 -0.19879879 0.80924898 0
4.0770001 -0.20518248 0.8085888 0
4.0710001 -0.21154451 0.80792856 0
4.0650001 -0.2178849 0.80726838 0
4.059 -0.22420363 0.8066082 0
4.053 -0.23050073 0.80594802 0
4.0469999 -0.23677617 0.80528784 0
4.0410004 -0.24302998 0.80462766 0
4.0350003 -0.24926214 0.80396748 0
4.0290003 -0.25547263 0.80330729 0
4.0230002 -0.2616615 0.80264699 0
4.0170002 -0.26782873 0.80198681 0
4.0110002 -0.2739743 0.80132663 0
4.0050001 -0.28009823 0.80066645 0
3.9990003 -0.28620052 0.80000627 0
3.9930003 -0.29228115 0.79934609 0
3.9870002 -0.29834014 0.79868591 0
3.9810002 -0.3043775 0.79802573 0
3.9760003 -0.31046715 0.79747558 0
3.9700003 -0.31646299 0.79681534 0
3.9640002 -0.3224372 0.7961551 0
3.9580002 -0.32838979 0.79549491 0
3.9520004 -0.33432072 0.79483473 0
3.9470003 -0.34031296 0.79428458 0
3.9410002 -0.34620237 0.7936244 0
3.9350002 -0.35207018 0.79296422 0
3.9300003 -0.35800472 0.79241407 0
3.9240003 -0.36383101 0.79175383 0
3.9180002 -0.36963564 0.79109365 0
3.9130003 -0.37551248 0.7905435 0
3.9070003 -0.38127565 0.78988332 0
3.9020002 -0.38711455 0.78933311 0
3.8960001 -0.39283624 0.78867292 0
3.8910003 -0.39863729 0.78812277 0
3.8850002 -0.40431747 0.78746259 0
3.8800004 -0.41008067 0.78691244 0
3.8740003 -0.41571939 0.78625226 0
3.8750002 -0.42209402 0.78636229 0
3.8820002 -0.42913246 0.7871325 0
3.8900003 -0.43630806 0.78801274 0
3.8970003 -0.4433988 0.78878295 0
4.0339999 -0.4655225 0.80385745 0
4.0290003 -0.47149131 0.80330729 0
4.0250001 -0.47756112 0.80286711 0
4.0210004 -0.48361653 0.80242699 0
4.0190001 -0.48990276 0.80220693 0
4.0180001 -0.4963063 0.8020969 0
4.0170002 -0.50270617 0.80198681 0
4.0180001 -0.50935864 0.8020969 0
4.0190001 -0.5160147 0.80220693 0
4.0210004 -0.52280605 0.80242699 0
4.0250001 -0.52987158 0.80286711 0
4.0310001 -0.53722209 0.8035273 0
4.04 -0.5450055 0.80451763 0
4.059 -0.55421036 0.8066082 0
4.0620003 -0.56123257 0.80693829 0
4.066 -0.56840813 0.80737841 0
4.0710001 -0.57574242 0.80792856 0
4.079 -0.58353305 0.8088088 0
4.1389999 -0.14042214 0.80866635 0
4.1330004 -0.14700425 0.80801702 0
4.1270003 -0.15356469 0.80736762 0
4.1200004 -0.16007283 0.80660999 0
4.1140003 -0.16658819 0.80596066 0
4.1080003 -0.1730819 0.80531126 0
4.1020002 -0.17955396 0.80466187 0
4.0950003 -0.18596651 0.80390429 0
4.0890002 -0.19239347 0.80325496 0
4.0830002 -0.19879879 0.80260557 0
4.0770001 -0.20518248 0.80195618 0
4.0710001 -0.21154451 0.80130684 0
4.0650001 -0.2178849 0.80065745 0
4.059 -0.22420363 0.80000806 0
4.053 -0.23050073 0.79935873 0
4.0469999 -0.23677617 0.79870933 0
4.0410004 -0.24302998 0.79805994 0
4.0350003 -0.24926214 0.79741061 0
4.0290003 -0.25547263 0.79676121 0
4.0230002 -0.2616615 0.79611182 0
4.0170002 -0.26782873 0.79546249 0
4.0110002 -0.2739743 0.7948131 0
4.0050001 -0.28009823 0.79416376 0
3.9990003 -0.28620052 0.79351437 0
3.9930003 -0.29228115 0.79286504 0
3.9870002 -0.29834014 0.79221559 0
3.9810002 -0.3043775 0.79156625 0
3.9760003 -0.31046715 0.7910251 0
3.9700003 -0.31646299 0.79037571 0
3.9640002 -0.3224372 0.78972638 0
3.9580002 -0.32838979 0.78907698 0
3.9520004 -0.33432072 0.78842759 0
3.9470003 -0.34031296 0.7878865 0
3.9410002 -0.34620237 0.78723711 0
3.9350002 -0.35207018 0.78658772 0
3.9300003 -0.35800472 0.78604662 0
3.9240003 -0.36383101 0.78539717 0
3.9180002 -0.36963564 0.78474784 0
3.9130003 -0.37551248 0.78420675 0
3.9070003 -0.38127565 0.78355736 0
3.9020002 -0.38711455 0.7830162 0
3.8960001 -0.39283624 0.78236687 0
3.8910003 -0.39863729 0.78182566 0
3.8850002 -0.40431747 0.78117633 0
3.8800004 -0.41008067 0.78063518 0
3.8740003 -0.41571939 0.77998579 0
3.8750002 -0.42209402 0.78009403 0
3.8820002 -0.42913246 0.7808516 0
3.8900003 -0.43630806 0.78171742 0
3.8970003 -0.4433988 0.78247505 0
4.0339999 -0.4655225 0.79730237 0
4.0290003 -0.47149131 0.79676121 0
4.0250001 -0.47756112 0.79632831 0
4.0210004 -0.48361653 0.7958954 0
4.0190001 -0.48990276 0.79567897 0
4.0180001 -0.4963063 0.79557073 0
4.0170002 -0.50270617 0.79546249 0
4.0180001 -0.50935864 0.79557073 0
4.0190001 -0.5160147 0.79567897 0
4.0210004 -0.52280605 0.7958954 0
4.0250001 -0.52987158 0.79632831 0
4.0310001 -0.53722209 0.7969777 0
4.04 -0.5450055 0.7979517 0
4.0610003 -0.55448818 0.80022454 0
4.0640001 -0.56151396 0.80054921 0
4.0669999 -0.56855059 0.80087388 0
4.072 -0.57588673 0.80141503 0
4.079 -0.58353305 0.80217266 0
4.1389999 -0.14042214 0.8019219 0
4.1330004 -0.14700425 0.80128336 0
4.1270003 -0.15356469 0.80064487 0
4.1200004 -0.16007283 0.79989982 0
4.1140003 -0.16658819 0.79926133 0
4.1080003 -0.1730819 0.79862273 0
4.1020002 -0.17955396 0.79798424 0
4.0950003 -0.18596651 0.79723918 0
4.0890002 -0.19239347 0.7966007 0
4.0830002 -0.19879879 0.7959621 0
4.0770001 -0.20518248 0.79532361 0
4.0710001 -0.21154451 0.79468507 0
4.0650001 -0.2178849 0.79404652 0
4.059 -0.22420363 0.79340792 0
4.053 -0.23050073 0.79276937 0
4.0469999 -0.23677617 0.79213083 0
4.0410004 -0.24302998 0.79149234 0
4.0350003 -0.24926214 0.79085374 0
4.0290003 -0.25547263 0.79021519 0
4.0230002 -0.2616615 0.78957665 0
4.0170002 -0.26782873 0.78893805 0
4.0110002 -0.2739743 0.78829956 0
4.0050001 -0.28009823 0.78766102 0
3.9990003 -0.28620052 0.78702247 0
3.9930003 -0.29228115 0.78638393 0
3.9870002 -0.29834014 0.78574538 0
3.9810002 -0.3043775 0.78510678 0
3.9760003 -0.31046715 0.78457469 0
3.9700003 -0.31646299 0.78393614 0
3.9640002 -0.3224372 0.78329754 0
3.9580002 -0.32838979 0.78265905 0
3.9520004 -0.33432072 0.78202051 0
3.9470003 -0.34031296 0.78148842 0
3.9410002 -0.34620237 0.78084981 0
3.9350002 -0.35207018 0.78021127 0
3.9300003 -0.35800472 0.77967918 0
3.9240003 -0.36383101 0.77904058 0
3.9180002 -0.36963564 0.77840209 0
3.9130003 -0.37551248 0.77786994 0
3.9070003 -0.38127565 0.7772314 0
3.9020002 -0.38711455 0.7766993 0
3.8960001 -0.39283624 0.7760607 0
3.8910003 -0.39863729 0.77552855 0
3.8850002 -0.40431747 0.77489007 0
3.8800004 -0.41008067 0.77435791 0
3.8740003 -0.41571939 0.77371943 0
3.8750002 -0.42209402 0.77382576 0
3.8820002 -0.42913246 0.77457076 0
3.8900003 -0.43630806 0.77542222 0
3.8970003 -0.4433988 0.77616715 0
4.0339999 -0.4655225 0.79074728 0
4.0290003 -0.47149131 0.79021519 0
4.0250001 -0.47756112 0.7897895 0
4.0210004 -0.48361653 0.78936386 0
4.0190001 -0.48990276 0.78915095 0
4.0180001 -0.4963063 0.78904456 0
4.0170002 -0.50270617 0.78893805 0
4.0180001 -0.50935864 0.78904456 0
4.0190001 -0.5160147 0.78915095 0
4.0210004 -0.52280605 0.78936386 0
4.0250001 -0.52987158 0.7897895 0
4.0310001 -0.53722209 0.79042804 0
4.04 -0.5450055 0.79138589 0
4.0630002 -0.55476588 0.79383361 0
4.0650001 -0.56165469 0.79404652 0
4.0680003 -0.5686931 0.79436576 0
4.073 -0.57603097 0.79489785 0
4.079 -0.58353305 0.7955364 0
4.0880003 -0.59150046 0.79649425 0
4.1389999 -0.14042214 0.79517746 0
4.1330004 -0.14700425 0.79454976 0
4.1270003 -0.15356469 0.79392207 0
4.1200004 -0.16007283 0.79318964 0
4.1140003 -0.16658819 0.79256201 0
4.1080003 -0.1730819 0.79193425 0
4.1020002 -0.17955396 0.7913065 0
4.0950003 -0.18596651 0.79057419 0
4.0890002 -0.19239347 0.78994644 0
4.0830002 -0.19879879 0.78931868 0
4.0770001 -0.20518248 0.78869104 0
4.0710001 -0.21154451 0.78806329 0
4.0650001 -0.2178849 0.78743553 0
4.059 -0.22420363 0.78680778 0
4.053 -0.23050073 0.78618008 0
4.0469999 -0.23677617 0.78555238 0
4.0410004 -0.24302998 0.78492463 0
4.0350003 -0.24926214 0.78429693 0
4.0290003 -0.25547263 0.78366917 0
4.0230002 -0.2616615 0.78304148 0
4.0170002 -0.26782873 0.78241372 0
4.0110002 -0.2739743 0.78178596 0
4.0050001 -0.28009823 0.78115827 0
3.9990003 -0.28620052 0.78053057 0
3.9930003 -0.29228115 0.77990282 0
3.9870002 -0.29834014 0.77927506 0
3.9810002 -0.3043775 0.77864736 0
3.9760003 -0.31046715 0.77812433 0
3.9700003 -0.31646299 0.77749658 0
3.9640002 -0.3224372 0.77686882 0
3.9580002 -0.32838979 0.77624106 0
3.9520004 -0.33432072 0.77561343 0
3.9470003 -0.34031296 0.77509028 0
3.9410002 -0.34620237 0.77446252 0
3.9350002 -0.35207018 0.77383482 0
3.9300003 -0.35800472 0.77331173 0
3.9240003 -0.36383101 0.77268398 0
3.9180002 -0.36963564 0.77205622 0
3.9130003 -0.37551248 0.77153313 0
3.9070003 -0.38127565 0.77090544 0
3.9020002 -0.38711455 0.77038234 0
3.8960001 -0.39283624 0.76975459 0
3.8910003 -0.39863729 0.7692315 0
3.8850002 -0.40431747 0.7686038 0
3.8800004 -0.41008067 0.76808071 0
3.8740003 -0.41571939 0.76745296 0
3.8750002 -0.42209402 0.76755756 0
3.8820002 -0.42913246 0.76828992 0
3.8900003 -0.43630806 0.76912689 0
3.8970003 -0.4433988 0.76985925 0
4.0339999 -0.4655225 0.78419226 0
4.0290003 -0.47149131 0.78366917 0
4.0250001 -0.47756112 0.78325069 0
4.0210004 -0.48361653 0.78283226 0
4.0190001 -0.48990276 0.78262293 0
4.0180001 -0.4963063 0.78251839 0
4.0170002 -0.50270617 0.78241372 0
4.0180001 -0.50935864 0.78251839 0
4.0190001 -0.5160147 0.78262293 0
4.0210004 -0.52280605 0.78283226 0
4.0250001 -0.52987158 0.78325069 0
4.0310001 -0.53722209 0.78387845 0
4.04 -0.5450055 0.78482002 0
4.066 -0.55518258 0.78754014 0
4.0669999 -0.56193602 0.78764474 0
4.0700002 -0.56897807 0.78795862 0
4.0740004 -0.57617533 0.78837711 0
4.079 -0.58353305 0.7889002 0
4.0880003 -0.59150046 0.78984177 0
4.1389999 -0.14042214 0.78843302 0
4.1330004 -0.14700425 0.78781617 0
4.1270003 -0.15356469 0.78719926 0
4.1200004 -0.16007283 0.78647947 0
4.1140003 -0.16658819 0.78586262 0
4.1080003 -0.1730819 0.78524572 0
4.1020002 -0.17955396 0.78462881 0
4.0950003 -0.18596651 0.78390908 0
4.0890002 -0.19239347 0.78329217 0
4.0830002 -0.19879879 0.78267527 0
4.0770001 -0.20518248 0.78205836 0
4.0710001 -0.21154451 0.78144145 0
4.0650001 -0.2178849 0.78082454 0
4.059 -0.22420363 0.78020763 0
4.053 -0.23050073 0.77959073 0
4.0469999 -0.23677617 0.77897382 0
4.0410004 -0.24302998 0.77835697 0
4.0350003 -0.24926214 0.77774006 0
4.0290003 -0.25547263 0.77712315 0
4.0230002 -0.2616615 0.77650625 0
4.0170002 -0.26782873 0.77588934 0
4.0110002 -0.2739743 0.77527243 0
4.0050001 -0.28009823 0.77465558 0
3.9990003 -0.28620052 0.77403867 0
3.9930003 -0.29228115 0.77342176 0
3.9870002 -0.29834014 0.77280486 0
3.9810002 -0.3043775 0.77218795 0
3.9760003 -0.31046715 0.77167386 0
3.9700003 -0.31646299 0.77105695 0
3.9640002 -0.3224372 0.77044004 0
3.9580002 -0.32838979 0.76982313 0
3.9520004 -0.33432072 0.76920629 0
3.9470003 -0.34031296 0.76869214 0
3.9410002 -0.34620237 0.76807523 0
3.9350002 -0.35207018 0.76745832 0
3.9300003 -0.35800472 0.76694429 0
3.9240003 -0.36383101 0.76632738 0
3.9180002 -0.36963564 0.76571047 0
3.9130003 -0.37551248 0.76519638 0
3.9070003 -0.38127565 0.76457953 0
3.9020002 -0.38711455 0.76406538 0
3.8960001 -0.39283624 0.76344848 0
3.8910003 -0.39863729 0.76293445 0
3.8850002 -0.40431747 0.76231748 0
3.8800004 -0.41008067 0.76180339 0
3.8740003 -0.41571939 0.76118648 0
3.8750002 -0.42209402 0.76128936 0
3.8820002 -0.42913246 0.76200902 0
3.8900003 -0.43630806 0.76283157 0
3.8970003 -0.4433988 0.76355129 0
4.0339999 -0.4655225 0.77763724 0
4.0290003 -0.47149131 0.77712315 0
4.0250001 -0.47756112 0.77671194 0
4.0210004 -0.48361653 0.77630067 0
4.0190001 -0.48990276 0.77609497 0
4.0180001 -0.4963063 0.77599216 0
4.0170002 -0.50270617 0.77588934 0
4.0180001 -0.50935864 0.77599216 0
4.0190001 -0.5160147 0.77609497 0
4.0210004 -0.52280605 0.77630067 0
4.0250001 -0.52987158 0.77671194 0
4.0310001 -0.53722209 0.77732879 0
4.04 -0.5450055 0.77825415 0
4.0680003 -0.55546039 0.78113306 0
4.0690002 -0.56221741 0.78123581 0
4.072 -0.5692631 0.78154433 0
4.0750003 -0.57631958 0.78185272 0
4.0799999 -0.58367914 0.78236687 0
4.0870004 -0.59135258 0.78308654 0
4.1389999 -0.14042214 0.78168857 0
4.1330004 -0.14700425 0.78108251 0
4.1270003 -0.15356469 0.78047645 0
4.1200004 -0.16007283 0.7797693 0
4.1140003 -0.16658819 0.77916324 0
4.1080003 -0.1730819 0.77855718 0
4.1020002 -0.17955396 0.77795112 0
4.0950003 -0.18596651 0.77724403 0
4.0890002 -0.19239347 0.77663791 0
4.0830002 -0.19879879 0.77603185 0
4.0770001 -0.20518248 0.77542579 0
4.0710001 -0.21154451 0.77481973 0
4.0650001 -0.2178849 0.77421361 0
4.059 -0.22420363 0.77360749 0
4.053 -0.23050073 0.77300143 0
4.0469999 -0.23677617 0.77239537 0
4.0410004 -0.24302998 0.77178931 0
4.0350003 -0.24926214 0.77118325 0
4.0290003 -0.25547263 0.77057713 0
4.0230002 -0.2616615 0.76997101 0
4.0170002 -0.26782873 0.76936495 0
4.0110002 -0.2739743 0.76875889 0
4.0050001 -0.28009823 0.76815283 0
3.9990003 -0.28620052 0.76754677 0
3.9930003 -0.29228115 0.76694065 0
3.9870002 -0.29834014 0.76633459 0
3.9810002 -0.3043775 0.76572847 0
3.9760003 -0.31046715 0.76522344 0
3.9700003 -0.31646299 0.76461732 0
3.9640002 -0.3224372 0.76401126 0
3.9580002 -0.32838979 0.7634052 0
3.9530003 -0.33440188 0.76290011 0
3.9470003 -0.34031296 0.76229405 0
3.9410002 -0.34620237 0.76168799 0
3.9350002 -0.35207018 0.76108187 0
3.9300003 -0.35800472 0.76057684 0
3.9240003 -0.36383101 0.75997078 0
3.9180002 -0.36963564 0.75936466 0
3.9130003 -0.37551248 0.75885963 0
3.9070003 -0.38127565 0.75825351 0
3.9020002 -0.38711455 0.75774843 0
3.8960001 -0.39283624 0.75714236 0
3.8910003 -0.39863729 0.75663733 0
3.8850002 -0.40431747 0.75603122 0
3.8800004 -0.41008067 0.75552619 0
3.8740003 -0.41571939 0.75492007 0
3.8750002 -0.42209402 0.7550211 0
3.8820002 -0.42913246 0.75572819 0
3.8900003 -0.43630806 0.7565363 0
3.8970003 -0.4433988 0.75724339 0
4.0339999 -0.4655225 0.77108216 0
4.0290003 -0.47149131 0.77057713 0
4.0250001 -0.47756112 0.77017307 0
4.0210004 -0.48361653 0.76976907 0
4.0190001 -0.48990276 0.76956701 0
4.0180001 -0.4963063 0.76946604 0
4.0170002 -0.50270617 0.76936495 0
4.0180001 -0.50935864 0.76946604 0
4.0190001 -0.5160147 0.76956701 0
4.0210004 -0.52280605 0.76976907 0
4.0250001 -0.52987158 0.77017307 0
4.0310001 -0.53722209 0.77077913 0
4.04 -0.5450055 0.77168828 0
4.0700002 -0.55573815 0.77471864 0
4.0710001 -0.56249887 0.77481973 0
4.073 -0.56940562 0.77502167 0
4.0760002 -0.57646394 0.77532476 0
4.0810003 -0.58382529 0.77582985 0
4.0870004 -0.59135258 0.77643591 0
4.0960002 -0.59935063 0.77734506 0
4.1389999 -0.14042214 0.77494419 0
4.1330004 -0.14700425 0.77434891 0
4.1270003 -0.15356469 0.77375364 0
4.1200004 -0.16007283 0.77305919 0
4.1140003 -0.16658819 0.77246392 0
4.1080003 -0.1730819 0.77186865 0
4.1020002 -0.17955396 0.77127337 0
4.0950003 -0.18596651 0.77057898 0
4.0890002 -0.19239347 0.76998365 0
4.0830002 -0.19879879 0.76938844 0
4.0770001 -0.20518248 0.76879323 0
4.0710001 -0.21154451 0.76819789 0
4.0650001 -0.2178849 0.76760268 0
4.059 -0.22420363 0.76700741 0
4.053 -0.23050073 0.76641214 0
4.0469999 -0.23677617 0.76581693 0
4.0410004 -0.24302998 0.76522166 0
4.0350003 -0.24926214 0.76462638 0
4.0290003 -0.25547263 0.76403117 0
4.0230002 -0.2616615 0.76343584 0
4.0170002 -0.26782873 0.76284063 0
4.0110002 -0.2739743 0.76224536 0
4.0050001 -0.28009823 0.76165009 0
3.9990003 -0.28620052 0.76105487 0
3.9930003 -0.29228115 0.76045954 0
3.9870002 -0.29834014 0.75986433 0
3.9810002 -0.3043775 0.75926906 0
3.9760003 -0.31046715 0.75877303 0
3.9700003 -0.31646299 0.75817776 0
3.9640002 -0.3224372 0.75758249 0
3.9580002 -0.32838979 0.75698721 0
3.9530003 -0.33440188 0.75649118 0
3.9470003 -0.34031296 0.75589597 0
3.9410002 -0.34620237 0.75530064 0
3.9350002 -0.35207018 0.75470543 0
3.9300003 -0.35800472 0.7542094 0
3.9240003 -0.36383101 0.75361413 0
3.9180002 -0.36963564 0.75301886 0
3.9130003 -0.37551248 0.75252283 0
3.9070003 -0.38127565 0.75192755 0
3.9020002 -0.38711455 0.75143147 0
3.8960001 -0.39283624 0.75083625 0
3.8910003 -0.39863729 0.75034022 0
3.8850002 -0.40431747 0.74974495 0
3.8800004 -0.41008067 0.74924892 0
3.8740003 -0.41571939 0.74865365 0
3.8750002 -0.42209402 0.74875283 0
3.8820002 -0.42913246 0.74944735 0
3.8900003 -0.43630806 0.75024104 0
3.8970003 -0.4433988 0.75093544 0
4.0339999 -0.4655225 0.7645272 0
4.0290003 -0.47149131 0.76403117 0
4.0250001 -0.47756112 0.76363432 0
4.0210004 -0.48361653 0.76323748 0
4.0190001 -0.48990276 0.76303899 0
4.0180001 -0.4963063 0.76293981 0
4.0170002 -0.50270617 0.76284063 0
4.0180001 -0.50935864 0.76293981 0
4.0190001 -0.5160147 0.76303899 0
4.0210004 -0.52280605 0.76323748 0
4.0250001 -0.52987158 0.76363432 0
4.0310001 -0.53722209 0.76422954 0
4.04 -0.5450055 0.76512241 0
4.073 -0.55615485 0.76839632 0
4.073 -0.56278026 0.76839632 0
4.0750003 -0.56969064 0.76859474 0
4.0780001 -0.57675254 0.76889241 0
4.0820003 -0.58397138 0.76928926 0
4.0870004 -0.59135258 0.76978528 0
4.0960002 -0.59935063 0.77067816 0
4.1389999 -0.14042214 0.76819968 0
4.1330004 -0.14700425 0.76761532 0
4.1270003 -0.15356469 0.76703084 0
4.1200004 -0.16007283 0.76634902 0
4.1140003 -0.16658819 0.76576459 0
4.1080003 -0.1730819 0.76518011 0
4.1020002 -0.17955396 0.76459569 0
4.0950003 -0.18596651 0.76391387 0
4.0890002 -0.19239347 0.76332945 0
4.0830002 -0.19879879 0.76274502 0
4.0770001 -0.20518248 0.76216054 0
4.0710001 -0.21154451 0.76157618 0
4.0650001 -0.2178849 0.76099169 0
4.059 -0.22420363 0.76040727 0
4.053 -0.23050073 0.75982285 0
4.0469999 -0.23677617 0.75923836 0
4.0410004 -0.24302998 0.758654 0
4.0350003 -0.24926214 0.75806952 0
4.0290003 -0.25547263 0.75748509 0
4.0230002 -0.2616615 0.75690067 0
4.0170002 -0.26782873 0.75631618 0
4.0110002 -0.2739743 0.75573182 0
4.0050001 -0.28009823 0.75514734 0
3.9990003 -0.28620052 0.75456291 0
3.9930003 -0.29228115 0.75397849 0
3.9870002 -0.29834014 0.75339407 0
3.9810002 -0.3043775 0.75280964 0
3.9760003 -0.31046715 0.75232255 0
3.9700003 -0.31646299 0.75173819 0
3.9640002 -0.3224372 0.75115371 0
3.9580002 -0.32838979 0.75056928 0
3.9530003 -0.33440188 0.75008225 0
3.9470003 -0.34031296 0.74949783 0
3.9410002 -0.34620237 0.74891341 0
3.9350002 -0.35207018 0.74832892 0
3.9300003 -0.35800472 0.74784195 0
3.9240003 -0.36383101 0.74725747 0
3.9180002 -0.36963564 0.74667305 0
3.9130003 -0.37551248 0.74618602 0
3.9070003 -0.38127565 0.74560159 0
3.9020002 -0.38711455 0.74511456 0
3.8960001 -0.39283624 0.74453008 0
3.8910003 -0.39863729 0.74404311 0
3.8850002 -0.40431747 0.74345869 0
3.8800004 -0.41008067 0.74297166 0
3.8740003 -0.41571939 0.74238724 0
3.8750002 -0.42209402 0.74248463 0
3.8820002 -0.42913246 0.74316645 0
3.8900003 -0.43630806 0.74394572 0
3.8970003 -0.4433988 0.74462759 0
4.0339999 -0.4655225 0.75797212 0
4.0290003 -0.47149131 0.75748509 0
4.0250001 -0.47756112 0.75709546 0
4.0210004 -0.48361653 0.75670588 0
4.0190001 -0.48990276 0.75651103 0
4.0180001 -0.4963063 0.75641364 0
4.0170002 -0.50270617 0.75631618 0
4.0180001 -0.50935864 0.75641364 0
4.0190001 -0.5160147 0.75651103 0
4.0210004 -0.52280605 0.75670588 0
4.0250001 -0.52987158 0.75709546 0
4.0310001 -0.53722209 0.75767994 0
4.04 -0.5450055 0.7585566 0
4.0750003 -0.5564326 0.76196575 0
4.0760002 -0.56320232 0.76206315 0
4.0770001 -0.56997567 0.76216054 0
4.0799999 -0.57704109 0.76245278 0
4.0830002 -0.58411747 0.76274502 0
4.0880003 -0.59150046 0.76323199 0
4.0950003 -0.59920096 0.76391387 0
4.1389999 -0.14042214 0.7614553 0
4.1330004 -0.14700425 0.76088166 0
4.1270003 -0.15356469 0.76030803 0
4.1200004 -0.16007283 0.75963891 0
4.1140003 -0.16658819 0.75906527 0
4.1080003 -0.1730819 0.75849164 0
4.1020002 -0.17955396 0.757918 0
4.0950003 -0.18596651 0.75724876 0
4.0890002 -0.19239347 0.75667518 0
4.0830002 -0.19879879 0.75610161 0
4.0770001 -0.20518248 0.75552797 0
4.0710001 -0.21154451 0.75495434 0
4.0650001 -0.2178849 0.7543807 0
4.059 -0.22420363 0.75380713 0
4.053 -0.23050073 0.75323355 0
4.0469999 -0.23677617 0.75265992 0
4.0410004 -0.24302998 0.75208628 0
4.0350003 -0.24926214 0.75151271 0
4.0290003 -0.25547263 0.75093907 0
4.0230002 -0.2616615 0.7503655 0
4.0170002 -0.26782873 0.74979186 0
4.0110002 -0.2739743 0.74921823 0
4.0050001 -0.28009823 0.74864465 0
3.9990003 -0.28620052 0.74807101 0
3.9930003 -0.29228115 0.74749744 0
3.9870002 -0.29834014 0.7469238 0
3.9810002 -0.3043775 0.74635017 0
3.9760003 -0.31046715 0.7458722 0
3.9700003 -0.31646299 0.74529856 0
3.9640002 -0.3224372 0.74472499 0
3.9580002 -0.32838979 0.74415135 0
3.9530003 -0.33440188 0.74367332 0
3.9470003 -0.34031296 0.74309969 0
3.9410002 -0.34620237 0.74252611 0
3.9350002 -0.35207018 0.74195254 0
3.9300003 -0.35800472 0.74147451 0
3.9240003 -0.36383101 0.74090087 0
3.9180002 -0.36963564 0.74032724 0
3.9130003 -0.37551248 0.73984927 0
3.9070003 -0.38127565 0.73927569 0
3.9020002 -0.38711455 0.73879766 0
3.8960001 -0.39283624 0.73822403 0
3.8910003 -0.39863729 0.737746 0
3.8850002 -0.40431747 0.73717237 0
3.8800004 -0.41008067 0.73669446 0
3.8740003 -0.41571939 0.73612082 0
3.8750002 -0.42209402 0.73621643 0
3.8820002 -0.42913246 0.73688561 0
3.8900003 -0.43630806 0.73765039 0
3.8970003 -0.4433988 0.73831964 0
4.0339999 -0.4655225 0.75141704 0
4.0290003 -0.47149131 0.75093907 0
4.0250001 -0.47756112 0.75055671 0
4.0210004 -0.48361653 0.75017428 0
4.0190001 -0.48990276 0.74998307 0
4.0180001 -0.4963063 0.74988747 0
4.0170002 -0.50270617 0.74979186 0
4.0180001 -0.50935864 0.74988747 0
4.0190001 -0.5160147 0.74998307 0
4.0210004 -0.52280605 0.75017428 0
4.0250001 -0.52987158 0.75055671 0
4.0310001 -0.53722209 0.75113028 0
4.04 -0.5450055 0.75199068 0
4.0780001 -0.55684936 0.75562358 0
4.0780001 -0.56348372 0.75562358 0
4.079 -0.57026064 0.75571918 0
4.0810003 -0.57718545 0.7559104 0
4.0840001 -0.58426362 0.75619721 0
4.0890002 -0.5916484 0.75667518 0
4.0950003 -0.59920096 0.75724876 0
4.105 -0.60738117 0.75820482 0
4.1389999 -0.14042214 0.75471085 0
4.1330004 -0.14700425 0.75414807 0
4.1270003 -0.15356469 0.75358528 0
4.1200004 -0.16007283 0.75292873 0
4.1140003 -0.16658819 0.75236589 0
4.1080003 -0.1730819 0.7518031 0
4.1020002 -0.17955396 0.75124031 0
4.0950003 -0.18596651 0.75058377 0
4.0890002 -0.19239347 0.75002092 0
4.0830002 -0.19879879 0.74945813 0
4.0770001 -0.20518248 0.74889541 0
4.0710001 -0.21154451 0.74833262 0
4.0650001 -0.2178849 0.74776983 0
4.059 -0.22420363 0.74720699 0
4.053 -0.23050073 0.7466442 0
4.0469999 -0.23677617 0.74608141 0
4.0410004 -0.24302998 0.74551868 0
4.0350003 -0.24926214 0.7449559 0
4.0290003 -0.25547263 0.74439305 0
4.0230002 -0.2616615 0.74383026 0
4.0170002 -0.26782873 0.74326748 0
4.0110002 -0.2739743 0.74270469 0
4.0050001 -0.28009823 0.7421419 0
3.9990003 -0.28620052 0.74157912 0
3.9930003 -0.29228115 0.74101633 0
3.9870002 -0.29834014 0.74045354 0
3.9810002 -0.3043775 0.73989075 0
3.9760003 -0.31046715 0.73942173 0
3.9700003 -0.31646299 0.738859 0
3.9640002 -0.3224372 0.73829615 0
3.9580002 -0.32838979 0.73773336 0
3.9530003 -0.33440188 0.73726439 0
3.9470003 -0.34031296 0.73670161 0
3.9410002 -0.34620237 0.73613882 0
3.9350002 -0.35207018 0.73557603 0
3.9300003 -0.35800472 0.73510706 0
3.9240003 -0.36383101 0.73454428 0
3.9180002 -0.36963564 0.73398149 0
3.9130003 -0.37551248 0.73351252 0
3.9070003 -0.38127565 0.73294973 0
3.9020002 -0.38711455 0.7324807 0
3.8960001 -0.39283624 0.73191792 0
3.8910003 -0.39863729 0.73144895 0
3.8850002 -0.40431747 0.7308861 0
3.8800004 -0.41008067 0.73041713 0
3.8740003 -0.41571939 0.72985435 0
3.8750002 -0.42209402 0.72994816 0
3.8820002 -0.42913246 0.73060477 0
3.8900003 -0.43630806 0.73135513 0
3.8970003 -0.4433988 0.73201168 0
4.0339999 -0.4655225 0.74486208 0
4.0290003 -0.47149131 0.74439305 0
4.0250001 -0.47756112 0.74401784 0
4.0220003 -0.48373735 0.74373651 0
4.0190001 -0.48990276 0.74345505 0
4.0180001 -0.4963063 0.74336129 0
4.0170002 -0.50270617 0.74326748 0
4.0180001 -0.50935864 0.74336129 0
4.0190001 -0.5160147 0.74345505 0
4.0210004 -0.52280605 0.74364269 0
4.0250001 -0.52987158 0.74401784 0
4.0310001 -0.53722209 0.74458063 0
4.04 -0.5450055 0.74542481 0
4.0810003 -0.557266 0.74927056 0
4.0799999 -0.56376511 0.74917674 0
4.0810003 -0.57054561 0.74927056 0
4.0830002 -0.57747406 0.74945813 0
4.086 -0.5845558 0.74973953 0
4.0900002 -0.59179628 0.75011474 0
4.0960002 -0.59935063 0.75067753 0
4.1040001 -0.60722971 0.75142789 0
4.1389999 -0.14042214 0.74796641 0
4.1330004 -0.14700425 0.74741447 0
4.1270003 -0.15356469 0.74686247 0
4.1200004 -0.16007283 0.74621856 0
4.1140003 -0.16658819 0.74566656 0
4.1080003 -0.1730819 0.74511456 0
4.1020002 -0.17955396 0.74456263 0
4.0950003 -0.18596651 0.74391866 0
4.0890002 -0.19239347 0.74336672 0
4.0830002 -0.19879879 0.74281472 0
4.0770001 -0.20518248 0.74226272 0
4.0710001 -0.21154451 0.74171078 0
4.0650001 -0.2178849 0.74115884 0
4.059 -0.22420363 0.7406069 0
4.053 -0.23050073 0.74005491 0
4.0469999 -0.23677617 0.73950291 0
4.0410004 -0.24302998 0.73895097 0
4.0350003 -0.24926214 0.73839903 0
4.0290003 -0.25547263 0.73784703 0
4.0230002 -0.2616615 0.73729503 0
4.0170002 -0.26782873 0.73674309 0
4.0110002 -0.2739743 0.73619115 0
4.0050001 -0.28009823 0.73563921 0
3.9990003 -0.28620052 0.73508722 0
3.9930003 -0.29228115 0.73453522 0
3.9870002 -0.29834014 0.73398328 0
3.9810002 -0.3043775 0.73343134 0
3.9760003 -0.31046715 0.73297131 0
3.9700003 -0.31646299 0.73241937 0
3.9640002 -0.3224372 0.73186743 0
3.9580002 -0.32838979 0.73131543 0
3.9530003 -0.33440188 0.73085546 0
3.9470003 -0.34031296 0.73030353 0
3.9410002 -0.34620237 0.72975153 0
3.9350002 -0.35207018 0.72919953 0
3.9300003 -0.35800472 0.72873962 0
3.9240003 -0.36383101 0.72818768 0
3.9180002 -0.36963564 0.72763562 0
3.9130003 -0.37551248 0.72717571 0
3.9070003 -0.38127565 0.72662377 0
3.9020002 -0.38711455 0.72616374 0
3.8960001 -0.39283624 0.72561181 0
3.8910003 -0.39863729 0.72515184 0
3.8850002 -0.40431747 0.72459984 0
3.8800004 -0.41008067 0.72413993 0
3.8740003 -0.41571939 0.72358793 0
3.8750002 -0.42209402 0.7236799 0
3.8820002 -0.42913246 0.72432387 0
3.8900003 -0.43630806 0.72505987 0
3.8970003 -0.4433988 0.72570384 0
4.0339999 -0.4655225 0.738307 0
4.0290003 -0.47149131 0.73784703 0
4.0250001 -0.47756112 0.73747909 0
4.0220003 -0.48373735 0.73720312 0
4.0190001 -0.48990276 0.73692715 0
4.0180001 -0.4963063 0.73683512 0
4.0170002 -0.50270617 0.73674309 0
4.0180001 -0.50935864 0.73683512 0
4.0190001 -0.5160147 0.73692715 0
4.0210004 -0.52280605 0.73711109 0
4.0250001 -0.52987158 0.73747909 0
4.0310001 -0.53722209 0.73803103 0
4.04 -0.5450055 0.73885894 0
4.0830002 -0.55754375 0.74281472 0
4.0830002 -0.56418723 0.74281472 0
4.0840001 -0.57097316 0.74290675 0
4.085 -0.57776266 0.74299872 0
4.0880003 -0.58484805 0.74327469 0
4.0910001 -0.59194422 0.74355066 0
4.0960002 -0.59935063 0.74401063 0
4.1030002 -0.60707814 0.7446546 0
4.1389999 -0.14042214 0.7412219 0
4.1330004 -0.14700425 0.74068081 0
4.1270003 -0.15356469 0.74013966 0
4.1200004 -0.16007283 0.73950839 0
4.1140003 -0.16658819 0.73896718 0
4.1080003 -0.1730819 0.73842609 0
4.1020002 -0.17955396 0.73788488 0
4.0950003 -0.18596651 0.73725361 0
4.0890002 -0.19239347 0.73671246 0
4.0830002 -0.19879879 0.73617131 0
4.0770001 -0.20518248 0.73563015 0
4.0710001 -0.21154451 0.73508906 0
4.0650001 -0.2178849 0.73454785 0
4.059 -0.22420363 0.73400676 0
4.053 -0.23050073 0.73346555 0
4.0469999 -0.23677617 0.73292446 0
4.0410004 -0.24302998 0.73238331 0
4.0350003 -0.24926214 0.73184216 0
4.0290003 -0.25547263 0.73130101 0
4.0230002 -0.2616615 0.73075986 0
4.0170002 -0.26782873 0.73021877 0
4.0110002 -0.2739743 0.72967756 0
4.0050001 -0.28009823 0.72913647 0
3.9990003 -0.28620052 0.72859532 0
3.9930003 -0.29228115 0.72805417 0
3.9870002 -0.29834014 0.72751302 0
3.9810002 -0.3043775 0.72697186 0
3.9760003 -0.31046715 0.72652096 0
3.9700003 -0.31646299 0.7259798 0
3.9640002 -0.3224372 0.72543865 0
3.9580002 -0.32838979 0.7248975 0
3.9530003 -0.33440188 0.72444654 0
3.9470003 -0.34031296 0.72390544 0
3.9410002 -0.34620237 0.72336423 0
3.9350002 -0.35207018 0.72282314 0
3.9300003 -0.35800472 0.72237217 0
3.9240003 -0.36383101 0.72183102 0
3.9180002 -0.36963564 0.72128987 0
3.9130003 -0.37551248 0.7208389 0
3.9070003 -0.38127565 0.72029781 0
3.9020002 -0.38711455 0.71984684 0
3.8960001 -0.39283624 0.71930569 0
3.8910003 -0.39863729 0.71885473 0
3.8850002 -0.40431747 0.71831357 0
3.8800004 -0.41008067 0.71786267 0
3.8740003 -0.41571939 0.71732152 0
3.8750002 -0.42209402 0.71741164 0
3.8820002 -0.42913246 0.71804303 0
3.8900003 -0.43630806 0.71876454 0
3.8970003 -0.4433988 0.71939588 0
4.0339999 -0.4655225 0.73175192 0
4.0290003 -0.47149131 0.73130101 0
4.0250001 -0.47756112 0.73094028 0
4.0220003 -0.48373735 0.73066968 0
4.0190001 -0.48990276 0.73039913 0
4.0180001 -0.4963063 0.73030889 0
4.0170002 -0.50270617 0.73021877 0
4.0180001 -0.50935864 0.73030889 0
4.0190001 -0.5160147 0.73039913 0
4.0210004 -0.52280605 0.7305795 0
4.0250001 -0.52987158 0.73094028 0
4.0310001 -0.53722209 0.73148143 0
4.04 -0.5450055 0.73229313 0
4.086 -0.55796045 0.73644185 0
4.086 -0.56460929 0.73644185 0
4.086 -0.57125813 0.73644185 0
4.0870004 -0.57805127 0.73653209 0
4.0890002 -0.58499414 0.73671246 0
4.092 -0.59209216 0.736983 0
4.0970001 -0.59950036 0.73743397 0
4.1030002 -0.60707814 0.73797512 0
4.1129999 -0.61529088 0.738877 0
4.1389999 -0.14042214 0.73447752 0
4.1330004 -0.14700425 0.73394716 0
4.1270003 -0.15356469 0.73341691 0
4.1200004 -0.16007283 0.73279822 0
4.1140003 -0.16658819 0.73226786 0
4.1080003 -0.1730819 0.73173755 0
4.1020002 -0.17955396 0.73120725 0
4.0960002 -0.18600439 0.73067689 0
4.0890002 -0.19239347 0.73005819 0
4.0830002 -0.19879879 0.72952789 0
4.0770001 -0.20518248 0.72899759 0
4.0710001 -0.21154451 0.72846723 0
4.0650001 -0.2178849 0.72793692 0
4.059 -0.22420363 0.72740662 0
4.053 -0.23050073 0.72687626 0
4.0469999 -0.23677617 0.72634596 0
4.0410004 -0.24302998 0.72581565 0
4.0350003 -0.24926214 0.72528529 0
4.0290003 -0.25547263 0.72475505 0
4.0230002 -0.2616615 0.72422469 0
4.0170002 -0.26782873 0.72369432 0
4.0110002 -0.2739743 0.72316402 0
4.0050001 -0.28009823 0.72263372 0
3.9990003 -0.28620052 0.72210342 0
3.9930003 -0.29228115 0.72157311 0
3.9870002 -0.29834014 0.72104275 0
3.9810002 -0.3043775 0.72051245 0
3.9760003 -0.31046715 0.72007048 0
3.9700003 -0.31646299 0.71954018 0
3.9640002 -0.3224372 0.71900988 0
3.9580002 -0.32838979 0.71847951 0
3.9530003 -0.33440188 0.71803761 0
3.9470003 -0.34031296 0.7175073 0
3.9410002 -0.34620237 0.716977 0
3.9350002 -0.35207018 0.71644664 0
3.9300003 -0.35800472 0.71600473 0
3.9240003 -0.36383101 0.71547437 0
3.9180002 -0.36963564 0.71494406 0
3.9130003 -0.37551248 0.71450216 0
3.9070003 -0.38127565 0.71397185 0
3.9020002 -0.38711455 0.71352988 0
3.8960001 -0.39283624 0.71299958 0
3.8910003 -0.39863729 0.71255767 0
3.8850002 -0.40431747 0.71202731 0
3.8800004 -0.41008067 0.7115854 0
3.8740003 -0.41571939 0.71105504 0
3.8750002 -0.42209402 0.71114349 0
3.8820002 -0.42913246 0.71176219 0
3.8900003 -0.43630806 0.71246922 0
3.8970003 -0.4433988 0.71308798 0
4.0339999 -0.4655225 0.72519696 0
4.0290003 -0.47149131 0.72475505 0
4.0250001 -0.47756112 0.72440147 0
4.0220003 -0.48373735 0.72413629 0
4.0190001 -0.48990276 0.72387111 0
4.0180001 -0.4963063 0.72378278 0
4.0170002 -0.50270617 0.72369432 0
4.0180001 -0.50935864 0.72378278 0
4.0190001 -0.5160147 0.72387111 0
4.0210004 -0.52280605 0.7240479 0
4.0250001 -0.52987158 0.72440147 0
4.0310001 -0.53722209 0.72493178 0
4.04 -0.5450055 0.7257272 0
4.0890002 -0.55837715 0.73005819 0
4.0890002 -0.56503135 0.73005819 0
4.0880003 -0.57154316 0.7299698 0
4.0890002 -0.57833987 0.73005819 0
4.0910001 -0.58528632 0.73023498 0
4.0940003 -0.59238797 0.7305001 0
4.098 -0.59965008 0.73085368 0
4.1040001 -0.60722971 0.73138404 0
4.112 -0.61513758 0.73209107 0
4.1389999 -0.14042214 0.72773308 0
4.1330004 -0.14700425 0.72721362 0
4.1270003 -0.15356469 0.72669411 0
4.1200004 -0.16007283 0.72608805 0
4.1140003 -0.16658819 0.72556853 0
4.1080003 -0.1730819 0.72504902 0
4.1020002 -0.17955396 0.7245295 0
4.0960002 -0.18600439 0.72400999 0
4.0890002 -0.19239347 0.72340393 0
4.0830002 -0.19879879 0.72288442 0
4.0770001 -0.20518248 0.72236496 0
4.0710001 -0.21154451 0.72184545 0
4.0650001 -0.2178849 0.72132599 0
4.059 -0.22420363 0.72080648 0
4.053 -0.23050073 0.72028697 0
4.0469999 -0.23677617 0.71976745 0
4.0410004 -0.24302998 0.71924794 0
4.0350003 -0.24926214 0.71872848 0
4.0290003 -0.25547263 0.71820903 0
4.0230002 -0.2616615 0.71768951 0
4.0170002 -0.26782873 0.71717 0
4.0110002 -0.2739743 0.71665049 0
4.0050001 -0.28009823 0.71613097 0
3.9990003 -0.28620052 0.71561152 0
3.9930003 -0.29228115 0.715092 0
3.9870002 -0.29834014 0.71457249 0
3.9810002 -0.3043775 0.71405298 0
3.9760003 -0.31046715 0.71362007 0
3.9700003 -0.31646299 0.71310061 0
3.9640002 -0.3224372 0.7125811 0
3.9580002 -0.32838979 0.71206158 0
3.9530003 -0.33440188 0.71162868 0
3.9470003 -0.34031296 0.71110916 0
