# .PCD v0.7 - Point Cloud Data file format
VERSION 0.7
FIELDS x y z intensity
SIZE 4 4 4 4
TYPE F F F F
COUNT 1 1 1 1
WIDTH 1509
HEIGHT 1
VIEWPOINT 0 0 0 1 0 0 0
POINTS 1509
DATA ascii
4.2580004 1.6589776 0.63365006 0
4.257 1.6515783 0.63359052 0
4.256 1.6441828 0.63353097 0
4.263 1.6402829 0.63394767 0
4.2750001 1.6385314 0.63466197 0
4.3099999 1.6325878 0.63674539 0
4.316 1.6281 0.63710254 0
4.3210001 1.6231648 0.63740015 0
4.3270001 1.6186355 0.6377573 0
4.3330002 1.6140844 0.63811445 0
4.3380003 1.6090915 0.63841212 0
4.2340002 1.7106133 0.62530565 0
4.2270002 1.700503 0.62490159 0
4.2320004 1.6958727 0.6251902 0
4.2380004 1.6916771 0.62553656 0
4.243 1.6870087 0.62582517 0
4.2490001 1.6827717 0.62617147 0
4.2540002 1.6780654 0.62646008 0
4.2600002 1.6737869 0.62680638 0
4.2600002 1.6668242 0.62680638 0
4.2580004 1.6589776 0.62669098 0
4.257 1.6515783 0.62663323 0
4.256 1.6441828 0.62657553 0
4.263 1.6402829 0.62697959 0
4.2750001 1.6385314 0.62767226 0
4.3099999 1.6325878 0.62969249 0
4.316 1.6281 0.63003886 0
4.3210001 1.6231648 0.63032746 0
4.3270001 1.6186355 0.63067377 0
4.3330002 1.6140844 0.63102007 0
4.3380003 1.6090915 0.63130873 0
4.2340002 1.7106133 0.61838984 0
4.2270002 1.700503 0.61799842 0
4.2320004 1.6958727 0.61827803 0
4.2380004 1.6916771 0.61861354 0
4.243 1.6870087 0.61889309 0
4.2490001 1.6827717 0.6192286 0
4.2540002 1.6780654 0.61950821 0
4.2600002 1.6737869 0.61984372 0
4.2600002 1.6668242 0.61984372 0
4.2580004 1.6589776 0.6197319 0
4.257 1.6515783 0.61967593 0
4.256 1.6441828 0.61962003 0
4.263 1.6402829 0.62001145 0
4.2750001 1.6385314 0.62068248 0
4.3099999 1.6325878 0.6226396 0
4.316 1.6281 0.62297511 0
4.3210001 1.6231648 0.62325472 0
4.3270001 1.6186355 0.62359023 0
4.3330002 1.6140844 0.62392569 0
4.3380003 1.6090915 0.62420529 0
4.2340002 1.7106133 0.61147404 0
4.2270002 1.700503 0.61109525 0
4.2320004 1.6958727 0.6113658 0
4.2380004 1.6916771 0.61169052 0
4.243 1.6870087 0.61196107 0
4.2490001 1.6827717 0.61228573 0
4.2540002 1.6780654 0.61255634 0
4.2600002 1.6737869 0.612881 0
4.2600002 1.6668242 0.612881 0
4.2580004 1.6589776 0.61277276 0
4.257 1.6515783 0.6127187 0
4.256 1.6441828 0.61266458 0
4.263 1.6402829 0.61304337 0
4.2750001 1.6385314 0.61369276 0
4.3099999 1.6325878 0.6155867 0
4.316 1.6281 0.61591136 0
4.3210001 1.6231648 0.61618197 0
4.3270001 1.6186355 0.6165067 0
4.3330002 1.6140844 0.61683136 0
4.3380003 1.6090915 0.61710191 0
4.2340002 1.7106133 0.60455823 0
4.2270002 1.700503 0.60419208 0
4.2320004 1.6958727 0.60445362 0
4.2380004 1.6916771 0.6047675 0
4.243 1.6870087 0.60502905 0
4.2490001 1.6827717 0.60534286 0
4.2540002 1.6780654 0.60560441 0
4.2600002 1.6737869 0.60591829 0
4.2600002 1.6668242 0.60591829 0
4.2580004 1.6589776 0.60581368 0
4.257 1.6515783 0.60576141 0
4.256 1.6441828 0.60570908 0
4.263 1.6402829 0.60607523 0
4.2750001 1.6385314 0.60670298 0
4.3099999 1.6325878 0.6085338 0
4.316 1.6281 0.60884768 0
4.3210001 1.6231648 0.60910928 0
4.3270001 1.6186355 0.6094231 0
4.3330002 1.6140844 0.60973698 0
4.3380003 1.6090915 0.60999852 0
4.2340002 1.7106133 0.59764242 0
4.2270002 1.700503 0.59728891 0
4.2320004 1.6958727 0.59754145 0
4.2380004 1.6916771 0.59784448 0
4.243 1.6870087 0.59809697 0
4.2490001 1.6827717 0.5984 0
4.2540002 1.6780654 0.59865254 0
4.2600002 1.6737869 0.59895563 0
4.2600002 1.6668242 0.59895563 0
4.2580004 1.6589776 0.5988546 0
4.257 1.6515783 0.59880412 0
4.256 1.6441828 0.59875357 0
4.263 1.6402829 0.59910715 0
4.2750001 1.6385314 0.59971321 0
4.3099999 1.6325878 0.60148096 0
4.316 1.6281 0.60178399 0
4.3210001 1.6231648 0.60203654 0
4.3270001 1.6186355 0.60233957 0
4.3330002 1.6140844 0.6026426 0
4.3380003 1.6090915 0.60289514 0
4.2340002 1.7106133 0.59072661 0
4.2270002 1.700503 0.59038568 0
4.2320004 1.6958727 0.59062922 0
4.2380004 1.6916771 0.59092146 0
4.243 1.6870087 0.59116495 0
4.2490001 1.6827717 0.59145719 0
4.2540002 1.6780654 0.59170067 0
4.2600002 1.6737869 0.59199291 0
4.2600002 1.6668242 0.59199291 0
4.2580004 1.6589776 0.59189552 0
4.257 1.6515783 0.59184682 0
4.256 1.6441828 0.59179807 0
4.263 1.6402829 0.59213901 0
4.2750001 1.6385314 0.59272349 0
4.3099999 1.6325878 0.59442806 0
4.316 1.6281 0.59472024 0
4.3210001 1.6231648 0.59496379 0
4.3270001 1.6186355 0.59525597 0
4.3330002 1.6140844 0.59554821 0
4.3380003 1.6090915 0.5957917 0
4.2340002 1.7106133 0.58381081 0
4.2270002 1.700503 0.58348256 0
4.2320004 1.6958727 0.58371705 0
4.2380004 1.6916771 0.58399844 0
4.243 1.6870087 0.58423293 0
4.2490001 1.6827717 0.58451432 0
4.2540002 1.6780654 0.5847488 0
4.2600002 1.6737869 0.5850302 0
4.2600002 1.6668242 0.5850302 0
4.2580004 1.6589776 0.58493638 0
4.257 1.6515783 0.58488953 0
4.256 1.6441828 0.58484262 0
4.263 1.6402829 0.58517092 0
4.2750001 1.6385314 0.58573371 0
4.3099999 1.6325878 0.58737516 0
4.316 1.6281 0.58765656 0
4.3210001 1.6231648 0.58789104 0
4.3270001 1.6186355 0.58817244 0
4.3330002 1.6140844 0.58845383 0
4.3380003 1.6090915 0.58868837 0
4.2340002 1.7106133 0.57689506 0
4.2270002 1.700503 0.57657933 0
4.2320004 1.6958727 0.57680488 0
4.2380004 1.6916771 0.57707542 0
4.243 1.6870087 0.57730091 0
4.2490001 1.6827717 0.57757145 0
4.2540002 1.6780654 0.57779694 0
4.2600002 1.6737869 0.57806748 0
4.2600002 1.6668242 0.57806748 0
4.2580004 1.6589776 0.5779773 0
4.257 1.6515783 0.57793224 0
4.256 1.6441828 0.57788712 0
4.263 1.6402829 0.57820278 0
4.2750001 1.6385314 0.57874393 0
4.3099999 1.6325878 0.58032227 0
4.316 1.6281 0.58059287 0
4.3210001 1.6231648 0.5808183 0
4.3270001 1.6186355 0.5810889 0
4.3330002 1.6140844 0.58135945 0
4.3380003 1.6090915 0.58158493 0
4.2340002 1.7106133 0.56997925 0
4.2270002 1.700503 0.56967616 0
4.2320004 1.6958727 0.56989264 0
4.2380004 1.6916771 0.5701524 0
4.243 1.6870087 0.57036889 0
4.2490001 1.6827717 0.57062864 0
4.2540002 1.6780654 0.57084507 0
4.2600002 1.6737869 0.57110476 0
4.2600002 1.6668242 0.57110476 0
4.2580004 1.6589776 0.57101822 0
4.257 1.6515783 0.57097495 0
4.256 1.6441828 0.57093167 0
4.263 1.6402829 0.5712347 0
4.2750001 1.6385314 0.57175422 0
4.3099999 1.6325878 0.57326937 0
4.316 1.6281 0.57352912 0
4.3210001 1.6231648 0.57374561 0
4.3270001 1.6186355 0.57400537 0
4.3330002 1.6140844 0.57426506 0
4.3380003 1.6090915 0.57448155 0
4.2340002 1.7106133 0.56306344 0
4.2270002 1.700503 0.56277299 0
4.2320004 1.6958727 0.56298047 0
4.2380004 1.6916771 0.56322938 0
4.243 1.6870087 0.56343681 0
4.2490001 1.6827717 0.56368577 0
4.2540002 1.6780654 0.5638932 0
4.2600002 1.6737869 0.56414211 0
4.2600002 1.6668242 0.56414211 0
4.2580004 1.6589776 0.56405914 0
4.257 1.6515783 0.56401765 0
4.256 1.6441828 0.56397617 0
4.263 1.6402829 0.56426656 0
4.2750001 1.6385314 0.56476444 0
4.3099999 1.6325878 0.56621647 0
4.316 1.6281 0.56646538 0
4.3210001 1.6231648 0.56667286 0
4.3270001 1.6186355 0.56692177 0
4.3330002 1.6140844 0.56717068 0
4.3380003 1.6090915 0.56737816 0
4.2340002 1.7106133 0.55614763 0
4.2270002 1.700503 0.55586982 0
4.2320004 1.6958727 0.5560683 0
4.2380004 1.6916771 0.55630636 0
4.243 1.6870087 0.55650479 0
4.2490001 1.6827717 0.55674291 0
4.2540002 1.6780654 0.55694127 0
4.2600002 1.6737869 0.55717939 0
4.2600002 1.6668242 0.55717939 0
4.2580004 1.6589776 0.55710006 0
4.257 1.6515783 0.55706036 0
4.256 1.6441828 0.55702066 0
4.263 1.6402829 0.55729842 0
4.2750001 1.6385314 0.55777466 0
4.3099999 1.6325878 0.55916357 0
4.316 1.6281 0.55940169 0
4.3210001 1.6231648 0.55960011 0
4.3270001 1.6186355 0.55983824 0
4.3330002 1.6140844 0.56007636 0
4.3380003 1.6090915 0.56027472 0
4.2340002 1.7106133 0.54923183 0
4.2270002 1.700503 0.54896665 0
4.2320004 1.6958727 0.54915607 0
4.2380004 1.6916771 0.54938334 0
4.243 1.6870087 0.54957277 0
4.2490001 1.6827717 0.54980004 0
4.2540002 1.6780654 0.54998946 0
4.2600002 1.6737869 0.55021667 0
4.2600002 1.6668242 0.55021667 0
4.2580004 1.6589776 0.55014098 0
4.257 1.6515783 0.55010307 0
4.256 1.6441828 0.55006516 0
4.263 1.6402829 0.55033034 0
4.2750001 1.6385314 0.55078495 0
4.3099999 1.6325878 0.55211067 0
4.316 1.6281 0.552338 0
4.3210001 1.6231648 0.55252737 0
4.3270001 1.6186355 0.55275464 0
4.3330002 1.6140844 0.55298197 0
4.3380003 1.6090915 0.55317134 0
4.2340002 1.7106133 0.54231602 0
4.2270002 1.700503 0.54206347 0
4.2320004 1.6958727 0.5422439 0
4.2380004 1.6916771 0.54246032 0
4.243 1.6870087 0.54264069 0
4.2490001 1.6827717 0.54285717 0
4.2540002 1.6780654 0.54303753 0
4.2600002 1.6737869 0.54325402 0
4.2600002 1.6668242 0.54325402 0
4.2580004 1.6589776 0.54318184 0
4.257 1.6515783 0.54314578 0
4.256 1.6441828 0.54310971 0
4.263 1.6402829 0.54336226 0
4.2750001 1.6385314 0.54379517 0
4.3099999 1.6325878 0.54505783 0
4.316 1.6281 0.54527426 0
4.3210001 1.6231648 0.54545468 0
4.3270001 1.6186355 0.54567111 0
4.3330002 1.6140844 0.54588759 0
4.3380003 1.6090915 0.54606795 0
4.2340002 1.7106133 0.53540021 0
4.2270002 1.700503 0.5351603 0
4.2320004 1.6958727 0.53533173 0
4.2380004 1.6916771 0.5355373 0
4.243 1.6870087 0.53570867 0
4.2490001 1.6827717 0.5359143 0
4.2540002 1.6780654 0.53608567 0
4.2600002 1.6737869 0.5362913 0
4.2600002 1.6668242 0.5362913 0
4.2580004 1.6589776 0.53622276 0
4.257 1.6515783 0.53618848 0
4.256 1.6441828 0.53615421 0
4.263 1.6402829 0.53639412 0
4.2750001 1.6385314 0.53680539 0
4.3099999 1.6325878 0.53800493 0
4.316 1.6281 0.53821057 0
4.3210001 1.6231648 0.53838193 0
4.3270001 1.6186355 0.53858757 0
4.3330002 1.6140844 0.53879321 0
4.3380003 1.6090915 0.53896457 0
4.2340002 1.7106133 0.5284844 0
4.2270002 1.700503 0.52825713 0
4.2320004 1.6958727 0.52841949 0
4.2380004 1.6916771 0.52861428 0
4.243 1.6870087 0.52877665 0
4.2490001 1.6827717 0.52897143 0
4.2540002 1.6780654 0.5291338 0
4.2600002 1.6737869 0.52932858 0
4.2600002 1.6668242 0.52932858 0
4.2580004 1.6589776 0.52926368 0
4.257 1.6515783 0.52923119 0
4.256 1.6441828 0.52919877 0
4.263 1.6402829 0.52942604 0
4.2750001 1.6385314 0.52981567 0
4.3099999 1.6325878 0.53095204 0
4.316 1.6281 0.53114682 0
4.3210001 1.6231648 0.53130919 0
4.3270001 1.6186355 0.53150403 0
4.3330002 1.6140844 0.53169882 0
4.3380003 1.6090915 0.53186119 0
4.2340002 1.7106133 0.52156866 0
4.2270002 1.700503 0.52135396 0
4.2320004 1.6958727 0.52150732 0
4.2380004 1.6916771 0.52169126 0
4.243 1.6870087 0.52184463 0
4.2490001 1.6827717 0.52202863 0
4.2540002 1.6780654 0.52218193 0
4.2600002 1.6737869 0.52236593 0
4.2600002 1.6668242 0.52236593 0
4.2580004 1.6589776 0.52230459 0
4.257 1.6515783 0.5222739 0
4.256 1.6441828 0.52224326 0
4.263 1.6402829 0.5224579 0
4.2750001 1.6385314 0.5228259 0
4.3099999 1.6325878 0.52389914 0
4.316 1.6281 0.52408314 0
4.3210001 1.6231648 0.52423644 0
4.3270001 1.6186355 0.52442044 0
4.3330002 1.6140844 0.52460444 0
4.3380003 1.6090915 0.52475774 0
4.2340002 1.7106133 0.51465285 0
4.2270002 1.700503 0.51445079 0
4.2320004 1.6958727 0.51459509 0
4.2380004 1.6916771 0.51476824 0
4.243 1.6870087 0.51491261 0
4.2490001 1.6827717 0.51508576 0
4.2540002 1.6780654 0.51523006 0
4.2600002 1.6737869 0.51540321 0
4.2600002 1.6668242 0.51540321 0
4.2580004 1.6589776 0.51534551 0
4.257 1.6515783 0.51531661 0
4.256 1.6441828 0.51528776 0
4.263 1.6402829 0.51548982 0
4.2750001 1.6385314 0.51583612 0
4.3099999 1.6325878 0.51684624 0
4.316 1.6281 0.51701939 0
4.3210001 1.6231648 0.51716375 0
4.3270001 1.6186355 0.51733691 0
4.3330002 1.6140844 0.51751006 0
4.3380003 1.6090915 0.51765436 0
4.2340002 1.7106133 0.50773704 0
4.2270002 1.700503 0.50754762 0
4.2320004 1.6958727 0.50768292 0
4.2380004 1.6916771 0.50784528 0
4.243 1.6870087 0.50798053 0
4.2490001 1.6827717 0.50814289 0
4.2540002 1.6780654 0.50827819 0
4.2600002 1.6737869 0.50844049 0
4.2600002 1.6668242 0.50844049 0
4.2580004 1.6589776 0.50838637 0
4.257 1.6515783 0.50835931 0
4.256 1.6441828 0.50833225 0
4.263 1.6402829 0.50852168 0
4.2750001 1.6385314 0.5088464 0
4.3099999 1.6325878 0.50979334 0
4.316 1.6281 0.5099557 0
4.3210001 1.6231648 0.51009101 0
4.3270001 1.6186355 0.51025331 0
4.3330002 1.6140844 0.51041567 0
4.3380003 1.6090915 0.51055098 0
4.2340002 1.7106133 0.50082123 0
4.2270002 1.700503 0.50064445 0
4.2320004 1.6958727 0.50077069 0
4.2380004 1.6916771 0.50092226 0
4.243 1.6870087 0.50104851 0
4.2490001 1.6827717 0.50120002 0
4.2540002 1.6780654 0.50132626 0
4.2600002 1.6737869 0.50147784 0
4.2600002 1.6668242 0.50147784 0
4.2580004 1.6589776 0.50142729 0
4.257 1.6515783 0.50140202 0
4.256 1.6441828 0.50137681 0
4.263 1.6402829 0.50155354 0
4.2750001 1.6385314 0.50185663 0
4.3099999 1.6325878 0.5027405 0
4.316 1.6281 0.50289202 0
4.3210001 1.6231648 0.50301826 0
4.3270001 1.6186355 0.50316978 0
4.3330002 1.6140844 0.50332129 0
4.3380003 1.6090915 0.50344759 0
4.2340002 1.7106133 0.49390543 0
4.2270002 1.700503 0.49374127 0
4.2320004 1.6958727 0.49385852 0
4.2380004 1.6916771 0.49399924 0
4.243 1.6870087 0.49411649 0
4.2490001 1.6827717 0.49425715 0
4.2540002 1.6780654 0.49437439 0
4.2600002 1.6737869 0.49451512 0
4.2600002 1.6668242 0.49451512 0
4.2580004 1.6589776 0.49446821 0
4.257 1.6515783 0.49444476 0
4.256 1.6441828 0.4944213 0
4.263 1.6402829 0.49458545 0
4.2750001 1.6385314 0.49486685 0
4.3099999 1.6325878 0.4956876 0
4.316 1.6281 0.49582827 0
4.3210001 1.6231648 0.49594554 0
4.3270001 1.6186355 0.49608624 0
4.3330002 1.6140844 0.49622691 0
4.3380003 1.6090915 0.49634418 0
4.2340002 1.7106133 0.48698962 0
4.2270002 1.700503 0.4868381 0
4.2320004 1.6958727 0.48694634 0
4.2380004 1.6916771 0.48707622 0
4.243 1.6870087 0.48718444 0
4.2490001 1.6827717 0.48731431 0
4.2540002 1.6780654 0.48742253 0
4.2600002 1.6737869 0.4875524 0
4.2600002 1.6668242 0.4875524 0
4.2580004 1.6589776 0.48750913 0
4.257 1.6515783 0.48748747 0
4.256 1.6441828 0.48746583 0
4.263 1.6402829 0.48761734 0
4.2750001 1.6385314 0.4878771 0
4.3099999 1.6325878 0.48863471 0
4.316 1.6281 0.48876458 0
4.3210001 1.6231648 0.4888728 0
4.3270001 1.6186355 0.48900267 0
4.3330002 1.6140844 0.48913252 0
4.3380003 1.6090915 0.48924077 0
4.2340002 1.7106133 0.48007381 0
4.2270002 1.700503 0.47993493 0
4.2320004 1.6958727 0.48003414 0
4.2380004 1.6916771 0.4801532 0
4.243 1.6870087 0.48025239 0
4.2490001 1.6827717 0.48037145 0
4.2540002 1.6780654 0.48047066 0
4.2600002 1.6737869 0.48058972 0
4.2600002 1.6668242 0.48058972 0
4.2580004 1.6589776 0.48055002 0
4.257 1.6515783 0.4805302 0
4.256 1.6441828 0.48051035 0
4.263 1.6402829 0.48064923 0
4.2750001 1.6385314 0.48088735 0
4.3099999 1.6325878 0.48158181 0
4.316 1.6281 0.48170084 0
4.3210001 1.6231648 0.48180008 0
4.3270001 1.6186355 0.48191911 0
4.3330002 1.6140844 0.48203817 0
4.3380003 1.6090915 0.48213738 0
4.2340002 1.7106133 0.473158 0
4.2270002 1.700503 0.47303176 0
4.2320004 1.6958727 0.47312194 0
4.2380004 1.6916771 0.47323018 0
4.243 1.6870087 0.47332036 0
4.2490001 1.6827717 0.47342861 0
4.2540002 1.6780654 0.47351879 0
4.2600002 1.6737869 0.47362703 0
4.2600002 1.6668242 0.47362703 0
4.2580004 1.6589776 0.47359094 0
4.257 1.6515783 0.47357291 0
4.256 1.6441828 0.47355485 0
4.263 1.6402829 0.47368112 0
4.2750001 1.6385314 0.47389758 0
4.3099999 1.6325878 0.47452891 0
4.316 1.6281 0.47463715 0
4.3210001 1.6231648 0.47472733 0
4.3270001 1.6186355 0.47483557 0
4.3330002 1.6140844 0.47494379 0
4.3380003 1.6090915 0.475034 0
4.2340002 1.7106133 0.46624222 0
4.2270002 1.700503 0.46612859 0
4.2320004 1.6958727 0.46620977 0
4.2380004 1.6916771 0.46630716 0
4.243 1.6870087 0.46638834 0
4.2490001 1.6827717 0.46648574 0
4.2540002 1.6780654 0.46656692 0
4.2600002 1.6737869 0.46666431 0
4.2600002 1.6668242 0.46666431 0
4.2580004 1.6589776 0.46663183 0
4.257 1.6515783 0.46661562 0
4.256 1.6441828 0.46659938 0
4.263 1.6402829 0.46671301 0
4.2750001 1.6385314 0.46690783 0
4.3099999 1.6325878 0.46747601 0
4.316 1.6281 0.46757343 0
4.3210001 1.6231648 0.46765459 0
4.3270001 1.6186355 0.46775201 0
4.3330002 1.6140844 0.4678494 0
4.3380003 1.6090915 0.46793059 0
4.2340002 1.7106133 0.45932642 0
4.2270002 1.700503 0.45922542 0
4.2320004 1.6958727 0.45929757 0
4.2380004 1.6916771 0.45938414 0
4.243 1.6870087 0.45945629 0
4.2490001 1.6827717 0.45954287 0
4.2540002 1.6780654 0.45961502 0
4.2600002 1.6737869 0.4597016 0
4.2600002 1.6668242 0.4597016 0
4.2580004 1.6589776 0.45967275 0
4.257 1.6515783 0.45965832 0
4.256 1.6441828 0.4596439 0
4.263 1.6402829 0.4597449 0
4.2750001 1.6385314 0.45991808 0
4.3099999 1.6325878 0.46042314 0
4.316 1.6281 0.46050972 0
4.3210001 1.6231648 0.46058187 0
4.3270001 1.6186355 0.46066844 0
4.3330002 1.6140844 0.46075505 0
4.3380003 1.6090915 0.4608272 0
4.2340002 1.7106133 0.45241061 0
4.2270002 1.700503 0.45232224 0
4.2320004 1.6958727 0.45238537 0
4.2380004 1.6916771 0.45246112 0
4.243 1.6870087 0.45252424 0
4.2490001 1.6827717 0.4526 0
4.2540002 1.6780654 0.45266315 0
4.2600002 1.6737869 0.45273891 0
4.2600002 1.6668242 0.45273891 0
4.2580004 1.6589776 0.45271367 0
4.257 1.6515783 0.45270103 0
4.256 1.6441828 0.4526884 0
4.263 1.6402829 0.45277679 0
4.2750001 1.6385314 0.4529283 0
4.3099999 1.6325878 0.45337024 0
4.316 1.6281 0.453446 0
4.3210001 1.6231648 0.45350915 0
4.3270001 1.6186355 0.45358491 0
4.3330002 1.6140844 0.45366067 0
4.3380003 1.6090915 0.45372379 0
4.2340002 1.7106133 0.44549483 0
4.2270002 1.700503 0.44541907 0
4.2320004 1.6958727 0.44547316 0
4.2380004 1.6916771 0.4455381 0
4.243 1.6870087 0.44559222 0
4.2490001 1.6827717 0.44565716 0
4.2540002 1.6780654 0.44571128 0
4.2600002 1.6737869 0.44577622 0
4.2600002 1.6668242 0.44577622 0
4.2580004 1.6589776 0.44575456 0
4.257 1.6515783 0.44574374 0
4.256 1.6441828 0.44573292 0
4.263 1.6402829 0.44580868 0
4.2750001 1.6385314 0.44593856 0
4.3099999 1.6325878 0.44631734 0
4.316 1.6281 0.44638228 0
4.3210001 1.6231648 0.44643641 0
4.3270001 1.6186355 0.44650134 0
4.3330002 1.6140844 0.44656628 0
4.3380003 1.6090915 0.4466204 0
4.2350001 1.7110716 0.43858802 0
4.2270002 1.700503 0.43851587 0
4.2320004 1.6958727 0.43856099 0
4.2380004 1.6916771 0.43861508 0
4.243 1.6870087 0.4386602 0
4.2490001 1.6827717 0.4387143 0
4.2540002 1.6780654 0.43875939 0
4.2600002 1.6737869 0.43881351 0
4.2600002 1.6668242 0.43881351 0
4.2580004 1.6589776 0.43879548 0
4.257 1.6515783 0.43878645 0
4.256 1.6441828 0.43877745 0
4.263 1.6402829 0.43884057 0
4.2750001 1.6385314 0.43894881 0
4.3099999 1.6325878 0.43926448 0
4.316 1.6281 0.43931857 0
4.3210001 1.6231648 0.43936369 0
4.3270001 1.6186355 0.43941778 0
4.3330002 1.6140844 0.4394719 0
4.3380003 1.6090915 0.43951699 0
4.2350001 1.7110716 0.43167043 0
4.2270002 1.700503 0.4316127 0
4.2320004 1.6958727 0.43164879 0
4.2380004 1.6916771 0.43169206 0
4.243 1.6870087 0.43172815 0
4.2490001 1.6827717 0.43177146 0
4.2540002 1.6780654 0.43180752 0
4.2600002 1.6737869 0.43185082 0
4.2600002 1.6668242 0.43185082 0
4.2580004 1.6589776 0.4318364 0
4.257 1.6515783 0.43182915 0
4.256 1.6441828 0.43182194 0
4.263 1.6402829 0.43187246 0
4.2750001 1.6385314 0.43195903 0
4.3099999 1.6325878 0.43221158 0
4.316 1.6281 0.43225485 0
4.3210001 1.6231648 0.43229094 0
4.3270001 1.6186355 0.43233424 0
4.3330002 1.6140844 0.43237752 0
4.3380003 1.6090915 0.43241361 0
4.2350001 1.7110716 0.42475283 0
4.2270002 1.700503 0.42470953 0
4.2320004 1.6958727 0.42473659 0
4.2380004 1.6916771 0.42476907 0
4.243 1.6870087 0.4247961 0
4.2490001 1.6827717 0.42482859 0
4.2540002 1.6780654 0.42485565 0
4.2600002 1.6737869 0.4248881 0
4.2600002 1.6668242 0.4248881 0
4.2580004 1.6589776 0.42487729 0
4.257 1.6515783 0.42487189 0
4.256 1.6441828 0.42486647 0
4.263 1.6402829 0.42490435 0
4.2750001 1.6385314 0.42496929 0
4.3099999 1.6325878 0.42515868 0
4.316 1.6281 0.42519116 0
4.3210001 1.6231648 0.42521822 0
4.3270001 1.6186355 0.42525068 0
4.3330002 1.6140844 0.42528313 0
4.3380003 1.6090915 0.42531019 0
4.2350001 1.7110716 0.41783524 0
4.2270002 1.700503 0.41780636 0
4.2320004 1.6958727 0.41782439 0
4.2380004 1.6916771 0.41784605 0
4.243 1.6870087 0.41786408 0
4.2490001 1.6827717 0.41788572 0
4.2540002 1.6780654 0.41790378 0
4.2600002 1.6737869 0.41792542 0
4.2600002 1.6668242 0.41792542 0
4.2580004 1.6589776 0.41791821 0
4.257 1.6515783 0.4179146 0
4.256 1.6441828 0.41791099 0
4.263 1.6402829 0.41793624 0
4.2750001 1.6385314 0.41797954 0
4.3099999 1.6325878 0.41810578 0
4.316 1.6281 0.41812745 0
4.3210001 1.6231648 0.41814548 0
4.3270001 1.6186355 0.41816711 0
4.3330002 1.6140844 0.41818878 0
4.3380003 1.6090915 0.41820681 0
4.2350001 1.7110716 0.41091761 0
4.2270002 1.700503 0.41090319 0
4.2320004 1.6958727 0.41091222 0
4.2380004 1.6916771 0.41092303 0
4.243 1.6870087 0.41093206 0
4.2490001 1.6827717 0.41094288 0
4.2540002 1.6780654 0.41095188 0
4.2600002 1.6737869 0.4109627 0
4.2600002 1.6668242 0.4109627 0
4.2580004 1.6589776 0.41095909 0
4.257 1.6515783 0.41095731 0
4.256 1.6441828 0.41095549 0
4.263 1.6402829 0.41096812 0
4.2750001 1.6385314 0.41098976 0
4.3099999 1.6325878 0.41105291 0
4.316 1.6281 0.41106373 0
4.3210001 1.6231648 0.41107276 0
4.3270001 1.6186355 0.41108358 0
4.3330002 1.6140844 0.4110944 0
4.3380003 1.6090915 0.4111034 0
4.2350001 1.7110716 0.40400001 0
4.2270002 1.700503 0.40400001 0
4.2320004 1.6958727 0.40400001 0
4.2380004 1.6916771 0.40400001 0
4.243 1.6870087 0.40400001 0
4.2490001 1.6827717 0.40400001 0
4.2540002 1.6780654 0.40400001 0
4.2600002 1.6737869 0.40400001 0
4.2600002 1.6668242 0.40400001 0
4.2580004 1.6589776 0.40400001 0
4.257 1.6515783 0.40400001 0
4.256 1.6441828 0.40400001 0
4.263 1.6402829 0.40400001 0
4.2750001 1.6385314 0.40400001 0
4.3099999 1.6325878 0.40400001 0
4.316 1.6281 0.40400001 0
4.3210001 1.6231648 0.40400001 0
4.3270001 1.6186355 0.40400001 0
4.3330002 1.6140844 0.40400001 0
4.3380003 1.6090915 0.40400001 0
4.2350001 1.7110716 0.39708242 0
4.2270002 1.700503 0.39709684 0
4.2320004 1.6958727 0.39708781 0
4.2380004 1.6916771 0.39707699 0
4.243 1.6870087 0.39706796 0
4.2490001 1.6827717 0.39705715 0
4.2540002 1.6780654 0.39704815 0
4.2600002 1.6737869 0.39703733 0
4.2600002 1.6668242 0.39703733 0
4.2580004 1.6589776 0.39704093 0
4.257 1.6515783 0.39704272 0
4.256 1.6441828 0.39704454 0
4.263 1.6402829 0.3970319 0
4.2750001 1.6385314 0.39701027 0
4.3099999 1.6325878 0.39694712 0
4.316 1.6281 0.3969363 0
4.3210001 1.6231648 0.39692727 0
4.3270001 1.6186355 0.39691645 0
4.3330002 1.6140844 0.39690563 0
4.3380003 1.6090915 0.39689663 0
4.2350001 1.7110716 0.39016479 0
4.2270002 1.700503 0.39019367 0
4.2320004 1.6958727 0.39017564 0
4.2380004 1.6916771 0.39015397 0
4.243 1.6870087 0.39013594 0
4.2490001 1.6827717 0.39011431 0
4.2540002 1.6780654 0.39009625 0
4.2600002 1.6737869 0.39007461 0
4.2600002 1.6668242 0.39007461 0
4.2580004 1.6589776 0.39008182 0
4.257 1.6515783 0.39008543 0
4.256 1.6441828 0.39008904 0
4.263 1.6402829 0.39006379 0
4.2750001 1.6385314 0.39002049 0
4.3099999 1.6325878 0.38989425 0
4.316 1.6281 0.38987258 0
4.3210001 1.6231648 0.38985455 0
4.3270001 1.6186355 0.38983291 0
4.3330002 1.6140844 0.38981125 0
4.3380003 1.6090915 0.38979322 0
4.2350001 1.7110716 0.3832472 0
4.2270002 1.700503 0.3832905 0
4.2320004 1.6958727 0.38326344 0
4.2380004 1.6916771 0.38323095 0
4.243 1.6870087 0.38320392 0
4.2490001 1.6827717 0.38317144 0
4.2540002 1.6780654 0.38314438 0
4.2600002 1.6737869 0.38311192 0
4.2600002 1.6668242 0.38311192 0
4.2580004 1.6589776 0.38312274 0
4.257 1.6515783 0.38312814 0
4.256 1.6441828 0.38313356 0
4.263 1.6402829 0.38309568 0
4.2750001 1.6385314 0.38303074 0
4.3099999 1.6325878 0.38284135 0
4.316 1.6281 0.38280886 0
4.3210001 1.6231648 0.3827818 0
4.3270001 1.6186355 0.38274935 0
4.3330002 1.6140844 0.38271689 0
4.3380003 1.6090915 0.38268983 0
4.2350001 1.7110716 0.3763296 0
4.2270002 1.700503 0.37638733 0
4.2320004 1.6958727 0.37635124 0
4.2380004 1.6916771 0.37630796 0
4.243 1.6870087 0.37627187 0
4.2490001 1.6827717 0.37622857 0
4.2540002 1.6780654 0.37619251 0
4.2600002 1.6737869 0.37614921 0
4.2600002 1.6668242 0.37614921 0
4.2580004 1.6589776 0.37616363 0
4.257 1.6515783 0.37617087 0
4.256 1.6441828 0.37617809 0
4.263 1.6402829 0.37612757 0
4.2750001 1.6385314 0.376041 0
4.3099999 1.6325878 0.37578845 0
4.316 1.6281 0.37574518 0
4.3210001 1.6231648 0.37570909 0
4.3270001 1.6186355 0.37566578 0
4.3330002 1.6140844 0.37562251 0
4.3380003 1.6090915 0.37558642 0
4.2350001 1.7110716 0.369412 0
4.2270002 1.700503 0.36948416 0
4.2320004 1.6958727 0.36943904 0
4.2380004 1.6916771 0.36938494 0
4.243 1.6870087 0.36933982 0
4.2490001 1.6827717 0.36928573 0
4.2540002 1.6780654 0.36924064 0
4.2600002 1.6737869 0.36918652 0
4.2600002 1.6668242 0.36918652 0
4.2580004 1.6589776 0.36920455 0
4.257 1.6515783 0.36921358 0
4.256 1.6441828 0.36922258 0
4.263 1.6402829 0.36915946 0
4.2750001 1.6385314 0.36905122 0
4.3099999 1.6325878 0.36873555 0
4.316 1.6281 0.36868146 0
4.3210001 1.6231648 0.36863634 0
4.3270001 1.6186355 0.36858225 0
4.3330002 1.6140844 0.36852813 0
4.3380003 1.6090915 0.36848304 0
4.2350001 1.7110716 0.36249438 0
4.2270002 1.700503 0.36258096 0
4.2320004 1.6958727 0.36252686 0
4.2380004 1.6916771 0.36246192 0
4.243 1.6870087 0.3624078 0
4.2490001 1.6827717 0.36234286 0
4.2540002 1.6780654 0.36228874 0
4.2600002 1.6737869 0.3622238 0
4.2600002 1.6668242 0.3622238 0
4.2580004 1.6589776 0.36224547 0
4.257 1.6515783 0.36225629 0
4.256 1.6441828 0.36226711 0
4.263 1.6402829 0.36219135 0
4.2750001 1.6385314 0.36206147 0
4.3099999 1.6325878 0.36168268 0
4.316 1.6281 0.36161774 0
4.3210001 1.6231648 0.36156362 0
4.3270001 1.6186355 0.36149868 0
4.3330002 1.6140844 0.36143374 0
4.3380003 1.6090915 0.36137962 0
4.2350001 1.7110716 0.35557678 0
4.2270002 1.700503 0.35567778 0
4.2320004 1.6958727 0.35561466 0
4.2380004 1.6916771 0.3555389 0
4.243 1.6870087 0.35547578 0
4.2490001 1.6827717 0.35540003 0
4.2540002 1.6780654 0.35533687 0
4.2600002 1.6737869 0.35526112 0
4.2600002 1.6668242 0.35526112 0
4.2580004 1.6589776 0.35528636 0
4.257 1.6515783 0.355299 0
4.256 1.6441828 0.35531163 0
4.263 1.6402829 0.35522324 0
4.2750001 1.6385314 0.35507172 0
4.3099999 1.6325878 0.35462978 0
4.316 1.6281 0.35455403 0
4.3210001 1.6231648 0.35449088 0
4.3270001 1.6186355 0.35441512 0
4.3330002 1.6140844 0.35433936 0
4.3380003 1.6090915 0.35427624 0
4.2350001 1.7110716 0.34865919 0
4.2270002 1.700503 0.34877461 0
4.2320004 1.6958727 0.34870246 0
4.2380004 1.6916771 0.34861588 0
4.243 1.6870087 0.34854373 0
4.2490001 1.6827717 0.34845716 0
4.2540002 1.6780654 0.34838501 0
4.2600002 1.6737869 0.34829843 0
4.2600002 1.6668242 0.34829843 0
4.2580004 1.6589776 0.34832728 0
4.257 1.6515783 0.3483417 0
4.256 1.6441828 0.34835613 0
4.263 1.6402829 0.34825513 0
4.2750001 1.6385314 0.34808195 0
4.3099999 1.6325878 0.34757689 0
4.316 1.6281 0.34749031 0
4.3210001 1.6231648 0.34741816 0
4.3270001 1.6186355 0.34733158 0
4.3330002 1.6140844 0.34724498 0
4.3380003 1.6090915 0.34717283 0
4.2350001 1.7110716 0.34174156 0
4.2270002 1.700503 0.34187144 0
4.2320004 1.6958727 0.34179026 0
4.2380004 1.6916771 0.34169286 0
4.243 1.6870087 0.34161168 0
4.2490001 1.6827717 0.34151429 0
4.2540002 1.6780654 0.34143311 0
4.2600002 1.6737869 0.34133571 0
4.2600002 1.6668242 0.34133571 0
4.2580004 1.6589776 0.3413682 0
4.257 1.6515783 0.34138441 0
4.256 1.6441828 0.34140065 0
4.263 1.6402829 0.34128702 0
4.2750001 1.6385314 0.3410922 0
4.3099999 1.6325878 0.34052402 0
4.316 1.6281 0.34042659 0
4.3210001 1.6231648 0.34034544 0
4.3270001 1.6186355 0.34024802 0
4.3330002 1.6140844 0.34015062 0
4.3380003 1.6090915 0.34006944 0
4.2350001 1.7110716 0.33482397 0
4.2270002 1.700503 0.33496827 0
4.2320004 1.6958727 0.33487809 0
4.2380004 1.6916771 0.33476985 0
4.243 1.6870087 0.33467966 0
4.2490001 1.6827717 0.33457142 0
4.2540002 1.6780654 0.33448124 0
4.2600002 1.6737869 0.334373 0
4.2600002 1.6668242 0.334373 0
4.2580004 1.6589776 0.33440909 0
4.257 1.6515783 0.33442712 0
4.256 1.6441828 0.33444518 0
4.263 1.6402829 0.33431891 0
4.2750001 1.6385314 0.33410245 0
4.3099999 1.6325878 0.33347112 0
4.316 1.6281 0.33336288 0
4.3210001 1.6231648 0.3332727 0
4.3270001 1.6186355 0.33316445 0
4.3330002 1.6140844 0.33305624 0
4.3380003 1.6090915 0.33296603 0
4.2350001 1.7110716 0.32790637 0
4.2270002 1.700503 0.3280651 0
4.2320004 1.6958727 0.32796589 0
4.2380004 1.6916771 0.32784683 0
4.243 1.6870087 0.32774764 0
4.2490001 1.6827717 0.32762858 0
4.2540002 1.6780654 0.32752937 0
4.2600002 1.6737869 0.32741031 0
4.2600002 1.6668242 0.32741031 0
4.2580004 1.6589776 0.32745001 0
4.257 1.6515783 0.32746983 0
4.256 1.6441828 0.32748967 0
4.263 1.6402829 0.3273508 0
4.2750001 1.6385314 0.32711267 0
4.3099999 1.6325878 0.32641822 0
4.316 1.6281 0.32629919 0
4.3210001 1.6231648 0.32619995 0
4.3270001 1.6186355 0.32608092 0
4.3330002 1.6140844 0.32596186 0
4.3380003 1.6090915 0.32586265 0
4.2350001 1.7110716 0.32098874 0
4.2270002 1.700503 0.32116193 0
4.2320004 1.6958727 0.32105368 0
4.2380004 1.6916771 0.32092381 0
4.243 1.6870087 0.32081559 0
4.2490001 1.6827717 0.32068571 0
4.2540002 1.6780654 0.3205775 0
4.2600002 1.6737869 0.32044762 0
4.2600002 1.6668242 0.32044762 0
4.2580004 1.6589776 0.3204909 0
4.257 1.6515783 0.32051256 0
4.256 1.6441828 0.3205342 0
4.263 1.6402829 0.32038268 0
4.2750001 1.6385314 0.32012293 0
4.3099999 1.6325878 0.31936532 0
4.316 1.6281 0.31923544 0
4.3210001 1.6231648 0.31912723 0
4.3270001 1.6186355 0.31899735 0
4.3330002 1.6140844 0.3188675 0
4.3380003 1.6090915 0.31875926 0
4.2350001 1.7110716 0.31407115 0
4.2270002 1.700503 0.31425875 0
4.2320004 1.6958727 0.31414151 0
4.2380004 1.6916771 0.31400079 0
4.243 1.6870087 0.31388354 0
4.2490001 1.6827717 0.31374288 0
4.2540002 1.6780654 0.31362563 0
4.2600002 1.6737869 0.31348491 0
4.2600002 1.6668242 0.31348491 0
4.2580004 1.6589776 0.31353182 0
4.257 1.6515783 0.31355527 0
4.256 1.6441828 0.31357872 0
4.263 1.6402829 0.31341457 0
4.2750001 1.6385314 0.31313318 0
4.3099999 1.6325878 0.31231242 0
4.316 1.6281 0.31217176 0
4.3210001 1.6231648 0.31205449 0
4.3270001 1.6186355 0.31191379 0
4.3330002 1.6140844 0.31177312 0
4.3380003 1.6090915 0.31165585 0
4.2350001 1.7110716 0.30715355 0
4.2270002 1.700503 0.30735558 0
4.2320004 1.6958727 0.30722931 0
4.2380004 1.6916771 0.3070778 0
4.243 1.6870087 0.30695152 0
4.2490001 1.6827717 0.30680001 0
4.2540002 1.6780654 0.30667374 0
4.2600002 1.6737869 0.30652222 0
4.2600002 1.6668242 0.30652222 0
4.2580004 1.6589776 0.30657274 0
4.257 1.6515783 0.30659798 0
4.256 1.6441828 0.30662322 0
4.263 1.6402829 0.30644646 0
4.2750001 1.6385314 0.3061434 0
4.3099999 1.6325878 0.30525956 0
4.316 1.6281 0.30510804 0
4.3210001 1.6231648 0.30498177 0
4.3270001 1.6186355 0.30483025 0
4.3330002 1.6140844 0.30467874 0
4.3380003 1.6090915 0.30455247 0
4.2350001 1.7110716 0.30023593 0
4.2270002 1.700503 0.30045241 0
4.2320004 1.6958727 0.30031711 0
4.2380004 1.6916771 0.30015478 0
4.243 1.6870087 0.3000195 0
4.2490001 1.6827717 0.29985714 0
4.2540002 1.6780654 0.29972187 0
4.2600002 1.6737869 0.29955953 0
4.2600002 1.6668242 0.29955953 0
4.2580004 1.6589776 0.29961362 0
4.257 1.6515783 0.29964069 0
4.256 1.6441828 0.29966775 0
4.263 1.6402829 0.29947835 0
4.2750001 1.6385314 0.29915366 0
4.3099999 1.6325878 0.29820666 0
4.316 1.6281 0.29804432 0
4.3210001 1.6231648 0.29790902 0
4.3270001 1.6186355 0.29774669 0
4.3330002 1.6140844 0.29758435 0
4.3380003 1.6090915 0.29744905 0
4.2350001 1.7110716 0.29331833 0
4.2270002 1.700503 0.29354924 0
4.2320004 1.6958727 0.29340494 0
4.2380004 1.6916771 0.29323176 0
4.243 1.6870087 0.29308745 0
4.2490001 1.6827717 0.29291427 0
4.2540002 1.6780654 0.29276997 0
4.2600002 1.6737869 0.29259682 0
4.2600002 1.6668242 0.29259682 0
4.2580004 1.6589776 0.29265454 0
4.257 1.6515783 0.29268339 0
4.256 1.6441828 0.29271227 0
4.263 1.6402829 0.29251024 0
4.2750001 1.6385314 0.29216391 0
4.3099999 1.6325878 0.29115379 0
4.316 1.6281 0.29098061 0
4.3210001 1.6231648 0.2908363 0
4.3270001 1.6186355 0.29066312 0
4.3330002 1.6140844 0.29048997 0
4.3380003 1.6090915 0.29034567 0
4.2350001 1.7110716 0.28640074 0
4.2270002 1.700503 0.28664607 0
4.2320004 1.6958727 0.28649274 0
4.2380004 1.6916771 0.28630874 0
4.243 1.6870087 0.28615543 0
4.2490001 1.6827717 0.28597143 0
4.2540002 1.6780654 0.2858181 0
4.2600002 1.6737869 0.2856341 0
4.2600002 1.6668242 0.2856341 0
4.2580004 1.6589776 0.28569543 0
4.257 1.6515783 0.28572613 0
4.256 1.6441828 0.28575677 0
4.263 1.6402829 0.28554213 0
4.2750001 1.6385314 0.28517413 0
4.3099999 1.6325878 0.28410089 0
4.316 1.6281 0.28391689 0
4.3210001 1.6231648 0.28376356 0
4.3270001 1.6186355 0.28357959 0
4.3330002 1.6140844 0.28339559 0
4.3380003 1.6090915 0.28324226 0
4.2350001 1.7110716 0.27948314 0
4.2270002 1.700503 0.2797429 0
4.2320004 1.6958727 0.27958053 0
4.2380004 1.6916771 0.27938572 0
4.243 1.6870087 0.27922338 0
4.2490001 1.6827717 0.27902856 0
4.2540002 1.6780654 0.27886623 0
4.2600002 1.6737869 0.27867141 0
4.2600002 1.6668242 0.27867141 0
4.2580004 1.6589776 0.27873635 0
4.257 1.6515783 0.27876884 0
4.256 1.6441828 0.27880129 0
4.263 1.6402829 0.27857399 0
4.2750001 1.6385314 0.27818438 0
4.3099999 1.6325878 0.27704799 0
4.316 1.6281 0.2768532 0
4.3210001 1.6231648 0.27669084 0
4.3270001 1.6186355 0.27649602 0
4.3330002 1.6140844 0.27630121 0
4.3380003 1.6090915 0.27613887 0
4.2350001 1.7110716 0.27256554 0
4.2270002 1.700503 0.27283973 0
4.2320004 1.6958727 0.27266833 0
4.2380004 1.6916771 0.27246273 0
4.243 1.6870087 0.27229136 0
4.2490001 1.6827717 0.27208573 0
4.2540002 1.6780654 0.27191436 0
4.2600002 1.6737869 0.27170873 0
4.2600002 1.6668242 0.27170873 0
4.2580004 1.6589776 0.27177727 0
4.257 1.6515783 0.27181154 0
4.256 1.6441828 0.27184582 0
4.263 1.6402829 0.27160591 0
4.2750001 1.6385314 0.27119464 0
4.3099999 1.6325878 0.26999509 0
4.316 1.6281 0.26978946 0
4.3210001 1.6231648 0.26961809 0
4.3270001 1.6186355 0.26941246 0
4.3330002 1.6140844 0.26920682 0
4.3380003 1.6090915 0.26903546 0
4.2350001 1.7110716 0.26564792 0
4.2270002 1.700503 0.26593655 0
4.2320004 1.6958727 0.26575613 0
4.2380004 1.6916771 0.26553968 0
4.243 1.6870087 0.26535931 0
4.2490001 1.6827717 0.26514286 0
4.2540002 1.6780654 0.26496249 0
4.2600002 1.6737869 0.26474601 0
4.2600002 1.6668242 0.26474601 0
4.2580004 1.6589776 0.26481819 0
4.257 1.6515783 0.26485425 0
4.256 1.6441828 0.26489031 0
4.263 1.6402829 0.2646378 0
4.2750001 1.6385314 0.26420486 0
4.3099999 1.6325878 0.26294219 0
4.316 1.6281 0.26272577 0
4.3210001 1.6231648 0.26254535 0
4.3270001 1.6186355 0.26232892 0
4.3330002 1.6140844 0.26211244 0
4.3380003 1.6090915 0.26193208 0
4.2350001 1.7110716 0.25873032 0
4.2270002 1.700503 0.25903335 0
4.2320004 1.6958727 0.25884396 0
4.2380004 1.6916771 0.25861669 0
4.243 1.6870087 0.25842726 0
4.2490001 1.6827717 0.25819999 0
4.2540002 1.6780654 0.2580106 0
4.2600002 1.6737869 0.25778332 0
4.2600002 1.6668242 0.25778332 0
4.2580004 1.6589776 0.25785908 0
4.257 1.6515783 0.25789696 0
4.256 1.6441828 0.25793484 0
4.263 1.6402829 0.25766969 0
4.2750001 1.6385314 0.25721511 0
4.3099999 1.6325878 0.25588933 0
4.316 1.6281 0.25566205 0
4.3210001 1.6231648 0.25547266 0
4.3270001 1.6186355 0.25524536 0
4.3330002 1.6140844 0.25501809 0
4.3380003 1.6090915 0.25482869 0
4.2350001 1.7110716 0.2518127 0
4.2270002 1.700503 0.25213021 0
4.2320004 1.6958727 0.25193176 0
4.2380004 1.6916771 0.25169367 0
4.243 1.6870087 0.25149524 0
4.2490001 1.6827717 0.25125715 0
4.2540002 1.6780654 0.25105873 0
4.2600002 1.6737869 0.25082064 0
4.2600002 1.6668242 0.25082064 0
4.2580004 1.6589776 0.25089997 0
4.257 1.6515783 0.25093967 0
4.256 1.6441828 0.25097936 0
4.263 1.6402829 0.25070158 0
4.2750001 1.6385314 0.25022537 0
4.3099999 1.6325878 0.24883643 0
4.316 1.6281 0.24859834 0
4.3210001 1.6231648 0.2483999 0
4.3270001 1.6186355 0.24816181 0
4.3330002 1.6140844 0.2479237 0
4.3380003 1.6090915 0.24772529 0
4.2350001 1.7110716 0.2448951 0
4.2270002 1.700503 0.24522701 0
4.2320004 1.6958727 0.24501957 0
4.2380004 1.6916771 0.24477063 0
4.243 1.6870087 0.24456321 0
4.2490001 1.6827717 0.24431428 0
4.2540002 1.6780654 0.24410686 0
4.2600002 1.6737869 0.24385792 0
4.2600002 1.6668242 0.24385792 0
4.2580004 1.6589776 0.24394089 0
4.257 1.6515783 0.24398237 0
4.256 1.6441828 0.24402387 0
4.263 1.6402829 0.24373345 0
4.2750001 1.6385314 0.2432356 0
4.3099999 1.6325878 0.24178354 0
4.316 1.6281 0.24153462 0
4.3210001 1.6231648 0.24132717 0
4.3270001 1.6186355 0.24107824 0
4.3330002 1.6140844 0.24082933 0
4.3380003 1.6090915 0.24062188 0
4.2350001 1.7110716 0.23797749 0
4.2270002 1.700503 0.23832384 0
4.2320004 1.6958727 0.23810738 0
4.2380004 1.6916771 0.23784763 0
4.243 1.6870087 0.23763117 0
4.2490001 1.6827717 0.23737141 0
4.2540002 1.6780654 0.23715498 0
4.2600002 1.6737869 0.23689523 0
4.2600002 1.6668242 0.23689523 0
4.2580004 1.6589776 0.23698179 0
4.257 1.6515783 0.2370251 0
4.256 1.6441828 0.23706838 0
4.263 1.6402829 0.23676534 0
4.2750001 1.6385314 0.23624584 0
4.3099999 1.6325878 0.23473065 0
4.316 1.6281 0.2344709 0
4.3210001 1.6231648 0.23425445 0
4.3270001 1.6186355 0.23399469 0
4.3330002 1.6140844 0.23373497 0
4.3380003 1.6090915 0.23351848 0
4.2350001 1.7110716 0.23105989 0
4.2270002 1.700503 0.23142067 0
4.2320004 1.6958727 0.23119518 0
4.2380004 1.6916771 0.23092462 0
4.243 1.6870087 0.23069914 0
4.2490001 1.6827717 0.23042856 0
4.2540002 1.6780654 0.23020309 0
4.2600002 1.6737869 0.22993253 0
4.2600002 1.6668242 0.22993253 0
4.2580004 1.6589776 0.23002271 0
4.257 1.6515783 0.2300678 0
4.256 1.6441828 0.23011291 0
4.263 1.6402829 0.22979723 0
4.2750001 1.6385314 0.22925609 0
4.3099999 1.6325878 0.22767776 0
4.316 1.6281 0.22740719 0
4.3210001 1.6231648 0.2271817 0
4.3270001 1.6186355 0.22691113 0
4.3330002 1.6140844 0.22664057 0
4.3380003 1.6090915 0.2264151 0
4.2350001 1.7110716 0.2241423 0
4.2270002 1.700503 0.22451748 0
4.2320004 1.6958727 0.22428299 0
4.2380004 1.6916771 0.22400159 0
4.243 1.6870087 0.2237671 0
4.2490001 1.6827717 0.22348571 0
4.2540002 1.6780654 0.22325122 0
4.2600002 1.6737869 0.22296983 0
4.2600002 1.6668242 0.22296983 0
4.2580004 1.6589776 0.22306362 0
4.257 1.6515783 0.22311051 0
4.256 1.6441828 0.22315742 0
4.263 1.6402829 0.22282912 0
4.2750001 1.6385314 0.22226633 0
4.3099999 1.6325878 0.22062486 0
4.316 1.6281 0.22034349 0
4.3210001 1.6231648 0.22010897 0
4.3270001 1.6186355 0.21982759 0
4.3330002 1.6140844 0.2195462 0
4.3380003 1.6090915 0.21931168 0
4.2350001 1.7110716 0.21722469 0
4.2270002 1.700503 0.21761432 0
4.2320004 1.6958727 0.21737079 0
4.2380004 1.6916771 0.21707858 0
4.243 1.6870087 0.21683507 0
4.2490001 1.6827717 0.21654285 0
4.2540002 1.6780654 0.21629936 0
4.2600002 1.6737869 0.21600713 0
4.2600002 1.6668242 0.21600713 0
4.2580004 1.6589776 0.21610452 0
4.257 1.6515783 0.21615323 0
4.256 1.6441828 0.21620193 0
4.263 1.6402829 0.21586102 0
4.2750001 1.6385314 0.21527657 0
4.3099999 1.6325878 0.213572 0
4.316 1.6281 0.21327977 0
4.3210001 1.6231648 0.21303625 0
4.3270001 1.6186355 0.21274403 0
4.3330002 1.6140844 0.21245182 0
4.3380003 1.6090915 0.2122083 0
4.2350001 1.7110716 0.21030709 0
4.2270002 1.700503 0.21071114 0
4.2320004 1.6958727 0.21045861 0
4.2380004 1.6916771 0.21015556 0
4.243 1.6870087 0.20990303 0
4.2490001 1.6827717 0.2096 0
4.2540002 1.6780654 0.20934747 0
4.2600002 1.6737869 0.20904443 0
4.2600002 1.6668242 0.20904443 0
4.2580004 1.6589776 0.20914543 0
4.257 1.6515783 0.20919594 0
4.256 1.6441828 0.20924646 0
4.263 1.6402829 0.20889291 0
4.2750001 1.6385314 0.20828682 0
4.3099999 1.6325878 0.2065191 0
4.316 1.6281 0.20621605 0
4.3210001 1.6231648 0.20596351 0
4.3270001 1.6186355 0.20566046 0
4.3330002 1.6140844 0.20535745 0
4.3380003 1.6090915 0.2051049 0
4.2350001 1.7110716 0.20338947 0
4.2270002 1.700503 0.20380796 0
4.2320004 1.6958727 0.2035464 0
4.2380004 1.6916771 0.20323254 0
4.243 1.6870087 0.202971 0
4.2490001 1.6827717 0.20265713 0
4.2540002 1.6780654 0.20239559 0
4.2600002 1.6737869 0.20208173 0
4.2600002 1.6668242 0.20208173 0
4.2580004 1.6589776 0.20218633 0
4.257 1.6515783 0.20223865 0
4.256 1.6441828 0.20229097 0
4.263 1.6402829 0.20192479 0
4.2750001 1.6385314 0.20129706 0
4.3099999 1.6325878 0.19946621 0
4.316 1.6281 0.19915234 0
4.3210001 1.6231648 0.19889078 0
4.3270001 1.6186355 0.19857691 0
4.3330002 1.6140844 0.19826306 0
4.3380003 1.6090915 0.1980015 0
4.2350001 1.7110716 0.19647187 0
4.2270002 1.700503 0.19690479 0
4.2320004 1.6958727 0.19663422 0
4.2380004 1.6916771 0.19630954 0
4.243 1.6870087 0.19603896 0
4.2490001 1.6827717 0.19571427 0
4.2540002 1.6780654 0.1954437 0
4.2600002 1.6737869 0.19511902 0
4.2600002 1.6668242 0.19511902 0
4.2580004 1.6589776 0.19522725 0
4.257 1.6515783 0.19528136 0
4.256 1.6441828 0.19533548 0
4.263 1.6402829 0.19495668 0
4.2750001 1.6385314 0.1943073 0
4.3099999 1.6325878 0.19241332 0
4.316 1.6281 0.19208863 0
4.3210001 1.6231648 0.19181806 0
4.3270001 1.6186355 0.19149336 0
4.3330002 1.6140844 0.19116868 0
4.3380003 1.6090915 0.19089811 0
4.2350001 1.7110716 0.18955426 0
4.2270002 1.700503 0.19000162 0
4.2320004 1.6958727 0.18972202 0
4.2380004 1.6916771 0.1893865 0
4.243 1.6870087 0.18910693 0
4.2490001 1.6827717 0.18877141 0
4.2540002 1.6780654 0.18849184 0
4.2600002 1.6737869 0.18815632 0
4.2600002 1.6668242 0.18815632 0
4.2580004 1.6589776 0.18826815 0
4.257 1.6515783 0.18832408 0
4.256 1.6441828 0.18838 0
4.263 1.6402829 0.18798856 0
4.2750001 1.6385314 0.18731755 0
4.3099999 1.6325878 0.18536043 0
4.316 1.6281 0.18502492 0
4.3210001 1.6231648 0.18474531 0
4.3270001 1.6186355 0.18440981 0
4.3330002 1.6140844 0.18407431 0
4.3380003 1.6090915 0.18379472 0
4.2350001 1.7110716 0.18263666 0
4.2270002 1.700503 0.18309845 0
4.2320004 1.6958727 0.18280983 0
4.2380004 1.6916771 0.1824635 0
4.243 1.6870087 0.18217489 0
4.2490001 1.6827717 0.18182856 0
4.2540002 1.6780654 0.18153995 0
4.2600002 1.6737869 0.18119362 0
4.2600002 1.6668242 0.18119362 0
4.2580004 1.6589776 0.18130906 0
4.257 1.6515783 0.18136679 0
4.256 1.6441828 0.18142451 0
4.263 1.6402829 0.18102045 0
4.2750001 1.6385314 0.18032779 0
4.3099999 1.6325878 0.17830753 0
4.316 1.6281 0.1779612 0
4.3210001 1.6231648 0.17767258 0
4.3270001 1.6186355 0.17732625 0
4.3330002 1.6140844 0.17697993 0
4.3380003 1.6090915 0.17669131 0
4.2350001 1.7110716 0.17571905 0
4.2270002 1.700503 0.17619526 0
4.2320004 1.6958727 0.17589763 0
4.2380004 1.6916771 0.17554048 0
4.243 1.6870087 0.17524286 0
4.2490001 1.6827717 0.17488571 0
4.2540002 1.6780654 0.17458807 0
4.2600002 1.6737869 0.17423092 0
4.2600002 1.6668242 0.17423092 0
4.2580004 1.6589776 0.17434996 0
4.257 1.6515783 0.17440949 0
4.256 1.6441828 0.17446902 0
4.263 1.6402829 0.17405234 0
4.2750001 1.6385314 0.17333804 0
4.3099999 1.6325878 0.17125465 0
4.316 1.6281 0.1708975 0
4.3210001 1.6231648 0.17059986 0
4.3270001 1.6186355 0.17024271 0
4.3330002 1.6140844 0.16988556 0
4.3380003 1.6090915 0.16958791 0
4.2350001 1.7110716 0.16880144 0
4.2270002 1.700503 0.16929209 0
4.2320004 1.6958727 0.16898544 0
4.2380004 1.6916771 0.16861747 0
4.243 1.6870087 0.16831084 0
4.2490001 1.6827717 0.16794284 0
4.2540002 1.6780654 0.16763619 0
4.2600002 1.6737869 0.16726822 0
4.2600002 1.6668242 0.16726822 0
4.2580004 1.6589776 0.16739087 0
4.257 1.6515783 0.16745222 0
4.256 1.6441828 0.16751355 0
4.263 1.6402829 0.16708423 0
4.2750001 1.6385314 0.16634826 0
4.3099999 1.6325878 0.16420175 0
4.316 1.6281 0.16383378 0
4.3210001 1.6231648 0.16352712 0
4.3270001 1.6186355 0.16315915 0
4.3330002 1.6140844 0.16279118 0
4.3380003 1.6090915 0.16248451 0
4.2350001 1.7110716 0.16188386 0
4.2270002 1.700503 0.16238892 0
4.2320004 1.6958727 0.16207324 0
4.2380004 1.6916771 0.16169444 0
4.243 1.6870087 0.16137879 0
4.2490001 1.6827717 0.16099998 0
4.2540002 1.6780654 0.16068433 0
4.2600002 1.6737869 0.16030553 0
4.2600002 1.6668242 0.16030553 0
4.2580004 1.6589776 0.16043177 0
4.257 1.6515783 0.16049491 0
4.256 1.6441828 0.16055806 0
4.263 1.6402829 0.16011614 0
4.2750001 1.6385314 0.1593585 0
4.3099999 1.6325878 0.15714885 0
4.316 1.6281 0.15677008 0
4.3210001 1.6231648 0.15645437 0
4.3270001 1.6186355 0.1560756 0
4.3330002 1.6140844 0.15569681 0
4.3380003 1.6090915 0.15538113 0
4.2350001 1.7110716 0.15496624 0
4.2270002 1.700503 0.15548575 0
4.2320004 1.6958727 0.15516105 0
4.2380004 1.6916771 0.15477142 0
4.243 1.6870087 0.15444675 0
4.2490001 1.6827717 0.15405713 0
4.2540002 1.6780654 0.15373245 0
4.2600002 1.6737869 0.15334281 0
4.2600002 1.6668242 0.15334281 0
4.2580004 1.6589776 0.15347269 0
4.257 1.6515783 0.15353763 0
4.256 1.6441828 0.15360257 0
4.263 1.6402829 0.153148 0
4.2750001 1.6385314 0.15236875 0
4.3099999 1.6325878 0.15009597 0
4.316 1.6281 0.14970636 0
4.3210001 1.6231648 0.14938167 0
4.3270001 1.6186355 0.14899203 0
4.3330002 1.6140844 0.14860243 0
4.3380003 1.6090915 0.14827773 0
4.2350001 1.7110716 0.14804864 0
4.2270002 1.700503 0.14858258 0
4.2320004 1.6958727 0.14824885 0
4.2380004 1.6916771 0.14784843 0
4.243 1.6870087 0.1475147 0
4.2490001 1.6827717 0.14711428 0
4.2540002 1.6780654 0.14678058 0
4.2600002 1.6737869 0.14638013 0
4.2600002 1.6668242 0.14638013 0
4.2580004 1.6589776 0.14651358 0
4.257 1.6515783 0.14658037 0
4.256 1.6441828 0.14664707 0
4.263 1.6402829 0.14617991 0
4.2750001 1.6385314 0.14537901 0
4.3099999 1.6325878 0.1430431 0
4.316 1.6281 0.14264265 0
4.3210001 1.6231648 0.14230892 0
4.3270001 1.6186355 0.14190847 0
4.3330002 1.6140844 0.14150804 0
4.3380003 1.6090915 0.14117432 0
4.2350001 1.7110716 0.14113104 0
4.2270002 1.700503 0.14167941 0
4.2320004 1.6958727 0.14133665 0
4.2380004 1.6916771 0.14092541 0
4.243 1.6870087 0.14058268 0
4.2490001 1.6827717 0.14017141 0
4.2540002 1.6780654 0.13982871 0
4.2600002 1.6737869 0.13941741 0
4.2600002 1.6668242 0.13941741 0
4.2580004 1.6589776 0.13955453 0
4.257 1.6515783 0.13962305 0
4.256 1.6441828 0.13969162 0
4.263 1.6402829 0.1392118 0
4.2750001 1.6385314 0.13838923 0
4.3099999 1.6325878 0.1359902 0
4.316 1.6281 0.13557893 0
4.3210001 1.6231648 0.13523617 0
4.3270001 1.6186355 0.1348249 0
4.3330002 1.6140844 0.13441366 0
4.3380003 1.6090915 0.13407093 0
4.2350001 1.7110716 0.13421342 0
4.2270002 1.700503 0.13477623 0
4.2320004 1.6958727 0.13442448 0
4.2380004 1.6916771 0.13400239 0
4.243 1.6870087 0.13365063 0
4.2490001 1.6827717 0.13322857 0
4.2540002 1.6780654 0.13287681 0
4.2600002 1.6737869 0.13245472 0
4.2600002 1.6668242 0.13245472 0
4.2580004 1.6589776 0.13259542 0
4.257 1.6515783 0.13266578 0
4.256 1.6441828 0.13273612 0
4.263 1.6402829 0.13224366 0
4.2750001 1.6385314 0.13139948 0
4.3099999 1.6325878 0.1289373 0
4.316 1.6281 0.12851521 0
4.3210001 1.6231648 0.12816346 0
4.3270001 1.6186355 0.12774137 0
4.3330002 1.6140844 0.12731928 0
4.3380003 1.6090915 0.12696755 0
4.2350001 1.7110716 0.12729582 0
4.2270002 1.700503 0.12787306 0
4.2320004 1.6958727 0.12751228 0
4.2380004 1.6916771 0.12707934 0
4.243 1.6870087 0.12671861 0
4.2490001 1.6827717 0.1262857 0
4.2540002 1.6780654 0.12592494 0
4.2600002 1.6737869 0.12549201 0
4.2600002 1.6668242 0.12549201 0
4.2580004 1.6589776 0.12563634 0
4.257 1.6515783 0.12570849 0
4.256 1.6441828 0.12578064 0
4.263 1.6402829 0.12527558 0
4.2750001 1.6385314 0.12440974 0
4.3099999 1.6325878 0.12188441 0
4.316 1.6281 0.1214515 0
4.3210001 1.6231648 0.12109071 0
4.3270001 1.6186355 0.1206578 0
4.3330002 1.6140844 0.12022489 0
4.3380003 1.6090915 0.11986414 0
4.2350001 1.7110716 0.12037823 0
4.2270002 1.700503 0.12096986 0
4.2320004 1.6958727 0.12060007 0
4.2380004 1.6916771 0.12015635 0
4.243 1.6870087 0.11978659 0
4.2490001 1.6827717 0.11934283 0
4.2540002 1.6780654 0.11897305 0
4.2600002 1.6737869 0.11852932 0
4.2600002 1.6668242 0.11852932 0
4.2580004 1.6589776 0.11867723 0
4.257 1.6515783 0.1187512 0
4.256 1.6441828 0.11882514 0
4.263 1.6402829 0.11830744 0
4.2750001 1.6385314 0.11741996 0
4.3099999 1.6325878 0.11483154 0
4.316 1.6281 0.11438778 0
4.3210001 1.6231648 0.11401799 0
4.3270001 1.6186355 0.11357424 0
4.3330002 1.6140844 0.11313054 0
4.3380003 1.6090915 0.11276075 0
4.2350001 1.7110716 0.11346063 0
4.2270002 1.700503 0.11406669 0
4.2320004 1.6958727 0.11368787 0
4.2380004 1.6916771 0.11323333 0
4.243 1.6870087 0.11285454 0
4.2490001 1.6827717 0.1124 0
4.2540002 1.6780654 0.11202118 0
4.2600002 1.6737869 0.11156663 0
4.2600002 1.6668242 0.11156663 0
4.2580004 1.6589776 0.11171815 0
4.257 1.6515783 0.11179391 0
4.256 1.6441828 0.11186966 0
4.263 1.6402829 0.11133936 0
4.2750001 1.6385314 0.11043021 0
4.3099999 1.6325878 0.10777864 0
4.316 1.6281 0.10732409 0
4.3210001 1.6231648 0.10694528 0
4.3270001 1.6186355 0.1064907 0
