# .PCD v0.7 - Point Cloud Data file format
VERSION 0.7
FIELDS x y z intensity
SIZE 4 4 4 4
TYPE F F F F
COUNT 1 1 1 1
WIDTH 1387
HEIGHT 1
VIEWPOINT 0 0 0 1 0 0 0
POINTS 1387
DATA ascii
4.1140003 -0.7159344 0.37050331 0
4.118 -0.72336245 0.37046722 0
4.1270003 -0.73172492 0.37038603 0
4.2460003 -0.78136933 0.36931279 0
4.2400002 -0.78714871 0.36936688 0
4.2350001 -0.79310131 0.369412 0
4.2309999 -0.79923242 0.36944807 0
4.2290001 -0.80574602 0.3694661 0
4.2270002 -0.81225234 0.36948416 0
4.2260003 -0.81895345 0.36949316 0
4.2270002 -0.82605869 0.36948416 0
4.2280002 -0.83316743 0.36947513 0
4.23 -0.8404873 0.3694571 0
4.2340002 -0.84823287 0.36942101 0
4.2410002 -0.85662597 0.36935788 0
4.1490002 -0.23534936 0.36342517 0
4.1420002 -0.24174567 0.36350092 0
4.1350002 -0.24811672 0.36357668 0
4.1270003 -0.2544066 0.36366326 0
4.1200004 -0.26072532 0.36373901 0
4.1129999 -0.2670188 0.36381477 0
4.1059999 -0.27328706 0.36389053 0
4.099 -0.27953005 0.36396629 0
4.092 -0.28574774 0.36404204 0
4.0840001 -0.29187351 0.36412865 0
4.0770001 -0.29803893 0.36420441 0
4.0700002 -0.30417907 0.36428016 0
4.0630002 -0.31029397 0.36435592 0
4.0560002 -0.31638366 0.36443168 0
4.0490003 -0.32244805 0.36450744 0
4.0430002 -0.32856476 0.36457238 0
4.0360003 -0.33458045 0.36464813 0
4.0290003 -0.3405709 0.36472389 0
4.0220003 -0.3465361 0.36479965 0
4.0150003 -0.35247606 0.36487541 0
4.0080004 -0.35839075 0.36495116 0
4.0020003 -0.36436856 0.3650161 0
3.9950004 -0.37023455 0.36509186 0
3.9880002 -0.37607527 0.36516762 0
3.9810002 -0.38189074 0.36524341 0
3.9750004 -0.38777658 0.36530834 0
3.9680002 -0.39354333 0.3653841 0
3.9620004 -0.39938408 0.36544901 0
3.9550002 -0.40510213 0.3655248 0
3.9480002 -0.41079497 0.36560056 0
3.9420002 -0.41656715 0.3656655 0
3.9350002 -0.42221126 0.36574125 0
3.9290004 -0.42793837 0.36580616 0
3.9220002 -0.43353376 0.36588195 0
3.9160004 -0.43921578 0.36594689 0
3.9090002 -0.44476247 0.36602265 0
3.9030004 -0.4503994 0.36608756 0
3.8970003 -0.45601463 0.3661525 0
3.8900003 -0.4614892 0.36622828 0
3.8840003 -0.46705934 0.36629319 0
3.8780003 -0.47260788 0.36635816 0
3.8770003 -0.47875705 0.36636895 0
3.8830004 -0.4857865 0.36630404 0
3.8900003 -0.49296567 0.36622828 0
3.8960001 -0.50004017 0.36616334 0
4.4300003 -0.62027848 0.36038393 0
4.4250002 -0.62682623 0.36043805 0
4.4200001 -0.63335598 0.36049217 0
4.4180002 -0.64031154 0.36051381 0
4.4160004 -0.64725983 0.36053544 0
4.4150004 -0.65435243 0.36054626 0
4.4150004 -0.66159469 0.36054626 0
4.4160004 -0.6689921 0.36053544 0
4.4190001 -0.67670697 0.36050299 0
4.4230003 -0.68459141 0.36045969 0
4.1220002 -0.68380857 0.36371738 0
4.1170001 -0.68965656 0.36377147 0
4.1140003 -0.69583637 0.36380395 0
4.1129999 -0.7023589 0.36381477 0
4.112 -0.70887786 0.36382559 0
4.1140003 -0.7159344 0.36380395 0
4.118 -0.72336245 0.36376065 0
4.1270003 -0.73172492 0.36366326 0
4.2550001 -0.77613652 0.36227793 0
4.2460003 -0.78136933 0.36237535 0
4.2400002 -0.78714871 0.36244029 0
4.2350001 -0.79310131 0.36249438 0
4.2309999 -0.79923242 0.36253768 0
4.2290001 -0.80574602 0.36255932 0
4.2270002 -0.81225234 0.36258096 0
4.2260003 -0.81895345 0.3625918 0
4.2270002 -0.82605869 0.36258096 0
4.2280002 -0.83316743 0.36257014 0
4.23 -0.8404873 0.3625485 0
4.2340002 -0.84823287 0.3625052 0
4.2410002 -0.85662597 0.36242944 0
4.1270003 -0.2544066 0.35694045 0
4.1200004 -0.26072532 0.35702884 0
4.1129999 -0.2670188 0.35711724 0
4.1059999 -0.27328706 0.35720563 0
3.9680002 -0.39354333 0.35894811 0
3.9620004 -0.39938408 0.35902387 0
3.9550002 -0.40510213 0.35911226 0
3.9480002 -0.41079497 0.35920063 0
3.9420002 -0.41656715 0.35927638 0
3.9350002 -0.42221126 0.35936478 0
3.9290004 -0.42793837 0.35944054 0
3.9220002 -0.43353376 0.35952893 0
3.9160004 -0.43921578 0.35960469 0
3.9090002 -0.44476247 0.35969308 0
3.9030004 -0.4503994 0.35976884 0
3.8970003 -0.45601463 0.3598446 0
3.8900003 -0.4614892 0.35993299 0
3.8840003 -0.46705934 0.36000875 0
3.8780003 -0.47260788 0.3600845 0
3.8770003 -0.47875705 0.36009711 0
3.8830004 -0.4857865 0.36002135 0
3.8900003 -0.49296567 0.35993299 0
3.8960001 -0.50004017 0.35985723 0
4.4380002 -0.61413467 0.35301358 0
4.4300003 -0.62027848 0.35311458 0
4.4250002 -0.62682623 0.35317773 0
4.4200001 -0.63335598 0.35324085 0
4.4180002 -0.64031154 0.35326612 0
4.4160004 -0.64725983 0.35329136 0
4.4150004 -0.65435243 0.35330397 0
4.4150004 -0.66159469 0.35330397 0
4.4160004 -0.6689921 0.35329136 0
4.4190001 -0.67670697 0.35325348 0
4.4230003 -0.68459141 0.35320297 0
4.4310002 -0.6931324 0.35310197 0
4.131 -0.67862082 0.35688996 0
4.1220002 -0.68380857 0.3570036 0
4.1170001 -0.68965656 0.35706672 0
4.1140003 -0.69583637 0.3571046 0
4.1129999 -0.7023589 0.35711724 0
4.112 -0.70887786 0.35712987 0
4.1140003 -0.7159344 0.3571046 0
4.118 -0.72336245 0.35705411 0
4.1270003 -0.73172492 0.35694045 0
4.2550001 -0.77613652 0.35532424 0
4.2460003 -0.78136933 0.35543787 0
4.2400002 -0.78714871 0.35551366 0
4.2350001 -0.79310131 0.35557678 0
4.2309999 -0.79923242 0.3556273 0
4.2290001 -0.80574602 0.35565254 0
4.2270002 -0.81225234 0.35567778 0
4.2260003 -0.81895345 0.35569042 0
4.2270002 -0.82605869 0.35567778 0
4.2280002 -0.83316743 0.35566518 0
4.23 -0.8404873 0.3556399 0
4.2340002 -0.84823287 0.35558942 0
4.2410002 -0.85662597 0.35550103 0
4.1570001 -0.25608411 0.34978476 0
4.1490002 -0.26239926 0.34990019 0
4.1440001 -0.26886413 0.34997234 0
4.1420002 -0.2754949 0.35000122 0
4.1410003 -0.28218165 0.35001564 0
4.1420002 -0.28899461 0.35000122 0
4.1440001 -0.29587793 0.34997234 0
3.9310002 -0.45363179 0.35304603 0
3.9240003 -0.45918033 0.35314706 0
3.9190001 -0.46494165 0.35321921 0
3.9170003 -0.47104758 0.35324806 0
3.9150002 -0.47714624 0.35327694 0
3.9150002 -0.48348662 0.35327694 0
3.9170003 -0.49007955 0.35324806 0
3.9200003 -0.49680775 0.35320479 0
4.4380002 -0.61413467 0.3457298 0
4.4300003 -0.62027848 0.34584522 0
4.4250002 -0.62682623 0.3459174 0
4.4200001 -0.63335598 0.34598956 0
4.4180002 -0.64031154 0.3460184 0
4.4160004 -0.64725983 0.34604725 0
4.4150004 -0.65435243 0.34606171 0
4.4150004 -0.66159469 0.34606171 0
4.4160004 -0.6689921 0.34604725 0
4.4190001 -0.67670697 0.34600398 0
4.4230003 -0.68459141 0.34594625 0
4.4310002 -0.6931324 0.3458308 0
4.131 -0.67862082 0.35015994 0
4.1220002 -0.68380857 0.35028982 0
4.1170001 -0.68965656 0.35036197 0
4.1140003 -0.69583637 0.35040528 0
4.1129999 -0.7023589 0.3504197 0
4.112 -0.70887786 0.35043412 0
4.1140003 -0.7159344 0.35040528 0
4.118 -0.72336245 0.35034755 0
4.1270003 -0.73172492 0.35021767 0
4.2550001 -0.77613652 0.34837055 0
4.2460003 -0.78136933 0.34850043 0
4.2400002 -0.78714871 0.34858704 0
4.2350001 -0.79310131 0.34865919 0
4.2309999 -0.79923242 0.34871691 0
4.2290001 -0.80574602 0.34874576 0
4.2270002 -0.81225234 0.34877461 0
4.2260003 -0.81895345 0.34878904 0
4.2270002 -0.82605869 0.34877461 0
4.2280002 -0.83316743 0.34876019 0
4.23 -0.8404873 0.34873134 0
4.2340002 -0.84823287 0.34867361 0
4.2410002 -0.85662597 0.34857261 0
4.1570001 -0.25608411 0.34300783 0
4.1490002 -0.26239926 0.34313771 0
4.1440001 -0.26886413 0.34321889 0
4.1420002 -0.2754949 0.34325135 0
4.1410003 -0.28218165 0.34326759 0
4.1420002 -0.28899461 0.34325135 0
4.1440001 -0.29587793 0.34321889 0
3.9310002 -0.45363179 0.3466768 0
3.9240003 -0.45918033 0.34679043 0
3.9190001 -0.46494165 0.34687161 0
3.9170003 -0.47104758 0.34690407 0
3.9150002 -0.47714624 0.34693655 0
3.9150002 -0.48348662 0.34693655 0
3.9170003 -0.49007955 0.34690407 0
3.9200003 -0.49680775 0.34685537 0
4.4380002 -0.61413467 0.33844602 0
4.4300003 -0.62027848 0.3385759 0
4.4240003 -0.62668192 0.33867329 0
4.4200001 -0.63335598 0.33873823 0
4.4170003 -0.6401636 0.33878693 0
4.4160004 -0.64725983 0.33880317 0
4.4150004 -0.65435243 0.33881938 0
4.4150004 -0.66159469 0.33881938 0
4.4160004 -0.6689921 0.33880317 0
4.4190001 -0.67670697 0.33875448 0
4.4230003 -0.68459141 0.33868954 0
4.4310002 -0.6931324 0.33855966 0
4.131 -0.67862082 0.34342992 0
4.1220002 -0.68380857 0.34357604 0
4.1170001 -0.68965656 0.34365723 0
4.1140003 -0.69583637 0.34370592 0
4.1129999 -0.7023589 0.34372216 0
4.112 -0.70887786 0.34373838 0
4.1140003 -0.7159344 0.34370592 0
4.118 -0.72336245 0.34364098 0
4.1270003 -0.73172492 0.34349486 0
4.2550001 -0.77613652 0.3414169 0
4.2460003 -0.78136933 0.34156299 0
4.2400002 -0.78714871 0.34166041 0
4.2350001 -0.79310131 0.34174156 0
4.2309999 -0.79923242 0.3418065 0
4.2290001 -0.80574602 0.34183899 0
4.2270002 -0.81225234 0.34187144 0
4.2260003 -0.81895345 0.34188768 0
4.2270002 -0.82605869 0.34187144 0
4.2280002 -0.83316743 0.34185523 0
4.23 -0.8404873 0.34182274 0
4.2340002 -0.84823287 0.3417578 0
4.2410002 -0.85662597 0.34164417 0
4.1570001 -0.25608411 0.33623093 0
4.1490002 -0.26239926 0.33637524 0
4.1440001 -0.26886413 0.33646542 0
4.1420002 -0.2754949 0.33650151 0
4.1410003 -0.28218165 0.33651954 0
4.1420002 -0.28899461 0.33650151 0
4.1440001 -0.29587793 0.33646542 0
4.1490002 -0.30297413 0.33637524 0
3.9310002 -0.45363179 0.34030753 0
3.9240003 -0.45918033 0.34043381 0
3.9190001 -0.46494165 0.34052402 0
3.9170003 -0.47104758 0.34056008 0
3.9150002 -0.47714624 0.34059614 0
3.9150002 -0.48348662 0.34059614 0
3.9170003 -0.49007955 0.34056008 0
3.9200003 -0.49680775 0.34050596 0
3.9270003 -0.50406629 0.34037971 0
4.4380002 -0.61413467 0.33116224 0
4.4300003 -0.62027848 0.33130655 0
4.4240003 -0.62668192 0.33141476 0
4.4200001 -0.63335598 0.33148694 0
4.4170003 -0.6401636 0.33154103 0
4.4160004 -0.64725983 0.33155906 0
4.4150004 -0.65435243 0.33157712 0
4.4150004 -0.66159469 0.33157712 0
4.4160004 -0.6689921 0.33155906 0
4.4190001 -0.67670697 0.33150497 0
4.4230003 -0.68459141 0.33143282 0
4.4310002 -0.6931324 0.33128852 0
4.131 -0.67862082 0.33669993 0
4.1220002 -0.68380857 0.33686227 0
4.1170001 -0.68965656 0.33695245 0
4.1140003 -0.69583637 0.33700657 0
4.1129999 -0.7023589 0.33702463 0
4.112 -0.70887786 0.33704266 0
4.1140003 -0.7159344 0.33700657 0
4.118 -0.72336245 0.33693442 0
4.1270003 -0.73172492 0.33677208 0
4.2550001 -0.77613652 0.33446321 0
4.2460003 -0.78136933 0.33462554 0
4.2400002 -0.78714871 0.33473378 0
4.2350001 -0.79310131 0.33482397 0
4.2309999 -0.79923242 0.33489612 0
4.2290001 -0.80574602 0.33493221 0
4.2270002 -0.81225234 0.33496827 0
4.2260003 -0.81895345 0.33498633 0
4.2270002 -0.82605869 0.33496827 0
4.2280002 -0.83316743 0.33495024 0
4.23 -0.8404873 0.33491415 0
4.2340002 -0.84823287 0.33484203 0
4.2410002 -0.85662597 0.33471575 0
4.1570001 -0.25608411 0.32945403 0
4.1490002 -0.26239926 0.32961276 0
4.1440001 -0.26886413 0.32971197 0
4.1420002 -0.2754949 0.32975167 0
4.1410003 -0.28218165 0.32977152 0
4.1420002 -0.28899461 0.32975167 0
4.1440001 -0.29587793 0.32971197 0
4.1490002 -0.30297413 0.32961276 0
3.9310002 -0.45363179 0.3339383 0
3.9240003 -0.45918033 0.33407718 0
3.9190001 -0.46494165 0.33417642 0
3.9170003 -0.47104758 0.33421609 0
3.9150002 -0.47714624 0.33425575 0
3.9150002 -0.48348662 0.33425575 0
3.9170003 -0.49007955 0.33421609 0
3.9200003 -0.49680775 0.33415657 0
3.9270003 -0.50406629 0.33401766 0
4.4380002 -0.61413467 0.32387847 0
4.4300003 -0.62027848 0.32403719 0
4.4240003 -0.62668192 0.32415625 0
4.4200001 -0.63335598 0.32423562 0
4.4170003 -0.6401636 0.32429513 0
4.4160004 -0.64725983 0.32431498 0
4.4150004 -0.65435243 0.3243348 0
4.4150004 -0.66159469 0.3243348 0
4.4160004 -0.6689921 0.32431498 0
4.4190001 -0.67670697 0.32425547 0
4.4230003 -0.68459141 0.32417607 0
4.4310002 -0.6931324 0.32401735 0
4.131 -0.67862082 0.32996991 0
4.1220002 -0.68380857 0.33014849 0
4.1170001 -0.68965656 0.3302477 0
4.1140003 -0.69583637 0.33030725 0
4.1129999 -0.7023589 0.33032706 0
4.112 -0.70887786 0.33034691 0
4.1140003 -0.7159344 0.33030725 0
4.118 -0.72336245 0.33022785 0
4.1270003 -0.73172492 0.33004928 0
4.2550001 -0.77613652 0.32750952 0
4.2460003 -0.78136933 0.3276881 0
4.2400002 -0.78714871 0.32780716 0
4.2350001 -0.79310131 0.32790637 0
4.2309999 -0.79923242 0.32798573 0
4.2290001 -0.80574602 0.3280254 0
4.2270002 -0.81225234 0.3280651 0
4.2260003 -0.81895345 0.32808495 0
4.2270002 -0.82605869 0.3280651 0
4.2280002 -0.83316743 0.32804525 0
4.23 -0.8404873 0.32800558 0
4.2340002 -0.84823287 0.32792622 0
4.2410002 -0.85662597 0.32778731 0
4.1570001 -0.25608411 0.32267714 0
4.1490002 -0.26239926 0.32285029 0
4.1440001 -0.26886413 0.32295853 0
4.1420002 -0.2754949 0.3230018 0
4.1410003 -0.28218165 0.32302344 0
4.1420002 -0.28899461 0.3230018 0
4.1440001 -0.29587793 0.32295853 0
4.1490002 -0.30297413 0.32285029 0
3.9310002 -0.45363179 0.32756907 0
3.9240003 -0.45918033 0.32772058 0
3.9190001 -0.46494165 0.32782879 0
3.9170003 -0.47104758 0.3278721 0
3.9150002 -0.47714624 0.32791537 0
3.9150002 -0.48348662 0.32791537 0
3.9170003 -0.49007955 0.3278721 0
3.9200003 -0.49680775 0.32780716 0
3.9270003 -0.50406629 0.32765564 0
4.4380002 -0.61413467 0.31659469 0
4.4300003 -0.62027848 0.31676784 0
4.4240003 -0.62668192 0.31689772 0
4.4200001 -0.63335598 0.3169843 0
4.4170003 -0.6401636 0.31704924 0
4.4160004 -0.64725983 0.3170709 0
4.4150004 -0.65435243 0.31709254 0
4.4150004 -0.66159469 0.31709254 0
4.4160004 -0.6689921 0.3170709 0
4.4190001 -0.67670697 0.31700596 0
4.4230003 -0.68459141 0.31691939 0
4.4310002 -0.6931324 0.31674621 0
4.131 -0.67862082 0.32323992 0
4.1220002 -0.68380857 0.32343471 0
4.1170001 -0.68965656 0.32354295 0
4.1140003 -0.69583637 0.32360789 0
4.1129999 -0.7023589 0.32362953 0
4.112 -0.70887786 0.32365119 0
4.1140003 -0.7159344 0.32360789 0
4.118 -0.72336245 0.32352132 0
4.1270003 -0.73172492 0.3233265 0
4.2550001 -0.77613652 0.32055584 0
4.2460003 -0.78136933 0.32075065 0
4.2400002 -0.78714871 0.32088053 0
4.2350001 -0.79310131 0.32098874 0
4.2309999 -0.79923242 0.32107535 0
4.2290001 -0.80574602 0.32111862 0
4.2270002 -0.81225234 0.32116193 0
4.2260003 -0.81895345 0.32118356 0
4.2270002 -0.82605869 0.32116193 0
4.2280002 -0.83316743 0.32114029 0
4.23 -0.8404873 0.32109699 0
4.2340002 -0.84823287 0.32101041 0
4.2410002 -0.85662597 0.3208589 0
4.1570001 -0.25608411 0.31590021 0
4.1490002 -0.26239926 0.31608781 0
4.1440001 -0.26886413 0.31620505 0
4.1420002 -0.2754949 0.31625196 0
4.1410003 -0.28218165 0.31627542 0
4.1420002 -0.28899461 0.31625196 0
4.1440001 -0.29587793 0.31620505 0
4.1490002 -0.30297413 0.31608781 0
3.9310002 -0.45363179 0.3211998 0
3.9240003 -0.45918033 0.32136396 0
3.9190001 -0.46494165 0.3214812 0
3.9170003 -0.47104758 0.32152811 0
3.9150002 -0.47714624 0.32157499 0
3.9150002 -0.48348662 0.32157499 0
3.9170003 -0.49007955 0.32152811 0
3.9200003 -0.49680775 0.32145774 0
3.9270003 -0.50406629 0.32129359 0
4.4380002 -0.61413467 0.30931091 0
4.4300003 -0.62027848 0.30949849 0
4.4240003 -0.62668192 0.30963919 0
4.4200001 -0.63335598 0.309733 0
4.4170003 -0.6401636 0.30980334 0
4.4160004 -0.64725983 0.30982679 0
4.4150004 -0.65435243 0.30985025 0
4.4150004 -0.66159469 0.30985025 0
4.4160004 -0.6689921 0.30982679 0
4.4190001 -0.67670697 0.30975646 0
4.4230003 -0.68459141 0.30966264 0
4.4310002 -0.6931324 0.30947506 0
4.131 -0.67862082 0.3165099 0
4.1220002 -0.68380857 0.31672096 0
4.1170001 -0.68965656 0.3168382 0
4.1140003 -0.69583637 0.31690854 0
4.1129999 -0.7023589 0.31693199 0
4.112 -0.70887786 0.31695545 0
4.1140003 -0.7159344 0.31690854 0
4.118 -0.72336245 0.31681475 0
4.1270003 -0.73172492 0.31660369 0
4.2550001 -0.77613652 0.31360215 0
4.2460003 -0.78136933 0.31381321 0
4.2400002 -0.78714871 0.31395391 0
4.2350001 -0.79310131 0.31407115 0
4.2309999 -0.79923242 0.31416494 0
4.2290001 -0.80574602 0.31421185 0
4.2270002 -0.81225234 0.31425875 0
4.2260003 -0.81895345 0.31428221 0
4.2270002 -0.82605869 0.31425875 0
4.2280002 -0.83316743 0.3142353 0
4.23 -0.8404873 0.31418842 0
4.2340002 -0.84823287 0.3140946 0
4.2410002 -0.85662597 0.31393045 0
4.1570001 -0.25608411 0.30912331 0
4.1490002 -0.26239926 0.30932534 0
4.1440001 -0.26886413 0.30945161 0
4.1420002 -0.2754949 0.30950212 0
4.1410003 -0.28218165 0.30952737 0
4.1420002 -0.28899461 0.30950212 0
4.1440001 -0.29587793 0.30945161 0
4.1490002 -0.30297413 0.30932534 0
4.1600003 -0.31051046 0.30904755 0
3.9310002 -0.45363179 0.31483054 0
3.9240003 -0.45918033 0.31500733 0
3.9190001 -0.46494165 0.3151336 0
3.9170003 -0.47104758 0.31518412 0
3.9150002 -0.47714624 0.3152346 0
3.9150002 -0.48348662 0.3152346 0
3.9170003 -0.49007955 0.31518412 0
3.9200003 -0.49680775 0.31510836 0
3.9270003 -0.50406629 0.31493157 0
4.4380002 -0.61413467 0.30202714 0
4.4300003 -0.62027848 0.30222917 0
4.4240003 -0.62668192 0.30238068 0
4.4200001 -0.63335598 0.30248171 0
4.4170003 -0.6401636 0.30255744 0
4.4160004 -0.64725983 0.30258268 0
4.4150004 -0.65435243 0.30260795 0
4.4150004 -0.66159469 0.30260795 0
4.4160004 -0.6689921 0.30258268 0
4.4190001 -0.67670697 0.30250695 0
4.4230003 -0.68459141 0.30240592 0
4.4310002 -0.6931324 0.30220389 0
4.131 -0.67862082 0.30977988 0
4.1220002 -0.68380857 0.31000718 0
4.1170001 -0.68965656 0.31013346 0
4.1140003 -0.69583637 0.31020921 0
4.1129999 -0.7023589 0.31023446 0
4.112 -0.70887786 0.3102597 0
4.1140003 -0.7159344 0.31020921 0
4.118 -0.72336245 0.31010818 0
4.1270003 -0.73172492 0.30988091 0
4.2550001 -0.77613652 0.30664849 0
4.2460003 -0.78136933 0.30687577 0
4.2400002 -0.78714871 0.30702728 0
4.2350001 -0.79310131 0.30715355 0
4.2309999 -0.79923242 0.30725455 0
4.2290001 -0.80574602 0.30730507 0
4.2270002 -0.81225234 0.30735558 0
4.2260003 -0.81895345 0.30738083 0
4.2270002 -0.82605869 0.30735558 0
4.2280002 -0.83316743 0.30733031 0
4.23 -0.8404873 0.30727983 0
4.2340002 -0.84823287 0.3071788 0
4.2410002 -0.85662597 0.30700204 0
4.1570001 -0.25608411 0.30234641 0
4.1490002 -0.26239926 0.30256286 0
4.1440001 -0.26886413 0.30269814 0
4.1420002 -0.2754949 0.30275226 0
4.1410003 -0.28218165 0.30277932 0
4.1420002 -0.28899461 0.30275226 0
4.1440001 -0.29587793 0.30269814 0
4.1490002 -0.30297413 0.30256286 0
4.1600003 -0.31051046 0.30226523 0
3.9310002 -0.45363179 0.30846131 0
3.9240003 -0.45918033 0.30865073 0
3.9190001 -0.46494165 0.308786 0
3.9170003 -0.47104758 0.3088401 0
3.9150002 -0.47714624 0.30889422 0
3.9150002 -0.48348662 0.30889422 0
3.9170003 -0.49007955 0.3088401 0
3.9200003 -0.49680775 0.30875894 0
3.9270003 -0.50406629 0.30856955 0
4.4380002 -0.61413467 0.29474336 0
4.4300003 -0.62027848 0.29495981 0
4.4240003 -0.62668192 0.29512215 0
4.4200001 -0.63335598 0.29523039 0
4.4170003 -0.6401636 0.29531154 0
4.4160004 -0.64725983 0.2953386 0
4.4150004 -0.65435243 0.29536566 0
4.4150004 -0.66159469 0.29536566 0
4.4160004 -0.6689921 0.2953386 0
4.4190001 -0.67670697 0.29525745 0
4.4230003 -0.68459141 0.29514921 0
4.4310002 -0.6931324 0.29493275 0
4.131 -0.67862082 0.30304989 0
4.1220002 -0.68380857 0.30329341 0
4.1170001 -0.68965656 0.30342868 0
4.1140003 -0.69583637 0.30350986 0
4.1129999 -0.7023589 0.30353692 0
4.112 -0.70887786 0.30356398 0
4.1140003 -0.7159344 0.30350986 0
4.118 -0.72336245 0.30340162 0
4.1270003 -0.73172492 0.3031581 0
4.2550001 -0.77613652 0.29969481 0
4.2460003 -0.78136933 0.29993832 0
4.2400002 -0.78714871 0.30010065 0
4.2350001 -0.79310131 0.30023593 0
4.2309999 -0.79923242 0.30034417 0
4.2290001 -0.80574602 0.30039829 0
4.2270002 -0.81225234 0.30045241 0
4.2260003 -0.81895345 0.30047947 0
4.2270002 -0.82605869 0.30045241 0
4.2280002 -0.83316743 0.30042535 0
4.23 -0.8404873 0.30037123 0
4.2340002 -0.84823287 0.30026299 0
4.2410002 -0.85662597 0.30007359 0
4.1570001 -0.25608411 0.29556948 0
4.1490002 -0.26239926 0.29580039 0
4.1440001 -0.26886413 0.29594469 0
4.1420002 -0.2754949 0.29600242 0
4.1410003 -0.28218165 0.29603127 0
4.1420002 -0.28899461 0.29600242 0
4.1440001 -0.29587793 0.29594469 0
4.1490002 -0.30297413 0.29580039 0
4.1600003 -0.31051046 0.2954829 0
3.9310002 -0.45363179 0.30209208 0
3.9240003 -0.45918033 0.30229408 0
3.9190001 -0.46494165 0.30243841 0
3.9170003 -0.47104758 0.30249611 0
3.9150002 -0.47714624 0.30255383 0
3.9150002 -0.48348662 0.30255383 0
3.9170003 -0.49007955 0.30249611 0
3.9200003 -0.49680775 0.30240953 0
3.9270003 -0.50406629 0.3022075 0
4.4380002 -0.61413467 0.28745958 0
4.4300003 -0.62027848 0.28769046 0
4.4240003 -0.62668192 0.28786361 0
4.4200001 -0.63335598 0.28797907 0
4.4170003 -0.6401636 0.28806564 0
4.4160004 -0.64725983 0.28809452 0
4.4150004 -0.65435243 0.28812337 0
4.4150004 -0.66159469 0.28812337 0
4.4160004 -0.6689921 0.28809452 0
4.4190001 -0.67670697 0.28800792 0
4.4230003 -0.68459141 0.28789249 0
4.4310002 -0.6931324 0.28766161 0
4.1300001 -0.67845124 0.29634875 0
4.1220002 -0.68380857 0.29657963 0
4.1170001 -0.68965656 0.29672393 0
4.1140003 -0.69583637 0.29681051 0
4.1129999 -0.7023589 0.29683939 0
4.112 -0.70887786 0.29686823 0
4.1140003 -0.7159344 0.29681051 0
4.118 -0.72336245 0.29669505 0
4.1270003 -0.73172492 0.29643533 0
4.2550001 -0.77613652 0.29274112 0
4.2460003 -0.78136933 0.29300088 0
4.2400002 -0.78714871 0.29317403 0
4.2350001 -0.79310131 0.29331833 0
4.2309999 -0.79923242 0.29343379 0
4.2290001 -0.80574602 0.29349151 0
4.2270002 -0.81225234 0.29354924 0
4.2260003 -0.81895345 0.29357809 0
4.2270002 -0.82605869 0.29354924 0
4.2280002 -0.83316743 0.29352036 0
4.23 -0.8404873 0.29346263 0
4.2340002 -0.84823287 0.29334721 0
4.2410002 -0.85662597 0.29314518 0
4.1570001 -0.25608411 0.28879258 0
4.1490002 -0.26239926 0.28903791 0
4.1440001 -0.26886413 0.28919125 0
4.1420002 -0.2754949 0.28925255 0
4.1410003 -0.28218165 0.28928322 0
4.1420002 -0.28899461 0.28925255 0
4.1440001 -0.29587793 0.28919125 0
4.1490002 -0.30297413 0.28903791 0
4.1600003 -0.31051046 0.28870058 0
3.9310002 -0.45363179 0.29572281 0
3.9240003 -0.45918033 0.29593748 0
3.9190001 -0.46494165 0.29609078 0
3.9170003 -0.47104758 0.29615211 0
3.9150002 -0.47714624 0.29621345 0
3.9150002 -0.48348662 0.29621345 0
3.9170003 -0.49007955 0.29615211 0
3.9200003 -0.49680775 0.29606014 0
3.9270003 -0.50406629 0.29584548 0
4.4380002 -0.61413467 0.28017581 0
4.4300003 -0.62027848 0.28042111 0
4.4240003 -0.62668192 0.28060511 0
4.4200001 -0.63335598 0.28072777 0
4.4170003 -0.6401636 0.28081977 0
4.4160004 -0.64725983 0.28085041 0
4.4150004 -0.65435243 0.28088108 0
4.4150004 -0.66159469 0.28088108 0
4.4160004 -0.6689921 0.28085041 0
4.4190001 -0.67670697 0.28075844 0
4.4230003 -0.68459141 0.28063577 0
4.4310002 -0.6931324 0.28039044 0
4.1300001 -0.67845124 0.28962052 0
4.1220002 -0.68380857 0.28986585 0
4.1170001 -0.68965656 0.29001918 0
4.1140003 -0.69583637 0.29011118 0
4.1129999 -0.7023589 0.29014182 0
4.112 -0.70887786 0.29017249 0
4.1140003 -0.7159344 0.29011118 0
4.118 -0.72336245 0.28998852 0
4.1270003 -0.73172492 0.28971252 0
4.2550001 -0.77613652 0.28578743 0
4.2460003 -0.78136933 0.28606343 0
4.2400002 -0.78714871 0.28624743 0
4.2350001 -0.79310131 0.28640074 0
4.2309999 -0.79923242 0.2865234 0
4.2290001 -0.80574602 0.28658473 0
4.2270002 -0.81225234 0.28664607 0
4.2260003 -0.81895345 0.2866767 0
4.2270002 -0.82605869 0.28664607 0
4.2280002 -0.83316743 0.28661537 0
4.23 -0.8404873 0.28655407 0
4.2340002 -0.84823287 0.2864314 0
4.2410002 -0.85662597 0.28621674 0
4.1570001 -0.25608411 0.28201568 0
4.1490002 -0.26239926 0.28227544 0
4.1440001 -0.26886413 0.28243777 0
4.1420002 -0.2754949 0.28250271 0
4.1410003 -0.28218165 0.28253517 0
4.1420002 -0.28899461 0.28250271 0
4.1440001 -0.29587793 0.28243777 0
4.1490002 -0.30297413 0.28227544 0
4.1600003 -0.31051046 0.28191826 0
3.9310002 -0.45363179 0.28935358 0
3.9240003 -0.45918033 0.28958085 0
3.9190001 -0.46494165 0.28974319 0
3.9170003 -0.47104758 0.28980812 0
3.9150002 -0.47714624 0.28987306 0
3.9150002 -0.48348662 0.28987306 0
3.9170003 -0.49007955 0.28980812 0
3.9200003 -0.49680775 0.28971073 0
3.9270003 -0.50406629 0.28948343 0
4.4380002 -0.61413467 0.272892 0
4.4300003 -0.62027848 0.27315176 0
4.4240003 -0.62668192 0.27334657 0
4.4200001 -0.63335598 0.27347645 0
4.4170003 -0.6401636 0.27357388 0
4.4160004 -0.64725983 0.27360633 0
4.4150004 -0.65435243 0.27363878 0
4.4150004 -0.66159469 0.27363878 0
4.4160004 -0.6689921 0.27360633 0
4.4190001 -0.67670697 0.27350891 0
4.4230003 -0.68459141 0.27337903 0
4.4310002 -0.6931324 0.2731193 0
4.1300001 -0.67845124 0.28289232 0
4.1220002 -0.68380857 0.28315207 0
4.1170001 -0.68965656 0.28331441 0
4.1140003 -0.69583637 0.28341183 0
4.1129999 -0.7023589 0.28344429 0
4.112 -0.70887786 0.28347677 0
4.1140003 -0.7159344 0.28341183 0
4.118 -0.72336245 0.28328195 0
4.1270003 -0.73172492 0.28298974 0
4.2550001 -0.77613652 0.27883375 0
4.2460003 -0.78136933 0.27912599 0
4.2400002 -0.78714871 0.27932078 0
4.2350001 -0.79310131 0.27948314 0
4.2309999 -0.79923242 0.27961302 0
4.2290001 -0.80574602 0.27967793 0
4.2270002 -0.81225234 0.2797429 0
4.2260003 -0.81895345 0.27977535 0
4.2270002 -0.82605869 0.2797429 0
4.2280002 -0.83316743 0.27971041 0
4.23 -0.8404873 0.27964547 0
4.2340002 -0.84823287 0.27951559 0
4.2410002 -0.85662597 0.27928832 0
4.1570001 -0.25608411 0.27523875 0
4.1490002 -0.26239926 0.27551293 0
4.1440001 -0.26886413 0.2756843 0
4.1420002 -0.2754949 0.27575284 0
4.1410003 -0.28218165 0.27578712 0
4.1420002 -0.28899461 0.27575284 0
4.1440001 -0.29587793 0.2756843 0
4.1490002 -0.30297413 0.27551293 0
4.1600003 -0.31051046 0.27513593 0
3.9310002 -0.45363179 0.28298432 0
3.9240003 -0.45918033 0.28322423 0
3.9190001 -0.46494165 0.28339559 0
3.9170003 -0.47104758 0.28346413 0
3.9150002 -0.47714624 0.28353268 0
3.9150002 -0.48348662 0.28353268 0
3.9170003 -0.49007955 0.28346413 0
3.9200003 -0.49680775 0.28336132 0
3.9270003 -0.50406629 0.28312141 0
4.4380002 -0.61413467 0.26560825 0
4.4300003 -0.62027848 0.26588243 0
4.4240003 -0.62668192 0.26608807 0
4.4200001 -0.63335598 0.26622516 0
4.4170003 -0.6401636 0.26632795 0
4.4160004 -0.64725983 0.26636222 0
4.4150004 -0.65435243 0.26639652 0
4.4150004 -0.66159469 0.26639652 0
4.4160004 -0.6689921 0.26636222 0
4.4190001 -0.67670697 0.26625943 0
4.4230003 -0.68459141 0.26612234 0
4.4310002 -0.6931324 0.26584816 0
4.1300001 -0.67845124 0.27616411 0
4.1220002 -0.68380857 0.2764383 0
4.1170001 -0.68965656 0.27660966 0
4.1140003 -0.69583637 0.27671248 0
4.1129999 -0.7023589 0.27674675 0
4.112 -0.70887786 0.27678102 0
4.1140003 -0.7159344 0.27671248 0
4.118 -0.72336245 0.27657539 0
4.1270003 -0.73172492 0.27626693 0
4.2550001 -0.77613652 0.27188009 0
4.2460003 -0.78136933 0.27218854 0
4.2400002 -0.78714871 0.27239418 0
4.2350001 -0.79310131 0.27256554 0
4.2309999 -0.79923242 0.27270263 0
4.2290001 -0.80574602 0.27277115 0
4.2270002 -0.81225234 0.27283973 0
4.2260003 -0.81895345 0.272874 0
4.2270002 -0.82605869 0.27283973 0
4.2280002 -0.83316743 0.27280545 0
4.23 -0.8404873 0.27273691 0
4.2340002 -0.84823287 0.27259982 0
4.2410002 -0.85662597 0.27235991 0
4.1570001 -0.25608411 0.26846185 0
4.1490002 -0.26239926 0.26875049 0
4.1440001 -0.26886413 0.26893085 0
4.1420002 -0.2754949 0.269003 0
4.1410003 -0.28218165 0.26903909 0
4.1420002 -0.28899461 0.269003 0
4.1440001 -0.29587793 0.26893085 0
4.1490002 -0.30297413 0.26875049 0
4.1600003 -0.31051046 0.26835364 0
3.9310002 -0.45363179 0.27661508 0
3.9240003 -0.45918033 0.27686763 0
3.9190001 -0.46494165 0.27704799 0
3.9170003 -0.47104758 0.27712014 0
3.9150002 -0.47714624 0.27719229 0
3.9150002 -0.48348662 0.27719229 0
3.9170003 -0.49007955 0.27712014 0
3.9200003 -0.49680775 0.27701193 0
3.9270003 -0.50406629 0.27675939 0
4.4380002 -0.61413467 0.25832444 0
4.4300003 -0.62027848 0.25861305 0
4.4240003 -0.62668192 0.25882953 0
4.4200001 -0.63335598 0.25897384 0
4.4170003 -0.6401636 0.25908208 0
4.4160004 -0.64725983 0.25911814 0
4.4150004 -0.65435243 0.2591542 0
4.4150004 -0.66159469 0.2591542 0
4.4160004 -0.6689921 0.25911814 0
4.4190001 -0.67670697 0.2590099 0
4.4230003 -0.68459141 0.25886559 0
4.4310002 -0.6931324 0.25857699 0
4.1300001 -0.67845124 0.26943591 0
4.1220002 -0.68380857 0.26972455 0
4.1170001 -0.68965656 0.26990491 0
4.1140003 -0.69583637 0.27001315 0
4.1129999 -0.7023589 0.27004921 0
4.112 -0.70887786 0.27008528 0
4.1140003 -0.7159344 0.27001315 0
4.118 -0.72336245 0.26986885 0
4.1270003 -0.73172492 0.26954412 0
4.2550001 -0.77613652 0.26492637 0
4.2460003 -0.78136933 0.2652511 0
4.2400002 -0.78714871 0.26546752 0
4.2350001 -0.79310131 0.26564792 0
4.2309999 -0.79923242 0.26579225 0
4.2290001 -0.80574602 0.26586437 0
4.2270002 -0.81225234 0.26593655 0
4.2260003 -0.81895345 0.26597261 0
4.2270002 -0.82605869 0.26593655 0
4.2280002 -0.83316743 0.26590046 0
4.23 -0.8404873 0.26582831 0
4.2340002 -0.84823287 0.26568401 0
4.2410002 -0.85662597 0.26543146 0
4.1570001 -0.25608411 0.26168495 0
4.1490002 -0.26239926 0.26198798 0
4.1440001 -0.26886413 0.26217741 0
4.1420002 -0.2754949 0.26225317 0
4.1410003 -0.28218165 0.26229101 0
4.1420002 -0.28899461 0.26225317 0
4.1440001 -0.29587793 0.26217741 0
4.1490002 -0.30297413 0.26198798 0
4.1600003 -0.31051046 0.26157132 0
3.9310002 -0.45363179 0.27024585 0
3.9240003 -0.45918033 0.27051097 0
3.9190001 -0.46494165 0.2707004 0
3.9160004 -0.47092673 0.27081403 0
3.9150002 -0.47714624 0.27085191 0
3.9150002 -0.48348662 0.27085191 0
3.9170003 -0.49007955 0.27077615 0
3.9200003 -0.49680775 0.27066249 0
3.9270003 -0.50406629 0.27039737 0
4.4380002 -0.61413467 0.2510407 0
4.4300003 -0.62027848 0.25134373 0
4.4240003 -0.62668192 0.251571 0
4.4200001 -0.63335598 0.25172251 0
4.4170003 -0.6401636 0.25183618 0
4.4160004 -0.64725983 0.25187403 0
4.4150004 -0.65435243 0.25191191 0
4.4150004 -0.66159469 0.25191191 0
4.4160004 -0.6689921 0.25187403 0
4.4190001 -0.67670697 0.25176042 0
4.4230003 -0.68459141 0.25160891 0
4.4310002 -0.6931324 0.25130585 0
4.1300001 -0.67845124 0.26270771 0
4.1220002 -0.68380857 0.26301074 0
4.1170001 -0.68965656 0.26320016 0
4.1140003 -0.69583637 0.2633138 0
4.1129999 -0.7023589 0.26335168 0
4.112 -0.70887786 0.26338956 0
4.1140003 -0.7159344 0.2633138 0
4.118 -0.72336245 0.26316226 0
4.1270003 -0.73172492 0.26282135 0
4.2550001 -0.77613652 0.25797272 0
4.2460003 -0.78136933 0.25831366 0
4.2400002 -0.78714871 0.25854093 0
4.2350001 -0.79310131 0.25873032 0
4.2309999 -0.79923242 0.25888184 0
4.2290001 -0.80574602 0.25895759 0
4.2270002 -0.81225234 0.25903335 0
4.2260003 -0.81895345 0.25907123 0
4.2270002 -0.82605869 0.25903335 0
4.2280002 -0.83316743 0.25899547 0
4.23 -0.8404873 0.25891972 0
4.2340002 -0.84823287 0.2587682 0
4.2410002 -0.85662597 0.25850302 0
4.1570001 -0.25608411 0.25490803 0
4.1490002 -0.26239926 0.25522554 0
4.1440001 -0.26886413 0.25542393 0
4.1420002 -0.2754949 0.2555033 0
4.1410003 -0.28218165 0.25554299 0
4.1420002 -0.28899461 0.2555033 0
4.1440001 -0.29587793 0.25542393 0
4.1490002 -0.30297413 0.25522554 0
4.1600003 -0.31051046 0.25478899 0
3.9310002 -0.45363179 0.26387656 0
3.9240003 -0.45918033 0.26415437 0
3.9190001 -0.46494165 0.2643528 0
3.9160004 -0.47092673 0.26447183 0
3.9150002 -0.47714624 0.26451153 0
3.9150002 -0.48348662 0.26451153 0
3.9170003 -0.49007955 0.26443213 0
3.9200003 -0.49680775 0.2643131 0
3.9270003 -0.50406629 0.26403531 0
4.4380002 -0.61413467 0.24375692 0
4.4300003 -0.62027848 0.24407437 0
4.4240003 -0.62668192 0.24431248 0
4.4200001 -0.63335598 0.24447122 0
4.4170003 -0.6401636 0.24459025 0
4.4160004 -0.64725983 0.24462995 0
4.4150004 -0.65435243 0.24466962 0
4.4150004 -0.66159469 0.24466962 0
4.4160004 -0.6689921 0.24462995 0
4.4190001 -0.67670697 0.2445109 0
4.4230003 -0.68459141 0.24435216 0
4.4310002 -0.6931324 0.24403469 0
4.1300001 -0.67845124 0.25597951 0
4.1220002 -0.68380857 0.25629699 0
4.1170001 -0.68965656 0.25649542 0
4.1140003 -0.69583637 0.25661445 0
4.1129999 -0.7023589 0.25665414 0
4.112 -0.70887786 0.25669384 0
4.1140003 -0.7159344 0.25661445 0
4.118 -0.72336245 0.25645572 0
4.1270003 -0.73172492 0.25609857 0
4.2550001 -0.77613652 0.25101903 0
4.2460003 -0.78136933 0.25137618 0
4.2400002 -0.78714871 0.2516143 0
4.2350001 -0.79310131 0.2518127 0
4.2309999 -0.79923242 0.25197145 0
4.2290001 -0.80574602 0.25205082 0
4.2270002 -0.81225234 0.25213021 0
4.2260003 -0.81895345 0.25216985 0
4.2270002 -0.82605869 0.25213021 0
4.2280002 -0.83316743 0.25209051 0
4.23 -0.8404873 0.25201112 0
4.2340002 -0.84823287 0.25185239 0
4.2410002 -0.85662597 0.25157464 0
4.1570001 -0.25608411 0.24813114 0
4.1490002 -0.26239926 0.24846303 0
4.1440001 -0.26886413 0.24867047 0
4.1420002 -0.2754949 0.24875346 0
4.1410003 -0.28218165 0.24879494 0
4.1420002 -0.28899461 0.24875346 0
4.1440001 -0.29587793 0.24867047 0
4.1490002 -0.30297413 0.24846303 0
4.1600003 -0.31051046 0.24800669 0
3.9310002 -0.45363179 0.25750732 0
3.9240003 -0.45918033 0.25779775 0
3.9190001 -0.46494165 0.2580052 0
3.9160004 -0.47092673 0.25812966 0
3.9150002 -0.47714624 0.25817114 0
3.9150002 -0.48348662 0.25817114 0
3.9170003 -0.49007955 0.25808817 0
3.9200003 -0.49680775 0.25796369 0
3.9270003 -0.50406629 0.25767329 0
4.4380002 -0.61413467 0.23647313 0
4.4300003 -0.62027848 0.23680504 0
4.4240003 -0.62668192 0.23705396 0
4.4200001 -0.63335598 0.23721991 0
4.4170003 -0.6401636 0.23734437 0
4.4160004 -0.64725983 0.23738585 0
4.4150004 -0.65435243 0.23742734 0
4.4150004 -0.66159469 0.23742734 0
4.4160004 -0.6689921 0.23738585 0
4.4190001 -0.67670697 0.2372614 0
4.4230003 -0.68459141 0.23709543 0
4.4310002 -0.6931324 0.23676354 0
4.1300001 -0.67845124 0.24925129 0
4.1220002 -0.68380857 0.24958321 0
4.1170001 -0.68965656 0.24979064 0
4.1140003 -0.69583637 0.24991511 0
4.1129999 -0.7023589 0.24995659 0
4.112 -0.70887786 0.24999809 0
4.1140003 -0.7159344 0.24991511 0
4.118 -0.72336245 0.24974915 0
4.1270003 -0.73172492 0.24937576 0
4.2550001 -0.77613652 0.24406534 0
4.2460003 -0.78136933 0.24443874 0
4.2400002 -0.78714871 0.24468766 0
4.2350001 -0.79310131 0.2448951 0
4.2309999 -0.79923242 0.24506107 0
4.2290001 -0.80574602 0.24514402 0
4.2270002 -0.81225234 0.24522701 0
4.2260003 -0.81895345 0.24526851 0
4.2270002 -0.82605869 0.24522701 0
4.2280002 -0.83316743 0.24518554 0
4.23 -0.8404873 0.24510255 0
4.2340002 -0.84823287 0.2449366 0
4.2410002 -0.85662597 0.24464619 0
4.1570001 -0.25608411 0.24135423 0
4.1490002 -0.26239926 0.24170057 0
4.1440001 -0.26886413 0.24191703 0
4.1420002 -0.2754949 0.24200362 0
4.1410003 -0.28218165 0.24204689 0
4.1420002 -0.28899461 0.24200362 0
4.1440001 -0.29587793 0.24191703 0
4.1490002 -0.30297413 0.24170057 0
4.1600003 -0.31051046 0.24122436 0
3.9310002 -0.45363179 0.25113809 0
3.9240003 -0.45918033 0.25144112 0
3.9190001 -0.46494165 0.25165761 0
3.9160004 -0.47092673 0.25178748 0
3.9150002 -0.47714624 0.25183076 0
3.9150002 -0.48348662 0.25183076 0
3.9170003 -0.49007955 0.25174415 0
3.9200003 -0.49680775 0.2516143 0
3.9270003 -0.50406629 0.25131124 0
4.4380002 -0.61413467 0.22918935 0
4.4300003 -0.62027848 0.22953568 0
4.4240003 -0.62668192 0.22979543 0
4.4200001 -0.63335598 0.22996861 0
4.4170003 -0.6401636 0.23009847 0
4.4160004 -0.64725983 0.23014176 0
4.4150004 -0.65435243 0.23018505 0
4.4150004 -0.66159469 0.23018505 0
4.4160004 -0.6689921 0.23014176 0
4.4190001 -0.67670697 0.2300119 0
4.4230003 -0.68459141 0.22983873 0
4.4310002 -0.6931324 0.2294924 0
4.1300001 -0.67845124 0.2425231 0
4.1220002 -0.68380857 0.24286944 0
4.1170001 -0.68965656 0.24308588 0
4.1140003 -0.69583637 0.24321577 0
4.1129999 -0.7023589 0.24325906 0
4.112 -0.70887786 0.24330235 0
4.1140003 -0.7159344 0.24321577 0
4.118 -0.72336245 0.2430426 0
4.1270003 -0.73172492 0.24265297 0
4.2550001 -0.77613652 0.23711167 0
4.2460003 -0.78136933 0.23750131 0
4.2400002 -0.78714871 0.23776105 0
4.2350001 -0.79310131 0.23797749 0
4.2309999 -0.79923242 0.23815067 0
4.2290001 -0.80574602 0.23823725 0
4.2270002 -0.81225234 0.23832384 0
4.2260003 -0.81895345 0.23836713 0
4.2270002 -0.82605869 0.23832384 0
4.2280002 -0.83316743 0.23828055 0
4.23 -0.8404873 0.23819396 0
4.2340002 -0.84823287 0.23802079 0
4.2410002 -0.85662597 0.23771775 0
4.1570001 -0.25608411 0.23457733 0
4.1490002 -0.26239926 0.2349381 0
4.1440001 -0.26886413 0.23516355 0
4.1420002 -0.2754949 0.23525375 0
4.1410003 -0.28218165 0.23529886 0
4.1420002 -0.28899461 0.23525375 0
4.1440001 -0.29587793 0.23516355 0
4.1490002 -0.30297413 0.2349381 0
4.1600003 -0.31051046 0.23444204 0
3.9310002 -0.45363179 0.24476884 0
3.9240003 -0.45918033 0.24508451 0
3.9190001 -0.46494165 0.24530999 0
3.9160004 -0.47092673 0.24544527 0
3.9150002 -0.47714624 0.24549037 0
3.9150002 -0.48348662 0.24549037 0
3.9170003 -0.49007955 0.24540018 0
3.9200003 -0.49680775 0.24526489 0
3.9270003 -0.50406629 0.24494922 0
4.4380002 -0.61413467 0.22190557 0
4.4300003 -0.62027848 0.22226633 0
4.4240003 -0.62668192 0.22253691 0
4.4200001 -0.63335598 0.2227173 0
4.4170003 -0.6401636 0.22285257 0
4.4160004 -0.64725983 0.22289766 0
4.4150004 -0.65435243 0.22294275 0
4.4150004 -0.66159469 0.22294275 0
4.4160004 -0.6689921 0.22289766 0
4.4190001 -0.67670697 0.22276239 0
4.4230003 -0.68459141 0.222582 0
4.4310002 -0.6931324 0.22222124 0
4.1300001 -0.67845124 0.23579489 0
4.1220002 -0.68380857 0.23615566 0
4.1170001 -0.68965656 0.23638114 0
4.1140003 -0.69583637 0.23651642 0
4.1129999 -0.7023589 0.23656152 0
4.112 -0.70887786 0.23660661 0
4.1140003 -0.7159344 0.23651642 0
4.118 -0.72336245 0.23633604 0
4.1270003 -0.73172492 0.23593019 0
4.2550001 -0.77613652 0.23015799 0
4.2460003 -0.78136933 0.23056386 0
4.2400002 -0.78714871 0.23083442 0
4.2350001 -0.79310131 0.23105989 0
4.2309999 -0.79923242 0.23124029 0
4.2290001 -0.80574602 0.23133047 0
4.2270002 -0.81225234 0.23142067 0
4.2260003 -0.81895345 0.23146574 0
4.2270002 -0.82605869 0.23142067 0
4.2280002 -0.83316743 0.23137556 0
4.23 -0.8404873 0.23128536 0
4.2340002 -0.84823287 0.23110498 0
4.2410002 -0.85662597 0.23078933 0
4.1570001 -0.25608411 0.22780041 0
4.1490002 -0.26239926 0.22817563 0
4.1440001 -0.26886413 0.22841011 0
4.1420002 -0.2754949 0.22850391 0
4.1410003 -0.28218165 0.22855079 0
4.1420002 -0.28899461 0.22850391 0
4.1440001 -0.29587793 0.22841011 0
4.1490002 -0.30297413 0.22817563 0
4.1600003 -0.31051046 0.22765972 0
3.9310002 -0.45363179 0.23839961 0
3.9240003 -0.45918033 0.23872788 0
3.9190001 -0.46494165 0.23896238 0
3.9160004 -0.47092673 0.23910308 0
3.9150002 -0.47714624 0.23914999 0
3.9150002 -0.48348662 0.23914999 0
3.9170003 -0.49007955 0.23905618 0
3.9200003 -0.49680775 0.23891549 0
3.9270003 -0.50406629 0.23858719 0
4.4380002 -0.61413467 0.2146218 0
4.4300003 -0.62027848 0.21499698 0
4.4240003 -0.62668192 0.21527837 0
4.4200001 -0.63335598 0.21546599 0
4.4170003 -0.6401636 0.21560667 0
4.4160004 -0.64725983 0.21565357 0
4.4150004 -0.65435243 0.21570046 0
4.4150004 -0.66159469 0.21570046 0
4.4160004 -0.6689921 0.21565357 0
4.4190001 -0.67670697 0.21551289 0
4.4230003 -0.68459141 0.21532528 0
4.4310002 -0.6931324 0.2149501 0
4.1300001 -0.67845124 0.2290667 0
4.1220002 -0.68380857 0.22944188 0
4.1170001 -0.68965656 0.22967638 0
4.1140003 -0.69583637 0.22981708 0
4.1129999 -0.7023589 0.22986399 0
4.112 -0.70887786 0.22991088 0
4.1140003 -0.7159344 0.22981708 0
4.118 -0.72336245 0.22962947 0
4.1270003 -0.73172492 0.22920738 0
4.2550001 -0.77613652 0.22320431 0
4.2460003 -0.78136933 0.22362641 0
4.2400002 -0.78714871 0.2239078 0
4.2350001 -0.79310131 0.2241423 0
4.2309999 -0.79923242 0.22432989 0
4.2290001 -0.80574602 0.22442368 0
4.2270002 -0.81225234 0.22451748 0
4.2260003 -0.81895345 0.22456439 0
4.2270002 -0.82605869 0.22451748 0
4.2280002 -0.83316743 0.2244706 0
4.23 -0.8404873 0.2243768 0
4.2340002 -0.84823287 0.22418919 0
4.2410002 -0.85662597 0.2238609 0
4.1570001 -0.25608411 0.22102351 0
4.1490002 -0.26239926 0.22141314 0
4.1440001 -0.26886413 0.22165665 0
4.1420002 -0.2754949 0.22175406 0
4.1410003 -0.28218165 0.22180276 0
4.1420002 -0.28899461 0.22175406 0
4.1440001 -0.29587793 0.22165665 0
4.1490002 -0.30297413 0.22141314 0
4.1600003 -0.31051046 0.22087741 0
3.9310002 -0.45363179 0.23203035 0
3.9240003 -0.45918033 0.23237127 0
3.9190001 -0.46494165 0.23261479 0
3.9160004 -0.47092673 0.23276089 0
3.9150002 -0.47714624 0.23280959 0
3.9150002 -0.48348662 0.23280959 0
3.9170003 -0.49007955 0.23271218 0
3.9200003 -0.49680775 0.23256607 0
3.9270003 -0.50406629 0.23222516 0
4.4380002 -0.61413467 0.20733802 0
4.4300003 -0.62027848 0.20772764 0
4.4240003 -0.62668192 0.20801987 0
4.4200001 -0.63335598 0.20821467 0
4.4170003 -0.6401636 0.20836078 0
4.4160004 -0.64725983 0.20840947 0
4.4150004 -0.65435243 0.20845819 0
4.4150004 -0.66159469 0.20845819 0
4.4160004 -0.6689921 0.20840947 0
4.4190001 -0.67670697 0.20826338 0
4.4230003 -0.68459141 0.20806855 0
4.4310002 -0.6931324 0.20767894 0
4.1300001 -0.67845124 0.22233848 0
4.1220002 -0.68380857 0.22272812 0
4.1170001 -0.68965656 0.22297162 0
4.1140003 -0.69583637 0.22311772 0
4.1129999 -0.7023589 0.22316645 0
4.112 -0.70887786 0.22321513 0
4.1140003 -0.7159344 0.22311772 0
4.118 -0.72336245 0.22292292 0
4.1270003 -0.73172492 0.22248459 0
4.2550001 -0.77613652 0.21625063 0
4.2460003 -0.78136933 0.21668896 0
4.2400002 -0.78714871 0.21698117 0
4.2350001 -0.79310131 0.21722469 0
4.2309999 -0.79923242 0.21741951 0
4.2290001 -0.80574602 0.21751691 0
4.2270002 -0.81225234 0.21761432 0
4.2260003 -0.81895345 0.21766302 0
4.2270002 -0.82605869 0.21761432 0
4.2280002 -0.83316743 0.21756561 0
4.23 -0.8404873 0.2174682 0
4.2340002 -0.84823287 0.2172734 0
4.2410002 -0.85662597 0.21693248 0
4.1570001 -0.25608411 0.2142466 0
4.1490002 -0.26239926 0.21465066 0
4.1440001 -0.26886413 0.21490319 0
4.1420002 -0.2754949 0.21500421 0
4.1410003 -0.28218165 0.21505472 0
4.1420002 -0.28899461 0.21500421 0
4.1440001 -0.29587793 0.21490319 0
4.1490002 -0.30297413 0.21465066 0
4.1600003 -0.31051046 0.21409509 0
3.9310002 -0.45363179 0.2256611 0
3.9240003 -0.45918033 0.22601464 0
3.9190001 -0.46494165 0.22626719 0
3.9160004 -0.47092673 0.2264187 0
3.9150002 -0.47714624 0.2264692 0
3.9150002 -0.48348662 0.2264692 0
3.9170003 -0.49007955 0.22636819 0
3.9200003 -0.49680775 0.22621667 0
3.9270003 -0.50406629 0.22586313 0
4.4380002 -0.61413467 0.20005424 0
4.4300003 -0.62027848 0.20045829 0
4.4240003 -0.62668192 0.20076133 0
4.4200001 -0.63335598 0.20096338 0
4.4170003 -0.6401636 0.20111488 0
4.4160004 -0.64725983 0.20116538 0
4.4150004 -0.65435243 0.20121588 0
4.4150004 -0.66159469 0.20121588 0
4.4160004 -0.6689921 0.20116538 0
4.4190001 -0.67670697 0.20101388 0
4.4230003 -0.68459141 0.20081183 0
4.4310002 -0.6931324 0.20040779 0
4.1300001 -0.67845124 0.21561027 0
4.1220002 -0.68380857 0.21601434 0
4.1170001 -0.68965656 0.21626687 0
4.1140003 -0.69583637 0.21641839 0
4.1129999 -0.7023589 0.2164689 0
4.112 -0.70887786 0.2165194 0
4.1140003 -0.7159344 0.21641839 0
4.118 -0.72336245 0.21621637 0
4.1270003 -0.73172492 0.21576181 0
4.2550001 -0.77613652 0.20929694 0
4.2460003 -0.78136933 0.20975152 0
4.2400002 -0.78714871 0.21005456 0
4.2350001 -0.79310131 0.21030709 0
4.2309999 -0.79923242 0.21050911 0
4.2290001 -0.80574602 0.21061012 0
4.2270002 -0.81225234 0.21071114 0
4.2260003 -0.81895345 0.21076165 0
4.2270002 -0.82605869 0.21071114 0
4.2280002 -0.83316743 0.21066064 0
4.23 -0.8404873 0.21055962 0
4.2340002 -0.84823287 0.21035759 0
4.2410002 -0.85662597 0.21000405 0
4.1570001 -0.25608411 0.2074697 0
4.1490002 -0.26239926 0.20788819 0
4.1440001 -0.26886413 0.20814973 0
4.1420002 -0.2754949 0.20825435 0
4.1410003 -0.28218165 0.20830666 0
4.1420002 -0.28899461 0.20825435 0
4.1440001 -0.29587793 0.20814973 0
4.1490002 -0.30297413 0.20788819 0
4.1600003 -0.31051046 0.20731276 0
3.9310002 -0.45363179 0.21929187 0
3.9240003 -0.45918033 0.21965802 0
3.9190001 -0.46494165 0.21991958 0
3.9160004 -0.47092673 0.22007652 0
3.9150002 -0.47714624 0.22012882 0
3.9150002 -0.48348662 0.22012882 0
3.9170003 -0.49007955 0.2200242 0
3.9200003 -0.49680775 0.21986726 0
3.9270003 -0.50406629 0.21950109 0
4.4380002 -0.61413467 0.19277047 0
4.4300003 -0.62027848 0.19318895 0
4.4240003 -0.62668192 0.19350281 0
4.4200001 -0.63335598 0.19371206 0
4.4170003 -0.6401636 0.19386898 0
4.4160004 -0.64725983 0.1939213 0
4.4150004 -0.65435243 0.19397359 0
4.4150004 -0.66159469 0.19397359 0
4.4160004 -0.6689921 0.1939213 0
4.4190001 -0.67670697 0.19376436 0
4.4230003 -0.68459141 0.19355512 0
4.4310002 -0.6931324 0.19313665 0
4.1300001 -0.67845124 0.20888208 0
4.1220002 -0.68380857 0.20930056 0
4.1170001 -0.68965656 0.20956211 0
4.1140003 -0.69583637 0.20971903 0
4.1129999 -0.7023589 0.20977136 0
4.112 -0.70887786 0.20982367 0
4.1140003 -0.7159344 0.20971903 0
4.118 -0.72336245 0.2095098 0
4.1270003 -0.73172492 0.209039 0
4.2550001 -0.77613652 0.20234327 0
4.2460003 -0.78136933 0.20281407 0
4.2400002 -0.78714871 0.20312794 0
4.2350001 -0.79310131 0.20338947 0
4.2309999 -0.79923242 0.20359874 0
4.2290001 -0.80574602 0.20370334 0
4.2270002 -0.81225234 0.20380796 0
4.2260003 -0.81895345 0.20386027 0
4.2270002 -0.82605869 0.20380796 0
4.2280002 -0.83316743 0.20375566 0
4.23 -0.8404873 0.20365103 0
4.2340002 -0.84823287 0.2034418 0
4.2410002 -0.85662597 0.20307563 0
4.1570001 -0.25608411 0.20069279 0
4.1490002 -0.26239926 0.20112571 0
4.1440001 -0.26886413 0.20139627 0
4.1420002 -0.2754949 0.20150451 0
4.1410003 -0.28218165 0.20155862 0
4.1420002 -0.28899461 0.20150451 0
4.1440001 -0.29587793 0.20139627 0
4.1490002 -0.30297413 0.20112571 0
4.1600003 -0.31051046 0.20053045 0
3.9310002 -0.45363179 0.2129226 0
3.9240003 -0.45918033 0.21330142 0
3.9190001 -0.46494165 0.213572 0
3.9160004 -0.47092673 0.21373431 0
3.9150002 -0.47714624 0.21378843 0
3.9150002 -0.48348662 0.21378843 0
3.9170003 -0.49007955 0.21368019 0
3.9200003 -0.49680775 0.21351786 0
3.9270003 -0.50406629 0.21313907 0
4.4380002 -0.61413467 0.18548669 0
4.4300003 -0.62027848 0.1859196 0
4.4240003 -0.62668192 0.18624429 0
4.4200001 -0.63335598 0.18646075 0
4.4170003 -0.6401636 0.18662308 0
4.4160004 -0.64725983 0.18667719 0
4.4150004 -0.65435243 0.18673129 0
4.4150004 -0.66159469 0.18673129 0
4.4160004 -0.6689921 0.18667719 0
4.4190001 -0.67670697 0.18651487 0
4.4230003 -0.68459141 0.18629839 0
4.4310002 -0.6931324 0.18586548 0
4.1300001 -0.67845124 0.20215386 0
4.1220002 -0.68380857 0.20258678 0
4.1170001 -0.68965656 0.20285735 0
4.1140003 -0.69583637 0.20301969 0
4.1129999 -0.7023589 0.20307383 0
4.112 -0.70887786 0.20312794 0
4.1140003 -0.7159344 0.20301969 0
4.118 -0.72336245 0.20280324 0
4.1270003 -0.73172492 0.20231621 0
4.2550001 -0.77613652 0.19538958 0
4.2460003 -0.78136933 0.19587663 0
4.2400002 -0.78714871 0.19620131 0
4.2350001 -0.79310131 0.19647187 0
4.2309999 -0.79923242 0.19668834 0
4.2290001 -0.80574602 0.19679655 0
4.2270002 -0.81225234 0.19690479 0
4.2260003 -0.81895345 0.1969589 0
4.2270002 -0.82605869 0.19690479 0
4.2280002 -0.83316743 0.19685067 0
4.23 -0.8404873 0.19674246 0
4.2340002 -0.84823287 0.19652599 0
4.2410002 -0.85662597 0.19614719 0
4.1570001 -0.25608411 0.19391589 0
4.1490002 -0.26239926 0.19436324 0
4.1440001 -0.26886413 0.19464283 0
4.1420002 -0.2754949 0.19475465 0
4.1410003 -0.28218165 0.19481057 0
4.1420002 -0.28899461 0.19475465 0
4.1440001 -0.29587793 0.19464283 0
4.1490002 -0.30297413 0.19436324 0
4.1600003 -0.31051046 0.19374813 0
3.9310002 -0.45363179 0.20655335 0
3.9240003 -0.45918033 0.20694479 0
3.9190001 -0.46494165 0.20722438 0
3.9160004 -0.47092673 0.20739213 0
3.9150002 -0.47714624 0.20744805 0
3.9150002 -0.48348662 0.20744805 0
3.9170003 -0.49007955 0.2073362 0
3.9200003 -0.49680775 0.20716844 0
3.9270003 -0.50406629 0.20677704 0
4.4380002 -0.61413467 0.17820291 0
4.4300003 -0.62027848 0.17865025 0
4.4240003 -0.62668192 0.17898576 0
4.4200001 -0.63335598 0.17920944 0
4.4170003 -0.6401636 0.17937718 0
4.4160004 -0.64725983 0.17943309 0
4.4150004 -0.65435243 0.17948902 0
4.4150004 -0.66159469 0.17948902 0
4.4160004 -0.6689921 0.17943309 0
4.4190001 -0.67670697 0.17926535 0
4.4230003 -0.68459141 0.17904168 0
4.4310002 -0.6931324 0.17859434 0
4.1300001 -0.67845124 0.19542567 0
4.1220002 -0.68380857 0.19587302 0
4.1170001 -0.68965656 0.1961526 0
4.1140003 -0.69583637 0.19632035 0
4.1129999 -0.7023589 0.19637628 0
4.112 -0.70887786 0.19643219 0
4.1140003 -0.7159344 0.19632035 0
4.118 -0.72336245 0.19609669 0
4.1270003 -0.73172492 0.19559342 0
4.2550001 -0.77613652 0.18843591 0
4.2460003 -0.78136933 0.18893917 0
4.2400002 -0.78714871 0.18927468 0
4.2350001 -0.79310131 0.18955426 0
4.2309999 -0.79923242 0.18977796 0
4.2290001 -0.80574602 0.18988979 0
4.2270002 -0.81225234 0.19000162 0
4.2260003 -0.81895345 0.19005755 0
4.2270002 -0.82605869 0.19000162 0
4.2280002 -0.83316743 0.18994571 0
4.23 -0.8404873 0.18983386 0
4.2340002 -0.84823287 0.1896102 0
4.2410002 -0.85662597 0.18921877 0
4.1570001 -0.25608411 0.18713897 0
