# .PCD v0.7 - Point Cloud Data file format
VERSION 0.7
FIELDS x y z intensity
SIZE 4 4 4 4
TYPE F F F F
COUNT 1 1 1 1
WIDTH 1427
HEIGHT 1
VIEWPOINT 0 0 0 1 0 0 0
POINTS 1427
DATA ascii
2.8530002 0.9008947 0.97921646 0
2.8540003 0.89685416 0.97945094 0
2.8570001 0.89357483 0.9801544 0
2.8590002 0.88990402 0.98062336 0
2.8610003 0.88622618 0.98109245 0
2.8640003 0.88291806 0.98179591 0
2.8670001 0.87959886 0.98249936 0
2.8690002 0.87589568 0.98296833 0
2.8720002 0.87255687 0.98367178 0
2.8750002 0.8692072 0.98437536 0
2.8790002 0.86621463 0.9853133 0
2.8830001 0.8632077 0.98625124 0
2.8870003 0.8601864 0.98718929 0
2.8910003 0.85715055 0.98812723 0
2.8960001 0.85446107 0.98929965 0
2.9010003 0.85175359 0.9904722 0
2.9060001 0.84902799 0.99164462 0
2.9120002 0.84663975 0.99305165 0
2.9190001 0.84458339 0.99469304 0
2.9260001 0.84250176 0.99633455 0
2.9350002 0.84109479 0.99844503 0
2.9460001 0.84035164 1.0010245 0
2.8790002 1.0316653 0.98084164 0
2.8720002 1.0241634 0.97921276 0
2.8660002 1.0171176 0.9778167 0
2.8620002 1.0109524 0.97688591 0
2.8570001 1.0043738 0.97572243 0
2.8550003 0.99909043 0.97525704 0
2.8530002 0.99381423 0.97479165 0
2.8510003 0.98854542 0.97432625 0
2.8490002 0.98328364 0.97386098 0
2.8470001 0.97802901 0.97339547 0
2.8460002 0.97319853 0.97316289 0
2.8450003 0.96837163 0.97293019 0
2.8450003 0.96396124 0.97293019 0
2.8440001 0.95913959 0.97269738 0
2.8440001 0.95473111 0.97269738 0
2.8440001 0.95032257 0.97269738 0
2.8440001 0.94591415 0.97269738 0
2.8440001 0.94150555 0.97269738 0
2.8450003 0.9374994 0.97293019 0
2.8460002 0.9334895 0.97316289 0
2.8460002 0.92907745 0.97316289 0
2.8470001 0.92506212 0.97339547 0
2.8480003 0.92104328 0.97362828 0
2.8490002 0.91702074 0.97386098 0
2.8510003 0.91338617 0.97432625 0
2.8520002 0.90935457 0.97455895 0
2.8540003 0.9057073 0.97502446 0
2.8560002 0.90205276 0.97548974 0
2.8570001 0.89800674 0.97572243 0
2.8600001 0.89472204 0.97642052 0
2.8620002 0.89104599 0.97688591 0
2.8640003 0.8873626 0.97735131 0
2.8670001 0.88404894 0.9780494 0
2.8690002 0.88034928 0.97851467 0
2.8720002 0.87701589 0.97921276 0
2.8750002 0.87367165 0.97991085 0
2.8790002 0.87068629 0.98084164 0
2.8820002 0.86731863 0.98153973 0
2.8860002 0.86430627 0.98247051 0
2.8900001 0.86127943 0.98340118 0
2.8950002 0.8586008 0.98456466 0
2.8990002 0.85554332 0.98549545 0
2.9040003 0.85283047 0.98665893 0
2.9100003 0.85045666 0.98805511 0
2.9160001 0.84806114 0.98945117 0
2.9230001 0.84599757 0.99108005 0
2.9300003 0.84390879 0.99270892 0
2.9400003 0.84284455 0.99503589 0
2.8790002 1.0271938 0.97636998 0
2.8720002 1.0197043 0.97475386 0
2.8670001 1.0130987 0.97359931 0
2.8630002 1.0069388 0.9726758 0
2.8600001 1.0012188 0.97198308 0
2.8570001 0.99550986 0.97129047 0
2.8550003 0.99023378 0.97082877 0
2.8530002 0.98496473 0.97036695 0
2.8510003 0.97970319 0.96990514 0
2.8500001 0.9748652 0.96967423 0
2.8490002 0.97003102 0.96944344 0
2.8490002 0.9656136 0.96944344 0
2.8480003 0.96078479 0.96921253 0
2.8480003 0.95636904 0.96921253 0
2.8470001 0.95154566 0.96898162 0
2.8470001 0.94713169 0.96898162 0
2.8480003 0.94312191 0.96921253 0
2.8480003 0.93870616 0.96921253 0
2.8490002 0.93469089 0.96944344 0
2.8490002 0.93027329 0.96944344 0
2.8500001 0.9262526 0.96967423 0
2.8510003 0.9222284 0.96990514 0
2.8530002 0.91859365 0.97036695 0
2.8540003 0.91456044 0.97059786 0
2.8550003 0.91052341 0.97082877 0
2.8570001 0.90687066 0.97129047 0
2.8590002 0.90321076 0.97175229 0
2.8610003 0.8995437 0.9722141 0
2.8630002 0.89586926 0.9726758 0
2.8650002 0.89218777 0.97313762 0
2.8670001 0.8884989 0.97359931 0
2.8700001 0.88517982 0.97429204 0
2.8730001 0.88185012 0.97498465 0
2.8760002 0.87850946 0.97567737 0
2.8790002 0.87515795 0.97636998 0
2.8820002 0.87179565 0.9770627 0
2.8860002 0.86879051 0.97798622 0
2.8900001 0.86577088 0.97890973 0
2.8940003 0.86273694 0.97983336 0
2.8980002 0.85968852 0.98075688 0
2.9030001 0.85698634 0.9819113 0
2.9080002 0.85426629 0.98306572 0
2.9140003 0.85188526 0.98445106 0
2.9210002 0.8498379 0.9860673 0
2.9280002 0.84776533 0.98768353 0
2.9360001 0.84601921 0.98953056 0
2.9460001 0.84494418 0.99183941 0
2.8890002 1.0315229 0.97418916 0
2.8790002 1.0227221 0.97189832 0
2.8730001 1.0156746 0.97052383 0
2.8690002 1.0095037 0.96960759 0
2.8650002 1.0033474 0.96869123 0
2.8620002 0.99762928 0.96800399 0
2.8600001 0.99234414 0.96754575 0
2.8570001 0.98664594 0.96685851 0
2.8550003 0.98137712 0.96640038 0
2.8540003 0.9765321 0.96617126 0
2.8530002 0.97169054 0.96594214 0
2.8520002 0.96685278 0.96571314 0
2.8520002 0.96242976 0.96571314 0
2.8510003 0.95759749 0.96548402 0
2.8510003 0.95317626 0.96548402 0
2.8510003 0.94875515 0.96548402 0
2.8510003 0.94433403 0.96548402 0
2.8520002 0.94031513 0.96571314 0
2.8520002 0.93589222 0.96571314 0
2.8530002 0.9318679 0.96594214 0
2.8540003 0.92784005 0.96617126 0
2.8550003 0.92380846 0.96640038 0
2.8560002 0.91977334 0.96662951 0
2.8570001 0.91573459 0.96685851 0
2.8590002 0.91208196 0.96731663 0
2.8600001 0.90803415 0.96754575 0
2.8620002 0.90436888 0.96800399 0
2.8640003 0.90069628 0.96846211 0
2.8660002 0.89701647 0.96892023 0
2.8680003 0.89332956 0.96937847 0
2.8710003 0.89001417 0.97006571 0
2.8730001 0.88631088 0.97052383 0
2.8760002 0.88297564 0.97121108 0
2.8790002 0.87962961 0.97189832 0
2.8820002 0.87627274 0.97258568 0
2.8860002 0.87327474 0.97350192 0
2.8890002 0.86989444 0.97418916 0
2.8930001 0.86686945 0.97510552 0
2.8980002 0.86419445 0.97625101 0
2.9020002 0.86113876 0.97716725 0
2.9070003 0.85842949 0.97831273 0
2.9120002 0.8557021 0.97945809 0
2.9190001 0.85367101 0.9810617 0
2.9260001 0.85161465 0.9826653 0
2.9340003 0.8498866 0.98449802 0
2.9430003 0.84848148 0.98655975 0
2.8880002 1.026602 0.96947229 0
2.8810003 1.0191091 0.96788132 0
2.8760002 1.0124962 0.9667449 0
2.8710003 1.0059017 0.96560848 0
2.8680003 1.0001727 0.9649266 0
2.8650002 0.99445462 0.96424484 0
2.8620002 0.98874748 0.96356297 0
2.8600001 0.98346949 0.96310842 0
2.8590002 0.9786154 0.96288109 0
2.8580003 0.9737649 0.96265388 0
2.8570001 0.96891809 0.96242654 0
2.8560002 0.96407485 0.96219933 0
2.8550003 0.95923531 0.961972 0
2.8550003 0.95480692 0.961972 0
2.8550003 0.95037866 0.961972 0
2.8550003 0.94595027 0.961972 0
2.8560002 0.94192415 0.96219933 0
2.8560002 0.93749392 0.96219933 0
2.8560002 0.93306375 0.96219933 0
2.8570001 0.92903042 0.96242654 0
2.8590002 0.92538857 0.96288109 0
2.8600001 0.92134631 0.96310842 0
2.8610003 0.9173004 0.96333575 0
2.8620002 0.91325086 0.96356297 0
2.8640003 0.90958554 0.96401751 0
2.8660002 0.90591282 0.96447206 0
2.8680003 0.90223312 0.9649266 0
2.8700001 0.8985461 0.96538115 0
2.8720002 0.89485198 0.96583581 0
2.8750002 0.89152926 0.96651757 0
2.8770003 0.88781893 0.96697223 0
2.8800001 0.88447642 0.96765399 0
2.8830001 0.88112313 0.96833587 0
2.8860002 0.87775904 0.96901774 0
2.8900001 0.87475389 0.96992671 0
2.8930001 0.87136638 0.97060859 0
2.8970003 0.86833423 0.9715178 0
2.9020002 0.86565191 0.97265422 0
2.9070003 0.86295164 0.97379053 0
2.9120002 0.86023325 0.97492695 0
2.9170003 0.85749686 0.97606337 0
2.9240003 0.85545683 0.97765434 0
2.9320002 0.85374677 0.97947252 0
2.9400003 0.85200787 0.98129082 0
2.9510002 0.85129541 0.98379087 0
2.8910003 1.0234021 0.96566081 0
2.8840003 1.0159163 0.96408248 0
2.8790002 1.0093071 0.96295512 0
2.8740003 1.0027162 0.96182775 0
2.8710003 0.99698722 0.96115136 0
2.8670001 0.99084866 0.9602493 0
2.8650002 0.98556185 0.95979846 0
2.8640003 0.98069882 0.95957303 0
2.8630002 0.97583926 0.95934749 0
2.8610003 0.97057045 0.95889652 0
2.8610003 0.96613121 0.95889652 0
2.8600001 0.96128249 0.95867097 0
2.8590002 0.95643759 0.95844555 0
2.8590002 0.95200199 0.95844555 0
2.8600001 0.94797051 0.95867097 0
2.8600001 0.94353312 0.95867097 0
2.8600001 0.93909568 0.95867097 0
2.8610003 0.93505704 0.95889652 0
2.8620002 0.93101466 0.95912206 0
2.8630002 0.92696875 0.95934749 0
2.8630002 0.92252594 0.95934749 0
2.8640003 0.91847467 0.95957303 0
2.8660002 0.91480923 0.96002388 0
2.8680003 0.91113681 0.96047485 0
2.8700001 0.90745693 0.96092582 0
2.8710003 0.90338582 0.96115136 0
2.8730001 0.89969331 0.96160221 0
2.8760002 0.89637434 0.9622786 0
2.8790002 0.89304453 0.96295512 0
2.8810003 0.88932693 0.96340609 0
2.8840003 0.88597727 0.96408248 0
2.8870003 0.8826167 0.96475887 0
2.8910003 0.87961704 0.96566081 0
2.8940003 0.8762331 0.9663372 0
2.8980002 0.87320626 0.96723914 0
2.9020002 0.87016499 0.96814096 0
2.9070003 0.86747378 0.96926844 0
2.9120002 0.86476439 0.9703958 0
2.9170003 0.86203706 0.97152317 0
2.9230001 0.85965055 0.97287595 0
2.9290001 0.85724252 0.97422886 0
2.9380002 0.85587883 0.97625816 0
2.9490001 0.85518974 0.97873843 0
2.8950002 1.0206188 0.96206224 0
2.8870003 1.0127128 0.96027291 0
2.8810003 1.0056833 0.95893073 0
2.8770003 0.99951971 0.95803618 0
2.8740003 0.99379086 0.95736516 0
2.8720002 0.98849118 0.95691776 0
2.8690002 0.98278224 0.95624673 0
2.8680003 0.97791374 0.9560231 0
2.8670001 0.97304881 0.95579934 0
2.8650002 0.9677763 0.95535207 0
2.8640003 0.96292055 0.95512843 0
2.8640003 0.95847595 0.95512843 0
2.8640003 0.95403123 0.95512843 0
2.8640003 0.94958669 0.95512843 0
2.8640003 0.94514215 0.95512843 0
2.8640003 0.94069761 0.95512843 0
2.8650002 0.93665159 0.95535207 0
2.8660002 0.93260205 0.9555757 0
2.8670001 0.92854887 0.95579934 0
2.8680003 0.92449218 0.9560231 0
2.8690002 0.92043173 0.95624673 0
2.8700001 0.91636777 0.95647037 0
2.8720002 0.91268802 0.95691776 0
2.8740003 0.90900105 0.95736516 0
2.8760002 0.90530676 0.95781243 0
2.8780003 0.90160549 0.95825982 0
2.8800001 0.89789677 0.95870709 0
2.8830001 0.89455968 0.95937812 0
2.8860002 0.89121187 0.96004915 0
2.8880002 0.88747799 0.96049654 0
2.8910003 0.88411027 0.96116757 0
2.8950002 0.88110334 0.96206224 0
2.8990002 0.87808198 0.96295691 0
2.9030001 0.87504607 0.96385157 0
2.9070003 0.87199593 0.96474624 0
2.9120002 0.86929554 0.96586466 0
2.9170003 0.86657733 0.96698308 0
2.9230001 0.86420161 0.96832502 0
2.9300003 0.86216336 0.96989071 0
2.9370003 0.86009979 0.97145641 0
2.9460001 0.85872161 0.9734695 0
2.8600001 1.0677794 0.94979632 0
2.8600001 1.063342 0.94979632 0
2.8610003 1.0593539 0.95001817 0
2.8630002 1.0558094 0.95046186 0
2.8660002 1.0527031 0.95112753 0
2.8680003 1.0491425 0.95157123 0
2.8710003 1.0460165 0.95223689 0
2.8750002 1.0433198 0.95312428 0
2.8810003 1.0414853 0.95445561 0
2.8900001 1.0094984 0.95645237 0
2.8840003 1.0024744 0.95512116 0
2.8810003 0.99673283 0.95445561 0
2.8780003 0.9910022 0.95378995 0
2.8760002 0.98569882 0.95334613 0
2.8740003 0.98040295 0.95290256 0
2.8720002 0.97511411 0.95245874 0
2.8710003 0.97024393 0.95223689 0
2.8700001 0.96537721 0.95201492 0
2.8690002 0.96051419 0.95179307 0
2.8690002 0.95606053 0.95179307 0
2.8690002 0.95160699 0.95179307 0
2.8690002 0.94715339 0.95179307 0
2.8690002 0.94269979 0.95179307 0
2.8700001 0.93864477 0.95201492 0
2.8710003 0.93458629 0.95223689 0
2.8710003 0.93012905 0.95223689 0
2.8720002 0.92606497 0.95245874 0
2.8730001 0.92199737 0.95268059 0
2.8750002 0.91831589 0.95312428 0
2.8770003 0.91462713 0.9535681 0
2.8780003 0.91054511 0.95378995 0
2.8800001 0.9068436 0.95423365 0
2.8820002 0.903135 0.95467746 0
2.8850002 0.89979976 0.95534301 0
2.8880002 0.89645374 0.95600867 0
2.8900001 0.89271975 0.95645237 0
2.8930001 0.88935387 0.95711792 0
2.8960001 0.88597715 0.95778358 0
2.9000001 0.88296121 0.95867097 0
2.9040003 0.87993091 0.95955861 0
2.9080002 0.87688601 0.960446 0
2.9130001 0.87419289 0.96155536 0
2.9170003 0.87111747 0.96244287 0
2.9230001 0.8687526 0.96377397 0
2.9300003 0.86672699 0.96532714 0
2.9370003 0.86467606 0.9668802 0
2.9450002 0.86295694 0.96865511 0
2.9570003 0.86263055 0.97131753 0
2.8550003 1.0788008 0.94425857 0
2.8520002 1.0730033 0.94359839 0
2.8510003 1.0681257 0.94337845 0
2.8510003 1.0637046 0.94337845 0
2.8510003 1.0592835 0.94337845 0
2.8520002 1.0553116 0.94359839 0
2.8540003 1.0517833 0.94403863 0
2.8560002 1.0482478 0.94447875 0
2.8590002 1.0451488 0.94513893 0
2.8610003 1.0415972 0.94557905 0
2.8630002 1.0380381 0.94601905 0
2.8660002 1.0349104 0.94667935 0
2.8680003 1.0313354 0.94711947 0
2.8700001 1.0277529 0.9475596 0
2.8730001 1.0245962 0.94821978 0
2.8750002 1.0209976 0.9486599 0
2.8780003 1.0178212 0.94932008 0
2.8810003 1.0146339 0.94998038 0
2.8840003 1.0114357 0.95064056 0
2.8870003 1.0082268 0.95130074 0
2.8890002 1.0045848 0.95174086 0
2.8900001 1.0005153 0.9519608 0
2.8860002 0.99434996 0.95108056 0
2.8830001 0.98861563 0.95042038 0
2.8810003 0.98330712 0.94998038 0
2.8780003 0.97759259 0.94932008 0
2.8760002 0.97230017 0.94887996 0
2.8760002 0.967834 0.94887996 0
2.8750002 0.96296012 0.9486599 0
2.8750002 0.95849574 0.9486599 0
2.8740003 0.95362723 0.94843984 0
2.8740003 0.94916463 0.94843984 0
2.8740003 0.94470197 0.94843984 0
2.8750002 0.94063801 0.9486599 0
2.8760002 0.93657041 0.94887996 0
2.8770003 0.93249929 0.94910002 0
2.8770003 0.92803121 0.94910002 0
2.8780003 0.92395455 0.94932008 0
2.8800001 0.92026395 0.9497602 0
2.8820002 0.91656613 0.95020032 0
2.8840003 0.91286123 0.95064056 0
2.8850002 0.90876478 0.9508605 0
2.8870003 0.90504706 0.95130074 0
2.8900001 0.90170276 0.9519608 0
2.8930001 0.89834774 0.95262098 0
2.8960001 0.8949818 0.95328128 0
2.8980002 0.89122993 0.9537214 0
2.9010003 0.88784415 0.95438159 0
2.9060001 0.88519073 0.95548189 0
2.9100003 0.88214958 0.95636225 0
2.9140003 0.87909389 0.95724237 0
2.9190001 0.87638998 0.95834267 0
2.9240003 0.87366802 0.95944309 0
2.9310002 0.87165314 0.96098351 0
2.9380002 0.86961305 0.96252394 0
2.9470003 0.86826563 0.9645046 0
2.9570003 0.86724287 0.9667052 0
2.8500001 1.0809292 0.93873894 0
2.8470001 1.0751354 0.93808413 0
2.8460002 1.0702651 0.93786585 0
2.8450003 1.0653983 0.9376477 0
2.8460002 1.0614408 0.93786585 0
2.8460002 1.0570287 0.93786585 0
2.8480003 1.053515 0.93830252 0
2.8490002 1.0495466 0.93852067 0
2.8510003 1.0460202 0.93895721 0
2.8530002 1.0424863 0.93939376 0
2.8550003 1.0389456 0.9398303 0
2.8570001 1.0353974 0.94026673 0
2.8590002 1.0318422 0.94070327 0
2.8610003 1.0282797 0.94113982 0
2.8630002 1.0247098 0.94157636 0
2.8660002 1.0215659 0.94223118 0
2.8680003 1.01798 0.94266772 0
2.8700001 1.0143867 0.94310415 0
2.8730001 1.0112138 0.94375896 0
2.8750002 1.0076044 0.94419551 0
2.8770003 1.0039878 0.94463205 0
2.8790002 1.0003638 0.94506848 0
2.8820002 0.99715316 0.9457233 0
2.8840003 0.99351299 0.94615984 0
2.8860002 0.98986566 0.94659638 0
2.8880002 0.9862113 0.94703281 0
2.8850002 0.98048413 0.94637811 0
2.8830001 0.97517908 0.94594157 0
2.8830001 0.97070026 0.94594157 0
2.8820002 0.96581376 0.9457233 0
2.8810003 0.96093082 0.94550502 0
2.8800001 0.95605159 0.94528675 0
2.8800001 0.95157802 0.94528675 0
2.8800001 0.94710463 0.94528675 0
2.8810003 0.94302988 0.94550502 0
2.8810003 0.9385547 0.94550502 0
2.8820002 0.93447441 0.9457233 0
2.8830001 0.93039054 0.94594157 0
2.8830001 0.92591172 0.94594157 0
2.8850002 0.92221206 0.94637811 0
2.8870003 0.91850537 0.94681466 0
2.8890002 0.91479117 0.94725108 0
2.8910003 0.91106993 0.94768763 0
2.8930001 0.90734142 0.94812417 0
2.8950002 0.90360582 0.94856071 0
2.8990002 0.90062052 0.94943368 0
2.9020002 0.8972438 0.9500885 0
2.9050002 0.89385629 0.95074332 0
2.9080002 0.89045781 0.95139813 0
2.9120002 0.8874203 0.9522711 0
2.9160001 0.88436824 0.95314419 0
2.9210002 0.88166976 0.95423543 0
2.9260001 0.87895316 0.9553268 0
2.9310002 0.87621862 0.95641804 0
2.9390001 0.87455368 0.9581641 0
2.9480002 0.87322062 0.96012855 0
2.9590001 0.87257308 0.96252942 0
2.8470001 1.0839632 0.93367028 0
2.8440001 1.0781693 0.93302083 0
2.8430002 1.0733027 0.93280447 0
2.8420002 1.0684396 0.93258798 0
2.8410003 1.0635803 0.9323715 0
2.8420002 1.0596298 0.93258798 0
2.8430002 1.0556759 0.93280447 0
2.8440001 1.0517184 0.93302083 0
2.8450003 1.0477571 0.93323731 0
2.8470001 1.0442379 0.93367028 0
2.8490002 1.0407115 0.93410313 0
2.8510003 1.0371779 0.9345361 0
2.8530002 1.0336369 0.93496907 0
2.8550003 1.0300889 0.93540192 0
2.8570001 1.0265335 0.93583477 0
2.8590002 1.022971 0.93626773 0
2.8620002 1.0198342 0.93691707 0
2.8640003 1.0162555 0.93735003 0
2.8660002 1.0126694 0.937783 0
2.8680003 1.0090762 0.93821585 0
2.8700001 1.0054758 0.9386487 0
2.8720002 1.0018682 0.93908167 0
2.8740003 0.99825358 0.93951464 0
2.8760002 0.99463141 0.93994749 0
2.8780003 0.9910022 0.94038045 0
2.8800001 0.9873656 0.9408133 0
2.8820002 0.98372197 0.94124627 0
2.8840003 0.98007107 0.94167912 0
2.8870003 0.97682428 0.94232857 0
2.8890002 0.97315705 0.94276142 0
2.8890002 0.96866739 0.94276142 0
2.8880002 0.96377194 0.94254506 0
2.8870003 0.95887995 0.94232857 0
2.8860002 0.95399153 0.94211209 0
2.8860002 0.94950736 0.94211209 0
2.8870003 0.94542181 0.94232857 0
2.8870003 0.94093573 0.94232857 0
2.8880002 0.93684459 0.94254506 0
2.8890002 0.93274987 0.94276142 0
2.8900001 0.92865169 0.94297791 0
2.8920002 0.92493945 0.94341087 0
2.8930001 0.92083216 0.94362724 0
2.8950002 0.9171074 0.94406021 0
2.8970003 0.91337526 0.94449306 0
2.8990002 0.90963596 0.94492602 0
2.9020002 0.90626997 0.94557536 0
2.9050002 0.90289336 0.94622481 0
2.9080002 0.89950585 0.94687414 0
2.9110003 0.89610738 0.94752347 0
2.9140003 0.89269817 0.94817293 0
2.9190001 0.89002132 0.94925511 0
2.9240003 0.88732648 0.95033741 0
2.9290001 0.88461351 0.95141971 0
2.9350002 0.88224876 0.9527185 0
2.9410002 0.87986231 0.95401716 0
2.9510002 0.87890452 0.95618176 0
2.8460002 1.0879135 0.92904162 0
2.8430002 1.0821161 0.92839777 0
2.8410003 1.0767895 0.9279685 0
2.8400002 1.0719281 0.92775381 0
2.8390002 1.0670705 0.92753911 0
2.8370001 1.0617619 0.92710972 0
2.8380003 1.0578189 0.92732441 0
2.8380003 1.0534211 0.92732441 0
2.8400002 1.0499216 0.92775381 0
2.8410003 1.0459678 0.9279685 0
2.8430002 1.0424558 0.92839777 0
2.8460002 1.0393802 0.92904162 0
2.8490002 1.0362939 0.92968559 0
2.8510003 1.0327568 0.93011498 0
2.8530002 1.0292122 0.93054426 0
2.8540003 1.025224 0.93075895 0
2.8560002 1.0216668 0.93118823 0
2.8580003 1.0181025 0.9316175 0
2.8600001 1.014531 0.93204677 0
2.8620002 1.0109524 0.93247616 0
2.8640003 1.0073664 0.93290544 0
2.8660002 1.0037731 0.93333471 0
2.8680003 1.0001727 0.9337641 0
2.8700001 0.99656498 0.93419337 0
2.8720002 0.9929502 0.93462265 0
2.8740003 0.98932827 0.93505204 0
2.8760002 0.98569882 0.93548131 0
2.8780003 0.98206258 0.93591058 0
2.8800001 0.97841871 0.93633986 0
2.8820002 0.9747678 0.93676913 0
2.8840003 0.97110975 0.93719852 0
2.8870003 0.96785212 0.93784249 0
2.8890002 0.96417773 0.93827176 0
2.8910003 0.96049607 0.93870103 0
2.8930001 0.95680737 0.93913031 0
2.8940003 0.95271093 0.939345 0
2.8940003 0.94821227 0.939345 0
2.8950002 0.94411033 0.9395597 0
2.8950002 0.93960983 0.9395597 0
2.8960001 0.93550247 0.93977439 0
2.8960001 0.93100023 0.93977439 0
2.8980002 0.92727727 0.94020367 0
2.9000001 0.92354685 0.94063294 0
2.9020002 0.91980946 0.94106221 0
2.9040003 0.9160648 0.9414916 0
2.9060001 0.91231281 0.94192088 0
2.9090002 0.90893418 0.94256485 0
2.9120002 0.90554488 0.94320881 0
2.9160001 0.90252167 0.94406736 0
2.9190001 0.89910895 0.94471133 0
2.9220002 0.89568526 0.9453553 0
2.9270003 0.89299399 0.94642854 0
2.9330003 0.89065456 0.94771659 0
2.9370003 0.88755739 0.94857514 0
2.9400003 0.88407964 0.94921911 0
2.9430003 0.88059103 0.94986308 0
2.9460001 0.87709159 0.95050693 0
2.9490001 0.87358141 0.95115089 0
2.9520001 0.87006038 0.95179498 0
2.9550002 0.86652851 0.95243883 0
2.9600003 0.86369658 0.95351219 0
2.9650002 0.86084652 0.95458543 0
2.8480003 1.0932565 0.92505527 0
2.8430002 1.0865228 0.92399108 0
2.8400002 1.0807308 0.92335248 0
2.8370001 1.0749495 0.92271388 0
2.8350003 1.0696374 0.9222883 0
2.8350003 1.0652452 0.9222883 0
2.8350003 1.0608529 0.9222883 0
2.8350003 1.0564606 0.9222883 0
2.8360002 1.0525192 0.92250109 0
2.8370001 1.0485742 0.92271388 0
2.8390002 1.045073 0.92313957 0
2.8410003 1.0415647 0.92356539 0
2.8430002 1.0380491 0.92399108 0
2.8460002 1.0349681 0.92462957 0
2.8480003 1.0314363 0.92505527 0
2.8500001 1.0278972 0.92548096 0
2.8520002 1.024351 0.92590666 0
2.8540003 1.0207975 0.92633235 0
2.8560002 1.0172367 0.92675805 0
2.8580003 1.0136688 0.92718375 0
2.8600001 1.0100936 0.92760944 0
2.8620002 1.0065112 0.92803514 0
2.8640003 1.0029217 0.92846084 0
2.8650002 0.99890101 0.92867374 0
2.8670001 0.99529874 0.92909932 0
2.8690002 0.99168944 0.92952514 0
2.8710003 0.98807275 0.92995083 0
2.8730001 0.98444891 0.93037653 0
2.8750002 0.98081791 0.93080223 0
2.8770003 0.97717953 0.93122792 0
2.8790002 0.97353411 0.93165362 0
2.8810003 0.9698813 0.93207932 0
2.8830001 0.96622145 0.93250501 0
2.8850002 0.96255422 0.93293071 0
2.8870003 0.95887995 0.9333564 0
2.8890002 0.95519829 0.9337821 0
2.8910003 0.95150954 0.9342078 0
2.8930001 0.94781351 0.93463349 0
2.8950002 0.94411033 0.93505919 0
2.8970003 0.94039989 0.93548489 0
2.8990002 0.93668228 0.93591058 0
2.9010003 0.93295741 0.93633628 0
2.9030001 0.92922527 0.93676198 0
2.9060001 0.92587388 0.93740058 0
2.9080002 0.92212552 0.93782628 0
2.9100003 0.91837007 0.93825197 0
2.9120002 0.91460723 0.93867767 0
2.9140003 0.91083729 0.93910336 0
2.9160001 0.90706003 0.93952906 0
2.9180002 0.90327573 0.93995476 0
2.9210002 0.89985937 0.94059336 0
2.9230001 0.89605862 0.94101894 0
2.9250002 0.89225084 0.94144464 0
2.9270003 0.88843584 0.94187045 0
2.9300003 0.88498157 0.94250894 0
2.9320002 0.88115025 0.94293463 0
2.9340003 0.87731177 0.94336033 0
2.9370003 0.87382859 0.94399893 0
2.9390001 0.86997378 0.94442451 0
2.9420002 0.86647075 0.94506311 0
2.9440002 0.86259985 0.94548881 0
2.9460001 0.85872161 0.94591451 0
2.9490001 0.85518974 0.94655311 0
2.9510002 0.85129541 0.94697869 0
2.9540002 0.84774369 0.94761729 0
2.9560003 0.84383309 0.94804299 0
2.9590001 0.84026146 0.94868159 0
2.9620001 0.8366791 0.94932008 0
2.9650002 0.83308589 0.94995868 0
2.9680002 0.8294819 0.95059717 0
2.8440001 1.0913948 0.91979539 0
2.8390002 1.0846685 0.91874015 0
2.8360002 1.0788836 0.91810703 0
2.8340001 1.0735695 0.91768491 0
2.8330002 1.0687209 0.91747391 0
2.8320003 1.0638759 0.91726279 0
2.8320003 1.0594891 0.91726279 0
2.8330002 1.0555551 0.91747391 0
2.8330002 1.0511663 0.91747391 0
2.8350003 1.0476761 0.91789591 0
2.8360002 1.0437311 0.91810703 0
2.8380003 1.0402281 0.91852915 0
2.8400002 1.0367178 0.91895115 0
2.8430002 1.0336424 0.91958439 0
2.8460002 1.0305561 0.92021739 0
2.8490002 1.0274589 0.92085063 0
2.8510003 1.0239145 0.92127275 0
2.8520002 1.019928 0.92148376 0
2.8540003 1.016371 0.92190588 0
2.8560002 1.0128065 0.92232788 0
2.8580003 1.009235 0.92275 0
2.8600001 1.0056562 0.92317212 0
2.8620002 1.0020703 0.92359424 0
2.8630002 0.99805319 0.92380524 0
2.8650002 0.99445462 0.92422736 0
2.8670001 0.99084866 0.92464936 0
2.8690002 0.98723578 0.92507148 0
2.8710003 0.98361552 0.9254936 0
2.8730001 0.9799881 0.92591572 0
2.8750002 0.97635341 0.92633784 0
2.8770003 0.97271156 0.92675984 0
2.8790002 0.96906245 0.92718196 0
2.8800001 0.96499836 0.92739296 0
2.8820002 0.96133673 0.92781508 0
2.8840003 0.95766771 0.9282372 0
2.8860002 0.95399153 0.9286592 0
2.8880002 0.95030826 0.92908132 0
2.8900001 0.94661754 0.92950344 0
2.8920002 0.94291985 0.92992556 0
2.8940003 0.93921483 0.93034768 0
2.8960001 0.93550247 0.93076968 0
2.8980002 0.93178314 0.9311918 0
2.9000001 0.92805642 0.93161392 0
2.9020002 0.92432249 0.93203604 0
2.9040003 0.92058146 0.93245816 0
2.9060001 0.9168331 0.93288016 0
2.9080002 0.91307765 0.93330228 0
2.9100003 0.90931493 0.9337244 0
2.9120002 0.90554488 0.93414652 0
2.9140003 0.90176773 0.93456864 0
2.9160001 0.89798331 0.93499064 0
2.9190001 0.89456505 0.93562376 0
2.9210002 0.89076453 0.93604589 0
2.9230001 0.88695669 0.93646801 0
2.9250002 0.88314164 0.93689013 0
2.9270003 0.87931931 0.93731213 0
2.9290001 0.87548983 0.93773425 0
2.9320002 0.87201571 0.93836737 0
2.9340003 0.86817002 0.93878949 0
2.9360001 0.86431706 0.93921149 0
2.9380002 0.86045688 0.93963361 0
2.9400003 0.85658956 0.94005573 0
2.9420002 0.85271496 0.94047785 0
2.9450002 0.84918493 0.94111097 0
2.9470003 0.84529412 0.94153309 0
2.9490001 0.84139603 0.94195509 0
2.9520001 0.83783716 0.94258833 0
2.9540002 0.83392292 0.94301045 0
2.9560003 0.83000147 0.94343245 0
2.9590001 0.82641363 0.94406557 0
2.9620001 0.822815 0.94469869 0
2.9650002 0.81920558 0.94533193 0
2.9690001 0.81592089 0.94617605 0
2.8480003 1.0976721 0.91622388 0
2.8400002 1.0895333 0.91454995 0
2.8360002 1.0832777 0.91371298 0
2.8330002 1.0774983 0.91308522 0
2.8310003 1.0721897 0.9126668 0
2.8300002 1.0673466 0.91245747 0
2.8300002 1.0629632 0.91245747 0
2.8300002 1.05858 0.91245747 0
2.8300002 1.0541967 0.91245747 0
2.8310003 1.0502645 0.9126668 0
2.8320003 1.0463285 0.91287601 0
2.8330002 1.042389 0.91308522 0
2.8350003 1.0388916 0.91350365 0
2.8380003 1.0358304 0.9141314 0
2.8400002 1.0323164 0.91454995 0
2.8440001 1.0296757 0.9153868 0
2.8470001 1.0265822 0.91601455 0
2.8490002 1.0230414 0.9164331 0
2.8510003 1.0194933 0.91685164 0
2.8530002 1.015938 0.91727006 0
2.8550003 1.0123755 0.91768861 0
2.8570001 1.0088056 0.91810691 0
2.8580003 1.0048013 0.91831625 0
2.8600001 1.0012188 0.91873479 0
2.8620002 0.99762928 0.91915321 0
2.8640003 0.99403262 0.91957176 0
2.8660002 0.99042845 0.91999018 0
2.8680003 0.98681736 0.92040873 0
2.8690002 0.98278224 0.92061794 0
2.8710003 0.97915828 0.92103636 0
2.8730001 0.97552729 0.92145491 0
2.8750002 0.97188902 0.92187333 0
2.8770003 0.96824348 0.92229187 0
2.8790002 0.96459079 0.9227103 0
2.8810003 0.96093082 0.92312884 0
2.8820002 0.95685959 0.92333806 0
2.8840003 0.95318717 0.92375648 0
2.8860002 0.94950736 0.92417502 0
2.8880002 0.94582033 0.92459357 0
2.8900001 0.9421261 0.92501199 0
2.8920002 0.93842477 0.92543054 0
2.8940003 0.93471611 0.92584896 0
2.8960001 0.93100023 0.92626739 0
2.8980002 0.92727727 0.92668593 0
2.9000001 0.92354685 0.92710435 0
2.9020002 0.91980946 0.9275229 0
2.9040003 0.9160648 0.92794132 0
2.9060001 0.91231281 0.92835987 0
2.9080002 0.90855372 0.92877829 0
2.9100003 0.90478736 0.92919683 0
2.9120002 0.90101367 0.92961526 0
2.9140003 0.89723301 0.9300338 0
2.9160001 0.89344496 0.93045223 0
2.9180002 0.88964975 0.93087077 0
2.9200003 0.88584733 0.93128932 0
2.9220002 0.8820377 0.93170774 0
2.9240003 0.8782208 0.93212628 0
2.9260001 0.87439674 0.93254459 0
2.9280002 0.87056547 0.93296313 0
2.9300003 0.86672699 0.93338168 0
2.9320002 0.86288124 0.9338001 0
2.9340003 0.85902834 0.93421865 0
2.9360001 0.85516816 0.93463707 0
2.9380002 0.85130078 0.93505561 0
2.9400003 0.84742624 0.93547404 0
2.9430003 0.84389436 0.93610179 0
2.9450002 0.84000355 0.93652022 0
2.9470003 0.83610559 0.93693876 0
2.9490001 0.83220023 0.93735719 0
2.9510002 0.82828784 0.93777573 0
2.9540002 0.82470906 0.93840349 0
2.9560003 0.8207804 0.93882203 0
2.9590001 0.81718171 0.93944967 0
2.9620001 0.81357235 0.94007742 0
2.9660003 0.81028587 0.94091439 0
2.9730003 0.80798054 0.942379 0
2.8440001 1.0958033 0.91097832 0
2.8370001 1.0881373 0.90952623 0
2.8340001 1.0823506 0.90890396 0
2.8310003 1.0765748 0.90828168 0
2.8290002 1.0712698 0.90786684 0
2.8280003 1.0664302 0.90765941 0
2.8270001 1.0615941 0.90745187 0
2.8270001 1.0572163 0.90745187 0
2.8270001 1.0528384 0.90745187 0
2.8280003 1.0489117 0.90765941 0
2.8290002 1.0449811 0.90786684 0
2.8310003 1.0414944 0.90828168 0
2.8330002 1.0380003 0.90869653 0
2.8350003 1.0344993 0.90911138 0
2.8380003 1.0314327 0.90973377 0
2.8410003 1.0283555 0.91035604 0
2.8450003 1.0257057 0.91118586 0
2.8490002 1.0230414 0.91201556 0
2.8510003 1.0194933 0.91243041 0
2.8520002 1.0155051 0.91263783 0
2.8540003 1.0119444 0.9130528 0
2.8560002 1.0083764 0.91346765 0
2.8580003 1.0048013 0.91388249 0
2.8590002 1.0007932 0.91408992 0
2.8610003 0.99720538 0.91450477 0
2.8630002 0.9936105 0.91491961 0
2.8650002 0.99000823 0.91533458 0
2.8660002 0.98598027 0.91554201 0
2.8680003 0.98236549 0.91595685 0
2.8700001 0.97874343 0.9163717 0
2.8720002 0.97511411 0.91678667 0
2.8740003 0.97147775 0.91720152 0
2.8750002 0.96742451 0.91740894 0
2.8770003 0.96377552 0.91782391 0
2.8790002 0.96011913 0.91823864 0
2.8810003 0.95645559 0.91865361 0
2.8830001 0.95278478 0.91906846 0
2.8850002 0.94910693 0.9194833 0
2.8870003 0.94542181 0.91989827 0
2.8880002 0.94133252 0.9201057 0
2.8900001 0.93763459 0.92052054 0
2.8920002 0.93392968 0.92093539 0
2.8940003 0.93021744 0.92135024 0
2.8960001 0.92649788 0.92176509 0
2.8980002 0.92277128 0.92218006 0
2.9000001 0.91903734 0.9225949 0
2.9020002 0.91529632 0.92300975 0
2.9040003 0.91154796 0.9234246 0
2.9050002 0.90741193 0.92363203 0
2.9070003 0.90365094 0.92404699 0
2.9090002 0.89988279 0.92446184 0
2.9110003 0.89610738 0.92487669 0
2.9130001 0.89232475 0.92529154 0
2.9150002 0.88853502 0.92570639 0
2.9170003 0.88473803 0.92612135 0
2.9190001 0.88093376 0.9265362 0
2.9210002 0.87712234 0.92695105 0
2.9230001 0.87330359 0.9273659 0
2.9250002 0.86947775 0.92778075 0
2.9270003 0.86564469 0.92819571 0
2.9290001 0.86180431 0.92861056 0
2.9310002 0.85795689 0.92902541 0
2.9330003 0.85410213 0.92944038 0
2.9350002 0.85024011 0.92985523 0
2.9370003 0.846371 0.93027008 0
2.9390001 0.84249455 0.93068492 0
2.9410002 0.83861101 0.93109989 0
2.9430003 0.83472019 0.93151474 0
2.9460001 0.83116668 0.93213701 0
2.9480002 0.82725966 0.93255186 0
2.9500003 0.82334542 0.93296683 0
2.9520001 0.81942385 0.93338168 0
2.9540002 0.81549519 0.93379653 0
2.9570003 0.81189477 0.93441892 0
2.9610002 0.80861729 0.93524861 0
2.9660003 0.80565727 0.93628585 0
2.9720001 0.80300921 0.9375304 0
2.8420002 1.094869 0.90615857 0
2.8350003 1.0872065 0.90471911 0
2.8310003 1.0809599 0.90389663 0
2.8280003 1.0751895 0.90327972 0
2.8260002 1.0698898 0.90286845 0
2.8250003 1.0650557 0.90266275 0
2.8250003 1.0606815 0.90266275 0
2.8240001 1.0558527 0.90245712 0
2.8250003 1.0519331 0.90266275 0
2.8250003 1.0475588 0.90266275 0
2.8270001 1.0440828 0.90307403 0
2.8280003 1.0401523 0.90327972 0
2.8300002 1.0366638 0.90369099 0
2.8330002 1.0336117 0.90430784 0
2.8350003 1.030107 0.90471911 0
2.8390002 1.0274751 0.90554166 0
2.8420002 1.0243907 0.90615857 0
2.8460002 1.0217317 0.90698111 0
2.8500001 1.0190586 0.90780365 0
2.8520002 1.0155051 0.90821493 0
2.8540003 1.0119444 0.9086262 0
2.8550003 1.0079471 0.90883183 0
2.8570001 1.0043738 0.90924311 0
2.8590002 1.0007932 0.90965438 0
2.8610003 0.99720538 0.91006565 0
2.8620002 0.99318838 0.91027129 0
2.8640003 0.98958802 0.91068256 0
2.8660002 0.98598027 0.91109383 0
2.8680003 0.98236549 0.9115051 0
2.8690002 0.97832847 0.91171074 0
2.8710003 0.97470117 0.91212201 0
2.8730001 0.97106636 0.91253316 0
2.8750002 0.96742451 0.91294456 0
2.8770003 0.96377552 0.91335583 0
2.8780003 0.95971334 0.91356134 0
2.8800001 0.95605159 0.91397262 0
2.8820002 0.95238256 0.91438389 0
2.8840003 0.94870651 0.91479528 0
2.8850002 0.94462448 0.9150008 0
2.8870003 0.94093573 0.91541219 0
2.8890002 0.93723959 0.91582334 0
2.8910003 0.93353641 0.91623473 0
2.8930001 0.92982596 0.91664588 0
2.8950002 0.92610836 0.91705716 0
2.8970003 0.92238349 0.91746843 0
2.8980002 0.91826534 0.91767406 0
2.9000001 0.91452783 0.91808534 0
2.9020002 0.91078317 0.91849661 0
2.9040003 0.9070313 0.91890788 0
2.9060001 0.90327209 0.91931915 0
2.9080002 0.89950585 0.91973042 0
2.9100003 0.89573228 0.9201417 0
2.9120002 0.89195138 0.92055297 0
2.9140003 0.88816345 0.92096424 0
2.9160001 0.88436824 0.92137551 0
2.9170003 0.88019776 0.92158115 0
2.9190001 0.87638998 0.92199242 0
2.9210002 0.87257493 0.92240369 0
2.9230001 0.8687526 0.92281497 0
2.9250002 0.86492318 0.92322624 0
2.9270003 0.86108649 0.92363751 0
2.9290001 0.85724252 0.92404878 0
2.9310002 0.85339141 0.92446005 0
2.9330003 0.84953308 0.92487133 0
2.9350002 0.84566748 0.9252826 0
2.9370003 0.84179473 0.92569387 0
2.9390001 0.83791471 0.92610514 0
2.9410002 0.83402753 0.92651641 0
2.9430003 0.83013314 0.92692769 0
2.9440002 0.82588875 0.92713332 0
2.9460001 0.82198167 0.92754447 0
2.9470003 0.81772834 0.92775023 0
2.9500003 0.81414598 0.92836702 0
2.9520001 0.8102172 0.92877829 0
2.9580002 0.80761617 0.93001211 0
2.9620001 0.80432963 0.93083465 0
2.9670002 0.80135876 0.93186283 0
2.9740002 0.79902643 0.93330228 0
2.8390002 1.0934675 0.90114224 0
2.8320003 1.0858103 0.89971536 0
2.8290002 1.0800327 0.89910388 0
2.8260002 1.074266 0.89849234 0
2.8240001 1.0689698 0.89808476 0
2.8230002 1.0641394 0.89788091 0
2.8220003 1.0593123 0.89767706 0
2.8220003 1.0549436 0.89767706 0
2.8220003 1.0505748 0.89767706 0
2.8230002 1.0466567 0.89788091 0
2.8240001 1.0427353 0.89808476 0
2.8260002 1.0392575 0.89849234 0
2.8280003 1.0357727 0.89890003 0
2.8300002 1.0322804 0.89930773 0
2.8330002 1.029223 0.89991921 0
2.8360002 1.0261548 0.9005307 0
2.8390002 1.0230756 0.90114224 0
2.8440001 1.0208588 0.9021613 0
2.8480003 1.0181891 0.90297669 0
2.8520002 1.0155051 0.90379202 0
2.8530002 1.0115132 0.90399575 0
2.8550003 1.0079471 0.90440345 0
2.8570001 1.0043738 0.90481114 0
2.8590002 1.0007932 0.90521884 0
2.8600001 0.99678159 0.90542257 0
2.8620002 0.99318838 0.90583026 0
2.8640003 0.98958802 0.90623796 0
2.8650002 0.98556185 0.90644181 0
2.8670001 0.98194885 0.90684938 0
2.8690002 0.97832847 0.90725708 0
2.8710003 0.97470117 0.90766478 0
2.8730001 0.97106636 0.90807235 0
2.8740003 0.96701503 0.9082762 0
2.8760002 0.9633677 0.9086839 0
2.8780003 0.95971334 0.90909159 0
2.8800001 0.95605159 0.90949917 0
2.8810003 0.95198041 0.90970314 0
2.8830001 0.94830596 0.91011071 0
2.8850002 0.94462448 0.91051841 0
2.8870003 0.94093573 0.9109261 0
2.8890002 0.93723959 0.91133368 0
2.8900001 0.93314314 0.91153753 0
2.8920002 0.9294346 0.91194522 0
2.8940003 0.92571872 0.91235292 0
2.8960001 0.92199564 0.9127605 0
2.8980002 0.91826534 0.91316819 0
2.8990002 0.91414362 0.91337192 0
2.9010003 0.91040081 0.91377962 0
2.9030001 0.9066506 0.91418731 0
2.9050002 0.90289336 0.91459501 0
2.9070003 0.89912885 0.9150027 0
2.9090002 0.89535695 0.91541028 0
2.9100003 0.89120471 0.91561413 0
2.9120002 0.8874203 0.91602182 0
2.9140003 0.88362873 0.91642952 0
2.9160001 0.87982976 0.9168371 0
2.9180002 0.87602377 0.91724479 0
2.9200003 0.87221056 0.91765249 0
2.9220002 0.86839008 0.91806018 0
2.9240003 0.86456245 0.91846776 0
2.9260001 0.86072749 0.91887534 0
2.9280002 0.85688543 0.91928303 0
2.9300003 0.85303611 0.91969073 0
2.9310002 0.84882593 0.91989458 0
2.9330003 0.84496409 0.92030227 0
2.9350002 0.84109479 0.92070985 0
2.9370003 0.83721846 0.92111754 0
2.9390001 0.83333486 0.92152524 0
2.9400003 0.82909954 0.92172909 0
2.9410002 0.82486057 0.92193294 0
2.9430003 0.82095897 0.92234063 0
2.9440002 0.81671101 0.92254436 0
2.9470003 0.81313401 0.9231559 0
2.9500003 0.80954629 0.92376733 0
2.9530003 0.80594772 0.92437887 0
2.9570003 0.80267012 0.92519414 0
2.9620001 0.79970825 0.92621326 0
2.9700003 0.79771328 0.92784405 0
2.9770002 0.79536289 0.92927074 0
2.8360002 1.0920658 0.89613664 0
2.8300002 1.0848795 0.8949244 0
2.8260002 1.078642 0.89411634 0
2.8230002 1.0728806 0.89351022 0
2.8210001 1.06759 0.89310622 0
2.8200002 1.0627648 0.89290416 0
2.8190002 1.0579432 0.89270216 0
2.8190002 1.0535798 0.89270216 0
2.8200002 1.0496693 0.89290416 0
2.8200002 1.0453039 0.89290416 0
2.8220003 1.0418371 0.89330828 0
2.8230002 1.0379156 0.89351022 0
2.8250003 1.0344361 0.89391434 0
2.8270001 1.0309492 0.89431834 0
2.8300002 1.0278972 0.8949244 0
2.8330002 1.0248344 0.89553052 0
2.8370001 1.0221989 0.89633858 0
2.8410003 1.0195493 0.89714682 0
2.8460002 1.0173197 0.89815688 0
2.8510003 1.0150722 0.89916706 0
2.8530002 1.0115132 0.89957106 0
2.8550003 1.0079471 0.89997518 0
2.8570001 1.0043738 0.90037918 0
2.8590002 1.0007932 0.90078324 0
2.8600001 0.99678159 0.90098524 0
2.8620002 0.99318838 0.90138936 0
2.8640003 0.98958802 0.90179336 0
2.8650002 0.98556185 0.90199542 0
2.8670001 0.98194885 0.90239942 0
2.8690002 0.97832847 0.90280354 0
2.8710003 0.97470117 0.90320754 0
2.8720002 0.9706552 0.9034096 0
2.8740003 0.96701503 0.9038136 0
2.8760002 0.9633677 0.90421772 0
2.8780003 0.95971334 0.90462172 0
2.8790002 0.95564747 0.90482378 0
2.8810003 0.95198041 0.90522778 0
2.8830001 0.94830596 0.9056319 0
2.8850002 0.94462448 0.9060359 0
2.8860002 0.94053882 0.90623796 0
2.8880002 0.93684459 0.90664196 0
2.8900001 0.93314314 0.90704608 0
2.8920002 0.9294346 0.90745008 0
2.8940003 0.92571872 0.9078542 0
2.8950002 0.92160785 0.90805614 0
2.8970003 0.91787934 0.90846026 0
2.8990002 0.91414362 0.90886426 0
2.9010003 0.91040081 0.90926838 0
2.9030001 0.9066506 0.90967238 0
2.9050002 0.90289336 0.91007638 0
2.9060001 0.8987518 0.91027844 0
2.9080002 0.8949818 0.91068256 0
2.9100003 0.89120471 0.91108656 0
2.9120002 0.8874203 0.91149056 0
2.9140003 0.88362873 0.91189468 0
2.9150002 0.87946182 0.91209674 0
2.9170003 0.87565768 0.91250074 0
2.9190001 0.87184614 0.91290474 0
2.9210002 0.86802751 0.91330886 0
2.9230001 0.86420161 0.91371286 0
2.9250002 0.86036849 0.91411698 0
2.9270003 0.85652828 0.9145211 0
2.9280002 0.85232538 0.91472304 0
2.9300003 0.84847242 0.91512716 0
2.9320002 0.84461224 0.91553116 0
2.9340003 0.84074491 0.91593528 0
2.9360001 0.83687025 0.91633928 0
2.9370003 0.8326422 0.91654134 0
2.9380002 0.82841045 0.91674328 0
2.9380002 0.82383239 0.91674328 0
2.9400003 0.81993616 0.9171474 0
2.9410002 0.81569368 0.91734946 0
2.9440002 0.81212211 0.91795552 0
2.9470003 0.80853975 0.91856158 0
2.9500003 0.80494654 0.91916764 0
2.9540002 0.80167443 0.91997576 0
2.9590001 0.79871792 0.92098582 0
2.9640002 0.79574347 0.921996 0
2.9730003 0.79405695 0.9238143 0
2.8340001 1.0911314 0.8913421 0
2.8270001 1.0834833 0.8899405 0
2.8230002 1.0772512 0.88913965 0
2.8210001 1.071957 0.88873917 0
2.8190002 1.0666701 0.88833874 0
2.8180003 1.0618485 0.88813853 0
2.8170002 1.0570306 0.88793832 0
2.8170002 1.0526706 0.88793832 0
2.8170002 1.0483109 0.88793832 0
2.8180003 1.0444021 0.88813853 0
2.8190002 1.0404897 0.88833874 0
2.8210001 1.0370209 0.88873917 0
2.8220003 1.0330995 0.88893938 0
2.8250003 1.0300618 0.88954008 0
2.8270001 1.0265714 0.8899405 0
2.8310003 1.0239542 0.89074147 0
2.8340001 1.0208839 0.8913421 0
2.8380003 1.0182396 0.89214301 0
2.8430002 1.0160155 0.89314413 0
2.8480003 1.0137734 0.89414525 0
2.8530002 1.0115132 0.89514637 0
2.8550003 1.0079471 0.89554679 0
2.8570001 1.0043738 0.89594722 0
2.8590002 1.0007932 0.89634764 0
2.8600001 0.99678159 0.89654785 0
2.8620002 0.99318838 0.89694834 0
2.8640003 0.98958802 0.89734882 0
2.8650002 0.98556185 0.89754903 0
2.8670001 0.98194885 0.89794946 0
2.8690002 0.97832847 0.89834988 0
2.8710003 0.97470117 0.89875042 0
2.8720002 0.9706552 0.89895058 0
2.8740003 0.96701503 0.899351 0
2.8760002 0.9633677 0.89975142 0
2.8780003 0.95971334 0.90015191 0
2.8790002 0.95564747 0.90035212 0
2.8810003 0.95198041 0.90075254 0
2.8830001 0.94830596 0.90115297 0
2.8850002 0.94462448 0.90155351 0
2.8860002 0.94053882 0.90175366 0
2.8880002 0.93684459 0.90215415 0
2.8900001 0.93314314 0.90255457 0
2.8920002 0.9294346 0.902955 0
2.8930001 0.92532909 0.90315521 0
2.8950002 0.92160785 0.90355563 0
2.8970003 0.91787934 0.90395617 0
2.8990002 0.91414362 0.9043566 0
2.9010003 0.91040081 0.90475702 0
2.9020002 0.90626997 0.90495729 0
2.9040003 0.90251452 0.90535772 0
2.9060001 0.8987518 0.90575814 0
2.9080002 0.8949818 0.90615857 0
2.9100003 0.89120471 0.90655899 0
2.9110003 0.88704872 0.90675926 0
2.9130001 0.88325876 0.90715969 0
2.9150002 0.87946182 0.90756011 0
2.9170003 0.87565768 0.90796065 0
2.9190001 0.87184614 0.90836108 0
2.9210002 0.86802751 0.9087615 0
2.9220002 0.86384088 0.90896165 0
2.9240003 0.86000961 0.9093622 0
2.9260001 0.85617107 0.90976262 0
2.9280002 0.85232538 0.91016304 0
2.9300003 0.84847242 0.91056347 0
2.9320002 0.84461224 0.91096389 0
2.9340003 0.84074491 0.91136444 0
2.9350002 0.83652216 0.91156459 0
2.9340003 0.83160317 0.91136444 0
2.9350002 0.8273769 0.91156459 0
2.9360001 0.82314688 0.91176474 0
2.9370003 0.81891346 0.91196501 0
2.9390001 0.81501538 0.91236544 0
2.9410002 0.81111014 0.91276598 0
2.9440002 0.8075332 0.91336656 0
2.9470003 0.80394542 0.91396725 0
2.9510002 0.80067873 0.9147681 0
2.9560003 0.79772776 0.91576934 0
2.9610002 0.79475862 0.91677046 0
2.9680002 0.7924245 0.91817188 0
2.9770002 0.79071444 0.91997397 0
2.8310003 1.08973 0.88635641 0
2.8250003 1.0825526 0.88516593 0
2.8210001 1.0763241 0.88437212 0
2.8180003 1.0705718 0.8837769 0
2.8160002 1.0652901 0.88338006 0
2.8150003 1.060474 0.88318169 0
2.8140001 1.0556614 0.88298321 0
2.8140001 1.051307 0.88298321 0
2.8150003 1.0474055 0.88318169 0
2.8150003 1.0430492 0.88318169 0
2.8170002 1.0395913 0.88357848 0
2.8180003 1.0356789 0.8837769 0
2.8200002 1.0322082 0.88417375 0
2.8220003 1.0287305 0.8845706 0
2.8250003 1.0256876 0.88516593 0
2.8280003 1.0226338 0.88576114 0
2.8310003 1.019569 0.88635641 0
2.8360002 1.0173665 0.88734847 0
2.8400002 1.0147114 0.88814211 0
2.8460002 1.0129076 0.88933265 0
2.8520002 1.0110821 0.89052314 0
2.8550003 1.0079471 0.89111841 0
2.8570001 1.0043738 0.89151525 0
2.8590002 1.0007932 0.8919121 0
2.8600001 0.99678159 0.89211047 0
2.8620002 0.99318838 0.89250731 0
2.8640003 0.98958802 0.89290428 0
2.8650002 0.98556185 0.89310265 0
2.8670001 0.98194885 0.89349943 0
2.8690002 0.97832847 0.89389622 0
2.8710003 0.97470117 0.89429319 0
2.8720002 0.9706552 0.89449155 0
2.8740003 0.96701503 0.8948884 0
2.8760002 0.9633677 0.89528525 0
2.8780003 0.95971334 0.8956821 0
2.8790002 0.95564747 0.89588046 0
2.8810003 0.95198041 0.89627737 0
2.8830001 0.94830596 0.89667416 0
2.8850002 0.94462448 0.897071 0
2.8860002 0.94053882 0.89726943 0
2.8880002 0.93684459 0.89766628 0
2.8900001 0.93314314 0.89806306 0
2.8920002 0.9294346 0.89845991 0
2.8930001 0.92532909 0.89865834 0
2.8950002 0.92160785 0.89905518 0
2.8970003 0.91787934 0.89945203 0
2.8990002 0.91414362 0.89984882 0
2.9010003 0.91040081 0.90024567 0
2.9020002 0.90626997 0.90044409 0
2.9040003 0.90251452 0.900841 0
2.9060001 0.8987518 0.90123779 0
2.9080002 0.8949818 0.90163457 0
2.9100003 0.89120471 0.90203154 0
2.9110003 0.88704872 0.90222991 0
2.9130001 0.88325876 0.90262669 0
2.9150002 0.87946182 0.9030236 0
2.9170003 0.87565768 0.90342045 0
2.9190001 0.87184614 0.90381718 0
2.9200003 0.86766499 0.90401566 0
2.9220002 0.86384088 0.90441251 0
2.9240003 0.86000961 0.90480936 0
2.9260001 0.85617107 0.9052062 0
2.9280002 0.85232538 0.90560305 0
2.9290001 0.8481189 0.90580142 0
2.9310002 0.84426051 0.90619826 0
2.9330003 0.84039497 0.90659511 0
2.9320002 0.83547777 0.90639675 0
2.9320002 0.8309105 0.90639675 0
2.9320002 0.82634324 0.90639675 0
2.9330003 0.82211882 0.90659511 0
2.9340003 0.81789064 0.90679348 0
2.9360001 0.81399798 0.90719032 0
2.9380002 0.81009817 0.90758717 0
2.9410002 0.80652672 0.9081825 0
2.9440002 0.8029443 0.90877771 0
2.9480002 0.79968303 0.90957141 0
2.9530003 0.79673743 0.91056347 0
2.9580002 0.79377377 0.91155553 0
2.9650002 0.79144502 0.91294444 0
2.9730003 0.78941578 0.91453195 0
2.8290002 1.0887955 0.88157809 0
2.8220003 1.0811565 0.88020182 0
2.8180003 1.0749334 0.87941527 0
2.8160002 1.0696481 0.87902212 0
2.8140001 1.0643702 0.87862885 0
2.8120003 1.0590996 0.87823564 0
2.8120003 1.0547487 0.87823564 0
2.8120003 1.050398 0.87823564 0
2.8120003 1.0460472 0.87823564 0
2.8130002 1.0421473 0.87843221 0
2.8140001 1.0382438 0.87862885 0
2.8150003 1.0343368 0.87882549 0
2.8170002 1.0308717 0.8792187 0
2.8200002 1.0278431 0.87980855 0
2.8220003 1.0243617 0.88020182 0
2.8250003 1.0213134 0.88079166 0
2.8290002 1.0186924 0.88157809 0
2.8330002 1.016057 0.88236457 0
2.8380003 1.013842 0.88334763 0
2.8430002 1.0116088 0.88433075 0
2.8490002 1.0097888 0.88551039 0
2.8550003 1.0079471 0.88669014 0
2.8570001 1.0043738 0.88708329 0
2.8590002 1.0007932 0.88747656 0
2.8600001 0.99678159 0.88767314 0
2.8620002 0.99318838 0.88806635 0
2.8640003 0.98958802 0.88845962 0
2.8650002 0.98556185 0.88865626 0
2.8670001 0.98194885 0.88904947 0
2.8690002 0.97832847 0.88944268 0
2.8710003 0.97470117 0.88983595 0
2.8720002 0.9706552 0.89003253 0
2.8740003 0.96701503 0.8904258 0
2.8760002 0.9633677 0.89081895 0
2.8780003 0.95971334 0.89121222 0
2.8790002 0.95564747 0.8914088 0
2.8810003 0.95198041 0.89180207 0
2.8830001 0.94830596 0.89219528 0
2.8850002 0.94462448 0.89258856 0
2.8860002 0.94053882 0.89278513 0
2.8880002 0.93684459 0.89317834 0
2.8900001 0.93314314 0.89357162 0
2.8920002 0.9294346 0.89396489 0
2.8930001 0.92532909 0.89416146 0
2.8950002 0.92160785 0.89455473 0
2.8970003 0.91787934 0.89494795 0
2.8990002 0.91414362 0.89534116 0
2.9010003 0.91040081 0.89573437 0
2.9020002 0.90626997 0.89593101 0
2.9040003 0.90251452 0.89632428 0
2.9060001 0.8987518 0.89671743 0
2.9080002 0.8949818 0.8971107 0
2.9100003 0.89120471 0.89750397 0
2.9110003 0.88704872 0.89770055 0
2.9130001 0.88325876 0.8980937 0
2.9150002 0.87946182 0.89848697 0
2.9170003 0.87565768 0.89888024 0
2.9190001 0.87184614 0.89927346 0
2.9200003 0.86766499 0.89947009 0
2.9220002 0.86384088 0.89986324 0
2.9240003 0.86000961 0.90025651 0
2.9260001 0.85617107 0.90064979 0
2.9280002 0.85232538 0.90104294 0
2.9290001 0.8481189 0.90123963 0
2.9310002 0.84426051 0.90163285 0
2.9300003 0.83934516 0.90143621 0
2.9290001 0.83443338 0.90123963 0
2.9290001 0.82987148 0.90123963 0
2.9300003 0.82565427 0.90143621 0
2.9300003 0.82109064 0.90143621 0
2.9320002 0.81720877 0.90182942 0
2.9330003 0.81298071 0.90202606 0
2.9350002 0.80908626 0.90241927 0
2.9380002 0.80552012 0.90300912 0
2.9410002 0.80194318 0.90359902 0
2.9450002 0.79868734 0.90438545 0
2.9500003 0.7957471 0.90536857 0
2.9550002 0.79278886 0.90635157 0
2.9620001 0.79046553 0.90772784 0
2.9700003 0.78844172 0.9093008 0
2.8260002 1.0873941 0.87661219 0
2.8200002 1.0802257 0.87544334 0
2.8160002 1.0740062 0.87466407 0
2.8130002 1.0682628 0.87407964 0
2.8110001 1.0629903 0.87369001 0
2.8100002 1.0581832 0.87349522 0
2.8090003 1.0533797 0.87330043 0
2.8090003 1.0490344 0.87330043 0
2.8100002 1.0451417 0.87349522 0
2.8100002 1.0407944 0.87349522 0
2.8110001 1.0368963 0.87369001 0
2.8130002 1.0334421 0.87407964 0
2.8150003 1.0299807 0.87446928 0
2.8170002 1.0265119 0.87485886 0
2.8200002 1.0234779 0.87544334 0
2.8230002 1.0204331 0.87602782 0
2.8260002 1.0173774 0.87661219 0
2.8300002 1.0147474 0.87739146 0
2.8350003 1.0125378 0.87836552 0
2.8400002 1.0103101 0.87933958 0
2.8460002 1.0084955 0.88050842 0
2.8540003 1.0075178 0.88206691 0
2.8570001 1.0043738 0.88265133 0
2.8590002 1.0007932 0.88304102 0
2.8600001 0.99678159 0.88323575 0
2.8620002 0.99318838 0.88362545 0
2.8640003 0.98958802 0.88401508 0
2.8650002 0.98556185 0.88420987 0
2.8670001 0.98194885 0.88459945 0
2.8690002 0.97832847 0.88498908 0
2.8710003 0.97470117 0.88537872 0
2.8720002 0.9706552 0.88557351 0
2.8740003 0.96701503 0.88596314 0
2.8760002 0.9633677 0.88635278 0
2.8780003 0.95971334 0.88674241 0
2.8790002 0.95564747 0.88693714 0
2.8810003 0.95198041 0.88732684 0
2.8830001 0.94830596 0.88771641 0
2.8850002 0.94462448 0.88810605 0
2.8860002 0.94053882 0.8883009 0
2.8880002 0.93684459 0.88869047 0
2.8900001 0.93314314 0.88908017 0
2.8920002 0.9294346 0.88946974 0
2.8930001 0.92532909 0.88966453 0
2.8950002 0.92160785 0.89005423 0
2.8970003 0.91787934 0.8904438 0
2.8990002 0.91414362 0.89083338 0
2.9010003 0.91040081 0.89122307 0
2.9020002 0.90626997 0.89141786 0
2.9040003 0.90251452 0.89180744 0
2.9060001 0.8987518 0.89219713 0
2.9080002 0.8949818 0.89258671 0
2.9100003 0.89120471 0.89297634 0
2.9110003 0.88704872 0.89317119 0
2.9130001 0.88325876 0.89356077 0
2.9150002 0.87946182 0.89395046 0
2.9170003 0.87565768 0.89434004 0
2.9190001 0.87184614 0.89472961 0
2.9200003 0.86766499 0.89492452 0
2.9220002 0.86384088 0.8953141 0
2.9240003 0.86000961 0.89570367 0
2.9260001 0.85617107 0.89609337 0
2.9280002 0.85232538 0.89648294 0
2.9290001 0.8481189 0.89667773 0
2.9290001 0.843557 0.89667773 0
2.9270003 0.83829534 0.89628816 0
2.9270003 0.83373713 0.89628816 0
2.9260001 0.82883251 0.89609337 0
2.9270003 0.82462072 0.89628816 0
2.9270003 0.82006246 0.89628816 0
2.9290001 0.81618607 0.89667773 0
2.9300003 0.81196338 0.89687258 0
2.9330003 0.80841172 0.897457 0
2.9350002 0.80451357 0.89784658 0
2.9380002 0.80094206 0.89843106 0
2.9420002 0.79769158 0.89921033 0
2.9470003 0.79475683 0.90018439 0
2.9520001 0.79180396 0.90115839 0
2.9580002 0.7891596 0.9023273 0
2.9660003 0.78714299 0.90388578 0
2.9770002 0.78606606 0.90602875 0
2.8240001 1.0864595 0.87185013 0
2.8170002 1.0788295 0.87049913 0
