# .PCD v0.7 - Point Cloud Data file format
VERSION 0.7
FIELDS x y z intensity
SIZE 4 4 4 4
TYPE F F F F
COUNT 1 1 1 1
WIDTH 1415
HEIGHT 1
VIEWPOINT 0 0 0 1 0 0 0
POINTS 1415
DATA ascii
3.8240004 -2.0162203 0.82398427 0
3.9500003 -1.6404763 0.83303583 0
3.9430003 -1.6437231 0.8321898 0
3.9360003 -1.6469448 0.83134383 0
3.9290004 -1.6501411 0.83049786 0
3.9300003 -1.6569631 0.83061874 0
3.9340003 -1.6651633 0.83110213 0
3.9380002 -1.6733776 0.83158553 0
3.9420002 -1.6816067 0.83206892 0
3.9450002 -1.6893865 0.8324315 0
3.9490004 -1.6976427 0.83291495 0
3.9530003 -1.7059131 0.83339834 0
3.9570003 -1.714198 0.8338818 0
3.9610002 -1.7224972 0.83436519 0
3.9650002 -1.730811 0.83484864 0
3.9680002 -1.7386647 0.83521116 0
3.9720004 -1.7470056 0.83569467 0
3.9760003 -1.7553608 0.83617806 0
3.9800003 -1.7637305 0.83666146 0
3.9840002 -1.7721146 0.83714485 0
3.9880002 -1.7805132 0.8376283 0
3.9920003 -1.7889261 0.83811176 0
3.8090003 -1.7370251 0.81599522 0
3.8000002 -1.7386936 0.81490755 0
3.7930002 -1.741329 0.81406152 0
3.7870002 -1.7444406 0.81333637 0
3.7820003 -1.7480338 0.8127321 0
3.7780004 -1.7521141 0.81224871 0
3.7740002 -1.7561797 0.81176531 0
3.7680004 -1.7592138 0.81104016 0
3.7580004 -1.7601843 0.80983162 0
3.7500002 -1.7621431 0.80886477 0
3.7430003 -1.7645874 0.8080188 0
3.7370002 -1.7675221 0.80729365 0
3.7310002 -1.7704352 0.8065685 0
3.7260003 -1.7738463 0.80596423 0
3.7220004 -1.7777606 0.80548084 0
3.7180002 -1.7816603 0.80499738 0
3.7140002 -1.7855457 0.80451399 0
3.7110002 -1.7899433 0.80415142 0
3.7080002 -1.7943302 0.80378884 0
3.7060003 -1.7992367 0.80354714 0
3.7040002 -1.8041358 0.80330545 0
3.7030003 -1.8095617 0.80318457 0
3.7020001 -1.8149838 0.80306375 0
3.7020001 -1.82094 0.80306375 0
3.7020001 -1.8268962 0.80306375 0
3.7050002 -1.8344758 0.80342627 0
3.8220003 -1.9224801 0.81756639 0
3.8260002 -1.9308534 0.81804979 0
3.8300002 -1.9392411 0.81853318 0
3.8340003 -1.9476432 0.81901658 0
3.8380003 -1.9560598 0.81950003 0
3.8420002 -1.9644907 0.81998348 0
3.8450003 -1.9723771 0.820346 0
3.8490002 -1.9808351 0.82082939 0
3.8520002 -1.9887447 0.82119203 0
3.8470004 -1.9921486 0.82058775 0
3.8410003 -1.9949681 0.8198626 0
3.8370004 -1.998902 0.81937921 0
3.8320003 -2.0022516 0.81877494 0
3.8290002 -2.0067267 0.8184123 0
3.8250003 -2.0106177 0.81792891 0
3.8220003 -2.0150695 0.81756639 0
3.9500003 -1.6404763 0.82663226 0
3.9430003 -1.6437231 0.82579893 0
3.9360003 -1.6469448 0.8249656 0
3.9290004 -1.6501411 0.8241322 0
3.9300003 -1.6569631 0.82425129 0
3.9340003 -1.6651633 0.82472742 0
3.9380002 -1.6733776 0.82520366 0
3.9420002 -1.6816067 0.8256799 0
3.9450002 -1.6893865 0.82603705 0
3.9490004 -1.6976427 0.82651329 0
3.9530003 -1.7059131 0.82698941 0
3.9570003 -1.714198 0.82746565 0
3.9610002 -1.7224972 0.82794183 0
3.9650002 -1.730811 0.82841802 0
3.9680002 -1.7386647 0.82877517 0
3.9720004 -1.7470056 0.82925141 0
3.9760003 -1.7553608 0.82972765 0
3.9800003 -1.7637305 0.83020383 0
3.9840002 -1.7721146 0.83068001 0
3.9880002 -1.7805132 0.83115625 0
3.9920003 -1.7889261 0.83163249 0
3.9950004 -1.7968665 0.83198965 0
3.8090003 -1.7370251 0.80984604 0
3.8000002 -1.7386936 0.80877459 0
3.7930002 -1.741329 0.8079412 0
3.7870002 -1.7444406 0.8072269 0
3.7820003 -1.7480338 0.80663168 0
3.7780004 -1.7521141 0.80615544 0
3.7740002 -1.7561797 0.8056792 0
3.7710001 -1.7607397 0.80532205 0
3.7600002 -1.7612052 0.80401254 0
3.7510002 -1.7626554 0.80294108 0
3.7430003 -1.7645874 0.80198866 0
3.7370002 -1.7675221 0.8012743 0
3.7310002 -1.7704352 0.80056 0
3.7250001 -1.7733268 0.7998457 0
3.7210002 -1.7772392 0.79936951 0
3.7160003 -1.7806143 0.79877424 0
3.7130003 -1.7850209 0.79841709 0
3.7090003 -1.7888901 0.79794091 0
3.7060003 -1.7932733 0.79758376 0
3.7040002 -1.7981761 0.79734564 0
3.7020001 -1.8030715 0.79710758 0
3.7000003 -1.8079599 0.79686946 0
3.6990004 -1.8133768 0.79675043 0
3.6980002 -1.8187898 0.79663134 0
3.6990004 -1.8252783 0.79675043 0
3.7000003 -1.8317702 0.79686946 0
3.7030003 -1.8393515 0.79722661 0
3.8260002 -1.9308534 0.81186992 0
3.8300002 -1.9392411 0.8123461 0
3.8340003 -1.9476432 0.81282234 0
3.8380003 -1.9560598 0.81329858 0
3.8420002 -1.9644907 0.8137747 0
3.8450003 -1.9723771 0.81413186 0
3.8490002 -1.9808351 0.8146081 0
3.8530002 -1.9893075 0.81508434 0
3.8470004 -1.9921486 0.81437004 0
3.8410003 -1.9949681 0.81365573 0
3.8360002 -1.9983339 0.8130604 0
3.8310003 -2.0016816 0.81246519 0
3.8270001 -2.0055833 0.81198895 0
3.8240004 -2.0100441 0.8116318 0
3.8200002 -2.0139186 0.81115556 0
3.9500003 -1.6404763 0.82022882 0
3.9430003 -1.6437231 0.81940806 0
3.9360003 -1.6469448 0.8185873 0
3.9290004 -1.6501411 0.81776655 0
3.9300003 -1.6569631 0.81788385 0
3.9340003 -1.6651633 0.81835282 0
3.9380002 -1.6733776 0.81882179 0
3.9420002 -1.6816067 0.81929076 0
3.9450002 -1.6893865 0.81964254 0
3.9490004 -1.6976427 0.82011151 0
3.9530003 -1.7059131 0.82058048 0
3.9570003 -1.714198 0.82104951 0
3.9610002 -1.7224972 0.82151848 0
3.9650002 -1.730811 0.82198751 0
3.9680002 -1.7386647 0.82233918 0
3.9720004 -1.7470056 0.82280827 0
3.9760003 -1.7553608 0.82327724 0
3.9800003 -1.7637305 0.8237462 0
3.9840002 -1.7721146 0.82421517 0
3.9880002 -1.7805132 0.82468414 0
3.9920003 -1.7889261 0.82515317 0
3.9950004 -1.7968665 0.8255049 0
3.8090003 -1.7370251 0.80369687 0
3.8000002 -1.7386936 0.80264163 0
3.7930002 -1.741329 0.80182087 0
3.7870002 -1.7444406 0.80111742 0
3.7820003 -1.7480338 0.80053115 0
3.7780004 -1.7521141 0.80006218 0
3.7740002 -1.7561797 0.79959321 0
3.7710001 -1.7607397 0.79924142 0
3.7620003 -1.7622261 0.79818624 0
3.7520003 -1.7631677 0.79701376 0
3.7440002 -1.7651014 0.79607576 0
3.7370002 -1.7675221 0.79525506 0
3.7310002 -1.7704352 0.79455149 0
3.7250001 -1.7733268 0.79384804 0
3.7200003 -1.7767179 0.79326189 0
3.7160003 -1.7806143 0.7927928 0
3.7110002 -1.7839711 0.79220665 0
3.7080002 -1.7883633 0.79185486 0
3.7040002 -1.7922162 0.79138589 0
3.7020001 -1.7971153 0.7911514 0
3.6990004 -1.8014753 0.79079962 0
3.6980002 -1.8068919 0.79068238 0
3.6960003 -1.8117695 0.79044795 0
3.6950002 -1.8171773 0.79033065 0
3.6950002 -1.8231208 0.79033065 0
3.6960003 -1.8296056 0.79044795 0
3.6980002 -1.8366369 0.79068238 0
3.8300002 -1.9392411 0.80615902 0
3.8340003 -1.9476432 0.80662811 0
3.8380003 -1.9560598 0.80709708 0
3.8420002 -1.9644907 0.80756605 0
3.8450003 -1.9723771 0.80791777 0
3.8490002 -1.9808351 0.8083868 0
3.8530002 -1.9893075 0.80885577 0
3.8470004 -1.9921486 0.80815232 0
3.8410003 -1.9949681 0.80744874 0
3.8350003 -1.9977655 0.80674529 0
3.8310003 -2.0016816 0.80627632 0
3.8260002 -2.0050113 0.80569005 0
3.8220003 -2.0088968 0.80522108 0
3.8190002 -2.0133431 0.80486935 0
3.9500003 -1.6404763 0.81382525 0
3.9430003 -1.6437231 0.81301713 0
3.9360003 -1.6469448 0.81220901 0
3.9290004 -1.6501411 0.81140095 0
3.9300003 -1.6569631 0.8115164 0
3.9340003 -1.6651633 0.8119781 0
3.9380002 -1.6733776 0.81243992 0
3.9420002 -1.6816067 0.81290168 0
3.9450002 -1.6893865 0.81324804 0
3.9490004 -1.6976427 0.81370986 0
3.9530003 -1.7059131 0.81417155 0
3.9570003 -1.714198 0.81463337 0
3.9610002 -1.7224972 0.81509513 0
3.9650002 -1.730811 0.81555688 0
3.9680002 -1.7386647 0.81590319 0
3.9720004 -1.7470056 0.816365 0
3.9760003 -1.7553608 0.81682682 0
3.9800003 -1.7637305 0.81728852 0
3.9840002 -1.7721146 0.81775033 0
3.9880002 -1.7805132 0.81821209 0
3.9920003 -1.7889261 0.81867385 0
3.9950004 -1.7968665 0.81902021 0
3.9990003 -1.8053064 0.81948197 0
3.8090003 -1.7370251 0.7975477 0
3.8000002 -1.7386936 0.79650867 0
3.7930002 -1.741329 0.79570055 0
3.7870002 -1.7444406 0.79500794 0
3.7820003 -1.7480338 0.79443073 0
3.7780004 -1.7521141 0.79396892 0
3.7740002 -1.7561797 0.7935071 0
3.7710001 -1.7607397 0.7931608 0
3.7660003 -1.764268 0.79258358 0
3.7540002 -1.7641922 0.79119825 0
3.7450004 -1.7656156 0.79015929 0
3.7370002 -1.7675221 0.78923571 0
3.7310002 -1.7704352 0.78854311 0
3.7250001 -1.7733268 0.78785038 0
3.7190003 -1.7761966 0.78715777 0
3.7150002 -1.780091 0.78669596 0
3.7100003 -1.7834462 0.78611875 0
3.7060003 -1.7873099 0.78565699 0
3.7030003 -1.7916877 0.78531063 0
3.7000003 -1.7960548 0.78496432 0
3.6970003 -1.800411 0.78461802 0
3.6950002 -1.8052902 0.78438711 0
3.6930003 -1.8101623 0.7841562 0
3.6920002 -1.8155646 0.78404075 0
3.6920002 -1.8215029 0.78404075 0
3.6920002 -1.827441 0.78404075 0
3.6930003 -1.8339221 0.7841562 0
3.6960003 -1.8414963 0.78450251 0
3.8300002 -1.9392411 0.799972 0
3.8340003 -1.9476432 0.80043375 0
3.8380003 -1.9560598 0.80089557 0
3.8420002 -1.9644907 0.80135733 0
3.8450003 -1.9723771 0.80170369 0
3.8490002 -1.9808351 0.80216539 0
3.8530002 -1.9893075 0.80262721 0
3.8470004 -1.9921486 0.80193454 0
3.8400002 -1.9944015 0.80112642 0
3.8350003 -1.9977655 0.80054921 0
3.8300002 -2.0011115 0.799972 0
3.8250003 -2.0044398 0.79939479 0
3.8210003 -2.0083232 0.79893303 0
3.8170002 -2.0121925 0.79847121 0
3.9500003 -1.6404763 0.80742168 0
3.9430003 -1.6437231 0.80662626 0
3.9360003 -1.6469448 0.80583078 0
3.9290004 -1.6501411 0.80503529 0
3.9300003 -1.6569631 0.80514896 0
3.9340003 -1.6651633 0.8056035 0
3.9380002 -1.6733776 0.80605805 0
3.9420002 -1.6816067 0.80651259 0
3.9450002 -1.6893865 0.80685353 0
3.9490004 -1.6976427 0.80730808 0
3.9530003 -1.7059131 0.80776262 0
3.9570003 -1.714198 0.80821717 0
3.9610002 -1.7224972 0.80867171 0
3.9650002 -1.730811 0.80912632 0
3.9680002 -1.7386647 0.80946726 0
3.9720004 -1.7470056 0.8099218 0
3.9760003 -1.7553608 0.81037641 0
3.9800003 -1.7637305 0.81083095 0
3.9840002 -1.7721146 0.8112855 0
3.9880002 -1.7805132 0.81174004 0
3.9920003 -1.7889261 0.81219459 0
3.9950004 -1.7968665 0.81253552 0
3.9990003 -1.8053064 0.81299007 0
3.8090003 -1.7370251 0.79139853 0
3.8000002 -1.7386936 0.79037571 0
3.7930002 -1.741329 0.78958023 0
3.7870002 -1.7444406 0.78889841 0
3.7820003 -1.7480338 0.7883302 0
3.7780004 -1.7521141 0.78787565 0
3.7740002 -1.7561797 0.78742111 0
3.7710001 -1.7607397 0.78708017 0
3.7690003 -1.7657995 0.7868529 0
3.7570002 -1.7657292 0.7854892 0
3.7460003 -1.7661296 0.78423917 0
3.7380002 -1.7680379 0.78333008 0
3.7310002 -1.7704352 0.7825346 0
3.7240002 -1.7728072 0.78173912 0
3.7190003 -1.7761966 0.7811709 0
3.7140002 -1.779568 0.78060269 0
3.7090003 -1.7829213 0.78003454 0
3.7050002 -1.7867831 0.77957994 0
3.7020001 -1.7911592 0.779239 0
3.6980002 -1.794994 0.77878445 0
3.6950002 -1.7993467 0.77844357 0
3.6930003 -1.8042225 0.77821624 0
3.6910002 -1.8090909 0.77798897 0
3.6890004 -1.8139522 0.7777617 0
3.6890004 -1.8198849 0.7777617 0
3.6880002 -1.8252764 0.77764809 0
3.6890004 -1.8317504 0.7777617 0
3.6910002 -1.8387725 0.77798897 0
3.8340003 -1.9476432 0.79423952 0
3.8380003 -1.9560598 0.79469407 0
3.8420002 -1.9644907 0.79514861 0
3.8450003 -1.9723771 0.79548955 0
3.8490002 -1.9808351 0.79594409 0
3.8530002 -1.9893075 0.79639864 0
3.8470004 -1.9921486 0.79571682 0
3.8410003 -1.9949681 0.795035 0
3.8350003 -1.9977655 0.79435313 0
3.8290002 -2.0005417 0.79367125 0
3.8240004 -2.0038679 0.7931031 0
3.8200002 -2.0077496 0.79264855 0
3.8160002 -2.0116172 0.79219401 0
3.9500003 -1.6404763 0.80101824 0
3.9430003 -1.6437231 0.80023539 0
3.9360003 -1.6469448 0.79945254 0
3.9290004 -1.6501411 0.7986697 0
3.9300003 -1.6569631 0.79878151 0
3.9340003 -1.6651633 0.79922885 0
3.9380002 -1.6733776 0.79967618 0
3.9420002 -1.6816067 0.80012351 0
3.9450002 -1.6893865 0.80045903 0
3.9490004 -1.6976427 0.80090636 0
3.9530003 -1.7059131 0.80135369 0
3.9570003 -1.714198 0.80180109 0
3.9610002 -1.7224972 0.80224842 0
3.9650002 -1.730811 0.80269575 0
3.9680002 -1.7386647 0.80303121 0
3.9720004 -1.7470056 0.8034786 0
3.9760003 -1.7553608 0.80392593 0
3.9800003 -1.7637305 0.80437326 0
3.9840002 -1.7721146 0.80482066 0
3.9880002 -1.7805132 0.80526799 0
3.9920003 -1.7889261 0.80571532 0
3.9950004 -1.7968665 0.80605084 0
3.9990003 -1.8053064 0.80649817 0
3.8090003 -1.7370251 0.78524935 0
3.8000002 -1.7386936 0.78424275 0
3.7930002 -1.741329 0.7834599 0
3.7870002 -1.7444406 0.78278887 0
3.7820003 -1.7480338 0.78222972 0
3.7780004 -1.7521141 0.78178239 0
3.7740002 -1.7561797 0.781335 0
3.7710001 -1.7607397 0.78099954 0
3.7690003 -1.7657995 0.7807759 0
3.7600002 -1.767266 0.7797693 0
3.7480001 -1.7671577 0.7784273 0
3.7390003 -1.7685539 0.77742082 0
3.7310002 -1.7704352 0.77652609 0
3.7250001 -1.7733268 0.77585506 0
3.7190003 -1.7761966 0.77518404 0
3.7130003 -1.7790449 0.77451301 0
3.7080002 -1.7823963 0.77395386 0
3.7040002 -1.7862566 0.77350652 0
3.7000003 -1.7901022 0.77305913 0
3.6970003 -1.7944638 0.77272367 0
3.6940002 -1.7988145 0.77238816 0
3.6910002 -1.8031546 0.77205265 0
3.6890004 -1.8080194 0.77182901 0
3.6870003 -1.8128771 0.77160531 0
3.6860003 -1.818267 0.77149343 0
3.6850002 -1.823653 0.77138162 0
3.6850002 -1.8295785 0.77138162 0
3.6860003 -1.8360488 0.77149343 0
3.6890004 -1.8436158 0.77182901 0
3.8340003 -1.9476432 0.78804523 0
3.8380003 -1.9560598 0.78849256 0
3.8420002 -1.9644907 0.78893989 0
3.8450003 -1.9723771 0.78927541 0
3.8490002 -1.9808351 0.7897228 0
3.8530002 -1.9893075 0.79017007 0
3.8480003 -1.9927132 0.78961092 0
3.8410003 -1.9949681 0.78882807 0
3.8340003 -1.9971975 0.78804523 0
3.8290002 -2.0005417 0.78748602 0
3.8240004 -2.0038679 0.78692687 0
3.8190002 -2.0071759 0.78636765 0
3.8150003 -2.0110414 0.78592032 0
3.9500003 -1.6404763 0.79461467 0
3.9430003 -1.6437231 0.79384446 0
3.9360003 -1.6469448 0.79307425 0
3.9290004 -1.6501411 0.79230404 0
3.9300003 -1.6569631 0.79241407 0
3.9340003 -1.6651633 0.79285419 0
3.9380002 -1.6733776 0.79329431 0
3.9420002 -1.6816067 0.79373443 0
3.9450002 -1.6893865 0.79406452 0
3.9490004 -1.6976427 0.79450464 0
3.9530003 -1.7059131 0.79494476 0
3.9570003 -1.714198 0.79538488 0
3.9610002 -1.7224972 0.795825 0
3.9650002 -1.730811 0.79626513 0
3.9680002 -1.7386647 0.79659528 0
3.9720004 -1.7470056 0.7970354 0
3.9760003 -1.7553608 0.79747558 0
3.9800003 -1.7637305 0.79791564 0
3.9840002 -1.7721146 0.79835582 0
3.9880002 -1.7805132 0.79879588 0
3.9920003 -1.7889261 0.79923606 0
3.9950004 -1.7968665 0.79956615 0
3.9990003 -1.8053064 0.80000627 0
3.8090003 -1.7370251 0.77910012 0
3.8000002 -1.7386936 0.77810985 0
3.7930002 -1.741329 0.77733958 0
3.7870002 -1.7444406 0.7766794 0
3.7820003 -1.7480338 0.77612925 0
3.7780004 -1.7521141 0.77568913 0
3.7740002 -1.7561797 0.775249 0
3.7710001 -1.7607397 0.77491891 0
3.7690003 -1.7657995 0.77469885 0
3.7670002 -1.7708519 0.77447879 0
3.7510002 -1.7687 0.77271825 0
3.7400002 -1.7690698 0.77150786 0
3.7320004 -1.7709529 0.77062762 0
3.7250001 -1.7733268 0.76985741 0
3.7180002 -1.7756753 0.7690872 0
3.7130003 -1.7790449 0.76853704 0
3.7080002 -1.7823963 0.76798689 0
3.7030003 -1.7857298 0.76743674 0
3.6990004 -1.7895737 0.76699662 0
3.6950002 -1.7934031 0.76655644 0
3.6920002 -1.7977502 0.76622629 0
3.6890004 -1.8020867 0.76589626 0
3.6860003 -1.8064122 0.76556617 0
3.6850002 -1.811802 0.76545614 0
3.6830003 -1.8166488 0.76523608 0
3.6820002 -1.8220296 0.76512599 0
3.6820002 -1.8279496 0.76512599 0
3.6820002 -1.8338697 0.76512599 0
3.6840003 -1.840883 0.76534605 0
3.8380003 -1.9560598 0.78229105 0
3.8420002 -1.9644907 0.78273118 0
3.8450003 -1.9723771 0.78306127 0
3.8490002 -1.9808351 0.78350139 0
3.8530002 -1.9893075 0.78394157 0
3.8490002 -1.9932777 0.78350139 0
3.8410003 -1.9949681 0.78262115 0
3.8350003 -1.9977655 0.78196096 0
3.8290002 -2.0005417 0.78130078 0
3.8230002 -2.0032961 0.7806406 0
3.8180003 -2.0066025 0.78009045 0
3.8140004 -2.0104661 0.77965033 0
3.9500003 -1.6404763 0.78821117 0
3.9430003 -1.6437231 0.78745359 0
3.9360003 -1.6469448 0.78669596 0
3.9290004 -1.6501411 0.78593838 0
3.9300003 -1.6569631 0.78604662 0
3.9340003 -1.6651633 0.78647947 0
3.9380002 -1.6733776 0.78691244 0
3.9420002 -1.6816067 0.78734529 0
3.9450002 -1.6893865 0.78767002 0
3.9490004 -1.6976427 0.78810298 0
3.9530003 -1.7059131 0.78853583 0
3.9570003 -1.714198 0.7889688 0
3.9610002 -1.7224972 0.78940165 0
3.9650002 -1.730811 0.78983462 0
3.9680002 -1.7386647 0.79015923 0
3.9720004 -1.7470056 0.79059219 0
3.9760003 -1.7553608 0.7910251 0
3.9800003 -1.7637305 0.79145801 0
3.9840002 -1.7721146 0.79189092 0
3.9880002 -1.7805132 0.79232383 0
3.9920003 -1.7889261 0.7927568 0
3.9950004 -1.7968665 0.79308146 0
3.9990003 -1.8053064 0.79351437 0
3.8090003 -1.7370251 0.77295095 0
3.8000002 -1.7386936 0.77197689 0
3.7930002 -1.741329 0.77121925 0
3.7870002 -1.7444406 0.77056992 0
3.7820003 -1.7480338 0.77002883 0
3.7780004 -1.7521141 0.76959586 0
3.7740002 -1.7561797 0.76916295 0
3.7710001 -1.7607397 0.76883829 0
3.7690003 -1.7657995 0.7686218 0
3.7670002 -1.7708519 0.76840532 0
3.7550004 -1.7707564 0.76710665 0
3.7420003 -1.7701017 0.76569963 0
3.7330003 -1.7714707 0.76472557 0
3.7250001 -1.7733268 0.76385975 0
3.7180002 -1.7756753 0.76310217 0
3.7130003 -1.7790449 0.76256102 0
3.7070003 -1.7818714 0.76191163 0
3.7020001 -1.785203 0.76137048 0
3.6980002 -1.7890451 0.76093757 0
3.6940002 -1.7928728 0.76050472 0
3.6900003 -1.7966861 0.76007175 0
3.6870003 -1.8010188 0.75974709 0
3.6850002 -1.8058765 0.7595306 0
3.6820002 -1.8101894 0.75920594 0
3.6810002 -1.8155701 0.7590977 0
3.6790001 -1.8204061 0.75888121 0
3.6790001 -1.8263208 0.75888121 0
3.6790001 -1.8322355 0.75888121 0
3.6790001 -1.8381501 0.75888121 0
3.6820002 -1.8457099 0.75920594 0
3.8380003 -1.9560598 0.77608955 0
3.8420002 -1.9644907 0.77652252 0
3.8450003 -1.9723771 0.77684718 0
3.8490002 -1.9808351 0.77728009 0
3.8530002 -1.9893075 0.777713 0
3.8500001 -1.9938422 0.77738833 0
3.8420002 -1.9955343 0.77652252 0
3.8350003 -1.9977655 0.77576488 0
3.8280003 -1.9999716 0.77500725 0
3.8230002 -2.0032961 0.77446616 0
3.8170002 -2.0060287 0.77381676 0
3.9500003 -1.6404763 0.78180766 0
3.9430003 -1.6437231 0.78106272 0
3.9360003 -1.6469448 0.78031766 0
3.9290004 -1.6501411 0.77957273 0
3.9300003 -1.6569631 0.77967918 0
3.9340003 -1.6651633 0.78010488 0
3.9380002 -1.6733776 0.78053057 0
3.9420002 -1.6816067 0.78095627 0
3.9450002 -1.6893865 0.78127551 0
3.9490004 -1.6976427 0.78170121 0
3.9530003 -1.7059131 0.7821269 0
3.9570003 -1.714198 0.7825526 0
3.9610002 -1.7224972 0.7829783 0
3.9650002 -1.730811 0.78340399 0
3.9680002 -1.7386647 0.78372329 0
3.9720004 -1.7470056 0.78414899 0
3.9760003 -1.7553608 0.78457469 0
3.9800003 -1.7637305 0.78500044 0
3.9840002 -1.7721146 0.78542608 0
3.9880002 -1.7805132 0.78585178 0
3.9920003 -1.7889261 0.78627747 0
3.9950004 -1.7968665 0.78659678 0
3.9990003 -1.8053064 0.78702247 0
3.8090003 -1.7370251 0.76680177 0
3.8000002 -1.7386936 0.76584393 0
3.7930002 -1.741329 0.76509899 0
3.7870002 -1.7444406 0.76446044 0
3.7820003 -1.7480338 0.76392829 0
3.7780004 -1.7521141 0.7635026 0
3.7740002 -1.7561797 0.7630769 0
3.7710001 -1.7607397 0.76275766 0
3.7690003 -1.7657995 0.76254475 0
3.7670002 -1.7708519 0.7623319 0
3.7640002 -1.7753831 0.7620126 0
3.7450004 -1.7716494 0.75999057 0
3.7340002 -1.7719883 0.75881994 0
3.7260003 -1.7738463 0.75796854 0
3.7190003 -1.7761966 0.75722355 0
3.7120004 -1.7785219 0.75647855 0
3.7070003 -1.7818714 0.75594646 0
3.7010002 -1.7846763 0.75530791 0
3.6970003 -1.7885166 0.75488222 0
3.6930003 -1.7923425 0.75445652 0
3.6890004 -1.796154 0.75403082 0
3.6860003 -1.8004849 0.75371152 0
3.6830003 -1.804805 0.75339222 0
3.6800003 -1.8091143 0.75307298 0
3.6780002 -1.8139521 0.75286013 0
3.6770003 -1.8193239 0.75275373 0
3.6760004 -1.824692 0.75264728 0
3.6750002 -1.8300565 0.75254083 0
3.6760004 -1.8365105 0.75264728 0
3.6770003 -1.8429682 0.75275373 0
3.8420002 -1.9644907 0.77031374 0
3.8450003 -1.9723771 0.77063304 0
3.8490002 -1.9808351 0.7710588 0
3.8530002 -1.9893075 0.77148443 0
3.8530002 -1.9955361 0.77148443 0
3.8430002 -1.9961007 0.77042019 0
3.8350003 -1.9977655 0.7695688 0
3.8290002 -2.0005417 0.76893026 0
3.8230002 -2.0032961 0.76829171 0
3.8170002 -2.0060287 0.76765311 0
3.9500003 -1.6404763 0.7754041 0
3.9430003 -1.6437231 0.77467179 0
3.9360003 -1.6469448 0.77393943 0
3.9290004 -1.6501411 0.77320707 0
3.9300003 -1.6569631 0.77331173 0
3.9340003 -1.6651633 0.77373022 0
3.9380002 -1.6733776 0.7741487 0
3.9420002 -1.6816067 0.77456713 0
3.9450002 -1.6893865 0.77488101 0
3.9490004 -1.6976427 0.77529955 0
3.9530003 -1.7059131 0.77571797 0
3.9570003 -1.714198 0.77613652 0
3.9610002 -1.7224972 0.77655494 0
3.9650002 -1.730811 0.77697343 0
3.9680002 -1.7386647 0.77728724 0
3.9720004 -1.7470056 0.77770579 0
3.9760003 -1.7553608 0.77812433 0
3.9800003 -1.7637305 0.77854276 0
3.9840002 -1.7721146 0.77896124 0
3.9880002 -1.7805132 0.77937973 0
3.9920003 -1.7889261 0.77979821 0
3.9950004 -1.7968665 0.78011203 0
3.9990003 -1.8053064 0.78053057 0
3.8090003 -1.7370251 0.7606526 0
3.8000002 -1.7386936 0.75971103 0
3.7930002 -1.741329 0.75897861 0
3.7870002 -1.7444406 0.75835091 0
3.7820003 -1.7480338 0.75782782 0
3.7780004 -1.7521141 0.75740933 0
3.7740002 -1.7561797 0.75699085 0
3.7710001 -1.7607397 0.75667697 0
3.7690003 -1.7657995 0.75646776 0
3.7670002 -1.7708519 0.75625849 0
3.7650003 -1.7758973 0.75604928 0
3.7500002 -1.7742287 0.75447994 0
3.7370002 -1.7735415 0.75311989 0
3.7270002 -1.7743658 0.75207365 0
3.7190003 -1.7761966 0.75123668 0
3.7130003 -1.7790449 0.75060898 0
3.7060003 -1.7813466 0.74987662 0
3.7010002 -1.7846763 0.74935353 0
3.6960003 -1.7879882 0.74883044 0
3.6920002 -1.7918122 0.74841189 0
3.6880002 -1.7956218 0.74799347 0
3.6840003 -1.799417 0.74757499 0
3.6810002 -1.8037336 0.74726111 0
3.6780002 -1.8080393 0.74694729 0
3.6760004 -1.8128735 0.74673802 0
3.6740003 -1.8177005 0.74652874 0
3.6730003 -1.8230633 0.7464242 0
3.6720002 -1.8284223 0.74631953 0
3.6720002 -1.8343242 0.74631953 0
3.6730003 -1.8407748 0.7464242 0
3.6750002 -1.8477789 0.74663341 0
3.8420002 -1.9644907 0.76410508 0
3.8450003 -1.9723771 0.76441896 0
3.8490002 -1.9808351 0.76483738 0
3.8530002 -1.9893075 0.76525593 0
3.8560002 -1.9972298 0.76556975 0
3.8450003 -1.9972336 0.76441896 0
3.8370004 -1.998902 0.76358199 0
3.8290002 -2.0005417 0.76274502 0
3.8230002 -2.0032961 0.76211727 0
3.8170002 -2.0060287 0.76148951 0
3.9500003 -1.6404763 0.76900059 0
3.9430003 -1.6437231 0.76828086 0
3.9360003 -1.6469448 0.7675612 0
3.9290004 -1.6501411 0.76684147 0
3.9300003 -1.6569631 0.76694429 0
3.9340003 -1.6651633 0.76735556 0
3.9380002 -1.6733776 0.76776677 0
3.9420002 -1.6816067 0.76817805 0
3.9450002 -1.6893865 0.7684865 0
3.9490004 -1.6976427 0.76889777 0
3.9530003 -1.7059131 0.76930904 0
3.9570003 -1.714198 0.76972032 0
3.9610002 -1.7224972 0.77013159 0
3.9650002 -1.730811 0.77054286 0
3.9680002 -1.7386647 0.77085131 0
3.9720004 -1.7470056 0.77126265 0
3.9760003 -1.7553608 0.77167386 0
3.9800003 -1.7637305 0.77208513 0
3.9840002 -1.7721146 0.7724964 0
3.9880002 -1.7805132 0.77290761 0
3.9920003 -1.7889261 0.77331895 0
3.9950004 -1.7968665 0.7736274 0
3.9990003 -1.8053064 0.77403867 0
3.8090003 -1.7370251 0.75450337 0
3.8000002 -1.7386936 0.75357807 0
3.7930002 -1.741329 0.75285828 0
3.7870002 -1.7444406 0.75224143 0
3.7820003 -1.7480338 0.75172734 0
3.7780004 -1.7521141 0.75131607 0
3.7740002 -1.7561797 0.7509048 0
3.7710001 -1.7607397 0.75059634 0
3.7690003 -1.7657995 0.75039071 0
3.7670002 -1.7708519 0.75018507 0
3.7650003 -1.7758973 0.74997944 0
3.7600002 -1.7793875 0.74946535 0
3.7390003 -1.7745769 0.74730623 0
3.7290003 -1.7754048 0.74627805 0
3.7200003 -1.7767179 0.74535269 0
3.7130003 -1.7790449 0.74463296 0
3.7060003 -1.7813466 0.74391329 0
3.7010002 -1.7846763 0.74339914 0
3.6950002 -1.7874595 0.74278224 0
3.6910002 -1.7912818 0.74237096 0
3.6860003 -1.7945576 0.74185693 0
3.6830003 -1.7988832 0.74154842 0
3.6790001 -1.8026621 0.74113715 0
3.6770003 -1.8075018 0.74093157 0
3.6740003 -1.8117948 0.74062312 0
3.6720002 -1.8166182 0.74041748 0
3.6700003 -1.8214344 0.74021184 0
3.6690001 -1.8267881 0.74010903 0
3.6690001 -1.8326846 0.74010903 0
3.6690001 -1.8385812 0.74010903 0
3.6700003 -1.8450282 0.74021184 0
3.6730003 -1.8525826 0.7405203 0
3.8420002 -1.9644907 0.75789636 0
3.8450003 -1.9723771 0.75820482 0
3.8490002 -1.9808351 0.75861609 0
3.8530002 -1.9893075 0.75902736 0
3.8570004 -1.9977946 0.75943863 0
3.8480003 -1.9989328 0.75851327 0
3.8380003 -1.9994702 0.75748515 0
3.8300002 -2.0011115 0.75666261 0
3.8230002 -2.0032961 0.75594282 0
3.8170002 -2.0060287 0.75532591 0
3.9500003 -1.6404763 0.76259708 0
3.9430003 -1.6437231 0.76189005 0
3.9360003 -1.6469448 0.7611829 0
3.9290004 -1.6501411 0.76047587 0
3.9300003 -1.6569631 0.76057684 0
3.9340003 -1.6651633 0.76098084 0
3.9380002 -1.6733776 0.76138496 0
3.9420002 -1.6816067 0.76178896 0
3.9450002 -1.6893865 0.76209199 0
3.9490004 -1.6976427 0.76249611 0
3.9530003 -1.7059131 0.76290011 0
3.9570003 -1.714198 0.76330423 0
3.9610002 -1.7224972 0.76370823 0
3.9650002 -1.730811 0.76411223 0
3.9680002 -1.7386647 0.76441532 0
3.9720004 -1.7470056 0.76481938 0
3.9760003 -1.7553608 0.76522344 0
3.9800003 -1.7637305 0.7656275 0
3.9840002 -1.7721146 0.7660315 0
3.9880002 -1.7805132 0.76643562 0
3.9920003 -1.7889261 0.76683962 0
3.9950004 -1.7968665 0.76714265 0
3.9990003 -1.8053064 0.76754677 0
3.8090003 -1.7370251 0.7483542 0
3.8000002 -1.7386936 0.74744511 0
3.7930002 -1.741329 0.74673802 0
3.7870002 -1.7444406 0.7461319 0
3.7820003 -1.7480338 0.74562687 0
3.7780004 -1.7521141 0.74522281 0
3.7740002 -1.7561797 0.74481875 0
3.7710001 -1.7607397 0.74451572 0
3.7690003 -1.7657995 0.74431372 0
3.7670002 -1.7708519 0.74411166 0
3.7650003 -1.7758973 0.74390966 0
3.7640002 -1.781451 0.74380863 0
3.7450004 -1.777683 0.74188936 0
3.7310002 -1.7764437 0.74047518 0
3.7210002 -1.7772392 0.73946506 0
3.7130003 -1.7790449 0.738657 0
3.7070003 -1.7818714 0.73805088 0
3.7000003 -1.7841496 0.73734379 0
3.6950002 -1.7874595 0.7368387 0
3.6900003 -1.7907516 0.73633361 0
3.6860003 -1.7945576 0.73592961 0
3.6820002 -1.7983491 0.73552555 0
3.6780002 -1.8021264 0.73512149 0
3.6750002 -1.8064266 0.73481846 0
3.6720002 -1.810716 0.73451543 0
3.6700003 -1.8155359 0.73431337 0
3.6680002 -1.8203484 0.73411137 0
3.6660004 -1.8251538 0.73390937 0
3.6660004 -1.831045 0.73390937 0
3.6650002 -1.8363879 0.73380828 0
3.6660004 -1.8428276 0.73390937 0
3.6680002 -1.8498226 0.73411137 0
3.8450003 -1.9723771 0.75199068 0
3.8490002 -1.9808351 0.7523948 0
3.8530002 -1.9893075 0.7527988 0
3.8570004 -1.9977946 0.75320286 0
3.8510003 -2.0006318 0.7525968 0
3.8400002 -2.0006063 0.75148559 0
3.8310003 -2.0016816 0.7505765 0
3.8230002 -2.0032961 0.74976838 0
3.8170002 -2.0060287 0.74916232 0
3.9500003 -1.6404763 0.75619358 0
3.9430003 -1.6437231 0.75549912 0
3.9360003 -1.6469448 0.75480461 0
3.9290004 -1.6501411 0.75411022 0
3.9300003 -1.6569631 0.7542094 0
3.9340003 -1.6651633 0.75460625 0
3.9380002 -1.6733776 0.75500309 0
3.9420002 -1.6816067 0.75539988 0
3.9450002 -1.6893865 0.75569749 0
3.9490004 -1.6976427 0.75609434 0
3.9530003 -1.7059131 0.75649118 0
3.9570003 -1.714198 0.75688803 0
3.9610002 -1.7224972 0.75728488 0
3.9650002 -1.730811 0.75768173 0
3.9680002 -1.7386647 0.75797933 0
3.9720004 -1.7470056 0.75837624 0
3.9760003 -1.7553608 0.75877303 0
3.9800003 -1.7637305 0.75916982 0
3.9840002 -1.7721146 0.75956666 0
3.9880002 -1.7805132 0.75996351 0
3.9920003 -1.7889261 0.76036036 0
3.9950004 -1.7968665 0.76065803 0
3.9990003 -1.8053064 0.76105487 0
3.8090003 -1.7370251 0.74220502 0
3.8000002 -1.7386936 0.74131215 0
3.7930002 -1.741329 0.74061769 0
3.7870002 -1.7444406 0.74002242 0
3.7820003 -1.7480338 0.73952639 0
3.7780004 -1.7521141 0.73912954 0
3.7740002 -1.7561797 0.7387327 0
3.7710001 -1.7607397 0.73843503 0
3.7690003 -1.7657995 0.73823667 0
3.7670002 -1.7708519 0.73803824 0
3.7650003 -1.7758973 0.73783982 0
3.7640002 -1.781451 0.73774064 0
3.7640002 -1.7875191 0.73774064 0
3.7340002 -1.7780021 0.73476434 0
3.7230003 -1.7782818 0.73367304 0
3.7140002 -1.779568 0.7327801 0
3.7070003 -1.7818714 0.7320857 0
3.7000003 -1.7841496 0.73139119 0
3.6950002 -1.7874595 0.73089516 0
3.6890004 -1.7902212 0.73029995 0
3.6850002 -1.7940254 0.72990304 0
3.6800003 -1.7972814 0.72940701 0
3.6770003 -1.8015907 0.72910941 0
3.6730003 -1.8053516 0.72871256 0
3.6700003 -1.8096374 0.72841489 0
3.6680002 -1.8144536 0.72821653 0
3.6660004 -1.8192626 0.72801811 0
3.6640003 -1.8240643 0.72781968 0
3.6630003 -1.8294054 0.7277205 0
3.6620002 -1.8347428 0.7276212 0
3.6630003 -1.8411771 0.7277205 0
3.6640003 -1.8476148 0.72781968 0
3.8490002 -1.9808351 0.74617338 0
3.8530002 -1.9893075 0.74657023 0
3.8570004 -1.9977946 0.74696708 0
3.8560002 -2.0034637 0.7468679 0
3.8420002 -2.0017431 0.74547899 0
3.8320003 -2.0022516 0.74448687 0
3.8240004 -2.0038679 0.74369317 0
3.9500003 -1.6404763 0.74979007 0
3.9430003 -1.6437231 0.7491082 0
3.9360003 -1.6469448 0.74842638 0
3.9290004 -1.6501411 0.74774456 0
3.9300003 -1.6569631 0.74784195 0
3.9340003 -1.6651633 0.74823153 0
3.9380002 -1.6733776 0.74862117 0
3.9420002 -1.6816067 0.7490108 0
3.9450002 -1.6893865 0.74930298 0
3.9490004 -1.6976427 0.74969268 0
3.9530003 -1.7059131 0.75008225 0
3.9570003 -1.714198 0.75047189 0
3.9610002 -1.7224972 0.75086153 0
3.9650002 -1.730811 0.7512511 0
3.9680002 -1.7386647 0.75154334 0
3.9720004 -1.7470056 0.75193298 0
3.9760003 -1.7553608 0.75232255 0
3.9800003 -1.7637305 0.75271225 0
3.9840002 -1.7721146 0.75310183 0
3.9880002 -1.7805132 0.75349146 0
3.9920003 -1.7889261 0.7538811 0
3.9950004 -1.7968665 0.75417334 0
3.9990003 -1.8053064 0.75456291 0
3.8090003 -1.7370251 0.73605585 0
3.8000002 -1.7386936 0.73517919 0
3.7930002 -1.741329 0.73449731 0
3.7870002 -1.7444406 0.73391294 0
3.7820003 -1.7480338 0.73342586 0
3.7780004 -1.7521141 0.73303628 0
3.7740002 -1.7561797 0.73264664 0
3.7710001 -1.7607397 0.7323544 0
3.7690003 -1.7657995 0.73215961 0
3.7670002 -1.7708519 0.73196483 0
3.7650003 -1.7758973 0.73177004 0
3.7640002 -1.781451 0.73167259 0
3.7640002 -1.7875191 0.73167259 0
3.7390003 -1.7805998 0.72923744 0
3.7250001 -1.7793243 0.7278738 0
3.7160003 -1.7806143 0.72699714 0
3.7070003 -1.7818714 0.72612047 0
3.7010002 -1.7846763 0.72553605 0
3.6940002 -1.786931 0.72485423 0
3.6890004 -1.7902212 0.7243672 0
3.6840003 -1.7934933 0.72388017 0
3.6800003 -1.7972814 0.72349054 0
3.6750002 -1.8005192 0.72300351 0
3.6720002 -1.804814 0.72271127 0
3.6690001 -1.809098 0.72241902 0
3.6660004 -1.8133714 0.72212684 0
3.6630003 -1.8176337 0.72183466 0
3.6620002 -1.8229748 0.72173727 0
3.6600003 -1.8277658 0.72154242 0
3.6590002 -1.8330977 0.72144496 0
3.6590002 -1.8389763 0.72144496 0
3.6600003 -1.845407 0.72154242 0
3.6610003 -1.8518412 0.72163981 0
3.8530002 -1.9893075 0.74034166 0
3.8460002 -2.0040157 0.73965985 0
3.8340003 -2.0033915 0.73849106 0
3.8250003 -2.0044398 0.73761439 0
3.9500003 -1.6404763 0.74338651 0
3.9430003 -1.6437231 0.74271733 0
3.9360003 -1.6469448 0.74204814 0
3.9290004 -1.6501411 0.7413789 0
3.9300003 -1.6569631 0.74147451 0
3.9340003 -1.6651633 0.74185693 0
3.9380002 -1.6733776 0.7422393 0
3.9420002 -1.6816067 0.74262166 0
3.9450002 -1.6893865 0.74290854 0
3.9490004 -1.6976427 0.7432909 0
3.9530003 -1.7059131 0.74367332 0
3.9570003 -1.714198 0.74405575 0
3.9610002 -1.7224972 0.74443817 0
3.9650002 -1.730811 0.74482059 0
3.9680002 -1.7386647 0.74510735 0
3.9720004 -1.7470056 0.74548978 0
3.9760003 -1.7553608 0.7458722 0
3.9800003 -1.7637305 0.74625456 0
3.9840002 -1.7721146 0.74663699 0
3.9880002 -1.7805132 0.74701941 0
3.9920003 -1.7889261 0.74740183 0
3.9950004 -1.7968665 0.74768865 0
3.9990003 -1.8053064 0.74807101 0
3.8090003 -1.7370251 0.72990668 0
3.8000002 -1.7386936 0.72904623 0
3.7930002 -1.741329 0.72837704 0
3.7870002 -1.7444406 0.72780341 0
3.7820003 -1.7480338 0.72732544 0
3.7780004 -1.7521141 0.72694302 0
3.7740002 -1.7561797 0.72656059 0
3.7710001 -1.7607397 0.72627378 0
3.7690003 -1.7657995 0.72608256 0
3.7670002 -1.7708519 0.72589135 0
3.7650003 -1.7758973 0.7257002 0
3.7640002 -1.781451 0.72560459 0
3.7640002 -1.7875191 0.72560459 0
3.7650003 -1.7941066 0.7257002 0
3.7290003 -1.7814096 0.72225857 0
3.7170002 -1.7811372 0.7211113 0
3.7080002 -1.7823963 0.72025084 0
3.7010002 -1.7846763 0.71958166 0
3.6940002 -1.786931 0.71891248 0
3.6890004 -1.7902212 0.71843445 0
3.6830003 -1.7929612 0.71786082 0
3.6790001 -1.7967473 0.71747839 0
3.6740003 -1.7999835 0.71700042 0
3.6710002 -1.8042766 0.71671361 0
3.6670003 -1.8080194 0.71633124 0
3.6640003 -1.8122891 0.71604443 0
3.6620002 -1.8170906 0.71585321 0
3.6590002 -1.8213404 0.7155664 0
3.6580002 -1.8266726 0.71547079 0
3.6560001 -1.8314526 0.71527958 0
3.6560001 -1.8373258 0.71527958 0
3.6560001 -1.843199 0.71527958 0
3.6440003 -1.8424271 0.71413237 0
3.6430004 -1.847723 0.71403682 0
3.6420002 -1.8530153 0.71394116 0
3.9500003 -1.6404763 0.736983 0
3.9430003 -1.6437231 0.73632646 0
3.9360003 -1.6469448 0.73566985 0
3.9290004 -1.6501411 0.73501325 0
3.9300003 -1.6569631 0.73510706 0
3.9340003 -1.6651633 0.73548222 0
3.9380002 -1.6733776 0.73585749 0
3.9420002 -1.6816067 0.73623264 0
3.9450002 -1.6893865 0.73651397 0
3.9490004 -1.6976427 0.73688924 0
3.9530003 -1.7059131 0.73726439 0
3.9570003 -1.714198 0.73763961 0
3.9610002 -1.7224972 0.73801482 0
3.9650002 -1.730811 0.73838997 0
3.9680002 -1.7386647 0.73867142 0
3.9720004 -1.7470056 0.73904657 0
3.9760003 -1.7553608 0.73942173 0
3.9800003 -1.7637305 0.73979694 0
3.9840002 -1.7721146 0.74017215 0
3.9880002 -1.7805132 0.7405473 0
3.9920003 -1.7889261 0.74092257 0
3.9950004 -1.7968665 0.7412039 0
3.9990003 -1.8053064 0.74157912 0
3.8090003 -1.7370251 0.72375751 0
3.8000002 -1.7386936 0.72291327 0
3.7930002 -1.741329 0.72225672 0
3.7870002 -1.7444406 0.72169393 0
3.7820003 -1.7480338 0.72122496 0
3.7780004 -1.7521141 0.72084975 0
3.7740002 -1.7561797 0.72047454 0
3.7710001 -1.7607397 0.72019315 0
3.7690003 -1.7657995 0.72000557 0
3.7670002 -1.7708519 0.719818 0
3.7650003 -1.7758973 0.71963036 0
3.7640002 -1.781451 0.71953654 0
3.7640002 -1.7875191 0.71953654 0
3.7650003 -1.7941066 0.71963036 0
3.7200003 -1.7827066 0.71540952 0
3.7100003 -1.7834462 0.71447146 0
3.7010002 -1.7846763 0.71362734 0
3.6950002 -1.7874595 0.71306449 0
3.6880002 -1.789691 0.71240795 0
3.6830003 -1.7929612 0.71193898 0
3.6780002 -1.7962135 0.71146995 0
3.6730003 -1.7994478 0.71100098 0
3.6690001 -1.8032013 0.71062577 0
3.6660004 -1.8074801 0.71034437 0
3.6620002 -1.8112067 0.70996916 0
3.6600003 -1.8160049 0.70978165 0
3.6570003 -1.8202511 0.70950019 0
3.6550002 -1.8250328 0.70931256 0
3.6540003 -1.830356 0.7092188 0
3.6430004 -1.8301739 0.70818704 0
3.6400003 -1.8343676 0.70790565 0
3.6370003 -1.8385508 0.7076242 0
3.6350002 -1.8432785 0.70743662 0
3.6330001 -1.847999 0.70724905 0
3.6320002 -1.8532715 0.70715523 0
3.9500003 -1.6404763 0.7305795 0
3.9430003 -1.6437231 0.72993553 0
3.9360003 -1.6469448 0.72929156 0
3.9290004 -1.6501411 0.72864765 0
3.9300003 -1.6569631 0.72873962 0
3.9340003 -1.6651633 0.72910762 0
3.9380002 -1.6733776 0.72947556 0
3.9420002 -1.6816067 0.7298435 0
3.9450002 -1.6893865 0.73011947 0
3.9490004 -1.6976427 0.73048747 0
3.9530003 -1.7059131 0.73085546 0
3.9570003 -1.714198 0.73122346 0
3.9610002 -1.7224972 0.73159146 0
3.9650002 -1.730811 0.7319594 0
3.9680002 -1.7386647 0.73223537 0
3.9720004 -1.7470056 0.73260337 0
3.9760003 -1.7553608 0.73297131 0
3.9800003 -1.7637305 0.73333931 0
3.9840002 -1.7721146 0.73370731 0
3.9880002 -1.7805132 0.73407531 0
3.9920003 -1.7889261 0.73444331 0
3.9950004 -1.7968665 0.73471928 0
3.9990003 -1.8053064 0.73508722 0
3.8090003 -1.7370251 0.71760833 0
3.8000002 -1.7386936 0.71678036 0
3.7930002 -1.741329 0.7161364 0
3.7870002 -1.7444406 0.7155844 0
3.7820003 -1.7480338 0.71512449 0
3.7780004 -1.7521141 0.71475649 0
3.7740002 -1.7561797 0.71438849 0
3.7710001 -1.7607397 0.71411252 0
3.7690003 -1.7657995 0.71392858 0
3.7670002 -1.7708519 0.71374452 0
3.7650003 -1.7758973 0.71356058 0
3.7640002 -1.781451 0.71346855 0
3.7640002 -1.7875191 0.71346855 0
3.7650003 -1.7941066 0.71356058 0
3.7660003 -1.8006978 0.71365261 0
3.7120004 -1.7844959 0.70868492 0
3.7030003 -1.7857298 0.70785695 0
3.6950002 -1.7874595 0.70712095 0
3.6880002 -1.789691 0.70647699 0
3.6830003 -1.7929612 0.70601702 0
3.6770003 -1.7956796 0.70546508 0
3.6730003 -1.7994478 0.70509708 0
3.6680002 -1.8026638 0.70463711 0
3.6640003 -1.8064014 0.70426917 0
3.6610003 -1.8106656 0.7039932 0
3.6580002 -1.8149189 0.70371717 0
3.6550002 -1.8191614 0.7034412 0
3.6530004 -1.8239398 0.7032572 0
3.6430004 -1.8243241 0.70233727 0
3.6390002 -1.8279731 0.70196927 0
3.6350002 -1.8316078 0.70160127 0
3.6320002 -1.8357818 0.7013253 0
3.6290002 -1.839945 0.70104933 0
3.6270003 -1.8446548 0.70086539 0
3.6240003 -1.8487982 0.70058942 0
3.6220002 -1.8534917 0.70040536 0
3.6210003 -1.8587408 0.70031339 0
3.9500003 -1.6404763 0.72417599 0
3.9430003 -1.6437231 0.72354466 0
3.9360003 -1.6469448 0.72291332 0
3.9290004 -1.6501411 0.72228199 0
3.9300003 -1.6569631 0.72237217 0
3.9340003 -1.6651633 0.7227329 0
3.9380002 -1.6733776 0.72309369 0
3.9420002 -1.6816067 0.72345448 0
3.9450002 -1.6893865 0.72372502 0
3.9490004 -1.6976427 0.72408581 0
3.9530003 -1.7059131 0.72444654 0
3.9570003 -1.714198 0.72480726 0
3.9610002 -1.7224972 0.72516805 0
3.9650002 -1.730811 0.72552884 0
3.9680002 -1.7386647 0.72579944 0
3.9720004 -1.7470056 0.72616017 0
3.9760003 -1.7553608 0.72652096 0
3.9800003 -1.7637305 0.72688174 0
3.9840002 -1.7721146 0.72724247 0
3.9880002 -1.7805132 0.7276032 0
3.9920003 -1.7889261 0.72796392 0
3.9950004 -1.7968665 0.72823453 0
3.9990003 -1.8053064 0.72859532 0
3.8090003 -1.7370251 0.71145916 0
3.8000002 -1.7386936 0.7106474 0
3.7930002 -1.741329 0.71001607 0
3.7870002 -1.7444406 0.70947492 0
3.7820003 -1.7480338 0.70902395 0
3.7780004 -1.7521141 0.70866323 0
3.7740002 -1.7561797 0.70830244 0
3.7710001 -1.7607397 0.70803189 0
3.7690003 -1.7657995 0.70785153 0
3.7670002 -1.7708519 0.70767117 0
3.7650003 -1.7758973 0.7074908 0
3.7640002 -1.781451 0.70740056 0
3.7640002 -1.7875191 0.70740056 0
3.7650003 -1.7941066 0.7074908 0
3.7660003 -1.8006978 0.70758092 0
3.7140002 -1.7855457 0.70289105 0
3.7040002 -1.7862566 0.70198917 0
3.6960003 -1.7879882 0.7012676 0
3.6890004 -1.7902212 0.70063627 0
3.6820002 -1.792429 0.70000494 0
3.6770003 -1.7956796 0.69955397 0
3.6720002 -1.7989119 0.699103 0
3.6670003 -1.8021264 0.69865209 0
3.6630003 -1.8058621 0.6982913 0
3.6600003 -1.8101245 0.69802076 0
3.6570003 -1.814376 0.69775021 0
3.6540003 -1.8186169 0.69747961 0
3.6430004 -1.8184744 0.69648755 0
3.6390002 -1.8221306 0.6961267 0
3.6350002 -1.8257725 0.69576597 0
3.6310003 -1.8293999 0.69540524 0
3.6280003 -1.8335667 0.69513464 0
3.6240003 -1.8371671 0.69477391 0
3.6210003 -1.8413105 0.69450331 0
3.6180003 -1.8454431 0.69423276 0
3.6160002 -1.8501257 0.69405234 0
3.6140003 -1.8548012 0.69387197 0
3.6110003 -1.858905 0.69360143 0
3.6110003 -1.864697 0.69360143 0
3.9500003 -1.6404763 0.71777248 0
3.9430003 -1.6437231 0.71715379 0
3.9360003 -1.6469448 0.71653503 0
3.9290004 -1.6501411 0.7159164 0
3.9300003 -1.6569631 0.71600473 0
3.9340003 -1.6651633 0.71635824 0
3.9380002 -1.6733776 0.71671176 0
3.9420002 -1.6816067 0.71706533 0
3.9450002 -1.6893865 0.71733052 0
3.9490004 -1.6976427 0.71768409 0
3.9530003 -1.7059131 0.71803761 0
3.9570003 -1.714198 0.71839118 0
3.9610002 -1.7224972 0.7187447 0
3.9650002 -1.730811 0.71909821 0
3.9680002 -1.7386647 0.71936339 0
3.9720004 -1.7470056 0.71971697 0
3.9760003 -1.7553608 0.72007048 0
3.9800003 -1.7637305 0.72042406 0
3.9840002 -1.7721146 0.72077763 0
3.9880002 -1.7805132 0.72113109 0
3.9920003 -1.7889261 0.72148466 0
3.9950004 -1.7968665 0.7217499 0
3.9990003 -1.8053064 0.72210342 0
3.8090003 -1.7370251 0.70530993 0
3.8000002 -1.7386936 0.7045145 0
3.7930002 -1.741329 0.70389575 0
3.7870002 -1.7444406 0.70336545 0
3.7820003 -1.7480338 0.70292354 0
3.7780004 -1.7521141 0.70256996 0
3.7740002 -1.7561797 0.70221639 0
3.7710001 -1.7607397 0.70195127 0
3.7690003 -1.7657995 0.70177448 0
3.7670002 -1.7708519 0.70159769 0
3.7650003 -1.7758973 0.7014209 0
3.7640002 -1.781451 0.70133257 0
3.7640002 -1.7875191 0.70133257 0
3.7650003 -1.7941066 0.7014209 0
3.7660003 -1.8006978 0.70150936 0
3.7060003 -1.7873099 0.69620615 0
3.6970003 -1.7885166 0.69541061 0
3.6890004 -1.7902212 0.69470358 0
3.6830003 -1.7929612 0.69417322 0
3.6770003 -1.7956796 0.69364291 0
3.6710002 -1.7983763 0.69311261 0
3.6670003 -1.8021264 0.69275904 0
3.6630003 -1.8058621 0.69240546 0
3.6590002 -1.8095833 0.69205195 0
3.6560001 -1.813833 0.69178677 0
3.6450002 -1.813714 0.6908145 0
3.6410003 -1.8173813 0.69046098 0
3.6360002 -1.8204855 0.69001901 0
3.6320002 -1.824122 0.68966556 0
3.6280003 -1.8277441 0.68931198 0
3.6240003 -1.8313518 0.68895841 0
3.6200004 -1.8349448 0.68860489 0
3.6170003 -1.839081 0.68833971 0
3.6130002 -1.8426471 0.68798614 0
3.6100001 -1.8467597 0.68772101 0
3.6070004 -1.8508618 0.68745583 0
3.6050003 -1.8555173 0.68727911 0
3.6030002 -1.8601656 0.68710232 0
3.6010003 -1.8648069 0.68692553 0
3.6000001 -1.8700109 0.68683714 0
3.9500003 -1.6404763 0.71136892 0
3.9430003 -1.6437231 0.71076286 0
3.9360003 -1.6469448 0.7101568 0
3.9290004 -1.6501411 0.70955074 0
3.9300003 -1.6569631 0.70963728 0
3.9340003 -1.6651633 0.70998359 0
3.9380002 -1.6733776 0.71032995 0
3.9420002 -1.6816067 0.71067631 0
3.9450002 -1.6893865 0.71093601 0
3.9490004 -1.6976427 0.71128237 0
3.9530003 -1.7059131 0.71162868 0
3.9570003 -1.714198 0.71197498 0
3.9610002 -1.7224972 0.71232134 0
3.9650002 -1.730811 0.71266764 0
3.9680002 -1.7386647 0.71292746 0
3.9720004 -1.7470056 0.71327376 0
3.9760003 -1.7553608 0.71362007 0
3.9800003 -1.7637305 0.71396643 0
3.9840002 -1.7721146 0.71431279 0
3.9880002 -1.7805132 0.71465909 0
3.9920003 -1.7889261 0.7150054 0
3.9950004 -1.7968665 0.71526515 0
3.9990003 -1.8053064 0.71561152 0
3.8090003 -1.7370251 0.69916075 0
3.8000002 -1.7386936 0.69838154 0
3.7930002 -1.741329 0.69777548 0
3.7870002 -1.7444406 0.69725597 0
3.7820003 -1.7480338 0.696823 0
3.7780004 -1.7521141 0.6964767 0
3.7740002 -1.7561797 0.69613034 0
3.7710001 -1.7607397 0.69587064 0
3.7690003 -1.7657995 0.69569743 0
3.7670002 -1.7708519 0.69552428 0
3.7650003 -1.7758973 0.69535112 0
3.7640002 -1.781451 0.69526452 0
3.7640002 -1.7875191 0.69526452 0
3.7650003 -1.7941066 0.69535112 0
3.7660003 -1.8006978 0.69543767 0
3.7690003 -1.8083388 0.69569743 0
3.6980002 -1.7890451 0.68955004 0
3.6900003 -1.7907516 0.68885744 0
3.6830003 -1.7929612 0.68825138 0
3.6760004 -1.7951458 0.68764526 0
3.6710002 -1.7983763 0.68721235 0
3.6670003 -1.8021264 0.68686604 0
3.6630003 -1.8058621 0.68651968 0
3.6590002 -1.8095833 0.68617332 0
3.6490002 -1.8100325 0.6853075 0
3.6440003 -1.8131692 0.68487459 0
3.6390002 -1.8162881 0.68444169 0
3.6340003 -1.8193889 0.68400878 0
3.6290002 -1.8224715 0.68357587 0
3.6250002 -1.8260882 0.68322951 0
3.6210003 -1.8296903 0.68288314 0
3.6170003 -1.8332782 0.68253684 0
3.6130002 -1.8368515 0.68219054 0
3.6090002 -1.8404104 0.68184423 0
3.6050003 -1.8439549 0.68149787 0
3.6020002 -1.8480477 0.68123817 0
3.5990002 -1.8521297 0.68097836 0
3.5960002 -1.8562008 0.68071866 0
3.5940003 -1.8608296 0.68054545 0
3.5920002 -1.8654509 0.6803723 0
3.5900002 -1.870065 0.68019915 0
3.9500003 -1.6404763 0.70496541 0
3.9430003 -1.6437231 0.70437193 0
3.9360003 -1.6469448 0.70377851 0
3.9290004 -1.6501411 0.70318508 0
3.9300003 -1.6569631 0.70326984 0
3.9340003 -1.6651633 0.70360899 0
3.9380002 -1.6733776 0.70394808 0
3.9420002 -1.6816067 0.70428717 0
3.9450002 -1.6893865 0.7045415 0
3.9490004 -1.6976427 0.70488065 0
3.9530003 -1.7059131 0.70521975 0
3.9570003 -1.714198 0.7055589 0
3.9610002 -1.7224972 0.70589799 0
3.9650002 -1.730811 0.70623708 0
3.9680002 -1.7386647 0.70649141 0
3.9720004 -1.7470056 0.70683056 0
3.9760003 -1.7553608 0.70716965 0
3.9800003 -1.7637305 0.7075088 0
3.9840002 -1.7721146 0.70784789 0
3.9880002 -1.7805132 0.70818698 0
3.9920003 -1.7889261 0.70852613 0
3.9950004 -1.7968665 0.70878047 0
3.9990003 -1.8053064 0.70911956 0
3.8090003 -1.7370251 0.69301158 0
3.8000002 -1.7386936 0.69224858 0
3.7930002 -1.741329 0.69165516 0
3.7870002 -1.7444406 0.69114649 0
3.7820003 -1.7480338 0.69072258 0
3.7780004 -1.7521141 0.69038343 0
3.7740002 -1.7561797 0.69004428 0
3.7710001 -1.7607397 0.68978995 0
3.7690003 -1.7657995 0.68962038 0
3.7670002 -1.7708519 0.68945086 0
3.7650003 -1.7758973 0.68928134 0
3.7640002 -1.781451 0.68919653 0
3.7640002 -1.7875191 0.68919653 0
3.7650003 -1.7941066 0.68928134 0
3.7660003 -1.8006978 0.6893661 0
3.7690003 -1.8083388 0.68962038 0
3.7000003 -1.7901022 0.68377066 0
3.6910002 -1.7912818 0.68300766 0
3.6830003 -1.7929612 0.68232942 0
3.6770003 -1.7956796 0.68182075 0
3.6720002 -1.7989119 0.68139684 0
3.6670003 -1.8021264 0.68097293 0
3.6630003 -1.8058621 0.68063384 0
3.6600003 -1.8101245 0.68037951 0
3.6480002 -1.8094896 0.67936218 0
3.6420002 -1.8120798 0.67885351 0
3.6370003 -1.8151951 0.6784296 0
3.6320002 -1.818292 0.6780057 0
3.6270003 -1.8213712 0.67758179 0
3.6230001 -1.8249842 0.67724264 0
3.6180003 -1.828029 0.67681879 0
3.6140003 -1.8316114 0.6764797 0
3.6100001 -1.8351793 0.67614055 0
3.6060002 -1.8387328 0.67580146 0
3.6020002 -1.8422719 0.67546237 0
3.5980003 -1.8457966 0.67512321 0
3.5950003 -1.8498714 0.67486888 0
3.5920002 -1.8539354 0.67461455 0
3.5890002 -1.8579885 0.67436022 0
3.5860002 -1.8620309 0.67410588 0
3.5830002 -1.8660624 0.67385149 0
3.5810003 -1.8706566 0.67368197 0
3.9500003 -1.6404763 0.69856191 0
3.9430003 -1.6437231 0.69798112 0
3.9360003 -1.6469448 0.69740021 0
3.9290004 -1.6501411 0.69681942 0
3.9300003 -1.6569631 0.69690239 0
3.9340003 -1.6651633 0.69723427 0
3.9380002 -1.6733776 0.69756615 0
3.9420002 -1.6816067 0.69789809 0
3.9450002 -1.6893865 0.69814706 0
3.9490004 -1.6976427 0.69847894 0
3.9530003 -1.7059131 0.69881082 0
3.9570003 -1.714198 0.69914269 0
3.9610002 -1.7224972 0.69947457 0
3.9650002 -1.730811 0.69980651 0
3.9680002 -1.7386647 0.70005548 0
3.9720004 -1.7470056 0.70038736 0
3.9760003 -1.7553608 0.70071924 0
3.9800003 -1.7637305 0.70105112 0
3.9840002 -1.7721146 0.70138299 0
3.9880002 -1.7805132 0.70171499 0
3.9920003 -1.7889261 0.70204687 0
3.9950004 -1.7968665 0.70229578 0
3.9990003 -1.8053064 0.70262766 0
3.8090003 -1.7370251 0.68686241 0
3.8000002 -1.7386936 0.68611562 0
3.7930002 -1.741329 0.68553478 0
3.7870002 -1.7444406 0.6850369 0
3.7820003 -1.7480338 0.68462205 0
3.7780004 -1.7521141 0.68429017 0
3.7740002 -1.7561797 0.68395829 0
3.7710001 -1.7607397 0.68370938 0
3.7690003 -1.7657995 0.68354344 0
3.7670002 -1.7708519 0.68337744 0
3.7650003 -1.7758973 0.68321151 0
3.7640002 -1.781451 0.68312848 0
3.7640002 -1.7875191 0.68312848 0
3.7650003 -1.7941066 0.68321151 0
3.7660003 -1.8006978 0.68329448 0
3.7690003 -1.8083388 0.68354344 0
3.7030003 -1.7916877 0.67806703 0
3.6930003 -1.7923425 0.67723727 0
3.6850002 -1.7940254 0.67657346 0
3.6780002 -1.7962135 0.67599267 0
3.6730003 -1.7994478 0.67557776 0
3.6680002 -1.8026638 0.67516291 0
3.6640003 -1.8064014 0.67483103 0
3.6530004 -1.8063365 0.67391825 0
3.6470003 -1.8089466 0.67342043 0
3.6420002 -1.8120798 0.67300558 0
3.6360002 -1.8146483 0.67250764 0
3.6310003 -1.8177438 0.6720928 0
3.6260002 -1.8208209 0.67167795 0
3.6210003 -1.8238803 0.6712631 0
3.6160002 -1.8269215 0.67084819 0
3.6110003 -1.8299447 0.67043328 0
3.6070004 -1.8335073 0.6701014 0
3.6030002 -1.8370552 0.66976953 0
3.5990002 -1.8405889 0.66943765 0
3.5950003 -1.8441082 0.66910571 0
3.5910003 -1.8476131 0.66877383 0
3.5870001 -1.8511033 0.66844189 0
3.5840003 -1.8551476 0.66819298 0
3.5810003 -1.8591808 0.66794407 0
3.5780003 -1.8632034 0.66769516 0
3.5750003 -1.867215 0.6674462 0
3.9500003 -1.6404763 0.6921584 0
3.9430003 -1.6437231 0.69159019 0
3.9360003 -1.6469448 0.69102198 0
3.9290004 -1.6501411 0.69045377 0
3.9300003 -1.6569631 0.69053495 0
3.9340003 -1.6651633 0.69085968 0
3.9380002 -1.6733776 0.69118428 0
3.9420002 -1.6816067 0.69150901 0
3.9450002 -1.6893865 0.69175255 0
3.9490004 -1.6976427 0.69207722 0
3.9530003 -1.7059131 0.69240189 0
3.9570003 -1.714198 0.69272661 0
3.9610002 -1.7224972 0.69305128 0
3.9650002 -1.730811 0.69337595 0
3.9680002 -1.7386647 0.69361949 0
3.9720004 -1.7470056 0.69394416 0
3.9760003 -1.7553608 0.69426882 0
3.9800003 -1.7637305 0.69459355 0
3.9840002 -1.7721146 0.69491816 0
3.9880002 -1.7805132 0.69524288 0
3.9920003 -1.7889261 0.69556761 0
3.9950004 -1.7968665 0.69581109 0
3.9990003 -1.8053064 0.69613576 0
3.8090003 -1.7370251 0.68071324 0
3.8000002 -1.7386936 0.67998266 0
3.7930002 -1.741329 0.67941451 0
3.7870002 -1.7444406 0.67892742 0
3.7820003 -1.7480338 0.67852157 0
3.7780004 -1.7521141 0.67819691 0
