# .PCD v0.7 - Point Cloud Data file format
VERSION 0.7
FIELDS x y z intensity
SIZE 4 4 4 4
TYPE F F F F
COUNT 1 1 1 1
WIDTH 1466
HEIGHT 1
VIEWPOINT 0 0 0 1 0 0 0
POINTS 1466
DATA ascii
5.8650002 1.8466998 1.0940468 0
5.8730001 1.8395983 1.095057 0
5.8820004 1.8328106 1.0961934 0
5.8900003 1.8256496 1.0972035 0
5.8990002 1.8187985 1.0983399 0
5.9080005 1.8119154 1.0994763 0
5.9160004 1.804664 1.1004865 0
5.9250002 1.7977175 1.1016228 0
5.9340005 1.7907387 1.1027592 0
5.9430003 1.783727 1.1038957 0
5.9510002 1.776355 1.1049057 0
5.9600005 1.7692804 1.1060423 0
5.9690003 1.7621734 1.1071786 0
5.7890005 1.9078653 1.0747299 0
5.7970004 1.9010305 1.0757256 0
5.8050003 1.8941672 1.0767213 0
5.8140001 1.8876319 1.0778414 0
5.8220005 1.8807088 1.0788372 0
5.8310003 1.8741106 1.0799572 0
5.8390002 1.8671279 1.080953 0
5.8480005 1.8604667 1.0820732 0
5.8560004 1.8534245 1.0830688 0
5.8650002 1.8466998 1.0841891 0
5.8730001 1.8395983 1.0851847 0
5.8820004 1.8328106 1.0863049 0
5.8900003 1.8256496 1.0873007 0
5.8990002 1.8187985 1.0884207 0
5.9080005 1.8119154 1.089541 0
5.9160004 1.804664 1.0905366 0
5.9250002 1.7977175 1.0916568 0
5.9340005 1.7907387 1.092777 0
5.9430003 1.783727 1.0938971 0
5.9510002 1.776355 1.0948929 0
5.9600005 1.7692804 1.0960129 0
5.9690003 1.7621734 1.0971332 0
5.7890005 1.9078653 1.0650091 0
5.7970004 1.9010305 1.0659904 0
5.8050003 1.8941672 1.0669717 0
5.8140001 1.8876319 1.0680757 0
5.8220005 1.8807088 1.0690569 0
5.8310003 1.8741106 1.0701609 0
5.8390002 1.8671279 1.0711421 0
5.8480005 1.8604667 1.0722461 0
5.8560004 1.8534245 1.0732273 0
5.8650002 1.8466998 1.0743312 0
5.8730001 1.8395983 1.0753125 0
5.8820004 1.8328106 1.0764165 0
5.8900003 1.8256496 1.0773977 0
5.8990002 1.8187985 1.0785016 0
5.9080005 1.8119154 1.0796056 0
5.9160004 1.804664 1.0805868 0
5.9250002 1.7977175 1.0816908 0
5.9340005 1.7907387 1.0827947 0
5.9430003 1.783727 1.0838987 0
5.9510002 1.776355 1.0848799 0
5.9600005 1.7692804 1.0859839 0
5.9690003 1.7621734 1.0870878 0
5.7890005 1.9078653 1.0552884 0
5.7970004 1.9010305 1.0562553 0
5.8050003 1.8941672 1.0572221 0
5.8140001 1.8876319 1.0583098 0
5.8220005 1.8807088 1.0592767 0
5.8310003 1.8741106 1.0603644 0
5.8390002 1.8671279 1.0613312 0
5.8480005 1.8604667 1.0624189 0
5.8560004 1.8534245 1.0633857 0
5.8650002 1.8466998 1.0644734 0
5.8730001 1.8395983 1.0654403 0
5.8820004 1.8328106 1.066528 0
5.8900003 1.8256496 1.0674948 0
5.8990002 1.8187985 1.0685825 0
5.9080005 1.8119154 1.0696702 0
5.9160004 1.804664 1.070637 0
5.9250002 1.7977175 1.0717248 0
5.9340005 1.7907387 1.0728124 0
5.9430003 1.783727 1.0739001 0
5.9510002 1.776355 1.074867 0
5.9600005 1.7692804 1.0759547 0
5.9690003 1.7621734 1.0770423 0
5.7890005 1.9078653 1.0455678 0
5.7970004 1.9010305 1.0465201 0
5.8050003 1.8941672 1.0474725 0
5.8140001 1.8876319 1.0485439 0
5.8220005 1.8807088 1.0494964 0
5.8310003 1.8741106 1.0505679 0
5.8390002 1.8671279 1.0515202 0
5.8480005 1.8604667 1.0525918 0
5.8560004 1.8534245 1.0535442 0
5.8650002 1.8466998 1.0546156 0
5.8730001 1.8395983 1.055568 0
5.8820004 1.8328106 1.0566394 0
5.8900003 1.8256496 1.0575919 0
5.8990002 1.8187985 1.0586632 0
5.9080005 1.8119154 1.0597348 0
5.9160004 1.804664 1.0606873 0
5.9250002 1.7977175 1.0617586 0
5.9340005 1.7907387 1.0628302 0
5.9430003 1.783727 1.0639015 0
5.9510002 1.776355 1.064854 0
5.9600005 1.7692804 1.0659255 0
5.9690003 1.7621734 1.0669969 0
5.7890005 1.9078653 1.0358471 0
5.7970004 1.9010305 1.036785 0
5.8050003 1.8941672 1.0377229 0
5.8140001 1.8876319 1.0387782 0
5.8220005 1.8807088 1.0397161 0
5.8310003 1.8741106 1.0407714 0
5.8390002 1.8671279 1.0417093 0
5.8480005 1.8604667 1.0427645 0
5.8560004 1.8534245 1.0437026 0
5.8650002 1.8466998 1.0447577 0
5.8730001 1.8395983 1.0456958 0
5.8820004 1.8328106 1.046751 0
5.8900003 1.8256496 1.047689 0
5.8990002 1.8187985 1.0487442 0
5.9080005 1.8119154 1.0497994 0
5.9160004 1.804664 1.0507374 0
5.9250002 1.7977175 1.0517926 0
5.9340005 1.7907387 1.0528479 0
5.9430003 1.783727 1.0539031 0
5.9510002 1.776355 1.054841 0
5.9600005 1.7692804 1.0558963 0
5.9690003 1.7621734 1.0569515 0
5.7890005 1.9078653 1.0261263 0
5.7970004 1.9010305 1.0270498 0
5.8050003 1.8941672 1.0279733 0
5.8140001 1.8876319 1.0290123 0
5.8220005 1.8807088 1.029936 0
5.8310003 1.8741106 1.0309749 0
5.8390002 1.8671279 1.0318984 0
5.8480005 1.8604667 1.0329374 0
5.8560004 1.8534245 1.033861 0
5.8650002 1.8466998 1.0349 0
5.8730001 1.8395983 1.0358235 0
5.8820004 1.8328106 1.0368625 0
5.8900003 1.8256496 1.0377861 0
5.8990002 1.8187985 1.038825 0
5.9080005 1.8119154 1.0398641 0
5.9160004 1.804664 1.0407876 0
5.9250002 1.7977175 1.0418266 0
5.9340005 1.7907387 1.0428656 0
5.9430003 1.783727 1.0439045 0
5.9510002 1.776355 1.0448282 0
5.9600005 1.7692804 1.0458672 0
5.9690003 1.7621734 1.0469061 0
5.7890005 1.9078653 1.0164056 0
5.7970004 1.9010305 1.0173147 0
5.8050003 1.8941672 1.0182238 0
5.8140001 1.8876319 1.0192465 0
5.8220005 1.8807088 1.0201557 0
5.8310003 1.8741106 1.0211784 0
5.8390002 1.8671279 1.0220876 0
5.8480005 1.8604667 1.0231103 0
5.8560004 1.8534245 1.0240195 0
5.8650002 1.8466998 1.0250422 0
5.8730001 1.8395983 1.0259513 0
5.8820004 1.8328106 1.0269741 0
5.8900003 1.8256496 1.0278832 0
5.8990002 1.8187985 1.0289059 0
5.9080005 1.8119154 1.0299287 0
5.9160004 1.804664 1.0308378 0
5.9250002 1.7977175 1.0318606 0
5.9340005 1.7907387 1.0328833 0
5.9430003 1.783727 1.0339061 0
5.9510002 1.776355 1.0348152 0
5.9600005 1.7692804 1.035838 0
5.9690003 1.7621734 1.0368607 0
5.7890005 1.9078653 1.0066848 0
5.7970004 1.9010305 1.0075794 0
5.8050003 1.8941672 1.0084742 0
5.8140001 1.8876319 1.0094807 0
5.8220005 1.8807088 1.0103754 0
5.8310003 1.8741106 1.011382 0
5.8390002 1.8671279 1.0122766 0
5.8480005 1.8604667 1.0132831 0
5.8560004 1.8534245 1.0141779 0
5.8650002 1.8466998 1.0151844 0
5.8730001 1.8395983 1.0160789 0
5.8820004 1.8328106 1.0170856 0
5.8900003 1.8256496 1.0179802 0
5.8990002 1.8187985 1.0189868 0
5.9080005 1.8119154 1.0199933 0
5.9160004 1.804664 1.020888 0
5.9250002 1.7977175 1.0218946 0
5.9340005 1.7907387 1.0229011 0
5.9430003 1.783727 1.0239075 0
5.9510002 1.776355 1.0248022 0
5.9600005 1.7692804 1.0258088 0
5.9690003 1.7621734 1.0268153 0
5.7890005 1.9078653 0.9969641 0
5.7970004 1.9010305 0.99784434 0
5.8050003 1.8941672 0.99872458 0
5.8140001 1.8876319 0.99971485 0
5.8220005 1.8807088 1.0005952 0
5.8310003 1.8741106 1.0015855 0
5.8390002 1.8671279 1.0024657 0
5.8480005 1.8604667 1.003456 0
5.8560004 1.8534245 1.0043362 0
5.8650002 1.8466998 1.0053265 0
5.8730001 1.8395983 1.0062068 0
5.8820004 1.8328106 1.007197 0
5.8900003 1.8256496 1.0080774 0
5.8990002 1.8187985 1.0090677 0
5.9080005 1.8119154 1.0100579 0
5.9160004 1.804664 1.0109382 0
5.9250002 1.7977175 1.0119284 0
5.9340005 1.7907387 1.0129188 0
5.9430003 1.783727 1.0139091 0
5.9510002 1.776355 1.0147892 0
5.9600005 1.7692804 1.0157796 0
5.9690003 1.7621734 1.0167699 0
5.7890005 1.9078653 0.98724341 0
5.7970004 1.9010305 0.98810923 0
5.8050003 1.8941672 0.98897505 0
5.8140001 1.8876319 0.98994899 0
5.8220005 1.8807088 0.99081492 0
5.8310003 1.8741106 0.99178898 0
5.8390002 1.8671279 0.9926548 0
5.8480005 1.8604667 0.99362886 0
5.8560004 1.8534245 0.99449468 0
5.8650002 1.8466998 0.99546874 0
5.8730001 1.8395983 0.99633455 0
5.8820004 1.8328106 0.99730861 0
5.8900003 1.8256496 0.99817443 0
5.8990002 1.8187985 0.99914849 0
5.9080005 1.8119154 1.0001225 0
5.9160004 1.804664 1.0009884 0
5.9250002 1.7977175 1.0019624 0
5.9340005 1.7907387 1.0029365 0
5.9430003 1.783727 1.0039105 0
5.9510002 1.776355 1.0047764 0
5.9600005 1.7692804 1.0057505 0
5.9690003 1.7621734 1.0067245 0
5.7890005 1.9078653 0.97752261 0
5.7970004 1.9010305 0.978374 0
5.8050003 1.8941672 0.9792254 0
5.8140001 1.8876319 0.98018324 0
5.8220005 1.8807088 0.98103464 0
5.8310003 1.8741106 0.98199248 0
5.8390002 1.8671279 0.98284388 0
5.8480005 1.8604667 0.98380172 0
5.8560004 1.8534245 0.98465312 0
5.8650002 1.8466998 0.98561084 0
5.8730001 1.8395983 0.98646235 0
5.8820004 1.8328106 0.9874202 0
5.8900003 1.8256496 0.98827147 0
5.8990002 1.8187985 0.98922932 0
5.9080005 1.8119154 0.99018717 0
5.9160004 1.804664 0.99103856 0
5.9250002 1.7977175 0.99199641 0
5.9340005 1.7907387 0.99295425 0
5.9430003 1.783727 0.9939121 0
5.9510002 1.776355 0.99476337 0
5.9600005 1.7692804 0.99572134 0
5.9690003 1.7621734 0.99667907 0
5.7890005 1.9078653 0.96780193 0
5.7970004 1.9010305 0.9686389 0
5.8050003 1.8941672 0.96947587 0
5.8140001 1.8876319 0.97041738 0
5.8220005 1.8807088 0.97125447 0
5.8310003 1.8741106 0.97219598 0
5.8390002 1.8671279 0.97303295 0
5.8480005 1.8604667 0.97397459 0
5.8560004 1.8534245 0.97481155 0
5.8650002 1.8466998 0.97575307 0
5.8730001 1.8395983 0.97659004 0
5.8820004 1.8328106 0.97753167 0
5.8900003 1.8256496 0.97836864 0
5.8990002 1.8187985 0.97931027 0
5.9080005 1.8119154 0.98025179 0
5.9160004 1.804664 0.98108876 0
5.9250002 1.7977175 0.98203039 0
5.9340005 1.7907387 0.98297191 0
5.9430003 1.783727 0.98391354 0
5.9510002 1.776355 0.98475051 0
5.9600005 1.7692804 0.98569214 0
5.9690003 1.7621734 0.98663366 0
5.7890005 1.9078653 0.95808125 0
5.7970004 1.9010305 0.95890379 0
5.8050003 1.8941672 0.95972633 0
5.8140001 1.8876319 0.96065164 0
5.8220005 1.8807088 0.96147418 0
5.8310003 1.8741106 0.96239948 0
5.8390002 1.8671279 0.96322203 0
5.8480005 1.8604667 0.96414745 0
5.8560004 1.8534245 0.96496987 0
5.8650002 1.8466998 0.9658953 0
5.8730001 1.8395983 0.96671784 0
5.8820004 1.8328106 0.96764326 0
5.8900003 1.8256496 0.96846569 0
5.8990002 1.8187985 0.96939099 0
5.9080005 1.8119154 0.97031641 0
5.9160004 1.804664 0.97113895 0
5.9250002 1.7977175 0.97206438 0
5.9340005 1.7907387 0.97298968 0
5.9430003 1.783727 0.97391498 0
5.9510002 1.776355 0.97473752 0
5.9600005 1.7692804 0.97566295 0
5.9690003 1.7621734 0.97658825 0
5.7890005 1.9078653 0.94836044 0
5.7970004 1.9010305 0.94916856 0
5.8050003 1.8941672 0.94997668 0
5.8140001 1.8876319 0.95088577 0
5.8220005 1.8807088 0.95169389 0
5.8310003 1.8741106 0.95260298 0
5.8390002 1.8671279 0.9534111 0
5.8480005 1.8604667 0.95432031 0
5.8560004 1.8534245 0.95512831 0
5.8650002 1.8466998 0.95603752 0
5.8730001 1.8395983 0.95684552 0
5.8820004 1.8328106 0.95775473 0
5.8900003 1.8256496 0.95856285 0
5.8990002 1.8187985 0.95947194 0
5.9080005 1.8119154 0.96038103 0
5.9160004 1.804664 0.96118915 0
5.9250002 1.7977175 0.96209824 0
5.9340005 1.7907387 0.96300745 0
5.9430003 1.783727 0.96391654 0
5.9510002 1.776355 0.96472466 0
5.9600005 1.7692804 0.96563375 0
5.9690003 1.7621734 0.96654284 0
5.7890005 1.9078653 0.93863976 0
5.7970004 1.9010305 0.93943346 0
5.8050003 1.8941672 0.94022715 0
5.8140001 1.8876319 0.94111991 0
5.8220005 1.8807088 0.94191372 0
5.8310003 1.8741106 0.9428066 0
5.8390002 1.8671279 0.9436003 0
5.8480005 1.8604667 0.94449306 0
5.8560004 1.8534245 0.94528675 0
5.8650002 1.8466998 0.94617963 0
5.8730001 1.8395983 0.94697332 0
5.8820004 1.8328106 0.9478662 0
5.8900003 1.8256496 0.9486599 0
5.8990002 1.8187985 0.94955277 0
5.9080005 1.8119154 0.95044577 0
5.9160004 1.804664 0.95123935 0
5.9250002 1.7977175 0.95213223 0
5.9340005 1.7907387 0.9530251 0
5.9430003 1.783727 0.95391798 0
5.9510002 1.776355 0.95471168 0
5.9600005 1.7692804 0.95560455 0
5.9690003 1.7621734 0.95649743 0
5.7890005 1.9078653 0.92891908 0
5.7970004 1.9010305 0.92969823 0
5.8050003 1.8941672 0.9304775 0
5.8140001 1.8876319 0.93135417 0
5.8220005 1.8807088 0.93213344 0
5.8310003 1.8741106 0.9330101 0
5.8390002 1.8671279 0.93378925 0
5.8480005 1.8604667 0.93466592 0
5.8560004 1.8534245 0.93544519 0
5.8650002 1.8466998 0.93632185 0
5.8730001 1.8395983 0.93710113 0
5.8820004 1.8328106 0.93797779 0
5.8900003 1.8256496 0.93875706 0
5.8990002 1.8187985 0.93963361 0
5.9080005 1.8119154 0.94051027 0
5.9160004 1.804664 0.94128954 0
5.9250002 1.7977175 0.94216621 0
5.9340005 1.7907387 0.94304287 0
5.9430003 1.783727 0.94391954 0
5.9510002 1.776355 0.94469869 0
5.9600005 1.7692804 0.94557536 0
5.9690003 1.7621734 0.94645202 0
5.7890005 1.9078653 0.91919839 0
5.7970004 1.9010305 0.91996312 0
5.8050003 1.8941672 0.92072785 0
5.8140001 1.8876319 0.92158842 0
5.8220005 1.8807088 0.92235315 0
5.8310003 1.8741106 0.9232136 0
5.8390002 1.8671279 0.92397833 0
5.8480005 1.8604667 0.92483878 0
5.8560004 1.8534245 0.92560363 0
5.8650002 1.8466998 0.92646408 0
5.8730001 1.8395983 0.92722881 0
5.8820004 1.8328106 0.92808926 0
5.8900003 1.8256496 0.92885411 0
5.8990002 1.8187985 0.92971444 0
5.9080005 1.8119154 0.93057489 0
5.9160004 1.804664 0.93133974 0
5.9250002 1.7977175 0.93220019 0
5.9340005 1.7907387 0.93306065 0
5.9430003 1.783727 0.93392098 0
5.9510002 1.776355 0.93468583 0
5.9600005 1.7692804 0.93554628 0
5.9690003 1.7621734 0.93640661 0
5.7890005 1.9078653 0.90947759 0
5.7970004 1.9010305 0.91022801 0
5.8050003 1.8941672 0.91097832 0
5.8140001 1.8876319 0.91182256 0
5.8220005 1.8807088 0.91257298 0
5.8310003 1.8741106 0.9134171 0
5.8390002 1.8671279 0.91416752 0
5.8480005 1.8604667 0.91501164 0
5.8560004 1.8534245 0.91576207 0
5.8650002 1.8466998 0.91660619 0
5.8730001 1.8395983 0.91735661 0
5.8820004 1.8328106 0.91820085 0
5.8900003 1.8256496 0.91895115 0
5.8990002 1.8187985 0.91979539 0
5.9080005 1.8119154 0.92063951 0
5.9160004 1.804664 0.92138994 0
5.9250002 1.7977175 0.92223418 0
5.9340005 1.7907387 0.9230783 0
5.9430003 1.783727 0.92392254 0
5.9510002 1.776355 0.92467284 0
5.9600005 1.7692804 0.92551708 0
5.9690003 1.7621734 0.9263612 0
5.7890005 1.9078653 0.89975691 0
5.7970004 1.9010305 0.90049279 0
5.8050003 1.8941672 0.90122879 0
5.8140001 1.8876319 0.90205669 0
5.8220005 1.8807088 0.90279269 0
5.8310003 1.8741106 0.9036206 0
5.8390002 1.8671279 0.9043566 0
5.8480005 1.8604667 0.90518451 0
5.8560004 1.8534245 0.90592051 0
5.8650002 1.8466998 0.90674841 0
5.8730001 1.8395983 0.90748441 0
5.8820004 1.8328106 0.90831232 0
5.8900003 1.8256496 0.90904832 0
5.8990002 1.8187985 0.90987623 0
5.9080005 1.8119154 0.91070414 0
5.9160004 1.804664 0.91144013 0
5.9250002 1.7977175 0.91226804 0
5.9340005 1.7907387 0.91309607 0
5.9430003 1.783727 0.91392398 0
5.9510002 1.776355 0.91465998 0
5.9600005 1.7692804 0.91548789 0
5.9690003 1.7621734 0.91631579 0
5.7890005 1.9078653 0.89003611 0
5.7970004 1.9010305 0.89075768 0
5.8050003 1.8941672 0.89147913 0
5.8140001 1.8876319 0.89229089 0
5.8220005 1.8807088 0.8930124 0
5.8310003 1.8741106 0.89382416 0
5.8390002 1.8671279 0.89454567 0
5.8480005 1.8604667 0.89535737 0
5.8560004 1.8534245 0.89607894 0
5.8650002 1.8466998 0.89689058 0
5.8730001 1.8395983 0.89761209 0
5.8820004 1.8328106 0.89842385 0
5.8900003 1.8256496 0.89914536 0
5.8990002 1.8187985 0.89995706 0
5.9080005 1.8119154 0.90076882 0
5.9160004 1.804664 0.90149033 0
5.9250002 1.7977175 0.90230203 0
5.9340005 1.7907387 0.90311372 0
5.9430003 1.783727 0.90392548 0
5.9510002 1.776355 0.90464699 0
5.9600005 1.7692804 0.90545869 0
5.9690003 1.7621734 0.90627038 0
5.7890005 1.9078653 0.88031542 0
5.7970004 1.9010305 0.88102245 0
5.8050003 1.8941672 0.8817296 0
5.8140001 1.8876319 0.88252509 0
5.8220005 1.8807088 0.88323218 0
5.8310003 1.8741106 0.88402766 0
5.8390002 1.8671279 0.88473475 0
5.8480005 1.8604667 0.88553023 0
5.8560004 1.8534245 0.88623738 0
5.8650002 1.8466998 0.88703275 0
5.8730001 1.8395983 0.8877399 0
5.8820004 1.8328106 0.88853538 0
5.8900003 1.8256496 0.88924247 0
5.8990002 1.8187985 0.89003789 0
5.9080005 1.8119154 0.8908335 0
5.9160004 1.804664 0.89154053 0
5.9250002 1.7977175 0.89233601 0
5.9340005 1.7907387 0.89313149 0
5.9430003 1.783727 0.89392698 0
5.9510002 1.776355 0.89463401 0
5.9600005 1.7692804 0.89542955 0
5.9690003 1.7621734 0.89622498 0
5.7890005 1.9078653 0.87059474 0
5.7970004 1.9010305 0.87128741 0
5.8050003 1.8941672 0.87198001 0
5.8140001 1.8876319 0.87275922 0
5.8220005 1.8807088 0.87345195 0
5.8310003 1.8741106 0.87423122 0
5.8390002 1.8671279 0.87492383 0
5.8480005 1.8604667 0.8757031 0
5.8560004 1.8534245 0.8763957 0
5.8650002 1.8466998 0.87717497 0
5.8730001 1.8395983 0.87786764 0
5.8820004 1.8328106 0.87864691 0
5.8900003 1.8256496 0.87933958 0
5.8990002 1.8187985 0.88011879 0
5.9080005 1.8119154 0.88089812 0
5.9160004 1.804664 0.88159072 0
5.9250002 1.7977175 0.88237 0
5.9340005 1.7907387 0.88314921 0
5.9430003 1.783727 0.88392848 0
5.9510002 1.776355 0.88462108 0
5.9600005 1.7692804 0.88540035 0
5.9690003 1.7621734 0.88617957 0
5.7890005 1.9078653 0.860874 0
5.7970004 1.9010305 0.86155224 0
5.8050003 1.8941672 0.86223042 0
5.8140001 1.8876319 0.86299348 0
5.8220005 1.8807088 0.86367166 0
5.8310003 1.8741106 0.86443472 0
5.8390002 1.8671279 0.8651129 0
5.8480005 1.8604667 0.86587596 0
5.8560004 1.8534245 0.86655414 0
5.8650002 1.8466998 0.8673172 0
5.8730001 1.8395983 0.86799538 0
5.8820004 1.8328106 0.86875844 0
5.8900003 1.8256496 0.86943662 0
5.8990002 1.8187985 0.87019968 0
5.9080005 1.8119154 0.87096268 0
5.9160004 1.804664 0.87164092 0
5.9250002 1.7977175 0.87240392 0
5.9340005 1.7907387 0.87316692 0
5.9430003 1.783727 0.87392992 0
5.9510002 1.776355 0.87460816 0
5.9600005 1.7692804 0.87537116 0
5.9690003 1.7621734 0.87613416 0
5.7890005 1.9078653 0.85115325 0
5.7970004 1.9010305 0.85181701 0
5.8050003 1.8941672 0.85248083 0
5.8140001 1.8876319 0.85322762 0
5.8220005 1.8807088 0.85389143 0
5.8310003 1.8741106 0.85463822 0
5.8390002 1.8671279 0.85530198 0
5.8480005 1.8604667 0.85604882 0
5.8560004 1.8534245 0.85671258 0
5.8650002 1.8466998 0.85745937 0
5.8730001 1.8395983 0.85812312 0
5.8820004 1.8328106 0.85886991 0
5.8900003 1.8256496 0.85953373 0
5.8990002 1.8187985 0.86028051 0
5.9080005 1.8119154 0.8610273 0
5.9160004 1.804664 0.86169112 0
5.9250002 1.7977175 0.86243784 0
5.9340005 1.7907387 0.86318469 0
5.9430003 1.783727 0.86393142 0
5.9510002 1.776355 0.86459523 0
5.9600005 1.7692804 0.86534202 0
5.9690003 1.7621734 0.86608875 0
5.7890005 1.9078653 0.84143257 0
5.7970004 1.9010305 0.8420819 0
5.8050003 1.8941672 0.84273124 0
5.8140001 1.8876319 0.84346181 0
5.8220005 1.8807088 0.8441112 0
5.8310003 1.8741106 0.84484172 0
5.8390002 1.8671279 0.84549105 0
5.8480005 1.8604667 0.84622169 0
5.8560004 1.8534245 0.84687102 0
5.8650002 1.8466998 0.84760153 0
5.8730001 1.8395983 0.84825087 0
5.8820004 1.8328106 0.8489815 0
5.8900003 1.8256496 0.84963083 0
5.8990002 1.8187985 0.85036135 0
5.9080005 1.8119154 0.85109192 0
5.9160004 1.804664 0.85174131 0
5.9250002 1.7977175 0.85247183 0
5.9340005 1.7907387 0.85320234 0
5.9430003 1.783727 0.85393292 0
5.9510002 1.776355 0.85458231 0
5.9600005 1.7692804 0.85531282 0
5.9690003 1.7621734 0.85604334 0
5.7890005 1.9078653 0.83171177 0
5.7970004 1.9010305 0.8323468 0
5.8050003 1.8941672 0.83298171 0
5.8140001 1.8876319 0.83369601 0
5.8220005 1.8807088 0.83433092 0
5.8310003 1.8741106 0.83504522 0
5.8390002 1.8671279 0.83568019 0
5.8480005 1.8604667 0.83639455 0
5.8560004 1.8534245 0.83702946 0
5.8650002 1.8466998 0.83774376 0
5.8730001 1.8395983 0.83837867 0
5.8820004 1.8328106 0.83909297 0
5.8900003 1.8256496 0.83972794 0
5.8990002 1.8187985 0.84044224 0
5.9080005 1.8119154 0.8411566 0
5.9160004 1.804664 0.84179151 0
5.9250002 1.7977175 0.84250581 0
5.9340005 1.7907387 0.84322011 0
5.9430003 1.783727 0.84393442 0
5.9510002 1.776355 0.84456933 0
5.9600005 1.7692804 0.84528363 0
5.9690003 1.7621734 0.84599793 0
5.7890005 1.9078653 0.82199109 0
5.7970004 1.9010305 0.82261157 0
5.8050003 1.8941672 0.82323211 0
5.8140001 1.8876319 0.82393014 0
5.8220005 1.8807088 0.82455069 0
5.8310003 1.8741106 0.82524872 0
5.8390002 1.8671279 0.82586926 0
5.8480005 1.8604667 0.82656741 0
5.8560004 1.8534245 0.8271879 0
5.8650002 1.8466998 0.82788593 0
5.8730001 1.8395983 0.82850647 0
5.8820004 1.8328106 0.82920456 0
5.8900003 1.8256496 0.82982504 0
5.8990002 1.8187985 0.83052307 0
5.9080005 1.8119154 0.83122116 0
5.9160004 1.804664 0.83184171 0
5.9250002 1.7977175 0.83253974 0
5.9340005 1.7907387 0.83323789 0
5.9430003 1.783727 0.83393592 0
5.9510002 1.776355 0.8345564 0
5.9600005 1.7692804 0.83525449 0
5.9690003 1.7621734 0.83595252 0
5.7890005 1.9078653 0.8122704 0
5.7970004 1.9010305 0.81287646 0
5.8050003 1.8941672 0.81348252 0
5.8140001 1.8876319 0.81416434 0
5.8220005 1.8807088 0.81477046 0
5.8310003 1.8741106 0.81545228 0
5.8390002 1.8671279 0.81605834 0
5.8480005 1.8604667 0.81674021 0
5.8560004 1.8534245 0.81734627 0
5.8650002 1.8466998 0.81802809 0
5.8730001 1.8395983 0.81863415 0
5.8820004 1.8328106 0.81931603 0
5.8900003 1.8256496 0.81992209 0
5.8990002 1.8187985 0.82060397 0
5.9080005 1.8119154 0.82128584 0
5.9160004 1.804664 0.8218919 0
5.9250002 1.7977175 0.82257366 0
5.9340005 1.7907387 0.82325554 0
5.9430003 1.783727 0.82393742 0
5.9510002 1.776355 0.82454348 0
5.9600005 1.7692804 0.82522535 0
5.9690003 1.7621734 0.82590711 0
5.7890005 1.9078653 0.80254966 0
5.7970004 1.9010305 0.8031413 0
5.8050003 1.8941672 0.80373293 0
5.8140001 1.8876319 0.80439854 0
5.8220005 1.8807088 0.80499017 0
5.8310003 1.8741106 0.80565578 0
5.8390002 1.8671279 0.80624747 0
5.8480005 1.8604667 0.80691302 0
5.8560004 1.8534245 0.80750471 0
5.8650002 1.8466998 0.80817032 0
5.8730001 1.8395983 0.80876195 0
5.8820004 1.8328106 0.80942756 0
5.8900003 1.8256496 0.81001925 0
5.8990002 1.8187985 0.8106848 0
5.9080005 1.8119154 0.81135046 0
5.9160004 1.804664 0.8119421 0
5.9250002 1.7977175 0.81260765 0
5.9340005 1.7907387 0.81327331 0
5.9430003 1.783727 0.81393886 0
5.9510002 1.776355 0.81453049 0
5.9600005 1.7692804 0.81519616 0
5.9690003 1.7621734 0.8158617 0
5.7890005 1.9078653 0.79282892 0
5.7970004 1.9010305 0.79340613 0
5.8050003 1.8941672 0.79398334 0
5.8140001 1.8876319 0.79463267 0
5.8220005 1.8807088 0.79521 0
5.8310003 1.8741106 0.79585934 0
5.8390002 1.8671279 0.79643655 0
5.8480005 1.8604667 0.79708588 0
5.8560004 1.8534245 0.79766315 0
5.8650002 1.8466998 0.79831249 0
5.8730001 1.8395983 0.7988897 0
5.8820004 1.8328106 0.79953909 0
5.8900003 1.8256496 0.8001163 0
5.8990002 1.8187985 0.80076563 0
5.9080005 1.8119154 0.80141503 0
5.9160004 1.804664 0.8019923 0
5.9250002 1.7977175 0.80264163 0
5.9340005 1.7907387 0.80329102 0
5.9430003 1.783727 0.80394036 0
5.9510002 1.776355 0.80451763 0
5.9600005 1.7692804 0.80516696 0
5.9690003 1.7621734 0.80581629 0
5.7890005 1.9078653 0.78310823 0
5.7970004 1.9010305 0.78367102 0
5.8050003 1.8941672 0.78423381 0
5.8140001 1.8876319 0.78486687 0
5.8220005 1.8807088 0.78542972 0
5.8310003 1.8741106 0.78606284 0
5.8390002 1.8671279 0.78662562 0
5.8480005 1.8604667 0.78725874 0
5.8560004 1.8534245 0.78782153 0
5.8650002 1.8466998 0.78845465 0
5.8730001 1.8395983 0.78901744 0
5.8820004 1.8328106 0.78965062 0
5.8900003 1.8256496 0.79021341 0
5.8990002 1.8187985 0.79084647 0
5.9080005 1.8119154 0.79147971 0
5.9160004 1.804664 0.79204249 0
5.9250002 1.7977175 0.79267561 0
5.9340005 1.7907387 0.79330873 0
5.9430003 1.783727 0.79394186 0
5.9510002 1.776355 0.79450464 0
5.9600005 1.7692804 0.79513776 0
5.9690003 1.7621734 0.79577088 0
5.7890005 1.9078653 0.77338749 0
5.7970004 1.9010305 0.77393579 0
5.8050003 1.8941672 0.77448416 0
5.8140001 1.8876319 0.77510107 0
5.8220005 1.8807088 0.77564943 0
5.8310003 1.8741106 0.77626634 0
5.8390002 1.8671279 0.7768147 0
5.8480005 1.8604667 0.77743161 0
5.8560004 1.8534245 0.77797997 0
5.8650002 1.8466998 0.77859688 0
5.8730001 1.8395983 0.77914524 0
5.8820004 1.8328106 0.77976215 0
5.8900003 1.8256496 0.78031051 0
5.8990002 1.8187985 0.78092742 0
5.9080005 1.8119154 0.78154433 0
5.9160004 1.804664 0.78209269 0
5.9250002 1.7977175 0.78270954 0
5.9340005 1.7907387 0.78332651 0
5.9430003 1.783727 0.78394336 0
5.9510002 1.776355 0.78449172 0
5.9600005 1.7692804 0.78510863 0
5.9690003 1.7621734 0.78572547 0
5.7890005 1.9078653 0.76366675 0
5.7970004 1.9010305 0.76420069 0
5.8050003 1.8941672 0.76473463 0
5.8140001 1.8876319 0.76533526 0
5.8220005 1.8807088 0.7658692 0
5.8310003 1.8741106 0.76646984 0
5.8390002 1.8671279 0.76700377 0
5.8480005 1.8604667 0.76760447 0
5.8560004 1.8534245 0.76813841 0
5.8650002 1.8466998 0.76873904 0
5.8730001 1.8395983 0.76927298 0
5.8820004 1.8328106 0.76987362 0
5.8900003 1.8256496 0.77040756 0
5.8990002 1.8187985 0.77100825 0
5.9080005 1.8119154 0.77160895 0
5.9160004 1.804664 0.77214289 0
5.9250002 1.7977175 0.77274346 0
5.9340005 1.7907387 0.77334416 0
5.9430003 1.783727 0.77394485 0
5.9510002 1.776355 0.77447879 0
5.9600005 1.7692804 0.77507949 0
5.9690003 1.7621734 0.77568012 0
5.7890005 1.9078653 0.75394607 0
5.7970004 1.9010305 0.75446552 0
5.8050003 1.8941672 0.75498497 0
5.8140001 1.8876319 0.75556946 0
5.8220005 1.8807088 0.75608897 0
5.8310003 1.8741106 0.75667334 0
5.8390002 1.8671279 0.75719285 0
5.8480005 1.8604667 0.75777733 0
5.8560004 1.8534245 0.75829685 0
5.8650002 1.8466998 0.75888121 0
5.8730001 1.8395983 0.75940073 0
5.8820004 1.8328106 0.75998521 0
5.8900003 1.8256496 0.76050472 0
5.8990002 1.8187985 0.76108909 0
5.9080005 1.8119154 0.76167357 0
5.9160004 1.804664 0.76219302 0
5.9250002 1.7977175 0.76277745 0
5.9340005 1.7907387 0.76336193 0
5.9430003 1.783727 0.76394629 0
5.9510002 1.776355 0.76446581 0
5.9600005 1.7692804 0.76505029 0
5.9690003 1.7621734 0.76563472 0
5.7890005 1.9078653 0.74422532 0
5.7970004 1.9010305 0.74473035 0
5.8050003 1.8941672 0.74523544 0
5.8140001 1.8876319 0.74580359 0
5.8220005 1.8807088 0.74630868 0
5.8310003 1.8741106 0.7468769 0
5.8390002 1.8671279 0.74738193 0
5.8480005 1.8604667 0.7479502 0
5.8560004 1.8534245 0.74845523 0
5.8650002 1.8466998 0.74902344 0
5.8730001 1.8395983 0.74952853 0
5.8820004 1.8328106 0.75009668 0
5.8900003 1.8256496 0.75060177 0
5.8990002 1.8187985 0.75116992 0
5.9080005 1.8119154 0.75173819 0
5.9160004 1.804664 0.75224328 0
5.9250002 1.7977175 0.75281143 0
5.9340005 1.7907387 0.75337964 0
5.9430003 1.783727 0.75394785 0
5.9510002 1.776355 0.75445288 0
5.9600005 1.7692804 0.7550211 0
5.9690003 1.7621734 0.75558931 0
5.7890005 1.9078653 0.73450458 0
5.7970004 1.9010305 0.73499525 0
5.8050003 1.8941672 0.73548585 0
5.8140001 1.8876319 0.73603785 0
5.8220005 1.8807088 0.73652846 0
5.8310003 1.8741106 0.73708045 0
5.8390002 1.8671279 0.73757106 0
5.8480005 1.8604667 0.73812306 0
5.8560004 1.8534245 0.73861367 0
5.8650002 1.8466998 0.7391656 0
5.8730001 1.8395983 0.73965621 0
5.8820004 1.8328106 0.74020827 0
5.8900003 1.8256496 0.74069881 0
5.8990002 1.8187985 0.74125081 0
5.9080005 1.8119154 0.74180281 0
5.9160004 1.804664 0.74229342 0
5.9250002 1.7977175 0.74284542 0
5.9340005 1.7907387 0.74339736 0
5.9430003 1.783727 0.74394929 0
5.9510002 1.776355 0.74443996 0
5.9600005 1.7692804 0.7449919 0
5.9690003 1.7621734 0.7455439 0
5.7890005 1.9078653 0.7247839 0
5.7970004 1.9010305 0.72526008 0
5.8050003 1.8941672 0.72573626 0
5.8140001 1.8876319 0.72627199 0
5.8220005 1.8807088 0.72674823 0
5.8310003 1.8741106 0.72728395 0
5.8390002 1.8671279 0.72776014 0
5.8480005 1.8604667 0.72829592 0
5.8560004 1.8534245 0.72877204 0
5.8650002 1.8466998 0.72930777 0
5.8730001 1.8395983 0.72978401 0
5.8820004 1.8328106 0.73031974 0
5.8900003 1.8256496 0.73079598 0
5.8990002 1.8187985 0.73133165 0
5.9080005 1.8119154 0.73186743 0
5.9160004 1.804664 0.73234367 0
5.9250002 1.7977175 0.73287934 0
5.9340005 1.7907387 0.73341513 0
5.9430003 1.783727 0.73395079 0
5.9510002 1.776355 0.73442698 0
5.9600005 1.7692804 0.73496276 0
5.9690003 1.7621734 0.73549849 0
5.7890005 1.9078653 0.71506315 0
5.7970004 1.9010305 0.71552491 0
5.8050003 1.8941672 0.71598667 0
5.8140001 1.8876319 0.71650618 0
5.8220005 1.8807088 0.71696794 0
5.8310003 1.8741106 0.71748745 0
5.8390002 1.8671279 0.71794921 0
5.8480005 1.8604667 0.71846873 0
5.8560004 1.8534245 0.71893048 0
5.8650002 1.8466998 0.71945 0
5.8730001 1.8395983 0.71991175 0
5.8820004 1.8328106 0.72043127 0
5.8900003 1.8256496 0.72089303 0
5.8990002 1.8187985 0.72141254 0
5.9080005 1.8119154 0.72193205 0
5.9160004 1.804664 0.72239381 0
5.9250002 1.7977175 0.72291327 0
5.9340005 1.7907387 0.72343278 0
5.9430003 1.783727 0.72395229 0
5.9510002 1.776355 0.72441411 0
5.9600005 1.7692804 0.72493362 0
5.9690003 1.7621734 0.72545308 0
5.7890005 1.9078653 0.70534241 0
5.7970004 1.9010305 0.70578974 0
5.8050003 1.8941672 0.70623708 0
5.8140001 1.8876319 0.70674038 0
5.8220005 1.8807088 0.70718771 0
5.8310003 1.8741106 0.70769095 0
5.8390002 1.8671279 0.70813835 0
5.8480005 1.8604667 0.70864159 0
5.8560004 1.8534245 0.70908892 0
5.8650002 1.8466998 0.70959222 0
5.8730001 1.8395983 0.7100395 0
5.8820004 1.8328106 0.7105428 0
5.8900003 1.8256496 0.71099013 0
5.8990002 1.8187985 0.71149337 0
5.9080005 1.8119154 0.71199667 0
5.9160004 1.804664 0.71244401 0
5.9250002 1.7977175 0.71294725 0
5.9340005 1.7907387 0.71345055 0
5.9430003 1.783727 0.71395379 0
5.9510002 1.776355 0.71440113 0
5.9600005 1.7692804 0.71490443 0
5.9690003 1.7621734 0.71540767 0
5.7890005 1.9078653 0.69562173 0
5.7970004 1.9010305 0.69605458 0
5.8050003 1.8941672 0.69648755 0
5.8140001 1.8876319 0.69697452 0
5.8220005 1.8807088 0.69740748 0
5.8310003 1.8741106 0.69789445 0
5.8390002 1.8671279 0.69832742 0
5.8480005 1.8604667 0.69881445 0
5.8560004 1.8534245 0.69924736 0
5.8650002 1.8466998 0.69973439 0
5.8730001 1.8395983 0.7001673 0
5.8820004 1.8328106 0.70065433 0
5.8900003 1.8256496 0.70108724 0
5.8990002 1.8187985 0.70157421 0
5.9080005 1.8119154 0.7020613 0
5.9160004 1.804664 0.7024942 0
5.9250002 1.7977175 0.70298123 0
5.9340005 1.7907387 0.70346826 0
5.9430003 1.783727 0.70395529 0
5.9510002 1.776355 0.70438814 0
5.9600005 1.7692804 0.70487523 0
5.9690003 1.7621734 0.70536226 0
5.7890005 1.9078653 0.68590093 0
5.7970004 1.9010305 0.68631947 0
5.8050003 1.8941672 0.68673795 0
5.8140001 1.8876319 0.68720871 0
5.8220005 1.8807088 0.6876272 0
5.8310003 1.8741106 0.68809801 0
5.8390002 1.8671279 0.6885165 0
5.8480005 1.8604667 0.68898731 0
5.8560004 1.8534245 0.6894058 0
5.8650002 1.8466998 0.68987656 0
5.8730001 1.8395983 0.69029498 0
5.8820004 1.8328106 0.69076586 0
5.8900003 1.8256496 0.69118428 0
5.8990002 1.8187985 0.69165516 0
5.9080005 1.8119154 0.69212592 0
5.9160004 1.804664 0.6925444 0
5.9250002 1.7977175 0.69301522 0
5.9340005 1.7907387 0.69348598 0
5.9430003 1.783727 0.69395679 0
5.9510002 1.776355 0.69437528 0
5.9600005 1.7692804 0.69484603 0
5.9690003 1.7621734 0.69531685 0
5.7890005 1.9078653 0.67618024 0
5.7970004 1.9010305 0.6765843 0
5.8050003 1.8941672 0.67698836 0
5.8140001 1.8876319 0.67744291 0
5.8220005 1.8807088 0.67784697 0
5.8310003 1.8741106 0.67830151 0
5.8390002 1.8671279 0.67870557 0
5.8480005 1.8604667 0.67916012 0
5.8560004 1.8534245 0.67956418 0
5.8650002 1.8466998 0.68001878 0
5.8730001 1.8395983 0.68042278 0
5.8820004 1.8328106 0.68087733 0
5.8900003 1.8256496 0.68128145 0
5.8990002 1.8187985 0.68173599 0
5.9080005 1.8119154 0.68219054 0
5.9160004 1.804664 0.6825946 0
5.9250002 1.7977175 0.68304914 0
5.9340005 1.7907387 0.68350375 0
5.9430003 1.783727 0.68395829 0
5.9510002 1.776355 0.68436229 0
5.9600005 1.7692804 0.68481684 0
5.9690003 1.7621734 0.68527144 0
5.7890005 1.9078653 0.66645956 0
5.7970004 1.9010305 0.66684914 0
5.8050003 1.8941672 0.66723877 0
5.8140001 1.8876319 0.66767704 0
5.8220005 1.8807088 0.66806674 0
5.8310003 1.8741106 0.66850507 0
5.8390002 1.8671279 0.66889465 0
5.8480005 1.8604667 0.66933298 0
5.8560004 1.8534245 0.66972262 0
5.8650002 1.8466998 0.67016095 0
5.8730001 1.8395983 0.67055058 0
5.8820004 1.8328106 0.67098892 0
5.8900003 1.8256496 0.67137849 0
5.8990002 1.8187985 0.67181683 0
5.9080005 1.8119154 0.67225516 0
5.9160004 1.804664 0.67264479 0
5.9250002 1.7977175 0.67308307 0
5.9340005 1.7907387 0.67352146 0
5.9430003 1.783727 0.67395973 0
5.9510002 1.776355 0.67434937 0
5.9600005 1.7692804 0.6747877 0
5.9690003 1.7621734 0.67522603 0
5.7890005 1.9078653 0.65673882 0
5.7970004 1.9010305 0.65711403 0
5.8050003 1.8941672 0.65748918 0
5.8140001 1.8876319 0.6579113 0
5.8220005 1.8807088 0.65828645 0
5.8310003 1.8741106 0.65870857 0
5.8390002 1.8671279 0.65908372 0
5.8480005 1.8604667 0.65950584 0
5.8560004 1.8534245 0.659881 0
5.8650002 1.8466998 0.66030312 0
5.8730001 1.8395983 0.66067833 0
5.8820004 1.8328106 0.66110039 0
5.8900003 1.8256496 0.6614756 0
5.8990002 1.8187985 0.66189766 0
5.9080005 1.8119154 0.66231978 0
5.9160004 1.804664 0.66269493 0
5.9250002 1.7977175 0.66311705 0
5.9340005 1.7907387 0.66353917 0
5.9430003 1.783727 0.66396129 0
5.9510002 1.776355 0.66433644 0
5.9600005 1.7692804 0.66475856 0
5.9690003 1.7621734 0.66518062 0
5.7890005 1.9078653 0.64701807 0
5.7970004 1.9010305 0.6473788 0
5.8050003 1.8941672 0.64773959 0
5.8140001 1.8876319 0.64814544 0
5.8220005 1.8807088 0.64850622 0
5.8310003 1.8741106 0.64891207 0
5.8390002 1.8671279 0.64927286 0
5.8480005 1.8604667 0.64967871 0
5.8560004 1.8534245 0.65003943 0
5.8650002 1.8466998 0.65044528 0
5.8730001 1.8395983 0.65080607 0
5.8820004 1.8328106 0.65121192 0
5.8900003 1.8256496 0.6515727 0
5.8990002 1.8187985 0.65197855 0
5.9080005 1.8119154 0.6523844 0
5.9160004 1.804664 0.65274519 0
5.9250002 1.7977175 0.65315104 0
5.9340005 1.7907387 0.65355688 0
5.9430003 1.783727 0.65396273 0
5.9510002 1.776355 0.65432352 0
5.9600005 1.7692804 0.65472937 0
5.9690003 1.7621734 0.65513521 0
5.7890005 1.9078653 0.63729739 0
5.7970004 1.9010305 0.63764369 0
5.8050003 1.8941672 0.63799 0
5.8140001 1.8876319 0.63837963 0
5.8220005 1.8807088 0.638726 0
5.8310003 1.8741106 0.63911557 0
5.8390002 1.8671279 0.63946193 0
5.8480005 1.8604667 0.63985157 0
5.8560004 1.8534245 0.64019787 0
5.8650002 1.8466998 0.64058751 0
5.8730001 1.8395983 0.64093381 0
5.8820004 1.8328106 0.64132345 0
5.8900003 1.8256496 0.64166981 0
5.8990002 1.8187985 0.64205939 0
5.9080005 1.8119154 0.64244902 0
5.9160004 1.804664 0.64279532 0
5.9250002 1.7977175 0.64318502 0
5.9340005 1.7907387 0.6435746 0
5.9430003 1.783727 0.64396423 0
5.9510002 1.776355 0.64431053 0
5.9600005 1.7692804 0.64470017 0
5.9690003 1.7621734 0.64508981 0
5.7890005 1.9078653 0.62757665 0
5.7970004 1.9010305 0.62790853 0
5.8050003 1.8941672 0.62824041 0
5.8140001 1.8876319 0.62861383 0
5.8220005 1.8807088 0.62894571 0
5.8310003 1.8741106 0.62931907 0
5.8390002 1.8671279 0.62965101 0
5.8480005 1.8604667 0.63002443 0
5.8560004 1.8534245 0.63035631 0
5.8650002 1.8466998 0.63072968 0
5.8730001 1.8395983 0.63106155 0
5.8820004 1.8328106 0.63143498 0
5.8900003 1.8256496 0.63176686 0
5.8990002 1.8187985 0.63214028 0
5.9080005 1.8119154 0.63251364 0
5.9160004 1.804664 0.63284552 0
5.9250002 1.7977175 0.63321894 0
5.9340005 1.7907387 0.63359237 0
5.9430003 1.783727 0.63396573 0
5.9510002 1.776355 0.63429761 0
5.9600005 1.7692804 0.63467103 0
5.9690003 1.7621734 0.6350444 0
5.7890005 1.9078653 0.61785591 0
5.7970004 1.9010305 0.61817336 0
5.8050003 1.8941672 0.61849082 0
5.8140001 1.8876319 0.61884797 0
5.8220005 1.8807088 0.61916548 0
5.8310003 1.8741106 0.61952263 0
5.8390002 1.8671279 0.61984009 0
5.8480005 1.8604667 0.6201973 0
5.8560004 1.8534245 0.62051475 0
5.8650002 1.8466998 0.6208719 0
5.8730001 1.8395983 0.62118936 0
5.8820004 1.8328106 0.62154651 0
5.8900003 1.8256496 0.62186396 0
5.8990002 1.8187985 0.62222111 0
5.9080005 1.8119154 0.62257826 0
5.9160004 1.804664 0.62289572 0
5.9250002 1.7977175 0.62325287 0
5.9340005 1.7907387 0.62361008 0
5.9430003 1.783727 0.62396723 0
5.9510002 1.776355 0.62428468 0
5.9600005 1.7692804 0.62464184 0
5.9690003 1.7621734 0.62499899 0
5.7890005 1.9078653 0.60813522 0
5.7970004 1.9010305 0.60843825 0
5.8050003 1.8941672 0.60874128 0
5.8140001 1.8876319 0.60908216 0
5.8220005 1.8807088 0.60938525 0
5.8310003 1.8741106 0.60972613 0
5.8390002 1.8671279 0.61002916 0
5.8480005 1.8604667 0.6103701 0
5.8560004 1.8534245 0.61067313 0
5.8650002 1.8466998 0.61101407 0
5.8730001 1.8395983 0.6113171 0
5.8820004 1.8328106 0.61165804 0
5.8900003 1.8256496 0.61196107 0
5.8990002 1.8187985 0.61230195 0
5.9080005 1.8119154 0.61264288 0
5.9160004 1.804664 0.61294591 0
5.9250002 1.7977175 0.61328685 0
5.9340005 1.7907387 0.61362779 0
5.9430003 1.783727 0.61396873 0
5.9510002 1.776355 0.61427176 0
5.9600005 1.7692804 0.6146127 0
5.9690003 1.7621734 0.61495358 0
5.7890005 1.9078653 0.59841448 0
5.7970004 1.9010305 0.59870309 0
5.8050003 1.8941672 0.59899169 0
5.8140001 1.8876319 0.59931636 0
5.8220005 1.8807088 0.59960496 0
5.8310003 1.8741106 0.59992969 0
5.8390002 1.8671279 0.6002183 0
5.8480005 1.8604667 0.60054296 0
5.8560004 1.8534245 0.60083157 0
5.8650002 1.8466998 0.60115623 0
5.8730001 1.8395983 0.60144484 0
5.8820004 1.8328106 0.60176957 0
5.8900003 1.8256496 0.60205817 0
5.8990002 1.8187985 0.60238284 0
5.9080005 1.8119154 0.60270751 0
5.9160004 1.804664 0.60299611 0
5.9250002 1.7977175 0.60332084 0
5.9340005 1.7907387 0.6036455 0
5.9430003 1.783727 0.60397017 0
5.9510002 1.776355 0.60425878 0
5.9600005 1.7692804 0.6045835 0
5.7890005 1.9078653 0.58869374 0
5.7970004 1.9010305 0.58896792 0
5.8050003 1.8941672 0.5892421 0
5.8140001 1.8876319 0.58955055 0
5.8220005 1.8807088 0.58982474 0
5.8310003 1.8741106 0.59013319 0
5.8390002 1.8671279 0.59040737 0
5.8480005 1.8604667 0.59071583 0
5.8560004 1.8534245 0.59099001 0
5.8650002 1.8466998 0.59129846 0
5.8730001 1.8395983 0.59157264 0
5.8820004 1.8328106 0.59188104 0
5.8900003 1.8256496 0.59215522 0
5.8990002 1.8187985 0.59246373 0
5.9080005 1.8119154 0.59277213 0
5.9160004 1.804664 0.59304631 0
5.9250002 1.7977175 0.59335476 0
5.9340005 1.7907387 0.59366322 0
5.9430003 1.783727 0.59397167 0
5.9510002 1.776355 0.59424585 0
5.9600005 1.7692804 0.59455431 0
5.7890005 1.9078653 0.57897305 0
5.7970004 1.9010305 0.57923275 0
5.8050003 1.8941672 0.57949251 0
5.8140001 1.8876319 0.57978475 0
5.8220005 1.8807088 0.58004451 0
5.8310003 1.8741106 0.58033669 0
5.8390002 1.8671279 0.58059645 0
5.8480005 1.8604667 0.58088869 0
5.8560004 1.8534245 0.58114839 0
5.8650002 1.8466998 0.58144063 0
5.8730001 1.8395983 0.58170038 0
5.8820004 1.8328106 0.58199263 0
5.8900003 1.8256496 0.58225238 0
5.8990002 1.8187985 0.58254457 0
5.9080005 1.8119154 0.58283675 0
5.9160004 1.804664 0.5830965 0
5.9250002 1.7977175 0.58338875 0
5.9340005 1.7907387 0.58368099 0
5.9430003 1.783727 0.58397317 0
5.9510002 1.776355 0.58423293 0
5.9600005 1.7692804 0.58452517 0
5.7890005 1.9078653 0.56925231 0
5.7970004 1.9010305 0.56949759 0
5.8050003 1.8941672 0.56974292 0
5.8140001 1.8876319 0.57001889 0
5.8220005 1.8807088 0.57026422 0
5.8310003 1.8741106 0.57054019 0
5.8390002 1.8671279 0.57078552 0
5.8480005 1.8604667 0.57106149 0
5.8560004 1.8534245 0.57130682 0
5.8650002 1.8466998 0.57158279 0
5.8730001 1.8395983 0.57182813 0
5.8820004 1.8328106 0.5721041 0
5.8900003 1.8256496 0.57234943 0
5.8990002 1.8187985 0.5726254 0
5.9080005 1.8119154 0.57290143 0
5.9160004 1.804664 0.5731467 0
5.9250002 1.7977175 0.57342267 0
5.9340005 1.7907387 0.5736987 0
5.9430003 1.783727 0.57397467 0
5.9510002 1.776355 0.57422 0
5.9600005 1.7692804 0.57449597 0
5.7890005 1.9078653 0.55953157 0
5.7970004 1.9010305 0.55976248 0
5.8050003 1.8941672 0.55999333 0
5.8140001 1.8876319 0.56025308 0
5.8220005 1.8807088 0.56048399 0
5.8310003 1.8741106 0.56074375 0
5.8390002 1.8671279 0.5609746 0
5.8480005 1.8604667 0.56123435 0
5.8560004 1.8534245 0.56146526 0
5.8650002 1.8466998 0.56172502 0
5.8730001 1.8395983 0.56195587 0
5.8820004 1.8328106 0.56221563 0
5.8900003 1.8256496 0.56244653 0
5.8990002 1.8187985 0.56270629 0
5.9080005 1.8119154 0.56296605 0
5.9160004 1.804664 0.5631969 0
5.9250002 1.7977175 0.56345665 0
5.9340005 1.7907387 0.56371641 0
5.9430003 1.783727 0.56397617 0
5.9510002 1.776355 0.56420708 0
5.9600005 1.7692804 0.56446683 0
5.7890005 1.9078653 0.54981089 0
5.7970004 1.9010305 0.55002731 0
5.8050003 1.8941672 0.55024374 0
5.8140001 1.8876319 0.55048728 0
5.8220005 1.8807088 0.55070376 0
5.8310003 1.8741106 0.55094725 0
5.8390002 1.8671279 0.55116367 0
5.8480005 1.8604667 0.55140722 0
5.8560004 1.8534245 0.5516237 0
5.8650002 1.8466998 0.55186719 0
5.8730001 1.8395983 0.55208361 0
5.8820004 1.8328106 0.55232716 0
5.8900003 1.8256496 0.55254364 0
5.8990002 1.8187985 0.55278713 0
5.9080005 1.8119154 0.55303067 0
5.9160004 1.804664 0.55324709 0
5.9250002 1.7977175 0.55349064 0
5.9340005 1.7907387 0.55373412 0
5.9430003 1.783727 0.55397767 0
5.9510002 1.776355 0.55419409 0
5.9600005 1.7692804 0.55443764 0
5.7890005 1.9078653 0.54009014 0
5.7970004 1.9010305 0.54029214 0
5.8050003 1.8941672 0.5404942 0
5.8140001 1.8876319 0.54072142 0
5.8220005 1.8807088 0.54092348 0
5.8310003 1.8741106 0.54115075 0
5.8390002 1.8671279 0.54135281 0
5.8480005 1.8604667 0.54158008 0
5.8560004 1.8534245 0.54178208 0
5.8650002 1.8466998 0.54200935 0
5.8730001 1.8395983 0.54221141 0
5.8820004 1.8328106 0.54243869 0
5.8900003 1.8256496 0.54264069 0
5.8990002 1.8187985 0.54286802 0
5.9080005 1.8119154 0.54309529 0
5.9160004 1.804664 0.54329729 0
5.9250002 1.7977175 0.54352456 0
5.9340005 1.7907387 0.54375184 0
5.9430003 1.783727 0.54397917 0
5.9510002 1.776355 0.54418117 0
5.9600005 1.7692804 0.54440844 0
5.7890005 1.9078653 0.5303694 0
5.7970004 1.9010305 0.53055704 0
5.8050003 1.8941672 0.53074461 0
5.8140001 1.8876319 0.53095567 0
5.8220005 1.8807088 0.53114325 0
5.8310003 1.8741106 0.53135431 0
5.8390002 1.8671279 0.53154188 0
5.8480005 1.8604667 0.53175294 0
5.8560004 1.8534245 0.53194052 0
5.8650002 1.8466998 0.53215158 0
5.8730001 1.8395983 0.53233916 0
5.8820004 1.8328106 0.53255022 0
5.8900003 1.8256496 0.53273779 0
5.8990002 1.8187985 0.53294885 0
5.9080005 1.8119154 0.53315991 0
5.9160004 1.804664 0.53334749 0
5.9250002 1.7977175 0.53355855 0
5.9340005 1.7907387 0.53376961 0
5.9430003 1.783727 0.53398061 0
5.9510002 1.776355 0.53416824 0
5.9600005 1.7692804 0.53437924 0
5.7890005 1.9078653 0.52064872 0
5.7970004 1.9010305 0.52082187 0
5.8050003 1.8941672 0.52099502 0
5.8140001 1.8876319 0.52118981 0
5.8220005 1.8807088 0.52136302 0
5.8310003 1.8741106 0.52155781 0
5.8390002 1.8671279 0.52173096 0
5.8480005 1.8604667 0.52192581 0
5.8560004 1.8534245 0.52209896 0
5.8650002 1.8466998 0.52229375 0
5.8730001 1.8395983 0.5224669 0
5.8820004 1.8328106 0.52266175 0
5.8900003 1.8256496 0.5228349 0
5.8990002 1.8187985 0.52302969 0
5.9080005 1.8119154 0.52322453 0
5.9160004 1.804664 0.52339768 0
5.9250002 1.7977175 0.52359247 0
5.9340005 1.7907387 0.52378732 0
5.9430003 1.783727 0.52398211 0
5.9510002 1.776355 0.52415526 0
5.9600005 1.7692804 0.52435011 0
5.7890005 1.9078653 0.51092798 0
5.7970004 1.9010305 0.5110867 0
5.8050003 1.8941672 0.51124543 0
5.8140001 1.8876319 0.51142401 0
5.8220005 1.8807088 0.51158273 0
5.8310003 1.8741106 0.51176131 0
5.8390002 1.8671279 0.51192003 0
5.8480005 1.8604667 0.51209867 0
5.8560004 1.8534245 0.51225734 0
5.8650002 1.8466998 0.51243591 0
5.8730001 1.8395983 0.5125947 0
5.8820004 1.8328106 0.51277328 0
5.8900003 1.8256496 0.512932 0
5.8990002 1.8187985 0.51311058 0
5.9080005 1.8119154 0.51328915 0
5.9160004 1.804664 0.51344788 0
5.9250002 1.7977175 0.51362646 0
5.9340005 1.7907387 0.51380503 0
5.9430003 1.783727 0.51398361 0
5.9510002 1.776355 0.51414233 0
5.9600005 1.7692804 0.51432091 0
5.7890005 1.9078653 0.50120723 0
5.7970004 1.9010305 0.50135154 0
5.8050003 1.8941672 0.50149584 0
5.8140001 1.8876319 0.5016582 0
5.8220005 1.8807088 0.5018025 0
5.8310003 1.8741106 0.50196481 0
5.8390002 1.8671279 0.50210917 0
5.8480005 1.8604667 0.50227147 0
5.8560004 1.8534245 0.50241578 0
5.8650002 1.8466998 0.50257814 0
5.8730001 1.8395983 0.50272244 0
5.8820004 1.8328106 0.50288481 0
5.8900003 1.8256496 0.50302911 0
5.8990002 1.8187985 0.50319141 0
5.9080005 1.8119154 0.50335377 0
5.9160004 1.804664 0.50349808 0
5.9250002 1.7977175 0.50366044 0
5.9340005 1.7907387 0.50382274 0
5.9430003 1.783727 0.50398511 0
5.9510002 1.776355 0.50412941 0
5.9600005 1.7692804 0.50429177 0
5.7890005 1.9078653 0.49148652 0
5.7970004 1.9010305 0.4916164 0
5.8050003 1.8941672 0.49174625 0
5.8140001 1.8876319 0.49189237 0
5.8220005 1.8807088 0.49202225 0
5.8310003 1.8741106 0.49216837 0
5.8390002 1.8671279 0.49229825 0
5.8480005 1.8604667 0.49244434 0
5.8560004 1.8534245 0.49257421 0
5.8650002 1.8466998 0.49272031 0
5.8730001 1.8395983 0.49285018 0
5.8820004 1.8328106 0.49299631 0
5.8900003 1.8256496 0.49312618 0
5.8990002 1.8187985 0.49327227 0
5.9080005 1.8119154 0.4934184 0
5.9160004 1.804664 0.49354827 0
5.9250002 1.7977175 0.49369437 0
5.9340005 1.7907387 0.49384049 0
5.9430003 1.783727 0.49398661 0
5.9510002 1.776355 0.49411646 0
5.9600005 1.7692804 0.49426258 0
5.7890005 1.9078653 0.48176581 0
5.7970004 1.9010305 0.48188123 0
5.8050003 1.8941672 0.48199669 0
5.8140001 1.8876319 0.48212656 0
5.8220005 1.8807088 0.48224199 0
5.8310003 1.8741106 0.48237187 0
5.8390002 1.8671279 0.48248732 0
5.8480005 1.8604667 0.4826172 0
5.8560004 1.8534245 0.48273265 0
5.8650002 1.8466998 0.4828625 0
5.8730001 1.8395983 0.48297796 0
5.8820004 1.8328106 0.48310784 0
5.8900003 1.8256496 0.48322326 0
5.8990002 1.8187985 0.48335314 0
5.9080005 1.8119154 0.48348302 0
5.9160004 1.804664 0.48359847 0
5.9250002 1.7977175 0.48372835 0
5.9340005 1.7907387 0.48385823 0
5.9430003 1.783727 0.48398808 0
5.9510002 1.776355 0.48410353 0
5.9600005 1.7692804 0.48423341 0
5.7890005 1.9078653 0.47204506 0
5.7970004 1.9010305 0.47214609 0
5.8050003 1.8941672 0.47224709 0
5.8140001 1.8876319 0.47236073 0
5.8220005 1.8807088 0.47246176 0
5.8310003 1.8741106 0.4725754 0
5.8390002 1.8671279 0.4726764 0
5.8480005 1.8604667 0.47279006 0
5.8560004 1.8534245 0.47289106 0
5.8650002 1.8466998 0.4730047 0
5.8730001 1.8395983 0.4731057 0
5.8820004 1.8328106 0.47321934 0
5.8900003 1.8256496 0.47332036 0
5.8990002 1.8187985 0.473434 0
5.9080005 1.8119154 0.47354764 0
5.9160004 1.804664 0.47364867 0
5.9250002 1.7977175 0.4737623 0
5.9340005 1.7907387 0.47387594 0
5.9430003 1.783727 0.47398958 0
5.9510002 1.776355 0.47409058 0
5.9600005 1.7692804 0.47420424 0
5.7890005 1.9078653 0.46232435 0
5.7970004 1.9010305 0.46241093 0
5.8050003 1.8941672 0.4624975 0
5.8140001 1.8876319 0.46259493 0
5.8220005 1.8807088 0.4626815 0
5.8310003 1.8741106 0.46277893 0
5.8390002 1.8671279 0.4628655 0
5.8480005 1.8604667 0.4629629 0
5.8560004 1.8534245 0.46304947 0
5.8650002 1.8466998 0.4631469 0
5.8730001 1.8395983 0.46323347 0
5.8820004 1.8328106 0.46333086 0
5.8900003 1.8256496 0.46341747 0
5.8990002 1.8187985 0.46351486 0
5.9080005 1.8119154 0.46361226 0
5.9160004 1.804664 0.46369886 0
5.9250002 1.7977175 0.46379626 0
5.9340005 1.7907387 0.46389365 0
5.9430003 1.783727 0.46399108 0
5.9510002 1.776355 0.46407765 0
5.9600005 1.7692804 0.46417505 0
5.7890005 1.9078653 0.45260364 0
5.7970004 1.9010305 0.45267579 0
5.8050003 1.8941672 0.45274794 0
5.8140001 1.8876319 0.45282909 0
5.8220005 1.8807088 0.45290124 0
5.8310003 1.8741106 0.45298243 0
5.8390002 1.8671279 0.45305458 0
5.8480005 1.8604667 0.45313576 0
5.8560004 1.8534245 0.45320791 0
5.8650002 1.8466998 0.45328906 0
5.8730001 1.8395983 0.45336121 0
5.8820004 1.8328106 0.45344239 0
5.8900003 1.8256496 0.45351455 0
5.8990002 1.8187985 0.45359573 0
5.9080005 1.8119154 0.45367688 0
5.9160004 1.804664 0.45374906 0
5.9250002 1.7977175 0.45383021 0
5.9340005 1.7907387 0.45391139 0
5.9430003 1.783727 0.45399255 0
5.9510002 1.776355 0.45406473 0
5.9600005 1.7692804 0.45414588 0
5.7890005 1.9078653 0.4428829 0
5.7970004 1.9010305 0.44294062 0
5.8050003 1.8941672 0.44299835 0
5.8140001 1.8876319 0.44306329 0
5.8220005 1.8807088 0.44312102 0
5.8310003 1.8741106 0.44318596 0
5.8390002 1.8671279 0.44324365 0
5.8480005 1.8604667 0.44330859 0
5.8560004 1.8534245 0.44336632 0
5.8650002 1.8466998 0.44343126 0
5.8730001 1.8395983 0.44348899 0
5.8820004 1.8328106 0.44355392 0
5.8900003 1.8256496 0.44361165 0
5.8990002 1.8187985 0.44367659 0
5.9080005 1.8119154 0.44374153 0
5.9160004 1.804664 0.44379923 0
5.9250002 1.7977175 0.44386417 0
5.9340005 1.7907387 0.44392911 0
5.9430003 1.783727 0.44399405 0
5.9510002 1.776355 0.44405177 0
5.9600005 1.7692804 0.44411671 0
5.7890005 1.9078653 0.43316218 0
5.7970004 1.9010305 0.43320549 0
5.8050003 1.8941672 0.43324876 0
5.8140001 1.8876319 0.43329746 0
5.8220005 1.8807088 0.43334076 0
5.8310003 1.8741106 0.43338946 0
5.8390002 1.8671279 0.43343276 0
5.8480005 1.8604667 0.43348145 0
5.8560004 1.8534245 0.43352476 0
5.8650002 1.8466998 0.43357345 0
5.8730001 1.8395983 0.43361673 0
5.8820004 1.8328106 0.43366545 0
5.8900003 1.8256496 0.43370873 0
5.8990002 1.8187985 0.43375742 0
5.9080005 1.8119154 0.43380615 0
5.9160004 1.804664 0.43384942 0
5.9250002 1.7977175 0.43389815 0
5.9340005 1.7907387 0.43394685 0
