# .PCD v0.7 - Point Cloud Data file format
VERSION 0.7
FIELDS x y z intensity
SIZE 4 4 4 4
TYPE F F F F
COUNT 1 1 1 1
WIDTH 1416
HEIGHT 1
VIEWPOINT 0 0 0 1 0 0 0
POINTS 1416
DATA ascii
6.3090005 -2.6573822 0.60651541 0
6.3020005 -2.6649349 0.60627544 0
6.2950006 -2.672462 0.60603559 0
6.2880006 -2.6799641 0.60579562 0
6.2820005 -2.6878903 0.60559005 0
6.2750006 -2.6953435 0.60535014 0
6.2680006 -2.7027717 0.60511023 0
6.2610002 -2.7101743 0.60487032 0
6.2550006 -2.7180085 0.60466468 0
6.2480001 -2.7253621 0.60442472 0
6.2410002 -2.7326913 0.60418487 0
6.2350006 -2.7404566 0.60397923 0
6.2280002 -2.7477367 0.60373932 0
6.2210002 -2.7549915 0.60349941 0
6.2150002 -2.7626884 0.60329378 0
6.2080002 -2.7698948 0.60305387 0
6.2020001 -2.7775464 0.60284823 0
6.1950002 -2.784704 0.60260832 0
6.1880002 -2.7918363 0.60236841 0
6.1820002 -2.7994194 0.60216278 0
6.1750002 -2.8065028 0.60192287 0
6.1690001 -2.8140409 0.60171723 0
6.1620002 -2.8210759 0.60147732 0
6.1560001 -2.8285689 0.60127169 0
6.1490002 -2.8355551 0.60103178 0
6.1430006 -2.843003 0.60082614 0
6.1360002 -2.8499405 0.60058624 0
6.1300006 -2.8573437 0.60038066 0
6.1230001 -2.8642321 0.60014069 0
6.1170006 -2.8715899 0.59993505 0
6.1110005 -2.878926 0.59972942 0
6.1040006 -2.8857424 0.59948957 0
6.0980005 -2.8930335 0.59928393 0
6.0920005 -2.9003029 0.5990783 0
6.0850005 -2.9070473 0.59883833 0
6.0790005 -2.9142716 0.59863275 0
6.0730004 -2.921474 0.59842706 0
6.0660005 -2.9281466 0.59818721 0
6.0600004 -2.9353042 0.59798157 0
6.0540004 -2.9424398 0.59777594 0
6.0480003 -2.949554 0.5975703 0
6.0410004 -2.9561307 0.59733039 0
6.0350003 -2.9631999 0.59712476 0
6.0290003 -2.9702473 0.59691912 0
6.0230002 -2.977273 0.59671348 0
6.0160003 -2.9837542 0.59647357 0
6.0100002 -2.9907348 0.59626794 0
6.0040002 -2.997694 0.5960623 0
5.9980001 -3.0046313 0.59585667 0
5.9920006 -3.0115473 0.59565103 0
5.9860005 -3.0184414 0.59544539 0
5.9800005 -3.0253141 0.59523976 0
5.9740005 -3.0321651 0.59503412 0
5.9670005 -3.0384564 0.59479421 0
5.9610004 -3.0452623 0.59458858 0
5.9550004 -3.0520465 0.59438294 0
5.9490004 -3.0588088 0.59417731 0
5.9430003 -3.0655499 0.59397167 0
5.9370003 -3.072269 0.59376603 0
5.9310002 -3.0789664 0.5935604 0
5.9250002 -3.0856421 0.59335476 0
5.9190001 -3.0922964 0.59314913 0
5.9130006 -3.0989294 0.59294355 0
5.9070005 -3.1055403 0.59273791 0
5.9010005 -3.1121294 0.59253228 0
5.8960004 -3.1192565 0.59236085 0
5.8900003 -3.1258042 0.59215522 0
5.8840003 -3.1323302 0.59194964 0
5.8780003 -3.1388347 0.59174395 0
5.8720002 -3.1453176 0.59153831 0
5.8660002 -3.1517789 0.59133273 0
5.8600001 -3.1582184 0.59112704 0
5.8540006 -3.1646366 0.59092146 0
6.4200006 -2.5326939 0.59946066 0
6.4130006 -2.5406489 0.59923339 0
6.4060006 -2.5485783 0.59900612 0
6.3990002 -2.5564826 0.59877884 0
6.3920002 -2.5643616 0.59855157 0
6.3850002 -2.5722153 0.5983243 0
6.3780003 -2.580044 0.59809697 0
6.3710003 -2.587847 0.59786969 0
6.3640003 -2.5956252 0.59764242 0
6.3570004 -2.6033781 0.59741515 0
6.3500004 -2.6111054 0.59718788 0
6.3430004 -2.6188078 0.5969606 0
6.3360004 -2.6264846 0.59673333 0
6.3300004 -2.634573 0.59653848 0
6.3230004 -2.6422014 0.59631121 0
6.3160005 -2.6498046 0.59608394 0
6.3090005 -2.6573822 0.59585667 0
6.3020005 -2.6649349 0.59562939 0
6.2950006 -2.672462 0.59540212 0
6.2880006 -2.6799641 0.59517485 0
6.2820005 -2.6878903 0.59498 0
6.2750006 -2.6953435 0.59475273 0
6.2680006 -2.7027717 0.59452546 0
6.2610002 -2.7101743 0.59429818 0
6.2550006 -2.7180085 0.59410334 0
6.2480001 -2.7253621 0.59387606 0
6.2410002 -2.7326913 0.59364879 0
6.2350006 -2.7404566 0.593454 0
6.2280002 -2.7477367 0.59322667 0
6.2210002 -2.7549915 0.59299946 0
6.2150002 -2.7626884 0.59280461 0
6.2080002 -2.7698948 0.59257734 0
6.2020001 -2.7775464 0.59238255 0
6.1950002 -2.784704 0.59215522 0
6.1880002 -2.7918363 0.59192801 0
6.1820002 -2.7994194 0.59173316 0
6.1750002 -2.8065028 0.59150589 0
6.1690001 -2.8140409 0.5913111 0
6.1620002 -2.8210759 0.59108377 0
6.1560001 -2.8285689 0.59088898 0
6.1490002 -2.8355551 0.5906617 0
6.1430006 -2.843003 0.59046686 0
6.1360002 -2.8499405 0.59023958 0
6.1300006 -2.8573437 0.5900448 0
6.1230001 -2.8642321 0.58981752 0
6.1170006 -2.8715899 0.58962274 0
6.1110005 -2.878926 0.58942789 0
6.1040006 -2.8857424 0.58920062 0
6.0980005 -2.8930335 0.58900583 0
6.0920005 -2.9003029 0.58881098 0
6.0850005 -2.9070473 0.58858371 0
6.0790005 -2.9142716 0.58838892 0
6.0730004 -2.921474 0.58819407 0
6.0660005 -2.9281466 0.5879668 0
6.0600004 -2.9353042 0.58777201 0
6.0540004 -2.9424398 0.58757716 0
6.0480003 -2.949554 0.58738238 0
6.0410004 -2.9561307 0.5871551 0
6.0350003 -2.9631999 0.58696032 0
6.0290003 -2.9702473 0.58676547 0
6.0230002 -2.977273 0.58657068 0
6.0160003 -2.9837542 0.58634341 0
6.0100002 -2.9907348 0.58614856 0
6.0040002 -2.997694 0.58595377 0
5.9980001 -3.0046313 0.58575892 0
5.9920006 -3.0115473 0.58556414 0
5.9860005 -3.0184414 0.58536935 0
5.9800005 -3.0253141 0.5851745 0
5.9740005 -3.0321651 0.58497971 0
5.9670005 -3.0384564 0.58475244 0
5.9610004 -3.0452623 0.58455759 0
5.9550004 -3.0520465 0.5843628 0
5.9490004 -3.0588088 0.58416796 0
5.9430003 -3.0655499 0.58397317 0
5.9370003 -3.072269 0.58377838 0
5.9310002 -3.0789664 0.58358353 0
5.9250002 -3.0856421 0.58338875 0
5.9190001 -3.0922964 0.5831939 0
5.9130006 -3.0989294 0.58299911 0
5.9070005 -3.1055403 0.58280432 0
5.9010005 -3.1121294 0.58260953 0
5.8960004 -3.1192565 0.58244717 0
5.8900003 -3.1258042 0.58225238 0
5.8840003 -3.1323302 0.58205754 0
5.8780003 -3.1388347 0.58186269 0
5.8720002 -3.1453176 0.5816679 0
5.8660002 -3.1517789 0.58147311 0
5.8600001 -3.1582184 0.58127826 0
5.8540006 -3.1646366 0.58108348 0
6.4200006 -2.5326939 0.58860177 0
6.4130006 -2.5406489 0.58838713 0
6.4060006 -2.5485783 0.58817244 0
6.3990002 -2.5564826 0.5879578 0
6.3920002 -2.5643616 0.5877431 0
6.3850002 -2.5722153 0.58752847 0
6.3780003 -2.580044 0.58731383 0
6.3710003 -2.587847 0.58709919 0
6.3640003 -2.5956252 0.5868845 0
6.3570004 -2.6033781 0.58666986 0
6.3500004 -2.6111054 0.58645523 0
6.3430004 -2.6188078 0.58624053 0
6.3360004 -2.6264846 0.58602589 0
6.3300004 -2.634573 0.58584189 0
6.3230004 -2.6422014 0.58562726 0
6.3160005 -2.6498046 0.58541262 0
6.3090005 -2.6573822 0.58519793 0
6.3020005 -2.6649349 0.58498335 0
6.2950006 -2.672462 0.58476865 0
6.2880006 -2.6799641 0.58455402 0
6.2820005 -2.6878903 0.58437002 0
6.2750006 -2.6953435 0.58415538 0
6.2680006 -2.7027717 0.58394074 0
6.2610002 -2.7101743 0.58372605 0
6.2550006 -2.7180085 0.58354211 0
6.2480001 -2.7253621 0.58332741 0
6.2410002 -2.7326913 0.58311278 0
6.2350006 -2.7404566 0.58292878 0
6.2280002 -2.7477367 0.58271408 0
6.2210002 -2.7549915 0.58249944 0
6.2150002 -2.7626884 0.58231544 0
6.2080002 -2.7698948 0.58210081 0
6.2020001 -2.7775464 0.58191681 0
6.1950002 -2.784704 0.58170217 0
6.1880002 -2.7918363 0.58148754 0
6.1820002 -2.7994194 0.58130354 0
6.1750002 -2.8065028 0.5810889 0
6.1690001 -2.8140409 0.5809049 0
6.1620002 -2.8210759 0.58069026 0
6.1560001 -2.8285689 0.58050627 0
6.1490002 -2.8355551 0.58029163 0
6.1430006 -2.843003 0.58010763 0
6.1360002 -2.8499405 0.57989299 0
6.1300006 -2.8573437 0.57970899 0
6.1230001 -2.8642321 0.5794943 0
6.1170006 -2.8715899 0.57931036 0
6.1110005 -2.878926 0.57912636 0
6.1040006 -2.8857424 0.57891172 0
6.0980005 -2.8930335 0.57872772 0
6.0920005 -2.9003029 0.57854372 0
6.0850005 -2.9070473 0.57832909 0
6.0790005 -2.9142716 0.57814509 0
6.0730004 -2.921474 0.57796109 0
6.0660005 -2.9281466 0.57774645 0
6.0600004 -2.9353042 0.57756245 0
6.0540004 -2.9424398 0.57737845 0
6.0480003 -2.949554 0.57719445 0
6.0410004 -2.9561307 0.57697982 0
6.0350003 -2.9631999 0.57679582 0
6.0290003 -2.9702473 0.57661182 0
6.0230002 -2.977273 0.57642782 0
6.0160003 -2.9837542 0.57621318 0
6.0100002 -2.9907348 0.57602918 0
6.0040002 -2.997694 0.57584524 0
5.9980001 -3.0046313 0.57566124 0
5.9920006 -3.0115473 0.57547724 0
5.9860005 -3.0184414 0.57529324 0
5.9800005 -3.0253141 0.57510924 0
5.9740005 -3.0321651 0.5749253 0
5.9670005 -3.0384564 0.57471061 0
5.9610004 -3.0452623 0.57452661 0
5.9550004 -3.0520465 0.57434267 0
5.9490004 -3.0588088 0.57415867 0
5.9430003 -3.0655499 0.57397467 0
5.9370003 -3.072269 0.57379067 0
5.9310002 -3.0789664 0.57360667 0
5.9250002 -3.0856421 0.57342267 0
5.9190001 -3.0922964 0.57323873 0
5.9130006 -3.0989294 0.57305473 0
5.9070005 -3.1055403 0.57287073 0
5.9010005 -3.1121294 0.57268673 0
5.8960004 -3.1192565 0.57253343 0
5.8900003 -3.1258042 0.57234943 0
5.8840003 -3.1323302 0.57216543 0
5.8780003 -3.1388347 0.57198143 0
5.8720002 -3.1453176 0.57179749 0
5.8660002 -3.1517789 0.57161349 0
5.8600001 -3.1582184 0.57142949 0
5.8540006 -3.1646366 0.57124555 0
6.4200006 -2.5326939 0.57774282 0
6.4130006 -2.5406489 0.57754081 0
6.4060006 -2.5485783 0.57733876 0
6.3990002 -2.5564826 0.57713675 0
6.3920002 -2.5643616 0.5769347 0
6.3850002 -2.5722153 0.5767327 0
6.3780003 -2.580044 0.57653069 0
6.3710003 -2.587847 0.57632864 0
6.3640003 -2.5956252 0.57612658 0
6.3570004 -2.6033781 0.57592458 0
6.3500004 -2.6111054 0.57572258 0
6.3430004 -2.6188078 0.57552052 0
6.3360004 -2.6264846 0.57531852 0
6.3300004 -2.634573 0.57514536 0
6.3230004 -2.6422014 0.5749433 0
6.3160005 -2.6498046 0.5747413 0
6.3090005 -2.6573822 0.57453924 0
6.3020005 -2.6649349 0.57433724 0
6.2950006 -2.672462 0.57413518 0
6.2880006 -2.6799641 0.57393318 0
6.2820005 -2.6878903 0.57376003 0
6.2750006 -2.6953435 0.57355797 0
6.2680006 -2.7027717 0.57335597 0
6.2610002 -2.7101743 0.57315391 0
6.2550006 -2.7180085 0.57298076 0
6.2480001 -2.7253621 0.5727787 0
6.2410002 -2.7326913 0.5725767 0
6.2350006 -2.7404566 0.57240355 0
6.2280002 -2.7477367 0.57220149 0
6.2210002 -2.7549915 0.57199949 0
6.2150002 -2.7626884 0.57182634 0
6.2080002 -2.7698948 0.57162428 0
6.2020001 -2.7775464 0.57145113 0
6.1950002 -2.784704 0.57124913 0
6.1880002 -2.7918363 0.57104707 0
6.1820002 -2.7994194 0.57087392 0
6.1750002 -2.8065028 0.57067192 0
6.1690001 -2.8140409 0.5704987 0
6.1620002 -2.8210759 0.5702967 0
6.1560001 -2.8285689 0.57012355 0
6.1490002 -2.8355551 0.56992149 0
6.1430006 -2.843003 0.56974834 0
6.1360002 -2.8499405 0.56954634 0
6.1300006 -2.8573437 0.56937313 0
6.1230001 -2.8642321 0.56917113 0
6.1170006 -2.8715899 0.56899798 0
6.1110005 -2.878926 0.56882477 0
6.1040006 -2.8857424 0.56862277 0
6.0980005 -2.8930335 0.56844962 0
6.0920005 -2.9003029 0.56827641 0
6.0850005 -2.9070473 0.56807441 0
6.0790005 -2.9142716 0.56790125 0
6.0730004 -2.921474 0.5677281 0
6.0660005 -2.9281466 0.56752604 0
6.0600004 -2.9353042 0.56735289 0
6.0540004 -2.9424398 0.56717974 0
6.0480003 -2.949554 0.56700659 0
6.0410004 -2.9561307 0.56680453 0
6.0350003 -2.9631999 0.56663138 0
6.0290003 -2.9702473 0.56645823 0
6.0230002 -2.977273 0.56628501 0
6.0160003 -2.9837542 0.56608301 0
6.0100002 -2.9907348 0.56590986 0
6.0040002 -2.997694 0.56573665 0
5.9980001 -3.0046313 0.5655635 0
5.9920006 -3.0115473 0.56539035 0
5.9860005 -3.0184414 0.5652172 0
5.9800005 -3.0253141 0.56504405 0
5.9740005 -3.0321651 0.56487083 0
5.9670005 -3.0384564 0.56466883 0
5.9610004 -3.0452623 0.56449568 0
5.9550004 -3.0520465 0.56432247 0
5.9490004 -3.0588088 0.56414932 0
5.9430003 -3.0655499 0.56397617 0
5.9370003 -3.072269 0.56380296 0
5.9310002 -3.0789664 0.56362981 0
5.9250002 -3.0856421 0.56345665 0
5.9190001 -3.0922964 0.5632835 0
5.9130006 -3.0989294 0.56311035 0
5.9070005 -3.1055403 0.56293714 0
5.9010005 -3.1121294 0.56276399 0
5.8960004 -3.1192565 0.56261969 0
5.8900003 -3.1258042 0.56244653 0
5.8840003 -3.1323302 0.56227338 0
5.8780003 -3.1388347 0.56210017 0
5.8720002 -3.1453176 0.56192702 0
5.8660002 -3.1517789 0.56175387 0
5.8600001 -3.1582184 0.56158066 0
5.8540006 -3.1646366 0.56140757 0
6.4200006 -2.5326939 0.56688392 0
6.4130006 -2.5406489 0.5666945 0
6.4060006 -2.5485783 0.56650507 0
6.3990002 -2.5564826 0.56631571 0
6.3920002 -2.5643616 0.56612629 0
6.3850002 -2.5722153 0.56593692 0
6.3780003 -2.580044 0.5657475 0
6.3710003 -2.587847 0.56555808 0
6.3640003 -2.5956252 0.56536871 0
6.3570004 -2.6033781 0.56517929 0
6.3500004 -2.6111054 0.56498992 0
6.3430004 -2.6188078 0.5648005 0
6.3360004 -2.6264846 0.56461108 0
6.3300004 -2.634573 0.56444877 0
6.3230004 -2.6422014 0.56425935 0
6.3160005 -2.6498046 0.56406999 0
6.3090005 -2.6573822 0.56388056 0
6.3020005 -2.6649349 0.56369114 0
6.2950006 -2.672462 0.56350178 0
6.2880006 -2.6799641 0.56331235 0
6.2820005 -2.6878903 0.56315005 0
6.2750006 -2.6953435 0.56296062 0
6.2680006 -2.7027717 0.5627712 0
6.2610002 -2.7101743 0.56258178 0
6.2550006 -2.7180085 0.56241947 0
6.2480001 -2.7253621 0.56223005 0
6.2410002 -2.7326913 0.56204069 0
6.2350006 -2.7404566 0.56187832 0
6.2280002 -2.7477367 0.5616889 0
6.2210002 -2.7549915 0.56149954 0
6.2150002 -2.7626884 0.56133717 0
6.2080002 -2.7698948 0.56114781 0
6.2020001 -2.7775464 0.56098545 0
6.1950002 -2.784704 0.56079602 0
6.1880002 -2.7918363 0.56060666 0
6.1820002 -2.7994194 0.5604443 0
6.1750002 -2.8065028 0.56025493 0
6.1690001 -2.8140409 0.56009257 0
6.1620002 -2.8210759 0.55990314 0
6.1560001 -2.8285689 0.55974078 0
6.1490002 -2.8355551 0.55955142 0
6.1430006 -2.843003 0.55938905 0
6.1360002 -2.8499405 0.55919969 0
6.1300006 -2.8573437 0.55903733 0
6.1230001 -2.8642321 0.5588479 0
6.1170006 -2.8715899 0.5586856 0
6.1110005 -2.878926 0.55852324 0
6.1040006 -2.8857424 0.55833387 0
6.0980005 -2.8930335 0.55817151 0
6.0920005 -2.9003029 0.55800915 0
6.0850005 -2.9070473 0.55781978 0
6.0790005 -2.9142716 0.55765742 0
6.0730004 -2.921474 0.55749506 0
6.0660005 -2.9281466 0.55730569 0
6.0600004 -2.9353042 0.55714333 0
6.0540004 -2.9424398 0.55698097 0
6.0480003 -2.949554 0.55681866 0
6.0410004 -2.9561307 0.55662924 0
6.0350003 -2.9631999 0.55646694 0
6.0290003 -2.9702473 0.55630457 0
6.0230002 -2.977273 0.55614221 0
6.0160003 -2.9837542 0.55595279 0
6.0100002 -2.9907348 0.55579048 0
6.0040002 -2.997694 0.55562812 0
5.9980001 -3.0046313 0.55546582 0
5.9920006 -3.0115473 0.55530345 0
5.9860005 -3.0184414 0.55514109 0
5.9800005 -3.0253141 0.55497873 0
5.9740005 -3.0321651 0.55481642 0
5.9670005 -3.0384564 0.554627 0
5.9610004 -3.0452623 0.5544647 0
5.9550004 -3.0520465 0.55430233 0
5.9490004 -3.0588088 0.55413997 0
5.9430003 -3.0655499 0.55397767 0
5.9370003 -3.072269 0.55381531 0
5.9310002 -3.0789664 0.55365294 0
5.9250002 -3.0856421 0.55349064 0
5.9190001 -3.0922964 0.55332828 0
5.9130006 -3.0989294 0.55316591 0
5.9070005 -3.1055403 0.55300361 0
5.9010005 -3.1121294 0.55284125 0
5.8960004 -3.1192565 0.55270594 0
5.8900003 -3.1258042 0.55254364 0
5.8840003 -3.1323302 0.55238128 0
5.8780003 -3.1388347 0.55221891 0
5.8720002 -3.1453176 0.55205661 0
5.8660002 -3.1517789 0.55189425 0
5.8600001 -3.1582184 0.55173188 0
5.8540006 -3.1646366 0.55156958 0
6.4200006 -2.5326939 0.55602497 0
6.4130006 -2.5406489 0.55584824 0
6.4060006 -2.5485783 0.55567145 0
6.3990002 -2.5564826 0.55549467 0
6.3920002 -2.5643616 0.55531788 0
6.3850002 -2.5722153 0.55514109 0
6.3780003 -2.580044 0.5549643 0
6.3710003 -2.587847 0.55478758 0
6.3640003 -2.5956252 0.55461079 0
6.3570004 -2.6033781 0.554434 0
6.3500004 -2.6111054 0.55425727 0
6.3430004 -2.6188078 0.55408049 0
6.3360004 -2.6264846 0.5539037 0
6.3300004 -2.634573 0.55375218 0
6.3230004 -2.6422014 0.5535754 0
6.3160005 -2.6498046 0.55339861 0
6.3090005 -2.6573822 0.55322182 0
6.3020005 -2.6649349 0.55304509 0
6.2950006 -2.672462 0.55286831 0
6.2880006 -2.6799641 0.55269152 0
6.2820005 -2.6878903 0.55254 0
6.2750006 -2.6953435 0.55236328 0
6.2680006 -2.7027717 0.55218649 0
6.2610002 -2.7101743 0.5520097 0
6.2550006 -2.7180085 0.55185819 0
6.2480001 -2.7253621 0.5516814 0
6.2410002 -2.7326913 0.55150461 0
6.2350006 -2.7404566 0.5513531 0
6.2280002 -2.7477367 0.55117631 0
6.2210002 -2.7549915 0.55099958 0
6.2150002 -2.7626884 0.55084801 0
6.2080002 -2.7698948 0.55067128 0
6.2020001 -2.7775464 0.5505197 0
6.1950002 -2.784704 0.55034298 0
6.1880002 -2.7918363 0.55016619 0
6.1820002 -2.7994194 0.55001467 0
6.1750002 -2.8065028 0.54983789 0
6.1690001 -2.8140409 0.54968637 0
6.1620002 -2.8210759 0.54950964 0
6.1560001 -2.8285689 0.54935807 0
6.1490002 -2.8355551 0.54918134 0
6.1430006 -2.843003 0.54902983 0
6.1360002 -2.8499405 0.54885304 0
6.1300006 -2.8573437 0.54870152 0
6.1230001 -2.8642321 0.54852474 0
6.1170006 -2.8715899 0.54837322 0
6.1110005 -2.878926 0.54822171 0
6.1040006 -2.8857424 0.54804492 0
6.0980005 -2.8930335 0.5478934 0
6.0920005 -2.9003029 0.54774189 0
6.0850005 -2.9070473 0.5475651 0
6.0790005 -2.9142716 0.54741359 0
6.0730004 -2.921474 0.54726207 0
6.0660005 -2.9281466 0.54708529 0
6.0600004 -2.9353042 0.54693377 0
6.0540004 -2.9424398 0.54678226 0
6.0480003 -2.949554 0.54663074 0
6.0410004 -2.9561307 0.54645395 0
6.0350003 -2.9631999 0.54630244 0
6.0290003 -2.9702473 0.54615092 0
6.0230002 -2.977273 0.54599941 0
6.0160003 -2.9837542 0.54582262 0
6.0100002 -2.9907348 0.54567111 0
6.0040002 -2.997694 0.54551959 0
5.9980001 -3.0046313 0.54536808 0
5.9920006 -3.0115473 0.54521656 0
5.9860005 -3.0184414 0.54506505 0
5.9800005 -3.0253141 0.54491353 0
5.9740005 -3.0321651 0.54476202 0
5.9670005 -3.0384564 0.54458523 0
5.9610004 -3.0452623 0.54443371 0
5.9550004 -3.0520465 0.5442822 0
5.9490004 -3.0588088 0.54413068 0
5.9430003 -3.0655499 0.54397917 0
5.9370003 -3.072269 0.54382765 0
5.9310002 -3.0789664 0.54367614 0
5.9250002 -3.0856421 0.54352456 0
5.9190001 -3.0922964 0.54337305 0
5.9130006 -3.0989294 0.54322153 0
5.9070005 -3.1055403 0.54307002 0
5.9010005 -3.1121294 0.5429185 0
5.8960004 -3.1192565 0.5427922 0
5.8900003 -3.1258042 0.54264069 0
5.8840003 -3.1323302 0.54248917 0
5.8780003 -3.1388347 0.54233766 0
5.8720002 -3.1453176 0.54218614 0
5.8660002 -3.1517789 0.54203463 0
5.8600001 -3.1582184 0.54188311 0
5.8540006 -3.1646366 0.5417316 0
6.4200006 -2.5326939 0.54516608 0
6.4130006 -2.5406489 0.54500192 0
6.4060006 -2.5485783 0.54483777 0
6.3990002 -2.5564826 0.54467356 0
6.3920002 -2.5643616 0.54450947 0
6.3850002 -2.5722153 0.54434532 0
6.3780003 -2.580044 0.54418117 0
6.3710003 -2.587847 0.54401702 0
6.3640003 -2.5956252 0.54385287 0
6.3570004 -2.6033781 0.54368871 0
6.3500004 -2.6111054 0.54352456 0
6.3430004 -2.6188078 0.54336041 0
6.3360004 -2.6264846 0.54319632 0
6.3300004 -2.634573 0.54305559 0
6.3230004 -2.6422014 0.54289144 0
6.3160005 -2.6498046 0.54272729 0
6.3090005 -2.6573822 0.54256314 0
6.3020005 -2.6649349 0.54239899 0
6.2950006 -2.672462 0.5422349 0
6.2880006 -2.6799641 0.54207075 0
6.2820005 -2.6878903 0.54193002 0
6.2750006 -2.6953435 0.54176587 0
6.2680006 -2.7027717 0.54160172 0
6.2610002 -2.7101743 0.54143757 0
6.2550006 -2.7180085 0.5412969 0
6.2480001 -2.7253621 0.54113275 0
6.2410002 -2.7326913 0.5409686 0
6.2350006 -2.7404566 0.54082787 0
6.2280002 -2.7477367 0.54066372 0
6.2210002 -2.7549915 0.54049957 0
6.2150002 -2.7626884 0.5403589 0
6.2080002 -2.7698948 0.54019475 0
6.2020001 -2.7775464 0.54005408 0
6.1950002 -2.784704 0.53988993 0
6.1880002 -2.7918363 0.53972578 0
6.1820002 -2.7994194 0.53958505 0
6.1750002 -2.8065028 0.5394209 0
6.1690001 -2.8140409 0.53928024 0
6.1620002 -2.8210759 0.53911608 0
6.1560001 -2.8285689 0.53897536 0
6.1490002 -2.8355551 0.53881121 0
6.1430006 -2.843003 0.53867054 0
6.1360002 -2.8499405 0.53850639 0
6.1300006 -2.8573437 0.53836572 0
6.1230001 -2.8642321 0.53820157 0
6.1170006 -2.8715899 0.53806084 0
6.1110005 -2.878926 0.53792012 0
6.1040006 -2.8857424 0.53775603 0
6.0980005 -2.8930335 0.5376153 0
6.0920005 -2.9003029 0.53747463 0
6.0850005 -2.9070473 0.53731048 0
6.0790005 -2.9142716 0.53716975 0
6.0730004 -2.921474 0.53702909 0
6.0660005 -2.9281466 0.53686494 0
6.0600004 -2.9353042 0.53672421 0
6.0540004 -2.9424398 0.53658354 0
6.0480003 -2.949554 0.53644282 0
6.0410004 -2.9561307 0.53627867 0
6.0350003 -2.9631999 0.536138 0
6.0290003 -2.9702473 0.53599727 0
6.0230002 -2.977273 0.5358566 0
6.0160003 -2.9837542 0.53569245 0
6.0100002 -2.9907348 0.53555173 0
6.0040002 -2.997694 0.53541106 0
5.9980001 -3.0046313 0.53527033 0
5.9920006 -3.0115473 0.53512967 0
5.9860005 -3.0184414 0.53498894 0
5.9800005 -3.0253141 0.53484827 0
5.9740005 -3.0321651 0.53470755 0
5.9670005 -3.0384564 0.5345434 0
5.9610004 -3.0452623 0.53440273 0
5.9550004 -3.0520465 0.53426206 0
5.9490004 -3.0588088 0.53412133 0
5.9430003 -3.0655499 0.53398061 0
5.9370003 -3.072269 0.53383994 0
5.9310002 -3.0789664 0.53369921 0
5.9250002 -3.0856421 0.53355855 0
5.9190001 -3.0922964 0.53341782 0
5.9130006 -3.0989294 0.53327715 0
5.9070005 -3.1055403 0.53313643 0
5.9010005 -3.1121294 0.53299576 0
5.8960004 -3.1192565 0.53287852 0
5.8900003 -3.1258042 0.53273779 0
5.8840003 -3.1323302 0.53259712 0
5.8780003 -3.1388347 0.5324564 0
5.8720002 -3.1453176 0.53231573 0
5.8660002 -3.1517789 0.532175 0
5.8600001 -3.1582184 0.53203434 0
5.8540006 -3.1646366 0.53189361 0
6.4200006 -2.5326939 0.53430712 0
6.4130006 -2.5406489 0.53415561 0
6.4060006 -2.5485783 0.53400409 0
6.3990002 -2.5564826 0.53385258 0
6.3920002 -2.5643616 0.53370106 0
6.3850002 -2.5722153 0.53354955 0
6.3780003 -2.580044 0.53339803 0
6.3710003 -2.587847 0.53324646 0
6.3640003 -2.5956252 0.53309494 0
6.3570004 -2.6033781 0.53294343 0
6.3500004 -2.6111054 0.53279191 0
6.3430004 -2.6188078 0.5326404 0
6.3360004 -2.6264846 0.53248888 0
6.3300004 -2.634573 0.532359 0
6.3230004 -2.6422014 0.53220749 0
6.3160005 -2.6498046 0.53205597 0
6.3090005 -2.6573822 0.53190446 0
6.3020005 -2.6649349 0.53175294 0
6.2950006 -2.672462 0.53160143 0
6.2880006 -2.6799641 0.53144991 0
6.2820005 -2.6878903 0.53132004 0
6.2750006 -2.6953435 0.53116852 0
6.2680006 -2.7027717 0.53101695 0
6.2610002 -2.7101743 0.53086543 0
6.2550006 -2.7180085 0.53073561 0
6.2480001 -2.7253621 0.53058404 0
6.2410002 -2.7326913 0.53043252 0
6.2350006 -2.7404566 0.53030264 0
6.2280002 -2.7477367 0.53015113 0
6.2210002 -2.7549915 0.52999961 0
6.2150002 -2.7626884 0.52986974 0
6.2080002 -2.7698948 0.52971822 0
6.2020001 -2.7775464 0.52958834 0
6.1950002 -2.784704 0.52943683 0
6.1880002 -2.7918363 0.52928531 0
6.1820002 -2.7994194 0.52915543 0
6.1750002 -2.8065028 0.52900392 0
6.1690001 -2.8140409 0.52887404 0
6.1620002 -2.8210759 0.52872252 0
6.1560001 -2.8285689 0.52859265 0
6.1490002 -2.8355551 0.52844113 0
6.1430006 -2.843003 0.52831125 0
6.1360002 -2.8499405 0.52815974 0
6.1300006 -2.8573437 0.52802986 0
6.1230001 -2.8642321 0.52787834 0
6.1170006 -2.8715899 0.52774847 0
6.1110005 -2.878926 0.52761859 0
6.1040006 -2.8857424 0.52746707 0
6.0980005 -2.8930335 0.52733719 0
6.0920005 -2.9003029 0.52720731 0
6.0850005 -2.9070473 0.5270558 0
6.0790005 -2.9142716 0.52692592 0
6.0730004 -2.921474 0.52679604 0
6.0660005 -2.9281466 0.52664453 0
6.0600004 -2.9353042 0.52651465 0
6.0540004 -2.9424398 0.52638483 0
6.0480003 -2.949554 0.52625489 0
6.0410004 -2.9561307 0.52610338 0
6.0350003 -2.9631999 0.52597356 0
6.0290003 -2.9702473 0.52584368 0
6.0230002 -2.977273 0.5257138 0
6.0160003 -2.9837542 0.52556223 0
6.0100002 -2.9907348 0.52543235 0
6.0040002 -2.997694 0.52530253 0
5.9980001 -3.0046313 0.52517265 0
5.9920006 -3.0115473 0.52504277 0
5.9860005 -3.0184414 0.52491289 0
5.9800005 -3.0253141 0.52478302 0
5.9740005 -3.0321651 0.52465314 0
5.9670005 -3.0384564 0.52450162 0
5.9610004 -3.0452623 0.52437174 0
5.9550004 -3.0520465 0.52424186 0
5.9490004 -3.0588088 0.52411199 0
5.9430003 -3.0655499 0.52398211 0
5.9370003 -3.072269 0.52385223 0
5.9310002 -3.0789664 0.52372235 0
5.9250002 -3.0856421 0.52359247 0
5.9190001 -3.0922964 0.52346259 0
5.9130006 -3.0989294 0.52333277 0
5.9070005 -3.1055403 0.5232029 0
5.9010005 -3.1121294 0.52307302 0
5.8960004 -3.1192565 0.52296478 0
5.8900003 -3.1258042 0.5228349 0
5.8840003 -3.1323302 0.52270502 0
5.8780003 -3.1388347 0.52257514 0
5.8720002 -3.1453176 0.52244526 0
5.8660002 -3.1517789 0.52231538 0
5.8600001 -3.1582184 0.52218556 0
5.8540006 -3.1646366 0.52205569 0
6.4200006 -2.5326939 0.52344817 0
6.4130006 -2.5406489 0.52330929 0
6.4060006 -2.5485783 0.52317041 0
6.3990002 -2.5564826 0.52303153 0
6.3920002 -2.5643616 0.52289259 0
6.3850002 -2.5722153 0.52275372 0
6.3780003 -2.580044 0.52261484 0
6.3710003 -2.587847 0.52247596 0
6.3640003 -2.5956252 0.52233708 0
6.3570004 -2.6033781 0.52219814 0
6.3500004 -2.6111054 0.52205926 0
6.3430004 -2.6188078 0.52192038 0
6.3360004 -2.6264846 0.5217815 0
6.3300004 -2.634573 0.52166241 0
6.3230004 -2.6422014 0.52152354 0
6.3160005 -2.6498046 0.52138466 0
6.3090005 -2.6573822 0.52124578 0
6.3020005 -2.6649349 0.52110684 0
6.2950006 -2.672462 0.52096796 0
6.2880006 -2.6799641 0.52082908 0
6.2820005 -2.6878903 0.52070999 0
6.2750006 -2.6953435 0.52057111 0
6.2680006 -2.7027717 0.52043223 0
6.2610002 -2.7101743 0.52029335 0
6.2550006 -2.7180085 0.52017426 0
6.2480001 -2.7253621 0.52003539 0
6.2410002 -2.7326913 0.51989651 0
6.2350006 -2.7404566 0.51977742 0
6.2280002 -2.7477367 0.51963854 0
6.2210002 -2.7549915 0.51949966 0
6.2150002 -2.7626884 0.51938057 0
6.2080002 -2.7698948 0.51924169 0
6.2020001 -2.7775464 0.51912266 0
6.1950002 -2.784704 0.51898378 0
6.1880002 -2.7918363 0.51884484 0
6.1820002 -2.7994194 0.51872581 0
6.1750002 -2.8065028 0.51858693 0
6.1690001 -2.8140409 0.5184679 0
6.1620002 -2.8210759 0.51832896 0
6.1560001 -2.8285689 0.51820993 0
6.1490002 -2.8355551 0.51807106 0
6.1430006 -2.843003 0.51795197 0
6.1360002 -2.8499405 0.51781309 0
6.1300006 -2.8573437 0.51769406 0
6.1230001 -2.8642321 0.51755512 0
6.1170006 -2.8715899 0.51743609 0
6.1110005 -2.878926 0.51731706 0
6.1040006 -2.8857424 0.51717818 0
6.0980005 -2.8930335 0.51705909 0
6.0920005 -2.9003029 0.51694006 0
6.0850005 -2.9070473 0.51680118 0
6.0790005 -2.9142716 0.51668215 0
6.0730004 -2.921474 0.51656306 0
6.0660005 -2.9281466 0.51642418 0
6.0600004 -2.9353042 0.51630509 0
6.0540004 -2.9424398 0.51618606 0
6.0480003 -2.949554 0.51606703 0
6.0410004 -2.9561307 0.51592815 0
6.0350003 -2.9631999 0.51580906 0
6.0290003 -2.9702473 0.51569003 0
6.0230002 -2.977273 0.51557094 0
6.0160003 -2.9837542 0.51543206 0
6.0100002 -2.9907348 0.51531303 0
6.0040002 -2.997694 0.51519394 0
5.9980001 -3.0046313 0.51507491 0
5.9920006 -3.0115473 0.51495588 0
5.9860005 -3.0184414 0.51483679 0
5.9800005 -3.0253141 0.51471776 0
5.9740005 -3.0321651 0.51459873 0
5.9670005 -3.0384564 0.51445985 0
5.9610004 -3.0452623 0.51434076 0
5.9550004 -3.0520465 0.51422173 0
5.9490004 -3.0588088 0.51410264 0
5.9430003 -3.0655499 0.51398361 0
5.9370003 -3.072269 0.51386458 0
5.9310002 -3.0789664 0.51374549 0
5.9250002 -3.0856421 0.51362646 0
5.9190001 -3.0922964 0.51350743 0
5.9130006 -3.0989294 0.51338834 0
5.9070005 -3.1055403 0.51326931 0
5.9010005 -3.1121294 0.51315027 0
5.8960004 -3.1192565 0.51305103 0
5.8900003 -3.1258042 0.512932 0
5.8840003 -3.1323302 0.51281297 0
5.8780003 -3.1388347 0.51269388 0
5.8720002 -3.1453176 0.51257485 0
5.8660002 -3.1517789 0.51245576 0
5.8600001 -3.1582184 0.51233673 0
5.8540006 -3.1646366 0.5122177 0
6.4200006 -2.5326939 0.51258928 0
6.4130006 -2.5406489 0.51246297 0
6.4060006 -2.5485783 0.51233673 0
6.3990002 -2.5564826 0.51221049 0
6.3920002 -2.5643616 0.51208419 0
6.3850002 -2.5722153 0.51195794 0
6.3780003 -2.580044 0.51183164 0
6.3710003 -2.587847 0.5117054 0
6.3640003 -2.5956252 0.51157916 0
6.3570004 -2.6033781 0.51145285 0
6.3500004 -2.6111054 0.51132661 0
6.3430004 -2.6188078 0.51120031 0
6.3360004 -2.6264846 0.51107407 0
6.3300004 -2.634573 0.51096582 0
6.3230004 -2.6422014 0.51083958 0
6.3160005 -2.6498046 0.51071334 0
6.3090005 -2.6573822 0.51058704 0
6.3020005 -2.6649349 0.51046079 0
6.2950006 -2.672462 0.51033449 0
6.2880006 -2.6799641 0.51020825 0
6.2820005 -2.6878903 0.51010001 0
6.2750006 -2.6953435 0.50997376 0
6.2680006 -2.7027717 0.50984746 0
6.2610002 -2.7101743 0.50972122 0
6.2550006 -2.7180085 0.50961298 0
6.2480001 -2.7253621 0.50948673 0
6.2410002 -2.7326913 0.50936043 0
6.2350006 -2.7404566 0.50925225 0
6.2280002 -2.7477367 0.50912595 0
6.2210002 -2.7549915 0.50899971 0
6.2150002 -2.7626884 0.50889146 0
6.2080002 -2.7698948 0.50876522 0
6.2020001 -2.7775464 0.50865698 0
6.1950002 -2.784704 0.50853068 0
6.1880002 -2.7918363 0.50840443 0
6.1820002 -2.7994194 0.50829619 0
6.1750002 -2.8065028 0.50816995 0
6.1690001 -2.8140409 0.50806171 0
6.1620002 -2.8210759 0.50793546 0
6.1560001 -2.8285689 0.50782722 0
6.1490002 -2.8355551 0.50770092 0
6.1430006 -2.843003 0.50759274 0
6.1360002 -2.8499405 0.50746644 0
6.1300006 -2.8573437 0.50735819 0
6.1230001 -2.8642321 0.50723195 0
6.1170006 -2.8715899 0.50712371 0
6.1110005 -2.878926 0.50701553 0
6.1040006 -2.8857424 0.50688922 0
6.0980005 -2.8930335 0.50678098 0
6.0920005 -2.9003029 0.5066728 0
6.0850005 -2.9070473 0.5065465 0
6.0790005 -2.9142716 0.50643826 0
6.0730004 -2.921474 0.50633007 0
6.0660005 -2.9281466 0.50620377 0
6.0600004 -2.9353042 0.50609553 0
6.0540004 -2.9424398 0.50598735 0
6.0480003 -2.949554 0.5058791 0
6.0410004 -2.9561307 0.50575286 0
6.0350003 -2.9631999 0.50564462 0
6.0290003 -2.9702473 0.50553638 0
6.0230002 -2.977273 0.50542814 0
6.0160003 -2.9837542 0.50530189 0
6.0100002 -2.9907348 0.50519365 0
6.0040002 -2.997694 0.50508541 0
5.9980001 -3.0046313 0.50497723 0
5.9920006 -3.0115473 0.50486898 0
5.9860005 -3.0184414 0.50476074 0
5.9800005 -3.0253141 0.5046525 0
5.9740005 -3.0321651 0.50454426 0
5.9670005 -3.0384564 0.50441802 0
5.9610004 -3.0452623 0.50430977 0
5.9550004 -3.0520465 0.50420153 0
5.9490004 -3.0588088 0.50409335 0
5.9430003 -3.0655499 0.50398511 0
5.9370003 -3.072269 0.50387686 0
5.9310002 -3.0789664 0.50376862 0
5.9250002 -3.0856421 0.50366044 0
5.9190001 -3.0922964 0.5035522 0
5.9130006 -3.0989294 0.50344396 0
5.9070005 -3.1055403 0.50333571 0
5.9010005 -3.1121294 0.50322747 0
5.8960004 -3.1192565 0.50313729 0
5.8900003 -3.1258042 0.50302911 0
5.8840003 -3.1323302 0.50292087 0
5.8780003 -3.1388347 0.50281262 0
5.8720002 -3.1453176 0.50270438 0
5.8660002 -3.1517789 0.50259614 0
5.8600001 -3.1582184 0.50248796 0
5.8540006 -3.1646366 0.50237972 0
6.4200006 -2.5326939 0.50173032 0
6.4130006 -2.5406489 0.50161672 0
6.4060006 -2.5485783 0.50150305 0
6.3990002 -2.5564826 0.50138944 0
6.3920002 -2.5643616 0.50127578 0
6.3850002 -2.5722153 0.50116217 0
6.3780003 -2.580044 0.50104851 0
6.3710003 -2.587847 0.50093484 0
6.3640003 -2.5956252 0.50082123 0
6.3570004 -2.6033781 0.50070757 0
6.3500004 -2.6111054 0.50059396 0
6.3430004 -2.6188078 0.50048029 0
6.3360004 -2.6264846 0.50036669 0
6.3300004 -2.634573 0.50026923 0
6.3230004 -2.6422014 0.50015563 0
6.3160005 -2.6498046 0.50004196 0
6.3090005 -2.6573822 0.49992836 0
6.3020005 -2.6649349 0.49981469 0
6.2950006 -2.672462 0.49970105 0
6.2880006 -2.6799641 0.49958742 0
6.2820005 -2.6878903 0.49949002 0
6.2750006 -2.6953435 0.49937639 0
6.2680006 -2.7027717 0.49926275 0
6.2610002 -2.7101743 0.49914908 0
6.2550006 -2.7180085 0.49905169 0
6.2480001 -2.7253621 0.49893805 0
6.2410002 -2.7326913 0.49882442 0
6.2350006 -2.7404566 0.49872699 0
6.2280002 -2.7477367 0.49861336 0
6.2210002 -2.7549915 0.49849972 0
6.2150002 -2.7626884 0.4984023 0
6.2080002 -2.7698948 0.49828866 0
6.2020001 -2.7775464 0.49819127 0
6.1950002 -2.784704 0.49807763 0
6.1880002 -2.7918363 0.49796399 0
6.1820002 -2.7994194 0.49786657 0
6.1750002 -2.8065028 0.49775296 0
6.1690001 -2.8140409 0.49765554 0
6.1620002 -2.8210759 0.4975419 0
6.1560001 -2.8285689 0.49744451 0
6.1490002 -2.8355551 0.49733084 0
6.1430006 -2.843003 0.49723345 0
6.1360002 -2.8499405 0.49711981 0
6.1300006 -2.8573437 0.49702239 0
6.1230001 -2.8642321 0.49690875 0
6.1170006 -2.8715899 0.49681136 0
6.1110005 -2.878926 0.49671394 0
6.1040006 -2.8857424 0.49660033 0
6.0980005 -2.8930335 0.49650291 0
6.0920005 -2.9003029 0.49640551 0
6.0850005 -2.9070473 0.49629188 0
6.0790005 -2.9142716 0.49619445 0
6.0730004 -2.921474 0.49609706 0
6.0660005 -2.9281466 0.49598342 0
6.0600004 -2.9353042 0.495886 0
6.0540004 -2.9424398 0.4957886 0
6.0480003 -2.949554 0.49569118 0
6.0410004 -2.9561307 0.49557754 0
6.0350003 -2.9631999 0.49548015 0
6.0290003 -2.9702473 0.49538273 0
6.0230002 -2.977273 0.49528533 0
6.0160003 -2.9837542 0.4951717 0
6.0100002 -2.9907348 0.49507427 0
6.0040002 -2.997694 0.49497688 0
5.9980001 -3.0046313 0.49487948 0
5.9920006 -3.0115473 0.49478209 0
5.9860005 -3.0184414 0.49468467 0
5.9800005 -3.0253141 0.49458727 0
5.9740005 -3.0321651 0.49448985 0
5.9670005 -3.0384564 0.49437621 0
5.9610004 -3.0452623 0.49427882 0
5.9550004 -3.0520465 0.49418139 0
5.9490004 -3.0588088 0.494084 0
5.9430003 -3.0655499 0.49398661 0
5.9370003 -3.072269 0.49388918 0
5.9310002 -3.0789664 0.49379179 0
5.9250002 -3.0856421 0.49369437 0
5.9190001 -3.0922964 0.49359697 0
5.9130006 -3.0989294 0.49349958 0
5.9070005 -3.1055403 0.49340215 0
5.9010005 -3.1121294 0.49330476 0
5.8960004 -3.1192565 0.49322358 0
5.8900003 -3.1258042 0.49312618 0
5.8840003 -3.1323302 0.49302876 0
5.8780003 -3.1388347 0.49293137 0
5.8720002 -3.1453176 0.49283397 0
5.8660002 -3.1517789 0.49273655 0
5.8600001 -3.1582184 0.49263915 0
5.8540006 -3.1646366 0.49254176 0
6.4200006 -2.5326939 0.49087143 0
6.4130006 -2.5406489 0.4907704 0
6.4060006 -2.5485783 0.4906694 0
6.3990002 -2.5564826 0.49056837 0
6.3920002 -2.5643616 0.49046737 0
6.3850002 -2.5722153 0.49036634 0
6.3780003 -2.580044 0.49026534 0
6.3710003 -2.587847 0.49016434 0
6.3640003 -2.5956252 0.49006331 0
6.3570004 -2.6033781 0.48996231 0
6.3500004 -2.6111054 0.48986128 0
6.3430004 -2.6188078 0.48976028 0
6.3360004 -2.6264846 0.48965925 0
6.3300004 -2.634573 0.48957267 0
6.3230004 -2.6422014 0.48947167 0
6.3160005 -2.6498046 0.48937064 0
6.3090005 -2.6573822 0.48926964 0
6.3020005 -2.6649349 0.48916864 0
6.2950006 -2.672462 0.48906761 0
6.2880006 -2.6799641 0.48896658 0
6.2820005 -2.6878903 0.48888001 0
6.2750006 -2.6953435 0.48877901 0
6.2680006 -2.7027717 0.48867798 0
6.2610002 -2.7101743 0.48857698 0
6.2550006 -2.7180085 0.4884904 0
6.2480001 -2.7253621 0.48838937 0
6.2410002 -2.7326913 0.48828837 0
6.2350006 -2.7404566 0.4882018 0
6.2280002 -2.7477367 0.48810077 0
6.2210002 -2.7549915 0.48799974 0
6.2150002 -2.7626884 0.48791316 0
6.2080002 -2.7698948 0.48781216 0
6.2020001 -2.7775464 0.48772556 0
6.1950002 -2.784704 0.48762456 0
6.1880002 -2.7918363 0.48752356 0
6.1820002 -2.7994194 0.48743695 0
6.1750002 -2.8065028 0.48733595 0
6.1690001 -2.8140409 0.48724937 0
6.1620002 -2.8210759 0.48714834 0
6.1560001 -2.8285689 0.48706177 0
6.1490002 -2.8355551 0.48696077 0
6.1430006 -2.843003 0.48687419 0
6.1360002 -2.8499405 0.48677316 0
6.1300006 -2.8573437 0.48668659 0
6.1230001 -2.8642321 0.48658556 0
6.1170006 -2.8715899 0.48649898 0
6.1110005 -2.878926 0.48641241 0
6.1040006 -2.8857424 0.48631138 0
6.0980005 -2.8930335 0.4862248 0
6.0920005 -2.9003029 0.48613822 0
6.0850005 -2.9070473 0.48603722 0
6.0790005 -2.9142716 0.48595065 0
6.0730004 -2.921474 0.48586404 0
6.0660005 -2.9281466 0.48576304 0
6.0600004 -2.9353042 0.48567647 0
6.0540004 -2.9424398 0.48558986 0
6.0480003 -2.949554 0.48550329 0
6.0410004 -2.9561307 0.48540229 0
6.0350003 -2.9631999 0.48531568 0
6.0290003 -2.9702473 0.4852291 0
6.0230002 -2.977273 0.48514253 0
6.0160003 -2.9837542 0.4850415 0
6.0100002 -2.9907348 0.48495492 0
6.0040002 -2.997694 0.48486835 0
5.9980001 -3.0046313 0.48478174 0
5.9920006 -3.0115473 0.4846952 0
5.9860005 -3.0184414 0.48460859 0
5.9800005 -3.0253141 0.48452201 0
5.9740005 -3.0321651 0.48443544 0
5.9670005 -3.0384564 0.48433441 0
5.9610004 -3.0452623 0.48424783 0
5.9550004 -3.0520465 0.48416126 0
5.9490004 -3.0588088 0.48407465 0
5.9430003 -3.0655499 0.48398808 0
5.9370003 -3.072269 0.4839015 0
5.9310002 -3.0789664 0.48381492 0
5.9250002 -3.0856421 0.48372835 0
5.9190001 -3.0922964 0.48364174 0
5.9130006 -3.0989294 0.48355517 0
5.9070005 -3.1055403 0.48346859 0
5.9010005 -3.1121294 0.48338202 0
5.8960004 -3.1192565 0.48330986 0
5.8900003 -3.1258042 0.48322326 0
5.8840003 -3.1323302 0.48313668 0
5.8780003 -3.1388347 0.48305011 0
5.8720002 -3.1453176 0.48296353 0
5.8660002 -3.1517789 0.48287696 0
5.8600001 -3.1582184 0.48279035 0
5.8540006 -3.1646366 0.48270378 0
6.4200006 -2.5326939 0.48001251 0
6.4130006 -2.5406489 0.47992411 0
6.4060006 -2.5485783 0.47983572 0
6.3990002 -2.5564826 0.47974733 0
6.3920002 -2.5643616 0.47965896 0
6.3850002 -2.5722153 0.47957057 0
6.3780003 -2.580044 0.47948217 0
6.3710003 -2.587847 0.47939378 0
6.3640003 -2.5956252 0.47930539 0
6.3570004 -2.6033781 0.47921702 0
6.3500004 -2.6111054 0.47912863 0
6.3430004 -2.6188078 0.47904024 0
6.3360004 -2.6264846 0.47895187 0
6.3300004 -2.634573 0.47887608 0
6.3230004 -2.6422014 0.47878772 0
6.3160005 -2.6498046 0.47869933 0
6.3090005 -2.6573822 0.47861093 0
6.3020005 -2.6649349 0.47852254 0
6.2950006 -2.672462 0.47843415 0
6.2880006 -2.6799641 0.47834578 0
6.2820005 -2.6878903 0.47827002 0
6.2750006 -2.6953435 0.47818163 0
6.2680006 -2.7027717 0.47809324 0
6.2610002 -2.7101743 0.47800484 0
6.2550006 -2.7180085 0.47792912 0
6.2480001 -2.7253621 0.47784072 0
6.2410002 -2.7326913 0.47775233 0
6.2350006 -2.7404566 0.47767657 0
6.2280002 -2.7477367 0.47758818 0
6.2210002 -2.7549915 0.47749978 0
6.2150002 -2.7626884 0.47742403 0
6.2080002 -2.7698948 0.47733563 0
6.2020001 -2.7775464 0.47725987 0
6.1950002 -2.784704 0.47717148 0
6.1880002 -2.7918363 0.47708309 0
6.1820002 -2.7994194 0.47700733 0
6.1750002 -2.8065028 0.47691897 0
6.1690001 -2.8140409 0.47684321 0
6.1620002 -2.8210759 0.47675481 0
6.1560001 -2.8285689 0.47667906 0
6.1490002 -2.8355551 0.47659066 0
6.1430006 -2.843003 0.47651491 0
6.1360002 -2.8499405 0.47642651 0
6.1300006 -2.8573437 0.47635078 0
6.1230001 -2.8642321 0.47626239 0
6.1170006 -2.8715899 0.47618663 0
6.1110005 -2.878926 0.47611088 0
6.1040006 -2.8857424 0.47602248 0
6.0980005 -2.8930335 0.47594672 0
6.0920005 -2.9003029 0.47587097 0
6.0850005 -2.9070473 0.47578257 0
6.0790005 -2.9142716 0.47570682 0
6.0730004 -2.921474 0.47563106 0
6.0660005 -2.9281466 0.47554266 0
6.0600004 -2.9353042 0.47546691 0
6.0540004 -2.9424398 0.47539115 0
6.0470004 -2.9490402 0.47530276 0
6.0410004 -2.9561307 0.475227 0
6.0350003 -2.9631999 0.47515124 0
6.0290003 -2.9702473 0.47507548 0
6.0230002 -2.977273 0.4749997 0
6.0160003 -2.9837542 0.47491133 0
6.0100002 -2.9907348 0.47483557 0
6.0040002 -2.997694 0.47475982 0
5.9980001 -3.0046313 0.47468406 0
5.9920006 -3.0115473 0.4746083 0
5.9860005 -3.0184414 0.47453254 0
5.9800005 -3.0253141 0.47445676 0
5.9740005 -3.0321651 0.474381 0
5.9670005 -3.0384564 0.47429261 0
5.9610004 -3.0452623 0.47421685 0
5.9550004 -3.0520465 0.47414109 0
5.9490004 -3.0588088 0.47406533 0
5.9430003 -3.0655499 0.47398958 0
5.9370003 -3.072269 0.47391382 0
5.9310002 -3.0789664 0.47383806 0
5.9250002 -3.0856421 0.4737623 0
5.9190001 -3.0922964 0.47368652 0
5.9130006 -3.0989294 0.47361079 0
5.9070005 -3.1055403 0.47353503 0
5.9010005 -3.1121294 0.47345924 0
5.8960004 -3.1192565 0.47339612 0
5.8900003 -3.1258042 0.47332036 0
5.8840003 -3.1323302 0.47324461 0
5.8780003 -3.1388347 0.47316885 0
5.8720002 -3.1453176 0.47309309 0
5.8660002 -3.1517789 0.47301733 0
5.8600001 -3.1582184 0.47294158 0
5.8540006 -3.1646366 0.47286582 0
6.4200006 -2.5326939 0.46915358 0
6.4130006 -2.5406489 0.46907783 0
6.4060006 -2.5485783 0.46900207 0
6.3990002 -2.5564826 0.46892628 0
6.3920002 -2.5643616 0.46885052 0
6.3850002 -2.5722153 0.46877477 0
6.3780003 -2.580044 0.46869901 0
6.3710003 -2.587847 0.46862325 0
6.3640003 -2.5956252 0.46854749 0
6.3570004 -2.6033781 0.46847174 0
6.3500004 -2.6111054 0.46839595 0
6.3430004 -2.6188078 0.46832019 0
6.3360004 -2.6264846 0.46824443 0
6.3300004 -2.634573 0.46817952 0
6.3230004 -2.6422014 0.46810377 0
6.3160005 -2.6498046 0.46802801 0
6.3090005 -2.6573822 0.46795222 0
6.3020005 -2.6649349 0.46787646 0
6.2950006 -2.672462 0.46780071 0
6.2880006 -2.6799641 0.46772495 0
6.2820005 -2.6878903 0.46766001 0
6.2750006 -2.6953435 0.46758425 0
6.2680006 -2.7027717 0.46750849 0
6.2610002 -2.7101743 0.46743274 0
6.2550006 -2.7180085 0.4673678 0
6.2480001 -2.7253621 0.46729204 0
6.2410002 -2.7326913 0.46721628 0
6.2350006 -2.7404566 0.46715134 0
6.2280002 -2.7477367 0.46707559 0
6.2210002 -2.7549915 0.46699983 0
6.2150002 -2.7626884 0.46693489 0
6.2080002 -2.7698948 0.4668591 0
6.2020001 -2.7775464 0.46679419 0
6.1950002 -2.784704 0.46671844 0
6.1880002 -2.7918363 0.46664268 0
6.1820002 -2.7994194 0.46657774 0
6.1750002 -2.8065028 0.46650195 0
6.1690001 -2.8140409 0.46643704 0
6.1620002 -2.8210759 0.46636125 0
6.1560001 -2.8285689 0.46629632 0
6.1490002 -2.8355551 0.46622056 0
6.1430006 -2.843003 0.46615565 0
6.1360002 -2.8499405 0.46607989 0
6.1300006 -2.8573437 0.46601495 0
6.1230001 -2.8642321 0.46593916 0
6.1170006 -2.8715899 0.46587425 0
6.1110005 -2.878926 0.46580932 0
6.1040006 -2.8857424 0.46573356 0
6.0980005 -2.8930335 0.46566862 0
6.0920005 -2.9003029 0.46560368 0
6.0850005 -2.9070473 0.46552792 0
6.0790005 -2.9142716 0.46546298 0
6.0730004 -2.921474 0.46539804 0
6.0660005 -2.9281466 0.46532229 0
6.0600004 -2.9353042 0.46525735 0
6.0540004 -2.9424398 0.46519241 0
6.0470004 -2.9490402 0.46511665 0
6.0410004 -2.9561307 0.46505171 0
6.0350003 -2.9631999 0.46498677 0
6.0290003 -2.9702473 0.46492183 0
6.0230002 -2.977273 0.46485689 0
6.0160003 -2.9837542 0.46478114 0
6.0100002 -2.9907348 0.4647162 0
6.0040002 -2.997694 0.46465126 0
5.9980001 -3.0046313 0.46458632 0
5.9920006 -3.0115473 0.46452138 0
5.9860005 -3.0184414 0.46445644 0
5.9800005 -3.0253141 0.46439153 0
5.9740005 -3.0321651 0.46432656 0
5.9670005 -3.0384564 0.4642508 0
5.9610004 -3.0452623 0.46418589 0
5.9550004 -3.0520465 0.46412095 0
5.9490004 -3.0588088 0.46405602 0
5.9430003 -3.0655499 0.46399108 0
5.9370003 -3.072269 0.46392614 0
5.9310002 -3.0789664 0.4638612 0
5.9250002 -3.0856421 0.46379626 0
5.9190001 -3.0922964 0.46373132 0
5.9130006 -3.0989294 0.46366638 0
5.9070005 -3.1055403 0.46360144 0
5.9010005 -3.1121294 0.4635365 0
5.8960004 -3.1192565 0.46348238 0
5.8900003 -3.1258042 0.46341747 0
5.8840003 -3.1323302 0.4633525 0
5.8780003 -3.1388347 0.46328759 0
5.8720002 -3.1453176 0.46322265 0
5.8660002 -3.1517789 0.46315771 0
5.8600001 -3.1582184 0.46309277 0
5.8540006 -3.1646366 0.46302783 0
6.4200006 -2.5326939 0.45829463 0
6.4130006 -2.5406489 0.45823151 0
6.4060006 -2.5485783 0.45816839 0
6.3990002 -2.5564826 0.45810524 0
6.3920002 -2.5643616 0.45804211 0
6.3850002 -2.5722153 0.45797896 0
6.3780003 -2.580044 0.45791584 0
6.3710003 -2.587847 0.45785272 0
6.3640003 -2.5956252 0.45778957 0
6.3570004 -2.6033781 0.45772645 0
6.3500004 -2.6111054 0.4576633 0
6.3430004 -2.6188078 0.45760018 0
6.3360004 -2.6264846 0.45753706 0
6.3300004 -2.634573 0.45748293 0
6.3230004 -2.6422014 0.45741978 0
6.3160005 -2.6498046 0.45735666 0
6.3090005 -2.6573822 0.45729354 0
6.3020005 -2.6649349 0.45723039 0
6.2950006 -2.672462 0.45716727 0
6.2880006 -2.6799641 0.45710415 0
6.2820005 -2.6878903 0.45705003 0
6.2750006 -2.6953435 0.45698687 0
6.2680006 -2.7027717 0.45692375 0
6.2610002 -2.7101743 0.4568606 0
6.2550006 -2.7180085 0.45680651 0
6.2480001 -2.7253621 0.45674336 0
6.2410002 -2.7326913 0.45668024 0
6.2350006 -2.7404566 0.45662612 0
6.2280002 -2.7477367 0.456563 0
6.2210002 -2.7549915 0.45649984 0
6.2150002 -2.7626884 0.45644575 0
6.2080002 -2.7698948 0.4563826 0
6.2020001 -2.7775464 0.45632848 0
6.1950002 -2.784704 0.45626536 0
6.1880002 -2.7918363 0.45620221 0
6.1820002 -2.7994194 0.45614812 0
6.1750002 -2.8065028 0.45608497 0
6.1690001 -2.8140409 0.45603085 0
6.1620002 -2.8210759 0.45596772 0
6.1560001 -2.8285689 0.4559136 0
6.1490002 -2.8355551 0.45585048 0
6.1430006 -2.843003 0.45579636 0
6.1360002 -2.8499405 0.45573324 0
6.1300006 -2.8573437 0.45567912 0
6.1230001 -2.8642321 0.455616 0
6.1170006 -2.8715899 0.45556188 0
6.1110005 -2.878926 0.45550776 0
6.1040006 -2.8857424 0.45544463 0
6.0980005 -2.8930335 0.45539051 0
6.0920005 -2.9003029 0.45533639 0
6.0850005 -2.9070473 0.45527327 0
6.0790005 -2.9142716 0.45521915 0
6.0730004 -2.921474 0.45516503 0
6.0660005 -2.9281466 0.45510191 0
6.0600004 -2.9353042 0.45504779 0
6.0540004 -2.9424398 0.45499367 0
6.0470004 -2.9490402 0.45493054 0
6.0410004 -2.9561307 0.45487642 0
6.0350003 -2.9631999 0.4548223 0
6.0290003 -2.9702473 0.45476818 0
6.0230002 -2.977273 0.45471409 0
6.0160003 -2.9837542 0.45465094 0
6.0100002 -2.9907348 0.45459685 0
6.0040002 -2.997694 0.45454273 0
5.9980001 -3.0046313 0.45448861 0
5.9920006 -3.0115473 0.45443448 0
5.9860005 -3.0184414 0.45438039 0
5.9800005 -3.0253141 0.45432627 0
5.9740005 -3.0321651 0.45427215 0
5.9670005 -3.0384564 0.45420903 0
5.9610004 -3.0452623 0.45415491 0
5.9550004 -3.0520465 0.45410079 0
5.9490004 -3.0588088 0.45404667 0
5.9430003 -3.0655499 0.45399255 0
5.9370003 -3.072269 0.45393845 0
5.9310002 -3.0789664 0.45388433 0
5.9250002 -3.0856421 0.45383021 0
5.9190001 -3.0922964 0.45377609 0
5.9130006 -3.0989294 0.453722 0
5.9070005 -3.1055403 0.45366788 0
5.9010005 -3.1121294 0.45361376 0
5.8960004 -3.1192565 0.45356867 0
5.8900003 -3.1258042 0.45351455 0
5.8840003 -3.1323302 0.45346043 0
5.8780003 -3.1388347 0.45340633 0
5.8720002 -3.1453176 0.45335221 0
5.8660002 -3.1517789 0.45329809 0
5.8600001 -3.1582184 0.45324397 0
5.8540006 -3.1646366 0.45318985 0
6.4200006 -2.5326939 0.44743571 0
6.4130006 -2.5406489 0.44738522 0
6.4060006 -2.5485783 0.44733471 0
6.3990002 -2.5564826 0.44728419 0
6.3920002 -2.5643616 0.44723368 0
6.3850002 -2.5722153 0.44718319 0
6.3780003 -2.580044 0.44713268 0
6.3710003 -2.587847 0.44708216 0
6.3640003 -2.5956252 0.44703168 0
6.3570004 -2.6033781 0.44698116 0
6.3500004 -2.6111054 0.44693065 0
6.3430004 -2.6188078 0.44688013 0
6.3360004 -2.6264846 0.44682965 0
6.3300004 -2.634573 0.44678634 0
6.3230004 -2.6422014 0.44673583 0
6.3160005 -2.6498046 0.44668534 0
6.3090005 -2.6573822 0.44663483 0
6.3020005 -2.6649349 0.44658431 0
6.2950006 -2.672462 0.4465338 0
6.2880006 -2.6799641 0.44648331 0
6.2820005 -2.6878903 0.44644001 0
6.2750006 -2.6953435 0.4463895 0
6.2680006 -2.7027717 0.44633901 0
6.2610002 -2.7101743 0.4462885 0
6.2550006 -2.7180085 0.44624519 0
6.2480001 -2.7253621 0.44619471 0
6.2410002 -2.7326913 0.44614419 0
6.2350006 -2.7404566 0.44610089 0
6.2280002 -2.7477367 0.44605041 0
6.2210002 -2.7549915 0.44599989 0
6.2150002 -2.7626884 0.44595659 0
6.2080002 -2.7698948 0.44590607 0
6.2020001 -2.7775464 0.4458628 0
6.1950002 -2.784704 0.44581228 0
6.1880002 -2.7918363 0.44576177 0
6.1820002 -2.7994194 0.4457185 0
6.1750002 -2.8065028 0.44566798 0
6.1690001 -2.8140409 0.44562468 0
6.1620002 -2.8210759 0.44557419 0
6.1560001 -2.8285689 0.44553089 0
6.1490002 -2.8355551 0.44548038 0
6.1430006 -2.843003 0.4454371 0
6.1360002 -2.8499405 0.44538659 0
6.1300006 -2.8573437 0.44534332 0
6.1230001 -2.8642321 0.4452928 0
6.1170006 -2.8715899 0.4452495 0
6.1110005 -2.878926 0.44520622 0
6.1040006 -2.8857424 0.44515571 0
6.0980005 -2.8930335 0.44511241 0
6.0920005 -2.9003029 0.44506913 0
6.0850005 -2.9070473 0.44501862 0
6.0790005 -2.9142716 0.44497532 0
6.0730004 -2.921474 0.44493204 0
6.0660005 -2.9281466 0.44488153 0
6.0600004 -2.9353042 0.44483823 0
6.0540004 -2.9424398 0.44479495 0
6.0470004 -2.9490402 0.44474444 0
6.0410004 -2.9561307 0.44470114 0
6.0350003 -2.9631999 0.44465786 0
6.0290003 -2.9702473 0.44461456 0
6.0230002 -2.977273 0.44457126 0
6.0160003 -2.9837542 0.44452077 0
6.0100002 -2.9907348 0.44447747 0
6.0040002 -2.997694 0.44443417 0
5.9980001 -3.0046313 0.44439089 0
5.9920006 -3.0115473 0.44434759 0
5.9860005 -3.0184414 0.44430432 0
5.9800005 -3.0253141 0.44426101 0
5.9740005 -3.0321651 0.44421771 0
5.9670005 -3.0384564 0.44416723 0
5.9610004 -3.0452623 0.44412392 0
5.9550004 -3.0520465 0.44408062 0
5.9490004 -3.0588088 0.44403735 0
5.9430003 -3.0655499 0.44399405 0
5.9370003 -3.072269 0.44395077 0
5.9310002 -3.0789664 0.44390747 0
5.9250002 -3.0856421 0.44386417 0
5.9190001 -3.0922964 0.44382089 0
5.9130006 -3.0989294 0.44377759 0
5.9070005 -3.1055403 0.44373429 0
5.9010005 -3.1121294 0.44369102 0
5.8960004 -3.1192565 0.44365492 0
5.8900003 -3.1258042 0.44361165 0
5.8840003 -3.1323302 0.44356835 0
5.8780003 -3.1388347 0.44352508 0
5.8720002 -3.1453176 0.44348177 0
5.8660002 -3.1517789 0.44343847 0
5.8600001 -3.1582184 0.4433952 0
5.8540006 -3.1646366 0.44335189 0
6.4200006 -2.5326939 0.43657678 0
6.4130006 -2.5406489 0.4365389 0
6.4060006 -2.5485783 0.43650103 0
6.3990002 -2.5564826 0.43646315 0
6.3920002 -2.5643616 0.43642527 0
6.3850002 -2.5722153 0.43638739 0
6.3780003 -2.580044 0.43634951 0
6.3710003 -2.587847 0.43631163 0
