# .PCD v0.7 - Point Cloud Data file format
VERSION 0.7
FIELDS x y z intensity
SIZE 4 4 4 4
TYPE F F F F
COUNT 1 1 1 1
WIDTH 1458
HEIGHT 1
VIEWPOINT 0 0 0 1 0 0 0
POINTS 1458
DATA ascii
3.8870003 1.6019484 0.91977012 0
3.8840003 1.5942461 0.91932642 0
3.8820002 1.5870236 0.91903055 0
3.8790002 1.5793412 0.91858685 0
3.8770003 1.572135 0.91829097 0
3.8740003 1.5644724 0.91784728 0
3.8720002 1.5572824 0.9175514 0
3.8690002 1.5496397 0.9171077 0
3.8670003 1.542466 0.91681182 0
3.8640003 1.5348431 0.91636813 0
3.8620002 1.5276855 0.91607225 0
3.8600004 1.5205353 0.91577649 0
3.8570004 1.5129412 0.91533279 0
3.8550003 1.5058072 0.91503692 0
3.8520002 1.498233 0.91459322 0
3.8500001 1.4911151 0.91429734 0
3.8480003 1.4840046 0.91400158 0
3.8450003 1.4764593 0.91355777 0
3.8430002 1.4693649 0.91326201 0
3.8410003 1.4622777 0.91296613 0
3.8380003 1.4547613 0.91252244 0
3.8360002 1.4476904 0.91222656 0
3.8330002 1.4401937 0.91178286 0
3.8310003 1.433139 0.91148698 0
3.8290002 1.4260916 0.91119123 0
3.8260002 1.4186237 0.91074741 0
3.8240004 1.4115926 0.91045165 0
3.8220003 1.4045684 0.91015577 0
3.8190002 1.3971295 0.90971208 0
3.8170002 1.3901217 0.9094162 0
3.8150003 1.3831211 0.90912044 0
3.8120003 1.3757112 0.90867674 0
3.8100002 1.3687268 0.90838087 0
3.8080003 1.3617498 0.90808511 0
3.8060002 1.3547797 0.90778923 0
3.8050003 1.3482265 0.90764129 0
3.8040001 1.3416768 0.90749335 0
3.8050003 1.3359426 0.90764129 0
3.8060002 1.3302046 0.90778923 0
3.8080003 1.3248655 0.90808511 0
3.8100002 1.3195189 0.90838087 0
3.8130002 1.3145638 0.90882456 0
3.8170002 1.3099947 0.9094162 0
3.8210003 1.3054113 0.91000795 0
3.8270001 1.3015999 0.91089535 0
3.8330002 1.2977667 0.91178286 0
3.8420002 1.2950809 0.91311407 0
3.8540003 1.2935261 0.91488898 0
3.8860002 1.6014757 0.91333413 0
3.8830004 1.5937753 0.9128958 0
3.8800004 1.5860857 0.91245747 0
3.8780003 1.5788741 0.91216528 0
3.8760002 1.5716697 0.91187298 0
3.8730001 1.5640088 0.91143477 0
3.8710003 1.5568208 0.91114247 0
3.8680003 1.5491798 0.91070414 0
3.8660002 1.5420078 0.91041195 0
3.8640003 1.5348431 0.91011977 0
3.8610003 1.5272311 0.90968144 0
3.8590002 1.5200826 0.90938926 0
3.8560002 1.5124903 0.90895081 0
3.8540003 1.5053581 0.90865862 0
3.8520002 1.498233 0.90836644 0
3.8490002 1.4906696 0.90792811 0
3.8470004 1.4835608 0.90763593 0
3.8450003 1.4764593 0.90734363 0
3.8420002 1.4689248 0.90690529 0
3.8400002 1.4618394 0.90661311 0
3.8380003 1.4547613 0.90632093 0
3.8350003 1.4472556 0.9058826 0
3.8330002 1.4401937 0.9055903 0
3.8310003 1.433139 0.90529811 0
3.8280003 1.4256623 0.9048599 0
3.8260002 1.4186237 0.9045676 0
3.8240004 1.4115926 0.90427542 0
3.8210003 1.4041446 0.90383708 0
3.8190002 1.3971295 0.9035449 0
3.8170002 1.3901217 0.9032526 0
3.8150003 1.3831211 0.90296042 0
3.8120003 1.3757112 0.90252209 0
3.8100002 1.3687268 0.90222991 0
3.8080003 1.3617498 0.90193766 0
3.8060002 1.3547797 0.90164542 0
3.8050003 1.3482265 0.90149939 0
3.8040001 1.3416768 0.90135324 0
3.8050003 1.3359426 0.90149939 0
3.8060002 1.3302046 0.90164542 0
3.8080003 1.3248655 0.90193766 0
3.8100002 1.3195189 0.90222991 0
3.8130002 1.3145638 0.90266824 0
3.8170002 1.3099947 0.9032526 0
3.8210003 1.3054113 0.90383708 0
3.8260002 1.3012067 0.9045676 0
3.8330002 1.2977667 0.9055903 0
3.8410003 1.2946913 0.90675926 0
3.8510003 1.2923626 0.90822029 0
3.8850002 1.6010032 0.90690172 0
3.8820002 1.5933044 0.90646875 0
3.8800004 1.5860857 0.90618026 0
3.8770003 1.5784069 0.90574729 0
3.8750002 1.5712043 0.90545869 0
3.8730001 1.5640088 0.90517008 0
3.8700004 1.5563589 0.90473723 0
3.8680003 1.5491798 0.90444851 0
3.8660002 1.5420078 0.9041599 0
3.8630002 1.5343868 0.90372705 0
3.8610003 1.5272311 0.90343845 0
3.8590002 1.5200826 0.90314984 0
3.8560002 1.5124903 0.90271688 0
3.8540003 1.5053581 0.90242827 0
3.8520002 1.498233 0.90213966 0
3.8490002 1.4906696 0.90170681 0
3.8470004 1.4835608 0.90141821 0
3.8450003 1.4764593 0.90112954 0
3.8420002 1.4689248 0.90069664 0
3.8400002 1.4618394 0.90040803 0
3.8380003 1.4547613 0.90011942 0
3.8350003 1.4472556 0.89968652 0
3.8330002 1.4401937 0.89939791 0
3.8310003 1.433139 0.8991093 0
3.8280003 1.4256623 0.8986764 0
3.8260002 1.4186237 0.89838779 0
3.8240004 1.4115926 0.89809918 0
3.8210003 1.4041446 0.89766628 0
3.8190002 1.3971295 0.89737761 0
3.8170002 1.3901217 0.897089 0
3.8150003 1.3831211 0.8968004 0
3.8120003 1.3757112 0.89636755 0
3.8100002 1.3687268 0.89607894 0
3.8080003 1.3617498 0.89579028 0
3.8060002 1.3547797 0.89550167 0
3.8050003 1.3482265 0.89535737 0
3.8040001 1.3416768 0.89521307 0
3.8050003 1.3359426 0.89535737 0
3.8060002 1.3302046 0.89550167 0
3.8080003 1.3248655 0.89579028 0
3.8100002 1.3195189 0.89607894 0
3.8130002 1.3145638 0.89651179 0
3.8170002 1.3099947 0.897089 0
3.8210003 1.3054113 0.89766628 0
3.8270001 1.3015999 0.89853203 0
3.8330002 1.2977667 0.89939791 0
3.8410003 1.2946913 0.90055239 0
3.8510003 1.2923626 0.90199542 0
3.8850002 1.6010032 0.90061545 0
3.8820002 1.5933044 0.90018797 0
3.8800004 1.5860857 0.89990294 0
3.8770003 1.5784069 0.89947546 0
3.8750002 1.5712043 0.89919049 0
3.8730001 1.5640088 0.89890546 0
3.8700004 1.5563589 0.89847803 0
3.8680003 1.5491798 0.898193 0
3.8660002 1.5420078 0.89790797 0
3.8630002 1.5343868 0.89748043 0
3.8610003 1.5272311 0.89719546 0
3.8590002 1.5200826 0.89691043 0
3.8560002 1.5124903 0.89648294 0
3.8540003 1.5053581 0.89619797 0
3.8520002 1.498233 0.89591295 0
3.8490002 1.4906696 0.8954854 0
3.8470004 1.4835608 0.89520049 0
3.8450003 1.4764593 0.89491546 0
3.8420002 1.4689248 0.89448792 0
3.8400002 1.4618394 0.89420295 0
3.8380003 1.4547613 0.89391792 0
3.8350003 1.4472556 0.89349043 0
3.8330002 1.4401937 0.8932054 0
3.8310003 1.433139 0.89292043 0
3.8280003 1.4256623 0.89249289 0
3.8260002 1.4186237 0.89220798 0
3.8240004 1.4115926 0.89192295 0
3.8210003 1.4041446 0.89149547 0
3.8190002 1.3971295 0.89121044 0
3.8170002 1.3901217 0.89092541 0
3.8150003 1.3831211 0.89064038 0
3.8120003 1.3757112 0.89021289 0
3.8100002 1.3687268 0.88992792 0
3.8080003 1.3617498 0.88964295 0
3.8060002 1.3547797 0.88935792 0
3.8050003 1.3482265 0.88921547 0
3.8040001 1.3416768 0.8890729 0
3.8050003 1.3359426 0.88921547 0
3.8060002 1.3302046 0.88935792 0
3.8080003 1.3248655 0.88964295 0
3.8100002 1.3195189 0.88992792 0
3.8130002 1.3145638 0.89035541 0
3.8170002 1.3099947 0.89092541 0
3.8210003 1.3054113 0.89149547 0
3.8270001 1.3015999 0.89235044 0
3.8330002 1.2977667 0.8932054 0
3.8410003 1.2946913 0.89434546 0
3.8500001 1.2919747 0.89562798 0
3.8620002 1.2903838 0.89733797 0
3.8820002 1.5933044 0.89390707 0
3.8800004 1.5860857 0.89362574 0
3.8770003 1.5784069 0.89320362 0
3.8750002 1.5712043 0.89292228 0
3.8730001 1.5640088 0.89264083 0
3.8700004 1.5563589 0.89221883 0
3.8680003 1.5491798 0.89193738 0
3.8660002 1.5420078 0.89165592 0
3.8630002 1.5343868 0.89123386 0
3.8610003 1.5272311 0.89095247 0
3.8590002 1.5200826 0.89067107 0
3.8560002 1.5124903 0.89024895 0
3.8540003 1.5053581 0.88996762 0
3.8520002 1.498233 0.88968623 0
3.8490002 1.4906696 0.88926411 0
3.8470004 1.4835608 0.88898277 0
3.8450003 1.4764593 0.88870132 0
3.8420002 1.4689248 0.8882792 0
3.8400002 1.4618394 0.88799787 0
3.8380003 1.4547613 0.88771641 0
3.8350003 1.4472556 0.88729441 0
3.8330002 1.4401937 0.88701296 0
3.8310003 1.433139 0.88673156 0
3.8280003 1.4256623 0.88630944 0
3.8260002 1.4186237 0.88602805 0
3.8240004 1.4115926 0.88574672 0
3.8210003 1.4041446 0.8853246 0
3.8190002 1.3971295 0.8850432 0
3.8170002 1.3901217 0.88476181 0
3.8150003 1.3831211 0.88448048 0
3.8120003 1.3757112 0.88405836 0
3.8100002 1.3687268 0.8837769 0
3.8080003 1.3617498 0.88349551 0
3.8060002 1.3547797 0.88321412 0
3.8050003 1.3482265 0.88307345 0
3.8040001 1.3416768 0.88293272 0
3.8050003 1.3359426 0.88307345 0
3.8060002 1.3302046 0.88321412 0
3.8080003 1.3248655 0.88349551 0
3.8100002 1.3195189 0.8837769 0
3.8130002 1.3145638 0.88419902 0
3.8170002 1.3099947 0.88476181 0
3.8210003 1.3054113 0.8853246 0
3.8270001 1.3015999 0.88616872 0
3.8330002 1.2977667 0.88701296 0
3.8410003 1.2946913 0.88813853 0
3.8500001 1.2919747 0.88940477 0
3.8600004 1.2896118 0.8908118 0
3.8800004 1.5860857 0.88734847 0
3.8770003 1.5784069 0.88693178 0
3.8750002 1.5712043 0.88665402 0
3.8730001 1.5640088 0.88637614 0
3.8700004 1.5563589 0.88595957 0
3.8680003 1.5491798 0.88568175 0
3.8660002 1.5420078 0.88540399 0
3.8630002 1.5343868 0.88498724 0
3.8610003 1.5272311 0.88470948 0
3.8590002 1.5200826 0.88443172 0
3.8560002 1.5124903 0.88401496 0
3.8540003 1.5053581 0.88373721 0
3.8520002 1.498233 0.88345945 0
3.8490002 1.4906696 0.88304275 0
3.8470004 1.4835608 0.88276494 0
3.6610003 1.3951436 0.85693085 0
3.6590002 1.3883811 0.85665309 0
3.6570003 1.3816259 0.85637528 0
3.6540003 1.3744413 0.85595858 0
3.6520002 1.3677021 0.85568082 0
3.6500003 1.3609705 0.85540307 0
3.6480002 1.3542458 0.85512519 0
3.6460001 1.3475285 0.85484743 0
3.6430004 1.3403908 0.85443079 0
3.6410003 1.3336896 0.85415298 0
3.6470003 1.3303869 0.85498631 0
3.6550002 1.3279066 0.85609746 0
3.8170002 1.3901217 0.87859821 0
3.8150003 1.3831211 0.87832046 0
3.8120003 1.3757112 0.8779037 0
3.8100002 1.3687268 0.87762594 0
3.8080003 1.3617498 0.87734818 0
3.8060002 1.3547797 0.87707043 0
3.8050003 1.3482265 0.87693155 0
3.8040001 1.3416768 0.87679255 0
3.8050003 1.3359426 0.87693155 0
3.8060002 1.3302046 0.87707043 0
3.8080003 1.3248655 0.87734818 0
3.8100002 1.3195189 0.87762594 0
3.8130002 1.3145638 0.87804258 0
3.8170002 1.3099947 0.87859821 0
3.8210003 1.3054113 0.87915379 0
3.8270001 1.3015999 0.87998712 0
3.8330002 1.2977667 0.88082051 0
3.8410003 1.2946913 0.88193166 0
3.8500001 1.2919747 0.88318163 0
3.8590002 1.2892257 0.88443172 0
3.7060003 1.5342984 0.85721767 0
3.7030003 1.5269064 0.8568064 0
3.7010002 1.5199995 0.85653222 0
3.6990004 1.5131 0.85625803 0
3.6970003 1.5062076 0.85598385 0
3.6940002 1.4988536 0.85557258 0
3.6920002 1.4919773 0.8552984 0
3.6900003 1.4851085 0.85502422 0
3.6880002 1.4782468 0.85475004 0
3.6850002 1.4709306 0.85433877 0
3.6830003 1.4640851 0.85406458 0
3.6810002 1.4572469 0.8537904 0
3.6790001 1.4504158 0.85351622 0
3.6760004 1.4431375 0.85310495 0
3.6740003 1.4363227 0.85283077 0
3.6720002 1.429515 0.85255659 0
3.6700003 1.4227148 0.85228246 0
3.6680002 1.4159217 0.85200822 0
3.6650002 1.4086901 0.85159695 0
3.6630003 1.4019133 0.85132283 0
3.6610003 1.3951436 0.85104865 0
3.6590002 1.3883811 0.85077441 0
3.6570003 1.3816259 0.85050029 0
3.6540003 1.3744413 0.85008901 0
3.6520002 1.3677021 0.84981483 0
3.6500003 1.3609705 0.84954065 0
3.6480002 1.3542458 0.84926647 0
3.6460001 1.3475285 0.84899223 0
3.6430004 1.3403908 0.84858108 0
3.6410003 1.3336896 0.84830683 0
3.6470003 1.3303869 0.84912938 0
3.6550002 1.3279066 0.85022604 0
3.6630003 1.3253975 0.85132283 0
3.8120003 1.3757112 0.87174916 0
3.8100002 1.3687268 0.87147498 0
3.8080003 1.3617498 0.8712008 0
3.8060002 1.3547797 0.87092662 0
3.8050003 1.3482265 0.87078953 0
3.8040001 1.3416768 0.87065244 0
3.8050003 1.3359426 0.87078953 0
3.8060002 1.3302046 0.87092662 0
3.8080003 1.3248655 0.8712008 0
3.8100002 1.3195189 0.87147498 0
3.8130002 1.3145638 0.87188619 0
3.8170002 1.3099947 0.87243462 0
3.8210003 1.3054113 0.87298298 0
3.8270001 1.3015999 0.8738054 0
3.8330002 1.2977667 0.87462807 0
3.8410003 1.2946913 0.87572473 0
3.8510003 1.2923626 0.87709558 0
3.8590002 1.2892257 0.87819231 0
3.8700004 1.2872127 0.87970036 0
3.7490003 1.669631 0.85707152 0
3.7470002 1.6625689 0.85680097 0
3.7450004 1.6555144 0.85653043 0
3.7420003 1.6479599 0.85612458 0
3.7400002 1.6409215 0.85585397 0
3.7380002 1.6338902 0.85558343 0
3.7350004 1.6263647 0.85517752 0
3.7330003 1.6193497 0.85490698 0
3.7310002 1.6123419 0.85463643 0
3.7280002 1.6048453 0.85423052 0
3.7260003 1.5978537 0.85395998 0
3.7240002 1.5908693 0.85368943 0
3.7220004 1.5838922 0.85341883 0
3.7190003 1.5764337 0.85301298 0
3.7170002 1.5694726 0.85274243 0
3.7150002 1.5625188 0.85247183 0
3.7120004 1.5550891 0.85206604 0
3.7100003 1.5481516 0.85179543 0
3.7080002 1.5412214 0.85152483 0
3.7060003 1.5342984 0.85125422 0
3.7030003 1.5269064 0.85084844 0
3.7010002 1.5199995 0.85057783 0
3.6990004 1.5131 0.85030729 0
3.6970003 1.5062076 0.85003668 0
3.6940002 1.4988536 0.84963083 0
3.6920002 1.4919773 0.84936023 0
3.6900003 1.4851085 0.84908974 0
3.6880002 1.4782468 0.84881914 0
3.6850002 1.4709306 0.84841323 0
3.6830003 1.4640851 0.84814274 0
3.6810002 1.4572469 0.84787214 0
3.6790001 1.4504158 0.84760153 0
3.6760004 1.4431375 0.84719568 0
3.6740003 1.4363227 0.84692514 0
3.6720002 1.429515 0.84665453 0
3.6700003 1.4227148 0.84638399 0
3.6680002 1.4159217 0.84611344 0
3.6650002 1.4086901 0.84570754 0
3.6630003 1.4019133 0.84543699 0
3.6610003 1.3951436 0.84516644 0
3.6590002 1.3883811 0.84489584 0
3.6570003 1.3816259 0.84462523 0
3.6540003 1.3744413 0.84421945 0
3.6520002 1.3677021 0.84394884 0
3.6500003 1.3609705 0.84367824 0
3.6480002 1.3542458 0.84340769 0
3.6460001 1.3475285 0.84313715 0
3.6430004 1.3403908 0.8427313 0
3.6410003 1.3336896 0.84246069 0
3.6470003 1.3303869 0.84327245 0
3.6550002 1.3279066 0.84435475 0
3.6630003 1.3253975 0.84543699 0
3.6710002 1.3228595 0.84651923 0
3.8120003 1.3757112 0.86559451 0
3.8100002 1.3687268 0.86532396 0
3.8080003 1.3617498 0.86505342 0
3.8060002 1.3547797 0.86478281 0
3.8050003 1.3482265 0.86464751 0
3.8040001 1.3416768 0.86451221 0
3.8050003 1.3359426 0.86464751 0
3.8060002 1.3302046 0.86478281 0
3.8080003 1.3248655 0.86505342 0
3.8100002 1.3195189 0.86532396 0
3.8130002 1.3145638 0.86572981 0
3.8170002 1.3099947 0.8662709 0
3.8210003 1.3054113 0.86681211 0
3.8270001 1.3015999 0.86762381 0
3.8330002 1.2977667 0.8684355 0
3.8410003 1.2946913 0.8695178 0
3.8510003 1.2923626 0.87087071 0
3.8590002 1.2892257 0.87195301 0
3.8690002 1.2868285 0.8733058 0
3.7560003 1.6913776 0.85196495 0
3.7540002 1.6842922 0.85169804 0
3.7520003 1.6772141 0.85143101 0
3.7490003 1.669631 0.85103059 0
3.7470002 1.6625689 0.85076362 0
3.7450004 1.6555144 0.85049665 0
3.7420003 1.6479599 0.85009623 0
3.7400002 1.6409215 0.84982926 0
3.7380002 1.6338902 0.84956229 0
3.7350004 1.6263647 0.84916186 0
3.7330003 1.6193497 0.84889489 0
3.7310002 1.6123419 0.84862792 0
3.7280002 1.6048453 0.8482275 0
3.7260003 1.5978537 0.84796053 0
3.7240002 1.5908693 0.84769356 0
3.7220004 1.5838922 0.84742659 0
3.7190003 1.5764337 0.84702611 0
3.7170002 1.5694726 0.8467592 0
3.7150002 1.5625188 0.84649217 0
3.7120004 1.5550891 0.84609175 0
3.7100003 1.5481516 0.84582484 0
3.7080002 1.5412214 0.84555781 0
3.7060003 1.5342984 0.8452909 0
3.7030003 1.5269064 0.84489048 0
3.7010002 1.5199995 0.84462345 0
3.6990004 1.5131 0.84435654 0
3.6970003 1.5062076 0.84408951 0
3.6940002 1.4988536 0.84368908 0
3.6920002 1.4919773 0.84342211 0
3.6900003 1.4851085 0.84315515 0
3.6880002 1.4782468 0.84288824 0
3.6850002 1.4709306 0.84248775 0
3.6830003 1.4640851 0.84222078 0
3.6810002 1.4572469 0.84195381 0
3.6790001 1.4504158 0.84168684 0
3.6760004 1.4431375 0.84128642 0
3.6740003 1.4363227 0.84101945 0
3.6720002 1.429515 0.84075248 0
3.6700003 1.4227148 0.84048557 0
3.6680002 1.4159217 0.84021854 0
3.6650002 1.4086901 0.83981812 0
3.6630003 1.4019133 0.83955121 0
3.6610003 1.3951436 0.83928418 0
3.6590002 1.3883811 0.83901721 0
3.6570003 1.3816259 0.83875024 0
3.6540003 1.3744413 0.83834982 0
3.6520002 1.3677021 0.83808285 0
3.6500003 1.3609705 0.83781588 0
3.6480002 1.3542458 0.83754891 0
3.6460001 1.3475285 0.83728194 0
3.6430004 1.3403908 0.83688152 0
3.6410003 1.3336896 0.83661461 0
3.6470003 1.3303869 0.83741546 0
3.6550002 1.3279066 0.83848333 0
3.6630003 1.3253975 0.83955121 0
3.6710002 1.3228595 0.84061903 0
3.8120003 1.3757112 0.85943997 0
3.8100002 1.3687268 0.85917294 0
3.8080003 1.3617498 0.85890603 0
3.8060002 1.3547797 0.858639 0
3.8050003 1.3482265 0.85850561 0
3.8040001 1.3416768 0.85837209 0
3.8050003 1.3359426 0.85850561 0
3.8060002 1.3302046 0.858639 0
3.8080003 1.3248655 0.85890603 0
3.8100002 1.3195189 0.85917294 0
3.8130002 1.3145638 0.85957342 0
3.8170002 1.3099947 0.8601073 0
3.8210003 1.3054113 0.8606413 0
3.8270001 1.3015999 0.86144221 0
3.8330002 1.2977667 0.86224306 0
3.8410003 1.2946913 0.86331093 0
3.8520002 1.2927505 0.86477923 0
3.8590002 1.2892257 0.8657136 0
3.8680003 1.2864443 0.86691493 0
3.7590003 1.6989897 0.84630644 0
3.7560003 1.6913776 0.84591138 0
3.7540002 1.6842922 0.84564805 0
3.7520003 1.6772141 0.84538472 0
3.7490003 1.669631 0.84498966 0
3.7470002 1.6625689 0.84472626 0
3.7450004 1.6555144 0.84446293 0
3.7420003 1.6479599 0.84406793 0
3.7400002 1.6409215 0.84380454 0
3.7380002 1.6338902 0.84354115 0
3.7350004 1.6263647 0.84314615 0
3.7330003 1.6193497 0.84288281 0
3.7310002 1.6123419 0.84261942 0
3.7280002 1.6048453 0.84222436 0
3.7260003 1.5978537 0.84196103 0
3.7240002 1.5908693 0.84169769 0
3.7220004 1.5838922 0.84143436 0
3.7190003 1.5764337 0.8410393 0
3.7170002 1.5694726 0.84077597 0
3.7150002 1.5625188 0.84051257 0
3.7120004 1.5550891 0.84011757 0
3.7100003 1.5481516 0.83985424 0
3.7080002 1.5412214 0.83959085 0
3.7060003 1.5342984 0.83932745 0
3.7030003 1.5269064 0.83893245 0
3.7010002 1.5199995 0.83866906 0
3.6990004 1.5131 0.83840573 0
3.6970003 1.5062076 0.8381424 0
3.6940002 1.4988536 0.83774734 0
3.6920002 1.4919773 0.837484 0
3.6900003 1.4851085 0.83722067 0
3.6880002 1.4782468 0.83695728 0
3.6850002 1.4709306 0.83656228 0
3.6830003 1.4640851 0.83629888 0
3.6810002 1.4572469 0.83603555 0
3.6790001 1.4504158 0.83577216 0
3.6760004 1.4431375 0.83537716 0
3.6740003 1.4363227 0.83511376 0
3.6720002 1.429515 0.83485043 0
3.6700003 1.4227148 0.8345871 0
3.6680002 1.4159217 0.83432376 0
3.6650002 1.4086901 0.8339287 0
3.6630003 1.4019133 0.83366537 0
3.6610003 1.3951436 0.83340198 0
3.6590002 1.3883811 0.83313859 0
3.6570003 1.3816259 0.83287525 0
3.6540003 1.3744413 0.83248019 0
3.6520002 1.3677021 0.83221686 0
3.6500003 1.3609705 0.83195353 0
3.6480002 1.3542458 0.83169019 0
3.6460001 1.3475285 0.8314268 0
3.6430004 1.3403908 0.8310318 0
3.6410003 1.3336896 0.83076847 0
3.6470003 1.3303869 0.83155847 0
3.6550002 1.3279066 0.83261192 0
3.6630003 1.3253975 0.83366537 0
3.6710002 1.3228595 0.8347187 0
3.8120003 1.3757112 0.85328537 0
3.8100002 1.3687268 0.85302198 0
3.8080003 1.3617498 0.85275865 0
3.8060002 1.3547797 0.85249531 0
3.8050003 1.3482265 0.85236359 0
3.8040001 1.3416768 0.85223192 0
3.8050003 1.3359426 0.85236359 0
3.8060002 1.3302046 0.85249531 0
3.8080003 1.3248655 0.85275865 0
3.8100002 1.3195189 0.85302198 0
3.8130002 1.3145638 0.85341704 0
3.8170002 1.3099947 0.85394371 0
3.8210003 1.3054113 0.85447049 0
3.8270001 1.3015999 0.85526049 0
3.8330002 1.2977667 0.85605061 0
3.8410003 1.2946913 0.85710406 0
3.8530002 1.2931381 0.85868412 0
3.8590002 1.2892257 0.85947418 0
3.8670003 1.2860601 0.86052763 0
3.8780003 1.2840128 0.86197615 0
3.7610002 1.7060913 0.84050715 0
3.7590003 1.6989897 0.84024745 0
3.7560003 1.6913776 0.83985782 0
3.7540002 1.6842922 0.83959806 0
3.7520003 1.6772141 0.8393383 0
3.7490003 1.669631 0.83894873 0
3.7470002 1.6625689 0.83868897 0
3.7450004 1.6555144 0.83842921 0
3.7420003 1.6479599 0.83803958 0
3.7400002 1.6409215 0.83777982 0
3.7380002 1.6338902 0.83752 0
3.7350004 1.6263647 0.83713049 0
3.7330003 1.6193497 0.83687067 0
3.7310002 1.6123419 0.83661091 0
3.7280002 1.6048453 0.83622134 0
3.7260003 1.5978537 0.83596158 0
3.7240002 1.5908693 0.83570182 0
3.7220004 1.5838922 0.83544207 0
3.7190003 1.5764337 0.83505249 0
3.7170002 1.5694726 0.83479273 0
3.7150002 1.5625188 0.83453298 0
3.7120004 1.5550891 0.8341434 0
3.7100003 1.5481516 0.83388358 0
3.7080002 1.5412214 0.83362389 0
3.7060003 1.5342984 0.83336413 0
3.7030003 1.5269064 0.83297443 0
3.7010002 1.5199995 0.83271474 0
3.6990004 1.5131 0.83245498 0
3.6970003 1.5062076 0.83219528 0
3.6940002 1.4988536 0.83180559 0
3.6920002 1.4919773 0.83154583 0
3.6900003 1.4851085 0.83128613 0
3.6880002 1.4782468 0.83102632 0
3.6850002 1.4709306 0.83063674 0
3.6830003 1.4640851 0.83037698 0
3.6810002 1.4572469 0.83011723 0
3.6790001 1.4504158 0.82985747 0
3.6760004 1.4431375 0.82946789 0
3.6740003 1.4363227 0.82920814 0
3.6720002 1.429515 0.82894838 0
3.6700003 1.4227148 0.82868862 0
3.6680002 1.4159217 0.82842886 0
3.6650002 1.4086901 0.82803923 0
3.6630003 1.4019133 0.82777953 0
3.6610003 1.3951436 0.82751977 0
3.6590002 1.3883811 0.82726002 0
3.6570003 1.3816259 0.82700026 0
3.6540003 1.3744413 0.82661062 0
3.6520002 1.3677021 0.82635093 0
3.6500003 1.3609705 0.82609117 0
3.6480002 1.3542458 0.82583141 0
3.6460001 1.3475285 0.82557166 0
3.6430004 1.3403908 0.82518202 0
3.6410003 1.3336896 0.82492232 0
3.6470003 1.3303869 0.82570148 0
3.6550002 1.3279066 0.8267405 0
3.6630003 1.3253975 0.82777953 0
3.6710002 1.3228595 0.8288185 0
3.8120003 1.3757112 0.84713078 0
3.8100002 1.3687268 0.84687102 0
3.8080003 1.3617498 0.84661126 0
3.8060002 1.3547797 0.8463515 0
3.8050003 1.3482265 0.84622169 0
3.8040001 1.3416768 0.84609175 0
3.8050003 1.3359426 0.84622169 0
3.8060002 1.3302046 0.8463515 0
3.8080003 1.3248655 0.84661126 0
3.8100002 1.3195189 0.84687102 0
3.8130002 1.3145638 0.84726059 0
3.8170002 1.3099947 0.84778011 0
3.8210003 1.3054113 0.84829962 0
3.8270001 1.3015999 0.84907889 0
3.8330002 1.2977667 0.84985811 0
3.8410003 1.2946913 0.85089707 0
3.8530002 1.2931381 0.85245562 0
3.8600004 1.2896118 0.85336471 0
3.8680003 1.2864443 0.85440373 0
3.8770003 1.2836304 0.85557258 0
3.7630002 1.7132 0.8347007 0
3.7610002 1.7060913 0.83444458 0
3.7590003 1.6989897 0.83418846 0
3.7560003 1.6913776 0.83380425 0
3.7540002 1.6842922 0.83354807 0
3.7520003 1.6772141 0.83329195 0
3.7490003 1.669631 0.8329078 0
3.7470002 1.6625689 0.83265162 0
3.7450004 1.6555144 0.83239543 0
3.7420003 1.6479599 0.83201122 0
3.7400002 1.6409215 0.8317551 0
3.7380002 1.6338902 0.83149898 0
3.7350004 1.6263647 0.83111477 0
3.7330003 1.6193497 0.83085859 0
3.7310002 1.6123419 0.83060247 0
3.7280002 1.6048453 0.83021826 0
3.7260003 1.5978537 0.82996213 0
3.7240002 1.5908693 0.82970595 0
3.7220004 1.5838922 0.82944983 0
3.7190003 1.5764337 0.82906562 0
3.7170002 1.5694726 0.8288095 0
3.7150002 1.5625188 0.82855332 0
3.7120004 1.5550891 0.82816911 0
3.7100003 1.5481516 0.82791299 0
3.7080002 1.5412214 0.82765687 0
3.7060003 1.5342984 0.82740068 0
3.7030003 1.5269064 0.82701647 0
3.7010002 1.5199995 0.82676035 0
3.6990004 1.5131 0.82650423 0
3.6970003 1.5062076 0.82624805 0
3.6940002 1.4988536 0.82586384 0
3.6920002 1.4919773 0.82560772 0
3.6900003 1.4851085 0.8253516 0
3.6880002 1.4782468 0.82509542 0
3.6850002 1.4709306 0.8247112 0
3.6830003 1.4640851 0.82445514 0
3.6810002 1.4572469 0.82419896 0
3.6790001 1.4504158 0.82394278 0
3.6760004 1.4431375 0.82355863 0
3.6740003 1.4363227 0.82330245 0
3.6720002 1.429515 0.82304633 0
3.6700003 1.4227148 0.82279015 0
3.6680002 1.4159217 0.82253402 0
3.6650002 1.4086901 0.82214981 0
3.6630003 1.4019133 0.82189369 0
3.6610003 1.3951436 0.82163751 0
3.6590002 1.3883811 0.82138139 0
3.6570003 1.3816259 0.82112527 0
3.6540003 1.3744413 0.82074106 0
3.6520002 1.3677021 0.82048488 0
3.6500003 1.3609705 0.82022882 0
3.6480002 1.3542458 0.81997263 0
3.6460001 1.3475285 0.81971645 0
3.6430004 1.3403908 0.8193323 0
3.6410003 1.3336896 0.81907612 0
3.6470003 1.3303869 0.8198446 0
3.6550002 1.3279066 0.82086909 0
3.6630003 1.3253975 0.82189369 0
3.6710002 1.3228595 0.82291824 0
3.8120003 1.3757112 0.84097618 0
3.8100002 1.3687268 0.84072 0
3.8080003 1.3617498 0.84046388 0
3.8060002 1.3547797 0.8402077 0
3.8050003 1.3482265 0.84007967 0
3.8040001 1.3416768 0.83995163 0
3.8050003 1.3359426 0.84007967 0
3.8060002 1.3302046 0.8402077 0
3.8080003 1.3248655 0.84046388 0
3.8100002 1.3195189 0.84072 0
3.8130002 1.3145638 0.84110427 0
3.8170002 1.3099947 0.84161651 0
3.8210003 1.3054113 0.84212881 0
3.8270001 1.3015999 0.84289718 0
3.8330002 1.2977667 0.8436656 0
3.8410003 1.2946913 0.8446902 0
3.8530002 1.2931381 0.84622705 0
3.8610003 1.2899978 0.84725165 0
3.8680003 1.2864443 0.84814811 0
3.8770003 1.2836304 0.84930074 0
3.8890002 1.2819257 0.85083759 0
3.7630002 1.7132 0.8286345 0
3.7610002 1.7060913 0.82838196 0
3.7590003 1.6989897 0.82812947 0
3.7560003 1.6913776 0.82775068 0
3.7540002 1.6842922 0.82749808 0
3.7520003 1.6772141 0.82724559 0
3.7490003 1.669631 0.82686675 0
3.7470002 1.6625689 0.82661426 0
3.7450004 1.6555144 0.82636178 0
3.7420003 1.6479599 0.82598293 0
3.7400002 1.6409215 0.82573038 0
3.7380002 1.6338902 0.82547784 0
3.7350004 1.6263647 0.82509905 0
3.7330003 1.6193497 0.82484651 0
3.7310002 1.6123419 0.82459402 0
3.7280002 1.6048453 0.82421517 0
3.7260003 1.5978537 0.82396263 0
3.7240002 1.5908693 0.82371008 0
3.7220004 1.5838922 0.8234576 0
3.7190003 1.5764337 0.82307875 0
3.7170002 1.5694726 0.82282627 0
3.7150002 1.5625188 0.82257366 0
3.7120004 1.5550891 0.82219493 0
3.7100003 1.5481516 0.82194239 0
3.7080002 1.5412214 0.82168984 0
3.7060003 1.5342984 0.82143736 0
3.7030003 1.5269064 0.82105851 0
3.7010002 1.5199995 0.82080597 0
3.6990004 1.5131 0.82055348 0
3.6970003 1.5062076 0.82030094 0
3.6940002 1.4988536 0.81992209 0
3.6920002 1.4919773 0.8196696 0
3.6900003 1.4851085 0.81941706 0
3.6880002 1.4782468 0.81916451 0
3.6850002 1.4709306 0.81878573 0
3.6830003 1.4640851 0.81853318 0
3.6810002 1.4572469 0.8182807 0
3.6790001 1.4504158 0.81802809 0
3.6760004 1.4431375 0.81764936 0
3.6740003 1.4363227 0.81739676 0
3.6720002 1.429515 0.81714427 0
3.6700003 1.4227148 0.81689173 0
3.6680002 1.4159217 0.81663918 0
3.6650002 1.4086901 0.81626034 0
3.6630003 1.4019133 0.81600785 0
3.6610003 1.3951436 0.81575531 0
3.6590002 1.3883811 0.81550276 0
3.6570003 1.3816259 0.81525028 0
3.6540003 1.3744413 0.81487143 0
3.6520002 1.3677021 0.81461889 0
3.6500003 1.3609705 0.8143664 0
3.6480002 1.3542458 0.81411386 0
3.6460001 1.3475285 0.81386131 0
3.6430004 1.3403908 0.81348252 0
3.6410003 1.3336896 0.81322998 0
3.6470003 1.3303869 0.81398761 0
3.6550002 1.3279066 0.81499767 0
3.6630003 1.3253975 0.81600785 0
3.6710002 1.3228595 0.81701803 0
3.8120003 1.3757112 0.83482158 0
3.8100002 1.3687268 0.83456904 0
3.8080003 1.3617498 0.83431649 0
3.8060002 1.3547797 0.83406401 0
3.8050003 1.3482265 0.83393776 0
3.8040001 1.3416768 0.8338114 0
3.8050003 1.3359426 0.83393776 0
3.8060002 1.3302046 0.83406401 0
3.8080003 1.3248655 0.83431649 0
3.8100002 1.3195189 0.83456904 0
3.8130002 1.3145638 0.83494782 0
3.8170002 1.3099947 0.83545291 0
3.8210003 1.3054113 0.835958 0
3.8270001 1.3015999 0.83671558 0
3.8330002 1.2977667 0.83747315 0
3.8410003 1.2946913 0.83848333 0
3.8530002 1.2931381 0.83999848 0
3.8620002 1.2903838 0.84113491 0
3.8680003 1.2864443 0.84189248 0
3.8760002 1.2832478 0.84290266 0
3.8870003 1.2811645 0.84429157 0
3.7630002 1.7132 0.8225683 0
3.7610002 1.7060913 0.82231939 0
3.7590003 1.6989897 0.82207048 0
3.7560003 1.6913776 0.82169706 0
3.7540002 1.6842922 0.82144815 0
3.7520003 1.6772141 0.82119918 0
3.7490003 1.669631 0.82082582 0
3.7470002 1.6625689 0.82057691 0
3.7450004 1.6555144 0.820328 0
3.7420003 1.6479599 0.81995463 0
3.7400002 1.6409215 0.81970567 0
3.7380002 1.6338902 0.8194567 0
3.7350004 1.6263647 0.81908333 0
3.7330003 1.6193497 0.81883442 0
3.7310002 1.6123419 0.81858552 0
3.7280002 1.6048453 0.81821209 0
3.7260003 1.5978537 0.81796318 0
3.7240002 1.5908693 0.81771421 0
3.7220004 1.5838922 0.81746531 0
3.7190003 1.5764337 0.81709194 0
3.7170002 1.5694726 0.81684303 0
3.7150002 1.5625188 0.81659406 0
3.7120004 1.5550891 0.8162207 0
3.7100003 1.5481516 0.81597179 0
3.7080002 1.5412214 0.81572282 0
3.7060003 1.5342984 0.81547391 0
3.7030003 1.5269064 0.81510055 0
3.7010002 1.5199995 0.81485164 0
3.6990004 1.5131 0.81460273 0
3.6970003 1.5062076 0.81435376 0
3.6940002 1.4988536 0.81398034 0
3.6920002 1.4919773 0.81373143 0
3.6900003 1.4851085 0.81348252 0
3.6880002 1.4782468 0.81323361 0
3.6850002 1.4709306 0.81286019 0
3.6830003 1.4640851 0.81261134 0
3.6810002 1.4572469 0.81236231 0
3.6790001 1.4504158 0.8121134 0
3.6760004 1.4431375 0.81174004 0
3.6740003 1.4363227 0.81149113 0
3.6720002 1.429515 0.81124222 0
3.6700003 1.4227148 0.81099331 0
3.6680002 1.4159217 0.81074429 0
3.6650002 1.4086901 0.81037092 0
3.6630003 1.4019133 0.81012201 0
3.6610003 1.3951436 0.8098731 0
3.6590002 1.3883811 0.8096242 0
3.6570003 1.3816259 0.80937529 0
3.6540003 1.3744413 0.80900186 0
3.6520002 1.3677021 0.80875289 0
3.6500003 1.3609705 0.80850399 0
3.6480002 1.3542458 0.80825508 0
3.6460001 1.3475285 0.80800617 0
3.6430004 1.3403908 0.8076328 0
3.6410003 1.3336896 0.80738384 0
3.6470003 1.3303869 0.80813062 0
3.6550002 1.3279066 0.80912632 0
3.6630003 1.3253975 0.81012201 0
3.6710002 1.3228595 0.81111771 0
3.8120003 1.3757112 0.82866699 0
3.8100002 1.3687268 0.82841802 0
3.8080003 1.3617498 0.82816911 0
3.8060002 1.3547797 0.8279202 0
3.8050003 1.3482265 0.82779574 0
3.8040001 1.3416768 0.82767129 0
3.8050003 1.3359426 0.82779574 0
3.8060002 1.3302046 0.8279202 0
3.8080003 1.3248655 0.82816911 0
3.8100002 1.3195189 0.82841802 0
3.8130002 1.3145638 0.82879144 0
3.8170002 1.3099947 0.82928932 0
3.8210003 1.3054113 0.82978714 0
3.8270001 1.3015999 0.83053386 0
3.8330002 1.2977667 0.83128071 0
3.8410003 1.2946913 0.8322764 0
3.8530002 1.2931381 0.83376992 0
3.8630002 1.2907698 0.83501458 0
3.8690002 1.2868285 0.83576131 0
3.8770003 1.2836304 0.83675706 0
3.8860002 1.2807839 0.83787715 0
3.7630002 1.7132 0.81650209 0
3.7610002 1.7060913 0.81625676 0
3.7590003 1.6989897 0.81601143 0
3.7560003 1.6913776 0.81564349 0
3.7540002 1.6842922 0.81539816 0
3.7520003 1.6772141 0.81515288 0
3.7490003 1.669631 0.81478488 0
3.7470002 1.6625689 0.81453955 0
3.7450004 1.6555144 0.81429422 0
3.7420003 1.6479599 0.81392622 0
3.7400002 1.6409215 0.81368095 0
3.7380002 1.6338902 0.81343561 0
3.7350004 1.6263647 0.81306767 0
3.7330003 1.6193497 0.81282234 0
3.7310002 1.6123419 0.81257701 0
3.7280002 1.6048453 0.81220901 0
3.7260003 1.5978537 0.81196368 0
3.7240002 1.5908693 0.8117184 0
3.7220004 1.5838922 0.81147307 0
3.7190003 1.5764337 0.81110513 0
3.7170002 1.5694726 0.8108598 0
3.7150002 1.5625188 0.81061447 0
3.7120004 1.5550891 0.81024647 0
3.7100003 1.5481516 0.81000119 0
3.7080002 1.5412214 0.8097558 0
3.7060003 1.5342984 0.80951053 0
3.7030003 1.5269064 0.80914259 0
3.7010002 1.5199995 0.80889726 0
3.6990004 1.5131 0.80865192 0
3.6970003 1.5062076 0.80840659 0
3.6940002 1.4988536 0.80803859 0
3.6920002 1.4919773 0.80779326 0
3.6900003 1.4851085 0.80754805 0
3.6880002 1.4782468 0.80730271 0
3.6850002 1.4709306 0.80693471 0
3.6830003 1.4640851 0.80668938 0
3.6810002 1.4572469 0.80644405 0
3.6790001 1.4504158 0.80619872 0
3.6760004 1.4431375 0.80583078 0
3.6740003 1.4363227 0.8055855 0
3.6720002 1.429515 0.80534011 0
3.6700003 1.4227148 0.80509484 0
3.6680002 1.4159217 0.80484951 0
3.6650002 1.4086901 0.80448151 0
3.6630003 1.4019133 0.80423617 0
3.6610003 1.3951436 0.8039909 0
3.6590002 1.3883811 0.80374551 0
3.6570003 1.3816259 0.80350029 0
3.6540003 1.3744413 0.8031323 0
3.6520002 1.3677021 0.80288696 0
3.6500003 1.3609705 0.80264163 0
3.6480002 1.3542458 0.8023963 0
3.6460001 1.3475285 0.80215096 0
3.6430004 1.3403908 0.80178303 0
3.6410003 1.3336896 0.80153775 0
3.6470003 1.3303869 0.80227363 0
3.6550002 1.3279066 0.80325496 0
3.6630003 1.3253975 0.80423617 0
3.6710002 1.3228595 0.8052175 0
3.8120003 1.3757112 0.82251239 0
3.8100002 1.3687268 0.82226706 0
3.8080003 1.3617498 0.82202172 0
3.8060002 1.3547797 0.82177639 0
3.8050003 1.3482265 0.82165372 0
3.8040001 1.3416768 0.82153106 0
3.8050003 1.3359426 0.82165372 0
3.8060002 1.3302046 0.82177639 0
3.8080003 1.3248655 0.82202172 0
3.8100002 1.3195189 0.82226706 0
3.8130002 1.3145638 0.82263505 0
3.8170002 1.3099947 0.82312566 0
3.8210003 1.3054113 0.82361633 0
3.8270001 1.3015999 0.82435226 0
3.8330002 1.2977667 0.8250882 0
3.8410003 1.2946913 0.82606947 0
3.8530002 1.2931381 0.82754135 0
3.8640003 1.2911558 0.82889068 0
3.8700004 1.2872127 0.82962662 0
3.8770003 1.2836304 0.83048522 0
3.8860002 1.2807839 0.8315891 0
3.8980002 1.2790414 0.8330611 0
3.7630002 1.7132 0.81043589 0
3.7610002 1.7060913 0.81019419 0
3.7590003 1.6989897 0.8099525 0
3.7560003 1.6913776 0.80958986 0
3.7540002 1.6842922 0.80934817 0
3.7520003 1.6772141 0.80910647 0
3.7490003 1.669631 0.80874395 0
3.7470002 1.6625689 0.8085022 0
3.7450004 1.6555144 0.8082605 0
3.7420003 1.6479599 0.80789793 0
3.7400002 1.6409215 0.80765623 0
3.7380002 1.6338902 0.80741453 0
3.7350004 1.6263647 0.80705196 0
3.7330003 1.6193497 0.80681026 0
3.7310002 1.6123419 0.8065685 0
3.7280002 1.6048453 0.80620593 0
3.7260003 1.5978537 0.80596423 0
3.7240002 1.5908693 0.80572253 0
3.7220004 1.5838922 0.80548084 0
3.7190003 1.5764337 0.80511826 0
3.7170002 1.5694726 0.80487657 0
3.7150002 1.5625188 0.80463481 0
3.7120004 1.5550891 0.80427229 0
3.7100003 1.5481516 0.80403054 0
3.7080002 1.5412214 0.80378884 0
3.7060003 1.5342984 0.80354714 0
3.7030003 1.5269064 0.80318457 0
3.7010002 1.5199995 0.80294287 0
3.6990004 1.5131 0.80270118 0
3.6970003 1.5062076 0.80245948 0
3.6940002 1.4988536 0.8020969 0
3.6920002 1.4919773 0.80185521 0
3.6900003 1.4851085 0.80161345 0
3.6880002 1.4782468 0.80137175 0
3.6850002 1.4709306 0.80100918 0
3.6830003 1.4640851 0.80076748 0
3.6810002 1.4572469 0.80052578 0
3.6790001 1.4504158 0.80028403 0
3.6760004 1.4431375 0.79992151 0
3.6740003 1.4363227 0.79967976 0
3.6720002 1.429515 0.79943806 0
3.6700003 1.4227148 0.79919636 0
3.6680002 1.4159217 0.79895461 0
3.6650002 1.4086901 0.79859209 0
3.6630003 1.4019133 0.79835039 0
3.6610003 1.3951436 0.7981087 0
3.6590002 1.3883811 0.79786694 0
3.6570003 1.3816259 0.79762524 0
3.6540003 1.3744413 0.79726267 0
3.6520002 1.3677021 0.79702091 0
3.6500003 1.3609705 0.79677927 0
3.6480002 1.3542458 0.79653752 0
3.6460001 1.3475285 0.79629582 0
3.6430004 1.3403908 0.79593325 0
3.6410003 1.3336896 0.79569161 0
3.6470003 1.3303869 0.7964167 0
3.6550002 1.3279066 0.79738355 0
3.6630003 1.3253975 0.79835039 0
3.6710002 1.3228595 0.79931724 0
3.8120003 1.3757112 0.81635779 0
3.8100002 1.3687268 0.81611609 0
3.8080003 1.3617498 0.81587434 0
3.8060002 1.3547797 0.8156327 0
3.8050003 1.3482265 0.81551182 0
3.8040001 1.3416768 0.81539094 0
3.8050003 1.3359426 0.81551182 0
3.8060002 1.3302046 0.8156327 0
3.8080003 1.3248655 0.81587434 0
3.8100002 1.3195189 0.81611609 0
3.8130002 1.3145638 0.81647861 0
3.8170002 1.3099947 0.81696206 0
3.8210003 1.3054113 0.81744552 0
3.8270001 1.3015999 0.81817061 0
3.8330002 1.2977667 0.8188957 0
3.8410003 1.2946913 0.8198626 0
3.8530002 1.2931381 0.82131279 0
3.8650002 1.2915418 0.82276309 0
3.8710003 1.2875969 0.82348824 0
3.8770003 1.2836304 0.82421339 0
3.8850002 1.2804033 0.82518017 0
3.8960001 1.2782838 0.82650959 0
3.7630002 1.7132 0.80436969 0
3.7610002 1.7060913 0.80413157 0
3.7590003 1.6989897 0.80389345 0
3.7560003 1.6913776 0.8035363 0
3.7540002 1.6842922 0.80329823 0
3.7520003 1.6772141 0.80306011 0
3.7490003 1.669631 0.80270296 0
3.7470002 1.6625689 0.80246484 0
3.7450004 1.6555144 0.80222678 0
3.7420003 1.6479599 0.80186963 0
3.7400002 1.6409215 0.80163145 0
3.7380002 1.6338902 0.80139339 0
3.7350004 1.6263647 0.80103624 0
3.7330003 1.6193497 0.80079818 0
3.7310002 1.6123419 0.80056 0
3.7280002 1.6048453 0.80020285 0
3.7260003 1.5978537 0.79996479 0
3.7240002 1.5908693 0.79972667 0
3.7220004 1.5838922 0.79948854 0
3.7190003 1.5764337 0.79913139 0
3.7170002 1.5694726 0.79889333 0
3.7150002 1.5625188 0.79865521 0
3.7120004 1.5550891 0.79829806 0
3.7100003 1.5481516 0.79805994 0
3.7080002 1.5412214 0.79782188 0
3.7060003 1.5342984 0.79758376 0
3.7030003 1.5269064 0.79722661 0
3.7010002 1.5199995 0.79698849 0
3.6990004 1.5131 0.79675043 0
3.6970003 1.5062076 0.79651225 0
3.6940002 1.4988536 0.7961551 0
3.6920002 1.4919773 0.79591703 0
3.6900003 1.4851085 0.79567897 0
3.6880002 1.4782468 0.79544079 0
3.6850002 1.4709306 0.79508364 0
3.6830003 1.4640851 0.79484558 0
3.6810002 1.4572469 0.79460746 0
3.6790001 1.4504158 0.79436934 0
3.6760004 1.4431375 0.79401219 0
3.6740003 1.4363227 0.79377413 0
3.6720002 1.429515 0.79353601 0
3.6700003 1.4227148 0.79329789 0
3.6680002 1.4159217 0.79305983 0
3.6650002 1.4086901 0.79270267 0
3.6630003 1.4019133 0.79246455 0
3.6610003 1.3951436 0.79222643 0
3.6590002 1.3883811 0.79198837 0
3.6570003 1.3816259 0.79175025 0
3.6540003 1.3744413 0.79139304 0
3.6520002 1.3677021 0.79115498 0
3.6500003 1.3609705 0.79091692 0
3.6480002 1.3542458 0.79067874 0
3.6460001 1.3475285 0.79044068 0
3.6430004 1.3403908 0.79008353 0
3.6410003 1.3336896 0.78984541 0
3.6470003 1.3303869 0.79055977 0
3.6550002 1.3279066 0.79151213 0
3.6630003 1.3253975 0.79246455 0
3.6710002 1.3228595 0.79341698 0
3.8120003 1.3757112 0.81020319 0
3.8100002 1.3687268 0.80996513 0
3.8080003 1.3617498 0.80972695 0
3.8060002 1.3547797 0.80948889 0
3.8050003 1.3482265 0.8093698 0
3.8040001 1.3416768 0.80925077 0
3.8050003 1.3359426 0.8093698 0
3.8060002 1.3302046 0.80948889 0
3.8080003 1.3248655 0.80972695 0
3.8100002 1.3195189 0.80996513 0
3.8130002 1.3145638 0.81032228 0
3.8170002 1.3099947 0.81079841 0
3.8210003 1.3054113 0.81127465 0
3.8270001 1.3015999 0.81198895 0
3.8330002 1.2977667 0.81270325 0
3.8410003 1.2946913 0.81365573 0
3.8530002 1.2931381 0.81508434 0
3.8670003 1.2923139 0.816751 0
3.8720002 1.287981 0.81734627 0
3.8780003 1.2840128 0.81806058 0
3.8860002 1.2807839 0.819013 0
3.8950002 1.277905 0.82008445 0
3.7630002 1.7132 0.79830348 0
3.7610002 1.7060913 0.79806894 0
3.7590003 1.6989897 0.79783452 0
3.7560003 1.6913776 0.79748273 0
3.7540002 1.6842922 0.79724824 0
3.7520003 1.6772141 0.79701376 0
3.7490003 1.669631 0.79666197 0
3.7470002 1.6625689 0.79642749 0
3.7450004 1.6555144 0.796193 0
3.7420003 1.6479599 0.79584128 0
3.7400002 1.6409215 0.79560673 0
3.7380002 1.6338902 0.79537225 0
3.7350004 1.6263647 0.79502058 0
3.7330003 1.6193497 0.7947861 0
3.7310002 1.6123419 0.79455149 0
3.7280002 1.6048453 0.79419982 0
3.7260003 1.5978537 0.79396534 0
3.7240002 1.5908693 0.79373085 0
3.7220004 1.5838922 0.79349637 0
3.7190003 1.5764337 0.79314458 0
3.7170002 1.5694726 0.7929101 0
3.7150002 1.5625188 0.79267561 0
3.7120004 1.5550891 0.79232383 0
3.7100003 1.5481516 0.79208934 0
3.7080002 1.5412214 0.79185486 0
3.7060003 1.5342984 0.79162037 0
3.7030003 1.5269064 0.79126859 0
3.7010002 1.5199995 0.7910341 0
3.6990004 1.5131 0.79079962 0
3.6970003 1.5062076 0.79056513 0
3.6940002 1.4988536 0.79021341 0
3.6920002 1.4919773 0.78997886 0
3.6900003 1.4851085 0.78974438 0
3.6880002 1.4782468 0.78950989 0
3.6850002 1.4709306 0.78915817 0
3.6830003 1.4640851 0.78892368 0
3.6810002 1.4572469 0.7886892 0
3.6790001 1.4504158 0.78845465 0
3.6760004 1.4431375 0.78810298 0
3.6740003 1.4363227 0.78786844 0
3.6720002 1.429515 0.78763396 0
3.6700003 1.4227148 0.78739947 0
3.6680002 1.4159217 0.78716493 0
3.6650002 1.4086901 0.7868132 0
3.6630003 1.4019133 0.78657877 0
3.6610003 1.3951436 0.78634423 0
3.6590002 1.3883811 0.78610969 0
3.6570003 1.3816259 0.78587526 0
3.6540003 1.3744413 0.78552353 0
3.6520002 1.3677021 0.78528899 0
3.6500003 1.3609705 0.7850545 0
3.6480002 1.3542458 0.78482002 0
3.6460001 1.3475285 0.78458548 0
3.6430004 1.3403908 0.78423381 0
3.6410003 1.3336896 0.78399926 0
3.6470003 1.3303869 0.78470278 0
3.6550002 1.3279066 0.78564072 0
3.6630003 1.3253975 0.78657877 0
3.6710002 1.3228595 0.78751671 0
3.8120003 1.3757112 0.8040486 0
3.8100002 1.3687268 0.80381411 0
3.8080003 1.3617498 0.80357963 0
3.8060002 1.3547797 0.80334508 0
3.8050003 1.3482265 0.8032279 0
3.8040001 1.3416768 0.8031106 0
3.8050003 1.3359426 0.8032279 0
3.8060002 1.3302046 0.80334508 0
3.8080003 1.3248655 0.80357963 0
3.8100002 1.3195189 0.80381411 0
3.8130002 1.3145638 0.80416584 0
3.8170002 1.3099947 0.80463481 0
3.8210003 1.3054113 0.80510384 0
3.8270001 1.3015999 0.80580729 0
3.8330002 1.2977667 0.80651081 0
3.8410003 1.2946913 0.80744874 0
3.8530002 1.2931381 0.80885577 0
3.8680003 1.2926999 0.81061447 0
3.8730001 1.2883654 0.81120074 0
3.8790002 1.2843951 0.81190419 0
3.8860002 1.2807839 0.81272489 0
3.8940003 1.2775263 0.81366289 0
3.9060004 1.2757477 0.81506991 0
3.7630002 1.7132 0.79223728 0
3.7610002 1.7060913 0.79200637 0
3.7590003 1.6989897 0.79177547 0
3.7560003 1.6913776 0.79142916 0
3.7540002 1.6842922 0.79119825 0
3.7520003 1.6772141 0.7909674 0
3.7490003 1.669631 0.79062104 0
3.7470002 1.6625689 0.79039013 0
3.7450004 1.6555144 0.79015929 0
3.7420003 1.6479599 0.78981292 0
3.7400002 1.6409215 0.78958207 0
3.7380002 1.6338902 0.78935117 0
3.7350004 1.6263647 0.78900486 0
3.7330003 1.6193497 0.78877395 0
3.7310002 1.6123419 0.78854311 0
3.7280002 1.6048453 0.78819668 0
3.7260003 1.5978537 0.78796589 0
3.7240002 1.5908693 0.78773499 0
3.7220004 1.5838922 0.78750408 0
3.7190003 1.5764337 0.78715777 0
3.7170002 1.5694726 0.78692687 0
3.7150002 1.5625188 0.78669596 0
3.7120004 1.5550891 0.78634965 0
3.7100003 1.5481516 0.78611875 0
3.7080002 1.5412214 0.78588784 0
3.7060003 1.5342984 0.78565699 0
3.7030003 1.5269064 0.78531063 0
3.7010002 1.5199995 0.78507972 0
3.6990004 1.5131 0.78484887 0
3.6970003 1.5062076 0.78461802 0
3.6940002 1.4988536 0.78427166 0
3.6920002 1.4919773 0.78404075 0
3.6900003 1.4851085 0.7838099 0
3.6880002 1.4782468 0.78357899 0
3.6850002 1.4709306 0.78323269 0
3.6830003 1.4640851 0.78300178 0
3.6810002 1.4572469 0.78277087 0
3.6790001 1.4504158 0.78253996 0
3.6760004 1.4431375 0.78219366 0
3.6740003 1.4363227 0.78196275 0
3.6720002 1.429515 0.78173184 0
3.6700003 1.4227148 0.781501 0
3.6680002 1.4159217 0.78127015 0
3.6650002 1.4086901 0.78092378 0
3.6630003 1.4019133 0.78069293 0
3.6610003 1.3951436 0.78046203 0
3.6590002 1.3883811 0.78023112 0
3.6570003 1.3816259 0.78000021 0
3.6540003 1.3744413 0.77965391 0
3.6520002 1.3677021 0.779423 0
3.6500003 1.3609705 0.77919215 0
3.6480002 1.3542458 0.77896124 0
3.6460001 1.3475285 0.77873033 0
3.6430004 1.3403908 0.77838403 0
3.6410003 1.3336896 0.77815312 0
3.6470003 1.3303869 0.77884579 0
3.6550002 1.3279066 0.7797693 0
3.6630003 1.3253975 0.78069293 0
3.6710002 1.3228595 0.78161645 0
3.8120003 1.3757112 0.797894 0
3.8100002 1.3687268 0.79766309 0
3.8080003 1.3617498 0.79743224 0
3.8060002 1.3547797 0.79720134 0
3.8050003 1.3482265 0.79708588 0
3.8040001 1.3416768 0.79697049 0
3.8050003 1.3359426 0.79708588 0
3.8060002 1.3302046 0.79720134 0
3.8080003 1.3248655 0.79743224 0
3.8100002 1.3195189 0.79766309 0
3.8130002 1.3145638 0.79800946 0
3.8170002 1.3099947 0.79847121 0
3.8210003 1.3054113 0.79893303 0
3.8270001 1.3015999 0.79962564 0
3.8330002 1.2977667 0.80031836 0
3.8410003 1.2946913 0.80124187 0
3.8530002 1.2931381 0.80262721 0
3.8700004 1.2934719 0.80458975 0
3.8750002 1.2891338 0.80516696 0
3.8800004 1.2847776 0.80574417 0
3.8860002 1.2807839 0.80643684 0
3.8940003 1.2775263 0.80736041 0
3.9040003 1.2749938 0.80851483 0
3.7630002 1.7132 0.78617108 0
3.7610002 1.7060913 0.78594375 0
3.7590003 1.6989897 0.78571653 0
3.7560003 1.6913776 0.7853756 0
3.7540002 1.6842922 0.78514826 0
3.7520003 1.6772141 0.78492105 0
3.7490003 1.669631 0.78458011 0
3.7470002 1.6625689 0.78435278 0
3.7450004 1.6555144 0.78412557 0
3.7420003 1.6479599 0.78378463 0
3.7400002 1.6409215 0.78355736 0
3.7380002 1.6338902 0.78333008 0
3.7350004 1.6263647 0.78298914 0
3.7330003 1.6193497 0.78276181 0
3.7310002 1.6123419 0.7825346 0
3.7280002 1.6048453 0.78219366 0
3.7260003 1.5978537 0.78196639 0
3.7240002 1.5908693 0.78173912 0
3.7220004 1.5838922 0.78151178 0
3.7190003 1.5764337 0.7811709 0
3.7170002 1.5694726 0.78094363 0
3.7150002 1.5625188 0.7807163 0
3.7120004 1.5550891 0.78037548 0
3.7100003 1.5481516 0.78014815 0
3.7080002 1.5412214 0.77992082 0
3.7060003 1.5342984 0.7796936 0
3.7030003 1.5269064 0.77935266 0
3.7010002 1.5199995 0.77912539 0
3.6990004 1.5131 0.77889812 0
3.6970003 1.5062076 0.77867085 0
3.6940002 1.4988536 0.77832991 0
3.6920002 1.4919773 0.77810264 0
3.6900003 1.4851085 0.77787536 0
3.6880002 1.4782468 0.77764809 0
3.6850002 1.4709306 0.77730715 0
3.6830003 1.4640851 0.77707988 0
3.6810002 1.4572469 0.77685261 0
3.6790001 1.4504158 0.77662528 0
3.6760004 1.4431375 0.7762844 0
3.6740003 1.4363227 0.77605712 0
3.6720002 1.429515 0.77582979 0
3.6700003 1.4227148 0.77560258 0
3.6680002 1.4159217 0.77537525 0
3.6650002 1.4086901 0.77503431 0
3.6630003 1.4019133 0.7748071 0
3.6610003 1.3951436 0.77457976 0
3.6590002 1.3883811 0.77435249 0
3.6570003 1.3816259 0.77412522 0
3.6540003 1.3744413 0.77378428 0
3.6520002 1.3677021 0.77355707 0
3.6500003 1.3609705 0.77332973 0
3.6480002 1.3542458 0.77310246 0
3.6460001 1.3475285 0.77287519 0
3.6430004 1.3403908 0.77253425 0
3.6410003 1.3336896 0.77230704 0
3.6470003 1.3303869 0.77298886 0
3.6550002 1.3279066 0.77389795 0
3.6630003 1.3253975 0.7748071 0
3.6710002 1.3228595 0.77571619 0
3.8120003 1.3757112 0.7917394 0
3.8100002 1.3687268 0.79151213 0
3.8080003 1.3617498 0.79128486 0
3.8060002 1.3547797 0.79105759 0
3.8050003 1.3482265 0.79094398 0
3.8040001 1.3416768 0.79083025 0
3.8050003 1.3359426 0.79094398 0
3.8060002 1.3302046 0.79105759 0
3.8080003 1.3248655 0.79128486 0
3.8100002 1.3195189 0.79151213 0
3.8130002 1.3145638 0.79185307 0
3.8170002 1.3099947 0.79230762 0
3.8210003 1.3054113 0.79276216 0
3.8270001 1.3015999 0.79344404 0
3.8330002 1.2977667 0.79412585 0
3.8410003 1.2946913 0.795035 0
3.8530002 1.2931381 0.79639864 0
3.8720002 1.2942439 0.79855782 0
3.8760002 1.2895179 0.79901236 0
3.8810003 1.2851599 0.79958057 0
3.8870003 1.2811645 0.80026245 0
3.8950002 1.277905 0.80117154 0
3.9040003 1.2749938 0.8021943 0
3.9170003 1.2735506 0.8036716 0
3.7630002 1.7132 0.78010488 0
3.7610002 1.7060913 0.77988118 0
3.7590003 1.6989897 0.77965748 0
3.7560003 1.6913776 0.77932203 0
3.7540002 1.6842922 0.77909827 0
3.7520003 1.6772141 0.77887464 0
3.7490003 1.669631 0.77853918 0
3.7470002 1.6625689 0.77831548 0
3.7450004 1.6555144 0.77809179 0
3.7420003 1.6479599 0.77775633 0
3.7400002 1.6409215 0.77753264 0
3.7380002 1.6338902 0.77730894 0
3.7350004 1.6263647 0.77697349 0
3.7330003 1.6193497 0.77674973 0
3.7310002 1.6123419 0.77652609 0
3.7280002 1.6048453 0.77619058 0
3.7260003 1.5978537 0.77596688 0
3.7240002 1.5908693 0.77574325 0
3.7220004 1.5838922 0.77551961 0
3.7190003 1.5764337 0.77518404 0
3.7170002 1.5694726 0.7749604 0
3.7150002 1.5625188 0.7747367 0
3.7120004 1.5550891 0.77440125 0
3.7100003 1.5481516 0.77417755 0
3.7080002 1.5412214 0.77395386 0
3.7060003 1.5342984 0.77373022 0
3.7030003 1.5269064 0.7733947 0
3.7010002 1.5199995 0.77317101 0
3.6990004 1.5131 0.77294731 0
3.6970003 1.5062076 0.77272367 0
3.6940002 1.4988536 0.77238816 0
3.6920002 1.4919773 0.77216446 0
3.6900003 1.4851085 0.77194083 0
3.6880002 1.4782468 0.77171713 0
3.6850002 1.4709306 0.77138162 0
3.6830003 1.4640851 0.77115798 0
3.6810002 1.4572469 0.77093428 0
3.6790001 1.4504158 0.77071059 0
3.6760004 1.4431375 0.77037513 0
3.6740003 1.4363227 0.77015144 0
3.6720002 1.429515 0.76992774 0
3.6700003 1.4227148 0.7697041 0
3.6680002 1.4159217 0.76948047 0
3.6650002 1.4086901 0.76914489 0
3.6630003 1.4019133 0.76892126 0
3.6610003 1.3951436 0.76869756 0
3.6590002 1.3883811 0.76847386 0
3.6570003 1.3816259 0.76825023 0
3.6540003 1.3744413 0.76791477 0
3.6520002 1.3677021 0.76769102 0
3.6500003 1.3609705 0.76746738 0
3.6480002 1.3542458 0.76724368 0
3.6460001 1.3475285 0.76701999 0
3.6430004 1.3403908 0.76668453 0
3.6410003 1.3336896 0.7664609 0
3.6470003 1.3303869 0.76713187 0
3.6550002 1.3279066 0.76802659 0
3.6630003 1.3253975 0.76892126 0
3.6710002 1.3228595 0.76981592 0
3.8120003 1.3757112 0.78558481 0
3.8100002 1.3687268 0.78536117 0
3.8080003 1.3617498 0.78513753 0
3.8060002 1.3547797 0.78491378 0
3.8050003 1.3482265 0.78480196 0
3.8040001 1.3416768 0.78469014 0
3.8050003 1.3359426 0.78480196 0
3.8060002 1.3302046 0.78491378 0
3.8080003 1.3248655 0.78513753 0
3.8100002 1.3195189 0.78536117 0
3.8130002 1.3145638 0.78569663 0
3.8170002 1.3099947 0.78614402 0
3.8210003 1.3054113 0.78659141 0
3.8270001 1.3015999 0.78726232 0
3.8330002 1.2977667 0.78793335 0
3.8410003 1.2946913 0.78882807 0
3.8530002 1.2931381 0.79017007 0
3.8740003 1.2950159 0.79251868 0
3.8780003 1.2902864 0.79296601 0
3.8820002 1.2855424 0.79341334 0
3.8880002 1.281545 0.79408437 0
3.8950002 1.277905 0.79486722 0
3.9030004 1.2746168 0.79576194 0
3.9150002 1.2728002 0.79710394 0
3.7630002 1.7132 0.77403867 0
3.7610002 1.7060913 0.77381855 0
3.7590003 1.6989897 0.77359855 0
