# .PCD v0.7 - Point Cloud Data file format
VERSION 0.7
FIELDS x y z intensity
SIZE 4 4 4 4
TYPE F F F F
COUNT 1 1 1 1
WIDTH 1415
HEIGHT 1
VIEWPOINT 0 0 0 1 0 0 0
POINTS 1415
DATA ascii
5.0220003 -2.4554513 0.82919729 0
5.0160003 -2.4606497 0.82864535 0
5.0090003 -2.465302 0.82800138 0
5.0030003 -2.4704554 0.82744944 0
4.9970002 -2.4755871 0.82689744 0
4.9910002 -2.4806974 0.82634544 0
4.9840002 -2.4852538 0.82570148 0
4.9780002 -2.4903188 0.82514954 0
4.9720001 -2.4953623 0.8245976 0
4.9660001 -2.5003839 0.8240456 0
4.9590001 -2.5048449 0.82340169 0
4.9530005 -2.5098219 0.82284975 0
4.9630003 -2.5234637 0.82376963 0
5.0300002 -2.4345667 0.8215816 0
5.0350003 -2.445507 0.82203257 0
5.0280004 -2.4502311 0.82140124 0
5.0220003 -2.4554513 0.82086009 0
5.0160003 -2.4606497 0.82031894 0
5.0090003 -2.465302 0.8196876 0
5.0030003 -2.4704554 0.81914651 0
4.9970002 -2.4755871 0.8186053 0
4.9910002 -2.4806974 0.81806421 0
4.9840002 -2.4852538 0.81743288 0
4.9780002 -2.4903188 0.81689173 0
4.9720001 -2.4953623 0.81635058 0
4.9660001 -2.5003839 0.81580943 0
4.9590001 -2.5048449 0.81517804 0
4.9530005 -2.5098219 0.81463695 0
4.9630003 -2.5234637 0.81553888 0
5.0300002 -2.4345667 0.81322998 0
5.0350003 -2.445507 0.81367195 0
5.0280004 -2.4502311 0.81305325 0
5.0220003 -2.4554513 0.81252289 0
5.0160003 -2.4606497 0.81199253 0
5.0090003 -2.465302 0.81137383 0
5.0030003 -2.4704554 0.81084359 0
4.9970002 -2.4755871 0.81031322 0
4.9910002 -2.4806974 0.80978286 0
4.9840002 -2.4852538 0.80916417 0
4.9780002 -2.4903188 0.80863386 0
4.9720001 -2.4953623 0.80810356 0
4.9660001 -2.5003839 0.8075732 0
4.9590001 -2.5048449 0.8069545 0
4.9530005 -2.5098219 0.80642426 0
4.9630003 -2.5234637 0.80730808 0
5.0300002 -2.4345667 0.80487835 0
5.0350003 -2.445507 0.80531126 0
5.0280004 -2.4502311 0.8047052 0
5.0220003 -2.4554513 0.80418575 0
5.0160003 -2.4606497 0.80366623 0
5.0090003 -2.465302 0.80306011 0
5.0030003 -2.4704554 0.8025406 0
4.9970002 -2.4755871 0.80202115 0
4.9910002 -2.4806974 0.80150163 0
4.9840002 -2.4852538 0.80089557 0
4.9780002 -2.4903188 0.80037606 0
4.9720001 -2.4953623 0.79985654 0
4.9660001 -2.5003839 0.79933703 0
4.9590001 -2.5048449 0.79873097 0
4.9530005 -2.5098219 0.79821151 0
4.9630003 -2.5234637 0.79907733 0
5.0300002 -2.4345667 0.79652667 0
5.0350003 -2.445507 0.79695064 0
5.0280004 -2.4502311 0.79635715 0
5.0220003 -2.4554513 0.79584849 0
5.0160003 -2.4606497 0.79533982 0
5.0090003 -2.465302 0.7947464 0
5.0030003 -2.4704554 0.79423767 0
4.9970002 -2.4755871 0.79372901 0
4.9910002 -2.4806974 0.79322034 0
4.9840002 -2.4852538 0.79262686 0
4.9780002 -2.4903188 0.79211819 0
4.9720001 -2.4953623 0.79160953 0
4.9660001 -2.5003839 0.79110086 0
4.9590001 -2.5048449 0.79050738 0
4.9530005 -2.5098219 0.78999877 0
4.9630003 -2.5234637 0.79084653 0
5.0300002 -2.4345667 0.78817511 0
5.0350003 -2.445507 0.78858995 0
5.0280004 -2.4502311 0.78800917 0
5.0220003 -2.4554513 0.78751129 0
5.0160003 -2.4606497 0.78701341 0
5.0090003 -2.465302 0.78643262 0
5.0030003 -2.4704554 0.78593475 0
4.9970002 -2.4755871 0.78543687 0
4.9910002 -2.4806974 0.78493905 0
4.9840002 -2.4852538 0.7843582 0
4.9780002 -2.4903188 0.78386033 0
4.9720001 -2.4953623 0.78336251 0
4.9660001 -2.5003839 0.78286469 0
4.9590001 -2.5048449 0.78228384 0
4.9530005 -2.5098219 0.78178602 0
4.9630003 -2.5234637 0.78261578 0
5.0300002 -2.4345667 0.77982342 0
5.0350003 -2.445507 0.78022933 0
5.0280004 -2.4502311 0.77966112 0
5.0220003 -2.4554513 0.77917409 0
5.0160003 -2.4606497 0.778687 0
5.0090003 -2.465302 0.77811885 0
5.0030003 -2.4704554 0.77763182 0
4.9970002 -2.4755871 0.77714479 0
4.9910002 -2.4806974 0.77665776 0
4.9840002 -2.4852538 0.77608955 0
4.9780002 -2.4903188 0.77560258 0
4.9720001 -2.4953623 0.77511549 0
4.9660001 -2.5003839 0.77462852 0
4.9590001 -2.5048449 0.77406025 0
4.9530005 -2.5098219 0.77357328 0
4.9630003 -2.5234637 0.77438498 0
5.0300002 -2.4345667 0.7714718 0
5.0350003 -2.445507 0.77186865 0
5.0280004 -2.4502311 0.77131307 0
5.0220003 -2.4554513 0.77083689 0
5.0160003 -2.4606497 0.77036071 0
5.0090003 -2.465302 0.76980507 0
5.0030003 -2.4704554 0.76932895 0
4.9970002 -2.4755871 0.76885271 0
4.9910002 -2.4806974 0.76837647 0
4.9840002 -2.4852538 0.76782089 0
4.9780002 -2.4903188 0.76734471 0
4.9720001 -2.4953623 0.76686847 0
4.9660001 -2.5003839 0.76639223 0
4.9590001 -2.5048449 0.76583672 0
4.9530005 -2.5098219 0.76536053 0
4.9630003 -2.5234637 0.76615417 0
5.0300002 -2.4345667 0.76312017 0
5.0350003 -2.445507 0.76350802 0
5.0280004 -2.4502311 0.76296508 0
5.0220003 -2.4554513 0.76249969 0
5.0160003 -2.4606497 0.7620343 0
5.0090003 -2.465302 0.76149136 0
5.0030003 -2.4704554 0.76102597 0
4.9970002 -2.4755871 0.76056057 0
4.9910002 -2.4806974 0.76009524 0
4.9840002 -2.4852538 0.75955224 0
4.9780002 -2.4903188 0.75908685 0
4.9720001 -2.4953623 0.75862145 0
4.9660001 -2.5003839 0.75815606 0
4.9590001 -2.5048449 0.75761318 0
4.9530005 -2.5098219 0.75714779 0
4.9630003 -2.5234637 0.75792342 0
5.0300002 -2.4345667 0.75476855 0
5.0350003 -2.445507 0.75514734 0
5.0280004 -2.4502311 0.75461704 0
5.0220003 -2.4554513 0.75416249 0
5.0160003 -2.4606497 0.75370789 0
5.0090003 -2.465302 0.75317758 0
5.0030003 -2.4704554 0.75272304 0
4.9970002 -2.4755871 0.75226843 0
4.9910002 -2.4806974 0.75181389 0
4.9840002 -2.4852538 0.75128359 0
4.9780002 -2.4903188 0.75082904 0
4.9720001 -2.4953623 0.75037444 0
4.9660001 -2.5003839 0.74991989 0
4.9590001 -2.5048449 0.74938959 0
4.9530005 -2.5098219 0.74893504 0
4.9630003 -2.5234637 0.74969268 0
5.0300002 -2.4345667 0.74641693 0
5.0350003 -2.445507 0.74678671 0
5.0280004 -2.4502311 0.74626899 0
5.0220003 -2.4554513 0.74582529 0
5.0160003 -2.4606497 0.74538159 0
5.0090003 -2.465302 0.74486387 0
5.0030003 -2.4704554 0.74442011 0
4.9970002 -2.4755871 0.74397635 0
4.9910002 -2.4806974 0.74353266 0
4.9840002 -2.4852538 0.74301493 0
4.9780002 -2.4903188 0.74257123 0
4.9720001 -2.4953623 0.74212742 0
4.9660001 -2.5003839 0.74168372 0
4.9590001 -2.5048449 0.74116606 0
4.9530005 -2.5098219 0.7407223 0
4.9630003 -2.5234637 0.74146187 0
5.0300002 -2.4345667 0.7380653 0
5.0350003 -2.445507 0.73842609 0
5.0280004 -2.4502311 0.737921 0
5.0220003 -2.4554513 0.73748803 0
5.0160003 -2.4606497 0.73705518 0
5.0090003 -2.465302 0.73655009 0
5.0030003 -2.4704554 0.73611718 0
4.9970002 -2.4755871 0.73568428 0
4.9910002 -2.4806974 0.73525131 0
4.9840002 -2.4852538 0.73474628 0
4.9780002 -2.4903188 0.73431337 0
4.9720001 -2.4953623 0.73388046 0
4.9660001 -2.5003839 0.73344755 0
4.9590001 -2.5048449 0.73294246 0
4.9530005 -2.5098219 0.73250961 0
4.9630003 -2.5234637 0.73323107 0
5.0300002 -2.4345667 0.72971368 0
5.0350003 -2.445507 0.73006541 0
5.0280004 -2.4502311 0.72957295 0
5.0220003 -2.4554513 0.72915089 0
5.0160003 -2.4606497 0.72872877 0
5.0090003 -2.465302 0.72823632 0
5.0030003 -2.4704554 0.72781426 0
4.9970002 -2.4755871 0.7273922 0
4.9910002 -2.4806974 0.72697008 0
4.9840002 -2.4852538 0.72647762 0
4.9780002 -2.4903188 0.7260555 0
4.9720001 -2.4953623 0.72563344 0
4.9660001 -2.5003839 0.72521138 0
4.9590001 -2.5048449 0.72471893 0
4.9530005 -2.5098219 0.72429681 0
4.9630003 -2.5234637 0.72500026 0
5.0300002 -2.4345667 0.72136199 0
5.0350003 -2.445507 0.72170472 0
5.0280004 -2.4502311 0.72122496 0
5.0220003 -2.4554513 0.72081363 0
5.0160003 -2.4606497 0.72040236 0
5.0090003 -2.465302 0.7199226 0
5.0030003 -2.4704554 0.71951127 0
4.9970002 -2.4755871 0.71910006 0
4.9910002 -2.4806974 0.71868879 0
4.9840002 -2.4852538 0.71820897 0
4.9780002 -2.4903188 0.7177977 0
4.9720001 -2.4953623 0.71738648 0
4.9660001 -2.5003839 0.71697515 0
4.9590001 -2.5048449 0.71649539 0
4.9530005 -2.5098219 0.71608412 0
4.9630003 -2.5234637 0.71676958 0
5.0300002 -2.4345667 0.71301037 0
5.0350003 -2.445507 0.7133441 0
5.0280004 -2.4502311 0.71287692 0
5.0220003 -2.4554513 0.71247649 0
5.0160003 -2.4606497 0.71207607 0
5.0090003 -2.465302 0.71160883 0
5.0030003 -2.4704554 0.7112084 0
4.9970002 -2.4755871 0.71080792 0
4.9910002 -2.4806974 0.7104075 0
4.9840002 -2.4852538 0.70994031 0
4.9780002 -2.4903188 0.70953989 0
4.9720001 -2.4953623 0.70913941 0
4.9660001 -2.5003839 0.70873898 0
4.9590001 -2.5048449 0.70827174 0
4.9530005 -2.5098219 0.70787138 0
4.9630003 -2.5234637 0.70853877 0
5.0300002 -2.4345667 0.70465875 0
5.0350003 -2.445507 0.70498347 0
5.0280004 -2.4502311 0.70452893 0
5.0220003 -2.4554513 0.70413929 0
5.0160003 -2.4606497 0.70374966 0
5.0090003 -2.465302 0.70329511 0
5.0030003 -2.4704554 0.70290548 0
4.9970002 -2.4755871 0.70251584 0
4.9910002 -2.4806974 0.7021262 0
4.9840002 -2.4852538 0.70167166 0
4.9780002 -2.4903188 0.70128202 0
4.9720001 -2.4953623 0.70089239 0
4.9660001 -2.5003839 0.70050275 0
4.9590001 -2.5048449 0.70004821 0
4.9530005 -2.5098219 0.69965863 0
4.9630003 -2.5234637 0.70030797 0
5.0300002 -2.4345667 0.69630712 0
5.0350003 -2.445507 0.69662279 0
5.0280004 -2.4502311 0.69618088 0
5.0220003 -2.4554513 0.69580209 0
5.0160003 -2.4606497 0.69542325 0
5.0090003 -2.465302 0.69498134 0
5.0030003 -2.4704554 0.69460255 0
4.9970002 -2.4755871 0.69422376 0
4.9910002 -2.4806974 0.69384491 0
4.9840002 -2.4852538 0.69340301 0
4.9780002 -2.4903188 0.69302416 0
4.9720001 -2.4953623 0.69264543 0
4.9660001 -2.5003839 0.69226658 0
4.9590001 -2.5048449 0.69182467 0
4.9530005 -2.5098219 0.69144589 0
4.9630003 -2.5234637 0.69207716 0
5.0300002 -2.4345667 0.6879555 0
5.0350003 -2.445507 0.68826216 0
5.0280004 -2.4502311 0.68783283 0
5.0220003 -2.4554513 0.68746483 0
5.0160003 -2.4606497 0.68709689 0
5.0090003 -2.465302 0.68666756 0
5.0030003 -2.4704554 0.68629956 0
4.9970002 -2.4755871 0.68593162 0
4.9910002 -2.4806974 0.68556368 0
4.9840002 -2.4852538 0.68513435 0
4.9780002 -2.4903188 0.68476641 0
4.9720001 -2.4953623 0.68439841 0
4.9660001 -2.5003839 0.68403041 0
4.9590001 -2.5048449 0.68360108 0
4.9530005 -2.5098219 0.68323314 0
4.9630003 -2.5234637 0.68384647 0
5.0300002 -2.4345667 0.67960387 0
5.0350003 -2.445507 0.67990148 0
5.0280004 -2.4502311 0.67948484 0
5.0220003 -2.4554513 0.67912769 0
5.0160003 -2.4606497 0.67877054 0
5.0090003 -2.465302 0.67835379 0
5.0030003 -2.4704554 0.67799664 0
4.9970002 -2.4755871 0.67763948 0
4.9910002 -2.4806974 0.67728233 0
4.9840002 -2.4852538 0.6768657 0
4.9780002 -2.4903188 0.67650855 0
4.9720001 -2.4953623 0.67615139 0
4.9660001 -2.5003839 0.67579424 0
4.9590001 -2.5048449 0.67537755 0
4.9530005 -2.5098219 0.6750204 0
4.9630003 -2.5234637 0.67561567 0
5.0300002 -2.4345667 0.67125225 0
5.0350003 -2.445507 0.67154086 0
5.0280004 -2.4502311 0.6711368 0
5.0220003 -2.4554513 0.67079043 0
5.0160003 -2.4606497 0.67044413 0
5.0090003 -2.465302 0.67004007 0
5.0030003 -2.4704554 0.66969371 0
4.9970002 -2.4755871 0.66934741 0
4.9910002 -2.4806974 0.6690011 0
4.9840002 -2.4852538 0.66859704 0
4.9780002 -2.4903188 0.66825068 0
4.9720001 -2.4953623 0.66790438 0
4.9660001 -2.5003839 0.66755801 0
4.9590001 -2.5048449 0.66715395 0
4.9530005 -2.5098219 0.66680765 0
4.9630003 -2.5234637 0.66738486 0
5.0300002 -2.4345667 0.66290057 0
5.0350003 -2.445507 0.66318023 0
5.0280004 -2.4502311 0.66278875 0
5.0220003 -2.4554513 0.66245329 0
5.0160003 -2.4606497 0.66211772 0
5.0090003 -2.465302 0.66172636 0
5.0030003 -2.4704554 0.66139078 0
4.9970002 -2.4755871 0.66105533 0
4.9910002 -2.4806974 0.66071975 0
4.9840002 -2.4852538 0.66032839 0
4.9780002 -2.4903188 0.65999281 0
4.9720001 -2.4953623 0.65965736 0
4.9660001 -2.5003839 0.65932184 0
4.9590001 -2.5048449 0.65893042 0
4.9530005 -2.5098219 0.65859497 0
4.9630003 -2.5234637 0.65915406 0
5.0300002 -2.4345667 0.654549 0
5.0350003 -2.445507 0.65481955 0
5.0280004 -2.4502311 0.65444076 0
5.0220003 -2.4554513 0.65411603 0
5.0160003 -2.4606497 0.65379137 0
5.0090003 -2.465302 0.65341258 0
5.0030003 -2.4704554 0.65308791 0
4.9970002 -2.4755871 0.65276319 0
4.9910002 -2.4806974 0.65243852 0
4.9840002 -2.4852538 0.65205973 0
4.9780002 -2.4903188 0.65173501 0
4.9720001 -2.4953623 0.65141034 0
4.9660001 -2.5003839 0.65108562 0
4.9590001 -2.5048449 0.65070689 0
4.9530005 -2.5098219 0.65038216 0
4.9630003 -2.5234637 0.65092331 0
5.0300002 -2.4345667 0.64619732 0
5.0350003 -2.445507 0.64645892 0
5.0280004 -2.4502311 0.64609271 0
5.0220003 -2.4554513 0.64577889 0
5.0160003 -2.4606497 0.64546502 0
5.0090003 -2.465302 0.64509881 0
5.0030003 -2.4704554 0.64478493 0
4.9970002 -2.4755871 0.64447111 0
4.9910002 -2.4806974 0.64415723 0
4.9840002 -2.4852538 0.64379108 0
4.9780002 -2.4903188 0.6434772 0
4.9720001 -2.4953623 0.64316332 0
4.9660001 -2.5003839 0.64284945 0
4.9590001 -2.5048449 0.64248329 0
4.9530005 -2.5098219 0.64216948 0
4.9630003 -2.5234637 0.64269257 0
5.0300002 -2.4345667 0.6378457 0
5.0350003 -2.445507 0.63809824 0
5.0280004 -2.4502311 0.63774472 0
5.0220003 -2.4554513 0.63744164 0
5.0160003 -2.4606497 0.63713861 0
5.0090003 -2.465302 0.63678503 0
5.0030003 -2.4704554 0.636482 0
4.9970002 -2.4755871 0.63617897 0
4.9910002 -2.4806974 0.63587594 0
4.9840002 -2.4852538 0.63552243 0
4.9780002 -2.4903188 0.63521934 0
4.9720001 -2.4953623 0.63491631 0
4.9660001 -2.5003839 0.63461328 0
4.9590001 -2.5048449 0.6342597 0
4.9530005 -2.5098219 0.63395667 0
4.9630003 -2.5234637 0.63446176 0
5.0300002 -2.4345667 0.62949407 0
5.0350003 -2.445507 0.62973762 0
5.0280004 -2.4502311 0.62939668 0
5.0220003 -2.4554513 0.6291045 0
5.0160003 -2.4606497 0.62881225 0
5.0090003 -2.465302 0.62847131 0
5.0030003 -2.4704554 0.62817907 0
4.9970002 -2.4755871 0.62788689 0
4.9910002 -2.4806974 0.62759465 0
4.9840002 -2.4852538 0.62725377 0
4.9780002 -2.4903188 0.62696153 0
4.9720001 -2.4953623 0.62666929 0
4.9660001 -2.5003839 0.62637711 0
4.9590001 -2.5048449 0.62603617 0
4.9530005 -2.5098219 0.62574399 0
4.9630003 -2.5234637 0.62623096 0
5.0300002 -2.4345667 0.62114245 0
5.0350003 -2.445507 0.62137693 0
5.0280004 -2.4502311 0.62104863 0
5.0220003 -2.4554513 0.62076724 0
5.0160003 -2.4606497 0.62048584 0
5.0090003 -2.465302 0.6201576 0
5.0030003 -2.4704554 0.61987615 0
4.9970002 -2.4755871 0.61959481 0
4.9910002 -2.4806974 0.61931336 0
4.9840002 -2.4852538 0.61898512 0
4.9780002 -2.4903188 0.61870372 0
4.9720001 -2.4953623 0.61842227 0
4.9660001 -2.5003839 0.61814094 0
4.9590001 -2.5048449 0.61781263 0
4.9530005 -2.5098219 0.61753124 0
4.9630003 -2.5234637 0.61800021 0
5.0300002 -2.4345667 0.61279082 0
5.0350003 -2.445507 0.61301631 0
5.0280004 -2.4502311 0.61270064 0
5.0220003 -2.4554513 0.61243004 0
5.0160003 -2.4606497 0.61215949 0
5.0090003 -2.465302 0.61184382 0
5.0030003 -2.4704554 0.61157322 0
4.9970002 -2.4755871 0.61130267 0
4.9900002 -2.4801672 0.61098701 0
4.9840002 -2.4852538 0.61071646 0
4.9780002 -2.4903188 0.61044586 0
4.9720001 -2.4953623 0.61017531 0
4.9660001 -2.5003839 0.60990471 0
4.9590001 -2.5048449 0.60958904 0
4.9530005 -2.5098219 0.60931849 0
4.9630003 -2.5234637 0.60976946 0
5.0300002 -2.4345667 0.6044392 0
5.0350003 -2.445507 0.60465562 0
5.0280004 -2.4502311 0.60435259 0
5.0220003 -2.4554513 0.60409284 0
5.0160003 -2.4606497 0.60383308 0
5.0090003 -2.465302 0.60353005 0
5.0030003 -2.4704554 0.60327029 0
4.9970002 -2.4755871 0.60301054 0
4.9900002 -2.4801672 0.60270751 0
4.9840002 -2.4852538 0.60244775 0
4.9780002 -2.4903188 0.60218799 0
4.9720001 -2.4953623 0.60192823 0
4.9660001 -2.5003839 0.60166854 0
4.9590001 -2.5048449 0.60136551 0
4.9530005 -2.5098219 0.60110575 0
4.9630003 -2.5234637 0.60153866 0
5.0300002 -2.4345667 0.59608757 0
5.0350003 -2.445507 0.596295 0
5.0280004 -2.4502311 0.59600461 0
5.0220003 -2.4554513 0.59575564 0
5.0160003 -2.4606497 0.59550673 0
5.0090003 -2.465302 0.59521627 0
5.0030003 -2.4704554 0.59496737 0
4.9970002 -2.4755871 0.59471846 0
4.9900002 -2.4801672 0.59442806 0
4.9840002 -2.4852538 0.59417909 0
4.9780002 -2.4903188 0.59393018 0
4.9720001 -2.4953623 0.59368128 0
4.9660001 -2.5003839 0.59343231 0
4.9590001 -2.5048449 0.59314191 0
4.9530005 -2.5098219 0.592893 0
4.9630003 -2.5234637 0.59330785 0
5.0300002 -2.4345667 0.58773589 0
5.0350003 -2.445507 0.58793432 0
5.0280004 -2.4502311 0.58765656 0
5.0220003 -2.4554513 0.58741844 0
5.0160003 -2.4606497 0.58718038 0
5.0090003 -2.465302 0.58690256 0
5.0030003 -2.4704554 0.58666444 0
4.9970002 -2.4755871 0.58642638 0
4.9900002 -2.4801672 0.58614856 0
4.9840002 -2.4852538 0.58591044 0
4.9780002 -2.4903188 0.58567238 0
4.9720001 -2.4953623 0.58543426 0
4.9660001 -2.5003839 0.58519614 0
4.9590001 -2.5048449 0.58491838 0
4.9530005 -2.5098219 0.58468026 0
4.9630003 -2.5234637 0.58507711 0
5.0300002 -2.4345667 0.57938427 0
5.0350003 -2.445507 0.57957369 0
5.0280004 -2.4502311 0.57930851 0
5.0220003 -2.4554513 0.57908124 0
5.0160003 -2.4606497 0.57885396 0
5.0090003 -2.465302 0.57858878 0
5.0030003 -2.4704554 0.57836151 0
4.9970002 -2.4755871 0.57813424 0
4.9900002 -2.4801672 0.57786906 0
4.9840002 -2.4852538 0.57764179 0
4.9780002 -2.4903188 0.57741451 0
4.9720001 -2.4953623 0.57718724 0
4.9660001 -2.5003839 0.57695997 0
4.9590001 -2.5048449 0.57669479 0
4.9530005 -2.5098219 0.57646751 0
4.9630003 -2.5234637 0.57684636 0
5.0300002 -2.4345667 0.57103264 0
5.0350003 -2.445507 0.57121301 0
5.0280004 -2.4502311 0.57096052 0
5.0220003 -2.4554513 0.57074404 0
5.0160003 -2.4606497 0.57052761 0
5.0090003 -2.465302 0.57027507 0
5.0030003 -2.4704554 0.57005858 0
4.9970002 -2.4755871 0.56984216 0
4.9900002 -2.4801672 0.56958961 0
4.9840002 -2.4852538 0.56937313 0
4.9780002 -2.4903188 0.56915665 0
4.9720001 -2.4953623 0.56894022 0
4.9660001 -2.5003839 0.5687238 0
4.9590001 -2.5048449 0.56847125 0
4.9530005 -2.5098219 0.56825483 0
4.9630003 -2.5234637 0.56861556 0
5.0300002 -2.4345667 0.56268102 0
5.0350003 -2.445507 0.56285238 0
5.0280004 -2.4502311 0.56261247 0
5.0220003 -2.4554513 0.56240684 0
5.0160003 -2.4606497 0.5622012 0
5.0090003 -2.465302 0.56196129 0
5.0030003 -2.4704554 0.56175566 0
4.9970002 -2.4755871 0.56155002 0
4.9900002 -2.4801672 0.56131011 0
4.9840002 -2.4852538 0.56110448 0
4.9780002 -2.4903188 0.56089884 0
4.9720001 -2.4953623 0.56069326 0
4.9660001 -2.5003839 0.56048757 0
4.9590001 -2.5048449 0.56024766 0
4.9530005 -2.5098219 0.56004208 0
4.9630003 -2.5234637 0.56038475 0
5.0300002 -2.4345667 0.5543294 0
5.0350003 -2.445507 0.55449176 0
5.0280004 -2.4502311 0.55426443 0
5.0220003 -2.4554513 0.55406964 0
5.0160003 -2.4606497 0.55387485 0
5.0090003 -2.465302 0.55364758 0
5.0030003 -2.4704554 0.55345273 0
4.9970002 -2.4755871 0.55325794 0
4.9900002 -2.4801672 0.55303067 0
4.9840002 -2.4852538 0.55283582 0
4.9780002 -2.4903188 0.55264103 0
4.9720001 -2.4953623 0.55244619 0
4.9660001 -2.5003839 0.5522514 0
4.9590001 -2.5048449 0.55202413 0
4.9530005 -2.5098219 0.55182934 0
4.9630003 -2.5234637 0.552154 0
5.0300002 -2.4345667 0.54597777 0
5.0350003 -2.445507 0.54613107 0
5.0280004 -2.4502311 0.54591644 0
5.0220003 -2.4554513 0.54573244 0
5.0160003 -2.4606497 0.54554844 0
5.0090003 -2.465302 0.5453338 0
5.0030003 -2.4704554 0.5451498 0
4.9970002 -2.4755871 0.5449658 0
4.9900002 -2.4801672 0.54475117 0
4.9840002 -2.4852538 0.54456717 0
4.9780002 -2.4903188 0.54438317 0
4.9720001 -2.4953623 0.54419923 0
4.9660001 -2.5003839 0.54401523 0
4.9590001 -2.5048449 0.54380053 0
4.9530005 -2.5098219 0.54361659 0
4.9630003 -2.5234637 0.54392326 0
5.0300002 -2.4345667 0.53762615 0
5.0350003 -2.445507 0.53777045 0
5.0280004 -2.4502311 0.53756839 0
5.0220003 -2.4554513 0.53739524 0
5.0160003 -2.4606497 0.53722209 0
5.0090003 -2.465302 0.53702003 0
5.0030003 -2.4704554 0.53684688 0
4.9970002 -2.4755871 0.53667372 0
4.9900002 -2.4801672 0.53647172 0
4.9840002 -2.4852538 0.53629851 0
4.9780002 -2.4903188 0.53612536 0
4.9720001 -2.4953623 0.53595221 0
4.9660001 -2.5003839 0.535779 0
4.9590001 -2.5048449 0.535577 0
4.9530005 -2.5098219 0.53540385 0
4.9630003 -2.5234637 0.53569245 0
5.0300002 -2.4345667 0.52927446 0
5.0350003 -2.445507 0.52940977 0
5.0280004 -2.4502311 0.5292204 0
5.0220003 -2.4554513 0.52905804 0
5.0160003 -2.4606497 0.52889568 0
5.0090003 -2.465302 0.52870631 0
5.0030003 -2.4704554 0.52854395 0
4.9970002 -2.4755871 0.52838159 0
4.9900002 -2.4801672 0.52819222 0
4.9840002 -2.4852538 0.52802986 0
4.9780002 -2.4903188 0.5278675 0
4.9720001 -2.4953623 0.52770519 0
4.9660001 -2.5003839 0.52754283 0
4.9590001 -2.5048449 0.52735341 0
4.9530005 -2.5098219 0.5271911 0
4.9630003 -2.5234637 0.52746165 0
5.0300002 -2.4345667 0.52092284 0
5.0350003 -2.445507 0.52104914 0
5.0280004 -2.4502311 0.52087235 0
5.0220003 -2.4554513 0.52072084 0
5.0160003 -2.4606497 0.52056932 0
5.0090003 -2.465302 0.52039254 0
5.0030003 -2.4704554 0.52024102 0
4.9970002 -2.4755871 0.52008951 0
4.9900002 -2.4801672 0.51991272 0
4.9840002 -2.4852538 0.5197612 0
4.9780002 -2.4903188 0.51960969 0
4.9720001 -2.4953623 0.51945817 0
4.9660001 -2.5003839 0.51930666 0
4.9590001 -2.5048449 0.51912987 0
4.9530005 -2.5098219 0.51897836 0
4.9630003 -2.5234637 0.5192309 0
5.0300002 -2.4345667 0.51257122 0
5.0350003 -2.445507 0.51268846 0
5.0280004 -2.4502311 0.51252431 0
5.0220003 -2.4554513 0.51238364 0
5.0160003 -2.4606497 0.51224291 0
5.0090003 -2.465302 0.51207876 0
5.0030003 -2.4704554 0.5119381 0
4.9970002 -2.4755871 0.51179743 0
4.9900002 -2.4801672 0.51163328 0
4.9840002 -2.4852538 0.51149255 0
4.9780002 -2.4903188 0.51135182 0
4.9720001 -2.4953623 0.51121116 0
4.9660001 -2.5003839 0.51107049 0
4.9590001 -2.5048449 0.51090634 0
4.9530005 -2.5098219 0.51076561 0
4.9630003 -2.5234637 0.5110001 0
5.0300002 -2.4345667 0.50421959 0
5.0350003 -2.445507 0.50432783 0
5.0280004 -2.4502311 0.50417632 0
5.0220003 -2.4554513 0.50404644 0
5.0160003 -2.4606497 0.50391656 0
5.0090003 -2.465302 0.50376505 0
5.0030003 -2.4704554 0.50363517 0
4.9970002 -2.4755871 0.50350529 0
4.9900002 -2.4801672 0.50335377 0
4.9840002 -2.4852538 0.5032239 0
4.9780002 -2.4903188 0.50309402 0
4.9720001 -2.4953623 0.50296414 0
4.9660001 -2.5003839 0.50283426 0
4.9590001 -2.5048449 0.50268275 0
4.9530005 -2.5098219 0.50255287 0
4.9630003 -2.5234637 0.50276935 0
5.0300002 -2.4345667 0.49586797 0
5.0350003 -2.445507 0.49596718 0
5.0280004 -2.4502311 0.49582827 0
5.0220003 -2.4554513 0.49570924 0
5.0160003 -2.4606497 0.49559018 0
5.0090003 -2.465302 0.49545127 0
5.0030003 -2.4704554 0.49533224 0
4.9970002 -2.4755871 0.49521318 0
4.9900002 -2.4801672 0.49507427 0
4.9840002 -2.4852538 0.49495524 0
4.9780002 -2.4903188 0.49483618 0
4.9720001 -2.4953623 0.49471712 0
4.9660001 -2.5003839 0.49459809 0
4.9590001 -2.5048449 0.49445918 0
4.9530005 -2.5098219 0.49434015 0
4.9630003 -2.5234637 0.49453855 0
5.0300002 -2.4345667 0.48751634 0
5.0350003 -2.445507 0.48760653 0
5.0280004 -2.4502311 0.48748025 0
5.0220003 -2.4554513 0.48737204 0
5.0160003 -2.4606497 0.4872638 0
5.0090003 -2.465302 0.48713756 0
5.0030003 -2.4704554 0.48702931 0
4.9970002 -2.4755871 0.48692107 0
4.9900002 -2.4801672 0.48679483 0
4.9840002 -2.4852538 0.48668659 0
4.9780002 -2.4903188 0.48657835 0
4.9720001 -2.4953623 0.48647013 0
4.9660001 -2.5003839 0.48636189 0
4.9590001 -2.5048449 0.48623562 0
4.9530005 -2.5098219 0.48612741 0
4.9630003 -2.5234637 0.4863078 0
5.0300002 -2.4345667 0.47916472 0
5.0350003 -2.445507 0.47924587 0
5.0280004 -2.4502311 0.47913224 0
5.0220003 -2.4554513 0.47903484 0
5.0160003 -2.4606497 0.47893742 0
5.0090003 -2.465302 0.47882378 0
5.0030003 -2.4704554 0.47872639 0
4.9970002 -2.4755871 0.47862896 0
4.9900002 -2.4801672 0.47851533 0
4.9840002 -2.4852538 0.47841793 0
4.9780002 -2.4903188 0.47832051 0
4.9720001 -2.4953623 0.47822312 0
4.9660001 -2.5003839 0.47812569 0
4.9590001 -2.5048449 0.47801206 0
4.9530005 -2.5098219 0.47791466 0
4.9630003 -2.5234637 0.47807699 0
5.0300002 -2.4345667 0.47081307 0
5.0350003 -2.445507 0.47088522 0
5.0280004 -2.4502311 0.47078422 0
5.0220003 -2.4554513 0.47069764 0
5.0160003 -2.4606497 0.47061104 0
5.0090003 -2.465302 0.47051004 0
5.0030003 -2.4704554 0.47042346 0
4.9970002 -2.4755871 0.47033685 0
4.9900002 -2.4801672 0.47023585 0
4.9840002 -2.4852538 0.47014928 0
4.9780002 -2.4903188 0.47006267 0
4.9720001 -2.4953623 0.4699761 0
4.9660001 -2.5003839 0.46988952 0
4.9590001 -2.5048449 0.46978849 0
4.9530005 -2.5098219 0.46970195 0
4.9630003 -2.5234637 0.46984622 0
5.0300002 -2.4345667 0.46246144 0
5.0350003 -2.445507 0.46252456 0
5.0280004 -2.4502311 0.4624362 0
5.0220003 -2.4554513 0.46236041 0
5.0160003 -2.4606497 0.46228465 0
5.0090003 -2.465302 0.46219629 0
5.0030003 -2.4704554 0.46212053 0
4.9970002 -2.4755871 0.46204475 0
4.9900002 -2.4801672 0.46195638 0
4.9840002 -2.4852538 0.46188062 0
4.9780002 -2.4903188 0.46180487 0
4.9720001 -2.4953623 0.46172911 0
4.9660001 -2.5003839 0.46165332 0
4.9590001 -2.5048449 0.46156496 0
4.9530005 -2.5098219 0.4614892 0
4.9630003 -2.5234637 0.46161544 0
5.0300002 -2.4345667 0.45410982 0
5.0350003 -2.445507 0.45416391 0
5.0280004 -2.4502311 0.45408815 0
5.0220003 -2.4554513 0.45402324 0
5.0160003 -2.4606497 0.45395827 0
5.0090003 -2.465302 0.45388252 0
5.0030003 -2.4704554 0.45381758 0
4.9970002 -2.4755871 0.45375264 0
4.9900002 -2.4801672 0.45367688 0
4.9840002 -2.4852538 0.45361197 0
4.9780002 -2.4903188 0.453547 0
4.9720001 -2.4953623 0.45348209 0
4.9660001 -2.5003839 0.45341715 0
4.9590001 -2.5048449 0.45334139 0
4.9530005 -2.5098219 0.45327646 0
4.9630003 -2.5234637 0.45338467 0
5.0300002 -2.4345667 0.44575816 0
5.0350003 -2.445507 0.44580328 0
5.0280004 -2.4502311 0.44574013 0
5.0220003 -2.4554513 0.44568601 0
5.0160003 -2.4606497 0.44563192 0
5.0090003 -2.465302 0.44556877 0
5.0030003 -2.4704554 0.44551465 0
4.9970002 -2.4755871 0.44546056 0
4.9900002 -2.4801672 0.44539741 0
4.9840002 -2.4852538 0.44534329 0
4.9780002 -2.4903188 0.44528919 0
4.9720001 -2.4953623 0.44523507 0
4.9660001 -2.5003839 0.44518095 0
4.9590001 -2.5048449 0.44511783 0
4.9530005 -2.5098219 0.44506371 0
4.9630003 -2.5234637 0.44515389 0
5.0300002 -2.4345667 0.43740654 0
5.0350003 -2.445507 0.43744263 0
5.0280004 -2.4502311 0.43739212 0
5.0220003 -2.4554513 0.43734881 0
5.0160003 -2.4606497 0.43730554 0
5.0090003 -2.465302 0.43725502 0
5.0030003 -2.4704554 0.43721172 0
4.9970002 -2.4755871 0.43716845 0
4.9900002 -2.4801672 0.43711793 0
4.9840002 -2.4852538 0.43707463 0
4.9780002 -2.4903188 0.43703136 0
4.9720001 -2.4953623 0.43698806 0
4.9660001 -2.5003839 0.43694475 0
4.9590001 -2.5048449 0.43689427 0
4.9530005 -2.5098219 0.43685097 0
4.9630003 -2.5234637 0.43692312 0
5.0300002 -2.4345667 0.42905492 0
5.0350003 -2.445507 0.42908198 0
5.0280004 -2.4502311 0.4290441 0
5.0220003 -2.4554513 0.42901161 0
5.0160003 -2.4606497 0.42897916 0
5.0090003 -2.465302 0.42894128 0
5.0030003 -2.4704554 0.4289088 0
4.9970002 -2.4755871 0.42887634 0
4.9900002 -2.4801672 0.42883846 0
4.9840002 -2.4852538 0.42880598 0
4.9780002 -2.4903188 0.42877352 0
4.9720001 -2.4953623 0.42874104 0
4.9660001 -2.5003839 0.42870858 0
4.9590001 -2.5048449 0.4286707 0
4.9530005 -2.5098219 0.42863822 0
4.9630003 -2.5234637 0.42869234 0
5.0300002 -2.4345667 0.42070329 0
5.0350003 -2.445507 0.42072132 0
5.0280004 -2.4502311 0.42069605 0
5.0220003 -2.4554513 0.42067441 0
5.0160003 -2.4606497 0.42065278 0
5.0090003 -2.465302 0.4206275 0
5.0030003 -2.4704554 0.42060587 0
4.9970002 -2.4755871 0.42058423 0
4.9900002 -2.4801672 0.42055899 0
4.9840002 -2.4852538 0.42053732 0
4.9780002 -2.4903188 0.42051569 0
4.9720001 -2.4953623 0.42049405 0
4.9660001 -2.5003839 0.42047238 0
4.9590001 -2.5048449 0.42044714 0
4.9530005 -2.5098219 0.4204255 0
4.9630003 -2.5234637 0.42046157 0
5.0300002 -2.4345667 0.41235164 0
5.0350003 -2.445507 0.41236067 0
5.0280004 -2.4502311 0.41234803 0
5.0220003 -2.4554513 0.41233721 0
5.0160003 -2.4606497 0.4123264 0
5.0090003 -2.465302 0.41231376 0
5.0030003 -2.4704554 0.41230294 0
4.9970002 -2.4755871 0.41229212 0
4.9900002 -2.4801672 0.41227949 0
4.9840002 -2.4852538 0.41226867 0
4.9780002 -2.4903188 0.41225785 0
4.9720001 -2.4953623 0.41224703 0
4.9660001 -2.5003839 0.41223621 0
4.9590001 -2.5048449 0.41222358 0
4.9530005 -2.5098219 0.41221276 0
4.9630003 -2.5234637 0.41223079 0
5.0300002 -2.4345667 0.40400001 0
5.0350003 -2.445507 0.40400001 0
5.0280004 -2.4502311 0.40400001 0
5.0220003 -2.4554513 0.40400001 0
5.0160003 -2.4606497 0.40400001 0
5.0090003 -2.465302 0.40400001 0
5.0030003 -2.4704554 0.40400001 0
4.9970002 -2.4755871 0.40400001 0
4.9900002 -2.4801672 0.40400001 0
4.9840002 -2.4852538 0.40400001 0
4.9780002 -2.4903188 0.40400001 0
4.9720001 -2.4953623 0.40400001 0
4.9660001 -2.5003839 0.40400001 0
4.9590001 -2.5048449 0.40400001 0
4.9530005 -2.5098219 0.40400001 0
4.9630003 -2.5234637 0.40400001 0
5.0300002 -2.4345667 0.39564839 0
5.0350003 -2.445507 0.39563936 0
5.0280004 -2.4502311 0.395652 0
5.0220003 -2.4554513 0.39566281 0
5.0160003 -2.4606497 0.39567363 0
5.0090003 -2.465302 0.39568627 0
5.0030003 -2.4704554 0.39569709 0
4.9970002 -2.4755871 0.39570791 0
4.9900002 -2.4801672 0.39572054 0
4.9840002 -2.4852538 0.39573136 0
4.9780002 -2.4903188 0.39574218 0
4.9720001 -2.4953623 0.395753 0
4.9660001 -2.5003839 0.39576381 0
4.9590001 -2.5048449 0.39577645 0
4.9530005 -2.5098219 0.39578727 0
4.9630003 -2.5234637 0.39576924 0
5.0300002 -2.4345667 0.38729674 0
5.0350003 -2.445507 0.38727871 0
5.0280004 -2.4502311 0.38730398 0
5.0220003 -2.4554513 0.38732561 0
5.0160003 -2.4606497 0.38734725 0
5.0090003 -2.465302 0.38737252 0
5.0030003 -2.4704554 0.38739416 0
4.9970002 -2.4755871 0.3874158 0
4.9900002 -2.4801672 0.38744104 0
4.9840002 -2.4852538 0.38746271 0
4.9780002 -2.4903188 0.38748434 0
4.9720001 -2.4953623 0.38750598 0
4.9660001 -2.5003839 0.38752764 0
4.9590001 -2.5048449 0.38755289 0
4.9530005 -2.5098219 0.38757452 0
4.9630003 -2.5234637 0.38753846 0
5.0300002 -2.4345667 0.37894511 0
5.0350003 -2.445507 0.37891805 0
5.0280004 -2.4502311 0.37895593 0
5.0220003 -2.4554513 0.37898842 0
5.0160003 -2.4606497 0.37902087 0
5.0090003 -2.465302 0.37905875 0
5.0030003 -2.4704554 0.37909123 0
4.9970002 -2.4755871 0.37912369 0
4.9900002 -2.4801672 0.37916157 0
4.9840002 -2.4852538 0.37919405 0
4.9780002 -2.4903188 0.37922651 0
4.9720001 -2.4953623 0.37925899 0
4.9660001 -2.5003839 0.37929145 0
4.9590001 -2.5048449 0.37932932 0
4.9530005 -2.5098219 0.37936181 0
4.9630003 -2.5234637 0.37930769 0
5.0300002 -2.4345667 0.37059349 0
5.0350003 -2.445507 0.3705574 0
5.0280004 -2.4502311 0.37060791 0
5.0220003 -2.4554513 0.37065122 0
5.0160003 -2.4606497 0.37069449 0
5.0090003 -2.465302 0.370745 0
5.0030003 -2.4704554 0.37078831 0
4.9970002 -2.4755871 0.37083158 0
4.9900002 -2.4801672 0.37088209 0
4.9840002 -2.4852538 0.3709254 0
4.9780002 -2.4903188 0.37096867 0
4.9720001 -2.4953623 0.37101197 0
4.9660001 -2.5003839 0.37105528 0
4.9590001 -2.5048449 0.37110576 0
4.9530005 -2.5098219 0.37114906 0
4.9630003 -2.5234637 0.37107691 0
5.0300002 -2.4345667 0.36224186 0
5.0350003 -2.445507 0.36219674 0
5.0280004 -2.4502311 0.36225989 0
5.0220003 -2.4554513 0.36231402 0
5.0160003 -2.4606497 0.36236811 0
5.0090003 -2.465302 0.36243126 0
5.0030003 -2.4704554 0.36248538 0
4.9970002 -2.4755871 0.36253947 0
4.9900002 -2.4801672 0.36260262 0
4.9840002 -2.4852538 0.36265674 0
4.9780002 -2.4903188 0.36271083 0
4.9720001 -2.4953623 0.36276495 0
4.9660001 -2.5003839 0.36281908 0
4.9590001 -2.5048449 0.3628822 0
4.9530005 -2.5098219 0.36293632 0
4.9630003 -2.5234637 0.36284614 0
5.0300002 -2.4345667 0.35389021 0
5.0350003 -2.445507 0.35383612 0
5.0280004 -2.4502311 0.35391188 0
5.0220003 -2.4554513 0.35397679 0
5.0160003 -2.4606497 0.35404176 0
5.0090003 -2.465302 0.35411751 0
5.0030003 -2.4704554 0.35418245 0
4.9970002 -2.4755871 0.35424739 0
4.9900002 -2.4801672 0.35432315 0
4.9840002 -2.4852538 0.35438806 0
4.9780002 -2.4903188 0.35445303 0
4.9720001 -2.4953623 0.35451794 0
4.9660001 -2.5003839 0.35458288 0
4.9590001 -2.5048449 0.35465863 0
4.9530005 -2.5098219 0.35472357 0
4.9630003 -2.5234637 0.35461536 0
5.0300002 -2.4345667 0.34553859 0
5.0350003 -2.445507 0.34547547 0
5.0280004 -2.4502311 0.34556383 0
5.0220003 -2.4554513 0.34563962 0
5.0160003 -2.4606497 0.34571537 0
5.0090003 -2.465302 0.34580374 0
5.0030003 -2.4704554 0.3458795 0
4.9970002 -2.4755871 0.34595528 0
4.9900002 -2.4801672 0.34604365 0
4.9840002 -2.4852538 0.3461194 0
4.9780002 -2.4903188 0.34619516 0
4.9720001 -2.4953623 0.34627092 0
4.9660001 -2.5003839 0.34634671 0
4.9590001 -2.5048449 0.34643507 0
4.9530005 -2.5098219 0.34651083 0
4.9630003 -2.5234637 0.34638458 0
5.0300002 -2.4345667 0.33718696 0
5.0350003 -2.445507 0.33711481 0
5.0280004 -2.4502311 0.33721581 0
5.0220003 -2.4554513 0.33730239 0
5.0160003 -2.4606497 0.33738899 0
5.0090003 -2.465302 0.33748999 0
5.0030003 -2.4704554 0.33757657 0
4.9970002 -2.4755871 0.33766317 0
4.9900002 -2.4801672 0.33776417 0
4.9840002 -2.4852538 0.33785075 0
4.9780002 -2.4903188 0.33793736 0
4.9720001 -2.4953623 0.33802393 0
4.9660001 -2.5003839 0.33811051 0
4.9590001 -2.5048449 0.33821154 0
4.9530005 -2.5098219 0.33829808 0
4.9630003 -2.5234637 0.33815381 0
5.0300002 -2.4345667 0.32883531 0
5.0350003 -2.445507 0.32875416 0
5.0280004 -2.4502311 0.32886779 0
5.0220003 -2.4554513 0.32896519 0
5.0160003 -2.4606497 0.32906261 0
5.0090003 -2.465302 0.32917625 0
5.0030003 -2.4704554 0.32927364 0
4.9970002 -2.4755871 0.32937106 0
4.9900002 -2.4801672 0.3294847 0
4.9840002 -2.4852538 0.3295821 0
4.9780002 -2.4903188 0.32967952 0
4.9720001 -2.4953623 0.32977691 0
4.9660001 -2.5003839 0.32987434 0
4.9590001 -2.5048449 0.32998797 0
4.9530005 -2.5098219 0.33008537 0
4.9630003 -2.5234637 0.32992303 0
5.0300002 -2.4345667 0.32048368 0
5.0350003 -2.445507 0.3203935 0
5.0280004 -2.4502311 0.32051978 0
5.0220003 -2.4554513 0.32062799 0
5.0160003 -2.4606497 0.32073623 0
5.0090003 -2.465302 0.32086247 0
5.0030003 -2.4704554 0.32097071 0
4.9970002 -2.4755871 0.32107896 0
4.9900002 -2.4801672 0.3212052 0
4.9840002 -2.4852538 0.32131344 0
4.9780002 -2.4903188 0.32142168 0
4.9720001 -2.4953623 0.3215299 0
4.9660001 -2.5003839 0.32163814 0
4.9590001 -2.5048449 0.32176441 0
4.9530005 -2.5098219 0.32187262 0
4.9630003 -2.5234637 0.32169223 0
5.0300002 -2.4345667 0.31213206 0
5.0350003 -2.445507 0.31203285 0
5.0280004 -2.4502311 0.31217176 0
5.0220003 -2.4554513 0.31229079 0
5.0160003 -2.4606497 0.31240985 0
5.0090003 -2.465302 0.31254876 0
5.0030003 -2.4704554 0.31266779 0
4.9970002 -2.4755871 0.31278685 0
4.9900002 -2.4801672 0.31292576 0
4.9840002 -2.4852538 0.31304479 0
4.9780002 -2.4903188 0.31316385 0
4.9720001 -2.4953623 0.31328291 0
4.9660001 -2.5003839 0.31340194 0
4.9590001 -2.5048449 0.31354085 0
4.9530005 -2.5098219 0.31365988 0
4.9630003 -2.5234637 0.31346148 0
5.0300002 -2.4345667 0.30378044 0
5.0350003 -2.445507 0.30367219 0
5.0280004 -2.4502311 0.30382371 0
5.0220003 -2.4554513 0.30395359 0
5.0160003 -2.4606497 0.30408347 0
5.0090003 -2.465302 0.30423498 0
5.0030003 -2.4704554 0.30436486 0
4.9970002 -2.4755871 0.30449474 0
4.9900002 -2.4801672 0.30464625 0
4.9840002 -2.4852538 0.30477613 0
4.9780002 -2.4903188 0.30490601 0
4.9720001 -2.4953623 0.30503589 0
4.9660001 -2.5003839 0.30516577 0
4.9590001 -2.5048449 0.30531728 0
4.9530005 -2.5098219 0.30544713 0
4.9630003 -2.5234637 0.30523068 0
5.0300002 -2.4345667 0.29542881 0
5.0350003 -2.445507 0.29531154 0
5.0280004 -2.4502311 0.29547569 0
5.0220003 -2.4554513 0.29561639 0
5.0160003 -2.4606497 0.29575709 0
5.0090003 -2.465302 0.29592124 0
5.0030003 -2.4704554 0.29606193 0
4.9970002 -2.4755871 0.29620263 0
4.9900002 -2.4801672 0.29636678 0
4.9840002 -2.4852538 0.29650748 0
4.9780002 -2.4903188 0.29664817 0
4.9720001 -2.4953623 0.29678887 0
4.9660001 -2.5003839 0.29692957 0
4.9590001 -2.5048449 0.29709372 0
4.9530005 -2.5098219 0.29723442 0
4.9630003 -2.5234637 0.2969999 0
5.0300002 -2.4345667 0.28707719 0
5.0350003 -2.445507 0.28695089 0
5.0280004 -2.4502311 0.28712767 0
5.0220003 -2.4554513 0.28727919 0
5.0160003 -2.4606497 0.2874307 0
5.0090003 -2.465302 0.28760749 0
5.0030003 -2.4704554 0.28775901 0
4.9970002 -2.4755871 0.28791052 0
4.9900002 -2.4801672 0.28808731 0
4.9840002 -2.4852538 0.28823882 0
4.9780002 -2.4903188 0.28839034 0
4.9720001 -2.4953623 0.28854185 0
4.9660001 -2.5003839 0.28869337 0
4.9590001 -2.5048449 0.28887016 0
4.9530005 -2.5098219 0.28902167 0
4.9630003 -2.5234637 0.28876913 0
5.0300002 -2.4345667 0.27872553 0
5.0350003 -2.445507 0.27859026 0
5.0280004 -2.4502311 0.27877963 0
5.0220003 -2.4554513 0.27894199 0
5.0160003 -2.4606497 0.27910432 0
5.0090003 -2.465302 0.27929372 0
5.0030003 -2.4704554 0.27945608 0
4.9970002 -2.4755871 0.27961841 0
4.9900002 -2.4801672 0.27980781 0
4.9840002 -2.4852538 0.27997017 0
4.9780002 -2.4903188 0.2801325 0
4.9720001 -2.4953623 0.28029484 0
4.9660001 -2.5003839 0.2804572 0
4.9590001 -2.5048449 0.28064659 0
4.9530005 -2.5098219 0.28080893 0
4.9630003 -2.5234637 0.28053838 0
5.0300002 -2.4345667 0.27037391 0
5.0350003 -2.445507 0.27022958 0
5.0280004 -2.4502311 0.27043164 0
5.0220003 -2.4554513 0.27060479 0
5.0160003 -2.4606497 0.27077794 0
5.0090003 -2.465302 0.27098 0
5.0030003 -2.4704554 0.27115315 0
4.9970002 -2.4755871 0.2713263 0
4.9900002 -2.4801672 0.27152833 0
4.9840002 -2.4852538 0.27170151 0
4.9780002 -2.4903188 0.27187467 0
4.9720001 -2.4953623 0.27204782 0
4.9660001 -2.5003839 0.27222103 0
4.9590001 -2.5048449 0.27242303 0
4.9530005 -2.5098219 0.27259618 0
4.9630003 -2.5234637 0.27230757 0
5.0300002 -2.4345667 0.26202226 0
5.0350003 -2.445507 0.26186895 0
5.0280004 -2.4502311 0.26208359 0
5.0220003 -2.4554513 0.26226759 0
5.0160003 -2.4606497 0.26245159 0
5.0090003 -2.465302 0.26266623 0
5.0030003 -2.4704554 0.26285022 0
4.9970002 -2.4755871 0.26303422 0
4.9900002 -2.4801672 0.26324886 0
4.9840002 -2.4852538 0.26343286 0
4.9780002 -2.4903188 0.26361683 0
4.9720001 -2.4953623 0.26380083 0
4.9660001 -2.5003839 0.2639848 0
4.9590001 -2.5048449 0.2641995 0
4.9530005 -2.5098219 0.26438344 0
4.9630003 -2.5234637 0.2640768 0
5.0300002 -2.4345667 0.25367063 0
5.0350003 -2.445507 0.25350827 0
5.0280004 -2.4502311 0.25373557 0
5.0220003 -2.4554513 0.25393039 0
5.0160003 -2.4606497 0.25412518 0
5.0090003 -2.465302 0.25435245 0
5.0030003 -2.4704554 0.2545473 0
4.9970002 -2.4755871 0.25474209 0
4.9900002 -2.4801672 0.25496936 0
4.9840002 -2.4852538 0.25516421 0
4.9780002 -2.4903188 0.25535899 0
4.9720001 -2.4953623 0.25555384 0
4.9660001 -2.5003839 0.25574863 0
4.9590001 -2.5048449 0.2559759 0
4.9530005 -2.5098219 0.25617069 0
4.9630003 -2.5234637 0.25584602 0
5.0300002 -2.4345667 0.24531901 0
5.0350003 -2.445507 0.24514765 0
5.0280004 -2.4502311 0.24538754 0
5.0220003 -2.4554513 0.24559319 0
5.0160003 -2.4606497 0.24579883 0
5.0090003 -2.465302 0.24603872 0
5.0030003 -2.4704554 0.24624437 0
4.9970002 -2.4755871 0.24644999 0
4.9900002 -2.4801672 0.2466899 0
4.9840002 -2.4852538 0.24689554 0
4.9780002 -2.4903188 0.24710117 0
4.9720001 -2.4953623 0.24730679 0
4.9660001 -2.5003839 0.24751244 0
4.9590001 -2.5048449 0.24775234 0
4.9530005 -2.5098219 0.24795796 0
4.9630003 -2.5234637 0.24761525 0
5.0300002 -2.4345667 0.23696737 0
5.0350003 -2.445507 0.23678699 0
5.0280004 -2.4502311 0.23703952 0
5.0220003 -2.4554513 0.23725599 0
5.0160003 -2.4606497 0.23747243 0
5.0090003 -2.465302 0.23772496 0
5.0030003 -2.4704554 0.23794143 0
4.9970002 -2.4755871 0.23815788 0
4.9900002 -2.4801672 0.23841041 0
4.9840002 -2.4852538 0.23862688 0
4.9780002 -2.4903188 0.23884335 0
4.9720001 -2.4953623 0.23905979 0
4.9660001 -2.5003839 0.23927626 0
4.9590001 -2.5048449 0.23952879 0
4.9530005 -2.5098219 0.23974521 0
4.9630003 -2.5234637 0.23938447 0
5.0300002 -2.4345667 0.22861575 0
5.0350003 -2.445507 0.22842634 0
5.0280004 -2.4502311 0.2286915 0
5.0220003 -2.4554513 0.22891878 0
5.0160003 -2.4606497 0.22914606 0
5.0090003 -2.465302 0.22941123 0
5.0030003 -2.4704554 0.2296385 0
4.9970002 -2.4755871 0.22986579 0
4.9900002 -2.4801672 0.23013094 0
4.9840002 -2.4852538 0.23035823 0
4.9780002 -2.4903188 0.2305855 0
4.9720001 -2.4953623 0.23081279 0
4.9660001 -2.5003839 0.23104006 0
4.9590001 -2.5048449 0.23130523 0
4.9530005 -2.5098219 0.2315325 0
4.9630003 -2.5234637 0.2311537 0
5.0300002 -2.4345667 0.22026412 0
5.0350003 -2.445507 0.2200657 0
5.0280004 -2.4502311 0.22034347 0
5.0220003 -2.4554513 0.22058158 0
5.0160003 -2.4606497 0.22081968 0
5.0090003 -2.465302 0.22109747 0
5.0030003 -2.4704554 0.22133556 0
4.9970002 -2.4755871 0.22157368 0
4.9900002 -2.4801672 0.22185147 0
4.9840002 -2.4852538 0.22208957 0
4.9780002 -2.4903188 0.22232766 0
4.9720001 -2.4953623 0.22256577 0
4.9660001 -2.5003839 0.22280389 0
4.9590001 -2.5048449 0.22308166 0
4.9530005 -2.5098219 0.22331975 0
4.9630003 -2.5234637 0.22292292 0
5.0300002 -2.4345667 0.21191247 0
5.0350003 -2.445507 0.21170504 0
5.0280004 -2.4502311 0.21199545 0
5.0220003 -2.4554513 0.21224438 0
5.0160003 -2.4606497 0.2124933 0
5.0090003 -2.465302 0.21278372 0
5.0030003 -2.4704554 0.21303265 0
4.9970002 -2.4755871 0.21328157 0
4.9900002 -2.4801672 0.21357198 0
4.9840002 -2.4852538 0.21382092 0
4.9780002 -2.4903188 0.21406984 0
4.9720001 -2.4953623 0.21431877 0
4.9660001 -2.5003839 0.21456769 0
4.9590001 -2.5048449 0.2148581 0
4.9530005 -2.5098219 0.21510701 0
4.9630003 -2.5234637 0.21469215 0
5.0300002 -2.4345667 0.20356084 0
5.0350003 -2.445507 0.20334439 0
5.0280004 -2.4502311 0.20364742 0
5.0220003 -2.4554513 0.20390716 0
5.0160003 -2.4606497 0.20416692 0
5.0090003 -2.465302 0.20446996 0
5.0030003 -2.4704554 0.20472972 0
4.9970002 -2.4755871 0.20498946 0
4.9900002 -2.4801672 0.20529251 0
4.9840002 -2.4852538 0.20555225 0
4.9780002 -2.4903188 0.20581201 0
4.9720001 -2.4953623 0.20607176 0
4.9660001 -2.5003839 0.20633151 0
4.9590001 -2.5048449 0.20663454 0
4.9530005 -2.5098219 0.20689426 0
4.9630003 -2.5234637 0.20646136 0
5.0300002 -2.4345667 0.19520922 0
5.0350003 -2.445507 0.19498374 0
5.0280004 -2.4502311 0.1952994 0
5.0220003 -2.4554513 0.19556998 0
5.0160003 -2.4606497 0.19584055 0
5.0090003 -2.465302 0.1961562 0
5.0030003 -2.4704554 0.19642678 0
4.9970002 -2.4755871 0.19669735 0
4.9900002 -2.4801672 0.19701304 0
4.9840002 -2.4852538 0.1972836 0
4.9780002 -2.4903188 0.19755416 0
4.9720001 -2.4953623 0.19782473 0
4.9660001 -2.5003839 0.19809531 0
4.9590001 -2.5048449 0.19841099 0
4.9530005 -2.5098219 0.19868153 0
4.9630003 -2.5234637 0.19823059 0
5.0300002 -2.4345667 0.18685758 0
5.0350003 -2.445507 0.18662308 0
5.0280004 -2.4502311 0.18695138 0
5.0220003 -2.4554513 0.18723278 0
5.0160003 -2.4606497 0.18751417 0
5.0090003 -2.465302 0.18784246 0
5.0030003 -2.4704554 0.18812387 0
4.9970002 -2.4755871 0.18840525 0
4.9900002 -2.4801672 0.18873355 0
4.9840002 -2.4852538 0.18901493 0
4.9780002 -2.4903188 0.18929633 0
4.9720001 -2.4953623 0.18957773 0
4.9650002 -2.4998465 0.18990602 0
4.9590001 -2.5048449 0.19018742 0
4.9530005 -2.5098219 0.19046879 0
4.9630003 -2.5234637 0.1899998 0
5.0300002 -2.4345667 0.17850596 0
5.0350003 -2.445507 0.17826244 0
5.0280004 -2.4502311 0.17860335 0
5.0220003 -2.4554513 0.17889556 0
5.0160003 -2.4606497 0.17918779 0
5.0090003 -2.465302 0.1795287 0
5.0030003 -2.4704554 0.17982092 0
4.9970002 -2.4755871 0.18011315 0
4.9900002 -2.4801672 0.18045406 0
4.9840002 -2.4852538 0.18074627 0
4.9780002 -2.4903188 0.1810385 0
4.9720001 -2.4953623 0.18133073 0
4.9650002 -2.4998465 0.18167163 0
4.9590001 -2.5048449 0.18196386 0
4.9530005 -2.5098219 0.18225604 0
4.9630003 -2.5234637 0.18176904 0
5.0300002 -2.4345667 0.17015433 0
5.0350003 -2.445507 0.16990179 0
5.0280004 -2.4502311 0.17025532 0
5.0220003 -2.4554513 0.17055838 0
5.0160003 -2.4606497 0.17086142 0
5.0090003 -2.465302 0.17121497 0
5.0030003 -2.4704554 0.171518 0
4.9970002 -2.4755871 0.17182104 0
4.9900002 -2.4801672 0.17217459 0
4.9840002 -2.4852538 0.17247762 0
4.9780002 -2.4903188 0.17278066 0
4.9720001 -2.4953623 0.17308369 0
4.9650002 -2.4998465 0.17343725 0
4.9590001 -2.5048449 0.1737403 0
4.9530005 -2.5098219 0.17404333 0
4.9630003 -2.5234637 0.17353825 0
5.0300002 -2.4345667 0.16180268 0
5.0350003 -2.445507 0.16154112 0
5.0280004 -2.4502311 0.1619073 0
5.0220003 -2.4554513 0.16222116 0
5.0160003 -2.4606497 0.16253504 0
5.0090003 -2.465302 0.16290119 0
5.0030003 -2.4704554 0.16321507 0
4.9970002 -2.4755871 0.16352893 0
4.9900002 -2.4801672 0.16389512 0
4.9840002 -2.4852538 0.16420896 0
4.9780002 -2.4903188 0.16452283 0
4.9720001 -2.4953623 0.1648367 0
4.9650002 -2.4998465 0.16520289 0
4.9590001 -2.5048449 0.16551673 0
4.9530005 -2.5098219 0.16583057 0
4.9630003 -2.5234637 0.16530748 0
5.0300002 -2.4345667 0.15345106 0
5.0350003 -2.445507 0.15318048 0
5.0280004 -2.4502311 0.15355927 0
5.0220003 -2.4554513 0.15388396 0
5.0160003 -2.4606497 0.15420865 0
5.0090003 -2.465302 0.15458745 0
5.0030003 -2.4704554 0.15491213 0
4.9970002 -2.4755871 0.15523683 0
4.9900002 -2.4801672 0.15561561 0
4.9840002 -2.4852538 0.15594031 0
4.9780002 -2.4903188 0.15626501 0
4.9720001 -2.4953623 0.15658969 0
4.9650002 -2.4998465 0.15696849 0
4.9590001 -2.5048449 0.15729317 0
4.9530005 -2.5098219 0.15761784 0
4.9630003 -2.5234637 0.15707672 0
5.0300002 -2.4345667 0.14509943 0
5.0350003 -2.445507 0.14481983 0
5.0280004 -2.4502311 0.14521125 0
5.0220003 -2.4554513 0.14554676 0
5.0160003 -2.4606497 0.14588228 0
5.0090003 -2.465302 0.14627367 0
5.0030003 -2.4704554 0.14660922 0
4.9970002 -2.4755871 0.14694473 0
4.9900002 -2.4801672 0.14733613 0
4.9840002 -2.4852538 0.14767164 0
4.9780002 -2.4903188 0.14800718 0
4.9720001 -2.4953623 0.1483427 0
4.9650002 -2.4998465 0.14873409 0
4.9590001 -2.5048449 0.14906961 0
4.9530005 -2.5098219 0.14940509 0
4.9630003 -2.5234637 0.14884594 0
5.0300002 -2.4345667 0.13674781 0
5.0350003 -2.445507 0.13645917 0
5.0280004 -2.4502311 0.13686323 0
5.0220003 -2.4554513 0.13720956 0
5.0160003 -2.4606497 0.1375559 0
5.0090003 -2.465302 0.13795996 0
5.0030003 -2.4704554 0.13830629 0
4.9970002 -2.4755871 0.13865262 0
4.9900002 -2.4801672 0.13905665 0
4.9840002 -2.4852538 0.13940299 0
4.9780002 -2.4903188 0.13974932 0
4.9720001 -2.4953623 0.14009565 0
4.9650002 -2.4998465 0.14049971 0
4.9590001 -2.5048449 0.14084604 0
4.9530005 -2.5098219 0.14119235 0
4.9630003 -2.5234637 0.14061517 0
5.0300002 -2.4345667 0.12839615 0
5.0350003 -2.445507 0.12809855 0
5.0280004 -2.4502311 0.12851518 0
5.0220003 -2.4554513 0.12887236 0
5.0160003 -2.4606497 0.12922952 0
5.0090003 -2.465302 0.12964621 0
5.0030003 -2.4704554 0.13000336 0
4.9970002 -2.4755871 0.13036051 0
4.9900002 -2.4801672 0.13077718 0
4.9840002 -2.4852538 0.13113433 0
4.9780002 -2.4903188 0.13149148 0
4.9720001 -2.4953623 0.13184863 0
4.9650002 -2.4998465 0.13226533 0
4.9590001 -2.5048449 0.13262248 0
4.9530005 -2.5098219 0.13297963 0
4.9630003 -2.5234637 0.13238436 0
5.0300002 -2.4345667 0.12004453 0
5.0350003 -2.445507 0.11973786 0
5.0280004 -2.4502311 0.1201672 0
5.0220003 -2.4554513 0.12053517 0
5.0160003 -2.4606497 0.12090313 0
5.0090003 -2.465302 0.12133244 0
5.0030003 -2.4704554 0.12170044 0
4.9970002 -2.4755871 0.12206841 0
4.9900002 -2.4801672 0.12249771 0
4.9840002 -2.4852538 0.12286568 0
4.9780002 -2.4903188 0.12323365 0
4.9720001 -2.4953623 0.12360165 0
4.9650002 -2.4998465 0.12403095 0
4.9590001 -2.5048449 0.12439895 0
4.9530005 -2.5098219 0.12476689 0
4.9630003 -2.5234637 0.12415358 0
5.0300002 -2.4345667 0.11169291 0
5.0350003 -2.445507 0.11137724 0
5.0280004 -2.4502311 0.11181915 0
5.0220003 -2.4554513 0.11219797 0
5.0160003 -2.4606497 0.11257675 0
5.0090003 -2.465302 0.11301869 0
5.0030003 -2.4704554 0.11339748 0
4.9970002 -2.4755871 0.1137763 0
4.9900002 -2.4801672 0.11421821 0
4.9840002 -2.4852538 0.11459702 0
4.9780002 -2.4903188 0.11497584 0
4.9720001 -2.4953623 0.11535463 0
4.9650002 -2.4998465 0.11579654 0
4.9590001 -2.5048449 0.11617535 0
4.9530005 -2.5098219 0.11655414 0
4.9630003 -2.5234637 0.11592284 0
5.0300002 -2.4345667 0.10334125 0
5.0350003 -2.445507 0.10301656 0
5.0280004 -2.4502311 0.10347113 0
5.0220003 -2.4554513 0.10386074 0
5.0160003 -2.4606497 0.10425037 0
5.0090003 -2.465302 0.10470492 0
5.0030003 -2.4704554 0.10509455 0
4.9970002 -2.4755871 0.10548419 0
4.9900002 -2.4801672 0.10593873 0
4.9840002 -2.4852538 0.10632837 0
4.9780002 -2.4903188 0.106718 0
4.9720001 -2.4953623 0.10710764 0
4.9650002 -2.4998465 0.10756218 0
4.9590001 -2.5048449 0.10795182 0
4.9530005 -2.5098219 0.1083414 0
4.9630003 -2.5234637 0.10769203 0
5.0300002 -2.4345667 0.094989657 0
5.0350003 -2.445507 0.094655931 0
5.0280004 -2.4502311 0.095123112 0
5.0220003 -2.4554513 0.095523566 0
5.0160003 -2.4606497 0.09592399 0
5.0090003 -2.465302 0.096391201 0
5.0030003 -2.4704554 0.096791625 0
4.9970002 -2.4755871 0.097192079 0
4.9900002 -2.4801672 0.09765926 0
4.9840002 -2.4852538 0.098059714 0
