# .PCD v0.7 - Point Cloud Data file format
VERSION 0.7
FIELDS x y z intensity
SIZE 4 4 4 4
TYPE F F F F
COUNT 1 1 1 1
WIDTH 1458
HEIGHT 1
VIEWPOINT 0 0 0 1 0 0 0
POINTS 1458
DATA ascii
3.6150002 1.4038109 0.54318184 0
3.6150002 1.3980116 0.54318184 0
3.6150002 1.3922124 0.54318184 0
3.6160002 1.3868586 0.54322517 0
3.6180003 1.3819451 0.54331172 0
3.6200004 1.3770244 0.54339832 0
3.6220002 1.3720963 0.54348493 0
3.6250002 1.3675995 0.54361475 0
3.6280003 1.3630917 0.54374462 0
3.6320002 1.3590078 0.54391778 0
3.6360002 1.3549095 0.54409099 0
3.6410003 1.3512281 0.54430747 0
3.6470003 1.3479578 0.54456723 0
3.6540003 1.3450934 0.54487026 0
3.8560002 1.3566413 0.55361509 0
3.8540003 1.3495992 0.55352849 0
3.8520002 1.3425643 0.55344194 0
3.8510003 1.3359373 0.55339861 0
3.8510003 1.3297122 0.55339861 0
3.8520002 1.323884 0.55344194 0
3.8530002 1.3180524 0.55348521 0
3.8540003 1.3122171 0.55352849 0
3.8570004 1.3071611 0.55365837 0
3.8590002 1.3017045 0.55374497 0
3.8620002 1.2966286 0.55387485 0
3.8660002 1.2919278 0.554048 0
3.8700004 1.2872127 0.55422115 0
3.8750002 1.2828655 0.55443764 0
3.8810003 1.278881 0.55469739 0
3.8880002 1.2752534 0.55500042 0
3.7580004 1.880186 0.54331535 0
3.7650003 1.8781313 0.54360574 0
3.7720003 1.8760515 0.5438962 0
3.7790003 1.8739463 0.54418659 0
3.7860003 1.8718162 0.54447699 0
3.7930002 1.8696605 0.54476738 0
3.8010004 1.8680426 0.54509932 0
3.8080003 1.8658347 0.54538971 0
3.8150003 1.8636016 0.54568017 0
3.8230002 1.8619006 0.54601204 0
3.8300002 1.8596152 0.54630244 0
3.8370004 1.8573045 0.54659289 0
3.8450003 1.8555205 0.54692477 0
3.8520002 1.8531574 0.54721516 0
3.8600004 1.8513178 0.5475471 0
3.8670003 1.8489025 0.5478375 0
3.8750002 1.8470066 0.54816937 0
3.7160003 1.7364657 0.54157287 0
3.7130003 1.7288769 0.54144841 0
3.7110002 1.721833 0.54136539 0
3.7100003 1.7153286 0.5413239 0
3.7110002 1.7098882 0.54136539 0
3.7110002 1.7039158 0.54136539 0
3.7120004 1.6984702 0.54140693 0
3.7140002 1.6935457 0.5414899 0
3.7160003 1.6886142 0.54157287 0
3.7190003 1.6841966 0.54169732 0
3.7230003 1.6802877 0.54186326 0
3.7270002 1.6763645 0.5420292 0
3.7310002 1.6724267 0.5421952 0
3.7360003 1.6689887 0.54240263 0
3.7430003 1.6665572 0.54269302 0
3.7500002 1.6641004 0.54298341 0
3.7570002 1.6616182 0.54327387 0
3.7650003 1.659618 0.54360574 0
3.6250002 1.4257722 0.53779751 0
3.6210003 1.4181368 0.53763151 0
3.6200004 1.4118739 0.53759003 0
3.6190002 1.4056146 0.53754854 0
3.6180003 1.3993591 0.53750706 0
3.6190002 1.3940017 0.53754854 0
3.6200004 1.3886409 0.53759003 0
3.6210003 1.3832763 0.53763151 0
3.6230001 1.37835 0.53771448 0
3.6250002 1.3734167 0.53779751 0
3.6280003 1.3689144 0.53792197 0
3.6310003 1.3644012 0.53804642 0
3.6350002 1.360312 0.53821236 0
3.6400003 1.3566413 0.53841978 0
3.6450002 1.3529525 0.53862727 0
3.6510003 1.3496749 0.53887618 0
3.6580002 1.3468033 0.53916657 0
3.8560002 1.3504074 0.5473811 0
3.8550003 1.3437711 0.54733962 0
3.8540003 1.3371385 0.54729819 0
3.8540003 1.3309082 0.54729819 0
3.8540003 1.3246778 0.54729819 0
3.8550003 1.3188424 0.54733962 0
3.8570004 1.3133968 0.54742265 0
3.8590002 1.3079438 0.54750556 0
3.8610003 1.3024838 0.54758859 0
3.8640003 1.2974043 0.54771304 0
3.8680003 1.2926999 0.54787898 0
3.8730001 1.2883654 0.5480864 0
3.8780003 1.2840128 0.54829383 0
3.8840003 1.2800227 0.5485428 0
3.7580004 1.880186 0.53725815 0
3.7650003 1.8781313 0.53753591 0
3.7720003 1.8760515 0.53781372 0
3.7790003 1.8739463 0.53809154 0
3.7860003 1.8718162 0.5383693 0
3.7930002 1.8696605 0.53864706 0
3.8010004 1.8680426 0.53896457 0
3.8080003 1.8658347 0.53924233 0
3.8150003 1.8636016 0.53952014 0
3.8230002 1.8619006 0.5398376 0
3.8300002 1.8596152 0.54011536 0
3.8370004 1.8573045 0.54039317 0
3.8450003 1.8555205 0.54071063 0
3.8520002 1.8531574 0.54098845 0
3.8600004 1.8513178 0.5413059 0
3.8670003 1.8489025 0.54158366 0
3.8750002 1.8470066 0.54190117 0
3.7160003 1.7364657 0.53559142 0
3.7130003 1.7288769 0.53547239 0
3.7110002 1.721833 0.535393 0
3.7100003 1.7153286 0.5353533 0
3.7110002 1.7098882 0.535393 0
3.7110002 1.7039158 0.535393 0
3.7120004 1.6984702 0.5354327 0
3.7140002 1.6935457 0.53551209 0
3.7160003 1.6886142 0.53559142 0
3.7190003 1.6841966 0.53571045 0
3.7230003 1.6802877 0.53586924 0
3.7270002 1.6763645 0.53602797 0
3.7310002 1.6724267 0.5361867 0
3.7360003 1.6689887 0.53638512 0
3.7430003 1.6665572 0.53666288 0
3.7500002 1.6641004 0.53694069 0
3.7570002 1.6616182 0.53721845 0
3.6320002 1.4289668 0.53225797 0
3.6270003 1.4208641 0.53205955 0
3.6250002 1.4141377 0.53198022 0
3.6230001 1.4074184 0.53190082 0
3.6230001 1.4016048 0.53190082 0
3.6230001 1.3957911 0.53190082 0
3.6240003 1.3904231 0.53194052 0
3.6250002 1.3850513 0.53198022 0
3.6270003 1.3801179 0.53205955 0
3.6290002 1.3751773 0.53213894 0
3.6320002 1.3706677 0.53225797 0
3.6350002 1.3661474 0.53237706 0
3.6390002 1.3620508 0.53253579 0
3.6440003 1.3583729 0.53273422 0
3.6500003 1.3551081 0.53297234 0
3.6560001 1.3518215 0.5332104 0
3.8600004 1.3520235 0.5413059 0
3.8580003 1.3449779 0.54122651 0
3.8570004 1.3383398 0.54118687 0
3.8570004 1.3321041 0.54118687 0
3.8570004 1.3258684 0.54118687 0
3.8580003 1.3200276 0.54122651 0
3.8600004 1.3145766 0.5413059 0
3.8620002 1.3091182 0.54138529 0
3.8640003 1.3036526 0.54146463 0
3.8680003 1.2989556 0.54162335 0
3.8720002 1.2942439 0.54178208 0
3.8760002 1.2895179 0.54194081 0
3.8810003 1.2851599 0.54213923 0
3.8880002 1.281545 0.54241705 0
3.7580004 1.880186 0.53120095 0
3.7650003 1.8781313 0.53146613 0
3.7720003 1.8760515 0.53173125 0
3.7790003 1.8739463 0.53199643 0
3.7860003 1.8718162 0.53226161 0
3.7930002 1.8696605 0.53252673 0
3.8010004 1.8680426 0.53282982 0
3.8080003 1.8658347 0.533095 0
3.8150003 1.8636016 0.53336012 0
3.8230002 1.8619006 0.53366315 0
3.8300002 1.8596152 0.53392833 0
3.8370004 1.8573045 0.53419346 0
3.8450003 1.8555205 0.53449655 0
3.8520002 1.8531574 0.53476167 0
3.8600004 1.8513178 0.5350647 0
3.8670003 1.8489025 0.53532988 0
3.8750002 1.8470066 0.53563291 0
3.7160003 1.7364657 0.52961004 0
3.7130003 1.7288769 0.52949637 0
3.7110002 1.721833 0.52942061 0
3.7100003 1.7153286 0.52938271 0
3.7110002 1.7098882 0.52942061 0
3.7110002 1.7039158 0.52942061 0
3.7120004 1.6984702 0.52945846 0
3.7140002 1.6935457 0.52953422 0
3.7160003 1.6886142 0.52961004 0
3.7190003 1.6841966 0.52972364 0
3.7230003 1.6802877 0.52987516 0
3.7270002 1.6763645 0.53002667 0
3.7310002 1.6724267 0.53017819 0
3.7360003 1.6689887 0.53036761 0
3.7430003 1.6665572 0.53063273 0
3.7500002 1.6641004 0.53089792 0
3.6350002 1.4245006 0.52654171 0
3.6310003 1.4168541 0.52639019 0
3.6290002 1.4101241 0.52631444 0
3.6280003 1.4038506 0.52627659 0
3.6280003 1.3980279 0.52627659 0
3.6290002 1.3926507 0.52631444 0
3.6300004 1.38727 0.52635235 0
3.6320002 1.3823274 0.5264281 0
3.6340003 1.3773779 0.52650386 0
3.6370003 1.3728594 0.52661747 0
3.6400003 1.36833 0.52673113 0
3.6450002 1.3646592 0.52692056 0
3.6500003 1.3609705 0.52710992 0
3.6560001 1.3576946 0.52733719 0
3.8660002 1.3544478 0.53529203 0
3.8630002 1.346989 0.53517836 0
3.8610003 1.3399416 0.53510261 0
3.8610003 1.3336986 0.53510261 0
3.8610003 1.3274556 0.53510261 0
3.8620002 1.3216077 0.53514051 0
3.8630002 1.3157561 0.53517836 0
3.8660002 1.3106838 0.53529203 0
3.8680003 1.3052111 0.53536773 0
3.8710003 1.3001189 0.53548139 0
3.8750002 1.2954019 0.53563291 0
3.8800004 1.2910548 0.53582233 0
3.8860002 1.2870719 0.5360496 0
3.7580004 1.880186 0.52514374 0
3.7650003 1.8781313 0.52539629 0
3.7720003 1.8760515 0.52564883 0
3.7790003 1.8739463 0.52590138 0
3.7860003 1.8718162 0.52615392 0
3.7930002 1.8696605 0.52640641 0
3.8010004 1.8680426 0.52669507 0
3.8080003 1.8658347 0.52694756 0
3.8150003 1.8636016 0.5272001 0
3.8230002 1.8619006 0.52748871 0
3.8300002 1.8596152 0.52774125 0
3.8370004 1.8573045 0.5279938 0
3.8450003 1.8555205 0.5282824 0
3.8520002 1.8531574 0.52853495 0
3.8600004 1.8513178 0.52882355 0
3.8670003 1.8489025 0.5290761 0
3.8750002 1.8470066 0.52936471 0
3.7160003 1.7364657 0.52362859 0
3.7130003 1.7288769 0.52352035 0
3.7110002 1.721833 0.52344817 0
3.7100003 1.7153286 0.52341211 0
3.7110002 1.7098882 0.52344817 0
3.7110002 1.7039158 0.52344817 0
3.7120004 1.6984702 0.52348429 0
3.7140002 1.6935457 0.52355641 0
3.7160003 1.6886142 0.52362859 0
3.7190003 1.6841966 0.52373683 0
3.7230003 1.6802877 0.52388114 0
3.7270002 1.6763645 0.52402544 0
3.7310002 1.6724267 0.52416974 0
3.7360003 1.6689887 0.52435011 0
3.7430003 1.6665572 0.52460265 0
3.6420002 1.4218345 0.52095896 0
3.6380002 1.4141828 0.52081466 0
3.6360002 1.4074438 0.52074248 0
3.6350002 1.4011593 0.52070642 0
3.6350002 1.395324 0.52070642 0
3.6360002 1.3899324 0.52074248 0
3.6380002 1.3849791 0.52081466 0
3.6400003 1.3800187 0.52088678 0
3.6440003 1.3759276 0.52103108 0
3.6480002 1.3718221 0.52117538 0
3.6520002 1.3677021 0.52131969 0
3.6580002 1.3644338 0.52153617 0
3.8690002 1.3494025 0.52914822 0
3.8670003 1.3423444 0.5290761 0
3.8660002 1.3356918 0.52903998 0
3.8660002 1.3294399 0.52903998 0
3.8670003 1.323583 0.5290761 0
3.8680003 1.3177223 0.52911216 0
3.8700004 1.3122495 0.52918434 0
3.8730001 1.3071592 0.52929252 0
3.8770003 1.3024459 0.52943683 0
3.8810003 1.297718 0.52958113 0
3.8860002 1.29336 0.52976155 0
3.8920002 1.2893664 0.52997798 0
3.7580004 1.880186 0.5190866 0
3.7650003 1.8781313 0.51932651 0
3.7720003 1.8760515 0.51956642 0
3.7790003 1.8739463 0.51980633 0
3.7860003 1.8718162 0.52004623 0
3.7930002 1.8696605 0.52028614 0
3.8010004 1.8680426 0.52056032 0
3.8080003 1.8658347 0.52080023 0
3.8150003 1.8636016 0.52104008 0
3.8230002 1.8619006 0.52131426 0
3.8300002 1.8596152 0.52155417 0
3.8370004 1.8573045 0.52179408 0
3.8450003 1.8555205 0.52206826 0
3.8520002 1.8531574 0.52230817 0
3.8600004 1.8513178 0.52258235 0
3.8670003 1.8489025 0.52282226 0
3.8750002 1.8470066 0.52309644 0
3.7160003 1.7364657 0.51764715 0
3.7130003 1.7288769 0.51754433 0
3.7110002 1.721833 0.51747578 0
3.7100003 1.7153286 0.51744151 0
3.7110002 1.7098882 0.51747578 0
3.7110002 1.7039158 0.51747578 0
3.7120004 1.6984702 0.51751006 0
3.7140002 1.6935457 0.5175786 0
3.7160003 1.6886142 0.51764715 0
3.7190003 1.6841966 0.51774997 0
3.7230003 1.6802877 0.51788706 0
3.7270002 1.6763645 0.51802415 0
3.7310002 1.6724267 0.51816124 0
3.7360003 1.6689887 0.5183326 0
3.6470003 1.4416692 0.51528233 0
3.6450002 1.4348996 0.51521379 0
3.6430004 1.4281371 0.5151453 0
3.6410003 1.4213817 0.5150767 0
3.6390002 1.4146336 0.51500815 0
3.6370003 1.4078929 0.51493967 0
3.6370003 1.402054 0.51493967 0
3.6370003 1.3962151 0.51493967 0
3.6380002 1.3908198 0.51497388 0
3.6400003 1.3858629 0.51504242 0
3.6420002 1.3808988 0.51511097 0
3.6460001 1.3768042 0.51524806 0
3.6500003 1.3726952 0.51538515 0
3.6560001 1.369441 0.51559079 0
3.6630003 1.3665984 0.5158307 0
3.8790002 1.353425 0.52323353 0
3.8750002 1.3455478 0.52309644 0
3.8730001 1.3384823 0.5230279 0
3.8730001 1.3322177 0.5230279 0
3.8730001 1.3259531 0.5230279 0
3.8750002 1.320475 0.52309644 0
3.8760002 1.3145981 0.52313071 0
3.8800004 1.3098866 0.52326781 0
3.8830004 1.3047727 0.52337062 0
3.8880002 1.3004202 0.52354199 0
3.8930004 1.2960496 0.52371335 0
3.7580004 1.880186 0.5130294 0
3.7650003 1.8781313 0.51325667 0
3.7720003 1.8760515 0.51348394 0
3.7790003 1.8739463 0.51371121 0
3.7860003 1.8718162 0.51393855 0
3.7930002 1.8696605 0.51416582 0
3.8010004 1.8680426 0.51442558 0
3.8080003 1.8658347 0.51465285 0
3.8150003 1.8636016 0.51488012 0
3.8230002 1.8619006 0.51513988 0
3.8300002 1.8596152 0.51536715 0
3.8370004 1.8573045 0.51559442 0
3.8450003 1.8555205 0.51585418 0
3.8520002 1.8531574 0.51608145 0
3.8600004 1.8513178 0.51634121 0
3.8670003 1.8489025 0.51656848 0
3.8750002 1.8470066 0.51682824 0
3.7160003 1.7364657 0.5116657 0
3.7130003 1.7288769 0.51156831 0
3.7110002 1.721833 0.5115034 0
3.7100003 1.7153286 0.51147091 0
3.7110002 1.7098882 0.5115034 0
3.7110002 1.7039158 0.5115034 0
3.7120004 1.6984702 0.51153588 0
3.7140002 1.6935457 0.51160079 0
3.7160003 1.6886142 0.5116657 0
3.7190003 1.6841966 0.5117631 0
3.7230003 1.6802877 0.51189297 0
3.7270002 1.6763645 0.51202285 0
3.7310002 1.6724267 0.51215273 0
3.7360003 1.6689887 0.51231509 0
3.6870003 1.5963656 0.51072413 0
3.6850002 1.5894407 0.51065922 0
3.6830003 1.5825232 0.51059425 0
3.6810002 1.5756128 0.51052934 0
3.6790001 1.5687095 0.51046437 0
3.6770003 1.5618137 0.51039946 0
3.6750002 1.5549248 0.51033449 0
3.6730003 1.5480435 0.51026958 0
3.6710002 1.541169 0.51020461 0
3.6690001 1.534302 0.5101397 0
3.6670003 1.5274421 0.51007473 0
3.6650002 1.5205895 0.51000983 0
3.6630003 1.513744 0.50994492 0
3.6610003 1.5069058 0.50987995 0
3.6590002 1.5000746 0.50981504 0
3.6570003 1.4932508 0.50975007 0
3.6550002 1.4864343 0.50968516 0
3.6530004 1.479625 0.50962019 0
3.6510003 1.4728228 0.50955528 0
3.6490002 1.4660277 0.50949031 0
3.6470003 1.4592401 0.5094254 0
3.6450002 1.4524596 0.50936043 0
3.6430004 1.4456863 0.50929552 0
3.6410003 1.4389203 0.50923061 0
3.6390002 1.4321613 0.50916564 0
3.6370003 1.4254097 0.50910068 0
3.6350002 1.4186653 0.50903577 0
3.6330001 1.4119279 0.50897086 0
3.6320002 1.405647 0.50893837 0
3.6310003 1.3993698 0.50890589 0
3.6320002 1.3939873 0.50893837 0
3.6330001 1.3886011 0.50897086 0
3.6350002 1.3836533 0.50903577 0
3.6370003 1.3786983 0.50910068 0
3.6410003 1.3746127 0.50923061 0
3.6450002 1.3705126 0.50936043 0
3.6500003 1.3668329 0.5095228 0
3.6560001 1.3635678 0.50971758 0
3.6640003 1.3611436 0.50997734 0
3.8830004 1.3487515 0.51708794 0
3.8800004 1.341273 0.51699054 0
3.8790002 1.3345987 0.51695812 0
3.8790002 1.3283232 0.51695812 0
3.8810003 1.3228343 0.51702303 0
3.8830004 1.3173381 0.51708794 0
3.8860002 1.3122243 0.51718539 0
3.8910003 1.3078754 0.51734769 0
3.7580004 1.880186 0.50697219 0
3.7650003 1.8781313 0.50718689 0
3.7720003 1.8760515 0.50740153 0
3.7790003 1.8739463 0.50761616 0
3.7860003 1.8718162 0.50783086 0
3.7930002 1.8696605 0.50804549 0
3.8010004 1.8680426 0.50829077 0
3.8080003 1.8658347 0.50850546 0
3.8150003 1.8636016 0.5087201 0
3.8230002 1.8619006 0.50896543 0
3.8300002 1.8596152 0.50918007 0
3.8370004 1.8573045 0.50939471 0
3.8450003 1.8555205 0.50964004 0
3.8520002 1.8531574 0.50985467 0
3.8600004 1.8513178 0.51010001 0
3.8670003 1.8489025 0.51031464 0
3.8750002 1.8470066 0.51055998 0
3.7160003 1.7364657 0.50568432 0
3.7130003 1.7288769 0.50559229 0
3.7110002 1.721833 0.50553095 0
3.7100003 1.7153286 0.50550032 0
3.7110002 1.7098882 0.50553095 0
3.7110002 1.7039158 0.50553095 0
3.7120004 1.6984702 0.50556165 0
3.7140002 1.6935457 0.50562298 0
3.7160003 1.6886142 0.50568432 0
3.7190003 1.6841966 0.50577629 0
3.7230003 1.6802877 0.50589895 0
3.7270002 1.6763645 0.50602162 0
3.7310002 1.6724267 0.50614429 0
3.6920002 1.6285545 0.50494832 0
3.6900003 1.6216027 0.50488698 0
3.6880002 1.614658 0.50482571 0
3.6860003 1.6077206 0.50476432 0
3.6840003 1.6007903 0.50470304 0
3.6820002 1.5938673 0.50464171 0
3.6800003 1.5869515 0.50458038 0
3.6780002 1.5800428 0.50451905 0
3.6760004 1.5731416 0.50445771 0
3.6740003 1.5662475 0.50439638 0
3.6720002 1.5593604 0.50433505 0
3.6700003 1.5524807 0.50427371 0
3.6680002 1.5456083 0.50421238 0
3.6660004 1.538743 0.50415105 0
3.6640003 1.5318849 0.50408971 0
3.6620002 1.525034 0.50402838 0
3.6600003 1.5181904 0.50396705 0
3.6580002 1.511354 0.50390571 0
3.6560001 1.5045246 0.50384438 0
3.6540003 1.4977027 0.50378311 0
3.6520002 1.4908879 0.50372171 0
3.6500003 1.4840803 0.50366044 0
3.6480002 1.47728 0.50359911 0
3.6470003 1.4709541 0.50356841 0
3.6450002 1.4641663 0.50350708 0
3.6430004 1.4573858 0.50344574 0
3.6410003 1.4506124 0.50338447 0
3.6390002 1.4438463 0.50332308 0
3.6370003 1.4370875 0.5032618 0
3.6350002 1.4303359 0.50320047 0
3.6330001 1.4235914 0.50313914 0
3.6310003 1.4168541 0.50307781 0
3.6290002 1.4101241 0.50301647 0
3.6280003 1.4038506 0.50298578 0
3.6280003 1.3980279 0.50298578 0
3.6290002 1.3926507 0.50301647 0
3.6300004 1.38727 0.50304711 0
3.6320002 1.3823274 0.50310844 0
3.6340003 1.3773779 0.50316978 0
3.6370003 1.3728594 0.5032618 0
3.6410003 1.3687664 0.50338447 0
3.6460001 1.3650938 0.50353777 0
3.6510003 1.3614033 0.50369108 0
3.6580002 1.358557 0.50390571 0
3.8840003 1.3742898 0.51083595 0
3.8820002 1.3671935 0.51077461 0
3.8800004 1.3601047 0.51071334 0
3.8780003 1.3530228 0.51065201 0
3.8760002 1.3459482 0.51059067 0
3.8740003 1.338881 0.51052934 0
3.8730001 1.3322177 0.51049864 0
3.8740003 1.3263481 0.51052934 0
3.8750002 1.320475 0.51055998 0
3.8770003 1.3149896 0.51062131 0
3.8800004 1.3098866 0.51071334 0
3.8840003 1.3051606 0.51083595 0
3.8900003 1.3011923 0.51101995 0
3.8960001 1.2972021 0.51120394 0
3.7580004 1.880186 0.50091505 0
3.7650003 1.8781313 0.50111705 0
3.7720003 1.8760515 0.50131905 0
3.7790003 1.8739463 0.50152111 0
3.7860003 1.8718162 0.50172311 0
3.7930002 1.8696605 0.50192517 0
3.8010004 1.8680426 0.50215602 0
3.8080003 1.8658347 0.50235808 0
3.8150003 1.8636016 0.50256008 0
3.8230002 1.8619006 0.50279099 0
3.8300002 1.8596152 0.50299299 0
3.8370004 1.8573045 0.50319505 0
3.8450003 1.8555205 0.50342596 0
3.8520002 1.8531574 0.50362796 0
3.8600004 1.8513178 0.50385886 0
3.8670003 1.8489025 0.50406086 0
3.8750002 1.8470066 0.50429177 0
3.7160003 1.7364657 0.49970287 0
3.7130003 1.7288769 0.49961627 0
3.7110002 1.721833 0.49955857 0
3.7100003 1.7153286 0.49952969 0
3.7110002 1.7098882 0.49955857 0
3.7110002 1.7039158 0.49955857 0
3.7120004 1.6984702 0.49958742 0
3.7140002 1.6935457 0.49964514 0
3.7160003 1.6886142 0.49970287 0
3.7190003 1.6841966 0.49978945 0
3.7230003 1.6802877 0.4999049 0
3.7270002 1.6763645 0.50002033 0
3.7310002 1.6724267 0.50013578 0
3.6900003 1.6334717 0.49895248 0
3.6880002 1.6265198 0.49889475 0
3.6860003 1.6195753 0.49883705 0
3.6840003 1.6126378 0.4987793 0
3.6820002 1.6057075 0.4987216 0
3.6800003 1.5987846 0.49866387 0
3.6780002 1.5918686 0.49860615 0
3.6760004 1.5849602 0.49854842 0
3.6740003 1.5780587 0.49849069 0
3.6720002 1.5711645 0.49843299 0
3.6700003 1.5642778 0.49837527 0
3.6680002 1.557398 0.49831754 0
3.6660004 1.5505254 0.49825981 0
3.6640003 1.54366 0.49820209 0
3.6620002 1.5368021 0.49814439 0
3.6600003 1.5299512 0.49808666 0
3.6590002 1.5235891 0.49805778 0
3.6570003 1.5167509 0.49800009 0
3.6550002 1.5099199 0.49794233 0
3.6530004 1.5030961 0.49788463 0
3.6510003 1.4962795 0.4978269 0
3.6490002 1.4894701 0.49776918 0
3.6470003 1.4826679 0.49771148 0
3.6450002 1.475873 0.49765372 0
3.6430004 1.4690853 0.49759603 0
3.6410003 1.4623047 0.4975383 0
3.6390002 1.4555315 0.49748057 0
3.6370003 1.4487654 0.49742284 0
3.6350002 1.4420065 0.49736512 0
3.6340003 1.4357131 0.49733627 0
3.6320002 1.4289668 0.49727854 0
3.6300004 1.4222279 0.49722081 0
3.6280003 1.4154959 0.49716312 0
3.6260002 1.4087713 0.49710536 0
3.6250002 1.4025031 0.49707651 0
3.6250002 1.3966858 0.49707651 0
3.6260002 1.391314 0.49710536 0
3.6270003 1.3859388 0.49713424 0
3.6290002 1.3810017 0.49719197 0
3.6320002 1.3764976 0.49727854 0
3.6350002 1.3719827 0.49736512 0
3.6380002 1.3674569 0.49745172 0
3.6430004 1.3637898 0.49759603 0
3.6480002 1.3601046 0.49774033 0
3.6540003 1.3568325 0.49791348 0
3.8890002 1.4077954 0.50469577 0
3.8870003 1.4006723 0.50463808 0
3.8850002 1.3935561 0.50458038 0
3.8830004 1.3864475 0.50452262 0
3.8810003 1.3793458 0.50446492 0
3.8790002 1.3722514 0.50440717 0
3.8770003 1.3651643 0.50434947 0
3.8750002 1.3580843 0.50429177 0
3.8730001 1.3510115 0.50423402 0
3.8700004 1.3435457 0.50414747 0
3.8690002 1.3368878 0.50411856 0
3.8690002 1.3306303 0.50411856 0
3.8700004 1.3247681 0.50414747 0
3.8710003 1.318902 0.50417632 0
3.8730001 1.3134238 0.50423402 0
3.8760002 1.308328 0.50432062 0
3.8800004 1.3036094 0.50443608 0
3.8850002 1.2992622 0.50458038 0
3.8910003 1.2952811 0.50475353 0
3.7580004 1.880186 0.49485785 0
3.7650003 1.8781313 0.49504724 0
3.7720003 1.8760515 0.49523664 0
3.7790003 1.8739463 0.49542603 0
3.7860003 1.8718162 0.49561542 0
3.7930002 1.8696605 0.49580485 0
3.8010004 1.8680426 0.4960213 0
3.8080003 1.8658347 0.49621069 0
3.8150003 1.8636016 0.49640009 0
3.8230002 1.8619006 0.49661654 0
3.8300002 1.8596152 0.49680594 0
3.8370004 1.8573045 0.49699536 0
3.8450003 1.8555205 0.49721181 0
3.8520002 1.8531574 0.49740121 0
3.8600004 1.8513178 0.49761766 0
3.8670003 1.8489025 0.49780706 0
3.8750002 1.8470066 0.49802351 0
3.7160003 1.7364657 0.49372143 0
3.7130003 1.7288769 0.49364027 0
3.7110002 1.721833 0.49358615 0
3.7100003 1.7153286 0.49355909 0
3.7110002 1.7098882 0.49358615 0
3.7110002 1.7039158 0.49358615 0
3.7120004 1.6984702 0.49361321 0
3.7140002 1.6935457 0.4936673 0
3.7160003 1.6886142 0.49372143 0
3.7190003 1.6841966 0.49380261 0
3.7230003 1.6802877 0.49391085 0
3.7270002 1.6763645 0.49401906 0
3.6900003 1.6394062 0.49301794 0
3.6880002 1.6324507 0.49296382 0
3.6860003 1.6255026 0.49290973 0
3.6840003 1.6185614 0.49285561 0
3.6820002 1.6116276 0.49280149 0
3.6800003 1.604701 0.49274737 0
3.6780002 1.5977817 0.49269328 0
3.6760004 1.5908694 0.49263915 0
3.6740003 1.5839643 0.49258503 0
3.6720002 1.5770667 0.49253091 0
3.6700003 1.5701761 0.49247682 0
3.6680002 1.5632927 0.4924227 0
3.6660004 1.5564166 0.49236858 0
3.6640003 1.5495478 0.49231446 0
3.6620002 1.5426861 0.49226034 0
3.6600003 1.5358316 0.49220625 0
3.6580002 1.5289843 0.49215212 0
3.6560001 1.5221442 0.492098 0
3.6540003 1.5153115 0.49204388 0
3.6520002 1.5084858 0.49198979 0
3.6510003 1.5021436 0.49196273 0
3.6490002 1.4953306 0.49190861 0
3.6470003 1.4885249 0.49185449 0
3.6450002 1.4817263 0.49180037 0
3.6430004 1.4749351 0.49174628 0
3.6410003 1.468151 0.49169216 0
3.6390002 1.461374 0.49163803 0
3.6370003 1.4546044 0.49158394 0
3.6350002 1.4478418 0.49152982 0
3.6330001 1.4410865 0.4914757 0
3.6310003 1.4343386 0.49142158 0
3.6290002 1.4275976 0.49136746 0
3.6280003 1.4213187 0.4913404 0
3.6260002 1.4145904 0.49128628 0
3.6240003 1.4078695 0.49123219 0
3.6230001 1.4016048 0.49120513 0
3.6240003 1.3962386 0.49123219 0
3.6240003 1.3904231 0.49123219 0
3.6260002 1.3854949 0.49128628 0
3.6280003 1.3805598 0.4913404 0
3.6300004 1.3756174 0.49139452 0
3.6330001 1.371106 0.4914757 0
3.6370003 1.3670205 0.49158394 0
3.6410003 1.3629204 0.49169216 0
3.6460001 1.3592387 0.49182743 0
3.6520002 1.3559703 0.49198979 0
3.6600003 1.3535388 0.49220625 0
3.8870003 1.413252 0.49834821 0
3.8850002 1.4061288 0.49829409 0
3.8830004 1.3990128 0.49823999 0
3.8810003 1.391904 0.49818587 0
3.8790002 1.3848023 0.49813175 0
3.8770003 1.377708 0.49807763 0
3.8750002 1.3706208 0.49802351 0
3.8730001 1.3635408 0.49796939 0
3.8710003 1.3564681 0.4979153 0
3.8690002 1.3494025 0.49786118 0
3.8670003 1.3423444 0.49780706 0
3.8660002 1.3356918 0.49778 0
3.8660002 1.3294399 0.49778 0
3.8670003 1.323583 0.49780706 0
3.8680003 1.3177223 0.49783412 0
3.8710003 1.312641 0.4979153 0
3.8740003 1.3075489 0.49799645 0
3.8770003 1.3024459 0.49807763 0
3.8820002 1.298104 0.49821293 0
3.8870003 1.2937442 0.49834821 0
3.8940003 1.2901312 0.4985376 0
3.7580004 1.880186 0.48880064 0
3.7650003 1.8781313 0.48897743 0
3.7720003 1.8760515 0.48915419 0
3.7790003 1.8739463 0.48933098 0
3.7860003 1.8718162 0.48950773 0
3.7930002 1.8696605 0.48968452 0
3.8010004 1.8680426 0.48988652 0
3.8080003 1.8658347 0.49006331 0
3.8150003 1.8636016 0.4902401 0
3.8230002 1.8619006 0.4904421 0
3.8300002 1.8596152 0.49061888 0
3.8370004 1.8573045 0.49079567 0
3.8450003 1.8555205 0.49099767 0
3.8520002 1.8531574 0.49117446 0
3.8600004 1.8513178 0.49137649 0
3.8670003 1.8489025 0.49155325 0
3.8750002 1.8470066 0.49175528 0
3.7160003 1.7364657 0.48774001 0
3.7130003 1.7288769 0.48766425 0
3.7110002 1.721833 0.48761374 0
3.7100003 1.7153286 0.4875885 0
3.7110002 1.7098882 0.48761374 0
3.7110002 1.7039158 0.48761374 0
3.7120004 1.6984702 0.48763901 0
3.7140002 1.6935457 0.4876895 0
3.7160003 1.6886142 0.48774001 0
3.7190003 1.6841966 0.48781577 0
3.7230003 1.6802877 0.48791677 0
3.7270002 1.6763645 0.4880178 0
3.6880002 1.6383817 0.48703292 0
3.6860003 1.6314298 0.48698241 0
3.6840003 1.6244853 0.48693189 0
3.6820002 1.6175476 0.48688141 0
3.6800003 1.6106175 0.48683089 0
3.6780002 1.6036944 0.48678038 0
3.6760004 1.5967788 0.48672986 0
3.6740003 1.5898701 0.48667938 0
3.6720002 1.5829687 0.48662886 0
3.6700003 1.5760746 0.48657835 0
3.6690001 1.5696818 0.4865531 0
3.6670003 1.5628003 0.48650259 0
3.6650002 1.555926 0.4864521 0
3.6630003 1.5490589 0.48640159 0
3.6610003 1.542199 0.48635107 0
3.6590002 1.5353463 0.48630056 0
3.6570003 1.5285009 0.48625007 0
3.6550002 1.5216626 0.48619956 0
3.6530004 1.5148318 0.48614904 0
3.6510003 1.5080078 0.48609853 0
3.6490002 1.5011913 0.48604804 0
3.6470003 1.4943819 0.48599753 0
3.6450002 1.4875797 0.48594701 0
3.6440003 1.4812555 0.48592177 0
3.6420002 1.4744661 0.48587126 0
3.6400003 1.4676837 0.48582077 0
3.6380002 1.4609087 0.48577026 0
3.6360002 1.4541407 0.48571974 0
3.6340003 1.4473801 0.48566923 0
3.6320002 1.4406266 0.48561871 0
3.6300004 1.4338803 0.48556823 0
3.6280003 1.4271413 0.48551771 0
3.6270003 1.4208641 0.48549247 0
3.6240003 1.413685 0.48541671 0
3.6230001 1.4074184 0.48539144 0
3.6220002 1.4011556 0.4853662 0
3.6230001 1.3957911 0.48539144 0
3.6230001 1.3899773 0.48539144 0
3.6250002 1.3850513 0.48544195 0
3.6270003 1.3801179 0.48549247 0
3.6290002 1.3751773 0.48554295 0
3.6320002 1.3706677 0.48561871 0
3.6360002 1.3665838 0.48571974 0
3.6400003 1.3624858 0.48582077 0
3.6450002 1.3588059 0.48594701 0
3.6510003 1.3555391 0.48609853 0
3.6580002 1.3526801 0.48627532 0
3.8870003 1.419542 0.49205834 0
3.8850002 1.412415 0.49200782 0
3.8830004 1.4052955 0.49195731 0
3.8810003 1.398183 0.49190679 0
3.8790002 1.3910778 0.49185631 0
3.8770003 1.3839798 0.49180579 0
3.8750002 1.376889 0.49175528 0
3.8730001 1.3698055 0.49170476 0
3.8710003 1.3627291 0.49165428 0
3.8690002 1.35566 0.49160376 0
3.8670003 1.3485981 0.49155325 0
3.8650002 1.3415434 0.49150276 0
3.8640003 1.3348947 0.49147749 0
3.8640003 1.3286463 0.49147749 0
3.8650002 1.3227928 0.49150276 0
3.8670003 1.317329 0.49155325 0
3.8690002 1.3118581 0.49160376 0
3.8720002 1.3067696 0.49167952 0
3.8750002 1.3016703 0.49175528 0
3.8800004 1.297332 0.49188155 0
3.8850002 1.2929759 0.49200782 0
3.8910003 1.2889841 0.49215934 0
3.7580004 1.880186 0.48274344 0
3.7650003 1.8781313 0.48290759 0
3.7720003 1.8760515 0.48307174 0
3.7790003 1.8739463 0.4832359 0
3.7860003 1.8718162 0.48340005 0
3.7930002 1.8696605 0.4835642 0
3.8010004 1.8680426 0.4837518 0
3.8080003 1.8658347 0.48391593 0
3.8150003 1.8636016 0.48408008 0
3.8230002 1.8619006 0.48426768 0
3.8300002 1.8596152 0.4844318 0
3.8370004 1.8573045 0.48459595 0
3.8450003 1.8555205 0.48478356 0
3.8520002 1.8531574 0.48494771 0
3.8600004 1.8513178 0.48513532 0
3.8670003 1.8489025 0.48529947 0
3.8750002 1.8470066 0.48548704 0
3.7160003 1.7364657 0.48175859 0
3.7130003 1.7288769 0.48168823 0
3.7110002 1.721833 0.48164135 0
3.7100003 1.7153286 0.48161787 0
3.7110002 1.7098882 0.48164135 0
3.7110002 1.7039158 0.48164135 0
3.7120004 1.6984702 0.48166478 0
3.7140002 1.6935457 0.48171169 0
3.7160003 1.6886142 0.48175859 0
3.7190003 1.6841966 0.48182893 0
3.7230003 1.6802877 0.48192272 0
3.7270002 1.6763645 0.48201653 0
3.6870003 1.6378695 0.48107854 0
3.6850002 1.6309193 0.48103166 0
3.6830003 1.6239766 0.48098475 0
3.6810002 1.6170409 0.48093784 0
3.6790001 1.6101123 0.48089093 0
3.6780002 1.6036944 0.48086751 0
3.6760004 1.5967788 0.4808206 0
3.6740003 1.5898701 0.48077369 0
3.6720002 1.5829687 0.48072678 0
3.6700003 1.5760746 0.4806799 0
3.6680002 1.5691875 0.48063299 0
3.6660004 1.562308 0.48058611 0
3.6640003 1.5554354 0.4805392 0
3.6620002 1.54857 0.48049229 0
3.6600003 1.541712 0.48044541 0
3.6580002 1.5348611 0.48039851 0
3.6560001 1.5280175 0.4803516 0
3.6540003 1.5211811 0.48030472 0
3.6520002 1.5143518 0.48025781 0
3.6510003 1.5080078 0.48023435 0
3.6490002 1.5011913 0.48018748 0
3.6470003 1.4943819 0.48014057 0
3.6450002 1.4875797 0.48009366 0
3.6430004 1.4807849 0.48004678 0
3.6410003 1.473997 0.47999987 0
3.6390002 1.4672165 0.47995296 0
3.6370003 1.4604433 0.47990608 0
3.6350002 1.4536771 0.47985917 0
3.6330001 1.4469182 0.47981226 0
3.6320002 1.4406266 0.47978884 0
3.6300004 1.4338803 0.47974193 0
3.6280003 1.4271413 0.47969502 0
3.6260002 1.4204094 0.47964811 0
3.6240003 1.413685 0.47960123 0
3.6230001 1.4074184 0.47957778 0
3.6220002 1.4011556 0.47955433 0
3.6220002 1.3953438 0.47955433 0
3.6230001 1.3899773 0.47957778 0
3.6240003 1.3846076 0.47960123 0
3.6260002 1.3796759 0.47964811 0
3.6290002 1.3751773 0.47971848 0
3.6320002 1.3706677 0.47978884 0
3.6350002 1.3661474 0.47985917 0
3.6390002 1.3620508 0.47995296 0
3.6440003 1.3583729 0.4800702 0
3.6500003 1.3551081 0.4802109 0
3.6570003 1.3522509 0.48037505 0
3.8860002 1.4191216 0.48574498 0
3.8840003 1.4119965 0.4856981 0
3.8820002 1.4048787 0.4856512 0
3.8800004 1.3977681 0.48560429 0
3.8780003 1.3906647 0.48555741 0
3.8760002 1.3835685 0.4855105 0
3.8740003 1.3764795 0.48546362 0
3.8720002 1.3693978 0.48541671 0
3.8700004 1.3623233 0.4853698 0
3.8680003 1.355256 0.48532289 0
3.8650002 1.3477936 0.48525256 0
3.8640003 1.341143 0.4852291 0
3.8630002 1.3344959 0.48520565 0
3.8630002 1.3282492 0.48520565 0
3.8640003 1.3223977 0.4852291 0
3.8660002 1.3169358 0.48527601 0
3.8680003 1.3114667 0.48532289 0
3.8710003 1.3063799 0.48539326 0
3.8740003 1.3012824 0.48546362 0
3.8780003 1.29656 0.48555741 0
3.8840003 1.2925917 0.4856981 0
3.8900003 1.2886016 0.4858388 0
3.7580004 1.880186 0.47668627 0
3.7650003 1.8781313 0.47683781 0
3.7720003 1.8760515 0.47698933 0
3.7790003 1.8739463 0.47714084 0
3.7860003 1.8718162 0.47729236 0
3.7930002 1.8696605 0.47744387 0
3.8010004 1.8680426 0.47761703 0
3.8080003 1.8658347 0.47776854 0
3.8150003 1.8636016 0.47792009 0
3.8230002 1.8619006 0.47809324 0
3.8300002 1.8596152 0.47824475 0
3.8370004 1.8573045 0.4783963 0
3.8450003 1.8555205 0.47856945 0
3.8520002 1.8531574 0.47872096 0
3.8600004 1.8513178 0.47889414 0
3.8670003 1.8489025 0.47904566 0
3.8750002 1.8470066 0.47921881 0
3.7160003 1.7364657 0.47577715 0
3.7130003 1.7288769 0.47571221 0
3.7110002 1.721833 0.47566891 0
3.7100003 1.7153286 0.47564727 0
3.7110002 1.7098882 0.47566891 0
3.7110002 1.7039158 0.47566891 0
3.7120004 1.6984702 0.47569057 0
3.7140002 1.6935457 0.47573388 0
3.7160003 1.6886142 0.47577715 0
3.7190003 1.6841966 0.47584209 0
3.7230003 1.6802877 0.47592866 0
3.7270002 1.6763645 0.47601527 0
3.6880002 1.6383817 0.47517109 0
3.6860003 1.6314298 0.47512779 0
3.6840003 1.6244853 0.47508448 0
3.6820002 1.6175476 0.47504121 0
3.6800003 1.6106175 0.47499791 0
3.6780002 1.6036944 0.47495461 0
3.6760004 1.5967788 0.47491133 0
3.6740003 1.5898701 0.47486803 0
3.6720002 1.5829687 0.47482473 0
3.6700003 1.5760746 0.47478145 0
3.6680002 1.5691875 0.47473815 0
3.6660004 1.562308 0.47469485 0
3.6650002 1.555926 0.47467321 0
3.6630003 1.5490589 0.47462994 0
3.6610003 1.542199 0.47458664 0
3.6590002 1.5353463 0.47454333 0
3.6570003 1.5285009 0.47450006 0
3.6550002 1.5216626 0.47445676 0
3.6530004 1.5148318 0.47441348 0
3.6510003 1.5080078 0.47437018 0
3.6490002 1.5011913 0.47432688 0
3.6470003 1.4943819 0.47428361 0
3.6450002 1.4875797 0.4742403 0
3.6440003 1.4812555 0.47421867 0
3.6420002 1.4744661 0.47417536 0
3.6400003 1.4676837 0.47413209 0
3.6380002 1.4609087 0.47408879 0
3.6360002 1.4541407 0.47404549 0
3.6340003 1.4473801 0.47400221 0
3.6320002 1.4406266 0.47395891 0
3.6300004 1.4338803 0.47391564 0
3.6280003 1.4271413 0.47387233 0
3.6270003 1.4208641 0.47385067 0
3.6240003 1.413685 0.47378576 0
3.6230001 1.4074184 0.47376409 0
3.6220002 1.4011556 0.47374246 0
3.6220002 1.3953438 0.47374246 0
3.6230001 1.3899773 0.47376409 0
3.6240003 1.3846076 0.47378576 0
3.6270003 1.3801179 0.47385067 0
3.6290002 1.3751773 0.47389397 0
3.6320002 1.3706677 0.47395891 0
3.6350002 1.3661474 0.47402385 0
3.6400003 1.3624858 0.47413209 0
3.6450002 1.3588059 0.4742403 0
3.6500003 1.3551081 0.47434855 0
3.6570003 1.3522509 0.47450006 0
3.8850002 1.4187013 0.47943527 0
3.8830004 1.4115782 0.47939199 0
3.8810003 1.404462 0.47934869 0
3.8790002 1.3973533 0.47930539 0
3.8770003 1.3902516 0.47926211 0
3.8750002 1.3831573 0.47921881 0
3.8730001 1.3760701 0.47917554 0
3.8710003 1.3689902 0.47913224 0
3.8690002 1.3619174 0.47908896 0
3.8670003 1.3548518 0.47904566 0
3.8650002 1.3477936 0.47900236 0
3.8630002 1.3407425 0.47895908 0
3.8630002 1.3344959 0.47895908 0
3.8630002 1.3282492 0.47895908 0
3.8640003 1.3223977 0.47898072 0
3.8650002 1.3165426 0.47900236 0
3.8680003 1.3114667 0.4790673 0
3.8700004 1.3059905 0.4791106 0
3.8740003 1.3012824 0.47919717 0
3.8780003 1.29656 0.47928375 0
3.8830004 1.2922076 0.47939199 0
3.8890002 1.2882192 0.47952187 0
3.7580004 1.880186 0.4706291 0
3.7650003 1.8781313 0.47076797 0
3.7720003 1.8760515 0.47090685 0
3.7790003 1.8739463 0.47104576 0
3.7860003 1.8718162 0.47118467 0
3.7930002 1.8696605 0.47132355 0
3.8010004 1.8680426 0.47148228 0
3.8080003 1.8658347 0.47162119 0
3.8150003 1.8636016 0.47176006 0
3.8230002 1.8619006 0.47191879 0
3.8300002 1.8596152 0.4720577 0
3.8370004 1.8573045 0.47219658 0
3.8450003 1.8555205 0.47235531 0
3.8520002 1.8531574 0.47249421 0
3.8600004 1.8513178 0.47265297 0
3.8670003 1.8489025 0.47279185 0
3.8750002 1.8470066 0.47295058 0
3.7160003 1.7364657 0.46979573 0
3.7130003 1.7288769 0.46973619 0
3.7110002 1.721833 0.46969652 0
3.7100003 1.7153286 0.46967667 0
3.7110002 1.7098882 0.46969652 0
3.7110002 1.7039158 0.46969652 0
3.7120004 1.6984702 0.46971637 0
3.7140002 1.6935457 0.46975604 0
3.7160003 1.6886142 0.46979573 0
3.7190003 1.6841966 0.46985525 0
3.7230003 1.6802877 0.46993461 0
3.7270002 1.6763645 0.47001398 0
3.6890004 1.638894 0.46926001 0
3.6870003 1.6319404 0.46922031 0
3.6850002 1.6249937 0.46918064 0
3.6830003 1.6180546 0.46914095 0
3.6810002 1.6111226 0.46910125 0
3.6790001 1.6041976 0.46906155 0
3.6770003 1.5972801 0.46902189 0
3.6750002 1.5903697 0.46898222 0
3.6730003 1.5834666 0.46894252 0
3.6710002 1.5765705 0.46890283 0
3.6690001 1.5696818 0.46886316 0
3.6670003 1.5628003 0.46882349 0
3.6660004 1.5564166 0.46880364 0
3.6640003 1.5495478 0.46876395 0
3.6620002 1.5426861 0.46872425 0
3.6600003 1.5358316 0.46868458 0
3.6580002 1.5289843 0.46864489 0
3.6560001 1.5221442 0.46860522 0
3.6540003 1.5153115 0.46856552 0
3.6520002 1.5084858 0.46852583 0
3.6500003 1.5016675 0.46848616 0
3.6480002 1.4948564 0.46844646 0
3.6470003 1.4885249 0.46842664 0
3.6450002 1.4817263 0.46838695 0
3.6430004 1.4749351 0.46834725 0
3.6410003 1.468151 0.46830758 0
3.6390002 1.461374 0.46826789 0
3.6370003 1.4546044 0.46822822 0
3.6350002 1.4478418 0.46818852 0
3.6330001 1.4410865 0.46814883 0
3.6320002 1.4347967 0.46812901 0
3.6300004 1.4280541 0.46808931 0
3.6270003 1.4208641 0.4680298 0
3.6240003 1.413685 0.46797025 0
3.6230001 1.4074184 0.46795043 0
3.6220002 1.4011556 0.46793059 0
3.6220002 1.3953438 0.46793059 0
3.6230001 1.3899773 0.46795043 0
3.6240003 1.3846076 0.46797025 0
3.6270003 1.3801179 0.4680298 0
3.6290002 1.3751773 0.46806949 0
3.6320002 1.3706677 0.46812901 0
3.6350002 1.3661474 0.46818852 0
3.6400003 1.3624858 0.46828774 0
3.6450002 1.3588059 0.46838695 0
3.6500003 1.3551081 0.46848616 0
3.6570003 1.3522509 0.46862507 0
3.8860002 1.4191216 0.47316885 0
3.8840003 1.4119965 0.47312915 0
3.8820002 1.4048787 0.47308949 0
3.8800004 1.3977681 0.47304979 0
3.8780003 1.3906647 0.47301012 0
3.8760002 1.3835685 0.47297043 0
3.8740003 1.3764795 0.47293073 0
3.8720002 1.3693978 0.47289106 0
3.8700004 1.3623233 0.47285137 0
3.8680003 1.355256 0.4728117 0
3.8650002 1.3477936 0.47275215 0
3.8640003 1.341143 0.47273234 0
3.8630002 1.3344959 0.47271249 0
3.8630002 1.3282492 0.47271249 0
3.8640003 1.3223977 0.47273234 0
3.8650002 1.3165426 0.47275215 0
3.8680003 1.3114667 0.4728117 0
3.8700004 1.3059905 0.47285137 0
3.8740003 1.3012824 0.47293073 0
3.8780003 1.29656 0.47301012 0
3.8830004 1.2922076 0.4731093 0
3.8890002 1.2882192 0.47322837 0
3.7570002 1.8796121 0.46455386 0
3.7650003 1.8781313 0.46469817 0
3.7720003 1.8760515 0.46482444 0
3.7790003 1.8739463 0.46495068 0
3.7860003 1.8718162 0.46507695 0
3.7930002 1.8696605 0.46520323 0
3.8010004 1.8680426 0.46534753 0
3.8080003 1.8658347 0.4654738 0
3.8150003 1.8636016 0.46560007 0
3.8230002 1.8619006 0.46574438 0
3.8300002 1.8596152 0.46587062 0
3.8370004 1.8573045 0.46599692 0
3.8450003 1.8555205 0.46614119 0
3.8520002 1.8531574 0.46626747 0
3.8600004 1.8513178 0.46641177 0
3.8670003 1.8489025 0.46653804 0
3.8750002 1.8470066 0.46668234 0
3.7160003 1.7364657 0.46381429 0
3.7130003 1.7288769 0.46376017 0
3.7110002 1.721833 0.46372411 0
3.7100003 1.7153286 0.46370608 0
3.7110002 1.7098882 0.46372411 0
3.7110002 1.7039158 0.46372411 0
3.7120004 1.6984702 0.46374214 0
3.7140002 1.6935457 0.46377823 0
3.7160003 1.6886142 0.46381429 0
3.7190003 1.6841966 0.46386841 0
3.7230003 1.6802877 0.46394056 0
3.7270002 1.6763645 0.46401271 0
3.7310002 1.6724267 0.46408486 0
3.6890004 1.6329613 0.46332726 0
3.6870003 1.6260111 0.4632912 0
3.6850002 1.6190683 0.46325511 0
3.6830003 1.6121327 0.46321905 0
3.6810002 1.6052042 0.46318296 0
3.6790001 1.5982829 0.4631469 0
3.6770003 1.591369 0.4631108 0
3.6750002 1.5844622 0.46307474 0
3.6730003 1.5775627 0.46303865 0
3.6720002 1.5711645 0.46302062 0
3.6700003 1.5642778 0.46298453 0
3.6680002 1.557398 0.46294847 0
3.6660004 1.5505254 0.46291238 0
3.6640003 1.54366 0.46287632 0
3.6620002 1.5368021 0.46284023 0
3.6600003 1.5299512 0.46280417 0
3.6580002 1.5231075 0.46276808 0
3.6560001 1.516271 0.46273202 0
3.6540003 1.5094419 0.46269593 0
3.6520002 1.5026199 0.46265987 0
3.6510003 1.4962795 0.46264184 0
3.6490002 1.4894701 0.46260574 0
3.6470003 1.4826679 0.46256965 0
3.6450002 1.475873 0.46253359 0
3.6430004 1.4690853 0.46249753 0
3.6410003 1.4623047 0.46246144 0
3.6390002 1.4555315 0.46242535 0
3.6370003 1.4487654 0.46238929 0
3.6350002 1.4420065 0.4623532 0
3.6340003 1.4357131 0.46233517 0
3.6310003 1.4285104 0.46228105 0
3.6270003 1.4208641 0.46220893 0
3.6240003 1.413685 0.46215481 0
3.6230001 1.4074184 0.46213675 0
3.6220002 1.4011556 0.46211872 0
3.6220002 1.3953438 0.46211872 0
3.6230001 1.3899773 0.46213675 0
3.6240003 1.3846076 0.46215481 0
3.6270003 1.3801179 0.46220893 0
3.6290002 1.3751773 0.46224499 0
3.6320002 1.3706677 0.46229911 0
3.6350002 1.3661474 0.4623532 0
3.6400003 1.3624858 0.46244341 0
3.6450002 1.3588059 0.46253359 0
3.6500003 1.3551081 0.46262378 0
3.6570003 1.3522509 0.46275005 0
3.8870003 1.419542 0.4668988 0
3.8850002 1.412415 0.46686274 0
3.8830004 1.4052955 0.46682665 0
3.8810003 1.398183 0.46679059 0
3.8790002 1.3910778 0.4667545 0
3.8770003 1.3839798 0.46671844 0
3.8750002 1.376889 0.46668234 0
3.8740003 1.3702132 0.46666431 0
3.8720002 1.363135 0.46662825 0
3.8680003 1.355256 0.46655607 0
3.8650002 1.3477936 0.46650195 0
3.8640003 1.341143 0.46648395 0
3.8630002 1.3344959 0.46646589 0
3.8630002 1.3282492 0.46646589 0
3.8640003 1.3223977 0.46648395 0
3.8650002 1.3165426 0.46650195 0
3.8680003 1.3114667 0.46655607 0
3.8700004 1.3059905 0.46659216 0
3.8740003 1.3012824 0.46666431 0
3.8780003 1.29656 0.46673647 0
3.8830004 1.2922076 0.46682665 0
3.8890002 1.2882192 0.46693489 0
3.7570002 1.8796121 0.45849848 0
3.7650003 1.8781313 0.45862836 0
3.7720003 1.8760515 0.45874199 0
3.7790003 1.8739463 0.45885563 0
3.7860003 1.8718162 0.45896927 0
3.7930002 1.8696605 0.4590829 0
3.8010004 1.8680426 0.45921278 0
3.8080003 1.8658347 0.45932642 0
3.8150003 1.8636016 0.45944005 0
3.8230002 1.8619006 0.45956993 0
3.8300002 1.8596152 0.45968357 0
3.8370004 1.8573045 0.4597972 0
3.8450003 1.8555205 0.45992708 0
3.8520002 1.8531574 0.46004072 0
3.8600004 1.8513178 0.4601706 0
3.8670003 1.8489025 0.46028423 0
3.8750002 1.8470066 0.46041411 0
3.7130003 1.7288769 0.45778418 0
3.7110002 1.721833 0.45775169 0
3.7100003 1.7153286 0.45773545 0
3.7100003 1.709358 0.45773545 0
3.7110002 1.7039158 0.45775169 0
3.7120004 1.6984702 0.45776793 0
3.7140002 1.6935457 0.45780039 0
3.7160003 1.6886142 0.45783287 0
3.7190003 1.6841966 0.45788157 0
3.7230003 1.6802877 0.45794651 0
3.7270002 1.6763645 0.45801145 0
3.7310002 1.6724267 0.45807639 0
3.6920002 1.6344926 0.45744324 0
3.6900003 1.6275371 0.45741078 0
3.6880002 1.6205889 0.4573783 0
3.6860003 1.6136479 0.45734584 0
3.6840003 1.606714 0.45731336 0
3.6820002 1.5997874 0.4572809 0
3.6800003 1.5928681 0.45724845 0
3.6780002 1.5859557 0.45721596 0
3.6770003 1.5795469 0.45719972 0
3.6750002 1.5726473 0.45716727 0
3.6730003 1.565755 0.45713478 0
3.6710002 1.5588698 0.45710233 0
3.6690001 1.5519918 0.45706984 0
3.6670003 1.5451212 0.45703739 0
3.6650002 1.5382577 0.4570049 0
3.6630003 1.5314015 0.45697245 0
3.6610003 1.5245523 0.45694 0
3.6590002 1.5177106 0.45690751 0
3.6580002 1.511354 0.45689127 0
3.6560001 1.5045246 0.45685881 0
3.6540003 1.4977027 0.45682633 0
3.6520002 1.4908879 0.45679387 0
3.6500003 1.4840803 0.45676142 0
3.6480002 1.47728 0.45672894 0
3.6460001 1.4704868 0.45669645 0
3.6440003 1.4637009 0.456664 0
3.6420002 1.4569222 0.45663154 0
3.6410003 1.4506124 0.4566153 0
3.6390002 1.4438463 0.45658281 0
3.6370003 1.4370875 0.45655036 0
3.6310003 1.4285104 0.45645297 0
3.6270003 1.4208641 0.45638803 0
3.6240003 1.413685 0.4563393 0
3.6230001 1.4074184 0.45632309 0
3.6220002 1.4011556 0.45630684 0
3.6220002 1.3953438 0.45630684 0
3.6230001 1.3899773 0.45632309 0
3.6240003 1.3846076 0.4563393 0
3.6270003 1.3801179 0.45638803 0
3.6290002 1.3751773 0.45642048 0
3.6320002 1.3706677 0.45646918 0
3.6350002 1.3661474 0.45651788 0
3.6400003 1.3624858 0.45659906 0
3.6450002 1.3588059 0.45668024 0
3.6500003 1.3551081 0.45676142 0
3.6570003 1.3522509 0.45687506 0
3.8880002 1.4136705 0.46062517 0
3.8860002 1.4065454 0.46059269 0
3.8840003 1.3994277 0.46056023 0
3.8820002 1.3923171 0.46052775 0
3.8800004 1.3852136 0.46049529 0
3.8780003 1.3781174 0.46046281 0
3.8760002 1.3710284 0.46043035 0
3.8740003 1.3639467 0.4603979 0
3.8680003 1.355256 0.46030048 0
3.8650002 1.3477936 0.46025178 0
3.8640003 1.341143 0.46023554 0
3.8630002 1.3344959 0.46021929 0
3.8630002 1.3282492 0.46021929 0
3.8640003 1.3223977 0.46023554 0
3.8650002 1.3165426 0.46025178 0
3.8680003 1.3114667 0.46030048 0
3.8700004 1.3059905 0.46033296 0
3.8740003 1.3012824 0.4603979 0
3.8780003 1.29656 0.46046281 0
3.8830004 1.2922076 0.46054399 0
3.8890002 1.2882192 0.46064138 0
3.7570002 1.8796121 0.45244309 0
3.7650003 1.8781313 0.45255852 0
3.7720003 1.8760515 0.45265955 0
3.7790003 1.8739463 0.45276055 0
3.7860003 1.8718162 0.45286158 0
3.7930002 1.8696605 0.45296258 0
3.8010004 1.8680426 0.45307803 0
3.8080003 1.8658347 0.45317903 0
3.8150003 1.8636016 0.45328006 0
3.8230002 1.8619006 0.45339549 0
3.8300002 1.8596152 0.45349652 0
3.8370004 1.8573045 0.45359752 0
3.8450003 1.8555205 0.45371297 0
3.8520002 1.8531574 0.45381397 0
3.8600004 1.8513178 0.45392942 0
3.8670003 1.8489025 0.45403045 0
3.7130003 1.7288769 0.45180815 0
3.7110002 1.721833 0.45177928 0
3.7100003 1.7153286 0.45176485 0
3.7100003 1.709358 0.45176485 0
3.7110002 1.7039158 0.45177928 0
3.7120004 1.6984702 0.45179373 0
3.7140002 1.6935457 0.45182258 0
3.7160003 1.6886142 0.45185143 0
3.7190003 1.6841966 0.45189473 0
3.7230003 1.6802877 0.45195246 0
3.7270002 1.6763645 0.45201018 0
3.7310002 1.6724267 0.45206791 0
3.6920002 1.6226163 0.45150509 0
3.6900003 1.6156682 0.45147625 0
3.6880002 1.6087271 0.4514474 0
3.6860003 1.6017933 0.45141852 0
3.6840003 1.5948666 0.45138967 0
3.6830003 1.5884452 0.45137525 0
3.6810002 1.581531 0.45134637 0
3.6790001 1.5746242 0.45131752 0
3.6770003 1.5677247 0.45128864 0
3.6750002 1.5608324 0.45125979 0
3.6730003 1.5539473 0.45123094 0
3.6710002 1.5470693 0.45120206 0
3.6690001 1.5401986 0.45117322 0
3.6670003 1.5333351 0.45114434 0
3.6650002 1.5264788 0.45111549 0
3.6640003 1.5201097 0.45110106 0
3.6620002 1.5132658 0.45107219 0
3.6600003 1.5064296 0.45104334 0
3.6580002 1.4996003 0.45101446 0
3.6560001 1.4927783 0.45098561 0
3.6540003 1.4859636 0.45095676 0
3.6520002 1.4791559 0.45092788 0
3.6500003 1.4723556 0.45089903 0
3.6490002 1.4660277 0.45088458 0
3.6470003 1.4592401 0.45085573 0
3.6450002 1.4524596 0.45082688 0
3.6430004 1.4456863 0.450798 0
3.6410003 1.4389203 0.45076916 0
3.6310003 1.4285104 0.45062485 0
3.6270003 1.4208641 0.45056713 0
3.6240003 1.413685 0.45052385 0
3.6230001 1.4074184 0.4505094 0
3.6220002 1.4011556 0.45049497 0
3.6220002 1.3953438 0.45049497 0
3.6230001 1.3899773 0.4505094 0
3.6240003 1.3846076 0.45052385 0
3.6270003 1.3801179 0.45056713 0
3.6290002 1.3751773 0.45059597 0
3.6320002 1.3706677 0.45063928 0
3.6350002 1.3661474 0.45068258 0
3.6400003 1.3624858 0.45075473 0
3.6450002 1.3588059 0.45082688 0
3.6500003 1.3551081 0.45089903 0
3.6570003 1.3522509 0.45100003 0
3.8900003 1.4082122 0.45436233 0
3.8880002 1.4010872 0.45433348 0
3.8860002 1.3939692 0.45430461 0
3.8840003 1.3868587 0.45427576 0
3.8820002 1.3797553 0.45424691 0
3.8800004 1.3726591 0.45421803 0
3.8740003 1.3639467 0.45413145 0
3.8680003 1.355256 0.45404488 0
3.8650002 1.3477936 0.45400158 0
3.8640003 1.341143 0.45398715 0
3.8630002 1.3344959 0.45397273 0
3.8630002 1.3282492 0.45397273 0
3.8640003 1.3223977 0.45398715 0
3.8650002 1.3165426 0.45400158 0
3.8680003 1.3114667 0.45404488 0
3.8700004 1.3059905 0.45407373 0
3.8740003 1.3012824 0.45413145 0
3.8780003 1.29656 0.45418918 0
3.8830004 1.2922076 0.45426133 0
3.8890002 1.2882192 0.45434791 0
3.7650003 1.8781313 0.44648871 0
3.7720003 1.8760515 0.4465771 0
3.7790003 1.8739463 0.4466655 0
3.7860003 1.8718162 0.44675389 0
3.7930002 1.8696605 0.44684225 0
3.8010004 1.8680426 0.44694328 0
3.8080003 1.8658347 0.44703168 0
3.8150003 1.8636016 0.44712004 0
3.8230002 1.8619006 0.44722107 0
3.8300002 1.8596152 0.44730943 0
3.8370004 1.8573045 0.44739783 0
3.8450003 1.8555205 0.44749886 0
3.8520002 1.8531574 0.44758725 0
3.8600004 1.8513178 0.44768825 0
3.7130003 1.7288769 0.44583213 0
3.7110002 1.721833 0.44580686 0
3.7100003 1.7153286 0.44579425 0
3.7100003 1.709358 0.44579425 0
3.7110002 1.7039158 0.44580686 0
3.7120004 1.6984702 0.4458195 0
3.7140002 1.6935457 0.44584477 0
3.7160003 1.6886142 0.44587001 0
3.7190003 1.6841966 0.44590789 0
3.7230003 1.6802877 0.44595841 0
3.7270002 1.6763645 0.44600892 0
3.7310002 1.6724267 0.44605941 0
3.6790001 1.5568801 0.44540283 0
3.6770003 1.5499915 0.44537756 0
3.6750002 1.5431099 0.44535232 0
3.6730003 1.5362357 0.44532707 0
3.6710002 1.5293685 0.4453018 0
3.6690001 1.5225086 0.44527656 0
3.6670003 1.515656 0.44525132 0
3.6650002 1.5088105 0.44522604 0
3.6640003 1.5024468 0.44521344 0
3.6620002 1.4956139 0.44518816 0
3.6600003 1.4887882 0.44516292 0
3.6410003 1.4389203 0.44492301 0
3.6310003 1.4285104 0.44479674 0
3.6270003 1.4208641 0.44474623 0
3.6240003 1.413685 0.44470835 0
3.6230001 1.4074184 0.44469574 0
3.6220002 1.4011556 0.4446831 0
3.6220002 1.3953438 0.4446831 0
3.6230001 1.3899773 0.44469574 0
3.6240003 1.3846076 0.44470835 0
3.6270003 1.3801179 0.44474623 0
3.6290002 1.3751773 0.4447715 0
3.6320002 1.3706677 0.44480938 0
3.6350002 1.3661474 0.44484726 0
3.6400003 1.3624858 0.44491038 0
3.6450002 1.3588059 0.44497353 0
3.6500003 1.3551081 0.44503665 0
3.6570003 1.3522509 0.44512504 0
3.8740003 1.3639467 0.44786501 0
3.8680003 1.355256 0.44778925 0
3.8650002 1.3477936 0.44775137 0
3.8640003 1.341143 0.44773877 0
3.8630002 1.3344959 0.44772613 0
3.8630002 1.3282492 0.44772613 0
3.8640003 1.3223977 0.44773877 0
3.8650002 1.3165426 0.44775137 0
3.8680003 1.3114667 0.44778925 0
3.8700004 1.3059905 0.44781452 0
3.8740003 1.3012824 0.44786501 0
3.8780003 1.29656 0.44791552 0
3.8830004 1.2922076 0.44797868 0
3.8890002 1.2882192 0.44805443 0
3.7720003 1.8760515 0.44049466 0
3.7790003 1.8739463 0.44057041 0
3.7860003 1.8718162 0.44064617 0
3.7930002 1.8696605 0.44072193 0
3.8010004 1.8680426 0.44080853 0
3.8080003 1.8658347 0.44088429 0
3.8150003 1.8636016 0.44096005 0
3.8230002 1.8619006 0.44104663 0
3.8300002 1.8596152 0.44112238 0
3.7130003 1.7288769 0.43985611 0
3.7110002 1.721833 0.43983448 0
3.7100003 1.7153286 0.43982366 0
3.7100003 1.709358 0.43982366 0
3.7110002 1.7039158 0.43983448 0
3.7120004 1.6984702 0.43984529 0
3.7140002 1.6935457 0.43986693 0
3.7160003 1.6886142 0.4398886 0
3.7190003 1.6841966 0.43992105 0
3.7230003 1.6802877 0.43996435 0
3.7270002 1.6763645 0.44000763 0
3.7310002 1.6724267 0.44005093 0
3.6810002 1.540103 0.43950978 0
