# .PCD v0.7 - Point Cloud Data file format
VERSION 0.7
FIELDS x y z intensity
SIZE 4 4 4 4
TYPE F F F F
COUNT 1 1 1 1
WIDTH 1461
HEIGHT 1
VIEWPOINT 0 0 0 1 0 0 0
POINTS 1461
DATA ascii
6.1250005 -3.1440408 1.4263535 0
6.1180005 -3.1505671 1.4251034 0
6.1110005 -3.157068 1.4238534 0
6.1040006 -3.1635435 1.4226034 0
6.0970006 -3.1699941 1.4213533 0
6.0900002 -3.176419 1.4201032 0
6.0830002 -3.1828189 1.4188532 0
6.0760002 -3.1891935 1.4176031 0
6.0690002 -3.1955428 1.4163531 0
6.0620003 -3.2018671 1.4151031 0
6.0550003 -3.2081659 1.413853 0
6.0480003 -3.2144396 1.412603 0
6.0420003 -3.2212508 1.4115316 0
6.0350003 -3.2274759 1.4102815 0
6.0280004 -3.2336755 1.4090314 0
6.0210004 -3.23985 1.4077814 0
6.0140004 -3.2459991 1.4065313 0
6.3730001 -2.9119229 1.4598664 0
6.3660002 -2.9193256 1.458629 0
6.3580003 -2.9262199 1.4572148 0
6.3500004 -2.9330852 1.4558007 0
6.3430004 -2.9404087 1.4545631 0
6.3350005 -2.9472182 1.4531491 0
6.3280005 -2.9544895 1.4519116 0
6.3200002 -2.9612427 1.4504974 0
6.3130002 -2.9684615 1.44926 0
6.3050003 -2.9751589 1.4478458 0
6.2980003 -2.9823256 1.4466084 0
6.2900004 -2.9889674 1.4451942 0
6.2830005 -2.9960816 1.4439569 0
6.2760005 -3.0031705 1.4427193 0
6.2680006 -3.0097291 1.4413052 0
6.2610002 -3.0167656 1.4400678 0
6.2540002 -3.023777 1.4388304 0
6.2460003 -3.0302529 1.4374162 0
6.2390003 -3.0372119 1.4361788 0
6.2320004 -3.0441458 1.4349414 0
6.2240005 -3.0505383 1.4335272 0
6.2170005 -3.05742 1.4322898 0
6.2100005 -3.0642765 1.4310524 0
6.2030005 -3.0711074 1.4298149 0
6.1960006 -3.077913 1.4285777 0
6.1880002 -3.0841684 1.4271634 0
6.1810002 -3.0909219 1.425926 0
6.1740003 -3.0976503 1.4246885 0
6.1670003 -3.1043532 1.4234511 0
6.1600003 -3.1110311 1.4222138 0
6.1530004 -3.1176834 1.4209763 0
6.1460004 -3.1243107 1.4197389 0
6.1390004 -3.1309125 1.4185015 0
6.1320004 -3.1374893 1.4172641 0
6.1250005 -3.1440408 1.4160267 0
6.1180005 -3.1505671 1.4147892 0
6.1110005 -3.157068 1.4135518 0
6.1040006 -3.1635435 1.4123145 0
6.0970006 -3.1699941 1.411077 0
6.0900002 -3.176419 1.4098395 0
6.0830002 -3.1828189 1.4086021 0
6.0760002 -3.1891935 1.4073647 0
6.0690002 -3.1955428 1.4061273 0
6.0620003 -3.2018671 1.4048899 0
6.0550003 -3.2081659 1.4036524 0
6.0480003 -3.2144396 1.402415 0
6.0420003 -3.2212508 1.4013544 0
6.0350003 -3.2274759 1.400117 0
6.0280004 -3.2336755 1.3988795 0
6.0210004 -3.23985 1.3976423 0
6.0140004 -3.2459991 1.3964049 0
6.3730001 -2.9119229 1.4490921 0
6.3660002 -2.9193256 1.4478675 0
6.3580003 -2.9262199 1.4464678 0
6.3510003 -2.9335706 1.4452429 0
6.3430004 -2.9404087 1.4438431 0
6.3350005 -2.9472182 1.4424435 0
6.3280005 -2.9544895 1.4412187 0
6.3200002 -2.9612427 1.4398189 0
6.3130002 -2.9684615 1.4385941 0
6.3050003 -2.9751589 1.4371943 0
6.2980003 -2.9823256 1.4359696 0
6.2910004 -2.9894669 1.4347447 0
6.2830005 -2.9960816 1.4333451 0
6.2760005 -3.0031705 1.4321203 0
6.2680006 -3.0097291 1.4307204 0
6.2610002 -3.0167656 1.4294957 0
6.2540002 -3.023777 1.4282709 0
6.2460003 -3.0302529 1.4268711 0
6.2390003 -3.0372119 1.4256463 0
6.2320004 -3.0441458 1.4244215 0
6.2240005 -3.0505383 1.4230218 0
6.2170005 -3.05742 1.421797 0
6.2100005 -3.0642765 1.4205723 0
6.2030005 -3.0711074 1.4193475 0
6.1960006 -3.077913 1.4181226 0
6.1880002 -3.0841684 1.4167229 0
6.1810002 -3.0909219 1.4154981 0
6.1740003 -3.0976503 1.4142733 0
6.1670003 -3.1043532 1.4130486 0
6.1600003 -3.1110311 1.4118237 0
6.1530004 -3.1176834 1.410599 0
6.1460004 -3.1243107 1.4093741 0
6.1390004 -3.1309125 1.4081495 0
6.1320004 -3.1374893 1.4069246 0
6.1250005 -3.1440408 1.4056998 0
6.1180005 -3.1505671 1.4044751 0
6.1110005 -3.157068 1.4032502 0
6.1040006 -3.1635435 1.4020255 0
6.0970006 -3.1699941 1.4008007 0
6.0900002 -3.176419 1.3995758 0
6.0830002 -3.1828189 1.3983511 0
6.0760002 -3.1891935 1.3971263 0
6.0690002 -3.1955428 1.3959014 0
6.0620003 -3.2018671 1.3946767 0
6.0550003 -3.2081659 1.3934519 0
6.0480003 -3.2144396 1.3922272 0
6.0420003 -3.2212508 1.3911774 0
6.0350003 -3.2274759 1.3899525 0
6.0280004 -3.2336755 1.3887278 0
6.0210004 -3.23985 1.3875029 0
6.0150003 -3.2465692 1.3864532 0
6.3730001 -2.9119229 1.4383181 0
6.3660002 -2.9193256 1.4371059 0
6.3580003 -2.9262199 1.4357206 0
6.3510003 -2.9335706 1.4345084 0
6.3430004 -2.9404087 1.4331231 0
6.3350005 -2.9472182 1.4317378 0
6.3280005 -2.9544895 1.4305257 0
6.3200002 -2.9612427 1.4291403 0
6.3130002 -2.9684615 1.4279281 0
6.3050003 -2.9751589 1.4265428 0
6.2980003 -2.9823256 1.4253306 0
6.2910004 -2.9894669 1.4241185 0
6.2830005 -2.9960816 1.4227333 0
6.2760005 -3.0031705 1.4215212 0
6.2680006 -3.0097291 1.4201357 0
6.2610002 -3.0167656 1.4189235 0
6.2540002 -3.023777 1.4177114 0
6.2460003 -3.0302529 1.416326 0
6.2390003 -3.0372119 1.4151139 0
6.2320004 -3.0441458 1.4139017 0
6.2240005 -3.0505383 1.4125164 0
6.2170005 -3.05742 1.4113042 0
6.2100005 -3.0642765 1.4100921 0
6.2030005 -3.0711074 1.40888 0
6.1960006 -3.077913 1.4076678 0
6.1880002 -3.0841684 1.4062824 0
6.1810002 -3.0909219 1.4050703 0
6.1740003 -3.0976503 1.4038581 0
6.1670003 -3.1043532 1.4026459 0
6.1600003 -3.1110311 1.4014338 0
6.1530004 -3.1176834 1.4002217 0
6.1460004 -3.1243107 1.3990095 0
6.1390004 -3.1309125 1.3977973 0
6.1320004 -3.1374893 1.3965852 0
6.1250005 -3.1440408 1.395373 0
6.1180005 -3.1505671 1.3941609 0
6.1110005 -3.157068 1.3929487 0
6.1040006 -3.1635435 1.3917366 0
6.0970006 -3.1699941 1.3905244 0
6.0900002 -3.176419 1.3893121 0
6.0830002 -3.1828189 1.3881 0
6.0760002 -3.1891935 1.3868879 0
6.0690002 -3.1955428 1.3856757 0
6.0620003 -3.2018671 1.3844635 0
6.0550003 -3.2081659 1.3832514 0
6.0480003 -3.2144396 1.3820392 0
6.0420003 -3.2212508 1.3810003 0
6.0350003 -3.2274759 1.3797882 0
6.0280004 -3.2336755 1.3785759 0
6.0210004 -3.23985 1.3773638 0
6.0150003 -3.2465692 1.3763248 0
6.3730001 -2.9119229 1.4275439 0
6.3660002 -2.9193256 1.4263444 0
6.3580003 -2.9262199 1.4249735 0
6.3510003 -2.9335706 1.423774 0
6.3430004 -2.9404087 1.4224031 0
6.3350005 -2.9472182 1.4210322 0
6.3280005 -2.9544895 1.4198327 0
6.3200002 -2.9612427 1.4184618 0
6.3130002 -2.9684615 1.4172622 0
6.3050003 -2.9751589 1.4158914 0
6.2980003 -2.9823256 1.4146918 0
6.2910004 -2.9894669 1.4134923 0
6.2830005 -2.9960816 1.4121214 0
6.2760005 -3.0031705 1.4109219 0
6.2680006 -3.0097291 1.409551 0
6.2610002 -3.0167656 1.4083514 0
6.2540002 -3.023777 1.4071518 0
6.2460003 -3.0302529 1.4057809 0
6.2390003 -3.0372119 1.4045814 0
6.2320004 -3.0441458 1.4033819 0
6.2240005 -3.0505383 1.402011 0
6.2170005 -3.05742 1.4008116 0
6.2100005 -3.0642765 1.3996119 0
6.2030005 -3.0711074 1.3984125 0
6.1960006 -3.077913 1.397213 0
6.1880002 -3.0841684 1.395842 0
6.1810002 -3.0909219 1.3946425 0
6.1740003 -3.0976503 1.393443 0
6.1670003 -3.1043532 1.3922434 0
6.1600003 -3.1110311 1.3910439 0
6.1530004 -3.1176834 1.3898444 0
6.1460004 -3.1243107 1.3886448 0
6.1390004 -3.1309125 1.3874452 0
6.1320004 -3.1374893 1.3862457 0
6.1250005 -3.1440408 1.3850462 0
6.1180005 -3.1505671 1.3838466 0
6.1110005 -3.157068 1.3826472 0
6.1040006 -3.1635435 1.3814477 0
6.0970006 -3.1699941 1.3802481 0
6.0900002 -3.176419 1.3790485 0
6.0830002 -3.1828189 1.377849 0
6.0760002 -3.1891935 1.3766495 0
6.0690002 -3.1955428 1.3754499 0
6.0620003 -3.2018671 1.3742504 0
6.0550003 -3.2081659 1.3730509 0
6.0480003 -3.2144396 1.3718513 0
6.0420003 -3.2212508 1.3708231 0
6.0350003 -3.2274759 1.3696237 0
6.0280004 -3.2336755 1.3684242 0
6.0210004 -3.23985 1.3672247 0
6.0150003 -3.2465692 1.3661965 0
6.3730001 -2.9119229 1.4167697 0
6.3660002 -2.9193256 1.4155829 0
6.3580003 -2.9262199 1.4142264 0
6.3510003 -2.9335706 1.4130396 0
6.3430004 -2.9404087 1.4116831 0
6.3350005 -2.9472182 1.4103266 0
6.3280005 -2.9544895 1.4091398 0
6.3200002 -2.9612427 1.4077832 0
6.3130002 -2.9684615 1.4065963 0
6.3050003 -2.9751589 1.4052398 0
6.2980003 -2.9823256 1.404053 0
6.2910004 -2.9894669 1.402866 0
6.2830005 -2.9960816 1.4015095 0
6.2760005 -3.0031705 1.4003227 0
6.2680006 -3.0097291 1.3989662 0
6.2610002 -3.0167656 1.3977793 0
6.2540002 -3.023777 1.3965924 0
6.2460003 -3.0302529 1.395236 0
6.2390003 -3.0372119 1.394049 0
6.2320004 -3.0441458 1.3928621 0
6.2240005 -3.0505383 1.3915057 0
6.2170005 -3.05742 1.3903188 0
6.2100005 -3.0642765 1.3891318 0
6.2030005 -3.0711074 1.3879449 0
6.1960006 -3.077913 1.3867581 0
6.1880002 -3.0841684 1.3854016 0
6.1810002 -3.0909219 1.3842146 0
6.1740003 -3.0976503 1.3830278 0
6.1670003 -3.1043532 1.3818408 0
6.1600003 -3.1110311 1.3806539 0
6.1530004 -3.1176834 1.379467 0
6.1460004 -3.1243107 1.3782802 0
6.1390004 -3.1309125 1.3770932 0
6.1320004 -3.1374893 1.3759063 0
6.1250005 -3.1440408 1.3747194 0
6.1180005 -3.1505671 1.3735325 0
6.1110005 -3.157068 1.3723457 0
6.1040006 -3.1635435 1.3711587 0
6.0970006 -3.1699941 1.3699719 0
6.0900002 -3.176419 1.3687848 0
6.0830002 -3.1828189 1.3675979 0
6.0760002 -3.1891935 1.3664111 0
6.0690002 -3.1955428 1.3652241 0
6.0620003 -3.2018671 1.3640373 0
6.0550003 -3.2081659 1.3628503 0
6.0480003 -3.2144396 1.3616635 0
6.0420003 -3.2212508 1.3606461 0
6.0350003 -3.2274759 1.3594592 0
6.0280004 -3.2336755 1.3582723 0
6.0210004 -3.23985 1.3570853 0
6.0150003 -3.2465692 1.356068 0
6.3730001 -2.9119229 1.4059956 0
6.3660002 -2.9193256 1.4048214 0
6.3580003 -2.9262199 1.4034792 0
6.3510003 -2.9335706 1.402305 0
6.3430004 -2.9404087 1.4009631 0
6.3350005 -2.9472182 1.399621 0
6.3280005 -2.9544895 1.3984467 0
6.3200002 -2.9612427 1.3971046 0
6.3130002 -2.9684615 1.3959303 0
6.3050003 -2.9751589 1.3945884 0
6.2980003 -2.9823256 1.3934141 0
6.2910004 -2.9894669 1.3922398 0
6.2830005 -2.9960816 1.3908978 0
6.2760005 -3.0031705 1.3897234 0
6.2680006 -3.0097291 1.3883815 0
6.2610002 -3.0167656 1.3872072 0
6.2540002 -3.023777 1.3860328 0
6.2460003 -3.0302529 1.3846909 0
6.2390003 -3.0372119 1.3835167 0
6.2320004 -3.0441458 1.3823423 0
6.2240005 -3.0505383 1.3810003 0
6.2170005 -3.05742 1.3798259 0
6.2100005 -3.0642765 1.3786517 0
6.2030005 -3.0711074 1.3774774 0
6.1960006 -3.077913 1.3763032 0
6.1880002 -3.0841684 1.374961 0
6.1810002 -3.0909219 1.3737868 0
6.1740003 -3.0976503 1.3726125 0
6.1670003 -3.1043532 1.3714383 0
6.1600003 -3.1110311 1.3702639 0
6.1530004 -3.1176834 1.3690897 0
6.1460004 -3.1243107 1.3679155 0
6.1390004 -3.1309125 1.3667412 0
6.1320004 -3.1374893 1.365567 0
6.1250005 -3.1440408 1.3643926 0
6.1180005 -3.1505671 1.3632184 0
6.1110005 -3.157068 1.3620441 0
6.1040006 -3.1635435 1.3608698 0
6.0970006 -3.1699941 1.3596956 0
6.0900002 -3.176419 1.3585211 0
6.0830002 -3.1828189 1.3573469 0
6.0760002 -3.1891935 1.3561726 0
6.0690002 -3.1955428 1.3549984 0
6.0620003 -3.2018671 1.3538241 0
6.0550003 -3.2081659 1.3526498 0
6.0480003 -3.2144396 1.3514756 0
6.0420003 -3.2212508 1.350469 0
6.0350003 -3.2274759 1.3492947 0
6.0280004 -3.2336755 1.3481205 0
6.0210004 -3.23985 1.3469462 0
6.0150003 -3.2465692 1.3459396 0
6.3730001 -2.9119229 1.3952215 0
6.3660002 -2.9193256 1.3940598 0
6.3580003 -2.9262199 1.3927321 0
6.3510003 -2.9335706 1.3915706 0
6.3430004 -2.9404087 1.3902431 0
6.3350005 -2.9472182 1.3889154 0
6.3280005 -2.9544895 1.3877537 0
6.3200002 -2.9612427 1.3864261 0
6.3130002 -2.9684615 1.3852645 0
6.3050003 -2.9751589 1.3839369 0
6.2980003 -2.9823256 1.3827752 0
6.2910004 -2.9894669 1.3816136 0
6.2830005 -2.9960816 1.380286 0
6.2760005 -3.0031705 1.3791243 0
6.2680006 -3.0097291 1.3777966 0
6.2610002 -3.0167656 1.3766351 0
6.2540002 -3.023777 1.3754734 0
6.2460003 -3.0302529 1.3741459 0
6.2390003 -3.0372119 1.3729842 0
6.2320004 -3.0441458 1.3718225 0
6.2240005 -3.0505383 1.370495 0
6.2170005 -3.05742 1.3693333 0
6.2100005 -3.0642765 1.3681716 0
6.2030005 -3.0711074 1.36701 0
6.1960006 -3.077913 1.3658483 0
6.1880002 -3.0841684 1.3645207 0
6.1810002 -3.0909219 1.363359 0
6.1740003 -3.0976503 1.3621974 0
6.1670003 -3.1043532 1.3610357 0
6.1600003 -3.1110311 1.3598741 0
6.1530004 -3.1176834 1.3587124 0
6.1460004 -3.1243107 1.3575507 0
6.1390004 -3.1309125 1.3563892 0
6.1320004 -3.1374893 1.3552275 0
6.1250005 -3.1440408 1.3540658 0
6.1180005 -3.1505671 1.3529042 0
6.1110005 -3.157068 1.3517425 0
6.1040006 -3.1635435 1.3505809 0
6.0970006 -3.1699941 1.3494192 0
6.0900002 -3.176419 1.3482574 0
6.0830002 -3.1828189 1.3470958 0
6.0760002 -3.1891935 1.3459343 0
6.0690002 -3.1955428 1.3447726 0
6.0620003 -3.2018671 1.3436109 0
6.0550003 -3.2081659 1.3424493 0
6.0480003 -3.2144396 1.3412876 0
6.0420003 -3.2212508 1.340292 0
6.0350003 -3.2274759 1.3391303 0
6.0280004 -3.2336755 1.3379686 0
6.0210004 -3.23985 1.336807 0
6.0150003 -3.2465692 1.3358113 0
6.3730001 -2.9119229 1.3844473 0
6.3660002 -2.9193256 1.3832983 0
6.3580003 -2.9262199 1.3819852 0
6.3510003 -2.9335706 1.3808361 0
6.3430004 -2.9404087 1.379523 0
6.3350005 -2.9472182 1.3782098 0
6.3280005 -2.9544895 1.3770608 0
6.3200002 -2.9612427 1.3757476 0
6.3130002 -2.9684615 1.3745985 0
6.3050003 -2.9751589 1.3732854 0
6.2980003 -2.9823256 1.3721364 0
6.2910004 -2.9894669 1.3709874 0
6.2830005 -2.9960816 1.3696742 0
6.2760005 -3.0031705 1.3685253 0
6.2680006 -3.0097291 1.3672119 0
6.2610002 -3.0167656 1.3660629 0
6.2540002 -3.023777 1.3649138 0
6.2460003 -3.0302529 1.3636007 0
6.2390003 -3.0372119 1.3624517 0
6.2320004 -3.0441458 1.3613027 0
6.2240005 -3.0505383 1.3599895 0
6.2170005 -3.05742 1.3588406 0
6.2100005 -3.0642765 1.3576914 0
6.2030005 -3.0711074 1.3565425 0
6.1960006 -3.077913 1.3553934 0
6.1880002 -3.0841684 1.3540802 0
6.1810002 -3.0909219 1.3529311 0
6.1740003 -3.0976503 1.3517822 0
6.1670003 -3.1043532 1.3506331 0
6.1600003 -3.1110311 1.3494842 0
6.1530004 -3.1176834 1.348335 0
6.1460004 -3.1243107 1.3471861 0
6.1390004 -3.1309125 1.346037 0
6.1320004 -3.1374893 1.3448881 0
6.1250005 -3.1440408 1.343739 0
6.1180005 -3.1505671 1.34259 0
6.1110005 -3.157068 1.341441 0
6.1040006 -3.1635435 1.340292 0
6.0970006 -3.1699941 1.3391429 0
6.0900002 -3.176419 1.3379937 0
6.0830002 -3.1828189 1.3368448 0
6.0760002 -3.1891935 1.3356957 0
6.0690002 -3.1955428 1.3345468 0
6.0620003 -3.2018671 1.3333977 0
6.0550003 -3.2081659 1.3322488 0
6.0480003 -3.2144396 1.3310997 0
6.0420003 -3.2212508 1.3301148 0
6.0350003 -3.2274759 1.3289658 0
6.0280004 -3.2336755 1.3278167 0
6.0210004 -3.23985 1.3266678 0
6.0150003 -3.2465692 1.3256829 0
6.3730001 -2.9119229 1.3736732 0
6.3660002 -2.9193256 1.3725368 0
6.3580003 -2.9262199 1.3712381 0
6.3510003 -2.9335706 1.3701017 0
6.3430004 -2.9404087 1.368803 0
6.3350005 -2.9472182 1.3675042 0
6.3280005 -2.9544895 1.3663678 0
6.3200002 -2.9612427 1.365069 0
6.3130002 -2.9684615 1.3639326 0
6.3050003 -2.9751589 1.3626338 0
6.2980003 -2.9823256 1.3614975 0
6.2910004 -2.9894669 1.3603611 0
6.2830005 -2.9960816 1.3590623 0
6.2760005 -3.0031705 1.357926 0
6.2680006 -3.0097291 1.3566272 0
6.2610002 -3.0167656 1.3554908 0
6.2540002 -3.023777 1.3543544 0
6.2460003 -3.0302529 1.3530557 0
6.2390003 -3.0372119 1.3519193 0
6.2320004 -3.0441458 1.3507829 0
6.2240005 -3.0505383 1.3494842 0
6.2170005 -3.05742 1.3483478 0
6.2100005 -3.0642765 1.3472114 0
6.2030005 -3.0711074 1.3460749 0
6.1960006 -3.077913 1.3449385 0
6.1880002 -3.0841684 1.3436397 0
6.1810002 -3.0909219 1.3425034 0
6.1740003 -3.0976503 1.341367 0
6.1670003 -3.1043532 1.3402306 0
6.1600003 -3.1110311 1.3390942 0
6.1530004 -3.1176834 1.3379577 0
6.1460004 -3.1243107 1.3368214 0
6.1390004 -3.1309125 1.335685 0
6.1320004 -3.1374893 1.3345486 0
6.1250005 -3.1440408 1.3334123 0
6.1180005 -3.1505671 1.3322759 0
6.1110005 -3.157068 1.3311394 0
6.1040006 -3.1635435 1.330003 0
6.0970006 -3.1699941 1.3288666 0
6.0900002 -3.176419 1.3277302 0
6.0830002 -3.1828189 1.3265938 0
6.0760002 -3.1891935 1.3254573 0
6.0690002 -3.1955428 1.324321 0
6.0620003 -3.2018671 1.3231846 0
6.0550003 -3.2081659 1.3220482 0
6.0480003 -3.2144396 1.3209118 0
6.0420003 -3.2212508 1.3199378 0
6.0350003 -3.2274759 1.3188014 0
6.0280004 -3.2336755 1.317665 0
6.0210004 -3.23985 1.3165286 0
6.0150003 -3.2465692 1.3155545 0
6.3730001 -2.9119229 1.3628989 0
6.3660002 -2.9193256 1.3617753 0
6.3580003 -2.9262199 1.3604909 0
6.3510003 -2.9335706 1.3593673 0
6.3430004 -2.9404087 1.3580829 0
6.3350005 -2.9472182 1.3567985 0
6.3280005 -2.9544895 1.3556749 0
6.3200002 -2.9612427 1.3543905 0
6.3130002 -2.9684615 1.3532667 0
6.3050003 -2.9751589 1.3519825 0
6.2980003 -2.9823256 1.3508586 0
6.2910004 -2.9894669 1.3497348 0
6.2830005 -2.9960816 1.3484505 0
6.2760005 -3.0031705 1.3473269 0
6.2680006 -3.0097291 1.3460425 0
6.2610002 -3.0167656 1.3449187 0
6.2540002 -3.023777 1.3437948 0
6.2460003 -3.0302529 1.3425106 0
6.2390003 -3.0372119 1.3413868 0
6.2320004 -3.0441458 1.3402631 0
6.2240005 -3.0505383 1.3389788 0
6.2170005 -3.05742 1.337855 0
6.2100005 -3.0642765 1.3367312 0
6.2030005 -3.0711074 1.3356075 0
6.1960006 -3.077913 1.3344837 0
6.1880002 -3.0841684 1.3331994 0
6.1810002 -3.0909219 1.3320756 0
6.1740003 -3.0976503 1.3309517 0
6.1670003 -3.1043532 1.329828 0
6.1600003 -3.1110311 1.3287042 0
6.1530004 -3.1176834 1.3275805 0
6.1460004 -3.1243107 1.3264567 0
6.1390004 -3.1309125 1.325333 0
6.1320004 -3.1374893 1.3242092 0
6.1250005 -3.1440408 1.3230854 0
6.1180005 -3.1505671 1.3219616 0
6.1110005 -3.157068 1.3208379 0
6.1040006 -3.1635435 1.3197141 0
6.0970006 -3.1699941 1.3185904 0
6.0900002 -3.176419 1.3174665 0
6.0830002 -3.1828189 1.3163427 0
6.0760002 -3.1891935 1.3152189 0
6.0690002 -3.1955428 1.3140953 0
6.0620003 -3.2018671 1.3129715 0
6.0550003 -3.2081659 1.3118477 0
6.0490003 -3.2150006 1.3108845 0
6.0420003 -3.2212508 1.3097607 0
6.0350003 -3.2274759 1.3086369 0
6.0280004 -3.2336755 1.3075131 0
6.0210004 -3.23985 1.3063893 0
6.0150003 -3.2465692 1.3054261 0
6.3730001 -2.9119229 1.3521249 0
6.3660002 -2.9193256 1.3510137 0
6.3580003 -2.9262199 1.3497438 0
6.3510003 -2.9335706 1.3486327 0
6.3430004 -2.9404087 1.3473629 0
6.3350005 -2.9472182 1.3460929 0
6.3280005 -2.9544895 1.3449819 0
6.3200002 -2.9612427 1.343712 0
6.3130002 -2.9684615 1.3426007 0
6.3050003 -2.9751589 1.3413309 0
6.2980003 -2.9823256 1.3402199 0
6.2910004 -2.9894669 1.3391086 0
6.2830005 -2.9960816 1.3378388 0
6.2760005 -3.0031705 1.3367276 0
6.2680006 -3.0097291 1.3354577 0
6.2610002 -3.0167656 1.3343465 0
6.2540002 -3.023777 1.3332354 0
6.2460003 -3.0302529 1.3319654 0
6.2390003 -3.0372119 1.3308544 0
6.2320004 -3.0441458 1.3297433 0
6.2250004 -3.0510542 1.3286321 0
6.2170005 -3.05742 1.3273622 0
6.2100005 -3.0642765 1.3262511 0
6.2030005 -3.0711074 1.32514 0
6.1960006 -3.077913 1.3240288 0
6.1880002 -3.0841684 1.3227589 0
6.1810002 -3.0909219 1.3216478 0
6.1740003 -3.0976503 1.3205366 0
6.1670003 -3.1043532 1.3194255 0
6.1600003 -3.1110311 1.3183143 0
6.1530004 -3.1176834 1.3172032 0
6.1460004 -3.1243107 1.316092 0
6.1390004 -3.1309125 1.314981 0
6.1320004 -3.1374893 1.3138697 0
6.1250005 -3.1440408 1.3127587 0
6.1180005 -3.1505671 1.3116474 0
6.1110005 -3.157068 1.3105364 0
6.1040006 -3.1635435 1.3094251 0
6.0970006 -3.1699941 1.3083141 0
6.0900002 -3.176419 1.3072028 0
6.0830002 -3.1828189 1.3060917 0
6.0760002 -3.1891935 1.3049805 0
6.0690002 -3.1955428 1.3038694 0
6.0620003 -3.2018671 1.3027582 0
6.0550003 -3.2081659 1.3016472 0
6.0490003 -3.2150006 1.3006947 0
6.0420003 -3.2212508 1.2995836 0
6.0350003 -3.2274759 1.2984724 0
6.0280004 -3.2336755 1.2973614 0
6.0210004 -3.23985 1.2962501 0
6.0150003 -3.2465692 1.2952977 0
6.3730001 -2.9119229 1.3413507 0
6.3660002 -2.9193256 1.3402522 0
6.3580003 -2.9262199 1.3389968 0
6.3510003 -2.9335706 1.3378983 0
6.3430004 -2.9404087 1.3366429 0
6.3350005 -2.9472182 1.3353873 0
6.3280005 -2.9544895 1.3342888 0
6.3200002 -2.9612427 1.3330333 0
6.3130002 -2.9684615 1.3319349 0
6.3050003 -2.9751589 1.3306794 0
6.2980003 -2.9823256 1.3295809 0
6.2910004 -2.9894669 1.3284824 0
6.2830005 -2.9960816 1.327227 0
6.2760005 -3.0031705 1.3261285 0
6.2680006 -3.0097291 1.324873 0
6.2610002 -3.0167656 1.3237745 0
6.2540002 -3.023777 1.3226759 0
6.2460003 -3.0302529 1.3214204 0
6.2390003 -3.0372119 1.3203219 0
6.2320004 -3.0441458 1.3192235 0
6.2250004 -3.0510542 1.3181249 0
6.2170005 -3.05742 1.3168695 0
6.2100005 -3.0642765 1.315771 0
6.2030005 -3.0711074 1.3146725 0
6.1960006 -3.077913 1.313574 0
6.1880002 -3.0841684 1.3123184 0
6.1810002 -3.0909219 1.3112199 0
6.1740003 -3.0976503 1.3101214 0
6.1670003 -3.1043532 1.3090229 0
6.1600003 -3.1110311 1.3079244 0
6.1530004 -3.1176834 1.3068259 0
6.1460004 -3.1243107 1.3057274 0
6.1390004 -3.1309125 1.3046288 0
6.1320004 -3.1374893 1.3035303 0
6.1250005 -3.1440408 1.3024318 0
6.1180005 -3.1505671 1.3013333 0
6.1110005 -3.157068 1.3002348 0
6.1040006 -3.1635435 1.2991363 0
6.0970006 -3.1699941 1.2980378 0
6.0900002 -3.176419 1.2969391 0
6.0830002 -3.1828189 1.2958406 0
6.0760002 -3.1891935 1.2947421 0
6.0690002 -3.1955428 1.2936436 0
6.0620003 -3.2018671 1.2925451 0
6.0550003 -3.2081659 1.2914466 0
6.0490003 -3.2150006 1.2905051 0
6.0420003 -3.2212508 1.2894064 0
6.0350003 -3.2274759 1.288308 0
6.0280004 -3.2336755 1.2872094 0
6.0210004 -3.23985 1.286111 0
6.0150003 -3.2465692 1.2851694 0
6.3730001 -2.9119229 1.3305765 0
6.3660002 -2.9193256 1.3294907 0
6.3580003 -2.9262199 1.3282497 0
6.3510003 -2.9335706 1.3271638 0
6.3430004 -2.9404087 1.3259228 0
6.3350005 -2.9472182 1.3246818 0
6.3280005 -2.9544895 1.3235959 0
6.3200002 -2.9612427 1.3223548 0
6.3130002 -2.9684615 1.3212689 0
6.3050003 -2.9751589 1.3200279 0
6.2980003 -2.9823256 1.3189421 0
6.2910004 -2.9894669 1.3178562 0
6.2830005 -2.9960816 1.3166151 0
6.2760005 -3.0031705 1.3155292 0
6.2680006 -3.0097291 1.3142883 0
6.2610002 -3.0167656 1.3132024 0
6.2540002 -3.023777 1.3121164 0
6.2460003 -3.0302529 1.3108754 0
6.2390003 -3.0372119 1.3097895 0
6.2320004 -3.0441458 1.3087037 0
6.2250004 -3.0510542 1.3076178 0
6.2170005 -3.05742 1.3063767 0
6.2100005 -3.0642765 1.3052908 0
6.2030005 -3.0711074 1.3042049 0
6.1960006 -3.077913 1.3031191 0
6.1880002 -3.0841684 1.301878 0
6.1810002 -3.0909219 1.3007921 0
6.1740003 -3.0976503 1.2997062 0
6.1670003 -3.1043532 1.2986203 0
6.1600003 -3.1110311 1.2975345 0
6.1530004 -3.1176834 1.2964486 0
6.1460004 -3.1243107 1.2953627 0
6.1390004 -3.1309125 1.2942767 0
6.1320004 -3.1374893 1.2931908 0
6.1250005 -3.1440408 1.2921051 0
6.1180005 -3.1505671 1.2910192 0
6.1110005 -3.157068 1.2899332 0
6.1040006 -3.1635435 1.2888473 0
6.0970006 -3.1699941 1.2877614 0
6.0900002 -3.176419 1.2866755 0
6.0830002 -3.1828189 1.2855896 0
6.0760002 -3.1891935 1.2845037 0
6.0690002 -3.1955428 1.2834178 0
6.0620003 -3.2018671 1.2823319 0
6.0550003 -3.2081659 1.2812461 0
6.0490003 -3.2150006 1.2803153 0
6.0420003 -3.2212508 1.2792294 0
6.0350003 -3.2274759 1.2781435 0
6.0280004 -3.2336755 1.2770576 0
6.0210004 -3.23985 1.2759718 0
6.0150003 -3.2465692 1.275041 0
6.3730001 -2.9119229 1.3198024 0
6.3660002 -2.9193256 1.3187292 0
6.3580003 -2.9262199 1.3175026 0
6.3510003 -2.9335706 1.3164294 0
6.3430004 -2.9404087 1.3152027 0
6.3350005 -2.9472182 1.3139762 0
6.3280005 -2.9544895 1.3129029 0
6.3200002 -2.9612427 1.3116763 0
6.3130002 -2.9684615 1.310603 0
6.3050003 -2.9751589 1.3093765 0
6.2980003 -2.9823256 1.3083032 0
6.2910004 -2.9894669 1.3072299 0
6.2830005 -2.9960816 1.3060033 0
6.2760005 -3.0031705 1.3049301 0
6.2680006 -3.0097291 1.3037035 0
6.2610002 -3.0167656 1.3026302 0
6.2540002 -3.023777 1.3015569 0
6.2460003 -3.0302529 1.3003303 0
6.2390003 -3.0372119 1.2992572 0
6.2320004 -3.0441458 1.2981838 0
6.2250004 -3.0510542 1.2971106 0
6.2170005 -3.05742 1.295884 0
6.2100005 -3.0642765 1.2948108 0
6.2030005 -3.0711074 1.2937374 0
6.1960006 -3.077913 1.2926642 0
6.1880002 -3.0841684 1.2914375 0
6.1810002 -3.0909219 1.2903643 0
6.1740003 -3.0976503 1.289291 0
6.1670003 -3.1043532 1.2882178 0
6.1600003 -3.1110311 1.2871445 0
6.1530004 -3.1176834 1.2860713 0
6.1460004 -3.1243107 1.2849981 0
6.1390004 -3.1309125 1.2839247 0
6.1320004 -3.1374893 1.2828515 0
6.1250005 -3.1440408 1.2817782 0
6.1180005 -3.1505671 1.280705 0
6.1110005 -3.157068 1.2796316 0
6.1040006 -3.1635435 1.2785584 0
6.0970006 -3.1699941 1.2774851 0
6.0900002 -3.176419 1.2764118 0
6.0830002 -3.1828189 1.2753385 0
6.0760002 -3.1891935 1.2742653 0
6.0690002 -3.1955428 1.273192 0
6.0620003 -3.2018671 1.2721188 0
6.0550003 -3.2081659 1.2710456 0
6.0490003 -3.2150006 1.2701256 0
6.0420003 -3.2212508 1.2690523 0
6.0350003 -3.2274759 1.267979 0
6.0280004 -3.2336755 1.2669058 0
6.0210004 -3.23985 1.2658325 0
6.0150003 -3.2465692 1.2649126 0
6.3730001 -2.9119229 1.3090283 0
6.3660002 -2.9193256 1.3079677 0
6.3580003 -2.9262199 1.3067555 0
6.3510003 -2.9335706 1.3056949 0
6.3430004 -2.9404087 1.3044827 0
6.3360004 -2.9477069 1.3034221 0
6.3280005 -2.9544895 1.30221 0
6.3200002 -2.9612427 1.3009977 0
6.3130002 -2.9684615 1.2999371 0
6.3060002 -2.9756551 1.2988764 0
6.2980003 -2.9823256 1.2976643 0
6.2910004 -2.9894669 1.2966037 0
6.2830005 -2.9960816 1.2953916 0
6.2760005 -3.0031705 1.294331 0
6.2680006 -3.0097291 1.2931188 0
6.2610002 -3.0167656 1.2920581 0
6.2540002 -3.023777 1.2909975 0
6.2460003 -3.0302529 1.2897853 0
6.2390003 -3.0372119 1.2887247 0
6.2320004 -3.0441458 1.2876641 0
6.2250004 -3.0510542 1.2866033 0
6.2170005 -3.05742 1.2853912 0
6.2100005 -3.0642765 1.2843306 0
6.2030005 -3.0711074 1.28327 0
6.1960006 -3.077913 1.2822094 0
6.1880002 -3.0841684 1.2809972 0
6.1810002 -3.0909219 1.2799364 0
6.1740003 -3.0976503 1.2788758 0
6.1670003 -3.1043532 1.2778152 0
6.1600003 -3.1110311 1.2767546 0
6.1530004 -3.1176834 1.2756939 0
6.1460004 -3.1243107 1.2746333 0
6.1390004 -3.1309125 1.2735727 0
6.1320004 -3.1374893 1.2725121 0
6.1250005 -3.1440408 1.2714514 0
6.1180005 -3.1505671 1.2703907 0
6.1110005 -3.157068 1.2693301 0
6.1040006 -3.1635435 1.2682695 0
6.0970006 -3.1699941 1.2672088 0
6.0900002 -3.176419 1.2661481 0
6.0830002 -3.1828189 1.2650875 0
6.0760002 -3.1891935 1.2640269 0
6.0690002 -3.1955428 1.2629663 0
6.0620003 -3.2018671 1.2619056 0
6.0550003 -3.2081659 1.2608449 0
6.0490003 -3.2150006 1.2599359 0
6.0420003 -3.2212508 1.2588753 0
6.0350003 -3.2274759 1.2578146 0
6.0280004 -3.2336755 1.2567539 0
6.0210004 -3.23985 1.2556933 0
6.0150003 -3.2465692 1.2547842 0
6.3730001 -2.9119229 1.2982541 0
6.3660002 -2.9193256 1.2972062 0
6.3580003 -2.9262199 1.2960085 0
6.3510003 -2.9335706 1.2949604 0
6.3430004 -2.9404087 1.2937627 0
6.3360004 -2.9477069 1.2927147 0
6.3280005 -2.9544895 1.291517 0
6.3200002 -2.9612427 1.2903192 0
6.3130002 -2.9684615 1.2892712 0
6.3060002 -2.9756551 1.2882231 0
6.2980003 -2.9823256 1.2870255 0
6.2910004 -2.9894669 1.2859775 0
6.2830005 -2.9960816 1.2847798 0
6.2760005 -3.0031705 1.2837317 0
6.2680006 -3.0097291 1.282534 0
6.2610002 -3.0167656 1.2814859 0
6.2540002 -3.023777 1.2804379 0
6.2460003 -3.0302529 1.2792403 0
6.2390003 -3.0372119 1.2781923 0
6.2320004 -3.0441458 1.2771442 0
6.2250004 -3.0510542 1.2760962 0
6.2170005 -3.05742 1.2748985 0
6.2100005 -3.0642765 1.2738504 0
6.2030005 -3.0711074 1.2728025 0
6.1960006 -3.077913 1.2717545 0
6.1880002 -3.0841684 1.2705567 0
6.1810002 -3.0909219 1.2695086 0
6.1740003 -3.0976503 1.2684606 0
6.1670003 -3.1043532 1.2674127 0
6.1600003 -3.1110311 1.2663647 0
6.1530004 -3.1176834 1.2653166 0
6.1460004 -3.1243107 1.2642686 0
6.1390004 -3.1309125 1.2632207 0
6.1320004 -3.1374893 1.2621727 0
6.1250005 -3.1440408 1.2611246 0
6.1180005 -3.1505671 1.2600765 0
6.1110005 -3.157068 1.2590286 0
6.1040006 -3.1635435 1.2579806 0
6.0970006 -3.1699941 1.2569326 0
6.0900002 -3.176419 1.2558845 0
6.0830002 -3.1828189 1.2548364 0
6.0760002 -3.1891935 1.2537885 0
6.0690002 -3.1955428 1.2527405 0
6.0620003 -3.2018671 1.2516924 0
6.0550003 -3.2081659 1.2506444 0
6.0490003 -3.2150006 1.2497461 0
6.0420003 -3.2212508 1.2486981 0
6.0350003 -3.2274759 1.2476501 0
6.0280004 -3.2336755 1.2466022 0
6.0210004 -3.23985 1.2455541 0
6.0150003 -3.2465692 1.2446558 0
6.3730001 -2.9119229 1.28748 0
6.3660002 -2.9193256 1.2864447 0
6.3580003 -2.9262199 1.2852614 0
6.3510003 -2.9335706 1.2842259 0
6.3430004 -2.9404087 1.2830427 0
6.3360004 -2.9477069 1.2820072 0
6.3280005 -2.9544895 1.2808241 0
6.3200002 -2.9612427 1.2796407 0
6.3130002 -2.9684615 1.2786052 0
6.3060002 -2.9756551 1.2775699 0
6.2980003 -2.9823256 1.2763866 0
6.2910004 -2.9894669 1.2753512 0
6.2830005 -2.9960816 1.2741679 0
6.2760005 -3.0031705 1.2731326 0
6.2680006 -3.0097291 1.2719493 0
6.2610002 -3.0167656 1.2709138 0
6.2540002 -3.023777 1.2698785 0
6.2460003 -3.0302529 1.2686951 0
6.2390003 -3.0372119 1.2676598 0
6.2320004 -3.0441458 1.2666245 0
6.2250004 -3.0510542 1.265589 0
6.2170005 -3.05742 1.2644057 0
6.2100005 -3.0642765 1.2633704 0
6.2030005 -3.0711074 1.2623349 0
6.1960006 -3.077913 1.2612996 0
6.1880002 -3.0841684 1.2601162 0
6.1810002 -3.0909219 1.2590809 0
6.1740003 -3.0976503 1.2580454 0
6.1670003 -3.1043532 1.2570101 0
6.1600003 -3.1110311 1.2559747 0
6.1530004 -3.1176834 1.2549393 0
6.1460004 -3.1243107 1.253904 0
6.1390004 -3.1309125 1.2528685 0
6.1320004 -3.1374893 1.2518332 0
6.1250005 -3.1440408 1.2507979 0
6.1180005 -3.1505671 1.2497624 0
6.1110005 -3.157068 1.2487271 0
6.1040006 -3.1635435 1.2476916 0
6.0970006 -3.1699941 1.2466563 0
6.0900002 -3.176419 1.2456208 0
6.0830002 -3.1828189 1.2445855 0
6.0760002 -3.1891935 1.2435501 0
6.0690002 -3.1955428 1.2425146 0
6.0620003 -3.2018671 1.2414793 0
6.0550003 -3.2081659 1.2404439 0
6.0490003 -3.2150006 1.2395564 0
6.0420003 -3.2212508 1.2385211 0
6.0350003 -3.2274759 1.2374856 0
6.0280004 -3.2336755 1.2364503 0
6.0210004 -3.23985 1.235415 0
6.0150003 -3.2465692 1.2345275 0
6.3730001 -2.9119229 1.2767059 0
6.3660002 -2.9193256 1.275683 0
6.3580003 -2.9262199 1.2745143 0
6.3510003 -2.9335706 1.2734915 0
6.3430004 -2.9404087 1.2723227 0
6.3360004 -2.9477069 1.2713 0
6.3280005 -2.9544895 1.270131 0
6.3200002 -2.9612427 1.2689621 0
6.3130002 -2.9684615 1.2679393 0
6.3060002 -2.9756551 1.2669166 0
6.2980003 -2.9823256 1.2657477 0
6.2910004 -2.9894669 1.264725 0
6.2830005 -2.9960816 1.2635561 0
6.2760005 -3.0031705 1.2625334 0
6.2680006 -3.0097291 1.2613646 0
6.2610002 -3.0167656 1.2603416 0
6.2540002 -3.023777 1.2593189 0
6.2460003 -3.0302529 1.2581501 0
6.2390003 -3.0372119 1.2571273 0
6.2320004 -3.0441458 1.2561046 0
6.2250004 -3.0510542 1.2550818 0
6.2170005 -3.05742 1.2539129 0
6.2100005 -3.0642765 1.2528902 0
6.2030005 -3.0711074 1.2518674 0
6.1960006 -3.077913 1.2508447 0
6.1880002 -3.0841684 1.2496758 0
6.1810002 -3.0909219 1.2486531 0
6.1740003 -3.0976503 1.2476302 0
6.1670003 -3.1043532 1.2466075 0
6.1600003 -3.1110311 1.2455848 0
6.1530004 -3.1176834 1.244562 0
6.1460004 -3.1243107 1.2435392 0
6.1390004 -3.1309125 1.2425165 0
6.1320004 -3.1374893 1.2414937 0
6.1250005 -3.1440408 1.240471 0
6.1180005 -3.1505671 1.2394482 0
6.1110005 -3.157068 1.2384255 0
6.1040006 -3.1635435 1.2374028 0
6.0970006 -3.1699941 1.23638 0
6.0900002 -3.176419 1.2353572 0
6.0830002 -3.1828189 1.2343343 0
6.0760002 -3.1891935 1.2333117 0
6.0690002 -3.1955428 1.232289 0
6.0620003 -3.2018671 1.2312661 0
6.0550003 -3.2081659 1.2302434 0
6.0490003 -3.2150006 1.2293667 0
6.0420003 -3.2212508 1.228344 0
6.0350003 -3.2274759 1.2273213 0
6.0280004 -3.2336755 1.2262985 0
6.0210004 -3.23985 1.2252758 0
6.0150003 -3.2465692 1.2243991 0
6.3730001 -2.9119229 1.2659317 0
6.3660002 -2.9193256 1.2649215 0
6.3580003 -2.9262199 1.2637671 0
6.3510003 -2.9335706 1.2627571 0
6.3430004 -2.9404087 1.2616026 0
6.3360004 -2.9477069 1.2605925 0
6.3280005 -2.9544895 1.259438 0
6.3210006 -2.9617352 1.258428 0
6.3130002 -2.9684615 1.2572734 0
6.3060002 -2.9756551 1.2562633 0
6.2980003 -2.9823256 1.255109 0
6.2910004 -2.9894669 1.2540988 0
6.2830005 -2.9960816 1.2529444 0
6.2760005 -3.0031705 1.2519342 0
6.2680006 -3.0097291 1.2507797 0
6.2610002 -3.0167656 1.2497696 0
6.2540002 -3.023777 1.2487595 0
6.2460003 -3.0302529 1.2476051 0
6.2390003 -3.0372119 1.2465949 0
6.2320004 -3.0441458 1.2455848 0
6.2250004 -3.0510542 1.2445747 0
6.2170005 -3.05742 1.2434202 0
6.2100005 -3.0642765 1.2424102 0
6.2030005 -3.0711074 1.2414 0
6.1960006 -3.077913 1.2403898 0
6.1890006 -3.0846937 1.2393798 0
6.1810002 -3.0909219 1.2382252 0
6.1740003 -3.0976503 1.237215 0
6.1670003 -3.1043532 1.236205 0
6.1600003 -3.1110311 1.2351948 0
6.1530004 -3.1176834 1.2341847 0
6.1460004 -3.1243107 1.2331746 0
6.1390004 -3.1309125 1.2321645 0
6.1320004 -3.1374893 1.2311543 0
6.1250005 -3.1440408 1.2301441 0
6.1180005 -3.1505671 1.2291341 0
6.1110005 -3.157068 1.2281239 0
6.1040006 -3.1635435 1.2271138 0
6.0970006 -3.1699941 1.2261037 0
6.0900002 -3.176419 1.2250935 0
6.0830002 -3.1828189 1.2240834 0
6.0760002 -3.1891935 1.2230732 0
6.0690002 -3.1955428 1.2220631 0
6.0620003 -3.2018671 1.221053 0
6.0550003 -3.2081659 1.2200428 0
6.0490003 -3.2150006 1.219177 0
6.0420003 -3.2212508 1.2181669 0
6.0350003 -3.2274759 1.2171568 0
6.0280004 -3.2336755 1.2161466 0
6.0210004 -3.23985 1.2151365 0
6.0150003 -3.2465692 1.2142707 0
6.3730001 -2.9119229 1.2551576 0
6.3660002 -2.9193256 1.25416 0
6.3580003 -2.9262199 1.25302 0
6.3510003 -2.9335706 1.2520226 0
6.3430004 -2.9404087 1.2508826 0
6.3360004 -2.9477069 1.2498851 0
6.3280005 -2.9544895 1.2487451 0
6.3210006 -2.9617352 1.2477475 0
6.3130002 -2.9684615 1.2466075 0
6.3060002 -2.9756551 1.24561 0
6.2980003 -2.9823256 1.24447 0
6.2910004 -2.9894669 1.2434725 0
6.2830005 -2.9960816 1.2423325 0
6.2760005 -3.0031705 1.241335 0
6.2680006 -3.0097291 1.240195 0
6.2610002 -3.0167656 1.2391975 0
6.2540002 -3.023777 1.2381999 0
6.2460003 -3.0302529 1.23706 0
6.2390003 -3.0372119 1.2360624 0
6.2320004 -3.0441458 1.235065 0
6.2250004 -3.0510542 1.2340674 0
6.2170005 -3.05742 1.2329274 0
6.2100005 -3.0642765 1.2319299 0
6.2030005 -3.0711074 1.2309325 0
6.1960006 -3.077913 1.2299349 0
6.1890006 -3.0846937 1.2289375 0
6.1810002 -3.0909219 1.2277974 0
6.1740003 -3.0976503 1.2268 0
6.1670003 -3.1043532 1.2258024 0
6.1600003 -3.1110311 1.2248049 0
6.1530004 -3.1176834 1.2238075 0
6.1460004 -3.1243107 1.2228099 0
6.1390004 -3.1309125 1.2218124 0
6.1320004 -3.1374893 1.2208149 0
6.1250005 -3.1440408 1.2198174 0
6.1180005 -3.1505671 1.21882 0
6.1110005 -3.157068 1.2178224 0
6.1040006 -3.1635435 1.2168249 0
6.0970006 -3.1699941 1.2158275 0
6.0900002 -3.176419 1.2148298 0
6.0830002 -3.1828189 1.2138323 0
6.0760002 -3.1891935 1.2128348 0
6.0690002 -3.1955428 1.2118373 0
6.0620003 -3.2018671 1.2108397 0
6.0550003 -3.2081659 1.2098423 0
6.0490003 -3.2150006 1.2089874 0
6.0420003 -3.2212508 1.2079898 0
6.0350003 -3.2274759 1.2069923 0
6.0280004 -3.2336755 1.2059948 0
6.0210004 -3.23985 1.2049973 0
6.0150003 -3.2465692 1.2041423 0
6.3730001 -2.9119229 1.2443835 0
6.3660002 -2.9193256 1.2433985 0
6.3580003 -2.9262199 1.242273 0
6.3510003 -2.9335706 1.2412881 0
6.3430004 -2.9404087 1.2401625 0
6.3360004 -2.9477069 1.2391777 0
6.3280005 -2.9544895 1.2380521 0
6.3210006 -2.9617352 1.2370672 0
6.3130002 -2.9684615 1.2359416 0
6.3060002 -2.9756551 1.2349567 0
6.2980003 -2.9823256 1.2338312 0
6.2910004 -2.9894669 1.2328463 0
6.2830005 -2.9960816 1.2317207 0
6.2760005 -3.0031705 1.2307359 0
6.2680006 -3.0097291 1.2296103 0
6.2610002 -3.0167656 1.2286254 0
6.2540002 -3.023777 1.2276405 0
6.2460003 -3.0302529 1.2265149 0
6.2390003 -3.0372119 1.22553 0
6.2320004 -3.0441458 1.2245451 0
6.2250004 -3.0510542 1.2235603 0
6.2170005 -3.05742 1.2224348 0
6.2100005 -3.0642765 1.2214499 0
6.2030005 -3.0711074 1.2204649 0
6.1960006 -3.077913 1.2194802 0
6.1890006 -3.0846937 1.2184952 0
6.1810002 -3.0909219 1.2173696 0
6.1740003 -3.0976503 1.2163848 0
6.1670003 -3.1043532 1.2153999 0
6.1600003 -3.1110311 1.214415 0
6.1530004 -3.1176834 1.21343 0
6.1460004 -3.1243107 1.2124453 0
6.1390004 -3.1309125 1.2114604 0
6.1320004 -3.1374893 1.2104754 0
6.1250005 -3.1440408 1.2094905 0
6.1180005 -3.1505671 1.2085057 0
6.1110005 -3.157068 1.2075208 0
6.1040006 -3.1635435 1.2065359 0
6.0970006 -3.1699941 1.205551 0
6.0900002 -3.176419 1.2045661 0
6.0830002 -3.1828189 1.2035813 0
6.0760002 -3.1891935 1.2025964 0
6.0690002 -3.1955428 1.2016115 0
6.0620003 -3.2018671 1.2006266 0
6.0550003 -3.2081659 1.1996418 0
6.0490003 -3.2150006 1.1987976 0
6.0420003 -3.2212508 1.1978127 0
6.0350003 -3.2274759 1.1968279 0
6.0280004 -3.2336755 1.195843 0
6.0210004 -3.23985 1.1948581 0
6.0150003 -3.2465692 1.194014 0
6.3740005 -2.9124029 1.2337482 0
6.3660002 -2.9193256 1.232637 0
6.3580003 -2.9262199 1.2315259 0
6.3510003 -2.9335706 1.2305536 0
6.3430004 -2.9404087 1.2294425 0
6.3360004 -2.9477069 1.2284702 0
6.3280005 -2.9544895 1.2273591 0
6.3210006 -2.9617352 1.2263869 0
6.3130002 -2.9684615 1.2252756 0
6.3060002 -2.9756551 1.2243035 0
6.2980003 -2.9823256 1.2231923 0
6.2910004 -2.9894669 1.2222201 0
6.2830005 -2.9960816 1.2211089 0
6.2760005 -3.0031705 1.2201366 0
6.2680006 -3.0097291 1.2190255 0
6.2610002 -3.0167656 1.2180532 0
6.2540002 -3.023777 1.217081 0
6.2460003 -3.0302529 1.2159699 0
6.2390003 -3.0372119 1.2149976 0
6.2320004 -3.0441458 1.2140254 0
6.2250004 -3.0510542 1.2130531 0
6.2170005 -3.05742 1.211942 0
6.2100005 -3.0642765 1.2109697 0
6.2030005 -3.0711074 1.2099974 0
6.1960006 -3.077913 1.2090251 0
6.1890006 -3.0846937 1.208053 0
6.1810002 -3.0909219 1.2069418 0
6.1740003 -3.0976503 1.2059696 0
6.1670003 -3.1043532 1.2049973 0
6.1600003 -3.1110311 1.204025 0
6.1530004 -3.1176834 1.2030528 0
6.1460004 -3.1243107 1.2020805 0
6.1390004 -3.1309125 1.2011082 0
6.1320004 -3.1374893 1.2001361 0
6.1250005 -3.1440408 1.1991638 0
6.1180005 -3.1505671 1.1981915 0
6.1110005 -3.157068 1.1972193 0
6.1040006 -3.1635435 1.1962471 0
6.0970006 -3.1699941 1.1952748 0
6.0900002 -3.176419 1.1943024 0
6.0830002 -3.1828189 1.1933303 0
6.0760002 -3.1891935 1.192358 0
6.0690002 -3.1955428 1.1913857 0
6.0620003 -3.2018671 1.1904135 0
6.0550003 -3.2081659 1.1894413 0
6.0490003 -3.2150006 1.1886079 0
6.0420003 -3.2212508 1.1876357 0
6.0350003 -3.2274759 1.1866634 0
6.0280004 -3.2336755 1.1856911 0
6.0210004 -3.23985 1.1847188 0
6.0150003 -3.2465692 1.1838855 0
6.3740005 -2.9124029 1.2229723 0
6.3660002 -2.9193256 1.2218755 0
6.3580003 -2.9262199 1.2207788 0
6.3510003 -2.9335706 1.2198192 0
6.3430004 -2.9404087 1.2187225 0
6.3360004 -2.9477069 1.2177628 0
6.3280005 -2.9544895 1.2166662 0
6.3210006 -2.9617352 1.2157065 0
6.3130002 -2.9684615 1.2146097 0
6.3060002 -2.9756551 1.2136501 0
6.2980003 -2.9823256 1.2125534 0
6.2910004 -2.9894669 1.2115939 0
6.2830005 -2.9960816 1.2104971 0
6.2760005 -3.0031705 1.2095375 0
6.2680006 -3.0097291 1.2084408 0
6.2610002 -3.0167656 1.2074811 0
6.2540002 -3.023777 1.2065215 0
6.2460003 -3.0302529 1.2054248 0
6.2390003 -3.0372119 1.2044652 0
6.2320004 -3.0441458 1.2035055 0
6.2250004 -3.0510542 1.2025459 0
6.2170005 -3.05742 1.2014493 0
6.2100005 -3.0642765 1.2004896 0
6.2030005 -3.0711074 1.19953 0
6.1960006 -3.077913 1.1985704 0
6.1890006 -3.0846937 1.1976107 0
6.1810002 -3.0909219 1.196514 0
6.1740003 -3.0976503 1.1955544 0
6.1670003 -3.1043532 1.1945947 0
6.1600003 -3.1110311 1.1936351 0
6.1530004 -3.1176834 1.1926755 0
6.1460004 -3.1243107 1.1917158 0
6.1390004 -3.1309125 1.1907562 0
6.1320004 -3.1374893 1.1897966 0
6.1250005 -3.1440408 1.1888371 0
6.1180005 -3.1505671 1.1878773 0
6.1110005 -3.157068 1.1869178 0
6.1040006 -3.1635435 1.1859581 0
6.0970006 -3.1699941 1.1849985 0
6.0900002 -3.176419 1.1840388 0
6.0830002 -3.1828189 1.1830792 0
6.0760002 -3.1891935 1.1821196 0
6.0690002 -3.1955428 1.18116 0
6.0620003 -3.2018671 1.1802003 0
6.0550003 -3.2081659 1.1792407 0
6.0490003 -3.2150006 1.1784182 0
6.0420003 -3.2212508 1.1774585 0
6.0350003 -3.2274759 1.1764989 0
6.0280004 -3.2336755 1.1755393 0
6.0210004 -3.23985 1.1745796 0
6.0150003 -3.2465692 1.1737572 0
6.3740005 -2.9124029 1.2121964 0
6.3660002 -2.9193256 1.211114 0
6.3580003 -2.9262199 1.2100317 0
6.3510003 -2.9335706 1.2090847 0
6.3430004 -2.9404087 1.2080024 0
6.3360004 -2.9477069 1.2070554 0
6.3280005 -2.9544895 1.2059731 0
6.3210006 -2.9617352 1.2050261 0
6.3130002 -2.9684615 1.2039438 0
6.3060002 -2.9756551 1.2029969 0
6.2980003 -2.9823256 1.2019145 0
6.2910004 -2.9894669 1.2009676 0
6.2830005 -2.9960816 1.1998854 0
6.2760005 -3.0031705 1.1989384 0
6.2690005 -3.0102341 1.1979913 0
6.2610002 -3.0167656 1.196909 0
6.2540002 -3.023777 1.1959621 0
6.2460003 -3.0302529 1.1948798 0
6.2390003 -3.0372119 1.1939328 0
6.2320004 -3.0441458 1.1929858 0
6.2250004 -3.0510542 1.1920388 0
6.2170005 -3.05742 1.1909565 0
6.2100005 -3.0642765 1.1900095 0
6.2030005 -3.0711074 1.1890625 0
6.1960006 -3.077913 1.1881155 0
6.1890006 -3.0846937 1.1871685 0
6.1810002 -3.0909219 1.1860862 0
6.1740003 -3.0976503 1.1851392 0
6.1670003 -3.1043532 1.1841922 0
6.1600003 -3.1110311 1.1832452 0
6.1530004 -3.1176834 1.1822982 0
6.1460004 -3.1243107 1.1813512 0
6.1390004 -3.1309125 1.1804042 0
6.1320004 -3.1374893 1.1794572 0
6.1250005 -3.1440408 1.1785102 0
6.1180005 -3.1505671 1.1775632 0
6.1110005 -3.157068 1.1766162 0
6.1040006 -3.1635435 1.1756692 0
6.0970006 -3.1699941 1.1747222 0
6.0900002 -3.176419 1.1737752 0
6.0830002 -3.1828189 1.1728282 0
6.0760002 -3.1891935 1.1718812 0
6.0690002 -3.1955428 1.1709342 0
6.0620003 -3.2018671 1.1699872 0
6.0550003 -3.2081659 1.1690402 0
6.0490003 -3.2150006 1.1682285 0
6.0420003 -3.2212508 1.1672815 0
6.0350003 -3.2274759 1.1663345 0
6.0280004 -3.2336755 1.1653874 0
6.0210004 -3.23985 1.1644405 0
6.0150003 -3.2465692 1.1636288 0
6.3740005 -2.9124029 1.2014203 0
6.3660002 -2.9193256 1.2003524 0
6.3580003 -2.9262199 1.1992847 0
6.3510003 -2.9335706 1.1983503 0
6.3430004 -2.9404087 1.1972824 0
6.3360004 -2.9477069 1.1963481 0
6.3280005 -2.9544895 1.1952802 0
6.3210006 -2.9617352 1.1943458 0
6.3130002 -2.9684615 1.193278 0
6.3060002 -2.9756551 1.1923436 0
6.2980003 -2.9823256 1.1912757 0
6.2910004 -2.9894669 1.1903414 0
6.2830005 -2.9960816 1.1892735 0
6.2760005 -3.0031705 1.1883391 0
6.2690005 -3.0102341 1.1874048 0
6.2610002 -3.0167656 1.1863369 0
6.2540002 -3.023777 1.1854025 0
6.2460003 -3.0302529 1.1843346 0
6.2390003 -3.0372119 1.1834003 0
6.2320004 -3.0441458 1.1824659 0
6.2250004 -3.0510542 1.1815315 0
6.2170005 -3.05742 1.1804637 0
6.2100005 -3.0642765 1.1795293 0
6.2030005 -3.0711074 1.1785949 0
6.1960006 -3.077913 1.1776606 0
6.1890006 -3.0846937 1.1767262 0
6.1810002 -3.0909219 1.1756583 0
6.1740003 -3.0976503 1.174724 0
6.1670003 -3.1043532 1.1737896 0
6.1600003 -3.1110311 1.1728553 0
6.1530004 -3.1176834 1.1719209 0
6.1460004 -3.1243107 1.1709864 0
6.1390004 -3.1309125 1.1700522 0
6.1320004 -3.1374893 1.1691178 0
6.1250005 -3.1440408 1.1681833 0
6.1180005 -3.1505671 1.167249 0
6.1110005 -3.157068 1.1663147 0
6.1040006 -3.1635435 1.1653802 0
6.0970006 -3.1699941 1.1644459 0
6.0900002 -3.176419 1.1635115 0
6.0830002 -3.1828189 1.162577 0
6.0760002 -3.1891935 1.1616428 0
6.0690002 -3.1955428 1.1607084 0
6.0620003 -3.2018671 1.1597739 0
6.0550003 -3.2081659 1.1588396 0
6.0490003 -3.2150006 1.1580387 0
6.0420003 -3.2212508 1.1571044 0
6.0350003 -3.2274759 1.15617 0
6.0280004 -3.2336755 1.1552356 0
6.0210004 -3.23985 1.1543013 0
6.0150003 -3.2465692 1.1535003 0
6.3740005 -2.9124029 1.1906444 0
6.3660002 -2.9193256 1.1895909 0
6.3580003 -2.9262199 1.1885376 0
6.3510003 -2.9335706 1.1876158 0
6.3430004 -2.9404087 1.1865624 0
6.3360004 -2.9477069 1.1856407 0
6.3280005 -2.9544895 1.1845872 0
6.3210006 -2.9617352 1.1836655 0
6.3130002 -2.9684615 1.1826121 0
6.3060002 -2.9756551 1.1816902 0
6.2980003 -2.9823256 1.1806369 0
6.2910004 -2.9894669 1.1797152 0
6.2830005 -2.9960816 1.1786617 0
6.2760005 -3.0031705 1.17774 0
6.2690005 -3.0102341 1.1768183 0
6.2610002 -3.0167656 1.1757647 0
6.2540002 -3.023777 1.1748431 0
6.2460003 -3.0302529 1.1737896 0
6.2390003 -3.0372119 1.1728679 0
6.2320004 -3.0441458 1.1719462 0
6.2250004 -3.0510542 1.1710243 0
6.2170005 -3.05742 1.169971 0
6.2100005 -3.0642765 1.1690493 0
6.2030005 -3.0711074 1.1681274 0
6.1960006 -3.077913 1.1672057 0
6.1890006 -3.0846937 1.166284 0
6.1810002 -3.0909219 1.1652305 0
6.1740003 -3.0976503 1.1643088 0
6.1670003 -3.1043532 1.1633871 0
6.1600003 -3.1110311 1.1624653 0
6.1530004 -3.1176834 1.1615436 0
6.1460004 -3.1243107 1.1606218 0
6.1390004 -3.1309125 1.1597 0
6.1320004 -3.1374893 1.1587783 0
6.1250005 -3.1440408 1.1578566 0
6.1180005 -3.1505671 1.1569349 0
6.1110005 -3.157068 1.1560131 0
6.1040006 -3.1635435 1.1550914 0
6.0970006 -3.1699941 1.1541697 0
6.0900002 -3.176419 1.1532478 0
6.0830002 -3.1828189 1.1523261 0
6.0760002 -3.1891935 1.1514044 0
6.0690002 -3.1955428 1.1504825 0
6.0620003 -3.2018671 1.1495608 0
6.0550003 -3.2081659 1.1486391 0
6.0490003 -3.2150006 1.1478491 0
6.0420003 -3.2212508 1.1469274 0
6.0350003 -3.2274759 1.1460055 0
6.0280004 -3.2336755 1.1450838 0
6.0210004 -3.23985 1.1441621 0
6.0150003 -3.2465692 1.1433719 0
6.3660002 -2.9193256 1.1788294 0
6.3580003 -2.9262199 1.1777904 0
6.3510003 -2.9335706 1.1768813 0
6.3430004 -2.9404087 1.1758424 0
6.3360004 -2.9477069 1.1749332 0
6.3280005 -2.9544895 1.1738943 0
6.3210006 -2.9617352 1.1729852 0
6.3130002 -2.9684615 1.1719462 0
6.3060002 -2.9756551 1.171037 0
6.2980003 -2.9823256 1.1699979 0
6.2910004 -2.9894669 1.1690888 0
6.2830005 -2.9960816 1.1680499 0
6.2760005 -3.0031705 1.1671407 0
6.2690005 -3.0102341 1.1662316 0
6.2610002 -3.0167656 1.1651926 0
6.2540002 -3.023777 1.1642835 0
6.2470002 -3.0307631 1.1633744 0
6.2390003 -3.0372119 1.1623354 0
6.2320004 -3.0441458 1.1614263 0
6.2250004 -3.0510542 1.1605172 0
6.2170005 -3.05742 1.1594782 0
6.2100005 -3.0642765 1.1585691 0
6.2030005 -3.0711074 1.15766 0
6.1960006 -3.077913 1.1567509 0
6.1890006 -3.0846937 1.1558417 0
6.1810002 -3.0909219 1.1548027 0
6.1740003 -3.0976503 1.1538936 0
6.1670003 -3.1043532 1.1529845 0
6.1600003 -3.1110311 1.1520754 0
6.1530004 -3.1176834 1.1511662 0
6.1460004 -3.1243107 1.1502571 0
6.1390004 -3.1309125 1.149348 0
6.1320004 -3.1374893 1.1484389 0
6.1250005 -3.1440408 1.1475297 0
6.1180005 -3.1505671 1.1466208 0
6.1110005 -3.157068 1.1457115 0
6.1040006 -3.1635435 1.1448025 0
6.0970006 -3.1699941 1.1438932 0
6.0900002 -3.176419 1.1429842 0
6.0830002 -3.1828189 1.1420751 0
6.0760002 -3.1891935 1.1411659 0
6.0690002 -3.1955428 1.1402568 0
6.0620003 -3.2018671 1.1393477 0
6.0550003 -3.2081659 1.1384386 0
6.0490003 -3.2150006 1.1376593 0
6.0420003 -3.2212508 1.1367502 0
6.0350003 -3.2274759 1.1358411 0
6.0280004 -3.2336755 1.1349319 0
6.0210004 -3.23985 1.1340228 0
6.0150003 -3.2465692 1.1332437 0
6.3660002 -2.9193256 1.1680679 0
6.3580003 -2.9262199 1.1670433 0
6.3510003 -2.9335706 1.1661469 0
6.3430004 -2.9404087 1.1651224 0
6.3360004 -2.9477069 1.1642258 0
6.3280005 -2.9544895 1.1632013 0
6.3210006 -2.9617352 1.1623048 0
6.3130002 -2.9684615 1.1612802 0
6.3060002 -2.9756551 1.1603837 0
6.2980003 -2.9823256 1.1593591 0
6.2910004 -2.9894669 1.1584626 0
6.2830005 -2.9960816 1.157438 0
6.2760005 -3.0031705 1.1565416 0
6.2690005 -3.0102341 1.1556451 0
6.2610002 -3.0167656 1.1546205 0
6.2540002 -3.023777 1.153724 0
6.2470002 -3.0307631 1.1528275 0
6.2390003 -3.0372119 1.151803 0
6.2320004 -3.0441458 1.1509064 0
6.2250004 -3.0510542 1.15001 0
6.2170005 -3.05742 1.1489854 0
6.2100005 -3.0642765 1.1480889 0
6.2030005 -3.0711074 1.1471925 0
6.1960006 -3.077913 1.146296 0
6.1890006 -3.0846937 1.1453996 0
6.1810002 -3.0909219 1.1443748 0
6.1740003 -3.0976503 1.1434784 0
6.1670003 -3.1043532 1.1425819 0
6.1600003 -3.1110311 1.1416855 0
6.1530004 -3.1176834 1.1407889 0
6.1460004 -3.1243107 1.1398925 0
6.1390004 -3.1309125 1.138996 0
6.1320004 -3.1374893 1.1380994 0
6.1250005 -3.1440408 1.137203 0
6.1180005 -3.1505671 1.1363065 0
6.1110005 -3.157068 1.13541 0
6.1040006 -3.1635435 1.1345135 0
6.0970006 -3.1699941 1.133617 0
6.0900002 -3.176419 1.1327205 0
6.0830002 -3.1828189 1.131824 0
6.0760002 -3.1891935 1.1309274 0
6.0690002 -3.1955428 1.130031 0
6.0620003 -3.2018671 1.1291345 0
6.0550003 -3.2081659 1.128238 0
6.0490003 -3.2150006 1.1274697 0
6.0420003 -3.2212508 1.1265731 0
6.0350003 -3.2274759 1.1256766 0
6.0280004 -3.2336755 1.1247802 0
6.0210004 -3.23985 1.1238837 0
6.0150003 -3.2465692 1.1231152 0
6.3660002 -2.9193256 1.1573063 0
6.3580003 -2.9262199 1.1562963 0
6.3510003 -2.9335706 1.1554124 0
6.3430004 -2.9404087 1.1544023 0
6.3360004 -2.9477069 1.1535184 0
6.3280005 -2.9544895 1.1525083 0
6.3210006 -2.9617352 1.1516244 0
6.3130002 -2.9684615 1.1506143 0
6.3060002 -2.9756551 1.1497304 0
6.2980003 -2.9823256 1.1487203 0
6.2910004 -2.9894669 1.1478364 0
6.2830005 -2.9960816 1.1468263 0
6.2760005 -3.0031705 1.1459424 0
6.2690005 -3.0102341 1.1450585 0
6.2610002 -3.0167656 1.1440485 0
6.2540002 -3.023777 1.1431645 0
6.2470002 -3.0307631 1.1422807 0
6.2390003 -3.0372119 1.1412705 0
