# .PCD v0.7 - Point Cloud Data file format
VERSION 0.7
FIELDS x y z intensity
SIZE 4 4 4 4
TYPE F F F F
COUNT 1 1 1 1
WIDTH 1390
HEIGHT 1
VIEWPOINT 0 0 0 1 0 0 0
POINTS 1390
DATA ascii
2.8320003 0.32688326 0.62334311 0
2.8320003 0.32249638 0.62334311 0
2.8340001 0.31840894 0.62352347 0
2.8350003 0.3141664 0.62361366 0
2.8370001 0.31006631 0.62379402 0
2.8400002 0.30610338 0.62406462 0
2.8400002 0.30170208 0.62406462 0
2.8390002 0.29716006 0.62397444 0
2.8380003 0.2926217 0.62388426 0
2.8380003 0.28822401 0.62388426 0
2.8370001 0.28369105 0.62379402 0
2.8370001 0.27929515 0.62379402 0
2.8370001 0.27489927 0.62379402 0
2.8370001 0.2705034 0.62379402 0
2.8370001 0.26610753 0.62379402 0
2.8370001 0.26171163 0.62379402 0
2.8370001 0.25731575 0.62379402 0
2.8380003 0.25304255 0.62388426 0
2.8380003 0.24864486 0.62388426 0
2.8380003 0.2442472 0.62388426 0
2.8390002 0.23996672 0.62397444 0
2.8400002 0.2356827 0.62406462 0
2.8410003 0.23139507 0.62415481 0
2.8420002 0.22710377 0.62424499 0
2.8420002 0.22269887 0.62424499 0
2.8440001 0.21851042 0.62442535 0
2.8450003 0.21420833 0.62451559 0
2.8460002 0.20990267 0.62460577 0
2.8470001 0.20559335 0.62469596 0
2.8490002 0.20138149 0.62487632 0
2.8510003 0.19716237 0.62505674 0
2.8520002 0.19283864 0.62514693 0
2.8540003 0.18860692 0.62532729 0
2.8560002 0.18436795 0.62550765 0
2.8590002 0.18021378 0.6257782 0
2.8610003 0.1759586 0.62595862 0
2.8630002 0.1716962 0.62613899 0
2.8660002 0.16751316 0.62640953 0
2.8690002 0.16331932 0.62668014 0
2.8720002 0.15911464 0.62695074 0
2.8760002 0.15498032 0.62731147 0
2.8810003 0.15091093 0.62776244 0
2.8860002 0.14682348 0.62821341 0
2.8930001 0.14286953 0.62884474 0
2.8990002 0.053169768 0.62938583 0
2.8920002 0.048396889 0.6287545 0
2.8870003 0.043721426 0.62830359 0
2.8830001 0.039098259 0.6279428 0
2.8800001 0.034521993 0.6276722 0
2.8780003 0.029987227 0.62749183 0
2.8760002 0.025459666 0.62731147 0
2.8750002 0.020966385 0.62722129 0
2.8740003 0.016476702 0.6271311 0
2.8730001 0.011990633 0.62704086 0
2.8740003 0.0075514615 0.6271311 0
2.8740003 0.0030888394 0.6271311 0
2.8750002 -0.0013557449 0.62722129 0
2.8760002 -0.005803939 0.62731147 0
2.8780003 -0.010241304 0.62749183 0
2.8800001 -0.014685888 0.6276722 0
2.8820002 -0.019137688 0.62785262 0
2.8860002 -0.023578664 0.62821341 0
2.8900001 -0.028034071 0.62857413 0
2.8960001 -0.032493085 0.62911528 0
2.9050002 -0.036962919 0.62992698 0
2.8840003 -0.1580165 0.62803304 0
2.8730001 -0.16198127 0.62704086 0
2.8730001 -0.16644208 0.62704086 0
2.8740003 -0.17095341 0.6271311 0
2.8750002 -0.17546834 0.62722129 0
2.8750002 -0.17993277 0.62722129 0
2.8760002 -0.18445311 0.62731147 0
2.8770003 -0.18897706 0.62740171 0
2.8770003 -0.1934451 0.62740171 0
2.8780003 -0.19797446 0.62749183 0
2.8470001 0.36890835 0.62028205 0
2.8400002 0.36332014 0.61966336 0
2.8360002 0.35825509 0.61930978 0
2.8330002 0.35336855 0.6190446 0
2.8300002 0.34849286 0.61877942 0
2.8290002 0.34394908 0.61869109 0
2.8280003 0.3394089 0.61860269 0
2.8270001 0.33487228 0.6185143 0
2.8270001 0.33049443 0.6185143 0
2.8270001 0.32611659 0.6185143 0
2.8280003 0.32189029 0.61860269 0
2.8290002 0.31766036 0.61869109 0
2.8300002 0.31342682 0.61877942 0
2.8330002 0.30948189 0.6190446 0
2.8350003 0.30538186 0.61922139 0
2.8370001 0.30127457 0.61939818 0
2.8370001 0.29687867 0.61939818 0
2.8360002 0.29234391 0.61930978 0
2.8360002 0.28794983 0.61930978 0
2.8360002 0.28355578 0.61930978 0
2.8360002 0.27916169 0.61930978 0
2.8360002 0.27476761 0.61930978 0
2.8360002 0.27037355 0.61930978 0
2.8360002 0.26597947 0.61930978 0
2.8360002 0.26158535 0.61930978 0
2.8370001 0.25731575 0.61939818 0
2.8370001 0.25291988 0.61939818 0
2.8380003 0.24864486 0.61948657 0
2.8390002 0.24436623 0.61957496 0
2.8390002 0.23996672 0.61957496 0
2.8400002 0.2356827 0.61966336 0
2.8410003 0.23139507 0.61975169 0
2.8420002 0.22710377 0.61984009 0
2.8430002 0.22280893 0.61992848 0
2.8450003 0.21861866 0.62010527 0
2.8460002 0.21431479 0.62019366 0
2.8470001 0.21000725 0.62028205 0
2.8490002 0.20579898 0.62045884 0
2.8510003 0.2015835 0.62063563 0
2.8530002 0.19736078 0.62081236 0
2.8550003 0.19313085 0.62098914 0
2.8570001 0.18889371 0.62116587 0
2.8590002 0.18464935 0.62134266 0
2.8620002 0.18048976 0.62160784 0
2.8640003 0.17622918 0.62178463 0
2.8670001 0.17204975 0.62204975 0
2.8710003 0.16794609 0.62240332 0
2.8740003 0.16374321 0.6226685 0
2.8790002 0.15969546 0.62311041 0
2.8840003 0.15562968 0.62355232 0
2.8910003 0.15170459 0.62417102 0
2.8990002 0.053169768 0.62487817 0
2.8920002 0.048396889 0.62425941 0
2.8870003 0.043721426 0.6238175 0
2.8830001 0.039098259 0.62346393 0
2.8800001 0.034521993 0.62319881 0
2.8780003 0.029987227 0.62302202 0
2.8760002 0.025459666 0.62284523 0
2.8750002 0.020966385 0.62275684 0
2.8740003 0.016476702 0.6226685 0
2.8730001 0.011990633 0.62258005 0
2.8740003 0.0075514615 0.6226685 0
2.8740003 0.0030888394 0.6226685 0
2.8750002 -0.0013557449 0.62275684 0
2.8760002 -0.005803939 0.62284523 0
2.8780003 -0.010241304 0.62302202 0
2.8800001 -0.014685888 0.62319881 0
2.8820002 -0.019137688 0.62337554 0
2.8860002 -0.023578664 0.62372911 0
2.8900001 -0.028034071 0.62408268 0
2.8960001 -0.032493085 0.62461299 0
2.9050002 -0.036962919 0.62540847 0
2.8840003 -0.1580165 0.62355232 0
2.8730001 -0.16198127 0.62258005 0
2.8730001 -0.16644208 0.62258005 0
2.8740003 -0.17095341 0.6226685 0
2.8750002 -0.17546834 0.62275684 0
2.8750002 -0.17993277 0.62275684 0
2.8760002 -0.18445311 0.62284523 0
2.8770003 -0.18897706 0.62293363 0
2.8770003 -0.1934451 0.62293363 0
2.8780003 -0.19797446 0.62302202 0
2.8470001 0.37332225 0.61586809 0
2.8390002 0.36755189 0.61517549 0
2.8340001 0.36231363 0.61474252 0
2.8310003 0.35742533 0.61448282 0
2.8280003 0.35254782 0.61422306 0
2.8260002 0.3478435 0.61404991 0
2.8250003 0.3433069 0.61396331 0
2.8240001 0.33877391 0.6138767 0
2.8230002 0.33424458 0.61379015 0
2.8230002 0.32987395 0.61379015 0
2.8240001 0.32565665 0.6138767 0
2.8240001 0.3212842 0.6138767 0
2.8250003 0.31706148 0.61396331 0
2.8270001 0.3129831 0.61413646 0
2.8290002 0.30889747 0.61430967 0
2.8310003 0.30480462 0.61448282 0
2.8340001 0.30084705 0.61474252 0
2.8350003 0.2965973 0.61482912 0
2.8340001 0.2920661 0.61474252 0
2.8340001 0.28767565 0.61474252 0
2.8340001 0.28328517 0.61474252 0
2.8340001 0.27889469 0.61474252 0
2.8350003 0.27463594 0.61482912 0
2.8350003 0.27024364 0.61482912 0
2.8350003 0.26585138 0.61482912 0
2.8360002 0.26158535 0.61491573 0
2.8360002 0.2571913 0.61491573 0
2.8370001 0.25291988 0.61500227 0
2.8380003 0.24864486 0.61508888 0
2.8390002 0.24436623 0.61517549 0
2.8400002 0.24008399 0.61526203 0
2.8410003 0.23579815 0.61534864 0
2.8420002 0.23150867 0.61543518 0
2.8430002 0.22721562 0.61552179 0
2.8450003 0.22302896 0.61569494 0
2.8460002 0.2187269 0.61578155 0
2.8480003 0.21452764 0.6159547 0
2.8490002 0.21021652 0.6160413 0
2.8510003 0.20600465 0.61621445 0
2.8530002 0.20178553 0.61638761 0
2.8550003 0.19755921 0.61656082 0
2.8580003 0.19342308 0.61682051 0
2.8600001 0.18918051 0.61699367 0
2.8620002 0.18493073 0.61716688 0
2.8660002 0.18085775 0.61751318 0
2.8690002 0.17668012 0.61777294 0
2.8720002 0.17249168 0.61803269 0
2.8770003 0.16846558 0.6184656 0
2.8810003 0.16433667 0.61881196 0
2.8880002 0.16044225 0.61941803 0
2.8990002 0.053169768 0.62037039 0
2.8920002 0.048396889 0.61976433 0
2.8870003 0.043721426 0.61933142 0
2.8830001 0.039098259 0.61898512 0
2.8800001 0.034521993 0.61872536 0
2.8780003 0.029987227 0.61855221 0
2.8760002 0.025459666 0.618379 0
2.8750002 0.020966385 0.61829245 0
2.8740003 0.016476702 0.61820585 0
2.8730001 0.011990633 0.61811924 0
2.8740003 0.0075514615 0.61820585 0
2.8740003 0.0030888394 0.61820585 0
2.8750002 -0.0013557449 0.61829245 0
2.8760002 -0.005803939 0.618379 0
2.8780003 -0.010241304 0.61855221 0
2.8800001 -0.014685888 0.61872536 0
2.8820002 -0.019137688 0.61889851 0
2.8860002 -0.023578664 0.61924481 0
2.8900001 -0.028034071 0.61959118 0
2.8960001 -0.032493085 0.62011063 0
2.9050002 -0.036962919 0.6208899 0
2.8840003 -0.1580165 0.61907172 0
2.8730001 -0.16198127 0.61811924 0
2.8730001 -0.16644208 0.61811924 0
2.8740003 -0.17095341 0.61820585 0
2.8750002 -0.17546834 0.61829245 0
2.8750002 -0.17993277 0.61829245 0
2.8760002 -0.18445311 0.618379 0
2.8770003 -0.18897706 0.6184656 0
2.8770003 -0.1934451 0.6184656 0
2.8780003 -0.19797446 0.61855221 0
2.8390002 0.3719514 0.61077595 0
2.8340001 0.36670411 0.61035204 0
2.8300002 0.3616426 0.61001295 0
2.8270001 0.35676149 0.60975862 0
2.8240001 0.35189122 0.60950428 0
2.8230002 0.34735644 0.60941947 0
2.8210001 0.34266472 0.60924995 0
2.8210001 0.33829772 0.60924995 0
2.8200002 0.33377379 0.60916519 0
2.8200002 0.32940856 0.60916519 0
2.8210001 0.32519665 0.60924995 0
2.8210001 0.32082963 0.60924995 0
2.8220003 0.31661236 0.60933471 0
2.8240001 0.31253934 0.60950428 0
2.8250003 0.30831304 0.60958904 0
2.8280003 0.30437171 0.60984337 0
2.8300002 0.30027705 0.61001295 0
2.8330002 0.29631588 0.61026728 0
2.8330002 0.29192722 0.61026728 0
2.8330002 0.28753856 0.61026728 0
2.8330002 0.2831499 0.61026728 0
2.8340001 0.27889469 0.61035204 0
2.8340001 0.27450424 0.61035204 0
2.8350003 0.27024364 0.61043686 0
2.8350003 0.26585138 0.61043686 0
2.8360002 0.26158535 0.61052161 0
2.8370001 0.25731575 0.61060643 0
2.8380003 0.25304255 0.61069119 0
2.8380003 0.24864486 0.61069119 0
2.8390002 0.24436623 0.61077595 0
2.8410003 0.24020123 0.61094552 0
2.8420002 0.23591357 0.61103034 0
2.8430002 0.23162234 0.6111151 0
2.8440001 0.22732744 0.61119986 0
2.8460002 0.22313902 0.61136943 0
2.8480003 0.21894336 0.61153901 0
2.8500001 0.21474046 0.61170852 0
2.8510003 0.21042579 0.61179328 0
2.8540003 0.20631307 0.61204767 0
2.8560002 0.20208858 0.61221719 0
2.8580003 0.19785683 0.61238676 0
2.8610003 0.1937153 0.6126411 0
2.8640003 0.18956293 0.61289549 0
2.8670001 0.18539971 0.61314976 0
2.8700001 0.18122572 0.6134041 0
2.8740003 0.17713109 0.61374325 0
2.8790002 0.1731104 0.61416709 0
2.8850002 0.16915825 0.61467576 0
2.8990002 0.053169768 0.61586273 0
2.8920002 0.048396889 0.61526924 0
2.8870003 0.043721426 0.6148454 0
2.8830001 0.039098259 0.61450624 0
2.8800001 0.034521993 0.61425185 0
2.8780003 0.029987227 0.61408234 0
2.8760002 0.025459666 0.61391276 0
2.8750002 0.020966385 0.613828 0
2.8740003 0.016476702 0.61374325 0
2.8730001 0.011990633 0.61365843 0
2.8740003 0.0075514615 0.61374325 0
2.8740003 0.0030888394 0.61374325 0
2.8750002 -0.0013557449 0.613828 0
2.8760002 -0.005803939 0.61391276 0
2.8780003 -0.010241304 0.61408234 0
2.8800001 -0.014685888 0.61425185 0
2.8820002 -0.019137688 0.61442149 0
2.8860002 -0.023578664 0.61476058 0
2.8900001 -0.028034071 0.61509967 0
2.8960001 -0.032493085 0.61560833 0
2.9050002 -0.036962919 0.61637139 0
2.8840003 -0.1580165 0.614591 0
2.8730001 -0.16198127 0.61365843 0
2.8730001 -0.16644208 0.61365843 0
2.8740003 -0.17095341 0.61374325 0
2.8750002 -0.17546834 0.613828 0
2.8750002 -0.17993277 0.613828 0
2.8760002 -0.18445311 0.61391276 0
2.8770003 -0.18897706 0.61399758 0
2.8770003 -0.1934451 0.61399758 0
2.8780003 -0.19797446 0.61408234 0
2.8420002 0.37687036 0.60662544 0
2.8350003 0.37126595 0.60604459 0
2.8300002 0.36602587 0.60562968 0
2.8260002 0.3609716 0.6052978 0
2.8240001 0.35626364 0.60513186 0
2.8220003 0.35156295 0.60496593 0
2.8200002 0.34686941 0.60479999 0
2.8190002 0.34234369 0.60471702 0
2.8180003 0.33782154 0.60463399 0
2.8180003 0.33345991 0.60463399 0
2.8180003 0.32909831 0.60463399 0
2.8180003 0.32473671 0.60463399 0
2.8190002 0.32052663 0.60471702 0
2.8200002 0.31631291 0.60479999 0
2.8210001 0.31209561 0.6048829 0
2.8230002 0.3080208 0.60504889 0
2.8250003 0.30393881 0.60521483 0
2.8270001 0.29984954 0.60538077 0
2.8300002 0.29589382 0.60562968 0
2.8320003 0.29178834 0.60579562 0
2.8330002 0.28753856 0.60587859 0
2.8330002 0.2831499 0.60587859 0
2.8330002 0.27876124 0.60587859 0
2.8340001 0.27450424 0.60596156 0
2.8350003 0.27024364 0.60604459 0
2.8350003 0.26585138 0.60604459 0
2.8360002 0.26158535 0.60612756 0
2.8370001 0.25731575 0.60621053 0
2.8380003 0.25304255 0.6062935 0
2.8390002 0.24876571 0.60637647 0
2.8410003 0.24460435 0.60654247 0
2.8420002 0.24031848 0.60662544 0
2.8430002 0.23602903 0.60670841 0
2.8450003 0.23184958 0.60687435 0
2.8460002 0.22755113 0.60695732 0
2.8480003 0.22335908 0.60712326 0
2.8500001 0.21915978 0.6072892 0
2.8520002 0.21495333 0.60745513 0
2.8540003 0.21073964 0.60762113 0
2.8570001 0.20662153 0.60787004 0
2.8590002 0.20239161 0.60803598 0
2.8620002 0.19825366 0.60828489 0
2.8650002 0.19410492 0.60853386 0
2.8680003 0.18994534 0.60878277 0
2.8720002 0.18586873 0.60911465 0
2.8770003 0.18186969 0.60952955 0
2.8820002 0.1778526 0.6099444 0
2.8890002 0.17399426 0.61052525 0
2.8990002 0.053169768 0.61135495 0
2.8920002 0.048396889 0.61077416 0
2.8870003 0.043721426 0.61035931 0
2.8830001 0.039098259 0.61002737 0
2.8800001 0.034521993 0.60977846 0
2.8780003 0.029987227 0.60961252 0
2.8760002 0.025459666 0.60944653 0
2.8750002 0.020966385 0.60936356 0
2.8740003 0.016476702 0.60928059 0
2.8730001 0.011990633 0.60919762 0
2.8740003 0.0075514615 0.60928059 0
2.8740003 0.0030888394 0.60928059 0
2.8750002 -0.0013557449 0.60936356 0
2.8760002 -0.005803939 0.60944653 0
2.8780003 -0.010241304 0.60961252 0
2.8800001 -0.014685888 0.60977846 0
2.8820002 -0.019137688 0.6099444 0
2.8860002 -0.023578664 0.61027628 0
2.8900001 -0.028034071 0.61060822 0
2.8960001 -0.032493085 0.61110604 0
2.9050002 -0.036962919 0.61185282 0
2.8840003 -0.1580165 0.61011034 0
2.8730001 -0.16198127 0.60919762 0
2.8730001 -0.16644208 0.60919762 0
2.8740003 -0.17095341 0.60928059 0
2.8750002 -0.17546834 0.60936356 0
2.8750002 -0.17993277 0.60936356 0
2.8760002 -0.18445311 0.60944653 0
2.8770003 -0.18897706 0.60952955 0
2.8770003 -0.1934451 0.60952955 0
2.8780003 -0.19797446 0.60961252 0
2.8450003 0.3818002 0.60246402 0
2.8370001 0.37600452 0.60181463 0
2.8310003 0.37058052 0.60132766 0
2.8270001 0.36551717 0.60100293 0
2.8240001 0.36063609 0.60075939 0
2.8210001 0.35576579 0.6005159 0
2.8190002 0.35107049 0.60035354 0
2.8180003 0.34654477 0.60027242 0
2.8170002 0.3420226 0.60019124 0
2.8160002 0.33750406 0.60011005 0
2.8160002 0.33314607 0.60011005 0
2.8160002 0.32878807 0.60011005 0
2.8160002 0.32443008 0.60011005 0
2.8170002 0.32022357 0.60019124 0
2.8180003 0.31601349 0.60027242 0
2.8190002 0.31179979 0.60035354 0
2.8210001 0.30772859 0.6005159 0
2.8230002 0.3036502 0.60067821 0
2.8250003 0.29956457 0.60084057 0
2.8280003 0.29561242 0.60108411 0
2.8310003 0.29164946 0.60132766 0
2.8320003 0.2874015 0.60140878 0
2.8330002 0.2831499 0.60148996 0
2.8330002 0.27876124 0.60148996 0
2.8340001 0.27450424 0.60157108 0
2.8350003 0.27024364 0.60165226 0
2.8360002 0.26597947 0.60173345 0
2.8370001 0.26171163 0.60181463 0
2.8380003 0.25744024 0.60189581 0
2.8390002 0.25316519 0.60197699 0
2.8400002 0.24888659 0.60205817 0
2.8420002 0.24472338 0.60222054 0
2.8430002 0.24043572 0.60230166 0
2.8450003 0.23625991 0.60246402 0
2.8470001 0.23207685 0.60262632 0
2.8480003 0.2277748 0.60270751 0
2.8500001 0.22357911 0.60286987 0
2.8530002 0.21948451 0.60311341 0
2.8550003 0.21527261 0.60327572 0
2.8570001 0.21105346 0.60343808 0
2.8600001 0.20692998 0.60368156 0
2.8630002 0.20279567 0.60392511 0
2.8660002 0.19865051 0.60416859 0
2.8700001 0.19459194 0.60449326 0
2.8750002 0.19061454 0.60489917 0
2.8800001 0.1866191 0.60530502 0
2.8870003 0.18278964 0.60587323 0
2.9000001 0.05320945 0.60692847 0
2.8920002 0.048396889 0.60627908 0
2.8870003 0.043721426 0.60587323 0
2.8830001 0.039098259 0.6055485 0
2.8800001 0.034521993 0.60530502 0
2.8780003 0.029987227 0.60514271 0
2.8760002 0.025459666 0.60498035 0
2.8750002 0.020966385 0.60489917 0
2.8740003 0.016476702 0.60481799 0
2.8730001 0.011990633 0.6047368 0
2.8740003 0.0075514615 0.60481799 0
2.8740003 0.0030888394 0.60481799 0
2.8750002 -0.0013557449 0.60489917 0
2.8760002 -0.005803939 0.60498035 0
2.8780003 -0.010241304 0.60514271 0
2.8800001 -0.014685888 0.60530502 0
2.8820002 -0.019137688 0.60546732 0
2.8860002 -0.023578664 0.60579205 0
2.8900001 -0.028034071 0.60611671 0
2.8960001 -0.032493085 0.60660374 0
2.9050002 -0.036962919 0.60733432 0
2.8840003 -0.1580165 0.60562968 0
2.8730001 -0.16198127 0.6047368 0
2.8730001 -0.16644208 0.6047368 0
2.8740003 -0.17095341 0.60481799 0
2.8750002 -0.17546834 0.60489917 0
2.8750002 -0.17993277 0.60489917 0
2.8760002 -0.18445311 0.60498035 0
2.8770003 -0.18897706 0.60506153 0
2.8770003 -0.1934451 0.60506153 0
2.8780003 -0.19797446 0.60514271 0
2.8410003 0.38110033 0.59773624 0
2.8340001 0.37548503 0.59718066 0
2.8280003 0.3700664 0.59670448 0
2.8240001 0.3650085 0.59638697 0
2.8220003 0.3603006 0.59622824 0
2.8190002 0.35543394 0.59599018 0
2.8170002 0.35074219 0.59583139 0
2.8160002 0.34622008 0.59575206 0
2.8150003 0.34170154 0.59567267 0
2.8140001 0.33718657 0.59559333 0
2.8140001 0.33283219 0.59559333 0
2.8140001 0.3284778 0.59559333 0
2.8140001 0.32412338 0.59559333 0
2.8150003 0.31992054 0.59567267 0
2.8160002 0.31571406 0.59575206 0
2.8170002 0.31150395 0.59583139 0
2.8190002 0.30743638 0.59599018 0
2.8210001 0.30336154 0.59614885 0
2.8230002 0.29927954 0.59630764 0
2.8260002 0.29533103 0.5965457 0
2.8290002 0.29137164 0.59678382 0
2.8320003 0.2874015 0.59702194 0
2.8330002 0.2831499 0.59710127 0
2.8340001 0.27889469 0.59718066 0
2.8340001 0.27450424 0.59718066 0
2.8350003 0.27024364 0.59726 0
2.8360002 0.26597947 0.59733939 0
2.8380003 0.26183793 0.59749812 0
2.8390002 0.25756469 0.59757751 0
2.8400002 0.25328785 0.59765685 0
2.8420002 0.24912828 0.59781563 0
2.8430002 0.24484244 0.59789497 0
2.8450003 0.24067023 0.59805369 0
2.8470001 0.23649079 0.59821242 0
2.8490002 0.23230416 0.59837115 0
2.8510003 0.22811031 0.59852993 0
2.8530002 0.22390923 0.59868866 0
2.8560002 0.21980917 0.59892672 0
2.8580003 0.21559188 0.59908545 0
2.8610003 0.21147197 0.59932363 0
2.8640003 0.20734125 0.59956169 0
2.8680003 0.20330073 0.59987915 0
2.8720002 0.19924577 0.6001966 0
2.8770003 0.19527379 0.60059345 0
2.8840003 0.19147496 0.60114902 0
2.9000001 0.05320945 0.6024189 0
2.8920002 0.048396889 0.60178399 0
2.8870003 0.043721426 0.60138714 0
2.8830001 0.039098259 0.60106969 0
2.8800001 0.034521993 0.60083157 0
2.8780003 0.029987227 0.60067284 0
2.8760002 0.025459666 0.60051405 0
2.8750002 0.020966385 0.60043472 0
2.8740003 0.016476702 0.60035539 0
2.8730001 0.011990633 0.60027599 0
2.8740003 0.0075514615 0.60035539 0
2.8740003 0.0030888394 0.60035539 0
2.8750002 -0.0013557449 0.60043472 0
2.8760002 -0.005803939 0.60051405 0
2.8780003 -0.010241304 0.60067284 0
2.8800001 -0.014685888 0.60083157 0
2.8820002 -0.019137688 0.6009903 0
2.8860002 -0.023578664 0.60130775 0
2.8900001 -0.028034071 0.6016252 0
2.8960001 -0.032493085 0.60210145 0
2.9050002 -0.036962919 0.60281575 0
2.8840003 -0.1580165 0.60114902 0
2.8730001 -0.16198127 0.60027599 0
2.8730001 -0.16644208 0.60027599 0
2.8740003 -0.17095341 0.60035539 0
2.8750002 -0.17546834 0.60043472 0
2.8750002 -0.17993277 0.60043472 0
2.8760002 -0.18445311 0.60051405 0
2.8770003 -0.18897706 0.60059345 0
2.8770003 -0.1934451 0.60059345 0
2.8780003 -0.19797446 0.60067284 0
2.8370001 0.38040042 0.59302288 0
2.8310003 0.37496558 0.59255755 0
2.8270001 0.36989501 0.59224725 0
2.8230002 0.36483896 0.59193701 0
2.8200002 0.35996509 0.59170431 0
2.8180003 0.35526797 0.59154916 0
2.8160002 0.35057807 0.59139407 0
2.8150003 0.34605774 0.59131646 0
2.8140001 0.34154096 0.59123892 0
2.8130002 0.33702785 0.59116137 0
2.8130002 0.33267528 0.59116137 0
2.8130002 0.32832268 0.59116137 0
2.8130002 0.32397008 0.59116137 0
2.8140001 0.319769 0.59123892 0
2.8150003 0.31556436 0.59131646 0
2.8160002 0.31135607 0.59139407 0
2.8180003 0.30729029 0.59154916 0
2.8200002 0.30321726 0.59170431 0
2.8220003 0.29913706 0.59185946 0
2.8240001 0.29504961 0.59201455 0
2.8280003 0.29123276 0.59232479 0
2.8310003 0.28726441 0.59255755 0
2.8330002 0.2831499 0.59271264 0
2.8340001 0.27889469 0.59279019 0
2.8350003 0.27463594 0.59286773 0
2.8360002 0.27037355 0.59294534 0
2.8380003 0.26623559 0.59310043 0
2.8390002 0.26196417 0.59317803 0
2.8400002 0.25768915 0.59325558 0
2.8420002 0.25353318 0.59341073 0
2.8440001 0.24936998 0.59356582 0
2.8450003 0.24508053 0.59364343 0
2.8470001 0.24090472 0.59379852 0
2.8490002 0.23672169 0.59395367 0
2.8520002 0.23264509 0.59418631 0
2.8540003 0.22844583 0.59434146 0
2.8560002 0.22423935 0.59449661 0
2.8590002 0.22013387 0.5947293 0
2.8630002 0.216124 0.59503955 0
2.8660002 0.21199507 0.59527224 0
2.8700001 0.20795816 0.59558249 0
2.8750002 0.2040078 0.59597027 0
2.8810003 0.20013867 0.59643567 0
2.9000001 0.05320945 0.59790939 0
2.8920002 0.048396889 0.59728891 0
2.8870003 0.043721426 0.59690106 0
2.8830001 0.039098259 0.59659082 0
2.8800001 0.034521993 0.59635812 0
2.8780003 0.029987227 0.59620297 0
2.8760002 0.025459666 0.59604788 0
2.8750002 0.020966385 0.59597027 0
2.8740003 0.016476702 0.59589279 0
2.8730001 0.011990633 0.59581518 0
2.8740003 0.0075514615 0.59589279 0
2.8740003 0.0030888394 0.59589279 0
2.8750002 -0.0013557449 0.59597027 0
2.8760002 -0.005803939 0.59604788 0
2.8780003 -0.010241304 0.59620297 0
2.8800001 -0.014685888 0.59635812 0
2.8820002 -0.019137688 0.59651327 0
2.8860002 -0.023578664 0.59682351 0
2.8900001 -0.028034071 0.59713376 0
2.8960001 -0.032493085 0.59759915 0
2.9050002 -0.036962919 0.59829724 0
2.8840003 -0.1580165 0.59666836 0
2.8730001 -0.16198127 0.59581518 0
2.8730001 -0.16644208 0.59581518 0
2.8740003 -0.17095341 0.59589279 0
2.8750002 -0.17546834 0.59597027 0
2.8750002 -0.17993277 0.59597027 0
2.8760002 -0.18445311 0.59604788 0
2.8770003 -0.18897706 0.59612542 0
2.8770003 -0.1934451 0.59612542 0
2.8780003 -0.19797446 0.59620297 0
2.8440001 0.38603368 0.58915734 0
2.8350003 0.38005051 0.58847547 0
2.8290002 0.37461925 0.58802092 0
2.8250003 0.36955231 0.58771789 0
2.8220003 0.36466941 0.58749062 0
2.8190002 0.35979733 0.58726335 0
2.8170002 0.355102 0.58711183 0
2.8150003 0.35041392 0.58696032 0
2.8140001 0.34589538 0.5868845 0
2.8130002 0.34138042 0.5868088 0
2.8120003 0.33686912 0.58673298 0
2.8120003 0.33251834 0.58673298 0
2.8120003 0.32816756 0.58673298 0
2.8120003 0.32381678 0.58673298 0
2.8130002 0.31961751 0.5868088 0
2.8140001 0.31541461 0.5868845 0
2.8150003 0.31120816 0.58696032 0
2.8170002 0.30714417 0.58711183 0
2.8190002 0.30307299 0.58726335 0
2.8210001 0.29899454 0.58741486 0
2.8230002 0.29490891 0.58756638 0
2.8260002 0.29095498 0.58779365 0
2.8300002 0.28712729 0.58809668 0
2.8340001 0.28328517 0.58839971 0
2.8350003 0.27902821 0.58847547 0
2.8360002 0.27476761 0.58855122 0
2.8370001 0.2705034 0.58862698 0
2.8390002 0.26636365 0.5887785 0
2.8400002 0.26209044 0.58885431 0
2.8420002 0.25793809 0.58900583 0
2.8440001 0.25377849 0.58915734 0
2.8460002 0.24961168 0.58930886 0
2.8480003 0.24543768 0.58946037 0
2.8500001 0.24125645 0.58961189 0
2.8520002 0.23706803 0.5897634 0
2.8550003 0.232986 0.58999068 0
2.8580003 0.22889316 0.59021795 0
2.8610003 0.2247895 0.59044528 0
2.8640003 0.22067502 0.59067249 0
2.8680003 0.21665615 0.59097558 0
2.8720002 0.21262279 0.59127861 0
2.8780003 0.20878068 0.59173316 0
2.9000001 0.05320945 0.59339988 0
2.8920002 0.048396889 0.59279382 0
2.8870003 0.043721426 0.59241498 0
2.8830001 0.039098259 0.59211195 0
2.8800001 0.034521993 0.59188467 0
2.8780003 0.029987227 0.59173316 0
2.8760002 0.025459666 0.59158164 0
2.8750002 0.020966385 0.59150589 0
2.8740003 0.016476702 0.59143013 0
2.8730001 0.011990633 0.59135437 0
2.8740003 0.0075514615 0.59143013 0
2.8740003 0.0030888394 0.59143013 0
2.8750002 -0.0013557449 0.59150589 0
2.8760002 -0.005803939 0.59158164 0
2.8780003 -0.010241304 0.59173316 0
2.8800001 -0.014685888 0.59188467 0
2.8820002 -0.019137688 0.59203619 0
2.8860002 -0.023578664 0.59233922 0
2.8900001 -0.028034071 0.59264231 0
2.8960001 -0.032493085 0.59309685 0
2.9050002 -0.036962919 0.59377867 0
2.8840003 -0.1580165 0.59218776 0
2.8730001 -0.16198127 0.59135437 0
2.8730001 -0.16644208 0.59135437 0
2.8740003 -0.17095341 0.59143013 0
2.8750002 -0.17546834 0.59150589 0
2.8750002 -0.17993277 0.59150589 0
2.8760002 -0.18445311 0.59158164 0
2.8770003 -0.18897706 0.5916574 0
2.8770003 -0.1934451 0.5916574 0
2.8780003 -0.19797446 0.59173316 0
2.8420002 0.38568017 0.58460093 0
2.8340001 0.37987551 0.58400923 0
2.8280003 0.37444606 0.58356553 0
2.8240001 0.36938092 0.58326972 0
2.8210001 0.36449984 0.58304781 0
2.8180003 0.3596296 0.58282596 0
2.8160002 0.35493606 0.58267808 0
2.8140001 0.35024974 0.58253014 0
2.8130002 0.34573305 0.58245617 0
2.8120003 0.3412199 0.5823822 0
2.8120003 0.33686912 0.5823822 0
2.8110001 0.3323614 0.58230823 0
2.8110001 0.32801241 0.58230823 0
2.8120003 0.32381678 0.5823822 0
2.8120003 0.31946599 0.5823822 0
2.8130002 0.31526491 0.58245617 0
2.8150003 0.31120816 0.58260411 0
2.8160002 0.30699807 0.58267808 0
2.8180003 0.30292869 0.58282596 0
2.8200002 0.29885206 0.58297384 0
2.8230002 0.29490891 0.58319575 0
2.8260002 0.29095498 0.58341759 0
2.8290002 0.2869902 0.5836395 0
2.8330002 0.2831499 0.58393532 0
2.8360002 0.27916169 0.58415717 0
2.8370001 0.27489927 0.58423114 0
2.8390002 0.27076313 0.58437908 0
2.8410003 0.26661983 0.58452696 0
2.8420002 0.26234299 0.58460093 0
2.8440001 0.258187 0.5847488 0
2.8460002 0.25402379 0.58489674 0
2.8480003 0.2498534 0.58504462 0
2.8510003 0.24579486 0.58526653 0
2.8530002 0.2416082 0.58541441 0
2.8560002 0.23752978 0.58563626 0
2.8590002 0.23344055 0.58585817 0
2.8620002 0.22934052 0.58608001 0
2.8660002 0.22533965 0.58637583 0
2.8700001 0.22132435 0.58667171 0
2.8760002 0.21750751 0.58711541 0
2.8830001 0.21377364 0.58763313 0
2.9000001 0.05320945 0.58889031 0
2.8920002 0.048396889 0.58829868 0
2.8870003 0.043721426 0.58792895 0
2.8830001 0.039098259 0.58763313 0
2.8800001 0.034521993 0.58741122 0
2.8780003 0.029987227 0.58726335 0
2.8760002 0.025459666 0.58711541 0
2.8750002 0.020966385 0.58704144 0
2.8740003 0.016476702 0.58696747 0
2.8730001 0.011990633 0.58689356 0
2.8740003 0.0075514615 0.58696747 0
2.8740003 0.0030888394 0.58696747 0
2.8750002 -0.0013557449 0.58704144 0
2.8760002 -0.005803939 0.58711541 0
2.8780003 -0.010241304 0.58726335 0
2.8800001 -0.014685888 0.58741122 0
2.8820002 -0.019137688 0.5875591 0
2.8860002 -0.023578664 0.58785498 0
2.8900001 -0.028034071 0.5881508 0
2.8960001 -0.032493085 0.58859456 0
2.9050002 -0.036962919 0.5892601 0
2.8840003 -0.1580165 0.58770704 0
2.8730001 -0.16198127 0.58689356 0
2.8730001 -0.16644208 0.58689356 0
2.8740003 -0.17095341 0.58696747 0
2.8750002 -0.17546834 0.58704144 0
2.8750002 -0.17993277 0.58704144 0
2.8760002 -0.18445311 0.58711541 0
2.8770003 -0.18897706 0.58718938 0
2.8770003 -0.1934451 0.58718938 0
2.8780003 -0.19797446 0.58726335 0
2.8410003 0.38550341 0.58012384 0
2.8330002 0.37970054 0.57954663 0
2.8280003 0.37444606 0.57918584 0
2.8240001 0.36938092 0.57889724 0
2.8200002 0.36433029 0.57860863 0
2.8180003 0.3596296 0.57846439 0
2.8160002 0.35493606 0.57832003 0
2.8140001 0.35024974 0.57817572 0
2.8130002 0.34573305 0.5781036 0
2.8120003 0.3412199 0.57803142 0
2.8110001 0.33671036 0.5779593 0
2.8110001 0.3323614 0.5779593 0
2.8110001 0.32801241 0.5779593 0
2.8120003 0.32381678 0.57803142 0
2.8120003 0.31946599 0.57803142 0
2.8130002 0.31526491 0.5781036 0
2.8140001 0.31106022 0.57817572 0
2.8160002 0.30699807 0.57832003 0
2.8180003 0.30292869 0.57846439 0
2.8200002 0.29885206 0.57860863 0
2.8220003 0.29476824 0.57875293 0
2.8250003 0.2908161 0.57896942 0
2.8290002 0.2869902 0.57925802 0
2.8330002 0.2831499 0.57954663 0
2.8370001 0.27929515 0.57983524 0
2.8390002 0.27516264 0.57997954 0
2.8410003 0.27102292 0.58012384 0
2.8420002 0.26674786 0.58019602 0
2.8440001 0.2625955 0.58034027 0
2.8470001 0.25856039 0.58055675 0
2.8490002 0.25439179 0.58070105 0
2.8510003 0.25021598 0.58084536 0
2.8540003 0.24615201 0.58106184 0
2.8570001 0.24207717 0.58127826 0
2.8600001 0.23799154 0.58149475 0
2.8640003 0.23400876 0.58178335 0
2.8680003 0.23001152 0.58207196 0
2.8730001 0.22610986 0.58243275 0
2.8800001 0.22240666 0.58293778 0
2.9000001 0.05320945 0.58438087 0
2.8920002 0.048396889 0.58380365 0
2.8870003 0.043721426 0.58344287 0
2.8830001 0.039098259 0.5831542 0
2.8800001 0.034521993 0.58293778 0
2.8780003 0.029987227 0.58279347 0
2.8760002 0.025459666 0.58264917 0
2.8750002 0.020966385 0.58257705 0
2.8740003 0.016476702 0.58250487 0
2.8730001 0.011990633 0.58243275 0
2.8740003 0.0075514615 0.58250487 0
2.8740003 0.0030888394 0.58250487 0
2.8750002 -0.0013557449 0.58257705 0
2.8760002 -0.005803939 0.58264917 0
2.8780003 -0.010241304 0.58279347 0
2.8800001 -0.014685888 0.58293778 0
2.8820002 -0.019137688 0.58308208 0
2.8860002 -0.023578664 0.58337069 0
2.8900001 -0.028034071 0.58365929 0
2.8960001 -0.032493085 0.58409226 0
2.9050002 -0.036962919 0.58474159 0
2.8840003 -0.1580165 0.58322644 0
2.8730001 -0.16198127 0.58243275 0
2.8730001 -0.16644208 0.58243275 0
2.8740003 -0.17095341 0.58250487 0
2.8750002 -0.17546834 0.58257705 0
2.8750002 -0.17993277 0.58257705 0
2.8760002 -0.18445311 0.58264917 0
2.8770003 -0.18897706 0.58272135 0
2.8770003 -0.1934451 0.58272135 0
2.8780003 -0.19797446 0.58279347 0
2.8410003 0.38550341 0.57572079 0
2.8330002 0.37970054 0.57515794 0
2.8280003 0.37444606 0.57480621 0
2.8240001 0.36938092 0.57452482 0
2.8200002 0.36433029 0.57424343 0
2.8180003 0.3596296 0.57410276 0
2.8160002 0.35493606 0.57396203 0
2.8140001 0.35024974 0.57382131 0
2.8130002 0.34573305 0.57375097 0
2.8120003 0.3412199 0.57368064 0
2.8110001 0.33671036 0.57361031 0
2.8110001 0.3323614 0.57361031 0
2.8110001 0.32801241 0.57361031 0
2.8120003 0.32381678 0.57368064 0
2.8120003 0.31946599 0.57368064 0
2.8130002 0.31526491 0.57375097 0
2.8140001 0.31106022 0.57382131 0
2.8160002 0.30699807 0.57396203 0
2.8180003 0.30292869 0.57410276 0
2.8200002 0.29885206 0.57424343 0
2.8220003 0.29476824 0.57438415 0
2.8250003 0.2908161 0.57459521 0
2.8290002 0.2869902 0.57487655 0
2.8330002 0.2831499 0.57515794 0
2.8370001 0.27929515 0.57543933 0
2.8410003 0.27542603 0.57572079 0
2.8430002 0.27128264 0.57586145 0
2.8450003 0.2671321 0.57600212 0
2.8470001 0.26297432 0.57614285 0
2.8500001 0.25893378 0.57635391 0
2.8520002 0.25475976 0.57649457 0
2.8550003 0.2506994 0.57670563 0
2.8580003 0.2466282 0.57691669 0
2.8620002 0.24266344 0.57719809 0
2.8660002 0.23868424 0.57747948 0
2.8700001 0.23469058 0.57776088 0
2.8770003 0.23101807 0.57825333 0
2.9000001 0.05320945 0.5798713 0
2.8920002 0.048396889 0.57930851 0
2.8870003 0.043721426 0.57895678 0
2.8830001 0.039098259 0.57867539 0
2.8800001 0.034521993 0.57846433 0
2.8780003 0.029987227 0.57832366 0
2.8760002 0.025459666 0.57818294 0
2.8750002 0.020966385 0.5781126 0
2.8740003 0.016476702 0.57804227 0
2.8730001 0.011990633 0.57797188 0
2.8740003 0.0075514615 0.57804227 0
2.8740003 0.0030888394 0.57804227 0
2.8750002 -0.0013557449 0.5781126 0
2.8760002 -0.005803939 0.57818294 0
2.8780003 -0.010241304 0.57832366 0
2.8800001 -0.014685888 0.57846433 0
2.8820002 -0.019137688 0.57860506 0
2.8860002 -0.023578664 0.57888645 0
2.8900001 -0.028034071 0.57916784 0
2.8960001 -0.032493085 0.5795899 0
2.9050002 -0.036962919 0.58022308 0
2.8840003 -0.1580165 0.57874572 0
2.8730001 -0.16198127 0.57797188 0
2.8730001 -0.16644208 0.57797188 0
2.8740003 -0.17095341 0.57804227 0
2.8750002 -0.17546834 0.5781126 0
2.8750002 -0.17993277 0.5781126 0
2.8760002 -0.18445311 0.57818294 0
2.8770003 -0.18897706 0.57825333 0
2.8770003 -0.1934451 0.57825333 0
2.8780003 -0.19797446 0.57832366 0
2.8410003 0.38550341 0.57131767 0
2.8330002 0.37970054 0.57076931 0
2.8280003 0.37444606 0.57042658 0
2.8240001 0.36938092 0.5701524 0
2.8210001 0.36449984 0.56994677 0
2.8180003 0.3596296 0.56974113 0
2.8160002 0.35493606 0.56960404 0
2.8140001 0.35024974 0.56946695 0
2.8130002 0.34573305 0.5693984 0
2.8120003 0.3412199 0.56932986 0
2.8120003 0.33686912 0.56932986 0
2.8110001 0.3323614 0.56926131 0
2.8120003 0.32816756 0.56932986 0
2.8120003 0.32381678 0.56932986 0
2.8120003 0.31946599 0.56932986 0
2.8130002 0.31526491 0.5693984 0
2.8150003 0.31120816 0.56953549 0
2.8160002 0.30699807 0.56960404 0
2.8180003 0.30292869 0.56974113 0
2.8200002 0.29885206 0.56987822 0
2.8230002 0.29490891 0.57008386 0
2.8260002 0.29095498 0.57028949 0
2.8290002 0.2869902 0.57049513 0
2.8330002 0.2831499 0.57076931 0
2.8370001 0.27929515 0.57104349 0
2.8430002 0.27568933 0.57145476 0
2.8460002 0.27167225 0.5716604 0
2.8480003 0.26751631 0.57179749 0
2.8500001 0.26335308 0.57193458 0
2.8530002 0.25930715 0.57214022 0
2.8570001 0.25537306 0.57241434 0
2.8600001 0.25130367 0.57262003 0
2.8640003 0.2473425 0.57289422 0
2.8680003 0.24336693 0.5731684 0
2.8740003 0.23960778 0.57357967 0
2.9000001 0.05320945 0.57536179 0
2.8920002 0.048396889 0.57481343 0
2.8870003 0.043721426 0.57447076 0
2.8830001 0.039098259 0.57419652 0
2.8800001 0.034521993 0.57399088 0
2.8780003 0.029987227 0.57385385 0
2.8760002 0.025459666 0.57371676 0
2.8750002 0.020966385 0.57364815 0
2.8740003 0.016476702 0.57357967 0
2.8730001 0.011990633 0.57351106 0
2.8740003 0.0075514615 0.57357967 0
2.8740003 0.0030888394 0.57357967 0
2.8750002 -0.0013557449 0.57364815 0
2.8760002 -0.005803939 0.57371676 0
2.8780003 -0.010241304 0.57385385 0
2.8800001 -0.014685888 0.57399088 0
2.8820002 -0.019137688 0.57412797 0
2.8860002 -0.023578664 0.57440215 0
2.8900001 -0.028034071 0.57467633 0
2.8960001 -0.032493085 0.57508761 0
2.9050002 -0.036962919 0.57570451 0
2.8840003 -0.1580165 0.57426506 0
2.8730001 -0.16198127 0.57351106 0
2.8730001 -0.16644208 0.57351106 0
2.8740003 -0.17095341 0.57357967 0
2.8750002 -0.17546834 0.57364815 0
2.8750002 -0.17993277 0.57364815 0
2.8760002 -0.18445311 0.57371676 0
2.8770003 -0.18897706 0.57378531 0
2.8770003 -0.1934451 0.57378531 0
2.8780003 -0.19797446 0.57385385 0
2.8420002 0.38568017 0.56698132 0
2.8350003 0.38005051 0.56651413 0
2.8290002 0.37461925 0.56611371 0
2.8250003 0.36955231 0.56584668 0
2.8220003 0.36466941 0.56564647 0
2.8190002 0.35979733 0.56544626 0
2.8170002 0.355102 0.56531274 0
2.8150003 0.35041392 0.56517935 0
2.8140001 0.34589538 0.56511253 0
2.8130002 0.34138042 0.56504583 0
2.8120003 0.33686912 0.56497908 0
2.8120003 0.33251834 0.56497908 0
2.8120003 0.32816756 0.56497908 0
2.8120003 0.32381678 0.56497908 0
2.8130002 0.31961751 0.56504583 0
2.8140001 0.31541461 0.56511253 0
2.8150003 0.31120816 0.56517935 0
2.8170002 0.30714417 0.56531274 0
2.8190002 0.30307299 0.56544626 0
2.8210001 0.29899454 0.56557977 0
2.8230002 0.29490891 0.56571323 0
2.8260002 0.29095498 0.56591344 0
2.8300002 0.28712729 0.56618041 0
2.8340001 0.28328517 0.56644738 0
2.8380003 0.27942866 0.56671435 0
2.8440001 0.27582103 0.56711477 0
2.8490002 0.27206188 0.5674485 0
2.8520002 0.26802859 0.56764871 0
2.8550003 0.26398444 0.56784892 0
2.8580003 0.25992951 0.56804919 0
2.8620002 0.25598636 0.5683161 0
2.8660002 0.25202879 0.56858307 0
2.8720002 0.24829492 0.56898355 0
2.8790002 0.24465665 0.56945074 0
2.9000001 0.05320945 0.57085228 0
2.8920002 0.048396889 0.57031834 0
2.8870003 0.043721426 0.56998467 0
2.8830001 0.039098259 0.56971765 0
2.8800001 0.034521993 0.56951743 0
2.8780003 0.029987227 0.56938398 0
2.8760002 0.025459666 0.56925046 0
2.8750002 0.020966385 0.56918377 0
2.8740003 0.016476702 0.56911701 0
2.8730001 0.011990633 0.56905025 0
2.8740003 0.0075514615 0.56911701 0
2.8740003 0.0030888394 0.56911701 0
2.8750002 -0.0013557449 0.56918377 0
2.8760002 -0.005803939 0.56925046 0
2.8780003 -0.010241304 0.56938398 0
2.8800001 -0.014685888 0.56951743 0
2.8820002 -0.019137688 0.56965095 0
2.8860002 -0.023578664 0.56991792 0
2.8900001 -0.028034071 0.57018483 0
2.8960001 -0.032493085 0.57058531 0
2.9050002 -0.036962919 0.57118595 0
2.8840003 -0.1580165 0.5697844 0
2.8730001 -0.16198127 0.56905025 0
2.8730001 -0.16644208 0.56905025 0
2.8740003 -0.17095341 0.56911701 0
2.8750002 -0.17546834 0.56918377 0
2.8750002 -0.17993277 0.56918377 0
2.8760002 -0.18445311 0.56925046 0
2.8770003 -0.18897706 0.56931722 0
2.8770003 -0.1934451 0.56931722 0
2.8780003 -0.19797446 0.56938398 0
2.8450003 0.3862105 0.5627712 0
2.8360002 0.38022545 0.56218678 0
2.8300002 0.37479237 0.56179714 0
2.8260002 0.36972368 0.56153738 0
2.8230002 0.36483896 0.5613426 0
2.8200002 0.35996509 0.56114781 0
2.8180003 0.35526797 0.56101793 0
2.8160002 0.35057807 0.56088805 0
2.8150003 0.34605774 0.56082308 0
2.8140001 0.34154096 0.56075817 0
2.8130002 0.33702785 0.56069326 0
2.8130002 0.33267528 0.56069326 0
2.8130002 0.32832268 0.56069326 0
2.8130002 0.32397008 0.56069326 0
2.8140001 0.319769 0.56075817 0
2.8150003 0.31556436 0.56082308 0
2.8160002 0.31135607 0.56088805 0
2.8180003 0.30729029 0.56101793 0
2.8190002 0.30307299 0.56108284 0
2.8220003 0.29913706 0.56127769 0
2.8240001 0.29504961 0.56140751 0
2.8270001 0.29109386 0.56160235 0
2.8310003 0.28726441 0.56186211 0
2.8350003 0.28342047 0.56212187 0
2.8390002 0.27956212 0.56238157 0
2.8450003 0.27595273 0.5627712 0
2.8520002 0.27245152 0.56322575 0
2.8560002 0.26854086 0.5634855 0
2.8600001 0.26461574 0.56374526 0
2.8640003 0.26067629 0.56400502 0
2.8690002 0.25684497 0.56432968 0
2.8760002 0.25323734 0.56478429 0
2.9000001 0.05320945 0.56634271 0
2.8920002 0.048396889 0.56582326 0
2.8870003 0.043721426 0.56549859 0
2.8830001 0.039098259 0.56523883 0
2.8800001 0.034521993 0.56504399 0
2.8780003 0.029987227 0.56491417 0
2.8760002 0.025459666 0.56478429 0
2.8750002 0.020966385 0.56471932 0
2.8740003 0.016476702 0.56465441 0
2.8730001 0.011990633 0.56458944 0
2.8740003 0.0075514615 0.56465441 0
2.8740003 0.0030888394 0.56465441 0
2.8750002 -0.0013557449 0.56471932 0
2.8760002 -0.005803939 0.56478429 0
2.8780003 -0.010241304 0.56491417 0
2.8800001 -0.014685888 0.56504399 0
2.8820002 -0.019137688 0.56517386 0
2.8860002 -0.023578664 0.56543362 0
2.8900001 -0.028034071 0.56569338 0
2.8960001 -0.032493085 0.56608301 0
2.9050002 -0.036962919 0.56666744 0
2.8840003 -0.1580165 0.5653038 0
2.8730001 -0.16198127 0.56458944 0
2.8730001 -0.16644208 0.56458944 0
2.8740003 -0.17095341 0.56465441 0
2.8750002 -0.17546834 0.56471932 0
2.8750002 -0.17993277 0.56471932 0
2.8760002 -0.18445311 0.56478429 0
2.8770003 -0.18897706 0.5648492 0
2.8770003 -0.1934451 0.5648492 0
2.8780003 -0.19797446 0.56491417 0
2.8480003 0.38674083 0.5585503 0
2.8380003 0.38057542 0.55791897 0
2.8320003 0.37513873 0.55754018 0
2.8280003 0.3700664 0.55728763 0
2.8240001 0.3650085 0.55703509 0
2.8210001 0.36013281 0.55684566 0
2.8190002 0.35543394 0.55671942 0
2.8170002 0.35074219 0.55659318 0
2.8160002 0.34622008 0.55653006 0
2.8150003 0.34170154 0.55646694 0
2.8140001 0.33718657 0.55640376 0
2.8140001 0.33283219 0.55640376 0
2.8140001 0.3284778 0.55640376 0
2.8150003 0.32427675 0.55646694 0
2.8150003 0.31992054 0.55646694 0
2.8160002 0.31571406 0.55653006 0
2.8170002 0.31150395 0.55659318 0
2.8190002 0.30743638 0.55671942 0
2.8210001 0.30336154 0.55684566 0
2.8230002 0.29927954 0.55697197 0
2.8260002 0.29533103 0.55716139 0
2.8290002 0.29137164 0.55735075 0
2.8320003 0.2874015 0.55754018 0
2.8360002 0.28355578 0.55779266 0
2.8410003 0.27982911 0.55810839 0
2.8470001 0.27621603 0.55848718 0
2.8540003 0.27271128 0.55892909 0
2.8620002 0.26930928 0.55943418 0
2.8660002 0.26537338 0.55968672 0
2.8730001 0.26179641 0.56012863 0
2.9000001 0.05320945 0.56183326 0
2.8920002 0.048396889 0.56132817 0
2.8870003 0.043721426 0.56101251 0
2.8830001 0.039098259 0.56075996 0
2.8800001 0.034521993 0.5605706 0
2.8780003 0.029987227 0.5604443 0
2.8760002 0.025459666 0.56031805 0
2.8750002 0.020966385 0.56025493 0
2.8740003 0.016476702 0.56019175 0
2.8730001 0.011990633 0.56012863 0
2.8740003 0.0075514615 0.56019175 0
2.8740003 0.0030888394 0.56019175 0
2.8750002 -0.0013557449 0.56025493 0
2.8760002 -0.005803939 0.56031805 0
2.8780003 -0.010241304 0.5604443 0
2.8800001 -0.014685888 0.5605706 0
2.8820002 -0.019137688 0.56069684 0
2.8860002 -0.023578664 0.56094939 0
2.8900001 -0.028034071 0.56120193 0
2.8960001 -0.032493085 0.56158066 0
2.9050002 -0.036962919 0.56214893 0
2.8840003 -0.1580165 0.56082308 0
2.8730001 -0.16198127 0.56012863 0
2.8730001 -0.16644208 0.56012863 0
2.8740003 -0.17095341 0.56019175 0
2.8750002 -0.17546834 0.56025493 0
2.8750002 -0.17993277 0.56025493 0
2.8760002 -0.18445311 0.56031805 0
2.8770003 -0.18897706 0.56038117 0
2.8770003 -0.1934451 0.56038117 0
2.8780003 -0.19797446 0.5604443 0
2.8420002 0.38127527 0.55376661 0
2.8350003 0.37565821 0.55333734 0
2.8300002 0.37040913 0.55303067 0
2.8260002 0.36534762 0.55278534 0
2.8230002 0.36046833 0.55260134 0
2.8210001 0.35576579 0.55247867 0
2.8190002 0.35107049 0.552356 0
2.8180003 0.34654477 0.55229473 0
2.8170002 0.3420226 0.55223334 0
2.8160002 0.33750406 0.55217206 0
2.8160002 0.33314607 0.55217206 0
2.8160002 0.32878807 0.55217206 0
2.8160002 0.32443008 0.55217206 0
2.8170002 0.32022357 0.55223334 0
2.8180003 0.31601349 0.55229473 0
2.8190002 0.31179979 0.552356 0
2.8200002 0.30758247 0.55241734 0
2.8220003 0.30350587 0.55254 0
2.8250003 0.29956457 0.552724 0
2.8270001 0.2954717 0.55284667 0
2.8300002 0.29151055 0.55303067 0
2.8340001 0.28767565 0.55327594 0
2.8380003 0.28382635 0.55352128 0
2.8430002 0.28009605 0.55382794 0
2.8490002 0.27647942 0.55419588 0
2.8570001 0.27310088 0.55468655 0
2.8700001 0.27033383 0.55548382 0
2.9000001 0.05320945 0.55732369 0
2.8920002 0.048396889 0.55683309 0
2.8870003 0.043721426 0.55652642 0
2.8830001 0.039098259 0.55628109 0
2.8800001 0.034521993 0.55609715 0
2.8780003 0.029987227 0.55597448 0
2.8760002 0.025459666 0.55585182 0
2.8750002 0.020966385 0.55579048 0
2.8740003 0.016476702 0.55572915 0
2.8730001 0.011990633 0.55566782 0
2.8740003 0.0075514615 0.55572915 0
2.8740003 0.0030888394 0.55572915 0
2.8750002 -0.0013557449 0.55579048 0
2.8760002 -0.005803939 0.55585182 0
2.8780003 -0.010241304 0.55597448 0
2.8800001 -0.014685888 0.55609715 0
2.8820002 -0.019137688 0.55621976 0
2.8860002 -0.023578664 0.55646509 0
2.8900001 -0.028034071 0.55671042 0
2.8960001 -0.032493085 0.55707836 0
2.9050002 -0.036962919 0.55763036 0
2.8840003 -0.1580165 0.55634248 0
2.8730001 -0.16198127 0.55566782 0
2.8730001 -0.16644208 0.55566782 0
2.8740003 -0.17095341 0.55572915 0
2.8750002 -0.17546834 0.55579048 0
2.8750002 -0.17993277 0.55579048 0
2.8760002 -0.18445311 0.55585182 0
2.8770003 -0.18897706 0.55591315 0
2.8770003 -0.1934451 0.55591315 0
2.8780003 -0.19797446 0.55597448 0
2.8460002 0.38197514 0.54959983 0
2.8380003 0.37617773 0.54912364 0
2.8330002 0.37092322 0.54882598 0
2.8290002 0.36585632 0.54858786 0
2.8260002 0.3609716 0.54840928 0
2.8230002 0.35609773 0.54823071 0
2.8210001 0.3513988 0.54811168 0
2.8200002 0.34686941 0.54805213 0
2.8190002 0.34234369 0.54799259 0
2.8180003 0.33782154 0.5479331 0
2.8180003 0.33345991 0.5479331 0
2.8180003 0.32909831 0.5479331 0
2.8180003 0.32473671 0.5479331 0
2.8190002 0.32052663 0.54799259 0
2.8200002 0.31631291 0.54805213 0
2.8210001 0.31209561 0.54811168 0
2.8220003 0.30787471 0.54817116 0
2.8240001 0.30379447 0.54829025 0
2.8260002 0.29970706 0.54840928 0
2.8290002 0.29575309 0.54858786 0
2.8320003 0.29178834 0.54876643 0
2.8360002 0.28794983 0.54900455 0
2.8410003 0.2842322 0.54930222 0
2.8460002 0.28049651 0.54959983 0
2.8520002 0.27687448 0.54995698 0
2.8610003 0.2736204 0.5504927 0
2.9000001 0.05320945 0.55281419 0
2.8920002 0.048396889 0.552338 0
2.8870003 0.043721426 0.55204034 0
2.8830001 0.039098259 0.55180228 0
2.8800001 0.034521993 0.5516237 0
2.8780003 0.029987227 0.55150461 0
2.8760002 0.025459666 0.55138558 0
2.8750002 0.020966385 0.55132604 0
2.8740003 0.016476702 0.55126655 0
2.8730001 0.011990633 0.55120701 0
2.8740003 0.0075514615 0.55126655 0
2.8740003 0.0030888394 0.55126655 0
2.8750002 -0.0013557449 0.55132604 0
2.8760002 -0.005803939 0.55138558 0
2.8780003 -0.010241304 0.55150461 0
2.8800001 -0.014685888 0.5516237 0
2.8820002 -0.019137688 0.55174273 0
2.8860002 -0.023578664 0.55198085 0
2.8900001 -0.028034071 0.55221891 0
2.8960001 -0.032493085 0.55257607 0
2.9050002 -0.036962919 0.55311179 0
2.8840003 -0.1580165 0.55186176 0
2.8730001 -0.16198127 0.55120701 0
2.8730001 -0.16644208 0.55120701 0
2.8740003 -0.17095341 0.55126655 0
2.8750002 -0.17546834 0.55132604 0
2.8750002 -0.17993277 0.55132604 0
2.8760002 -0.18445311 0.55138558 0
2.8770003 -0.18897706 0.55144513 0
2.8770003 -0.1934451 0.55144513 0
2.8780003 -0.19797446 0.55150461 0
2.8420002 0.37687036 0.5449568 0
2.8360002 0.37143731 0.5446105 0
2.8320003 0.36636499 0.54437959 0
2.8280003 0.36130711 0.54414868 0
2.8260002 0.35659558 0.54403329 0
2.8240001 0.35189122 0.54391778 0
2.8220003 0.34719411 0.54380238 0
2.8210001 0.34266472 0.54374462 0
2.8200002 0.338139 0.54368693 0
2.8200002 0.33377379 0.54368693 0
2.8200002 0.32940856 0.54368693 0
2.8200002 0.32504335 0.54368693 0
2.8210001 0.32082963 0.54374462 0
2.8220003 0.31661236 0.54380238 0
2.8230002 0.31239143 0.54386008 0
2.8250003 0.30831304 0.54397553 0
2.8270001 0.30422738 0.54409099 0
2.8290002 0.30013457 0.54420644 0
2.8320003 0.29617521 0.54437959 0
2.8350003 0.29220504 0.54455274 0
2.8390002 0.2883611 0.54478365 0
2.8430002 0.28450274 0.5450145 0
2.8490002 0.28089696 0.54536086 0
2.8570001 0.27753285 0.54582262 0
2.8670001 0.27439961 0.54639983 0
2.9000001 0.05320945 0.54830468 0
2.8920002 0.048396889 0.54784286 0
2.8870003 0.043721426 0.54755431 0
2.8830001 0.039098259 0.54732341 0
2.8800001 0.034521993 0.54715025 0
2.8780003 0.029987227 0.5470348 0
2.8760002 0.025459666 0.54691935 0
2.8750002 0.020966385 0.54686165 0
2.8740003 0.016476702 0.54680389 0
2.8730001 0.011990633 0.54674619 0
2.8740003 0.0075514615 0.54680389 0
2.8740003 0.0030888394 0.54680389 0
2.8750002 -0.0013557449 0.54686165 0
2.8760002 -0.005803939 0.54691935 0
2.8780003 -0.010241304 0.5470348 0
2.8800001 -0.014685888 0.54715025 0
2.8820002 -0.019137688 0.54726565 0
2.8860002 -0.023578664 0.54749656 0
2.8900001 -0.028034071 0.54772747 0
2.8960001 -0.032493085 0.54807377 0
2.9050002 -0.036962919 0.54859328 0
2.8840003 -0.1580165 0.54738116 0
2.8730001 -0.16198127 0.54674619 0
2.8730001 -0.16644208 0.54674619 0
2.8740003 -0.17095341 0.54680389 0
2.8750002 -0.17546834 0.54686165 0
2.8750002 -0.17993277 0.54686165 0
2.8760002 -0.18445311 0.54691935 0
2.8770003 -0.18897706 0.54697704 0
2.8770003 -0.1934451 0.54697704 0
2.8780003 -0.19797446 0.5470348 0
2.8490002 0.37808251 0.54094332 0
2.8410003 0.37229413 0.54049599 0
2.8360002 0.36704323 0.54021639 0
2.8320003 0.36197811 0.53999275 0
2.8290002 0.35709342 0.53982496 0
2.8270001 0.35238367 0.53971314 0
2.8250003 0.34768116 0.53960133 0
2.8240001 0.34314635 0.53954536 0
2.8230002 0.33861521 0.53948945 0
2.8230002 0.33424458 0.53948945 0
2.8230002 0.32987395 0.53948945 0
2.8230002 0.32550332 0.53948945 0
2.8230002 0.32113269 0.53948945 0
2.8240001 0.31691176 0.53954536 0
2.8260002 0.31283516 0.53965724 0
2.8270001 0.30860522 0.53971314 0
2.8290002 0.30451602 0.53982496 0
2.8320003 0.30056205 0.53999275 0
2.8350003 0.2965973 0.54016048 0
2.8380003 0.2926217 0.54032826 0
2.8420002 0.28877237 0.5405519 0
2.8470001 0.2850439 0.54083151 0
2.8530002 0.28143087 0.54116702 0
2.8620002 0.27819124 0.54167026 0
2.9000001 0.05320945 0.54379511 0
2.8920002 0.048396889 0.54334784 0
2.8870003 0.043721426 0.54306823 0
2.8830001 0.039098259 0.54284453 0
2.8800001 0.034521993 0.54267681 0
2.8780003 0.029987227 0.54256499 0
2.8760002 0.025459666 0.54245311 0
2.8750002 0.020966385 0.5423972 0
2.8740003 0.016476702 0.54234129 0
2.8730001 0.011990633 0.54228538 0
2.8740003 0.0075514615 0.54234129 0
2.8740003 0.0030888394 0.54234129 0
2.8750002 -0.0013557449 0.5423972 0
2.8760002 -0.005803939 0.54245311 0
2.8780003 -0.010241304 0.54256499 0
2.8800001 -0.014685888 0.54267681 0
2.8820002 -0.019137688 0.54278862 0
2.8860002 -0.023578664 0.54301226 0
2.8900001 -0.028034071 0.54323596 0
2.8960001 -0.032493085 0.54357147 0
2.9050002 -0.036962919 0.54407477 0
2.8840003 -0.1580165 0.54290044 0
2.8730001 -0.16198127 0.54228538 0
2.8730001 -0.16644208 0.54228538 0
2.8740003 -0.17095341 0.54234129 0
2.8750002 -0.17546834 0.5423972 0
2.8750002 -0.17993277 0.5423972 0
2.8760002 -0.18445311 0.54245311 0
2.8770003 -0.18897706 0.54250908 0
2.8770003 -0.1934451 0.54250908 0
2.8780003 -0.19797446 0.54256499 0
2.8470001 0.37332225 0.5364176 0
2.8410003 0.36789104 0.53609288 0
