# .PCD v0.7 - Point Cloud Data file format
VERSION 0.7
FIELDS x y z intensity
SIZE 4 4 4 4
TYPE F F F F
COUNT 1 1 1 1
WIDTH 1378
HEIGHT 1
VIEWPOINT 0 0 0 1 0 0 0
POINTS 1378
DATA ascii
2.8610003 0.011709236 0.59932363 0
2.8620002 0.0072917119 0.59940296 0
2.8640003 0.0028904192 0.59956169 0
2.8670001 -0.0015000515 0.59979975 0
2.8700001 -0.0059013441 0.60003787 0
2.8720002 -0.010327887 0.6001966 0
2.8760002 -0.014736395 0.60051405 0
2.8800001 -0.019159334 0.60083157 0
2.8860002 -0.023578664 0.60130775 0
2.8940003 -0.028005209 0.60194272 0
2.8980002 -0.16315374 0.60226017 0
2.8840003 -0.16697782 0.60114902 0
2.8770003 -0.17110492 0.60059345 0
2.8710003 -0.1752591 0.60011727 0
2.8670001 -0.17949985 0.59979975 0
2.8640003 -0.1837821 0.59956169 0
2.8610003 -0.18805352 0.59932363 0
2.8590002 -0.19237363 0.59916484 0
2.8570001 -0.19668654 0.59900612 0
2.8560002 -0.20105536 0.59892672 0
2.8550003 -0.20542058 0.59884739 0
2.8550003 -0.20984893 0.59884739 0
2.8540003 -0.21420874 0.598768 0
2.8550003 -0.21870562 0.59884739 0
2.8560002 -0.22320613 0.59892672 0
2.8570001 -0.22771022 0.59900612 0
2.8580003 -0.23221795 0.59908545 0
2.8610003 -0.2368844 0.59932363 0
2.8640003 -0.24156168 0.59956169 0
2.8680003 -0.24633095 0.59987915 0
2.8730001 -0.25119761 0.60027599 0
2.8810003 -0.25633666 0.60091096 0
2.8550003 -0.37369785 0.59884739 0
2.8330002 -0.37514991 0.59710127 0
2.8330002 -0.37953857 0.59710127 0
2.8330002 -0.38392723 0.59710127 0
2.8330002 -0.38831589 0.59710127 0
2.8330002 -0.39270455 0.59710127 0
2.8340001 -0.39723754 0.59718066 0
2.8340001 -0.40162802 0.59718066 0
2.8340001 -0.40601847 0.59718066 0
2.8340001 -0.41040894 0.59718066 0
2.8680003 0.16768633 0.59542739 0
2.8590002 0.16247153 0.5947293 0
2.8530002 0.15753812 0.59426391 0
2.8490002 0.15278868 0.59395367 0
2.8450003 0.14805369 0.59364343 0
2.8420002 0.14341068 0.59341073 0
2.8400002 0.13885427 0.59325558 0
2.8380003 0.13430506 0.59310043 0
2.8360002 0.12976307 0.59294534 0
2.8350003 0.12529865 0.59286773 0
2.8340001 0.12083782 0.59279019 0
2.8340001 0.11644734 0.59279019 0
2.8340001 0.11205688 0.59279019 0
2.8340001 0.10766642 0.59279019 0
2.8350003 0.10333729 0.59286773 0
2.8350003 0.098945007 0.59286773 0
2.8370001 0.09466818 0.59302288 0
2.8380003 0.090328217 0.59310043 0
2.8400002 0.086038753 0.59325558 0
2.8420002 0.081742078 0.59341073 0
2.8450003 0.07748872 0.59364343 0
2.8480003 0.073224515 0.59387612 0
2.8490002 0.068855688 0.59395367 0
2.8490002 0.064438164 0.59395367 0
2.8500001 0.060063925 0.59403121 0
2.8500001 0.05564459 0.59403121 0
2.8510003 0.051264953 0.59410876 0
2.8520002 0.046881694 0.59418631 0
2.8530002 0.04249483 0.59426391 0
2.8540003 0.038104367 0.59434146 0
2.8550003 0.03371029 0.594419 0
2.8570001 0.029343266 0.59457415 0
2.8580003 0.024940174 0.5946517 0
2.8600001 0.020560522 0.59480685 0
2.8620002 0.016173664 0.594962 0
2.8640003 0.011779584 0.59511709 0
2.8660002 0.0073782913 0.59527224 0
2.8690002 0.0029896274 0.59550494 0
2.8710003 -0.0014278963 0.59566003 0
2.8750002 -0.00582017 0.59597027 0
2.8790002 -0.010226876 0.59628057 0
2.8840003 -0.014635384 0.59666836 0
2.8900001 -0.019051105 0.59713376 0
2.8980002 -0.16315374 0.5977543 0
2.8840003 -0.16697782 0.59666836 0
2.8770003 -0.17110492 0.59612542 0
2.8710003 -0.1752591 0.59566003 0
2.8670001 -0.17949985 0.59534979 0
2.8640003 -0.1837821 0.59511709 0
2.8610003 -0.18805352 0.5948844 0
2.8590002 -0.19237363 0.5947293 0
2.8570001 -0.19668654 0.59457415 0
2.8560002 -0.20105536 0.59449661 0
2.8550003 -0.20542058 0.594419 0
2.8550003 -0.20984893 0.594419 0
2.8540003 -0.21420874 0.59434146 0
2.8550003 -0.21870562 0.594419 0
2.8560002 -0.22320613 0.59449661 0
2.8570001 -0.22771022 0.59457415 0
2.8580003 -0.23221795 0.5946517 0
2.8610003 -0.2368844 0.5948844 0
2.8640003 -0.24156168 0.59511709 0
2.8680003 -0.24633095 0.59542739 0
2.8730001 -0.25119761 0.59581518 0
2.8810003 -0.25633666 0.59643567 0
2.8550003 -0.37369785 0.594419 0
2.8330002 -0.37514991 0.59271264 0
2.8330002 -0.37953857 0.59271264 0
2.8330002 -0.38392723 0.59271264 0
2.8330002 -0.38831589 0.59271264 0
2.8330002 -0.39270455 0.59271264 0
2.8340001 -0.39723754 0.59279019 0
2.8340001 -0.40162802 0.59279019 0
2.8340001 -0.40601847 0.59279019 0
2.8340001 -0.41040894 0.59279019 0
2.8650002 0.16742659 0.59074831 0
2.8570001 0.16230196 0.59014219 0
2.8520002 0.15745513 0.5897634 0
2.8470001 0.15262632 0.58938462 0
2.8440001 0.14797431 0.58915734 0
2.8410003 0.14333314 0.58893007 0
2.8390002 0.13877851 0.5887785 0
2.8370001 0.13423109 0.58862698 0
2.8350003 0.12969093 0.58847547 0
2.8340001 0.12522829 0.58839971 0
2.8330002 0.12076928 0.58832395 0
2.8330002 0.11638062 0.58832395 0
2.8330002 0.11199196 0.58832395 0
2.8330002 0.1076033 0.58832395 0
2.8340001 0.10327594 0.58839971 0
2.8340001 0.098885477 0.58839971 0
2.8360002 0.094610453 0.58855122 0
2.8370001 0.090272292 0.58862698 0
2.8390002 0.085984647 0.5887785 0
2.8410003 0.08168979 0.58893007 0
2.8440001 0.077438191 0.58915734 0
2.8470001 0.073175803 0.58938462 0
2.8490002 0.068855688 0.58953613 0
2.8500001 0.064483255 0.58961189 0
2.8510003 0.06010722 0.58968765 0
2.8520002 0.055727568 0.5897634 0
2.8520002 0.051304635 0.5897634 0
2.8540003 0.046957459 0.58991492 0
2.8550003 0.042566981 0.58999068 0
2.8560002 0.038172904 0.59006643 0
2.8580003 0.033807691 0.59021795 0
2.8590002 0.029404592 0.59029371 0
2.8610003 0.025026757 0.59044528 0
2.8630002 0.020641688 0.59059674 0
2.8650002 0.016249422 0.59074831 0
2.8680003 0.011873387 0.59097558 0
2.8700001 0.0074648708 0.59112704 0
2.8740003 0.0030888394 0.59143013 0
2.8780003 -0.0013016313 0.59173316 0
2.8820002 -0.0057065301 0.59203619 0
2.8880002 -0.010097001 0.59249079 0
2.8980002 -0.16315374 0.59324837 0
2.8840003 -0.16697782 0.59218776 0
2.8770003 -0.17110492 0.5916574 0
2.8710003 -0.1752591 0.59120286 0
2.8670001 -0.17949985 0.59089983 0
2.8640003 -0.1837821 0.59067249 0
2.8610003 -0.18805352 0.59044528 0
2.8590002 -0.19237363 0.59029371 0
2.8570001 -0.19668654 0.59014219 0
2.8560002 -0.20105536 0.59006643 0
2.8550003 -0.20542058 0.58999068 0
2.8550003 -0.20984893 0.58999068 0
2.8540003 -0.21420874 0.58991492 0
2.8550003 -0.21870562 0.58999068 0
2.8560002 -0.22320613 0.59006643 0
2.8570001 -0.22771022 0.59014219 0
2.8580003 -0.23221795 0.59021795 0
2.8610003 -0.2368844 0.59044528 0
2.8640003 -0.24156168 0.59067249 0
2.8680003 -0.24633095 0.59097558 0
2.8730001 -0.25119761 0.59135437 0
2.8810003 -0.25633666 0.59196043 0
2.8550003 -0.37369785 0.58999068 0
2.8330002 -0.37514991 0.58832395 0
2.8330002 -0.37953857 0.58832395 0
2.8330002 -0.38392723 0.58832395 0
2.8330002 -0.38831589 0.58832395 0
2.8330002 -0.39270455 0.58832395 0
2.8340001 -0.39723754 0.58839971 0
2.8340001 -0.40162802 0.58839971 0
2.8340001 -0.40601847 0.58839971 0
2.8340001 -0.41040894 0.58839971 0
2.8750002 0.17275685 0.58704144 0
2.8630002 0.1672534 0.58615398 0
2.8560002 0.16221718 0.58563626 0
2.8510003 0.15737216 0.58526653 0
2.8460002 0.15254517 0.58489674 0
2.8430002 0.14789495 0.58467484 0
2.8400002 0.14325556 0.58445299 0
2.8380003 0.13870275 0.58430505 0
2.8360002 0.13415715 0.58415717 0
2.8350003 0.12969093 0.5840832 0
2.8340001 0.12522829 0.58400923 0
2.8330002 0.12076928 0.58393532 0
2.8320003 0.11631389 0.58386135 0
2.8320003 0.11192702 0.58386135 0
2.8330002 0.1076033 0.58393532 0
2.8330002 0.10321461 0.58393532 0
2.8340001 0.098885477 0.58400923 0
2.8350003 0.09455274 0.5840832 0
2.8360002 0.090216383 0.58415717 0
2.8380003 0.085930541 0.58430505 0
2.8400002 0.081637472 0.58445299 0
2.8430002 0.077387691 0.58467484 0
2.8460002 0.073127091 0.58489674 0
2.8500001 0.068902582 0.58519256 0
2.8510003 0.064528361 0.58526653 0
2.8520002 0.060150508 0.5853405 0
2.8530002 0.05576906 0.58541441 0
2.8540003 0.051384006 0.58548838 0
2.8560002 0.047033209 0.58563626 0
2.8570001 0.042639133 0.58571023 0
2.8590002 0.038275722 0.58585817 0
2.8610003 0.0339051 0.58600605 0
2.8620002 0.029496592 0.58608001 0
2.8640003 0.02511334 0.58622795 0
2.8670001 0.020749923 0.5864498 0
2.8700001 0.016375691 0.58667171 0
2.8730001 0.011990633 0.58689356 0
2.8760002 0.0075947493 0.58711541 0
2.8800001 0.0032078885 0.58741122 0
2.8870003 -0.0011392869 0.58792895 0
2.8980002 -0.16315374 0.58874243 0
2.8840003 -0.16697782 0.58770704 0
2.8770003 -0.17110492 0.58718938 0
2.8710003 -0.1752591 0.58674562 0
2.8670001 -0.17949985 0.5864498 0
2.8640003 -0.1837821 0.58622795 0
2.8610003 -0.18805352 0.58600605 0
2.8590002 -0.19237363 0.58585817 0
2.8570001 -0.19668654 0.58571023 0
2.8560002 -0.20105536 0.58563626 0
2.8550003 -0.20542058 0.58556235 0
2.8550003 -0.20984893 0.58556235 0
2.8540003 -0.21420874 0.58548838 0
2.8550003 -0.21870562 0.58556235 0
2.8560002 -0.22320613 0.58563626 0
2.8570001 -0.22771022 0.58571023 0
2.8580003 -0.23221795 0.5857842 0
2.8610003 -0.2368844 0.58600605 0
2.8640003 -0.24156168 0.58622795 0
2.8680003 -0.24633095 0.58652377 0
2.8730001 -0.25119761 0.58689356 0
2.8810003 -0.25633666 0.58748519 0
2.8550003 -0.37369785 0.58556235 0
2.8330002 -0.37514991 0.58393532 0
2.8330002 -0.37953857 0.58393532 0
2.8330002 -0.38392723 0.58393532 0
2.8330002 -0.38831589 0.58393532 0
2.8330002 -0.39270455 0.58393532 0
2.8340001 -0.39723754 0.58400923 0
2.8340001 -0.40162802 0.58400923 0
2.8340001 -0.40601847 0.58400923 0
2.8340001 -0.41040894 0.58400923 0
2.8730001 0.17258006 0.58243275 0
2.8620002 0.16716684 0.58163905 0
2.8550003 0.16213241 0.58113396 0
2.8500001 0.15728918 0.58077323 0
2.8460002 0.15254517 0.58048463 0
2.8420002 0.14781559 0.58019602 0
2.8400002 0.14325556 0.58005172 0
2.8380003 0.13870275 0.57990742 0
2.8360002 0.13415715 0.57976305 0
2.8340001 0.12961876 0.57961881 0
2.8330002 0.12515794 0.57954663 0
2.8330002 0.12076928 0.57954663 0
2.8320003 0.11631389 0.57947445 0
2.8320003 0.11192702 0.57947445 0
2.8320003 0.10754015 0.57947445 0
2.8330002 0.10321461 0.57954663 0
2.8340001 0.098885477 0.57961881 0
2.8350003 0.09455274 0.57969093 0
2.8360002 0.090216383 0.57976305 0
2.8380003 0.085930541 0.57990742 0
2.8400002 0.081637472 0.58005172 0
2.8430002 0.077387691 0.58026814 0
2.8460002 0.073127091 0.58048463 0
2.8490002 0.068855688 0.58070105 0
2.8530002 0.064618543 0.58098966 0
2.8540003 0.060237091 0.58106184 0
2.8550003 0.055852037 0.58113396 0
2.8560002 0.051463362 0.58120614 0
2.8580003 0.047108974 0.58135045 0
2.8600001 0.04274736 0.58149475 0
2.8620002 0.03837854 0.58163905 0
2.8640003 0.034002509 0.58178335 0
2.8660002 0.029619243 0.58192766 0
2.8690002 0.025257643 0.58214414 0
2.8710003 0.02085815 0.58228844 0
2.8750002 0.016501952 0.58257705 0
2.8790002 0.012131326 0.58286566 0
2.8850002 0.0077895634 0.58329856 0
2.8930001 0.0034658313 0.58387578 0
2.8980002 -0.16315374 0.5842365 0
2.8840003 -0.16697782 0.58322644 0
2.8770003 -0.17110492 0.58272135 0
2.8710003 -0.1752591 0.58228844 0
2.8670001 -0.17949985 0.58199978 0
2.8640003 -0.1837821 0.58178335 0
2.8610003 -0.18805352 0.58156693 0
2.8590002 -0.19237363 0.58142257 0
2.8570001 -0.19668654 0.58127826 0
2.8560002 -0.20105536 0.58120614 0
2.8550003 -0.20542058 0.58113396 0
2.8550003 -0.20984893 0.58113396 0
2.8540003 -0.21420874 0.58106184 0
2.8550003 -0.21870562 0.58113396 0
2.8560002 -0.22320613 0.58120614 0
2.8570001 -0.22771022 0.58127826 0
2.8580003 -0.23221795 0.58135045 0
2.8610003 -0.2368844 0.58156693 0
2.8640003 -0.24156168 0.58178335 0
2.8680003 -0.24633095 0.58207196 0
2.8730001 -0.25119761 0.58243275 0
2.8810003 -0.25633666 0.58300996 0
2.8550003 -0.37369785 0.58113396 0
2.8330002 -0.37514991 0.57954663 0
2.8330002 -0.37953857 0.57954663 0
2.8330002 -0.38392723 0.57954663 0
2.8330002 -0.38831589 0.57954663 0
2.8330002 -0.39270455 0.57954663 0
2.8340001 -0.39723754 0.57961881 0
2.8340001 -0.40162802 0.57961881 0
2.8340001 -0.40601847 0.57961881 0
2.8340001 -0.41040894 0.57961881 0
2.8730001 0.17258006 0.57797188 0
2.8620002 0.16716684 0.57719809 0
2.8550003 0.16213241 0.57670563 0
2.8500001 0.15728918 0.57635391 0
2.8460002 0.15254517 0.57607251 0
2.8430002 0.14789495 0.57586145 0
2.8400002 0.14325556 0.57565039 0
2.8380003 0.13870275 0.57550973 0
2.8360002 0.13415715 0.575369 0
2.8340001 0.12961876 0.57522833 0
2.8330002 0.12515794 0.57515794 0
2.8330002 0.12076928 0.57515794 0
2.8320003 0.11631389 0.57508761 0
2.8320003 0.11192702 0.57508761 0
2.8320003 0.10754015 0.57508761 0
2.8330002 0.10321461 0.57515794 0
2.8340001 0.098885477 0.57522833 0
2.8350003 0.09455274 0.57529867 0
2.8360002 0.090216383 0.575369 0
2.8380003 0.085930541 0.57550973 0
2.8400002 0.081637472 0.57565039 0
2.8430002 0.077387691 0.57586145 0
2.8460002 0.073127091 0.57607251 0
2.8490002 0.068855688 0.57628357 0
2.8530002 0.064618543 0.57656491 0
2.8560002 0.060323667 0.57677597 0
2.8570001 0.055935007 0.5768463 0
2.8590002 0.051582422 0.57698703 0
2.8610003 0.047222618 0.57712775 0
2.8630002 0.042855594 0.57726842 0
2.8650002 0.038481358 0.57740915 0
2.8680003 0.03413238 0.57762015 0
2.8710003 0.029772576 0.57783121 0
2.8740003 0.025401946 0.57804227 0
2.8780003 0.021047551 0.57832366 0
2.8830001 0.016703982 0.57867539 0
2.8890002 0.012365825 0.57909751 0
2.8980002 -0.16315374 0.57973063 0
2.8840003 -0.16697782 0.57874572 0
2.8770003 -0.17110492 0.57825333 0
2.8710003 -0.1752591 0.57783121 0
2.8670001 -0.17949985 0.57754982 0
2.8640003 -0.1837821 0.57733876 0
2.8610003 -0.18805352 0.57712775 0
2.8590002 -0.19237363 0.57698703 0
2.8570001 -0.19668654 0.5768463 0
2.8560002 -0.20105536 0.57677597 0
2.8550003 -0.20542058 0.57670563 0
2.8550003 -0.20984893 0.57670563 0
2.8540003 -0.21420874 0.5766353 0
2.8550003 -0.21870562 0.57670563 0
2.8560002 -0.22320613 0.57677597 0
2.8570001 -0.22771022 0.5768463 0
2.8580003 -0.23221795 0.57691669 0
2.8610003 -0.2368844 0.57712775 0
2.8640003 -0.24156168 0.57733876 0
2.8680003 -0.24633095 0.57762015 0
2.8730001 -0.25119761 0.57797188 0
2.8810003 -0.25633666 0.57853472 0
2.8550003 -0.37369785 0.57670563 0
2.8330002 -0.37514991 0.57515794 0
2.8330002 -0.37953857 0.57515794 0
2.8330002 -0.38392723 0.57515794 0
2.8330002 -0.38831589 0.57515794 0
2.8330002 -0.39270455 0.57515794 0
2.8340001 -0.39723754 0.57522833 0
2.8340001 -0.40162802 0.57522833 0
2.8340001 -0.40601847 0.57522833 0
2.8340001 -0.41040894 0.57522833 0
2.8730001 0.17258006 0.57351106 0
2.8620002 0.16716684 0.57275712 0
2.8550003 0.16213241 0.57227731 0
2.8500001 0.15728918 0.57193458 0
2.8460002 0.15254517 0.5716604 0
2.8430002 0.14789495 0.57145476 0
2.8400002 0.14325556 0.57124913 0
2.8380003 0.13870275 0.57111204 0
2.8360002 0.13415715 0.57097495 0
2.8350003 0.12969093 0.5709064 0
2.8340001 0.12522829 0.57083786 0
2.8330002 0.12076928 0.57076931 0
2.8330002 0.11638062 0.57076931 0
2.8320003 0.11192702 0.57070076 0
2.8330002 0.1076033 0.57076931 0
2.8330002 0.10321461 0.57076931 0
2.8340001 0.098885477 0.57083786 0
2.8350003 0.09455274 0.5709064 0
2.8360002 0.090216383 0.57097495 0
2.8380003 0.085930541 0.57111204 0
2.8400002 0.081637472 0.57124913 0
2.8430002 0.077387691 0.57145476 0
2.8460002 0.073127091 0.5716604 0
2.8500001 0.068902582 0.57193458 0
2.8540003 0.064663634 0.57220876 0
2.8590002 0.060453545 0.57255149 0
2.8600001 0.056059469 0.57262003 0
2.8620002 0.051701467 0.57275712 0
2.8640003 0.047336254 0.57289422 0
2.8670001 0.042999897 0.57309985 0
2.8700001 0.038652714 0.57330543 0
2.8730001 0.034294713 0.57351106 0
2.8770003 0.029956568 0.57378531 0
2.8810003 0.025603976 0.57405949 0
2.8870003 0.021291073 0.57447076 0
2.8980002 -0.16315374 0.5752247 0
2.8840003 -0.16697782 0.57426506 0
2.8770003 -0.17110492 0.57378531 0
2.8710003 -0.1752591 0.57337403 0
2.8670001 -0.17949985 0.57309985 0
2.8640003 -0.1837821 0.57289422 0
2.8610003 -0.18805352 0.57268858 0
2.8590002 -0.19237363 0.57255149 0
2.8570001 -0.19668654 0.57241434 0
2.8560002 -0.20105536 0.57234585 0
2.8550003 -0.20542058 0.57227731 0
2.8550003 -0.20984893 0.57227731 0
2.8540003 -0.21420874 0.57220876 0
2.8550003 -0.21870562 0.57227731 0
2.8560002 -0.22320613 0.57234585 0
2.8570001 -0.22771022 0.57241434 0
2.8580003 -0.23221795 0.57248294 0
2.8610003 -0.2368844 0.57268858 0
2.8640003 -0.24156168 0.57289422 0
2.8680003 -0.24633095 0.5731684 0
2.8730001 -0.25119761 0.57351106 0
2.8810003 -0.25633666 0.57405949 0
2.8550003 -0.37369785 0.57227731 0
2.8330002 -0.37514991 0.57076931 0
2.8330002 -0.37953857 0.57076931 0
2.8330002 -0.38392723 0.57076931 0
2.8330002 -0.38831589 0.57076931 0
2.8330002 -0.39270455 0.57076931 0
2.8340001 -0.39723754 0.57083786 0
2.8340001 -0.40162802 0.57083786 0
2.8340001 -0.40601847 0.57083786 0
2.8340001 -0.41040894 0.57083786 0
2.8740003 0.17266847 0.56911701 0
2.8630002 0.1672534 0.56838286 0
2.8570001 0.16230196 0.56798244 0
2.8510003 0.15737216 0.56758201 0
2.8470001 0.15262632 0.56731498 0
2.8440001 0.14797431 0.56711477 0
2.8410003 0.14333314 0.56691456 0
2.8390002 0.13877851 0.56678104 0
2.8370001 0.13423109 0.56664759 0
2.8350003 0.12969093 0.56651413 0
2.8340001 0.12522829 0.56644738 0
2.8340001 0.12083782 0.56644738 0
2.8330002 0.11638062 0.56638062 0
2.8330002 0.11199196 0.56638062 0
2.8330002 0.1076033 0.56638062 0
2.8340001 0.10327594 0.56644738 0
2.8350003 0.098945007 0.56651413 0
2.8360002 0.094610453 0.56658089 0
2.8370001 0.090272292 0.56664759 0
2.8390002 0.085984647 0.56678104 0
2.8410003 0.08168979 0.56691456 0
2.8440001 0.077438191 0.56711477 0
2.8470001 0.073175803 0.56731498 0
2.8500001 0.068902582 0.56751525 0
2.8550003 0.064708725 0.56784892 0
2.8600001 0.060496833 0.56818265 0
2.8640003 0.056225423 0.56844962 0
2.8660002 0.051860202 0.56858307 0
2.8690002 0.047525655 0.56878328 0
2.8720002 0.043180276 0.56898355 0
2.8760002 0.038858358 0.56925046 0
2.8790002 0.034489531 0.56945074 0
2.8850002 0.030201878 0.56985116 0
2.8980002 -0.16315374 0.57071877 0
2.8840003 -0.16697782 0.5697844 0
2.8770003 -0.17110492 0.56931722 0
2.8710003 -0.1752591 0.5689168 0
2.8670001 -0.17949985 0.56864983 0
2.8640003 -0.1837821 0.56844962 0
2.8610003 -0.18805352 0.5682494 0
2.8590002 -0.19237363 0.56811589 0
2.8570001 -0.19668654 0.56798244 0
2.8560002 -0.20105536 0.56791568 0
2.8550003 -0.20542058 0.56784892 0
2.8550003 -0.20984893 0.56784892 0
2.8540003 -0.21420874 0.56778222 0
2.8550003 -0.21870562 0.56784892 0
2.8560002 -0.22320613 0.56791568 0
2.8570001 -0.22771022 0.56798244 0
2.8580003 -0.23221795 0.56804919 0
2.8610003 -0.2368844 0.5682494 0
2.8640003 -0.24156168 0.56844962 0
2.8680003 -0.24633095 0.56871659 0
2.8730001 -0.25119761 0.56905025 0
2.8810003 -0.25633666 0.56958419 0
2.8550003 -0.37369785 0.56784892 0
2.8330002 -0.37514991 0.56638062 0
2.8330002 -0.37953857 0.56638062 0
2.8330002 -0.38392723 0.56638062 0
2.8330002 -0.38831589 0.56638062 0
2.8330002 -0.39270455 0.56638062 0
2.8340001 -0.39723754 0.56644738 0
2.8340001 -0.40162802 0.56644738 0
2.8340001 -0.40601847 0.56644738 0
2.8340001 -0.41040894 0.56644738 0
2.8770003 0.17293362 0.5648492 0
2.8650002 0.16742659 0.56406999 0
2.8580003 0.16238675 0.56361538 0
2.8520002 0.15745513 0.56322575 0
2.8480003 0.15270752 0.56296605 0
2.8450003 0.14805369 0.5627712 0
2.8420002 0.14341068 0.56257641 0
2.8400002 0.13885427 0.56244653 0
2.8380003 0.13430506 0.56231666 0
2.8360002 0.12976307 0.56218678 0
2.8350003 0.12529865 0.56212187 0
2.8340001 0.12083782 0.5620569 0
2.8340001 0.11644734 0.5620569 0
2.8340001 0.11205688 0.5620569 0
2.8340001 0.10766642 0.5620569 0
2.8350003 0.10333729 0.56212187 0
2.8350003 0.098945007 0.56212187 0
2.8370001 0.09466818 0.56225169 0
2.8380003 0.090328217 0.56231666 0
2.8400002 0.086038753 0.56244653 0
2.8420002 0.081742078 0.56257641 0
2.8450003 0.07748872 0.5627712 0
2.8480003 0.073224515 0.56296605 0
2.8510003 0.068949491 0.56316084 0
2.8560002 0.064753816 0.5634855 0
2.8610003 0.060540128 0.56381023 0
2.8680003 0.05639137 0.56426477 0
2.8710003 0.052058626 0.56445956 0
2.8740003 0.047715057 0.56465441 0
2.8780003 0.043396737 0.56491417 0
2.8840003 0.039132532 0.5653038 0
2.8910003 0.034879159 0.56575835 0
2.8980002 -0.16315374 0.56621289 0
2.8840003 -0.16697782 0.5653038 0
2.8770003 -0.17110492 0.5648492 0
2.8710003 -0.1752591 0.56445956 0
2.8670001 -0.17949985 0.56419981 0
2.8640003 -0.1837821 0.56400502 0
2.8610003 -0.18805352 0.56381023 0
2.8590002 -0.19237363 0.56368035 0
2.8570001 -0.19668654 0.56355047 0
2.8560002 -0.20105536 0.5634855 0
2.8550003 -0.20542058 0.56342059 0
2.8550003 -0.20984893 0.56342059 0
2.8540003 -0.21420874 0.56335568 0
2.8550003 -0.21870562 0.56342059 0
2.8560002 -0.22320613 0.5634855 0
2.8570001 -0.22771022 0.56355047 0
2.8580003 -0.23221795 0.56361538 0
2.8610003 -0.2368844 0.56381023 0
2.8640003 -0.24156168 0.56400502 0
2.8680003 -0.24633095 0.56426477 0
2.8730001 -0.25119761 0.56458944 0
2.8810003 -0.25633666 0.56510895 0
2.8550003 -0.37369785 0.56342059 0
2.8330002 -0.37514991 0.56199199 0
2.8330002 -0.37953857 0.56199199 0
2.8330002 -0.38392723 0.56199199 0
2.8330002 -0.38831589 0.56199199 0
2.8330002 -0.39270455 0.56199199 0
2.8340001 -0.39723754 0.5620569 0
2.8340001 -0.40162802 0.5620569 0
2.8340001 -0.40601847 0.5620569 0
2.8340001 -0.41040894 0.5620569 0
2.8680003 0.16768633 0.55981296 0
2.8600001 0.16255631 0.55930787 0
2.8540003 0.1576211 0.55892909 0
2.8500001 0.15286985 0.55867654 0
2.8460002 0.14813305 0.558424 0
2.8430002 0.14348824 0.55823463 0
2.8410003 0.13893004 0.55810839 0
2.8390002 0.13437903 0.55798209 0
2.8380003 0.12990737 0.55791897 0
2.8360002 0.125369 0.55779266 0
2.8360002 0.12097491 0.55779266 0
2.8350003 0.1165141 0.5577296 0
2.8350003 0.11212182 0.5577296 0
2.8350003 0.10772955 0.5577296 0
2.8360002 0.10339861 0.55779266 0
2.8370001 0.099064052 0.55785584 0
2.8380003 0.094725907 0.55791897 0
2.8390002 0.090384126 0.55798209 0
2.8410003 0.086092874 0.55810839 0
2.8430002 0.081794396 0.55823463 0
2.8460002 0.07753922 0.558424 0
2.8490002 0.073273212 0.55861342 0
2.8530002 0.069043279 0.55886596 0
2.8570001 0.064798921 0.55911851 0
2.8630002 0.060626704 0.5594973 0
2.8700001 0.056474347 0.55993927 0
2.8770003 0.052296724 0.56038117 0
2.8820002 0.048018094 0.56069684 0
2.8880002 0.043757495 0.56107563 0
2.8980002 -0.16315374 0.56170696 0
2.8840003 -0.16697782 0.56082308 0
2.8770003 -0.17110492 0.56038117 0
2.8710003 -0.1752591 0.56000239 0
2.8670001 -0.17949985 0.55974984 0
2.8640003 -0.1837821 0.55956042 0
2.8610003 -0.18805352 0.55937105 0
2.8590002 -0.19237363 0.55924475 0
2.8570001 -0.19668654 0.55911851 0
2.8560002 -0.20105536 0.55905539 0
2.8550003 -0.20542058 0.55899227 0
2.8550003 -0.20984893 0.55899227 0
2.8540003 -0.21420874 0.55892909 0
2.8550003 -0.21870562 0.55899227 0
2.8560002 -0.22320613 0.55905539 0
2.8570001 -0.22771022 0.55911851 0
2.8580003 -0.23221795 0.55918163 0
2.8610003 -0.2368844 0.55937105 0
2.8640003 -0.24156168 0.55956042 0
2.8680003 -0.24633095 0.55981296 0
2.8730001 -0.25119761 0.56012863 0
2.8810003 -0.25633666 0.56063372 0
2.8550003 -0.37369785 0.55899227 0
2.8330002 -0.37514991 0.5576033 0
2.8330002 -0.37953857 0.5576033 0
2.8330002 -0.38392723 0.5576033 0
2.8330002 -0.38831589 0.5576033 0
2.8330002 -0.39270455 0.5576033 0
2.8340001 -0.39723754 0.55766642 0
2.8340001 -0.40162802 0.55766642 0
2.8340001 -0.40601847 0.55766642 0
2.8340001 -0.41040894 0.55766642 0
2.8720002 0.16803266 0.55560648 0
2.8630002 0.16281064 0.55505455 0
2.8570001 0.15787001 0.55468655 0
2.8520002 0.1530322 0.55437988 0
2.8480003 0.1482918 0.55413461 0
2.8450003 0.14364338 0.55395061 0
2.8430002 0.13908154 0.55382794 0
2.8410003 0.13452694 0.55370528 0
2.8390002 0.12997952 0.55358261 0
2.8380003 0.12550969 0.55352128 0
2.8370001 0.12104346 0.55345994 0
2.8370001 0.11664757 0.55345994 0
2.8370001 0.1122517 0.55345994 0
2.8370001 0.10785581 0.55345994 0
2.8370001 0.10345994 0.55345994 0
2.8380003 0.099123597 0.55352128 0
2.8390002 0.094783619 0.55358261 0
2.8410003 0.090495974 0.55370528 0
2.8430002 0.086201102 0.55382794 0
2.8450003 0.081899017 0.55395061 0
2.8480003 0.077640235 0.55413461 0
2.8510003 0.073370621 0.55431855 0
2.8550003 0.069137082 0.55456388 0
2.8590002 0.064889103 0.55480921 0
2.8660002 0.060756583 0.55523849 0
2.8730001 0.056598809 0.55566782 0
2.8860002 0.052653875 0.55646509 0
2.8980002 -0.16315374 0.55720103 0
2.8840003 -0.16697782 0.55634248 0
2.8770003 -0.17110492 0.55591315 0
2.8710003 -0.1752591 0.55554515 0
2.8670001 -0.17949985 0.55529982 0
2.8640003 -0.1837821 0.55511588 0
2.8610003 -0.18805352 0.55493188 0
2.8590002 -0.19237363 0.55480921 0
2.8570001 -0.19668654 0.55468655 0
2.8560002 -0.20105536 0.55462521 0
2.8550003 -0.20542058 0.55456388 0
2.8550003 -0.20984893 0.55456388 0
2.8540003 -0.21420874 0.55450255 0
2.8550003 -0.21870562 0.55456388 0
2.8560002 -0.22320613 0.55462521 0
2.8570001 -0.22771022 0.55468655 0
2.8580003 -0.23221795 0.55474788 0
2.8610003 -0.2368844 0.55493188 0
2.8640003 -0.24156168 0.55511588 0
2.8680003 -0.24633095 0.55536115 0
2.8730001 -0.25119761 0.55566782 0
2.8810003 -0.25633666 0.55615842 0
2.8550003 -0.37369785 0.55456388 0
2.8330002 -0.37514991 0.55321461 0
2.8330002 -0.37953857 0.55321461 0
2.8330002 -0.38392723 0.55321461 0
2.8330002 -0.38831589 0.55321461 0
2.8330002 -0.39270455 0.55321461 0
2.8340001 -0.39723754 0.55327594 0
2.8340001 -0.40162802 0.55327594 0
2.8340001 -0.40601847 0.55327594 0
2.8340001 -0.41040894 0.55327594 0
2.8780003 0.16855216 0.55150461 0
2.8670001 0.16314974 0.55084985 0
2.8590002 0.15803596 0.55037367 0
2.8550003 0.15327571 0.55013555 0
2.8510003 0.1485299 0.54989743 0
2.8470001 0.1437985 0.54965931 0
2.8450003 0.13923307 0.54954028 0
2.8430002 0.13467483 0.54942125 0
2.8410003 0.13012384 0.54930222 0
2.8400002 0.12565039 0.54924268 0
2.8390002 0.12118055 0.54918313 0
2.8390002 0.11678106 0.54918313 0
2.8390002 0.11238156 0.54918313 0
2.8390002 0.10798208 0.54918313 0
2.8390002 0.10358259 0.54918313 0
2.8400002 0.099242643 0.54924268 0
2.8410003 0.094899073 0.54930222 0
2.8430002 0.090607807 0.54942125 0
2.8450003 0.086309329 0.54954028 0
2.8470001 0.082003623 0.54965931 0
2.8500001 0.077741235 0.54983789 0
2.8530002 0.073468029 0.55001652 0
2.8580003 0.069277778 0.55031413 0
2.8620002 0.065024391 0.55055225 0
2.8690002 0.060886461 0.55096889 0
2.8770003 0.056764763 0.55144513 0
2.8980002 -0.16315374 0.55269516 0
2.8840003 -0.16697782 0.55186176 0
2.8770003 -0.17110492 0.55144513 0
2.8710003 -0.1752591 0.55108798 0
2.8670001 -0.17949985 0.55084985 0
2.8640003 -0.1837821 0.55067128 0
2.8610003 -0.18805352 0.5504927 0
2.8590002 -0.19237363 0.55037367 0
2.8570001 -0.19668654 0.55025458 0
2.8560002 -0.20105536 0.5501951 0
2.8550003 -0.20542058 0.55013555 0
2.8550003 -0.20984893 0.55013555 0
2.8540003 -0.21420874 0.55007601 0
2.8550003 -0.21870562 0.55013555 0
2.8560002 -0.22320613 0.5501951 0
2.8570001 -0.22771022 0.55025458 0
2.8580003 -0.23221795 0.55031413 0
2.8610003 -0.2368844 0.5504927 0
2.8640003 -0.24156168 0.55067128 0
2.8680003 -0.24633095 0.5509094 0
2.8730001 -0.25119761 0.55120701 0
2.8810003 -0.25633666 0.55168319 0
2.8550003 -0.37369785 0.55013555 0
2.8330002 -0.37514991 0.54882598 0
2.8330002 -0.37953857 0.54882598 0
2.8330002 -0.38392723 0.54882598 0
2.8330002 -0.38831589 0.54882598 0
2.8330002 -0.39270455 0.54882598 0
2.8340001 -0.39723754 0.54888546 0
2.8340001 -0.40162802 0.54888546 0
2.8340001 -0.40601847 0.54888546 0
2.8340001 -0.41040894 0.54888546 0
2.8710003 0.16348888 0.54663074 0
2.8640003 0.15845084 0.54622668 0
2.8580003 0.15351923 0.54588038 0
2.8540003 0.14876801 0.54564947 0
2.8500001 0.14403118 0.54541856 0
2.8480003 0.13946036 0.54530311 0
2.8450003 0.13482276 0.54512995 0
2.8440001 0.13034028 0.54507226 0
2.8430002 0.12586142 0.5450145 0
2.8420002 0.12138619 0.5449568 0
2.8410003 0.11691456 0.54489911 0
2.8410003 0.11251146 0.54489911 0
2.8410003 0.10810836 0.54489911 0
2.8420002 0.10376659 0.5449568 0
2.8430002 0.099421218 0.5450145 0
2.8440001 0.095072225 0.54507226 0
2.8450003 0.09071964 0.54512995 0
2.8470001 0.086417556 0.54524541 0
2.8500001 0.082160577 0.54541856 0
2.8530002 0.077892765 0.54559171 0
2.8560002 0.073614135 0.54576492 0
2.8600001 0.069371566 0.54599577 0
2.8660002 0.065204769 0.54634213 0
2.8730001 0.06105962 0.54674619 0
2.8840003 0.057055172 0.54738116 0
2.8990002 -0.16320063 0.54824698 0
2.8840003 -0.16697782 0.54738116 0
2.8770003 -0.17110492 0.54697704 0
2.8710003 -0.1752591 0.54663074 0
2.8670001 -0.17949985 0.54639983 0
2.8640003 -0.1837821 0.54622668 0
2.8610003 -0.18805352 0.54605353 0
2.8590002 -0.19237363 0.54593807 0
2.8570001 -0.19668654 0.54582262 0
2.8560002 -0.20105536 0.54576492 0
2.8550003 -0.20542058 0.54570723 0
2.8550003 -0.20984893 0.54570723 0
2.8540003 -0.21420874 0.54564947 0
2.8550003 -0.21870562 0.54570723 0
2.8560002 -0.22320613 0.54576492 0
2.8570001 -0.22771022 0.54582262 0
2.8580003 -0.23221795 0.54588038 0
2.8610003 -0.2368844 0.54605353 0
2.8640003 -0.24156168 0.54622668 0
2.8680003 -0.24633095 0.54645759 0
2.8730001 -0.25119761 0.54674619 0
2.8810003 -0.25633666 0.54720795 0
2.8550003 -0.37369785 0.54570723 0
2.8330002 -0.37514991 0.54443729 0
2.8330002 -0.37953857 0.54443729 0
2.8330002 -0.38392723 0.54443729 0
2.8330002 -0.38831589 0.54443729 0
2.8330002 -0.39270455 0.54443729 0
2.8340001 -0.39723754 0.54449505 0
2.8340001 -0.40162802 0.54449505 0
2.8340001 -0.40601847 0.54449505 0
2.8340001 -0.41040894 0.54449505 0
2.8800001 0.16425186 0.54267681 0
2.8690002 0.15886571 0.54206169 0
2.8620002 0.15384391 0.54167026 0
2.8580003 0.14908546 0.54144657 0
2.8540003 0.14434145 0.54122293 0
2.8510003 0.13968763 0.5410552 0
2.8490002 0.13511857 0.54094332 0
2.8470001 0.13055675 0.54083151 0
2.8450003 0.12600213 0.54071963 0
2.8440001 0.12152328 0.54066372 0
2.8440001 0.11711477 0.54066372 0
2.8440001 0.11270626 0.54066372 0
2.8440001 0.10829775 0.54066372 0
2.8440001 0.10388924 0.54066372 0
2.8450003 0.099540263 0.54071963 0
2.8470001 0.095245391 0.54083151 0
2.8480003 0.090887398 0.54088742 0
2.8500001 0.086579889 0.54099923 0
2.8530002 0.082317501 0.54116702 0
2.8560002 0.078044295 0.54133475 0
2.8600001 0.073808938 0.54155844 0
2.8650002 0.069606066 0.54183805 0
2.8700001 0.065385148 0.5421176 0
2.8790002 0.06131937 0.5426209 0
2.8990002 -0.16320063 0.5437392 0
2.8840003 -0.16697782 0.54290044 0
2.8770003 -0.17110492 0.54250908 0
2.8710003 -0.1752591 0.5421735 0
2.8670001 -0.17949985 0.54194987 0
2.8640003 -0.1837821 0.54178214 0
2.8610003 -0.18805352 0.54161435 0
2.8590002 -0.19237363 0.54150248 0
2.8570001 -0.19668654 0.54139066 0
2.8560002 -0.20105536 0.54133475 0
2.8550003 -0.20542058 0.54127884 0
2.8550003 -0.20984893 0.54127884 0
2.8540003 -0.21420874 0.54122293 0
2.8550003 -0.21870562 0.54127884 0
2.8560002 -0.22320613 0.54133475 0
2.8570001 -0.22771022 0.54139066 0
2.8580003 -0.23221795 0.54144657 0
2.8610003 -0.2368844 0.54161435 0
2.8640003 -0.24156168 0.54178214 0
2.8680003 -0.24633095 0.54200578 0
2.8730001 -0.25119761 0.54228538 0
2.8810003 -0.25633666 0.54273272 0
2.8550003 -0.37369785 0.54127884 0
2.8330002 -0.37514991 0.54004866 0
2.8330002 -0.37953857 0.54004866 0
2.8330002 -0.38392723 0.54004866 0
2.8330002 -0.38831589 0.54004866 0
2.8330002 -0.39270455 0.54004866 0
2.8340001 -0.39723754 0.54010457 0
2.8340001 -0.40162802 0.54010457 0
2.8340001 -0.40601847 0.54010457 0
2.8340001 -0.41040894 0.54010457 0
2.8760002 0.15944654 0.53798687 0
2.8680003 0.15433094 0.53755397 0
2.8620002 0.14940293 0.5372293 0
2.8580003 0.14465171 0.53701282 0
2.8550003 0.13999067 0.53685045 0
2.8520002 0.13534045 0.53668815 0
2.8500001 0.1307732 0.53657991 0
2.8490002 0.12628353 0.53652579 0
2.8480003 0.12179746 0.53647172 0
2.8470001 0.11731498 0.5364176 0
2.8470001 0.11290106 0.5364176 0
2.8470001 0.10848716 0.5364176 0
2.8480003 0.10413457 0.53647172 0
2.8490002 0.099778369 0.53652579 0
2.8500001 0.095418558 0.53657991 0
2.8520002 0.091111064 0.53668815 0
2.8540003 0.086796373 0.53679639 0
2.8570001 0.082526729 0.53695869 0
2.8600001 0.07824631 0.53712106 0
2.8640003 0.074003756 0.53733754 0
2.8700001 0.069840565 0.53766221 0
2.8770003 0.065700829 0.538041 0
2.8880002 0.061709005 0.53863627 0
2.8990002 -0.16320063 0.53923154 0
2.8840003 -0.16697782 0.53841978 0
2.8770003 -0.17110492 0.538041 0
2.8720002 -0.1753114 0.53777045 0
2.8670001 -0.17949985 0.53749985 0
2.8640003 -0.1837821 0.53733754 0
2.8610003 -0.18805352 0.53717518 0
2.8590002 -0.19237363 0.53706694 0
2.8570001 -0.19668654 0.53695869 0
2.8560002 -0.20105536 0.53690457 0
2.8550003 -0.20542058 0.53685045 0
2.8550003 -0.20984893 0.53685045 0
2.8540003 -0.21420874 0.53679639 0
2.8550003 -0.21870562 0.53685045 0
2.8560002 -0.22320613 0.53690457 0
2.8570001 -0.22771022 0.53695869 0
2.8580003 -0.23221795 0.53701282 0
2.8610003 -0.2368844 0.53717518 0
2.8640003 -0.24156168 0.53733754 0
2.8680003 -0.24633095 0.53755397 0
2.8730001 -0.25119761 0.53782451 0
2.8810003 -0.25633666 0.53825748 0
2.8550003 -0.37369785 0.53685045 0
2.8330002 -0.37514991 0.53565997 0
2.8330002 -0.37953857 0.53565997 0
2.8330002 -0.38392723 0.53565997 0
2.8330002 -0.38831589 0.53565997 0
2.8330002 -0.39270455 0.53565997 0
2.8340001 -0.39723754 0.53571409 0
2.8340001 -0.40162802 0.53571409 0
2.8340001 -0.40601847 0.53571409 0
2.8340001 -0.41040894 0.53571409 0
2.8760002 0.15498032 0.53352064 0
2.8690002 0.14995851 0.53315449 0
2.8630002 0.14503951 0.53284061 0
2.8600001 0.14036946 0.53268373 0
2.8570001 0.13571021 0.53252673 0
2.8550003 0.13113396 0.53242218 0
2.8530002 0.12656491 0.53231752 0
2.8520002 0.12207162 0.53226519 0
2.8510003 0.11758196 0.53221291 0
2.8510003 0.11316082 0.53221291 0
2.8510003 0.10873969 0.53221291 0
2.8510003 0.10431856 0.53221291 0
2.8530002 0.10001647 0.53231752 0
2.8540003 0.095649451 0.53236985 0
2.8560002 0.09133473 0.53247446 0
2.8580003 0.087012812 0.53257906 0
2.8610003 0.082735986 0.532736 0
2.8650002 0.07849884 0.53294528 0
2.8700001 0.074295968 0.53320682 0
2.8760002 0.070121959 0.53352064 0
2.8870003 0.066151783 0.53409612 0
2.8990002 -0.16320063 0.53472376 0
2.8840003 -0.16697782 0.53393912 0
2.8770003 -0.17110492 0.53357297 0
2.8720002 -0.1753114 0.53331143 0
2.8670001 -0.17949985 0.53304982 0
2.8640003 -0.1837821 0.53289294 0
2.8610003 -0.18805352 0.532736 0
2.8590002 -0.19237363 0.5326314 0
2.8570001 -0.19668654 0.53252673 0
2.8560002 -0.20105536 0.53247446 0
2.8550003 -0.20542058 0.53242218 0
2.8550003 -0.20984893 0.53242218 0
2.8540003 -0.21420874 0.53236985 0
2.8550003 -0.21870562 0.53242218 0
2.8560002 -0.22320613 0.53247446 0
2.8570001 -0.22771022 0.53252673 0
2.8580003 -0.23221795 0.53257906 0
2.8610003 -0.2368844 0.532736 0
2.8640003 -0.24156168 0.53289294 0
2.8680003 -0.24633095 0.53310215 0
2.8730001 -0.25119761 0.5333637 0
2.8810003 -0.25633666 0.53378224 0
2.8550003 -0.37369785 0.53242218 0
2.8330002 -0.37514991 0.53127134 0
2.8330002 -0.37953857 0.53127134 0
2.8330002 -0.38392723 0.53127134 0
2.8330002 -0.38831589 0.53127134 0
2.8330002 -0.39270455 0.53127134 0
2.8340001 -0.39723754 0.53132361 0
2.8340001 -0.40162802 0.53132361 0
2.8340001 -0.40601847 0.53132361 0
2.8340001 -0.41040894 0.53132361 0
2.8770003 0.15059344 0.52910495 0
2.8700001 0.14558245 0.52875137 0
2.8660002 0.14082402 0.52854937 0
2.8620002 0.13608001 0.52834737 0
2.8600001 0.13149472 0.52824634 0
2.8580003 0.12691666 0.52814531 0
2.8570001 0.12241434 0.52809477 0
2.8560002 0.11791566 0.52804428 0
2.8550003 0.11342058 0.5279938 0
2.8560002 0.10905536 0.52804428 0
2.8560002 0.1046252 0.52804428 0
2.8570001 0.10025457 0.52809477 0
2.8590002 0.095938057 0.5281958 0
2.8610003 0.091614336 0.52829683 0
2.8640003 0.087337509 0.52844834 0
2.8670001 0.083049834 0.52859986 0
2.8720002 0.078852385 0.5288524 0
2.8770003 0.074636891 0.52910495 0
2.8770003 0.070168868 0.52910495 0
2.8770003 0.065700829 0.52910495 0
2.8780003 0.061276082 0.52915543 0
2.8780003 0.056806248 0.52915543 0
2.8780003 0.052336406 0.52915543 0
2.8780003 0.047866572 0.52915543 0
2.8780003 0.043396737 0.52915543 0
2.8780003 0.038926903 0.52915543 0
2.8780003 0.034457069 0.52915543 0
2.8780003 0.029987227 0.52915543 0
2.8780003 0.025517393 0.52915543 0
2.8780003 0.021047551 0.52915543 0
2.8790002 0.016602967 0.52920592 0
2.8790002 0.012131326 0.52920592 0
2.8790002 0.0076596849 0.52920592 0
2.8790002 0.0031880476 0.52920592 0
2.8790002 -0.0012835935 0.52920592 0
2.8790002 -0.0057552345 0.52920592 0
2.8790002 -0.010226876 0.52920592 0
2.8790002 -0.014698517 0.52920592 0
2.8790002 -0.019170158 0.52920592 0
2.8800001 -0.02363278 0.52925646 0
2.8800001 -0.028106224 0.52925646 0
2.8800001 -0.032579668 0.52925646 0
2.8800001 -0.037053112 0.52925646 0
2.8800001 -0.041526556 0.52925646 0
2.8800001 -0.046 0.52925646 0
2.8800001 -0.050473444 0.52925646 0
2.8800001 -0.054946888 0.52925646 0
2.8800001 -0.059420332 0.52925646 0
2.8810003 -0.063900992 0.52930695 0
2.8810003 -0.068376243 0.52930695 0
2.8810003 -0.072851494 0.52930695 0
2.8810003 -0.077326737 0.52930695 0
2.8810003 -0.081801988 0.52930695 0
2.8810003 -0.086277232 0.52930695 0
2.8810003 -0.090752482 0.52930695 0
2.8810003 -0.095227733 0.52930695 0
2.8810003 -0.099702984 0.52930695 0
2.8810003 -0.10417823 0.52930695 0
2.8820002 -0.10867873 0.52935743 0
2.8820002 -0.11315578 0.52935743 0
2.8820002 -0.11763284 0.52935743 0
2.8820002 -0.12210988 0.52935743 0
2.8820002 -0.12658694 0.52935743 0
2.8820002 -0.13106398 0.52935743 0
2.8820002 -0.13554104 0.52935743 0
2.8990002 -0.16320063 0.5302161 0
2.8840003 -0.16697782 0.52945846 0
2.8770003 -0.17110492 0.52910495 0
2.8720002 -0.1753114 0.5288524 0
2.8670001 -0.17949985 0.52859986 0
2.8640003 -0.1837821 0.52844834 0
2.8610003 -0.18805352 0.52829683 0
2.8590002 -0.19237363 0.5281958 0
2.8570001 -0.19668654 0.52809477 0
2.8560002 -0.20105536 0.52804428 0
2.8550003 -0.20542058 0.5279938 0
2.8550003 -0.20984893 0.5279938 0
2.8540003 -0.21420874 0.52794331 0
2.8550003 -0.21870562 0.5279938 0
2.8560002 -0.22320613 0.52804428 0
2.8570001 -0.22771022 0.52809477 0
2.8580003 -0.23221795 0.52814531 0
2.8610003 -0.2368844 0.52829683 0
2.8640003 -0.24156168 0.52844834 0
2.8680003 -0.24633095 0.5286504 0
2.8730001 -0.25119761 0.52890289 0
2.8810003 -0.25633666 0.52930695 0
2.8550003 -0.37369785 0.5279938 0
2.8330002 -0.37514991 0.52688265 0
2.8330002 -0.37953857 0.52688265 0
2.8330002 -0.38392723 0.52688265 0
2.8330002 -0.38831589 0.52688265 0
2.8330002 -0.39270455 0.52688265 0
2.8340001 -0.39723754 0.52693313 0
2.8340001 -0.40162802 0.52693313 0
2.8340001 -0.40601847 0.52693313 0
2.8340001 -0.41040894 0.52693313 0
2.8820002 0.14651324 0.52488041 0
2.8740003 0.14143011 0.52449077 0
2.8690002 0.13659769 0.52424729 0
2.8660002 0.13192762 0.52410114 0
2.8640003 0.12733875 0.52400374 0
2.8620002 0.12275708 0.52390635 0
2.8610003 0.11824937 0.52385765 0
2.8610003 0.1138102 0.52385765 0
2.8610003 0.10937102 0.52385765 0
2.8610003 0.10493185 0.52385765 0
2.8630002 0.10061172 0.52395505 0
2.8650002 0.096284389 0.5240525 0
2.8670001 0.091949821 0.52414989 0
2.8680003 0.087553963 0.52419859 0
2.8690002 0.08315447 0.52424729 0
2.8690002 0.07870087 0.52424729 0
2.8690002 0.074247271 0.52424729 0
2.8690002 0.069793656 0.52424729 0
2.8690002 0.065340057 0.52424729 0
2.8690002 0.060886461 0.52424729 0
2.8690002 0.056432854 0.52424729 0
2.8690002 0.051979255 0.52424729 0
2.8690002 0.047525655 0.52424729 0
2.8700001 0.043108124 0.52429599 0
2.8700001 0.038652714 0.52429599 0
2.8700001 0.034197312 0.52429599 0
2.8700001 0.029741909 0.52429599 0
2.8700001 0.025286499 0.52429599 0
2.8700001 0.020831089 0.52429599 0
2.8700001 0.016375691 0.52429599 0
2.8700001 0.011920281 0.52429599 0
2.8700001 0.0074648708 0.52429599 0
2.8700001 0.0030094683 0.52429599 0
2.8710003 -0.0014278963 0.52434468 0
2.8710003 -0.0058851056 0.52434468 0
2.8710003 -0.010342319 0.52434468 0
2.8710003 -0.01479953 0.52434468 0
2.8710003 -0.019256739 0.52434468 0
2.8710003 -0.023713948 0.52434468 0
2.8710003 -0.028171159 0.52434468 0
2.8710003 -0.032628369 0.52434468 0
2.8710003 -0.037085578 0.52434468 0
2.8720002 -0.041540988 0.52439338 0
2.8720002 -0.046 0.52439338 0
2.8720002 -0.050459012 0.52439338 0
2.8720002 -0.054918028 0.52439338 0
2.8720002 -0.059377041 0.52439338 0
2.8720002 -0.063836053 0.52439338 0
2.8720002 -0.068295069 0.52439338 0
2.8720002 -0.072754085 0.52439338 0
2.8720002 -0.077213094 0.52439338 0
2.8720002 -0.081672117 0.52439338 0
2.8730001 -0.086147353 0.52444208 0
2.8730001 -0.09060818 0.52444208 0
2.8730001 -0.095068991 0.52444208 0
2.8730001 -0.09952981 0.52444208 0
2.8730001 -0.10399063 0.52444208 0
2.8730001 -0.10845145 0.52444208 0
2.8730001 -0.11291227 0.52444208 0
2.8730001 -0.11737308 0.52444208 0
2.8730001 -0.12183391 0.52444208 0
2.8740003 -0.12632719 0.52449077 0
2.8740003 -0.13078982 0.52449077 0
2.8740003 -0.13525243 0.52449077 0
2.8990002 -0.16320063 0.52570838 0
2.8840003 -0.16697782 0.5249778 0
2.8770003 -0.17110492 0.52463692 0
2.8720002 -0.1753114 0.52439338 0
2.8670001 -0.17949985 0.52414989 0
2.8640003 -0.1837821 0.52400374 0
2.8610003 -0.18805352 0.52385765 0
2.8590002 -0.19237363 0.52376026 0
2.8570001 -0.19668654 0.52366281 0
2.8560002 -0.20105536 0.52361417 0
2.8550003 -0.20542058 0.52356541 0
2.8550003 -0.20984893 0.52356541 0
2.8540003 -0.21420874 0.52351671 0
2.8550003 -0.21870562 0.52356541 0
2.8560002 -0.22320613 0.52361417 0
2.8570001 -0.22771022 0.52366281 0
2.8590002 -0.23229371 0.52376026 0
2.8610003 -0.2368844 0.52385765 0
2.8640003 -0.24156168 0.52400374 0
2.8680003 -0.24633095 0.52419859 0
2.8730001 -0.25119761 0.52444208 0
2.8810003 -0.25633666 0.52483171 0
2.8550003 -0.37369785 0.52356541 0
2.8330002 -0.37514991 0.52249396 0
2.8330002 -0.37953857 0.52249396 0
2.8330002 -0.38392723 0.52249396 0
2.8330002 -0.38831589 0.52249396 0
2.8330002 -0.39270455 0.52249396 0
2.8340001 -0.39723754 0.52254272 0
2.8340001 -0.40162802 0.52254272 0
2.8340001 -0.40601847 0.52254272 0
2.8340001 -0.41040894 0.52254272 0
2.8810003 0.14196043 0.52035648 0
2.8730001 0.13689353 0.51998127 0
2.8690002 0.13214409 0.51979369 0
2.8660002 0.12747945 0.51965296 0
2.8640003 0.12289418 0.5195592 0
2.8630002 0.11838284 0.5195123 0
2.8620002 0.11387512 0.51946539 0
2.8620002 0.10943416 0.51946539 0
2.8620002 0.10499318 0.51946539 0
2.8620002 0.1005522 0.51946539 0
2.8630002 0.096168935 0.5195123 0
2.8630002 0.091726169 0.5195123 0
2.8630002 0.087283373 0.5195123 0
2.8630002 0.082840607 0.5195123 0
2.8630002 0.07839784 0.5195123 0
2.8630002 0.073955044 0.5195123 0
2.8630002 0.069512263 0.5195123 0
2.8630002 0.065069482 0.5195123 0
2.8630002 0.060626704 0.5195123 0
2.8630002 0.05618393 0.5195123 0
2.8640003 0.051780839 0.5195592 0
2.8640003 0.047336254 0.5195592 0
2.8640003 0.042891677 0.5195592 0
2.8640003 0.038447093 0.5195592 0
2.8640003 0.034002509 0.5195592 0
2.8640003 0.029557925 0.5195592 0
2.8640003 0.02511334 0.5195592 0
2.8640003 0.020668756 0.5195592 0
2.8640003 0.016224168 0.5195592 0
2.8650002 0.011803035 0.51960611 0
2.8650002 0.0073566474 0.51960611 0
2.8650002 0.0029102601 0.51960611 0
2.8650002 -0.0015361272 0.51960611 0
2.8650002 -0.0059825145 0.51960611 0
2.8650002 -0.010428902 0.51960611 0
2.8650002 -0.014875289 0.51960611 0
2.8650002 -0.019321676 0.51960611 0
2.8650002 -0.023768064 0.51960611 0
2.8650002 -0.028214451 0.51960611 0
2.8660002 -0.032655425 0.51965296 0
2.8660002 -0.037103616 0.51965296 0
2.8660002 -0.04155181 0.51965296 0
2.8660002 -0.046 0.51965296 0
2.8660002 -0.05044819 0.51965296 0
2.8660002 -0.054896384 0.51965296 0
2.8660002 -0.059344575 0.51965296 0
2.8660002 -0.063792765 0.51965296 0
2.8660002 -0.068240955 0.51965296 0
2.8670001 -0.072699964 0.51969987 0
2.8670001 -0.077149965 0.51969987 0
2.8670001 -0.081599958 0.51969987 0
2.8670001 -0.086049952 0.51969987 0
2.8670001 -0.090499952 0.51969987 0
2.8670001 -0.094949946 0.51969987 0
2.8670001 -0.099399939 0.51969987 0
2.8670001 -0.10384993 0.51969987 0
2.8670001 -0.10829993 0.51969987 0
2.8670001 -0.11274992 0.51969987 0
2.8680003 -0.11722878 0.51974678 0
2.8680003 -0.12168057 0.51974678 0
2.8680003 -0.12613238 0.51974678 0
2.8680003 -0.13058418 0.51974678 0
2.8680003 -0.13503598 0.51974678 0
2.8990002 -0.16320063 0.52120066 0
2.8840003 -0.16697782 0.5204972 0
2.8770003 -0.17110492 0.5201689 0
2.8720002 -0.1753114 0.51993436 0
2.8670001 -0.17949985 0.51969987 0
2.8640003 -0.1837821 0.5195592 0
2.8610003 -0.18805352 0.51941848 0
2.8590002 -0.19237363 0.51932466 0
2.8570001 -0.19668654 0.5192309 0
2.8560002 -0.20105536 0.51918399 0
2.8550003 -0.20542058 0.51913708 0
2.8550003 -0.20984893 0.51913708 0
2.8550003 -0.21427728 0.51913708 0
2.8550003 -0.21870562 0.51913708 0
2.8560002 -0.22320613 0.51918399 0
2.8570001 -0.22771022 0.5192309 0
2.8590002 -0.23229371 0.51932466 0
2.8610003 -0.2368844 0.51941848 0
2.8640003 -0.24156168 0.5195592 0
2.8680003 -0.24633095 0.51974678 0
2.8730001 -0.25119761 0.51998127 0
2.8810003 -0.25633666 0.52035648 0
2.8550003 -0.37369785 0.51913708 0
2.8330002 -0.37514991 0.51810533 0
2.8330002 -0.37953857 0.51810533 0
2.8330002 -0.38392723 0.51810533 0
2.8330002 -0.38831589 0.51810533 0
2.8340001 -0.39284706 0.51815224 0
2.8340001 -0.39723754 0.51815224 0
2.8340001 -0.40162802 0.51815224 0
2.8340001 -0.40601847 0.51815224 0
2.8340001 -0.41040894 0.51815224 0
2.8800001 0.1463581 0.51583612 0
2.8720002 0.14127858 0.51547539 0
2.8670001 0.13644978 0.51524985 0
2.8640003 0.13178335 0.51511461 0
2.8610003 0.12712772 0.5149793 0
2.8600001 0.12261999 0.51493418 0
2.8580003 0.11804914 0.51484406 0
2.8580003 0.11361538 0.51484406 0
2.8580003 0.10918163 0.51484406 0
2.8580003 0.10474786 0.51484406 0
2.8590002 0.10037363 0.51488912 0
2.8590002 0.095938057 0.51488912 0
2.8590002 0.091502488 0.51488912 0
2.8590002 0.087066934 0.51488912 0
2.8590002 0.082631364 0.51488912 0
2.8590002 0.07819581 0.51488912 0
2.8590002 0.073760241 0.51488912 0
2.8590002 0.069324672 0.51488912 0
2.8590002 0.064889103 0.51488912 0
2.8590002 0.060453545 0.51488912 0
2.8600001 0.056059469 0.51493418 0
2.8600001 0.051622104 0.51493418 0
2.8600001 0.047184732 0.51493418 0
2.8600001 0.04274736 0.51493418 0
2.8600001 0.038309995 0.51493418 0
2.8600001 0.033872623 0.51493418 0
2.8600001 0.029435258 0.51493418 0
2.8600001 0.024997886 0.51493418 0
2.8600001 0.020560522 0.51493418 0
2.8600001 0.016123157 0.51493418 0
2.8610003 0.011709236 0.5149793 0
2.8610003 0.0072700642 0.5149793 0
2.8610003 0.0028308965 0.5149793 0
2.8610003 -0.0016082786 0.5149793 0
2.8610003 -0.00604745 0.5149793 0
2.8610003 -0.010486621 0.5149793 0
2.8610003 -0.014925795 0.5149793 0
2.8610003 -0.019364968 0.5149793 0
2.8610003 -0.023804139 0.5149793 0
2.8610003 -0.028243311 0.5149793 0
2.8620002 -0.032677073 0.51502442 0
2.8620002 -0.037118047 0.51502442 0
2.8620002 -0.041559026 0.51502442 0
2.8620002 -0.046 0.51502442 0
2.8620002 -0.050440975 0.51502442 0
2.8620002 -0.054881953 0.51502442 0
2.8620002 -0.059322927 0.51502442 0
2.8620002 -0.063763902 0.51502442 0
2.8620002 -0.06820488 0.51502442 0
2.8630002 -0.072656676 0.51506948 0
2.8630002 -0.077099457 0.51506948 0
2.8630002 -0.081542239 0.51506948 0
2.8630002 -0.08598502 0.51506948 0
2.8630002 -0.090427801 0.51506948 0
2.8630002 -0.094870575 0.51506948 0
2.8630002 -0.099313349 0.51506948 0
2.8630002 -0.10375613 0.51506948 0
2.8630002 -0.10819892 0.51506948 0
2.8630002 -0.11264169 0.51506948 0
2.8640003 -0.11711334 0.51511461 0
2.8640003 -0.12155792 0.51511461 0
2.8640003 -0.12600251 0.51511461 0
2.8640003 -0.13044709 0.51511461 0
2.8640003 -0.13489167 0.51511461 0
2.8990002 -0.16320063 0.51669294 0
2.8840003 -0.16697782 0.51601648 0
2.8770003 -0.17110492 0.51570082 0
2.8720002 -0.1753114 0.51547539 0
2.8670001 -0.17949985 0.51524985 0
2.8640003 -0.1837821 0.51511461 0
2.8610003 -0.18805352 0.5149793 0
2.8590002 -0.19237363 0.51488912 0
2.8570001 -0.19668654 0.51479894 0
2.8560002 -0.20105536 0.51475382 0
2.8550003 -0.20542058 0.51470876 0
2.8550003 -0.20984893 0.51470876 0
2.8550003 -0.21427728 0.51470876 0
2.8550003 -0.21870562 0.51470876 0
2.8560002 -0.22320613 0.51475382 0
2.8570001 -0.22771022 0.51479894 0
2.8590002 -0.23229371 0.51488912 0
2.8610003 -0.2368844 0.5149793 0
2.8640003 -0.24156168 0.51511461 0
2.8680003 -0.24633095 0.51529497 0
2.8730001 -0.25119761 0.51552045 0
2.8810003 -0.25633666 0.51588124 0
2.8550003 -0.37369785 0.51470876 0
2.8330002 -0.37514991 0.51371664 0
2.8330002 -0.37953857 0.51371664 0
2.8330002 -0.38392723 0.51371664 0
2.8330002 -0.38831589 0.51371664 0
2.8340001 -0.39284706 0.51376176 0
2.8340001 -0.39723754 0.51376176 0
