# .PCD v0.7 - Point Cloud Data file format
VERSION 0.7
FIELDS x y z intensity
SIZE 4 4 4 4
TYPE F F F F
COUNT 1 1 1 1
WIDTH 1458
HEIGHT 1
VIEWPOINT 0 0 0 1 0 0 0
POINTS 1458
DATA ascii
4.3930001 2.222821 0.44721565 0
4.3980002 2.2184503 0.44726977 0
4.4020004 2.2134972 0.44731307 0
4.4070001 2.2090919 0.44736716 0
4.4110003 2.2041082 0.44741046 0
4.4150004 2.19911 0.44745377 0
4.4200001 2.1946545 0.44750786 0
4.4240003 2.1896255 0.44755116 0
4.4290004 2.1851358 0.44760528 0
4.4330001 2.1800761 0.44764856 0
4.4380002 2.1755521 0.44770268 0
4.4420004 2.1704619 0.44774598 0
4.4470005 2.1659036 0.4478001 0
4.4520001 2.1613271 0.44785419 0
4.4560003 2.1561902 0.44789749 0
4.4610004 2.1515796 0.44795161 0
4.4650002 2.1464117 0.44799489 0
4.4700003 2.141767 0.44804901 0
4.4740005 2.1365685 0.44809231 0
4.4790001 2.1318891 0.4481464 0
4.4840002 2.127192 0.44820052 0
4.4880004 2.1219466 0.44824383 0
4.4930005 2.1172154 0.44829795 0
4.4980001 2.1124656 0.44835204 0
4.5020003 2.1071734 0.44839534 0
4.5070004 2.1023898 0.44844946 0
4.5120001 2.0975881 0.44850355 0
4.5160003 2.0922487 0.44854686 0
4.5210004 2.0874126 0.44860098 0
4.5260005 2.0825589 0.4486551 0
4.5310001 2.0776863 0.44870919 0
4.5350003 2.0722842 0.44875249 0
4.5400004 2.0673778 0.44880661 0
4.5450001 2.0624533 0.4488607 0
4.5500002 2.0575109 0.44891483 0
4.5540004 2.0520456 0.44895813 0
4.5590005 2.0470688 0.44901225 0
4.5640001 2.042074 0.44906637 0
4.5690002 2.037061 0.44912046 0
4.5740004 2.0320303 0.44917458 0
4.5780001 2.0264852 0.44921789 0
4.5830002 2.0214202 0.44927198 0
4.5880003 2.0163374 0.4493261 0
4.5930004 2.0112362 0.44938022 0
4.5980005 2.0061169 0.44943434 0
4.6030002 2.0009797 0.44948846 0
4.6080003 1.9958243 0.44954255 0
4.6130004 1.9906511 0.44959667 0
4.6180005 1.9854596 0.44965079 0
4.6230001 1.9802501 0.44970492 0
4.6270003 1.9745448 0.44974819 0
4.6320004 1.9693012 0.44980231 0
4.6370001 1.9640393 0.44985643 0
4.6420002 1.9587598 0.44991055 0
4.6470003 1.9534619 0.44996464 0
4.6520004 1.9481462 0.45001876 0
4.6570001 1.9428121 0.45007288 0
4.6630001 1.9379256 0.45013782 0
4.6680002 1.9325538 0.45019194 0
4.6730003 1.9271642 0.45024604 0
4.6780005 1.9217565 0.45030016 0
4.6830001 1.9163303 0.45035428 0
4.6880002 1.9108865 0.4504084 0
4.6930003 1.9054247 0.45046252 0
4.6980004 1.8999448 0.45051661 0
4.7030001 1.8944466 0.45057073 0
4.7080002 1.8889306 0.45062485 0
4.7140002 1.8838439 0.45068979 0
4.7190003 1.8782901 0.45074391 0
4.7240005 1.8727181 0.450798 0
4.7290001 1.8671279 0.45085213 0
4.7340002 1.8615198 0.45090625 0
4.7400002 1.8563322 0.45097119 0
4.7450004 1.8506864 0.45102531 0
4.7500005 1.8450224 0.4510794 0
4.7550001 1.8393402 0.45113352 0
4.7610002 1.8340714 0.45119846 0
4.7660003 1.8283515 0.45125258 0
4.7710004 1.8226138 0.4513067 0
4.7760005 1.8168578 0.45136082 0
4.7820005 1.8115078 0.45142573 0
4.7870002 1.8057137 0.45147985 0
4.7920003 1.799902 0.45153397 0
4.7980003 1.7944905 0.45159891 0
4.8030005 1.7886407 0.45165303 0
4.8090005 1.7831879 0.45171797 0
4.8140001 1.7773001 0.45177206 0
4.8190002 1.7713945 0.45182618 0
4.8250003 1.7658802 0.45189112 0
4.8300004 1.7599367 0.45194525 0
4.8360004 1.7543811 0.45201018 0
4.8410001 1.7483995 0.45206428 0
4.8470001 1.7428023 0.45212922 0
4.8520002 1.736783 0.45218334 0
4.8580003 1.7311443 0.45224828 0
4.8630004 1.7250872 0.4523024 0
4.8690004 1.719407 0.45236734 0
4.8740001 1.7133118 0.45242143 0
4.8800001 1.7075902 0.45248637 0
4.8850002 1.7014571 0.45254049 0
4.8910003 1.6956941 0.45260543 0
4.8970003 1.6899092 0.45267037 0
4.9020004 1.6837187 0.45272449 0
4.9080005 1.6778924 0.45278943 0
4.9140005 1.6720445 0.45285437 0
4.9190001 1.6657959 0.45290846 0
4.9250002 1.6599065 0.4529734 0
4.9310002 1.6539954 0.45303833 0
4.9360003 1.6476893 0.45309246 0
4.9420004 1.6417367 0.4531574 0
4.9480004 1.6357627 0.45322233 0
4.9530005 1.6293988 0.45327646 0
4.9590001 1.6233829 0.45334139 0
4.9650002 1.6173456 0.45340633 0
4.9710002 1.6112866 0.45347124 0
4.9770002 1.605206 0.45353621 0
4.9820004 1.5987449 0.4535903 0
4.9880004 1.5926228 0.45365524 0
4.9940004 1.5864789 0.45372018 0
5.0000005 1.5803136 0.45378512 0
5.0060005 1.5741266 0.45385006 0
5.0120001 1.5679177 0.453915 0
5.0180001 1.5616872 0.45397994 0
5.0240002 1.5554353 0.45404488 0
5.0300002 1.5491617 0.45410982 0
5.0350003 1.5425237 0.45416391 0
5.0410004 1.5362086 0.45422885 0
5.0470004 1.5298718 0.45429379 0
5.0530005 1.5235134 0.45435873 0
5.0590005 1.5171334 0.45442367 0
5.0660005 1.5110654 0.45449942 0
5.0720005 1.5046402 0.45456436 0
5.0780005 1.4981934 0.4546293 0
5.0840001 1.4917247 0.45469424 0
5.0900002 1.4852347 0.45475918 0
5.0960002 1.478723 0.45482412 0
5.1020002 1.4721895 0.45488906 0
5.1080003 1.4656346 0.454954 0
5.1140003 1.4590579 0.45501894 0
5.1210003 1.452777 0.4550947 0
5.1270003 1.4461553 0.45515963 0
5.1330004 1.4395119 0.45522457 0
5.1390004 1.4328468 0.45528948 0
4.3759999 2.2418492 0.43985972 0
4.3800001 2.2369721 0.43989581 0
4.3840003 2.23208 0.43993187 0
4.3889999 2.2277436 0.43997696 0
4.3930001 2.222821 0.44001305 0
4.3980002 2.2184503 0.44005814 0
4.4020004 2.2134972 0.44009423 0
4.4070001 2.2090919 0.44013929 0
4.4110003 2.2041082 0.44017538 0
4.4150004 2.19911 0.44021147 0
4.4200001 2.1946545 0.44025657 0
4.4240003 2.1896255 0.44029263 0
4.4290004 2.1851358 0.44033772 0
4.4330001 2.1800761 0.44037381 0
4.4380002 2.1755521 0.4404189 0
4.4420004 2.1704619 0.44045499 0
4.4470005 2.1659036 0.44050008 0
4.4520001 2.1613271 0.44054517 0
4.4560003 2.1561902 0.44058123 0
4.4610004 2.1515796 0.44062635 0
4.4650002 2.1464117 0.44066241 0
4.4700003 2.141767 0.4407075 0
4.4740005 2.1365685 0.4407436 0
4.4790001 2.1318891 0.44078869 0
4.4840002 2.127192 0.44083378 0
4.4880004 2.1219466 0.44086987 0
4.4930005 2.1172154 0.44091496 0
4.4980001 2.1124656 0.44096005 0
4.5020003 2.1071734 0.44099611 0
4.5070004 2.1023898 0.44104123 0
4.5120001 2.0975881 0.44108629 0
4.5160003 2.0922487 0.44112238 0
4.5210004 2.0874126 0.44116747 0
4.5260005 2.0825589 0.44121259 0
4.5310001 2.0776863 0.44125769 0
4.5350003 2.0722842 0.44129375 0
4.5400004 2.0673778 0.44133884 0
4.5450001 2.0624533 0.44138393 0
4.5500002 2.0575109 0.44142902 0
4.5540004 2.0520456 0.44146511 0
4.5590005 2.0470688 0.4415102 0
4.5640001 2.042074 0.44155529 0
4.5690002 2.037061 0.44160038 0
4.5740004 2.0320303 0.4416455 0
4.5780001 2.0264852 0.44168156 0
4.5830002 2.0214202 0.44172665 0
4.5880003 2.0163374 0.44177175 0
4.5930004 2.0112362 0.44181687 0
4.5980005 2.0061169 0.44186196 0
4.6030002 2.0009797 0.44190705 0
4.6080003 1.9958243 0.44195214 0
4.6130004 1.9906511 0.44199723 0
4.6180005 1.9854596 0.44204232 0
4.6230001 1.9802501 0.44208741 0
4.6270003 1.9745448 0.4421235 0
4.6320004 1.9693012 0.44216859 0
4.6370001 1.9640393 0.44221368 0
4.6420002 1.9587598 0.44225878 0
4.6470003 1.9534619 0.4423039 0
4.6520004 1.9481462 0.44234899 0
4.6570001 1.9428121 0.44239408 0
4.6630001 1.9379256 0.4424482 0
4.6680002 1.9325538 0.44249329 0
4.6730003 1.9271642 0.44253838 0
4.6780005 1.9217565 0.44258347 0
4.6830001 1.9163303 0.44262856 0
4.6880002 1.9108865 0.44267365 0
4.6930003 1.9054247 0.44271874 0
4.6980004 1.8999448 0.44276386 0
4.7030001 1.8944466 0.44280896 0
4.7080002 1.8889306 0.44285405 0
4.7140002 1.8838439 0.44290817 0
4.7190003 1.8782901 0.44295326 0
4.7240005 1.8727181 0.44299835 0
4.7290001 1.8671279 0.44304344 0
4.7340002 1.8615198 0.44308853 0
4.7400002 1.8563322 0.44314265 0
4.7450004 1.8506864 0.44318774 0
4.7500005 1.8450224 0.44323283 0
4.7550001 1.8393402 0.44327793 0
4.7610002 1.8340714 0.44333205 0
4.7660003 1.8283515 0.44337714 0
4.7710004 1.8226138 0.44342226 0
4.7760005 1.8168578 0.44346735 0
4.7820005 1.8115078 0.44352144 0
4.7870002 1.8057137 0.44356656 0
4.7920003 1.799902 0.44361165 0
4.7980003 1.7944905 0.44366574 0
4.8030005 1.7886407 0.44371086 0
4.8090005 1.7831879 0.44376498 0
4.8140001 1.7773001 0.44381005 0
4.8190002 1.7713945 0.44385517 0
4.8250003 1.7658802 0.44390926 0
4.8300004 1.7599367 0.44395438 0
4.8360004 1.7543811 0.44400847 0
4.8410001 1.7483995 0.44405359 0
4.8470001 1.7428023 0.44410768 0
4.8520002 1.736783 0.44415277 0
4.8580003 1.7311443 0.44420689 0
4.8630004 1.7250872 0.44425198 0
4.8690004 1.719407 0.44430611 0
4.8740001 1.7133118 0.4443512 0
4.8800001 1.7075902 0.44440532 0
4.8850002 1.7014571 0.44445041 0
4.8910003 1.6956941 0.44450453 0
4.8970003 1.6899092 0.44455865 0
4.9020004 1.6837187 0.44460374 0
4.9080005 1.6778924 0.44465786 0
4.9140005 1.6720445 0.44471198 0
4.9190001 1.6657959 0.44475707 0
4.9250002 1.6599065 0.44481117 0
4.9310002 1.6539954 0.44486529 0
4.9360003 1.6476893 0.44491038 0
4.9420004 1.6417367 0.4449645 0
4.9480004 1.6357627 0.44501862 0
4.9530005 1.6293988 0.44506371 0
4.9590001 1.6233829 0.44511783 0
4.9650002 1.6173456 0.44517195 0
4.9710002 1.6112866 0.44522604 0
4.9770002 1.605206 0.44528016 0
4.9820004 1.5987449 0.44532526 0
4.9880004 1.5926228 0.44537938 0
4.9940004 1.5864789 0.4454335 0
5.0000005 1.5803136 0.44548762 0
5.0060005 1.5741266 0.44554171 0
5.0120001 1.5679177 0.44559583 0
5.0180001 1.5616872 0.44564995 0
5.0240002 1.5554353 0.44570407 0
5.0300002 1.5491617 0.44575816 0
5.0350003 1.5425237 0.44580328 0
5.0410004 1.5362086 0.44585738 0
5.0470004 1.5298718 0.4459115 0
5.0530005 1.5235134 0.44596562 0
5.0590005 1.5171334 0.44601974 0
5.0660005 1.5110654 0.44608286 0
5.0720005 1.5046402 0.44613698 0
5.0780005 1.4981934 0.4461911 0
5.0840001 1.4917247 0.44624519 0
5.0900002 1.4852347 0.44629931 0
5.0960002 1.478723 0.44635344 0
5.1020002 1.4721895 0.44640756 0
5.1080003 1.4656346 0.44646165 0
5.1140003 1.4590579 0.44651577 0
5.1210003 1.452777 0.44657892 0
5.1270003 1.4461553 0.44663301 0
5.1330004 1.4395119 0.44668713 0
5.1390004 1.4328468 0.44674125 0
4.3759999 2.2418492 0.43268779 0
4.3800001 2.2369721 0.43271664 0
4.3840003 2.23208 0.43274552 0
4.3889999 2.2277436 0.43278158 0
4.3930001 2.222821 0.43281043 0
4.3980002 2.2184503 0.43284652 0
4.4020004 2.2134972 0.43287537 0
4.4070001 2.2090919 0.43291146 0
4.4110003 2.2041082 0.4329403 0
4.4150004 2.19911 0.43296918 0
4.4200001 2.1946545 0.43300524 0
4.4240003 2.1896255 0.43303412 0
4.4290004 2.1851358 0.43307018 0
4.4330001 2.1800761 0.43309903 0
4.4380002 2.1755521 0.43313512 0
4.4420004 2.1704619 0.433164 0
4.4470005 2.1659036 0.43320006 0
4.4520001 2.1613271 0.43323612 0
4.4560003 2.1561902 0.433265 0
4.4610004 2.1515796 0.43330109 0
4.4650002 2.1464117 0.43332994 0
4.4700003 2.141767 0.433366 0
4.4740005 2.1365685 0.43339488 0
4.4790001 2.1318891 0.43343094 0
4.4840002 2.127192 0.43346703 0
4.4880004 2.1219466 0.43349588 0
4.4930005 2.1172154 0.43353197 0
4.4980001 2.1124656 0.43356803 0
4.5020003 2.1071734 0.43359691 0
4.5070004 2.1023898 0.43363297 0
4.5120001 2.0975881 0.43366906 0
4.5160003 2.0922487 0.43369791 0
4.5210004 2.0874126 0.433734 0
4.5260005 2.0825589 0.43377006 0
4.5310001 2.0776863 0.43380615 0
4.5350003 2.0722842 0.433835 0
4.5400004 2.0673778 0.43387109 0
4.5450001 2.0624533 0.43390715 0
4.5500002 2.0575109 0.43394324 0
4.5540004 2.0520456 0.43397209 0
4.5590005 2.0470688 0.43400818 0
4.5640001 2.042074 0.43404424 0
4.5690002 2.037061 0.43408033 0
4.5740004 2.0320303 0.43411639 0
4.5780001 2.0264852 0.43414524 0
4.5830002 2.0214202 0.43418133 0
4.5880003 2.0163374 0.43421742 0
4.5930004 2.0112362 0.43425348 0
4.5980005 2.0061169 0.43428957 0
4.6030002 2.0009797 0.43432564 0
4.6080003 1.9958243 0.43436173 0
4.6130004 1.9906511 0.43439779 0
4.6180005 1.9854596 0.43443388 0
4.6230001 1.9802501 0.43446994 0
4.6270003 1.9745448 0.43449882 0
4.6320004 1.9693012 0.43453488 0
4.6370001 1.9640393 0.43457097 0
4.6420002 1.9587598 0.43460703 0
4.6470003 1.9534619 0.43464312 0
4.6520004 1.9481462 0.43467918 0
4.6570001 1.9428121 0.43471527 0
4.6630001 1.9379256 0.43475854 0
4.6680002 1.9325538 0.43479463 0
4.6730003 1.9271642 0.4348307 0
4.6780005 1.9217565 0.43486679 0
4.6830001 1.9163303 0.43490285 0
4.6880002 1.9108865 0.43493894 0
4.6930003 1.9054247 0.434975 0
4.6980004 1.8999448 0.43501109 0
4.7030001 1.8944466 0.43504715 0
4.7080002 1.8889306 0.43508324 0
4.7140002 1.8838439 0.43512654 0
4.7190003 1.8782901 0.4351626 0
4.7240005 1.8727181 0.43519869 0
4.7290001 1.8671279 0.43523476 0
4.7340002 1.8615198 0.43527085 0
4.7400002 1.8563322 0.43531412 0
4.7450004 1.8506864 0.43535021 0
4.7500005 1.8450224 0.43538627 0
4.7550001 1.8393402 0.43542236 0
4.7610002 1.8340714 0.43546563 0
4.7660003 1.8283515 0.43550172 0
4.7710004 1.8226138 0.43553779 0
4.7760005 1.8168578 0.43557388 0
4.7820005 1.8115078 0.43561718 0
4.7870002 1.8057137 0.43565324 0
4.7920003 1.799902 0.43568933 0
4.7980003 1.7944905 0.4357326 0
4.8030005 1.7886407 0.43576869 0
4.8090005 1.7831879 0.43581197 0
4.8140001 1.7773001 0.43584806 0
4.8190002 1.7713945 0.43588412 0
4.8250003 1.7658802 0.43592742 0
4.8300004 1.7599367 0.43596351 0
4.8360004 1.7543811 0.43600678 0
4.8410001 1.7483995 0.43604285 0
4.8470001 1.7428023 0.43608615 0
4.8520002 1.736783 0.43612224 0
4.8580003 1.7311443 0.43616551 0
4.8630004 1.7250872 0.4362016 0
4.8690004 1.719407 0.4362449 0
4.8740001 1.7133118 0.43628097 0
4.8800001 1.7075902 0.43632427 0
4.8850002 1.7014571 0.43636033 0
4.8910003 1.6956941 0.43640363 0
4.8970003 1.6899092 0.43644691 0
4.9020004 1.6837187 0.436483 0
4.9080005 1.6778924 0.4365263 0
4.9140005 1.6720445 0.43656957 0
4.9190001 1.6657959 0.43660566 0
4.9250002 1.6599065 0.43664894 0
4.9310002 1.6539954 0.43669224 0
4.9360003 1.6476893 0.4367283 0
4.9420004 1.6417367 0.4367716 0
4.9480004 1.6357627 0.4368149 0
4.9530005 1.6293988 0.43685097 0
4.9590001 1.6233829 0.43689427 0
4.9650002 1.6173456 0.43693754 0
4.9710002 1.6112866 0.43698084 0
4.9770002 1.605206 0.43702415 0
4.9820004 1.5987449 0.43706021 0
4.9880004 1.5926228 0.43710351 0
4.9940004 1.5864789 0.43714678 0
5.0000005 1.5803136 0.43719009 0
5.0060005 1.5741266 0.43723339 0
5.0120001 1.5679177 0.43727666 0
5.0180001 1.5616872 0.43731996 0
5.0240002 1.5554353 0.43736324 0
5.0300002 1.5491617 0.43740654 0
5.0350003 1.5425237 0.43744263 0
5.0410004 1.5362086 0.4374859 0
5.0470004 1.5298718 0.43752921 0
5.0530005 1.5235134 0.43757248 0
5.0590005 1.5171334 0.43761578 0
5.0660005 1.5110654 0.4376663 0
5.0720005 1.5046402 0.43770957 0
5.0780005 1.4981934 0.43775287 0
5.0840001 1.4917247 0.43779618 0
5.0900002 1.4852347 0.43783945 0
5.0960002 1.478723 0.43788275 0
5.1020002 1.4721895 0.43792605 0
5.1080003 1.4656346 0.43796933 0
5.1140003 1.4590579 0.43801263 0
5.1210003 1.452777 0.43806314 0
5.1270003 1.4461553 0.43810642 0
5.1330004 1.4395119 0.43814972 0
5.1390004 1.4328468 0.43819299 0
4.3759999 2.2418492 0.42551583 0
4.3800001 2.2369721 0.4255375 0
4.3840003 2.23208 0.42555913 0
4.3889999 2.2277436 0.42558619 0
4.3930001 2.222821 0.42560783 0
4.3980002 2.2184503 0.42563489 0
4.4020004 2.2134972 0.42565653 0
4.4070001 2.2090919 0.42568359 0
4.4110003 2.2041082 0.42570525 0
4.4150004 2.19911 0.42572689 0
4.4200001 2.1946545 0.42575395 0
4.4240003 2.1896255 0.42577559 0
4.4290004 2.1851358 0.42580265 0
4.4330001 2.1800761 0.42582428 0
4.4380002 2.1755521 0.42585135 0
4.4420004 2.1704619 0.42587298 0
4.4470005 2.1659036 0.42590004 0
4.4520001 2.1613271 0.4259271 0
4.4560003 2.1561902 0.42594874 0
4.4610004 2.1515796 0.4259758 0
4.4650002 2.1464117 0.42599747 0
4.4700003 2.141767 0.42602453 0
4.4740005 2.1365685 0.42604616 0
4.4790001 2.1318891 0.42607322 0
4.4840002 2.127192 0.42610028 0
4.4880004 2.1219466 0.42612192 0
4.4930005 2.1172154 0.42614898 0
4.4980001 2.1124656 0.42617604 0
4.5020003 2.1071734 0.42619768 0
4.5070004 2.1023898 0.42622474 0
4.5120001 2.0975881 0.4262518 0
4.5160003 2.0922487 0.42627344 0
4.5210004 2.0874126 0.4263005 0
4.5260005 2.0825589 0.42632756 0
4.5310001 2.0776863 0.42635462 0
4.5350003 2.0722842 0.42637625 0
4.5400004 2.0673778 0.42640331 0
4.5450001 2.0624533 0.42643037 0
4.5500002 2.0575109 0.42645743 0
4.5540004 2.0520456 0.42647907 0
4.5590005 2.0470688 0.42650613 0
4.5640001 2.042074 0.42653319 0
4.5690002 2.037061 0.42656025 0
4.5740004 2.0320303 0.42658731 0
4.5780001 2.0264852 0.42660895 0
4.5830002 2.0214202 0.42663601 0
4.5880003 2.0163374 0.42666307 0
4.5930004 2.0112362 0.42669013 0
4.5980005 2.0061169 0.42671716 0
4.6030002 2.0009797 0.42674422 0
4.6080003 1.9958243 0.42677128 0
4.6130004 1.9906511 0.42679834 0
4.6180005 1.9854596 0.4268254 0
4.6230001 1.9802501 0.42685246 0
4.6270003 1.9745448 0.4268741 0
4.6320004 1.9693012 0.42690116 0
4.6370001 1.9640393 0.42692822 0
4.6420002 1.9587598 0.42695528 0
4.6470003 1.9534619 0.42698234 0
4.6520004 1.9481462 0.4270094 0
4.6570001 1.9428121 0.42703643 0
4.6630001 1.9379256 0.42706892 0
4.6680002 1.9325538 0.42709598 0
4.6730003 1.9271642 0.42712304 0
4.6780005 1.9217565 0.4271501 0
4.6830001 1.9163303 0.42717713 0
4.6880002 1.9108865 0.42720419 0
4.6930003 1.9054247 0.42723125 0
4.6980004 1.8999448 0.42725831 0
4.7030001 1.8944466 0.42728537 0
4.7080002 1.8889306 0.42731243 0
4.7140002 1.8838439 0.42734489 0
4.7190003 1.8782901 0.42737195 0
4.7240005 1.8727181 0.42739901 0
4.7290001 1.8671279 0.42742607 0
4.7340002 1.8615198 0.42745313 0
4.7400002 1.8563322 0.42748559 0
4.7450004 1.8506864 0.42751265 0
4.7500005 1.8450224 0.42753971 0
4.7550001 1.8393402 0.42756677 0
4.7610002 1.8340714 0.42759925 0
4.7660003 1.8283515 0.42762628 0
4.7710004 1.8226138 0.42765334 0
4.7760005 1.8168578 0.4276804 0
4.7820005 1.8115078 0.42771289 0
4.7870002 1.8057137 0.42773992 0
4.7920003 1.799902 0.42776698 0
4.7980003 1.7944905 0.42779946 0
4.8030005 1.7886407 0.42782652 0
4.8090005 1.7831879 0.42785898 0
4.8140001 1.7773001 0.42788604 0
4.8190002 1.7713945 0.4279131 0
4.8250003 1.7658802 0.42794555 0
4.8300004 1.7599367 0.42797261 0
4.8360004 1.7543811 0.4280051 0
4.8410001 1.7483995 0.42803216 0
4.8470001 1.7428023 0.42806461 0
4.8520002 1.736783 0.42809168 0
4.8580003 1.7311443 0.42812413 0
4.8630004 1.7250872 0.42815119 0
4.8690004 1.719407 0.42818367 0
4.8740001 1.7133118 0.42821074 0
4.8800001 1.7075902 0.42824319 0
4.8850002 1.7014571 0.42827025 0
4.8910003 1.6956941 0.42830274 0
4.8970003 1.6899092 0.42833519 0
4.9020004 1.6837187 0.42836225 0
4.9080005 1.6778924 0.42839471 0
4.9140005 1.6720445 0.42842719 0
4.9190001 1.6657959 0.42845425 0
4.9250002 1.6599065 0.4284867 0
4.9310002 1.6539954 0.42851919 0
4.9360003 1.6476893 0.42854625 0
4.9420004 1.6417367 0.4285787 0
4.9480004 1.6357627 0.42861116 0
4.9530005 1.6293988 0.42863822 0
4.9590001 1.6233829 0.4286707 0
4.9650002 1.6173456 0.42870316 0
4.9710002 1.6112866 0.42873564 0
4.9770002 1.605206 0.4287681 0
4.9820004 1.5987449 0.42879516 0
4.9880004 1.5926228 0.42882764 0
4.9940004 1.5864789 0.4288601 0
5.0000005 1.5803136 0.42889255 0
5.0060005 1.5741266 0.42892504 0
5.0120001 1.5679177 0.42895749 0
5.0180001 1.5616872 0.42898998 0
5.0240002 1.5554353 0.42902243 0
5.0300002 1.5491617 0.42905492 0
5.0350003 1.5425237 0.42908198 0
5.0410004 1.5362086 0.42911443 0
5.0470004 1.5298718 0.42914692 0
5.0530005 1.5235134 0.42917937 0
5.0590005 1.5171334 0.42921185 0
5.0660005 1.5110654 0.42924973 0
5.0720005 1.5046402 0.42928219 0
5.0780005 1.4981934 0.42931467 0
5.0840001 1.4917247 0.42934713 0
5.0900002 1.4852347 0.42937958 0
5.0960002 1.478723 0.42941207 0
5.1020002 1.4721895 0.42944452 0
5.1080003 1.4656346 0.42947701 0
5.1140003 1.4590579 0.42950946 0
5.1210003 1.452777 0.42954734 0
5.1270003 1.4461553 0.42957982 0
5.1330004 1.4395119 0.42961228 0
5.1390004 1.4328468 0.42964476 0
4.3759999 2.2418492 0.4183439 0
4.3800001 2.2369721 0.41835833 0
4.3840003 2.23208 0.41837275 0
4.3889999 2.2277436 0.41839081 0
4.3930001 2.222821 0.41840523 0
4.3980002 2.2184503 0.41842327 0
4.4020004 2.2134972 0.41843769 0
4.4070001 2.2090919 0.41845572 0
4.4110003 2.2041082 0.41847017 0
4.4150004 2.19911 0.4184846 0
4.4200001 2.1946545 0.41850263 0
4.4240003 2.1896255 0.41851705 0
4.4290004 2.1851358 0.41853511 0
4.4330001 2.1800761 0.41854954 0
4.4380002 2.1755521 0.41856757 0
4.4420004 2.1704619 0.41858199 0
4.4470005 2.1659036 0.41860005 0
4.4520001 2.1613271 0.41861808 0
4.4560003 2.1561902 0.41863251 0
4.4610004 2.1515796 0.41865054 0
4.4650002 2.1464117 0.41866496 0
4.4700003 2.141767 0.41868302 0
4.4740005 2.1365685 0.41869745 0
4.4790001 2.1318891 0.41871548 0
4.4840002 2.127192 0.41873351 0
4.4880004 2.1219466 0.41874796 0
4.4930005 2.1172154 0.41876599 0
4.4980001 2.1124656 0.41878402 0
4.5020003 2.1071734 0.41879845 0
4.5070004 2.1023898 0.41881651 0
4.5120001 2.0975881 0.41883454 0
4.5160003 2.0922487 0.41884896 0
4.5210004 2.0874126 0.41886699 0
4.5260005 2.0825589 0.41888505 0
4.5310001 2.0776863 0.41890308 0
4.5350003 2.0722842 0.41891751 0
4.5400004 2.0673778 0.41893554 0
4.5450001 2.0624533 0.4189536 0
4.5500002 2.0575109 0.41897163 0
4.5540004 2.0520456 0.41898605 0
4.5590005 2.0470688 0.41900408 0
4.5640001 2.042074 0.41902214 0
4.5690002 2.037061 0.41904017 0
4.5740004 2.0320303 0.4190582 0
4.5780001 2.0264852 0.41907263 0
4.5830002 2.0214202 0.41909069 0
4.5880003 2.0163374 0.41910872 0
4.5930004 2.0112362 0.41912675 0
4.5980005 2.0061169 0.41914478 0
4.6030002 2.0009797 0.41916284 0
4.6080003 1.9958243 0.41918087 0
4.6130004 1.9906511 0.4191989 0
4.6180005 1.9854596 0.41921693 0
4.6230001 1.9802501 0.41923499 0
4.6270003 1.9745448 0.41924942 0
4.6320004 1.9693012 0.41926745 0
4.6370001 1.9640393 0.41928548 0
4.6420002 1.9587598 0.41930354 0
4.6470003 1.9534619 0.41932157 0
4.6520004 1.9481462 0.4193396 0
4.6570001 1.9428121 0.41935763 0
4.6630001 1.9379256 0.41937929 0
4.6680002 1.9325538 0.41939732 0
4.6730003 1.9271642 0.41941535 0
4.6780005 1.9217565 0.41943339 0
4.6830001 1.9163303 0.41945145 0
4.6880002 1.9108865 0.41946948 0
4.6930003 1.9054247 0.41948751 0
4.6980004 1.8999448 0.41950554 0
4.7030001 1.8944466 0.4195236 0
4.7080002 1.8889306 0.41954163 0
4.7140002 1.8838439 0.41956326 0
4.7190003 1.8782901 0.41958132 0
4.7240005 1.8727181 0.41959935 0
4.7290001 1.8671279 0.41961738 0
4.7340002 1.8615198 0.41963542 0
4.7400002 1.8563322 0.41965708 0
4.7450004 1.8506864 0.41967511 0
4.7500005 1.8450224 0.41969314 0
4.7550001 1.8393402 0.41971117 0
4.7610002 1.8340714 0.41973284 0
4.7660003 1.8283515 0.41975087 0
4.7710004 1.8226138 0.4197689 0
4.7760005 1.8168578 0.41978693 0
4.7820005 1.8115078 0.4198086 0
4.7870002 1.8057137 0.41982663 0
4.7920003 1.799902 0.41984466 0
4.7980003 1.7944905 0.41986632 0
4.8030005 1.7886407 0.41988435 0
4.8090005 1.7831879 0.41990599 0
4.8140001 1.7773001 0.41992402 0
4.8190002 1.7713945 0.41994208 0
4.8250003 1.7658802 0.41996372 0
4.8300004 1.7599367 0.41998175 0
4.8360004 1.7543811 0.42000341 0
4.8410001 1.7483995 0.42002144 0
4.8470001 1.7428023 0.42004308 0
4.8520002 1.736783 0.42006111 0
4.8580003 1.7311443 0.42008278 0
4.8630004 1.7250872 0.42010081 0
4.8690004 1.719407 0.42012244 0
4.8740001 1.7133118 0.4201405 0
4.8800001 1.7075902 0.42016214 0
4.8850002 1.7014571 0.42018017 0
4.8910003 1.6956941 0.42020181 0
4.8970003 1.6899092 0.42022347 0
4.9020004 1.6837187 0.4202415 0
4.9080005 1.6778924 0.42026314 0
4.9140005 1.6720445 0.42028481 0
4.9190001 1.6657959 0.42030284 0
4.9250002 1.6599065 0.42032447 0
4.9310002 1.6539954 0.42034611 0
4.9360003 1.6476893 0.42036417 0
4.9420004 1.6417367 0.42038581 0
4.9480004 1.6357627 0.42040744 0
4.9530005 1.6293988 0.4204255 0
4.9590001 1.6233829 0.42044714 0
4.9650002 1.6173456 0.42046878 0
4.9710002 1.6112866 0.42049044 0
4.9770002 1.605206 0.42051208 0
4.9820004 1.5987449 0.42053011 0
4.9880004 1.5926228 0.42055175 0
4.9940004 1.5864789 0.42057341 0
5.0000005 1.5803136 0.42059505 0
5.0060005 1.5741266 0.42061669 0
5.0120001 1.5679177 0.42063835 0
5.0180001 1.5616872 0.42065999 0
5.0240002 1.5554353 0.42068163 0
5.0300002 1.5491617 0.42070329 0
5.0350003 1.5425237 0.42072132 0
5.0410004 1.5362086 0.42074296 0
5.0470004 1.5298718 0.4207646 0
5.0530005 1.5235134 0.42078626 0
5.0590005 1.5171334 0.4208079 0
5.0660005 1.5110654 0.42083314 0
5.0720005 1.5046402 0.42085481 0
5.0780005 1.4981934 0.42087644 0
5.0840001 1.4917247 0.42089808 0
5.0900002 1.4852347 0.42091975 0
5.0960002 1.478723 0.42094138 0
5.1020002 1.4721895 0.42096302 0
5.1080003 1.4656346 0.42098469 0
5.1140003 1.4590579 0.42100632 0
5.1210003 1.452777 0.42103156 0
5.1270003 1.4461553 0.42105323 0
5.1330004 1.4395119 0.42107487 0
5.1390004 1.4328468 0.4210965 0
4.3759999 2.2418492 0.41117194 0
4.3800001 2.2369721 0.41117918 0
4.3840003 2.23208 0.4111864 0
4.3889999 2.2277436 0.4111954 0
4.3930001 2.222821 0.41120261 0
4.3980002 2.2184503 0.41121164 0
4.4020004 2.2134972 0.41121885 0
4.4070001 2.2090919 0.41122788 0
4.4110003 2.2041082 0.41123509 0
4.4150004 2.19911 0.41124231 0
4.4200001 2.1946545 0.41125134 0
4.4240003 2.1896255 0.41125855 0
4.4290004 2.1851358 0.41126755 0
4.4330001 2.1800761 0.41127476 0
4.4380002 2.1755521 0.41128379 0
4.4420004 2.1704619 0.411291 0
4.4470005 2.1659036 0.41130003 0
4.4520001 2.1613271 0.41130903 0
4.4560003 2.1561902 0.41131625 0
4.4610004 2.1515796 0.41132528 0
4.4650002 2.1464117 0.41133249 0
4.4700003 2.141767 0.41134152 0
4.4740005 2.1365685 0.41134873 0
4.4790001 2.1318891 0.41135776 0
4.4840002 2.127192 0.41136676 0
4.4880004 2.1219466 0.41137397 0
4.4930005 2.1172154 0.411383 0
4.4980001 2.1124656 0.41139203 0
4.5020003 2.1071734 0.41139925 0
4.5070004 2.1023898 0.41140825 0
4.5120001 2.0975881 0.41141728 0
4.5160003 2.0922487 0.41142449 0
4.5210004 2.0874126 0.41143352 0
4.5260005 2.0825589 0.41144252 0
4.5310001 2.0776863 0.41145155 0
4.5350003 2.0722842 0.41145876 0
4.5400004 2.0673778 0.41146779 0
4.5450001 2.0624533 0.41147679 0
4.5500002 2.0575109 0.41148582 0
4.5540004 2.0520456 0.41149303 0
4.5590005 2.0470688 0.41150206 0
4.5640001 2.042074 0.41151106 0
4.5690002 2.037061 0.41152009 0
4.5740004 2.0320303 0.41152912 0
4.5780001 2.0264852 0.41153634 0
4.5830002 2.0214202 0.41154534 0
4.5880003 2.0163374 0.41155437 0
4.5930004 2.0112362 0.4115634 0
4.5980005 2.0061169 0.4115724 0
4.6030002 2.0009797 0.41158143 0
4.6080003 1.9958243 0.41159043 0
4.6130004 1.9906511 0.41159946 0
4.6180005 1.9854596 0.41160849 0
4.6230001 1.9802501 0.41161749 0
4.6270003 1.9745448 0.4116247 0
4.6320004 1.9693012 0.41163373 0
4.6370001 1.9640393 0.41164276 0
4.6420002 1.9587598 0.41165176 0
4.6470003 1.9534619 0.41166079 0
4.6520004 1.9481462 0.41166982 0
4.6570001 1.9428121 0.41167882 0
4.6630001 1.9379256 0.41168964 0
4.6680002 1.9325538 0.41169867 0
4.6730003 1.9271642 0.4117077 0
4.6780005 1.9217565 0.4117167 0
4.6830001 1.9163303 0.41172573 0
4.6880002 1.9108865 0.41173473 0
4.6930003 1.9054247 0.41174376 0
4.6980004 1.8999448 0.41175279 0
4.7030001 1.8944466 0.41176179 0
4.7080002 1.8889306 0.41177082 0
4.7140002 1.8838439 0.41178164 0
4.7190003 1.8782901 0.41179067 0
4.7240005 1.8727181 0.41179967 0
4.7290001 1.8671279 0.4118087 0
4.7340002 1.8615198 0.41181773 0
4.7400002 1.8563322 0.41182855 0
4.7450004 1.8506864 0.41183755 0
4.7500005 1.8450224 0.41184658 0
4.7550001 1.8393402 0.41185561 0
4.7610002 1.8340714 0.41186643 0
4.7660003 1.8283515 0.41187543 0
4.7710004 1.8226138 0.41188446 0
4.7760005 1.8168578 0.41189349 0
4.7820005 1.8115078 0.41190431 0
4.7870002 1.8057137 0.41191334 0
4.7920003 1.799902 0.41192234 0
4.7980003 1.7944905 0.41193315 0
4.8030005 1.7886407 0.41194218 0
4.8090005 1.7831879 0.411953 0
4.8140001 1.7773001 0.41196203 0
4.8190002 1.7713945 0.41197103 0
4.8250003 1.7658802 0.41198188 0
4.8300004 1.7599367 0.41199088 0
4.8360004 1.7543811 0.4120017 0
4.8410001 1.7483995 0.41201073 0
4.8470001 1.7428023 0.41202155 0
4.8520002 1.736783 0.41203058 0
4.8580003 1.7311443 0.4120414 0
4.8630004 1.7250872 0.4120504 0
4.8690004 1.719407 0.41206124 0
4.8740001 1.7133118 0.41207024 0
4.8800001 1.7075902 0.41208106 0
4.8850002 1.7014571 0.41209009 0
4.8910003 1.6956941 0.41210091 0
4.8970003 1.6899092 0.41211173 0
4.9020004 1.6837187 0.41212076 0
4.9080005 1.6778924 0.41213158 0
4.9140005 1.6720445 0.4121424 0
4.9190001 1.6657959 0.41215143 0
4.9250002 1.6599065 0.41216224 0
4.9310002 1.6539954 0.41217306 0
4.9360003 1.6476893 0.41218209 0
4.9420004 1.6417367 0.41219291 0
4.9480004 1.6357627 0.41220373 0
4.9530005 1.6293988 0.41221276 0
4.9590001 1.6233829 0.41222358 0
4.9650002 1.6173456 0.4122344 0
4.9710002 1.6112866 0.41224521 0
4.9770002 1.605206 0.41225603 0
4.9820004 1.5987449 0.41226506 0
4.9880004 1.5926228 0.41227588 0
4.9940004 1.5864789 0.4122867 0
5.0000005 1.5803136 0.41229755 0
5.0060005 1.5741266 0.41230837 0
5.0120001 1.5679177 0.41231918 0
5.0180001 1.5616872 0.41233 0
5.0240002 1.5554353 0.41234082 0
5.0300002 1.5491617 0.41235164 0
5.0350003 1.5425237 0.41236067 0
5.0410004 1.5362086 0.41237149 0
5.0470004 1.5298718 0.4123823 0
5.0530005 1.5235134 0.41239312 0
5.0590005 1.5171334 0.41240397 0
5.0660005 1.5110654 0.41241658 0
5.0720005 1.5046402 0.4124274 0
5.0780005 1.4981934 0.41243824 0
5.0840001 1.4917247 0.41244906 0
5.0900002 1.4852347 0.41245988 0
5.0960002 1.478723 0.4124707 0
5.1020002 1.4721895 0.41248152 0
5.1080003 1.4656346 0.41249233 0
5.1140003 1.4590579 0.41250315 0
5.1210003 1.452777 0.41251579 0
5.1270003 1.4461553 0.41252661 0
5.1330004 1.4395119 0.41253743 0
5.1390004 1.4328468 0.41254827 0
4.3759999 2.2418492 0.40400001 0
4.3800001 2.2369721 0.40400001 0
4.3840003 2.23208 0.40400001 0
4.3889999 2.2277436 0.40400001 0
4.3930001 2.222821 0.40400001 0
4.3980002 2.2184503 0.40400001 0
4.4020004 2.2134972 0.40400001 0
4.4070001 2.2090919 0.40400001 0
4.4110003 2.2041082 0.40400001 0
4.4150004 2.19911 0.40400001 0
4.4200001 2.1946545 0.40400001 0
4.4240003 2.1896255 0.40400001 0
4.4290004 2.1851358 0.40400001 0
4.4330001 2.1800761 0.40400001 0
4.4380002 2.1755521 0.40400001 0
4.4420004 2.1704619 0.40400001 0
4.4470005 2.1659036 0.40400001 0
4.4520001 2.1613271 0.40400001 0
4.4560003 2.1561902 0.40400001 0
4.4610004 2.1515796 0.40400001 0
4.4650002 2.1464117 0.40400001 0
4.4700003 2.141767 0.40400001 0
4.4740005 2.1365685 0.40400001 0
4.4790001 2.1318891 0.40400001 0
4.4840002 2.127192 0.40400001 0
4.4880004 2.1219466 0.40400001 0
4.4930005 2.1172154 0.40400001 0
4.4980001 2.1124656 0.40400001 0
4.5020003 2.1071734 0.40400001 0
4.5070004 2.1023898 0.40400001 0
4.5120001 2.0975881 0.40400001 0
4.5160003 2.0922487 0.40400001 0
4.5210004 2.0874126 0.40400001 0
4.5260005 2.0825589 0.40400001 0
4.5310001 2.0776863 0.40400001 0
4.5350003 2.0722842 0.40400001 0
4.5400004 2.0673778 0.40400001 0
4.5450001 2.0624533 0.40400001 0
4.5500002 2.0575109 0.40400001 0
4.5540004 2.0520456 0.40400001 0
4.5590005 2.0470688 0.40400001 0
4.5640001 2.042074 0.40400001 0
4.5690002 2.037061 0.40400001 0
4.5740004 2.0320303 0.40400001 0
4.5780001 2.0264852 0.40400001 0
4.5830002 2.0214202 0.40400001 0
4.5880003 2.0163374 0.40400001 0
4.5930004 2.0112362 0.40400001 0
4.5980005 2.0061169 0.40400001 0
4.6030002 2.0009797 0.40400001 0
4.6080003 1.9958243 0.40400001 0
4.6130004 1.9906511 0.40400001 0
4.6180005 1.9854596 0.40400001 0
4.6230001 1.9802501 0.40400001 0
4.6280003 1.9750228 0.40400001 0
4.6320004 1.9693012 0.40400001 0
4.6370001 1.9640393 0.40400001 0
4.6420002 1.9587598 0.40400001 0
4.6470003 1.9534619 0.40400001 0
4.6520004 1.9481462 0.40400001 0
4.6570001 1.9428121 0.40400001 0
4.6630001 1.9379256 0.40400001 0
4.6680002 1.9325538 0.40400001 0
4.6730003 1.9271642 0.40400001 0
4.6780005 1.9217565 0.40400001 0
4.6830001 1.9163303 0.40400001 0
4.6880002 1.9108865 0.40400001 0
4.6930003 1.9054247 0.40400001 0
4.6980004 1.8999448 0.40400001 0
4.7030001 1.8944466 0.40400001 0
4.7080002 1.8889306 0.40400001 0
4.7140002 1.8838439 0.40400001 0
4.7190003 1.8782901 0.40400001 0
4.7240005 1.8727181 0.40400001 0
4.7290001 1.8671279 0.40400001 0
4.7340002 1.8615198 0.40400001 0
4.7400002 1.8563322 0.40400001 0
4.7450004 1.8506864 0.40400001 0
4.7500005 1.8450224 0.40400001 0
4.7550001 1.8393402 0.40400001 0
4.7610002 1.8340714 0.40400001 0
4.7660003 1.8283515 0.40400001 0
4.7710004 1.8226138 0.40400001 0
4.7760005 1.8168578 0.40400001 0
4.7820005 1.8115078 0.40400001 0
4.7870002 1.8057137 0.40400001 0
4.7920003 1.799902 0.40400001 0
4.7980003 1.7944905 0.40400001 0
4.8030005 1.7886407 0.40400001 0
4.8090005 1.7831879 0.40400001 0
4.8140001 1.7773001 0.40400001 0
4.8190002 1.7713945 0.40400001 0
4.8250003 1.7658802 0.40400001 0
4.8300004 1.7599367 0.40400001 0
4.8360004 1.7543811 0.40400001 0
4.8410001 1.7483995 0.40400001 0
4.8470001 1.7428023 0.40400001 0
4.8520002 1.736783 0.40400001 0
4.8580003 1.7311443 0.40400001 0
4.8630004 1.7250872 0.40400001 0
4.8690004 1.719407 0.40400001 0
4.8740001 1.7133118 0.40400001 0
4.8800001 1.7075902 0.40400001 0
4.8850002 1.7014571 0.40400001 0
4.8910003 1.6956941 0.40400001 0
4.8970003 1.6899092 0.40400001 0
4.9020004 1.6837187 0.40400001 0
4.9080005 1.6778924 0.40400001 0
4.9140005 1.6720445 0.40400001 0
4.9190001 1.6657959 0.40400001 0
4.9250002 1.6599065 0.40400001 0
4.9310002 1.6539954 0.40400001 0
4.9360003 1.6476893 0.40400001 0
4.9420004 1.6417367 0.40400001 0
4.9480004 1.6357627 0.40400001 0
4.9530005 1.6293988 0.40400001 0
4.9590001 1.6233829 0.40400001 0
4.9650002 1.6173456 0.40400001 0
4.9710002 1.6112866 0.40400001 0
4.9770002 1.605206 0.40400001 0
4.9820004 1.5987449 0.40400001 0
4.9880004 1.5926228 0.40400001 0
4.9940004 1.5864789 0.40400001 0
5.0000005 1.5803136 0.40400001 0
5.0060005 1.5741266 0.40400001 0
5.0120001 1.5679177 0.40400001 0
5.0180001 1.5616872 0.40400001 0
5.0240002 1.5554353 0.40400001 0
5.0300002 1.5491617 0.40400001 0
5.0350003 1.5425237 0.40400001 0
5.0410004 1.5362086 0.40400001 0
5.0470004 1.5298718 0.40400001 0
5.0530005 1.5235134 0.40400001 0
5.0590005 1.5171334 0.40400001 0
5.0660005 1.5110654 0.40400001 0
5.0720005 1.5046402 0.40400001 0
5.0780005 1.4981934 0.40400001 0
5.0840001 1.4917247 0.40400001 0
5.0900002 1.4852347 0.40400001 0
5.0960002 1.478723 0.40400001 0
5.1020002 1.4721895 0.40400001 0
5.1080003 1.4656346 0.40400001 0
5.1140003 1.4590579 0.40400001 0
5.1210003 1.452777 0.40400001 0
5.1270003 1.4461553 0.40400001 0
5.1330004 1.4395119 0.40400001 0
5.1390004 1.4328468 0.40400001 0
4.3759999 2.2418492 0.39682809 0
4.3800001 2.2369721 0.39682084 0
4.3840003 2.23208 0.39681363 0
4.3889999 2.2277436 0.39680463 0
4.3930001 2.222821 0.39679742 0
4.3980002 2.2184503 0.39678839 0
4.4020004 2.2134972 0.39678118 0
4.4070001 2.2090919 0.39677215 0
4.4110003 2.2041082 0.39676493 0
4.4150004 2.19911 0.39675772 0
4.4200001 2.1946545 0.39674869 0
4.4240003 2.1896255 0.39674148 0
4.4290004 2.1851358 0.39673248 0
4.4330001 2.1800761 0.39672527 0
4.4380002 2.1755521 0.39671624 0
4.4420004 2.1704619 0.39670902 0
4.4470005 2.1659036 0.39669999 0
4.4520001 2.1613271 0.39669099 0
4.4560003 2.1561902 0.39668378 0
4.4610004 2.1515796 0.39667475 0
4.4650002 2.1464117 0.39666754 0
4.4700003 2.141767 0.39665851 0
4.4740005 2.1365685 0.3966513 0
4.4790001 2.1318891 0.39664227 0
4.4840002 2.127192 0.39663327 0
4.4880004 2.1219466 0.39662606 0
4.4930005 2.1172154 0.39661703 0
4.4980001 2.1124656 0.396608 0
4.5020003 2.1071734 0.39660078 0
4.5070004 2.1023898 0.39659178 0
4.5120001 2.0975881 0.39658275 0
4.5160003 2.0922487 0.39657554 0
4.5210004 2.0874126 0.39656651 0
4.5260005 2.0825589 0.39655751 0
4.5310001 2.0776863 0.39654848 0
4.5350003 2.0722842 0.39654127 0
4.5400004 2.0673778 0.39653224 0
4.5450001 2.0624533 0.39652324 0
4.5500002 2.0575109 0.39651421 0
4.5540004 2.0520456 0.39650699 0
4.5590005 2.0470688 0.39649796 0
4.5640001 2.042074 0.39648896 0
4.5690002 2.037061 0.39647993 0
4.5740004 2.0320303 0.3964709 0
4.5780001 2.0264852 0.39646369 0
4.5830002 2.0214202 0.39645469 0
4.5880003 2.0163374 0.39644566 0
4.5930004 2.0112362 0.39643663 0
4.5980005 2.0061169 0.39642763 0
4.6030002 2.0009797 0.3964186 0
4.6080003 1.9958243 0.3964096 0
4.6130004 1.9906511 0.39640057 0
4.6180005 1.9854596 0.39639154 0
4.6230001 1.9802501 0.39638254 0
4.6280003 1.9750228 0.39637351 0
4.6320004 1.9693012 0.3963663 0
4.6370001 1.9640393 0.39635727 0
4.6420002 1.9587598 0.39634827 0
4.6470003 1.9534619 0.39633924 0
4.6520004 1.9481462 0.39633021 0
4.6570001 1.9428121 0.39632121 0
4.6630001 1.9379256 0.39631039 0
4.6680002 1.9325538 0.39630136 0
4.6730003 1.9271642 0.39629233 0
4.6780005 1.9217565 0.39628333 0
4.6830001 1.9163303 0.3962743 0
4.6880002 1.9108865 0.3962653 0
4.6930003 1.9054247 0.39625627 0
4.6980004 1.8999448 0.39624724 0
4.7030001 1.8944466 0.39623824 0
4.7080002 1.8889306 0.39622921 0
4.7140002 1.8838439 0.39621839 0
4.7190003 1.8782901 0.39620936 0
4.7240005 1.8727181 0.39620036 0
4.7290001 1.8671279 0.39619133 0
4.7340002 1.8615198 0.3961823 0
4.7400002 1.8563322 0.39617148 0
4.7450004 1.8506864 0.39616248 0
4.7500005 1.8450224 0.39615345 0
4.7550001 1.8393402 0.39614442 0
4.7610002 1.8340714 0.3961336 0
4.7660003 1.8283515 0.3961246 0
4.7710004 1.8226138 0.39611557 0
4.7760005 1.8168578 0.39610654 0
4.7820005 1.8115078 0.39609572 0
4.7870002 1.8057137 0.39608669 0
4.7920003 1.799902 0.39607769 0
4.7980003 1.7944905 0.39606687 0
4.8030005 1.7886407 0.39605784 0
4.8090005 1.7831879 0.39604703 0
4.8140001 1.7773001 0.396038 0
4.8190002 1.7713945 0.396029 0
4.8250003 1.7658802 0.39601815 0
4.8300004 1.7599367 0.39600915 0
4.8360004 1.7543811 0.39599833 0
4.8410001 1.7483995 0.3959893 0
4.8470001 1.7428023 0.39597848 0
4.8520002 1.736783 0.39596945 0
4.8580003 1.7311443 0.39595863 0
4.8630004 1.7250872 0.39594963 0
4.8690004 1.719407 0.39593878 0
4.8740001 1.7133118 0.39592978 0
4.8800001 1.7075902 0.39591897 0
4.8850002 1.7014571 0.39590994 0
4.8910003 1.6956941 0.39589912 0
4.8970003 1.6899092 0.3958883 0
4.9020004 1.6837187 0.39587927 0
4.9080005 1.6778924 0.39586845 0
4.9140005 1.6720445 0.39585763 0
4.9190001 1.6657959 0.3958486 0
4.9250002 1.6599065 0.39583778 0
4.9310002 1.6539954 0.39582697 0
4.9360003 1.6476893 0.39581794 0
4.9420004 1.6417367 0.39580712 0
4.9480004 1.6357627 0.3957963 0
4.9530005 1.6293988 0.39578727 0
4.9590001 1.6233829 0.39577645 0
4.9650002 1.6173456 0.39576563 0
4.9710002 1.6112866 0.39575481 0
4.9770002 1.605206 0.395744 0
4.9820004 1.5987449 0.39573497 0
4.9880004 1.5926228 0.39572415 0
4.9940004 1.5864789 0.39571333 0
5.0000005 1.5803136 0.39570248 0
5.0060005 1.5741266 0.39569166 0
5.0120001 1.5679177 0.39568084 0
5.0180001 1.5616872 0.39567003 0
5.0240002 1.5554353 0.39565921 0
5.0300002 1.5491617 0.39564839 0
5.0360003 1.5428665 0.39563757 0
5.0410004 1.5362086 0.39562854 0
5.0470004 1.5298718 0.39561772 0
5.0530005 1.5235134 0.39560691 0
5.0590005 1.5171334 0.39559606 0
5.0660005 1.5110654 0.39558345 0
5.0720005 1.5046402 0.39557263 0
5.0780005 1.4981934 0.39556178 0
5.0840001 1.4917247 0.39555097 0
5.0900002 1.4852347 0.39554015 0
5.0960002 1.478723 0.39552933 0
5.1020002 1.4721895 0.39551851 0
5.1080003 1.4656346 0.39550769 0
5.1140003 1.4590579 0.39549688 0
5.1210003 1.452777 0.39548424 0
5.1270003 1.4461553 0.39547342 0
5.1330004 1.4395119 0.3954626 0
5.1390004 1.4328468 0.39545175 0
4.3759999 2.2418492 0.38965613 0
4.3800001 2.2369721 0.3896417 0
4.3840003 2.23208 0.38962728 0
4.3889999 2.2277436 0.38960922 0
4.3930001 2.222821 0.38959479 0
4.3980002 2.2184503 0.38957676 0
4.4020004 2.2134972 0.38956234 0
4.4070001 2.2090919 0.38954431 0
4.4110003 2.2041082 0.38952985 0
4.4150004 2.19911 0.38951543 0
4.4200001 2.1946545 0.3894974 0
4.4240003 2.1896255 0.38948298 0
4.4290004 2.1851358 0.38946491 0
4.4330001 2.1800761 0.38945049 0
4.4380002 2.1755521 0.38943246 0
4.4420004 2.1704619 0.38941804 0
4.4470005 2.1659036 0.38939998 0
4.4520001 2.1613271 0.38938195 0
4.4560003 2.1561902 0.38936752 0
4.4610004 2.1515796 0.38934949 0
4.4650002 2.1464117 0.38933507 0
4.4700003 2.141767 0.38931701 0
4.4740005 2.1365685 0.38930258 0
4.4790001 2.1318891 0.38928455 0
4.4840002 2.127192 0.38926652 0
4.4880004 2.1219466 0.38925207 0
4.4930005 2.1172154 0.38923404 0
4.4980001 2.1124656 0.38921601 0
4.5020003 2.1071734 0.38920158 0
4.5070004 2.1023898 0.38918352 0
4.5120001 2.0975881 0.38916549 0
4.5160003 2.0922487 0.38915107 0
4.5210004 2.0874126 0.38913304 0
4.5260005 2.0825589 0.38911498 0
4.5310001 2.0776863 0.38909695 0
4.5350003 2.0722842 0.38908252 0
4.5400004 2.0673778 0.38906449 0
4.5450001 2.0624533 0.38904643 0
4.5500002 2.0575109 0.3890284 0
4.5540004 2.0520456 0.38901398 0
4.5590005 2.0470688 0.38899595 0
4.5640001 2.042074 0.38897789 0
4.5690002 2.037061 0.38895985 0
4.5740004 2.0320303 0.38894182 0
4.5780001 2.0264852 0.3889274 0
4.5830002 2.0214202 0.38890934 0
4.5880003 2.0163374 0.38889131 0
4.5930004 2.0112362 0.38887328 0
4.5980005 2.0061169 0.38885525 0
4.6030002 2.0009797 0.38883719 0
4.6080003 1.9958243 0.38881916 0
4.6130004 1.9906511 0.38880113 0
4.6180005 1.9854596 0.3887831 0
4.6230001 1.9802501 0.38876504 0
4.6280003 1.9750228 0.38874701 0
4.6320004 1.9693012 0.38873258 0
4.6370001 1.9640393 0.38871455 0
4.6420002 1.9587598 0.38869649 0
4.6470003 1.9534619 0.38867846 0
4.6520004 1.9481462 0.38866043 0
4.6570001 1.9428121 0.3886424 0
4.6630001 1.9379256 0.38862073 0
4.6680002 1.9325538 0.3886027 0
4.6730003 1.9271642 0.38858467 0
4.6780005 1.9217565 0.38856664 0
4.6830001 1.9163303 0.38854858 0
4.6880002 1.9108865 0.38853055 0
4.6930003 1.9054247 0.38851252 0
4.6980004 1.8999448 0.38849449 0
4.7030001 1.8944466 0.38847643 0
4.7080002 1.8889306 0.3884584 0
4.7140002 1.8838439 0.38843676 0
4.7190003 1.8782901 0.3884187 0
4.7240005 1.8727181 0.38840067 0
4.7290001 1.8671279 0.38838264 0
4.7340002 1.8615198 0.38836461 0
4.7400002 1.8563322 0.38834295 0
4.7450004 1.8506864 0.38832492 0
4.7500005 1.8450224 0.38830689 0
4.7550001 1.8393402 0.38828886 0
4.7610002 1.8340714 0.38826719 0
4.7660003 1.8283515 0.38824916 0
4.7710004 1.8226138 0.38823113 0
4.7760005 1.8168578 0.3882131 0
4.7820005 1.8115078 0.38819143 0
4.7870002 1.8057137 0.3881734 0
4.7920003 1.799902 0.38815537 0
4.7980003 1.7944905 0.3881337 0
4.8030005 1.7886407 0.38811567 0
4.8090005 1.7831879 0.38809404 0
4.8140001 1.7773001 0.38807601 0
4.8190002 1.7713945 0.38805795 0
4.8250003 1.7658802 0.38803631 0
4.8300004 1.7599367 0.38801828 0
4.8360004 1.7543811 0.38799661 0
4.8410001 1.7483995 0.38797858 0
4.8470001 1.7428023 0.38795695 0
4.8520002 1.736783 0.38793892 0
4.8580003 1.7311443 0.38791725 0
4.8630004 1.7250872 0.38789922 0
4.8690004 1.719407 0.38787758 0
4.8740001 1.7133118 0.38785952 0
4.8800001 1.7075902 0.38783789 0
4.8850002 1.7014571 0.38781986 0
4.8910003 1.6956941 0.38779822 0
4.8970003 1.6899092 0.38777655 0
4.9020004 1.6837187 0.38775852 0
4.9080005 1.6778924 0.38773689 0
4.9140005 1.6720445 0.38771522 0
4.9190001 1.6657959 0.38769719 0
4.9250002 1.6599065 0.38767555 0
4.9310002 1.6539954 0.38765392 0
4.9360003 1.6476893 0.38763586 0
4.9420004 1.6417367 0.38761422 0
4.9480004 1.6357627 0.38759258 0
4.9530005 1.6293988 0.38757452 0
4.9590001 1.6233829 0.38755289 0
4.9650002 1.6173456 0.38753125 0
4.9710002 1.6112866 0.38750958 0
4.9770002 1.605206 0.38748795 0
4.9820004 1.5987449 0.38746992 0
4.9880004 1.5926228 0.38744828 0
4.9940004 1.5864789 0.38742661 0
5.0000005 1.5803136 0.38740498 0
5.0060005 1.5741266 0.38738334 0
5.0120001 1.5679177 0.38736168 0
5.0180001 1.5616872 0.38734004 0
5.0240002 1.5554353 0.3873184 0
5.0300002 1.5491617 0.38729674 0
5.0360003 1.5428665 0.3872751 0
5.0410004 1.5362086 0.38725707 0
5.0470004 1.5298718 0.38723543 0
5.0530005 1.5235134 0.38721377 0
5.0590005 1.5171334 0.38719213 0
5.0660005 1.5110654 0.38716689 0
5.0720005 1.5046402 0.38714522 0
5.0780005 1.4981934 0.38712358 0
5.0840001 1.4917247 0.38710195 0
5.0900002 1.4852347 0.38708028 0
5.0960002 1.478723 0.38705865 0
5.1020002 1.4721895 0.38703701 0
5.1080003 1.4656346 0.38701534 0
5.1140003 1.4590579 0.38699371 0
5.1210003 1.452777 0.38696846 0
5.1270003 1.4461553 0.3869468 0
5.1330004 1.4395119 0.38692516 0
5.1390004 1.4328468 0.38690352 0
4.3759999 2.2418492 0.3824842 0
4.3800001 2.2369721 0.38246253 0
4.3840003 2.23208 0.38244089 0
4.3889999 2.2277436 0.38241383 0
4.3930001 2.222821 0.3823922 0
4.3980002 2.2184503 0.38236514 0
4.4020004 2.2134972 0.3823435 0
4.4070001 2.2090919 0.38231644 0
4.4110003 2.2041082 0.38229477 0
4.4150004 2.19911 0.38227314 0
4.4200001 2.1946545 0.38224608 0
4.4240003 2.1896255 0.38222444 0
4.4290004 2.1851358 0.38219738 0
4.4330001 2.1800761 0.38217574 0
4.4380002 2.1755521 0.38214868 0
4.4420004 2.1704619 0.38212705 0
4.4470005 2.1659036 0.38209999 0
4.4520001 2.1613271 0.38207293 0
4.4560003 2.1561902 0.38205129 0
4.4610004 2.1515796 0.38202423 0
4.4650002 2.1464117 0.38200256 0
4.4700003 2.141767 0.3819755 0
4.4740005 2.1365685 0.38195387 0
4.4790001 2.1318891 0.3819268 0
4.4840002 2.127192 0.38189974 0
4.4880004 2.1219466 0.38187811 0
4.4930005 2.1172154 0.38185105 0
4.4980001 2.1124656 0.38182399 0
4.5020003 2.1071734 0.38180235 0
4.5070004 2.1023898 0.38177529 0
4.5120001 2.0975881 0.38174823 0
4.5160003 2.0922487 0.38172659 0
4.5210004 2.0874126 0.38169953 0
4.5260005 2.0825589 0.38167247 0
4.5310001 2.0776863 0.38164541 0
4.5350003 2.0722842 0.38162377 0
4.5400004 2.0673778 0.38159671 0
4.5450001 2.0624533 0.38156965 0
4.5500002 2.0575109 0.38154259 0
4.5540004 2.0520456 0.38152096 0
4.5590005 2.0470688 0.3814939 0
4.5640001 2.042074 0.38146684 0
4.5690002 2.037061 0.38143978 0
4.5740004 2.0320303 0.38141271 0
4.5780001 2.0264852 0.38139108 0
4.5830002 2.0214202 0.38136402 0
4.5880003 2.0163374 0.38133696 0
4.5930004 2.0112362 0.3813099 0
4.5980005 2.0061169 0.38128287 0
4.6030002 2.0009797 0.38125581 0
4.6080003 1.9958243 0.38122874 0
4.6130004 1.9906511 0.38120168 0
4.6180005 1.9854596 0.38117462 0
4.6230001 1.9802501 0.38114756 0
4.6280003 1.9750228 0.3811205 0
4.6320004 1.9693012 0.38109887 0
4.6370001 1.9640393 0.38107181 0
4.6420002 1.9587598 0.38104475 0
4.6470003 1.9534619 0.38101768 0
4.6520004 1.9481462 0.38099062 0
4.6570001 1.9428121 0.38096359 0
4.6630001 1.9379256 0.38093111 0
4.6680002 1.9325538 0.38090405 0
4.6730003 1.9271642 0.38087699 0
4.6780005 1.9217565 0.38084993 0
4.6830001 1.9163303 0.3808229 0
4.6880002 1.9108865 0.38079584 0
4.6930003 1.9054247 0.38076878 0
4.6980004 1.8999448 0.38074172 0
4.7030001 1.8944466 0.38071465 0
4.7080002 1.8889306 0.38068759 0
4.7140002 1.8838439 0.38065514 0
4.7190003 1.8782901 0.38062808 0
4.7240005 1.8727181 0.38060102 0
4.7290001 1.8671279 0.38057396 0
4.7340002 1.8615198 0.3805469 0
4.7400002 1.8563322 0.38051444 0
4.7450004 1.8506864 0.38048738 0
4.7500005 1.8450224 0.38046032 0
4.7550001 1.8393402 0.38043326 0
4.7610002 1.8340714 0.38040078 0
4.7660003 1.8283515 0.38037375 0
4.7710004 1.8226138 0.38034669 0
4.7760005 1.8168578 0.38031963 0
4.7820005 1.8115078 0.38028714 0
4.7870002 1.8057137 0.38026011 0
4.7920003 1.799902 0.38023305 0
4.7980003 1.7944905 0.38020056 0
4.8030005 1.7886407 0.3801735 0
4.8090005 1.7831879 0.38014105 0
4.8140001 1.7773001 0.38011399 0
4.8190002 1.7713945 0.38008693 0
4.8250003 1.7658802 0.38005447 0
4.8300004 1.7599367 0.38002741 0
4.8360004 1.7543811 0.37999493 0
4.8410001 1.7483995 0.37996787 0
4.8470001 1.7428023 0.37993541 0
4.8520002 1.736783 0.37990835 0
4.8580003 1.7311443 0.3798759 0
4.8630004 1.7250872 0.37984884 0
4.8690004 1.719407 0.37981635 0
4.8740001 1.7133118 0.37978929 0
4.8800001 1.7075902 0.37975684 0
4.8850002 1.7014571 0.37972978 0
4.8910003 1.6956941 0.37969729 0
4.8970003 1.6899092 0.37966484 0
4.9020004 1.6837187 0.37963778 0
4.9080005 1.6778924 0.37960532 0
4.9140005 1.6720445 0.37957284 0
4.9190001 1.6657959 0.37954578 0
4.9250002 1.6599065 0.37951332 0
4.9310002 1.6539954 0.37948084 0
4.9360003 1.6476893 0.37945378 0
4.9420004 1.6417367 0.37942132 0
4.9480004 1.6357627 0.37938887 0
4.9530005 1.6293988 0.37936181 0
4.9590001 1.6233829 0.37932932 0
4.9650002 1.6173456 0.37929687 0
4.9710002 1.6112866 0.37926438 0
4.9770002 1.605206 0.37923193 0
4.9820004 1.5987449 0.37920487 0
4.9880004 1.5926228 0.37917238 0
4.9940004 1.5864789 0.37913993 0
5.0000005 1.5803136 0.37910748 0
5.0060005 1.5741266 0.37907499 0
5.0120001 1.5679177 0.37904254 0
5.0180001 1.5616872 0.37901005 0
5.0240002 1.5554353 0.3789776 0
5.0300002 1.5491617 0.37894511 0
5.0360003 1.5428665 0.37891266 0
5.0410004 1.5362086 0.3788856 0
5.0470004 1.5298718 0.37885311 0
5.0530005 1.5235134 0.37882066 0
5.0590005 1.5171334 0.37878817 0
5.0660005 1.5110654 0.37875029 0
5.0720005 1.5046402 0.37871784 0
5.0780005 1.4981934 0.37868536 0
5.0840001 1.4917247 0.3786529 0
5.0900002 1.4852347 0.37862045 0
