# .PCD v0.7 - Point Cloud Data file format
VERSION 0.7
FIELDS x y z intensity
SIZE 4 4 4 4
TYPE F F F F
COUNT 1 1 1 1
WIDTH 1417
HEIGHT 1
VIEWPOINT 0 0 0 1 0 0 0
POINTS 1417
DATA ascii
2.6320002 0.73506337 0.6495921 0
2.6340003 0.73173362 0.64981222 0
2.6360002 0.72839648 0.65003222 0
2.6370001 0.72470766 0.65014225 0
2.6390002 0.721358 0.65036237 0
2.6410003 0.71800119 0.65058243 0
2.6420002 0.71429795 0.65069246 0
2.6440003 0.7109285 0.65091252 0
2.6460001 0.70755172 0.65113258 0
2.6480002 0.70416778 0.65135264 0
2.6490002 0.7004447 0.65146267 0
2.6510003 0.69704819 0.65168273 0
2.6530001 0.69364429 0.65190279 0
2.6540003 0.6899069 0.65201283 0
2.6560001 0.68649042 0.65223289 0
2.6580002 0.68306684 0.65245295 0
2.6590002 0.67931491 0.65256298 0
2.6610003 0.67587864 0.65278304 0
2.6630001 0.6724351 0.6530031 0
2.6640003 0.66866887 0.65311313 0
2.6660001 0.66521269 0.65333319 0
2.6680002 0.66174942 0.65355325 0
2.6700003 0.65827888 0.65377337 0
2.6710002 0.65449274 0.65388334 0
2.6730001 0.6510095 0.6541034 0
2.6750002 0.64751917 0.65432352 0
2.6760001 0.64371854 0.65443349 0
2.6780002 0.64021558 0.65465361 0
2.6800003 0.6367054 0.65487367 0
2.6820002 0.63318789 0.65509373 0
2.6830001 0.62936741 0.65520376 0
2.5120001 0.98641312 0.63257861 0
2.5130002 0.98309076 0.63268685 0
2.5150001 0.98024952 0.63290328 0
2.5160003 0.9769181 0.63301152 0
2.5180001 0.97406435 0.63322794 0
2.5190003 0.97072375 0.63333619 0
2.5210001 0.96785748 0.63355267 0
2.5220003 0.96450782 0.63366091 0
2.5240002 0.96162891 0.63387734 0
2.5250001 0.95827019 0.63398552 0
2.5270002 0.95537877 0.634202 0
2.5280001 0.95201105 0.63431025 0
2.5300002 0.94910693 0.63452673 0
2.5310001 0.94573015 0.63463491 0
2.5330002 0.9428134 0.6348514 0
2.5340002 0.93942761 0.63495964 0
2.5360003 0.93649834 0.63517606 0
2.5370002 0.9331035 0.6352843 0
2.5390003 0.93016154 0.63550079 0
2.5400002 0.92675769 0.63560903 0
2.5420003 0.92380309 0.63582546 0
2.5430002 0.92039031 0.63593364 0
2.5450003 0.91742301 0.63615012 0
2.5460002 0.91400111 0.63625836 0
2.5480001 0.91102129 0.63647485 0
2.5490003 0.90759051 0.63658303 0
2.5510001 0.90459788 0.63679945 0
2.5520003 0.90115815 0.63690776 0
2.5540001 0.89815289 0.63712418 0
2.5560002 0.89514053 0.63734066 0
2.5570002 0.89168626 0.63744885 0
2.5590003 0.88866127 0.63766533 0
2.5600002 0.88519788 0.63777357 0
2.5620003 0.88216037 0.63799006 0
2.5630002 0.87868804 0.63809824 0
2.5650003 0.87563777 0.63831472 0
2.5660002 0.87215644 0.63842297 0
2.5680003 0.8690936 0.63863939 0
2.5700002 0.86602348 0.63885587 0
2.5710001 0.86252767 0.63896406 0
2.5730002 0.85944498 0.63918054 0
2.5740001 0.85594016 0.63928878 0
2.5760002 0.85284483 0.63950521 0
2.5770001 0.84933102 0.63961339 0
2.5790002 0.84622306 0.63982987 0
2.5810001 0.84310788 0.64004636 0
2.5820003 0.8395797 0.6401546 0
2.5840001 0.83645183 0.64037108 0
2.5850003 0.83291459 0.64047927 0
2.5870001 0.82977414 0.64069569 0
2.5890002 0.82662654 0.64091218 0
2.5900002 0.82307482 0.64102042 0
2.5920002 0.81991458 0.6412369 0
2.5930002 0.8163538 0.64134508 0
2.5950003 0.81318092 0.64156157 0
2.5970001 0.81000078 0.64177799 0
2.5980003 0.80642569 0.64188623 0
2.6000001 0.80323291 0.64210272 0
2.6010003 0.79964882 0.64221096 0
2.6030002 0.79644334 0.64242738 0
2.6050003 0.79323083 0.64264381 0
2.6060002 0.7896322 0.64275205 0
2.6080003 0.78640705 0.64296854 0
2.6090002 0.78279936 0.64307678 0
2.6110003 0.77956158 0.64329326 0
2.6130002 0.77631646 0.64350963 0
2.6140001 0.77269441 0.64361787 0
2.6160002 0.76943678 0.64383435 0
2.6180003 0.76617187 0.64405084 0
2.6190002 0.76253539 0.64415902 0
2.6210003 0.75925791 0.6443755 0
2.6230001 0.7559731 0.64459193 0
2.6240003 0.75232226 0.64470017 0
2.6260002 0.74902487 0.64491665 0
2.6280003 0.74572033 0.64513314 0
2.6290002 0.742055 0.64524132 0
2.6310003 0.73873776 0.6454578 0
2.6320002 0.73506337 0.64556605 0
2.6340003 0.73173362 0.64578247 0
2.6360002 0.72839648 0.64599895 0
2.6370001 0.72470766 0.64610714 0
2.6390002 0.721358 0.64632362 0
2.6410003 0.71800119 0.64654005 0
2.6420002 0.71429795 0.64664829 0
2.6440003 0.7109285 0.64686477 0
2.6460001 0.70755172 0.6470812 0
2.6480002 0.70416778 0.64729768 0
2.6490002 0.7004447 0.64740586 0
2.6510003 0.69704819 0.64762235 0
2.6530001 0.69364429 0.64783883 0
2.6540003 0.6899069 0.64794707 0
2.6560001 0.68649042 0.6481635 0
2.6580002 0.68306684 0.64837998 0
2.6590002 0.67931491 0.64848816 0
2.6610003 0.67587864 0.64870465 0
2.6630001 0.6724351 0.64892107 0
2.6640003 0.66866887 0.64902931 0
2.6660001 0.66521269 0.6492458 0
2.6680002 0.66174942 0.64946222 0
2.6700003 0.65827888 0.64967871 0
2.6710002 0.65449274 0.64978695 0
2.6730001 0.6510095 0.65000337 0
2.6750002 0.64751917 0.6502198 0
2.6760001 0.64371854 0.65032804 0
2.6780002 0.64021558 0.65054452 0
2.6800003 0.6367054 0.65076101 0
2.6820002 0.63318789 0.65097743 0
2.6830001 0.62936741 0.65108562 0
2.5120001 0.98641312 0.62876892 0
2.5130002 0.98309076 0.62887537 0
2.5150001 0.98024952 0.62908822 0
2.5160003 0.9769181 0.62919468 0
2.5180001 0.97406435 0.62940753 0
2.5190003 0.97072375 0.62951392 0
2.5210001 0.96785748 0.62972677 0
2.5220003 0.96450782 0.62983322 0
2.5240002 0.96162891 0.63004601 0
2.5250001 0.95827019 0.63015246 0
2.5270002 0.95537877 0.63036531 0
2.5280001 0.95201105 0.63047171 0
2.5300002 0.94910693 0.63068461 0
2.5310001 0.94573015 0.63079101 0
2.5330002 0.9428134 0.63100386 0
2.5340002 0.93942761 0.63111031 0
2.5360003 0.93649834 0.63132316 0
2.5370002 0.9331035 0.63142955 0
2.5390003 0.93016154 0.63164246 0
2.5400002 0.92675769 0.63174886 0
2.5420003 0.92380309 0.6319617 0
2.5430002 0.92039031 0.6320681 0
2.5450003 0.91742301 0.63228095 0
2.5460002 0.91400111 0.6323874 0
2.5480001 0.91102129 0.63260025 0
2.5490003 0.90759051 0.63270664 0
2.5510001 0.90459788 0.63291949 0
2.5520003 0.90115815 0.63302594 0
2.5540001 0.89815289 0.63323879 0
2.5560002 0.89514053 0.63345164 0
2.5570002 0.89168626 0.63355803 0
2.5590003 0.88866127 0.63377094 0
2.5600002 0.88519788 0.63387734 0
2.5620003 0.88216037 0.63409019 0
2.5630002 0.87868804 0.63419664 0
2.5650003 0.87563777 0.63440943 0
2.5660002 0.87215644 0.63451588 0
2.5680003 0.8690936 0.63472873 0
2.5700002 0.86602348 0.63494158 0
2.5710001 0.86252767 0.63504803 0
2.5730002 0.85944498 0.63526082 0
2.5740001 0.85594016 0.63536727 0
2.5760002 0.85284483 0.63558012 0
2.5770001 0.84933102 0.63568658 0
2.5790002 0.84622306 0.63589942 0
2.5810001 0.84310788 0.63611221 0
2.5820003 0.8395797 0.63621867 0
2.5840001 0.83645183 0.63643152 0
2.5850003 0.83291459 0.63653797 0
2.5870001 0.82977414 0.63675082 0
2.5890002 0.82662654 0.63696361 0
2.5900002 0.82307482 0.63707006 0
2.5920002 0.81991458 0.63728291 0
2.5930002 0.8163538 0.63738936 0
2.5950003 0.81318092 0.63760221 0
2.5970001 0.81000078 0.63781506 0
2.5980003 0.80642569 0.63792145 0
2.6000001 0.80323291 0.6381343 0
2.6010003 0.79964882 0.63824075 0
2.6030002 0.79644334 0.6384536 0
2.6050003 0.79323083 0.63866645 0
2.6060002 0.7896322 0.63877285 0
2.6080003 0.78640705 0.63898569 0
2.6090002 0.78279936 0.63909215 0
2.6110003 0.77956158 0.639305 0
2.6130002 0.77631646 0.63951784 0
2.6140001 0.77269441 0.63962424 0
2.6160002 0.76943678 0.63983715 0
2.6180003 0.76617187 0.64004999 0
2.6190002 0.76253539 0.64015639 0
2.6210003 0.75925791 0.6403693 0
2.6230001 0.7559731 0.64058208 0
2.6240003 0.75232226 0.64068854 0
2.6260002 0.74902487 0.64090133 0
2.6280003 0.74572033 0.64111423 0
2.6290002 0.742055 0.64122063 0
2.6310003 0.73873776 0.64143348 0
2.6320002 0.73506337 0.64153993 0
2.6340003 0.73173362 0.64175278 0
2.6360002 0.72839648 0.64196563 0
2.6370001 0.72470766 0.64207202 0
2.6390002 0.721358 0.64228487 0
2.6410003 0.71800119 0.64249772 0
2.6420002 0.71429795 0.64260411 0
2.6440003 0.7109285 0.64281702 0
2.6460001 0.70755172 0.64302987 0
2.6480002 0.70416778 0.64324272 0
2.6490002 0.7004447 0.64334917 0
2.6510003 0.69704819 0.64356196 0
2.6530001 0.69364429 0.64377481 0
2.6540003 0.6899069 0.64388126 0
2.6560001 0.68649042 0.64409411 0
2.6580002 0.68306684 0.64430696 0
2.6590002 0.67931491 0.64441335 0
2.6610003 0.67587864 0.6446262 0
2.6630001 0.6724351 0.64483905 0
2.6640003 0.66866887 0.6449455 0
2.6660001 0.66521269 0.64515835 0
2.6680002 0.66174942 0.6453712 0
2.6700003 0.65827888 0.64558405 0
2.6710002 0.65449274 0.6456905 0
2.6730001 0.6510095 0.64590329 0
2.6750002 0.64751917 0.64611614 0
2.6760001 0.64371854 0.64622259 0
2.6780002 0.64021558 0.64643544 0
2.6800003 0.6367054 0.64664829 0
2.6820002 0.63318789 0.64686114 0
2.6830001 0.62936741 0.64696759 0
2.5120001 0.98641312 0.62495929 0
2.5130002 0.98309076 0.6250639 0
2.5150001 0.98024952 0.62527317 0
2.5160003 0.9769181 0.62537777 0
2.5180001 0.97406435 0.62558705 0
2.5190003 0.97072375 0.62569165 0
2.5210001 0.96785748 0.62590086 0
2.5220003 0.96450782 0.62600553 0
2.5240002 0.96162891 0.62621474 0
2.5250001 0.95827019 0.62631935 0
2.5270002 0.95537877 0.62652862 0
2.5280001 0.95201105 0.62663323 0
2.5300002 0.94910693 0.6268425 0
2.5310001 0.94573015 0.6269471 0
2.5330002 0.9428134 0.62715638 0
2.5340002 0.93942761 0.62726098 0
2.5360003 0.93649834 0.6274702 0
2.5370002 0.9331035 0.6275748 0
2.5390003 0.93016154 0.62778407 0
2.5400002 0.92675769 0.62788868 0
2.5420003 0.92380309 0.62809795 0
2.5430002 0.92039031 0.62820256 0
2.5450003 0.91742301 0.62841177 0
2.5460002 0.91400111 0.62851644 0
2.5480001 0.91102129 0.62872565 0
2.5490003 0.90759051 0.62883031 0
2.5510001 0.90459788 0.62903953 0
2.5520003 0.90115815 0.62914413 0
2.5540001 0.89815289 0.6293534 0
2.5560002 0.89514053 0.62956262 0
2.5570002 0.89168626 0.62966722 0
2.5590003 0.88866127 0.62987649 0
2.5600002 0.88519788 0.6299811 0
2.5620003 0.88216037 0.63019037 0
2.5630002 0.87868804 0.63029498 0
2.5650003 0.87563777 0.63050425 0
2.5660002 0.87215644 0.63060886 0
2.5680003 0.8690936 0.63081807 0
2.5700002 0.86602348 0.63102734 0
2.5710001 0.86252767 0.63113195 0
2.5730002 0.85944498 0.63134116 0
2.5740001 0.85594016 0.63144577 0
2.5760002 0.85284483 0.63165504 0
2.5770001 0.84933102 0.63175964 0
2.5790002 0.84622306 0.63196892 0
2.5810001 0.84310788 0.63217813 0
2.5820003 0.8395797 0.63228279 0
2.5840001 0.83645183 0.63249201 0
2.5850003 0.83291459 0.63259661 0
2.5870001 0.82977414 0.63280588 0
2.5890002 0.82662654 0.6330151 0
2.5900002 0.82307482 0.6331197 0
2.5920002 0.81991458 0.63332897 0
2.5930002 0.8163538 0.63343358 0
2.5950003 0.81318092 0.63364285 0
2.5970001 0.81000078 0.63385206 0
2.5980003 0.80642569 0.63395667 0
2.6000001 0.80323291 0.63416594 0
2.6010003 0.79964882 0.63427055 0
2.6030002 0.79644334 0.63447982 0
2.6050003 0.79323083 0.63468903 0
2.6060002 0.7896322 0.63479364 0
2.6080003 0.78640705 0.63500291 0
2.6090002 0.78279936 0.63510752 0
2.6110003 0.77956158 0.63531679 0
2.6130002 0.77631646 0.635526 0
2.6140001 0.77269441 0.63563061 0
2.6160002 0.76943678 0.63583988 0
2.6180003 0.76617187 0.63604915 0
2.6190002 0.76253539 0.63615376 0
2.6210003 0.75925791 0.63636297 0
2.6230001 0.7559731 0.63657224 0
2.6240003 0.75232226 0.63667685 0
2.6260002 0.74902487 0.63688606 0
2.6280003 0.74572033 0.63709533 0
2.6290002 0.742055 0.6372 0
2.6310003 0.73873776 0.63740921 0
2.6320002 0.73506337 0.63751382 0
2.6340003 0.73173362 0.63772309 0
2.6360002 0.72839648 0.6379323 0
2.6370001 0.72470766 0.63803691 0
2.6390002 0.721358 0.63824618 0
2.6410003 0.71800119 0.63845539 0
2.6420002 0.71429795 0.63856006 0
2.6440003 0.7109285 0.63876927 0
2.6460001 0.70755172 0.63897848 0
2.6480002 0.70416778 0.63918775 0
2.6490002 0.7004447 0.63929236 0
2.6510003 0.69704819 0.63950163 0
2.6530001 0.69364429 0.63971084 0
2.6540003 0.6899069 0.63981545 0
2.6560001 0.68649042 0.64002472 0
2.6580002 0.68306684 0.64023393 0
2.6590002 0.67931491 0.64033854 0
2.6610003 0.67587864 0.64054787 0
2.6630001 0.6724351 0.64075702 0
2.6640003 0.66866887 0.64086169 0
2.6660001 0.66521269 0.64107096 0
2.6680002 0.66174942 0.64128017 0
2.6700003 0.65827888 0.64148945 0
2.6710002 0.65449274 0.64159405 0
2.6730001 0.6510095 0.64180326 0
2.6750002 0.64751917 0.64201254 0
2.6760001 0.64371854 0.64211714 0
2.6780002 0.64021558 0.64232635 0
2.6800003 0.6367054 0.64253563 0
2.6820002 0.63318789 0.64274484 0
2.6830001 0.62936741 0.64284945 0
2.5120001 0.98641312 0.62114966 0
2.5130002 0.98309076 0.62125248 0
2.5150001 0.98024952 0.62145811 0
2.5160003 0.9769181 0.62156093 0
2.5180001 0.97406435 0.62176657 0
2.5190003 0.97072375 0.62186939 0
2.5210001 0.96785748 0.62207502 0
2.5220003 0.96450782 0.62217784 0
2.5240002 0.96162891 0.62238348 0
2.5250001 0.95827019 0.62248629 0
2.5270002 0.95537877 0.62269193 0
2.5280001 0.95201105 0.62279475 0
2.5300002 0.94910693 0.62300038 0
2.5310001 0.94573015 0.6231032 0
2.5330002 0.9428134 0.62330884 0
2.5340002 0.93942761 0.62341166 0
2.5360003 0.93649834 0.62361729 0
2.5370002 0.9331035 0.62372011 0
2.5390003 0.93016154 0.62392575 0
2.5400002 0.92675769 0.62402856 0
2.5420003 0.92380309 0.6242342 0
2.5430002 0.92039031 0.62433702 0
2.5450003 0.91742301 0.62454265 0
2.5460002 0.91400111 0.62464547 0
2.5480001 0.91102129 0.62485105 0
2.5490003 0.90759051 0.62495393 0
2.5510001 0.90459788 0.6251595 0
2.5520003 0.90115815 0.62526238 0
2.5540001 0.89815289 0.62546796 0
2.5560002 0.89514053 0.62567365 0
2.5570002 0.89168626 0.62577641 0
2.5590003 0.88866127 0.62598205 0
2.5600002 0.88519788 0.62608486 0
2.5620003 0.88216037 0.62629056 0
2.5630002 0.87868804 0.62639332 0
2.5650003 0.87563777 0.62659895 0
2.5660002 0.87215644 0.62670177 0
2.5680003 0.8690936 0.62690747 0
2.5700002 0.86602348 0.62711304 0
2.5710001 0.86252767 0.62721586 0
2.5730002 0.85944498 0.6274215 0
2.5740001 0.85594016 0.62752432 0
2.5760002 0.85284483 0.62772995 0
2.5770001 0.84933102 0.62783277 0
2.5790002 0.84622306 0.62803841 0
2.5810001 0.84310788 0.62824404 0
2.5820003 0.8395797 0.62834686 0
2.5840001 0.83645183 0.6285525 0
2.5850003 0.83291459 0.62865531 0
2.5870001 0.82977414 0.62886095 0
2.5890002 0.82662654 0.62906659 0
2.5900002 0.82307482 0.6291694 0
2.5920002 0.81991458 0.62937504 0
2.5930002 0.8163538 0.62947786 0
2.5950003 0.81318092 0.62968349 0
2.5970001 0.81000078 0.62988913 0
2.5980003 0.80642569 0.62999195 0
2.6000001 0.80323291 0.63019753 0
2.6010003 0.79964882 0.6303004 0
2.6030002 0.79644334 0.63050604 0
2.6050003 0.79323083 0.63071167 0
2.6060002 0.7896322 0.63081443 0
2.6080003 0.78640705 0.63102013 0
2.6090002 0.78279936 0.63112295 0
2.6110003 0.77956158 0.63132858 0
2.6130002 0.77631646 0.63153422 0
2.6140001 0.77269441 0.63163698 0
2.6160002 0.76943678 0.63184261 0
2.6180003 0.76617187 0.63204825 0
2.6190002 0.76253539 0.63215113 0
2.6210003 0.75925791 0.63235676 0
2.6230001 0.7559731 0.63256234 0
2.6240003 0.75232226 0.63266516 0
2.6260002 0.74902487 0.63287079 0
2.6280003 0.74572033 0.63307643 0
2.6290002 0.742055 0.63317925 0
2.6310003 0.73873776 0.63338488 0
2.6320002 0.73506337 0.6334877 0
2.6340003 0.73173362 0.63369334 0
2.6360002 0.72839648 0.63389897 0
2.6370001 0.72470766 0.63400179 0
2.6390002 0.721358 0.63420743 0
2.6410003 0.71800119 0.63441306 0
2.6420002 0.71429795 0.63451588 0
2.6440003 0.7109285 0.63472152 0
2.6460001 0.70755172 0.63492715 0
2.6480002 0.70416778 0.63513279 0
2.6490002 0.7004447 0.63523561 0
2.6510003 0.69704819 0.63544124 0
2.6530001 0.69364429 0.63564688 0
2.6540003 0.6899069 0.6357497 0
2.6560001 0.68649042 0.63595533 0
2.6580002 0.68306684 0.63616097 0
2.6590002 0.67931491 0.63626373 0
2.6610003 0.67587864 0.63646942 0
2.6630001 0.6724351 0.636675 0
2.6640003 0.66866887 0.63677788 0
2.6660001 0.66521269 0.63698351 0
2.6680002 0.66174942 0.63718915 0
2.6700003 0.65827888 0.63739479 0
2.6710002 0.65449274 0.63749754 0
2.6730001 0.6510095 0.63770318 0
2.6750002 0.64751917 0.63790882 0
2.6760001 0.64371854 0.63801163 0
2.6780002 0.64021558 0.63821733 0
2.6800003 0.6367054 0.63842297 0
2.6820002 0.63318789 0.63862854 0
2.6830001 0.62936741 0.63873136 0
2.5120001 0.98641312 0.61734003 0
2.5130002 0.98309076 0.61744106 0
2.5150001 0.98024952 0.61764306 0
2.5160003 0.9769181 0.61774409 0
2.5180001 0.97406435 0.61794609 0
2.5190003 0.97072375 0.61804712 0
2.5210001 0.96785748 0.61824912 0
2.5220003 0.96450782 0.61835015 0
2.5240002 0.96162891 0.61855221 0
2.5250001 0.95827019 0.61865318 0
2.5270002 0.95537877 0.61885524 0
2.5280001 0.95201105 0.61895621 0
2.5300002 0.94910693 0.61915827 0
2.5310001 0.94573015 0.61925924 0
2.5330002 0.9428134 0.6194613 0
2.5340002 0.93942761 0.61956233 0
2.5360003 0.93649834 0.61976433 0
2.5370002 0.9331035 0.61986536 0
2.5390003 0.93016154 0.62006736 0
2.5400002 0.92675769 0.62016839 0
2.5420003 0.92380309 0.62037045 0
2.5430002 0.92039031 0.62047148 0
2.5450003 0.91742301 0.62067348 0
2.5460002 0.91400111 0.62077451 0
2.5480001 0.91102129 0.62097651 0
2.5490003 0.90759051 0.62107754 0
2.5510001 0.90459788 0.62127954 0
2.5520003 0.90115815 0.62138057 0
2.5540001 0.89815289 0.62158257 0
2.5560002 0.89514053 0.62178463 0
2.5570002 0.89168626 0.62188566 0
2.5590003 0.88866127 0.62208766 0
2.5600002 0.88519788 0.62218869 0
2.5620003 0.88216037 0.62239069 0
2.5630002 0.87868804 0.62249172 0
2.5650003 0.87563777 0.62269372 0
2.5660002 0.87215644 0.62279475 0
2.5680003 0.8690936 0.62299681 0
2.5700002 0.86602348 0.62319881 0
2.5710001 0.86252767 0.62329984 0
2.5730002 0.85944498 0.62350184 0
2.5740001 0.85594016 0.62360287 0
2.5760002 0.85284483 0.62380487 0
2.5770001 0.84933102 0.6239059 0
2.5790002 0.84622306 0.6241079 0
2.5810001 0.84310788 0.6243099 0
2.5820003 0.8395797 0.62441099 0
2.5840001 0.83645183 0.62461299 0
2.5850003 0.83291459 0.62471402 0
2.5870001 0.82977414 0.62491602 0
2.5890002 0.82662654 0.62511802 0
2.5900002 0.82307482 0.62521905 0
2.5920002 0.81991458 0.62542105 0
2.5930002 0.8163538 0.62552208 0
2.5950003 0.81318092 0.62572414 0
2.5970001 0.81000078 0.62592614 0
2.5980003 0.80642569 0.62602717 0
2.6000001 0.80323291 0.62622917 0
2.6010003 0.79964882 0.6263302 0
2.6030002 0.79644334 0.6265322 0
2.6050003 0.79323083 0.62673426 0
2.6060002 0.7896322 0.62683523 0
2.6080003 0.78640705 0.62703729 0
2.6090002 0.78279936 0.62713832 0
2.6110003 0.77956158 0.62734032 0
2.6130002 0.77631646 0.62754238 0
2.6140001 0.77269441 0.62764335 0
2.6160002 0.76943678 0.62784541 0
2.6180003 0.76617187 0.62804747 0
2.6190002 0.76253539 0.62814844 0
2.6210003 0.75925791 0.6283505 0
2.6230001 0.7559731 0.6285525 0
2.6240003 0.75232226 0.62865353 0
2.6260002 0.74902487 0.62885553 0
2.6280003 0.74572033 0.62905753 0
2.6290002 0.742055 0.62915856 0
2.6310003 0.73873776 0.62936062 0
2.6320002 0.73506337 0.62946165 0
2.6340003 0.73173362 0.62966365 0
2.6360002 0.72839648 0.62986565 0
2.6370001 0.72470766 0.62996668 0
2.6390002 0.721358 0.63016868 0
2.6410003 0.71800119 0.63037074 0
2.6420002 0.71429795 0.63047171 0
2.6440003 0.7109285 0.63067377 0
2.6460001 0.70755172 0.63087583 0
2.6480002 0.70416778 0.63107783 0
2.6490002 0.7004447 0.63117886 0
2.6510003 0.69704819 0.63138086 0
2.6530001 0.69364429 0.63158286 0
2.6540003 0.6899069 0.63168395 0
2.6560001 0.68649042 0.63188589 0
2.6580002 0.68306684 0.63208795 0
2.6590002 0.67931491 0.63218898 0
2.6610003 0.67587864 0.63239098 0
2.6630001 0.6724351 0.63259304 0
2.6640003 0.66866887 0.63269407 0
2.6660001 0.66521269 0.63289607 0
2.6680002 0.66174942 0.63309813 0
2.6700003 0.65827888 0.63330013 0
2.6710002 0.65449274 0.63340116 0
2.6730001 0.6510095 0.63360316 0
2.6750002 0.64751917 0.63380516 0
2.6760001 0.64371854 0.63390619 0
2.6780002 0.64021558 0.63410825 0
2.6800003 0.6367054 0.63431025 0
2.6820002 0.63318789 0.63451231 0
2.6830001 0.62936741 0.63461328 0
2.5120001 0.98641312 0.6135304 0
2.5130002 0.98309076 0.61362958 0
2.5150001 0.98024952 0.613828 0
2.5160003 0.9769181 0.61392725 0
2.5180001 0.97406435 0.61412561 0
2.5190003 0.97072375 0.61422485 0
2.5210001 0.96785748 0.61442327 0
2.5220003 0.96450782 0.61452246 0
2.5240002 0.96162891 0.61472088 0
2.5250001 0.95827019 0.61482012 0
2.5270002 0.95537877 0.61501855 0
2.5280001 0.95201105 0.61511773 0
2.5300002 0.94910693 0.61531615 0
2.5310001 0.94573015 0.61541533 0
2.5330002 0.9428134 0.61561382 0
2.5340002 0.93942761 0.615713 0
2.5360003 0.93649834 0.61591142 0
2.5370002 0.9331035 0.61601061 0
2.5390003 0.93016154 0.61620903 0
2.5400002 0.92675769 0.61630821 0
2.5420003 0.92380309 0.6165067 0
2.5430002 0.92039031 0.61660588 0
2.5450003 0.91742301 0.6168043 0
2.5460002 0.91400111 0.61690348 0
2.5480001 0.91102129 0.61710191 0
2.5490003 0.90759051 0.61720115 0
2.5510001 0.90459788 0.61739957 0
2.5520003 0.90115815 0.61749876 0
2.5540001 0.89815289 0.61769718 0
2.5560002 0.89514053 0.6178956 0
2.5570002 0.89168626 0.61799479 0
2.5590003 0.88866127 0.61819321 0
2.5600002 0.88519788 0.61829245 0
2.5620003 0.88216037 0.61849087 0
2.5630002 0.87868804 0.61859006 0
2.5650003 0.87563777 0.61878848 0
2.5660002 0.87215644 0.61888766 0
2.5680003 0.8690936 0.61908615 0
2.5700002 0.86602348 0.61928451 0
2.5710001 0.86252767 0.61938369 0
2.5730002 0.85944498 0.61958218 0
2.5740001 0.85594016 0.61968136 0
2.5760002 0.85284483 0.61987978 0
2.5770001 0.84933102 0.61997896 0
2.5790002 0.84622306 0.62017739 0
2.5810001 0.84310788 0.62037581 0
2.5820003 0.8395797 0.62047505 0
2.5840001 0.83645183 0.62067342 0
2.5850003 0.83291459 0.62077266 0
2.5870001 0.82977414 0.62097108 0
2.5890002 0.82662654 0.62116951 0
2.5900002 0.82307482 0.62126875 0
2.5920002 0.81991458 0.62146711 0
2.5930002 0.8163538 0.62156636 0
2.5950003 0.81318092 0.62176478 0
2.5970001 0.81000078 0.62196314 0
2.5980003 0.80642569 0.62206239 0
2.6000001 0.80323291 0.62226081 0
2.6010003 0.79964882 0.62235999 0
2.6030002 0.79644334 0.62255841 0
2.6050003 0.79323083 0.62275684 0
2.6060002 0.7896322 0.62285608 0
2.6080003 0.78640705 0.6230545 0
2.6090002 0.78279936 0.62315369 0
2.6110003 0.77956158 0.62335211 0
2.6130002 0.77631646 0.62355053 0
2.6140001 0.77269441 0.62364972 0
2.6160002 0.76943678 0.62384814 0
2.6180003 0.76617187 0.62404656 0
2.6190002 0.76253539 0.62414581 0
2.6210003 0.75925791 0.62434423 0
2.6230001 0.7559731 0.62454259 0
2.6240003 0.75232226 0.62464184 0
2.6260002 0.74902487 0.62484026 0
2.6280003 0.74572033 0.62503868 0
2.6290002 0.742055 0.62513787 0
2.6310003 0.73873776 0.62533629 0
2.6320002 0.73506337 0.62543553 0
2.6340003 0.73173362 0.62563396 0
2.6360002 0.72839648 0.62583232 0
2.6370001 0.72470766 0.62593156 0
2.6390002 0.721358 0.62612998 0
2.6410003 0.71800119 0.62632841 0
2.6420002 0.71429795 0.62642759 0
2.6440003 0.7109285 0.62662601 0
2.6460001 0.70755172 0.62682444 0
2.6480002 0.70416778 0.62702286 0
2.6490002 0.7004447 0.62712204 0
2.6510003 0.69704819 0.62732053 0
2.6530001 0.69364429 0.62751889 0
2.6540003 0.6899069 0.62761813 0
2.6560001 0.68649042 0.62781656 0
2.6580002 0.68306684 0.62801498 0
2.6590002 0.67931491 0.62811416 0
2.6610003 0.67587864 0.62831259 0
2.6630001 0.6724351 0.62851101 0
2.6640003 0.66866887 0.62861025 0
2.6660001 0.66521269 0.62880862 0
2.6680002 0.66174942 0.62900704 0
2.6700003 0.65827888 0.62920547 0
2.6710002 0.65449274 0.62930465 0
2.6730001 0.6510095 0.62950307 0
2.6750002 0.64751917 0.6297015 0
2.6760001 0.64371854 0.62980074 0
2.6780002 0.64021558 0.62999916 0
2.6800003 0.6367054 0.63019758 0
2.6820002 0.63318789 0.63039601 0
2.6830001 0.62936741 0.63049519 0
2.5120001 0.98641312 0.60972071 0
2.5130002 0.98309076 0.60981816 0
2.5150001 0.98024952 0.61001295 0
2.5160003 0.9769181 0.61011034 0
2.5180001 0.97406435 0.61030519 0
2.5190003 0.97072375 0.61040258 0
2.5210001 0.96785748 0.61059737 0
2.5220003 0.96450782 0.61069483 0
2.5240002 0.96162891 0.61088961 0
2.5250001 0.95827019 0.61098701 0
2.5270002 0.95537877 0.6111818 0
2.5280001 0.95201105 0.61127925 0
2.5300002 0.94910693 0.61147404 0
2.5310001 0.94573015 0.61157143 0
2.5330002 0.9428134 0.61176628 0
2.5340002 0.93942761 0.61186361 0
2.5360003 0.93649834 0.61205846 0
2.5370002 0.9331035 0.61215585 0
2.5390003 0.93016154 0.6123507 0
2.5400002 0.92675769 0.6124481 0
2.5420003 0.92380309 0.61264288 0
2.5430002 0.92039031 0.61274028 0
2.5450003 0.91742301 0.61293513 0
2.5460002 0.91400111 0.61303252 0
2.5480001 0.91102129 0.61322731 0
2.5490003 0.90759051 0.61332476 0
2.5510001 0.90459788 0.61351955 0
2.5520003 0.90115815 0.61361694 0
2.5540001 0.89815289 0.61381173 0
2.5560002 0.89514053 0.61400658 0
2.5570002 0.89168626 0.61410397 0
2.5590003 0.88866127 0.61429882 0
2.5600002 0.88519788 0.61439621 0
2.5620003 0.88216037 0.614591 0
2.5630002 0.87868804 0.6146884 0
2.5650003 0.87563777 0.61488324 0
2.5660002 0.87215644 0.61498064 0
2.5680003 0.8690936 0.61517549 0
2.5700002 0.86602348 0.61537027 0
2.5710001 0.86252767 0.61546767 0
2.5730002 0.85944498 0.61566246 0
2.5740001 0.85594016 0.61575985 0
2.5760002 0.85284483 0.6159547 0
2.5770001 0.84933102 0.61605209 0
2.5790002 0.84622306 0.61624694 0
2.5810001 0.84310788 0.61644173 0
2.5820003 0.8395797 0.61653912 0
2.5840001 0.83645183 0.61673391 0
2.5850003 0.83291459 0.61683136 0
2.5870001 0.82977414 0.61702615 0
2.5890002 0.82662654 0.617221 0
2.5900002 0.82307482 0.61731839 0
2.5920002 0.81991458 0.61751318 0
2.5930002 0.8163538 0.61761057 0
2.5950003 0.81318092 0.61780542 0
2.5970001 0.81000078 0.61800021 0
2.5980003 0.80642569 0.61809766 0
2.6000001 0.80323291 0.61829245 0
2.6010003 0.79964882 0.61838984 0
2.6030002 0.79644334 0.61858463 0
2.6050003 0.79323083 0.61877948 0
2.6060002 0.7896322 0.61887687 0
2.6080003 0.78640705 0.61907172 0
2.6090002 0.78279936 0.61916906 0
2.6110003 0.77956158 0.6193639 0
2.6130002 0.77631646 0.61955869 0
2.6140001 0.77269441 0.61965609 0
2.6160002 0.76943678 0.61985093 0
2.6180003 0.76617187 0.62004572 0
2.6190002 0.76253539 0.62014312 0
2.6210003 0.75925791 0.62033796 0
2.6230001 0.7559731 0.62053275 0
2.6240003 0.75232226 0.62063015 0
2.6260002 0.74902487 0.62082499 0
2.6280003 0.74572033 0.62101978 0
2.6290002 0.742055 0.62111717 0
2.6310003 0.73873776 0.62131202 0
2.6320002 0.73506337 0.62140942 0
2.6340003 0.73173362 0.6216042 0
2.6360002 0.72839648 0.62179905 0
2.6370001 0.72470766 0.62189645 0
2.6390002 0.721358 0.62209123 0
2.6410003 0.71800119 0.62228608 0
2.6420002 0.71429795 0.62238348 0
2.6440003 0.7109285 0.62257826 0
2.6460001 0.70755172 0.62277311 0
2.6480002 0.70416778 0.6229679 0
2.6490002 0.7004447 0.62306529 0
2.6510003 0.69704819 0.62326014 0
2.6530001 0.69364429 0.62345493 0
2.6540003 0.6899069 0.62355232 0
2.6560001 0.68649042 0.62374711 0
2.6580002 0.68306684 0.62394196 0
2.6590002 0.67931491 0.62403935 0
2.6610003 0.67587864 0.6242342 0
2.6630001 0.6724351 0.62442899 0
2.6640003 0.66866887 0.62452638 0
2.6660001 0.66521269 0.62472117 0
2.6680002 0.66174942 0.62491602 0
2.6700003 0.65827888 0.62511086 0
2.6710002 0.65449274 0.62520826 0
2.6730001 0.6510095 0.62540305 0
2.6750002 0.64751917 0.62559783 0
2.6760001 0.64371854 0.62569523 0
2.6780002 0.64021558 0.62589008 0
2.6800003 0.6367054 0.62608492 0
2.6820002 0.63318789 0.62627971 0
2.6830001 0.62936741 0.62637711 0
2.5120001 0.98641312 0.60591108 0
2.5130002 0.98309076 0.60600668 0
2.5150001 0.98024952 0.60619789 0
2.5160003 0.9769181 0.6062935 0
2.5180001 0.97406435 0.60648471 0
2.5190003 0.97072375 0.60658032 0
2.5210001 0.96785748 0.60677147 0
2.5220003 0.96450782 0.60686713 0
2.5240002 0.96162891 0.60705829 0
2.5250001 0.95827019 0.60715389 0
2.5270002 0.95537877 0.6073451 0
2.5280001 0.95201105 0.60744071 0
2.5300002 0.94910693 0.60763192 0
2.5310001 0.94573015 0.60772753 0
2.5330002 0.9428134 0.60791874 0
2.5340002 0.93942761 0.60801435 0
2.5360003 0.93649834 0.60820556 0
2.5370002 0.9331035 0.60830116 0
2.5390003 0.93016154 0.60849237 0
2.5400002 0.92675769 0.60858798 0
2.5420003 0.92380309 0.60877913 0
2.5430002 0.92039031 0.60887474 0
2.5450003 0.91742301 0.60906595 0
2.5460002 0.91400111 0.60916156 0
2.5480001 0.91102129 0.60935277 0
2.5490003 0.90759051 0.60944837 0
2.5510001 0.90459788 0.60963953 0
2.5520003 0.90115815 0.60973519 0
2.5540001 0.89815289 0.60992634 0
2.5560002 0.89514053 0.61011755 0
2.5570002 0.89168626 0.61021316 0
2.5590003 0.88866127 0.61040437 0
2.5600002 0.88519788 0.61049998 0
2.5620003 0.88216037 0.61069119 0
2.5630002 0.87868804 0.6107868 0
2.5650003 0.87563777 0.61097801 0
2.5660002 0.87215644 0.61107361 0
2.5680003 0.8690936 0.61126482 0
2.5700002 0.86602348 0.61145598 0
2.5710001 0.86252767 0.61155158 0
2.5730002 0.85944498 0.61174279 0
2.5740001 0.85594016 0.6118384 0
2.5760002 0.85284483 0.61202961 0
2.5770001 0.84933102 0.61212522 0
2.5790002 0.84622306 0.61231643 0
2.5810001 0.84310788 0.61250758 0
2.5820003 0.8395797 0.61260325 0
2.5840001 0.83645183 0.6127944 0
2.5850003 0.83291459 0.61289001 0
2.5870001 0.82977414 0.61308122 0
2.5890002 0.82662654 0.61327243 0
2.5900002 0.82307482 0.61336803 0
2.5920002 0.81991458 0.61355925 0
2.5930002 0.8163538 0.61365485 0
2.5950003 0.81318092 0.61384606 0
2.5970001 0.81000078 0.61403728 0
2.5980003 0.80642569 0.61413288 0
2.6000001 0.80323291 0.61432403 0
2.6010003 0.79964882 0.6144197 0
2.6030002 0.79644334 0.61461085 0
2.6050003 0.79323083 0.61480206 0
2.6060002 0.7896322 0.61489767 0
2.6080003 0.78640705 0.61508888 0
2.6090002 0.78279936 0.61518449 0
2.6110003 0.77956158 0.6153757 0
2.6130002 0.77631646 0.61556685 0
2.6140001 0.77269441 0.61566246 0
2.6160002 0.76943678 0.61585367 0
2.6180003 0.76617187 0.61604488 0
2.6190002 0.76253539 0.61614048 0
2.6210003 0.75925791 0.6163317 0
2.6230001 0.7559731 0.61652291 0
2.6240003 0.75232226 0.61661851 0
2.6260002 0.74902487 0.61680973 0
2.6280003 0.74572033 0.61700094 0
2.6290002 0.742055 0.61709654 0
2.6310003 0.73873776 0.61728776 0
2.6320002 0.73506337 0.6173833 0
2.6340003 0.73173362 0.61757451 0
2.6360002 0.72839648 0.61776572 0
2.6370001 0.72470766 0.61786127 0
2.6390002 0.721358 0.61805254 0
2.6410003 0.71800119 0.61824375 0
2.6420002 0.71429795 0.6183393 0
2.6440003 0.7109285 0.61853051 0
2.6460001 0.70755172 0.61872172 0
2.6480002 0.70416778 0.61891294 0
2.6490002 0.7004447 0.61900854 0
2.6510003 0.69704819 0.61919975 0
2.6530001 0.69364429 0.61939096 0
2.6540003 0.6899069 0.61948657 0
2.6560001 0.68649042 0.61967778 0
2.6580002 0.68306684 0.61986899 0
2.6590002 0.67931491 0.61996454 0
2.6610003 0.67587864 0.62015575 0
2.6630001 0.6724351 0.62034696 0
2.6640003 0.66866887 0.62044257 0
2.6660001 0.66521269 0.62063378 0
2.6680002 0.66174942 0.62082499 0
2.6700003 0.65827888 0.6210162 0
2.6710002 0.65449274 0.62111175 0
2.6730001 0.6510095 0.62130296 0
2.6750002 0.64751917 0.62149417 0
2.6760001 0.64371854 0.62158978 0
2.6780002 0.64021558 0.62178099 0
2.6800003 0.6367054 0.6219722 0
2.6820002 0.63318789 0.62216341 0
2.6830001 0.62936741 0.62225902 0
2.5120001 0.98641312 0.60210145 0
2.5130002 0.98309076 0.60219526 0
2.5150001 0.98024952 0.60238284 0
2.5160003 0.9769181 0.60247666 0
2.5180001 0.97406435 0.60266423 0
2.5190003 0.97072375 0.60275805 0
2.5210001 0.96785748 0.60294563 0
2.5220003 0.96450782 0.60303944 0
2.5240002 0.96162891 0.60322702 0
2.5250001 0.95827019 0.60332084 0
2.5270002 0.95537877 0.60350841 0
2.5280001 0.95201105 0.60360217 0
2.5300002 0.94910693 0.60378981 0
2.5310001 0.94573015 0.60388362 0
2.5330002 0.9428134 0.6040712 0
2.5340002 0.93942761 0.60416502 0
2.5360003 0.93649834 0.60435259 0
2.5370002 0.9331035 0.60444641 0
2.5390003 0.93016154 0.60463399 0
2.5400002 0.92675769 0.6047278 0
2.5420003 0.92380309 0.60491538 0
2.5430002 0.92039031 0.6050092 0
2.5450003 0.91742301 0.60519677 0
2.5460002 0.91400111 0.60529059 0
2.5480001 0.91102129 0.60547817 0
2.5490003 0.90759051 0.60557199 0
2.5510001 0.90459788 0.60575956 0
2.5520003 0.90115815 0.60585338 0
2.5540001 0.89815289 0.60604095 0
2.5560002 0.89514053 0.60622859 0
2.5570002 0.89168626 0.60632235 0
2.5590003 0.88866127 0.60650992 0
2.5600002 0.88519788 0.60660374 0
2.5620003 0.88216037 0.60679138 0
2.5630002 0.87868804 0.60688514 0
2.5650003 0.87563777 0.60707277 0
2.5660002 0.87215644 0.60716653 0
2.5680003 0.8690936 0.60735416 0
2.5700002 0.86602348 0.60754174 0
2.5710001 0.86252767 0.6076355 0
2.5730002 0.85944498 0.60782313 0
2.5740001 0.85594016 0.60791695 0
2.5760002 0.85284483 0.60810453 0
2.5770001 0.84933102 0.60819829 0
2.5790002 0.84622306 0.60838592 0
2.5810001 0.84310788 0.6085735 0
2.5820003 0.8395797 0.60866731 0
2.5840001 0.83645183 0.60885489 0
2.5850003 0.83291459 0.60894871 0
2.5870001 0.82977414 0.60913628 0
2.5890002 0.82662654 0.60932386 0
2.5900002 0.82307482 0.60941768 0
2.5920002 0.81991458 0.60960531 0
2.5930002 0.8163538 0.60969907 0
2.5950003 0.81318092 0.60988671 0
2.5970001 0.81000078 0.61007428 0
2.5980003 0.80642569 0.6101681 0
2.6000001 0.80323291 0.61035568 0
2.6010003 0.79964882 0.61044949 0
2.6030002 0.79644334 0.61063707 0
2.6050003 0.79323083 0.6108247 0
2.6060002 0.7896322 0.61091846 0
2.6080003 0.78640705 0.61110604 0
2.6090002 0.78279936 0.61119986 0
2.6110003 0.77956158 0.61138749 0
2.6130002 0.77631646 0.61157507 0
2.6140001 0.77269441 0.61166883 0
2.6160002 0.76943678 0.61185646 0
2.6180003 0.76617187 0.61204404 0
2.6190002 0.76253539 0.61213785 0
2.6210003 0.75925791 0.61232543 0
2.6230001 0.7559731 0.61251301 0
2.6240003 0.75232226 0.61260682 0
2.6260002 0.74902487 0.6127944 0
2.6280003 0.74572033 0.61298203 0
2.6290002 0.742055 0.61307585 0
2.6310003 0.73873776 0.61326343 0
2.6320002 0.73506337 0.61335719 0
2.6340003 0.73173362 0.61354482 0
2.6360002 0.72839648 0.6137324 0
2.6370001 0.72470766 0.61382616 0
2.6390002 0.721358 0.61401379 0
2.6410003 0.71800119 0.61420143 0
2.6420002 0.71429795 0.61429518 0
2.6440003 0.7109285 0.61448282 0
2.6460001 0.70755172 0.6146704 0
2.6480002 0.70416778 0.61485797 0
2.6490002 0.7004447 0.61495179 0
2.6510003 0.69704819 0.61513937 0
2.6530001 0.69364429 0.61532694 0
2.6540003 0.6899069 0.61542076 0
2.6560001 0.68649042 0.61560833 0
2.6580002 0.68306684 0.61579597 0
2.6590002 0.67931491 0.61588979 0
2.6610003 0.67587864 0.61607736 0
2.6630001 0.6724351 0.61626494 0
2.6640003 0.66866887 0.61635876 0
2.6660001 0.66521269 0.61654633 0
2.6680002 0.66174942 0.61673391 0
2.6700003 0.65827888 0.61692154 0
2.6710002 0.65449274 0.61701536 0
2.6730001 0.6510095 0.61720294 0
2.6750002 0.64751917 0.61739051 0
2.6760001 0.64371854 0.61748433 0
2.6780002 0.64021558 0.61767191 0
2.6800003 0.6367054 0.61785954 0
2.6820002 0.63318789 0.61804712 0
2.6830001 0.62936741 0.61814094 0
2.5120001 0.98641312 0.59829181 0
2.5130002 0.98309076 0.59838378 0
2.5150001 0.98024952 0.59856778 0
2.5160003 0.9769181 0.59865975 0
2.5180001 0.97406435 0.59884375 0
2.5190003 0.97072375 0.59893578 0
2.5210001 0.96785748 0.59911978 0
2.5220003 0.96450782 0.59921175 0
2.5240002 0.96162891 0.59939575 0
2.5250001 0.95827019 0.59948772 0
2.5270002 0.95537877 0.59967172 0
2.5280001 0.95201105 0.59976369 0
2.5300002 0.94910693 0.59994769 0
2.5310001 0.94573015 0.60003972 0
2.5330002 0.9428134 0.60022366 0
2.5340002 0.93942761 0.60031569 0
2.5360003 0.93649834 0.60049963 0
2.5370002 0.9331035 0.60059166 0
2.5390003 0.93016154 0.60077566 0
2.5400002 0.92675769 0.60086763 0
2.5420003 0.92380309 0.60105163 0
2.5430002 0.92039031 0.6011436 0
2.5450003 0.91742301 0.60132766 0
2.5460002 0.91400111 0.60141963 0
2.5480001 0.91102129 0.60160357 0
2.5490003 0.90759051 0.6016956 0
2.5510001 0.90459788 0.6018796 0
2.5520003 0.90115815 0.60197157 0
2.5540001 0.89815289 0.60215557 0
2.5560002 0.89514053 0.60233957 0
2.5570002 0.89168626 0.60243154 0
2.5590003 0.88866127 0.60261554 0
2.5600002 0.88519788 0.60270751 0
2.5620003 0.88216037 0.6028915 0
2.5630002 0.87868804 0.60298347 0
2.5650003 0.87563777 0.60316753 0
2.5660002 0.87215644 0.6032595 0
2.5680003 0.8690936 0.6034435 0
2.5700002 0.86602348 0.60362744 0
2.5710001 0.86252767 0.60371947 0
2.5730002 0.85944498 0.60390347 0
2.5740001 0.85594016 0.60399544 0
2.5760002 0.85284483 0.60417944 0
2.5770001 0.84933102 0.60427141 0
2.5790002 0.84622306 0.60445541 0
2.5810001 0.84310788 0.60463941 0
2.5820003 0.8395797 0.60473138 0
2.5840001 0.83645183 0.60491538 0
2.5850003 0.83291459 0.60500741 0
2.5870001 0.82977414 0.60519135 0
2.5890002 0.82662654 0.60537535 0
2.5900002 0.82307482 0.60546732 0
2.5920002 0.81991458 0.60565138 0
2.5930002 0.8163538 0.60574335 0
2.5950003 0.81318092 0.60592735 0
2.5970001 0.81000078 0.60611129 0
2.5980003 0.80642569 0.60620332 0
2.6000001 0.80323291 0.60638732 0
2.6010003 0.79964882 0.60647929 0
2.6030002 0.79644334 0.60666329 0
2.6050003 0.79323083 0.60684729 0
2.6060002 0.7896322 0.60693926 0
2.6080003 0.78640705 0.60712326 0
2.6090002 0.78279936 0.60721523 0
2.6110003 0.77956158 0.60739923 0
2.6130002 0.77631646 0.60758322 0
2.6140001 0.77269441 0.60767519 0
2.6160002 0.76943678 0.60785919 0
2.6180003 0.76617187 0.60804319 0
2.6190002 0.76253539 0.60813522 0
2.6210003 0.75925791 0.60831916 0
2.6230001 0.7559731 0.60850316 0
2.6240003 0.75232226 0.60859513 0
2.6260002 0.74902487 0.60877913 0
2.6280003 0.74572033 0.60896313 0
2.6290002 0.742055 0.6090551 0
2.6310003 0.73873776 0.6092391 0
2.6320002 0.73506337 0.60933113 0
2.6340003 0.73173362 0.60951513 0
2.6360002 0.72839648 0.60969907 0
2.6370001 0.72470766 0.60979104 0
2.6390002 0.721358 0.6099751 0
2.6410003 0.71800119 0.61015904 0
2.6420002 0.71429795 0.61025107 0
2.6440003 0.7109285 0.61043507 0
2.6460001 0.70755172 0.61061907 0
2.6480002 0.70416778 0.61080301 0
2.6490002 0.7004447 0.61089504 0
2.6510003 0.69704819 0.61107898 0
2.6530001 0.69364429 0.61126298 0
2.6540003 0.6899069 0.61135501 0
2.6560001 0.68649042 0.61153895 0
2.6580002 0.68306684 0.61172295 0
2.6590002 0.67931491 0.61181498 0
2.6610003 0.67587864 0.61199892 0
2.6630001 0.6724351 0.61218292 0
2.6640003 0.66866887 0.61227494 0
2.6660001 0.66521269 0.61245894 0
2.6680002 0.66174942 0.61264288 0
2.6700003 0.65827888 0.61282688 0
2.6710002 0.65449274 0.61291885 0
2.6730001 0.6510095 0.61310285 0
2.6750002 0.64751917 0.61328685 0
2.6760001 0.64371854 0.61337888 0
2.6780002 0.64021558 0.61356282 0
2.6800003 0.6367054 0.61374688 0
2.6820002 0.63318789 0.61393082 0
2.6830001 0.62936741 0.61402279 0
2.5120001 0.98641312 0.59448218 0
2.5130002 0.98309076 0.59457237 0
2.5150001 0.98024952 0.59475273 0
2.5160003 0.9769181 0.59484291 0
2.5180001 0.97406435 0.59502327 0
2.5190003 0.97072375 0.59511352 0
2.5210001 0.96785748 0.59529388 0
2.5220003 0.96450782 0.59538406 0
2.5240002 0.96162891 0.59556448 0
2.5250001 0.95827019 0.59565461 0
2.5270002 0.95537877 0.59583503 0
2.5280001 0.95201105 0.59592521 0
2.5300002 0.94910693 0.59610558 0
2.5310001 0.94573015 0.59619576 0
2.5330002 0.9428134 0.59637618 0
2.5340002 0.93942761 0.59646636 0
2.5360003 0.93649834 0.59664673 0
2.5370002 0.9331035 0.59673691 0
2.5390003 0.93016154 0.59691733 0
2.5400002 0.92675769 0.59700751 0
2.5420003 0.92380309 0.59718788 0
2.5430002 0.92039031 0.59727806 0
2.5450003 0.91742301 0.59745848 0
2.5460002 0.91400111 0.59754866 0
2.5480001 0.91102129 0.59772903 0
2.5490003 0.90759051 0.59781921 0
2.5510001 0.90459788 0.59799957 0
2.5520003 0.90115815 0.59808981 0
2.5540001 0.89815289 0.59827018 0
2.5560002 0.89514053 0.59845054 0
2.5570002 0.89168626 0.59854072 0
2.5590003 0.88866127 0.59872115 0
2.5600002 0.88519788 0.59881133 0
2.5620003 0.88216037 0.59899169 0
2.5630002 0.87868804 0.59908187 0
2.5650003 0.87563777 0.59926224 0
2.5660002 0.87215644 0.59935248 0
2.5680003 0.8690936 0.59953284 0
2.5700002 0.86602348 0.59971321 0
2.5710001 0.86252767 0.59980339 0
2.5730002 0.85944498 0.59998375 0
2.5740001 0.85594016 0.60007393 0
2.5760002 0.85284483 0.60025436 0
2.5770001 0.84933102 0.60034454 0
2.5790002 0.84622306 0.6005249 0
2.5810001 0.84310788 0.60070527 0
2.5820003 0.8395797 0.60079551 0
2.5840001 0.83645183 0.60097587 0
2.5850003 0.83291459 0.60106605 0
2.5870001 0.82977414 0.60124642 0
2.5890002 0.82662654 0.60142684 0
2.5900002 0.82307482 0.60151702 0
2.5920002 0.81991458 0.60169739 0
2.5930002 0.8163538 0.60178757 0
2.5950003 0.81318092 0.60196799 0
2.5970001 0.81000078 0.60214835 0
2.5980003 0.80642569 0.60223854 0
2.6000001 0.80323291 0.6024189 0
2.6010003 0.79964882 0.60250914 0
2.6030002 0.79644334 0.6026895 0
2.6050003 0.79323083 0.60286987 0
2.6060002 0.7896322 0.60296005 0
2.6080003 0.78640705 0.60314047 0
2.6090002 0.78279936 0.6032306 0
2.6110003 0.77956158 0.60341102 0
2.6130002 0.77631646 0.60359138 0
2.6140001 0.77269441 0.60368156 0
2.6160002 0.76943678 0.60386193 0
2.6180003 0.76617187 0.60404235 0
2.6190002 0.76253539 0.60413253 0
2.6210003 0.75925791 0.6043129 0
2.6230001 0.7559731 0.60449326 0
2.6240003 0.75232226 0.6045835 0
2.6260002 0.74902487 0.60476387 0
2.6280003 0.74572033 0.60494423 0
2.6290002 0.742055 0.60503447 0
2.6310003 0.73873776 0.60521483 0
2.6320002 0.73506337 0.60530502 0
2.6340003 0.73173362 0.60548544 0
2.6360002 0.72839648 0.6056658 0
2.6370001 0.72470766 0.60575593 0
2.6390002 0.721358 0.60593635 0
2.6410003 0.71800119 0.60611677 0
2.6420002 0.71429795 0.60620689 0
2.6440003 0.7109285 0.60638732 0
2.6460001 0.70755172 0.60656768 0
2.6480002 0.70416778 0.60674804 0
2.6490002 0.7004447 0.60683823 0
2.6510003 0.69704819 0.60701865 0
2.6530001 0.69364429 0.60719901 0
2.6540003 0.6899069 0.6072892 0
2.6560001 0.68649042 0.60746956 0
2.6580002 0.68306684 0.60764998 0
2.6590002 0.67931491 0.60774016 0
2.6610003 0.67587864 0.60792053 0
2.6630001 0.6724351 0.60810089 0
2.6640003 0.66866887 0.60819113 0
2.6660001 0.66521269 0.6083715 0
2.6680002 0.66174942 0.60855186 0
2.6700003 0.65827888 0.60873222 0
2.6710002 0.65449274 0.60882246 0
2.6730001 0.6510095 0.60900283 0
2.6750002 0.64751917 0.60918319 0
2.6760001 0.64371854 0.60927337 0
2.6780002 0.64021558 0.6094538 0
2.6800003 0.6367054 0.60963416 0
2.6820002 0.63318789 0.60981452 0
2.6830001 0.62936741 0.60990471 0
2.5120001 0.98641312 0.59067249 0
2.5130002 0.98309076 0.59076095 0
2.5150001 0.98024952 0.59093767 0
2.5160003 0.9769181 0.59102607 0
2.5180001 0.97406435 0.59120286 0
2.5190003 0.97072375 0.59129125 0
2.5210001 0.96785748 0.59146798 0
2.5220003 0.96450782 0.59155643 0
2.5240002 0.96162891 0.59173316 0
2.5250001 0.95827019 0.59182155 0
2.5270002 0.95537877 0.59199834 0
2.5280001 0.95201105 0.59208667 0
2.5300002 0.94910693 0.59226346 0
2.5310001 0.94573015 0.59235185 0
2.5330002 0.9428134 0.59252864 0
2.5340002 0.93942761 0.59261703 0
2.5360003 0.93649834 0.59279382 0
2.5370002 0.9331035 0.59288216 0
2.5390003 0.93016154 0.59305894 0
2.5400002 0.92675769 0.59314734 0
2.5420003 0.92380309 0.59332412 0
2.5430002 0.92039031 0.59341252 0
2.5450003 0.91742301 0.59358931 0
2.5460002 0.91400111 0.59367764 0
2.5480001 0.91102129 0.59385443 0
2.5490003 0.90759051 0.59394282 0
2.5510001 0.90459788 0.59411961 0
2.5520003 0.90115815 0.594208 0
2.5540001 0.89815289 0.59438479 0
2.5560002 0.89514053 0.59456152 0
2.5570002 0.89168626 0.59464991 0
2.5590003 0.88866127 0.5948267 0
2.5600002 0.88519788 0.59491509 0
2.5620003 0.88216037 0.59509188 0
2.5630002 0.87868804 0.59518027 0
2.5650003 0.87563777 0.595357 0
2.5660002 0.87215644 0.59544539 0
2.5680003 0.8690936 0.59562218 0
2.5700002 0.86602348 0.59579897 0
2.5710001 0.86252767 0.5958873 0
2.5730002 0.85944498 0.59606409 0
2.5740001 0.85594016 0.59615248 0
2.5760002 0.85284483 0.59632927 0
2.5770001 0.84933102 0.59641767 0
2.5790002 0.84622306 0.59659445 0
2.5810001 0.84310788 0.59677118 0
2.5820003 0.8395797 0.59685957 0
2.5840001 0.83645183 0.59703636 0
2.5850003 0.83291459 0.59712476 0
2.5870001 0.82977414 0.59730148 0
2.5890002 0.82662654 0.59747827 0
2.5900002 0.82307482 0.59756666 0
2.5920002 0.81991458 0.59774345 0
2.5930002 0.8163538 0.59783185 0
2.5950003 0.81318092 0.59800863 0
2.5970001 0.81000078 0.59818536 0
2.5980003 0.80642569 0.59827375 0
2.6000001 0.80323291 0.59845054 0
2.6010003 0.79964882 0.59853894 0
2.6030002 0.79644334 0.59871572 0
2.6050003 0.79323083 0.59889245 0
2.6060002 0.7896322 0.59898084 0
2.6080003 0.78640705 0.59915763 0
2.6090002 0.78279936 0.59924603 0
2.6110003 0.77956158 0.59942281 0
2.6130002 0.77631646 0.5995996 0
2.6140001 0.77269441 0.59968793 0
2.6160002 0.76943678 0.59986472 0
2.6180003 0.76617187 0.60004151 0
2.6190002 0.76253539 0.6001299 0
2.6210003 0.75925791 0.60030669 0
2.6230001 0.7559731 0.60048342 0
2.6240003 0.75232226 0.60057187 0
2.6260002 0.74902487 0.6007486 0
2.6280003 0.74572033 0.60092539 0
2.6290002 0.742055 0.60101378 0
2.6310003 0.73873776 0.60119057 0
2.6320002 0.73506337 0.6012789 0
2.6340003 0.73173362 0.60145569 0
2.6360002 0.72839648 0.60163248 0
2.6370001 0.72470766 0.60172081 0
2.6390002 0.721358 0.6018976 0
2.6410003 0.71800119 0.60207438 0
2.6420002 0.71429795 0.60216278 0
2.6440003 0.7109285 0.60233957 0
2.6460001 0.70755172 0.60251629 0
2.6480002 0.70416778 0.60269308 0
2.6490002 0.7004447 0.60278147 0
2.6510003 0.69704819 0.60295826 0
2.6530001 0.69364429 0.60313505 0
2.6540003 0.6899069 0.60322344 0
2.6560001 0.68649042 0.60340017 0
2.6580002 0.68306684 0.60357696 0
2.6590002 0.67931491 0.60366535 0
2.6610003 0.67587864 0.60384214 0
2.6630001 0.6724351 0.60401893 0
2.6640003 0.66866887 0.60410726 0
2.6660001 0.66521269 0.60428405 0
2.6680002 0.66174942 0.60446084 0
2.6700003 0.65827888 0.60463762 0
2.6710002 0.65449274 0.60472596 0
2.6730001 0.6510095 0.60490274 0
2.6750002 0.64751917 0.60507953 0
2.6760001 0.64371854 0.60516793 0
2.6780002 0.64021558 0.60534471 0
2.6800003 0.6367054 0.60552144 0
2.6820002 0.63318789 0.60569823 0
2.6830001 0.62936741 0.60578662 0
2.5120001 0.98641312 0.58686286 0
2.5130002 0.98309076 0.58694947 0
2.5150001 0.98024952 0.58712262 0
2.5160003 0.9769181 0.58720922 0
2.5180001 0.97406435 0.58738238 0
2.5190003 0.97072375 0.58746898 0
2.5210001 0.96785748 0.58764213 0
2.5220003 0.96450782 0.58772874 0
2.5240002 0.96162891 0.58790189 0
2.5250001 0.95827019 0.58798844 0
2.5270002 0.95537877 0.58816165 0
2.5280001 0.95201105 0.58824819 0
2.5300002 0.94910693 0.58842134 0
2.5310001 0.94573015 0.58850795 0
2.5330002 0.9428134 0.5886811 0
2.5340002 0.93942761 0.58876771 0
2.5360003 0.93649834 0.58894086 0
2.5370002 0.9331035 0.58902746 0
2.5390003 0.93016154 0.58920062 0
2.5400002 0.92675769 0.58928716 0
2.5420003 0.92380309 0.58946037 0
2.5430002 0.92039031 0.58954692 0
2.5450003 0.91742301 0.58972013 0
2.5460002 0.91400111 0.58980668 0
2.5480001 0.91102129 0.58997989 0
2.5490003 0.90759051 0.59006643 0
2.5510001 0.90459788 0.59023958 0
2.5520003 0.90115815 0.59032619 0
2.5540001 0.89815289 0.59049934 0
2.5560002 0.89514053 0.59067249 0
2.5570002 0.89168626 0.5907591 0
2.5590003 0.88866127 0.59093225 0
2.5600002 0.88519788 0.59101886 0
2.5620003 0.88216037 0.59119201 0
2.5630002 0.87868804 0.59127861 0
2.5650003 0.87563777 0.59145176 0
2.5660002 0.87215644 0.59153831 0
2.5680003 0.8690936 0.59171152 0
2.5700002 0.86602348 0.59188467 0
2.5710001 0.86252767 0.59197128 0
2.5730002 0.85944498 0.59214443 0
2.5740001 0.85594016 0.59223104 0
2.5760002 0.85284483 0.59240419 0
2.5770001 0.84933102 0.59249073 0
2.5790002 0.84622306 0.59266394 0
2.5810001 0.84310788 0.5928371 0
2.5820003 0.8395797 0.59292364 0
2.5840001 0.83645183 0.59309685 0
2.5850003 0.83291459 0.5931834 0
2.5870001 0.82977414 0.59335661 0
2.5890002 0.82662654 0.59352976 0
2.5900002 0.82307482 0.59361637 0
2.5920002 0.81991458 0.59378952 0
2.5930002 0.8163538 0.59387612 0
2.5950003 0.81318092 0.59404927 0
2.5970001 0.81000078 0.59422243 0
2.5980003 0.80642569 0.59430903 0
2.6000001 0.80323291 0.59448218 0
2.6010003 0.79964882 0.59456873 0
2.6030002 0.79644334 0.59474194 0
2.6050003 0.79323083 0.59491509 0
2.6060002 0.7896322 0.59500164 0
2.6080003 0.78640705 0.59517485 0
2.6090002 0.78279936 0.59526139 0
2.6110003 0.77956158 0.59543455 0
2.6130002 0.77631646 0.59560776 0
2.6140001 0.77269441 0.5956943 0
2.6160002 0.76943678 0.59586751 0
2.6180003 0.76617187 0.59604067 0
2.6190002 0.76253539 0.59612727 0
2.6210003 0.75925791 0.59630042 0
2.6230001 0.7559731 0.59647357 0
2.6240003 0.75232226 0.59656018 0
2.6260002 0.74902487 0.59673333 0
2.6280003 0.74572033 0.59690648 0
2.6290002 0.742055 0.59699309 0
2.6310003 0.73873776 0.59716624 0
2.6320002 0.73506337 0.59725279 0
2.6340003 0.73173362 0.597426 0
2.6360002 0.72839648 0.59759915 0
2.6370001 0.72470766 0.59768569 0
2.6390002 0.721358 0.59785891 0
2.6410003 0.71800119 0.59803206 0
2.6420002 0.71429795 0.59811866 0
2.6440003 0.7109285 0.59829181 0
2.6460001 0.70755172 0.59846497 0
2.6480002 0.70416778 0.59863818 0
2.6490002 0.7004447 0.59872472 0
2.6510003 0.69704819 0.59889787 0
2.6530001 0.69364429 0.59907103 0
