# .PCD v0.7 - Point Cloud Data file format
VERSION 0.7
FIELDS x y z intensity
SIZE 4 4 4 4
TYPE F F F F
COUNT 1 1 1 1
WIDTH 1389
HEIGHT 1
VIEWPOINT 0 0 0 1 0 0 0
POINTS 1389
DATA ascii
4.1680002 -0.093577251 0.62829274 0
4.1660004 -0.10034513 0.62817371 0
4.1660004 -0.10713828 0.62817371 0
4.1660004 -0.11393142 0.62817371 0
4.1670003 -0.12074441 0.62823319 0
4.1690001 -0.12758264 0.62835228 0
4.1730003 -0.13447499 0.62859035 0
4.178 -0.14140703 0.62888801 0
4.1849999 -0.14841121 0.62930465 0
4.1930003 -0.15546952 0.62978089 0
4.2010002 -0.16255668 0.63025713 0
4.0440001 -0.23661925 0.6209116 0
4.0360003 -0.24275941 0.62043536 0
4.0290003 -0.24892662 0.62001866 0
4.0230002 -0.2551263 0.61966151 0
4.0170002 -0.26130435 0.61930436 0
4.0110002 -0.26746073 0.61894721 0
4.007 -0.27372175 0.61870909 0
4.0020003 -0.27990344 0.61841148 0
3.9970002 -0.28606704 0.61811388 0
3.9930003 -0.29228115 0.61787575 0
3.9890003 -0.29848084 0.61763763 0
3.9860003 -0.30473825 0.61745906 0
3.9770002 -0.31054112 0.61692333 0
3.9680002 -0.31631148 0.61638761 0
3.9620004 -0.32228211 0.61603045 0
3.9570003 -0.32831043 0.61573279 0
3.9540002 -0.33448306 0.61555421 0
3.9520004 -0.34072784 0.61543524 0
3.9510002 -0.34705019 0.6153757 0
3.9500003 -0.35336894 0.61531615 0
3.9500003 -0.35977244 0.61531615 0
3.9520004 -0.36635637 0.61543524 0
3.9540002 -0.37294745 0.61555421 0
3.9570003 -0.3796396 0.61573279 0
4.198 -0.43649924 0.63007849 0
4.1940002 -0.44293159 0.62984037 0
4.1900001 -0.44934958 0.62960231 0
4.1870003 -0.45586133 0.62942374 0
4.1830001 -0.4622522 0.62918562 0
4.1810002 -0.46885234 0.62906659 0
4.1790004 -0.47544527 0.6289475 0
4.2810001 0.080010429 0.62801856 0
4.2740002 0.072795197 0.6276145 0
4.2680001 0.065634087 0.6272682 0
4.2670002 0.058629896 0.62721044 0
4.2750001 0.051856596 0.62767226 0
4.2820001 0.045030985 0.62807631 0
4.29 0.038201768 0.62853807 0
4.2980003 0.031343687 0.62899983 0
4.3060002 0.024456751 0.62946165 0
4.3140001 0.01754095 0.6299234 0
4.322 0.010596287 0.63038516 0
4.3300004 0.0036227666 0.63084698 0
4.3380003 -0.0033796169 0.63130873 0
4.3460002 -0.010410868 0.63177049 0
4.3540001 -0.017470969 0.63223225 0
4.362 -0.024559936 0.63269401 0
4.1810002 -0.073280796 0.62224638 0
4.1750002 -0.080046877 0.62190002 0
4.171 -0.086812966 0.62166917 0
4.1680002 -0.093577251 0.62149596 0
4.1660004 -0.10034513 0.62138057 0
4.1660004 -0.10713828 0.62138057 0
4.1660004 -0.11393142 0.62138057 0
4.1670003 -0.12074441 0.62143826 0
4.1690001 -0.12758264 0.62155372 0
4.1730003 -0.13447499 0.62178463 0
4.178 -0.14140703 0.62207317 0
4.1849999 -0.14841121 0.62247729 0
4.1930003 -0.15546952 0.62293905 0
4.2010002 -0.16255668 0.62340081 0
4.2090001 -0.1696727 0.62386262 0
4.04 -0.24297586 0.61410761 0
4.0320001 -0.24909438 0.61364579 0
4.0250001 -0.25524175 0.61324179 0
4.0180001 -0.26136389 0.61283773 0
4.0120001 -0.26752207 0.61249137 0
4.006 -0.27365863 0.61214507 0
4.0009999 -0.27983847 0.61185646 0
3.9960003 -0.28600028 0.61156785 0
3.9910002 -0.29214406 0.61127925 0
3.9870002 -0.29834014 0.61104834 0
3.9790003 -0.30423319 0.61058658 0
3.9690003 -0.30994946 0.61000931 0
3.9620004 -0.31585693 0.60960531 0
3.9560003 -0.32181671 0.60925895 0
3.9520004 -0.32791358 0.6090281 0
3.9490004 -0.33407721 0.60885489 0
3.9470003 -0.34031296 0.6087395 0
3.9460003 -0.34662631 0.60868174 0
3.9460003 -0.35302261 0.60868174 0
3.9460003 -0.3594189 0.60868174 0
3.9470003 -0.3659054 0.6087395 0
3.9490004 -0.37248749 0.60885489 0
3.9520004 -0.3791706 0.6090281 0
3.9560003 -0.38596016 0.60925895 0
4.1920004 -0.44272238 0.62288129 0
4.1880002 -0.4491367 0.62265044 0
4.184 -0.45553663 0.62241954 0
4.1800003 -0.46192211 0.62218869 0
4.177 -0.46840498 0.62201548 0
4.1740003 -0.47487706 0.62184232 0
4.1630001 -0.48041475 0.62120736 0
4.1560001 -0.48638174 0.62080336 0
4.151 -0.49256158 0.62051475 0
4.1470003 -0.49884427 0.62028384 0
4.145 -0.5053578 0.62016839 0
4.1430001 -0.51186419 0.62005293 0
4.1430001 -0.51861578 0.62005293 0
4.1430001 -0.52536744 0.62005293 0
4.2810001 0.080010429 0.62101799 0
4.2740002 0.072795197 0.62062657 0
4.2680001 0.065634087 0.62029105 0
4.2670002 0.058629896 0.62023515 0
4.2750001 0.051856596 0.62068248 0
4.2820001 0.045030985 0.6210739 0
4.29 0.038201768 0.62152123 0
4.2980003 0.031343687 0.62196863 0
4.3060002 0.024456751 0.62241596 0
4.3140001 0.01754095 0.62286329 0
4.322 0.010596287 0.62331063 0
4.3300004 0.0036227666 0.62375796 0
4.3380003 -0.0033796169 0.62420529 0
4.3460002 -0.010410868 0.62465262 0
4.3540001 -0.017470969 0.62510002 0
4.362 -0.024559936 0.62554735 0
4.1810002 -0.073280796 0.61542618 0
4.1750002 -0.080046877 0.61509067 0
4.171 -0.086812966 0.61486697 0
4.1680002 -0.093577251 0.61469924 0
4.1660004 -0.10034513 0.61458743 0
4.1660004 -0.10713828 0.61458743 0
4.1660004 -0.11393142 0.61458743 0
4.1670003 -0.12074441 0.61464334 0
4.1690001 -0.12758264 0.61475515 0
4.1730003 -0.13447499 0.61497885 0
4.178 -0.14140703 0.61525846 0
4.1849999 -0.14841121 0.61564982 0
4.1930003 -0.15546952 0.61609721 0
4.2010002 -0.16255668 0.61654454 0
4.2090001 -0.1696727 0.61699188 0
4.217 -0.17681758 0.61743921 0
4.027 -0.25535718 0.6068148 0
4.02 -0.26148292 0.60642338 0
4.013 -0.2675834 0.60603195 0
4.007 -0.27372175 0.60569644 0
4.0009999 -0.27983847 0.60536093 0
3.9950004 -0.28593355 0.60502541 0
3.9900002 -0.29207551 0.60474586 0
3.9860003 -0.29826981 0.60452217 0
3.9720004 -0.30372813 0.60373932 0
3.9640002 -0.30957967 0.60329199 0
3.9570003 -0.31547815 0.60290051 0
3.9530003 -0.32158402 0.60267687 0
3.9490004 -0.32767549 0.60245317 0
3.9460003 -0.33383369 0.60228544 0
3.9440002 -0.34006402 0.60217357 0
3.9430003 -0.34637195 0.60211766 0
3.9420002 -0.35267627 0.60206175 0
3.9430003 -0.35915375 0.60211766 0
3.9430003 -0.36554465 0.60211766 0
3.9450002 -0.37211949 0.60222954 0
3.9480002 -0.37879539 0.60239726 0
3.9510002 -0.3854821 0.60256505 0
3.9570003 -0.39247188 0.60290051 0
4.1860003 -0.44892386 0.61570579 0
4.1820002 -0.45532015 0.61548209 0
4.178 -0.46170205 0.61525846 0
4.1740003 -0.46806946 0.61503476 0
4.1630001 -0.47362703 0.61441964 0
4.1550002 -0.4794912 0.61397231 0
4.1490002 -0.48556098 0.61363679 0
4.1440001 -0.49172825 0.61335719 0
4.1410003 -0.49811915 0.61318946 0
4.1389999 -0.5046218 0.61307764 0
4.1370001 -0.5111174 0.61296582 0
4.1370001 -0.51785821 0.61296582 0
4.1370001 -0.52459902 0.61296582 0
4.1389999 -0.53159958 0.61307764 0
4.1410003 -0.53860742 0.61318946 0
4.2810001 0.080010429 0.61401743 0
4.2740002 0.072795197 0.61363858 0
4.2680001 0.065634087 0.61331391 0
4.2670002 0.058629896 0.61325979 0
4.2750001 0.051856596 0.61369276 0
4.2820001 0.045030985 0.61407149 0
4.29 0.038201768 0.61450446 0
4.2980003 0.031343687 0.61493737 0
4.3060002 0.024456751 0.61537027 0
4.3140001 0.01754095 0.61580318 0
4.322 0.010596287 0.61623609 0
4.3300004 0.0036227666 0.616669 0
4.3380003 -0.0033796169 0.61710191 0
4.3460002 -0.010410868 0.61753482 0
4.3540001 -0.017470969 0.61796772 0
4.362 -0.024559936 0.61840063 0
4.1810002 -0.073280796 0.60860598 0
4.1750002 -0.080046877 0.60828125 0
4.171 -0.086812966 0.60806483 0
4.1680002 -0.093577251 0.60790247 0
4.1660004 -0.10034513 0.60779428 0
4.1660004 -0.10713828 0.60779428 0
4.1660004 -0.11393142 0.60779428 0
4.1670003 -0.12074441 0.60784841 0
4.1690001 -0.12758264 0.60795665 0
4.1730003 -0.13447499 0.60817307 0
4.178 -0.14140703 0.60844362 0
4.1849999 -0.14841121 0.60882246 0
4.1930003 -0.15546952 0.60925537 0
4.2010002 -0.16255668 0.60968828 0
4.2090001 -0.1696727 0.61012119 0
4.217 -0.17681758 0.6105541 0
4.2260003 -0.1840274 0.61104113 0
4.2340002 -0.19123182 0.61147404 0
4.0230002 -0.2616615 0.60005593 0
4.0150003 -0.26770607 0.59962302 0
4.0080004 -0.27378491 0.59924424 0
4.0020003 -0.27990344 0.59891951 0
3.9960003 -0.28600028 0.59859484 0
3.9900002 -0.29207551 0.59827018 0
3.9790003 -0.29777735 0.59767491 0
3.9670002 -0.30336738 0.59702551 0
3.9600003 -0.30928385 0.59664673 0
3.9540002 -0.31525084 0.59632206 0
3.9500003 -0.32135132 0.59610558 0
3.9460003 -0.3274374 0.59588915 0
3.9440002 -0.33367136 0.59578091 0
3.9420002 -0.33989808 0.59567267 0
3.9410002 -0.34620237 0.59561855 0
3.9400003 -0.35250312 0.59556448 0
3.9400003 -0.35888857 0.59556448 0
3.9410002 -0.36536425 0.59561855 0
3.9430003 -0.37193552 0.59572679 0
3.9450002 -0.37851399 0.59583503 0
3.9480002 -0.38519531 0.59599733 0
3.9530003 -0.39208227 0.59626794 0
4.1849999 -0.44881743 0.60882246 0
4.1800003 -0.45510373 0.60855186 0
4.1760001 -0.46148199 0.60833538 0
4.1660004 -0.4671748 0.60779428 0
4.1560001 -0.47283155 0.60725313 0
4.1490002 -0.47879854 0.60687435 0
4.1440001 -0.48497477 0.60660374 0
4.1400003 -0.49125203 0.60638732 0
4.1370001 -0.49763572 0.60622495 0
4.1350002 -0.5041312 0.60611671 0
4.1330004 -0.51061952 0.60600853 0
4.1330004 -0.51735312 0.60600853 0
4.1330004 -0.52408677 0.60600853 0
4.1340003 -0.53095025 0.60606259 0
4.1360002 -0.53794897 0.60617083 0
4.1400003 -0.54522192 0.60638732 0
4.2810001 0.080010429 0.6070168 0
4.2740002 0.072795197 0.60665065 0
4.2680001 0.065634087 0.60633677 0
4.2670002 0.058629896 0.6062845 0
4.2750001 0.051856596 0.60670298 0
4.2820001 0.045030985 0.60706913 0
4.29 0.038201768 0.60748762 0
4.2980003 0.031343687 0.6079061 0
4.3060002 0.024456751 0.60832459 0
4.3140001 0.01754095 0.60874307 0
4.322 0.010596287 0.60916156 0
4.3300004 0.0036227666 0.60958004 0
4.3380003 -0.0033796169 0.60999852 0
4.3460002 -0.010410868 0.61041701 0
4.3540001 -0.017470969 0.61083549 0
4.362 -0.024559936 0.61125398 0
4.1810002 -0.073280796 0.60178578 0
4.1750002 -0.080046877 0.6014719 0
4.171 -0.086812966 0.60126269 0
4.1680002 -0.093577251 0.60110575 0
4.1660004 -0.10034513 0.60100114 0
4.1660004 -0.10713828 0.60100114 0
4.1660004 -0.11393142 0.60100114 0
4.1670003 -0.12074441 0.60105342 0
4.1690001 -0.12758264 0.60115808 0
4.1730003 -0.13447499 0.60136729 0
4.178 -0.14140703 0.60162884 0
4.1849999 -0.14841121 0.60199499 0
4.1930003 -0.15546952 0.60241354 0
4.2010002 -0.16255668 0.60283196 0
4.2090001 -0.1696727 0.6032505 0
4.217 -0.17681758 0.60366893 0
4.2260003 -0.1840274 0.60413975 0
4.2340002 -0.19123182 0.60455823 0
4.2420001 -0.19846509 0.60497671 0
4.0110002 -0.2739743 0.592893 0
4.0040002 -0.28003329 0.59252685 0
3.9970002 -0.28606704 0.59216064 0
3.9910002 -0.29214406 0.59184682 0
3.9740002 -0.2974256 0.59095752 0
3.9650002 -0.30322304 0.59048671 0
3.9580002 -0.30913594 0.59012055 0
3.9520004 -0.31509933 0.58980668 0
3.9480002 -0.3211962 0.58959746 0
3.9440002 -0.32727864 0.58938819 0
3.9420002 -0.333509 0.58928359 0
3.9400003 -0.33973214 0.58917898 0
3.9390004 -0.34603283 0.58912665 0
3.9380002 -0.35232994 0.58907437 0
3.9380002 -0.35871178 0.58907437 0
3.9390004 -0.36518389 0.58912665 0
3.9410002 -0.37175152 0.58923125 0
3.9430003 -0.37832642 0.58933592 0
3.9460003 -0.38500413 0.5894928 0
3.9510002 -0.39188746 0.5897544 0
3.9570003 -0.39888802 0.59006822 0
4.1800003 -0.45510373 0.60173345 0
4.1730003 -0.4611519 0.60136729 0
4.1600003 -0.46650377 0.60068727 0
4.151 -0.47226334 0.60021651 0
4.145 -0.47833675 0.59990263 0
4.1400003 -0.4845058 0.59964108 0
4.1360002 -0.49077582 0.59943181 0
4.1340003 -0.49727315 0.59932721 0
4.131 -0.50364053 0.59917027 0
4.1300001 -0.51024616 0.59911793 0
4.1300001 -0.51697433 0.59911793 0
4.1300001 -0.5237025 0.59911793 0
4.131 -0.53056061 0.59917027 0
4.1330004 -0.53755403 0.59927487 0
4.1360002 -0.54468799 0.59943181 0
4.1400003 -0.55196822 0.59964108 0
4.2810001 0.080010429 0.60001624 0
4.2740002 0.072795197 0.59966266 0
4.2680001 0.065634087 0.59935963 0
4.2670002 0.058629896 0.59930915 0
4.2750001 0.051856596 0.59971321 0
4.2820001 0.045030985 0.60006678 0
4.29 0.038201768 0.60047078 0
4.2980003 0.031343687 0.60087484 0
4.3060002 0.024456751 0.6012789 0
4.3140001 0.01754095 0.60168296 0
4.322 0.010596287 0.60208702 0
4.3300004 0.0036227666 0.60249108 0
4.3380003 -0.0033796169 0.60289514 0
4.3460002 -0.010410868 0.6032992 0
4.3540001 -0.017470969 0.60370326 0
4.362 -0.024559936 0.60410726 0
4.1810002 -0.073280796 0.59496558 0
4.1750002 -0.080046877 0.59466255 0
4.171 -0.086812966 0.59446049 0
4.1680002 -0.093577251 0.59430897 0
4.1660004 -0.10034513 0.594208 0
4.1660004 -0.10713828 0.594208 0
4.1660004 -0.11393142 0.594208 0
4.1670003 -0.12074441 0.59425849 0
4.1690001 -0.12758264 0.59435952 0
4.1730003 -0.13447499 0.59456152 0
4.178 -0.14140703 0.59481406 0
4.1849999 -0.14841121 0.59516764 0
4.1930003 -0.15546952 0.59557164 0
4.2010002 -0.16255668 0.5959757 0
4.2090001 -0.1696727 0.59637976 0
4.217 -0.17681758 0.59678382 0
4.2260003 -0.1840274 0.59723836 0
4.2340002 -0.19123182 0.59764242 0
4.2420001 -0.19846509 0.59804648 0
4.2509999 -0.2057687 0.59850103 0
3.9870002 -0.29186988 0.58516729 0
3.9720004 -0.29728493 0.58440971 0
3.9630003 -0.30307874 0.58395517 0
3.9560003 -0.30898803 0.58360159 0
3.9510002 -0.31502354 0.58334905 0
3.9470003 -0.32111865 0.58314705 0
3.9430003 -0.32719928 0.58294499 0
3.9410002 -0.33342782 0.58284402 0
3.9390004 -0.33964917 0.58274299 0
3.9380002 -0.34594807 0.5826925 0
3.9370003 -0.35224333 0.58264196 0
3.9370003 -0.35862342 0.58264196 0
3.9380002 -0.36509368 0.5826925 0
3.9400003 -0.37165955 0.58279347 0
3.9420002 -0.37823263 0.5828945 0
3.9450002 -0.38490853 0.58304602 0
3.9490004 -0.39169264 0.58324802 0
3.9550002 -0.3986896 0.58355105 0
4.1670003 -0.46049169 0.59425849 0
4.1560001 -0.46605647 0.59370291 0
4.1480002 -0.47192243 0.59329885 0
4.1420002 -0.47799042 0.59299582 0
4.138 -0.48427129 0.59279382 0
4.1340003 -0.49053773 0.59259176 0
4.131 -0.49691057 0.59244025 0
4.1290002 -0.50339526 0.59233922 0
4.1280003 -0.50999719 0.59228873 0
4.1280003 -0.51672179 0.59228873 0
4.1280003 -0.52344638 0.59228873 0
4.1290002 -0.53030086 0.59233922 0
4.1300001 -0.53715891 0.59238976 0
4.1330004 -0.54428762 0.59254128 0
4.1370001 -0.55156237 0.59274328 0
4.2810001 0.080010429 0.59301567 0
4.2740002 0.072795197 0.59267473 0
4.2680001 0.065634087 0.59238255 0
4.2670002 0.058629896 0.59233379 0
4.2750001 0.051856596 0.59272349 0
4.2820001 0.045030985 0.59306437 0
4.29 0.038201768 0.593454 0
4.2980003 0.031343687 0.59384364 0
4.3060002 0.024456751 0.59423327 0
4.3140001 0.01754095 0.59462285 0
4.322 0.010596287 0.59501249 0
4.3300004 0.0036227666 0.59540212 0
4.3380003 -0.0033796169 0.5957917 0
4.3460002 -0.010410868 0.59618133 0
4.3540001 -0.017470969 0.59657097 0
4.362 -0.024559936 0.5969606 0
4.1810002 -0.073280796 0.58814538 0
4.1750002 -0.080046877 0.58785319 0
4.171 -0.086812966 0.58765835 0
4.1680002 -0.093577251 0.58751225 0
4.1660004 -0.10034513 0.58741486 0
4.1660004 -0.10713828 0.58741486 0
4.1660004 -0.11393142 0.58741486 0
4.1670003 -0.12074441 0.58746356 0
4.1690001 -0.12758264 0.58756095 0
4.1730003 -0.13447499 0.5877558 0
4.178 -0.14140703 0.58799928 0
4.1849999 -0.14841121 0.58834016 0
4.1930003 -0.15546952 0.5887298 0
4.2010002 -0.16255668 0.58911943 0
4.2090001 -0.1696727 0.58950907 0
4.217 -0.17681758 0.58989871 0
4.2260003 -0.1840274 0.59033704 0
4.2340002 -0.19123182 0.59072661 0
4.2420001 -0.19846509 0.59111625 0
4.2509999 -0.2057687 0.59155458 0
4.2590003 -0.21306151 0.59194422 0
3.9710002 -0.29721457 0.57791781 0
3.9620004 -0.30300662 0.57747948 0
3.9560003 -0.30898803 0.57718724 0
3.9500003 -0.31494781 0.57689506 0
3.9460003 -0.32104108 0.57670021 0
3.9430003 -0.32719928 0.57655412 0
3.9400003 -0.33334664 0.57640803 0
3.9390004 -0.33964917 0.57635933 0
3.9380002 -0.34594807 0.57631058 0
3.9370003 -0.35224333 0.57626188 0
3.9370003 -0.35862342 0.57626188 0
3.9380002 -0.36509368 0.57631058 0
3.9390004 -0.37156755 0.57635933 0
3.9420002 -0.37823263 0.57650542 0
3.9450002 -0.38490853 0.57665151 0
3.9490004 -0.39169264 0.57684636 0
3.9550002 -0.3986896 0.57713854 0
4.164 -0.46016157 0.58731747 0
4.1540003 -0.46583277 0.58683038 0
4.1460004 -0.47169515 0.5864408 0
4.1410003 -0.47787499 0.58619726 0
4.1360002 -0.48403677 0.58595377 0
4.1330004 -0.49041867 0.58580768 0
4.1300001 -0.49678972 0.58566153 0
4.1280003 -0.50327259 0.58556414 0
4.1270003 -0.50987273 0.58551544 0
4.1259999 -0.51646924 0.58546674 0
4.1259999 -0.5231902 0.58546674 0
4.1270003 -0.5300411 0.58551544 0
4.1290002 -0.53702724 0.58561283 0
4.132 -0.54415405 0.58575892 0
4.1360002 -0.55142707 0.58595377 0
4.1410003 -0.55885154 0.58619726 0
4.2810001 0.080010429 0.58601511 0
4.2740002 0.072795197 0.5856868 0
4.2680001 0.065634087 0.58540541 0
4.2670002 0.058629896 0.5853585 0
4.2750001 0.051856596 0.58573371 0
4.2820001 0.045030985 0.58606195 0
4.29 0.038201768 0.58643717 0
4.2980003 0.031343687 0.58681238 0
4.3060002 0.024456751 0.58718753 0
4.3140001 0.01754095 0.58756274 0
4.322 0.010596287 0.58793795 0
4.3300004 0.0036227666 0.58831316 0
4.3380003 -0.0033796169 0.58868837 0
4.3460002 -0.010410868 0.58906353 0
4.3540001 -0.017470969 0.58943874 0
4.362 -0.024559936 0.58981389 0
4.1810002 -0.073280796 0.58132517 0
4.1750002 -0.080046877 0.58104378 0
4.171 -0.086812966 0.5808562 0
4.1680002 -0.093577251 0.58071548 0
4.1660004 -0.10034513 0.58062172 0
4.1660004 -0.10713828 0.58062172 0
4.1660004 -0.11393142 0.58062172 0
4.1670003 -0.12074441 0.58066857 0
4.1690001 -0.12758264 0.58076239 0
4.1730003 -0.13447499 0.58095002 0
4.178 -0.14140703 0.58118451 0
4.1849999 -0.14841121 0.58151281 0
4.1930003 -0.15546952 0.58188796 0
4.2010002 -0.16255668 0.58226317 0
4.2090001 -0.1696727 0.58263838 0
4.217 -0.17681758 0.58301353 0
4.2260003 -0.1840274 0.58343565 0
4.2340002 -0.19123182 0.58381081 0
4.2420001 -0.19846509 0.58418602 0
4.2509999 -0.2057687 0.58460808 0
4.2590003 -0.21306151 0.58498335 0
4.2680001 -0.22042826 0.58540541 0
3.9720004 -0.29728493 0.57152331 0
3.9630003 -0.30307874 0.57110119 0
3.9560003 -0.30898803 0.57077289 0
3.9510002 -0.31502354 0.5705384 0
3.9460003 -0.32104108 0.57030392 0
3.9430003 -0.32719928 0.57016325 0
3.9410002 -0.33342782 0.57006943 0
3.9390004 -0.33964917 0.56997561 0
3.9380002 -0.34594807 0.56992877 0
3.9370003 -0.35224333 0.5698818 0
3.9370003 -0.35862342 0.5698818 0
3.9380002 -0.36509368 0.56992877 0
3.9400003 -0.37165955 0.57002252 0
3.9420002 -0.37823263 0.57011634 0
3.9450002 -0.38490853 0.57025701 0
3.9490004 -0.39169264 0.57044464 0
3.9550002 -0.3986896 0.57072604 0
4.1620002 -0.45994154 0.58043408 0
4.1530004 -0.46572095 0.58001202 0
4.145 -0.47158149 0.57963681 0
4.1400003 -0.47775954 0.57940233 0
4.1350002 -0.48391953 0.57916784 0
4.132 -0.49029961 0.57902712 0
4.1290002 -0.49666885 0.57888645 0
4.1270003 -0.50314993 0.57879263 0
4.1259999 -0.50974822 0.57874572 0
4.1259999 -0.51646924 0.57874572 0
4.1259999 -0.5231902 0.57874572 0
4.1270003 -0.5300411 0.57879263 0
4.1280003 -0.53689557 0.57883954 0
4.131 -0.54402065 0.57898021 0
4.1350002 -0.55129176 0.57916784 0
4.1400003 -0.55871445 0.57940233 0
4.2810001 0.080010429 0.57901454 0
4.2740002 0.072795197 0.57869881 0
4.2680001 0.065634087 0.57842827 0
4.2670002 0.058629896 0.57838321 0
4.2750001 0.051856596 0.57874393 0
4.2820001 0.045030985 0.5790596 0
4.29 0.038201768 0.57942033 0
4.2980003 0.031343687 0.57978112 0
4.3060002 0.024456751 0.5801419 0
4.3140001 0.01754095 0.58050263 0
4.322 0.010596287 0.58086342 0
4.3300004 0.0036227666 0.5812242 0
4.3380003 -0.0033796169 0.58158493 0
4.3460002 -0.010410868 0.58194566 0
4.3540001 -0.017470969 0.58230644 0
4.362 -0.024559936 0.58266723 0
4.3710003 -0.031674154 0.58307308 0
4.1810002 -0.073280796 0.57450497 0
4.1750002 -0.080046877 0.57423443 0
4.171 -0.086812966 0.574054 0
4.1680002 -0.093577251 0.57391876 0
4.1660004 -0.10034513 0.57382858 0
4.1660004 -0.10713828 0.57382858 0
4.1660004 -0.11393142 0.57382858 0
4.1670003 -0.12074441 0.57387364 0
4.1690001 -0.12758264 0.57396388 0
4.1730003 -0.13447499 0.57414424 0
4.178 -0.14140703 0.57436967 0
4.1849999 -0.14841121 0.57468534 0
4.1930003 -0.15546952 0.57504612 0
4.2010002 -0.16255668 0.57540691 0
4.2090001 -0.1696727 0.57576764 0
4.217 -0.17681758 0.57612842 0
4.2260003 -0.1840274 0.57653427 0
4.2340002 -0.19123182 0.57689506 0
4.2420001 -0.19846509 0.57725579 0
4.2509999 -0.2057687 0.57766163 0
4.2590003 -0.21306151 0.57802242 0
3.9640002 -0.30315089 0.56471932 0
3.9570003 -0.30906197 0.56440365 0
3.9520004 -0.31509933 0.56417823 0
3.9480002 -0.3211962 0.56399781 0
3.9440002 -0.32727864 0.56381744 0
3.9420002 -0.333509 0.56372726 0
3.9400003 -0.33973214 0.56363702 0
3.9390004 -0.34603283 0.56359196 0
3.9380002 -0.35232994 0.56354684 0
3.9380002 -0.35871178 0.56354684 0
3.9390004 -0.36518389 0.56359196 0
3.9410002 -0.37175152 0.56368214 0
3.9430003 -0.37832642 0.56377232 0
3.9460003 -0.38500413 0.56390762 0
3.9500003 -0.39179006 0.56408799 0
3.9560003 -0.39878884 0.56435859 0
4.1530004 -0.46572095 0.57324231 0
4.1460004 -0.47169515 0.57292664 0
4.1400003 -0.47775954 0.5726561 0
4.1360002 -0.48403677 0.57247567 0
4.132 -0.49029961 0.57229531 0
4.1290002 -0.49666885 0.57216001 0
4.1270003 -0.50314993 0.57206982 0
4.1259999 -0.50974822 0.57202476 0
4.1259999 -0.51646924 0.57202476 0
4.1259999 -0.5231902 0.57202476 0
4.1270003 -0.5300411 0.57206982 0
4.1280003 -0.53689557 0.57211494 0
4.131 -0.54402065 0.57225025 0
4.1350002 -0.55129176 0.57243061 0
4.1400003 -0.55871445 0.5726561 0
4.2810001 0.080010429 0.57201391 0
4.2740002 0.072795197 0.57171088 0
4.2680001 0.065634087 0.57145113 0
4.2670002 0.058629896 0.57140785 0
4.2750001 0.051856596 0.57175422 0
4.2820001 0.045030985 0.57205725 0
4.29 0.038201768 0.57240355 0
4.2980003 0.031343687 0.57274985 0
4.3060002 0.024456751 0.57309622 0
4.3140001 0.01754095 0.57344258 0
4.322 0.010596287 0.57378888 0
4.3300004 0.0036227666 0.57413518 0
4.3380003 -0.0033796169 0.57448155 0
4.3460002 -0.010410868 0.57482785 0
4.3540001 -0.017470969 0.57517421 0
4.362 -0.024559936 0.57552052 0
4.3710003 -0.031674154 0.57591015 0
4.1810002 -0.073280796 0.56768477 0
4.1750002 -0.080046877 0.56742501 0
4.171 -0.086812966 0.56725186 0
4.1680002 -0.093577251 0.56712198 0
4.1660004 -0.10034513 0.56703544 0
4.1660004 -0.10713828 0.56703544 0
4.1660004 -0.11393142 0.56703544 0
4.1670003 -0.12074441 0.56707871 0
4.1690001 -0.12758264 0.56716532 0
4.1730003 -0.13447499 0.56733847 0
4.178 -0.14140703 0.56755495 0
4.1849999 -0.14841121 0.56785798 0
4.1930003 -0.15546952 0.56820428 0
4.2010002 -0.16255668 0.56855059 0
4.2090001 -0.1696727 0.56889695 0
4.217 -0.17681758 0.56924325 0
3.9660003 -0.30329522 0.55837715 0
3.9590003 -0.30920988 0.55807412 0
3.9540002 -0.31525084 0.55785763 0
3.9490004 -0.32127377 0.55764121 0
3.9460003 -0.3274374 0.55751133 0
3.9430003 -0.33359018 0.55738145 0
3.9420002 -0.33989808 0.55733812 0
3.9400003 -0.34611762 0.55725157 0
3.9400003 -0.35250312 0.55725157 0
3.9400003 -0.35888857 0.55725157 0
3.9410002 -0.36536425 0.55729485 0
3.9420002 -0.37184352 0.55733812 0
3.9450002 -0.37851399 0.557468 0
3.9480002 -0.38519531 0.55759788 0
3.9520004 -0.39198485 0.55777109 0
3.9590003 -0.39908645 0.55807412 0
4.1540003 -0.46583277 0.56651592 0
4.1460004 -0.47169515 0.56616962 0
4.1410003 -0.47787499 0.56595314 0
4.1360002 -0.48403677 0.56573665 0
4.1330004 -0.49041867 0.56560683 0
4.1300001 -0.49678972 0.56547689 0
4.1280003 -0.50327259 0.56539035 0
4.1270003 -0.50987273 0.56534708 0
4.1270003 -0.51659554 0.56534708 0
4.1270003 -0.52331829 0.56534708 0
4.1280003 -0.53017098 0.56539035 0
4.1290002 -0.53702724 0.56543362 0
4.132 -0.54415405 0.5655635 0
4.1360002 -0.55142707 0.56573665 0
4.1410003 -0.55885154 0.56595314 0
4.2800002 0.079977959 0.56497186 0
4.2740002 0.072795197 0.56472296 0
4.2680001 0.065634087 0.56447399 0
4.2670002 0.058629896 0.5644325 0
4.2750001 0.051856596 0.56476444 0
4.2820001 0.045030985 0.56505483 0
4.29 0.038201768 0.56538671 0
4.2980003 0.031343687 0.56571865 0
4.3060002 0.024456751 0.56605053 0
4.3140001 0.01754095 0.56638241 0
4.322 0.010596287 0.56671435 0
4.3300004 0.0036227666 0.56704623 0
4.3380003 -0.0033796169 0.56737816 0
4.3460002 -0.010410868 0.56771004 0
4.3540001 -0.017470969 0.56804192 0
4.362 -0.024559936 0.5683738 0
4.3710003 -0.031674154 0.56874722 0
4.1810002 -0.073280796 0.56086457 0
4.1750002 -0.080046877 0.56061566 0
4.171 -0.086812966 0.56044972 0
4.1680002 -0.093577251 0.56032526 0
4.1660004 -0.10034513 0.5602423 0
4.1660004 -0.10713828 0.5602423 0
4.1660004 -0.11393142 0.5602423 0
4.1670003 -0.12074441 0.56028378 0
4.1690001 -0.12758264 0.56036675 0
4.1730003 -0.13447499 0.56053269 0
4.178 -0.14140703 0.56074011 0
4.1849999 -0.14841121 0.56103051 0
4.1930003 -0.15546952 0.56136245 0
4.2010002 -0.16255668 0.56169432 0
3.9700003 -0.3035838 0.55211067 0
3.9620004 -0.30943176 0.55177879 0
3.9560003 -0.31540236 0.55152988 0
3.9520004 -0.32150647 0.55136395 0
3.9480002 -0.3275961 0.55119801 0
3.9460003 -0.33383369 0.55111504 0
3.9440002 -0.34006402 0.55103201 0
3.9430003 -0.34637195 0.55099058 0
3.9420002 -0.35267627 0.55094904 0
3.9420002 -0.35906532 0.55094904 0
3.9430003 -0.36554465 0.55099058 0
3.9450002 -0.37211949 0.55107355 0
3.9470003 -0.37870163 0.55115652 0
3.9510002 -0.3854821 0.55132246 0
3.9560003 -0.39237449 0.55152988 0
4.1560001 -0.46605647 0.55982739 0
4.1480002 -0.47192243 0.55949551 0
4.1430001 -0.47810587 0.55928802 0
4.138 -0.48427129 0.5590806 0
4.1340003 -0.49053773 0.55891466 0
4.132 -0.49703142 0.55883169 0
4.1300001 -0.50351793 0.55874872 0
4.1290002 -0.51012164 0.55870724 0
4.1280003 -0.51672179 0.55866575 0
4.1280003 -0.52344638 0.55866575 0
4.1290002 -0.53030086 0.55870724 0
4.131 -0.53729057 0.55879021 0
4.1340003 -0.54442108 0.55891466 0
4.138 -0.55169761 0.5590806 0
4.1430001 -0.55912572 0.55928802 0
4.2800002 0.079977959 0.55797309 0
4.2740002 0.072795197 0.55773497 0
4.2680001 0.065634087 0.55749691 0
4.2670002 0.058629896 0.55745721 0
4.2750001 0.051856596 0.55777466 0
4.2820001 0.045030985 0.55805242 0
4.29 0.038201768 0.55836993 0
4.2980003 0.031343687 0.55868739 0
4.3060002 0.024456751 0.5590049 0
4.3140001 0.01754095 0.55932236 0
4.322 0.010596287 0.55963981 0
4.3300004 0.0036227666 0.55995727 0
4.3380003 -0.0033796169 0.56027472 0
4.3460002 -0.010410868 0.56059223 0
4.3540001 -0.017470969 0.56090969 0
4.362 -0.024559936 0.56122714 0
4.3710003 -0.031674154 0.56158429 0
4.1810002 -0.073280796 0.55404437 0
4.1750002 -0.080046877 0.5538063 0
4.171 -0.086812966 0.55364758 0
4.1680002 -0.093577251 0.55352849 0
4.1660004 -0.10034513 0.55344915 0
4.1660004 -0.10713828 0.55344915 0
4.1660004 -0.11393142 0.55344915 0
4.1670003 -0.12074441 0.55348885 0
4.1690001 -0.12758264 0.55356818 0
4.1730003 -0.13447499 0.55372691 0
4.178 -0.14140703 0.55392534 0
4.1849999 -0.14841121 0.55420315 0
4.1930003 -0.15546952 0.55452061 0
3.9660003 -0.30972758 0.54551238 0
3.9600003 -0.31570542 0.54527426 0
3.9550002 -0.32173914 0.54507583 0
3.9520004 -0.32791358 0.5449568 0
3.9490004 -0.33407721 0.54483777 0
3.9470003 -0.34031296 0.54475838 0
3.9460003 -0.34662631 0.54471874 0
3.9450002 -0.352936 0.54467905 0
3.9460003 -0.3594189 0.54471874 0
3.9470003 -0.3659054 0.54475838 0
3.9480002 -0.37239549 0.54479808 0
3.9510002 -0.37907681 0.54491711 0
3.9540002 -0.38576895 0.5450362 0
3.9600003 -0.39276409 0.54527426 0
4.151 -0.47226334 0.55285388 0
4.145 -0.47833675 0.55261576 0
4.1400003 -0.4845058 0.55241734 0
4.1370001 -0.49089488 0.55229831 0
4.1340003 -0.49727315 0.55217922 0
4.132 -0.5037632 0.55209988 0
4.131 -0.51037061 0.55206019 0
4.1300001 -0.51697433 0.55202055 0
4.1300001 -0.5237025 0.55202055 0
4.132 -0.53069049 0.55209988 0
4.1330004 -0.53755403 0.55213958 0
4.1360002 -0.54468799 0.55225861 0
4.1410003 -0.55210352 0.55245703 0
4.2800002 0.079977959 0.55097431 0
4.2740002 0.072795197 0.55074704 0
4.2680001 0.065634087 0.55051976 0
4.2670002 0.058629896 0.55048186 0
4.2750001 0.051856596 0.55078495 0
4.2820001 0.045030985 0.55105007 0
4.29 0.038201768 0.5513531 0
4.2980003 0.031343687 0.55165613 0
4.3060002 0.024456751 0.55195916 0
4.3140001 0.01754095 0.55226225 0
4.322 0.010596287 0.55256528 0
4.3300004 0.0036227666 0.55286831 0
4.3380003 -0.0033796169 0.55317134 0
4.3460002 -0.010410868 0.55347437 0
4.3540001 -0.017470969 0.55377746 0
4.3630004 -0.024554523 0.55411834 0
4.3710003 -0.031674154 0.55442142 0
4.1810002 -0.073280796 0.54722416 0
4.1750002 -0.080046877 0.54699689 0
4.171 -0.086812966 0.54684538 0
4.1680002 -0.093577251 0.54673177 0
4.1660004 -0.10034513 0.54665601 0
4.1660004 -0.10713828 0.54665601 0
4.1660004 -0.11393142 0.54665601 0
4.1670003 -0.12074441 0.54669386 0
4.1690001 -0.12758264 0.54676962 0
4.1730003 -0.13447499 0.54692113 0
4.178 -0.14140703 0.54711056 0
4.1849999 -0.14841121 0.54737568 0
3.9720004 -0.31017134 0.5393073 0
3.9650002 -0.31608418 0.53904212 0
3.9600003 -0.32212695 0.53885269 0
3.9560003 -0.32823104 0.53870118 0
3.9530003 -0.33440188 0.53858757 0
3.9510002 -0.34064487 0.53851175 0
3.9500003 -0.3469654 0.5384739 0
3.9490004 -0.35328236 0.53843606 0
3.9500003 -0.35977244 0.5384739 0
3.9500003 -0.36617598 0.5384739 0
3.9520004 -0.37276348 0.53854966 0
3.9560003 -0.37954581 0.53870118 0
3.9600003 -0.38634253 0.53885269 0
3.9660003 -0.39334854 0.53908002 0
4.1560001 -0.47283155 0.54627717 0
4.1490002 -0.47879854 0.54601204 0
4.1440001 -0.48497477 0.54582262 0
4.1400003 -0.49125203 0.54567111 0
4.1370001 -0.49763572 0.5455575 0
4.1350002 -0.5041312 0.54548168 0
4.1340003 -0.51074398 0.54544383 0
4.1330004 -0.51735312 0.54540598 0
4.1340003 -0.5242148 0.54544383 0
4.1350002 -0.53108013 0.54548168 0
4.1370001 -0.53808069 0.5455575 0
4.1400003 -0.54522192 0.54567111 0
4.1440001 -0.55250937 0.54582262 0
4.2800002 0.079977959 0.54397553 0
4.2740002 0.072795197 0.54375911 0
4.2680001 0.065634087 0.54354262 0
4.2670002 0.058629896 0.54350656 0
4.2750001 0.051856596 0.54379517 0
4.2820001 0.045030985 0.54404771 0
4.29 0.038201768 0.54433632 0
4.2980003 0.031343687 0.54462492 0
4.3060002 0.024456751 0.54491353 0
4.3140001 0.01754095 0.54520214 0
4.322 0.010596287 0.54549074 0
4.3300004 0.0036227666 0.54577935 0
4.3380003 -0.0033796169 0.54606795 0
4.3460002 -0.010410868 0.54635656 0
4.3540001 -0.017470969 0.54664516 0
4.3630004 -0.024554523 0.54696989 0
4.3710003 -0.031674154 0.5472585 0
4.1810002 -0.073280796 0.54040396 0
4.1750002 -0.080046877 0.54018754 0
4.171 -0.086812966 0.54004323 0
4.1680002 -0.093577251 0.53993499 0
4.1660004 -0.10034513 0.53986287 0
4.1660004 -0.10713828 0.53986287 0
4.1660004 -0.11393142 0.53986287 0
4.1670003 -0.12074441 0.53989893 0
4.1690001 -0.12758264 0.53997111 0
4.1730003 -0.13447499 0.54011536 0
4.178 -0.14140703 0.54029578 0
4.1849999 -0.14841121 0.54054832 0
3.9810002 -0.31083691 0.53318876 0
3.9720004 -0.31661454 0.53286409 0
3.9660003 -0.32259235 0.53264761 0
3.9620004 -0.32870728 0.53250331 0
3.9580002 -0.33480772 0.532359 0
3.9560003 -0.34105974 0.53228688 0
3.9550002 -0.34738931 0.53225076 0
3.9540002 -0.35371527 0.5322147 0
3.9550002 -0.36021438 0.53225076 0
3.9560003 -0.36671713 0.53228688 0
3.9580002 -0.37331542 0.532359 0
3.9620004 -0.38010859 0.53250331 0
3.9670002 -0.38701177 0.53268373 0
4.1620002 -0.47351336 0.53971857 0
4.1540003 -0.47937575 0.5394299 0
4.1490002 -0.48556098 0.53924954 0
4.1440001 -0.49172825 0.53906918 0
4.1410003 -0.49811915 0.53896093 0
4.1389999 -0.5046218 0.53888881 0
4.138 -0.51124179 0.53885269 0
4.138 -0.51798445 0.53885269 0
4.138 -0.52472711 0.53885269 0
4.1389999 -0.53159958 0.53888881 0
4.1420002 -0.53873909 0.53899705 0
4.145 -0.54588938 0.53910524 0
4.2800002 0.079977959 0.53697675 0
4.2740002 0.072795197 0.53677112 0
4.2680001 0.065634087 0.53656548 0
4.2670002 0.058629896 0.53653121 0
4.2750001 0.051856596 0.53680539 0
4.2820001 0.045030985 0.5370453 0
4.29 0.038201768 0.53731948 0
4.2980003 0.031343687 0.53759366 0
4.3060002 0.024456751 0.53786784 0
4.3140001 0.01754095 0.53814203 0
4.322 0.010596287 0.53841621 0
4.3300004 0.0036227666 0.53869039 0
4.3380003 -0.0033796169 0.53896457 0
4.3460002 -0.010410868 0.53923869 0
4.3540001 -0.017470969 0.53951293 0
4.3630004 -0.024554523 0.53982139 0
4.3710003 -0.031674154 0.54009557 0
4.1810002 -0.073280796 0.53358376 0
4.1750002 -0.080046877 0.53337812 0
4.171 -0.086812966 0.53324103 0
4.1680002 -0.093577251 0.53313828 0
4.1660004 -0.10034513 0.53306973 0
4.1660004 -0.10713828 0.53306973 0
4.1660004 -0.11393142 0.53306973 0
4.1670003 -0.12074441 0.533104 0
4.1690001 -0.12758264 0.53317255 0
4.1730003 -0.13447499 0.53330958 0
4.178 -0.14140703 0.533481 0
3.9830003 -0.3174479 0.52679789 0
3.9740002 -0.32321286 0.52648944 0
3.9690003 -0.32926285 0.52631807 0
3.9660003 -0.33545712 0.52621526 0
3.9630003 -0.34164056 0.52611244 0
3.9620004 -0.34798276 0.52607816 0
3.9610002 -0.35432133 0.52604389 0
3.9620004 -0.36083308 0.52607816 0
3.9630003 -0.36734843 0.52611244 0
3.9660003 -0.37405139 0.52621526 0
3.9700003 -0.38085899 0.52635235 0
4.171 -0.47453615 0.53324103 0
4.1610003 -0.48018387 0.53289831 0
4.1550002 -0.4862645 0.53269273 0
4.1500001 -0.49244255 0.53252137 0
4.1470003 -0.49884427 0.53241855 0
4.145 -0.5053578 0.53234994 0
4.1430001 -0.51186419 0.53228146 0
4.1430001 -0.51861578 0.53228146 0
4.1430001 -0.52536744 0.53228146 0
4.145 -0.53237885 0.53234994 0
4.1480002 -0.53952914 0.53245282 0
4.152 -0.54682374 0.53258991 0
4.2800002 0.079977959 0.52997798 0
4.2740002 0.072795197 0.52978319 0
4.2680001 0.065634087 0.52958834 0
4.2670002 0.058629896 0.52955592 0
4.2750001 0.051856596 0.52981567 0
4.283 0.045054432 0.53007537 0
4.29 0.038201768 0.53030264 0
4.2980003 0.031343687 0.5305624 0
4.3060002 0.024456751 0.53082216 0
4.3140001 0.01754095 0.53108191 0
4.322 0.010596287 0.53134167 0
4.3300004 0.0036227666 0.53160143 0
4.3380003 -0.0033796169 0.53186119 0
4.3460002 -0.010410868 0.53212088 0
4.3540001 -0.017470969 0.53238064 0
4.3630004 -0.024554523 0.53267288 0
4.3710003 -0.031674154 0.53293264 0
4.1810002 -0.073280796 0.52676356 0
4.1750002 -0.080046877 0.52656877 0
4.171 -0.086812966 0.52643889 0
4.1680002 -0.093577251 0.5263415 0
4.1660004 -0.10034513 0.52627659 0
4.1660004 -0.10713828 0.52627659 0
4.1660004 -0.11393142 0.52627659 0
4.1670003 -0.12074441 0.52630901 0
4.1690001 -0.12758264 0.52637398 0
4.1730003 -0.13447499 0.52650386 0
4.178 -0.14140703 0.52666616 0
3.9970002 -0.31202021 0.52078938 0
3.9910002 -0.31805396 0.5205946 0
3.9860003 -0.32414365 0.52043223 0
3.9800003 -0.33013588 0.52023745 0
3.9750004 -0.33618766 0.52007508 0
3.9720004 -0.34238735 0.51997769 0
3.9700003 -0.34866098 0.51991272 0
3.9690003 -0.355014 0.51988029 0
3.9700003 -0.36154017 0.51991272 0
3.9730003 -0.36825034 0.52001011 0
3.9770002 -0.37506333 0.52013999 0
4.1719999 -0.48145372 0.52647138 0
4.164 -0.48731974 0.52621162 0
4.158 -0.49339497 0.52601683 0
4.1540003 -0.49969023 0.52588695 0
4.152 -0.50621641 0.52582198 0
4.1500001 -0.51273543 0.52575707 0
4.1500001 -0.51949966 0.52575707 0
4.151 -0.52639198 0.52578956 0
4.1530004 -0.53341782 0.52585447 0
4.1560001 -0.5405826 0.52595186 0
4.2800002 0.079977959 0.5229792 0
4.2740002 0.072795197 0.5227952 0
4.2680001 0.065634087 0.52261126 0
4.2670002 0.058629896 0.52258056 0
4.2750001 0.051856596 0.5228259 0
4.283 0.045054432 0.52307117 0
4.29 0.038201768 0.52328587 0
4.2980003 0.031343687 0.5235312 0
4.3060002 0.024456751 0.52377647 0
4.3140001 0.01754095 0.5240218 0
4.322 0.010596287 0.52426714 0
4.3300004 0.0036227666 0.52451247 0
4.3380003 -0.0033796169 0.52475774 0
4.3460002 -0.010410868 0.52500308 0
4.3540001 -0.017470969 0.52524841 0
4.3630004 -0.024554523 0.52552438 0
4.3710003 -0.031674154 0.52576971 0
4.1810002 -0.073280796 0.51994342 0
4.1750002 -0.080046877 0.51975942 0
4.171 -0.086812966 0.51963675 0
4.1680002 -0.093577251 0.51954472 0
4.1660004 -0.10034513 0.51948345 0
4.1660004 -0.10713828 0.51948345 0
4.1660004 -0.11393142 0.51948345 0
4.1670003 -0.12074441 0.51951408 0
4.1690001 -0.12758264 0.51957542 0
4.1730003 -0.13447499 0.51969808 0
4.0380001 -0.25599214 0.51555836 0
4.0320001 -0.26219726 0.51537436 0
4.027 -0.268442 0.515221 0
4.0210004 -0.27460563 0.51503706 0
4.0160003 -0.28081253 0.5148837 0
4.0100002 -0.28693467 0.5146997 0
4.0050001 -0.29310369 0.51454639 0
3.9990003 -0.29918432 0.51436239 0
3.9940002 -0.30531549 0.51420909 0
3.9880002 -0.31135461 0.51402509 0
3.9830003 -0.3174479 0.51387179 0
3.9770002 -0.32344556 0.51368779 0
3.9720004 -0.32950094 0.51353449 0
3.9680002 -0.33561945 0.51341182 0
3.9650002 -0.3418065 0.51331979 0
3.9630003 -0.34806755 0.51325846 0
3.9630003 -0.35449451 0.51325846 0
3.9630003 -0.36092147 0.51325846 0
3.9650002 -0.3675288 0.51331979 0
3.9690003 -0.37432739 0.51344246 0
3.9750004 -0.38132796 0.51362646 0
4.178 -0.48214638 0.51985139 0
4.1730003 -0.48837495 0.51969808 0
4.1670003 -0.49446642 0.51951408 0
4.1620002 -0.50065702 0.51936078 0
4.1589999 -0.50707501 0.51926875 0
4.1570001 -0.51360661 0.51920742 0
4.1570001 -0.52038354 0.51920742 0
4.158 -0.5272885 0.51923811 0
4.1620002 -0.53458673 0.51936078 0
4.2800002 0.079977959 0.51598042 0
4.2740002 0.072795197 0.51580727 0
4.2680001 0.065634087 0.51563412 0
4.2670002 0.058629896 0.51560521 0
4.2750001 0.051856596 0.51583612 0
4.283 0.045054432 0.51606703 0
4.29 0.038201768 0.51626903 0
4.2980003 0.031343687 0.51649994 0
4.3060002 0.024456751 0.51673079 0
4.3140001 0.01754095 0.51696169 0
4.322 0.010596287 0.5171926 0
4.3300004 0.0036227666 0.51742351 0
4.3380003 -0.0033796169 0.51765436 0
4.3460002 -0.010410868 0.51788527 0
4.3540001 -0.017470969 0.51811612 0
4.3630004 -0.024554523 0.51837587 0
4.3710003 -0.031674154 0.51860678 0
4.1810002 -0.073280796 0.51312321 0
4.1750002 -0.080046877 0.51295 0
4.171 -0.086812966 0.51283461 0
4.1680002 -0.093577251 0.512748 0
4.1660004 -0.10034513 0.51269031 0
4.1660004 -0.10713828 0.51269031 0
4.1660004 -0.11393142 0.51269031 0
4.1670003 -0.12074441 0.51271915 0
4.1690001 -0.12758264 0.51277685 0
4.1730003 -0.13447499 0.51289231 0
4.105 -0.17297909 0.51092976 0
4.099 -0.17944574 0.51075661 0
4.0929999 -0.18589073 0.5105834 0
4.0880003 -0.19235379 0.51043916 0
4.0820003 -0.19875731 0.51026595 0
4.0760002 -0.20513918 0.51009279 0
4.0710001 -0.21154451 0.50994849 0
4.0650001 -0.2178849 0.50977534 0
4.059 -0.22420363 0.50960219 0
4.0540004 -0.23055124 0.50945789 0
4.0480003 -0.23682849 0.50928468 0
4.0430002 -0.24313819 0.50914037 0
4.0370002 -0.24937396 0.50896722 0
4.0320001 -0.25564581 0.50882292 0
4.026 -0.26184008 0.50864977 0
4.0210004 -0.26807407 0.50850546 0
4.0150003 -0.27422684 0.50833225 0
4.0100002 -0.28042293 0.50818801 0
4.0040002 -0.28653422 0.5080148 0
3.9990003 -0.29269242 0.5078705 0
3.9930003 -0.29876226 0.50769734 0
3.9880002 -0.30488256 0.50755304 0
3.9830003 -0.31098485 0.50740874 0
3.9770002 -0.31699333 0.50723559 0
3.9720004 -0.32305774 0.50709128 0
3.9670002 -0.3291041 0.50694698 0
3.9630003 -0.3352136 0.50683153 0
3.9600003 -0.34139165 0.50674492 0
3.9590003 -0.34772843 0.50671607 0
3.9590003 -0.35414818 0.50671607 0
3.9590003 -0.36056793 0.50671607 0
3.9610002 -0.36716804 0.50677377 0
3.9630003 -0.37377542 0.50683153 0
3.9680002 -0.38067138 0.50697583 0
3.9750004 -0.38777658 0.50717783 0
4.1930003 -0.45651069 0.51346952 0
4.1870003 -0.46269232 0.51329637 0
4.1810002 -0.46885234 0.51312321 0
4.1760001 -0.47510433 0.51297891 0
4.1700001 -0.48122287 0.5128057 0
4.165 -0.48743695 0.5126614 0
4.1589999 -0.493514 0.51248825 0
4.1550002 -0.49981108 0.51237279 0
4.1530004 -0.50633907 0.51231509 0
4.151 -0.51285982 0.51225734 0
4.151 -0.5196259 0.51225734 0
4.152 -0.52652007 0.51228625 0
4.1540003 -0.53354776 0.51234394 0
4.158 -0.54084593 0.5124594 0
4.2800002 0.079977959 0.50898165 0
4.2740002 0.072795197 0.50881928 0
4.2680001 0.065634087 0.50865698 0
4.2670002 0.058629896 0.50862992 0
4.2750001 0.051856596 0.5088464 0
4.283 0.045054432 0.50906283 0
4.29 0.038201768 0.50925219 0
4.2980003 0.031343687 0.50946867 0
4.3060002 0.024456751 0.50968516 0
4.3140001 0.01754095 0.50990158 0
4.322 0.010596287 0.51011807 0
4.3300004 0.0036227666 0.51033449 0
4.3380003 -0.0033796169 0.51055098 0
4.3460002 -0.010410868 0.5107674 0
4.3540001 -0.017470969 0.51098388 0
4.3630004 -0.024554523 0.51122737 0
4.3710003 -0.031674154 0.51144385 0
4.1810002 -0.073280796 0.50630301 0
4.1750002 -0.080046877 0.50614065 0
4.171 -0.086812966 0.50603241 0
4.1680002 -0.093577251 0.50595123 0
4.1660004 -0.10034513 0.50589716 0
4.1660004 -0.10713828 0.50589716 0
4.1660004 -0.11393142 0.50589716 0
4.1670003 -0.12074441 0.50592422 0
4.1690001 -0.12758264 0.50597835 0
4.1730003 -0.13447499 0.50608653 0
4.112 -0.15982752 0.50443608 0
4.1059999 -0.16632843 0.50427371 0
4.1000004 -0.17280772 0.50411135 0
4.0950003 -0.17930143 0.50397611 0
4.0890002 -0.18573922 0.50381374 0
4.0830002 -0.19215536 0.50365138 0
4.0770001 -0.19854988 0.50348908 0
4.072 -0.20496602 0.50335377 0
4.066 -0.21131903 0.50319141 0
4.0599999 -0.2176504 0.50302911 0
4.0550003 -0.22400881 0.50289381 0
4.0490003 -0.2302987 0.50273144 0
4.0440001 -0.23661925 0.5025962 0
4.0380001 -0.24286763 0.50243384 0
4.033 -0.24915029 0.50229853 0
4.027 -0.25535718 0.50213623 0
4.0220003 -0.26160198 0.50200093 0
4.0160003 -0.2677674 0.50183856 0
4.0110002 -0.2739743 0.50170326 0
4.0050001 -0.28009823 0.50154096 0
4 -0.28626725 0.50140566 0
3.9940002 -0.2923497 0.50124329 0
3.9890003 -0.29848084 0.50110805 0
3.9840002 -0.30459395 0.50097275 0
3.9780002 -0.31061506 0.50081038 0
3.9730003 -0.3166903 0.50067508 0
3.9680002 -0.32274747 0.50053984 0
3.9630003 -0.32878661 0.50040454 0
3.9600003 -0.33497009 0.50032336 0
3.9570003 -0.34114271 0.50024223 0
3.9560003 -0.34747407 0.50021517 0
3.9560003 -0.35388845 0.50021517 0
3.9560003 -0.36030278 0.50021517 0
3.9570003 -0.36680728 0.50024223 0
3.9600003 -0.37349942 0.50032336 0
3.9640002 -0.38029617 0.5004316 0
3.9700003 -0.38729855 0.50059396 0
4.1930003 -0.44966885 0.50662768 0
4.1870003 -0.45586133 0.50646532 0
4.1810002 -0.46203214 0.50630301 0
4.1760001 -0.46829316 0.50616771 0
4.1700001 -0.47442248 0.50600535 0
4.165 -0.48064563 0.5058701 0
4.1589999 -0.48673347 0.50570774 0
4.1540003 -0.49291873 0.50557244 0
4.151 -0.49932769 0.50549126 0
4.1480002 -0.5057258 0.50541013 0
4.1470003 -0.512362 0.50538307 0
4.1460004 -0.51899463 0.50535601 0
4.1470003 -0.52587974 0.50538307 0
4.1490002 -0.53289831 0.50543714 0
4.1530004 -0.54018754 0.50554538 0
4.158 -0.54762465 0.50568068 0
4.2800002 0.079977959 0.50198287 0
4.2740002 0.072795197 0.50183135 0
4.2680001 0.065634087 0.50167984 0
4.2670002 0.058629896 0.50165457 0
4.2750001 0.051856596 0.50185663 0
4.283 0.045054432 0.50205863 0
4.29 0.038201768 0.50223541 0
4.2980003 0.031343687 0.50243741 0
4.3060002 0.024456751 0.50263947 0
4.3140001 0.01754095 0.50284147 0
4.322 0.010596287 0.50304353 0
4.3300004 0.0036227666 0.50324553 0
4.3380003 -0.0033796169 0.50344759 0
4.3460002 -0.010410868 0.50364959 0
4.3540001 -0.017470969 0.50385165 0
4.3630004 -0.024554523 0.50407892 0
4.3710003 -0.031674154 0.50428092 0
4.1810002 -0.073280796 0.49948281 0
4.1750002 -0.080046877 0.4993313 0
4.171 -0.086812966 0.49923027 0
4.1680002 -0.093577251 0.49915451 0
4.1660004 -0.10034513 0.49910399 0
4.1660004 -0.10713828 0.49910399 0
4.1660004 -0.11393142 0.49910399 0
4.1670003 -0.12074441 0.49912924 0
4.1690001 -0.12758264 0.49917975 0
4.1140003 -0.1531895 0.49779081 0
4.1080003 -0.15970485 0.4976393 0
4.1030002 -0.16623102 0.49751306 0
4.0970001 -0.17270491 0.49736151 0
4.0910001 -0.17915714 0.49721 0
4.086 -0.18562558 0.49708372 0
4.0799999 -0.19203632 0.49693221 0
4.0740004 -0.19842541 0.49678069 0
4.0690002 -0.20483613 0.49665442 0
4.0630002 -0.21118374 0.49650291 0
4.0580001 -0.21755661 0.49637663 0
4.052 -0.22386271 0.49622512 0
4.046 -0.23014718 0.4960736 0
4.0410004 -0.23646231 0.49594733 0
4.0350003 -0.24270529 0.49579582 0
4.0300002 -0.24898255 0.49566954 0
4.0240002 -0.25518402 0.49551803 0
4.0190001 -0.26142341 0.49539176 0
4.0139999 -0.26764473 0.49526548 0
4.0080004 -0.27378491 0.49511397 0
4.0030003 -0.27996835 0.4949877 0
3.9970002 -0.28606704 0.49483618 0
3.9920003 -0.29221261 0.49470991 0
3.9870002 -0.29834014 0.49458367 0
3.9810002 -0.3043775 0.49443215 0
3.9760003 -0.31046715 0.49430588 0
3.9710002 -0.31653878 0.49417961 0
3.9650002 -0.32251477 0.49402809 0
3.9610002 -0.32862788 0.49392706 0
3.9580002 -0.33480772 0.4938513 0
3.9550002 -0.34097674 0.49377555 0
3.9540002 -0.34730452 0.4937503 0
3.9540002 -0.35371527 0.4937503 0
3.9540002 -0.36012599 0.4937503 0
3.9550002 -0.36662689 0.49377555 0
3.9580002 -0.37331542 0.4938513 0
3.9610002 -0.38001478 0.49392706 0
3.9670002 -0.38701177 0.49407858 0
4.1940002 -0.44293159 0.49981108 0
4.1890001 -0.44924313 0.49968484 0
4.1830001 -0.45542839 0.4995333 0
4.178 -0.46170205 0.49940705 0
4.1719999 -0.4678458 0.49925551 0
4.1670003 -0.47408158 0.49912924 0
4.1610003 -0.48018387 0.49897772 0
4.1560001 -0.48638174 0.49885148 0
4.151 -0.49256158 0.49872521 0
4.1480002 -0.49896511 0.49864942 0
4.145 -0.5053578 0.49857366 0
4.1440001 -0.51198858 0.49854842 0
4.1430001 -0.51861578 0.49852318 0
4.1440001 -0.52549547 0.49854842 0
4.1460004 -0.53250873 0.49859893 0
4.1490002 -0.53966081 0.49867469 0
4.1540003 -0.54709071 0.49880096 0
4.2800002 0.079977959 0.49498409 0
4.2740002 0.072795197 0.49484339 0
4.2680001 0.065634087 0.4947027 0
4.2670002 0.058629896 0.49467924 0
4.2750001 0.051856596 0.49486685 0
4.283 0.045054432 0.49505445 0
4.29 0.038201768 0.49521858 0
4.2980003 0.031343687 0.49540621 0
4.3060002 0.024456751 0.49559379 0
4.3140001 0.01754095 0.49578139 0
4.322 0.010596287 0.495969 0
4.3300004 0.0036227666 0.49615657 0
4.3380003 -0.0033796169 0.49634418 0
4.3460002 -0.010410868 0.49653175 0
4.3540001 -0.017470969 0.49671936 0
4.3630004 -0.024554523 0.49693042 0
4.1810002 -0.073280796 0.49266261 0
4.1750002 -0.080046877 0.49252188 0
4.171 -0.086812966 0.49242812 0
4.1680002 -0.093577251 0.49235776 0
4.1660004 -0.10034513 0.49231085 0
4.1660004 -0.10713828 0.49231085 0
4.1660004 -0.11393142 0.49231085 0
4.1670003 -0.12074441 0.49233431 0
4.1690001 -0.12758264 0.49238122 0
4.112 -0.15313178 0.49104458 0
4.1059999 -0.15964353 0.49090388 0
4.1000004 -0.16613363 0.49076319 0
4.0950003 -0.17263636 0.49064595 0
4.0890002 -0.17908497 0.49050525 0
4.0840001 -0.18554983 0.49038801 0
4.0780001 -0.19195695 0.49024731 0
4.072 -0.19834243 0.49010661 0
4.0669999 -0.20474955 0.48998934 0
4.0610003 -0.21109356 0.48984867 0
4.0560002 -0.21746279 0.4897314 0
4.0500002 -0.2237653 0.4895907 0
4.0450001 -0.23009667 0.48947346 0
4.039 -0.23635769 0.48933277 0
4.0339999 -0.24265118 0.48921552 0
4.0280004 -0.24887072 0.48907483 0
4.0230002 -0.2551263 0.48895758 0
4.0170002 -0.26130435 0.48881689 0
4.0120001 -0.26752207 0.48869962 0
4.007 -0.27372175 0.48858237 0
4.0009999 -0.27983847 0.48844168 0
3.9960003 -0.28600028 0.48832443 0
3.9910002 -0.29214406 0.48820719 0
3.9850004 -0.29819947 0.48806649 0
3.9800003 -0.30430534 0.48794925 0
3.9750004 -0.31039321 0.48783201 0
3.9690003 -0.31638727 0.48769131 0
3.9640002 -0.3224372 0.48757404 0
3.9590003 -0.32846916 0.4874568 0
3.9560003 -0.33464539 0.48738647 0
3.9540002 -0.34089381 0.48733956 0
3.9530003 -0.34721977 0.48731613 0
3.9520004 -0.35354212 0.48729265 0
3.9530003 -0.36003762 0.48731613 0
3.9540002 -0.36653674 0.48733956 0
3.9560003 -0.37313145 0.48738647 0
3.9600003 -0.37992099 0.48748025 0
3.9650002 -0.38682055 0.4875975 0
4.1920004 -0.44272238 0.49292055 0
4.1860003 -0.44892386 0.49277985 0
4.1810002 -0.45521194 0.49266261 0
4.1750002 -0.46137193 0.49252188 0
4.1700001 -0.46762216 0.49240464 0
4.164 -0.47374064 0.49226397 0
4.1589999 -0.47995296 0.4921467 0
4.1530004 -0.48603001 0.492006 0
4.1490002 -0.49232349 0.49191222 0
4.1460004 -0.49872342 0.49184188 0
4.1430001 -0.50511247 0.49177152 0
4.1420002 -0.51173961 0.49174806 0
4.1420002 -0.51848948 0.49174806 0
4.1420002 -0.52523935 0.49174806 0
4.1440001 -0.53224897 0.49179497 0
4.1460004 -0.53926575 0.49184188 0
4.151 -0.54669029 0.4919591 0
4.2800002 0.079977959 0.48798531 0
4.2740002 0.072795197 0.48785543 0
4.2680001 0.065634087 0.48772559 0
4.2670002 0.058629896 0.48770392 0
4.2750001 0.051856596 0.4878771 0
4.283 0.045054432 0.48805025 0
4.29 0.038201768 0.4882018 0
4.2980003 0.031343687 0.48837495 0
4.3060002 0.024456751 0.4885481 0
4.3140001 0.01754095 0.48872128 0
4.322 0.010596287 0.48889446 0
4.3300004 0.0036227666 0.48906761 0
4.3380003 -0.0033796169 0.48924077 0
4.3460002 -0.010410868 0.48941395 0
4.3540001 -0.017470969 0.4895871 0
4.3630004 -0.024554523 0.48978192 0
4.1810002 -0.073280796 0.48584241 0
4.1750002 -0.080046877 0.48571253 0
4.171 -0.086812966 0.48562595 0
