# .PCD v0.7 - Point Cloud Data file format
VERSION 0.7
FIELDS x y z intensity
SIZE 4 4 4 4
TYPE F F F F
COUNT 1 1 1 1
WIDTH 1507
HEIGHT 1
VIEWPOINT 0 0 0 1 0 0 0
POINTS 1507
DATA ascii
4.8100004 1.6801904 1.4301685 0
4.8160005 1.6745734 1.4315647 0
4.8210001 1.6685467 1.4327281 0
4.8260002 1.6625022 1.4338915 0
4.8310003 1.6564397 1.4350551 0
4.8360004 1.650359 1.4362185 0
4.8420005 1.6446409 1.4376147 0
4.8470001 1.6385223 1.438778 0
4.8520002 1.6323857 1.4399415 0
4.8580003 1.6266065 1.4413377 0
4.8630004 1.620432 1.4425012 0
4.8680005 1.6142396 1.4436647 0
4.8740001 1.6083987 1.4450607 0
4.8790002 1.6021683 1.4462242 0
4.8840003 1.59592 1.4473877 0
4.8900003 1.590018 1.4487838 0
4.8950005 1.5837318 1.4499472 0
4.9000001 1.5774274 1.4511107 0
4.9060001 1.5714639 1.4525068 0
4.9110003 1.5651218 1.4536703 0
4.9170003 1.559117 1.4550666 0
4.9220004 1.5527369 1.4562299 0
4.9270005 1.5463388 1.4573934 0
4.9330001 1.5402725 1.4587895 0
4.9380002 1.5338366 1.4599531 0
4.9440002 1.5277288 1.4613491 0
4.9490004 1.521255 1.4625126 0
4.9550004 1.5151058 1.4639088 0
4.9600005 1.5085942 1.4650723 0
4.9660001 1.5024034 1.4664682 0
4.9720001 1.496191 1.4678645 0
4.9770002 1.4896216 1.469028 0
4.9830003 1.4833678 1.4704241 0
4.9880004 1.4767605 1.4715875 0
4.9940004 1.4704653 1.4729837 0
5.0000005 1.4641483 1.4743799 0
5.0050001 1.4574832 1.4755433 0
5.0110002 1.4511247 1.4769394 0
5.0170002 1.4447446 1.4783356 0
5.0220003 1.4380219 1.4794991 0
5.0280004 1.4316003 1.4808952 0
5.0340004 1.4251572 1.4822913 0
5.0390005 1.4183767 1.4834548 0
5.0450006 1.4118921 1.484851 0
5.0510001 1.4053855 1.4862471 0
5.0570002 1.3988576 1.4876432 0
5.0620003 1.3919995 1.4888067 0
5.0680003 1.3854301 1.4902029 0
5.0740004 1.378839 1.4915991 0
5.0800004 1.3722262 1.4929951 0
5.0860004 1.3655919 1.4943913 0
5.0920005 1.3589358 1.4957875 0
5.0980005 1.3522581 1.4971837 0
5.1030002 1.3452628 1.498347 0
5.1090002 1.3385437 1.4997431 0
5.1150002 1.3318028 1.5011394 0
5.1210003 1.3250403 1.5025355 0
5.1270003 1.3182563 1.5039316 0
5.1330004 1.3114505 1.5053277 0
5.1390004 1.304623 1.506724 0
5.1450005 1.297774 1.5081201 0
5.1510005 1.2909033 1.5095162 0
4.3470001 2.2109232 1.3153129 0
4.3510003 2.2060835 1.3162364 0
4.355 2.2012293 1.3171599 0
4.3590002 2.1963608 1.3180834 0
4.3630004 2.191478 1.319007 0
4.3670001 2.1865807 1.3199306 0
4.3720002 2.1822298 1.321085 0
4.3759999 2.1773019 1.3220085 0
4.3800001 2.1723595 1.3229321 0
4.3840003 2.1674025 1.3238556 0
4.388 2.1624312 1.3247792 0
4.3930001 2.1579974 1.3259337 0
4.3970003 2.1529956 1.3268572 0
4.4010005 2.1479793 1.3277807 0
4.4060001 2.1434948 1.3289351 0
4.4100003 2.1384478 1.3298587 0
4.4140005 2.1333864 1.3307823 0
4.4180002 2.1283104 1.3317058 0
4.4230003 2.1237595 1.3328602 0
4.4270005 2.1186531 1.3337839 0
4.4310002 2.1135318 1.3347074 0
4.4360003 2.1089303 1.3358618 0
4.4400001 2.1037786 1.3367853 0
4.4440002 2.0986125 1.3377088 0
4.4490004 2.0939605 1.3388634 0
4.4530001 2.0887635 1.3397868 0
4.4570003 2.0835526 1.3407104 0
4.4620004 2.07885 1.3418648 0
4.4660001 2.0736079 1.3427883 0
4.4710002 2.0688713 1.3439428 0
4.4750004 2.0635989 1.3448664 0
4.4800005 2.0588279 1.3460208 0
4.4840002 2.0535245 1.3469443 0
4.4880004 2.048207 1.347868 0
4.4930005 2.0433855 1.3490224 0
4.4970002 2.0380371 1.3499459 0
4.5020003 2.0331812 1.3511003 0
4.5060005 2.0278025 1.352024 0
4.5110002 2.022912 1.3531783 0
4.5150003 2.0175025 1.3541019 0
4.5200005 2.0125782 1.3552563 0
4.5240002 2.0071378 1.3561798 0
4.5290003 2.0021791 1.3573343 0
4.5330005 1.9967084 1.3582579 0
4.5380001 1.991715 1.3594123 0
4.5430002 1.9867041 1.3605667 0
4.5470004 1.9811864 1.3614904 0
4.5520005 1.9761415 1.3626448 0
4.5560002 1.9705925 1.3635683 0
4.5610003 1.9655132 1.3647227 0
4.5660005 1.9604158 1.3658772 0
4.5700002 1.9548199 1.3668007 0
4.5750003 1.9496882 1.3679551 0
4.5800004 1.9445384 1.3691096 0
4.5840001 1.9388959 1.370033 0
4.5890002 1.933712 1.3711876 0
4.5940003 1.9285098 1.372342 0
4.5980005 1.9228207 1.3732656 0
4.6030002 1.9175841 1.3744199 0
4.6080003 1.9123297 1.3755745 0
4.6120005 1.9065937 1.376498 0
4.6170001 1.9013047 1.3776524 0
4.6220002 1.8959979 1.3788068 0
4.6270003 1.8906732 1.3799613 0
4.6310005 1.884874 1.3808849 0
4.6360002 1.8795148 1.3820392 0
4.6410003 1.8741376 1.3831937 0
4.6460004 1.8687426 1.3843482 0
4.6510005 1.8633294 1.3855026 0
4.6550002 1.8574505 1.3864261 0
4.6600003 1.8520032 1.3875805 0
4.6650004 1.8465376 1.3887351 0
4.6700001 1.841054 1.3898894 0
4.6750002 1.8355522 1.3910439 0
4.6800003 1.8300327 1.3921983 0
4.6850004 1.8244951 1.3933527 0
4.6890001 1.8185046 1.3942763 0
4.6940002 1.8129326 1.3954307 0
4.6990004 1.8073426 1.3965852 0
4.7040005 1.8017346 1.3977396 0
4.7090001 1.7961085 1.398894 0
4.7140002 1.7904643 1.4000485 0
4.7190003 1.7848023 1.4012029 0
4.7240005 1.7791221 1.4023575 0
4.7290001 1.7734237 1.4035118 0
4.7340002 1.7677075 1.4046663 0
4.7390003 1.7619733 1.4058207 0
4.7440004 1.7562209 1.4069752 0
4.7490001 1.7504505 1.4081296 0
4.7540002 1.744662 1.409284 0
4.7590003 1.7388556 1.4104384 0
4.7640004 1.7330313 1.411593 0
4.7690005 1.7271887 1.4127474 0
4.7740002 1.7213279 1.4139017 0
4.7800002 1.7158517 1.415287 0
4.7850003 1.7099532 1.4164416 0
4.7900004 1.7040367 1.417596 0
4.7950001 1.6981021 1.4187504 0
4.8000002 1.6921496 1.4199048 0
4.8050003 1.686179 1.4210593 0
4.8100004 1.6801904 1.4222138 0
4.8160005 1.6745734 1.4235991 0
4.8210001 1.6685467 1.4247534 0
4.8260002 1.6625022 1.4259079 0
4.8310003 1.6564397 1.4270624 0
4.8360004 1.650359 1.4282168 0
4.8420005 1.6446409 1.4296021 0
4.8470001 1.6385223 1.4307564 0
4.8520002 1.6323857 1.431911 0
4.8580003 1.6266065 1.4332963 0
4.8630004 1.620432 1.4344507 0
4.8680005 1.6142396 1.4356053 0
4.8740001 1.6083987 1.4369905 0
4.8790002 1.6021683 1.4381449 0
4.8840003 1.59592 1.4392993 0
4.8900003 1.590018 1.4406847 0
4.8950005 1.5837318 1.4418392 0
4.9000001 1.5774274 1.4429935 0
4.9060001 1.5714639 1.4443789 0
4.9110003 1.5651218 1.4455333 0
4.9170003 1.559117 1.4469187 0
4.9220004 1.5527369 1.4480731 0
4.9270005 1.5463388 1.4492276 0
4.9330001 1.5402725 1.4506128 0
4.9380002 1.5338366 1.4517673 0
4.9440002 1.5277288 1.4531527 0
4.9490004 1.521255 1.4543071 0
4.9550004 1.5151058 1.4556924 0
4.9600005 1.5085942 1.4568468 0
4.9660001 1.5024034 1.458232 0
4.9720001 1.496191 1.4596175 0
4.9770002 1.4896216 1.4607719 0
4.9830003 1.4833678 1.4621572 0
4.9880004 1.4767605 1.4633117 0
4.9940004 1.4704653 1.464697 0
5.0000005 1.4641483 1.4660823 0
5.0050001 1.4574832 1.4672368 0
5.0110002 1.4511247 1.4686221 0
5.0170002 1.4447446 1.4700074 0
5.0220003 1.4380219 1.4711618 0
5.0280004 1.4316003 1.4725472 0
5.0340004 1.4251572 1.4739325 0
5.0390005 1.4183767 1.475087 0
5.0450006 1.4118921 1.4764724 0
5.0510001 1.4053855 1.4778576 0
5.0570002 1.3988576 1.4792429 0
5.0620003 1.3919995 1.4803973 0
5.0680003 1.3854301 1.4817827 0
5.0740004 1.378839 1.483168 0
5.0800004 1.3722262 1.4845533 0
5.0860004 1.3655919 1.4859387 0
5.0920005 1.3589358 1.487324 0
5.0980005 1.3522581 1.4887093 0
5.1030002 1.3452628 1.4898638 0
5.1090002 1.3385437 1.4912491 0
5.1150002 1.3318028 1.4926344 0
5.1210003 1.3250403 1.4940197 0
5.1270003 1.3182563 1.4954051 0
5.1330004 1.3114505 1.4967904 0
5.1390004 1.304623 1.4981757 0
5.1450005 1.297774 1.4995611 0
5.1510005 1.2909033 1.5009464 0
4.355 2.2012293 1.3100258 0
4.3590002 2.1963608 1.3109422 0
4.3630004 2.191478 1.3118585 0
4.3670001 2.1865807 1.3127748 0
4.3720002 2.1822298 1.3139203 0
4.3759999 2.1773019 1.3148365 0
4.3800001 2.1723595 1.3157529 0
4.3840003 2.1674025 1.3166692 0
4.388 2.1624312 1.3175856 0
4.3930001 2.1579974 1.318731 0
4.3970003 2.1529956 1.3196473 0
4.4010005 2.1479793 1.3205637 0
4.4060001 2.1434948 1.321709 0
4.4100003 2.1384478 1.3226254 0
4.4140005 2.1333864 1.3235418 0
4.4180002 2.1283104 1.3244581 0
4.4230003 2.1237595 1.3256035 0
4.4270005 2.1186531 1.3265198 0
4.4310002 2.1135318 1.3274362 0
4.4360003 2.1089303 1.3285816 0
4.4400001 2.1037786 1.3294979 0
4.4440002 2.0986125 1.3304143 0
4.4490004 2.0939605 1.3315597 0
4.4530001 2.0887635 1.332476 0
4.4570003 2.0835526 1.3333924 0
4.4620004 2.07885 1.3345377 0
4.4660001 2.0736079 1.3354541 0
4.4710002 2.0688713 1.3365996 0
4.4750004 2.0635989 1.3375158 0
4.4800005 2.0588279 1.3386613 0
4.4840002 2.0535245 1.3395777 0
4.4880004 2.048207 1.3404939 0
4.4930005 2.0433855 1.3416394 0
4.4970002 2.0380371 1.3425558 0
4.5020003 2.0331812 1.3437011 0
4.5060005 2.0278025 1.3446175 0
4.5110002 2.022912 1.3457628 0
4.5150003 2.0175025 1.3466792 0
4.5200005 2.0125782 1.3478247 0
4.5240002 2.0071378 1.3487409 0
4.5290003 2.0021791 1.3498863 0
4.5330005 1.9967084 1.3508028 0
4.5380001 1.991715 1.3519481 0
4.5430002 1.9867041 1.3530935 0
4.5470004 1.9811864 1.35401 0
4.5520005 1.9761415 1.3551553 0
4.5560002 1.9705925 1.3560716 0
4.5610003 1.9655132 1.3572171 0
4.5660005 1.9604158 1.3583624 0
4.5700002 1.9548199 1.3592788 0
4.5750003 1.9496882 1.3604243 0
4.5800004 1.9445384 1.3615696 0
4.5840001 1.9388959 1.3624859 0
4.5890002 1.933712 1.3636314 0
4.5940003 1.9285098 1.3647768 0
4.5980005 1.9228207 1.3656932 0
4.6030002 1.9175841 1.3668386 0
4.6080003 1.9123297 1.3679839 0
4.6120005 1.9065937 1.3689004 0
4.6170001 1.9013047 1.3700458 0
4.6220002 1.8959979 1.3711911 0
4.6270003 1.8906732 1.3723366 0
4.6310005 1.884874 1.373253 0
4.6360002 1.8795148 1.3743982 0
4.6410003 1.8741376 1.3755437 0
4.6460004 1.8687426 1.3766892 0
4.6510005 1.8633294 1.3778347 0
4.6550002 1.8574505 1.3787509 0
4.6600003 1.8520032 1.3798963 0
4.6650004 1.8465376 1.3810418 0
4.6700001 1.841054 1.3821871 0
4.6750002 1.8355522 1.3833325 0
4.6800003 1.8300327 1.384478 0
4.6850004 1.8244951 1.3856235 0
4.6890001 1.8185046 1.3865397 0
4.6940002 1.8129326 1.3876852 0
4.6990004 1.8073426 1.3888305 0
4.7040005 1.8017346 1.389976 0
4.7090001 1.7961085 1.3911214 0
4.7140002 1.7904643 1.3922668 0
4.7190003 1.7848023 1.3934124 0
4.7240005 1.7791221 1.3945578 0
4.7290001 1.7734237 1.3957031 0
4.7340002 1.7677075 1.3968486 0
4.7390003 1.7619733 1.3979939 0
4.7440004 1.7562209 1.3991394 0
4.7490001 1.7504505 1.4002848 0
4.7540002 1.744662 1.4014301 0
4.7590003 1.7388556 1.4025756 0
4.7640004 1.7330313 1.4037211 0
4.7690005 1.7271887 1.4048665 0
4.7740002 1.7213279 1.4060118 0
4.7800002 1.7158517 1.4073864 0
4.7850003 1.7099532 1.4085318 0
4.7900004 1.7040367 1.4096773 0
4.7950001 1.6981021 1.4108226 0
4.8000002 1.6921496 1.411968 0
4.8050003 1.686179 1.4131135 0
4.8100004 1.6801904 1.414259 0
4.8160005 1.6745734 1.4156334 0
4.8210001 1.6685467 1.4167788 0
4.8260002 1.6625022 1.4179242 0
4.8310003 1.6564397 1.4190696 0
4.8360004 1.650359 1.4202151 0
4.8420005 1.6446409 1.4215896 0
4.8470001 1.6385223 1.422735 0
4.8520002 1.6323857 1.4238803 0
4.8580003 1.6266065 1.4252549 0
4.8630004 1.620432 1.4264003 0
4.8680005 1.6142396 1.4275458 0
4.8740001 1.6083987 1.4289203 0
4.8790002 1.6021683 1.4300656 0
4.8840003 1.59592 1.4312111 0
4.8900003 1.590018 1.4325856 0
4.8950005 1.5837318 1.4337311 0
4.9000001 1.5774274 1.4348764 0
4.9060001 1.5714639 1.4362509 0
4.9110003 1.5651218 1.4373964 0
4.9170003 1.559117 1.4387708 0
4.9220004 1.5527369 1.4399164 0
4.9270005 1.5463388 1.4410619 0
4.9330001 1.5402725 1.4424361 0
4.9380002 1.5338366 1.4435816 0
4.9440002 1.5277288 1.4449561 0
4.9490004 1.521255 1.4461015 0
4.9550004 1.5151058 1.447476 0
4.9600005 1.5085942 1.4486215 0
4.9660001 1.5024034 1.449996 0
4.9720001 1.496191 1.4513704 0
4.9770002 1.4896216 1.4525158 0
4.9830003 1.4833678 1.4538903 0
4.9880004 1.4767605 1.4550358 0
4.9940004 1.4704653 1.4564104 0
5.0000005 1.4641483 1.4577849 0
5.0050001 1.4574832 1.4589303 0
5.0110002 1.4511247 1.4603046 0
5.0170002 1.4447446 1.4616792 0
5.0220003 1.4380219 1.4628246 0
5.0280004 1.4316003 1.4641992 0
5.0340004 1.4251572 1.4655737 0
5.0390005 1.4183767 1.4667192 0
5.0450006 1.4118921 1.4680936 0
5.0510001 1.4053855 1.469468 0
5.0570002 1.3988576 1.4708426 0
5.0620003 1.3919995 1.471988 0
5.0680003 1.3854301 1.4733624 0
5.0740004 1.378839 1.474737 0
5.0800004 1.3722262 1.4761115 0
5.0860004 1.3655919 1.4774861 0
5.0920005 1.3589358 1.4788605 0
5.0980005 1.3522581 1.4802351 0
5.1030002 1.3452628 1.4813803 0
5.1090002 1.3385437 1.4827549 0
5.1150002 1.3318028 1.4841293 0
5.1210003 1.3250403 1.4855039 0
5.1270003 1.3182563 1.4868785 0
5.1330004 1.3114505 1.488253 0
5.1390004 1.304623 1.4896275 0
5.1450005 1.297774 1.491002 0
5.1510005 1.2909033 1.4923766 0
4.382 2.1806569 1.3090284 0
4.382 2.1734741 1.3090284 0
4.3840003 2.1674025 1.3094829 0
4.388 2.1624312 1.310392 0
4.3930001 2.1579974 1.3115284 0
4.3970003 2.1529956 1.3124375 0
4.4010005 2.1479793 1.3133466 0
4.4060001 2.1434948 1.314483 0
4.4100003 2.1384478 1.3153921 0
4.4140005 2.1333864 1.3163013 0
4.4180002 2.1283104 1.3172103 0
4.4230003 2.1237595 1.3183469 0
4.4270005 2.1186531 1.3192559 0
4.4310002 2.1135318 1.320165 0
4.4360003 2.1089303 1.3213015 0
4.4400001 2.1037786 1.3222106 0
4.4440002 2.0986125 1.3231196 0
4.4490004 2.0939605 1.3242561 0
4.4530001 2.0887635 1.3251652 0
4.4570003 2.0835526 1.3260742 0
4.4620004 2.07885 1.3272108 0
4.4660001 2.0736079 1.3281198 0
4.4710002 2.0688713 1.3292562 0
4.4750004 2.0635989 1.3301654 0
4.4800005 2.0588279 1.3313018 0
4.4840002 2.0535245 1.3322108 0
4.4880004 2.048207 1.33312 0
4.4930005 2.0433855 1.3342565 0
4.4970002 2.0380371 1.3351655 0
4.5020003 2.0331812 1.3363019 0
4.5060005 2.0278025 1.3372111 0
4.5110002 2.022912 1.3383474 0
4.5150003 2.0175025 1.3392566 0
4.5200005 2.0125782 1.3403929 0
4.5240002 2.0071378 1.341302 0
4.5290003 2.0021791 1.3424385 0
4.5330005 1.9967084 1.3433477 0
4.5380001 1.991715 1.344484 0
4.5430002 1.9867041 1.3456204 0
4.5470004 1.9811864 1.3465295 0
4.5520005 1.9761415 1.3476659 0
4.5560002 1.9705925 1.348575 0
4.5610003 1.9655132 1.3497114 0
4.5660005 1.9604158 1.3508478 0
4.5700002 1.9548199 1.3517568 0
4.5750003 1.9496882 1.3528934 0
4.5800004 1.9445384 1.3540298 0
4.5840001 1.9388959 1.3549389 0
4.5890002 1.933712 1.3560753 0
4.5940003 1.9285098 1.3572117 0
4.5980005 1.9228207 1.3581208 0
4.6030002 1.9175841 1.3592571 0
4.6080003 1.9123297 1.3603935 0
4.6120005 1.9065937 1.3613027 0
4.6170001 1.9013047 1.362439 0
4.6220002 1.8959979 1.3635756 0
4.6270003 1.8906732 1.3647119 0
4.6310005 1.884874 1.3656211 0
4.6360002 1.8795148 1.3667574 0
4.6410003 1.8741376 1.3678938 0
4.6460004 1.8687426 1.3690302 0
4.6510005 1.8633294 1.3701667 0
4.6550002 1.8574505 1.3710756 0
4.6600003 1.8520032 1.3722121 0
4.6650004 1.8465376 1.3733485 0
4.6700001 1.841054 1.3744849 0
4.6750002 1.8355522 1.3756213 0
4.6800003 1.8300327 1.3767577 0
4.6850004 1.8244951 1.3778942 0
4.6890001 1.8185046 1.3788031 0
4.6940002 1.8129326 1.3799396 0
4.6990004 1.8073426 1.381076 0
4.7040005 1.8017346 1.3822125 0
4.7090001 1.7961085 1.3833488 0
4.7140002 1.7904643 1.3844852 0
4.7190003 1.7848023 1.3856217 0
4.7240005 1.7791221 1.3867581 0
4.7290001 1.7734237 1.3878944 0
4.7340002 1.7677075 1.3890307 0
4.7390003 1.7619733 1.3901672 0
4.7440004 1.7562209 1.3913037 0
4.7490001 1.7504505 1.39244 0
4.7540002 1.744662 1.3935764 0
4.7590003 1.7388556 1.3947128 0
4.7640004 1.7330313 1.3958492 0
4.7690005 1.7271887 1.3969858 0
4.7740002 1.7213279 1.3981221 0
4.7800002 1.7158517 1.3994857 0
4.7850003 1.7099532 1.4006221 0
4.7900004 1.7040367 1.4017584 0
4.7950001 1.6981021 1.4028949 0
4.8000002 1.6921496 1.4040313 0
4.8050003 1.686179 1.4051677 0
4.8100004 1.6801904 1.4063041 0
4.8160005 1.6745734 1.4076678 0
4.8210001 1.6685467 1.4088042 0
4.8260002 1.6625022 1.4099406 0
4.8310003 1.6564397 1.411077 0
4.8360004 1.650359 1.4122134 0
4.8420005 1.6446409 1.4135772 0
4.8470001 1.6385223 1.4147135 0
4.8520002 1.6323857 1.4158499 0
4.8580003 1.6266065 1.4172136 0
4.8630004 1.620432 1.41835 0
4.8680005 1.6142396 1.4194864 0
4.8740001 1.6083987 1.42085 0
4.8790002 1.6021683 1.4219863 0
4.8840003 1.59592 1.4231228 0
4.8900003 1.590018 1.4244865 0
4.8950005 1.5837318 1.4256229 0
4.9000001 1.5774274 1.4267592 0
4.9060001 1.5714639 1.4281229 0
4.9110003 1.5651218 1.4292594 0
4.9170003 1.559117 1.4306231 0
4.9220004 1.5527369 1.4317595 0
4.9270005 1.5463388 1.4328959 0
4.9330001 1.5402725 1.4342595 0
4.9380002 1.5338366 1.435396 0
4.9440002 1.5277288 1.4367596 0
4.9490004 1.521255 1.437896 0
4.9550004 1.5151058 1.4392598 0
4.9600005 1.5085942 1.4403962 0
4.9660001 1.5024034 1.4417597 0
4.9720001 1.496191 1.4431235 0
4.9770002 1.4896216 1.4442599 0
4.9830003 1.4833678 1.4456235 0
4.9880004 1.4767605 1.4467599 0
4.9940004 1.4704653 1.4481237 0
5.0000005 1.4641483 1.4494873 0
5.0050001 1.4574832 1.4506236 0
5.0110002 1.4511247 1.4519874 0
5.0170002 1.4447446 1.453351 0
5.0220003 1.4380219 1.4544874 0
5.0280004 1.4316003 1.4558512 0
5.0340004 1.4251572 1.4572148 0
5.0390005 1.4183767 1.4583513 0
5.0450006 1.4118921 1.459715 0
5.0510001 1.4053855 1.4610785 0
5.0570002 1.3988576 1.4624422 0
5.0620003 1.3919995 1.4635787 0
5.0680003 1.3854301 1.4649423 0
5.0740004 1.378839 1.466306 0
5.0800004 1.3722262 1.4676697 0
5.0860004 1.3655919 1.4690334 0
5.0920005 1.3589358 1.4703971 0
5.0980005 1.3522581 1.4717607 0
5.1030002 1.3452628 1.4728971 0
5.1090002 1.3385437 1.4742607 0
5.1150002 1.3318028 1.4756244 0
5.1210003 1.3250403 1.4769881 0
5.1270003 1.3182563 1.4783518 0
5.1330004 1.3114505 1.4797155 0
5.1390004 1.304623 1.4810792 0
5.1450005 1.297774 1.482443 0
5.1510005 1.2909033 1.4838066 0
4.4140005 2.1406269 1.3090608 0
4.4180002 2.1283104 1.3099627 0
4.4230003 2.1237595 1.3110901 0
4.4270005 2.1186531 1.311992 0
4.4310002 2.1135318 1.3128939 0
4.4360003 2.1089303 1.3140212 0
4.4400001 2.1037786 1.3149232 0
4.4440002 2.0986125 1.3158251 0
4.4490004 2.0939605 1.3169525 0
4.4530001 2.0887635 1.3178543 0
4.4570003 2.0835526 1.3187562 0
4.4620004 2.07885 1.3198837 0
4.4660001 2.0736079 1.3207855 0
4.4710002 2.0688713 1.3219129 0
4.4750004 2.0635989 1.3228148 0
4.4800005 2.0588279 1.3239423 0
4.4840002 2.0535245 1.3248441 0
4.4880004 2.048207 1.3257461 0
4.4930005 2.0433855 1.3268734 0
4.4970002 2.0380371 1.3277752 0
4.5020003 2.0331812 1.3289026 0
4.5060005 2.0278025 1.3298047 0
4.5110002 2.022912 1.3309319 0
4.5150003 2.0175025 1.331834 0
4.5200005 2.0125782 1.3329613 0
4.5240002 2.0071378 1.3338631 0
4.5290003 2.0021791 1.3349905 0
4.5330005 1.9967084 1.3358926 0
4.5380001 1.991715 1.3370198 0
4.5430002 1.9867041 1.3381472 0
4.5470004 1.9811864 1.3390492 0
4.5520005 1.9761415 1.3401766 0
4.5560002 1.9705925 1.3410784 0
4.5610003 1.9655132 1.3422059 0
4.5660005 1.9604158 1.3433332 0
4.5700002 1.9548199 1.3442351 0
4.5750003 1.9496882 1.3453624 0
4.5800004 1.9445384 1.3464899 0
4.5840001 1.9388959 1.3473917 0
4.5890002 1.933712 1.3485191 0
4.5940003 1.9285098 1.3496464 0
4.5980005 1.9228207 1.3505485 0
4.6030002 1.9175841 1.3516757 0
4.6080003 1.9123297 1.3528031 0
4.6120005 1.9065937 1.3537052 0
4.6170001 1.9013047 1.3548324 0
4.6220002 1.8959979 1.3559598 0
4.6270003 1.8906732 1.3570871 0
4.6310005 1.884874 1.3579892 0
4.6360002 1.8795148 1.3591164 0
4.6410003 1.8741376 1.3602438 0
4.6460004 1.8687426 1.3613713 0
4.6510005 1.8633294 1.3624986 0
4.6550002 1.8574505 1.3634005 0
4.6600003 1.8520032 1.3645278 0
4.6650004 1.8465376 1.3656553 0
4.6700001 1.841054 1.3667827 0
4.6750002 1.8355522 1.36791 0
4.6800003 1.8300327 1.3690374 0
4.6850004 1.8244951 1.3701649 0
4.6890001 1.8185046 1.3710667 0
4.6940002 1.8129326 1.3721941 0
4.6990004 1.8073426 1.3733215 0
4.7040005 1.8017346 1.3744489 0
4.7090001 1.7961085 1.3755761 0
4.7140002 1.7904643 1.3767035 0
4.7190003 1.7848023 1.377831 0
4.7240005 1.7791221 1.3789585 0
4.7290001 1.7734237 1.3800857 0
4.7340002 1.7677075 1.3812131 0
4.7390003 1.7619733 1.3823404 0
4.7440004 1.7562209 1.3834679 0
4.7490001 1.7504505 1.3845953 0
4.7540002 1.744662 1.3857226 0
4.7590003 1.7388556 1.38685 0
4.7640004 1.7330313 1.3879775 0
4.7690005 1.7271887 1.3891048 0
4.7740002 1.7213279 1.3902321 0
4.7800002 1.7158517 1.391585 0
4.7850003 1.7099532 1.3927124 0
4.7900004 1.7040367 1.3938398 0
4.7950001 1.6981021 1.3949671 0
4.8000002 1.6921496 1.3960944 0
4.8050003 1.686179 1.3972219 0
4.8100004 1.6801904 1.3983494 0
4.8160005 1.6745734 1.3997022 0
4.8210001 1.6685467 1.4008294 0
4.8260002 1.6625022 1.4019569 0
4.8310003 1.6564397 1.4030843 0
4.8360004 1.650359 1.4042118 0
4.8420005 1.6446409 1.4055647 0
4.8470001 1.6385223 1.4066919 0
4.8520002 1.6323857 1.4078193 0
4.8580003 1.6266065 1.4091722 0
4.8630004 1.620432 1.4102997 0
4.8680005 1.6142396 1.411427 0
4.8740001 1.6083987 1.4127798 0
4.8790002 1.6021683 1.4139072 0
4.8840003 1.59592 1.4150345 0
4.8900003 1.590018 1.4163874 0
4.8950005 1.5837318 1.4175148 0
4.9000001 1.5774274 1.4186422 0
4.9060001 1.5714639 1.419995 0
4.9110003 1.5651218 1.4211223 0
4.9170003 1.559117 1.4224752 0
4.9220004 1.5527369 1.4236027 0
4.9270005 1.5463388 1.4247301 0
4.9330001 1.5402725 1.4260828 0
4.9380002 1.5338366 1.4272102 0
4.9440002 1.5277288 1.4285631 0
4.9490004 1.521255 1.4296906 0
4.9550004 1.5151058 1.4310434 0
4.9600005 1.5085942 1.4321707 0
4.9660001 1.5024034 1.4335235 0
4.9720001 1.496191 1.4348764 0
4.9770002 1.4896216 1.4360038 0
4.9830003 1.4833678 1.4373566 0
4.9880004 1.4767605 1.4384841 0
4.9940004 1.4704653 1.439837 0
5.0000005 1.4641483 1.4411899 0
5.0050001 1.4574832 1.4423171 0
5.0110002 1.4511247 1.4436699 0
5.0170002 1.4447446 1.4450228 0
5.0220003 1.4380219 1.4461502 0
5.0280004 1.4316003 1.4475032 0
5.0340004 1.4251572 1.448856 0
5.0390005 1.4183767 1.4499834 0
5.0450006 1.4118921 1.4513363 0
5.0510001 1.4053855 1.4526891 0
5.0570002 1.3988576 1.4540418 0
5.0620003 1.3919995 1.4551692 0
5.0680003 1.3854301 1.4565221 0
5.0740004 1.378839 1.457875 0
5.0800004 1.3722262 1.4592279 0
5.0860004 1.3655919 1.4605808 0
5.0920005 1.3589358 1.4619336 0
5.0980005 1.3522581 1.4632865 0
5.1030002 1.3452628 1.4644138 0
5.1090002 1.3385437 1.4657667 0
5.1150002 1.3318028 1.4671195 0
5.1210003 1.3250403 1.4684724 0
5.1270003 1.3182563 1.4698251 0
5.1330004 1.3114505 1.4711782 0
5.1390004 1.304623 1.472531 0
5.1450005 1.297774 1.4738839 0
5.1510005 1.2909033 1.4752368 0
4.4530001 2.0887635 1.3105434 0
4.4570003 2.0835526 1.3114382 0
4.4620004 2.07885 1.3125566 0
4.4660001 2.0736079 1.3134512 0
4.4710002 2.0688713 1.3145696 0
4.4750004 2.0635989 1.3154644 0
4.4800005 2.0588279 1.3165827 0
4.4840002 2.0535245 1.3174773 0
4.4880004 2.048207 1.3183721 0
4.4930005 2.0433855 1.3194904 0
4.4970002 2.0380371 1.3203851 0
4.5020003 2.0331812 1.3215035 0
4.5060005 2.0278025 1.3223982 0
4.5110002 2.022912 1.3235165 0
4.5150003 2.0175025 1.3244113 0
4.5200005 2.0125782 1.3255296 0
4.5240002 2.0071378 1.3264242 0
4.5290003 2.0021791 1.3275427 0
4.5330005 1.9967084 1.3284373 0
4.5380001 1.991715 1.3295556 0
4.5430002 1.9867041 1.3306739 0
4.5470004 1.9811864 1.3315687 0
4.5520005 1.9761415 1.332687 0
4.5560002 1.9705925 1.3335817 0
4.5610003 1.9655132 1.3347002 0
4.5660005 1.9604158 1.3358185 0
4.5700002 1.9548199 1.3367132 0
4.5750003 1.9496882 1.3378315 0
4.5800004 1.9445384 1.3389499 0
4.5840001 1.9388959 1.3398445 0
4.5890002 1.933712 1.340963 0
4.5940003 1.9285098 1.3420813 0
4.5980005 1.9228207 1.3429761 0
4.6030002 1.9175841 1.3440943 0
4.6080003 1.9123297 1.3452127 0
4.6120005 1.9065937 1.3461074 0
4.6170001 1.9013047 1.3472258 0
4.6220002 1.8959979 1.3483441 0
4.6270003 1.8906732 1.3494625 0
4.6310005 1.884874 1.3503572 0
4.6360002 1.8795148 1.3514756 0
4.6410003 1.8741376 1.3525939 0
4.6460004 1.8687426 1.3537123 0
4.6510005 1.8633294 1.3548306 0
4.6550002 1.8574505 1.3557253 0
4.6600003 1.8520032 1.3568437 0
4.6650004 1.8465376 1.3579621 0
4.6700001 1.841054 1.3590803 0
4.6750002 1.8355522 1.3601987 0
4.6800003 1.8300327 1.3613172 0
4.6850004 1.8244951 1.3624355 0
4.6890001 1.8185046 1.3633301 0
4.6940002 1.8129326 1.3644484 0
4.6990004 1.8073426 1.365567 0
4.7040005 1.8017346 1.3666853 0
4.7090001 1.7961085 1.3678036 0
4.7140002 1.7904643 1.368922 0
4.7190003 1.7848023 1.3700403 0
4.7240005 1.7791221 1.3711587 0
4.7290001 1.7734237 1.372277 0
4.7340002 1.7677075 1.3733954 0
4.7390003 1.7619733 1.3745137 0
4.7440004 1.7562209 1.3756322 0
4.7490001 1.7504505 1.3767505 0
4.7540002 1.744662 1.3778688 0
4.7590003 1.7388556 1.3789873 0
4.7640004 1.7330313 1.3801056 0
4.7690005 1.7271887 1.381224 0
4.7740002 1.7213279 1.3823423 0
4.7800002 1.7158517 1.3836843 0
4.7850003 1.7099532 1.3848027 0
4.7900004 1.7040367 1.3859211 0
4.7950001 1.6981021 1.3870393 0
4.8000002 1.6921496 1.3881578 0
4.8050003 1.686179 1.3892761 0
4.8100004 1.6801904 1.3903946 0
4.8160005 1.6745734 1.3917366 0
4.8210001 1.6685467 1.3928548 0
4.8260002 1.6625022 1.3939732 0
4.8310003 1.6564397 1.3950917 0
4.8360004 1.650359 1.39621 0
4.8420005 1.6446409 1.397552 0
4.8470001 1.6385223 1.3986703 0
4.8520002 1.6323857 1.3997887 0
4.8580003 1.6266065 1.4011307 0
4.8630004 1.620432 1.4022492 0
4.8680005 1.6142396 1.4033675 0
4.8740001 1.6083987 1.4047095 0
4.8790002 1.6021683 1.4058279 0
4.8840003 1.59592 1.4069463 0
4.8900003 1.590018 1.4082882 0
4.8950005 1.5837318 1.4094068 0
4.9000001 1.5774274 1.410525 0
4.9060001 1.5714639 1.411867 0
4.9110003 1.5651218 1.4129854 0
4.9170003 1.559117 1.4143275 0
4.9220004 1.5527369 1.4154458 0
4.9270005 1.5463388 1.4165642 0
4.9330001 1.5402725 1.4179062 0
4.9380002 1.5338366 1.4190246 0
4.9440002 1.5277288 1.4203665 0
4.9490004 1.521255 1.4214851 0
4.9550004 1.5151058 1.4228271 0
4.9600005 1.5085942 1.4239454 0
4.9660001 1.5024034 1.4252874 0
4.9720001 1.496191 1.4266293 0
4.9770002 1.4896216 1.4277478 0
4.9830003 1.4833678 1.4290898 0
4.9880004 1.4767605 1.4302082 0
4.9940004 1.4704653 1.4315503 0
5.0000005 1.4641483 1.4328922 0
5.0050001 1.4574832 1.4340106 0
5.0110002 1.4511247 1.4353527 0
5.0170002 1.4447446 1.4366946 0
5.0220003 1.4380219 1.437813 0
5.0280004 1.4316003 1.4391551 0
5.0340004 1.4251572 1.4404972 0
5.0390005 1.4183767 1.4416155 0
5.0450006 1.4118921 1.4429575 0
5.0510001 1.4053855 1.4442995 0
5.0570002 1.3988576 1.4456415 0
5.0620003 1.3919995 1.4467599 0
5.0680003 1.3854301 1.448102 0
5.0740004 1.378839 1.4494441 0
5.0800004 1.3722262 1.4507861 0
5.0860004 1.3655919 1.4521281 0
5.0920005 1.3589358 1.4534701 0
5.0980005 1.3522581 1.4548122 0
5.1030002 1.3452628 1.4559305 0
5.1090002 1.3385437 1.4572725 0
5.1150002 1.3318028 1.4586146 0
5.1210003 1.3250403 1.4599566 0
5.1270003 1.3182563 1.4612986 0
5.1330004 1.3114505 1.4626406 0
5.1390004 1.304623 1.4639827 0
5.1450005 1.297774 1.4653248 0
5.1510005 1.2909033 1.4666667 0
4.4930005 2.0433855 1.3121074 0
4.4970002 2.0380371 1.312995 0
4.5020003 2.0331812 1.3141042 0
4.5060005 2.0278025 1.3149918 0
4.5110002 2.022912 1.3161011 0
4.5150003 2.0175025 1.3169885 0
4.5200005 2.0125782 1.3180979 0
4.5240002 2.0071378 1.3189853 0
4.5290003 2.0021791 1.3200947 0
4.5330005 1.9967084 1.3209822 0
4.5380001 1.991715 1.3220915 0
4.5430002 1.9867041 1.3232008 0
4.5470004 1.9811864 1.3240883 0
4.5520005 1.9761415 1.3251977 0
4.5560002 1.9705925 1.3260851 0
4.5610003 1.9655132 1.3271945 0
4.5660005 1.9604158 1.3283038 0
4.5700002 1.9548199 1.3291913 0
4.5750003 1.9496882 1.3303007 0
4.5800004 1.9445384 1.3314099 0
4.5840001 1.9388959 1.3322974 0
4.5890002 1.933712 1.3334068 0
4.5940003 1.9285098 1.3345162 0
4.5980005 1.9228207 1.3354037 0
4.6030002 1.9175841 1.3365129 0
4.6080003 1.9123297 1.3376223 0
4.6120005 1.9065937 1.3385098 0
4.6170001 1.9013047 1.339619 0
4.6220002 1.8959979 1.3407285 0
4.6270003 1.8906732 1.3418378 0
4.6310005 1.884874 1.3427253 0
4.6360002 1.8795148 1.3438346 0
4.6410003 1.8741376 1.3449439 0
4.6460004 1.8687426 1.3460534 0
4.6510005 1.8633294 1.3471627 0
4.6550002 1.8574505 1.34805 0
4.6600003 1.8520032 1.3491595 0
4.6650004 1.8465376 1.3502688 0
4.6700001 1.841054 1.3513781 0
4.6750002 1.8355522 1.3524874 0
4.6800003 1.8300327 1.3535968 0
4.6850004 1.8244951 1.3547062 0
4.6890001 1.8185046 1.3555936 0
4.6940002 1.8129326 1.356703 0
4.6990004 1.8073426 1.3578123 0
4.7040005 1.8017346 1.3589216 0
4.7090001 1.7961085 1.360031 0
4.7140002 1.7904643 1.3611404 0
4.7190003 1.7848023 1.3622497 0
4.7240005 1.7791221 1.3633591 0
4.7290001 1.7734237 1.3644683 0
4.7340002 1.7677075 1.3655777 0
4.7390003 1.7619733 1.3666871 0
4.7440004 1.7562209 1.3677964 0
4.7490001 1.7504505 1.3689057 0
4.7540002 1.744662 1.370015 0
4.7590003 1.7388556 1.3711245 0
4.7640004 1.7330313 1.3722337 0
4.7690005 1.7271887 1.3733431 0
4.7740002 1.7213279 1.3744525 0
4.7800002 1.7158517 1.3757836 0
4.7850003 1.7099532 1.376893 0
4.7900004 1.7040367 1.3780024 0
4.7950001 1.6981021 1.3791116 0
4.8000002 1.6921496 1.380221 0
4.8050003 1.686179 1.3813304 0
4.8100004 1.6801904 1.3824397 0
4.8160005 1.6745734 1.3837709 0
4.8210001 1.6685467 1.3848803 0
4.8260002 1.6625022 1.3859895 0
4.8310003 1.6564397 1.3870989 0
4.8360004 1.650359 1.3882084 0
4.8420005 1.6446409 1.3895395 0
4.8470001 1.6385223 1.3906488 0
4.8520002 1.6323857 1.3917582 0
4.8580003 1.6266065 1.3930894 0
4.8630004 1.620432 1.3941988 0
4.8680005 1.6142396 1.3953081 0
4.8740001 1.6083987 1.3966392 0
4.8790002 1.6021683 1.3977486 0
4.8840003 1.59592 1.398858 0
4.8900003 1.590018 1.4001892 0
4.8950005 1.5837318 1.4012986 0
4.9000001 1.5774274 1.4024078 0
4.9060001 1.5714639 1.403739 0
4.9110003 1.5651218 1.4048485 0
4.9170003 1.559117 1.4061797 0
4.9220004 1.5527369 1.407289 0
4.9270005 1.5463388 1.4083984 0
4.9330001 1.5402725 1.4097296 0
4.9380002 1.5338366 1.4108388 0
4.9440002 1.5277288 1.4121702 0
4.9490004 1.521255 1.4132795 0
4.9550004 1.5151058 1.4146106 0
4.9610004 1.508935 1.415942 0
4.9660001 1.5024034 1.4170511 0
4.9720001 1.496191 1.4183824 0
4.9770002 1.4896216 1.4194918 0
4.9830003 1.4833678 1.420823 0
4.9880004 1.4767605 1.4219323 0
4.9940004 1.4704653 1.4232635 0
5.0000005 1.4641483 1.4245948 0
5.0050001 1.4574832 1.425704 0
5.0110002 1.4511247 1.4270353 0
5.0170002 1.4447446 1.4283664 0
5.0220003 1.4380219 1.4294759 0
5.0280004 1.4316003 1.430807 0
5.0340004 1.4251572 1.4321383 0
5.0390005 1.4183767 1.4332477 0
5.0450006 1.4118921 1.4345789 0
5.0510001 1.4053855 1.43591 0
5.0570002 1.3988576 1.4372412 0
5.0620003 1.3919995 1.4383506 0
5.0680003 1.3854301 1.4396818 0
5.0740004 1.378839 1.441013 0
5.0800004 1.3722262 1.4423442 0
5.0860004 1.3655919 1.4436755 0
5.0920005 1.3589358 1.4450066 0
5.0980005 1.3522581 1.4463379 0
5.1030002 1.3452628 1.4474472 0
5.1090002 1.3385437 1.4487784 0
5.1150002 1.3318028 1.4501096 0
5.1210003 1.3250403 1.4514408 0
5.1270003 1.3182563 1.452772 0
5.1330004 1.3114505 1.4541034 0
5.1390004 1.304623 1.4554344 0
5.1450005 1.297774 1.4567658 0
5.1510005 1.2909033 1.4580969 0
4.5290003 2.0021791 1.3126467 0
4.5330005 1.9967084 1.3135271 0
4.5380001 1.991715 1.3146273 0
4.5430002 1.9867041 1.3157277 0
4.5470004 1.9811864 1.316608 0
4.5520005 1.9761415 1.3177084 0
4.5560002 1.9705925 1.3185885 0
4.5610003 1.9655132 1.3196888 0
4.5660005 1.9604158 1.3207892 0
4.5700002 1.9548199 1.3216695 0
4.5750003 1.9496882 1.3227698 0
4.5800004 1.9445384 1.3238701 0
4.5840001 1.9388959 1.3247503 0
4.5890002 1.933712 1.3258506 0
4.5940003 1.9285098 1.326951 0
4.5980005 1.9228207 1.3278313 0
4.6030002 1.9175841 1.3289315 0
4.6080003 1.9123297 1.3300319 0
4.6120005 1.9065937 1.3309122 0
4.6170001 1.9013047 1.3320124 0
4.6220002 1.8959979 1.3331127 0
4.6270003 1.8906732 1.3342131 0
4.6310005 1.884874 1.3350934 0
4.6360002 1.8795148 1.3361936 0
4.6410003 1.8741376 1.337294 0
4.6460004 1.8687426 1.3383943 0
4.6510005 1.8633294 1.3394947 0
4.6550002 1.8574505 1.3403748 0
4.6600003 1.8520032 1.3414752 0
4.6650004 1.8465376 1.3425756 0
4.6700001 1.841054 1.3436759 0
4.6750002 1.8355522 1.3447762 0
4.6800003 1.8300327 1.3458766 0
4.6850004 1.8244951 1.3469769 0
4.6890001 1.8185046 1.347857 0
4.6940002 1.8129326 1.3489574 0
4.6990004 1.8073426 1.3500577 0
4.7040005 1.8017346 1.3511581 0
4.7090001 1.7961085 1.3522583 0
4.7140002 1.7904643 1.3533587 0
4.7190003 1.7848023 1.354459 0
4.7240005 1.7791221 1.3555593 0
4.7290001 1.7734237 1.3566597 0
4.7340002 1.7677075 1.35776 0
4.7390003 1.7619733 1.3588604 0
4.7440004 1.7562209 1.3599607 0
4.7490001 1.7504505 1.361061 0
4.7540002 1.744662 1.3621613 0
4.7590003 1.7388556 1.3632617 0
4.7640004 1.7330313 1.3643619 0
4.7690005 1.7271887 1.3654623 0
4.7740002 1.7213279 1.3665625 0
4.7800002 1.7158517 1.367883 0
4.7850003 1.7099532 1.3689833 0
4.7900004 1.7040367 1.3700836 0
4.7950001 1.6981021 1.3711839 0
4.8000002 1.6921496 1.3722842 0
4.8050003 1.686179 1.3733846 0
4.8100004 1.6801904 1.3744849 0
4.8160005 1.6745734 1.3758054 0
4.8210001 1.6685467 1.3769056 0
4.8260002 1.6625022 1.3780059 0
4.8310003 1.6564397 1.3791063 0
4.8360004 1.650359 1.3802066 0
4.8420005 1.6446409 1.3815271 0
4.8470001 1.6385223 1.3826272 0
4.8520002 1.6323857 1.3837277 0
4.8580003 1.6266065 1.385048 0
4.8630004 1.620432 1.3861483 0
4.8680005 1.6142396 1.3872488 0
4.8740001 1.6083987 1.388569 0
4.8790002 1.6021683 1.3896693 0
4.8840003 1.59592 1.3907697 0
4.8900003 1.590018 1.3920901 0
4.8950005 1.5837318 1.3931904 0
4.9000001 1.5774274 1.3942907 0
4.9060001 1.5714639 1.395611 0
4.9110003 1.5651218 1.3967115 0
4.9170003 1.559117 1.3980318 0
4.9220004 1.5527369 1.3991321 0
4.9270005 1.5463388 1.4002326 0
4.9330001 1.5402725 1.4015528 0
4.9380002 1.5338366 1.4026531 0
4.9440002 1.5277288 1.4039736 0
4.9490004 1.521255 1.4050739 0
4.9550004 1.5151058 1.4063944 0
4.9610004 1.508935 1.4077147 0
4.9660001 1.5024034 1.408815 0
4.9720001 1.496191 1.4101354 0
4.9770002 1.4896216 1.4112358 0
4.9830003 1.4833678 1.4125562 0
4.9880004 1.4767605 1.4136565 0
4.9940004 1.4704653 1.4149768 0
5.0000005 1.4641483 1.4162973 0
5.0050001 1.4574832 1.4173975 0
5.0110002 1.4511247 1.4187179 0
5.0170002 1.4447446 1.4200382 0
5.0220003 1.4380219 1.4211386 0
5.0280004 1.4316003 1.422459 0
5.0340004 1.4251572 1.4237794 0
5.0390005 1.4183767 1.4248798 0
5.0450006 1.4118921 1.4262002 0
5.0510001 1.4053855 1.4275205 0
5.0570002 1.3988576 1.4288409 0
5.0630002 1.392308 1.4301612 0
5.0680003 1.3854301 1.4312617 0
5.0740004 1.378839 1.432582 0
5.0800004 1.3722262 1.4339024 0
5.0860004 1.3655919 1.4352227 0
5.0920005 1.3589358 1.4365432 0
5.0980005 1.3522581 1.4378636 0
5.1030002 1.3452628 1.4389638 0
5.1090002 1.3385437 1.4402841 0
5.1150002 1.3318028 1.4416047 0
5.1210003 1.3250403 1.4429251 0
5.1270003 1.3182563 1.4442455 0
5.1330004 1.3114505 1.4455658 0
5.1390004 1.304623 1.4468862 0
5.1450005 1.297774 1.4482065 0
5.1510005 1.2909033 1.449527 0
4.5700002 1.9548199 1.3141475 0
4.5750003 1.9496882 1.3152388 0
4.5800004 1.9445384 1.3163302 0
4.5840001 1.9388959 1.3172032 0
4.5890002 1.933712 1.3182945 0
4.5940003 1.9285098 1.3193858 0
4.5980005 1.9228207 1.3202589 0
4.6030002 1.9175841 1.3213501 0
4.6080003 1.9123297 1.3224415 0
4.6120005 1.9065937 1.3233145 0
4.6170001 1.9013047 1.3244057 0
4.6220002 1.8959979 1.325497 0
4.6270003 1.8906732 1.3265884 0
4.6310005 1.884874 1.3274615 0
4.6360002 1.8795148 1.3285527 0
4.6410003 1.8741376 1.3296441 0
4.6460004 1.8687426 1.3307354 0
4.6510005 1.8633294 1.3318267 0
4.6550002 1.8574505 1.3326998 0
4.6600003 1.8520032 1.333791 0
4.6650004 1.8465376 1.3348824 0
4.6700001 1.841054 1.3359735 0
4.6750002 1.8355522 1.3370649 0
4.6800003 1.8300327 1.3381562 0
4.6850004 1.8244951 1.3392476 0
4.6890001 1.8185046 1.3401206 0
4.6940002 1.8129326 1.3412119 0
4.6990004 1.8073426 1.3423032 0
4.7040005 1.8017346 1.3433945 0
4.7090001 1.7961085 1.3444856 0
4.7140002 1.7904643 1.3455771 0
4.7190003 1.7848023 1.3466684 0
4.7240005 1.7791221 1.3477597 0
4.7290001 1.7734237 1.348851 0
4.7340002 1.7677075 1.3499422 0
4.7390003 1.7619733 1.3510337 0
4.7440004 1.7562209 1.3521249 0
4.7490001 1.7504505 1.3532162 0
4.7540002 1.744662 1.3543074 0
4.7590003 1.7388556 1.3553988 0
4.7640004 1.7330313 1.3564903 0
4.7690005 1.7271887 1.3575815 0
4.7740002 1.7213279 1.3586727 0
4.7800002 1.7158517 1.3599824 0
4.7850003 1.7099532 1.3610736 0
4.7900004 1.7040367 1.362165 0
4.7950001 1.6981021 1.3632561 0
4.8000002 1.6921496 1.3643475 0
4.8050003 1.686179 1.3654388 0
4.8100004 1.6801904 1.3665302 0
4.8160005 1.6745734 1.3678397 0
4.8210001 1.6685467 1.3689309 0
4.8260002 1.6625022 1.3700223 0
4.8310003 1.6564397 1.3711135 0
4.8360004 1.650359 1.3722049 0
4.8420005 1.6446409 1.3735145 0
4.8470001 1.6385223 1.3746057 0
4.8520002 1.6323857 1.375697 0
4.8580003 1.6266065 1.3770066 0
4.8630004 1.620432 1.3780979 0
4.8680005 1.6142396 1.3791893 0
4.8740001 1.6083987 1.3804988 0
4.8790002 1.6021683 1.38159 0
4.8840003 1.59592 1.3826814 0
4.8900003 1.590018 1.383991 0
4.8950005 1.5837318 1.3850822 0
4.9000001 1.5774274 1.3861736 0
4.9060001 1.5714639 1.3874831 0
4.9110003 1.5651218 1.3885744 0
4.9170003 1.559117 1.389884 0
4.9220004 1.5527369 1.3909754 0
4.9270005 1.5463388 1.3920666 0
4.9330001 1.5402725 1.3933761 0
4.9380002 1.5338366 1.3944675 0
4.9440002 1.5277288 1.3957771 0
4.9490004 1.521255 1.3968683 0
4.9550004 1.5151058 1.398178 0
4.9610004 1.508935 1.3994875 0
4.9660001 1.5024034 1.4005789 0
4.9720001 1.496191 1.4018883 0
4.9770002 1.4896216 1.4029796 0
4.9830003 1.4833678 1.4042892 0
4.9880004 1.4767605 1.4053806 0
4.9940004 1.4704653 1.4066901 0
5.0000005 1.4641483 1.4079998 0
5.0050001 1.4574832 1.409091 0
5.0110002 1.4511247 1.4104006 0
5.0170002 1.4447446 1.41171 0
5.0220003 1.4380219 1.4128014 0
5.0280004 1.4316003 1.414111 0
5.0340004 1.4251572 1.4154207 0
5.0390005 1.4183767 1.4165119 0
5.0450006 1.4118921 1.4178215 0
5.0510001 1.4053855 1.4191309 0
5.0570002 1.3988576 1.4204406 0
5.0630002 1.392308 1.4217502 0
5.0680003 1.3854301 1.4228414 0
5.0740004 1.378839 1.4241509 0
5.0800004 1.3722262 1.4254606 0
5.0860004 1.3655919 1.4267702 0
5.0920005 1.3589358 1.4280797 0
5.0980005 1.3522581 1.4293894 0
5.1030002 1.3452628 1.4304805 0
5.1090002 1.3385437 1.4317901 0
5.1150002 1.3318028 1.4330996 0
5.1210003 1.3250403 1.4344093 0
5.1270003 1.3182563 1.4357189 0
5.1330004 1.3114505 1.4370284 0
5.1390004 1.304623 1.438338 0
5.1450005 1.297774 1.4396476 0
5.1510005 1.2909033 1.4409571 0
4.6120005 1.9065937 1.3157169 0
4.6170001 1.9013047 1.3167992 0
4.6220002 1.8959979 1.3178813 0
4.6270003 1.8906732 1.3189636 0
4.6310005 1.884874 1.3198296 0
4.6360002 1.8795148 1.3209118 0
4.6410003 1.8741376 1.3219941 0
4.6460004 1.8687426 1.3230764 0
4.6510005 1.8633294 1.3241587 0
4.6550002 1.8574505 1.3250245 0
4.6600003 1.8520032 1.3261068 0
4.6650004 1.8465376 1.3271891 0
4.6700001 1.841054 1.3282714 0
4.6750002 1.8355522 1.3293536 0
4.6800003 1.8300327 1.330436 0
4.6850004 1.8244951 1.3315182 0
4.6890001 1.8185046 1.332384 0
4.6940002 1.8129326 1.3334663 0
4.6990004 1.8073426 1.3345486 0
4.7040005 1.8017346 1.3356309 0
4.7090001 1.7961085 1.3367132 0
4.7140002 1.7904643 1.3377954 0
4.7190003 1.7848023 1.3388778 0
4.7240005 1.7791221 1.3399601 0
4.7290001 1.7734237 1.3410423 0
4.7340002 1.7677075 1.3421246 0
4.7390003 1.7619733 1.3432069 0
4.7440004 1.7562209 1.3442892 0
4.7490001 1.7504505 1.3453714 0
4.7540002 1.744662 1.3464537 0
4.7590003 1.7388556 1.347536 0
4.7640004 1.7330313 1.3486184 0
4.7690005 1.7271887 1.3497006 0
4.7740002 1.7213279 1.3507829 0
4.7800002 1.7158517 1.3520817 0
4.7850003 1.7099532 1.3531638 0
4.7900004 1.7040367 1.3542463 0
4.7950001 1.6981021 1.3553284 0
4.8000002 1.6921496 1.3564107 0
4.8050003 1.686179 1.357493 0
4.8100004 1.6801904 1.3585753 0
4.8160005 1.6745734 1.3598741 0
4.8210001 1.6685467 1.3609563 0
4.8260002 1.6625022 1.3620386 0
4.8310003 1.6564397 1.3631209 0
4.8360004 1.650359 1.3642033 0
4.8420005 1.6446409 1.365502 0
4.8470001 1.6385223 1.3665842 0
4.8520002 1.6323857 1.3676665 0
4.8580003 1.6266065 1.3689653 0
4.8630004 1.620432 1.3700476 0
4.8680005 1.6142396 1.3711299 0
4.8740001 1.6083987 1.3724285 0
4.8790002 1.6021683 1.3735108 0
4.8840003 1.59592 1.3745931 0
4.8900003 1.590018 1.3758919 0
4.8950005 1.5837318 1.3769742 0
4.9000001 1.5774274 1.3780564 0
4.9060001 1.5714639 1.3793552 0
4.9110003 1.5651218 1.3804375 0
4.9170003 1.559117 1.3817363 0
4.9220004 1.5527369 1.3828185 0
4.9270005 1.5463388 1.3839009 0
4.9330001 1.5402725 1.3851995 0
4.9380002 1.5338366 1.3862817 0
4.9440002 1.5277288 1.3875805 0
4.9490004 1.521255 1.3886628 0
4.9550004 1.5151058 1.3899616 0
4.9610004 1.508935 1.3912604 0
4.9660001 1.5024034 1.3923426 0
4.9720001 1.496191 1.3936414 0
4.9770002 1.4896216 1.3947235 0
4.9830003 1.4833678 1.3960224 0
4.9880004 1.4767605 1.3971047 0
4.9940004 1.4704653 1.3984034 0
5.0000005 1.4641483 1.3997022 0
5.0050001 1.4574832 1.4007844 0
5.0110002 1.4511247 1.4020832 0
5.0170002 1.4447446 1.4033819 0
5.0220003 1.4380219 1.4044642 0
5.0280004 1.4316003 1.405763 0
5.0340004 1.4251572 1.4070617 0
5.0390005 1.4183767 1.4081441 0
5.0450006 1.4118921 1.4094428 0
5.0510001 1.4053855 1.4107414 0
5.0570002 1.3988576 1.4120402 0
5.0630002 1.392308 1.4133389 0
5.0680003 1.3854301 1.4144213 0
5.0740004 1.378839 1.41572 0
5.0800004 1.3722262 1.4170188 0
5.0860004 1.3655919 1.4183176 0
5.0920005 1.3589358 1.4196162 0
5.0980005 1.3522581 1.420915 0
5.1030002 1.3452628 1.4219972 0
5.1090002 1.3385437 1.423296 0
5.1150002 1.3318028 1.4245948 0
5.1210003 1.3250403 1.4258934 0
5.1270003 1.3182563 1.4271922 0
5.1330004 1.3114505 1.428491 0
5.1390004 1.304623 1.4297898 0
5.1450005 1.297774 1.4310884 0
5.1510005 1.2909033 1.4323872 0
4.6510005 1.8633294 1.3164908 0
4.6550002 1.8574505 1.3173492 0
4.6600003 1.8520032 1.3184226 0
4.6650004 1.8465376 1.3194958 0
4.6700001 1.841054 1.320569 0
4.6750002 1.8355522 1.3216423 0
4.6800003 1.8300327 1.3227156 0
4.6850004 1.8244951 1.3237889 0
4.6890001 1.8185046 1.3246474 0
4.6940002 1.8129326 1.3257208 0
4.6990004 1.8073426 1.326794 0
4.7040005 1.8017346 1.3278673 0
4.7090001 1.7961085 1.3289405 0
4.7140002 1.7904643 1.3300139 0
4.7190003 1.7848023 1.3310871 0
4.7240005 1.7791221 1.3321604 0
4.7290001 1.7734237 1.3332336 0
4.7340002 1.7677075 1.334307 0
4.7390003 1.7619733 1.3353801 0
4.7440004 1.7562209 1.3364534 0
4.7490001 1.7504505 1.3375267 0
4.7540002 1.744662 1.3386 0
4.7590003 1.7388556 1.3396732 0
4.7640004 1.7330313 1.3407465 0
4.7690005 1.7271887 1.3418199 0
4.7740002 1.7213279 1.3428929 0
4.7800002 1.7158517 1.3441809 0
4.7850003 1.7099532 1.3452542 0
4.7900004 1.7040367 1.3463275 0
4.7950001 1.6981021 1.3474007 0
4.8000002 1.6921496 1.348474 0
4.8050003 1.686179 1.3495473 0
4.8100004 1.6801904 1.3506205 0
4.8160005 1.6745734 1.3519084 0
4.8210001 1.6685467 1.3529817 0
4.8260002 1.6625022 1.354055 0
4.8310003 1.6564397 1.3551282 0
4.8360004 1.650359 1.3562015 0
4.8420005 1.6446409 1.3574895 0
4.8470001 1.6385223 1.3585626 0
4.8520002 1.6323857 1.3596359 0
4.8580003 1.6266065 1.3609239 0
4.8630004 1.620432 1.3619972 0
4.8680005 1.6142396 1.3630705 0
4.8740001 1.6083987 1.3643583 0
4.8790002 1.6021683 1.3654317 0
4.8840003 1.59592 1.3665048 0
4.8900003 1.590018 1.3677928 0
4.8950005 1.5837318 1.3688661 0
4.9000001 1.5774274 1.3699393 0
4.9060001 1.5714639 1.3712271 0
4.9110003 1.5651218 1.3723005 0
4.9170003 1.559117 1.3735884 0
4.9220004 1.5527369 1.3746617 0
4.9270005 1.5463388 1.375735 0
4.9330001 1.5402725 1.3770229 0
4.9380002 1.5338366 1.3780961 0
4.9440002 1.5277288 1.379384 0
4.9490004 1.521255 1.3804574 0
4.9550004 1.5151058 1.3817453 0
4.9610004 1.508935 1.3830332 0
4.9660001 1.5024034 1.3841064 0
4.9720001 1.496191 1.3853943 0
4.9770002 1.4896216 1.3864676 0
4.9830003 1.4833678 1.3877555 0
4.9880004 1.4767605 1.3888289 0
4.9940004 1.4704653 1.3901167 0
5.0000005 1.4641483 1.3914046 0
5.0050001 1.4574832 1.3924779 0
5.0110002 1.4511247 1.3937658 0
5.0170002 1.4447446 1.3950537 0
5.0220003 1.4380219 1.396127 0
5.0280004 1.4316003 1.397415 0
5.0340004 1.4251572 1.3987029 0
5.0390005 1.4183767 1.3997762 0
5.0450006 1.4118921 1.4010642 0
5.0510001 1.4053855 1.4023519 0
5.0570002 1.3988576 1.4036398 0
5.0630002 1.392308 1.4049278 0
5.0680003 1.3854301 1.4060011 0
5.0740004 1.378839 1.407289 0
5.0800004 1.3722262 1.408577 0
5.0860004 1.3655919 1.4098649 0
5.0920005 1.3589358 1.4111527 0
5.0980005 1.3522581 1.4124408 0
5.1030002 1.3452628 1.4135139 0
5.1090002 1.3385437 1.4148018 0
5.1150002 1.3318028 1.4160898 0
5.1210003 1.3250403 1.4173777 0
5.1270003 1.3182563 1.4186655 0
5.1330004 1.3114505 1.4199536 0
5.1390004 1.304623 1.4212415 0
5.1450005 1.297774 1.4225293 0
5.1510005 1.2909033 1.4238173 0
4.6940002 1.8129326 1.3179752 0
4.6990004 1.8073426 1.3190395 0
4.7040005 1.8017346 1.3201038 0
4.7090001 1.7961085 1.3211679 0
4.7140002 1.7904643 1.3222321 0
4.7190003 1.7848023 1.3232964 0
4.7240005 1.7791221 1.3243607 0
4.7290001 1.7734237 1.3254249 0
4.7340002 1.7677075 1.3264892 0
4.7390003 1.7619733 1.3275534 0
4.7440004 1.7562209 1.3286177 0
4.7490001 1.7504505 1.3296819 0
4.7540002 1.744662 1.3307462 0
4.7590003 1.7388556 1.3318104 0
4.7640004 1.7330313 1.3328747 0
4.7690005 1.7271887 1.333939 0
4.7740002 1.7213279 1.3350031 0
4.7800002 1.7158517 1.3362802 0
4.7850003 1.7099532 1.3373445 0
4.7900004 1.7040367 1.3384087 0
4.7950001 1.6981021 1.3394729 0
4.8000002 1.6921496 1.3405372 0
4.8050003 1.686179 1.3416015 0
4.8100004 1.6801904 1.3426658 0
4.8160005 1.6745734 1.3439428 0
4.8210001 1.6685467 1.3450069 0
4.8260002 1.6625022 1.3460712 0
4.8310003 1.6564397 1.3471355 0
4.8360004 1.650359 1.3481998 0
4.8420005 1.6446409 1.3494771 0
4.8470001 1.6385223 1.3505412 0
4.8520002 1.6323857 1.3516054 0
4.8580003 1.6266065 1.3528825 0
4.8630004 1.620432 1.3539468 0
4.8680005 1.6142396 1.3550111 0
4.8740001 1.6083987 1.3562881 0
4.8790002 1.6021683 1.3573524 0
4.8840003 1.59592 1.3584166 0
4.8900003 1.590018 1.3596936 0
4.8950005 1.5837318 1.3607579 0
4.9000001 1.5774274 1.3618221 0
4.9060001 1.5714639 1.3630992 0
4.9110003 1.5651218 1.3641635 0
4.9170003 1.559117 1.3654406 0
4.9220004 1.5527369 1.3665048 0
4.9270005 1.5463388 1.3675691 0
4.9330001 1.5402725 1.3688462 0
4.9380002 1.5338366 1.3699105 0
4.9440002 1.5277288 1.3711876 0
4.9490004 1.521255 1.3722519 0
4.9550004 1.5151058 1.373529 0
4.9610004 1.508935 1.374806 0
4.9660001 1.5024034 1.3758702 0
4.9720001 1.496191 1.3771473 0
4.9770002 1.4896216 1.3782115 0
4.9830003 1.4833678 1.3794887 0
4.9880004 1.4767605 1.3805529 0
4.9940004 1.4704653 1.3818301 0
5.0000005 1.4641483 1.3831072 0
5.0050001 1.4574832 1.3841714 0
5.0110002 1.4511247 1.3854485 0
5.0170002 1.4447446 1.3867255 0
5.0220003 1.4380219 1.3877897 0
5.0280004 1.4316003 1.3890668 0
5.0340004 1.4251572 1.390344 0
5.0390005 1.4183767 1.3914083 0
5.0450006 1.4118921 1.3926854 0
5.0510001 1.4053855 1.3939624 0
5.0570002 1.3988576 1.3952395 0
5.0630002 1.392308 1.3965166 0
5.0680003 1.3854301 1.3975809 0
5.0740004 1.378839 1.398858 0
5.0800004 1.3722262 1.4001352 0
5.0860004 1.3655919 1.4014122 0
5.0920005 1.3589358 1.4026893 0
5.0980005 1.3522581 1.4039664 0
5.1030002 1.3452628 1.4050306 0
5.1090002 1.3385437 1.4063077 0
5.1150002 1.3318028 1.4075848 0
5.1210003 1.3250403 1.4088619 0
5.1270003 1.3182563 1.410139 0
5.1330004 1.3114505 1.4114161 0
5.1390004 1.304623 1.4126933 0
5.1450005 1.297774 1.4139704 0
5.1510005 1.2909033 1.4152474 0
4.7390003 1.7619733 1.3197267 0
4.7440004 1.7562209 1.3207819 0
4.7490001 1.7504505 1.3218372 0
4.7540002 1.744662 1.3228923 0
4.7590003 1.7388556 1.3239477 0
4.7640004 1.7330313 1.3250029 0
4.7690005 1.7271887 1.3260581 0
4.7740002 1.7213279 1.3271133 0
4.7800002 1.7158517 1.3283796 0
4.7850003 1.7099532 1.3294349 0
4.7900004 1.7040367 1.3304901 0
4.7950001 1.6981021 1.3315452 0
4.8000002 1.6921496 1.3326005 0
4.8050003 1.686179 1.3336557 0
4.8100004 1.6801904 1.334711 0
4.8160005 1.6745734 1.3359773 0
4.8210001 1.6685467 1.3370324 0
4.8260002 1.6625022 1.3380877 0
4.8310003 1.6564397 1.3391429 0
4.8360004 1.650359 1.3401982 0
4.8420005 1.6446409 1.3414644 0
4.8470001 1.6385223 1.3425196 0
4.8520002 1.6323857 1.3435749 0
4.8580003 1.6266065 1.3448411 0
4.8630004 1.620432 1.3458964 0
4.8680005 1.6142396 1.3469516 0
4.8740001 1.6083987 1.3482178 0
4.8790002 1.6021683 1.3492731 0
4.8840003 1.59592 1.3503283 0
4.8900003 1.590018 1.3515946 0
4.8950005 1.5837318 1.3526498 0
4.9000001 1.5774274 1.353705 0
4.9060001 1.5714639 1.3549713 0
4.9110003 1.5651218 1.3560266 0
4.9170003 1.559117 1.3572928 0
4.9220004 1.5527369 1.358348 0
4.9270005 1.5463388 1.3594034 0
4.9330001 1.5402725 1.3606695 0
4.9380002 1.5338366 1.3617247 0
4.9440002 1.5277288 1.362991 0
4.9490004 1.521255 1.3640463 0
4.9550004 1.5151058 1.3653126 0
4.9610004 1.508935 1.3665788 0
4.9660001 1.5024034 1.3676339 0
4.9720001 1.496191 1.3689003 0
