# .PCD v0.7 - Point Cloud Data file format
VERSION 0.7
FIELDS x y z intensity
SIZE 4 4 4 4
TYPE F F F F
COUNT 1 1 1 1
WIDTH 1429
HEIGHT 1
VIEWPOINT 0 0 0 1 0 0 0
POINTS 1429
DATA ascii
3.9140003 -1.8081259 0.54344881 0
3.9180002 -1.8164774 0.54360759 0
3.9210002 -1.8243386 0.54372662 0
3.9250002 -1.8327171 0.54388535 0
3.9290004 -1.8411103 0.54404408 0
3.9320002 -1.8490074 0.54416311 0
3.9360003 -1.8574276 0.54432189 0
3.9400003 -1.8658623 0.54448062 0
3.9430003 -1.8737953 0.54459965 0
3.9470003 -1.882257 0.54475838 0
3.9510002 -1.890733 0.54491711 0
3.9550002 -1.8992236 0.54507583 0
3.9580002 -1.9072055 0.54519492 0
3.9620004 -1.9157231 0.54535365 0
3.9660003 -1.9242551 0.54551238 0
3.9690003 -1.9322729 0.54563141 0
3.9730003 -1.940832 0.5457902 0
3.9770002 -1.9494056 0.54594886 0
3.7890003 -1.8738188 0.53848839 0
3.7790003 -1.8745204 0.53809154 0
3.7720003 -1.8768148 0.53781372 0
3.7660003 -1.8796288 0.5375756 0
3.7610002 -1.8829676 0.53737718 0
3.7570002 -1.8868368 0.53721845 0
3.7530003 -1.8906915 0.53705972 0
3.7500002 -1.8950839 0.53694069 0
3.7470002 -1.8994653 0.5368216 0
3.7440002 -1.9038359 0.53670257 0
3.7430003 -1.9093105 0.53666288 0
3.7410002 -1.9142222 0.53658354 0
3.7410002 -1.9202487 0.53658354 0
3.7400002 -1.9257126 0.53654385 0
3.7410002 -1.9323018 0.53658354 0
3.7430003 -1.9394611 0.53666288 0
3.7460003 -1.947196 0.53678197 0
3.7500002 -1.9555115 0.53694069 0
3.9310002 -1.7784351 0.53775418 0
3.9240003 -1.7813574 0.53748906 0
3.9180002 -1.7847484 0.53726178 0
3.9110003 -1.7876219 0.5369966 0
3.9070003 -1.7919637 0.53684509 0
3.9100003 -1.7997887 0.53695869 0
3.9140003 -1.8081259 0.53711021 0
3.9180002 -1.8164774 0.53726178 0
3.9210002 -1.8243386 0.53737539 0
3.9250002 -1.8327171 0.53752691 0
3.9290004 -1.8411103 0.53767848 0
3.9320002 -1.8490074 0.53779209 0
3.9360003 -1.8574276 0.5379436 0
3.9400003 -1.8658623 0.53809512 0
3.9430003 -1.8737953 0.53820878 0
3.9470003 -1.882257 0.5383603 0
3.9510002 -1.890733 0.53851175 0
3.9550002 -1.8992236 0.53866333 0
3.9580002 -1.9072055 0.53877693 0
3.9620004 -1.9157231 0.53892851 0
3.9660003 -1.9242551 0.53908002 0
3.9690003 -1.9322729 0.53919363 0
3.9730003 -1.940832 0.53934515 0
3.9770002 -1.9494056 0.53949666 0
3.7890003 -1.8738188 0.53237522 0
3.7790003 -1.8745204 0.53199643 0
3.7720003 -1.8768148 0.53173125 0
3.7660003 -1.8796288 0.53150403 0
3.7610002 -1.8829676 0.53131461 0
3.7570002 -1.8868368 0.5311631 0
3.7530003 -1.8906915 0.53101158 0
3.7500002 -1.8950839 0.53089792 0
3.7470002 -1.8994653 0.53078425 0
3.7440002 -1.9038359 0.53067064 0
3.7430003 -1.9093105 0.53063273 0
3.7410002 -1.9142222 0.53055704 0
3.7410002 -1.9202487 0.53055704 0
3.7400002 -1.9257126 0.53051913 0
3.7410002 -1.9323018 0.53055704 0
3.7430003 -1.9394611 0.53063273 0
3.7460003 -1.947196 0.5307464 0
3.9310002 -1.7784351 0.53138494 0
3.9240003 -1.7813574 0.5311324 0
3.9180002 -1.7847484 0.53091598 0
3.9110003 -1.7876219 0.53066343 0
3.9070003 -1.7919637 0.53051913 0
3.9100003 -1.7997887 0.53062737 0
3.9140003 -1.8081259 0.53077167 0
3.9180002 -1.8164774 0.53091598 0
3.9210002 -1.8243386 0.53102422 0
3.9250002 -1.8327171 0.53116846 0
3.9290004 -1.8411103 0.53131282 0
3.9320002 -1.8490074 0.53142101 0
3.9360003 -1.8574276 0.53156531 0
3.9400003 -1.8658623 0.53170967 0
3.9430003 -1.8737953 0.53181785 0
3.9470003 -1.882257 0.53196216 0
3.9510002 -1.890733 0.53210646 0
3.9550002 -1.8992236 0.53225076 0
3.9580002 -1.9072055 0.532359 0
3.9620004 -1.9157231 0.53250331 0
3.9660003 -1.9242551 0.53264761 0
3.9690003 -1.9322729 0.53275585 0
3.9730003 -1.940832 0.53290015 0
3.9770002 -1.9494056 0.53304446 0
3.7890003 -1.8738188 0.52626216 0
3.7790003 -1.8745204 0.52590138 0
3.7720003 -1.8768148 0.52564883 0
3.7660003 -1.8796288 0.52543241 0
3.7610002 -1.8829676 0.52525198 0
3.7570002 -1.8868368 0.52510768 0
3.7530003 -1.8906915 0.52496338 0
3.7500002 -1.8950839 0.52485514 0
3.7470002 -1.8994653 0.52474695 0
3.7440002 -1.9038359 0.52463871 0
3.7430003 -1.9093105 0.52460265 0
3.7410002 -1.9142222 0.52453047 0
3.7410002 -1.9202487 0.52453047 0
3.7400002 -1.9257126 0.52449441 0
3.7410002 -1.9323018 0.52453047 0
3.7430003 -1.9394611 0.52460265 0
3.7460003 -1.947196 0.52471089 0
3.9310002 -1.7784351 0.52501571 0
3.9240003 -1.7813574 0.5247758 0
3.9180002 -1.7847484 0.52457017 0
3.9110003 -1.7876219 0.52433026 0
3.9070003 -1.7919637 0.52419317 0
3.9100003 -1.7997887 0.52429599 0
3.9140003 -1.8081259 0.52443308 0
3.9180002 -1.8164774 0.52457017 0
3.9210002 -1.8243386 0.52467299 0
3.9250002 -1.8327171 0.52481008 0
3.9290004 -1.8411103 0.52494717 0
3.9320002 -1.8490074 0.52504998 0
3.9360003 -1.8574276 0.52518708 0
3.9400003 -1.8658623 0.52532417 0
3.9430003 -1.8737953 0.52542698 0
3.9470003 -1.882257 0.52556407 0
3.9510002 -1.890733 0.52570117 0
3.9550002 -1.8992236 0.52583826 0
3.9580002 -1.9072055 0.52594107 0
3.9620004 -1.9157231 0.52607816 0
3.9660003 -1.9242551 0.52621526 0
3.9690003 -1.9322729 0.52631807 0
3.9730003 -1.940832 0.52645516 0
3.9770002 -1.9494056 0.52659225 0
3.7890003 -1.8738188 0.52014905 0
3.7790003 -1.8745204 0.51980633 0
3.7720003 -1.8768148 0.51956642 0
3.7660003 -1.8796288 0.51936078 0
3.7610002 -1.8829676 0.51918942 0
3.7570002 -1.8868368 0.51905233 0
3.7530003 -1.8906915 0.51891524 0
3.7500002 -1.8950839 0.51881242 0
3.7470002 -1.8994653 0.5187096 0
3.7440002 -1.9038359 0.51860678 0
3.7430003 -1.9093105 0.51857251 0
3.7410002 -1.9142222 0.51850396 0
3.7410002 -1.9202487 0.51850396 0
3.7400002 -1.9257126 0.51846969 0
3.7410002 -1.9323018 0.51850396 0
3.7430003 -1.9394611 0.51857251 0
3.9310002 -1.7784351 0.51864648 0
3.9240003 -1.7813574 0.51841915 0
3.9180002 -1.7847484 0.51822436 0
3.9110003 -1.7876219 0.51799709 0
3.9070003 -1.7919637 0.51786721 0
3.9100003 -1.7997887 0.5179646 0
3.9140003 -1.8081259 0.51809448 0
3.9180002 -1.8164774 0.51822436 0
3.9210002 -1.8243386 0.51832175 0
3.9250002 -1.8327171 0.51845163 0
3.9290004 -1.8411103 0.51858151 0
3.9320002 -1.8490074 0.5186789 0
3.9360003 -1.8574276 0.51880878 0
3.9400003 -1.8658623 0.51893866 0
3.9430003 -1.8737953 0.51903605 0
3.9470003 -1.882257 0.51916593 0
3.9510002 -1.890733 0.51929581 0
3.9550002 -1.8992236 0.51942569 0
3.9580002 -1.9072055 0.51952308 0
3.9620004 -1.9157231 0.51965296 0
3.9660003 -1.9242551 0.51978284 0
3.9690003 -1.9322729 0.51988029 0
3.9730003 -1.940832 0.52001011 0
3.9770002 -1.9494056 0.52013999 0
3.7890003 -1.8738188 0.51403594 0
3.7790003 -1.8745204 0.51371121 0
3.7720003 -1.8768148 0.51348394 0
3.7660003 -1.8796288 0.51328915 0
3.7610002 -1.8829676 0.51312679 0
3.7570002 -1.8868368 0.51299691 0
3.7530003 -1.8906915 0.51286703 0
3.7500002 -1.8950839 0.51276964 0
3.7470002 -1.8994653 0.51267225 0
3.7440002 -1.9038359 0.51257485 0
3.7430003 -1.9093105 0.51254237 0
3.7410002 -1.9142222 0.5124774 0
3.7410002 -1.9202487 0.5124774 0
3.7400002 -1.9257126 0.51244497 0
3.7410002 -1.9323018 0.5124774 0
3.9310002 -1.7784351 0.51227719 0
3.9240003 -1.7813574 0.51206255 0
3.9180002 -1.7847484 0.51187855 0
3.9110003 -1.7876219 0.51166391 0
3.9070003 -1.7919637 0.51154125 0
3.9100003 -1.7997887 0.51163328 0
3.9140003 -1.8081259 0.51175594 0
3.9180002 -1.8164774 0.51187855 0
3.9210002 -1.8243386 0.51197058 0
3.9250002 -1.8327171 0.51209325 0
3.9290004 -1.8411103 0.51221585 0
3.9320002 -1.8490074 0.51230788 0
3.9360003 -1.8574276 0.51243055 0
3.9400003 -1.8658623 0.51255322 0
3.9430003 -1.8737953 0.51264518 0
3.9470003 -1.882257 0.51276785 0
3.9510002 -1.890733 0.51289052 0
3.9550002 -1.8992236 0.51301318 0
3.9580002 -1.9072055 0.51310515 0
3.9620004 -1.9157231 0.51322782 0
3.9660003 -1.9242551 0.51335049 0
3.9690003 -1.9322729 0.51344246 0
3.9730003 -1.940832 0.51356512 0
3.9770002 -1.9494056 0.51368779 0
3.7890003 -1.8738188 0.50792283 0
3.7790003 -1.8745204 0.50761616 0
3.7720003 -1.8768148 0.50740153 0
3.7660003 -1.8796288 0.50721753 0
3.7610002 -1.8829676 0.50706422 0
3.7570002 -1.8868368 0.50694156 0
3.7530003 -1.8906915 0.50681889 0
3.7500002 -1.8950839 0.50672686 0
3.7470002 -1.8994653 0.50663489 0
3.7440002 -1.9038359 0.50654292 0
3.7430003 -1.9093105 0.50651222 0
3.7410002 -1.9142222 0.50645089 0
3.7410002 -1.9202487 0.50645089 0
3.7400002 -1.9257126 0.50642025 0
3.7410002 -1.9323018 0.50645089 0
3.9310002 -1.7784351 0.50590795 0
3.9240003 -1.7813574 0.50570595 0
3.9180002 -1.7847484 0.50553274 0
3.9110003 -1.7876219 0.50533074 0
3.9070003 -1.7919637 0.50521529 0
3.9100003 -1.7997887 0.50530189 0
3.9140003 -1.8081259 0.50541735 0
3.9180002 -1.8164774 0.50553274 0
3.9210002 -1.8243386 0.50561935 0
3.9250002 -1.8327171 0.5057348 0
3.9290004 -1.8411103 0.50585026 0
3.9320002 -1.8490074 0.5059368 0
3.9360003 -1.8574276 0.50605226 0
3.9400003 -1.8658623 0.50616771 0
3.9430003 -1.8737953 0.50625432 0
3.9470003 -1.882257 0.50636971 0
3.9510002 -1.890733 0.50648516 0
3.9550002 -1.8992236 0.50660062 0
3.9580002 -1.9072055 0.50668722 0
3.9620004 -1.9157231 0.50680268 0
3.9660003 -1.9242551 0.50691807 0
3.9690003 -1.9322729 0.50700468 0
3.9730003 -1.940832 0.50712013 0
3.9770002 -1.9494056 0.50723559 0
3.7890003 -1.8738188 0.50180972 0
3.7790003 -1.8745204 0.50152111 0
3.7720003 -1.8768148 0.50131905 0
3.7660003 -1.8796288 0.5011459 0
3.7610002 -1.8829676 0.5010016 0
3.7570002 -1.8868368 0.50088614 0
3.7530003 -1.8906915 0.50077069 0
3.7500002 -1.8950839 0.50068414 0
3.7470002 -1.8994653 0.50059754 0
3.7440002 -1.9038359 0.50051099 0
3.7430003 -1.9093105 0.50048208 0
3.7410002 -1.9142222 0.50042439 0
3.7410002 -1.9202487 0.50042439 0
3.7400002 -1.9257126 0.50039554 0
3.7410002 -1.9323018 0.50042439 0
3.6980002 -1.9139732 0.49918336 0
3.6920002 -1.916513 0.49901021 0
3.6860003 -1.9190313 0.49883705 0
3.9310002 -1.7784351 0.49953872 0
3.9240003 -1.7813574 0.4993493 0
3.9180002 -1.7847484 0.49918696 0
3.9110003 -1.7876219 0.49899757 0
3.9070003 -1.7919637 0.49888936 0
3.9100003 -1.7997887 0.49897051 0
3.9140003 -1.8081259 0.49907875 0
3.9180002 -1.8164774 0.49918696 0
3.9210002 -1.8243386 0.49926814 0
3.9250002 -1.8327171 0.49937636 0
3.9290004 -1.8411103 0.4994846 0
3.9320002 -1.8490074 0.49956578 0
3.9360003 -1.8574276 0.49967402 0
3.9400003 -1.8658623 0.49978223 0
3.9430003 -1.8737953 0.49986342 0
3.9470003 -1.882257 0.49997163 0
3.9510002 -1.890733 0.50007987 0
3.9550002 -1.8992236 0.50018811 0
3.9580002 -1.9072055 0.50026923 0
3.9620004 -1.9157231 0.50037748 0
3.9660003 -1.9242551 0.50048572 0
3.9690003 -1.9322729 0.5005669 0
3.9730003 -1.940832 0.50067508 0
3.9770002 -1.9494056 0.50078332 0
3.7890003 -1.8738188 0.4956966 0
3.7790003 -1.8745204 0.49542603 0
3.7720003 -1.8768148 0.49523664 0
3.7660003 -1.8796288 0.49507427 0
3.7610002 -1.8829676 0.494939 0
3.7570002 -1.8868368 0.49483079 0
3.7530003 -1.8906915 0.49472255 0
3.7500002 -1.8950839 0.49464136 0
3.7470002 -1.8994653 0.49456021 0
3.7440002 -1.9038359 0.49447903 0
3.7430003 -1.9093105 0.494452 0
3.7410002 -1.9142222 0.49439788 0
3.7410002 -1.9202487 0.49439788 0
3.7400002 -1.9257126 0.49437082 0
3.7020001 -1.9102826 0.49334264 0
3.6960003 -1.9128406 0.49318027 0
3.6900003 -1.9153768 0.49301794 0
3.6840003 -1.9178911 0.49285561 0
3.6780002 -1.9203839 0.49269328 0
3.9310002 -1.7784351 0.49316949 0
3.9240003 -1.7813574 0.4929927 0
3.9180002 -1.7847484 0.49284118 0
3.9110003 -1.7876219 0.4926644 0
3.9070003 -1.7919637 0.4925634 0
3.9100003 -1.7997887 0.49263915 0
3.9140003 -1.8081259 0.49274015 0
3.9180002 -1.8164774 0.49284118 0
3.9210002 -1.8243386 0.49291694 0
3.9250002 -1.8327171 0.49301794 0
3.9290004 -1.8411103 0.49311897 0
3.9320002 -1.8490074 0.49319473 0
3.9360003 -1.8574276 0.49329573 0
3.9400003 -1.8658623 0.49339676 0
3.9430003 -1.8737953 0.49347252 0
3.9470003 -1.882257 0.49357352 0
3.9510002 -1.890733 0.49367452 0
3.9550002 -1.8992236 0.49377555 0
3.9580002 -1.9072055 0.4938513 0
3.9620004 -1.9157231 0.49395233 0
3.9660003 -1.9242551 0.49405333 0
3.9690003 -1.9322729 0.49412909 0
3.9730003 -1.940832 0.49423012 0
3.9770002 -1.9494056 0.49433112 0
3.7890003 -1.8738188 0.48958349 0
3.7790003 -1.8745204 0.48933098 0
3.7720003 -1.8768148 0.48915419 0
3.7660003 -1.8796288 0.48900267 0
3.7610002 -1.8829676 0.4888764 0
3.7570002 -1.8868368 0.4887754 0
3.7530003 -1.8906915 0.48867437 0
3.7500002 -1.8950839 0.48859861 0
3.7470002 -1.8994653 0.48852286 0
3.7440002 -1.9038359 0.4884471 0
3.7430003 -1.9093105 0.48842186 0
3.7410002 -1.9142222 0.48837134 0
3.7410002 -1.9202487 0.48837134 0
3.7400002 -1.9257126 0.4883461 0
3.7000003 -1.9091535 0.48733595 0
3.6950002 -1.912274 0.48720968 0
3.6890004 -1.9148084 0.48705816 0
3.6830003 -1.9173212 0.48690665 0
3.6770003 -1.9198123 0.48675513 0
3.9310002 -1.7784351 0.48680022 0
3.9240003 -1.7813574 0.48663607 0
3.9180002 -1.7847484 0.48649538 0
3.9110003 -1.7876219 0.48633122 0
3.9070003 -1.7919637 0.48623744 0
3.9100003 -1.7997887 0.4863078 0
3.9140003 -1.8081259 0.48640159 0
3.9180002 -1.8164774 0.48649538 0
3.9210002 -1.8243386 0.48656574 0
3.9250002 -1.8327171 0.48665953 0
3.9290004 -1.8411103 0.48675331 0
3.9320002 -1.8490074 0.48682368 0
3.9360003 -1.8574276 0.48691747 0
3.9400003 -1.8658623 0.48701128 0
3.9430003 -1.8737953 0.48708162 0
3.9470003 -1.882257 0.48717541 0
3.9510002 -1.890733 0.48726922 0
3.9550002 -1.8992236 0.48736301 0
3.9580002 -1.9072055 0.48743337 0
3.9620004 -1.9157231 0.48752716 0
3.9660003 -1.9242551 0.48762095 0
3.9690003 -1.9322729 0.48769131 0
3.9730003 -1.940832 0.4877851 0
3.9770002 -1.9494056 0.48787892 0
3.7890003 -1.8738188 0.48347038 0
3.7790003 -1.8745204 0.4832359 0
3.7720003 -1.8768148 0.48307174 0
3.7660003 -1.8796288 0.48293105 0
3.7610002 -1.8829676 0.48281381 0
3.7570002 -1.8868368 0.48272002 0
3.7530003 -1.8906915 0.4826262 0
3.7500002 -1.8950839 0.48255587 0
3.7470002 -1.8994653 0.4824855 0
3.7440002 -1.9038359 0.48241517 0
3.7430003 -1.9093105 0.48239172 0
3.7410002 -1.9142222 0.48234481 0
3.7410002 -1.9202487 0.48234481 0
3.7400002 -1.9257126 0.48232138 0
3.7000003 -1.9091535 0.48138338 0
3.6940002 -1.9117078 0.48124269 0
3.6880002 -1.9142404 0.48110199 0
3.6820002 -1.9167511 0.48096129 0
3.6770003 -1.9198123 0.48084405 0
3.9310002 -1.7784351 0.48043096 0
3.9240003 -1.7813574 0.48027945 0
3.9180002 -1.7847484 0.48014957 0
3.9110003 -1.7876219 0.47999805 0
3.9070003 -1.7919637 0.47991148 0
3.9100003 -1.7997887 0.47997642 0
3.9140003 -1.8081259 0.48006299 0
3.9180002 -1.8164774 0.48014957 0
3.9210002 -1.8243386 0.48021454 0
3.9250002 -1.8327171 0.48030111 0
3.9290004 -1.8411103 0.48038769 0
3.9320002 -1.8490074 0.48045263 0
3.9360003 -1.8574276 0.4805392 0
3.9400003 -1.8658623 0.48062581 0
3.9430003 -1.8737953 0.48069072 0
3.9470003 -1.882257 0.48077732 0
3.9510002 -1.890733 0.48086387 0
3.9550002 -1.8992236 0.48095047 0
3.9580002 -1.9072055 0.48101541 0
3.9620004 -1.9157231 0.48110199 0
3.9660003 -1.9242551 0.4811886 0
3.9690003 -1.9322729 0.4812535 0
3.9730003 -1.940832 0.48134011 0
3.9770002 -1.9494056 0.48142669 0
3.7890003 -1.8738188 0.4773573 0
3.7790003 -1.8745204 0.47714084 0
3.7720003 -1.8768148 0.47698933 0
3.7660003 -1.8796288 0.47685945 0
3.7610002 -1.8829676 0.47675121 0
3.7570002 -1.8868368 0.47666463 0
3.7530003 -1.8906915 0.47657806 0
3.7500002 -1.8950839 0.47651309 0
3.7470002 -1.8994653 0.47644818 0
3.7440002 -1.9038359 0.47638324 0
3.7430003 -1.9093105 0.47636157 0
3.7410002 -1.9142222 0.4763183 0
3.7410002 -1.9202487 0.4763183 0
3.7400002 -1.9257126 0.47629666 0
3.7010002 -1.909718 0.47545245 0
3.6950002 -1.912274 0.4753226 0
3.6890004 -1.9148084 0.47519273 0
3.6830003 -1.9173212 0.47506285 0
3.6770003 -1.9198123 0.47493297 0
3.9310002 -1.7784351 0.47406173 0
3.9240003 -1.7813574 0.47392285 0
3.9180002 -1.7847484 0.47380379 0
3.9110003 -1.7876219 0.47366488 0
3.9070003 -1.7919637 0.47358552 0
3.9100003 -1.7997887 0.47364503 0
3.9140003 -1.8081259 0.47372442 0
3.9180002 -1.8164774 0.47380379 0
3.9210002 -1.8243386 0.4738633 0
3.9250002 -1.8327171 0.47394267 0
3.9290004 -1.8411103 0.47402206 0
3.9320002 -1.8490074 0.47408158 0
3.9360003 -1.8574276 0.47416094 0
3.9400003 -1.8658623 0.4742403 0
3.9430003 -1.8737953 0.47429985 0
3.9470003 -1.882257 0.47437918 0
3.9510002 -1.890733 0.47445858 0
3.9550002 -1.8992236 0.47453794 0
3.9580002 -1.9072055 0.47459745 0
3.9620004 -1.9157231 0.47467685 0
3.9660003 -1.9242551 0.47475618 0
3.9690003 -1.9322729 0.47481573 0
3.9730003 -1.940832 0.47489509 0
3.9770002 -1.9494056 0.47497445 0
3.7890003 -1.8738188 0.47124419 0
3.7790003 -1.8745204 0.47104576 0
3.7720003 -1.8768148 0.47090685 0
3.7660003 -1.8796288 0.47078782 0
3.7610002 -1.8829676 0.47068861 0
3.7570002 -1.8868368 0.47060925 0
3.7530003 -1.8906915 0.47052988 0
3.7500002 -1.8950839 0.47047034 0
3.7470002 -1.8994653 0.47041082 0
3.7440002 -1.9038359 0.47035128 0
3.7430003 -1.9093105 0.47033146 0
3.7410002 -1.9142222 0.47029176 0
3.7410002 -1.9202487 0.47029176 0
3.7400002 -1.9257126 0.47027194 0
3.7020001 -1.9102826 0.46951795 0
3.6960003 -1.9128406 0.46939889 0
3.6900003 -1.9153768 0.46927983 0
3.6840003 -1.9178911 0.4691608 0
3.6780002 -1.9203839 0.46904173 0
3.9310002 -1.7784351 0.46769249 0
3.9240003 -1.7813574 0.46756622 0
3.9180002 -1.7847484 0.46745798 0
3.9110003 -1.7876219 0.46733171 0
3.9070003 -1.7919637 0.46725959 0
3.9100003 -1.7997887 0.46731368 0
3.9140003 -1.8081259 0.46738583 0
3.9180002 -1.8164774 0.46745798 0
3.9210002 -1.8243386 0.4675121 0
3.9250002 -1.8327171 0.46758425 0
3.9290004 -1.8411103 0.4676564 0
3.9320002 -1.8490074 0.46771052 0
3.9360003 -1.8574276 0.46778268 0
3.9400003 -1.8658623 0.46785483 0
3.9430003 -1.8737953 0.46790892 0
3.9470003 -1.882257 0.4679811 0
3.9510002 -1.890733 0.46805325 0
3.9550002 -1.8992236 0.4681254 0
3.9580002 -1.9072055 0.46817952 0
3.9620004 -1.9157231 0.46825168 0
3.9660003 -1.9242551 0.46832383 0
3.9690003 -1.9322729 0.46837795 0
3.9730003 -1.940832 0.46845007 0
3.9770002 -1.9494056 0.46852225 0
3.7890003 -1.8738188 0.46513107 0
3.7790003 -1.8745204 0.46495068 0
3.7720003 -1.8768148 0.46482444 0
3.7660003 -1.8796288 0.4647162 0
3.7610002 -1.8829676 0.46462601 0
3.7570002 -1.8868368 0.46455386 0
3.7530003 -1.8906915 0.46448171 0
3.7500002 -1.8950839 0.46442759 0
3.7470002 -1.8994653 0.46437347 0
3.7440002 -1.9038359 0.46431935 0
3.7430003 -1.9093105 0.46430132 0
3.7410002 -1.9142222 0.46426523 0
3.7410002 -1.9202487 0.46426523 0
3.7400002 -1.9257126 0.4642472 0
3.7410002 -1.9323018 0.46426523 0
3.6980002 -1.9139732 0.46348959 0
3.6920002 -1.916513 0.46338138 0
3.6860003 -1.9190313 0.46327317 0
3.6800003 -1.9215276 0.46316493 0
3.9310002 -1.7784351 0.46132323 0
3.9240003 -1.7813574 0.4612096 0
3.9180002 -1.7847484 0.4611122 0
3.9110003 -1.7876219 0.46099854 0
3.9070003 -1.7919637 0.46093363 0
3.9100003 -1.7997887 0.46098232 0
3.9140003 -1.8081259 0.46104726 0
3.9180002 -1.8164774 0.4611122 0
3.9210002 -1.8243386 0.4611609 0
3.9250002 -1.8327171 0.46122584 0
3.9290004 -1.8411103 0.46129078 0
3.9320002 -1.8490074 0.46133947 0
3.9360003 -1.8574276 0.46140441 0
3.9400003 -1.8658623 0.46146935 0
3.9430003 -1.8737953 0.46151805 0
3.9470003 -1.882257 0.46158299 0
3.9510002 -1.890733 0.46164793 0
3.9550002 -1.8992236 0.46171287 0
3.9580002 -1.9072055 0.46176156 0
3.9620004 -1.9157231 0.4618265 0
3.9660003 -1.9242551 0.46189144 0
3.9690003 -1.9322729 0.46194014 0
3.9730003 -1.940832 0.46200508 0
3.9770002 -1.9494056 0.46207002 0
3.7890003 -1.8738188 0.45901796 0
3.7790003 -1.8745204 0.45885563 0
3.7720003 -1.8768148 0.45874199 0
3.7660003 -1.8796288 0.45864457 0
3.7610002 -1.8829676 0.45856342 0
3.7570002 -1.8868368 0.45849848 0
3.7530003 -1.8906915 0.45843354 0
3.7500002 -1.8950839 0.45838484 0
3.7470002 -1.8994653 0.45833611 0
3.7440002 -1.9038359 0.45828742 0
3.7430003 -1.9093105 0.45827121 0
3.7410002 -1.9142222 0.45823872 0
3.7410002 -1.9202487 0.45823872 0
3.7400002 -1.9257126 0.45822248 0
3.7410002 -1.9323018 0.45823872 0
3.9310002 -1.7784351 0.454954 0
3.9240003 -1.7813574 0.45485297 0
3.9180002 -1.7847484 0.45476639 0
3.9110003 -1.7876219 0.45466536 0
3.9070003 -1.7919637 0.45460767 0
3.9100003 -1.7997887 0.45465094 0
3.9140003 -1.8081259 0.45470867 0
3.9180002 -1.8164774 0.45476639 0
3.9210002 -1.8243386 0.4548097 0
3.9250002 -1.8327171 0.45486739 0
3.9290004 -1.8411103 0.45492512 0
3.9320002 -1.8490074 0.45496842 0
3.9360003 -1.8574276 0.45502615 0
3.9400003 -1.8658623 0.45508385 0
3.9430003 -1.8737953 0.45512715 0
3.9470003 -1.882257 0.45518488 0
3.9510002 -1.890733 0.4552426 0
3.9550002 -1.8992236 0.45530033 0
3.9580002 -1.9072055 0.4553436 0
3.9620004 -1.9157231 0.45540133 0
3.9660003 -1.9242551 0.45545906 0
3.9690003 -1.9322729 0.45550233 0
3.9730003 -1.940832 0.45556006 0
3.7890003 -1.8738188 0.45290485 0
3.7790003 -1.8745204 0.45276055 0
3.7720003 -1.8768148 0.45265955 0
3.7660003 -1.8796288 0.45257297 0
3.7610002 -1.8829676 0.45250082 0
3.7570002 -1.8868368 0.45244309 0
3.7530003 -1.8906915 0.45238537 0
3.7500002 -1.8950839 0.45234206 0
3.7470002 -1.8994653 0.45229879 0
3.7440002 -1.9038359 0.45225549 0
3.7430003 -1.9093105 0.45224106 0
3.7410002 -1.9142222 0.45221221 0
3.7410002 -1.9202487 0.45221221 0
3.7400002 -1.9257126 0.45219776 0
3.7410002 -1.9323018 0.45221221 0
3.9310002 -1.7784351 0.44858474 0
3.9240003 -1.7813574 0.44849634 0
3.9180002 -1.7847484 0.44842058 0
3.9110003 -1.7876219 0.44833222 0
3.9070003 -1.7919637 0.44828171 0
3.9100003 -1.7997887 0.44831958 0
3.9140003 -1.8081259 0.4483701 0
3.9180002 -1.8164774 0.44842058 0
3.9210002 -1.8243386 0.44845846 0
3.9250002 -1.8327171 0.44850898 0
3.9290004 -1.8411103 0.44855949 0
3.9320002 -1.8490074 0.44859737 0
3.9360003 -1.8574276 0.44864789 0
3.9400003 -1.8658623 0.44869837 0
3.9430003 -1.8737953 0.44873625 0
3.9470003 -1.882257 0.44878677 0
3.9510002 -1.890733 0.44883728 0
3.9550002 -1.8992236 0.44888777 0
3.9580002 -1.9072055 0.44892567 0
3.9620004 -1.9157231 0.44897616 0
3.9660003 -1.9242551 0.44902667 0
3.9690003 -1.9322729 0.44906455 0
3.7890003 -1.8738188 0.44679177 0
3.7790003 -1.8745204 0.4466655 0
3.7720003 -1.8768148 0.4465771 0
3.7660003 -1.8796288 0.44650134 0
3.7610002 -1.8829676 0.44643819 0
3.7570002 -1.8868368 0.44638771 0
3.7530003 -1.8906915 0.44633719 0
3.7500002 -1.8950839 0.44629931 0
3.7470002 -1.8994653 0.44626144 0
3.7440002 -1.9038359 0.44622356 0
3.7430003 -1.9093105 0.44621092 0
3.7410002 -1.9142222 0.44618568 0
3.7410002 -1.9202487 0.44618568 0
3.7400002 -1.9257126 0.44617304 0
3.7410002 -1.9323018 0.44618568 0
3.9310002 -1.7784351 0.4422155 0
3.9240003 -1.7813574 0.44213974 0
3.9180002 -1.7847484 0.44207481 0
3.9110003 -1.7876219 0.44199905 0
3.9070003 -1.7919637 0.44195575 0
3.9100003 -1.7997887 0.44198823 0
3.9140003 -1.8081259 0.4420315 0
3.9180002 -1.8164774 0.44207481 0
3.9210002 -1.8243386 0.44210726 0
3.7790003 -1.8745204 0.44057041 0
3.7720003 -1.8768148 0.44049466 0
3.7660003 -1.8796288 0.44042972 0
3.7610002 -1.8829676 0.44037563 0
3.7570002 -1.8868368 0.44033232 0
3.7530003 -1.8906915 0.44028902 0
3.7500002 -1.8950839 0.44025657 0
3.7470002 -1.8994653 0.44022408 0
3.7440002 -1.9038359 0.44019163 0
3.7430003 -1.9093105 0.44018081 0
3.7410002 -1.9142222 0.44015914 0
3.7410002 -1.9202487 0.44015914 0
3.7400002 -1.9257126 0.44014832 0
3.7410002 -1.9323018 0.44015914 0
3.9310002 -1.7784351 0.43584624 0
3.9240003 -1.7813574 0.43578312 0
3.9180002 -1.7847484 0.435729 0
3.9110003 -1.7876219 0.43566588 0
3.9070003 -1.7919637 0.43562979 0
3.9100003 -1.7997887 0.43565685 0
3.9140003 -1.8081259 0.43569294 0
3.9180002 -1.8164774 0.435729 0
3.7790003 -1.8745204 0.43447536 0
3.7720003 -1.8768148 0.43441221 0
3.7660003 -1.8796288 0.43435812 0
3.7610002 -1.8829676 0.434313 0
3.7570002 -1.8868368 0.43427694 0
3.7530003 -1.8906915 0.43424085 0
3.7500002 -1.8950839 0.43421379 0
3.7470002 -1.8994653 0.43418676 0
3.7440002 -1.9038359 0.4341597 0
3.7430003 -1.9093105 0.43415067 0
3.7410002 -1.9142222 0.43413264 0
3.7410002 -1.9202487 0.43413264 0
3.7400002 -1.9257126 0.43412361 0
3.7410002 -1.9323018 0.43413264 0
3.9310002 -1.7784351 0.42947701 0
3.9240003 -1.7813574 0.42942649 0
3.9180002 -1.7847484 0.42938322 0
3.9110003 -1.7876219 0.4293327 0
3.9070003 -1.7919637 0.42930382 0
3.9100003 -1.7997887 0.42932549 0
3.9140003 -1.8081259 0.42935434 0
3.9180002 -1.8164774 0.42938322 0
3.7790003 -1.8745204 0.42838028 0
3.7720003 -1.8768148 0.42832977 0
3.7660003 -1.8796288 0.42828649 0
3.7610002 -1.8829676 0.4282504 0
3.7570002 -1.8868368 0.42822155 0
3.7530003 -1.8906915 0.42819268 0
3.7500002 -1.8950839 0.42817104 0
3.7470002 -1.8994653 0.4281494 0
3.7440002 -1.9038359 0.42812777 0
3.7430003 -1.9093105 0.42812055 0
3.7410002 -1.9142222 0.4281061 0
3.7410002 -1.9202487 0.4281061 0
3.9310002 -1.7784351 0.42310774 0
3.9240003 -1.7813574 0.42306986 0
3.9180002 -1.7847484 0.42303741 0
3.9110003 -1.7876219 0.42299953 0
3.9040003 -1.7904702 0.42296165 0
3.8980002 -1.7937927 0.42292917 0
3.8910003 -1.7965922 0.42289129 0
3.8840003 -1.7993666 0.42285341 0
3.7880003 -1.8427229 0.42233393 0
3.7810001 -1.8451092 0.42229605 0
3.7750003 -1.8480045 0.42226356 0
3.7690003 -1.850878 0.42223111 0
3.7630002 -1.8537297 0.42219862 0
3.7570002 -1.8565599 0.42216617 0
3.7510002 -1.8593684 0.42213368 0
3.7440002 -1.8616123 0.42209581 0
3.7380002 -1.8643757 0.42206335 0
3.7320004 -1.8671176 0.42203087 0
3.7260003 -1.8698378 0.42199841 0
3.7200003 -1.8725362 0.42196596 0
3.7140002 -1.875213 0.42193347 0
3.6790001 -1.8913823 0.42174408 0
3.9310002 -1.7784351 0.41673851 0
3.9240003 -1.7813574 0.41671327 0
3.9180002 -1.7847484 0.4166916 0
3.9110003 -1.7876219 0.41666636 0
3.9040003 -1.7904702 0.41664112 0
3.8980002 -1.7937927 0.41661945 0
3.8910003 -1.7965922 0.41659421 0
3.8840003 -1.7993666 0.41656893 0
3.8780003 -1.8026205 0.4165473 0
3.8710003 -1.8053463 0.41652206 0
3.8070002 -1.8343621 0.41629118 0
3.8000002 -1.8368208 0.4162659 0
3.7940001 -1.8397826 0.41624427 0
3.7880003 -1.8427229 0.41622263 0
3.7810001 -1.8451092 0.41619736 0
3.7750003 -1.8480045 0.41617572 0
3.7690003 -1.850878 0.41615409 0
3.7630002 -1.8537297 0.41613242 0
3.7570002 -1.8565599 0.41611078 0
3.7510002 -1.8593684 0.41608915 0
3.7440002 -1.8616123 0.41606387 0
3.7380002 -1.8643757 0.41604224 0
3.7320004 -1.8671176 0.4160206 0
3.7260003 -1.8698378 0.41599894 0
3.7200003 -1.8725362 0.4159773 0
3.7140002 -1.875213 0.41595566 0
3.7080002 -1.8778683 0.415934 0
3.7020001 -1.8805017 0.41591236 0
3.6960003 -1.8831137 0.41589072 0
3.6900003 -1.885704 0.41586906 0
3.6850002 -1.8888335 0.41585103 0
3.6790001 -1.8913823 0.41582939 0
3.6730003 -1.8939096 0.41580775 0
3.6670003 -1.896415 0.41578609 0
3.9310002 -1.7784351 0.41036925 0
3.9240003 -1.7813574 0.41035664 0
3.9180002 -1.7847484 0.41034582 0
3.9110003 -1.7876219 0.41033319 0
3.9040003 -1.7904702 0.41032055 0
3.8980002 -1.7937927 0.41030973 0
3.8910003 -1.7965922 0.4102971 0
3.8840003 -1.7993666 0.41028449 0
3.8780003 -1.8026205 0.41027367 0
3.8710003 -1.8053463 0.41026103 0
3.8650002 -1.8085551 0.41025022 0
3.8580003 -1.8112321 0.41023758 0
3.8510003 -1.8138835 0.41022494 0
3.8260002 -1.8257959 0.41017985 0
3.8190002 -1.8283267 0.41016725 0
3.8130002 -1.8313552 0.4101564 0
3.8070002 -1.8343621 0.41014558 0
3.8000002 -1.8368208 0.41013297 0
3.7940001 -1.8397826 0.41012213 0
3.7880003 -1.8427229 0.41011131 0
3.7810001 -1.8451092 0.4100987 0
3.7750003 -1.8480045 0.41008785 0
3.7690003 -1.850878 0.41007704 0
3.7630002 -1.8537297 0.41006622 0
3.7570002 -1.8565599 0.4100554 0
3.7510002 -1.8593684 0.41004458 0
3.7440002 -1.8616123 0.41003194 0
3.7380002 -1.8643757 0.41002113 0
3.7320004 -1.8671176 0.41001031 0
3.7260003 -1.8698378 0.40999949 0
3.7200003 -1.8725362 0.40998867 0
3.7140002 -1.875213 0.40997782 0
3.7080002 -1.8778683 0.40996701 0
3.7020001 -1.8805017 0.40995619 0
3.6960003 -1.8831137 0.40994537 0
3.6900003 -1.885704 0.40993455 0
3.6850002 -1.8888335 0.40992552 0
3.6790001 -1.8913823 0.4099147 0
3.6730003 -1.8939096 0.40990388 0
3.6670003 -1.896415 0.40989307 0
3.9310002 -1.7784351 0.40400001 0
3.9240003 -1.7813574 0.40400001 0
3.9180002 -1.7847484 0.40400001 0
3.9110003 -1.7876219 0.40400001 0
3.9040003 -1.7904702 0.40400001 0
3.8980002 -1.7937927 0.40400001 0
3.8910003 -1.7965922 0.40400001 0
3.8840003 -1.7993666 0.40400001 0
3.8780003 -1.8026205 0.40400001 0
3.8710003 -1.8053463 0.40400001 0
3.8650002 -1.8085551 0.40400001 0
3.8580003 -1.8112321 0.40400001 0
3.8510003 -1.8138835 0.40400001 0
3.8450003 -1.8170241 0.40400001 0
3.8260002 -1.8257959 0.40400001 0
3.8190002 -1.8283267 0.40400001 0
3.8130002 -1.8313552 0.40400001 0
3.8070002 -1.8343621 0.40400001 0
3.8000002 -1.8368208 0.40400001 0
3.7940001 -1.8397826 0.40400001 0
3.7880003 -1.8427229 0.40400001 0
3.7810001 -1.8451092 0.40400001 0
3.7750003 -1.8480045 0.40400001 0
3.7690003 -1.850878 0.40400001 0
3.7630002 -1.8537297 0.40400001 0
3.7570002 -1.8565599 0.40400001 0
3.7510002 -1.8593684 0.40400001 0
3.7440002 -1.8616123 0.40400001 0
3.7380002 -1.8643757 0.40400001 0
3.7320004 -1.8671176 0.40400001 0
3.7260003 -1.8698378 0.40400001 0
3.7200003 -1.8725362 0.40400001 0
3.7140002 -1.875213 0.40400001 0
3.7080002 -1.8778683 0.40400001 0
3.7020001 -1.8805017 0.40400001 0
3.6960003 -1.8831137 0.40400001 0
3.6900003 -1.885704 0.40400001 0
3.6850002 -1.8888335 0.40400001 0
3.6790001 -1.8913823 0.40400001 0
3.6730003 -1.8939096 0.40400001 0
3.6670003 -1.896415 0.40400001 0
3.9310002 -1.7784351 0.39763078 0
3.9240003 -1.7813574 0.39764339 0
3.9180002 -1.7847484 0.39765421 0
3.9110003 -1.7876219 0.39766684 0
3.9040003 -1.7904702 0.39767948 0
3.8980002 -1.7937927 0.3976903 0
3.8910003 -1.7965922 0.39770293 0
3.8840003 -1.7993666 0.39771554 0
3.8780003 -1.8026205 0.39772636 0
3.8710003 -1.8053463 0.39773899 0
3.8650002 -1.8085551 0.39774981 0
3.8580003 -1.8112321 0.39776245 0
3.7880003 -1.8427229 0.39788872 0
3.7810001 -1.8451092 0.39790133 0
3.7750003 -1.8480045 0.39791217 0
3.7690003 -1.850878 0.39792299 0
3.7630002 -1.8537297 0.39793381 0
3.7570002 -1.8565599 0.39794463 0
3.7510002 -1.8593684 0.39795545 0
3.7440002 -1.8616123 0.39796808 0
3.7380002 -1.8643757 0.3979789 0
3.7320004 -1.8671176 0.39798972 0
3.7260003 -1.8698378 0.39800054 0
3.7200003 -1.8725362 0.39801136 0
3.7140002 -1.875213 0.3980222 0
3.7080002 -1.8778683 0.39803302 0
3.7020001 -1.8805017 0.39804384 0
3.6960003 -1.8831137 0.39805466 0
3.6900003 -1.885704 0.39806548 0
3.6850002 -1.8888335 0.39807451 0
3.6790001 -1.8913823 0.39808533 0
3.6730003 -1.8939096 0.39809614 0
3.9310002 -1.7784351 0.39126152 0
3.9240003 -1.7813574 0.39128676 0
3.9180002 -1.7847484 0.39130843 0
3.9110003 -1.7876219 0.39133367 0
3.9040003 -1.7904702 0.39135891 0
3.8980002 -1.7937927 0.39138058 0
3.8910003 -1.7965922 0.39140582 0
3.8840003 -1.7993666 0.39143109 0
3.8780003 -1.8026205 0.39145273 0
3.8710003 -1.8053463 0.39147797 0
3.8650002 -1.8085551 0.39149961 0
3.9310002 -1.7784351 0.38489228 0
3.9240003 -1.7813574 0.38493016 0
3.9180002 -1.7847484 0.38496262 0
3.9110003 -1.7876219 0.3850005 0
3.9070003 -1.7919637 0.38502213 0
3.9100003 -1.7997887 0.38500592 0
3.9140003 -1.8081259 0.38498425 0
3.9080002 -1.8114449 0.38501674 0
3.9010003 -1.8142371 0.38505462 0
3.8960001 -1.818018 0.38508168 0
3.8930004 -1.822798 0.38509792 0
3.8900003 -1.8275672 0.38511413 0
3.8880002 -1.8328379 0.38512495 0
4.02 -2.089823 0.38441065 0
3.9310002 -1.7784351 0.37852302 0
3.9240003 -1.7813574 0.37857354 0
3.9180002 -1.7847484 0.37861681 0
3.9110003 -1.7876219 0.37866732 0
3.9070003 -1.7919637 0.3786962 0
3.9100003 -1.7997887 0.37867454 0
3.9140003 -1.8081259 0.37864569 0
3.9080002 -1.8114449 0.37868899 0
3.9010003 -1.8142371 0.37873948 0
3.8960001 -1.818018 0.37877557 0
3.8930004 -1.822798 0.3787972 0
3.8900003 -1.8275672 0.37881884 0
3.8880002 -1.8328379 0.37883329 0
3.8870003 -1.8386157 0.37884051 0
4.033 -2.0840561 0.37778708 0
4.026 -2.0866699 0.37783757 0
4.02 -2.089823 0.37788087 0
4.0160003 -2.0940871 0.37790972 0
4.013 -2.0989051 0.37793139 0
4.0110002 -2.1042824 0.37794581 0
3.9240003 -1.7813574 0.37221691 0
3.9180002 -1.7847484 0.37227103 0
3.9110003 -1.7876219 0.37233415 0
3.9070003 -1.7919637 0.37237024 0
3.9100003 -1.7997887 0.37234318 0
3.9140003 -1.8081259 0.37230709 0
3.9080002 -1.8114449 0.37236121 0
3.9010003 -1.8142371 0.37242436 0
3.8960001 -1.818018 0.37246946 0
3.8930004 -1.822798 0.37249649 0
3.8900003 -1.8275672 0.37252355 0
3.8880002 -1.8328379 0.37254161 0
3.8870003 -1.8386157 0.37255061 0
3.8880002 -1.8454214 0.37254161 0
4.0300002 -2.0692775 0.37126088 0
4.0339999 -2.0780621 0.37122482 0
4.033 -2.0840561 0.37123382 0
4.026 -2.0866699 0.37129697 0
4.02 -2.089823 0.37135109 0
4.0160003 -2.0940871 0.37138715 0
4.013 -2.0989051 0.37141421 0
4.0110002 -2.1042824 0.37143224 0
4.0090003 -2.1096523 0.3714503 0
3.9240003 -1.7813574 0.36586028 0
3.9180002 -1.7847484 0.36592522 0
3.9110003 -1.7876219 0.36600098 0
3.9070003 -1.7919637 0.36604428 0
3.9100003 -1.7997887 0.3660118 0
3.9140003 -1.8081259 0.36596853 0
3.9080002 -1.8114449 0.36603346 0
3.9010003 -1.8142371 0.36610922 0
3.8960001 -1.818018 0.36616334 0
3.8930004 -1.822798 0.3661958 0
3.8900003 -1.8275672 0.36622828 0
3.8880002 -1.8328379 0.36624992 0
3.8870003 -1.8386157 0.36626074 0
3.8880002 -1.8454214 0.36624992 0
3.8900003 -1.8527485 0.36622828 0
4.0300002 -2.0692775 0.36471307 0
4.0339999 -2.0780621 0.36466977 0
4.033 -2.0840561 0.36468059 0
4.026 -2.0866699 0.36475638 0
4.02 -2.089823 0.36482131 0
4.0160003 -2.0940871 0.36486459 0
4.013 -2.0989051 0.36489707 0
4.0110002 -2.1042824 0.36491871 0
4.0090003 -2.1096523 0.36494035 0
4.0090003 -2.1161623 0.36494035 0
3.9180002 -1.7847484 0.35957944 0
3.9110003 -1.7876219 0.35966781 0
3.9070003 -1.7919637 0.35971832 0
3.9100003 -1.7997887 0.35968044 0
3.9140003 -1.8081259 0.35962993 0
3.9080002 -1.8114449 0.35970569 0
3.9010003 -1.8142371 0.35979408 0
3.8960001 -1.818018 0.35985723 0
3.8930004 -1.822798 0.35989511 0
3.8900003 -1.8275672 0.35993299 0
3.8880002 -1.8328379 0.35995823 0
3.8870003 -1.8386157 0.35997087 0
3.8880002 -1.8454214 0.35995823 0
3.8900003 -1.8527485 0.35993299 0
4.0300002 -2.0692775 0.35816526 0
4.0339999 -2.0780621 0.35811475 0
4.033 -2.0840561 0.35812736 0
4.026 -2.0866699 0.35821575 0
4.02 -2.089823 0.35829151 0
4.0160003 -2.0940871 0.35834202 0
4.013 -2.0989051 0.3583799 0
4.0110002 -2.1042824 0.35840514 0
4.0090003 -2.1096523 0.35843042 0
4.0090003 -2.1161623 0.35843042 0
3.9170003 -1.8096303 0.35324806 0
3.9080002 -1.8114449 0.35337794 0
3.9010003 -1.8142371 0.35347897 0
3.8960001 -1.818018 0.35355112 0
3.8930004 -1.822798 0.35359439 0
3.8900003 -1.8275672 0.3536377 0
3.8880002 -1.8328379 0.35366654 0
3.8870003 -1.8386157 0.35368097 0
3.8880002 -1.8454214 0.35366654 0
3.8900003 -1.8527485 0.3536377 0
4.033 -2.0840561 0.35157412 0
4.026 -2.0866699 0.35167515 0
4.02 -2.089823 0.35176173 0
4.0160003 -2.0940871 0.35181946 0
4.013 -2.0989051 0.35186273 0
4.0110002 -2.1042824 0.35189161 0
4.0090003 -2.1096523 0.35192046 0
4.0090003 -2.1161623 0.35192046 0
4.0110002 -2.1238229 0.35189161 0
3.9170003 -1.8096303 0.34690407 0
3.9080002 -1.8114449 0.34705019 0
3.9010003 -1.8142371 0.34716383 0
3.8960001 -1.818018 0.34724498 0
3.8930004 -1.822798 0.3472937 0
3.8900003 -1.8275672 0.3473424 0
3.8880002 -1.8328379 0.34737486 0
3.8870003 -1.8386157 0.3473911 0
3.8880002 -1.8454214 0.34737486 0
3.8900003 -1.8527485 0.3473424 0
4.033 -2.0840561 0.34502089 0
4.026 -2.0866699 0.34513453 0
4.02 -2.089823 0.34523195 0
4.0160003 -2.0940871 0.34529689 0
4.013 -2.0989051 0.34534559 0
4.0110002 -2.1042824 0.34537804 0
4.0090003 -2.1096523 0.34541053 0
4.0090003 -2.1161623 0.34541053 0
4.0110002 -2.1238229 0.34537804 0
3.9170003 -1.8096303 0.34056008 0
3.9080002 -1.8114449 0.34072241 0
3.9010003 -1.8142371 0.34084868 0
3.8960001 -1.818018 0.34093887 0
3.8930004 -1.822798 0.34099299 0
3.8900003 -1.8275672 0.34104711 0
3.8880002 -1.8328379 0.34108317 0
3.8870003 -1.8386157 0.34110123 0
3.8880002 -1.8454214 0.34108317 0
3.8900003 -1.8527485 0.34104711 0
4.033 -2.0840561 0.33846766 0
4.026 -2.0866699 0.33859393 0
4.02 -2.089823 0.33870214 0
4.0160003 -2.0940871 0.33877432 0
4.013 -2.0989051 0.33882841 0
4.0110002 -2.1042824 0.33886451 0
4.0090003 -2.1096523 0.33890057 0
4.0090003 -2.1161623 0.33890057 0
4.0110002 -2.1238229 0.33886451 0
3.9170003 -1.8096303 0.33421609 0
3.9080002 -1.8114449 0.33439466 0
3.9010003 -1.8142371 0.33453357 0
3.8960001 -1.818018 0.33463275 0
3.8930004 -1.822798 0.3346923 0
3.8900003 -1.8275672 0.33475181 0
3.8880002 -1.8328379 0.33479151 0
3.8870003 -1.8386157 0.33481133 0
3.8880002 -1.8454214 0.33479151 0
3.8900003 -1.8527485 0.33475181 0
4.033 -2.0840561 0.33191442 0
4.026 -2.0866699 0.3320533 0
4.02 -2.089823 0.33217236 0
4.0160003 -2.0940871 0.33225173 0
4.013 -2.0989051 0.33231127 0
4.0110002 -2.1042824 0.33235094 0
4.0090003 -2.1096523 0.33239064 0
4.0090003 -2.1161623 0.33239064 0
4.0110002 -2.1238229 0.33235094 0
3.9170003 -1.8096303 0.3278721 0
3.9080002 -1.8114449 0.32806692 0
3.9010003 -1.8142371 0.32821843 0
3.8960001 -1.818018 0.32832664 0
3.8930004 -1.822798 0.32839158 0
3.8900003 -1.8275672 0.32845652 0
3.8880002 -1.8328379 0.32849982 0
3.8870003 -1.8386157 0.32852146 0
3.8880002 -1.8454214 0.32849982 0
3.8900003 -1.8527485 0.32845652 0
4.033 -2.0840561 0.32536119 0
4.026 -2.0866699 0.32551271 0
4.02 -2.089823 0.32564259 0
4.0160003 -2.0940871 0.32572916 0
4.013 -2.0989051 0.3257941 0
4.0110002 -2.1042824 0.3258374 0
4.0090003 -2.1096523 0.32588068 0
4.0090003 -2.1161623 0.32588068 0
4.0110002 -2.1238229 0.3258374 0
3.9080002 -1.8114449 0.32173914 0
3.9010003 -1.8142371 0.32190329 0
3.8960001 -1.818018 0.32202053 0
3.8930004 -1.822798 0.32209086 0
3.8900003 -1.8275672 0.32216123 0
3.8880002 -1.8328379 0.32220814 0
3.8870003 -1.8386157 0.32223159 0
3.8880002 -1.8454214 0.32220814 0
3.8900003 -1.8527485 0.32216123 0
4.033 -2.0840561 0.31880796 0
4.026 -2.0866699 0.31897211 0
4.02 -2.089823 0.31911281 0
4.0160003 -2.0940871 0.3192066 0
4.013 -2.0989051 0.31927693 0
4.0110002 -2.1042824 0.31932384 0
4.0090003 -2.1096523 0.31937075 0
4.0090003 -2.1161623 0.31937075 0
4.0110002 -2.1238229 0.31932384 0
3.9080002 -1.8114449 0.31541139 0
3.9010003 -1.8142371 0.31558815 0
3.8960001 -1.818018 0.31571442 0
3.8930004 -1.822798 0.31579018 0
3.8900003 -1.8275672 0.31586593 0
3.8880002 -1.8328379 0.31591645 0
3.8870003 -1.8386157 0.31594169 0
3.8880002 -1.8454214 0.31591645 0
3.8900003 -1.8527485 0.31586593 0
4.033 -2.0840561 0.31225473 0
4.026 -2.0866699 0.31243148 0
4.02 -2.089823 0.31258303 0
4.0160003 -2.0940871 0.31268403 0
4.013 -2.0989051 0.31275979 0
4.0110002 -2.1042824 0.3128103 0
4.0090003 -2.1096523 0.31286079 0
4.0090003 -2.1161623 0.31286079 0
4.0110002 -2.1238229 0.3128103 0
3.9080002 -1.8114449 0.30908364 0
3.9010003 -1.8142371 0.30927303 0
3.8960001 -1.818018 0.30940831 0
3.8930004 -1.822798 0.30948949 0
3.8900003 -1.8275672 0.30957067 0
3.8880002 -1.8328379 0.30962476 0
3.8870003 -1.8386157 0.30965182 0
3.8880002 -1.8454214 0.30962476 0
3.8900003 -1.8527485 0.30957067 0
4.033 -2.0840561 0.30570149 0
4.026 -2.0866699 0.30589089 0
4.02 -2.089823 0.30605322 0
4.0160003 -2.0940871 0.30616146 0
4.013 -2.0989051 0.30624261 0
4.0110002 -2.1042824 0.30629674 0
4.0090003 -2.1096523 0.30635086 0
4.0090003 -2.1161623 0.30635086 0
4.0110002 -2.1238229 0.30629674 0
3.9080002 -1.8114449 0.30275586 0
3.9010003 -1.8142371 0.30295789 0
3.8960001 -1.818018 0.3031022 0
3.8930004 -1.822798 0.30318877 0
3.8900003 -1.8275672 0.30327535 0
3.8880002 -1.8328379 0.30333307 0
3.8870003 -1.8386157 0.30336195 0
3.8880002 -1.8454214 0.30333307 0
3.8900003 -1.8527485 0.30327535 0
4.033 -2.0840561 0.29914826 0
4.026 -2.0866699 0.29935026 0
4.02 -2.089823 0.29952344 0
4.0160003 -2.0940871 0.29963887 0
4.013 -2.0989051 0.29972547 0
4.0110002 -2.1042824 0.2997832 0
4.0090003 -2.1096523 0.29984093 0
4.0090003 -2.1161623 0.29984093 0
4.0110002 -2.1238229 0.2997832 0
3.9080002 -1.8114449 0.29642811 0
3.9010003 -1.8142371 0.29664275 0
3.8960001 -1.818018 0.29679608 0
3.8930004 -1.822798 0.29688808 0
3.8900003 -1.8275672 0.29698008 0
3.8880002 -1.8328379 0.29704142 0
3.8870003 -1.8386157 0.29707205 0
3.8880002 -1.8454214 0.29704142 0
3.8900003 -1.8527485 0.29698008 0
4.033 -2.0840561 0.29259503 0
4.026 -2.0866699 0.29280967 0
4.02 -2.089823 0.29299366 0
4.0160003 -2.0940871 0.29311633 0
4.013 -2.0989051 0.2932083 0
4.0110002 -2.1042824 0.29326963 0
4.0090003 -2.1096523 0.29333097 0
4.0090003 -2.1161623 0.29333097 0
4.0110002 -2.1238229 0.29326963 0
3.9080002 -1.8114449 0.29010034 0
3.9010003 -1.8142371 0.29032764 0
3.8960001 -1.818018 0.29048997 0
3.8930004 -1.822798 0.29058737 0
3.8900003 -1.8275672 0.29068479 0
3.8880002 -1.8328379 0.29074973 0
3.8870003 -1.8386157 0.29078218 0
3.8880002 -1.8454214 0.29074973 0
3.8900003 -1.8527485 0.29068479 0
4.033 -2.0840561 0.28604177 0
4.026 -2.0866699 0.28626907 0
4.02 -2.089823 0.28646386 0
4.0160003 -2.0940871 0.28659374 0
4.013 -2.0989051 0.28669113 0
4.0110002 -2.1042824 0.2867561 0
4.0090003 -2.1096523 0.28682101 0
4.0090003 -2.1161623 0.28682101 0
4.0110002 -2.1238229 0.2867561 0
3.9080002 -1.8114449 0.28377259 0
3.9010003 -1.8142371 0.2840125 0
3.8960001 -1.818018 0.28418386 0
3.8930004 -1.822798 0.28428668 0
3.8900003 -1.8275672 0.2843895 0
3.8880002 -1.8328379 0.28445804 0
3.8870003 -1.8386157 0.28449231 0
3.8880002 -1.8454214 0.28445804 0
3.8900003 -1.8527485 0.2843895 0
4.033 -2.0840561 0.27948856 0
4.026 -2.0866699 0.27972844 0
4.02 -2.089823 0.27993411 0
4.0160003 -2.0940871 0.28007117 0
4.013 -2.0989051 0.28017399 0
4.0110002 -2.1042824 0.28024253 0
4.0090003 -2.1096523 0.28031108 0
4.0090003 -2.1161623 0.28031108 0
4.0110002 -2.1238229 0.28024253 0
3.9080002 -1.8114449 0.27744484 0
3.9010003 -1.8142371 0.27769735 0
3.8960001 -1.818018 0.27787775 0
3.8930004 -1.822798 0.27798596 0
3.8900003 -1.8275672 0.2780942 0
3.8880002 -1.8328379 0.27816635 0
3.8870003 -1.8386157 0.27820241 0
3.8880002 -1.8454214 0.27816635 0
3.8900003 -1.8527485 0.2780942 0
4.033 -2.0840561 0.2729353 0
4.026 -2.0866699 0.27318785 0
4.02 -2.089823 0.2734043 0
4.0160003 -2.0940871 0.2735486 0
4.013 -2.0989051 0.27365685 0
4.0110002 -2.1042824 0.27372897 0
4.0090003 -2.1096523 0.27380115 0
4.0090003 -2.1161623 0.27380115 0
4.0110002 -2.1238229 0.27372897 0
3.9080002 -1.8114449 0.27111709 0
3.9010003 -1.8142371 0.27138221 0
3.8960001 -1.818018 0.27157164 0
3.8930004 -1.822798 0.27168527 0
3.8900003 -1.8275672 0.27179891 0
3.8880002 -1.8328379 0.27187467 0
3.8870003 -1.8386157 0.27191254 0
3.8880002 -1.8454214 0.27187467 0
3.8900003 -1.8527485 0.27179891 0
4.033 -2.0840561 0.2663821 0
4.026 -2.0866699 0.26664722 0
4.02 -2.089823 0.26687449 0
4.0160003 -2.0940871 0.26702604 0
4.013 -2.0989051 0.26713967 0
4.0110002 -2.1042824 0.26721543 0
4.0090003 -2.1096523 0.26729119 0
4.0090003 -2.1161623 0.26729119 0
4.0110002 -2.1238229 0.26721543 0
3.9080002 -1.8114449 0.26478931 0
3.9010003 -1.8142371 0.2650671 0
3.8960001 -1.818018 0.26526552 0
3.8930004 -1.822798 0.26538455 0
3.8900003 -1.8275672 0.26550362 0
3.8880002 -1.8328379 0.26558298 0
3.8870003 -1.8386157 0.26562268 0
3.8880002 -1.8454214 0.26558298 0
3.8900003 -1.8527485 0.26550362 0
4.033 -2.0840561 0.25982884 0
4.026 -2.0866699 0.26010662 0
4.02 -2.089823 0.26034474 0
4.0160003 -2.0940871 0.26050347 0
4.013 -2.0989051 0.2606225 0
4.0110002 -2.1042824 0.26070189 0
4.0090003 -2.1096523 0.26078123 0
4.0090003 -2.1161623 0.26078123 0
4.0110002 -2.1238229 0.26070189 0
3.9080002 -1.8114449 0.25846153 0
3.9010003 -1.8142371 0.25875196 0
3.8960001 -1.818018 0.25895941 0
3.8930004 -1.822798 0.25908387 0
3.8900003 -1.8275672 0.25920832 0
3.8880002 -1.8328379 0.25929129 0
3.8870003 -1.8386157 0.25933278 0
3.8880002 -1.8454214 0.25929129 0
3.8900003 -1.8527485 0.25920832 0
4.033 -2.0840561 0.2532756 0
4.026 -2.0866699 0.25356603 0
4.02 -2.089823 0.25381494 0
4.0160003 -2.0940871 0.25398088 0
4.013 -2.0989051 0.25410533 0
4.0110002 -2.1042824 0.25418833 0
4.0090003 -2.1096523 0.2542713 0
4.0090003 -2.1161623 0.2542713 0
4.0110002 -2.1238229 0.25418833 0
3.9080002 -1.8114449 0.25213379 0
3.9010003 -1.8142371 0.25243682 0
3.8960001 -1.818018 0.2526533 0
3.8930004 -1.822798 0.25278315 0
3.8900003 -1.8275672 0.25291303 0
3.8880002 -1.8328379 0.2529996 0
3.8870003 -1.8386157 0.25304291 0
3.8880002 -1.8454214 0.2529996 0
3.8900003 -1.8527485 0.25291303 0
4.033 -2.0840561 0.24672237 0
4.026 -2.0866699 0.24702542 0
4.02 -2.089823 0.24728516 0
4.0160003 -2.0940871 0.24745832 0
4.013 -2.0989051 0.24758819 0
4.0110002 -2.1042824 0.24767478 0
4.0090003 -2.1096523 0.24776135 0
4.0090003 -2.1161623 0.24776135 0
4.0110002 -2.1238229 0.24767478 0
3.9080002 -1.8114449 0.24580604 0
3.9010003 -1.8142371 0.2461217 0
3.8960001 -1.818018 0.24634717 0
3.8930004 -1.822798 0.24648246 0
3.8900003 -1.8275672 0.24661773 0
3.8880002 -1.8328379 0.24670793 0
3.8870003 -1.8386157 0.24675304 0
3.8880002 -1.8454214 0.24670793 0
3.8900003 -1.8527485 0.24661773 0
4.033 -2.0840561 0.24016914 0
4.026 -2.0866699 0.2404848 0
4.02 -2.089823 0.24075538 0
4.0160003 -2.0940871 0.24093576 0
4.013 -2.0989051 0.24107103 0
4.0110002 -2.1042824 0.24116123 0
4.0090003 -2.1096523 0.24125141 0
4.0090003 -2.1161623 0.24125141 0
4.0110002 -2.1238229 0.24116123 0
3.9080002 -1.8114449 0.23947828 0
3.9010003 -1.8142371 0.23980658 0
3.8960001 -1.818018 0.24004106 0
3.8930004 -1.822798 0.24018174 0
3.8900003 -1.8275672 0.24032246 0
3.8880002 -1.8328379 0.24041626 0
3.8870003 -1.8386157 0.24046315 0
3.8880002 -1.8454214 0.24041626 0
3.8900003 -1.8527485 0.24032246 0
4.033 -2.0840561 0.23361591 0
4.026 -2.0866699 0.23394419 0
4.02 -2.089823 0.23422559 0
4.0160003 -2.0940871 0.23441318 0
4.013 -2.0989051 0.23455387 0
4.0110002 -2.1042824 0.23464768 0
4.0090003 -2.1096523 0.23474146 0
4.0090003 -2.1161623 0.23474146 0
4.0110002 -2.1238229 0.23464768 0
3.9080002 -1.8114449 0.23315051 0
3.9010003 -1.8142371 0.23349142 0
3.8960001 -1.818018 0.23373497 0
3.8930004 -1.822798 0.23388106 0
3.8900003 -1.8275672 0.23402716 0
3.8880002 -1.8328379 0.23412457 0
3.8870003 -1.8386157 0.23417327 0
3.8880002 -1.8454214 0.23412457 0
3.8900003 -1.8527485 0.23402716 0
4.033 -2.0840561 0.22706266 0
4.026 -2.0866699 0.22740358 0
4.02 -2.089823 0.22769579 0
4.0160003 -2.0940871 0.22789061 0
4.013 -2.0989051 0.22803672 0
4.0110002 -2.1042824 0.22813413 0
4.0090003 -2.1096523 0.22823152 0
4.0090003 -2.1161623 0.22823152 0
4.0110002 -2.1238229 0.22813413 0
3.9080002 -1.8114449 0.22682275 0
3.9010003 -1.8142371 0.22717629 0
3.8960001 -1.818018 0.22742884 0
3.8930004 -1.822798 0.22758035 0
3.8900003 -1.8275672 0.22773187 0
3.8880002 -1.8328379 0.2278329 0
3.8870003 -1.8386157 0.22788338 0
3.8880002 -1.8454214 0.2278329 0
3.8900003 -1.8527485 0.22773187 0
4.033 -2.0840561 0.22050942 0
4.026 -2.0866699 0.22086297 0
4.02 -2.089823 0.22116601 0
4.0160003 -2.0940871 0.22136804 0
4.013 -2.0989051 0.22151956 0
4.0110002 -2.1042824 0.22162057 0
4.0090003 -2.1096523 0.22172159 0
4.0090003 -2.1161623 0.22172159 0
4.0110002 -2.1238229 0.22162057 0
3.9080002 -1.8114449 0.220495 0
3.9010003 -1.8142371 0.22086117 0
3.8960001 -1.818018 0.22112273 0
3.8930004 -1.822798 0.22127965 0
3.8900003 -1.8275672 0.22143658 0
3.8880002 -1.8328379 0.2215412 0
3.8870003 -1.8386157 0.22159351 0
3.8880002 -1.8454214 0.2215412 0
3.8900003 -1.8527485 0.22143658 0
4.033 -2.0840561 0.21395619 0
4.026 -2.0866699 0.21432236 0
4.02 -2.089823 0.21463622 0
4.0160003 -2.0940871 0.21484546 0
4.013 -2.0989051 0.21500239 0
4.0110002 -2.1042824 0.21510702 0
4.0090003 -2.1096523 0.21521164 0
4.0090003 -2.1161623 0.21521164 0
4.0110002 -2.1238229 0.21510702 0
3.9080002 -1.8114449 0.21416724 0
3.9010003 -1.8142371 0.21454604 0
3.8960001 -1.818018 0.2148166 0
3.8930004 -1.822798 0.21497895 0
3.8900003 -1.8275672 0.2151413 0
3.8880002 -1.8328379 0.21524952 0
3.8870003 -1.8386157 0.21530363 0
3.8880002 -1.8454214 0.21524952 0
3.8900003 -1.8527485 0.2151413 0
4.033 -2.0840561 0.20740296 0
4.026 -2.0866699 0.20778175 0
4.02 -2.089823 0.20810644 0
4.0160003 -2.0940871 0.2083229 0
4.013 -2.0989051 0.20848523 0
4.0110002 -2.1042824 0.20859347 0
4.0090003 -2.1096523 0.2087017 0
4.0090003 -2.1161623 0.2087017 0
4.0110002 -2.1238229 0.20859347 0
3.9080002 -1.8114449 0.20783949 0
3.9010003 -1.8142371 0.2082309 0
3.8960001 -1.818018 0.2085105 0
3.8930004 -1.822798 0.20867825 0
3.8900003 -1.8275672 0.20884599 0
3.8880002 -1.8328379 0.20895784 0
3.8870003 -1.8386157 0.20901375 0
3.8880002 -1.8454214 0.20895784 0
3.8900003 -1.8527485 0.20884599 0
