# .PCD v0.7 - Point Cloud Data file format
VERSION 0.7
FIELDS x y z intensity
SIZE 4 4 4 4
TYPE F F F F
COUNT 1 1 1 1
WIDTH 1436
HEIGHT 1
VIEWPOINT 0 0 0 1 0 0 0
POINTS 1436
DATA ascii
4.1280003 0.068318143 1.0697352 0
4.1300001 0.061651278 1.0700923 0
4.131 0.054950129 1.0702709 0
4.1340003 0.048295874 1.0708066 0
4.1370001 0.041630808 1.0713423 0
4.1400003 0.034954917 1.0718781 0
4.1440001 0.02828804 1.0725924 0
4.1480002 0.021606732 1.0733067 0
4.1540003 0.014943469 1.0743781 0
4.1589999 0.0082441196 1.075271 0
4.1670003 0.0015646182 1.0766996 0
4.1600003 0.17781653 1.0686673 0
4.1530004 0.17063016 1.0674299 0
4.1480002 0.16358086 1.066546 0
4.1430001 0.15654963 1.0656621 0
4.1389999 0.14958872 1.064955 0
4.1360002 0.14269276 1.0644246 0
4.1330004 0.13580763 1.0638944 0
4.131 0.12898022 1.0635408 0
4.1290002 0.12216002 1.0631872 0
4.1270003 0.11534704 1.0628338 0
4.1259999 0.10858275 1.062657 0
4.125 0.10182208 1.0624802 0
4.125 0.095102906 1.0624802 0
4.125 0.088383704 1.0624802 0
4.1259999 0.08169879 1.062657 0
4.1259999 0.0749778 1.062657 0
4.1280003 0.068318143 1.0630106 0
4.1290002 0.061622415 1.0631872 0
4.131 0.054950129 1.0635408 0
4.1330004 0.048270632 1.0638944 0
4.1360002 0.041607354 1.0644246 0
4.1389999 0.034933265 1.064955 0
4.1430001 0.028268199 1.0656621 0
4.1470003 0.021588694 1.0663692 0
4.1530004 0.014927227 1.0674299 0
4.158 0.0082296915 1.0683137 0
4.165 0.0015393645 1.0695511 0
4.1660004 0.18496682 1.0629348 0
4.1589999 0.17775699 1.06171 0
4.152 0.17057243 1.0604851 0
4.1470003 0.16352496 1.0596104 0
4.1420002 0.1564955 1.0587355 0
4.138 0.14953642 1.0580356 0
4.1350002 0.14264226 1.0575107 0
4.1330004 0.13580763 1.0571607 0
4.1300001 0.12893331 1.0566359 0
4.1290002 0.12216002 1.0564609 0
4.1270003 0.11534704 1.056111 0
4.1259999 0.10858275 1.055936 0
4.125 0.10182208 1.055761 0
4.125 0.095102906 1.055761 0
4.125 0.088383704 1.055761 0
4.1259999 0.08169879 1.055936 0
4.1259999 0.0749778 1.055936 0
4.1270003 0.068287492 1.056111 0
4.1290002 0.061622415 1.0564609 0
4.131 0.054950129 1.0568109 0
4.1330004 0.048270632 1.0571607 0
4.1360002 0.041607354 1.0576856 0
4.1389999 0.034933265 1.0582106 0
4.1430001 0.028268199 1.0589105 0
4.1470003 0.021588694 1.0596104 0
4.152 0.014910996 1.0604851 0
4.158 0.0082296915 1.061535 0
4.165 0.0015393645 1.0627598 0
4.1730003 -0.0051653907 1.0641595 0
4.1660004 0.18496682 1.0561416 0
4.1589999 0.17775699 1.0549295 0
4.1530004 0.17063016 1.0538905 0
4.1480002 0.16358086 1.0530246 0
4.1430001 0.15654963 1.0521588 0
4.1389999 0.14958872 1.0514661 0
4.1360002 0.14269276 1.0509466 0
4.1330004 0.13580763 1.0504272 0
4.131 0.12898022 1.0500809 0
4.1290002 0.12216002 1.0497345 0
4.1280003 0.11539032 1.0495613 0
4.1270003 0.10862425 1.0493882 0
4.1259999 0.10186176 1.049215 0
4.1259999 0.09514077 1.049215 0
4.1259999 0.08841978 1.049215 0
4.1259999 0.08169879 1.049215 0
4.1270003 0.075010285 1.0493882 0
4.1280003 0.068318143 1.0495613 0
4.1290002 0.061622415 1.0497345 0
4.131 0.054950129 1.0500809 0
4.1340003 0.048295874 1.0506003 0
4.1360002 0.041607354 1.0509466 0
4.1389999 0.034933265 1.0514661 0
4.1430001 0.028268199 1.0521588 0
4.1470003 0.021588694 1.0528516 0
4.152 0.014910996 1.0537173 0
4.158 0.0082296915 1.0547563 0
4.165 0.0015393645 1.0559684 0
4.1719999 -0.0051762126 1.0571806 0
4.1670003 0.18502814 1.0495199 0
4.1600003 0.17781653 1.0483203 0
4.1530004 0.17063016 1.0471208 0
4.1480002 0.16358086 1.0462641 0
4.1440001 0.15660374 1.0455785 0
4.1400003 0.14964104 1.044893 0
4.1370001 0.14274329 1.044379 0
4.1340003 0.13585635 1.0438648 0
4.132 0.12902711 1.0435221 0
4.1300001 0.12220512 1.0431795 0
4.1280003 0.11539032 1.0428367 0
4.1270003 0.10862425 1.0426654 0
4.1259999 0.10186176 1.0424939 0
4.1259999 0.09514077 1.0424939 0
4.1259999 0.08841978 1.0424939 0
4.1270003 0.081733063 1.0426654 0
4.1270003 0.075010285 1.0426654 0
4.1280003 0.068318143 1.0428367 0
4.1300001 0.061651278 1.0431795 0
4.132 0.05497719 1.0435221 0
4.1340003 0.048295874 1.0438648 0
4.1370001 0.041630808 1.044379 0
4.1400003 0.034954917 1.044893 0
4.1440001 0.02828804 1.0455785 0
4.1480002 0.021606732 1.0462641 0
4.1530004 0.014927227 1.0471208 0
4.158 0.0082296915 1.0479776 0
4.165 0.0015393645 1.0491772 0
4.1730003 -0.0051653907 1.0505481 0
4.1680002 0.18508947 1.0428945 0
4.1600003 0.17781653 1.041538 0
4.1540003 0.17068787 1.0405207 0
4.1490002 0.16363677 1.0396729 0
4.145 0.15665786 1.0389946 0
4.1410003 0.14969335 1.0383164 0
4.138 0.14279377 1.0378077 0
4.1350002 0.13590503 1.037299 0
4.132 0.12902711 1.0367904 0
4.1300001 0.12220512 1.0364512 0
4.1290002 0.11543362 1.0362817 0
4.1280003 0.10866573 1.0361121 0
4.1270003 0.10190144 1.0359426 0
4.1270003 0.095178664 1.0359426 0
4.1270003 0.088455871 1.0359426 0
4.1280003 0.081767336 1.0361121 0
4.1280003 0.075042754 1.0361121 0
4.1300001 0.068379477 1.0364512 0
4.131 0.061680134 1.0366209 0
4.1330004 0.055004243 1.03696 0
4.1350002 0.048321132 1.037299 0
4.138 0.041654255 1.0378077 0
4.1410003 0.034976561 1.0383164 0
4.145 0.028307874 1.0389946 0
4.1490002 0.02162477 1.0396729 0
4.1540003 0.014943469 1.0405207 0
4.1589999 0.0082441196 1.0413684 0
4.1660004 0.0015519932 1.0425553 0
4.1740003 -0.005154565 1.0439118 0
4.1690001 0.18515082 1.0362655 0
4.1610003 0.17787606 1.0349234 0
4.1550002 0.1707456 1.0339168 0
4.1500001 0.16369271 1.0330782 0
4.1460004 0.15671197 1.0324072 0
4.1420002 0.14974566 1.0317361 0
4.1389999 0.14284427 1.0312328 0
4.1360002 0.13595374 1.0307295 0
4.1340003 0.12912092 1.0303941 0
4.132 0.12229531 1.0300586 0
4.131 0.11552021 1.0298908 0
4.1300001 0.10874872 1.029723 0
4.1290002 0.10198081 1.0295553 0
4.1290002 0.095254421 1.0295553 0
4.1290002 0.088528007 1.0295553 0
4.1290002 0.081801608 1.0295553 0
4.1300001 0.075107694 1.029723 0
4.131 0.068410143 1.0298908 0
4.132 0.061708998 1.0300586 0
4.1340003 0.055031296 1.0303941 0
4.1360002 0.048346382 1.0307295 0
4.1389999 0.04167771 1.0312328 0
4.1420002 0.034998197 1.0317361 0
4.1460004 0.028327722 1.0324072 0
4.1500001 0.021642815 1.0330782 0
4.1550002 0.0149597 1.0339168 0
4.1610003 0.0082729831 1.0349234 0
4.1670003 0.0015646182 1.0359299 0
4.1750002 -0.005143743 1.037272 0
4.171 0.18527347 1.0297987 0
4.164 0.17805463 1.0286372 0
4.158 0.17091876 1.0276414 0
4.1530004 0.16386047 1.0268117 0
4.1480002 0.15682019 1.0259819 0
4.1440001 0.14985028 1.0253181 0
4.1410003 0.14294529 1.0248203 0
4.138 0.13605115 1.0243225 0
4.1360002 0.1292147 1.0239905 0
4.1340003 0.1223855 1.0236586 0
4.1330004 0.1156068 1.0234927 0
4.131 0.10879019 1.0231608 0
4.131 0.10206018 1.0231608 0
4.1300001 0.095292285 1.0229949 0
4.1300001 0.088564098 1.0229949 0
4.131 0.081870154 1.0231608 0
4.131 0.075140163 1.0231608 0
4.1330004 0.068471476 1.0234927 0
4.1340003 0.061766718 1.0236586 0
4.1360002 0.055085409 1.0239905 0
4.138 0.048396889 1.0243225 0
4.1410003 0.041724611 1.0248203 0
4.1440001 0.035041492 1.0253181 0
4.1480002 0.028367404 1.0259819 0
4.152 0.021678884 1.0266458 0
4.1570001 0.01499217 1.0274755 0
4.1630001 0.008301843 1.0284712 0
4.1700001 0.0016025007 1.0296329 0
4.177 -0.0051220991 1.0307945 0
4.1670003 0.17823321 1.0223401 0
4.1610003 0.17109193 1.0213552 0
4.1550002 0.16397229 1.0203704 0
4.1500001 0.15692842 1.0195496 0
4.1470003 0.15000722 1.0190572 0
4.1430001 0.14304632 1.0184005 0
4.1400003 0.13614854 1.0179081 0
4.138 0.12930851 1.0175798 0
4.1360002 0.12247568 1.0172515 0
4.1340003 0.11565007 1.0169232 0
4.1330004 0.10887317 1.0167592 0
4.1330004 0.10213956 1.0167592 0
4.132 0.095368057 1.0165949 0
4.132 0.088636234 1.0165949 0
4.1330004 0.081938699 1.0167592 0
4.1340003 0.075237557 1.0169232 0
4.1350002 0.06853281 1.0170873 0
4.1360002 0.061824437 1.0172515 0
4.138 0.05513953 1.0175798 0
4.1400003 0.048447404 1.0179081 0
4.1430001 0.041771505 1.0184005 0
4.1460004 0.035084788 1.018893 0
4.1500001 0.028407093 1.0195496 0
4.1540003 0.021714959 1.0202062 0
4.1600003 0.015040874 1.0211911 0
4.165 0.0083307028 1.0220118 0
4.1719999 0.0016277507 1.0231608 0
4.1700001 0.17841178 1.0160321 0
4.1630001 0.17120737 1.0148958 0
4.158 0.16414005 1.014084 0
4.1530004 0.15709078 1.0132723 0
4.1490002 0.15011182 1.012623 0
4.145 0.14314732 1.0119736 0
4.1430001 0.13629466 1.0116489 0
4.1400003 0.12940231 1.0111619 0
4.138 0.12256588 1.0108372 0
4.1370001 0.11577995 1.0106748 0
4.1360002 0.10899763 1.0105125 0
4.1350002 0.10221893 1.0103501 0
4.1350002 0.095481694 1.0103501 0
4.1350002 0.088744476 1.0103501 0
4.1350002 0.082007244 1.0103501 0
4.1360002 0.075302497 1.0105125 0
4.1370001 0.068594128 1.0106748 0
4.1389999 0.06191102 1.0109996 0
4.1410003 0.055220697 1.0113242 0
4.1430001 0.048523162 1.0116489 0
4.1460004 0.041841861 1.0121359 0
4.1490002 0.03514972 1.012623 0
4.1530004 0.028466623 1.0132723 0
4.1570001 0.02176908 1.0139216 0
4.1620002 0.01507334 1.0147334 0
4.1680002 0.0083739944 1.0157075 0
4.1750002 0.0016656332 1.0168438 0
4.1730003 0.17859036 1.0097134 0
4.1670003 0.17143826 1.0087502 0
4.1610003 0.1643078 1.0077869 0
4.1560001 0.15725312 1.0069842 0
4.152 0.15026876 1.0063421 0
4.1490002 0.14334935 1.0058604 0
4.1460004 0.13644077 1.0053788 0
4.1430001 0.12954301 1.0048972 0
4.1420002 0.12274626 1.0047367 0
4.1400003 0.11590983 1.0044156 0
4.1389999 0.10912208 1.0042551 0
4.138 0.10233796 1.0040945 0
4.138 0.09559533 1.0040945 0
4.138 0.088852704 1.0040945 0
4.138 0.082110062 1.0040945 0
4.1389999 0.075399905 1.0042551 0
4.1400003 0.068686128 1.0044156 0
4.1420002 0.061997604 1.0047367 0
4.1430001 0.055274818 1.0048972 0
4.1460004 0.048598919 1.0053788 0
4.1490002 0.041912194 1.0058604 0
4.152 0.035214659 1.0063421 0
4.1560001 0.028526139 1.0069842 0
4.1600003 0.021823194 1.0076264 0
4.1660004 0.015138276 1.0085896 0
4.1719999 0.008431714 1.0095528 0
4.1790004 0.0017161407 1.0106766 0
4.171 0.17166914 1.0025902 0
4.1660004 0.16458739 1.0017965 0
4.1610003 0.15752368 1.0010028 0
4.1560001 0.15047802 1.0002091 0
4.1530004 0.14355138 0.99973297 0
4.1500001 0.13663559 0.99925673 0
4.1470003 0.1297306 0.99878049 0
4.145 0.12288153 0.99846303 0
4.1430001 0.11603971 0.99814558 0
4.1420002 0.10924655 0.99798691 0
4.1410003 0.10245702 0.99782813 0
4.1410003 0.095708981 0.99782813 0
4.1410003 0.088960931 0.99782813 0
4.1410003 0.08221288 0.99782813 0
4.1420002 0.075497299 0.99798691 0
4.1430001 0.068778127 0.99814558 0
4.145 0.062084187 0.99846303 0
4.1470003 0.055383038 0.99878049 0
4.1490002 0.048674677 0.99909794 0
4.152 0.04198255 0.99957418 0
4.1550002 0.035279598 1.0000504 0
4.1600003 0.02860551 1.0008441 0
4.164 0.021895345 1.001479 0
4.1700001 0.015203211 1.0024314 0
4.1760001 0.0084894411 1.0033839 0
4.1760001 0.17195776 0.99657273 0
4.1700001 0.16481107 0.9956311 0
4.165 0.15774013 0.99484646 0
4.1600003 0.15068725 0.99406183 0
4.1560001 0.14370291 0.99343407 0
4.1530004 0.13678169 0.99296319 0
4.1500001 0.12987131 0.99249244 0
4.1480002 0.12301683 0.99217856 0
4.1470003 0.11621287 0.99202168 0
4.1460004 0.10941251 0.9918648 0
4.145 0.10261574 0.9917078 0
4.145 0.095860496 0.9917078 0
4.145 0.089105234 0.9917078 0
4.145 0.082349956 0.9917078 0
4.1460004 0.075627193 0.9918648 0
4.1470003 0.068900779 0.99202168 0
4.1490002 0.062199634 0.99233544 0
4.151 0.055491272 0.99264932 0
4.1530004 0.048775692 0.99296319 0
4.1560001 0.042076353 0.99343407 0
4.1600003 0.035387825 0.99406183 0
4.164 0.028684881 0.99468946 0
4.1690001 0.021985535 0.9954741 0
4.1740003 0.015268154 0.99625885 0
4.1810002 0.0085615925 0.99735737 0
4.1750002 0.16509065 0.98960626 0
4.1690001 0.1579566 0.98867559 0
4.165 0.15094879 0.98805511 0
4.1610003 0.14395544 0.98743463 0
4.158 0.13702519 0.98696923 0
4.1550002 0.13010579 0.98650384 0
4.1530004 0.1232423 0.98619354 0
4.151 0.11638603 0.98588336 0
4.1500001 0.10957846 0.98572814 0
4.1490002 0.10277449 0.98557305 0
4.1490002 0.096012011 0.98557305 0
4.1490002 0.089249536 0.98557305 0
4.1490002 0.082487062 0.98557305 0
4.1500001 0.075757056 0.98572814 0
4.151 0.069023445 0.98588336 0
4.1530004 0.06231508 0.98619354 0
4.1550002 0.055599492 0.98650384 0
4.1570001 0.048876707 0.98681402 0
4.1610003 0.042193595 0.98743463 0
4.164 0.035474408 0.9878999 0
4.1690001 0.028784085 0.98867559 0
4.1730003 0.022057686 0.98929608 0
4.1790004 0.015349321 0.99022686 0
4.1760001 0.15833539 0.98295033 0
4.171 0.15126266 0.98218369 0
4.1670003 0.14425847 0.98157036 0
4.1630001 0.13726872 0.98095703 0
4.1600003 0.13034029 0.98049712 0
4.158 0.12346777 0.98019052 0
4.1560001 0.11660248 0.97988379 0
4.1550002 0.1097859 0.97973049 0
4.1540003 0.10297291 0.97957718 0
4.1530004 0.096163541 0.97942388 0
4.1530004 0.089393839 0.97942388 0
4.1540003 0.082658425 0.97957718 0
4.1550002 0.075919405 0.97973049 0
4.1560001 0.069176763 0.97988379 0
4.1570001 0.06243052 0.98003721 0
4.1600003 0.05573478 0.98049712 0
4.1620002 0.049002964 0.98080373 0
4.1660004 0.042310845 0.98141706 0
4.1690001 0.035582643 0.98187709 0
4.1740003 0.02888329 0.9826436 0
4.1790004 0.022165913 0.98341024 0
4.177 0.15157652 0.97629058 0
4.1730003 0.14456151 0.97568452 0
4.1690001 0.13756093 0.97507858 0
4.1660004 0.13062169 0.97462392 0
4.1630001 0.12369326 0.97416937 0
4.1610003 0.11681895 0.97386634 0
4.1600003 0.10999332 0.97371483 0
4.1589999 0.10317132 0.97356331 0
4.1589999 0.096390814 0.97356331 0
4.1589999 0.089610294 0.97356331 0
4.1589999 0.082829773 0.97356331 0
4.1600003 0.076081753 0.97371483 0
4.1610003 0.069330081 0.97386634 0
4.1630001 0.062603682 0.97416937 0
4.165 0.055870067 0.9744724 0
4.1680002 0.049154494 0.97492695 0
4.171 0.042428095 0.97538149 0
4.1760001 0.035734165 0.97613919 0
4.1800003 0.029002342 0.97674525 0
4.1750002 0.13785315 0.9691782 0
4.1719999 0.13090307 0.96872914 0
4.1690001 0.12396383 0.96827996 0
4.1680002 0.11712198 0.96813023 0
4.1660004 0.11024226 0.96783078 0
4.165 0.10340942 0.96768105 0
4.165 0.096618086 0.96768105 0
4.164 0.089790687 0.96753132 0
4.164 0.083001152 0.96753132 0
4.1660004 0.076276556 0.96783078 0
4.1670003 0.069514066 0.9679805 0
4.1690001 0.062776849 0.96827996 0
4.171 0.056032415 0.96857941 0
4.1740003 0.049306009 0.96902847 0
4.178 0.042592239 0.96962738 0
4.1820002 0.035864037 0.97022617 0
4.177 0.12432459 0.96266472 0
4.1750002 0.11742502 0.96236885 0
4.1730003 0.11053267 0.96207309 0
4.1719999 0.10368721 0.96192515 0
4.171 0.096845374 0.96177721 0
4.171 0.090043217 0.96177721 0
4.1719999 0.083275318 0.96192515 0
4.1730003 0.076503828 0.96207309 0
4.1740003 0.069728732 0.96222091 0
4.1750002 0.062950015 0.96236885 0
4.1790004 0.056248877 0.96296048 0
4.1820002 0.049508039 0.96340418 0
4.1849999 0.042756382 0.96384799 0
4.1820002 0.11772807 0.95658219 0
4.1800003 0.11082308 0.95629001 0
4.1790004 0.10396501 0.95614398 0
4.1790004 0.097148418 0.95614398 0
4.1790004 0.090331823 0.95614398 0
4.1790004 0.083515227 0.95614398 0
4.1800003 0.076731101 0.95629001 0
4.1810002 0.069943383 0.95643616 0
4.184 0.063209772 0.95687437 0
4.1870003 0.056465331 0.95731282 0
4.1900001 0.049710061 0.95775115 0
4.171 0.11725186 0.94817293 0
4.1820002 0.11090605 0.9497602 0
4.1890001 0.10436185 0.95077038 0
4.1880002 0.097489327 0.95062602 0
4.1870003 0.090620428 0.95048177 0
4.1870003 0.083789408 0.95048177 0
4.1890001 0.077023327 0.95077038 0
4.191 0.070250019 0.95105898 0
4.1930003 0.063469514 0.95134759 0
4.1960001 0.056708839 0.95178056 0
4.1100001 0.18153237 0.93267822 0
4.1080003 0.17472118 0.93239319 0
4.1080003 0.16803266 0.93239319 0
4.1090002 0.16140006 0.93253565 0
4.1110001 0.15481797 0.93282068 0
4.1670003 0.11028375 0.94080067 0
4.177 0.10388564 0.94222569 0
4.1870003 0.097451448 0.94365072 0
4.1990004 0.08420068 0.94536078 0
4.2000003 0.077380478 0.94550323 0
4.2010002 0.070556685 0.94564581 0
4.204 0.063786983 0.94607329 0
4.1090002 0.18816136 0.92584527 0
4.1059999 0.18128705 0.92542326 0
4.105 0.17454261 0.9252826 0
4.105 0.16785949 0.9252826 0
4.105 0.16117638 0.9252826 0
4.1059999 0.15454739 0.92542326 0
4.1090002 0.14801942 0.92584527 0
4.1129999 0.14153111 0.92640817 0
4.1670003 0.1034888 0.93400574 0
4.177 0.097072646 0.93541276 0
4.1860003 0.090584353 0.93667901 0
4.1960001 0.084097877 0.93808603 0
4.1100001 0.19491664 0.91929388 0
4.1059999 0.18797196 0.91873837 0
4.1040001 0.18116438 0.91846049 0
4.1020002 0.17436403 0.91818273 0
4.1020002 0.16768633 0.91818273 0
4.1020002 0.16100863 0.91818273 0
4.1030002 0.15438505 0.91832161 0
4.105 0.14781018 0.91859949 0
4.1080003 0.14127858 0.91901612 0
4.1129999 0.13483356 0.91971052 0
4.1700001 0.096807495 0.92762744 0
4.1800003 0.090367898 0.92901647 0
4.1890001 0.083857954 0.9302665 0
4.198 0.077315539 0.93151653 0
4.2080002 0.070771322 0.93290544 0
4.1129999 0.20180896 0.9130131 0
4.1080003 0.19478676 0.91232765 0
4.105 0.18790883 0.91191638 0
4.1020002 0.18104173 0.9115051 0
4.1000004 0.17424498 0.91123092 0
4.099 0.16751316 0.91109383 0
4.099 0.16084088 0.91109383 0
4.1000004 0.15422271 0.91123092 0
4.1010003 0.14760093 0.91136801 0
4.1040001 0.14107655 0.91177928 0
4.1080003 0.13459006 0.91232765 0
4.1760001 0.090223595 0.92164969 0
4.1849999 0.083720863 0.92288351 0
4.1930003 0.077153206 0.92398024 0
4.2020001 0.070587337 0.92521405 0
4.211 0.063989013 0.92644787 0
4.1129999 0.20180896 0.90631545 0
4.1080003 0.19478676 0.90563905 0
4.1040001 0.18784571 0.90509796 0
4.1010003 0.1809804 0.90469205 0
4.098 0.17412592 0.90428627 0
4.0970001 0.16739774 0.90415096 0
4.0960002 0.16067313 0.90401566 0
4.0970001 0.15406038 0.90415096 0
4.098 0.14744399 0.90428627 0
4.1000004 0.14087453 0.90455687 0
4.1040001 0.13439524 0.90509796 0
4.1090002 0.12794845 0.90577435 0
4.1740003 0.090151444 0.91456795 0
4.1820002 0.083618045 0.91565013 0
4.1900001 0.077055797 0.91673243 0
4.1990004 0.070495352 0.91795003 0
4.2080002 0.063902423 0.91916764 0
4.217 0.057277035 0.92038524 0
4.1129999 0.20180896 0.89961791 0
4.1080003 0.19478676 0.89895058 0
4.1030002 0.18778254 0.89828312 0
4.099 0.18085775 0.89774919 0
4.0970001 0.17406641 0.89748228 0
4.0950003 0.16728228 0.89721531 0
4.0940003 0.16056129 0.89708185 0
4.0940003 0.15389803 0.89708185 0
4.0950003 0.14728707 0.89721531 0
4.0970001 0.140723 0.89748228 0
4.099 0.13415173 0.89774919 0
4.1040001 0.12771395 0.89841664 0
4.1810002 0.083583772 0.90869474 0
4.1890001 0.077023327 0.90976262 0
4.198 0.070464686 0.91096389 0
4.2060003 0.063844711 0.91203177 0
4.2150002 0.057222929 0.91323316 0
4.224 0.050568681 0.91443443 0
4.1129999 0.20180896 0.89292043 0
4.1080003 0.19478676 0.89226204 0
4.1020002 0.18771943 0.89147198 0
4.098 0.18079641 0.89094526 0
4.0950003 0.17394735 0.89055026 0
4.0929999 0.16716683 0.89028692 0
4.092 0.16044945 0.8901552 0
4.0910001 0.15373568 0.89002353 0
4.092 0.14713013 0.8901552 0
4.0929999 0.14052097 0.89028692 0
4.0950003 0.13395692 0.89055026 0
4.099 0.12747945 0.89107692 0
4.1810002 0.083583772 0.90187454 0
4.1890001 0.077023327 0.90292799 0
4.197 0.070434019 0.90398133 0
4.2060003 0.063844711 0.90516651 0
4.2140002 0.057195868 0.90621984 0
4.223 0.050543424 0.90740502 0
4.1129999 0.20180896 0.88622284 0
4.1080003 0.19478676 0.88557351 0
4.1020002 0.18771943 0.88479424 0
4.0970001 0.18073508 0.8841449 0
4.0940003 0.17388783 0.88375533 0
4.092 0.16710912 0.88349551 0
4.0900002 0.16033761 0.88323575 0
4.0890002 0.15362746 0.88310587 0
4.0890002 0.14697321 0.88310587 0
4.0900002 0.14036946 0.88323575 0
4.092 0.13381082 0.88349551 0
4.0940003 0.12724496 0.88375533 0
4.099 0.12080717 0.88440466 0
4.1890001 0.077023327 0.89609337 0
4.197 0.070434019 0.89713228 0
4.2060003 0.063844711 0.89830118 0
4.2140002 0.057195868 0.89934015 0
4.223 0.050543424 0.90050906 0
4.2309999 0.043835063 0.90154803 0
4.2740002 0.0099036247 0.90713263 0
4.283 0.0030293129 0.90830147 0
4.1129999 0.20180896 0.87952536 0
4.1080003 0.19478676 0.87888503 0
4.1020002 0.18771943 0.87811661 0
4.0970001 0.18073508 0.87747622 0
4.0929999 0.1738283 0.87696391 0
4.0900002 0.16699366 0.8765797 0
4.0880003 0.16022578 0.87632358 0
4.0870004 0.15351923 0.87619555 0
4.086 0.14681627 0.8760674 0
4.0870004 0.14021794 0.87619555 0
4.0880003 0.133616 0.87632358 0
4.0910001 0.12710425 0.87670779 0
4.0940003 0.12058169 0.877092 0
4.1890001 0.077023327 0.88925874 0
4.197 0.070434019 0.89028323 0
4.2060003 0.063844711 0.89143586 0
4.2140002 0.057195868 0.89246047 0
4.223 0.050543424 0.8936131 0
4.2309999 0.043835063 0.89463764 0
4.2400002 0.037119482 0.89579028 0
4.257 0.023572881 0.89796746 0
4.2650003 0.016745474 0.89899206 0
4.2740002 0.0099036247 0.9001447 0
4.283 0.0030293129 0.90129733 0
4.2920003 -0.0038774684 0.90244997 0
4.2940001 -0.010879852 0.90270615 0
4.1129999 0.20180896 0.87282777 0
4.1080003 0.19478676 0.87219644 0
4.1030002 0.18778254 0.8715651 0
4.0970001 0.18073508 0.87080753 0
4.092 0.17376877 0.8701762 0
4.0890002 0.16693595 0.86979741 0
4.086 0.16011395 0.86941862 0
4.085 0.15341099 0.86929238 0
4.0840001 0.14671165 0.86916608 0
4.0840001 0.14006643 0.86916608 0
4.085 0.13346989 0.86929238 0
4.0870004 0.12691666 0.86954486 0
4.0900002 0.12040129 0.86992371 0
4.0940003 0.11391842 0.87042874 0
4.1890001 0.077023327 0.88242406 0
4.197 0.070434019 0.88343418 0
4.2060003 0.063844711 0.8845706 0
4.2140002 0.057195868 0.88558072 0
4.223 0.050543424 0.88671714 0
4.2309999 0.043835063 0.88772726 0
4.2400002 0.037119482 0.88886368 0
4.2480001 0.030351598 0.8898738 0
4.257 0.023572881 0.89101022 0
4.2650003 0.016745474 0.89202034 0
4.2740002 0.0099036247 0.89315671 0
4.283 0.0030293129 0.89429307 0
4.289 -0.003909938 0.89505076 0
4.29 -0.010915931 0.89517701 0
4.2930002 -0.017911099 0.89555579 0
4.1129999 0.20180896 0.86613023 0
4.1080003 0.19478676 0.86550796 0
4.1030002 0.18778254 0.86488563 0
4.0960002 0.18067375 0.86401439 0
4.092 0.17376877 0.86351657 0
4.0880003 0.16687822 0.86301875 0
4.085 0.16005804 0.86264533 0
4.0830002 0.15330277 0.86239636 0
4.0820003 0.14660704 0.8622719 0
4.0810003 0.13991491 0.86214745 0
4.0820003 0.13332379 0.8622719 0
4.0830002 0.12672906 0.86239636 0
4.086 0.12022091 0.86276978 0
4.0900002 0.11374524 0.8632676 0
4.197 0.070434019 0.87658513 0
4.2060003 0.063844711 0.87770534 0
4.2140002 0.057195868 0.87870103 0
4.223 0.050543424 0.87982118 0
4.2309999 0.043835063 0.88081688 0
4.2400002 0.037119482 0.88193703 0
4.2480001 0.030351598 0.88293278 0
4.257 0.023572881 0.88405287 0
4.2650003 0.016745474 0.88504863 0
4.2740002 0.0099036247 0.88616872 0
4.283 0.0030293129 0.88728893 0
4.2870002 -0.0039315857 0.88778675 0
4.2870002 -0.010942988 0.88778675 0
4.289 -0.017939959 0.88803571 0
4.2920003 -0.024938734 0.88840908 0
4.1129999 0.20180896 0.8594327 0
4.1080003 0.19478676 0.85881943 0
4.1040001 0.18784571 0.85832882 0
4.0970001 0.18073508 0.85747015 0
4.0910001 0.17370926 0.85673428 0
4.0870004 0.16682051 0.85624361 0
4.0840001 0.16000213 0.85587561 0
4.0810003 0.15319455 0.85550761 0
4.0799999 0.14650241 0.85538495 0
4.079 0.13981389 0.85526234 0
4.079 0.13317767 0.85526234 0
4.0799999 0.12658836 0.85538495 0
4.0820003 0.12004054 0.85563028 0
4.085 0.11352879 0.85599828 0
4.0900002 0.10708919 0.85661155 0
4.197 0.070434019 0.86973608 0
4.2060003 0.063844711 0.87084001 0
4.2140002 0.057195868 0.87182128 0
4.223 0.050543424 0.87292522 0
4.2309999 0.043835063 0.87390649 0
4.2400002 0.037119482 0.87501037 0
4.2480001 0.030351598 0.8759917 0
4.257 0.023572881 0.87709558 0
4.2650003 0.016745474 0.87807691 0
4.2740002 0.0099036247 0.87918079 0
4.283 0.0030293129 0.88028479 0
4.2840004 -0.0039640553 0.88040745 0
4.2840004 -0.010970041 0.88040745 0
4.2850003 -0.01796882 0.88053012 0
4.2880001 -0.02496038 0.880898 0
4.2920003 -0.031959157 0.88138866 0
4.1129999 0.20180896 0.85273516 0
4.1080003 0.19478676 0.85213089 0
4.105 0.18790883 0.85176837 0
4.0970001 0.18073508 0.85080153 0
4.0910001 0.17370926 0.85007638 0
4.086 0.16676278 0.84947211 0
4.0830002 0.15994619 0.84910953 0
4.0799999 0.15314043 0.84874696 0
4.0780001 0.14639778 0.84850526 0
4.0770001 0.13971289 0.84838444 0
4.0760002 0.13303158 0.8482635 0
4.0770001 0.12644768 0.84838444 0
4.079 0.11990526 0.84862614 0
4.0810003 0.11335564 0.84886783 0
4.085 0.10688177 0.84935129 0
4.2060003 0.063844711 0.86397469 0
4.2140002 0.057195868 0.8649416 0
4.223 0.050543424 0.86602926 0
4.2309999 0.043835063 0.86699605 0
4.2400002 0.037119482 0.86808378 0
4.2480001 0.030351598 0.86905062 0
4.257 0.023572881 0.87013829 0
4.2650003 0.016745474 0.87110519 0
4.2740002 0.0099036247 0.87219286 0
4.283 0.0030293129 0.87328053 0
4.2820001 -0.0039856993 0.87315977 0
4.2810001 -0.010997102 0.87303889 0
4.2820001 -0.017990466 0.87315977 0
4.2840004 -0.024982028 0.87340146 0
4.2870002 -0.031977195 0.87376404 0
4.1129999 0.20180896 0.84603763 0
4.1080003 0.19478676 0.84544241 0
4.105 0.18790883 0.84508526 0
4.098 0.18079641 0.84425187 0
4.0910001 0.17370926 0.84341854 0
4.086 0.16676278 0.84282327 0
4.0810003 0.15983436 0.84222806 0
4.0780001 0.1530322 0.8418709 0
4.0760002 0.14629316 0.84163272 0
4.0740004 0.13956137 0.84139466 0
4.0740004 0.13293417 0.84139466 0
4.0740004 0.12630698 0.84139466 0
4.0750003 0.11972488 0.84151375 0
4.0770001 0.11318247 0.84175181 0
4.0810003 0.10671581 0.84222806 0
4.085 0.10023473 0.84270418 0
4.2060003 0.063844711 0.85710943 0
4.2140002 0.057195868 0.85806185 0
4.223 0.050543424 0.8591333 0
4.2309999 0.043835063 0.86008573 0
4.2400002 0.037119482 0.86115718 0
4.2480001 0.030351598 0.8621096 0
4.257 0.023572881 0.86318105 0
4.2650003 0.016745474 0.86413348 0
4.2740002 0.0099036247 0.86520493 0
4.2810001 0.0030040592 0.86603832 0
4.2790003 -0.0040181652 0.86580014 0
4.2790003 -0.01101514 0.86580014 0
4.2790003 -0.018012112 0.86580014 0
4.2800002 -0.025003674 0.86591923 0
4.283 -0.031991623 0.86627638 0
4.2870002 -0.038988598 0.86675251 0
4.1129999 0.20180896 0.83934009 0
4.1080003 0.19478676 0.83875388 0
4.105 0.18790883 0.83840215 0
4.1000004 0.18091908 0.83781588 0
4.092 0.17376877 0.83687794 0
4.085 0.16670506 0.83605719 0
4.0810003 0.15983436 0.83558822 0
4.0770001 0.15297808 0.83511925 0
4.0740004 0.14618854 0.83476746 0
4.073 0.13951084 0.83465022 0
4.072 0.13283676 0.83453298 0
4.0710001 0.12616628 0.83441573 0
4.072 0.1195896 0.83453298 0
4.0740004 0.11305261 0.83476746 0
4.0760002 0.10650837 0.83500195 0
4.0810003 0.10007599 0.83558822 0
4.2140002 0.057195868 0.8511821 0
4.223 0.050543424 0.85223734 0
4.2309999 0.043835063 0.85317528 0
4.2400002 0.037119482 0.85423052 0
4.2480001 0.030351598 0.85516858 0
4.257 0.023572881 0.8562237 0
4.2650003 0.016745474 0.85716176 0
4.2740002 0.0099036247 0.85821694 0
4.2790003 0.0029788055 0.85880321 0
4.2780004 -0.0040289909 0.85868597 0
4.276 -0.011042196 0.85845149 0
4.276 -0.018033758 0.85845149 0
4.277 -0.025019906 0.85856867 0
4.2790003 -0.032006055 0.85880321 0
4.2820001 -0.038997617 0.85915494 0
4.2060003 0.33159119 0.84337884 0
4.1129999 0.20180896 0.83264256 0
4.1080003 0.19478676 0.83206534 0
4.105 0.18790883 0.83171904 0
4.1020002 0.18104173 0.83137268 0
4.0929999 0.1738283 0.83033371 0
4.086 0.16676278 0.82952559 0
4.0799999 0.15977843 0.82883292 0
4.0760002 0.15292397 0.82837117 0
4.073 0.14613624 0.8280248 0
4.0710001 0.13940984 0.82779396 0
4.0690002 0.13269065 0.82756305 0
4.0690002 0.12607248 0.82756305 0
4.0690002 0.11945431 0.82756305 0
4.0700002 0.11287943 0.82767844 0
4.073 0.1063839 0.8280248 0
4.0760002 0.099877566 0.82837117 0
4.0810003 0.093436182 0.82894838 0
4.223 0.050543424 0.84534138 0
4.2309999 0.043835063 0.84626496 0
4.2400002 0.037119482 0.84730393 0
4.2480001 0.030351598 0.8482275 0
4.257 0.023572881 0.84926647 0
4.2650003 0.016745474 0.85019004 0
4.2740002 0.0099036247 0.85122901 0
4.2780004 0.0029661804 0.85169077 0
4.276 -0.0040506385 0.85145986 0
4.2740002 -0.011060234 0.85122901 0
4.2740002 -0.018048188 0.85122901 0
4.2740002 -0.025036143 0.85122901 0
4.2750001 -0.032020487 0.85134447 0
4.2780004 -0.039004833 0.85169077 0
4.2820001 -0.046 0.85215259 0
4.1990004 0.3514547 0.8357181 0
4.1940002 0.34408796 0.83514988 0
4.198 0.33764836 0.83560443 0
4.2060003 0.33159119 0.83651352 0
4.2130003 0.32540771 0.837309 0
4.2210002 0.3192946 0.83821809 0
4.1129999 0.20180896 0.82594502 0
4.1080003 0.19478676 0.82537681 0
4.105 0.18790883 0.82503593 0
4.1030002 0.18110305 0.8248086 0
4.0940003 0.17388783 0.8237859 0
4.086 0.16676278 0.82287675 0
4.0799999 0.15977843 0.82219493 0
4.0750003 0.15286987 0.82162672 0
4.072 0.14608394 0.82128584 0
4.0690002 0.13930883 0.82094491 0
4.0680003 0.13264194 0.82083124 0
4.0669999 0.12597868 0.82071757 0
4.066 0.11931902 0.82060397 0
4.0669999 0.11274955 0.82071757 0
4.0690002 0.10621795 0.82094491 0
4.072 0.099718839 0.82128584 0
4.0760002 0.093246773 0.82174039 0
4.223 0.050543424 0.83844543 0
4.2309999 0.043835063 0.83935452 0
4.2400002 0.037119482 0.84037733 0
4.2480001 0.030351598 0.84128642 0
4.257 0.023572881 0.84230918 0
4.2650003 0.016745474 0.84321833 0
4.2740002 0.0099036247 0.84424102 0
4.277 0.002953548 0.84458196 0
4.2740002 -0.0040722862 0.84424102 0
4.2720003 -0.011078272 0.84401381 0
4.2710004 -0.018069834 0.84390014 0
4.2710004 -0.025052374 0.84390014 0
4.2720003 -0.032031309 0.84401381 0
4.2740002 -0.039012048 0.84424102 0
4.277 -0.046 0.84458196 0
4.1990004 0.3514547 0.82886541 0
4.1940002 0.34408796 0.8283062 0
4.198 0.33764836 0.82875359 0
4.2060003 0.33159119 0.82964826 0
4.2130003 0.32540771 0.8304311 0
4.2210002 0.3192946 0.83132577 0
4.2290001 0.31315267 0.83222044 0
4.1129999 0.20180896 0.81924748 0
4.1080003 0.19478676 0.81868827 0
4.105 0.18790883 0.81835282 0
4.1030002 0.18110305 0.81812912 0
4.0960002 0.17400688 0.81734627 0
4.0870004 0.16682051 0.81633979 0
4.0799999 0.15977843 0.81555688 0
4.0750003 0.15286987 0.81499767 0
4.0710001 0.14603162 0.8145504 0
4.0680003 0.13925833 0.81421489 0
4.066 0.13254453 0.81399119 0
4.0650001 0.12588489 0.81387937 0
4.0640001 0.11922884 0.81376755 0
4.0650001 0.11266297 0.81387937 0
4.066 0.1060935 0.81399119 0
4.0680003 0.099560112 0.81421489 0
4.072 0.093095258 0.81466222 0
4.0770001 0.086652055 0.81522143 0
4.223 0.050543424 0.83154947 0
4.2309999 0.043835063 0.83244413 0
4.2400002 0.037119482 0.83345068 0
4.2480001 0.030351598 0.83434534 0
4.257 0.023572881 0.83535188 0
4.2650003 0.016745474 0.83624661 0
4.2740002 0.0099036247 0.83725309 0
4.276 0.0029409267 0.83747679 0
4.2730002 -0.0040831044 0.83714128 0
4.27 -0.011096314 0.8368057 0
4.2690001 -0.018084263 0.83669388 0
4.2680001 -0.025068609 0.83658206 0
4.2690001 -0.032042131 0.83669388 0
4.27 -0.039019264 0.8368057 0
4.2730002 -0.046 0.83714128 0
4.2049999 0.35894594 0.82267296 0
4.1990004 0.3514547 0.82201272 0
4.1940002 0.34408796 0.82146257 0
4.198 0.33764836 0.82190269 0
4.2060003 0.33159119 0.82278299 0
4.2130003 0.32540771 0.8235532 0
4.2210002 0.3192946 0.82443345 0
4.2290001 0.31315267 0.82531369 0
4.237 0.30698183 0.82619393 0
4.2450004 0.30078214 0.82707423 0
4.2530003 0.29455358 0.82795447 0
4.2610002 0.28829619 0.82883477 0
4.1129999 0.20180896 0.81254995 0
4.1080003 0.19478676 0.8119998 0
4.105 0.18790883 0.81166971 0
4.1030002 0.18110305 0.81144965 0
4.1000004 0.17424498 0.81111956 0
4.0880003 0.16687822 0.80979919 0
4.0810003 0.15983436 0.80902892 0
4.0750003 0.15286987 0.80836874 0
4.0700002 0.1459793 0.80781853 0
4.0669999 0.13920781 0.80748844 0
4.0640001 0.13244714 0.80715835 0
4.0630002 0.12579109 0.80704832 0
4.0620003 0.11913864 0.80693829 0
4.0620003 0.11253309 0.80693829 0
4.0630002 0.10596903 0.80704832 0
4.0640001 0.099401385 0.80715835 0
4.0669999 0.092905864 0.80748844 0
4.0710001 0.086435601 0.80792856 0
4.2309999 0.043835063 0.82553375 0
4.2400002 0.037119482 0.82652402 0
4.2480001 0.030351598 0.82740432 0
4.257 0.023572881 0.82839459 0
4.2650003 0.016745474 0.82927489 0
4.2740002 0.0099036247 0.83026516 0
4.2750001 0.002928298 0.83037519 0
4.2720003 -0.0040939264 0.8300451 0
4.2690001 -0.011105329 0.82971501 0
4.2670002 -0.018098695 0.82949495 0
4.2660003 -0.025079433 0.82938492 0
4.2660003 -0.032052957 0.82938492 0
4.2670002 -0.039024673 0.82949495 0
4.2690001 -0.046 0.82971501 0
4.2720003 -0.052984346 0.8300451 0
4.2049999 0.35894594 0.81580943 0
4.1990004 0.3514547 0.81516004 0
4.1940002 0.34408796 0.81461895 0
4.198 0.33764836 0.81505179 0
4.2060003 0.33159119 0.81591767 0
4.2130003 0.32540771 0.81667531 0
4.2210002 0.3192946 0.81754112 0
4.2290001 0.31315267 0.81840694 0
4.237 0.30698183 0.81927276 0
4.2450004 0.30078214 0.82013857 0
4.2530003 0.29455358 0.82100439 0
4.2610002 0.28829619 0.82187021 0
4.2690001 0.2820099 0.82273602 0
4.277 0.27569476 0.82360184 0
4.2850003 0.26935077 0.82446772 0
4.2930002 0.26297793 0.82533354 0
4.1129999 0.20180896 0.80585241 0
4.1080003 0.19478676 0.80531126 0
4.105 0.18790883 0.8049866 0
4.1030002 0.18110305 0.80477011 0
4.1020002 0.17436403 0.80466187 0
4.0900002 0.16699366 0.80336314 0
4.0810003 0.15983436 0.80238914 0
4.0740004 0.15281574 0.80163151 0
4.0700002 0.1459793 0.8011986 0
4.066 0.1391573 0.80076563 0
4.0630002 0.13239843 0.80044097 0
4.0610003 0.12569728 0.80022454 0
4.0599999 0.11904845 0.8001163 0
4.059 0.11240321 0.80000806 0
4.0599999 0.10584457 0.8001163 0
4.0610003 0.099282324 0.80022454 0
4.0630002 0.092754334 0.80044097 0
4.0669999 0.086291298 0.80087388 0
4.072 0.079848096 0.80141503 0
4.2309999 0.043835063 0.81862336 0
4.2400002 0.037119482 0.81959742 0
4.2480001 0.030351598 0.8204633 0
4.257 0.023572881 0.82143736 0
4.2650003 0.016745474 0.82230318 0
4.2740002 0.0099036247 0.82327718 0
4.2750001 0.002928298 0.82338548 0
4.27 -0.0041155741 0.82284427 0
4.2670002 -0.011123367 0.8225196 0
4.2650003 -0.018113125 0.82230318 0
4.2639999 -0.025090257 0.82219493 0
4.263 -0.032063778 0.82208669 0
4.2639999 -0.039030086 0.82219493 0
4.2650003 -0.046 0.82230318 0
4.2680001 -0.05297713 0.82262784 0
4.2049999 0.35894594 0.80894595 0
4.1990004 0.3514547 0.80830741 0
4.1940002 0.34408796 0.80777526 0
4.198 0.33764836 0.80820096 0
4.2060003 0.33159119 0.80905235 0
4.2130003 0.32540771 0.80979735 0
4.2210002 0.3192946 0.81064874 0
4.2290001 0.31315267 0.81150013 0
4.237 0.30698183 0.81235152 0
4.2450004 0.30078214 0.81320292 0
4.2530003 0.29455358 0.81405437 0
4.2610002 0.28829619 0.81490576 0
4.2690001 0.2820099 0.81575716 0
4.277 0.27569476 0.81660855 0
4.2850003 0.26935077 0.81745994 0
4.2930002 0.26297793 0.81831133 0
4.3010001 0.25657621 0.81916273 0
4.1129999 0.20180896 0.79915488 0
4.1080003 0.19478676 0.79862273 0
4.105 0.18790883 0.79830348 0
4.1030002 0.18110305 0.79809058 0
4.1020002 0.17436403 0.79798424 0
4.0940003 0.16722457 0.79713285 0
4.0830002 0.15994619 0.7959621 0
4.0750003 0.15286987 0.7951107 0
4.0690002 0.14592698 0.79447222 0
4.0650001 0.1391068 0.79404652 0
4.0620003 0.13234974 0.79372722 0
4.059 0.12560348 0.79340792 0
4.0580001 0.11895826 0.79330146 0
4.0570002 0.11231664 0.79319507 0
4.0570002 0.1057201 0.79319507 0
4.0580001 0.099163264 0.79330146 0
4.0599999 0.092640698 0.79351437 0
4.0620003 0.08611092 0.79372722 0
4.0669999 0.079676732 0.79425931 0
4.2400002 0.037119482 0.81267083 0
4.2480001 0.030351598 0.81352222 0
4.257 0.023572881 0.81448001 0
4.2650003 0.016745474 0.81533146 0
4.2740002 0.0099036247 0.81628925 0
4.2740002 0.0029156692 0.81628925 0
4.27 -0.0041155741 0.81586349 0
4.2660003 -0.011132386 0.81543785 0
4.263 -0.018127555 0.81511855 0
4.2620001 -0.025101079 0.81501216 0
4.2610002 -0.032070994 0.81490576 0
4.2610002 -0.039035495 0.81490576 0
4.2620001 -0.046 0.81501216 0
4.2639999 -0.052969914 0.81522501 0
4.2670002 -0.059950653 0.81554425 0
4.2049999 0.35894594 0.80208242 0
4.1990004 0.3514547 0.80145472 0
4.1940002 0.34408796 0.80093157 0
4.198 0.33764836 0.80135012 0
4.2060003 0.33159119 0.80218709 0
4.2130003 0.32540771 0.80291939 0
4.2210002 0.3192946 0.80375636 0
4.2290001 0.31315267 0.80459332 0
4.237 0.30698183 0.80543029 0
4.2450004 0.30078214 0.80626726 0
4.2530003 0.29455358 0.80710423 0
4.2610002 0.28829619 0.8079412 0
4.2690001 0.2820099 0.80877817 0
4.277 0.27569476 0.80961514 0
4.2850003 0.26935077 0.8104521 0
4.2930002 0.26297793 0.81128907 0
4.3010001 0.25657621 0.81212604 0
4.1129999 0.20180896 0.79245734 0
4.1080003 0.19478676 0.79193425 0
4.105 0.18790883 0.79162037 0
4.1030002 0.18110305 0.7914111 0
4.1020002 0.17436403 0.7913065 0
4.098 0.16745545 0.79088801 0
4.0840001 0.16000213 0.78942335 0
4.0750003 0.15286987 0.78848171 0
4.0690002 0.14592698 0.78785396 0
4.0640001 0.1390563 0.78733087 0
4.0610003 0.13230103 0.78701705 0
4.0580001 0.1255566 0.78670323 0
4.0560002 0.11886807 0.7864939 0
4.0550003 0.11223005 0.78638935 0
4.0540004 0.10559565 0.78628469 0
4.0550003 0.099044219 0.78638935 0
4.0560002 0.092489168 0.7864939 0
4.059 0.086002678 0.78680778 0
4.0620003 0.079505369 0.78712165 0
4.2400002 0.037119482 0.80574417 0
4.2480001 0.030351598 0.80658114 0
4.257 0.023572881 0.80752277 0
4.2650003 0.016745474 0.80835974 0
4.2740002 0.0099036247 0.80930126 0
4.2750001 0.002928298 0.80940592 0
4.2690001 -0.004126396 0.80877817 0
4.2650003 -0.011141405 0.80835974 0
4.2620001 -0.018134771 0.80804586 0
4.2600002 -0.025111903 0.80783659 0
4.2580004 -0.032081816 0.80762738 0
4.2580004 -0.039040908 0.80762738 0
4.2580004 -0.046 0.80762738 0
4.2600002 -0.052962698 0.80783659 0
4.2620001 -0.059932616 0.80804586 0
4.2049999 0.35894594 0.79521894 0
4.1990004 0.3514547 0.79460204 0
4.1940002 0.34408796 0.79408801 0
4.198 0.33764836 0.79449928 0
4.2060003 0.33159119 0.79532182 0
4.2130003 0.32540771 0.79604149 0
4.2210002 0.3192946 0.79686403 0
4.2290001 0.31315267 0.79768658 0
4.237 0.30698183 0.79850912 0
4.2450004 0.30078214 0.79933167 0
4.2530003 0.29455358 0.80015421 0
4.2610002 0.28829619 0.80097675 0
4.2690001 0.2820099 0.80179924 0
4.277 0.27569476 0.80262178 0
4.2850003 0.26935077 0.80344433 0
4.2930002 0.26297793 0.80426681 0
4.3010001 0.25657621 0.80508941 0
4.1129999 0.20180896 0.78575981 0
4.1080003 0.19478676 0.78524572 0
4.105 0.18790883 0.78493726 0
4.1030002 0.18110305 0.78473163 0
4.1020002 0.17436403 0.78462881 0
4.1020002 0.16768633 0.78462881 0
4.0870004 0.16016988 0.78308654 0
4.0770001 0.15297808 0.78205836 0
4.0690002 0.14592698 0.78123581 0
4.0640001 0.1390563 0.78072178 0
4.059 0.13220362 0.78020763 0
4.0560002 0.12546279 0.77989924 0
4.0540004 0.11877789 0.7796936 0
4.052 0.11210018 0.77948797 0
4.052 0.10551266 0.77948797 0
4.052 0.098925158 0.77948797 0
4.053 0.092375547 0.77959073 0
4.0550003 0.08585839 0.77979636 0
4.0580001 0.079368278 0.78010488 0
4.0620003 0.072899818 0.78051615 0
4.2480001 0.030351598 0.79964006 0
4.257 0.023572881 0.80056542 0
4.2650003 0.016745474 0.80138803 0
4.2740002 0.0099036247 0.80231333 0
4.2750001 0.002928298 0.80241621 0
4.2690001 -0.004126396 0.80179924 0
4.2639999 -0.011150427 0.80128515 0
4.2610002 -0.018141985 0.80097675 0
4.2580004 -0.025122723 0.8006683 0
4.256 -0.032089032 0.8004626 0
4.256 -0.039044514 0.8004626 0
4.2550001 -0.046 0.80035985 0
4.256 -0.052955486 0.8004626 0
4.2590003 -0.059921794 0.80077112 0
4.2620001 -0.06689892 0.80107951 0
4.2049999 0.35894594 0.78835547 0
4.1990004 0.3514547 0.78774941 0
4.1940002 0.34408796 0.78724432 0
4.198 0.33764836 0.78764838 0
4.2060003 0.33159119 0.7884565 0
4.2130003 0.32540771 0.78916359 0
4.2210002 0.3192946 0.78997171 0
4.2290001 0.31315267 0.79077983 0
4.237 0.30698183 0.79158789 0
4.2450004 0.30078214 0.79239601 0
4.2530003 0.29455358 0.79320407 0
4.2610002 0.28829619 0.79401219 0
4.2690001 0.2820099 0.79482031 0
4.277 0.27569476 0.79562843 0
4.2850003 0.26935077 0.79643655 0
4.2930002 0.26297793 0.79724467 0
4.3010001 0.25657621 0.79805273 0
4.1129999 0.20180896 0.77906227 0
4.1080003 0.19478676 0.77855718 0
4.105 0.18790883 0.77825415 0
4.1030002 0.18110305 0.77805209 0
4.1020002 0.17436403 0.77795112 0
4.1020002 0.16768633 0.77795112 0
4.0910001 0.16039354 0.77683997 0
4.0780001 0.1530322 0.77552676 0
4.0700002 0.1459793 0.77471864 0
4.0630002 0.13900578 0.77401161 0
4.059 0.13220362 0.77360749 0
4.0550003 0.12541589 0.77320349 0
4.052 0.11868769 0.77290046 0
4.0510001 0.1120569 0.77279943 0
4.0500002 0.10542969 0.7726984 0
4.0490003 0.098806113 0.77259743 0
4.0500002 0.092261896 0.7726984 0
4.0510001 0.085714072 0.77279943 0
4.0540004 0.079231188 0.77310252 0
4.0580001 0.07276994 0.77350652 0
4.2480001 0.030351598 0.7926991 0
4.257 0.023572881 0.79360819 0
4.2650003 0.016745474 0.79441631 0
4.2740002 0.0099036247 0.7953254 0
4.276 0.0029409267 0.79552746 0
4.2690001 -0.004126396 0.79482031 0
4.2639999 -0.011150427 0.79431522 0
4.2600002 -0.018149201 0.79391122 0
4.257 -0.025128135 0.79360819 0
4.2550001 -0.032092638 0.79340613 0
4.2530003 -0.039049927 0.79320407 0
4.2530003 -0.046 0.79320407 0
4.2530003 -0.052950073 0.79320407 0
4.2550001 -0.059907362 0.79340613 0
4.257 -0.066871867 0.79360819 0
4.2049999 0.35894594 0.78149199 0
4.1990004 0.3514547 0.78089672 0
4.1940002 0.34408796 0.78040069 0
4.198 0.33764836 0.78079748 0
4.2060003 0.33159119 0.78159118 0
4.2130003 0.32540771 0.78228569 0
4.2210002 0.3192946 0.78307933 0
4.2290001 0.31315267 0.78387302 0
4.237 0.30698183 0.78466666 0
4.2450004 0.30078214 0.78546035 0
4.2530003 0.29455358 0.78625405 0
4.2610002 0.28829619 0.78704774 0
4.2690001 0.2820099 0.78784138 0
4.277 0.27569476 0.78863502 0
4.2850003 0.26935077 0.78942871 0
4.2930002 0.26297793 0.79022241 0
4.3010001 0.25657621 0.7910161 0
4.1129999 0.20180896 0.77236468 0
4.1080003 0.19478676 0.77186865 0
4.105 0.18790883 0.77157104 0
4.1030002 0.18110305 0.77137262 0
4.1020002 0.17436403 0.77127337 0
4.1020002 0.16768633 0.77127337 0
4.1000004 0.16089681 0.77107501 0
4.0810003 0.15319455 0.76919001 0
4.0710001 0.14603162 0.76819789 0
4.0640001 0.1390563 0.7675035 0
4.059 0.13220362 0.76700741 0
4.0540004 0.125369 0.76651138 0
4.0510001 0.1186426 0.76621372 0
4.0490003 0.11197031 0.76601529 0
4.0469999 0.10530524 0.76581693 0
4.0469999 0.098726735 0.76581693 0
4.0469999 0.092148244 0.76581693 0
4.0480003 0.085605845 0.76591611 0
4.0500002 0.079094082 0.76611447 0
4.053 0.072607607 0.76641214 0
4.0580001 0.066171616 0.76690817 0
4.2480001 0.030351598 0.78575802 0
4.257 0.023572881 0.7866509 0
4.2650003 0.016745474 0.78744459 0
4.2740002 0.0099036247 0.78833747 0
4.2780004 0.0029661804 0.78873426 0
4.27 -0.0041155741 0.78794062 0
4.263 -0.011159446 0.78724611 0
4.2590003 -0.018156417 0.78684926 0
4.2550001 -0.025138957 0.78645241 0
4.2530003 -0.032099854 0.78625405 0
4.2509999 -0.039053533 0.78605562 0
4.25 -0.046 0.78595638 0
4.25 -0.05294466 0.78595638 0
4.2509999 -0.05989293 0.78605562 0
4.2540002 -0.066855632 0.78635323 0
4.257 -0.073829152 0.7866509 0
4.2049999 0.35894594 0.77462852 0
4.1990004 0.3514547 0.77404404 0
4.1940002 0.34408796 0.77355707 0
4.198 0.33764836 0.77394664 0
4.2060003 0.33159119 0.77472591 0
4.2130003 0.32540771 0.77540773 0
4.2210002 0.3192946 0.77618694 0
4.2290001 0.31315267 0.77696621 0
4.237 0.30698183 0.77774549 0
4.2450004 0.30078214 0.77852476 0
4.2530003 0.29455358 0.77930397 0
4.2610002 0.28829619 0.78008318 0
4.2690001 0.2820099 0.78086245 0
4.277 0.27569476 0.78164172 0
4.2850003 0.26935077 0.78242093 0
4.2930002 0.26297793 0.78320014 0
4.3010001 0.25657621 0.78397942 0
4.1129999 0.20180896 0.76566714 0
4.1080003 0.19478676 0.76518011 0
4.105 0.18790883 0.76488793 0
4.1030002 0.18110305 0.76469314 0
4.1020002 0.17436403 0.76459569 0
4.1020002 0.16768633 0.76459569 0
4.1030002 0.16106455 0.76469314 0
4.085 0.15341099 0.76293981 0
4.073 0.14613624 0.76177096 0
4.0640001 0.1390563 0.7608943 0
4.0580001 0.13215493 0.76030988 0
4.0540004 0.125369 0.75992024 0
4.0500002 0.11859749 0.7595306 0
4.0469999 0.11188371 0.75923836 0
4.046 0.10526374 0.75914097 0
4.0450001 0.098647371 0.75904357 0
4.0440001 0.092034623 0.75894618 0
4.0450001 0.085497618 0.75904357 0
4.0469999 0.078991279 0.75923836 0
4.0490003 0.072477743 0.75943321 0
4.053 0.066018298 0.75982285 0
4.257 0.023572881 0.7796936 0
4.2650003 0.016745474 0.78047282 0
4.2740002 0.0099036247 0.78134942 0
4.2790003 0.0029788055 0.78183651 0
4.27 -0.0041155741 0.78095984 0
4.263 -0.011159446 0.78027797 0
4.2580004 -0.018163631 0.779791 0
4.2540002 -0.02514437 0.7794013 0
4.2509999 -0.03210707 0.77910912 0
4.2490001 -0.039057143 0.77891433 0
4.2480001 -0.046 0.77881694 0
4.2480001 -0.052941054 0.77881694 0
4.2480001 -0.059882108 0.77881694 0
4.25 -0.066833988 0.77901173 0
4.2520003 -0.073793076 0.77920651 0
4.2049999 0.35894594 0.76776499 0
4.1990004 0.3514547 0.76719141 0
4.1940002 0.34408796 0.76671338 0
4.198 0.33764836 0.7670958 0
4.2060003 0.33159119 0.76786065 0
4.2130003 0.32540771 0.76852977 0
4.2210002 0.3192946 0.76929462 0
4.2290001 0.31315267 0.77005947 0
4.237 0.30698183 0.77082425 0
4.2450004 0.30078214 0.7715891 0
4.2530003 0.29455358 0.77235389 0
4.2610002 0.28829619 0.77311873 0
4.2690001 0.2820099 0.77388352 0
4.277 0.27569476 0.77464831 0
4.2850003 0.26935077 0.77541316 0
4.2930002 0.26297793 0.776178 0
4.3010001 0.25657621 0.77694279 0
4.1129999 0.20180896 0.7589696 0
4.1080003 0.19478676 0.75849164 0
4.105 0.18790883 0.75820482 0
4.1030002 0.18110305 0.75801361 0
4.1020002 0.17436403 0.757918 0
4.1020002 0.16768633 0.757918 0
4.1030002 0.16106455 0.75801361 0
4.092 0.15378979 0.756962 0
4.0750003 0.14624086 0.75533676 0
4.0650001 0.1391068 0.7543807 0
4.0580001 0.13215493 0.75371152 0
4.053 0.12532209 0.75323355 0
4.0490003 0.1185524 0.75285113 0
4.046 0.11184043 0.75256431 0
4.0440001 0.10518077 0.7523731 0
4.0420003 0.09852834 0.75218189 0
4.0420003 0.091958851 0.75218189 0
4.0420003 0.085389391 0.75218189 0
4.0430002 0.078854188 0.75227749 0
4.046 0.072380334 0.75256431 0
4.0490003 0.065895632 0.75285113 0
4.0540004 0.05945785 0.75332916 0
4.257 0.023572881 0.77273631 0
4.2650003 0.016745474 0.77350116 0
4.2740002 0.0099036247 0.77436149 0
4.283 0.0030293129 0.77522194 0
4.2720003 -0.0040939264 0.77417034 0
4.2639999 -0.011150427 0.77340549 0
4.2580004 -0.018163631 0.77283192 0
4.2530003 -0.025149781 0.77235389 0
4.25 -0.032110676 0.77206707 0
4.2470002 -0.039060749 0.77178025 0
4.2460003 -0.046 0.77168465 0
4.2450004 -0.052935645 0.7715891 0
4.2450004 -0.059871286 0.7715891 0
4.2460003 -0.066812336 0.77168465 0
4.2490001 -0.073771432 0.77197146 0
4.2520003 -0.080741346 0.77225828 0
4.2049999 0.35894594 0.76090145 0
4.1990004 0.3514547 0.76033878 0
4.1940002 0.34408796 0.75986969 0
4.198 0.33764836 0.76024491 0
4.2060003 0.33159119 0.76099533 0
4.2130003 0.32540771 0.76165187 0
4.2210002 0.3192946 0.7624023 0
4.2290001 0.31315267 0.76315272 0
4.237 0.30698183 0.76390302 0
4.2450004 0.30078214 0.76465344 0
4.2530003 0.29455358 0.76540381 0
4.2610002 0.28829619 0.76615423 0
4.2690001 0.2820099 0.76690459 0
4.277 0.27569476 0.76765496 0
4.2850003 0.26935077 0.76840538 0
4.2930002 0.26297793 0.76915574 0
4.3010001 0.25657621 0.76990616 0
4.1129999 0.20180896 0.75227207 0
4.1080003 0.19478676 0.7518031 0
4.105 0.18790883 0.75152171 0
4.1030002 0.18110305 0.75133407 0
4.1020002 0.17436403 0.75124031 0
4.1020002 0.16768633 0.75124031 0
4.1030002 0.16106455 0.75133407 0
4.1040001 0.15443918 0.75142789 0
4.059 0.13220362 0.74720699 0
4.053 0.12532209 0.7466442 0
4.0480003 0.11850731 0.74617523 0
4.0450001 0.11179714 0.74589384 0
4.0420003 0.1050978 0.74561238 0
4.0410004 0.098488644 0.74551868 0
4.04 0.091883093 0.74542481 0
4.04 0.085317239 0.74542481 0
4.04 0.078751385 0.74542481 0
4.0420003 0.072250441 0.74561238 0
4.0450001 0.06577298 0.74589384 0
4.0490003 0.059313539 0.74626899 0
4.257 0.023572881 0.76577902 0
4.2650003 0.016745474 0.76652938 0
4.2740002 0.0099036247 0.76737356 0
4.283 0.0030293129 0.76821774 0
4.2740002 -0.0040722862 0.76737356 0
4.2639999 -0.011150427 0.76643562 0
4.2580004 -0.018163631 0.76587284 0
4.2530003 -0.025149781 0.76540381 0
4.2490001 -0.032114282 0.7650286 0
4.2460003 -0.039062552 0.76474726 0
4.244 -0.046 0.76455963 0
4.243 -0.052932035 0.76446581 0
4.2420001 -0.05986046 0.76437205 0
4.243 -0.066796109 0.76446581 0
4.2450004 -0.073742568 0.76465344 0
4.2470002 -0.080696255 0.76484102 0
4.2049999 0.35894594 0.75403798 0
4.1990004 0.3514547 0.75348604 0
4.1940002 0.34408796 0.75302607 0
4.198 0.33764836 0.75339401 0
4.2060003 0.33159119 0.75413001 0
4.2130003 0.32540771 0.75477397 0
4.2210002 0.3192946 0.75550991 0
4.2290001 0.31315267 0.75624585 0
4.237 0.30698183 0.75698185 0
4.2450004 0.30078214 0.75771779 0
4.2530003 0.29455358 0.75845373 0
4.2610002 0.28829619 0.75918972 0
4.2690001 0.2820099 0.75992566 0
4.277 0.27569476 0.7606616 0
4.2850003 0.26935077 0.7613976 0
