# .PCD v0.7 - Point Cloud Data file format
VERSION 0.7
FIELDS x y z intensity
SIZE 4 4 4 4
TYPE F F F F
COUNT 1 1 1 1
WIDTH 1500
HEIGHT 1
VIEWPOINT 0 0 0 1 0 0 0
POINTS 1500
DATA ascii
5.0250001 1.6892635 1.5969937 0
5.0310001 1.6831611 1.5985414 0
5.0370002 1.6770374 1.600089 0
5.0440001 1.6712614 1.6018946 0
5.0500002 1.6650925 1.6034423 0
5.0560002 1.6589018 1.60499 0
5.0620003 1.6526896 1.6065376 0
5.0680003 1.6464555 1.6080854 0
5.0750003 1.6405607 1.6098909 0
5.0810003 1.6342816 1.6114386 0
5.0870004 1.6279809 1.6129863 0
5.0940003 1.6220139 1.614792 0
5.1000004 1.6156682 1.6163396 0
5.1060004 1.6093007 1.6178873 0
5.1130004 1.6032616 1.6196928 0
5.1190004 1.5968491 1.6212406 0
5.1250005 1.5904149 1.6227882 0
5.1320004 1.5843036 1.6245937 0
5.1380005 1.5778244 1.6261415 0
4.4310002 2.2734971 1.4365035 0
4.4350004 2.2685206 1.437528 0
4.4400001 2.2641008 1.4388087 0
4.4450002 2.2596636 1.4400895 0
4.4490004 2.2546401 1.4411139 0
4.4540005 2.2501688 1.4423947 0
4.4590001 2.2456789 1.4436754 0
4.4640002 2.2411711 1.4449561 0
4.4680004 2.2360845 1.4459808 0
4.4730005 2.2315426 1.4472615 0
4.4780002 2.2269824 1.448542 0
4.4830003 2.2224042 1.4498228 0
4.4870005 2.2172544 1.4508474 0
4.4920001 2.212642 1.4521281 0
4.4970002 2.2080119 1.4534088 0
4.5020003 2.2033632 1.4546895 0
4.5070004 2.1986971 1.4559702 0
4.5120001 2.1940122 1.4572508 0
4.5160003 2.1887667 1.4582754 0
4.5210004 2.1840482 1.4595562 0
4.5260005 2.1793113 1.4608369 0
4.5310001 2.1745563 1.4621174 0
4.5360003 2.1697836 1.4633982 0
4.5410004 2.1649928 1.464679 0
4.5460005 2.1601837 1.4659597 0
4.5510001 2.1553566 1.4672403 0
4.5560002 2.1505115 1.4685211 0
4.5610003 2.1456487 1.4698018 0
4.5660005 2.1407678 1.4710824 0
4.5710001 2.1358683 1.4723631 0
4.5760002 2.1309512 1.4736439 0
4.5810003 2.1260159 1.4749246 0
4.5860004 2.1210628 1.4762053 0
4.5910001 2.1160913 1.477486 0
4.5960002 2.1111019 1.4787667 0
4.6010003 2.1060948 1.4800475 0
4.6060004 2.1010695 1.4813282 0
4.6110001 2.0960257 1.4826087 0
4.6160002 2.0909643 1.4838895 0
4.6210003 2.0858848 1.4851702 0
4.6260004 2.0807874 1.4864509 0
4.6310005 2.0756719 1.4877317 0
4.6370001 2.0710378 1.4892684 0
4.6420002 2.0658841 1.4905492 0
4.6470003 2.0607128 1.4918299 0
4.6520004 2.0555232 1.4931107 0
4.6570001 2.0503154 1.4943913 0
4.6630001 2.0455804 1.495928 0
4.6680002 2.0403352 1.4972088 0
4.6730003 2.0350716 1.4984896 0
4.6780005 2.0297902 1.4997703 0
4.6840005 2.0249739 1.5013071 0
4.6890001 2.0196543 1.5025878 0
4.6940002 2.0143168 1.5038686 0
4.6990004 2.0089617 1.5051491 0
4.7050004 2.0040641 1.5066861 0
4.7100005 1.9986708 1.5079669 0
4.7150002 1.9932592 1.5092474 0
4.7210002 1.9883006 1.5107843 0
4.7260003 1.9828513 1.5120651 0
4.7320004 1.9778512 1.5136019 0
4.7370005 1.9723639 1.5148826 0
4.7420001 1.9668589 1.5161632 0
4.7480001 1.9617972 1.5177001 0
4.7530003 1.956254 1.5189809 0
4.7590003 1.9511511 1.5205177 0
4.7640004 1.9455702 1.5217984 0
4.7700005 1.9404259 1.5233352 0
4.7750001 1.9348068 1.5246159 0
4.7810001 1.9296209 1.5261527 0
4.7860003 1.9239641 1.5274334 0
4.7920003 1.9187368 1.5289702 0
4.7970004 1.9130422 1.530251 0
4.8030005 1.9077733 1.5317879 0
4.8080001 1.9020406 1.5330684 0
4.8140001 1.8967302 1.5346054 0
4.8200002 1.8913983 1.5361422 0
4.8250003 1.8856081 1.537423 0
4.8310003 1.8802346 1.5389597 0
4.8360004 1.8744066 1.5402405 0
4.8420005 1.8689914 1.5417774 0
4.8480005 1.8635548 1.5433143 0
4.8530002 1.8576686 1.5445948 0
4.8590002 1.8521906 1.5461317 0
4.8650002 1.8466909 1.5476686 0
4.8710003 1.8411694 1.5492054 0
4.8760004 1.835206 1.5504861 0
4.8820004 1.8296431 1.5520229 0
4.8880005 1.8240587 1.5535599 0
4.8940005 1.8184524 1.5550967 0
4.8990002 1.8124112 1.5563774 0
4.9050002 1.8067635 1.5579141 0
4.9110003 1.8010942 1.559451 0
4.9170003 1.7954032 1.5609878 0
4.9230003 1.7896905 1.5625248 0
4.9290004 1.7839563 1.5640616 0
4.9350004 1.7782003 1.5655985 0
4.9410005 1.7724227 1.5671352 0
4.9470005 1.7666235 1.5686722 0
4.9520001 1.7604057 1.5699528 0
4.9580002 1.754565 1.5714897 0
4.9640002 1.7487025 1.5730265 0
4.9700003 1.7428186 1.5745633 0
4.9760003 1.7369128 1.5761002 0
4.9820004 1.7309856 1.5776371 0
4.9880004 1.7250367 1.5791739 0
4.9950004 1.7194502 1.5809669 0
5.0010004 1.7134562 1.5825038 0
5.0070004 1.7074406 1.5840405 0
5.0130005 1.7014033 1.5855775 0
5.0190005 1.6953442 1.5871143 0
5.0250001 1.6892635 1.5886511 0
5.0310001 1.6831611 1.5901879 0
5.0370002 1.6770374 1.5917248 0
5.0440001 1.6712614 1.5935177 0
5.0500002 1.6650925 1.5950545 0
5.0560002 1.6589018 1.5965915 0
5.0620003 1.6526896 1.5981283 0
5.0680003 1.6464555 1.5996652 0
5.0750003 1.6405607 1.6014582 0
5.0810003 1.6342816 1.6029949 0
5.0870004 1.6279809 1.6045318 0
5.0940003 1.6220139 1.6063248 0
5.1000004 1.6156682 1.6078616 0
5.1060004 1.6093007 1.6093986 0
5.1130004 1.6032616 1.6111915 0
5.1190004 1.5968491 1.6127284 0
5.1250005 1.5904149 1.6142652 0
5.1320004 1.5843036 1.6160581 0
5.1380005 1.5778244 1.6175951 0
4.4310002 2.2734971 1.4292324 0
4.4350004 2.2685206 1.4302497 0
4.4400001 2.2641008 1.4315213 0
4.4450002 2.2596636 1.432793 0
4.4490004 2.2546401 1.4338105 0
4.4540005 2.2501688 1.4350822 0
4.4590001 2.2456789 1.4363538 0
4.4640002 2.2411711 1.4376255 0
4.4680004 2.2360845 1.4386429 0
4.4730005 2.2315426 1.4399146 0
4.4780002 2.2269824 1.4411861 0
4.4830003 2.2224042 1.4424578 0
4.4870005 2.2172544 1.4434752 0
4.4920001 2.212642 1.4447469 0
4.4970002 2.2080119 1.4460186 0
4.5020003 2.2033632 1.4472903 0
4.5070004 2.1986971 1.4485619 0
4.5120001 2.1940122 1.4498335 0
4.5160003 2.1887667 1.450851 0
4.5210004 2.1840482 1.4521227 0
4.5260005 2.1793113 1.4533944 0
4.5310001 2.1745563 1.454666 0
4.5360003 2.1697836 1.4559377 0
4.5410004 2.1649928 1.4572095 0
4.5460005 2.1601837 1.4584812 0
4.5510001 2.1553566 1.4597528 0
4.5560002 2.1505115 1.4610244 0
4.5610003 2.1456487 1.4622961 0
4.5660005 2.1407678 1.4635679 0
4.5710001 2.1358683 1.4648395 0
4.5760002 2.1309512 1.4661112 0
4.5810003 2.1260159 1.4673829 0
4.5860004 2.1210628 1.4686546 0
4.5910001 2.1160913 1.4699261 0
4.5960002 2.1111019 1.4711978 0
4.6010003 2.1060948 1.4724696 0
4.6060004 2.1010695 1.4737413 0
4.6110001 2.0960257 1.4750129 0
4.6160002 2.0909643 1.4762846 0
4.6210003 2.0858848 1.4775563 0
4.6260004 2.0807874 1.4788281 0
4.6310005 2.0756719 1.4800998 0
4.6370001 2.0710378 1.4816257 0
4.6420002 2.0658841 1.4828974 0
4.6470003 2.0607128 1.4841691 0
4.6520004 2.0555232 1.4854409 0
4.6570001 2.0503154 1.4867125 0
4.6630001 2.0455804 1.4882385 0
4.6680002 2.0403352 1.4895102 0
4.6730003 2.0350716 1.4907819 0
4.6780005 2.0297902 1.4920536 0
4.6840005 2.0249739 1.4935796 0
4.6890001 2.0196543 1.4948512 0
4.6940002 2.0143168 1.496123 0
4.6990004 2.0089617 1.4973947 0
4.7050004 2.0040641 1.4989207 0
4.7100005 1.9986708 1.5001924 0
4.7150002 1.9932592 1.5014639 0
4.7210002 1.9883006 1.50299 0
4.7260003 1.9828513 1.5042617 0
4.7320004 1.9778512 1.5057877 0
4.7370005 1.9723639 1.5070595 0
4.7420001 1.9668589 1.5083311 0
4.7480001 1.9617972 1.5098571 0
4.7530003 1.956254 1.5111288 0
4.7590003 1.9511511 1.5126548 0
4.7640004 1.9455702 1.5139265 0
4.7700005 1.9404259 1.5154526 0
4.7750001 1.9348068 1.5167242 0
4.7810001 1.9296209 1.5182502 0
4.7860003 1.9239641 1.519522 0
4.7920003 1.9187368 1.5210479 0
4.7970004 1.9130422 1.5223197 0
4.8030005 1.9077733 1.5238458 0
4.8080001 1.9020406 1.5251174 0
4.8140001 1.8967302 1.5266434 0
4.8200002 1.8913983 1.5281694 0
4.8250003 1.8856081 1.5294411 0
4.8310003 1.8802346 1.5309671 0
4.8360004 1.8744066 1.5322388 0
4.8420005 1.8689914 1.533765 0
4.8480005 1.8635548 1.535291 0
4.8530002 1.8576686 1.5365624 0
4.8590002 1.8521906 1.5380884 0
4.8650002 1.8466909 1.5396146 0
4.8710003 1.8411694 1.5411406 0
4.8760004 1.835206 1.5424123 0
4.8820004 1.8296431 1.5439383 0
4.8880005 1.8240587 1.5454644 0
4.8940005 1.8184524 1.5469904 0
4.9000001 1.8128242 1.5485163 0
4.9050002 1.8067635 1.549788 0
4.9110003 1.8010942 1.5513141 0
4.9170003 1.7954032 1.5528401 0
4.9230003 1.7896905 1.5543661 0
4.9290004 1.7839563 1.5558922 0
4.9350004 1.7782003 1.5574182 0
4.9410005 1.7724227 1.5589442 0
4.9470005 1.7666235 1.5604703 0
4.9520001 1.7604057 1.5617419 0
4.9580002 1.754565 1.5632679 0
4.9640002 1.7487025 1.5647939 0
4.9700003 1.7428186 1.5663199 0
4.9760003 1.7369128 1.5678459 0
4.9820004 1.7309856 1.5693719 0
4.9880004 1.7250367 1.5708981 0
4.9950004 1.7194502 1.5726783 0
5.0010004 1.7134562 1.5742044 0
5.0070004 1.7074406 1.5757304 0
5.0130005 1.7014033 1.5772564 0
5.0190005 1.6953442 1.5787826 0
5.0250001 1.6892635 1.5803084 0
5.0310001 1.6831611 1.5818344 0
5.0370002 1.6770374 1.5833606 0
5.0440001 1.6712614 1.5851408 0
5.0500002 1.6650925 1.5866669 0
5.0560002 1.6589018 1.5881929 0
5.0620003 1.6526896 1.5897189 0
5.0680003 1.6464555 1.5912451 0
5.0750003 1.6405607 1.5930253 0
5.0810003 1.6342816 1.5945514 0
5.0870004 1.6279809 1.5960774 0
5.0940003 1.6220139 1.5978577 0
5.1000004 1.6156682 1.5993837 0
5.1060004 1.6093007 1.6009097 0
5.1130004 1.6032616 1.6026901 0
5.1190004 1.5968491 1.6042161 0
5.1250005 1.5904149 1.6057422 0
5.1320004 1.5843036 1.6075226 0
5.1380005 1.5778244 1.6090486 0
4.4310002 2.2734971 1.4219612 0
4.4350004 2.2685206 1.4229714 0
4.4400001 2.2641008 1.4242339 0
4.4450002 2.2596636 1.4254966 0
4.4490004 2.2546401 1.4265068 0
4.4540005 2.2501688 1.4277695 0
4.4590001 2.2456789 1.4290321 0
4.4640002 2.2411711 1.4302948 0
4.4680004 2.2360845 1.4313049 0
4.4730005 2.2315426 1.4325676 0
4.4780002 2.2269824 1.4338301 0
4.4830003 2.2224042 1.4350928 0
4.4870005 2.2172544 1.4361031 0
4.4920001 2.212642 1.4373657 0
4.4970002 2.2080119 1.4386283 0
4.5020003 2.2033632 1.439891 0
4.5070004 2.1986971 1.4411538 0
4.5120001 2.1940122 1.4424163 0
4.5160003 2.1887667 1.4434265 0
4.5210004 2.1840482 1.4446893 0
4.5260005 2.1793113 1.4459519 0
4.5310001 2.1745563 1.4472145 0
4.5360003 2.1697836 1.4484771 0
4.5410004 2.1649928 1.4497398 0
4.5460005 2.1601837 1.4510026 0
4.5510001 2.1553566 1.4522651 0
4.5560002 2.1505115 1.4535278 0
4.5610003 2.1456487 1.4547905 0
4.5660005 2.1407678 1.4560533 0
4.5710001 2.1358683 1.4573158 0
4.5760002 2.1309512 1.4585785 0
4.5810003 2.1260159 1.4598411 0
4.5860004 2.1210628 1.4611038 0
4.5910001 2.1160913 1.4623665 0
4.5960002 2.1111019 1.4636291 0
4.6010003 2.1060948 1.4648918 0
4.6060004 2.1010695 1.4661545 0
4.6110001 2.0960257 1.467417 0
4.6160002 2.0909643 1.4686798 0
4.6210003 2.0858848 1.4699425 0
4.6260004 2.0807874 1.4712051 0
4.6310005 2.0756719 1.4724679 0
4.6370001 2.0710378 1.4739829 0
4.6420002 2.0658841 1.4752456 0
4.6470003 2.0607128 1.4765084 0
4.6520004 2.0555232 1.477771 0
4.6570001 2.0503154 1.4790336 0
4.6630001 2.0455804 1.4805489 0
4.6680002 2.0403352 1.4818115 0
4.6730003 2.0350716 1.4830742 0
4.6780005 2.0297902 1.4843369 0
4.6840005 2.0249739 1.4858521 0
4.6890001 2.0196543 1.4871147 0
4.6940002 2.0143168 1.4883775 0
4.6990004 2.0089617 1.4896401 0
4.7050004 2.0040641 1.4911554 0
4.7100005 1.9986708 1.4924181 0
4.7150002 1.9932592 1.4936806 0
4.7210002 1.9883006 1.4951957 0
4.7260003 1.9828513 1.4964584 0
4.7320004 1.9778512 1.4979737 0
4.7370005 1.9723639 1.4992363 0
4.7420001 1.9668589 1.5004989 0
4.7480001 1.9617972 1.5020142 0
4.7530003 1.956254 1.5032768 0
4.7590003 1.9511511 1.504792 0
4.7640004 1.9455702 1.5060548 0
4.7700005 1.9404259 1.5075699 0
4.7750001 1.9348068 1.5088326 0
4.7810001 1.9296209 1.5103477 0
4.7860003 1.9239641 1.5116105 0
4.7920003 1.9187368 1.5131257 0
4.7970004 1.9130422 1.5143883 0
4.8030005 1.9077733 1.5159036 0
4.8080001 1.9020406 1.5171661 0
4.8140001 1.8967302 1.5186814 0
4.8200002 1.8913983 1.5201966 0
4.8250003 1.8856081 1.5214592 0
4.8310003 1.8802346 1.5229745 0
4.8360004 1.8744066 1.5242372 0
4.8420005 1.8689914 1.5257524 0
4.8480005 1.8635548 1.5272675 0
4.8530002 1.8576686 1.5285301 0
4.8590002 1.8521906 1.5300454 0
4.8650002 1.8466909 1.5315605 0
4.8710003 1.8411694 1.5330757 0
4.8760004 1.835206 1.5343384 0
4.8820004 1.8296431 1.5358536 0
4.8880005 1.8240587 1.5373689 0
4.8940005 1.8184524 1.538884 0
4.9000001 1.8128242 1.5403992 0
4.9050002 1.8067635 1.5416619 0
4.9110003 1.8010942 1.5431771 0
4.9170003 1.7954032 1.5446923 0
4.9230003 1.7896905 1.5462075 0
4.9290004 1.7839563 1.5477227 0
4.9350004 1.7782003 1.5492378 0
4.9410005 1.7724227 1.5507531 0
4.9470005 1.7666235 1.5522684 0
4.9520001 1.7604057 1.5535309 0
4.9580002 1.754565 1.5550461 0
4.9640002 1.7487025 1.5565614 0
4.9700003 1.7428186 1.5580766 0
4.9760003 1.7369128 1.5595918 0
4.9820004 1.7309856 1.5611069 0
4.9880004 1.7250367 1.5626222 0
4.9950004 1.7194502 1.5643899 0
5.0010004 1.7134562 1.5659051 0
5.0070004 1.7074406 1.5674202 0
5.0130005 1.7014033 1.5689355 0
5.0190005 1.6953442 1.5704507 0
5.0250001 1.6892635 1.5719658 0
5.0310001 1.6831611 1.5734811 0
5.0370002 1.6770374 1.5749962 0
5.0440001 1.6712614 1.576764 0
5.0500002 1.6650925 1.5782791 0
5.0560002 1.6589018 1.5797944 0
5.0620003 1.6526896 1.5813097 0
5.0680003 1.6464555 1.5828248 0
5.0750003 1.6405607 1.5845925 0
5.0810003 1.6342816 1.5861077 0
5.0870004 1.6279809 1.587623 0
5.0940003 1.6220139 1.5893906 0
5.1000004 1.6156682 1.5909059 0
5.1060004 1.6093007 1.5924211 0
5.1130004 1.6032616 1.5941888 0
5.1190004 1.5968491 1.595704 0
5.1250005 1.5904149 1.5972192 0
5.1320004 1.5843036 1.598987 0
5.1380005 1.5778244 1.6005021 0
4.4310002 2.2734971 1.41469 0
4.4350004 2.2685206 1.415693 0
4.4400001 2.2641008 1.4169465 0
4.4450002 2.2596636 1.4182003 0
4.4490004 2.2546401 1.4192032 0
4.4540005 2.2501688 1.4204569 0
4.4590001 2.2456789 1.4217104 0
4.4640002 2.2411711 1.4229641 0
4.4680004 2.2360845 1.423967 0
4.4730005 2.2315426 1.4252207 0
4.4780002 2.2269824 1.4264742 0
4.4830003 2.2224042 1.4277279 0
4.4870005 2.2172544 1.428731 0
4.4920001 2.212642 1.4299846 0
4.4970002 2.2080119 1.4312382 0
4.5020003 2.2033632 1.4324918 0
4.5070004 2.1986971 1.4337455 0
4.5120001 2.1940122 1.434999 0
4.5160003 2.1887667 1.436002 0
4.5210004 2.1840482 1.4372556 0
4.5260005 2.1793113 1.4385093 0
4.5310001 2.1745563 1.4397628 0
4.5360003 2.1697836 1.4410166 0
4.5410004 2.1649928 1.4422703 0
4.5460005 2.1601837 1.443524 0
4.5510001 2.1553566 1.4447775 0
4.5560002 2.1505115 1.4460312 0
4.5610003 2.1456487 1.4472848 0
4.5660005 2.1407678 1.4485385 0
4.5710001 2.1358683 1.449792 0
4.5760002 2.1309512 1.4510458 0
4.5810003 2.1260159 1.4522995 0
4.5860004 2.1210628 1.4535532 0
4.5910001 2.1160913 1.4548067 0
4.5960002 2.1111019 1.4560604 0
4.6010003 2.1060948 1.457314 0
4.6060004 2.1010695 1.4585676 0
4.6110001 2.0960257 1.4598212 0
4.6160002 2.0909643 1.4610748 0
4.6210003 2.0858848 1.4623287 0
4.6260004 2.0807874 1.4635823 0
4.6310005 2.0756719 1.464836 0
4.6370001 2.0710378 1.4663402 0
4.6420002 2.0658841 1.4675939 0
4.6470003 2.0607128 1.4688475 0
4.6520004 2.0555232 1.4701014 0
4.6570001 2.0503154 1.4713548 0
4.6630001 2.0455804 1.4728591 0
4.6680002 2.0403352 1.4741129 0
4.6730003 2.0350716 1.4753665 0
4.6780005 2.0297902 1.4766202 0
4.6840005 2.0249739 1.4781246 0
4.6890001 2.0196543 1.4793782 0
4.6940002 2.0143168 1.4806318 0
4.6990004 2.0089617 1.4818856 0
4.7050004 2.0040641 1.4833899 0
4.7100005 1.9986708 1.4846436 0
4.7150002 1.9932592 1.4858972 0
4.7210002 1.9883006 1.4874015 0
4.7260003 1.9828513 1.4886552 0
4.7320004 1.9778512 1.4901595 0
4.7370005 1.9723639 1.4914134 0
4.7420001 1.9668589 1.4926668 0
4.7480001 1.9617972 1.4941711 0
4.7530003 1.956254 1.4954249 0
4.7590003 1.9511511 1.4969292 0
4.7640004 1.9455702 1.498183 0
4.7700005 1.9404259 1.4996873 0
4.7750001 1.9348068 1.5009409 0
4.7810001 1.9296209 1.5024452 0
4.7860003 1.9239641 1.5036988 0
4.7920003 1.9187368 1.5052034 0
4.7970004 1.9130422 1.506457 0
4.8030005 1.9077733 1.5079614 0
4.8080001 1.9020406 1.5092149 0
4.8140001 1.8967302 1.5107193 0
4.8200002 1.8913983 1.5122237 0
4.8250003 1.8856081 1.5134773 0
4.8310003 1.8802346 1.5149819 0
4.8360004 1.8744066 1.5162355 0
4.8420005 1.8689914 1.5177398 0
4.8480005 1.8635548 1.5192442 0
4.8530002 1.8576686 1.5204977 0
4.8590002 1.8521906 1.5220022 0
4.8650002 1.8466909 1.5235065 0
4.8710003 1.8411694 1.5250109 0
4.8760004 1.835206 1.5262647 0
4.8820004 1.8296431 1.527769 0
4.8880005 1.8240587 1.5292734 0
4.8940005 1.8184524 1.5307778 0
4.9000001 1.8128242 1.532282 0
4.9050002 1.8067635 1.5335357 0
4.9110003 1.8010942 1.53504 0
4.9170003 1.7954032 1.5365446 0
4.9230003 1.7896905 1.5380489 0
4.9290004 1.7839563 1.5395533 0
4.9350004 1.7782003 1.5410577 0
4.9410005 1.7724227 1.542562 0
4.9470005 1.7666235 1.5440664 0
4.9520001 1.7604057 1.54532 0
4.9580002 1.754565 1.5468243 0
4.9640002 1.7487025 1.5483288 0
4.9700003 1.7428186 1.5498332 0
4.9760003 1.7369128 1.5513375 0
4.9820004 1.7309856 1.5528419 0
4.9880004 1.7250367 1.5543463 0
4.9950004 1.7194502 1.5561013 0
5.0010004 1.7134562 1.5576059 0
5.0070004 1.7074406 1.5591102 0
5.0130005 1.7014033 1.5606145 0
5.0190005 1.6953442 1.562119 0
5.0250001 1.6892635 1.5636232 0
5.0310001 1.6831611 1.5651276 0
5.0370002 1.6770374 1.566632 0
5.0440001 1.6712614 1.568387 0
5.0500002 1.6650925 1.5698915 0
5.0560002 1.6589018 1.5713959 0
5.0620003 1.6526896 1.5729002 0
5.0680003 1.6464555 1.5744047 0
5.0750003 1.6405607 1.5761597 0
5.0810003 1.6342816 1.5776641 0
5.0870004 1.6279809 1.5791686 0
5.0940003 1.6220139 1.5809237 0
5.1000004 1.6156682 1.582428 0
5.1060004 1.6093007 1.5839324 0
5.1130004 1.6032616 1.5856875 0
5.1190004 1.5968491 1.5871918 0
5.1260004 1.5907612 1.5889469 0
5.1320004 1.5843036 1.5904514 0
5.1380005 1.5778244 1.5919557 0
4.4310002 2.2734971 1.4074188 0
4.4350004 2.2685206 1.4084146 0
4.4400001 2.2641008 1.4096591 0
4.4450002 2.2596636 1.4109038 0
4.4490004 2.2546401 1.4118996 0
4.4540005 2.2501688 1.4131441 0
4.4590001 2.2456789 1.4143888 0
4.4640002 2.2411711 1.4156334 0
4.4680004 2.2360845 1.4166292 0
4.4730005 2.2315426 1.4178737 0
4.4780002 2.2269824 1.4191184 0
4.4830003 2.2224042 1.4203631 0
4.4870005 2.2172544 1.4213587 0
4.4920001 2.212642 1.4226032 0
4.4970002 2.2080119 1.4238479 0
4.5020003 2.2033632 1.4250926 0
4.5070004 2.1986971 1.4263372 0
4.5120001 2.1940122 1.4275818 0
4.5160003 2.1887667 1.4285775 0
4.5210004 2.1840482 1.4298222 0
4.5260005 2.1793113 1.4310669 0
4.5310001 2.1745563 1.4323114 0
4.5360003 2.1697836 1.4335561 0
4.5410004 2.1649928 1.4348006 0
4.5460005 2.1601837 1.4360454 0
4.5510001 2.1553566 1.43729 0
4.5560002 2.1505115 1.4385345 0
4.5610003 2.1456487 1.4397792 0
4.5660005 2.1407678 1.4410239 0
4.5710001 2.1358683 1.4422685 0
4.5760002 2.1309512 1.443513 0
4.5810003 2.1260159 1.4447577 0
4.5860004 2.1210628 1.4460024 0
4.5910001 2.1160913 1.4472469 0
4.5960002 2.1111019 1.4484916 0
4.6010003 2.1060948 1.4497362 0
4.6060004 2.1010695 1.4509809 0
4.6110001 2.0960257 1.4522254 0
4.6160002 2.0909643 1.45347 0
4.6210003 2.0858848 1.4547148 0
4.6260004 2.0807874 1.4559594 0
4.6320004 2.0761733 1.457453 0
4.6370001 2.0710378 1.4586974 0
4.6420002 2.0658841 1.4599421 0
4.6470003 2.0607128 1.4611869 0
4.6520004 2.0555232 1.4624314 0
4.6570001 2.0503154 1.463676 0
4.6630001 2.0455804 1.4651695 0
4.6680002 2.0403352 1.4664142 0
4.6730003 2.0350716 1.4676589 0
4.6780005 2.0297902 1.4689035 0
4.6840005 2.0249739 1.4703971 0
4.6890001 2.0196543 1.4716417 0
4.6940002 2.0143168 1.4728863 0
4.6990004 2.0089617 1.4741309 0
4.7050004 2.0040641 1.4756244 0
4.7100005 1.9986708 1.4768691 0
4.7150002 1.9932592 1.4781138 0
4.7210002 1.9883006 1.4796073 0
4.7260003 1.9828513 1.4808519 0
4.7320004 1.9778512 1.4823455 0
4.7370005 1.9723639 1.4835901 0
4.7420001 1.9668589 1.4848347 0
4.7480001 1.9617972 1.4863282 0
4.7530003 1.956254 1.4875729 0
4.7590003 1.9511511 1.4890665 0
4.7640004 1.9455702 1.4903111 0
4.7700005 1.9404259 1.4918047 0
4.7750001 1.9348068 1.4930493 0
4.7810001 1.9296209 1.4945427 0
4.7860003 1.9239641 1.4957874 0
4.7920003 1.9187368 1.497281 0
4.7970004 1.9130422 1.4985257 0
4.8030005 1.9077733 1.5000193 0
4.8080001 1.9020406 1.5012637 0
4.8140001 1.8967302 1.5027573 0
4.8200002 1.8913983 1.5042509 0
4.8250003 1.8856081 1.5054955 0
4.8310003 1.8802346 1.5069891 0
4.8360004 1.8744066 1.5082337 0
4.8420005 1.8689914 1.5097272 0
4.8480005 1.8635548 1.5112208 0
4.8530002 1.8576686 1.5124655 0
4.8590002 1.8521906 1.5139591 0
4.8650002 1.8466909 1.5154526 0
4.8710003 1.8411694 1.5169462 0
4.8760004 1.835206 1.5181907 0
4.8820004 1.8296431 1.5196843 0
4.8880005 1.8240587 1.5211779 0
4.8940005 1.8184524 1.5226715 0
4.9000001 1.8128242 1.5241649 0
4.9050002 1.8067635 1.5254096 0
4.9110003 1.8010942 1.5269032 0
4.9170003 1.7954032 1.5283966 0
4.9230003 1.7896905 1.5298902 0
4.9290004 1.7839563 1.5313838 0
4.9350004 1.7782003 1.5328773 0
4.9410005 1.7724227 1.534371 0
4.9470005 1.7666235 1.5358646 0
4.9520001 1.7604057 1.537109 0
4.9580002 1.754565 1.5386026 0
4.9640002 1.7487025 1.5400962 0
4.9700003 1.7428186 1.5415897 0
4.9760003 1.7369128 1.5430833 0
4.9820004 1.7309856 1.5445769 0
4.9880004 1.7250367 1.5460705 0
4.9950004 1.7194502 1.5478129 0
5.0010004 1.7134562 1.5493065 0
5.0070004 1.7074406 1.5508001 0
5.0130005 1.7014033 1.5522935 0
5.0190005 1.6953442 1.5537871 0
5.0250001 1.6892635 1.5552806 0
5.0310001 1.6831611 1.5567741 0
5.0370002 1.6770374 1.5582677 0
5.0440001 1.6712614 1.5600102 0
5.0500002 1.6650925 1.5615038 0
5.0560002 1.6589018 1.5629973 0
5.0620003 1.6526896 1.5644909 0
5.0680003 1.6464555 1.5659845 0
5.0750003 1.6405607 1.567727 0
5.0810003 1.6342816 1.5692204 0
5.0870004 1.6279809 1.570714 0
5.0940003 1.6220139 1.5724565 0
5.1000004 1.6156682 1.5739501 0
5.1060004 1.6093007 1.5754436 0
5.1130004 1.6032616 1.5771861 0
5.1190004 1.5968491 1.5786797 0
5.1260004 1.5907612 1.5804222 0
5.1320004 1.5843036 1.5819157 0
5.1380005 1.5778244 1.5834093 0
4.4310002 2.2734971 1.4001477 0
4.4350004 2.2685206 1.4011362 0
4.4400001 2.2641008 1.4023718 0
4.4450002 2.2596636 1.4036074 0
4.4490004 2.2546401 1.4045959 0
4.4540005 2.2501688 1.4058316 0
4.4590001 2.2456789 1.4070671 0
4.4640002 2.2411711 1.4083027 0
4.4680004 2.2360845 1.4092913 0
4.4730005 2.2315426 1.4105269 0
4.4780002 2.2269824 1.4117625 0
4.4830003 2.2224042 1.4129981 0
4.4870005 2.2172544 1.4139866 0
4.4920001 2.212642 1.4152222 0
4.4970002 2.2080119 1.4164578 0
4.5020003 2.2033632 1.4176934 0
4.5070004 2.1986971 1.418929 0
4.5120001 2.1940122 1.4201646 0
4.5160003 2.1887667 1.4211531 0
4.5210004 2.1840482 1.4223887 0
4.5260005 2.1793113 1.4236244 0
4.5310001 2.1745563 1.4248599 0
4.5360003 2.1697836 1.4260955 0
4.5410004 2.1649928 1.4273311 0
4.5460005 2.1601837 1.4285668 0
4.5510001 2.1553566 1.4298023 0
4.5560002 2.1505115 1.4310379 0
4.5610003 2.1456487 1.4322735 0
4.5660005 2.1407678 1.4335092 0
4.5710001 2.1358683 1.4347447 0
4.5760002 2.1309512 1.4359803 0
4.5810003 2.1260159 1.437216 0
4.5860004 2.1210628 1.4384516 0
4.5910001 2.1160913 1.4396871 0
4.5960002 2.1111019 1.4409227 0
4.6010003 2.1060948 1.4421585 0
4.6060004 2.1010695 1.4433941 0
4.6110001 2.0960257 1.4446295 0
4.6160002 2.0909643 1.4458653 0
4.6210003 2.0858848 1.4471009 0
4.6260004 2.0807874 1.4483365 0
4.6320004 2.0761733 1.4498192 0
4.6370001 2.0710378 1.4510547 0
4.6420002 2.0658841 1.4522903 0
4.6470003 2.0607128 1.453526 0
4.6520004 2.0555232 1.4547616 0
4.6570001 2.0503154 1.4559971 0
4.6630001 2.0455804 1.45748 0
4.6680002 2.0403352 1.4587156 0
4.6730003 2.0350716 1.4599513 0
4.6780005 2.0297902 1.4611869 0
4.6840005 2.0249739 1.4626696 0
4.6890001 2.0196543 1.4639051 0
4.6940002 2.0143168 1.4651407 0
4.6990004 2.0089617 1.4663763 0
4.7050004 2.0040641 1.4678591 0
4.7100005 1.9986708 1.4690948 0
4.7150002 1.9932592 1.4703304 0
4.7210002 1.9883006 1.471813 0
4.7260003 1.9828513 1.4730487 0
4.7320004 1.9778512 1.4745313 0
4.7370005 1.9723639 1.475767 0
4.7420001 1.9668589 1.4770025 0
4.7480001 1.9617972 1.4784853 0
4.7530003 1.956254 1.479721 0
4.7590003 1.9511511 1.4812037 0
4.7640004 1.9455702 1.4824393 0
4.7700005 1.9404259 1.483922 0
4.7750001 1.9348068 1.4851576 0
4.7810001 1.9296209 1.4866403 0
4.7860003 1.9239641 1.4878759 0
4.7920003 1.9187368 1.4893587 0
4.7970004 1.9130422 1.4905943 0
4.8030005 1.9077733 1.4920771 0
4.8080001 1.9020406 1.4933126 0
4.8140001 1.8967302 1.4947953 0
4.8200002 1.8913983 1.496278 0
4.8250003 1.8856081 1.4975137 0
4.8310003 1.8802346 1.4989965 0
4.8360004 1.8744066 1.5002321 0
4.8420005 1.8689914 1.5017148 0
4.8480005 1.8635548 1.5031976 0
4.8530002 1.8576686 1.5044332 0
4.8590002 1.8521906 1.5059158 0
4.8650002 1.8466909 1.5073985 0
4.8710003 1.8411694 1.5088813 0
4.8760004 1.835206 1.5101169 0
4.8820004 1.8296431 1.5115997 0
4.8880005 1.8240587 1.5130825 0
4.8940005 1.8184524 1.5145651 0
4.9000001 1.8128242 1.5160477 0
4.9050002 1.8067635 1.5172833 0
4.9110003 1.8010942 1.5187662 0
4.9170003 1.7954032 1.5202489 0
4.9230003 1.7896905 1.5217317 0
4.9290004 1.7839563 1.5232143 0
4.9350004 1.7782003 1.5246971 0
4.9410005 1.7724227 1.5261799 0
4.9470005 1.7666235 1.5276625 0
4.9520001 1.7604057 1.5288981 0
4.9580002 1.754565 1.5303808 0
4.9640002 1.7487025 1.5318636 0
4.9700003 1.7428186 1.5333463 0
4.9760003 1.7369128 1.5348291 0
4.9820004 1.7309856 1.5363117 0
4.9880004 1.7250367 1.5377946 0
4.9950004 1.7194502 1.5395243 0
5.0010004 1.7134562 1.5410072 0
5.0070004 1.7074406 1.5424899 0
5.0130005 1.7014033 1.5439726 0
5.0190005 1.6953442 1.5454553 0
5.0250001 1.6892635 1.5469379 0
5.0310001 1.6831611 1.5484208 0
5.0370002 1.6770374 1.5499034 0
5.0440001 1.6712614 1.5516334 0
5.0500002 1.6650925 1.553116 0
5.0560002 1.6589018 1.5545988 0
5.0620003 1.6526896 1.5560815 0
5.0680003 1.6464555 1.5575643 0
5.0750003 1.6405607 1.5592941 0
5.0810003 1.6342816 1.5607769 0
5.0870004 1.6279809 1.5622596 0
5.0940003 1.6220139 1.5639894 0
5.1000004 1.6156682 1.5654721 0
5.1060004 1.6093007 1.566955 0
5.1130004 1.6032616 1.5686847 0
5.1190004 1.5968491 1.5701675 0
5.1260004 1.5907612 1.5718974 0
5.1320004 1.5843036 1.5733801 0
5.1380005 1.5778244 1.5748628 0
4.4310002 2.2734971 1.3928765 0
4.4350004 2.2685206 1.393858 0
4.4400001 2.2641008 1.3950844 0
4.4450002 2.2596636 1.3963109 0
4.4490004 2.2546401 1.3972924 0
4.4540005 2.2501688 1.3985189 0
4.4590001 2.2456789 1.3997453 0
4.4640002 2.2411711 1.400972 0
4.4680004 2.2360845 1.4019533 0
4.4730005 2.2315426 1.4031799 0
4.4780002 2.2269824 1.4044065 0
4.4830003 2.2224042 1.4056331 0
4.4870005 2.2172544 1.4066144 0
4.4920001 2.212642 1.407841 0
4.4970002 2.2080119 1.4090675 0
4.5020003 2.2033632 1.4102942 0
4.5070004 2.1986971 1.4115208 0
4.5120001 2.1940122 1.4127473 0
4.5160003 2.1887667 1.4137286 0
4.5210004 2.1840482 1.4149553 0
4.5260005 2.1793113 1.4161818 0
4.5310001 2.1745563 1.4174082 0
4.5360003 2.1697836 1.418635 0
4.5410004 2.1649928 1.4198616 0
4.5460005 2.1601837 1.4210882 0
4.5510001 2.1553566 1.4223146 0
4.5560002 2.1505115 1.4235413 0
4.5610003 2.1456487 1.424768 0
4.5660005 2.1407678 1.4259945 0
4.5710001 2.1358683 1.4272211 0
4.5760002 2.1309512 1.4284477 0
4.5810003 2.1260159 1.4296743 0
4.5860004 2.1210628 1.4309008 0
4.5910001 2.1160913 1.4321275 0
4.5960002 2.1111019 1.433354 0
4.6010003 2.1060948 1.4345807 0
4.6060004 2.1010695 1.4358072 0
4.6110001 2.0960257 1.4370338 0
4.6160002 2.0909643 1.4382604 0
4.6210003 2.0858848 1.439487 0
4.6260004 2.0807874 1.4407135 0
4.6320004 2.0761733 1.4421855 0
4.6370001 2.0710378 1.4434121 0
4.6420002 2.0658841 1.4446386 0
4.6470003 2.0607128 1.4458653 0
4.6520004 2.0555232 1.4470918 0
4.6570001 2.0503154 1.4483185 0
4.6630001 2.0455804 1.4497902 0
4.6680002 2.0403352 1.4510169 0
4.6730003 2.0350716 1.4522436 0
4.6780005 2.0297902 1.4534701 0
4.6840005 2.0249739 1.454942 0
4.6890001 2.0196543 1.4561685 0
4.6940002 2.0143168 1.4573952 0
4.6990004 2.0089617 1.4586219 0
4.7050004 2.0040641 1.4600937 0
4.7100005 1.9986708 1.4613203 0
4.7150002 1.9932592 1.4625468 0
4.7210002 1.9883006 1.4640187 0
4.7260003 1.9828513 1.4652454 0
4.7320004 1.9778512 1.4667172 0
4.7370005 1.9723639 1.4679439 0
4.7420001 1.9668589 1.4691705 0
4.7480001 1.9617972 1.4706423 0
4.7530003 1.956254 1.4718689 0
4.7590003 1.9511511 1.4733409 0
4.7640004 1.9455702 1.4745674 0
4.7700005 1.9404259 1.4760394 0
4.7750001 1.9348068 1.4772658 0
4.7810001 1.9296209 1.4787377 0
4.7860003 1.9239641 1.4799645 0
4.7920003 1.9187368 1.4814364 0
4.7970004 1.9130422 1.482663 0
4.8030005 1.9077733 1.4841349 0
4.8080001 1.9020406 1.4853613 0
4.8140001 1.8967302 1.4868333 0
4.8200002 1.8913983 1.4883052 0
4.8250003 1.8856081 1.4895319 0
4.8310003 1.8802346 1.4910038 0
4.8360004 1.8744066 1.4922303 0
4.8420005 1.8689914 1.4937023 0
4.8480005 1.8635548 1.4951742 0
4.8530002 1.8576686 1.4964007 0
4.8590002 1.8521906 1.4978726 0
4.8650002 1.8466909 1.4993445 0
4.8710003 1.8411694 1.5008165 0
4.8760004 1.835206 1.502043 0
4.8820004 1.8296431 1.503515 0
4.8880005 1.8240587 1.5049869 0
4.8940005 1.8184524 1.5064589 0
4.9000001 1.8128242 1.5079306 0
4.9050002 1.8067635 1.5091572 0
4.9110003 1.8010942 1.5106292 0
4.9170003 1.7954032 1.5121011 0
4.9230003 1.7896905 1.5135731 0
4.9290004 1.7839563 1.5150449 0
4.9350004 1.7782003 1.5165169 0
4.9410005 1.7724227 1.5179888 0
4.9470005 1.7666235 1.5194607 0
4.9520001 1.7604057 1.5206872 0
4.9580002 1.754565 1.5221591 0
4.9640002 1.7487025 1.5236311 0
4.9700003 1.7428186 1.525103 0
4.9760003 1.7369128 1.5265749 0
4.9820004 1.7309856 1.5280467 0
4.9880004 1.7250367 1.5295186 0
4.9950004 1.7194502 1.5312359 0
5.0010004 1.7134562 1.5327078 0
5.0070004 1.7074406 1.5341798 0
5.0130005 1.7014033 1.5356517 0
5.0190005 1.6953442 1.5371236 0
5.0250001 1.6892635 1.5385953 0
5.0310001 1.6831611 1.5400672 0
5.0370002 1.6770374 1.5415392 0
5.0440001 1.6712614 1.5432564 0
5.0500002 1.6650925 1.5447284 0
5.0560002 1.6589018 1.5462003 0
5.0620003 1.6526896 1.5476722 0
5.0680003 1.6464555 1.549144 0
5.0750003 1.6405607 1.5508614 0
5.0810003 1.6342816 1.5523332 0
5.0870004 1.6279809 1.5538051 0
5.0940003 1.6220139 1.5555223 0
5.1000004 1.6156682 1.5569942 0
5.1060004 1.6093007 1.5584662 0
5.1130004 1.6032616 1.5601834 0
5.1190004 1.5968491 1.5616554 0
5.1260004 1.5907612 1.5633725 0
5.1320004 1.5843036 1.5648445 0
5.1380005 1.5778244 1.5663164 0
5.1450005 1.5716642 1.5680337 0
4.4310002 2.2734971 1.3856053 0
4.4350004 2.2685206 1.3865795 0
4.4400001 2.2641008 1.387797 0
4.4450002 2.2596636 1.3890146 0
4.4490004 2.2546401 1.3899887 0
4.4540005 2.2501688 1.3912063 0
4.4590001 2.2456789 1.3924237 0
4.4640002 2.2411711 1.3936414 0
4.4680004 2.2360845 1.3946154 0
4.4730005 2.2315426 1.395833 0
4.4780002 2.2269824 1.3970506 0
4.4830003 2.2224042 1.3982681 0
4.4870005 2.2172544 1.3992423 0
4.4920001 2.212642 1.4004596 0
4.4970002 2.2080119 1.4016774 0
4.5020003 2.2033632 1.4028949 0
4.5070004 2.1986971 1.4041126 0
4.5120001 2.1940122 1.4053301 0
4.5160003 2.1887667 1.4063041 0
4.5210004 2.1840482 1.4075217 0
4.5260005 2.1793113 1.4087393 0
4.5310001 2.1745563 1.4099568 0
4.5360003 2.1697836 1.4111744 0
4.5410004 2.1649928 1.412392 0
4.5460005 2.1601837 1.4136095 0
4.5510001 2.1553566 1.4148271 0
4.5560002 2.1505115 1.4160446 0
4.5610003 2.1456487 1.4172623 0
4.5660005 2.1407678 1.4184798 0
4.5710001 2.1358683 1.4196974 0
4.5760002 2.1309512 1.4209149 0
4.5810003 2.1260159 1.4221326 0
4.5860004 2.1210628 1.4233501 0
4.5910001 2.1160913 1.4245676 0
4.5960002 2.1111019 1.4257853 0
4.6010003 2.1060948 1.4270028 0
4.6060004 2.1010695 1.4282205 0
4.6110001 2.0960257 1.4294379 0
4.6160002 2.0909643 1.4306556 0
4.6210003 2.0858848 1.4318731 0
4.6260004 2.0807874 1.4330908 0
4.6320004 2.0761733 1.4345518 0
4.6370001 2.0710378 1.4357693 0
4.6420002 2.0658841 1.4369869 0
4.6470003 2.0607128 1.4382045 0
4.6520004 2.0555232 1.439422 0
4.6570001 2.0503154 1.4406396 0
4.6630001 2.0455804 1.4421006 0
4.6680002 2.0403352 1.4433182 0
4.6730003 2.0350716 1.4445359 0
4.6780005 2.0297902 1.4457535 0
4.6840005 2.0249739 1.4472145 0
4.6890001 2.0196543 1.4484321 0
4.6940002 2.0143168 1.4496496 0
4.6990004 2.0089617 1.4508673 0
4.7050004 2.0040641 1.4523283 0
4.7100005 1.9986708 1.4535459 0
4.7150002 1.9932592 1.4547634 0
4.7210002 1.9883006 1.4562246 0
4.7260003 1.9828513 1.457442 0
4.7320004 1.9778512 1.4589032 0
4.7370005 1.9723639 1.4601208 0
4.7420001 1.9668589 1.4613383 0
4.7480001 1.9617972 1.4627993 0
4.7530003 1.956254 1.4640169 0
4.7590003 1.9511511 1.4654781 0
4.7640004 1.9455702 1.4666955 0
4.7700005 1.9404259 1.4681568 0
4.7750001 1.9348068 1.4693742 0
4.7810001 1.9296209 1.4708353 0
4.7860003 1.9239641 1.4720529 0
4.7920003 1.9187368 1.4735141 0
4.7970004 1.9130422 1.4747316 0
4.8030005 1.9077733 1.4761927 0
4.8080001 1.9020406 1.4774102 0
4.8140001 1.8967302 1.4788713 0
4.8200002 1.8913983 1.4803324 0
4.8250003 1.8856081 1.48155 0
4.8310003 1.8802346 1.4830111 0
4.8360004 1.8744066 1.4842287 0
4.8420005 1.8689914 1.4856898 0
4.8480005 1.8635548 1.4871508 0
4.8530002 1.8576686 1.4883684 0
4.8590002 1.8521906 1.4898294 0
4.8650002 1.8466909 1.4912906 0
4.8710003 1.8411694 1.4927516 0
4.8760004 1.835206 1.4939693 0
4.8820004 1.8296431 1.4954304 0
4.8880005 1.8240587 1.4968915 0
4.8940005 1.8184524 1.4983525 0
4.9000001 1.8128242 1.4998134 0
4.9050002 1.8067635 1.501031 0
4.9110003 1.8010942 1.5024922 0
4.9170003 1.7954032 1.5039533 0
4.9230003 1.7896905 1.5054144 0
4.9290004 1.7839563 1.5068755 0
4.9350004 1.7782003 1.5083365 0
4.9410005 1.7724227 1.5097977 0
4.9470005 1.7666235 1.5112587 0
4.9520001 1.7604057 1.5124762 0
4.9580002 1.754565 1.5139374 0
4.9640002 1.7487025 1.5153984 0
4.9700003 1.7428186 1.5168595 0
4.9760003 1.7369128 1.5183206 0
4.9820004 1.7309856 1.5197817 0
4.9880004 1.7250367 1.5212429 0
4.9950004 1.7194502 1.5229473 0
5.0010004 1.7134562 1.5244086 0
5.0070004 1.7074406 1.5258696 0
5.0130005 1.7014033 1.5273308 0
5.0190005 1.6953442 1.5287918 0
5.0250001 1.6892635 1.5302528 0
5.0310001 1.6831611 1.5317138 0
5.0370002 1.6770374 1.5331749 0
5.0440001 1.6712614 1.5348796 0
5.0500002 1.6650925 1.5363406 0
5.0560002 1.6589018 1.5378017 0
5.0620003 1.6526896 1.5392628 0
5.0680003 1.6464555 1.5407239 0
5.0750003 1.6405607 1.5424285 0
5.0810003 1.6342816 1.5438896 0
5.0870004 1.6279809 1.5453508 0
5.0940003 1.6220139 1.5470554 0
5.1000004 1.6156682 1.5485164 0
5.1060004 1.6093007 1.5499775 0
5.1130004 1.6032616 1.5516821 0
5.1190004 1.5968491 1.5531431 0
5.1260004 1.5907612 1.5548478 0
5.1320004 1.5843036 1.5563089 0
5.1380005 1.5778244 1.55777 0
5.1450005 1.5716642 1.5594746 0
4.4310002 2.2734971 1.3783342 0
4.4350004 2.2685206 1.3793012 0
4.4400001 2.2641008 1.3805096 0
4.4450002 2.2596636 1.3817182 0
4.4490004 2.2546401 1.3826851 0
4.4540005 2.2501688 1.3838936 0
4.4590001 2.2456789 1.3851022 0
4.4640002 2.2411711 1.3863106 0
4.4680004 2.2360845 1.3872776 0
4.4730005 2.2315426 1.3884861 0
4.4780002 2.2269824 1.3896947 0
4.4830003 2.2224042 1.3909031 0
4.4870005 2.2172544 1.39187 0
4.4920001 2.212642 1.3930786 0
4.4970002 2.2080119 1.3942871 0
4.5020003 2.2033632 1.3954957 0
4.5070004 2.1986971 1.3967043 0
4.5120001 2.1940122 1.3979127 0
4.5160003 2.1887667 1.3988795 0
4.5210004 2.1840482 1.4000882 0
4.5260005 2.1793113 1.4012967 0
4.5310001 2.1745563 1.4025053 0
4.5360003 2.1697836 1.4037138 0
4.5410004 2.1649928 1.4049225 0
4.5460005 2.1601837 1.4061309 0
4.5510001 2.1553566 1.4073395 0
4.5560002 2.1505115 1.408548 0
4.5610003 2.1456487 1.4097567 0
4.5660005 2.1407678 1.4109652 0
4.5710001 2.1358683 1.4121736 0
4.5760002 2.1309512 1.4133823 0
4.5810003 2.1260159 1.4145908 0
4.5860004 2.1210628 1.4157995 0
4.5910001 2.1160913 1.4170079 0
4.5960002 2.1111019 1.4182165 0
4.6010003 2.1060948 1.419425 0
4.6060004 2.1010695 1.4206337 0
4.6110001 2.0960257 1.4218421 0
4.6160002 2.0909643 1.4230506 0
4.6210003 2.0858848 1.4242592 0
4.6260004 2.0807874 1.4254678 0
4.6320004 2.0761733 1.4269181 0
4.6370001 2.0710378 1.4281266 0
4.6420002 2.0658841 1.4293351 0
4.6470003 2.0607128 1.4305437 0
4.6520004 2.0555232 1.4317523 0
4.6570001 2.0503154 1.4329607 0
4.6630001 2.0455804 1.434411 0
4.6680002 2.0403352 1.4356196 0
4.6730003 2.0350716 1.4368281 0
4.6780005 2.0297902 1.4380368 0
4.6840005 2.0249739 1.439487 0
4.6890001 2.0196543 1.4406955 0
4.6940002 2.0143168 1.4419041 0
4.6990004 2.0089617 1.4431126 0
4.7050004 2.0040641 1.4445629 0
4.7100005 1.9986708 1.4457715 0
4.7150002 1.9932592 1.44698 0
4.7210002 1.9883006 1.4484303 0
4.7260003 1.9828513 1.4496388 0
4.7320004 1.9778512 1.4510891 0
4.7370005 1.9723639 1.4522976 0
4.7420001 1.9668589 1.4535061 0
4.7480001 1.9617972 1.4549564 0
4.7530003 1.956254 1.456165 0
4.7590003 1.9511511 1.4576153 0
4.7640004 1.9455702 1.4588239 0
4.7700005 1.9404259 1.4602741 0
4.7750001 1.9348068 1.4614825 0
4.7810001 1.9296209 1.4629328 0
4.7860003 1.9239641 1.4641414 0
4.7920003 1.9187368 1.4655917 0
4.7970004 1.9130422 1.4668003 0
4.8030005 1.9077733 1.4682506 0
4.8080001 1.9020406 1.4694591 0
4.8140001 1.8967302 1.4709092 0
4.8200002 1.8913983 1.4723595 0
4.8250003 1.8856081 1.4735681 0
4.8310003 1.8802346 1.4750184 0
4.8360004 1.8744066 1.476227 0
4.8420005 1.8689914 1.4776772 0
4.8480005 1.8635548 1.4791275 0
4.8530002 1.8576686 1.4803361 0
4.8590002 1.8521906 1.4817864 0
4.8650002 1.8466909 1.4832366 0
4.8710003 1.8411694 1.4846867 0
4.8760004 1.835206 1.4858954 0
4.8820004 1.8296431 1.4873457 0
4.8880005 1.8240587 1.4887959 0
4.8940005 1.8184524 1.4902462 0
4.9000001 1.8128242 1.4916964 0
4.9050002 1.8067635 1.492905 0
4.9110003 1.8010942 1.4943552 0
4.9170003 1.7954032 1.4958055 0
4.9230003 1.7896905 1.4972558 0
4.9290004 1.7839563 1.498706 0
4.9350004 1.7782003 1.5001563 0
4.9410005 1.7724227 1.5016065 0
4.9470005 1.7666235 1.5030568 0
4.9520001 1.7604057 1.5042653 0
4.9580002 1.754565 1.5057156 0
4.9640002 1.7487025 1.5071658 0
4.9700003 1.7428186 1.5086161 0
4.9760003 1.7369128 1.5100664 0
4.9820004 1.7309856 1.5115167 0
4.9880004 1.7250367 1.512967 0
4.9950004 1.7194502 1.5146589 0
5.0010004 1.7134562 1.5161092 0
5.0070004 1.7074406 1.5175595 0
5.0130005 1.7014033 1.5190097 0
5.0190005 1.6953442 1.52046 0
5.0250001 1.6892635 1.5219102 0
5.0310001 1.6831611 1.5233605 0
5.0370002 1.6770374 1.5248107 0
5.0440001 1.6712614 1.5265027 0
5.0500002 1.6650925 1.5279529 0
5.0560002 1.6589018 1.5294031 0
5.0620003 1.6526896 1.5308534 0
5.0680003 1.6464555 1.5323037 0
5.0750003 1.6405607 1.5339956 0
5.0810003 1.6342816 1.5354459 0
5.0870004 1.6279809 1.5368962 0
5.0940003 1.6220139 1.5385882 0
5.1000004 1.6156682 1.5400385 0
5.1060004 1.6093007 1.5414888 0
5.1130004 1.6032616 1.5431807 0
5.1190004 1.5968491 1.544631 0
5.1260004 1.5907612 1.5463229 0
5.1320004 1.5843036 1.5477732 0
5.1380005 1.5778244 1.5492234 0
5.1450005 1.5716642 1.5509155 0
4.4310002 2.2734971 1.3710631 0
4.4350004 2.2685206 1.3720227 0
4.4400001 2.2641008 1.3732222 0
4.4450002 2.2596636 1.3744217 0
4.4490004 2.2546401 1.3753815 0
4.4540005 2.2501688 1.3765811 0
4.4590001 2.2456789 1.3777804 0
4.4640002 2.2411711 1.37898 0
4.4680004 2.2360845 1.3799397 0
4.4730005 2.2315426 1.3811392 0
4.4780002 2.2269824 1.3823386 0
4.4830003 2.2224042 1.3835382 0
4.4870005 2.2172544 1.3844979 0
4.4920001 2.212642 1.3856974 0
4.4970002 2.2080119 1.3868968 0
4.5020003 2.2033632 1.3880965 0
4.5070004 2.1986971 1.3892959 0
4.5120001 2.1940122 1.3904954 0
4.5160003 2.1887667 1.3914552 0
4.5210004 2.1840482 1.3926547 0
4.5260005 2.1793113 1.3938543 0
4.5310001 2.1745563 1.3950537 0
4.5360003 2.1697836 1.3962532 0
4.5410004 2.1649928 1.3974528 0
4.5460005 2.1601837 1.3986523 0
4.5510001 2.1553566 1.3998518 0
4.5560002 2.1505115 1.4010514 0
4.5610003 2.1456487 1.4022509 0
4.5660005 2.1407678 1.4034505 0
4.5710001 2.1358683 1.40465 0
4.5760002 2.1309512 1.4058496 0
4.5810003 2.1260159 1.4070492 0
4.5860004 2.1210628 1.4082487 0
4.5910001 2.1160913 1.4094481 0
4.5960002 2.1111019 1.4106476 0
4.6010003 2.1060948 1.4118472 0
4.6060004 2.1010695 1.4130468 0
4.6110001 2.0960257 1.4142462 0
4.6160002 2.0909643 1.4154458 0
4.6210003 2.0858848 1.4166453 0
4.6260004 2.0807874 1.4178449 0
4.6320004 2.0761733 1.4192843 0
4.6370001 2.0710378 1.4204838 0
4.6420002 2.0658841 1.4216834 0
4.6470003 2.0607128 1.4228829 0
4.6520004 2.0555232 1.4240825 0
4.6570001 2.0503154 1.4252819 0
4.6630001 2.0455804 1.4267213 0
4.6680002 2.0403352 1.4279209 0
4.6730003 2.0350716 1.4291205 0
4.6780005 2.0297902 1.4303201 0
4.6840005 2.0249739 1.4317595 0
4.6890001 2.0196543 1.432959 0
4.6940002 2.0143168 1.4341584 0
4.6990004 2.0089617 1.435358 0
4.7050004 2.0040641 1.4367976 0
4.7100005 1.9986708 1.4379971 0
4.7150002 1.9932592 1.4391966 0
4.7210002 1.9883006 1.4406359 0
4.7260003 1.9828513 1.4418355 0
4.7320004 1.9778512 1.443275 0
4.7370005 1.9723639 1.4444746 0
4.7420001 1.9668589 1.4456741 0
4.7480001 1.9617972 1.4471134 0
4.7530003 1.956254 1.448313 0
4.7590003 1.9511511 1.4497524 0
4.7640004 1.9455702 1.4509521 0
4.7700005 1.9404259 1.4523914 0
4.7750001 1.9348068 1.4535909 0
4.7810001 1.9296209 1.4550304 0
4.7860003 1.9239641 1.4562299 0
4.7920003 1.9187368 1.4576694 0
4.7970004 1.9130422 1.4588689 0
4.8030005 1.9077733 1.4603084 0
4.8080001 1.9020406 1.4615078 0
4.8140001 1.8967302 1.4629472 0
4.8200002 1.8913983 1.4643867 0
4.8250003 1.8856081 1.4655863 0
4.8310003 1.8802346 1.4670258 0
4.8360004 1.8744066 1.4682252 0
4.8420005 1.8689914 1.4696648 0
4.8480005 1.8635548 1.4711041 0
4.8530002 1.8576686 1.4723036 0
4.8590002 1.8521906 1.4737431 0
4.8650002 1.8466909 1.4751825 0
4.8710003 1.8411694 1.476622 0
4.8760004 1.835206 1.4778216 0
4.8820004 1.8296431 1.4792609 0
4.8880005 1.8240587 1.4807005 0
4.8940005 1.8184524 1.4821399 0
4.9000001 1.8128242 1.4835793 0
4.9050002 1.8067635 1.4847789 0
4.9110003 1.8010942 1.4862182 0
4.9170003 1.7954032 1.4876577 0
4.9230003 1.7896905 1.4890971 0
4.9290004 1.7839563 1.4905366 0
4.9350004 1.7782003 1.491976 0
4.9410005 1.7724227 1.4934155 0
4.9470005 1.7666235 1.4948549 0
4.9520001 1.7604057 1.4960544 0
4.9580002 1.754565 1.4974937 0
4.9640002 1.7487025 1.4989333 0
4.9700003 1.7428186 1.5003726 0
4.9760003 1.7369128 1.5018122 0
4.9820004 1.7309856 1.5032516 0
4.9880004 1.7250367 1.504691 0
4.9950004 1.7194502 1.5063703 0
5.0010004 1.7134562 1.5078099 0
5.0070004 1.7074406 1.5092492 0
5.0130005 1.7014033 1.5106888 0
5.0190005 1.6953442 1.5121282 0
5.0250001 1.6892635 1.5135676 0
5.0310001 1.6831611 1.515007 0
5.0370002 1.6770374 1.5164465 0
5.0440001 1.6712614 1.5181258 0
5.0500002 1.6650925 1.5195652 0
5.0560002 1.6589018 1.5210047 0
5.0620003 1.6526896 1.5224441 0
5.0680003 1.6464555 1.5238836 0
5.0750003 1.6405607 1.5255629 0
5.0810003 1.6342816 1.5270025 0
5.0870004 1.6279809 1.5284418 0
5.0940003 1.6220139 1.5301211 0
5.1000004 1.6156682 1.5315605 0
5.1060004 1.6093007 1.5330001 0
5.1130004 1.6032616 1.5346794 0
5.1190004 1.5968491 1.5361189 0
5.1260004 1.5907612 1.5377982 0
5.1320004 1.5843036 1.5392375 0
5.1380005 1.5778244 1.5406771 0
5.1450005 1.5716642 1.5423564 0
4.4310002 2.2734971 1.3637919 0
4.4350004 2.2685206 1.3647444 0
4.4400001 2.2641008 1.3659347 0
4.4450002 2.2596636 1.3671254 0
4.4490004 2.2546401 1.3680778 0
4.4540005 2.2501688 1.3692683 0
4.4590001 2.2456789 1.3704588 0
4.4640002 2.2411711 1.3716493 0
4.4680004 2.2360845 1.3726017 0
4.4730005 2.2315426 1.3737923 0
4.4780002 2.2269824 1.3749827 0
4.4830003 2.2224042 1.3761734 0
4.4870005 2.2172544 1.3771257 0
4.4920001 2.212642 1.3783162 0
4.4970002 2.2080119 1.3795067 0
4.5020003 2.2033632 1.3806973 0
4.5070004 2.1986971 1.3818878 0
4.5120001 2.1940122 1.3830782 0
4.5160003 2.1887667 1.3840307 0
4.5210004 2.1840482 1.3852212 0
4.5260005 2.1793113 1.3864118 0
4.5310001 2.1745563 1.3876022 0
4.5360003 2.1697836 1.3887928 0
4.5410004 2.1649928 1.3899833 0
4.5460005 2.1601837 1.3911737 0
4.5510001 2.1553566 1.3923643 0
4.5560002 2.1505115 1.3935548 0
4.5610003 2.1456487 1.3947452 0
4.5660005 2.1407678 1.3959359 0
4.5710001 2.1358683 1.3971263 0
4.5760002 2.1309512 1.3983167 0
4.5810003 2.1260159 1.3995074 0
4.5860004 2.1210628 1.4006979 0
4.5910001 2.1160913 1.4018883 0
4.5960002 2.1111019 1.4030789 0
4.6010003 2.1060948 1.4042695 0
4.6060004 2.1010695 1.4054599 0
4.6110001 2.0960257 1.4066504 0
4.6160002 2.0909643 1.407841 0
4.6210003 2.0858848 1.4090314 0
4.6260004 2.0807874 1.4102221 0
4.6320004 2.0761733 1.4116507 0
4.6370001 2.0710378 1.4128411 0
4.6420002 2.0658841 1.4140316 0
4.6470003 2.0607128 1.4152222 0
4.6520004 2.0555232 1.4164127 0
4.6570001 2.0503154 1.4176031 0
4.6630001 2.0455804 1.4190317 0
4.6680002 2.0403352 1.4202223 0
4.6730003 2.0350716 1.4214128 0
4.6780005 2.0297902 1.4226034 0
4.6840005 2.0249739 1.424032 0
4.6890001 2.0196543 1.4252224 0
4.6940002 2.0143168 1.4264131 0
4.6990004 2.0089617 1.4276035 0
4.7050004 2.0040641 1.4290321 0
4.7100005 1.9986708 1.4302226 0
4.7150002 1.9932592 1.4314132 0
4.7210002 1.9883006 1.4328418 0
4.7260003 1.9828513 1.4340323 0
4.7320004 1.9778512 1.4354609 0
4.7370005 1.9723639 1.4366515 0
4.7420001 1.9668589 1.4378418 0
4.7480001 1.9617972 1.4392705 0
4.7530003 1.956254 1.440461 0
4.7590003 1.9511511 1.4418896 0
4.7640004 1.9455702 1.4430802 0
4.7700005 1.9404259 1.4445088 0
4.7750001 1.9348068 1.4456992 0
4.7810001 1.9296209 1.4471278 0
4.7860003 1.9239641 1.4483185 0
4.7920003 1.9187368 1.4497471 0
4.7970004 1.9130422 1.4509376 0
4.8030005 1.9077733 1.4523662 0
4.8080001 1.9020406 1.4535567 0
4.8140001 1.8967302 1.4549853 0
4.8200002 1.8913983 1.4564139 0
4.8250003 1.8856081 1.4576044 0
4.8310003 1.8802346 1.459033 0
4.8360004 1.8744066 1.4602237 0
4.8420005 1.8689914 1.4616523 0
4.8480005 1.8635548 1.4630809 0
4.8530002 1.8576686 1.4642713 0
4.8590002 1.8521906 1.4656999 0
4.8650002 1.8466909 1.4671285 0
4.8710003 1.8411694 1.4685571 0
4.8760004 1.835206 1.4697477 0
4.8820004 1.8296431 1.4711763 0
4.8880005 1.8240587 1.472605 0
4.8940005 1.8184524 1.4740336 0
4.9000001 1.8128242 1.4754621 0
4.9050002 1.8067635 1.4766526 0
4.9110003 1.8010942 1.4780812 0
4.9170003 1.7954032 1.4795098 0
4.9230003 1.7896905 1.4809384 0
4.9290004 1.7839563 1.4823672 0
4.9350004 1.7782003 1.4837958 0
4.9410005 1.7724227 1.4852244 0
4.9470005 1.7666235 1.486653 0
4.9520001 1.7604057 1.4878434 0
4.9580002 1.754565 1.489272 0
4.9640002 1.7487025 1.4907006 0
4.9700003 1.7428186 1.4921293 0
4.9760003 1.7369128 1.4935579 0
4.9820004 1.7309856 1.4949865 0
4.9880004 1.7250367 1.4964151 0
4.9950004 1.7194502 1.4980819 0
5.0010004 1.7134562 1.4995105 0
5.0070004 1.7074406 1.5009391 0
5.0130005 1.7014033 1.5023679 0
5.0190005 1.6953442 1.5037965 0
5.0250001 1.6892635 1.5052249 0
5.0310001 1.6831611 1.5066535 0
5.0370002 1.6770374 1.5080822 0
5.0440001 1.6712614 1.5097488 0
5.0500002 1.6650925 1.5111774 0
5.0560002 1.6589018 1.5126061 0
5.0620003 1.6526896 1.5140347 0
5.0680003 1.6464555 1.5154634 0
5.0750003 1.6405607 1.5171301 0
5.0810003 1.6342816 1.5185587 0
5.0870004 1.6279809 1.5199873 0
5.0940003 1.6220139 1.521654 0
5.1000004 1.6156682 1.5230826 0
5.1060004 1.6093007 1.5245112 0
5.1130004 1.6032616 1.526178 0
5.1190004 1.5968491 1.5276066 0
5.1260004 1.5907612 1.5292734 0
5.1320004 1.5843036 1.530702 0
5.1380005 1.5778244 1.5321306 0
5.1450005 1.5716642 1.5337973 0
4.4310002 2.2734971 1.3565208 0
4.4350004 2.2685206 1.357466 0
4.4400001 2.2641008 1.3586475 0
4.4450002 2.2596636 1.3598289 0
4.4490004 2.2546401 1.3607742 0
4.4540005 2.2501688 1.3619556 0
4.4590001 2.2456789 1.3631371 0
4.4640002 2.2411711 1.3643187 0
4.4680004 2.2360845 1.3652638 0
4.4730005 2.2315426 1.3664454 0
4.4780002 2.2269824 1.3676268 0
4.4830003 2.2224042 1.3688084 0
4.4870005 2.2172544 1.3697536 0
4.4920001 2.212642 1.370935 0
4.4970002 2.2080119 1.3721166 0
4.5020003 2.2033632 1.373298 0
4.5070004 2.1986971 1.3744795 0
4.5120001 2.1940122 1.3756609 0
4.5160003 2.1887667 1.3766062 0
4.5210004 2.1840482 1.3777877 0
4.5260005 2.1793113 1.3789692 0
4.5310001 2.1745563 1.3801507 0
4.5360003 2.1697836 1.3813322 0
4.5410004 2.1649928 1.3825136 0
4.5460005 2.1601837 1.3836952 0
4.5510001 2.1553566 1.3848766 0
4.5560002 2.1505115 1.3860582 0
4.5610003 2.1456487 1.3872396 0
4.5660005 2.1407678 1.3884212 0
4.5710001 2.1358683 1.3896025 0
4.5760002 2.1309512 1.3907841 0
4.5810003 2.1260159 1.3919656 0
4.5860004 2.1210628 1.3931471 0
4.5910001 2.1160913 1.3943286 0
4.5960002 2.1111019 1.3955101 0
4.6010003 2.1060948 1.3966917 0
4.6060004 2.1010695 1.397873 0
4.6110001 2.0960257 1.3990545 0
4.6160002 2.0909643 1.4002361 0
4.6210003 2.0858848 1.4014176 0
4.6260004 2.0807874 1.4025991 0
4.6320004 2.0761733 1.4040169 0
4.6370001 2.0710378 1.4051983 0
4.6420002 2.0658841 1.4063799 0
4.6470003 2.0607128 1.4075614 0
4.6520004 2.0555232 1.4087429 0
