# .PCD v0.7 - Point Cloud Data file format
VERSION 0.7
FIELDS x y z intensity
SIZE 4 4 4 4
TYPE F F F F
COUNT 1 1 1 1
WIDTH 1384
HEIGHT 1
VIEWPOINT 0 0 0 1 0 0 0
POINTS 1384
DATA ascii
3.8840003 -0.73729146 0.74964571 0
3.8900003 -0.74477726 0.75024104 0
3.8960001 -0.75228471 0.75083625 0
3.9030004 -0.76001763 0.75153077 0
3.9100003 -0.76777583 0.75222522 0
3.9160004 -0.77535182 0.75282049 0
3.9230003 -0.78315872 0.75351489 0
3.9290004 -0.79077983 0.75411022 0
3.9360003 -0.79863536 0.75480461 0
3.9430003 -0.80651623 0.75549912 0
3.9490004 -0.81420588 0.75609434 0
3.9560003 -0.82213539 0.75678885 0
3.9630003 -0.83009022 0.7574833 0
3.9690003 -0.83784837 0.75807858 0
3.9760003 -0.84585184 0.75877303 0
3.9830003 -0.85388064 0.75946748 0
3.9900002 -0.8619346 0.760162 0
3.9970002 -0.87001389 0.76085639 0
4.0040002 -0.8781184 0.7615509 0
4.0100002 -0.88601542 0.76214612 0
4.0170002 -0.89416867 0.76284063 0
4.0240002 -0.90234715 0.76353502 0
4.0310001 -0.91055083 0.76422954 0
4.0380001 -0.91877985 0.76492405 0
4.0450001 -0.92703408 0.76561844 0
4.053 -0.93555707 0.76641214 0
4.0599999 -0.94386357 0.76710659 0
4.0640001 -0.475595 0.7608943 0
4.0540004 -0.48101363 0.75992024 0
4.046 -0.48663789 0.75914097 0
4.04 -0.49247861 0.7585566 0
4.0360003 -0.49854663 0.75816691 0
4.0320001 -0.50460023 0.75777733 0
4.0290003 -0.51076746 0.75748509 0
4.027 -0.51705366 0.75729024 0
4.026 -0.52346438 0.75719285 0
4.026 -0.53000504 0.75719285 0
3.9980004 -0.5327577 0.75446558 0
3.9870002 -0.53773975 0.75339407 0
3.9800003 -0.54323775 0.75271225 0
3.9740002 -0.54885119 0.75212777 0
3.9700003 -0.55472803 0.75173819 0
3.9670002 -0.56073475 0.75144595 0
3.9650002 -0.56687671 0.7512511 0
3.9640002 -0.57315934 0.75115371 0
3.9630003 -0.57943839 0.75105631 0
3.9630003 -0.58586538 0.75105631 0
3.9640002 -0.59244567 0.75115371 0
3.9670002 -0.59933984 0.75144595 0
3.9700003 -0.6062448 0.75173819 0
3.9750004 -0.61347812 0.75222522 0
3.9820004 -0.62105048 0.75290704 0
3.9880002 -0.62848574 0.75349146 0
3.9940002 -0.6359427 0.75407588 0
4.0009999 -0.64358717 0.75475776 0
3.8400002 -0.62927943 0.73907542 0
3.8340003 -0.63445634 0.73849106 0
3.8280003 -0.63961166 0.73790658 0
3.8220003 -0.64474529 0.73732209 0
3.8160002 -0.64985728 0.73673773 0
3.8140004 -0.65566194 0.73654294 0
3.8200002 -0.66290241 0.7371273 0
3.8260002 -0.67016453 0.73771179 0
3.8330002 -0.67763233 0.73839355 0
3.8390002 -0.6849395 0.73897803 0
3.8450003 -0.69226843 0.73956251 0
3.8520002 -0.69980836 0.74024427 0
3.8580003 -0.70718235 0.74082875 0
3.8640003 -0.71457791 0.74141318 0
3.8710003 -0.72218996 0.74209499 0
3.8770003 -0.72963071 0.74267948 0
3.8840003 -0.73729146 0.74336129 0
3.8900003 -0.74477726 0.74394572 0
3.8960001 -0.75228471 0.74453008 0
3.9030004 -0.76001763 0.74521196 0
3.9090002 -0.76757014 0.74579644 0
3.9160004 -0.77535182 0.74647826 0
3.9230003 -0.78315872 0.74716008 0
3.9290004 -0.79077983 0.74774456 0
3.9360003 -0.79863536 0.74842638 0
3.9430003 -0.80651623 0.7491082 0
3.9490004 -0.81420588 0.74969268 0
3.9560003 -0.82213539 0.7503745 0
3.9630003 -0.83009022 0.75105631 0
3.9690003 -0.83784837 0.7516408 0
3.9760003 -0.84585184 0.75232255 0
3.9830003 -0.85388064 0.75300443 0
3.9900002 -0.8619346 0.75368631 0
3.9970002 -0.87001389 0.75436813 0
4.0040002 -0.8781184 0.75504994 0
4.0100002 -0.88601542 0.75563437 0
4.0170002 -0.89416867 0.75631618 0
4.0240002 -0.90234715 0.75699806 0
4.0310001 -0.91055083 0.75767994 0
4.0380001 -0.91877985 0.75836176 0
4.0450001 -0.92703408 0.75904357 0
4.053 -0.93555707 0.75982285 0
4.0599999 -0.94386357 0.76050466 0
4.0620003 -0.47536048 0.75409395 0
4.053 -0.48089457 0.75323355 0
4.046 -0.48663789 0.75256431 0
4.0410004 -0.49260128 0.75208628 0
4.0370002 -0.49867108 0.75170386 0
4.0339999 -0.50485271 0.75141704 0
4.0310001 -0.51102358 0.75113028 0
4.0290003 -0.51731348 0.75093907 0
4.0280004 -0.52372777 0.75084352 0
4.0280004 -0.53027201 0.75084352 0
3.9980004 -0.5327577 0.74797547 0
3.9870002 -0.53773975 0.7469238 0
3.9800003 -0.54323775 0.74625456 0
3.9740002 -0.54885119 0.74568099 0
3.9700003 -0.55472803 0.74529856 0
3.9670002 -0.56073475 0.74501181 0
3.9650002 -0.56687671 0.74482059 0
3.9640002 -0.57315934 0.74472499 0
3.9630003 -0.57943839 0.74462938 0
3.9630003 -0.58586538 0.74462938 0
3.9640002 -0.59244567 0.74472499 0
3.9670002 -0.59933984 0.74501181 0
3.9700003 -0.6062448 0.74529856 0
3.9750004 -0.61347812 0.74577659 0
3.9820004 -0.62105048 0.74644578 0
3.9880002 -0.62848574 0.74701941 0
3.9940002 -0.6359427 0.74759305 0
4.0009999 -0.64358717 0.74826217 0
3.8400002 -0.62927943 0.73287034 0
3.8340003 -0.63445634 0.73229671 0
3.8280003 -0.63961166 0.73172307 0
3.8220003 -0.64474529 0.73114949 0
3.8160002 -0.64985728 0.73057592 0
3.8140004 -0.65566194 0.73038471 0
3.8200002 -0.66290241 0.73095828 0
3.8260002 -0.67016453 0.73153186 0
3.8330002 -0.67763233 0.7322011 0
3.8390002 -0.6849395 0.73277473 0
3.8450003 -0.69226843 0.73334837 0
3.8520002 -0.69980836 0.73401755 0
3.8580003 -0.70718235 0.73459119 0
3.8640003 -0.71457791 0.73516476 0
3.8710003 -0.72218996 0.735834 0
3.8770003 -0.72963071 0.73640764 0
3.8840003 -0.73729146 0.73707682 0
3.8900003 -0.74477726 0.73765039 0
3.8960001 -0.75228471 0.73822403 0
3.9030004 -0.76001763 0.73889327 0
3.9090002 -0.76757014 0.73946685 0
3.9160004 -0.77535182 0.74013603 0
3.9230003 -0.78315872 0.74080527 0
3.9290004 -0.79077983 0.7413789 0
3.9360003 -0.79863536 0.74204814 0
3.9430003 -0.80651623 0.74271733 0
3.9490004 -0.81420588 0.7432909 0
3.9560003 -0.82213539 0.74396014 0
3.9630003 -0.83009022 0.74462938 0
3.9690003 -0.83784837 0.74520302 0
3.9760003 -0.84585184 0.7458722 0
3.9830003 -0.85388064 0.74654138 0
3.9900002 -0.8619346 0.74721062 0
3.9970002 -0.87001389 0.7478798 0
4.0040002 -0.8781184 0.74854904 0
4.0100002 -0.88601542 0.74912262 0
4.0170002 -0.89416867 0.74979186 0
4.0240002 -0.90234715 0.7504611 0
4.0310001 -0.91055083 0.75113028 0
4.0380001 -0.91877985 0.75179946 0
4.0450001 -0.92703408 0.75246871 0
4.053 -0.93555707 0.75323355 0
4.0599999 -0.94386357 0.75390273 0
4.072 -0.46990937 0.74842638 0
4.0610003 -0.47524324 0.74739456 0
4.053 -0.48089457 0.7466442 0
4.0469999 -0.48675871 0.74608141 0
4.0420003 -0.49272391 0.74561238 0
4.0380001 -0.49879557 0.74523723 0
4.0350003 -0.50497901 0.7449559 0
4.033 -0.5112797 0.74476826 0
4.0320001 -0.51770306 0.74467444 0
4.0310001 -0.52412283 0.74458063 0
4.0310001 -0.53067249 0.74458063 0
3.9980004 -0.5327577 0.74148536 0
3.9870002 -0.53773975 0.74045354 0
3.9800003 -0.54323775 0.73979694 0
3.9740002 -0.54885119 0.73923415 0
3.9700003 -0.55472803 0.738859 0
3.9670002 -0.56073475 0.7385776 0
3.9650002 -0.56687671 0.73838997 0
3.9640002 -0.57315934 0.73829615 0
3.9630003 -0.57943839 0.73820239 0
3.9630003 -0.58586538 0.73820239 0
3.9640002 -0.59244567 0.73829615 0
3.9670002 -0.59933984 0.7385776 0
3.9700003 -0.6062448 0.738859 0
3.9750004 -0.61347812 0.73932797 0
3.9820004 -0.62105048 0.73998451 0
3.9880002 -0.62848574 0.7405473 0
3.9940002 -0.6359427 0.74111009 0
4.0009999 -0.64358717 0.74176669 0
3.8400002 -0.62927943 0.72666526 0
3.8340003 -0.63445634 0.72610247 0
3.8280003 -0.63961166 0.72553968 0
3.8220003 -0.64474529 0.7249769 0
3.8160002 -0.64985728 0.72441411 0
3.8140004 -0.65566194 0.72422647 0
3.8200002 -0.66290241 0.72478926 0
3.8260002 -0.67016453 0.72535205 0
3.8330002 -0.67763233 0.72600865 0
3.8390002 -0.6849395 0.72657144 0
3.8450003 -0.69226843 0.72713423 0
3.8520002 -0.69980836 0.72779083 0
3.8580003 -0.70718235 0.72835362 0
3.8640003 -0.71457791 0.72891641 0
3.8710003 -0.72218996 0.72957295 0
3.8770003 -0.72963071 0.7301358 0
3.8840003 -0.73729146 0.73079234 0
3.8900003 -0.74477726 0.73135513 0
3.8960001 -0.75228471 0.73191792 0
3.9030004 -0.76001763 0.73257446 0
3.9090002 -0.76757014 0.73313725 0
3.9160004 -0.77535182 0.73379385 0
3.9230003 -0.78315872 0.73445046 0
3.9290004 -0.79077983 0.73501325 0
3.9360003 -0.79863536 0.73566985 0
3.9430003 -0.80651623 0.73632646 0
3.9490004 -0.81420588 0.73688924 0
3.9560003 -0.82213539 0.73754585 0
3.9630003 -0.83009022 0.73820239 0
3.9690003 -0.83784837 0.73876518 0
3.9760003 -0.84585184 0.73942173 0
3.9830003 -0.85388064 0.74007833 0
3.9900002 -0.8619346 0.74073493 0
3.9970002 -0.87001389 0.74139154 0
4.0040002 -0.8781184 0.74204814 0
4.0100002 -0.88601542 0.74261087 0
4.0170002 -0.89416867 0.74326748 0
4.0240002 -0.90234715 0.74392402 0
4.0310001 -0.91055083 0.74458063 0
4.0380001 -0.91877985 0.74523723 0
4.0450001 -0.92703408 0.74589384 0
4.053 -0.93555707 0.7466442 0
4.0599999 -0.94386357 0.7473008 0
4.0700002 -0.46967846 0.74161875 0
4.0599999 -0.47512597 0.74069881 0
4.053 -0.48089457 0.74005491 0
4.0469999 -0.48675871 0.73950291 0
4.0430002 -0.49284661 0.73913491 0
4.04 -0.49904448 0.73885894 0
4.0370002 -0.5052315 0.73858297 0
4.0350003 -0.51153588 0.73839903 0
4.0339999 -0.51796281 0.738307 0
4.0339999 -0.52451783 0.738307 0
4.0339999 -0.53107291 0.738307 0
3.9980004 -0.5327577 0.73499525 0
3.9870002 -0.53773975 0.73398328 0
3.9800003 -0.54323775 0.73333931 0
3.9740002 -0.54885119 0.73278737 0
3.9700003 -0.55472803 0.73241937 0
3.9670002 -0.56073475 0.7321434 0
3.9650002 -0.56687671 0.7319594 0
3.9640002 -0.57315934 0.73186743 0
3.9630003 -0.57943839 0.7317754 0
3.9630003 -0.58586538 0.7317754 0
3.9640002 -0.59244567 0.73186743 0
3.9670002 -0.59933984 0.7321434 0
3.9700003 -0.6062448 0.73241937 0
3.9750004 -0.61347812 0.7328794 0
3.9820004 -0.62105048 0.73352331 0
3.9880002 -0.62848574 0.73407531 0
3.9940002 -0.6359427 0.73462725 0
4.0009999 -0.64358717 0.73527122 0
3.8400002 -0.62927943 0.72046012 0
3.8340003 -0.63445634 0.71990818 0
3.8280003 -0.63961166 0.71935618 0
3.8220003 -0.64474529 0.71880424 0
3.8160002 -0.64985728 0.7182523 0
3.8140004 -0.65566194 0.7180683 0
3.8200002 -0.66290241 0.71862024 0
3.8260002 -0.67016453 0.71917224 0
3.8330002 -0.67763233 0.71981621 0
3.8390002 -0.6849395 0.72036815 0
3.8450003 -0.69226843 0.72092009 0
3.8520002 -0.69980836 0.72156405 0
3.8580003 -0.70718235 0.72211599 0
3.8640003 -0.71457791 0.72266799 0
3.8710003 -0.72218996 0.72331196 0
3.8770003 -0.72963071 0.72386396 0
3.8840003 -0.73729146 0.72450787 0
3.8900003 -0.74477726 0.72505987 0
3.8960001 -0.75228471 0.72561181 0
3.9030004 -0.76001763 0.72625577 0
3.9090002 -0.76757014 0.72680771 0
3.9160004 -0.77535182 0.72745168 0
3.9230003 -0.78315872 0.72809565 0
3.9290004 -0.79077983 0.72864765 0
3.9360003 -0.79863536 0.72929156 0
3.9430003 -0.80651623 0.72993553 0
3.9490004 -0.81420588 0.73048747 0
3.9560003 -0.82213539 0.73113143 0
3.9630003 -0.83009022 0.7317754 0
3.9690003 -0.83784837 0.7323274 0
3.9760003 -0.84585184 0.73297131 0
3.9830003 -0.85388064 0.73361528 0
3.9900002 -0.8619346 0.73425925 0
3.9970002 -0.87001389 0.73490322 0
4.0040002 -0.8781184 0.73554718 0
4.0100002 -0.88601542 0.73609912 0
4.0170002 -0.89416867 0.73674309 0
4.0240002 -0.90234715 0.73738706 0
4.0310001 -0.91055083 0.73803103 0
4.0380001 -0.91877985 0.738675 0
4.0450001 -0.92703408 0.73931897 0
4.053 -0.93555707 0.74005491 0
4.0599999 -0.94386357 0.74069881 0
4.0680003 -0.46944761 0.73481846 0
4.0599999 -0.47512597 0.73409688 0
4.053 -0.48089457 0.73346555 0
4.0480003 -0.48687962 0.73301464 0
4.0440001 -0.49296927 0.73265386 0
4.0410004 -0.49916896 0.73238331 0
4.039 -0.50548404 0.73220289 0
4.0370002 -0.511792 0.73202252 0
4.0370002 -0.51835245 0.73202252 0
4.0370002 -0.52491289 0.73202252 0
4.0380001 -0.53160679 0.73211277 0
3.9980004 -0.5327577 0.72850513 0
3.9870002 -0.53773975 0.72751302 0
3.9800003 -0.54323775 0.72688174 0
3.9740002 -0.54885119 0.72634053 0
3.9700003 -0.55472803 0.7259798 0
3.9670002 -0.56073475 0.7257092 0
3.9650002 -0.56687671 0.72552884 0
3.9640002 -0.57315934 0.72543865 0
3.9630003 -0.57943839 0.72534847 0
3.9630003 -0.58586538 0.72534847 0
3.9640002 -0.59244567 0.72543865 0
3.9670002 -0.59933984 0.7257092 0
3.9700003 -0.6062448 0.7259798 0
3.9750004 -0.61347812 0.72643077 0
3.9820004 -0.62105048 0.72706211 0
3.9880002 -0.62848574 0.7276032 0
3.9940002 -0.6359427 0.72814435 0
4.0009999 -0.64358717 0.72877568 0
3.8400002 -0.62927943 0.71425498 0
3.8340003 -0.63445634 0.71371388 0
3.8280003 -0.63961166 0.71317273 0
3.8220003 -0.64474529 0.71263158 0
3.8160002 -0.64985728 0.71209049 0
3.8140004 -0.65566194 0.71191013 0
3.8200002 -0.66290241 0.71245122 0
3.8260002 -0.67016453 0.71299231 0
3.8330002 -0.67763233 0.7136237 0
3.8390002 -0.6849395 0.71416485 0
3.8450003 -0.69226843 0.714706 0
3.8520002 -0.69980836 0.71533728 0
3.8580003 -0.70718235 0.71587849 0
3.8640003 -0.71457791 0.71641958 0
3.8710003 -0.72218996 0.71705091 0
3.8770003 -0.72963071 0.71759206 0
3.8840003 -0.73729146 0.71822345 0
3.8900003 -0.74477726 0.71876454 0
3.8960001 -0.75228471 0.71930569 0
3.9030004 -0.76001763 0.71993703 0
3.9090002 -0.76757014 0.72047818 0
3.9160004 -0.77535182 0.72110951 0
3.9230003 -0.78315872 0.72174084 0
3.9290004 -0.79077983 0.72228199 0
3.9360003 -0.79863536 0.72291332 0
3.9430003 -0.80651623 0.72354466 0
3.9490004 -0.81420588 0.72408581 0
3.9560003 -0.82213539 0.72471714 0
3.9630003 -0.83009022 0.72534847 0
3.9690003 -0.83784837 0.72588956 0
3.9760003 -0.84585184 0.72652096 0
3.9830003 -0.85388064 0.72715223 0
3.9900002 -0.8619346 0.72778356 0
3.9970002 -0.87001389 0.72841489 0
4.0040002 -0.8781184 0.72904623 0
4.0100002 -0.88601542 0.72958738 0
4.0170002 -0.89416867 0.73021877 0
4.0240002 -0.90234715 0.73085004 0
4.0310001 -0.91055083 0.73148143 0
4.0380001 -0.91877985 0.73211277 0
4.0450001 -0.92703408 0.7327441 0
4.053 -0.93555707 0.73346555 0
4.0599999 -0.94386357 0.73409688 0
4.0780001 -0.46396765 0.72908592 0
4.0669999 -0.46933213 0.72811365 0
4.0599999 -0.47512597 0.72749496 0
4.0540004 -0.48101363 0.72696471 0
4.0490003 -0.48700047 0.72652274 0
4.046 -0.49321458 0.72625756 0
4.0430002 -0.49941784 0.72599244 0
4.0410004 -0.50573659 0.72581565 0
4.04 -0.51217616 0.7257272 0
4.039 -0.51861221 0.72563887 0
4.04 -0.52530789 0.7257272 0
4.0410004 -0.53200728 0.72581565 0
3.9980004 -0.5327577 0.72201502 0
3.9870002 -0.53773975 0.72104275 0
3.9800003 -0.54323775 0.72042406 0
3.9740002 -0.54885119 0.71989369 0
3.9700003 -0.55472803 0.71954018 0
3.9670002 -0.56073475 0.719275 0
3.9650002 -0.56687671 0.71909821 0
3.9640002 -0.57315934 0.71900988 0
3.9630003 -0.57943839 0.71892148 0
3.9630003 -0.58586538 0.71892148 0
3.9640002 -0.59244567 0.71900988 0
3.9670002 -0.59933984 0.719275 0
3.9700003 -0.6062448 0.71954018 0
3.9750004 -0.61347812 0.71998215 0
3.9820004 -0.62105048 0.72060084 0
3.9880002 -0.62848574 0.72113109 0
3.9940002 -0.6359427 0.72166145 0
4.0009999 -0.64358717 0.72228014 0
3.8400002 -0.62927943 0.70804989 0
3.8340003 -0.63445634 0.70751965 0
3.8280003 -0.63961166 0.70698929 0
3.8220003 -0.64474529 0.70645899 0
3.8160002 -0.64985728 0.70592868 0
3.8140004 -0.65566194 0.7057519 0
3.8200002 -0.66290241 0.7062822 0
3.8260002 -0.67016453 0.7068125 0
3.8330002 -0.67763233 0.7074312 0
3.8390002 -0.6849395 0.70796156 0
3.8450003 -0.69226843 0.70849186 0
3.8520002 -0.69980836 0.70911062 0
3.8580003 -0.70718235 0.70964086 0
3.8640003 -0.71457791 0.71017122 0
3.8710003 -0.72218996 0.71078992 0
3.8770003 -0.72963071 0.71132028 0
3.8840003 -0.73729146 0.71193892 0
3.8900003 -0.74477726 0.71246922 0
3.8960001 -0.75228471 0.71299958 0
3.9030004 -0.76001763 0.71361828 0
3.9090002 -0.76757014 0.71414864 0
3.9160004 -0.77535182 0.71476734 0
3.9230003 -0.78315872 0.71538603 0
3.9290004 -0.79077983 0.7159164 0
3.9360003 -0.79863536 0.71653503 0
3.9430003 -0.80651623 0.71715379 0
3.9490004 -0.81420588 0.71768409 0
3.9560003 -0.82213539 0.71830279 0
3.9630003 -0.83009022 0.71892148 0
3.9690003 -0.83784837 0.71945179 0
3.9760003 -0.84585184 0.72007048 0
3.9830003 -0.85388064 0.72068924 0
3.9900002 -0.8619346 0.72130787 0
3.9970002 -0.87001389 0.72192663 0
4.0040002 -0.8781184 0.72254533 0
4.0100002 -0.88601542 0.72307563 0
4.0170002 -0.89416867 0.72369432 0
4.0240002 -0.90234715 0.72431302 0
4.0310001 -0.91055083 0.72493178 0
4.0380001 -0.91877985 0.72555047 0
4.0450001 -0.92703408 0.72616923 0
4.053 -0.93555707 0.72687626 0
4.0599999 -0.94386357 0.72749496 0
4.0760002 -0.46374035 0.72227836 0
4.0669999 -0.46933213 0.72149909 0
4.0599999 -0.47512597 0.72089303 0
4.0550003 -0.48113266 0.72046012 0
4.0500002 -0.48712128 0.72002721 0
4.0469999 -0.49333721 0.71976745 0
4.0450001 -0.49966681 0.7195943 0
4.0430002 -0.50598913 0.71942115 0
4.0420003 -0.51243234 0.71933454 0
4.0420003 -0.51900178 0.71933454 0
4.0430002 -0.52570289 0.71942115 0
4.0450001 -0.53254116 0.7195943 0
3.9980004 -0.5327577 0.71552491 0
3.9870002 -0.53773975 0.71457249 0
3.9800003 -0.54323775 0.71396643 0
3.9740002 -0.54885119 0.71344692 0
3.9700003 -0.55472803 0.71310061 0
3.9670002 -0.56073475 0.7128408 0
3.9650002 -0.56687671 0.71266764 0
3.9640002 -0.57315934 0.7125811 0
3.9630003 -0.57943839 0.71249449 0
3.9630003 -0.58586538 0.71249449 0
3.9640002 -0.59244567 0.7125811 0
3.9670002 -0.59933984 0.7128408 0
3.9700003 -0.6062448 0.71310061 0
3.9750004 -0.61347812 0.71353352 0
3.9820004 -0.62105048 0.71413958 0
3.9880002 -0.62848574 0.71465909 0
3.9940002 -0.6359427 0.71517861 0
4.0009999 -0.64358717 0.71578467 0
3.8400002 -0.62927943 0.70184481 0
3.8340003 -0.63445634 0.70132536 0
3.8280003 -0.63961166 0.70080584 0
3.8220003 -0.64474529 0.70028639 0
3.8160002 -0.64985728 0.69976687 0
3.8140004 -0.65566194 0.69959366 0
3.8200002 -0.66290241 0.70011318 0
3.8260002 -0.67016453 0.70063269 0
3.8330002 -0.67763233 0.70123875 0
3.8390002 -0.6849395 0.70175827 0
3.8450003 -0.69226843 0.70227778 0
3.8520002 -0.69980836 0.70288384 0
3.8580003 -0.70718235 0.70340335 0
3.8640003 -0.71457791 0.70392281 0
3.8710003 -0.72218996 0.70452893 0
3.8770003 -0.72963071 0.70504844 0
3.8840003 -0.73729146 0.7056545 0
3.8900003 -0.74477726 0.70617402 0
3.8960001 -0.75228471 0.70669341 0
3.9030004 -0.76001763 0.70729959 0
3.9090002 -0.76757014 0.70781904 0
3.9160004 -0.77535182 0.7084251 0
3.9230003 -0.78315872 0.70903122 0
3.9290004 -0.79077983 0.70955074 0
3.9360003 -0.79863536 0.7101568 0
3.9430003 -0.80651623 0.71076286 0
3.9490004 -0.81420588 0.71128237 0
3.9560003 -0.82213539 0.71188843 0
3.9630003 -0.83009022 0.71249449 0
3.9690003 -0.83784837 0.71301401 0
3.9760003 -0.84585184 0.71362007 0
3.9830003 -0.85388064 0.71422613 0
3.9900002 -0.8619346 0.71483225 0
3.9970002 -0.87001389 0.71543837 0
4.0040002 -0.8781184 0.71604443 0
4.0100002 -0.88601542 0.71656388 0
4.0170002 -0.89416867 0.71717 0
4.0240002 -0.90234715 0.71777606 0
4.0310001 -0.91055083 0.71838212 0
4.0380001 -0.91877985 0.71898818 0
4.0450001 -0.92703408 0.7195943 0
4.053 -0.93555707 0.72028697 0
4.0599999 -0.94386357 0.72089303 0
4.086 -0.4582279 0.71649539 0
4.0740004 -0.46351308 0.715478 0
4.066 -0.4692167 0.71479976 0
4.0599999 -0.47512597 0.7142911 0
4.0560002 -0.48125172 0.71395195 0
4.052 -0.48736301 0.71361291 0
4.0490003 -0.49358255 0.71335852 0
4.0469999 -0.49991572 0.71318895 0
4.0450001 -0.50624168 0.71301943 0
4.0450001 -0.51281655 0.71301943 0
4.0450001 -0.51939142 0.71301943 0
4.046 -0.52609801 0.71310419 0
4.0490003 -0.53307509 0.71335852 0
3.9980004 -0.5327577 0.7090348 0
3.9870002 -0.53773975 0.70810223 0
3.9800003 -0.54323775 0.7075088 0
3.9740002 -0.54885119 0.70700014 0
3.9700003 -0.55472803 0.70666099 0
3.9670002 -0.56073475 0.70640665 0
3.9650002 -0.56687671 0.70623708 0
3.9640002 -0.57315934 0.70615232 0
3.9630003 -0.57943839 0.70606756 0
3.9630003 -0.58586538 0.70606756 0
3.9640002 -0.59244567 0.70615232 0
3.9670002 -0.59933984 0.70640665 0
3.9700003 -0.6062448 0.70666099 0
3.9750004 -0.61347812 0.70708489 0
3.9820004 -0.62105048 0.70767838 0
3.9880002 -0.62848574 0.70818698 0
3.9940002 -0.6359427 0.70869565 0
4.0009999 -0.64358717 0.70928913 0
3.8400002 -0.62927943 0.69563973 0
3.8340003 -0.63445634 0.69513106 0
3.8280003 -0.63961166 0.6946224 0
3.8220003 -0.64474529 0.69411373 0
3.8160002 -0.64985728 0.69360507 0
3.8140004 -0.65566194 0.69343549 0
3.8200002 -0.66290241 0.69394416 0
3.8260002 -0.67016453 0.69445282 0
3.8330002 -0.67763233 0.69504625 0
3.8390002 -0.6849395 0.69555497 0
3.8450003 -0.69226843 0.69606364 0
3.8520002 -0.69980836 0.69665706 0
3.8580003 -0.70718235 0.69716573 0
3.8640003 -0.71457791 0.69767439 0
3.8710003 -0.72218996 0.69826788 0
3.8770003 -0.72963071 0.69877654 0
3.8840003 -0.73729146 0.69937003 0
3.8900003 -0.74477726 0.69987869 0
3.8960001 -0.75228471 0.70038736 0
3.9030004 -0.76001763 0.70098078 0
3.9090002 -0.76757014 0.70148945 0
3.9160004 -0.77535182 0.70208293 0
3.9230003 -0.78315872 0.70267642 0
3.9290004 -0.79077983 0.70318508 0
3.9360003 -0.79863536 0.70377851 0
3.9430003 -0.80651623 0.70437193 0
3.9490004 -0.81420588 0.70488065 0
3.9560003 -0.82213539 0.70547408 0
3.9630003 -0.83009022 0.70606756 0
3.9690003 -0.83784837 0.70657623 0
3.9760003 -0.84585184 0.70716965 0
3.9830003 -0.85388064 0.70776308 0
3.9900002 -0.8619346 0.70835662 0
3.9970002 -0.87001389 0.70895004 0
4.0040002 -0.8781184 0.70954347 0
4.0100002 -0.88601542 0.71005213 0
4.0170002 -0.89416867 0.71064562 0
4.0240002 -0.90234715 0.71123904 0
4.0310001 -0.91055083 0.71183252 0
4.0380001 -0.91877985 0.71242595 0
4.0450001 -0.92703408 0.71301943 0
4.053 -0.93555707 0.71369767 0
4.0599999 -0.94386357 0.7142911 0
4.0830002 -0.45789239 0.70959759 0
4.0740004 -0.46351308 0.70885086 0
4.0669999 -0.46933213 0.70826995 0
4.0610003 -0.47524324 0.70777214 0
4.0570002 -0.48137075 0.70744026 0
4.053 -0.48748386 0.70710838 0
4.0510001 -0.49382788 0.70694244 0
4.0490003 -0.50016463 0.70677644 0
4.0480003 -0.50662047 0.70669347 0
4.0480003 -0.51320076 0.70669347 0
4.0480003 -0.51978105 0.70669347 0
4.0500002 -0.52662468 0.70685941 0
4.052 -0.53347558 0.70702535 0
3.9980004 -0.5327577 0.70254469 0
3.9870002 -0.53773975 0.70163196 0
3.9800003 -0.54323775 0.70105112 0
3.9740002 -0.54885119 0.7005533 0
3.9700003 -0.55472803 0.70022142 0
3.9670002 -0.56073475 0.69997245 0
3.9650002 -0.56687671 0.69980651 0
3.9640002 -0.57315934 0.69972354 0
3.9630003 -0.57943839 0.69964057 0
3.9630003 -0.58586538 0.69964057 0
3.9640002 -0.59244567 0.69972354 0
3.9670002 -0.59933984 0.69997245 0
3.9700003 -0.6062448 0.70022142 0
3.9750004 -0.61347812 0.70063627 0
3.9820004 -0.62105048 0.70121711 0
3.9880002 -0.62848574 0.70171499 0
3.9940002 -0.6359427 0.70221281 0
4.0009999 -0.64358717 0.7027936 0
3.8400002 -0.62927943 0.68943465 0
3.8340003 -0.63445634 0.68893677 0
3.8280003 -0.63961166 0.68843889 0
3.8220003 -0.64474529 0.68794107 0
3.8160002 -0.64985728 0.68744326 0
3.8140004 -0.65566194 0.68727726 0
3.8200002 -0.66290241 0.68777514 0
3.8260002 -0.67016453 0.68827295 0
3.8330002 -0.67763233 0.6888538 0
3.8390002 -0.6849395 0.68935168 0
3.8450003 -0.69226843 0.6898495 0
3.8520002 -0.69980836 0.69043034 0
3.8580003 -0.70718235 0.69092822 0
3.8640003 -0.71457791 0.69142604 0
3.8710003 -0.72218996 0.69200689 0
3.8770003 -0.72963071 0.69250476 0
3.8840003 -0.73729146 0.69308555 0
3.8900003 -0.74477726 0.69358337 0
3.8960001 -0.75228471 0.69408125 0
3.9030004 -0.76001763 0.69466209 0
3.9090002 -0.76757014 0.69515991 0
3.9160004 -0.77535182 0.6957407 0
3.9230003 -0.78315872 0.69632161 0
3.9290004 -0.79077983 0.69681942 0
3.9360003 -0.79863536 0.69740021 0
3.9430003 -0.80651623 0.69798112 0
3.9490004 -0.81420588 0.69847894 0
3.9560003 -0.82213539 0.69905972 0
3.9630003 -0.83009022 0.69964057 0
3.9690003 -0.83784837 0.70013845 0
3.9760003 -0.84585184 0.70071924 0
3.9830003 -0.85388064 0.70130008 0
3.9900002 -0.8619346 0.70188093 0
3.9970002 -0.87001389 0.70246172 0
4.0040002 -0.8781184 0.70304251 0
4.0100002 -0.88601542 0.70354044 0
4.0170002 -0.89416867 0.70412123 0
4.0240002 -0.90234715 0.70470208 0
4.0310001 -0.91055083 0.70528293 0
4.0380001 -0.91877985 0.70586371 0
4.0450001 -0.92703408 0.70644456 0
4.053 -0.93555707 0.70710838 0
4.0599999 -0.94386357 0.70768917 0
4.0940003 -0.45245934 0.70384705 0
4.0820003 -0.45778057 0.70287299 0
4.073 -0.46339941 0.70214248 0
4.0669999 -0.46933213 0.70165539 0
4.0620003 -0.47536048 0.7012496 0
4.0580001 -0.48148981 0.70092487 0
4.0550003 -0.48772559 0.70068133 0
4.053 -0.49407318 0.70051903 0
4.0510001 -0.5004136 0.70035672 0
4.0510001 -0.50699925 0.70035672 0
4.0510001 -0.51358497 0.70035672 0
4.052 -0.52030051 0.7004379 0
4.0540004 -0.52715147 0.70060021 0
4.0570002 -0.53414297 0.70084369 0
3.9980004 -0.5327577 0.69605464 0
3.9870002 -0.53773975 0.6951617 0
3.9800003 -0.54323775 0.69459355 0
3.9740002 -0.54885119 0.69410646 0
3.9700003 -0.55472803 0.69378185 0
3.9670002 -0.56073475 0.69353831 0
3.9650002 -0.56687671 0.69337595 0
3.9640002 -0.57315934 0.69329476 0
3.9630003 -0.57943839 0.69321358 0
3.9630003 -0.58586538 0.69321358 0
3.9640002 -0.59244567 0.69329476 0
3.9670002 -0.59933984 0.69353831 0
3.9700003 -0.6062448 0.69378185 0
3.9750004 -0.61347812 0.69418764 0
3.9820004 -0.62105048 0.69475591 0
3.9880002 -0.62848574 0.69524288 0
3.9940002 -0.6359427 0.69572991 0
4.0009999 -0.64358717 0.69629812 0
3.8400002 -0.62927943 0.68322951 0
3.8340003 -0.63445634 0.68274248 0
3.8280003 -0.63961166 0.68225551 0
3.8220003 -0.64474529 0.68176842 0
3.8160002 -0.64985728 0.68128145 0
3.8140004 -0.65566194 0.68111908 0
3.8200002 -0.66290241 0.68160611 0
3.8260002 -0.67016453 0.68209314 0
3.8330002 -0.67763233 0.68266129 0
3.8390002 -0.6849395 0.68314838 0
3.8450003 -0.69226843 0.68363535 0
3.8520002 -0.69980836 0.68420362 0
3.8580003 -0.70718235 0.68469059 0
3.8640003 -0.71457791 0.68517762 0
3.8710003 -0.72218996 0.68574584 0
3.8770003 -0.72963071 0.68623286 0
3.8840003 -0.73729146 0.68680108 0
3.8900003 -0.74477726 0.68728811 0
3.8960001 -0.75228471 0.68777514 0
3.9030004 -0.76001763 0.68834329 0
3.9090002 -0.76757014 0.68883038 0
3.9160004 -0.77535182 0.68939853 0
3.9230003 -0.78315872 0.68996674 0
3.9290004 -0.79077983 0.69045377 0
3.9360003 -0.79863536 0.69102198 0
3.9430003 -0.80651623 0.69159019 0
3.9490004 -0.81420588 0.69207722 0
3.9560003 -0.82213539 0.69264543 0
3.9630003 -0.83009022 0.69321358 0
3.9690003 -0.83784837 0.69370067 0
3.9760003 -0.84585184 0.69426882 0
3.9830003 -0.85388064 0.69483709 0
3.9900002 -0.8619346 0.69540524 0
3.9970002 -0.87001389 0.6959734 0
4.0040002 -0.8781184 0.69654167 0
4.0100002 -0.88601542 0.69702864 0
4.0170002 -0.89416867 0.69759685 0
4.0240002 -0.90234715 0.69816506 0
4.0310001 -0.91055083 0.69873327 0
4.0380001 -0.91877985 0.69930148 0
4.0450001 -0.92703408 0.69986963 0
4.053 -0.93555707 0.70051903 0
4.0599999 -0.94386357 0.70108724 0
4.0910001 -0.45212924 0.69694567 0
4.0810003 -0.45766872 0.69615197 0
4.073 -0.46339941 0.69551706 0
4.0669999 -0.46933213 0.69504082 0
4.0630002 -0.4754777 0.69472337 0
4.059 -0.48160887 0.69440591 0
4.0570002 -0.48796725 0.69424719 0
4.0550003 -0.49431849 0.69408846 0
4.0540004 -0.50078696 0.69400907 0
4.053 -0.5072518 0.69392973 0
4.0540004 -0.51396918 0.69400907 0
4.0550003 -0.52069014 0.69408846 0
4.0580001 -0.52767813 0.69432652 0
4.0620003 -0.53481036 0.69464403 0
3.9980004 -0.5327577 0.68956447 0
3.9870002 -0.53773975 0.68869144 0
3.9800003 -0.54323775 0.68813586 0
3.9740002 -0.54885119 0.68765968 0
3.9700003 -0.55472803 0.68734217 0
3.9670002 -0.56073475 0.68710411 0
3.9650002 -0.56687671 0.68694532 0
3.9640002 -0.57315934 0.68686604 0
3.9630003 -0.57943839 0.68678665 0
3.9630003 -0.58586538 0.68678665 0
3.9640002 -0.59244567 0.68686604 0
3.9670002 -0.59933984 0.68710411 0
3.9700003 -0.6062448 0.68734217 0
3.9750004 -0.61347812 0.68773907 0
3.9820004 -0.62105048 0.68829465 0
3.9880002 -0.62848574 0.68877083 0
3.9940002 -0.6359427 0.68924701 0
4.0009999 -0.64358717 0.68980259 0
3.8400002 -0.62927943 0.67702442 0
3.8340003 -0.63445634 0.67654824 0
3.8280003 -0.63961166 0.676072 0
3.8220003 -0.64474529 0.67559582 0
3.8160002 -0.64985728 0.67511964 0
3.8140004 -0.65566194 0.67496085 0
3.8200002 -0.66290241 0.67543709 0
3.8260002 -0.67016453 0.67591327 0
3.8330002 -0.67763233 0.67646885 0
3.8390002 -0.6849395 0.67694509 0
3.8450003 -0.69226843 0.67742121 0
3.8520002 -0.69980836 0.67797685 0
3.8580003 -0.70718235 0.67845309 0
3.8640003 -0.71457791 0.67892927 0
3.8710003 -0.72218996 0.67948484 0
3.8770003 -0.72963071 0.67996103 0
3.8840003 -0.73729146 0.6805166 0
3.8900003 -0.74477726 0.68099284 0
3.8960001 -0.75228471 0.68146896 0
3.9030004 -0.76001763 0.6820246 0
3.9090002 -0.76757014 0.68250078 0
3.9160004 -0.77535182 0.68305635 0
3.9230003 -0.78315872 0.68361193 0
3.9290004 -0.79077983 0.68408817 0
3.9360003 -0.79863536 0.68464375 0
3.9430003 -0.80651623 0.68519926 0
3.9490004 -0.81420588 0.6856755 0
3.9560003 -0.82213539 0.68623102 0
3.9630003 -0.83009022 0.68678665 0
3.9690003 -0.83784837 0.68726289 0
3.9760003 -0.84585184 0.68781841 0
3.9830003 -0.85388064 0.68837398 0
3.9900002 -0.8619346 0.68892956 0
3.9970002 -0.87001389 0.68948513 0
4.0040002 -0.8781184 0.69004071 0
4.0100002 -0.88601542 0.69051695 0
4.0170002 -0.89416867 0.69107246 0
4.0240002 -0.90234715 0.6916281 0
4.0310001 -0.91055083 0.69218361 0
4.0380001 -0.91877985 0.69273919 0
4.0450001 -0.92703408 0.69329476 0
4.053 -0.93555707 0.69392973 0
4.0599999 -0.94386357 0.69448531 0
4.1170001 -0.43487582 0.69230449 0
4.105 -0.44030347 0.69137371 0
4.1110001 -0.44763595 0.6918391 0
4.0900002 -0.45201918 0.69021022 0
4.0799999 -0.45755687 0.68943465 0
4.073 -0.46339941 0.68889165 0
4.0680003 -0.46944761 0.68850386 0
4.0640001 -0.475595 0.68819362 0
4.0610003 -0.48184699 0.68796092 0
4.059 -0.48820901 0.68780577 0
4.0570002 -0.49456382 0.68765068 0
4.0560002 -0.50103587 0.68757308 0
4.0560002 -0.50763059 0.68757308 0
4.0570002 -0.51435339 0.68765068 0
4.059 -0.52120966 0.68780577 0
4.0620003 -0.52820486 0.68803847 0
4.0669999 -0.53547776 0.68842626 0
3.9980004 -0.5327577 0.68307441 0
3.9870002 -0.53773975 0.68222117 0
3.9800003 -0.54323775 0.68167824 0
3.9740002 -0.54885119 0.6812129 0
3.9700003 -0.55472803 0.6809026 0
3.9670002 -0.56073475 0.6806699 0
3.9650002 -0.56687671 0.68051481 0
3.9640002 -0.57315934 0.68043721 0
3.9630003 -0.57943839 0.68035972 0
3.9630003 -0.58586538 0.68035972 0
3.9640002 -0.59244567 0.68043721 0
3.9670002 -0.59933984 0.6806699 0
3.9700003 -0.6062448 0.6809026 0
3.9750004 -0.61347812 0.68129039 0
3.9820004 -0.62105048 0.68183339 0
3.9880002 -0.62848574 0.68229878 0
3.9940002 -0.6359427 0.68276417 0
4.0009999 -0.64358717 0.68330705 0
3.8400002 -0.62927943 0.67081928 0
3.8340003 -0.63445634 0.67035401 0
3.8280003 -0.63961166 0.66988856 0
3.8220003 -0.64474529 0.66942322 0
3.8160002 -0.64985728 0.66895783 0
3.8140004 -0.65566194 0.66880268 0
3.8200002 -0.66290241 0.66926801 0
3.8260002 -0.67016453 0.66973341 0
3.8330002 -0.67763233 0.6702764 0
3.8390002 -0.6849395 0.67074174 0
3.8450003 -0.69226843 0.67120719 0
3.8520002 -0.69980836 0.67175007 0
3.8580003 -0.70718235 0.67221546 0
3.8640003 -0.71457791 0.67268085 0
3.8710003 -0.72218996 0.67322379 0
3.8770003 -0.72963071 0.67368925 0
3.8840003 -0.73729146 0.67423213 0
3.8900003 -0.74477726 0.67469752 0
3.8960001 -0.75228471 0.67516291 0
3.9030004 -0.76001763 0.67570585 0
3.9090002 -0.76757014 0.67617124 0
3.9160004 -0.77535182 0.67671418 0
3.9230003 -0.78315872 0.67725712 0
3.9290004 -0.79077983 0.67772251 0
3.9360003 -0.79863536 0.67826545 0
3.9430003 -0.80651623 0.67880845 0
3.9490004 -0.81420588 0.67927378 0
3.9560003 -0.82213539 0.67981672 0
3.9630003 -0.83009022 0.68035972 0
3.9690003 -0.83784837 0.68082505 0
3.9760003 -0.84585184 0.68136799 0
3.9830003 -0.85388064 0.68191093 0
3.9900002 -0.8619346 0.68245387 0
3.9970002 -0.87001389 0.68299687 0
4.0040002 -0.8781184 0.68353975 0
4.0100002 -0.88601542 0.68400514 0
4.0170002 -0.89416867 0.68454814 0
4.0240002 -0.90234715 0.68509102 0
4.0310001 -0.91055083 0.68563402 0
4.0380001 -0.91877985 0.68617696 0
4.0450001 -0.92703408 0.68671989 0
4.053 -0.93555707 0.68734038 0
4.0599999 -0.94386357 0.68788338 0
4.1230001 -0.42878795 0.68605429 0
4.112 -0.4343527 0.68522096 0
4.1020002 -0.4399842 0.68446332 0
4.105 -0.44698656 0.68469059 0
4.0900002 -0.45201918 0.68355417 0
4.0810003 -0.45766872 0.68287241 0
4.0740004 -0.46351308 0.68234205 0
4.0690002 -0.46956304 0.68196326 0
4.066 -0.47582945 0.68173599 0
4.0630002 -0.48208508 0.68150866 0
4.0610003 -0.48845074 0.68135715 0
4.059 -0.49480915 0.68120563 0
4.059 -0.50140923 0.68120563 0
4.059 -0.50800937 0.68120563 0
4.0599999 -0.51473761 0.68128145 0
4.0630002 -0.52172917 0.68150866 0
4.0669999 -0.52886319 0.68181175 0
3.9980004 -0.5327577 0.6765843 0
3.9870002 -0.53773975 0.67575097 0
3.9800003 -0.54323775 0.67522061 0
3.9740002 -0.54885119 0.67476606 0
3.9700003 -0.55472803 0.67446303 0
3.9670002 -0.56073475 0.67423576 0
3.9650002 -0.56687671 0.67408419 0
3.9640002 -0.57315934 0.67400849 0
3.9630003 -0.57943839 0.67393267 0
3.9630003 -0.58586538 0.67393267 0
3.9640002 -0.59244567 0.67400849 0
3.9670002 -0.59933984 0.67423576 0
3.9700003 -0.6062448 0.67446303 0
3.9750004 -0.61347812 0.67484182 0
3.9820004 -0.62105048 0.67537212 0
3.9880002 -0.62848574 0.67582667 0
3.9940002 -0.6359427 0.67628121 0
4.0009999 -0.64358717 0.67681158 0
3.8400002 -0.62927943 0.6646142 0
3.8340003 -0.63445634 0.66415966 0
3.8280003 -0.63961166 0.66370511 0
3.8220003 -0.64474529 0.66325057 0
3.8160002 -0.64985728 0.66279602 0
3.8140004 -0.65566194 0.66264451 0
3.8200002 -0.66290241 0.66309905 0
3.8260002 -0.67016453 0.6635536 0
3.8330002 -0.67763233 0.6640839 0
3.8390002 -0.6849395 0.6645385 0
3.8450003 -0.69226843 0.66499305 0
3.8520002 -0.69980836 0.66552335 0
3.8580003 -0.70718235 0.6659779 0
3.8640003 -0.71457791 0.6664325 0
3.8710003 -0.72218996 0.6669628 0
3.8770003 -0.72963071 0.66741735 0
3.8840003 -0.73729146 0.66794765 0
3.8900003 -0.74477726 0.66840225 0
3.8960001 -0.75228471 0.66885674 0
3.9030004 -0.76001763 0.6693871 0
3.9090002 -0.76757014 0.66984165 0
3.9160004 -0.77535182 0.67037201 0
3.9230003 -0.78315872 0.67090225 0
3.9290004 -0.79077983 0.67135692 0
3.9360003 -0.79863536 0.67188716 0
3.9430003 -0.80651623 0.67241752 0
3.9490004 -0.81420588 0.67287207 0
3.9560003 -0.82213539 0.67340237 0
3.9630003 -0.83009022 0.67393267 0
3.9690003 -0.83784837 0.67438728 0
3.9760003 -0.84585184 0.67491758 0
3.9830003 -0.85388064 0.67544794 0
3.9900002 -0.8619346 0.67597818 0
3.9970002 -0.87001389 0.67650855 0
4.0040002 -0.8781184 0.67703891 0
4.0100002 -0.88601542 0.67749345 0
4.0170002 -0.89416867 0.6780237 0
4.0240002 -0.90234715 0.67855406 0
4.0310001 -0.91055083 0.67908442 0
4.0380001 -0.91877985 0.67961466 0
4.0450001 -0.92703408 0.68014503 0
4.053 -0.93555707 0.68075109 0
4.0599999 -0.94386357 0.68128145 0
4.1290002 -0.42267844 0.67978245 0
4.118 -0.42827386 0.67896891 0
4.1090002 -0.43403885 0.6783033 0
4.1010003 -0.43987775 0.67771173 0
4.099 -0.44633719 0.67756379 0
4.0929999 -0.45234931 0.67712003 0
4.0830002 -0.45789239 0.67638046 0
4.0760002 -0.46374035 0.67586279 0
4.0710001 -0.46979395 0.675493 0
4.0669999 -0.47594672 0.67519712 0
4.0640001 -0.48220414 0.67497528 0
4.0630002 -0.4886924 0.67490137 0
4.0620003 -0.49517709 0.6748274 0
4.0620003 -0.50178266 0.6748274 0
4.0620003 -0.50838822 0.6748274 0
4.0640001 -0.51524985 0.67497528 0
4.0669999 -0.52224869 0.67519712 0
4.0710001 -0.52938998 0.675493 0
3.9980004 -0.5327577 0.67009419 0
3.9870002 -0.53773975 0.66928065 0
3.9800003 -0.54323775 0.66876304 0
3.9740002 -0.54885119 0.66831923 0
3.9700003 -0.55472803 0.66802347 0
3.9670002 -0.56073475 0.66780156 0
3.9650002 -0.56687671 0.66765368 0
3.9640002 -0.57315934 0.66757965 0
3.9630003 -0.57943839 0.66750574 0
3.9630003 -0.58586538 0.66750574 0
3.9640002 -0.59244567 0.66757965 0
3.9670002 -0.59933984 0.66780156 0
3.9700003 -0.6062448 0.66802347 0
3.9750004 -0.61347812 0.66839325 0
3.9820004 -0.62105048 0.66891092 0
3.9880002 -0.62848574 0.66935462 0
3.9940002 -0.6359427 0.66979837 0
4.0009999 -0.64358717 0.6703161 0
3.8400002 -0.62927943 0.65840912 0
3.8340003 -0.63445634 0.65796542 0
3.8280003 -0.63961166 0.65752161 0
3.8220003 -0.64474529 0.65707791 0
3.8160002 -0.64985728 0.65663421 0
3.8140004 -0.65566194 0.65648627 0
3.8200002 -0.66290241 0.65692997 0
3.8260002 -0.67016453 0.65737373 0
3.8330002 -0.67763233 0.65789139 0
3.8390002 -0.6849395 0.65833521 0
3.8450003 -0.69226843 0.65877891 0
3.8520002 -0.69980836 0.65929663 0
3.8580003 -0.70718235 0.65974033 0
3.8640003 -0.71457791 0.66018403 0
3.8710003 -0.72218996 0.66070175 0
3.8770003 -0.72963071 0.66114551 0
3.8840003 -0.73729146 0.66166317 0
3.8900003 -0.74477726 0.66210693 0
3.8960001 -0.75228471 0.66255069 0
3.9030004 -0.76001763 0.66306841 0
3.9090002 -0.76757014 0.66351211 0
3.9160004 -0.77535182 0.66402978 0
3.9230003 -0.78315872 0.6645475 0
3.9290004 -0.79077983 0.66499126 0
3.9360003 -0.79863536 0.66550893 0
3.9430003 -0.80651623 0.66602659 0
3.9490004 -0.81420588 0.66647041 0
3.9560003 -0.82213539 0.66698802 0
3.9630003 -0.83009022 0.66750574 0
3.9690003 -0.83784837 0.66794944 0
3.9760003 -0.84585184 0.66846716 0
3.9830003 -0.85388064 0.66898489 0
3.9900002 -0.8619346 0.6695025 0
3.9970002 -0.87001389 0.67002022 0
4.0040002 -0.8781184 0.67053795 0
4.0100002 -0.88601542 0.67098165 0
4.0170002 -0.89416867 0.67149937 0
4.0240002 -0.90234715 0.67201704 0
4.0310001 -0.91055083 0.67253476 0
4.0380001 -0.91877985 0.67305243 0
4.0450001 -0.92703408 0.67357016 0
4.053 -0.93555707 0.67416179 0
4.0599999 -0.94386357 0.67467946 0
4.1350002 -0.4165473 0.67348897 0
4.125 -0.42227438 0.6727674 0
4.1160002 -0.42806825 0.67211807 0
4.1080003 -0.43393421 0.67154086 0
4.1010003 -0.43987775 0.67103577 0
4.0950003 -0.44590428 0.67060286 0
4.098 -0.45289946 0.67081934 0
4.086 -0.4582279 0.66995347 0
4.079 -0.46408126 0.66944844 0
4.073 -0.47002479 0.66901553 0
4.0700002 -0.47629845 0.66879904 0
4.0669999 -0.48256126 0.66858262 0
4.0650001 -0.48893413 0.66843832 0
4.0650001 -0.49554509 0.66843832 0
4.0650001 -0.50215602 0.66843832 0
4.066 -0.50889325 0.66851044 0
4.0680003 -0.51576215 0.66865474 0
4.072 -0.52289802 0.66894341 0
4.0770001 -0.53018004 0.66930413 0
3.9980004 -0.5327577 0.66360414 0
3.9870002 -0.53773975 0.66281044 0
3.9800003 -0.54323775 0.66230536 0
3.9740002 -0.54885119 0.66187245 0
3.9700003 -0.55472803 0.66158378 0
3.9670002 -0.56073475 0.66136742 0
3.9650002 -0.56687671 0.66122305 0
3.9640002 -0.57315934 0.66115093 0
3.9630003 -0.57943839 0.66107875 0
3.9630003 -0.58586538 0.66107875 0
3.9640002 -0.59244567 0.66115093 0
3.9670002 -0.59933984 0.66136742 0
3.9700003 -0.6062448 0.66158378 0
3.9750004 -0.61347812 0.66194463 0
3.9820004 -0.62105048 0.66244966 0
3.9880002 -0.62848574 0.66288257 0
3.9940002 -0.6359427 0.66331553 0
4.0009999 -0.64358717 0.66382056 0
3.8400002 -0.62927943 0.65220404 0
3.8340003 -0.63445634 0.65177113 0
3.8280003 -0.63961166 0.65133822 0
3.8220003 -0.64474529 0.65090525 0
3.8160002 -0.64985728 0.65047234 0
3.8140004 -0.65566194 0.6503281 0
3.8200002 -0.66290241 0.65076101 0
3.8260002 -0.67016453 0.65119392 0
3.8330002 -0.67763233 0.65169895 0
3.8390002 -0.6849395 0.65213186 0
3.8450003 -0.69226843 0.65256476 0
3.8520002 -0.69980836 0.65306985 0
3.8580003 -0.70718235 0.65350276 0
3.8640003 -0.71457791 0.65393567 0
3.8710003 -0.72218996 0.65444076 0
3.8770003 -0.72963071 0.65487367 0
3.8830004 -0.73709309 0.65530658 0
3.8900003 -0.74477726 0.65581167 0
3.8960001 -0.75228471 0.65624452 0
3.9030004 -0.76001763 0.65674961 0
3.9090002 -0.76757014 0.65718251 0
3.9160004 -0.77535182 0.6576876 0
3.9230003 -0.78315872 0.65819269 0
3.9290004 -0.79077983 0.6586256 0
3.9360003 -0.79863536 0.65913063 0
3.9430003 -0.80651623 0.65963566 0
3.9490004 -0.81420588 0.66006863 0
3.9560003 -0.82213539 0.66057372 0
3.9630003 -0.83009022 0.66107875 0
3.9690003 -0.83784837 0.66151166 0
3.9760003 -0.84585184 0.66201675 0
3.9830003 -0.85388064 0.66252184 0
3.9900002 -0.8619346 0.66302687 0
3.9970002 -0.87001389 0.6635319 0
4.0040002 -0.8781184 0.66403699 0
4.0100002 -0.88601542 0.66446996 0
4.0170002 -0.89416867 0.66497499 0
4.0240002 -0.90234715 0.66548002 0
4.0310001 -0.91055083 0.66598511 0
4.0380001 -0.91877985 0.6664902 0
4.0450001 -0.92703408 0.66699529 0
4.053 -0.93555707 0.6675725 0
4.0599999 -0.94386357 0.66807753 0
4.1420002 -0.41049191 0.6672442 0
4.132 -0.41624969 0.66654068 0
4.1230001 -0.42207241 0.66590756 0
4.1150002 -0.4279654 0.66534477 0
4.1080003 -0.43393421 0.66485232 0
4.1020002 -0.4399842 0.66443026 0
4.0960002 -0.44601253 0.66400814 0
4.0940003 -0.45245934 0.66386747 0
4.092 -0.4588989 0.66372675 0
4.0830002 -0.4645358 0.66309363 0
4.0770001 -0.47048661 0.66267157 0
4.073 -0.47665021 0.66239011 0
4.0700002 -0.48291841 0.66217911 0
4.0690002 -0.48941755 0.66210872 0
4.0680003 -0.49591306 0.66203839 0
4.0680003 -0.50252944 0.66203839 0
4.0700002 -0.50939828 0.66217911 0
4.072 -0.51627445 0.66231978 0
4.0760002 -0.52341747 0.66260117 0
3.9980004 -0.5327577 0.65711403 0
3.9870002 -0.53773975 0.65634012 0
3.9800003 -0.54323775 0.65584773 0
3.9740002 -0.54885119 0.65542561 0
3.9700003 -0.55472803 0.65514421 0
3.9670002 -0.56073475 0.65493321 0
3.9650002 -0.56687671 0.65479249 0
3.9640002 -0.57315934 0.65472209 0
3.9630003 -0.57943839 0.65465176 0
3.9630003 -0.58586538 0.65465176 0
3.9640002 -0.59244567 0.65472209 0
3.9670002 -0.59933984 0.65493321 0
3.9700003 -0.6062448 0.65514421 0
3.9750004 -0.61347812 0.655496 0
3.9820004 -0.62105048 0.65598845 0
3.9880002 -0.62848574 0.65641052 0
3.9940002 -0.6359427 0.65683258 0
4.0009999 -0.64358717 0.65732503 0
3.8400002 -0.62927943 0.64599895 0
3.8340003 -0.63445634 0.64557683 0
3.8280003 -0.63961166 0.64515471 0
3.8220003 -0.64474529 0.64473265 0
3.8160002 -0.64985728 0.64431053 0
3.8140004 -0.65566194 0.64416987 0
3.8200002 -0.66290241 0.64459193 0
3.8260002 -0.67016453 0.64501405 0
3.8330002 -0.67763233 0.6455065 0
3.8390002 -0.6849395 0.64592856 0
3.8450003 -0.69226843 0.64635068 0
3.8520002 -0.69980836 0.64684308 0
3.8580003 -0.70718235 0.6472652 0
3.8640003 -0.71457791 0.64768732 0
3.8710003 -0.72218996 0.64817971 0
3.8770003 -0.72963071 0.64860183 0
3.8830004 -0.73709309 0.64902389 0
3.8900003 -0.74477726 0.64951634 0
3.8960001 -0.75228471 0.64993846 0
3.9030004 -0.76001763 0.65043086 0
3.9090002 -0.76757014 0.65085298 0
3.9160004 -0.77535182 0.65134543 0
3.9230003 -0.78315872 0.65183783 0
3.9290004 -0.79077983 0.65225995 0
3.9360003 -0.79863536 0.6527524 0
3.9430003 -0.80651623 0.65324485 0
3.9490004 -0.81420588 0.65366691 0
3.9560003 -0.82213539 0.65415937 0
3.9630003 -0.83009022 0.65465176 0
3.9690003 -0.83784837 0.65507388 0
3.9760003 -0.84585184 0.65556633 0
3.9830003 -0.85388064 0.65605879 0
3.9900002 -0.8619346 0.65655124 0
3.9970002 -0.87001389 0.65704364 0
4.0040002 -0.8781184 0.65753603 0
4.0100002 -0.88601542 0.65795815 0
4.0170002 -0.89416867 0.6584506 0
4.0240002 -0.90234715 0.65894306 0
4.0310001 -0.91055083 0.65943551 0
4.0380001 -0.91877985 0.65992796 0
4.0450001 -0.92703408 0.66042042 0
4.053 -0.93555707 0.6609832 0
4.0599999 -0.94386357 0.6614756 0
4.1480002 -0.40431568 0.6609056 0
4.138 -0.41010231 0.66022015 0
4.1300001 -0.41605127 0.65967178 0
4.1220002 -0.42197135 0.65912342 0
4.1150002 -0.4279654 0.6586436 0
4.1090002 -0.43403885 0.65823233 0
4.1030002 -0.4400906 0.65782106 0
4.098 -0.44622895 0.65747833 0
4.0929999 -0.45234931 0.65713561 0
4.0950003 -0.45923445 0.6572727 0
4.0900002 -0.46533129 0.65692997 0
4.0830002 -0.47117925 0.65645021 0
4.079 -0.47735369 0.65617597 0
4.0750003 -0.48351371 0.65590185 0
4.0740004 -0.49002185 0.6558333 0
4.073 -0.49652636 0.6557647 0
4.073 -0.50315171 0.6557647 0
4.0750003 -0.51002961 0.65590185 0
4.0780001 -0.51704282 0.65610743 0
4.0830002 -0.52432662 0.65645021 0
3.9980004 -0.5327577 0.65062392 0
3.9870002 -0.53773975 0.64986992 0
3.9800003 -0.54323775 0.6493901 0
3.9740002 -0.54885119 0.64897883 0
3.9700003 -0.55472803 0.64870465 0
3.9670002 -0.56073475 0.64849901 0
3.9650002 -0.56687671 0.64836192 0
3.9640002 -0.57315934 0.64829338 0
3.9630003 -0.57943839 0.64822483 0
3.9630003 -0.58586538 0.64822483 0
3.9640002 -0.59244567 0.64829338 0
3.9670002 -0.59933984 0.64849901 0
3.9700003 -0.6062448 0.64870465 0
3.9750004 -0.61347812 0.64904737 0
3.9820004 -0.62105048 0.64952719 0
3.9880002 -0.62848574 0.64993846 0
3.9940002 -0.6359427 0.65034974 0
4.0009999 -0.64358717 0.65082949 0
3.8400002 -0.62927943 0.63979381 0
3.8340003 -0.63445634 0.63938254 0
3.8280003 -0.63961166 0.63897133 0
3.8220003 -0.64474529 0.63856006 0
3.8160002 -0.64985728 0.63814873 0
3.8140004 -0.65566194 0.63801169 0
3.8200002 -0.66290241 0.63842297 0
3.8260002 -0.67016453 0.63883418 0
3.8330002 -0.67763233 0.63931406 0
3.8390002 -0.6849395 0.63972527 0
3.8450003 -0.69226843 0.64013654 0
3.8520002 -0.69980836 0.64061636 0
3.8580003 -0.70718235 0.64102763 0
3.8640003 -0.71457791 0.6414389 0
3.8710003 -0.72218996 0.64191872 0
3.8770003 -0.72963071 0.64232999 0
3.8830004 -0.73709309 0.64274126 0
3.8900003 -0.74477726 0.64322108 0
3.8960001 -0.75228471 0.64363235 0
3.9030004 -0.76001763 0.64411217 0
3.9090002 -0.76757014 0.64452338 0
3.9160004 -0.77535182 0.64500326 0
3.9230003 -0.78315872 0.64548302 0
3.9290004 -0.79077983 0.64589429 0
3.9360003 -0.79863536 0.64637411 0
3.9430003 -0.80651623 0.64685392 0
3.9490004 -0.81420588 0.6472652 0
3.9560003 -0.82213539 0.64774501 0
3.9630003 -0.83009022 0.64822483 0
3.9690003 -0.83784837 0.6486361 0
3.9760003 -0.84585184 0.64911592 0
3.9830003 -0.85388064 0.64959574 0
3.9900002 -0.8619346 0.65007555 0
3.9970002 -0.87001389 0.65055537 0
4.0040002 -0.8781184 0.65103513 0
4.0100002 -0.88601542 0.65144646 0
4.0170002 -0.89416867 0.65192622 0
4.0240002 -0.90234715 0.65240604 0
4.0310001 -0.91055083 0.65288585 0
4.0380001 -0.91877985 0.65336567 0
4.0450001 -0.92703408 0.65384549 0
4.052 -0.93531352 0.65432531 0
4.0599999 -0.94386357 0.65487367 0
4.1550002 -0.3982116 0.65461206 0
4.145 -0.40402886 0.65394473 0
4.1370001 -0.41000491 0.65341079 0
4.1290002 -0.41595203 0.65287685 0
4.1220002 -0.42197135 0.65240967 0
4.1160002 -0.42806825 0.65200925 0
4.1100001 -0.43414348 0.65160877 0
4.105 -0.44030347 0.65127504 0
4.1010003 -0.44655368 0.65100813 0
4.0960002 -0.4526794 0.6506744 0
4.0929999 -0.45901075 0.65047419 0
4.0960002 -0.46601313 0.6506744 0
4.092 -0.47221825 0.65040743 0
4.086 -0.47817442 0.65000701 0
4.0820003 -0.48434705 0.64974004 0
4.0799999 -0.49074695 0.64960653 0
4.0799999 -0.49738497 0.64960653 0
4.0799999 -0.50402296 0.64960653 0
4.0820003 -0.51091355 0.64974004 0
4.0870004 -0.51819551 0.65007371 0
3.9980004 -0.5327577 0.64413381 0
3.9870002 -0.53773975 0.64339966 0
3.9800003 -0.54323775 0.64293247 0
3.9740002 -0.54885119 0.64253199 0
3.9700003 -0.55472803 0.64226508 0
3.9670002 -0.56073475 0.64206481 0
3.9650002 -0.56687671 0.6419313 0
3.9640002 -0.57315934 0.6418646 0
3.9630003 -0.57943839 0.64179784 0
3.9630003 -0.58586538 0.64179784 0
3.9640002 -0.59244567 0.6418646 0
3.9670002 -0.59933984 0.64206481 0
3.9700003 -0.6062448 0.64226508 0
3.9750004 -0.61347812 0.64259875 0
3.9820004 -0.62105048 0.64306593 0
3.9880002 -0.62848574 0.64346635 0
3.9940002 -0.6359427 0.64386678 0
4.0009999 -0.64358717 0.64433402 0
3.8400002 -0.62927943 0.63358873 0
3.8340003 -0.63445634 0.63318825 0
3.8280003 -0.63961166 0.63278782 0
3.8220003 -0.64474529 0.6323874 0
3.8160002 -0.64985728 0.63198698 0
3.8140004 -0.65566194 0.63185346 0
3.8200002 -0.66290241 0.63225389 0
3.8260002 -0.67016453 0.63265431 0
3.8330002 -0.67763233 0.63312155 0
3.8390002 -0.6849395 0.63352197 0
3.8450003 -0.69226843 0.63392246 0
3.8520002 -0.69980836 0.63438964 0
3.8580003 -0.70718235 0.63479006 0
3.8640003 -0.71457791 0.63519049 0
3.8710003 -0.72218996 0.63565767 0
3.8770003 -0.72963071 0.63605815 0
3.8830004 -0.73709309 0.63645864 0
3.8900003 -0.74477726 0.63692576 0
3.8960001 -0.75228471 0.63732624 0
3.9030004 -0.76001763 0.63779342 0
3.9090002 -0.76757014 0.63819385 0
3.9160004 -0.77535182 0.63866103 0
3.9230003 -0.78315872 0.63912821 0
3.9290004 -0.79077983 0.63952869 0
3.9360003 -0.79863536 0.63999587 0
3.9430003 -0.80651623 0.64046305 0
3.9490004 -0.81420588 0.64086348 0
3.9560003 -0.82213539 0.64133066 0
3.9630003 -0.83009022 0.64179784 0
3.9690003 -0.83784837 0.64219832 0
3.9760003 -0.84585184 0.64266551 0
3.9830003 -0.85388064 0.64313269 0
3.9900002 -0.8619346 0.64359987 0
3.9970002 -0.87001389 0.64406705 0
4.0040002 -0.8781184 0.64453423 0
4.0100002 -0.88601542 0.64493465 0
4.0170002 -0.89416867 0.64540184 0
4.0240002 -0.90234715 0.64586902 0
4.0310001 -0.91055083 0.64633626 0
4.0380001 -0.91877985 0.64680344 0
4.0450001 -0.92703408 0.64727062 0
