# .PCD v0.7 - Point Cloud Data file format
VERSION 0.7
FIELDS x y z intensity
SIZE 4 4 4 4
TYPE F F F F
COUNT 1 1 1 1
WIDTH 1507
HEIGHT 1
VIEWPOINT 0 0 0 1 0 0 0
POINTS 1507
DATA ascii
5.0170002 1.5613391 1.7864783 0
5.0230002 1.555089 1.7882749 0
5.0290003 1.5488172 1.7900715 0
5.0350003 1.5425237 1.7918681 0
5.0410004 1.5362086 1.7936648 0
5.0470004 1.5298718 1.7954613 0
5.0530005 1.5235134 1.797258 0
5.0590005 1.5171334 1.7990545 0
5.0650005 1.5107317 1.8008512 0
5.0710001 1.5043081 1.8026476 0
5.0770001 1.4978632 1.8044443 0
5.0830002 1.4913965 1.8062408 0
5.0890002 1.4849083 1.8080374 0
5.0960002 1.478723 1.8101335 0
5.1020002 1.4721895 1.8119301 0
5.1080003 1.4656346 1.8137267 0
5.1140003 1.4590579 1.8155233 0
5.1200004 1.4524596 1.8173199 0
5.1260004 1.4458396 1.8191165 0
5.1330004 1.4395119 1.8212125 0
4.375 2.2412739 1.5870727 0
4.3800001 2.2369721 1.5885608 0
4.3840003 2.23208 1.5897515 0
4.3889999 2.2277436 1.5912395 0
4.3930001 2.222821 1.5924301 0
4.3970003 2.2178841 1.5936207 0
4.4020004 2.2134972 1.5951089 0
4.4060001 2.2085295 1.5962992 0
4.4110003 2.2041082 1.5977874 0
4.4150004 2.19911 1.5989779 0
4.4200001 2.1946545 1.600466 0
4.4240003 2.1896255 1.6016566 0
4.4290004 2.1851358 1.6031446 0
4.4330001 2.1800761 1.6043352 0
4.4380002 2.1755521 1.6058233 0
4.4420004 2.1704619 1.6070139 0
4.4470005 2.1659036 1.608502 0
4.4510002 2.1607823 1.6096926 0
4.4560003 2.1561902 1.6111807 0
4.4600005 2.1510386 1.6123713 0
4.4650002 2.1464117 1.6138593 0
4.4700003 2.141767 1.6153475 0
4.4740005 2.1365685 1.616538 0
4.4790001 2.1318891 1.618026 0
4.4830003 2.1266601 1.6192166 0
4.4880004 2.1219466 1.6207048 0
4.4930005 2.1172154 1.622193 0
4.4970002 2.111939 1.6233834 0
4.5020003 2.1071734 1.6248715 0
4.5070004 2.1023898 1.6263597 0
4.5110002 2.0970666 1.6275501 0
4.5160003 2.0922487 1.6290383 0
4.5210004 2.0874126 1.6305265 0
4.5260005 2.0825589 1.6320146 0
4.5300002 2.0771725 1.6332052 0
4.5350003 2.0722842 1.6346933 0
4.5400004 2.0673778 1.6361815 0
4.5450001 2.0624533 1.6376696 0
4.5490003 2.057004 1.6388601 0
4.5540004 2.0520456 1.6403482 0
4.5590005 2.0470688 1.6418364 0
4.5640001 2.042074 1.6433245 0
4.5690002 2.037061 1.6448126 0
4.5730004 2.0315325 1.6460032 0
4.5780001 2.0264852 1.6474912 0
4.5830002 2.0214202 1.6489794 0
4.5880003 2.0163374 1.6504676 0
4.5930004 2.0112362 1.6519557 0
4.5980005 2.0061169 1.6534439 0
4.6030002 2.0009797 1.654932 0
4.6070004 1.9953392 1.6561226 0
4.6120005 1.9901676 1.6576107 0
4.6170001 1.984978 1.6590987 0
4.6220002 1.9797704 1.660587 0
4.6270003 1.9745448 1.662075 0
4.6320004 1.9693012 1.6635633 0
4.6370001 1.9640393 1.6650513 0
4.6420002 1.9587598 1.6665394 0
4.6470003 1.9534619 1.6680278 0
4.6520004 1.9481462 1.6695158 0
4.6570001 1.9428121 1.6710038 0
4.6620002 1.9374603 1.6724921 0
4.6670003 1.9320903 1.6739802 0
4.6720004 1.9267025 1.6754684 0
4.6770005 1.9212965 1.6769567 0
4.6830001 1.9163303 1.6787423 0
4.6880002 1.9108865 1.6802304 0
4.6930003 1.9054247 1.6817186 0
4.6980004 1.8999448 1.6832068 0
4.7030001 1.8944466 1.6846948 0
4.7080002 1.8889306 1.686183 0
4.7130003 1.8833965 1.6876712 0
4.7180004 1.8778445 1.6891593 0
4.7240005 1.8727181 1.6909451 0
4.7290001 1.8671279 1.6924331 0
4.7340002 1.8615198 1.6939213 0
4.7390003 1.855894 1.6954095 0
4.7440004 1.8502498 1.6968977 0
4.7500005 1.8450224 1.6986835 0
4.7550001 1.8393402 1.7001715 0
4.7600002 1.8336403 1.7016597 0
4.7660003 1.8283515 1.7034454 0
4.7710004 1.8226138 1.7049336 0
4.7760005 1.8168578 1.7064217 0
4.7810001 1.8110837 1.7079098 0
4.7870002 1.8057137 1.7096957 0
4.7920003 1.799902 1.7111838 0
4.7980003 1.7944905 1.7129695 0
4.8030005 1.7886407 1.7144578 0
4.8080001 1.7827729 1.7159458 0
4.8140001 1.7773001 1.7177316 0
4.8190002 1.7713945 1.7192197 0
4.8250003 1.7658802 1.7210056 0
4.8300004 1.7599367 1.7224938 0
4.8350005 1.7539753 1.7239819 0
4.8410001 1.7483995 1.7257675 0
4.8460002 1.7424001 1.7272557 0
4.8520002 1.736783 1.7290415 0
4.8570004 1.7307458 1.7305297 0
4.8630004 1.7250872 1.7323154 0
4.8680005 1.7190119 1.7338036 0
4.8740001 1.7133118 1.7355893 0
4.8800001 1.7075902 1.737375 0
4.8850002 1.7014571 1.7388632 0
4.8910003 1.6956941 1.740649 0
4.8960004 1.6895232 1.7421371 0
4.9020004 1.6837187 1.7439229 0
4.9080005 1.6778924 1.7457087 0
4.9130001 1.6716636 1.7471968 0
4.9190001 1.6657959 1.7489825 0
4.9250002 1.6599065 1.7507683 0
4.9300003 1.6536202 1.7522565 0
4.9360003 1.6476893 1.7540424 0
4.9420004 1.6417367 1.755828 0
4.9470005 1.6353928 1.7573162 0
4.9530005 1.6293988 1.759102 0
4.9590001 1.6233829 1.7608876 0
4.9650002 1.6173456 1.7626735 0
4.9700003 1.610924 1.7641617 0
4.9760003 1.6048453 1.7659475 0
4.9820004 1.5987449 1.7677332 0
4.9880004 1.5926228 1.769519 0
4.9940004 1.5864789 1.7713047 0
5.0000005 1.5803136 1.7730905 0
5.0060005 1.5741266 1.7748762 0
5.0110002 1.5675677 1.7763643 0
5.0170002 1.5613391 1.7781501 0
5.0230002 1.555089 1.779936 0
5.0290003 1.5488172 1.7817217 0
5.0350003 1.5425237 1.7835075 0
5.0410004 1.5362086 1.7852932 0
5.0470004 1.5298718 1.7870791 0
5.0530005 1.5235134 1.7888649 0
5.0590005 1.5171334 1.7906506 0
5.0650005 1.5107317 1.7924365 0
5.0710001 1.5043081 1.7942221 0
5.0770001 1.4978632 1.7960079 0
5.0830002 1.4913965 1.7977936 0
5.0890002 1.4849083 1.7995794 0
5.0960002 1.478723 1.8016628 0
5.1020002 1.4721895 1.8034486 0
5.1080003 1.4656346 1.8052343 0
5.1140003 1.4590579 1.8070202 0
5.1200004 1.4524596 1.8088059 0
5.1260004 1.4458396 1.8105917 0
5.1330004 1.4395119 1.8126751 0
4.375 2.2412739 1.5799026 0
4.3800001 2.2369721 1.5813818 0
4.3840003 2.23208 1.5825651 0
4.3889999 2.2277436 1.5840441 0
4.3930001 2.222821 1.5852275 0
4.3970003 2.2178841 1.5864108 0
4.4020004 2.2134972 1.5878899 0
4.4060001 2.2085295 1.5890732 0
4.4110003 2.2041082 1.5905523 0
4.4150004 2.19911 1.5917357 0
4.4200001 2.1946545 1.5932146 0
4.4240003 2.1896255 1.594398 0
4.4290004 2.1851358 1.5958772 0
4.4330001 2.1800761 1.5970603 0
4.4380002 2.1755521 1.5985395 0
4.4420004 2.1704619 1.599723 0
4.4470005 2.1659036 1.601202 0
4.4510002 2.1607823 1.6023853 0
4.4560003 2.1561902 1.6038644 0
4.4600005 2.1510386 1.6050478 0
4.4650002 2.1464117 1.6065269 0
4.4700003 2.141767 1.608006 0
4.4740005 2.1365685 1.6091893 0
4.4790001 2.1318891 1.6106683 0
4.4830003 2.1266601 1.6118517 0
4.4880004 2.1219466 1.6133308 0
4.4930005 2.1172154 1.61481 0
4.4970002 2.111939 1.6159933 0
4.5020003 2.1071734 1.6174723 0
4.5070004 2.1023898 1.6189514 0
4.5110002 2.0970666 1.6201347 0
4.5160003 2.0922487 1.621614 0
4.5210004 2.0874126 1.623093 0
4.5260005 2.0825589 1.6245722 0
4.5300002 2.0771725 1.6257554 0
4.5350003 2.0722842 1.6272346 0
4.5400004 2.0673778 1.6287137 0
4.5450001 2.0624533 1.6301926 0
4.5490003 2.057004 1.6313761 0
4.5540004 2.0520456 1.6328553 0
4.5590005 2.0470688 1.6343343 0
4.5640001 2.042074 1.6358134 0
4.5690002 2.037061 1.6372925 0
4.5730004 2.0315325 1.638476 0
4.5780001 2.0264852 1.639955 0
4.5830002 2.0214202 1.6414341 0
4.5880003 2.0163374 1.6429132 0
4.5930004 2.0112362 1.6443924 0
4.5980005 2.0061169 1.6458715 0
4.6030002 2.0009797 1.6473505 0
4.6070004 1.9953392 1.6485339 0
4.6120005 1.9901676 1.6500131 0
4.6170001 1.984978 1.6514921 0
4.6220002 1.9797704 1.6529713 0
4.6270003 1.9745448 1.6544504 0
4.6320004 1.9693012 1.6559296 0
4.6370001 1.9640393 1.6574086 0
4.6420002 1.9587598 1.6588877 0
4.6470003 1.9534619 1.6603669 0
4.6520004 1.9481462 1.661846 0
4.6570001 1.9428121 1.6633251 0
4.6620002 1.9374603 1.6648042 0
4.6670003 1.9320903 1.6662834 0
4.6720004 1.9267025 1.6677625 0
4.6770005 1.9212965 1.6692418 0
4.6830001 1.9163303 1.6710165 0
4.6880002 1.9108865 1.6724956 0
4.6930003 1.9054247 1.6739749 0
4.6980004 1.8999448 1.675454 0
4.7030001 1.8944466 1.6769331 0
4.7080002 1.8889306 1.6784122 0
4.7130003 1.8833965 1.6798913 0
4.7180004 1.8778445 1.6813705 0
4.7240005 1.8727181 1.6831454 0
4.7290001 1.8671279 1.6846244 0
4.7340002 1.8615198 1.6861036 0
4.7390003 1.855894 1.6875827 0
4.7440004 1.8502498 1.689062 0
4.7500005 1.8450224 1.6908369 0
4.7550001 1.8393402 1.6923159 0
4.7600002 1.8336403 1.6937951 0
4.7660003 1.8283515 1.6955701 0
4.7710004 1.8226138 1.6970491 0
4.7760005 1.8168578 1.6985283 0
4.7810001 1.8110837 1.7000073 0
4.7870002 1.8057137 1.7017823 0
4.7920003 1.799902 1.7032615 0
4.7980003 1.7944905 1.7050364 0
4.8030005 1.7886407 1.7065156 0
4.8080001 1.7827729 1.7079946 0
4.8140001 1.7773001 1.7097695 0
4.8190002 1.7713945 1.7112486 0
4.8250003 1.7658802 1.7130237 0
4.8300004 1.7599367 1.7145028 0
4.8350005 1.7539753 1.7159821 0
4.8410001 1.7483995 1.7177567 0
4.8460002 1.7424001 1.719236 0
4.8520002 1.736783 1.7210109 0
4.8570004 1.7307458 1.7224901 0
4.8630004 1.7250872 1.7242651 0
4.8680005 1.7190119 1.7257442 0
4.8740001 1.7133118 1.727519 0
4.8800001 1.7075902 1.7292941 0
4.8850002 1.7014571 1.7307732 0
4.8910003 1.6956941 1.7325481 0
4.8960004 1.6895232 1.7340273 0
4.9020004 1.6837187 1.7358022 0
4.9080005 1.6778924 1.7375772 0
4.9130001 1.6716636 1.7390562 0
4.9190001 1.6657959 1.7408311 0
4.9250002 1.6599065 1.7426062 0
4.9300003 1.6536202 1.7440853 0
4.9360003 1.6476893 1.7458602 0
4.9420004 1.6417367 1.7476352 0
4.9470005 1.6353928 1.7491143 0
4.9530005 1.6293988 1.7508893 0
4.9590001 1.6233829 1.7526642 0
4.9650002 1.6173456 1.7544391 0
4.9700003 1.610924 1.7559183 0
4.9760003 1.6048453 1.7576932 0
4.9820004 1.5987449 1.7594682 0
4.9880004 1.5926228 1.7612431 0
4.9940004 1.5864789 1.7630181 0
5.0000005 1.5803136 1.764793 0
5.0060005 1.5741266 1.7665681 0
5.0110002 1.5675677 1.768047 0
5.0170002 1.5613391 1.7698219 0
5.0230002 1.555089 1.7715969 0
5.0290003 1.5488172 1.7733718 0
5.0350003 1.5425237 1.7751468 0
5.0410004 1.5362086 1.7769217 0
5.0470004 1.5298718 1.7786968 0
5.0530005 1.5235134 1.7804717 0
5.0590005 1.5171334 1.7822466 0
5.0650005 1.5107317 1.7840216 0
5.0710001 1.5043081 1.7857965 0
5.0770001 1.4978632 1.7875714 0
5.0830002 1.4913965 1.7893463 0
5.0890002 1.4849083 1.7911214 0
5.0960002 1.478723 1.7931921 0
5.1020002 1.4721895 1.7949671 0
5.1080003 1.4656346 1.7967421 0
5.1140003 1.4590579 1.7985169 0
5.1200004 1.4524596 1.8002919 0
5.1260004 1.4458396 1.8020668 0
5.1330004 1.4395119 1.8041376 0
4.375 2.2412739 1.5727326 0
4.3800001 2.2369721 1.5742027 0
4.3840003 2.23208 1.5753787 0
4.3889999 2.2277436 1.5768487 0
4.3930001 2.222821 1.578025 0
4.3970003 2.2178841 1.579201 0
4.4020004 2.2134972 1.5806711 0
4.4060001 2.2085295 1.5818471 0
4.4110003 2.2041082 1.5833173 0
4.4150004 2.19911 1.5844934 0
4.4200001 2.1946545 1.5859634 0
4.4240003 2.1896255 1.5871395 0
4.4290004 2.1851358 1.5886097 0
4.4330001 2.1800761 1.5897857 0
4.4380002 2.1755521 1.5912558 0
4.4420004 2.1704619 1.5924319 0
4.4470005 2.1659036 1.5939021 0
4.4510002 2.1607823 1.5950781 0
4.4560003 2.1561902 1.5965482 0
4.4600005 2.1510386 1.5977243 0
4.4650002 2.1464117 1.5991944 0
4.4700003 2.141767 1.6006645 0
4.4740005 2.1365685 1.6018406 0
4.4790001 2.1318891 1.6033106 0
4.4830003 2.1266601 1.6044868 0
4.4880004 2.1219466 1.6059569 0
4.4930005 2.1172154 1.607427 0
4.4970002 2.111939 1.608603 0
4.5020003 2.1071734 1.6100731 0
4.5070004 2.1023898 1.6115433 0
4.5110002 2.0970666 1.6127193 0
4.5160003 2.0922487 1.6141894 0
4.5210004 2.0874126 1.6156595 0
4.5260005 2.0825589 1.6171297 0
4.5300002 2.0771725 1.6183057 0
4.5350003 2.0722842 1.6197759 0
4.5400004 2.0673778 1.621246 0
4.5450001 2.0624533 1.622716 0
4.5490003 2.057004 1.6238922 0
4.5540004 2.0520456 1.6253623 0
4.5590005 2.0470688 1.6268324 0
4.5640001 2.042074 1.6283023 0
4.5690002 2.037061 1.6297724 0
4.5730004 2.0315325 1.6309487 0
4.5780001 2.0264852 1.6324186 0
4.5830002 2.0214202 1.6338888 0
4.5880003 2.0163374 1.6353589 0
4.5930004 2.0112362 1.636829 0
4.5980005 2.0061169 1.6382991 0
4.6030002 2.0009797 1.6397692 0
4.6070004 1.9953392 1.6409453 0
4.6120005 1.9901676 1.6424154 0
4.6170001 1.984978 1.6438854 0
4.6220002 1.9797704 1.6453556 0
4.6270003 1.9745448 1.6468257 0
4.6320004 1.9693012 1.6482959 0
4.6370001 1.9640393 1.6497658 0
4.6420002 1.9587598 1.6512361 0
4.6470003 1.9534619 1.6527061 0
4.6520004 1.9481462 1.6541762 0
4.6570001 1.9428121 1.6556463 0
4.6620002 1.9374603 1.6571164 0
4.6670003 1.9320903 1.6585866 0
4.6720004 1.9267025 1.6600567 0
4.6770005 1.9212965 1.6615268 0
4.6830001 1.9163303 1.6632909 0
4.6880002 1.9108865 1.6647609 0
4.6930003 1.9054247 1.666231 0
4.6980004 1.8999448 1.6677012 0
4.7030001 1.8944466 1.6691712 0
4.7080002 1.8889306 1.6706414 0
4.7130003 1.8833965 1.6721115 0
4.7180004 1.8778445 1.6735816 0
4.7240005 1.8727181 1.6753458 0
4.7290001 1.8671279 1.6768157 0
4.7340002 1.8615198 1.678286 0
4.7390003 1.855894 1.679756 0
4.7440004 1.8502498 1.6812263 0
4.7500005 1.8450224 1.6829903 0
4.7550001 1.8393402 1.6844603 0
4.7600002 1.8336403 1.6859304 0
4.7660003 1.8283515 1.6876945 0
4.7710004 1.8226138 1.6891646 0
4.7760005 1.8168578 1.6906348 0
4.7810001 1.8110837 1.6921049 0
4.7870002 1.8057137 1.693869 0
4.7920003 1.799902 1.6953392 0
4.7980003 1.7944905 1.6971033 0
4.8030005 1.7886407 1.6985735 0
4.8080001 1.7827729 1.7000434 0
4.8140001 1.7773001 1.7018075 0
4.8190002 1.7713945 1.7032776 0
4.8250003 1.7658802 1.7050418 0
4.8300004 1.7599367 1.706512 0
4.8350005 1.7539753 1.7079822 0
4.8410001 1.7483995 1.7097461 0
4.8460002 1.7424001 1.7112162 0
4.8520002 1.736783 1.7129804 0
4.8570004 1.7307458 1.7144505 0
4.8630004 1.7250872 1.7162147 0
4.8680005 1.7190119 1.7176847 0
4.8740001 1.7133118 1.7194488 0
4.8800001 1.7075902 1.7212129 0
4.8850002 1.7014571 1.722683 0
4.8910003 1.6956941 1.7244471 0
4.8960004 1.6895232 1.7259172 0
4.9020004 1.6837187 1.7276814 0
4.9080005 1.6778924 1.7294456 0
4.9130001 1.6716636 1.7309157 0
4.9190001 1.6657959 1.7326797 0
4.9250002 1.6599065 1.7344439 0
4.9300003 1.6536202 1.735914 0
4.9360003 1.6476893 1.7376782 0
4.9420004 1.6417367 1.7394423 0
4.9470005 1.6353928 1.7409124 0
4.9530005 1.6293988 1.7426766 0
4.9590001 1.6233829 1.7444406 0
4.9650002 1.6173456 1.7462047 0
4.9700003 1.610924 1.7476748 0
4.9760003 1.6048453 1.749439 0
4.9820004 1.5987449 1.7512031 0
4.9880004 1.5926228 1.7529672 0
4.9940004 1.5864789 1.7547314 0
5.0000005 1.5803136 1.7564955 0
5.0060005 1.5741266 1.7582597 0
5.0110002 1.5675677 1.7597296 0
5.0170002 1.5613391 1.7614938 0
5.0230002 1.555089 1.7632579 0
5.0290003 1.5488172 1.765022 0
5.0350003 1.5425237 1.7667862 0
5.0410004 1.5362086 1.7685503 0
5.0470004 1.5298718 1.7703145 0
5.0530005 1.5235134 1.7720786 0
5.0590005 1.5171334 1.7738427 0
5.0650005 1.5107317 1.7756069 0
5.0710001 1.5043081 1.7773708 0
5.0770001 1.4978632 1.779135 0
5.0830002 1.4913965 1.7808992 0
5.0890002 1.4849083 1.7826632 0
5.0960002 1.478723 1.7847214 0
5.1020002 1.4721895 1.7864856 0
5.1080003 1.4656346 1.7882497 0
5.1140003 1.4590579 1.7900138 0
5.1200004 1.4524596 1.791778 0
5.1260004 1.4458396 1.7935421 0
5.1330004 1.4395119 1.7956003 0
5.1390004 1.4328468 1.7973644 0
4.375 2.2412739 1.5655624 0
4.3800001 2.2369721 1.5670235 0
4.3840003 2.23208 1.5681922 0
4.3889999 2.2277436 1.5696534 0
4.3930001 2.222821 1.5708222 0
4.3970003 2.2178841 1.5719911 0
4.4020004 2.2134972 1.5734522 0
4.4060001 2.2085295 1.574621 0
4.4110003 2.2041082 1.5760822 0
4.4150004 2.19911 1.5772511 0
4.4200001 2.1946545 1.578712 0
4.4240003 2.1896255 1.579881 0
4.4290004 2.1851358 1.5813421 0
4.4330001 2.1800761 1.5825109 0
4.4380002 2.1755521 1.583972 0
4.4420004 2.1704619 1.5851409 0
4.4470005 2.1659036 1.5866021 0
4.4510002 2.1607823 1.5877708 0
4.4560003 2.1561902 1.589232 0
4.4600005 2.1510386 1.5904009 0
4.4650002 2.1464117 1.5918618 0
4.4700003 2.141767 1.593323 0
4.4740005 2.1365685 1.5944918 0
4.4790001 2.1318891 1.5959529 0
4.4830003 2.1266601 1.5971218 0
4.4880004 2.1219466 1.5985829 0
4.4930005 2.1172154 1.600044 0
4.4970002 2.111939 1.6012127 0
4.5020003 2.1071734 1.6026739 0
4.5070004 2.1023898 1.604135 0
4.5110002 2.0970666 1.6053038 0
4.5160003 2.0922487 1.606765 0
4.5210004 2.0874126 1.6082261 0
4.5260005 2.0825589 1.6096871 0
4.5300002 2.0771725 1.6108559 0
4.5350003 2.0722842 1.6123171 0
4.5400004 2.0673778 1.6137782 0
4.5450001 2.0624533 1.6152391 0
4.5490003 2.057004 1.616408 0
4.5540004 2.0520456 1.6178693 0
4.5590005 2.0470688 1.6193303 0
4.5640001 2.042074 1.6207913 0
4.5690002 2.037061 1.6222525 0
4.5730004 2.0315325 1.6234213 0
4.5780001 2.0264852 1.6248823 0
4.5830002 2.0214202 1.6263434 0
4.5880003 2.0163374 1.6278046 0
4.5930004 2.0112362 1.6292657 0
4.5980005 2.0061169 1.6307268 0
4.6030002 2.0009797 1.6321877 0
4.6070004 1.9953392 1.6333567 0
4.6120005 1.9901676 1.6348178 0
4.6170001 1.984978 1.6362787 0
4.6220002 1.9797704 1.6377399 0
4.6270003 1.9745448 1.639201 0
4.6320004 1.9693012 1.6406621 0
4.6370001 1.9640393 1.6421231 0
4.6420002 1.9587598 1.6435843 0
4.6470003 1.9534619 1.6450454 0
4.6520004 1.9481462 1.6465064 0
4.6570001 1.9428121 1.6479675 0
4.6620002 1.9374603 1.6494286 0
4.6670003 1.9320903 1.6508896 0
4.6720004 1.9267025 1.6523508 0
4.6770005 1.9212965 1.6538119 0
4.6830001 1.9163303 1.6555651 0
4.6880002 1.9108865 1.6570262 0
4.6930003 1.9054247 1.6584874 0
4.6980004 1.8999448 1.6599485 0
4.7030001 1.8944466 1.6614095 0
4.7080002 1.8889306 1.6628705 0
4.7130003 1.8833965 1.6643317 0
4.7180004 1.8778445 1.6657928 0
4.7240005 1.8727181 1.667546 0
4.7290001 1.8671279 1.6690071 0
4.7340002 1.8615198 1.6704682 0
4.7390003 1.855894 1.6719294 0
4.7440004 1.8502498 1.6733904 0
4.7500005 1.8450224 1.6751437 0
4.7550001 1.8393402 1.6766047 0
4.7600002 1.8336403 1.6780658 0
4.7660003 1.8283515 1.6798192 0
4.7710004 1.8226138 1.6812803 0
4.7760005 1.8168578 1.6827414 0
4.7810001 1.8110837 1.6842023 0
4.7870002 1.8057137 1.6859558 0
4.7920003 1.799902 1.6874168 0
4.7980003 1.7944905 1.6891701 0
4.8030005 1.7886407 1.6906313 0
4.8080001 1.7827729 1.6920923 0
4.8140001 1.7773001 1.6938455 0
4.8190002 1.7713945 1.6953067 0
4.8250003 1.7658802 1.69706 0
4.8300004 1.7599367 1.698521 0
4.8350005 1.7539753 1.6999823 0
4.8410001 1.7483995 1.7017354 0
4.8460002 1.7424001 1.7031965 0
4.8520002 1.736783 1.7049497 0
4.8570004 1.7307458 1.706411 0
4.8630004 1.7250872 1.7081642 0
4.8680005 1.7190119 1.7096254 0
4.8740001 1.7133118 1.7113786 0
4.8800001 1.7075902 1.7131319 0
4.8850002 1.7014571 1.7145929 0
4.8910003 1.6956941 1.7163464 0
4.8960004 1.6895232 1.7178074 0
4.9020004 1.6837187 1.7195606 0
4.9080005 1.6778924 1.7213141 0
4.9130001 1.6716636 1.722775 0
4.9190001 1.6657959 1.7245283 0
4.9250002 1.6599065 1.7262816 0
4.9300003 1.6536202 1.7277428 0
4.9360003 1.6476893 1.729496 0
4.9420004 1.6417367 1.7312495 0
4.9470005 1.6353928 1.7327105 0
4.9530005 1.6293988 1.7344638 0
4.9590001 1.6233829 1.7362169 0
4.9650002 1.6173456 1.7379704 0
4.9700003 1.610924 1.7394314 0
4.9760003 1.6048453 1.7411847 0
4.9820004 1.5987449 1.742938 0
4.9880004 1.5926228 1.7446914 0
4.9940004 1.5864789 1.7464446 0
5.0000005 1.5803136 1.748198 0
5.0060005 1.5741266 1.7499512 0
5.0110002 1.5675677 1.7514123 0
5.0170002 1.5613391 1.7531656 0
5.0230002 1.555089 1.7549189 0
5.0290003 1.5488172 1.7566721 0
5.0350003 1.5425237 1.7584256 0
5.0410004 1.5362086 1.7601788 0
5.0470004 1.5298718 1.7619321 0
5.0530005 1.5235134 1.7636855 0
5.0590005 1.5171334 1.7654388 0
5.0650005 1.5107317 1.767192 0
5.0710001 1.5043081 1.7689453 0
5.0770001 1.4978632 1.7706985 0
5.0830002 1.4913965 1.7724519 0
5.0890002 1.4849083 1.7742052 0
5.0960002 1.478723 1.7762507 0
5.1020002 1.4721895 1.7780041 0
5.1080003 1.4656346 1.7797574 0
5.1140003 1.4590579 1.7815107 0
5.1200004 1.4524596 1.7832639 0
5.1260004 1.4458396 1.7850174 0
5.1330004 1.4395119 1.7870628 0
5.1390004 1.4328468 1.7888162 0
4.375 2.2412739 1.5583923 0
4.3800001 2.2369721 1.5598443 0
4.3840003 2.23208 1.5610059 0
4.3889999 2.2277436 1.5624579 0
4.3930001 2.222821 1.5636197 0
4.3970003 2.2178841 1.5647813 0
4.4020004 2.2134972 1.5662335 0
4.4060001 2.2085295 1.567395 0
4.4110003 2.2041082 1.5688471 0
4.4150004 2.19911 1.5700088 0
4.4200001 2.1946545 1.5714607 0
4.4240003 2.1896255 1.5726224 0
4.4290004 2.1851358 1.5740746 0
4.4330001 2.1800761 1.5752361 0
4.4380002 2.1755521 1.5766883 0
4.4420004 2.1704619 1.5778499 0
4.4470005 2.1659036 1.5793021 0
4.4510002 2.1607823 1.5804635 0
4.4560003 2.1561902 1.5819157 0
4.4600005 2.1510386 1.5830774 0
4.4650002 2.1464117 1.5845294 0
4.4700003 2.141767 1.5859815 0
4.4740005 2.1365685 1.5871432 0
4.4790001 2.1318891 1.5885952 0
4.4830003 2.1266601 1.5897568 0
4.4880004 2.1219466 1.5912089 0
4.4930005 2.1172154 1.592661 0
4.4970002 2.111939 1.5938226 0
4.5020003 2.1071734 1.5952747 0
4.5070004 2.1023898 1.5967268 0
4.5110002 2.0970666 1.5978884 0
4.5160003 2.0922487 1.5993404 0
4.5210004 2.0874126 1.6007925 0
4.5260005 2.0825589 1.6022446 0
4.5300002 2.0771725 1.6034062 0
4.5350003 2.0722842 1.6048584 0
4.5400004 2.0673778 1.6063104 0
4.5450001 2.0624533 1.6077623 0
4.5490003 2.057004 1.608924 0
4.5540004 2.0520456 1.6103762 0
4.5590005 2.0470688 1.6118283 0
4.5640001 2.042074 1.6132802 0
4.5690002 2.037061 1.6147324 0
4.5730004 2.0315325 1.615894 0
4.5780001 2.0264852 1.617346 0
4.5830002 2.0214202 1.6187981 0
4.5880003 2.0163374 1.6202501 0
4.5930004 2.0112362 1.6217023 0
4.5980005 2.0061169 1.6231544 0
4.6030002 2.0009797 1.6246064 0
4.6070004 1.9953392 1.6257681 0
4.6120005 1.9901676 1.6272203 0
4.6170001 1.984978 1.6286721 0
4.6220002 1.9797704 1.6301242 0
4.6270003 1.9745448 1.6315764 0
4.6320004 1.9693012 1.6330284 0
4.6370001 1.9640393 1.6344804 0
4.6420002 1.9587598 1.6359326 0
4.6470003 1.9534619 1.6373845 0
4.6520004 1.9481462 1.6388367 0
4.6570001 1.9428121 1.6402887 0
4.6620002 1.9374603 1.6417407 0
4.6670003 1.9320903 1.6431929 0
4.6720004 1.9267025 1.644645 0
4.6770005 1.9212965 1.6460971 0
4.6830001 1.9163303 1.6478394 0
4.6880002 1.9108865 1.6492915 0
4.6930003 1.9054247 1.6507436 0
4.6980004 1.8999448 1.6521957 0
4.7030001 1.8944466 1.6536477 0
4.7080002 1.8889306 1.6550997 0
4.7130003 1.8833965 1.6565518 0
4.7180004 1.8778445 1.6580039 0
4.7240005 1.8727181 1.6597464 0
4.7290001 1.8671279 1.6611984 0
4.7340002 1.8615198 1.6626506 0
4.7390003 1.855894 1.6641026 0
4.7440004 1.8502498 1.6655546 0
4.7500005 1.8450224 1.6672971 0
4.7550001 1.8393402 1.6687492 0
4.7600002 1.8336403 1.6702013 0
4.7660003 1.8283515 1.6719438 0
4.7710004 1.8226138 1.6733958 0
4.7760005 1.8168578 1.674848 0
4.7810001 1.8110837 1.6762999 0
4.7870002 1.8057137 1.6780424 0
4.7920003 1.799902 1.6794945 0
4.7980003 1.7944905 1.681237 0
4.8030005 1.7886407 1.6826891 0
4.8080001 1.7827729 1.684141 0
4.8140001 1.7773001 1.6858835 0
4.8190002 1.7713945 1.6873356 0
4.8250003 1.7658802 1.6890781 0
4.8300004 1.7599367 1.6905302 0
4.8350005 1.7539753 1.6919824 0
4.8410001 1.7483995 1.6937246 0
4.8460002 1.7424001 1.6951768 0
4.8520002 1.736783 1.6969193 0
4.8570004 1.7307458 1.6983713 0
4.8630004 1.7250872 1.7001138 0
4.8680005 1.7190119 1.701566 0
4.8740001 1.7133118 1.7033083 0
4.8800001 1.7075902 1.7050508 0
4.8850002 1.7014571 1.7065029 0
4.8910003 1.6956941 1.7082454 0
4.8960004 1.6895232 1.7096975 0
4.9020004 1.6837187 1.71144 0
4.9080005 1.6778924 1.7131824 0
4.9130001 1.6716636 1.7146344 0
4.9190001 1.6657959 1.7163769 0
4.9250002 1.6599065 1.7181194 0
4.9300003 1.6536202 1.7195715 0
4.9360003 1.6476893 1.721314 0
4.9420004 1.6417367 1.7230564 0
4.9470005 1.6353928 1.7245086 0
4.9530005 1.6293988 1.7262511 0
4.9590001 1.6233829 1.7279935 0
4.9650002 1.6173456 1.729736 0
4.9700003 1.610924 1.7311881 0
4.9760003 1.6048453 1.7329305 0
4.9820004 1.5987449 1.734673 0
4.9880004 1.5926228 1.7364155 0
4.9940004 1.5864789 1.738158 0
5.0000005 1.5803136 1.7399005 0
5.0060005 1.5741266 1.741643 0
5.0110002 1.5675677 1.7430949 0
5.0170002 1.5613391 1.7448374 0
5.0230002 1.555089 1.7465799 0
5.0290003 1.5488172 1.7483224 0
5.0350003 1.5425237 1.7500648 0
5.0410004 1.5362086 1.7518073 0
5.0470004 1.5298718 1.7535498 0
5.0530005 1.5235134 1.7552923 0
5.0590005 1.5171334 1.7570349 0
5.0650005 1.5107317 1.7587774 0
5.0710001 1.5043081 1.7605197 0
5.0770001 1.4978632 1.7622622 0
5.0830002 1.4913965 1.7640047 0
5.0890002 1.4849083 1.7657472 0
5.0960002 1.478723 1.7677801 0
5.1020002 1.4721895 1.7695225 0
5.1080003 1.4656346 1.771265 0
5.1140003 1.4590579 1.7730075 0
5.1200004 1.4524596 1.77475 0
5.1260004 1.4458396 1.7764925 0
5.1330004 1.4395119 1.7785255 0
5.1390004 1.4328468 1.780268 0
4.375 2.2412739 1.551222 0
4.3800001 2.2369721 1.5526651 0
4.3840003 2.23208 1.5538197 0
4.3889999 2.2277436 1.5552626 0
4.3930001 2.222821 1.5564171 0
4.3970003 2.2178841 1.5575714 0
4.4020004 2.2134972 1.5590146 0
4.4060001 2.2085295 1.560169 0
4.4110003 2.2041082 1.561612 0
4.4150004 2.19911 1.5627664 0
4.4200001 2.1946545 1.5642095 0
4.4240003 2.1896255 1.5653639 0
4.4290004 2.1851358 1.5668069 0
4.4330001 2.1800761 1.5679615 0
4.4380002 2.1755521 1.5694045 0
4.4420004 2.1704619 1.5705589 0
4.4470005 2.1659036 1.5720021 0
4.4510002 2.1607823 1.5731564 0
4.4560003 2.1561902 1.5745994 0
4.4600005 2.1510386 1.575754 0
4.4650002 2.1464117 1.577197 0
4.4700003 2.141767 1.57864 0
4.4740005 2.1365685 1.5797945 0
4.4790001 2.1318891 1.5812374 0
4.4830003 2.1266601 1.5823919 0
4.4880004 2.1219466 1.583835 0
4.4930005 2.1172154 1.585278 0
4.4970002 2.111939 1.5864323 0
4.5020003 2.1071734 1.5878755 0
4.5070004 2.1023898 1.5893185 0
4.5110002 2.0970666 1.5904729 0
4.5160003 2.0922487 1.5919161 0
4.5210004 2.0874126 1.5933591 0
4.5260005 2.0825589 1.5948021 0
4.5300002 2.0771725 1.5959566 0
4.5350003 2.0722842 1.5973996 0
4.5400004 2.0673778 1.5988426 0
4.5450001 2.0624533 1.6002856 0
4.5490003 2.057004 1.6014401 0
4.5540004 2.0520456 1.6028831 0
4.5590005 2.0470688 1.6043262 0
4.5640001 2.042074 1.6057692 0
4.5690002 2.037061 1.6072123 0
4.5730004 2.0315325 1.6083667 0
4.5780001 2.0264852 1.6098096 0
4.5830002 2.0214202 1.6112528 0
4.5880003 2.0163374 1.6126958 0
4.5930004 2.0112362 1.614139 0
4.5980005 2.0061169 1.615582 0
4.6030002 2.0009797 1.6170249 0
4.6070004 1.9953392 1.6181794 0
4.6120005 1.9901676 1.6196225 0
4.6170001 1.984978 1.6210654 0
4.6220002 1.9797704 1.6225085 0
4.6270003 1.9745448 1.6239517 0
4.6320004 1.9693012 1.6253947 0
4.6370001 1.9640393 1.6268376 0
4.6420002 1.9587598 1.6282808 0
4.6470003 1.9534619 1.6297238 0
4.6520004 1.9481462 1.6311669 0
4.6570001 1.9428121 1.6326098 0
4.6620002 1.9374603 1.634053 0
4.6670003 1.9320903 1.635496 0
4.6720004 1.9267025 1.636939 0
4.6770005 1.9212965 1.6383822 0
4.6830001 1.9163303 1.6401137 0
4.6880002 1.9108865 1.6415567 0
4.6930003 1.9054247 1.6429998 0
4.6980004 1.8999448 1.6444429 0
4.7030001 1.8944466 1.6458858 0
4.7080002 1.8889306 1.647329 0
4.7130003 1.8833965 1.648772 0
4.7180004 1.8778445 1.6502151 0
4.7240005 1.8727181 1.6519468 0
4.7290001 1.8671279 1.6533897 0
4.7340002 1.8615198 1.6548327 0
4.7390003 1.855894 1.6562759 0
4.7440004 1.8502498 1.6577189 0
4.7500005 1.8450224 1.6594507 0
4.7550001 1.8393402 1.6608936 0
4.7600002 1.8336403 1.6623367 0
4.7660003 1.8283515 1.6640683 0
4.7710004 1.8226138 1.6655114 0
4.7760005 1.8168578 1.6669544 0
4.7810001 1.8110837 1.6683974 0
4.7870002 1.8057137 1.6701292 0
4.7920003 1.799902 1.6715722 0
4.7980003 1.7944905 1.6733038 0
4.8030005 1.7886407 1.6747469 0
4.8080001 1.7827729 1.6761899 0
4.8140001 1.7773001 1.6779215 0
4.8190002 1.7713945 1.6793647 0
4.8250003 1.7658802 1.6810962 0
4.8300004 1.7599367 1.6825393 0
4.8350005 1.7539753 1.6839825 0
4.8410001 1.7483995 1.685714 0
4.8460002 1.7424001 1.687157 0
4.8520002 1.736783 1.6888887 0
4.8570004 1.7307458 1.6903318 0
4.8630004 1.7250872 1.6920635 0
4.8680005 1.7190119 1.6935065 0
4.8740001 1.7133118 1.695238 0
4.8800001 1.7075902 1.6969697 0
4.8850002 1.7014571 1.6984129 0
4.8910003 1.6956941 1.7001445 0
4.8960004 1.6895232 1.7015876 0
4.9020004 1.6837187 1.7033193 0
4.9080005 1.6778924 1.7050508 0
4.9130001 1.6716636 1.7064939 0
4.9190001 1.6657959 1.7082256 0
4.9250002 1.6599065 1.7099571 0
4.9300003 1.6536202 1.7114003 0
4.9360003 1.6476893 1.7131319 0
4.9420004 1.6417367 1.7148635 0
4.9470005 1.6353928 1.7163067 0
4.9530005 1.6293988 1.7180384 0
4.9590001 1.6233829 1.7197698 0
4.9650002 1.6173456 1.7215016 0
4.9700003 1.610924 1.7229446 0
4.9760003 1.6048453 1.7246763 0
4.9820004 1.5987449 1.726408 0
4.9880004 1.5926228 1.7281396 0
4.9940004 1.5864789 1.7298713 0
5.0000005 1.5803136 1.7316029 0
5.0060005 1.5741266 1.7333347 0
5.0110002 1.5675677 1.7347776 0
5.0170002 1.5613391 1.7365092 0
5.0230002 1.555089 1.738241 0
5.0290003 1.5488172 1.7399726 0
5.0350003 1.5425237 1.7417042 0
5.0410004 1.5362086 1.743436 0
5.0470004 1.5298718 1.7451675 0
5.0530005 1.5235134 1.7468992 0
5.0590005 1.5171334 1.7486309 0
5.0650005 1.5107317 1.7503626 0
5.0710001 1.5043081 1.752094 0
5.0770001 1.4978632 1.7538258 0
5.0830002 1.4913965 1.7555574 0
5.0890002 1.4849083 1.7572891 0
5.0960002 1.478723 1.7593093 0
5.1020002 1.4721895 1.761041 0
5.1080003 1.4656346 1.7627727 0
5.1140003 1.4590579 1.7645044 0
5.1200004 1.4524596 1.7662361 0
5.1260004 1.4458396 1.7679677 0
5.1330004 1.4395119 1.7699879 0
5.1390004 1.4328468 1.7717196 0
4.375 2.2412739 1.5440519 0
4.3800001 2.2369721 1.5454861 0
4.3840003 2.23208 1.5466332 0
4.3889999 2.2277436 1.5480672 0
4.3930001 2.222821 1.5492145 0
4.3970003 2.2178841 1.5503616 0
4.4020004 2.2134972 1.5517957 0
4.4060001 2.2085295 1.5529429 0
4.4110003 2.2041082 1.554377 0
4.4150004 2.19911 1.5555242 0
4.4200001 2.1946545 1.5569581 0
4.4240003 2.1896255 1.5581055 0
4.4290004 2.1851358 1.5595394 0
4.4330001 2.1800761 1.5606866 0
4.4380002 2.1755521 1.5621207 0
4.4420004 2.1704619 1.5632679 0
4.4470005 2.1659036 1.564702 0
4.4510002 2.1607823 1.5658491 0
4.4560003 2.1561902 1.5672833 0
4.4600005 2.1510386 1.5684304 0
4.4650002 2.1464117 1.5698644 0
4.4700003 2.141767 1.5712984 0
4.4740005 2.1365685 1.5724458 0
4.4790001 2.1318891 1.5738796 0
4.4830003 2.1266601 1.5750269 0
4.4880004 2.1219466 1.5764611 0
4.4930005 2.1172154 1.577895 0
4.4970002 2.111939 1.5790422 0
4.5020003 2.1071734 1.5804762 0
4.5070004 2.1023898 1.5819104 0
4.5110002 2.0970666 1.5830574 0
4.5160003 2.0922487 1.5844915 0
4.5210004 2.0874126 1.5859256 0
4.5260005 2.0825589 1.5873597 0
4.5300002 2.0771725 1.5885068 0
4.5350003 2.0722842 1.5899408 0
4.5400004 2.0673778 1.5913749 0
4.5450001 2.0624533 1.5928088 0
4.5490003 2.057004 1.5939561 0
4.5540004 2.0520456 1.5953901 0
4.5590005 2.0470688 1.5968242 0
4.5640001 2.042074 1.5982581 0
4.5690002 2.037061 1.5996922 0
4.5730004 2.0315325 1.6008395 0
4.5780001 2.0264852 1.6022735 0
4.5830002 2.0214202 1.6037074 0
4.5880003 2.0163374 1.6051415 0
4.5930004 2.0112362 1.6065756 0
4.5980005 2.0061169 1.6080096 0
4.6030002 2.0009797 1.6094437 0
4.6070004 1.9953392 1.6105908 0
4.6120005 1.9901676 1.6120249 0
4.6170001 1.984978 1.6134588 0
4.6220002 1.9797704 1.614893 0
4.6270003 1.9745448 1.6163269 0
4.6320004 1.9693012 1.617761 0
4.6370001 1.9640393 1.6191949 0
4.6420002 1.9587598 1.620629 0
4.6470003 1.9534619 1.622063 0
4.6520004 1.9481462 1.6234971 0
4.6570001 1.9428121 1.624931 0
4.6620002 1.9374603 1.6263651 0
4.6670003 1.9320903 1.6277992 0
4.6720004 1.9267025 1.6292332 0
4.6770005 1.9212965 1.6306673 0
4.6830001 1.9163303 1.632388 0
4.6880002 1.9108865 1.633822 0
4.6930003 1.9054247 1.6352561 0
4.6980004 1.8999448 1.6366903 0
4.7030001 1.8944466 1.6381241 0
4.7080002 1.8889306 1.6395581 0
4.7130003 1.8833965 1.6409922 0
4.7180004 1.8778445 1.6424263 0
4.7240005 1.8727181 1.6441472 0
4.7290001 1.8671279 1.645581 0
4.7340002 1.8615198 1.6470151 0
4.7390003 1.855894 1.6484492 0
4.7450004 1.8506864 1.65017 0
4.7500005 1.8450224 1.6516041 0
4.7550001 1.8393402 1.653038 0
4.7600002 1.8336403 1.6544721 0
4.7660003 1.8283515 1.6561929 0
4.7710004 1.8226138 1.657627 0
4.7760005 1.8168578 1.659061 0
4.7810001 1.8110837 1.6604949 0
4.7870002 1.8057137 1.6622158 0
4.7920003 1.799902 1.6636498 0
4.7980003 1.7944905 1.6653707 0
4.8030005 1.7886407 1.6668047 0
4.8080001 1.7827729 1.6682386 0
4.8140001 1.7773001 1.6699594 0
4.8190002 1.7713945 1.6713936 0
4.8250003 1.7658802 1.6731144 0
4.8300004 1.7599367 1.6745485 0
4.8350005 1.7539753 1.6759825 0
4.8410001 1.7483995 1.6777033 0
4.8460002 1.7424001 1.6791372 0
4.8520002 1.736783 1.6808581 0
4.8570004 1.7307458 1.6822922 0
4.8630004 1.7250872 1.6840131 0
4.8680005 1.7190119 1.6854471 0
4.8740001 1.7133118 1.6871678 0
4.8800001 1.7075902 1.6888887 0
4.8850002 1.7014571 1.6903228 0
4.8910003 1.6956941 1.6920435 0
4.8960004 1.6895232 1.6934776 0
4.9020004 1.6837187 1.6951985 0
4.9080005 1.6778924 1.6969193 0
4.9130001 1.6716636 1.6983533 0
4.9190001 1.6657959 1.7000741 0
4.9250002 1.6599065 1.701795 0
4.9300003 1.6536202 1.703229 0
4.9360003 1.6476893 1.7049499 0
4.9420004 1.6417367 1.7066706 0
4.9470005 1.6353928 1.7081047 0
4.9530005 1.6293988 1.7098256 0
4.9590001 1.6233829 1.7115463 0
4.9650002 1.6173456 1.7132672 0
4.9700003 1.610924 1.7147012 0
4.9760003 1.6048453 1.7164221 0
4.9820004 1.5987449 1.7181429 0
4.9880004 1.5926228 1.7198638 0
4.9940004 1.5864789 1.7215846 0
5.0000005 1.5803136 1.7233055 0
5.0060005 1.5741266 1.7250262 0
5.0110002 1.5675677 1.7264602 0
5.0170002 1.5613391 1.7281811 0
5.0230002 1.555089 1.7299019 0
5.0290003 1.5488172 1.7316228 0
5.0350003 1.5425237 1.7333436 0
5.0410004 1.5362086 1.7350645 0
5.0470004 1.5298718 1.7367853 0
5.0530005 1.5235134 1.7385061 0
5.0590005 1.5171334 1.740227 0
5.0650005 1.5107317 1.7419478 0
5.0710001 1.5043081 1.7436686 0
5.0770001 1.4978632 1.7453893 0
5.0830002 1.4913965 1.7471101 0
5.0890002 1.4849083 1.748831 0
5.0960002 1.478723 1.7508386 0
5.1020002 1.4721895 1.7525595 0
5.1080003 1.4656346 1.7542803 0
5.1140003 1.4590579 1.7560012 0
5.1200004 1.4524596 1.757722 0
5.1260004 1.4458396 1.7594428 0
5.1330004 1.4395119 1.7614505 0
5.1390004 1.4328468 1.7631713 0
4.375 2.2412739 1.5368818 0
4.3800001 2.2369721 1.5383068 0
4.3840003 2.23208 1.5394468 0
4.3889999 2.2277436 1.5408719 0
4.3930001 2.222821 1.5420119 0
4.3970003 2.2178841 1.5431519 0
4.4020004 2.2134972 1.5445769 0
4.4060001 2.2085295 1.5457168 0
4.4110003 2.2041082 1.5471419 0
4.4150004 2.19911 1.5482819 0
4.4200001 2.1946545 1.5497068 0
4.4240003 2.1896255 1.5508469 0
4.4290004 2.1851358 1.5522718 0
4.4330001 2.1800761 1.5534118 0
4.4380002 2.1755521 1.5548369 0
4.4420004 2.1704619 1.555977 0
4.4470005 2.1659036 1.557402 0
4.4510002 2.1607823 1.558542 0
4.4560003 2.1561902 1.5599669 0
4.4600005 2.1510386 1.5611069 0
4.4650002 2.1464117 1.5625319 0
4.4700003 2.141767 1.5639569 0
4.4740005 2.1365685 1.5650971 0
4.4790001 2.1318891 1.5665219 0
4.4830003 2.1266601 1.567662 0
4.4880004 2.1219466 1.569087 0
4.4930005 2.1172154 1.5705121 0
4.4970002 2.111939 1.5716521 0
4.5020003 2.1071734 1.573077 0
4.5070004 2.1023898 1.5745021 0
4.5110002 2.0970666 1.575642 0
4.5160003 2.0922487 1.577067 0
4.5210004 2.0874126 1.578492 0
4.5260005 2.0825589 1.5799172 0
4.5300002 2.0771725 1.5810571 0
4.5350003 2.0722842 1.5824821 0
4.5400004 2.0673778 1.5839071 0
4.5450001 2.0624533 1.585332 0
4.5490003 2.057004 1.5864722 0
4.5540004 2.0520456 1.5878971 0
4.5590005 2.0470688 1.5893222 0
4.5640001 2.042074 1.590747 0
4.5690002 2.037061 1.5921721 0
4.5730004 2.0315325 1.5933121 0
4.5780001 2.0264852 1.5947372 0
4.5830002 2.0214202 1.5961621 0
4.5880003 2.0163374 1.5975872 0
4.5930004 2.0112362 1.5990123 0
4.5980005 2.0061169 1.6004373 0
4.6030002 2.0009797 1.6018622 0
4.6070004 1.9953392 1.6030022 0
4.6120005 1.9901676 1.6044272 0
4.6170001 1.984978 1.6058521 0
4.6220002 1.9797704 1.6072773 0
4.6270003 1.9745448 1.6087022 0
4.6320004 1.9693012 1.6101273 0
4.6370001 1.9640393 1.6115521 0
4.6420002 1.9587598 1.6129773 0
4.6470003 1.9534619 1.6144023 0
4.6520004 1.9481462 1.6158273 0
4.6570001 1.9428121 1.6172522 0
4.6620002 1.9374603 1.6186773 0
4.6670003 1.9320903 1.6201023 0
4.6720004 1.9267025 1.6215274 0
4.6770005 1.9212965 1.6229523 0
4.6830001 1.9163303 1.6246623 0
4.6880002 1.9108865 1.6260873 0
4.6930003 1.9054247 1.6275123 0
4.6980004 1.8999448 1.6289374 0
4.7030001 1.8944466 1.6303624 0
4.7080002 1.8889306 1.6317873 0
4.7130003 1.8833965 1.6332124 0
4.7180004 1.8778445 1.6346375 0
4.7240005 1.8727181 1.6363475 0
4.7290001 1.8671279 1.6377723 0
4.7340002 1.8615198 1.6391975 0
4.7390003 1.855894 1.6406224 0
4.7450004 1.8506864 1.6423326 0
4.7500005 1.8450224 1.6437575 0
4.7550001 1.8393402 1.6451825 0
4.7600002 1.8336403 1.6466074 0
4.7660003 1.8283515 1.6483175 0
4.7710004 1.8226138 1.6497425 0
4.7760005 1.8168578 1.6511676 0
4.7810001 1.8110837 1.6525924 0
4.7870002 1.8057137 1.6543025 0
4.7920003 1.799902 1.6557275 0
4.7980003 1.7944905 1.6574376 0
4.8030005 1.7886407 1.6588626 0
4.8080001 1.7827729 1.6602875 0
4.8140001 1.7773001 1.6619974 0
4.8190002 1.7713945 1.6634226 0
4.8250003 1.7658802 1.6651325 0
4.8300004 1.7599367 1.6665577 0
4.8350005 1.7539753 1.6679826 0
4.8410001 1.7483995 1.6696925 0
4.8460002 1.7424001 1.6711175 0
4.8520002 1.736783 1.6728276 0
4.8570004 1.7307458 1.6742526 0
4.8630004 1.7250872 1.6759627 0
4.8680005 1.7190119 1.6773877 0
4.8740001 1.7133118 1.6790975 0
4.8800001 1.7075902 1.6808077 0
4.8850002 1.7014571 1.6822326 0
4.8910003 1.6956941 1.6839427 0
4.8960004 1.6895232 1.6853677 0
4.9020004 1.6837187 1.6870778 0
4.9080005 1.6778924 1.6887877 0
4.9130001 1.6716636 1.6902127 0
4.9190001 1.6657959 1.6919227 0
4.9250002 1.6599065 1.6936327 0
4.9300003 1.6536202 1.6950577 0
4.9360003 1.6476893 1.6967678 0
4.9420004 1.6417367 1.6984777 0
4.9470005 1.6353928 1.6999029 0
4.9530005 1.6293988 1.7016128 0
4.9590001 1.6233829 1.7033228 0
4.9650002 1.6173456 1.7050328 0
4.9700003 1.610924 1.7064577 0
4.9760003 1.6048453 1.7081679 0
4.9820004 1.5987449 1.7098778 0
4.9880004 1.5926228 1.7115879 0
4.9940004 1.5864789 1.7132978 0
5.0000005 1.5803136 1.7150079 0
5.0060005 1.5741266 1.716718 0
5.0110002 1.5675677 1.7181429 0
5.0170002 1.5613391 1.7198529 0
5.0230002 1.555089 1.7215629 0
5.0290003 1.5488172 1.7232729 0
5.0350003 1.5425237 1.7249829 0
5.0410004 1.5362086 1.7266929 0
5.0470004 1.5298718 1.728403 0
5.0530005 1.5235134 1.730113 0
5.0590005 1.5171334 1.7318231 0
5.0650005 1.5107317 1.733533 0
5.0710001 1.5043081 1.735243 0
5.0770001 1.4978632 1.7369529 0
5.0830002 1.4913965 1.738663 0
5.0890002 1.4849083 1.7403729 0
5.0960002 1.478723 1.742368 0
5.1020002 1.4721895 1.744078 0
5.1080003 1.4656346 1.745788 0
5.1140003 1.4590579 1.747498 0
5.1200004 1.4524596 1.7492081 0
5.1260004 1.4458396 1.7509181 0
5.1330004 1.4395119 1.7529131 0
5.1390004 1.4328468 1.7546231 0
4.375 2.2412739 1.5297116 0
4.3800001 2.2369721 1.5311277 0
4.3840003 2.23208 1.5322604 0
4.3889999 2.2277436 1.5336764 0
4.3930001 2.222821 1.5348092 0
4.3970003 2.2178841 1.5359421 0
4.4020004 2.2134972 1.537358 0
4.4060001 2.2085295 1.5384908 0
4.4110003 2.2041082 1.5399069 0
4.4150004 2.19911 1.5410396 0
4.4200001 2.1946545 1.5424556 0
4.4240003 2.1896255 1.5435883 0
4.4290004 2.1851358 1.5450044 0
4.4330001 2.1800761 1.546137 0
4.4380002 2.1755521 1.5475531 0
4.4420004 2.1704619 1.548686 0
4.4470005 2.1659036 1.550102 0
4.4510002 2.1607823 1.5512347 0
4.4560003 2.1561902 1.5526507 0
4.4600005 2.1510386 1.5537835 0
4.4650002 2.1464117 1.5551995 0
4.4700003 2.141767 1.5566155 0
4.4740005 2.1365685 1.5577483 0
4.4790001 2.1318891 1.5591642 0
4.4830003 2.1266601 1.560297 0
4.4880004 2.1219466 1.5617131 0
4.4930005 2.1172154 1.5631291 0
4.4970002 2.111939 1.5642618 0
4.5020003 2.1071734 1.5656778 0
4.5070004 2.1023898 1.5670938 0
4.5110002 2.0970666 1.5682266 0
4.5160003 2.0922487 1.5696425 0
4.5210004 2.0874126 1.5710586 0
4.5260005 2.0825589 1.5724746 0
4.5300002 2.0771725 1.5736073 0
4.5350003 2.0722842 1.5750233 0
4.5400004 2.0673778 1.5764394 0
4.5450001 2.0624533 1.5778552 0
4.5490003 2.057004 1.5789881 0
4.5540004 2.0520456 1.5804042 0
4.5590005 2.0470688 1.5818201 0
4.5640001 2.042074 1.583236 0
4.5690002 2.037061 1.5846521 0
4.5730004 2.0315325 1.5857849 0
4.5780001 2.0264852 1.5872008 0
4.5830002 2.0214202 1.5886168 0
4.5880003 2.0163374 1.5900328 0
4.5930004 2.0112362 1.5914488 0
4.5980005 2.0061169 1.5928649 0
4.6030002 2.0009797 1.5942808 0
4.6070004 1.9953392 1.5954136 0
4.6120005 1.9901676 1.5968297 0
4.6170001 1.984978 1.5982455 0
4.6220002 1.9797704 1.5996615 0
4.6270003 1.9745448 1.6010776 0
4.6320004 1.9693012 1.6024936 0
4.6370001 1.9640393 1.6039094 0
4.6420002 1.9587598 1.6053255 0
4.6470003 1.9534619 1.6067415 0
4.6520004 1.9481462 1.6081575 0
4.6570001 1.9428121 1.6095734 0
4.6620002 1.9374603 1.6109895 0
4.6670003 1.9320903 1.6124054 0
4.6720004 1.9267025 1.6138215 0
4.6770005 1.9212965 1.6152375 0
4.6830001 1.9163303 1.6169364 0
4.6880002 1.9108865 1.6183525 0
4.6930003 1.9054247 1.6197686 0
4.6980004 1.8999448 1.6211847 0
4.7030001 1.8944466 1.6226004 0
4.7080002 1.8889306 1.6240165 0
4.7130003 1.8833965 1.6254326 0
4.7180004 1.8778445 1.6268486 0
4.7240005 1.8727181 1.6285478 0
4.7290001 1.8671279 1.6299636 0
4.7340002 1.8615198 1.6313796 0
4.7390003 1.855894 1.6327957 0
4.7450004 1.8506864 1.6344949 0
4.7500005 1.8450224 1.635911 0
4.7550001 1.8393402 1.6373268 0
4.7600002 1.8336403 1.6387428 0
4.7660003 1.8283515 1.640442 0
4.7710004 1.8226138 1.6418581 0
4.7760005 1.8168578 1.6432741 0
4.7810001 1.8110837 1.64469 0
4.7870002 1.8057137 1.6463892 0
4.7920003 1.799902 1.6478051 0
4.7980003 1.7944905 1.6495043 0
4.8030005 1.7886407 1.6509204 0
4.8080001 1.7827729 1.6523362 0
4.8140001 1.7773001 1.6540354 0
4.8190002 1.7713945 1.6554515 0
4.8250003 1.7658802 1.6571507 0
4.8300004 1.7599367 1.6585668 0
4.8350005 1.7539753 1.6599827 0
4.8410001 1.7483995 1.6616818 0
4.8460002 1.7424001 1.6630979 0
4.8520002 1.736783 1.6647971 0
4.8570004 1.7307458 1.666213 0
4.8630004 1.7250872 1.6679122 0
4.8680005 1.7190119 1.6693283 0
4.8740001 1.7133118 1.6710273 0
4.8800001 1.7075902 1.6727265 0
4.8850002 1.7014571 1.6741426 0
4.8910003 1.6956941 1.6758418 0
4.8960004 1.6895232 1.6772578 0
4.9020004 1.6837187 1.678957 0
4.9080005 1.6778924 1.6806562 0
4.9130001 1.6716636 1.682072 0
4.9190001 1.6657959 1.6837714 0
4.9250002 1.6599065 1.6854705 0
4.9300003 1.6536202 1.6868864 0
4.9360003 1.6476893 1.6885856 0
4.9420004 1.6417367 1.690285 0
4.9470005 1.6353928 1.6917009 0
4.9530005 1.6293988 1.6934 0
4.9590001 1.6233829 1.6950992 0
4.9650002 1.6173456 1.6967984 0
4.9710002 1.6112866 1.6984977 0
4.9760003 1.6048453 1.6999135 0
4.9820004 1.5987449 1.7016127 0
4.9880004 1.5926228 1.703312 0
4.9940004 1.5864789 1.7050112 0
5.0000005 1.5803136 1.7067105 0
5.0060005 1.5741266 1.7084097 0
5.0110002 1.5675677 1.7098255 0
5.0170002 1.5613391 1.7115247 0
5.0230002 1.555089 1.7132239 0
5.0290003 1.5488172 1.7149231 0
5.0350003 1.5425237 1.7166222 0
5.0410004 1.5362086 1.7183214 0
5.0470004 1.5298718 1.7200207 0
5.0530005 1.5235134 1.7217199 0
5.0590005 1.5171334 1.7234191 0
5.0650005 1.5107317 1.7251183 0
5.0710001 1.5043081 1.7268173 0
5.0770001 1.4978632 1.7285166 0
5.0830002 1.4913965 1.7302158 0
5.0890002 1.4849083 1.731915 0
5.0960002 1.478723 1.7338973 0
5.1020002 1.4721895 1.7355965 0
5.1080003 1.4656346 1.7372956 0
5.1140003 1.4590579 1.7389948 0
5.1200004 1.4524596 1.740694 0
5.1260004 1.4458396 1.7423934 0
5.1330004 1.4395119 1.7443757 0
5.1390004 1.4328468 1.7460749 0
4.375 2.2412739 1.5225415 0
4.3800001 2.2369721 1.5239486 0
4.3840003 2.23208 1.5250741 0
4.3889999 2.2277436 1.526481 0
4.3930001 2.222821 1.5276066 0
4.3970003 2.2178841 1.5287322 0
4.4020004 2.2134972 1.5301392 0
4.4060001 2.2085295 1.5312648 0
4.4110003 2.2041082 1.5326717 0
4.4150004 2.19911 1.5337973 0
4.4200001 2.1946545 1.5352042 0
4.4240003 2.1896255 1.5363299 0
4.4290004 2.1851358 1.5377369 0
4.4330001 2.1800761 1.5388623 0
4.4380002 2.1755521 1.5402694 0
4.4420004 2.1704619 1.5413949 0
4.4470005 2.1659036 1.542802 0
4.4510002 2.1607823 1.5439274 0
4.4560003 2.1561902 1.5453345 0
4.4600005 2.1510386 1.54646 0
4.4650002 2.1464117 1.5478669 0
4.4700003 2.141767 1.549274 0
4.4740005 2.1365685 1.5503997 0
4.4790001 2.1318891 1.5518064 0
4.4830003 2.1266601 1.552932 0
4.4880004 2.1219466 1.5543391 0
4.4930005 2.1172154 1.5557461 0
4.4970002 2.111939 1.5568715 0
4.5020003 2.1071734 1.5582786 0
4.5070004 2.1023898 1.5596856 0
4.5110002 2.0970666 1.5608112 0
4.5160003 2.0922487 1.5622181 0
4.5210004 2.0874126 1.5636251 0
4.5260005 2.0825589 1.5650321 0
4.5300002 2.0771725 1.5661576 0
4.5350003 2.0722842 1.5675646 0
4.5400004 2.0673778 1.5689715 0
4.5450001 2.0624533 1.5703784 0
4.5490003 2.057004 1.5715041 0
4.5540004 2.0520456 1.5729111 0
4.5590005 2.0470688 1.5743182 0
4.5640001 2.042074 1.575725 0
4.5690002 2.037061 1.577132 0
4.5730004 2.0315325 1.5782576 0
4.5780001 2.0264852 1.5796645 0
4.5830002 2.0214202 1.5810715 0
4.5880003 2.0163374 1.5824784 0
4.5930004 2.0112362 1.5838854 0
4.5980005 2.0061169 1.5852925 0
4.6030002 2.0009797 1.5866994 0
4.6070004 1.9953392 1.5878249 0
4.6120005 1.9901676 1.589232 0
4.6170001 1.984978 1.5906389 0
4.6220002 1.9797704 1.5920459 0
4.6270003 1.9745448 1.5934528 0
4.6320004 1.9693012 1.5948598 0
4.6370001 1.9640393 1.5962667 0
4.6420002 1.9587598 1.5976738 0
4.6470003 1.9534619 1.5990808 0
4.6520004 1.9481462 1.6004877 0
4.6570001 1.9428121 1.6018946 0
4.6620002 1.9374603 1.6033016 0
4.6670003 1.9320903 1.6047087 0
4.6720004 1.9267025 1.6061156 0
4.6770005 1.9212965 1.6075226 0
4.6830001 1.9163303 1.6092108 0
4.6880002 1.9108865 1.6106179 0
4.6930003 1.9054247 1.6120248 0
4.6980004 1.8999448 1.6134318 0
4.7030001 1.8944466 1.6148387 0
4.7080002 1.8889306 1.6162457 0
4.7130003 1.8833965 1.6176527 0
4.7180004 1.8778445 1.6190597 0
4.7240005 1.8727181 1.6207482 0
4.7290001 1.8671279 1.622155 0
4.7340002 1.8615198 1.623562 0
4.7390003 1.855894 1.624969 0
4.7450004 1.8506864 1.6266574 0
4.7500005 1.8450224 1.6280643 0
4.7550001 1.8393402 1.6294712 0
4.7600002 1.8336403 1.6308782 0
4.7660003 1.8283515 1.6325666 0
4.7710004 1.8226138 1.6339736 0
4.7760005 1.8168578 1.6353806 0
4.7810001 1.8110837 1.6367875 0
4.7870002 1.8057137 1.6384759 0
4.7920003 1.799902 1.6398829 0
4.7980003 1.7944905 1.6415712 0
4.8030005 1.7886407 1.6429782 0
4.8080001 1.7827729 1.6443851 0
4.8140001 1.7773001 1.6460735 0
4.8190002 1.7713945 1.6474805 0
4.8250003 1.7658802 1.6491688 0
4.8300004 1.7599367 1.6505759 0
4.8350005 1.7539753 1.6519828 0
4.8410001 1.7483995 1.6536711 0
4.8460002 1.7424001 1.6550781 0
4.8520002 1.736783 1.6567665 0
4.8570004 1.7307458 1.6581736 0
4.8630004 1.7250872 1.6598618 0
4.8680005 1.7190119 1.6612688 0
4.8740001 1.7133118 1.6629571 0
4.8800001 1.7075902 1.6646454 0
4.8850002 1.7014571 1.6660525 0
4.8910003 1.6956941 1.6677408 0
4.8960004 1.6895232 1.6691478 0
4.9020004 1.6837187 1.6708363 0
4.9080005 1.6778924 1.6725246 0
4.9130001 1.6716636 1.6739315 0
4.9190001 1.6657959 1.6756198 0
4.9250002 1.6599065 1.6773082 0
4.9300003 1.6536202 1.6787152 0
4.9360003 1.6476893 1.6804036 0
4.9420004 1.6417367 1.6820921 0
4.9470005 1.6353928 1.6834991 0
4.9530005 1.6293988 1.6851873 0
4.9590001 1.6233829 1.6868756 0
4.9650002 1.6173456 1.6885641 0
4.9710002 1.6112866 1.6902523 0
4.9760003 1.6048453 1.6916593 0
4.9820004 1.5987449 1.6933478 0
4.9880004 1.5926228 1.6950361 0
4.9940004 1.5864789 1.6967245 0
5.0000005 1.5803136 1.6984129 0
5.0060005 1.5741266 1.7001013 0
5.0110002 1.5675677 1.7015082 0
5.0170002 1.5613391 1.7031965 0
5.0230002 1.555089 1.7048849 0
5.0290003 1.5488172 1.7065732 0
5.0350003 1.5425237 1.7082616 0
5.0410004 1.5362086 1.70995 0
5.0470004 1.5298718 1.7116385 0
5.0530005 1.5235134 1.7133267 0
5.0590005 1.5171334 1.7150152 0
5.0650005 1.5107317 1.7167035 0
5.0710001 1.5043081 1.7183918 0
5.0770001 1.4978632 1.7200801 0
5.0830002 1.4913965 1.7217685 0
5.0890002 1.4849083 1.7234569 0
5.0960002 1.478723 1.7254266 0
5.1020002 1.4721895 1.727115 0
5.1080003 1.4656346 1.7288033 0
5.1140003 1.4590579 1.7304918 0
5.1200004 1.4524596 1.7321802 0
5.1260004 1.4458396 1.7338685 0
5.1330004 1.4395119 1.7358382 0
5.1390004 1.4328468 1.7375267 0
4.375 2.2412739 1.5153713 0
4.3800001 2.2369721 1.5167693 0
4.3840003 2.23208 1.5178877 0
4.3889999 2.2277436 1.5192856 0
4.3930001 2.222821 1.520404 0
4.3970003 2.2178841 1.5215224 0
4.4020004 2.2134972 1.5229204 0
4.4060001 2.2085295 1.5240387 0
4.4110003 2.2041082 1.5254366 0
4.4150004 2.19911 1.5265551 0
4.4200001 2.1946545 1.5279529 0
4.4240003 2.1896255 1.5290713 0
4.4290004 2.1851358 1.5304693 0
4.4330001 2.1800761 1.5315876 0
4.4380002 2.1755521 1.5329856 0
4.4420004 2.1704619 1.534104 0
4.4470005 2.1659036 1.535502 0
4.4510002 2.1607823 1.5366203 0
4.4560003 2.1561902 1.5380182 0
