# .PCD v0.7 - Point Cloud Data file format
VERSION 0.7
FIELDS x y z intensity
SIZE 4 4 4 4
TYPE F F F F
COUNT 1 1 1 1
WIDTH 1414
HEIGHT 1
VIEWPOINT 0 0 0 1 0 0 0
POINTS 1414
DATA ascii
3.7010002 -1.6298627 0.89821279 0
3.6990004 -1.6348538 0.89791334 0
3.6970003 -1.6398377 0.89761388 0
3.6950002 -1.6448145 0.89731455 0
3.6940002 -1.6502711 0.89716482 0
3.6940002 -1.6562127 0.89716482 0
3.6940002 -1.6621544 0.89716482 0
3.6960003 -1.6690811 0.89746428 0
3.6980002 -1.6760149 0.89776361 0
3.7010002 -1.683452 0.89821279 0
3.7050002 -1.6913977 0.89881164 0
3.7080002 -1.6988584 0.89926076 0
3.7120004 -1.7068312 0.89985967 0
3.7150002 -1.7143152 0.90030885 0
3.7190003 -1.7223151 0.9009077 0
3.7220004 -1.7298225 0.90135682 0
3.7260003 -1.7378495 0.90195572 0
3.7290003 -1.7453804 0.90240484 0
3.7330003 -1.7534343 0.90300369 0
3.7360003 -1.7609887 0.90345287 0
3.7400002 -1.7690698 0.90405166 0
3.7440002 -1.7771653 0.90465057 0
3.7470002 -1.7847557 0.90509975 0
3.7510002 -1.7928782 0.90569854 0
3.7540002 -1.800492 0.90614772 0
3.7580004 -1.8086418 0.90674663 0
3.7620003 -1.8168057 0.90734553 0
3.7650003 -1.8244557 0.90779459 0
3.7690003 -1.8326468 0.9083935 0
3.7730002 -1.8408523 0.90899241 0
3.7760003 -1.8485383 0.90944147 0
3.7800002 -1.856771 0.91004038 0
3.7840002 -1.8650179 0.91063929 0
3.7870002 -1.87274 0.91108835 0
3.7910004 -1.8810142 0.91168725 0
3.7950003 -1.8893027 0.91228604 0
3.7590003 -1.603161 0.90083736 0
3.7460003 -1.6031699 0.89891446 0
3.7370002 -1.6050007 0.89758325 0
3.7300003 -1.6077372 0.89654791 0
3.7240002 -1.6109191 0.8956604 0
3.7180002 -1.6140794 0.89477295 0
3.7130003 -1.6176924 0.89403337 0
3.7080002 -1.6212873 0.89329386 0
3.7050002 -1.6258203 0.89285004 0
3.7010002 -1.6298627 0.89225841 0
3.6990004 -1.6348538 0.89196265 0
3.6970003 -1.6398377 0.89166677 0
3.6950002 -1.6448145 0.89137095 0
3.6940002 -1.6502711 0.89122301 0
3.6940002 -1.6562127 0.89122301 0
3.6940002 -1.6621544 0.89122301 0
3.6960003 -1.6690811 0.89151895 0
3.6980002 -1.6760149 0.89181471 0
3.7010002 -1.683452 0.89225841 0
3.7050002 -1.6913977 0.89285004 0
3.7080002 -1.6988584 0.89329386 0
3.7120004 -1.7068312 0.89388549 0
3.7150002 -1.7143152 0.89432919 0
3.7190003 -1.7223151 0.89492083 0
3.7220004 -1.7298225 0.89536464 0
3.7260003 -1.7378495 0.89595628 0
3.7290003 -1.7453804 0.89639997 0
3.7330003 -1.7534343 0.89699167 0
3.7360003 -1.7609887 0.89743531 0
3.7400002 -1.7690698 0.898027 0
3.7440002 -1.7771653 0.89861864 0
3.7470002 -1.7847557 0.8990624 0
3.7510002 -1.7928782 0.89965403 0
3.7540002 -1.800492 0.90009779 0
3.7580004 -1.8086418 0.90068948 0
3.7610002 -1.8162789 0.90113312 0
3.7650003 -1.8244557 0.90172482 0
3.7690003 -1.8326468 0.90231645 0
3.7720003 -1.8403202 0.90276027 0
3.7760003 -1.8485383 0.90335184 0
3.7800002 -1.856771 0.90394348 0
3.7830002 -1.8644804 0.90438724 0
3.7870002 -1.87274 0.90497887 0
3.7910004 -1.8810142 0.90557051 0
3.7940001 -1.8887596 0.90601432 0
3.7550004 -1.6013066 0.89419395 0
3.7450004 -1.6027046 0.89273286 0
3.7370002 -1.6050007 0.89156395 0
3.7300003 -1.6077372 0.8905412 0
3.7240002 -1.6109191 0.88966453 0
3.7180002 -1.6140794 0.88878787 0
3.7130003 -1.6176924 0.88805735 0
3.7080002 -1.6212873 0.88732684 0
3.7050002 -1.6258203 0.8868885 0
3.7010002 -1.6298627 0.88630402 0
3.6990004 -1.6348538 0.88601184 0
3.6970003 -1.6398377 0.88571966 0
3.6950002 -1.6448145 0.88542742 0
3.6940002 -1.6502711 0.88528132 0
3.6940002 -1.6562127 0.88528132 0
3.6940002 -1.6621544 0.88528132 0
3.6960003 -1.6690811 0.88557351 0
3.6980002 -1.6760149 0.88586569 0
3.7010002 -1.683452 0.88630402 0
3.7050002 -1.6913977 0.8868885 0
3.7080002 -1.6988584 0.88732684 0
3.7120004 -1.7068312 0.88791132 0
3.7150002 -1.7143152 0.88834959 0
3.7190003 -1.7223151 0.88893402 0
3.7220004 -1.7298225 0.88937235 0
3.7260003 -1.7378495 0.88995677 0
3.7290003 -1.7453804 0.8903951 0
3.7330003 -1.7534343 0.89097953 0
3.7360003 -1.7609887 0.89141786 0
3.7400002 -1.7690698 0.89200228 0
3.7440002 -1.7771653 0.89258671 0
3.7470002 -1.7847557 0.89302504 0
3.7510002 -1.7928782 0.89360946 0
3.7540002 -1.800492 0.8940478 0
3.7580004 -1.8086418 0.89463222 0
3.7610002 -1.8162789 0.89507055 0
3.7650003 -1.8244557 0.89565504 0
3.7690003 -1.8326468 0.8962394 0
3.7720003 -1.8403202 0.89667773 0
3.7760003 -1.8485383 0.89726222 0
3.7800002 -1.856771 0.89784658 0
3.7830002 -1.8644804 0.89828491 0
3.7870002 -1.87274 0.8988694 0
3.7910004 -1.8810142 0.89945388 0
3.7940001 -1.8887596 0.89989209 0
3.7530003 -1.6003795 0.88785356 0
3.7440002 -1.6022391 0.88655484 0
3.7370002 -1.6050007 0.88554466 0
3.7310002 -1.608206 0.88467884 0
3.7240002 -1.6109191 0.88366866 0
3.7180002 -1.6140794 0.88280284 0
3.7130003 -1.6176924 0.88208133 0
3.7080002 -1.6212873 0.88135982 0
3.7050002 -1.6258203 0.88092685 0
3.7010002 -1.6298627 0.8803497 0
3.6990004 -1.6348538 0.88006109 0
3.6970003 -1.6398377 0.87977242 0
3.6950002 -1.6448145 0.87948382 0
3.6940002 -1.6502711 0.87933958 0
3.6940002 -1.6562127 0.87933958 0
3.6940002 -1.6621544 0.87933958 0
3.6960003 -1.6690811 0.87962818 0
3.6980002 -1.6760149 0.87991679 0
3.7010002 -1.683452 0.8803497 0
3.7050002 -1.6913977 0.88092685 0
3.7080002 -1.6988584 0.88135982 0
3.7120004 -1.7068312 0.88193703 0
3.7150002 -1.7143152 0.88237 0
3.7190003 -1.7223151 0.88294721 0
3.7220004 -1.7298225 0.88338006 0
3.7260003 -1.7378495 0.88395733 0
3.7290003 -1.7453804 0.88439023 0
3.7330003 -1.7534343 0.88496745 0
3.7360003 -1.7609887 0.88540035 0
3.7400002 -1.7690698 0.88597757 0
3.5350003 -1.6689675 0.85639513 0
3.5320003 -1.6730639 0.85596222 0
3.5350003 -1.6802773 0.85639513 0
3.7630002 -1.5989491 0.88323033 0
3.7520003 -1.5999159 0.88166285 0
3.7440002 -1.6022391 0.88052285 0
3.7370002 -1.6050007 0.87952536 0
3.7310002 -1.608206 0.87867033 0
3.7240002 -1.6109191 0.87767279 0
3.7180002 -1.6140794 0.87681782 0
3.7130003 -1.6176924 0.87610531 0
3.7080002 -1.6212873 0.87539279 0
3.7050002 -1.6258203 0.87496531 0
3.7010002 -1.6298627 0.87439537 0
3.6990004 -1.6348538 0.87411034 0
3.6970003 -1.6398377 0.87382531 0
3.6950002 -1.6448145 0.87354028 0
3.6940002 -1.6502711 0.87339783 0
3.6940002 -1.6562127 0.87339783 0
3.6940002 -1.6621544 0.87339783 0
3.6960003 -1.6690811 0.87368286 0
3.6980002 -1.6760149 0.87396783 0
3.7010002 -1.683452 0.87439537 0
3.7050002 -1.6913977 0.87496531 0
3.7080002 -1.6988584 0.87539279 0
3.7120004 -1.7068312 0.87596285 0
3.7150002 -1.7143152 0.87639034 0
3.7190003 -1.7223151 0.87696034 0
3.7220004 -1.7298225 0.87738788 0
3.5580003 -1.6580887 0.85401773 0
3.5520003 -1.6607114 0.85316271 0
3.5460002 -1.6633126 0.85230768 0
3.5410001 -1.6664077 0.85159516 0
3.5350003 -1.6689675 0.85074019 0
3.5320003 -1.6730639 0.85031271 0
3.5350003 -1.6802773 0.85074019 0
3.5380003 -1.6875017 0.85116768 0
3.5420003 -1.6952616 0.85173774 0
3.5450003 -1.7025093 0.85216522 0
3.5490003 -1.7102963 0.85273516 0
3.5520003 -1.7175674 0.85316271 0
3.5550003 -1.7248495 0.85359019 0
3.5590003 -1.7326761 0.85416019 0
3.5620003 -1.7399817 0.85458767 0
3.5660002 -1.7478353 0.85515773 0
3.5690002 -1.7551643 0.85558522 0
3.5720003 -1.7625039 0.8560127 0
3.5760002 -1.7703973 0.8565827 0
3.7600002 -1.5975636 0.87674212 0
3.7510002 -1.5994523 0.87547576 0
3.7430003 -1.6017737 0.87435025 0
3.7370002 -1.6050007 0.87350607 0
3.7310002 -1.608206 0.87266183 0
3.7240002 -1.6109191 0.87167692 0
3.7180002 -1.6140794 0.8708328 0
3.7130003 -1.6176924 0.87012929 0
3.7080002 -1.6212873 0.86942583 0
3.7050002 -1.6258203 0.86900377 0
3.7010002 -1.6298627 0.86844093 0
3.6990004 -1.6348538 0.86815953 0
3.6970003 -1.6398377 0.8678782 0
3.6950002 -1.6448145 0.86759675 0
3.6940002 -1.6502711 0.86745608 0
3.6940002 -1.6562127 0.86745608 0
3.6940002 -1.6621544 0.86745608 0
3.6960003 -1.6690811 0.86773747 0
3.6980002 -1.6760149 0.86801887 0
3.7010002 -1.683452 0.86844093 0
3.7050002 -1.6913977 0.86900377 0
3.7080002 -1.6988584 0.86942583 0
3.7120004 -1.7068312 0.86998868 0
3.7150002 -1.7143152 0.87041068 0
3.7190003 -1.7223151 0.87097347 0
3.7220004 -1.7298225 0.87139559 0
3.5640001 -1.6554441 0.84916544 0
3.5580003 -1.6580887 0.84832132 0
3.5520003 -1.6607114 0.84747708 0
3.5460002 -1.6633126 0.84663296 0
3.5410001 -1.6664077 0.84592938 0
3.5350003 -1.6689675 0.84508526 0
3.5320003 -1.6730639 0.84466314 0
3.5350003 -1.6802773 0.84508526 0
3.5380003 -1.6875017 0.84550738 0
3.5420003 -1.6952616 0.84607017 0
3.5450003 -1.7025093 0.84649217 0
3.5490003 -1.7102963 0.84705496 0
3.5520003 -1.7175674 0.84747708 0
3.5550003 -1.7248495 0.8478992 0
3.5590003 -1.7326761 0.84846199 0
3.5620003 -1.7399817 0.84888411 0
3.5660002 -1.7478353 0.84944689 0
3.5690002 -1.7551643 0.84986889 0
3.5720003 -1.7625039 0.85029101 0
3.5760002 -1.7703973 0.8508538 0
3.5790002 -1.7777605 0.85127592 0
3.5830002 -1.785681 0.85183871 0
3.5860002 -1.7930676 0.85226083 0
3.5900002 -1.8010151 0.85282362 0
3.5930002 -1.8084253 0.85324562 0
3.5970004 -1.8163999 0.85380852 0
3.6000001 -1.8238333 0.85423052 0
3.6040003 -1.8318352 0.85479331 0
3.6070004 -1.8392922 0.85521543 0
3.6110003 -1.8473209 0.85577822 0
3.6140003 -1.8548012 0.85620034 0
3.6180003 -1.862857 0.85676312 0
3.7700002 -1.5961026 0.87207019 0
3.7590003 -1.5971019 0.87054241 0
3.7500002 -1.5989887 0.86929238 0
3.7430003 -1.6017737 0.86832011 0
3.7370002 -1.6050007 0.86748672 0
3.7310002 -1.608206 0.86665332 0
3.7240002 -1.6109191 0.86568111 0
3.7180002 -1.6140794 0.86484778 0
3.7130003 -1.6176924 0.86415327 0
3.7080002 -1.6212873 0.86345881 0
3.7050002 -1.6258203 0.86304212 0
3.7010002 -1.6298627 0.8624866 0
3.6990004 -1.6348538 0.86220884 0
3.6970003 -1.6398377 0.86193103 0
3.6950002 -1.6448145 0.86165321 0
3.6940002 -1.6502711 0.86151433 0
3.6940002 -1.6562127 0.86151433 0
3.6940002 -1.6621544 0.86151433 0
3.6960003 -1.6690811 0.86179215 0
3.6980002 -1.6760149 0.8620699 0
3.7010002 -1.683452 0.8624866 0
3.7050002 -1.6913977 0.86304212 0
3.7080002 -1.6988584 0.86345881 0
3.7120004 -1.7068312 0.86401439 0
3.7150002 -1.7143152 0.86443108 0
3.7190003 -1.7223151 0.86498666 0
3.7220004 -1.7298225 0.86540335 0
3.5640001 -1.6554441 0.84345818 0
3.5580003 -1.6580887 0.84262484 0
3.5520003 -1.6607114 0.84179151 0
3.5460002 -1.6633126 0.84095812 0
3.5410001 -1.6664077 0.84026366 0
3.5350003 -1.6689675 0.83943033 0
3.5320003 -1.6730639 0.83901364 0
3.5350003 -1.6802773 0.83943033 0
3.5380003 -1.6875017 0.83984697 0
3.5420003 -1.6952616 0.8404026 0
3.5450003 -1.7025093 0.84081924 0
3.5490003 -1.7102963 0.84137481 0
3.5520003 -1.7175674 0.84179151 0
3.5550003 -1.7248495 0.84220815 0
3.5590003 -1.7326761 0.84276378 0
3.5620003 -1.7399817 0.84318042 0
3.5660002 -1.7478353 0.84373599 0
3.5690002 -1.7551643 0.84415269 0
3.5720003 -1.7625039 0.84456933 0
3.5760002 -1.7703973 0.8451249 0
3.5790002 -1.7777605 0.8455416 0
3.5830002 -1.785681 0.84609717 0
3.5860002 -1.7930676 0.84651387 0
3.5900002 -1.8010151 0.84706938 0
3.5930002 -1.8084253 0.84748614 0
3.5970004 -1.8163999 0.84804171 0
3.6000001 -1.8238333 0.84845835 0
3.6040003 -1.8318352 0.84901392 0
3.6070004 -1.8392922 0.84943068 0
3.6110003 -1.8473209 0.8499862 0
3.6140003 -1.8548012 0.85040283 0
3.6180003 -1.862857 0.85095847 0
3.6210003 -1.8703609 0.8513751 0
3.6250002 -1.8784437 0.85193074 0
3.6280003 -1.885971 0.85234737 0
3.7670002 -1.5947226 0.86558008 0
3.7570002 -1.5961783 0.86420918 0
3.7500002 -1.5989887 0.86324954 0
3.7440002 -1.6022391 0.86242706 0
3.7380002 -1.6054679 0.86160451 0
3.7310002 -1.608206 0.86064488 0
3.7240002 -1.6109191 0.8596853 0
3.7180002 -1.6140794 0.8588627 0
3.7130003 -1.6176924 0.8581773 0
3.7080002 -1.6212873 0.85749185 0
3.7050002 -1.6258203 0.85708058 0
3.7010002 -1.6298627 0.85653222 0
3.6990004 -1.6348538 0.85625803 0
3.6970003 -1.6398377 0.85598385 0
3.6950002 -1.6448145 0.85570967 0
3.6940002 -1.6502711 0.85557258 0
3.6940002 -1.6562127 0.85557258 0
3.6940002 -1.6621544 0.85557258 0
3.6960003 -1.6690811 0.85584676 0
3.6980002 -1.6760149 0.85612094 0
3.7010002 -1.683452 0.85653222 0
3.7050002 -1.6913977 0.85708058 0
3.7080002 -1.6988584 0.85749185 0
3.7120004 -1.7068312 0.85804021 0
3.7150002 -1.7143152 0.85845149 0
3.7190003 -1.7223151 0.85899985 0
3.7220004 -1.7298225 0.85941112 0
3.5640001 -1.6554441 0.83775091 0
3.5580003 -1.6580887 0.83692843 0
3.5520003 -1.6607114 0.83610588 0
3.5460002 -1.6633126 0.83528334 0
3.5410001 -1.6664077 0.83459789 0
3.5350003 -1.6689675 0.8337754 0
3.5320003 -1.6730639 0.83336413 0
3.5350003 -1.6802773 0.8337754 0
3.5380003 -1.6875017 0.83418667 0
3.5420003 -1.6952616 0.83473504 0
3.5450003 -1.7025093 0.83514631 0
3.5490003 -1.7102963 0.83569461 0
3.5520003 -1.7175674 0.83610588 0
3.5550003 -1.7248495 0.83651716 0
3.5590003 -1.7326761 0.83706552 0
3.5620003 -1.7399817 0.83747679 0
3.5660002 -1.7478353 0.83802515 0
3.5690002 -1.7551643 0.83843637 0
3.5720003 -1.7625039 0.83884764 0
3.5760002 -1.7703973 0.839396 0
3.5790002 -1.7777605 0.83980727 0
3.5830002 -1.785681 0.84035563 0
3.5860002 -1.7930676 0.84076691 0
3.5900002 -1.8010151 0.84131527 0
3.5930002 -1.8084253 0.84172654 0
3.5970004 -1.8163999 0.8422749 0
3.6000001 -1.8238333 0.84268618 0
3.6040003 -1.8318352 0.84323454 0
3.6070004 -1.8392922 0.84364581 0
3.6110003 -1.8473209 0.84419417 0
3.6140003 -1.8548012 0.84460545 0
3.6180003 -1.862857 0.84515381 0
3.6210003 -1.8703609 0.84556508 0
3.6250002 -1.8784437 0.84611344 0
3.6280003 -1.885971 0.84652472 0
3.6320002 -1.894081 0.84707302 0
3.7780004 -1.5936892 0.86099482 0
3.7660003 -1.5942627 0.85937142 0
3.7570002 -1.5961783 0.85815382 0
3.7500002 -1.5989887 0.85720682 0
3.7440002 -1.6022391 0.85639513 0
3.7390003 -1.6059352 0.85571873 0
3.7310002 -1.608206 0.85463643 0
3.7240002 -1.6109191 0.85368943 0
3.7180002 -1.6140794 0.85287768 0
3.7130003 -1.6176924 0.85220128 0
3.7080002 -1.6212873 0.85152483 0
3.7050002 -1.6258203 0.85111892 0
3.7010002 -1.6298627 0.85057783 0
3.6990004 -1.6348538 0.85030729 0
3.6970003 -1.6398377 0.85003668 0
3.6950002 -1.6448145 0.84976614 0
3.6940002 -1.6502711 0.84963083 0
3.6940002 -1.6562127 0.84963083 0
3.6940002 -1.6621544 0.84963083 0
3.6960003 -1.6690811 0.84990144 0
3.6980002 -1.6760149 0.85017198 0
3.7010002 -1.683452 0.85057783 0
3.7050002 -1.6913977 0.85111892 0
3.7080002 -1.6988584 0.85152483 0
3.7120004 -1.7068312 0.85206604 0
3.7150002 -1.7143152 0.85247183 0
3.7190003 -1.7223151 0.85301298 0
3.7220004 -1.7298225 0.85341883 0
3.5640001 -1.6554441 0.83204371 0
3.5580003 -1.6580887 0.83123201 0
3.5520003 -1.6607114 0.83042026 0
3.5460002 -1.6633126 0.82960856 0
3.5410001 -1.6664077 0.82893211 0
3.5350003 -1.6689675 0.82812047 0
3.5320003 -1.6730639 0.82771456 0
3.5350003 -1.6802773 0.82812047 0
3.5380003 -1.6875017 0.82852626 0
3.5420003 -1.6952616 0.82906741 0
3.5450003 -1.7025093 0.82947326 0
3.5490003 -1.7102963 0.83001447 0
3.5520003 -1.7175674 0.83042026 0
3.5550003 -1.7248495 0.83082616 0
3.5590003 -1.7326761 0.83136725 0
3.5620003 -1.7399817 0.83177316 0
3.5660002 -1.7478353 0.83231425 0
3.5690002 -1.7551643 0.83272016 0
3.5720003 -1.7625039 0.83312595 0
3.5760002 -1.7703973 0.83366716 0
3.5790002 -1.7777605 0.83407295 0
3.5830002 -1.785681 0.83461416 0
3.5860002 -1.7930676 0.83502001 0
3.5900002 -1.8010151 0.83556116 0
3.5930002 -1.8084253 0.83596694 0
3.5970004 -1.8163999 0.83650815 0
3.6000001 -1.8238333 0.83691394 0
3.6040003 -1.8318352 0.83745515 0
3.6070004 -1.8392922 0.837861 0
3.6110003 -1.8473209 0.83840215 0
3.6140003 -1.8548012 0.838808 0
3.6180003 -1.862857 0.83934915 0
3.6210003 -1.8703609 0.839755 0
3.6250002 -1.8784437 0.84029615 0
3.6280003 -1.885971 0.84070194 0
3.6320002 -1.894081 0.84124315 0
3.6350002 -1.9016317 0.841649 0
3.7740002 -1.5918565 0.85436761 0
3.7640002 -1.5933428 0.85303283 0
3.7570002 -1.5961783 0.85209846 0
3.7500002 -1.5989887 0.8511641 0
3.7440002 -1.6022391 0.85036314 0
3.7400002 -1.6064024 0.84982926 0
3.7310002 -1.608206 0.84862792 0
3.7240002 -1.6109191 0.84769356 0
3.7180002 -1.6140794 0.84689265 0
3.7130003 -1.6176924 0.84622526 0
3.7080002 -1.6212873 0.84555781 0
3.7050002 -1.6258203 0.84515738 0
3.7010002 -1.6298627 0.84462345 0
3.6990004 -1.6348538 0.84435654 0
3.6970003 -1.6398377 0.84408951 0
3.6950002 -1.6448145 0.8438226 0
3.6940002 -1.6502711 0.84368908 0
3.6940002 -1.6562127 0.84368908 0
3.6940002 -1.6621544 0.84368908 0
3.6960003 -1.6690811 0.84395611 0
3.6980002 -1.6760149 0.84422302 0
3.7010002 -1.683452 0.84462345 0
3.7050002 -1.6913977 0.84515738 0
3.7080002 -1.6988584 0.84555781 0
3.7120004 -1.7068312 0.84609175 0
3.7150002 -1.7143152 0.84649217 0
3.7190003 -1.7223151 0.84702611 0
3.7220004 -1.7298225 0.84742659 0
3.5640001 -1.6554441 0.82633644 0
3.5580003 -1.6580887 0.82553554 0
3.5520003 -1.6607114 0.82473469 0
3.5460002 -1.6633126 0.82393378 0
3.5410001 -1.6664077 0.82326639 0
3.5350003 -1.6689675 0.82246554 0
3.5320003 -1.6730639 0.82206506 0
3.5350003 -1.6802773 0.82246554 0
3.5380003 -1.6875017 0.82286596 0
3.5420003 -1.6952616 0.8233999 0
3.5450003 -1.7025093 0.82380033 0
3.5490003 -1.7102963 0.82433426 0
3.5520003 -1.7175674 0.82473469 0
3.5550003 -1.7248495 0.82513511 0
3.5590003 -1.7326761 0.82566905 0
3.5620003 -1.7399817 0.82606947 0
3.5660002 -1.7478353 0.82660341 0
3.5690002 -1.7551643 0.82700384 0
3.5720003 -1.7625039 0.82740432 0
3.5760002 -1.7703973 0.8279382 0
3.5790002 -1.7777605 0.82833868 0
3.5830002 -1.785681 0.82887256 0
3.5860002 -1.7930676 0.82927305 0
3.5900002 -1.8010151 0.82980692 0
3.5930002 -1.8084253 0.83020747 0
3.5970004 -1.8163999 0.83074141 0
3.6000001 -1.8238333 0.83114183 0
3.6040003 -1.8318352 0.83167577 0
3.6070004 -1.8392922 0.83207619 0
3.6110003 -1.8473209 0.83261013 0
3.6140003 -1.8548012 0.83301055 0
3.6180003 -1.862857 0.83354449 0
3.6210003 -1.8703609 0.83394492 0
3.6250002 -1.8784437 0.83447886 0
3.6280003 -1.885971 0.83487928 0
3.6320002 -1.894081 0.83541322 0
3.6350002 -1.9016317 0.83581364 0
3.7850003 -1.5907904 0.84973001 0
3.7730002 -1.5913984 0.8481499 0
3.7640002 -1.5933428 0.84696484 0
3.7560003 -1.5957166 0.84591138 0
3.7500002 -1.5989887 0.84512126 0
3.7450004 -1.6027046 0.84446293 0
3.7400002 -1.6064024 0.84380454 0
3.7310002 -1.608206 0.84261942 0
3.7240002 -1.6109191 0.84169769 0
3.7180002 -1.6140794 0.84090757 0
3.7130003 -1.6176924 0.84024924 0
3.7080002 -1.6212873 0.83959085 0
3.7050002 -1.6258203 0.83919579 0
3.7010002 -1.6298627 0.83866906 0
3.6990004 -1.6348538 0.83840573 0
3.6970003 -1.6398377 0.8381424 0
3.6950002 -1.6448145 0.837879 0
3.6940002 -1.6502711 0.83774734 0
3.6940002 -1.6562127 0.83774734 0
3.6940002 -1.6621544 0.83774734 0
3.6960003 -1.6690811 0.83801073 0
3.6980002 -1.6760149 0.83827406 0
3.7010002 -1.683452 0.83866906 0
3.7050002 -1.6913977 0.83919579 0
3.7080002 -1.6988584 0.83959085 0
3.7120004 -1.7068312 0.84011757 0
3.7150002 -1.7143152 0.84051257 0
3.7190003 -1.7223151 0.8410393 0
3.7220004 -1.7298225 0.84143436 0
3.5640001 -1.6554441 0.82062918 0
3.5580003 -1.6580887 0.81983912 0
3.5520003 -1.6607114 0.81904906 0
3.5460002 -1.6633126 0.818259 0
3.5410001 -1.6664077 0.81760061 0
3.5350003 -1.6689675 0.81681055 0
3.5320003 -1.6730639 0.81641555 0
3.5350003 -1.6802773 0.81681055 0
3.5380003 -1.6875017 0.81720561 0
3.5420003 -1.6952616 0.81773233 0
3.5450003 -1.7025093 0.81812733 0
3.5490003 -1.7102963 0.81865406 0
3.5520003 -1.7175674 0.81904906 0
3.5550003 -1.7248495 0.81944412 0
3.5590003 -1.7326761 0.81997085 0
3.5620003 -1.7399817 0.82036591 0
3.5660002 -1.7478353 0.82089257 0
3.5690002 -1.7551643 0.82128763 0
3.5720003 -1.7625039 0.82168263 0
3.5760002 -1.7703973 0.82220936 0
3.5790002 -1.7777605 0.82260442 0
3.5830002 -1.785681 0.82313108 0
3.5860002 -1.7930676 0.82352614 0
3.5900002 -1.8010151 0.82405281 0
3.5930002 -1.8084253 0.82444787 0
3.5970004 -1.8163999 0.8249746 0
3.6000001 -1.8238333 0.8253696 0
3.6040003 -1.8318352 0.82589632 0
3.6070004 -1.8392922 0.82629138 0
3.6110003 -1.8473209 0.82681811 0
3.6140003 -1.8548012 0.82721311 0
3.6180003 -1.862857 0.82773983 0
3.6210003 -1.8703609 0.82813489 0
3.6250002 -1.8784437 0.82866156 0
3.6280003 -1.885971 0.82905662 0
3.6320002 -1.894081 0.82958329 0
3.6350002 -1.9016317 0.82997835 0
3.7820003 -1.5894214 0.84323454 0
3.7710001 -1.5904819 0.84180593 0
3.7630002 -1.5928829 0.84076691 0
3.7570002 -1.5961783 0.83998764 0
3.7510002 -1.5994523 0.83920842 0
3.7460003 -1.6031699 0.83855903 0
3.7400002 -1.6064024 0.83777982 0
3.7310002 -1.608206 0.83661091 0
3.7240002 -1.6109191 0.83570182 0
3.7180002 -1.6140794 0.83492255 0
3.7130003 -1.6176924 0.83427322 0
3.7080002 -1.6212873 0.83362389 0
3.7050002 -1.6258203 0.83323419 0
3.7010002 -1.6298627 0.83271474 0
3.6990004 -1.6348538 0.83245498 0
3.6970003 -1.6398377 0.83219528 0
3.6950002 -1.6448145 0.83193547 0
3.6940002 -1.6502711 0.83180559 0
3.6940002 -1.6562127 0.83180559 0
3.6940002 -1.6621544 0.83180559 0
3.6960003 -1.6690811 0.83206534 0
3.6980002 -1.6760149 0.8323251 0
3.7010002 -1.683452 0.83271474 0
3.7050002 -1.6913977 0.83323419 0
3.7080002 -1.6988584 0.83362389 0
3.7120004 -1.7068312 0.8341434 0
3.7150002 -1.7143152 0.83453298 0
3.7190003 -1.7223151 0.83505249 0
3.7220004 -1.7298225 0.83544207 0
3.5640001 -1.6554441 0.81492198 0
3.5580003 -1.6580887 0.8141427 0
3.5520003 -1.6607114 0.81336349 0
3.5460002 -1.6633126 0.81258422 0
3.5410001 -1.6664077 0.81193483 0
3.5350003 -1.6689675 0.81115562 0
3.5320003 -1.6730639 0.81076598 0
3.5350003 -1.6802773 0.81115562 0
3.5380003 -1.6875017 0.81154525 0
3.5420003 -1.6952616 0.81206477 0
3.5450003 -1.7025093 0.81245434 0
3.5490003 -1.7102963 0.81297386 0
3.5520003 -1.7175674 0.81336349 0
3.5550003 -1.7248495 0.81375313 0
3.5590003 -1.7326761 0.81427258 0
3.5620003 -1.7399817 0.81466222 0
3.5660002 -1.7478353 0.81518173 0
3.5690002 -1.7551643 0.81557131 0
3.5720003 -1.7625039 0.815961 0
3.5760002 -1.7703973 0.81648046 0
3.5790002 -1.7777605 0.81687009 0
3.5830002 -1.785681 0.81738961 0
3.5860002 -1.7930676 0.81777918 0
3.5900002 -1.8010151 0.8182987 0
3.5930002 -1.8084253 0.81868827 0
3.5970004 -1.8163999 0.81920779 0
3.6000001 -1.8238333 0.81959742 0
3.6040003 -1.8318352 0.82011694 0
3.6070004 -1.8392922 0.82050657 0
3.6110003 -1.8473209 0.82102609 0
3.6140003 -1.8548012 0.82141566 0
3.6180003 -1.862857 0.82193518 0
3.6210003 -1.8703609 0.82232481 0
3.6250002 -1.8784437 0.82284427 0
3.6280003 -1.885971 0.8232339 0
3.6320002 -1.894081 0.82375342 0
3.6350002 -1.9016317 0.82414305 0
3.6390002 -1.9097685 0.82466251 0
3.7800002 -1.5885085 0.83687794 0
3.7700002 -1.5900238 0.83559716 0
3.7630002 -1.5928829 0.8347007 0
3.7570002 -1.5961783 0.83393228 0
3.7520003 -1.5999159 0.83329195 0
3.7470002 -1.6036352 0.83265162 0
3.7400002 -1.6064024 0.8317551 0
3.7310002 -1.608206 0.83060247 0
3.7240002 -1.6109191 0.82970595 0
3.7180002 -1.6140794 0.82893753 0
3.7130003 -1.6176924 0.8282972 0
3.7080002 -1.6212873 0.82765687 0
3.7050002 -1.6258203 0.82727265 0
3.7010002 -1.6298627 0.82676035 0
3.6990004 -1.6348538 0.82650423 0
3.6970003 -1.6398377 0.82624805 0
3.6950002 -1.6448145 0.82599193 0
3.6940002 -1.6502711 0.82586384 0
3.6940002 -1.6562127 0.82586384 0
3.6940002 -1.6621544 0.82586384 0
3.6960003 -1.6690811 0.82612002 0
3.6980002 -1.6760149 0.82637614 0
3.7010002 -1.683452 0.82676035 0
3.7050002 -1.6913977 0.82727265 0
3.7080002 -1.6988584 0.82765687 0
3.7120004 -1.7068312 0.82816911 0
3.7150002 -1.7143152 0.82855332 0
3.7190003 -1.7223151 0.82906562 0
3.7220004 -1.7298225 0.82944983 0
3.5640001 -1.6554441 0.80921471 0
3.5580003 -1.6580887 0.80844629 0
3.5520003 -1.6607114 0.80767787 0
3.5460002 -1.6633126 0.80690944 0
3.5410001 -1.6664077 0.80626905 0
3.5350003 -1.6689675 0.80550069 0
3.5320003 -1.6730639 0.80511642 0
3.5350003 -1.6802773 0.80550069 0
3.5380003 -1.6875017 0.8058849 0
3.5420003 -1.6952616 0.8063972 0
3.5450003 -1.7025093 0.80678141 0
3.5490003 -1.7102963 0.80729365 0
3.5520003 -1.7175674 0.80767787 0
3.5550003 -1.7248495 0.80806208 0
3.5590003 -1.7326761 0.80857438 0
3.5620003 -1.7399817 0.80895859 0
3.5660002 -1.7478353 0.80947089 0
3.5690002 -1.7551643 0.80985504 0
3.5720003 -1.7625039 0.81023926 0
3.5760002 -1.7703973 0.81075156 0
3.5790002 -1.7777605 0.81113577 0
3.5830002 -1.785681 0.81164801 0
3.5860002 -1.7930676 0.81203222 0
3.5900002 -1.8010151 0.81254452 0
3.5930002 -1.8084253 0.81292874 0
3.5970004 -1.8163999 0.81344104 0
3.6000001 -1.8238333 0.81382525 0
3.6040003 -1.8318352 0.81433755 0
3.6070004 -1.8392922 0.81472176 0
3.6110003 -1.8473209 0.81523407 0
3.6140003 -1.8548012 0.81561828 0
3.6180003 -1.862857 0.81613052 0
3.6210003 -1.8703609 0.81651473 0
3.6250002 -1.8784437 0.81702697 0
3.6280003 -1.885971 0.81741124 0
3.6320002 -1.894081 0.81792355 0
3.6350002 -1.9016317 0.8183077 0
3.6390002 -1.9097685 0.81882 0
3.7890003 -1.5865027 0.83191741 0
3.7780004 -1.5875959 0.8305285 0
3.7700002 -1.5900238 0.82951838 0
3.7630002 -1.5928829 0.8286345 0
3.7570002 -1.5961783 0.82787693 0
3.7520003 -1.5999159 0.82724559 0
3.7480001 -1.6041006 0.8267405 0
3.7400002 -1.6064024 0.82573038 0
3.7310002 -1.608206 0.82459402 0
3.7240002 -1.6109191 0.82371008 0
3.7180002 -1.6140794 0.82295251 0
3.7130003 -1.6176924 0.82232118 0
3.7080002 -1.6212873 0.82168984 0
3.7050002 -1.6258203 0.821311 0
3.7010002 -1.6298627 0.82080597 0
3.6990004 -1.6348538 0.82055348 0
3.6970003 -1.6398377 0.82030094 0
3.6950002 -1.6448145 0.82004839 0
3.6940002 -1.6502711 0.81992209 0
3.6940002 -1.6562127 0.81992209 0
3.6940002 -1.6621544 0.81992209 0
3.6960003 -1.6690811 0.82017469 0
3.6980002 -1.6760149 0.82042718 0
3.7010002 -1.683452 0.82080597 0
3.7050002 -1.6913977 0.821311 0
3.7080002 -1.6988584 0.82168984 0
3.7120004 -1.7068312 0.82219493 0
3.7150002 -1.7143152 0.82257366 0
3.7190003 -1.7223151 0.82307875 0
3.7220004 -1.7298225 0.8234576 0
3.5640001 -1.6554441 0.80350745 0
3.5580003 -1.6580887 0.80274987 0
3.5520003 -1.6607114 0.8019923 0
3.5460002 -1.6633126 0.80123466 0
3.5410001 -1.6664077 0.80060327 0
3.5350003 -1.6689675 0.7998457 0
3.5320003 -1.6730639 0.79946697 0
3.5350003 -1.6802773 0.7998457 0
3.5380003 -1.6875017 0.80022454 0
3.5420003 -1.6952616 0.80072963 0
3.5450003 -1.7025093 0.80110836 0
3.5490003 -1.7102963 0.80161345 0
3.5520003 -1.7175674 0.8019923 0
3.5550003 -1.7248495 0.80237108 0
3.5590003 -1.7326761 0.80287611 0
3.5620003 -1.7399817 0.80325496 0
3.5660002 -1.7478353 0.80375999 0
3.5690002 -1.7551643 0.80413878 0
3.5720003 -1.7625039 0.80451763 0
3.5760002 -1.7703973 0.80502266 0
3.5790002 -1.7777605 0.80540144 0
3.5830002 -1.785681 0.80590653 0
3.5860002 -1.7930676 0.80628532 0
3.5900002 -1.8010151 0.80679035 0
3.5930002 -1.8084253 0.8071692 0
3.5970004 -1.8163999 0.80767429 0
3.6000001 -1.8238333 0.80805302 0
3.6040003 -1.8318352 0.80855811 0
3.6070004 -1.8392922 0.80893695 0
3.6110003 -1.8473209 0.80944204 0
3.6140003 -1.8548012 0.80982077 0
3.6180003 -1.862857 0.81032586 0
3.6210003 -1.8703609 0.81070471 0
3.6250002 -1.8784437 0.81120974 0
3.6280003 -1.885971 0.81158853 0
3.6320002 -1.894081 0.81209362 0
3.6350002 -1.9016317 0.8124724 0
3.6390002 -1.9097685 0.81297743 0
3.7870002 -1.5855936 0.82555538 0
3.7770002 -1.5871395 0.82431078 0
3.7700002 -1.5900238 0.82343954 0
3.7640002 -1.5933428 0.82269275 0
3.7580004 -1.5966402 0.82194602 0
3.7530003 -1.6003795 0.82132363 0
3.7490003 -1.6045661 0.82082582 0
3.7400002 -1.6064024 0.81970567 0
3.7310002 -1.608206 0.81858552 0
3.7240002 -1.6109191 0.81771421 0
3.7180002 -1.6140794 0.81696749 0
3.7130003 -1.6176924 0.81634521 0
3.7080002 -1.6212873 0.81572282 0
3.7050002 -1.6258203 0.81534946 0
3.7010002 -1.6298627 0.81485164 0
3.6990004 -1.6348538 0.81460273 0
3.6970003 -1.6398377 0.81435376 0
3.6950002 -1.6448145 0.8141048 0
3.6940002 -1.6502711 0.81398034 0
3.6940002 -1.6562127 0.81398034 0
3.6940002 -1.6621544 0.81398034 0
3.6960003 -1.6690811 0.81422931 0
3.6980002 -1.6760149 0.81447822 0
3.7010002 -1.683452 0.81485164 0
3.7050002 -1.6913977 0.81534946 0
3.7080002 -1.6988584 0.81572282 0
3.7120004 -1.7068312 0.8162207 0
3.7150002 -1.7143152 0.81659406 0
3.7190003 -1.7223151 0.81709194 0
3.7220004 -1.7298225 0.81746531 0
3.5640001 -1.6554441 0.79780018 0
3.5580003 -1.6580887 0.79705346 0
3.5520003 -1.6607114 0.79630661 0
3.5460002 -1.6633126 0.79555988 0
3.5410001 -1.6664077 0.79493755 0
3.5350003 -1.6689675 0.79419076 0
3.5320003 -1.6730639 0.7938174 0
3.5350003 -1.6802773 0.79419076 0
3.5380003 -1.6875017 0.79456419 0
3.5420003 -1.6952616 0.79506207 0
3.5450003 -1.7025093 0.79543543 0
3.5490003 -1.7102963 0.79593325 0
3.5520003 -1.7175674 0.79630661 0
3.5550003 -1.7248495 0.79668003 0
3.5590003 -1.7326761 0.79717791 0
3.5620003 -1.7399817 0.79755127 0
3.5660002 -1.7478353 0.79804915 0
3.5690002 -1.7551643 0.79842252 0
3.5720003 -1.7625039 0.79879594 0
3.5760002 -1.7703973 0.79929376 0
3.5790002 -1.7777605 0.79966712 0
3.5830002 -1.785681 0.800165 0
3.5860002 -1.7930676 0.80053842 0
3.5900002 -1.8010151 0.80103624 0
3.5930002 -1.8084253 0.8014096 0
3.5970004 -1.8163999 0.80190754 0
3.6000001 -1.8238333 0.8022809 0
3.6040003 -1.8318352 0.80277872 0
3.6070004 -1.8392922 0.80315208 0
3.6110003 -1.8473209 0.80365002 0
3.6140003 -1.8548012 0.80402339 0
3.6180003 -1.862857 0.8045212 0
3.6210003 -1.8703609 0.80489457 0
3.6250002 -1.8784437 0.80539244 0
3.6280003 -1.885971 0.80576587 0
3.6320002 -1.894081 0.80626369 0
3.6350002 -1.9016317 0.80663705 0
3.6390002 -1.9097685 0.80713493 0
3.7970002 -1.5840117 0.82067251 0
3.7850003 -1.5846846 0.81920063 0
3.7770002 -1.5871395 0.8182193 0
3.7700002 -1.5900238 0.8173607 0
3.7640002 -1.5933428 0.81662476 0
3.7590003 -1.5971019 0.81601143 0
3.7540002 -1.600843 0.81539816 0
3.7510002 -1.6054969 0.81503022 0
3.7400002 -1.6064024 0.81368095 0
3.7310002 -1.608206 0.81257701 0
3.7240002 -1.6109191 0.8117184 0
3.7180002 -1.6140794 0.81098247 0
3.7130003 -1.6176924 0.81036913 0
3.7080002 -1.6212873 0.8097558 0
3.7050002 -1.6258203 0.80938786 0
3.7010002 -1.6298627 0.80889726 0
3.6990004 -1.6348538 0.80865192 0
3.6970003 -1.6398377 0.80840659 0
3.6950002 -1.6448145 0.80816126 0
3.6940002 -1.6502711 0.80803859 0
3.6940002 -1.6562127 0.80803859 0
3.6940002 -1.6621544 0.80803859 0
3.6960003 -1.6690811 0.80828393 0
3.6980002 -1.6760149 0.80852926 0
3.7010002 -1.683452 0.80889726 0
3.7050002 -1.6913977 0.80938786 0
3.7080002 -1.6988584 0.8097558 0
3.7120004 -1.7068312 0.81024647 0
3.7150002 -1.7143152 0.81061447 0
3.7190003 -1.7223151 0.81110513 0
3.7220004 -1.7298225 0.81147307 0
3.5640001 -1.6554441 0.79209292 0
3.5580003 -1.6580887 0.79135704 0
3.5520003 -1.6607114 0.79062104 0
3.5460002 -1.6633126 0.7898851 0
3.5410001 -1.6664077 0.78927177 0
3.5350003 -1.6689675 0.78853583 0
3.5320003 -1.6730639 0.78816789 0
3.5350003 -1.6802773 0.78853583 0
3.5380003 -1.6875017 0.78890383 0
3.5420003 -1.6952616 0.7893945 0
3.5450003 -1.7025093 0.7897625 0
3.5490003 -1.7102963 0.7902531 0
3.5520003 -1.7175674 0.79062104 0
3.5550003 -1.7248495 0.79098904 0
3.5590003 -1.7326761 0.79147971 0
3.5620003 -1.7399817 0.79184765 0
3.5660002 -1.7478353 0.79233825 0
3.5690002 -1.7551643 0.79270625 0
3.5720003 -1.7625039 0.79307425 0
3.5760002 -1.7703973 0.79356486 0
3.5790002 -1.7777605 0.79393286 0
3.5830002 -1.785681 0.79442346 0
3.5860002 -1.7930676 0.79479146 0
3.5900002 -1.8010151 0.79528207 0
3.5930002 -1.8084253 0.79565006 0
3.5970004 -1.8163999 0.79614067 0
3.6000001 -1.8238333 0.79650867 0
3.6040003 -1.8318352 0.79699934 0
3.6070004 -1.8392922 0.79736733 0
3.6110003 -1.8473209 0.79785794 0
3.6140003 -1.8548012 0.79822588 0
3.6180003 -1.862857 0.79871655 0
3.6210003 -1.8703609 0.79908454 0
3.6250002 -1.8784437 0.79957515 0
3.6280003 -1.885971 0.79994315 0
3.6320002 -1.894081 0.80043375 0
3.6350002 -1.9016317 0.80080175 0
3.6390002 -1.9097685 0.80129236 0
3.7940001 -1.5826534 0.8141824 0
3.7840002 -1.5842298 0.81297386 0
3.7760003 -1.5866832 0.81200701 0
3.7700002 -1.5900238 0.81128186 0
3.7640002 -1.5933428 0.81055677 0
3.7600002 -1.5975636 0.81007332 0
3.7560003 -1.6017702 0.80958986 0
3.7520003 -1.6059623 0.80910647 0
3.7400002 -1.6064024 0.80765623 0
3.7310002 -1.608206 0.8065685 0
3.7240002 -1.6109191 0.80572253 0
3.7180002 -1.6140794 0.80499738 0
3.7130003 -1.6176924 0.80439311 0
3.7080002 -1.6212873 0.80378884 0
3.7050002 -1.6258203 0.80342627 0
3.7010002 -1.6298627 0.80294287 0
3.6990004 -1.6348538 0.80270118 0
3.6970003 -1.6398377 0.80245948 0
3.6950002 -1.6448145 0.80221772 0
3.6940002 -1.6502711 0.8020969 0
3.6940002 -1.6562127 0.8020969 0
3.6940002 -1.6621544 0.8020969 0
3.6960003 -1.6690811 0.8023386 0
3.6980002 -1.6760149 0.8025803 0
3.7010002 -1.683452 0.80294287 0
3.7050002 -1.6913977 0.80342627 0
3.7080002 -1.6988584 0.80378884 0
3.7120004 -1.7068312 0.80427229 0
3.7150002 -1.7143152 0.80463481 0
3.7190003 -1.7223151 0.80511826 0
3.7220004 -1.7298225 0.80548084 0
3.5640001 -1.6554441 0.78638572 0
3.5580003 -1.6580887 0.78566062 0
3.5520003 -1.6607114 0.78493547 0
3.5460002 -1.6633126 0.78421032 0
3.5410001 -1.6664077 0.78360605 0
3.5350003 -1.6689675 0.7828809 0
3.5320003 -1.6730639 0.78251839 0
3.5350003 -1.6802773 0.7828809 0
3.5380003 -1.6875017 0.78324354 0
3.5420003 -1.6952616 0.78372693 0
3.5450003 -1.7025093 0.78408945 0
3.5490003 -1.7102963 0.7845729 0
3.5520003 -1.7175674 0.78493547 0
3.5550003 -1.7248495 0.78529799 0
3.5590003 -1.7326761 0.78578144 0
3.5620003 -1.7399817 0.78614402 0
3.5660002 -1.7478353 0.78662741 0
3.5690002 -1.7551643 0.78698999 0
3.5720003 -1.7625039 0.78735256 0
3.5760002 -1.7703973 0.78783596 0
3.5790002 -1.7777605 0.78819853 0
3.5830002 -1.785681 0.78868198 0
3.5860002 -1.7930676 0.7890445 0
3.5900002 -1.8010151 0.78952795 0
3.5930002 -1.8084253 0.78989053 0
3.5970004 -1.8163999 0.79037392 0
3.6000001 -1.8238333 0.7907365 0
3.6040003 -1.8318352 0.79121995 0
3.6070004 -1.8392922 0.79158247 0
3.6110003 -1.8473209 0.79206586 0
3.6140003 -1.8548012 0.79242849 0
3.6180003 -1.862857 0.79291189 0
3.6210003 -1.8703609 0.79327446 0
3.6250002 -1.8784437 0.79375792 0
3.6280003 -1.885971 0.79412043 0
3.6320002 -1.894081 0.79460382 0
3.6350002 -1.9016317 0.79496646 0
3.6390002 -1.9097685 0.79544985 0
3.8040001 -1.5810407 0.80925077 0
3.7920003 -1.5817479 0.80782217 0
3.7840002 -1.5842298 0.80686975 0
3.7760003 -1.5866832 0.80591738 0
3.7700002 -1.5900238 0.80520308 0
3.7650003 -1.5938028 0.80460775 0
3.7610002 -1.5980254 0.80413157 0
3.7570002 -1.6022338 0.80365539 0
3.7530003 -1.6064276 0.80317914 0
3.7400002 -1.6064024 0.80163145 0
3.7310002 -1.608206 0.80056 0
3.7240002 -1.6109191 0.79972667 0
3.7180002 -1.6140794 0.79901236 0
3.7130003 -1.6176924 0.79841709 0
3.7080002 -1.6212873 0.79782188 0
3.7050002 -1.6258203 0.79746473 0
3.7010002 -1.6298627 0.79698849 0
3.6990004 -1.6348538 0.79675043 0
3.6970003 -1.6398377 0.79651225 0
3.6950002 -1.6448145 0.79627419 0
3.6940002 -1.6502711 0.7961551 0
3.6940002 -1.6562127 0.7961551 0
3.6940002 -1.6621544 0.7961551 0
3.6960003 -1.6690811 0.79639328 0
3.6980002 -1.6760149 0.79663134 0
3.7010002 -1.683452 0.79698849 0
3.7050002 -1.6913977 0.79746473 0
3.7080002 -1.6988584 0.79782188 0
3.7120004 -1.7068312 0.79829806 0
3.7150002 -1.7143152 0.79865521 0
3.7190003 -1.7223151 0.79913139 0
3.7220004 -1.7298225 0.79948854 0
3.5640001 -1.6554441 0.78067845 0
3.5580003 -1.6580887 0.77996415 0
3.5520003 -1.6607114 0.77924985 0
3.5460002 -1.6633126 0.77853554 0
3.5410001 -1.6664077 0.77794027 0
3.5350003 -1.6689675 0.77722597 0
3.5320003 -1.6730639 0.77686882 0
3.5350003 -1.6802773 0.77722597 0
3.5380003 -1.6875017 0.77758312 0
3.5420003 -1.6952616 0.77805936 0
3.5450003 -1.7025093 0.77841651 0
3.5490003 -1.7102963 0.7788927 0
3.5520003 -1.7175674 0.77924985 0
3.5550003 -1.7248495 0.779607 0
3.5590003 -1.7326761 0.78008318 0
3.5620003 -1.7399817 0.78044033 0
3.5660002 -1.7478353 0.78091657 0
3.5690002 -1.7551643 0.78127372 0
3.5720003 -1.7625039 0.78163087 0
3.5760002 -1.7703973 0.78210711 0
3.5790002 -1.7777605 0.78246427 0
3.5830002 -1.785681 0.78294039 0
3.5860002 -1.7930676 0.78329754 0
3.5900002 -1.8010151 0.78377378 0
3.5930002 -1.8084253 0.78413093 0
3.5970004 -1.8163999 0.78460717 0
3.6000001 -1.8238333 0.78496432 0
3.6040003 -1.8318352 0.78544056 0
3.6070004 -1.8392922 0.78579772 0
3.6110003 -1.8473209 0.78627384 0
3.6140003 -1.8548012 0.78663099 0
3.6180003 -1.862857 0.78710723 0
3.6210003 -1.8703609 0.78746438 0
3.6250002 -1.8784437 0.78794062 0
3.6280003 -1.885971 0.78829777 0
3.6320002 -1.894081 0.78877395 0
3.6350002 -1.9016317 0.7891311 0
3.6390002 -1.9097685 0.78960729 0
3.8010004 -1.579688 0.80275893 0
3.7910004 -1.5812951 0.80158639 0
3.7830002 -1.5837754 0.80064845 0
3.7770002 -1.5871395 0.79994494 0
3.7710001 -1.5904819 0.79924142 0
3.7660003 -1.5942627 0.79865521 0
3.7620003 -1.5984873 0.79818624 0
3.7580004 -1.6026974 0.79771721 0
3.7550004 -1.6073585 0.79736549 0
3.7400002 -1.6064024 0.79560673 0
3.7310002 -1.608206 0.79455149 0
3.7240002 -1.6109191 0.79373085 0
3.7180002 -1.6140794 0.79302728 0
3.7130003 -1.6176924 0.79244113 0
3.7080002 -1.6212873 0.79185486 0
3.7050002 -1.6258203 0.79150307 0
3.7010002 -1.6298627 0.7910341 0
3.6990004 -1.6348538 0.79079962 0
3.6970003 -1.6398377 0.79056513 0
3.6950002 -1.6448145 0.79033065 0
3.6940002 -1.6502711 0.79021341 0
3.6940002 -1.6562127 0.79021341 0
3.6940002 -1.6621544 0.79021341 0
3.6960003 -1.6690811 0.79044795 0
3.6980002 -1.6760149 0.79068238 0
3.7010002 -1.683452 0.7910341 0
3.7050002 -1.6913977 0.79150307 0
3.7080002 -1.6988584 0.79185486 0
3.7120004 -1.7068312 0.79232383 0
3.7150002 -1.7143152 0.79267561 0
3.7190003 -1.7223151 0.79314458 0
3.7220004 -1.7298225 0.79349637 0
3.5640001 -1.6554441 0.77497125 0
3.5580003 -1.6580887 0.77426773 0
3.5520003 -1.6607114 0.77356422 0
3.5460002 -1.6633126 0.77286077 0
3.5410001 -1.6664077 0.77227449 0
3.5350003 -1.6689675 0.77157104 0
3.5320003 -1.6730639 0.77121931 0
3.5350003 -1.6802773 0.77157104 0
3.5380003 -1.6875017 0.77192283 0
3.5420003 -1.6952616 0.7723918 0
3.5450003 -1.7025093 0.77274352 0
3.5490003 -1.7102963 0.77321255 0
3.5520003 -1.7175674 0.77356422 0
3.5550003 -1.7248495 0.77391601 0
3.5590003 -1.7326761 0.77438498 0
3.5620003 -1.7399817 0.77473676 0
3.5660002 -1.7478353 0.77520573 0
3.5690002 -1.7551643 0.77555746 0
3.5720003 -1.7625039 0.77590919 0
3.5760002 -1.7703973 0.77637815 0
3.5790002 -1.7777605 0.77672994 0
3.5830002 -1.785681 0.77719891 0
3.5860002 -1.7930676 0.7775507 0
3.5900002 -1.8010151 0.77801967 0
3.5930002 -1.8084253 0.77837133 0
3.5970004 -1.8163999 0.77884042 0
3.6000001 -1.8238333 0.77919209 0
3.6040003 -1.8318352 0.77966112 0
3.6070004 -1.8392922 0.78001285 0
3.6110003 -1.8473209 0.78048182 0
3.6140003 -1.8548012 0.7808336 0
3.6180003 -1.862857 0.78130257 0
3.6210003 -1.8703609 0.78165436 0
3.6250002 -1.8784437 0.78212333 0
3.6280003 -1.885971 0.78247505 0
3.6320002 -1.894081 0.78294402 0
3.6350002 -1.9016317 0.78329575 0
3.6390002 -1.9097685 0.78376478 0
3.8120003 -1.5784938 0.797894 0
3.7990003 -1.5787861 0.79639328 0
3.7900002 -1.5808424 0.79535425 0
3.7830002 -1.5837754 0.79454613 0
3.7770002 -1.5871395 0.79385346 0
3.7720003 -1.5909401 0.79327631 0
3.7670002 -1.5947226 0.79269904 0
3.7630002 -1.5989491 0.79223728 0
3.7600002 -1.6036245 0.79189092 0
3.7570002 -1.6082891 0.79154456 0
3.7400002 -1.6064024 0.78958207 0
3.7310002 -1.608206 0.78854311 0
3.7240002 -1.6109191 0.78773499 0
3.7180002 -1.6140794 0.78704226 0
3.7130003 -1.6176924 0.78646505 0
3.7080002 -1.6212873 0.78588784 0
3.7050002 -1.6258203 0.78554153 0
3.7010002 -1.6298627 0.78507972 0
3.6990004 -1.6348538 0.78484887 0
3.6970003 -1.6398377 0.78461802 0
3.6950002 -1.6448145 0.78438711 0
3.6940002 -1.6502711 0.78427166 0
3.6940002 -1.6562127 0.78427166 0
3.6940002 -1.6621544 0.78427166 0
3.6960003 -1.6690811 0.78450251 0
3.6980002 -1.6760149 0.78473341 0
3.7010002 -1.683452 0.78507972 0
3.7050002 -1.6913977 0.78554153 0
3.7080002 -1.6988584 0.78588784 0
3.7120004 -1.7068312 0.78634965 0
3.7150002 -1.7143152 0.78669596 0
3.7190003 -1.7223151 0.78715777 0
3.7220004 -1.7298225 0.78750408 0
3.5640001 -1.6554441 0.76926398 0
3.5580003 -1.6580887 0.76857132 0
3.5520003 -1.6607114 0.76787865 0
3.5460002 -1.6633126 0.76718599 0
3.5410001 -1.6664077 0.76660872 0
3.5350003 -1.6689675 0.76591611 0
3.5320003 -1.6730639 0.76556981 0
3.5350003 -1.6802773 0.76591611 0
3.5380003 -1.6875017 0.76626241 0
3.5420003 -1.6952616 0.76672423 0
3.5450003 -1.7025093 0.76707053 0
3.5490003 -1.7102963 0.76753235 0
3.5520003 -1.7175674 0.76787865 0
3.5550003 -1.7248495 0.76822495 0
3.5590003 -1.7326761 0.76868677 0
3.5620003 -1.7399817 0.76903307 0
3.5660002 -1.7478353 0.76949489 0
3.5690002 -1.7551643 0.76984119 0
3.5720003 -1.7625039 0.7701875 0
3.5760002 -1.7703973 0.77064931 0
3.5790002 -1.7777605 0.77099562 0
3.5830002 -1.785681 0.77145743 0
3.5860002 -1.7930676 0.77180374 0
3.5900002 -1.8010151 0.77226549 0
3.5930002 -1.8084253 0.77261186 0
3.5970004 -1.8163999 0.77307361 0
3.6000001 -1.8238333 0.77341992 0
3.6040003 -1.8318352 0.77388173 0
3.6070004 -1.8392922 0.7742281 0
3.6110003 -1.8473209 0.77468979 0
3.6140003 -1.8548012 0.77503616 0
3.6180003 -1.862857 0.77549791 0
3.6210003 -1.8703609 0.77584428 0
3.6250002 -1.8784437 0.77630603 0
3.6280003 -1.885971 0.77665234 0
3.6320002 -1.894081 0.77711415 0
3.6350002 -1.9016317 0.77746046 0
3.6390002 -1.9097685 0.77792227 0
3.8090003 -1.5771464 0.79139853 0
3.7980003 -1.5783352 0.7901485 0
3.7900002 -1.5808424 0.78923935 0
3.7830002 -1.5837754 0.78844386 0
3.7770002 -1.5871395 0.78776205 0
3.7730002 -1.5913984 0.7873075 0
3.7680004 -1.5951828 0.78673929 0
3.7650003 -1.5998726 0.78639835 0
3.7610002 -1.6040881 0.78594375 0
3.7570002 -1.6082891 0.7854892 0
3.7400002 -1.6064024 0.78355736 0
3.7310002 -1.608206 0.7825346 0
3.7240002 -1.6109191 0.78173912 0
3.7180002 -1.6140794 0.78105724 0
3.7130003 -1.6176924 0.78048909 0
3.7080002 -1.6212873 0.77992082 0
3.7050002 -1.6258203 0.77957994 0
3.7010002 -1.6298627 0.77912539 0
3.6990004 -1.6348538 0.77889812 0
3.6970003 -1.6398377 0.77867085 0
3.6950002 -1.6448145 0.77844357 0
3.6940002 -1.6502711 0.77832991 0
3.6940002 -1.6562127 0.77832991 0
3.6940002 -1.6621544 0.77832991 0
3.6960003 -1.6690811 0.77855718 0
3.6980002 -1.6760149 0.77878445 0
3.7010002 -1.683452 0.77912539 0
3.7050002 -1.6913977 0.77957994 0
3.7080002 -1.6988584 0.77992082 0
3.7120004 -1.7068312 0.78037548 0
3.7150002 -1.7143152 0.7807163 0
3.7190003 -1.7223151 0.7811709 0
3.7220004 -1.7298225 0.78151178 0
3.5640001 -1.6554441 0.76355672 0
3.5580003 -1.6580887 0.76287484 0
3.5520003 -1.6607114 0.76219308 0
3.5460002 -1.6633126 0.76151121 0
3.5410001 -1.6664077 0.76094294 0
3.5350003 -1.6689675 0.76026118 0
3.5320003 -1.6730639 0.75992024 0
3.5350003 -1.6802773 0.76026118 0
3.5380003 -1.6875017 0.76060212 0
3.5420003 -1.6952616 0.76105666 0
3.5450003 -1.7025093 0.7613976 0
3.5490003 -1.7102963 0.76185215 0
3.5520003 -1.7175674 0.76219308 0
3.5550003 -1.7248495 0.76253396 0
3.5590003 -1.7326761 0.76298857 0
3.5620003 -1.7399817 0.76332945 0
3.5660002 -1.7478353 0.76378399 0
3.5690002 -1.7551643 0.76412487 0
3.5720003 -1.7625039 0.76446581 0
3.5760002 -1.7703973 0.76492041 0
3.5790002 -1.7777605 0.76526129 0
3.5830002 -1.785681 0.76571584 0
3.5860002 -1.7930676 0.76605678 0
3.5900002 -1.8010151 0.76651132 0
3.5930002 -1.8084253 0.76685226 0
3.5970004 -1.8163999 0.7673068 0
3.6000001 -1.8238333 0.76764774 0
3.6040003 -1.8318352 0.76810229 0
3.6070004 -1.8392922 0.76844323 0
3.6110003 -1.8473209 0.76889777 0
3.6140003 -1.8548012 0.76923871 0
3.6180003 -1.862857 0.76969326 0
3.6210003 -1.8703609 0.77003419 0
3.6250002 -1.8784437 0.77048874 0
3.6280003 -1.885971 0.77082968 0
3.6320002 -1.894081 0.77128422 0
3.6350002 -1.9016317 0.77162516 0
3.6390002 -1.9097685 0.77207971 0
3.8070002 -1.576248 0.7850256 0
3.7970002 -1.5778841 0.78390729 0
3.7900002 -1.5808424 0.78312445 0
3.7840002 -1.5842298 0.78245342 0
3.7780004 -1.5875959 0.78178239 0
3.7740002 -1.5918565 0.781335 0
3.7700002 -1.5961026 0.78088772 0
3.7660003 -1.6003344 0.78044033 0
3.7630002 -1.6050152 0.78010488 0
3.7570002 -1.6082891 0.77943385 0
3.7400002 -1.6064024 0.77753264 0
3.7310002 -1.608206 0.77652609 0
3.7240002 -1.6109191 0.77574325 0
3.7180002 -1.6140794 0.77507222 0
3.7130003 -1.6176924 0.77451301 0
3.7080002 -1.6212873 0.77395386 0
3.7050002 -1.6258203 0.77361834 0
3.7010002 -1.6298627 0.77317101 0
3.6990004 -1.6348538 0.77294731 0
3.6970003 -1.6398377 0.77272367 0
3.6950002 -1.6448145 0.77250004 0
3.6940002 -1.6502711 0.77238816 0
3.6940002 -1.6562127 0.77238816 0
3.6940002 -1.6621544 0.77238816 0
3.6960003 -1.6690811 0.77261186 0
3.6980002 -1.6760149 0.77283549 0
3.7010002 -1.683452 0.77317101 0
3.7050002 -1.6913977 0.77361834 0
3.7080002 -1.6988584 0.77395386 0
3.7120004 -1.7068312 0.77440125 0
3.7150002 -1.7143152 0.7747367 0
3.7190003 -1.7223151 0.77518404 0
3.7220004 -1.7298225 0.77551961 0
3.5640001 -1.6554441 0.75784945 0
3.5580003 -1.6580887 0.75717849 0
3.5520003 -1.6607114 0.7565074 0
3.5460002 -1.6633126 0.75583637 0
3.5410001 -1.6664077 0.75527722 0
3.5350003 -1.6689675 0.75460625 0
3.5320003 -1.6730639 0.75427067 0
3.5350003 -1.6802773 0.75460625 0
3.5380003 -1.6875017 0.7549417 0
3.5420003 -1.6952616 0.75538909 0
3.5450003 -1.7025093 0.75572461 0
3.5490003 -1.7102963 0.75617194 0
3.5520003 -1.7175674 0.7565074 0
3.5550003 -1.7248495 0.75684297 0
3.5590003 -1.7326761 0.7572903 0
3.5620003 -1.7399817 0.75762582 0
3.5660002 -1.7478353 0.75807315 0
3.5690002 -1.7551643 0.75840867 0
3.5720003 -1.7625039 0.75874418 0
3.5760002 -1.7703973 0.75919151 0
3.5790002 -1.7777605 0.75952697 0
3.5830002 -1.785681 0.75997436 0
3.5860002 -1.7930676 0.76030988 0
3.5900002 -1.8010151 0.76075721 0
3.5930002 -1.8084253 0.76109266 0
3.5970004 -1.8163999 0.76154006 0
3.6000001 -1.8238333 0.76187557 0
3.6040003 -1.8318352 0.7623229 0
3.6070004 -1.8392922 0.76265842 0
3.6110003 -1.8473209 0.76310575 0
3.6140003 -1.8548012 0.76344132 0
3.6180003 -1.862857 0.7638886 0
3.6210003 -1.8703609 0.76422417 0
3.6250002 -1.8784437 0.76467144 0
3.6280003 -1.885971 0.76500702 0
3.6320002 -1.894081 0.76545429 0
3.6350002 -1.9016317 0.76578987 0
3.6390002 -1.9097685 0.76623714 0
3.8160002 -1.5741286 0.77987039 0
3.8050003 -1.5753498 0.77866006 0
3.7970002 -1.5778841 0.77777976 0
3.7900002 -1.5808424 0.77700949 0
3.7840002 -1.5842298 0.77634931 0
3.7790003 -1.5880522 0.77579916 0
3.7750003 -1.5923146 0.77535903 0
3.7710001 -1.5965626 0.77491891 0
3.7680004 -1.6012579 0.77458882 0
3.7650003 -1.6059424 0.77425873 0
3.7570002 -1.6082891 0.77337849 0
3.7400002 -1.6064024 0.77150786 0
3.7310002 -1.608206 0.77051759 0
3.7240002 -1.6109191 0.76974738 0
3.7180002 -1.6140794 0.7690872 0
3.7130003 -1.6176924 0.76853704 0
3.7080002 -1.6212873 0.76798689 0
3.7050002 -1.6258203 0.7676568 0
3.7010002 -1.6298627 0.76721668 0
3.6990004 -1.6348538 0.76699662 0
3.6970003 -1.6398377 0.7667765 0
3.6950002 -1.6448145 0.76655644 0
3.6940002 -1.6502711 0.76644641 0
3.6940002 -1.6562127 0.76644641 0
3.6940002 -1.6621544 0.76644641 0
3.6960003 -1.6690811 0.76666653 0
3.6980002 -1.6760149 0.76688653 0
3.7010002 -1.683452 0.76721668 0
3.7050002 -1.6913977 0.7676568 0
3.7080002 -1.6988584 0.76798689 0
3.7120004 -1.7068312 0.76842701 0
3.7150002 -1.7143152 0.7687571 0
3.7190003 -1.7223151 0.76919723 0
3.7220004 -1.7298225 0.76952732 0
3.5640001 -1.6554441 0.75214219 0
3.5580003 -1.6580887 0.75148201 0
3.5520003 -1.6607114 0.75082183 0
3.5460002 -1.6633126 0.75016165 0
3.5410001 -1.6664077 0.7496115 0
3.5350003 -1.6689675 0.74895132 0
3.5320003 -1.6730639 0.74862123 0
3.5350003 -1.6802773 0.74895132 0
3.5380003 -1.6875017 0.74928141 0
3.5420003 -1.6952616 0.74972153 0
3.5450003 -1.7025093 0.75005162 0
3.5490003 -1.7102963 0.75049174 0
3.5520003 -1.7175674 0.75082183 0
3.5550003 -1.7248495 0.75115192 0
3.5590003 -1.7326761 0.75159204 0
3.5620003 -1.7399817 0.75192213 0
3.5660002 -1.7478353 0.75236225 0
3.5690002 -1.7551643 0.75269234 0
3.5720003 -1.7625039 0.75302243 0
3.5760002 -1.7703973 0.75346261 0
3.5790002 -1.7777605 0.7537927 0
3.5830002 -1.785681 0.75423282 0
3.5860002 -1.7930676 0.75456291 0
3.5900002 -1.8010151 0.75500304 0
3.5930002 -1.8084253 0.75533319 0
3.5970004 -1.8163999 0.75577331 0
3.6000001 -1.8238333 0.7561034 0
3.6040003 -1.8318352 0.75654352 0
3.6070004 -1.8392922 0.75687361 0
3.6110003 -1.8473209 0.75731373 0
3.6140003 -1.8548012 0.75764382 0
3.6180003 -1.862857 0.75808394 0
3.6210003 -1.8703609 0.75841409 0
3.6250002 -1.8784437 0.75885415 0
3.6280003 -1.885971 0.75918424 0
3.6320002 -1.894081 0.75962442 0
