# .PCD v0.7 - Point Cloud Data file format
VERSION 0.7
FIELDS x y z intensity
SIZE 4 4 4 4
TYPE F F F F
COUNT 1 1 1 1
WIDTH 1411
HEIGHT 1
VIEWPOINT 0 0 0 1 0 0 0
POINTS 1411
DATA ascii
3.8990002 -0.61403722 0.5996573 0
3.8930004 -0.61936396 0.59932178 0
3.8880002 -0.6248349 0.59904218 0
3.8820002 -0.63012004 0.59870666 0
3.8760002 -0.63538355 0.59837115 0
3.8700004 -0.64062542 0.59803569 0
3.8640003 -0.64584559 0.59770018 0
3.8590002 -0.65121913 0.59742057 0
3.8530002 -0.65639788 0.59708506 0
3.8470004 -0.66155499 0.59674954 0
3.8410003 -0.66669047 0.59641403 0
3.8360002 -0.6719864 0.59613442 0
3.8390002 -0.67873627 0.59630221 0
3.8450003 -0.68605429 0.59663773 0
3.8520002 -0.69358158 0.59702915 0
3.8590002 -0.70113415 0.59742057 0
3.9920003 -0.73280358 0.60485768 0
3.9860003 -0.73812485 0.60452217 0
3.9820004 -0.74381405 0.60429847 0
3.9790003 -0.74968547 0.60413074 0
3.9770002 -0.7557444 0.60401893 0
3.9750004 -0.76179624 0.60390711 0
3.9740002 -0.7680428 0.60385114 0
3.9740002 -0.77448958 0.60385114 0
3.9750004 -0.78114206 0.60390711 0
3.9770002 -0.78800553 0.60401893 0
3.9800003 -0.79508549 0.60418665 0
3.9860003 -0.80280936 0.60452217 0
4.132 -0.89420837 0.61268616 0
4.1280003 -0.90002382 0.61246252 0
4.1259999 -0.90628666 0.6123507 0
4.125 -0.91277498 0.61229479 0
4.125 -0.91949415 0.61229479 0
4.1259999 -0.9264496 0.6123507 0
4.1270003 -0.93340874 0.61240661 0
4.1290002 -0.9406113 0.61251843 0
4.131 -0.94782114 0.61263025 0
4.1340003 -0.95528167 0.61279804 0
4.138 -0.96299839 0.61302173 0
4.1430001 -0.97097659 0.61330128 0
4.1480002 -0.97897285 0.61358088 0
4.1540003 -0.98723799 0.6139164 0
4.1610003 -0.99577719 0.61430782 0
4.1700001 -1.0048503 0.61481106 0
4.1810002 -1.0144682 0.61542618 0
4.118 -0.41486076 0.60519677 0
4.112 -0.42096123 0.60487211 0
4.105 -0.42693725 0.60449326 0
4.098 -0.432888 0.60411447 0
4.092 -0.43891993 0.60378981 0
4.085 -0.44482198 0.60341102 0
4.079 -0.45080882 0.60308635 0
4.072 -0.45666221 0.60270751 0
4.066 -0.46260393 0.60238284 0
4.059 -0.46840858 0.60200405 0
4.053 -0.47430524 0.60167933 0
4.0469999 -0.48018026 0.60135466 0
4.04 -0.48591274 0.60097587 0
4.0339999 -0.49174264 0.6006512 0
4.027 -0.49742645 0.60027242 0
4.0210004 -0.50321126 0.59994769 0
4.0150003 -0.50897443 0.59962302 0
4.0090003 -0.51471597 0.59929836 0
4.0020003 -0.52030414 0.59891951 0
3.9960003 -0.52600056 0.59859484 0
3.9900002 -0.53167534 0.59827018 0
3.9840002 -0.53732848 0.59794545 0
3.9780002 -0.54295999 0.59762079 0
3.9710002 -0.54842913 0.597242 0
3.9650002 -0.55401552 0.59691727 0
3.9590003 -0.55958033 0.59659261 0
3.9530003 -0.56512344 0.59626794 0
3.9470003 -0.5706448 0.59594321 0
3.9410002 -0.57614464 0.59561855 0
3.9350002 -0.58162278 0.59529388 0
3.9290004 -0.58707935 0.59496921 0
3.9230003 -0.59251422 0.59464455 0
3.9170003 -0.59792745 0.59431982 0
3.9110003 -0.60331905 0.59399509 0
3.9050002 -0.60868895 0.59367043 0
3.8990002 -0.61403722 0.59334576 0
3.8930004 -0.61936396 0.59302109 0
3.8880002 -0.6248349 0.59275049 0
3.8820002 -0.63012004 0.59242582 0
3.8760002 -0.63538355 0.5921011 0
3.8700004 -0.64062542 0.59177649 0
3.8640003 -0.64584559 0.59145176 0
3.8590002 -0.65121913 0.59118116 0
3.8530002 -0.65639788 0.59085649 0
3.8470004 -0.66155499 0.59053183 0
3.8410003 -0.66669047 0.5902071 0
3.8360002 -0.6719864 0.58993655 0
3.8390002 -0.67873627 0.59009892 0
3.8450003 -0.68605429 0.59042358 0
3.8520002 -0.69358158 0.59080243 0
3.8590002 -0.70113415 0.59118116 0
3.9920003 -0.73280358 0.59837842 0
3.9860003 -0.73812485 0.59805369 0
3.9820004 -0.74381405 0.59783727 0
3.9790003 -0.74968547 0.59767491 0
3.9770002 -0.7557444 0.59756666 0
3.9750004 -0.76179624 0.59745848 0
3.9740002 -0.7680428 0.59740436 0
3.9740002 -0.77448958 0.59740436 0
3.9750004 -0.78114206 0.59745848 0
3.9770002 -0.78800553 0.59756666 0
3.9800003 -0.79508549 0.59772903 0
3.9860003 -0.80280936 0.59805369 0
4.1389999 -0.90254372 0.6063332 0
4.1350002 -0.90836465 0.60611671 0
4.1340003 -0.91486919 0.60606259 0
4.1330004 -0.92137015 0.60600853 0
4.1330004 -0.92810374 0.60600853 0
4.1330004 -0.93483734 0.60600853 0
4.1340003 -0.94181091 0.60606259 0
4.1360002 -0.94902968 0.60617083 0
4.1389999 -0.95649928 0.6063332 0
4.1420002 -0.96397966 0.6064955 0
4.1460004 -0.97171801 0.60671198 0
4.1500001 -0.97947085 0.60692847 0
4.1560001 -0.98773944 0.60725313 0
4.1620002 -0.99602968 0.6075778 0
4.1690001 -1.004596 0.60795665 0
4.178 -1.0136998 0.60844362 0
4.1880002 -1.0230941 0.60898477 0
4.1900001 -1.0304463 0.60909301 0
4.118 -0.41486076 0.59849024 0
4.112 -0.42096123 0.59817636 0
4.105 -0.42693725 0.59781021 0
4.098 -0.432888 0.597444 0
4.092 -0.43891993 0.59713018 0
4.085 -0.44482198 0.59676397 0
4.079 -0.45080882 0.59645009 0
4.072 -0.45666221 0.59608394 0
4.066 -0.46260393 0.59577006 0
4.059 -0.46840858 0.59540391 0
4.053 -0.47430524 0.59509003 0
4.0469999 -0.48018026 0.59477615 0
4.04 -0.48591274 0.59441 0
4.0339999 -0.49174264 0.59409612 0
4.027 -0.49742645 0.59372997 0
4.0210004 -0.50321126 0.59341609 0
4.0150003 -0.50897443 0.59310222 0
4.0090003 -0.51471597 0.5927884 0
4.0020003 -0.52030414 0.59242225 0
3.9960003 -0.52600056 0.59210837 0
3.9900002 -0.53167534 0.59179449 0
3.9840002 -0.53732848 0.59148061 0
3.9780002 -0.54295999 0.59116673 0
3.9710002 -0.54842913 0.59080058 0
3.9650002 -0.55401552 0.59048671 0
3.9590003 -0.55958033 0.59017289 0
3.9530003 -0.56512344 0.58985901 0
3.9470003 -0.5706448 0.58954513 0
3.9410002 -0.57614464 0.58923125 0
3.9350002 -0.58162278 0.58891737 0
3.9290004 -0.58707935 0.58860356 0
3.9230003 -0.59251422 0.58828968 0
3.9170003 -0.59792745 0.58797586 0
3.9110003 -0.60331905 0.58766198 0
3.9050002 -0.60868895 0.5873481 0
3.8990002 -0.61403722 0.58703423 0
3.8930004 -0.61936396 0.58672035 0
3.8880002 -0.6248349 0.5864588 0
3.8820002 -0.63012004 0.58614492 0
3.8760002 -0.63538355 0.58583111 0
3.8700004 -0.64062542 0.58551723 0
3.8640003 -0.64584559 0.58520341 0
3.8590002 -0.65121913 0.5849418 0
3.8530002 -0.65639788 0.58462799 0
3.8470004 -0.66155499 0.58431411 0
3.8410003 -0.66669047 0.58400023 0
3.8360002 -0.6719864 0.58373868 0
3.8390002 -0.67873627 0.58389562 0
3.8450003 -0.68605429 0.58420944 0
3.8520002 -0.69358158 0.58457565 0
3.8590002 -0.70113415 0.5849418 0
3.9920003 -0.73280358 0.5918991 0
3.9860003 -0.73812485 0.59158528 0
3.9820004 -0.74381405 0.59137601 0
3.9790003 -0.74968547 0.59121907 0
3.9770002 -0.7557444 0.59111446 0
3.9750004 -0.76179624 0.59100986 0
3.9740002 -0.7680428 0.59095752 0
3.9740002 -0.77448958 0.59095752 0
3.9750004 -0.78114206 0.59100986 0
3.9770002 -0.78800553 0.59111446 0
3.9800003 -0.79508549 0.5912714 0
3.9860003 -0.80280936 0.59158528 0
4.1460004 -0.91090441 0.59995496 0
4.1430001 -0.91696346 0.59979796 0
4.1410003 -0.92324603 0.59969336 0
4.1400003 -0.92975783 0.59964108 0
4.1400003 -0.93650407 0.59964108 0
4.1410003 -0.94349015 0.59969336 0
4.1420002 -0.95047992 0.59974569 0
4.1440001 -0.95771688 0.5998503 0
4.1460004 -0.96496099 0.59995496 0
4.1500001 -0.97270656 0.60016418 0
4.1540003 -0.98046643 0.60037339 0
4.158 -0.98824084 0.60058266 0
4.164 -0.99653476 0.60089648 0
4.1700001 -1.0048503 0.60121036 0
4.177 -1.0134437 0.60157657 0
4.184 -1.0220622 0.60194272 0
4.1860003 -1.0294074 0.60204732 0
4.1890001 -1.0370213 0.60220426 0
4.1930003 -1.0449092 0.60241354 0
4.118 -0.41486076 0.59178364 0
4.112 -0.42096123 0.59148061 0
4.105 -0.42693725 0.5911271 0
4.098 -0.432888 0.59077352 0
4.092 -0.43891993 0.59047049 0
4.085 -0.44482198 0.59011698 0
4.079 -0.45080882 0.58981389 0
4.072 -0.45666221 0.58946037 0
4.066 -0.46260393 0.58915734 0
4.059 -0.46840858 0.58880377 0
4.053 -0.47430524 0.58850074 0
4.0469999 -0.48018026 0.58819771 0
4.04 -0.48591274 0.58784413 0
4.0339999 -0.49174264 0.5875411 0
4.027 -0.49742645 0.58718753 0
4.0210004 -0.50321126 0.5868845 0
4.0150003 -0.50897443 0.58658147 0
4.0090003 -0.51471597 0.58627844 0
4.0020003 -0.52030414 0.58592486 0
3.9960003 -0.52600056 0.58562183 0
3.9900002 -0.53167534 0.5853188 0
3.9840002 -0.53732848 0.58501577 0
3.9780002 -0.54295999 0.58471274 0
3.9710002 -0.54842913 0.58435917 0
3.9650002 -0.55401552 0.58405614 0
3.9590003 -0.55958033 0.58375311 0
3.9530003 -0.56512344 0.58345008 0
3.9470003 -0.5706448 0.58314705 0
3.9410002 -0.57614464 0.58284402 0
3.9350002 -0.58162278 0.58254093 0
3.9290004 -0.58707935 0.58223796 0
3.9230003 -0.59251422 0.58193487 0
3.9170003 -0.59792745 0.58163184 0
3.9110003 -0.60331905 0.58132881 0
3.9050002 -0.60868895 0.58102572 0
3.8990002 -0.61403722 0.58072269 0
3.8930004 -0.61936396 0.58041966 0
3.8880002 -0.6248349 0.58016711 0
3.8820002 -0.63012004 0.57986408 0
3.8760002 -0.63538355 0.57956105 0
3.8700004 -0.64062542 0.57925802 0
3.8640003 -0.64584559 0.57895499 0
3.8590002 -0.65121913 0.57870245 0
3.8530002 -0.65639788 0.57839942 0
3.8470004 -0.66155499 0.57809639 0
3.8410003 -0.66669047 0.57779336 0
3.8360002 -0.6719864 0.57754076 0
3.8390002 -0.67873627 0.57769233 0
3.8450003 -0.68605429 0.57799536 0
3.8520002 -0.69358158 0.57834888 0
3.8590002 -0.70113415 0.57870245 0
3.9920003 -0.73280358 0.58541983 0
3.9860003 -0.73812485 0.5851168 0
3.9820004 -0.74381405 0.58491474 0
3.9790003 -0.74968547 0.58476323 0
3.9770002 -0.7557444 0.5846622 0
3.9750004 -0.76179624 0.58456123 0
3.9740002 -0.7680428 0.58451068 0
3.9740002 -0.77448958 0.58451068 0
3.9750004 -0.78114206 0.58456123 0
3.9770002 -0.78800553 0.5846622 0
3.9800003 -0.79508549 0.58481377 0
3.9860003 -0.80280936 0.5851168 0
4.1500001 -0.92535651 0.59339988 0
4.1480002 -0.93164819 0.59329885 0
4.1470003 -0.93817079 0.59324837 0
4.1470003 -0.94492966 0.59324837 0
4.1480002 -0.95193022 0.59329885 0
4.1490002 -0.95893443 0.59334934 0
4.151 -0.96618754 0.59345037 0
4.1540003 -0.97369498 0.59360194 0
4.1570001 -0.98121321 0.59375346 0
4.1610003 -0.98899299 0.59395546 0
4.1660004 -0.99703991 0.594208 0
4.171 -1.0051047 0.59446049 0
4.178 -1.0136998 0.59481406 0
4.1810002 -1.0212885 0.59496558 0
4.1830001 -1.0286281 0.59506661 0
4.1860003 -1.0362366 0.59521812 0
4.1900001 -1.0441192 0.59542012 0
4.118 -0.41486076 0.58507711 0
4.112 -0.42096123 0.58478487 0
4.105 -0.42693725 0.58444399 0
4.098 -0.432888 0.58410305 0
4.092 -0.43891993 0.58381081 0
4.085 -0.44482198 0.58346993 0
4.079 -0.45080882 0.58317769 0
4.072 -0.45666221 0.58283675 0
4.066 -0.46260393 0.58254457 0
4.059 -0.46840858 0.58220363 0
4.053 -0.47430524 0.58191144 0
4.0469999 -0.48018026 0.5816192 0
4.04 -0.48591274 0.58127832 0
4.0339999 -0.49174264 0.58098608 0
4.027 -0.49742645 0.58064514 0
4.0210004 -0.50321126 0.5803529 0
4.0150003 -0.50897443 0.58006072 0
4.0090003 -0.51471597 0.57976854 0
4.0020003 -0.52030414 0.5794276 0
3.9960003 -0.52600056 0.57913536 0
3.9900002 -0.53167534 0.57884312 0
3.9840002 -0.53732848 0.57855093 0
3.9780002 -0.54295999 0.57825869 0
3.9710002 -0.54842913 0.57791781 0
3.9650002 -0.55401552 0.57762557 0
3.9590003 -0.55958033 0.57733333 0
3.9530003 -0.56512344 0.57704115 0
3.9470003 -0.5706448 0.57674891 0
3.9410002 -0.57614464 0.57645673 0
3.9350002 -0.58162278 0.57616448 0
3.9290004 -0.58707935 0.5758723 0
3.9230003 -0.59251422 0.57558006 0
3.9170003 -0.59792745 0.57528782 0
3.9110003 -0.60331905 0.57499564 0
3.9050002 -0.60868895 0.5747034 0
3.8990002 -0.61403722 0.57441115 0
3.8930004 -0.61936396 0.57411897 0
3.8880002 -0.6248349 0.57387543 0
3.8820002 -0.63012004 0.57358325 0
3.8760002 -0.63538355 0.573291 0
3.8700004 -0.64062542 0.57299882 0
3.8640003 -0.64584559 0.57270658 0
3.8590002 -0.65121913 0.5724631 0
3.8530002 -0.65639788 0.57217085 0
3.8470004 -0.66155499 0.57187867 0
3.8410003 -0.66669047 0.57158643 0
3.8360002 -0.6719864 0.57134295 0
3.8390002 -0.67873627 0.57148904 0
3.8450003 -0.68605429 0.57178128 0
3.8520002 -0.69358158 0.57212216 0
3.8590002 -0.70113415 0.5724631 0
3.9920003 -0.73280358 0.57894057 0
3.9860003 -0.73812485 0.57864833 0
3.9820004 -0.74381405 0.57845354 0
3.9790003 -0.74968547 0.57830739 0
3.9770002 -0.7557444 0.57821 0
3.9750004 -0.76179624 0.5781126 0
3.9740002 -0.7680428 0.57806391 0
3.9740002 -0.77448958 0.57806391 0
3.9750004 -0.78114206 0.5781126 0
3.9770002 -0.78800553 0.57821 0
3.9800003 -0.79508549 0.57835615 0
3.9860003 -0.80280936 0.57864833 0
4.158 -0.93401116 0.58702523 0
4.1560001 -0.9403137 0.58692783 0
4.1550002 -0.94684887 0.58687913 0
4.1550002 -0.95362216 0.58687913 0
4.1560001 -0.960639 0.58692783 0
4.1570001 -0.96765941 0.58697653 0
4.1589999 -0.97493058 0.58707392 0
4.1620002 -0.98245782 0.58722001 0
4.165 -0.98999596 0.58736616 0
4.1690001 -0.99779749 0.58756095 0
4.1740003 -1.0058677 0.58780444 0
4.1790004 -1.013956 0.58804798 0
4.1800003 -1.0210305 0.58809668 0
4.1810002 -1.0281086 0.58814538 0
4.184 -1.0357134 0.58829153 0
4.1870003 -1.0433291 0.58843762 0
4.1930003 -1.0517513 0.5887298 0
4.118 -0.41486076 0.57837057 0
4.112 -0.42096123 0.57808912 0
4.105 -0.42693725 0.57776088 0
4.098 -0.432888 0.57743257 0
4.092 -0.43891993 0.57715118 0
4.085 -0.44482198 0.57682288 0
4.079 -0.45080882 0.57654148 0
4.072 -0.45666221 0.57621318 0
4.066 -0.46260393 0.57593179 0
4.059 -0.46840858 0.57560349 0
4.053 -0.47430524 0.57532209 0
4.0469999 -0.48018026 0.5750407 0
4.04 -0.48591274 0.5747124 0
4.0339999 -0.49174264 0.57443106 0
4.027 -0.49742645 0.57410276 0
4.0210004 -0.50321126 0.57382137 0
4.0150003 -0.50897443 0.57353997 0
4.0090003 -0.51471597 0.57325858 0
4.0020003 -0.52030414 0.57293028 0
3.9960003 -0.52600056 0.57264888 0
3.9900002 -0.53167534 0.57236749 0
3.9840002 -0.53732848 0.5720861 0
3.9780002 -0.54295999 0.57180464 0
3.9710002 -0.54842913 0.5714764 0
3.9650002 -0.55401552 0.57119501 0
3.9590003 -0.55958033 0.57091361 0
3.9530003 -0.56512344 0.57063222 0
3.9470003 -0.5706448 0.57035083 0
3.9410002 -0.57614464 0.57006943 0
3.9350002 -0.58162278 0.56978804 0
3.9290004 -0.58707935 0.56950665 0
3.9230003 -0.59251422 0.56922525 0
3.9170003 -0.59792745 0.56894386 0
3.9110003 -0.60331905 0.56866246 0
3.9050002 -0.60868895 0.56838107 0
3.8990002 -0.61403722 0.56809962 0
3.8930004 -0.61936396 0.56781828 0
3.8880002 -0.6248349 0.5675838 0
3.8820002 -0.63012004 0.56730235 0
3.8760002 -0.63538355 0.56702101 0
3.8700004 -0.64062542 0.56673962 0
3.8640003 -0.64584559 0.56645823 0
3.8590002 -0.65121913 0.56622374 0
3.8530002 -0.65639788 0.56594229 0
3.8470004 -0.66155499 0.56566095 0
3.8410003 -0.66669047 0.5653795 0
3.8360002 -0.6719864 0.56514502 0
3.8390002 -0.67873627 0.56528568 0
3.8450003 -0.68605429 0.56556714 0
3.8520002 -0.69358158 0.56589544 0
3.8590002 -0.70113415 0.56622374 0
3.9920003 -0.73280358 0.57246125 0
3.9860003 -0.73812485 0.57217991 0
3.9820004 -0.74381405 0.57199228 0
3.9790003 -0.74968547 0.57185161 0
3.9770002 -0.7557444 0.57175779 0
3.9750004 -0.76179624 0.57166398 0
3.9740002 -0.7680428 0.57161707 0
3.9740002 -0.77448958 0.57161707 0
3.9750004 -0.78114206 0.57166398 0
3.9770002 -0.78800553 0.57175779 0
3.9800003 -0.79508549 0.57189846 0
3.9860003 -0.80280936 0.57217991 0
4.165 -0.9424566 0.58057481 0
4.1630001 -0.94876814 0.58048099 0
4.1620002 -0.9553141 0.58043408 0
4.1620002 -0.96210009 0.58043408 0
4.1630001 -0.96913135 0.58048099 0
4.165 -0.97641325 0.58057481 0
4.1670003 -0.98370248 0.58066857 0
4.1690001 -0.99099892 0.58076239 0
4.1730003 -0.99880761 0.58095002 0
4.177 -1.0066307 0.5811376 0
4.178 -1.0136998 0.58118451 0
4.1790004 -1.0207726 0.58123136 0
4.1800003 -1.0278488 0.58127832 0
4.1830001 -1.0354519 0.58141899 0
4.1860003 -1.0430658 0.58155966 0
4.1920004 -1.0514861 0.58184111 0
4.118 -0.41486076 0.57166398 0
4.112 -0.42096123 0.57139343 0
4.105 -0.42693725 0.57107776 0
4.098 -0.432888 0.5707621 0
4.092 -0.43891993 0.57049149 0
4.085 -0.44482198 0.57017589 0
4.079 -0.45080882 0.56990528 0
4.072 -0.45666221 0.56958961 0
4.066 -0.46260393 0.56931901 0
4.059 -0.46840858 0.56900334 0
4.053 -0.47430524 0.5687328 0
4.0469999 -0.48018026 0.56846225 0
4.04 -0.48591274 0.56814659 0
4.0339999 -0.49174264 0.56787598 0
4.027 -0.49742645 0.56756032 0
4.0210004 -0.50321126 0.56728977 0
4.0150003 -0.50897443 0.56701922 0
4.0090003 -0.51471597 0.56674862 0
4.0020003 -0.52030414 0.56643295 0
3.9960003 -0.52600056 0.56616235 0
3.9900002 -0.53167534 0.5658918 0
3.9840002 -0.53732848 0.56562126 0
3.9780002 -0.54295999 0.56535065 0
3.9710002 -0.54842913 0.56503499 0
3.9650002 -0.55401552 0.56476438 0
3.9590003 -0.55958033 0.56449383 0
3.9530003 -0.56512344 0.56422329 0
3.9470003 -0.5706448 0.56395268 0
3.9410002 -0.57614464 0.56368214 0
3.9350002 -0.58162278 0.56341159 0
3.9290004 -0.58707935 0.56314099 0
3.9230003 -0.59251422 0.56287044 0
3.9170003 -0.59792745 0.56259984 0
3.9110003 -0.60331905 0.56232929 0
3.9050002 -0.60868895 0.56205869 0
3.8990002 -0.61403722 0.56178814 0
3.8930004 -0.61936396 0.5615176 0
3.8880002 -0.6248349 0.56129211 0
3.8820002 -0.63012004 0.56102151 0
3.8760002 -0.63538355 0.56075096 0
3.8700004 -0.64062542 0.56048036 0
3.8640003 -0.64584559 0.56020981 0
3.8590002 -0.65121913 0.55998433 0
3.8530002 -0.65639788 0.55971378 0
3.8470004 -0.66155499 0.55944318 0
3.8410003 -0.66669047 0.55917263 0
3.8360002 -0.6719864 0.55894715 0
3.8390002 -0.67873627 0.55908245 0
3.8450003 -0.68605429 0.55935299 0
3.8520002 -0.69358158 0.55966866 0
3.8590002 -0.70113415 0.55998433 0
3.9920003 -0.73280358 0.56598198 0
3.9860003 -0.73812485 0.56571144 0
3.9820004 -0.74381405 0.56553102 0
3.9790003 -0.74968547 0.56539577 0
3.9770002 -0.7557444 0.56530559 0
3.9750004 -0.76179624 0.56521535 0
3.9740002 -0.7680428 0.56517029 0
3.9740002 -0.77448958 0.56517029 0
3.9750004 -0.78114206 0.56521535 0
3.9770002 -0.78800553 0.56530559 0
3.9800003 -0.79508549 0.56544089 0
3.9860003 -0.80280936 0.56571144 0
4.1760001 -0.94507575 0.57427955 0
4.1719999 -0.95092726 0.57409912 0
4.171 -0.95748955 0.574054 0
4.1700001 -0.96404827 0.57400894 0
4.1700001 -0.97084856 0.57400894 0
4.171 -0.97789603 0.574054 0
4.1719999 -0.98494709 0.57409912 0
4.1740003 -0.99225253 0.57418931 0
4.177 -0.99981773 0.57432461 0
4.178 -1.0068849 0.57436967 0
4.178 -1.0136998 0.57436967 0
4.1790004 -1.0207726 0.57441479 0
4.1800003 -1.0278488 0.57445991 0
4.1830001 -1.0354519 0.57459521 0
4.1860003 -1.0430658 0.57473046 0
4.1920004 -1.0514861 0.57500106 0
4.118 -0.41486076 0.56495744 0
4.112 -0.42096123 0.56469768 0
4.105 -0.42693725 0.56439465 0
4.098 -0.432888 0.56409162 0
4.092 -0.43891993 0.56383187 0
4.085 -0.44482198 0.56352878 0
4.079 -0.45080882 0.56326908 0
4.072 -0.45666221 0.56296605 0
4.066 -0.46260393 0.56270629 0
4.059 -0.46840858 0.5624032 0
4.053 -0.47430524 0.5621435 0
4.0469999 -0.48018026 0.56188375 0
4.04 -0.48591274 0.56158066 0
4.0339999 -0.49174264 0.56132096 0
4.027 -0.49742645 0.56101793 0
4.0210004 -0.50321126 0.56075817 0
4.0150003 -0.50897443 0.56049842 0
4.0090003 -0.51471597 0.56023866 0
4.0020003 -0.52030414 0.55993563 0
3.9960003 -0.52600056 0.55967587 0
3.9900002 -0.53167534 0.55941612 0
3.9840002 -0.53732848 0.55915642 0
3.9780002 -0.54295999 0.55889666 0
3.9710002 -0.54842913 0.55859357 0
3.9650002 -0.55401552 0.55833381 0
3.9590003 -0.55958033 0.55807412 0
3.9530003 -0.56512344 0.55781436 0
3.9470003 -0.5706448 0.5575546 0
3.9410002 -0.57614464 0.55729485 0
3.9350002 -0.58162278 0.55703509 0
3.9290004 -0.58707935 0.55677533 0
3.9230003 -0.59251422 0.55651557 0
3.9170003 -0.59792745 0.55625588 0
3.9110003 -0.60331905 0.55599612 0
3.9050002 -0.60868895 0.55573636 0
3.8990002 -0.61403722 0.55547661 0
3.8930004 -0.61936396 0.55521691 0
3.8880002 -0.6248349 0.55500042 0
3.8820002 -0.63012004 0.55474067 0
3.8760002 -0.63538355 0.55448091 0
3.8700004 -0.64062542 0.55422115 0
3.8640003 -0.64584559 0.5539614 0
3.8590002 -0.65121913 0.55374497 0
3.8530002 -0.65639788 0.55348521 0
3.8470004 -0.66155499 0.55322546 0
3.8410003 -0.66669047 0.5529657 0
3.8360002 -0.6719864 0.55274928 0
3.8390002 -0.67873627 0.5528791 0
3.8450003 -0.68605429 0.55313885 0
3.8520002 -0.69358158 0.55344194 0
3.8590002 -0.70113415 0.55374497 0
3.9920003 -0.73280358 0.55950272 0
3.9860003 -0.73812485 0.55924296 0
3.9820004 -0.74381405 0.55906981 0
3.9790003 -0.74968547 0.55893993 0
3.9770002 -0.7557444 0.55885333 0
3.9750004 -0.76179624 0.55876672 0
3.9740002 -0.7680428 0.55872345 0
3.9740002 -0.77448958 0.55872345 0
3.9750004 -0.78114206 0.55876672 0
3.9770002 -0.78800553 0.55885333 0
3.9800003 -0.79508549 0.55898321 0
3.9860003 -0.80280936 0.55924296 0
4.1830001 -0.95356631 0.56777138 0
4.1800003 -0.95966494 0.5676415 0
4.178 -0.96599633 0.56755495 0
4.177 -0.97256571 0.56751162 0
4.177 -0.97937882 0.56751162 0
4.178 -0.98644066 0.56755495 0
4.1800003 -0.99375695 0.5676415 0
4.1800003 -1.0005753 0.5676415 0
4.1790004 -1.0071394 0.56759822 0
4.1790004 -1.013956 0.56759822 0
4.1790004 -1.0207726 0.56759822 0
4.1810002 -1.0281086 0.56768477 0
4.1830001 -1.0354519 0.56777138 0
4.1870003 -1.0433291 0.56794453 0
4.1930003 -1.0517513 0.56820428 0
4.118 -0.41486076 0.5582509 0
4.112 -0.42096123 0.55800194 0
4.105 -0.42693725 0.55771154 0
4.098 -0.432888 0.55742109 0
4.092 -0.43891993 0.55717218 0
4.085 -0.44482198 0.55688179 0
4.079 -0.45080882 0.55663288 0
4.072 -0.45666221 0.55634242 0
4.066 -0.46260393 0.55609351 0
4.059 -0.46840858 0.55580312 0
4.053 -0.47430524 0.55555415 0
4.0469999 -0.48018026 0.55530524 0
4.04 -0.48591274 0.55501485 0
4.0339999 -0.49174264 0.55476594 0
4.027 -0.49742645 0.55447549 0
4.0210004 -0.50321126 0.55422658 0
4.0150003 -0.50897443 0.55397767 0
4.0090003 -0.51471597 0.5537287 0
4.0020003 -0.52030414 0.55343831 0
3.9960003 -0.52600056 0.5531894 0
3.9900002 -0.53167534 0.55294049 0
3.9840002 -0.53732848 0.55269152 0
3.9780002 -0.54295999 0.55244261 0
3.9710002 -0.54842913 0.55215222 0
3.9650002 -0.55401552 0.55190325 0
3.9590003 -0.55958033 0.55165434 0
3.9530003 -0.56512344 0.55140543 0
3.9470003 -0.5706448 0.55115652 0
3.9410002 -0.57614464 0.55090755 0
3.9350002 -0.58162278 0.55065864 0
3.9290004 -0.58707935 0.55040973 0
3.9230003 -0.59251422 0.55016077 0
3.9170003 -0.59792745 0.54991186 0
3.9110003 -0.60331905 0.54966295 0
3.9050002 -0.60868895 0.54941404 0
3.8990002 -0.61403722 0.54916507 0
3.8930004 -0.61936396 0.54891616 0
3.8880002 -0.6248349 0.54870874 0
3.8820002 -0.63012004 0.54845977 0
3.8760002 -0.63538355 0.54821086 0
3.8700004 -0.64062542 0.54796195 0
3.8640003 -0.64584559 0.54771304 0
3.8590002 -0.65121913 0.54750556 0
3.8530002 -0.65639788 0.54725665 0
3.8470004 -0.66155499 0.54700774 0
3.8410003 -0.66669047 0.54675883 0
3.8360002 -0.6719864 0.54655135 0
3.8390002 -0.67873627 0.5466758 0
3.8450003 -0.68605429 0.54692477 0
3.8520002 -0.69358158 0.54721516 0
3.8590002 -0.70113415 0.54750556 0
3.9920003 -0.73280358 0.55302346 0
3.9860003 -0.73812485 0.55277449 0
3.9820004 -0.74381405 0.55260855 0
3.9790003 -0.74968547 0.5524841 0
3.9770002 -0.7557444 0.55240113 0
3.9750004 -0.76179624 0.55231816 0
3.9740002 -0.7680428 0.55227667 0
3.9740002 -0.77448958 0.55227667 0
3.9750004 -0.78114206 0.55231816 0
3.9770002 -0.78800553 0.55240113 0
3.9800003 -0.79508549 0.55252558 0
3.9860003 -0.80280936 0.55277449 0
4.1950002 -0.95644516 0.56144542 0
4.191 -0.96232373 0.56127948 0
4.1870003 -0.96818793 0.56111354 0
4.1860003 -0.97477371 0.56107199 0
4.1849999 -0.98135567 0.56103051 0
4.1849999 -0.98818314 0.56103051 0
4.1820002 -0.99425834 0.56090605 0
4.1810002 -1.0008278 0.56086457 0
4.1800003 -1.0073937 0.56082308 0
4.1800003 -1.014212 0.56082308 0
4.1810002 -1.0212885 0.56086457 0
4.1820002 -1.0283684 0.56090605 0
4.1849999 -1.035975 0.56103051 0
4.1890001 -1.0438559 0.56119651 0
4.1950002 -1.0522814 0.56144542 0
4.118 -0.41486076 0.55154431 0
4.112 -0.42096123 0.55130619 0
4.105 -0.42693725 0.55102843 0
4.098 -0.432888 0.55075061 0
4.092 -0.43891993 0.55051255 0
4.085 -0.44482198 0.55023474 0
4.079 -0.45080882 0.54999661 0
4.072 -0.45666221 0.54971886 0
4.066 -0.46260393 0.54948074 0
4.059 -0.46840858 0.54920298 0
4.053 -0.47430524 0.54896486 0
4.0469999 -0.48018026 0.54872674 0
4.04 -0.48591274 0.54844898 0
4.0339999 -0.49174264 0.54821086 0
4.027 -0.49742645 0.5479331 0
4.0210004 -0.50321126 0.54769498 0
4.0150003 -0.50897443 0.54745686 0
4.0090003 -0.51471597 0.5472188 0
4.0020003 -0.52030414 0.54694098 0
3.9960003 -0.52600056 0.54670286 0
3.9900002 -0.53167534 0.5464648 0
3.9840002 -0.53732848 0.54622668 0
3.9780002 -0.54295999 0.54598856 0
3.9710002 -0.54842913 0.5457108 0
3.9650002 -0.55401552 0.54547268 0
3.9590003 -0.55958033 0.54523456 0
3.9530003 -0.56512344 0.5449965 0
3.9470003 -0.5706448 0.54475838 0
3.9410002 -0.57614464 0.54452026 0
3.9350002 -0.58162278 0.5442822 0
3.9290004 -0.58707935 0.54404408 0
3.9230003 -0.59251422 0.54380596 0
3.9170003 -0.59792745 0.5435679 0
3.9110003 -0.60331905 0.54332978 0
3.9050002 -0.60868895 0.54309165 0
3.8990002 -0.61403722 0.54285359 0
3.8930004 -0.61936396 0.54261547 0
3.8880002 -0.6248349 0.54241705 0
3.8820002 -0.63012004 0.54217893 0
3.8760002 -0.63538355 0.54194081 0
3.8700004 -0.64062542 0.54170275 0
3.8640003 -0.64584559 0.54146463 0
3.8590002 -0.65121913 0.5412662 0
3.8530002 -0.65639788 0.54102814 0
3.8470004 -0.66155499 0.54079002 0
3.8410003 -0.66669047 0.5405519 0
3.8360002 -0.6719864 0.54035348 0
3.8390002 -0.67873627 0.54047251 0
3.8450003 -0.68605429 0.54071063 0
3.8520002 -0.69358158 0.54098845 0
3.8590002 -0.70113415 0.5412662 0
3.9920003 -0.73280358 0.54654413 0
3.9860003 -0.73812485 0.54630607 0
3.9820004 -0.74381405 0.54614735 0
3.9790003 -0.74968547 0.54602826 0
3.9770002 -0.7557444 0.54594886 0
3.9750004 -0.76179624 0.54586953 0
3.9740002 -0.7680428 0.54582983 0
3.9740002 -0.77448958 0.54582983 0
3.9750004 -0.78114206 0.54586953 0
3.9770002 -0.78800553 0.54594886 0
3.9800003 -0.79508549 0.54606795 0
3.9860003 -0.80280936 0.54630607 0
4.2030001 -0.96522427 0.55491745 0
4.198 -0.97086662 0.55471897 0
4.1930003 -0.97649086 0.55452061 0
4.1900001 -0.98259139 0.55440152 0
4.1870003 -0.98868102 0.55428249 0
4.1849999 -0.9950105 0.55420315 0
4.1830001 -1.001333 0.55412376 0
4.1820002 -1.0079024 0.55408406 0
4.1820002 -1.0147244 0.55408406 0
4.1830001 -1.0218043 0.55412376 0
4.1849999 -1.0291476 0.55420315 0
4.1870003 -1.0364982 0.55428249 0
4.1920004 -1.0446459 0.55448091 0
4.118 -0.41486076 0.54483777 0
4.112 -0.42096123 0.5446105 0
4.105 -0.42693725 0.54434532 0
4.098 -0.432888 0.54408014 0
4.092 -0.43891993 0.54385287 0
4.085 -0.44482198 0.54358768 0
4.079 -0.45080882 0.54336041 0
4.072 -0.45666221 0.54309529 0
4.066 -0.46260393 0.54286802 0
4.059 -0.46840858 0.54260284 0
4.053 -0.47430524 0.54237556 0
4.0469999 -0.48018026 0.54214823 0
4.04 -0.48591274 0.54188311 0
4.0339999 -0.49174264 0.54165584 0
4.027 -0.49742645 0.54139066 0
4.0210004 -0.50321126 0.54116338 0
4.0150003 -0.50897443 0.54093611 0
4.0090003 -0.51471597 0.54070884 0
4.0020003 -0.52030414 0.54044366 0
3.9960003 -0.52600056 0.54021639 0
3.9900002 -0.53167534 0.53998911 0
3.9840002 -0.53732848 0.53976184 0
3.9780002 -0.54295999 0.53953457 0
3.9710002 -0.54842913 0.53926939 0
3.9650002 -0.55401552 0.53904212 0
3.9590003 -0.55958033 0.53881484 0
3.9530003 -0.56512344 0.53858757 0
3.9470003 -0.5706448 0.5383603 0
3.9410002 -0.57614464 0.53813303 0
3.9350002 -0.58162278 0.53790569 0
3.9290004 -0.58707935 0.53767848 0
3.9230003 -0.59251422 0.53745115 0
3.9170003 -0.59792745 0.53722388 0
3.9110003 -0.60331905 0.5369966 0
3.9050002 -0.60868895 0.53676933 0
3.8990002 -0.61403722 0.53654206 0
3.8930004 -0.61936396 0.53631473 0
3.8880002 -0.6248349 0.53612536 0
3.8820002 -0.63012004 0.53589809 0
3.8760002 -0.63538355 0.53567082 0
3.8700004 -0.64062542 0.53544354 0
3.8640003 -0.64584559 0.53521621 0
3.8590002 -0.65121913 0.53502685 0
3.8530002 -0.65639788 0.53479958 0
3.8470004 -0.66155499 0.5345723 0
3.8410003 -0.66669047 0.53434503 0
3.8360002 -0.6719864 0.53415561 0
3.8390002 -0.67873627 0.53426921 0
3.8450003 -0.68605429 0.53449655 0
3.8520002 -0.69358158 0.53476167 0
3.8590002 -0.70113415 0.53502685 0
3.9920003 -0.73280358 0.54006487 0
3.9860003 -0.73812485 0.5398376 0
3.9820004 -0.74381405 0.53968608 0
3.9790003 -0.74968547 0.53957242 0
3.9770002 -0.7557444 0.53949666 0
3.9750004 -0.76179624 0.5394209 0
3.9740002 -0.7680428 0.53938305 0
3.9740002 -0.77448958 0.53938305 0
3.9750004 -0.78114206 0.5394209 0
3.9770002 -0.78800553 0.53949666 0
3.9800003 -0.79508549 0.53961033 0
3.9860003 -0.80280936 0.5398376 0
4.2070003 -0.96619111 0.54820907 0
4.2010002 -0.97159714 0.5479818 0
4.1960001 -0.97722685 0.54779238 0
4.1920004 -0.98308563 0.54764086 0
4.1900001 -0.9894278 0.5475651 0
4.1870003 -0.99551201 0.5474515 0
4.1860003 -1.0020906 0.54741359 0
4.1849999 -1.0086653 0.54737568 0
4.1849999 -1.0154928 0.54737568 0
4.1860003 -1.0225781 0.54741359 0
4.1880002 -1.0299269 0.54748935 0
4.191 -1.0375443 0.54760301 0
4.1960001 -1.0456995 0.54779238 0
4.118 -0.41486076 0.53813118 0
4.112 -0.42096123 0.53791475 0
4.105 -0.42693725 0.53766221 0
4.098 -0.432888 0.53740966 0
4.092 -0.43891993 0.53719318 0
4.085 -0.44482198 0.53694069 0
4.079 -0.45080882 0.53672421 0
4.072 -0.45666221 0.53647172 0
4.066 -0.46260393 0.53625524 0
4.059 -0.46840858 0.5360027 0
4.053 -0.47430524 0.53578627 0
4.0469999 -0.48018026 0.53556979 0
4.04 -0.48591274 0.53531724 0
4.0339999 -0.49174264 0.53510082 0
4.027 -0.49742645 0.53484827 0
4.0210004 -0.50321126 0.53463179 0
4.0150003 -0.50897443 0.53441536 0
4.0090003 -0.51471597 0.53419888 0
4.0020003 -0.52030414 0.53394639 0
3.9960003 -0.52600056 0.53372991 0
3.9900002 -0.53167534 0.53351343 0
3.9840002 -0.53732848 0.533297 0
3.9780002 -0.54295999 0.53308052 0
3.9710002 -0.54842913 0.53282797 0
3.9650002 -0.55401552 0.53261155 0
3.9590003 -0.55958033 0.53239512 0
3.9530003 -0.56512344 0.53217864 0
3.9470003 -0.5706448 0.53196216 0
3.9410002 -0.57614464 0.53174567 0
3.9350002 -0.58162278 0.53152925 0
3.9290004 -0.58707935 0.53131282 0
3.9230003 -0.59251422 0.53109634 0
3.9170003 -0.59792745 0.53087986 0
3.9110003 -0.60331905 0.53066343 0
3.9050002 -0.60868895 0.53044701 0
3.8990002 -0.61403722 0.53023052 0
3.8930004 -0.61936396 0.53001404 0
3.8880002 -0.6248349 0.52983367 0
3.8820002 -0.63012004 0.52961719 0
3.8760002 -0.63538355 0.52940077 0
3.8700004 -0.64062542 0.52918434 0
3.8640003 -0.64584559 0.52896786 0
3.8590002 -0.65121913 0.52878749 0
3.8530002 -0.65639788 0.52857101 0
3.8470004 -0.66155499 0.52835453 0
3.8410003 -0.66669047 0.5281381 0
3.8360002 -0.6719864 0.52795774 0
3.8390002 -0.67873627 0.52806592 0
3.8450003 -0.68605429 0.5282824 0
3.8520002 -0.69358158 0.52853495 0
3.8590002 -0.70113415 0.52878749 0
3.9920003 -0.73280358 0.53358561 0
3.9860003 -0.73812485 0.53336912 0
3.9820004 -0.74381405 0.53322482 0
3.9790003 -0.74968547 0.53311658 0
3.9770002 -0.7557444 0.53304446 0
3.9750004 -0.76179624 0.53297234 0
3.9740002 -0.7680428 0.53293622 0
3.9740002 -0.77448958 0.53293622 0
3.9750004 -0.78114206 0.53297234 0
3.9770002 -0.78800553 0.53304446 0
3.9800003 -0.79508549 0.5331527 0
3.9860003 -0.80280936 0.53336912 0
4.2049999 -0.97257113 0.54126978 0
4.2010002 -0.97845346 0.54112554 0
4.197 -0.98432118 0.54098117 0
4.1930003 -0.99017453 0.54083693 0
4.191 -0.99651498 0.54076475 0
4.1900001 -1.0031006 0.54072869 0
4.1890001 -1.0096828 0.54069263 0
4.1890001 -1.0165174 0.54069263 0
4.191 -1.0238678 0.54076475 0
4.1930003 -1.0312256 0.54083693 0
4.1960001 -1.0388521 0.54094517 0
4.2020001 -1.0472796 0.5411616 0
4.118 -0.41486076 0.53142464 0
4.112 -0.42096123 0.53121901 0
4.105 -0.42693725 0.5309791 0
4.098 -0.432888 0.53073919 0
4.092 -0.43891993 0.53053355 0
4.085 -0.44482198 0.53029364 0
4.079 -0.45080882 0.53008801 0
4.072 -0.45666221 0.5298481 0
4.066 -0.46260393 0.52964246 0
4.059 -0.46840858 0.52940255 0
4.053 -0.47430524 0.52919692 0
4.0469999 -0.48018026 0.52899128 0
4.04 -0.48591274 0.52875137 0
4.0339999 -0.49174264 0.52854574 0
4.027 -0.49742645 0.52830583 0
4.0210004 -0.50321126 0.52810019 0
4.0150003 -0.50897443 0.52789462 0
4.0090003 -0.51471597 0.52768898 0
4.0020003 -0.52030414 0.52744901 0
3.9960003 -0.52600056 0.52724344 0
3.9900002 -0.53167534 0.5270378 0
3.9840002 -0.53732848 0.5268321 0
3.9780002 -0.54295999 0.52662653 0
3.9710002 -0.54842913 0.52638662 0
3.9650002 -0.55401552 0.52618098 0
3.9590003 -0.55958033 0.52597535 0
3.9530003 -0.56512344 0.52576971 0
3.9470003 -0.5706448 0.52556407 0
3.9410002 -0.57614464 0.52535844 0
3.9350002 -0.58162278 0.5251528 0
3.9290004 -0.58707935 0.52494717 0
3.9230003 -0.59251422 0.52474153 0
3.9170003 -0.59792745 0.52453589 0
3.9110003 -0.60331905 0.52433026 0
3.9050002 -0.60868895 0.52412462 0
3.8990002 -0.61403722 0.52391899 0
3.8930004 -0.61936396 0.52371335 0
3.8880002 -0.6248349 0.52354199 0
3.8820002 -0.63012004 0.52333635 0
3.8760002 -0.63538355 0.52313071 0
3.8700004 -0.64062542 0.52292508 0
3.8640003 -0.64584559 0.52271944 0
3.8590002 -0.65121913 0.52254808 0
3.8530002 -0.65639788 0.52234244 0
3.8470004 -0.66155499 0.52213681 0
3.8410003 -0.66669047 0.52193117 0
3.8360002 -0.6719864 0.52175981 0
3.8390002 -0.67873627 0.52186263 0
3.8450003 -0.68605429 0.52206826 0
3.8520002 -0.69358158 0.52230817 0
3.8590002 -0.70113415 0.52254808 0
3.9920003 -0.73280358 0.52710629 0
3.9860003 -0.73812485 0.52690071 0
3.9820004 -0.74381405 0.52676362 0
3.9790003 -0.74968547 0.5266608 0
3.9770002 -0.7557444 0.52659225 0
3.9750004 -0.76179624 0.52652371 0
3.9740002 -0.7680428 0.52648944 0
3.9740002 -0.77448958 0.52648944 0
3.9750004 -0.78114206 0.52652371 0
3.9770002 -0.78800553 0.52659225 0
3.9800003 -0.79508549 0.52669507 0
3.9860003 -0.80280936 0.52690071 0
4.2060003 -0.97968 0.53444064 0
4.2020001 -0.98555678 0.53430355 0
4.1990004 -0.99166811 0.53420067 0
4.1960001 -0.99776864 0.53409791 0
4.1950002 -1.0043632 0.53406358 0
4.1940002 -1.0109544 0.53402936 0
4.1950002 -1.0180541 0.53406358 0
4.1960001 -1.0251577 0.53409791 0
4.1990004 -1.0327841 0.53420067 0
4.204 -1.0409445 0.53437203 0
4.118 -0.41486076 0.52471805 0
4.112 -0.42096123 0.52452326 0
4.105 -0.42693725 0.52429599 0
4.098 -0.432888 0.52406871 0
4.092 -0.43891993 0.52387387 0
4.085 -0.44482198 0.52364659 0
4.079 -0.45080882 0.52345181 0
4.072 -0.45666221 0.52322453 0
4.066 -0.46260393 0.52302969 0
4.059 -0.46840858 0.52280241 0
4.053 -0.47430524 0.52260762 0
4.0469999 -0.48018026 0.52241278 0
4.04 -0.48591274 0.52218556 0
4.0339999 -0.49174264 0.52199072 0
4.027 -0.49742645 0.52176344 0
4.0210004 -0.50321126 0.52156866 0
4.0150003 -0.50897443 0.52137381 0
4.0090003 -0.51471597 0.52117902 0
4.0020003 -0.52030414 0.52095175 0
3.9960003 -0.52600056 0.5207569 0
3.9900002 -0.53167534 0.52056211 0
3.9840002 -0.53732848 0.52036726 0
3.9780002 -0.54295999 0.52017248 0
3.9710002 -0.54842913 0.5199452 0
3.9650002 -0.55401552 0.51975036 0
3.9590003 -0.55958033 0.51955557 0
3.9530003 -0.56512344 0.51936078 0
3.9470003 -0.5706448 0.51916593 0
3.9410002 -0.57614464 0.51897115 0
3.9350002 -0.58162278 0.5187763 0
3.9290004 -0.58707935 0.51858151 0
3.9230003 -0.59251422 0.51838672 0
3.9170003 -0.59792745 0.51819187 0
3.9110003 -0.60331905 0.51799709 0
3.9050002 -0.60868895 0.5178023 0
3.8990002 -0.61403722 0.51760745 0
3.8930004 -0.61936396 0.51741266 0
3.8880002 -0.6248349 0.5172503 0
3.8820002 -0.63012004 0.51705551 0
3.8760002 -0.63538355 0.51686066 0
3.8700004 -0.64062542 0.51666588 0
3.8640003 -0.64584559 0.51647109 0
3.8590002 -0.65121913 0.51630872 0
3.8530002 -0.65639788 0.51611388 0
3.8470004 -0.66155499 0.51591909 0
3.8410003 -0.66669047 0.5157243 0
3.8360002 -0.6719864 0.51556194 0
3.8390002 -0.67873627 0.51565933 0
3.8450003 -0.68605429 0.51585418 0
3.8520002 -0.69358158 0.51608145 0
3.8590002 -0.70113415 0.51630872 0
3.9920003 -0.73280358 0.52062702 0
3.9860003 -0.73812485 0.52043223 0
3.9820004 -0.74381405 0.52030236 0
3.9790003 -0.74968547 0.52020496 0
3.9770002 -0.7557444 0.52013999 0
3.9750004 -0.76179624 0.52007508 0
3.9740002 -0.7680428 0.5200426 0
3.9740002 -0.77448958 0.5200426 0
3.9750004 -0.78114206 0.52007508 0
3.9770002 -0.78800553 0.52013999 0
3.9800003 -0.79508549 0.52023745 0
3.9860003 -0.80280936 0.52043223 0
4.1830001 -0.98086154 0.52682853 0
4.1920004 -0.98992562 0.52712077 0
4.2010002 -0.99902219 0.52741295 0
4.2020001 -1.0061311 0.52744544 0
4.2010002 -1.0127348 0.52741295 0
4.2020001 -1.0198472 0.52744544 0
4.204 -1.0272212 0.52751034 0
4.2080002 -1.0351218 0.52764022 0
4.118 -0.41486076 0.51801151 0
4.112 -0.42096123 0.51782751 0
4.105 -0.42693725 0.51761287 0
4.098 -0.432888 0.51739824 0
4.092 -0.43891993 0.51721424 0
4.085 -0.44482198 0.5169996 0
4.079 -0.45080882 0.5168156 0
4.072 -0.45666221 0.51660097 0
4.066 -0.46260393 0.51641697 0
4.059 -0.46840858 0.51620233 0
4.053 -0.47430524 0.51601833 0
4.0469999 -0.48018026 0.51583433 0
4.04 -0.48591274 0.51561964 0
4.0339999 -0.49174264 0.5154357 0
4.027 -0.49742645 0.515221 0
4.0210004 -0.50321126 0.51503706 0
4.0150003 -0.50897443 0.51485306 0
4.0090003 -0.51471597 0.51466906 0
4.0020003 -0.52030414 0.51445442 0
3.9960003 -0.52600056 0.51427042 0
3.9900002 -0.53167534 0.51408643 0
3.9840002 -0.53732848 0.51390243 0
3.9780002 -0.54295999 0.51371843 0
3.9710002 -0.54842913 0.51350379 0
3.9650002 -0.55401552 0.51331979 0
3.9590003 -0.55958033 0.51313585 0
3.9530003 -0.56512344 0.51295185 0
3.9470003 -0.5706448 0.51276785 0
3.9410002 -0.57614464 0.51258385 0
3.9350002 -0.58162278 0.51239985 0
3.9290004 -0.58707935 0.51221585 0
3.9230003 -0.59251422 0.51203191 0
3.9170003 -0.59792745 0.51184791 0
3.9110003 -0.60331905 0.51166391 0
3.9050002 -0.60868895 0.51147991 0
3.8990002 -0.61403722 0.51129591 0
3.8930004 -0.61936396 0.51111197 0
3.8880002 -0.6248349 0.51095861 0
3.8820002 -0.63012004 0.51077461 0
3.8760002 -0.63538355 0.51059067 0
3.8700004 -0.64062542 0.51040667 0
3.8640003 -0.64584559 0.51022267 0
3.8590002 -0.65121913 0.51006937 0
3.8530002 -0.65639788 0.50988537 0
3.8470004 -0.66155499 0.50970137 0
3.8410003 -0.66669047 0.50951737 0
3.8360002 -0.6719864 0.50936407 0
3.8390002 -0.67873627 0.50945604 0
3.8450003 -0.68605429 0.50964004 0
3.8520002 -0.69358158 0.50985467 0
3.8590002 -0.70113415 0.51006937 0
3.9920003 -0.73280358 0.51414776 0
3.9860003 -0.73812485 0.51396376 0
3.9820004 -0.74381405 0.51384109 0
3.9790003 -0.74968547 0.51374912 0
3.9770002 -0.7557444 0.51368779 0
3.9750004 -0.76179624 0.51362646 0
3.9740002 -0.7680428 0.51359582 0
3.9740002 -0.77448958 0.51359582 0
3.9750004 -0.78114206 0.51362646 0
3.9770002 -0.78800553 0.51368779 0
3.9800003 -0.79508549 0.51377976 0
3.9860003 -0.80280936 0.51396376 0
4.0550003 -0.84374326 0.51607966 0
4.0490003 -0.84901571 0.51589566 0
4.0510001 -0.85604161 0.515957 0
4.059 -0.86441666 0.51620233 0
4.0669999 -0.87282056 0.5164476 0
4.1740003 -0.98544496 0.51972872 0
4.1820002 -0.99425834 0.51997405 0
4.191 -1.0033531 0.52025002 0
4.1990004 -1.0122261 0.52049536 0
4.2080002 -1.021384 0.52077132 0
4.118 -0.41486076 0.51130497 0
4.112 -0.42096123 0.51113176 0
4.105 -0.42693725 0.51092976 0
4.098 -0.432888 0.51072776 0
4.092 -0.43891993 0.51055455 0
4.085 -0.44482198 0.51035255 0
4.079 -0.45080882 0.5101794 0
4.072 -0.45666221 0.50997734 0
4.066 -0.46260393 0.50980419 0
4.059 -0.46840858 0.50960219 0
4.053 -0.47430524 0.50942898 0
4.0469999 -0.48018026 0.50925583 0
4.04 -0.48591274 0.50905383 0
4.0339999 -0.49174264 0.50888062 0
4.027 -0.49742645 0.50867862 0
4.0210004 -0.50321126 0.50850546 0
4.0150003 -0.50897443 0.50833225 0
4.0090003 -0.51471597 0.5081591 0
4.0020003 -0.52030414 0.5079571 0
3.9960003 -0.52600056 0.50778395 0
3.9900002 -0.53167534 0.50761074 0
3.9840002 -0.53732848 0.50743759 0
3.9780002 -0.54295999 0.50726444 0
3.9710002 -0.54842913 0.50706238 0
3.9650002 -0.55401552 0.50688922 0
3.9590003 -0.55958033 0.50671607 0
3.9530003 -0.56512344 0.50654292 0
3.9470003 -0.5706448 0.50636971 0
3.9410002 -0.57614464 0.50619656 0
3.9350002 -0.58162278 0.50602341 0
3.9290004 -0.58707935 0.50585026 0
3.9230003 -0.59251422 0.5056771 0
3.9170003 -0.59792745 0.50550389 0
3.9110003 -0.60331905 0.50533074 0
3.9050002 -0.60868895 0.50515759 0
3.8990002 -0.61403722 0.50498438 0
3.8930004 -0.61936396 0.50481123 0
3.8880002 -0.6248349 0.50466692 0
3.8820002 -0.63012004 0.50449377 0
3.8760002 -0.63538355 0.50432062 0
3.8700004 -0.64062542 0.50414747 0
3.8640003 -0.64584559 0.50397426 0
3.8590002 -0.65121913 0.50382996 0
3.8530002 -0.65639788 0.5036568 0
3.8470004 -0.66155499 0.50348365 0
3.8410003 -0.66669047 0.5033105 0
3.8360002 -0.6719864 0.5031662 0
3.8390002 -0.67873627 0.50325274 0
3.8450003 -0.68605429 0.50342596 0
3.8520002 -0.69358158 0.50362796 0
3.8590002 -0.70113415 0.50382996 0
3.9920003 -0.73280358 0.5076685 0
3.9860003 -0.73812485 0.50749528 0
3.9820004 -0.74381405 0.50737989 0
3.9790003 -0.74968547 0.50729328 0
3.9770002 -0.7557444 0.50723559 0
3.9750004 -0.76179624 0.50717783 0
3.9740002 -0.7680428 0.50714898 0
3.9740002 -0.77448958 0.50714898 0
3.9750004 -0.78114206 0.50717783 0
3.9770002 -0.78800553 0.50723559 0
3.9800003 -0.79508549 0.50732213 0
3.9860003 -0.80280936 0.50749528 0
4.0610003 -0.83844906 0.50965989 0
4.0550003 -0.84374326 0.50948673 0
4.0490003 -0.84901571 0.50931358 0
4.0440001 -0.85448855 0.50916922 0
4.0500002 -0.86240357 0.50934243 0
4.0580001 -0.87079132 0.50957328 0
4.066 -0.87920785 0.50980419 0
4.073 -0.88742423 0.51000619 0
4.171 -0.99150032 0.51283461 0
4.1790004 -1.0003228 0.51306546 0
4.1870003 -1.0091741 0.51329637 0
4.1960001 -1.0183103 0.51355612 0
4.204 -1.0272212 0.51378697 0
4.118 -0.41486076 0.50459838 0
4.112 -0.42096123 0.50443608 0
4.105 -0.42693725 0.50424665 0
4.098 -0.432888 0.50405723 0
4.092 -0.43891993 0.50389493 0
4.085 -0.44482198 0.5037055 0
4.079 -0.45080882 0.50354314 0
4.072 -0.45666221 0.50335377 0
4.066 -0.46260393 0.50319141 0
4.059 -0.46840858 0.50300205 0
4.053 -0.47430524 0.50283968 0
4.0469999 -0.48018026 0.50267732 0
4.04 -0.48591274 0.50248796 0
4.0339999 -0.49174264 0.50232559 0
4.027 -0.49742645 0.50213623 0
4.0210004 -0.50321126 0.50197387 0
4.0150003 -0.50897443 0.5018115 0
4.0090003 -0.51471597 0.50164914 0
4.0020003 -0.52030414 0.50145978 0
3.9960003 -0.52600056 0.50129741 0
3.9900002 -0.53167534 0.50113511 0
3.9840002 -0.53732848 0.50097275 0
3.9780002 -0.54295999 0.50081038 0
3.9710002 -0.54842913 0.50062102 0
3.9650002 -0.55401552 0.50045866 0
3.9590003 -0.55958033 0.50029629 0
3.9530003 -0.56512344 0.50013399 0
3.9470003 -0.5706448 0.49997163 0
3.9410002 -0.57614464 0.49980929 0
3.9350002 -0.58162278 0.49964696 0
3.9290004 -0.58707935 0.4994846 0
3.9230003 -0.59251422 0.49932227 0
3.9170003 -0.59792745 0.49915993 0
3.9110003 -0.60331905 0.49899757 0
3.9050002 -0.60868895 0.49883524 0
3.8990002 -0.61403722 0.4986729 0
3.8930004 -0.61936396 0.49851054 0
3.8880002 -0.6248349 0.49837527 0
3.8820002 -0.63012004 0.49821293 0
3.8760002 -0.63538355 0.49805057 0
3.8700004 -0.64062542 0.49788824 0
3.8640003 -0.64584559 0.4977259 0
3.8590002 -0.65121913 0.4975906 0
3.8530002 -0.65639788 0.49742827 0
3.8470004 -0.66155499 0.49726593 0
3.8410003 -0.66669047 0.49710357 0
3.8360002 -0.6719864 0.49696827 0
3.8390002 -0.67873627 0.49704945 0
3.8450003 -0.68605429 0.49721181 0
3.8520002 -0.69358158 0.49740121 0
3.8590002 -0.70113415 0.4975906 0
3.9920003 -0.73280358 0.50118923 0
3.9860003 -0.73812485 0.50102687 0
3.9820004 -0.74381405 0.50091863 0
3.9790003 -0.74968547 0.50083745 0
3.9770002 -0.7557444 0.50078332 0
3.9750004 -0.76179624 0.5007292 0
3.9740002 -0.7680428 0.50070214 0
3.9740002 -0.77448958 0.50070214 0
3.9750004 -0.78114206 0.5007292 0
3.9770002 -0.78800553 0.50078332 0
3.9800003 -0.79508549 0.50086451 0
3.9860003 -0.80280936 0.50102687 0
4.0669999 -0.83313322 0.50321847 0
4.0610003 -0.83844906 0.50305617 0
4.0550003 -0.84374326 0.50289381 0
4.0490003 -0.84901571 0.50273144 0
4.0440001 -0.85448855 0.5025962 0
4.0440001 -0.86106163 0.5025962 0
4.052 -0.86943847 0.50281262 0
4.059 -0.87761694 0.50300205 0
4.0669999 -0.88604975 0.50321847 0
4.0750003 -0.8945114 0.50343496 0
4.0830002 -0.9030019 0.50365138 0
4.0910001 -0.91152132 0.50386786 0
4.099 -0.92006958 0.50408429 0
4.1070004 -0.92864668 0.50430077 0
4.1150002 -0.93725264 0.5045172 0
4.1630001 -0.9894945 0.50581598 0
4.171 -0.99830246 0.50603241 0
4.1800003 -1.0073937 0.50627595 0
4.1880002 -1.0162611 0.50649238 0
4.1960001 -1.0251577 0.50670886 0
4.2049999 -1.0343425 0.50695235 0
4.118 -0.41486076 0.49789184 0
4.112 -0.42096123 0.49774033 0
4.105 -0.42693725 0.49756354 0
4.098 -0.432888 0.49738678 0
4.092 -0.43891993 0.49723524 0
4.085 -0.44482198 0.49705848 0
4.079 -0.45080882 0.49690697 0
4.072 -0.45666221 0.49673018 0
4.066 -0.46260393 0.49657866 0
4.059 -0.46840858 0.49640191 0
4.053 -0.47430524 0.49625039 0
4.0469999 -0.48018026 0.49609885 0
4.04 -0.48591274 0.49592209 0
4.0339999 -0.49174264 0.49577057 0
4.027 -0.49742645 0.49559379 0
4.0210004 -0.50321126 0.49544227 0
4.0150003 -0.50897443 0.49529076 0
4.0090003 -0.51471597 0.49513924 0
4.0020003 -0.52030414 0.49496245 0
3.9960003 -0.52600056 0.49481094 0
3.9900002 -0.53167534 0.49465942 0
3.9840002 -0.53732848 0.49450791 0
3.9780002 -0.54295999 0.49435639 0
3.9710002 -0.54842913 0.49417961 0
3.9650002 -0.55401552 0.49402809 0
3.9590003 -0.55958033 0.49387658 0
3.9530003 -0.56512344 0.49372506 0
3.9470003 -0.5706448 0.49357352 0
3.9410002 -0.57614464 0.493422 0
3.9350002 -0.58162278 0.49327049 0
3.9290004 -0.58707935 0.49311897 0
3.9230003 -0.59251422 0.49296743 0
3.9170003 -0.59792745 0.49281591 0
3.9110003 -0.60331905 0.4926644 0
3.9050002 -0.60868895 0.49251288 0
3.8990002 -0.61403722 0.49236137 0
3.8930004 -0.61936396 0.49220985 0
3.8880002 -0.6248349 0.49208358 0
3.8820002 -0.63012004 0.49193206 0
3.8760002 -0.63538355 0.49178052 0
3.8700004 -0.64062542 0.491629 0
3.8640003 -0.64584559 0.49147749 0
3.8590002 -0.65121913 0.49135125 0
3.8530002 -0.65639788 0.4911997 0
3.8470004 -0.66155499 0.49104819 0
3.8410003 -0.66669047 0.49089667 0
3.8360002 -0.6719864 0.4907704 0
3.8390002 -0.67873627 0.49084616 0
3.8450003 -0.68605429 0.49099767 0
3.8520002 -0.69358158 0.49117446 0
3.8590002 -0.70113415 0.49135125 0
3.9920003 -0.73280358 0.49470991 0
3.9860003 -0.73812485 0.49455839 0
3.9820004 -0.74381405 0.49445739 0
3.9790003 -0.74968547 0.49438164 0
3.9770002 -0.7557444 0.49433112 0
3.9750004 -0.76179624 0.49428061 0
3.9740002 -0.7680428 0.49425536 0
3.9740002 -0.77448958 0.49425536 0
3.9750004 -0.78114206 0.49428061 0
3.9770002 -0.78800553 0.49433112 0
3.9800003 -0.79508549 0.49440688 0
3.9860003 -0.80280936 0.49455839 0
4.0669999 -0.83313322 0.49660391 0
4.0610003 -0.83844906 0.49645239 0
4.0550003 -0.84374326 0.49630088 0
4.0490003 -0.84901571 0.49614936 0
4.0440001 -0.85448855 0.49602309 0
4.04 -0.86016691 0.49592209 0
4.0480003 -0.86853659 0.49612412 0
4.0560002 -0.87693506 0.49632615 0
4.0630002 -0.88513339 0.49650291 0
4.0710001 -0.89358789 0.49670494 0
4.079 -0.90207112 0.49690697 0
4.086 -0.91034883 0.49708372 0
4.0940003 -0.91888809 0.49728575 0
4.1020002 -0.92745614 0.49748778 0
4.1100001 -0.9360531 0.49768981 0
4.118 -0.94467896 0.49789184 0
4.1259999 -0.95333356 0.49809387 0
4.1340003 -0.96201712 0.4982959 0
4.1420002 -0.97072947 0.4984979 0
4.1500001 -0.97947085 0.49869996 0
4.158 -0.98824084 0.49890196 0
4.1660004 -0.99703991 0.49910399 0
4.1740003 -1.0058677 0.49930602 0
4.1820002 -1.0147244 0.49950805 0
4.191 -1.0238678 0.49973533 0
4.1990004 -1.0327841 0.49993736 0
4.118 -0.41486076 0.49118528 0
4.112 -0.42096123 0.49104458 0
4.105 -0.42693725 0.49088043 0
4.098 -0.432888 0.49071628 0
4.092 -0.43891993 0.49057561 0
4.085 -0.44482198 0.49041146 0
4.079 -0.45080882 0.49027076 0
4.072 -0.45666221 0.49010661 0
4.066 -0.46260393 0.48996592 0
4.059 -0.46840858 0.48980176 0
4.053 -0.47430524 0.48966107 0
4.0469999 -0.48018026 0.48952037 0
4.04 -0.48591274 0.48935622 0
4.0339999 -0.49174264 0.48921552 0
4.027 -0.49742645 0.48905137 0
4.0210004 -0.50321126 0.48891068 0
4.0150003 -0.50897443 0.48876998 0
4.0090003 -0.51471597 0.48862928 0
4.0020003 -0.52030414 0.48846513 0
3.9960003 -0.52600056 0.48832443 0
3.9900002 -0.53167534 0.48818374 0
3.9840002 -0.53732848 0.48804304 0
3.9780002 -0.54295999 0.48790234 0
3.9710002 -0.54842913 0.48773819 0
3.9650002 -0.55401552 0.4875975 0
3.9590003 -0.55958033 0.4874568 0
3.9530003 -0.56512344 0.48731613 0
3.9470003 -0.5706448 0.48717541 0
3.9410002 -0.57614464 0.48703471 0
3.9350002 -0.58162278 0.48689401 0
3.9290004 -0.58707935 0.48675331 0
3.9230003 -0.59251422 0.48661262 0
3.9170003 -0.59792745 0.48647192 0
3.9110003 -0.60331905 0.48633122 0
3.9050002 -0.60868895 0.48619053 0
3.8990002 -0.61403722 0.48604983 0
