# .PCD v0.7 - Point Cloud Data file format
VERSION 0.7
FIELDS x y z intensity
SIZE 4 4 4 4
TYPE F F F F
COUNT 1 1 1 1
WIDTH 1456
HEIGHT 1
VIEWPOINT 0 0 0 1 0 0 0
POINTS 1456
DATA ascii
4.9390001 1.8616841 0.46131241 0
4.9450002 1.8560076 0.46138817 0
4.9510002 1.8503093 0.46146393 0
4.9580002 1.8450042 0.46155232 0
4.9640002 1.8392609 0.46162808 0
4.9700003 1.8334961 0.46170384 0
4.9760003 1.8277094 0.46177959 0
4.9820004 1.8219012 0.46185535 0
4.9880004 1.8160713 0.46193111 0
4.9950004 1.8106236 0.4620195 0
5.0010004 1.8047488 0.46209526 0
5.0070004 1.7988522 0.46217102 0
5.0130005 1.7929338 0.46224678 0
5.0200005 1.7873907 0.46233517 0
5.0260005 1.7814274 0.46241093 0
5.0320005 1.7754424 0.46248668 0
5.0390005 1.7698271 0.46257508 0
5.0450006 1.7637969 0.46265084 0
5.0510001 1.757745 0.46272659 0
5.0580001 1.7520577 0.46281499 0
5.0640001 1.7459607 0.46289074 0
5.0710001 1.7402246 0.46297914 0
5.0770001 1.7340826 0.4630549 0
5.0840001 1.7282978 0.46314329 0
5.0900002 1.7221109 0.46321905 0
5.0960002 1.7159021 0.4632948 0
5.1030002 1.7100451 0.4633832 0
5.1100001 1.704163 0.46347156 0
5.1160002 1.6978856 0.46354732 0
5.1230001 1.6919547 0.46363571 0
5.1290002 1.6856323 0.46371147 0
5.1360002 1.6796527 0.46379986 0
4.4700003 2.2959383 0.44804901 0
4.4750004 2.291465 0.44810313 0
4.4800005 2.2869735 0.44815725 0
4.4850001 2.2824638 0.44821134 0
4.4900002 2.2779365 0.44826546 0
4.4950004 2.2733908 0.44831958 0
4.5000005 2.2688272 0.44837371 0
4.5050001 2.2642453 0.4484278 0
4.5100002 2.2596457 0.44848192 0
4.5150003 2.255028 0.44853604 0
4.5200005 2.2503922 0.44859016 0
4.5250001 2.2457383 0.44864428 0
4.5300002 2.2410665 0.44869837 0
4.5350003 2.2363765 0.44875249 0
4.5400004 2.2316687 0.44880661 0
4.5450001 2.2269425 0.4488607 0
4.5500002 2.2221987 0.44891483 0
4.5550003 2.2174366 0.44896895 0
4.5600004 2.2126567 0.44902307 0
4.5660005 2.2083995 0.44908801 0
4.5710001 2.2035816 0.44914213 0
4.5760002 2.1987455 0.44919622 0
4.5810003 2.1938915 0.44925034 0
4.5860004 2.1890197 0.44930446 0
4.5910001 2.1841292 0.44935858 0
4.5960002 2.1792212 0.4494127 0
4.6020002 2.1748233 0.44947761 0
4.6070004 2.1698775 0.44953173 0
4.6120005 2.1649134 0.44958586 0
4.6170001 2.1599312 0.44963998 0
4.6230001 2.1554523 0.44970492 0
4.6280003 2.1504323 0.44975901 0
4.6330004 2.1453943 0.44981313 0
4.6380005 2.1403384 0.44986725 0
4.6440005 2.1357784 0.44993219 0
4.6490002 2.1306844 0.44998631 0
4.6540003 2.1255722 0.45004043 0
4.6600003 2.1209509 0.45010537 0
4.6650004 2.1158011 0.45015946 0
4.6700001 2.1106329 0.45021358 0
4.6760001 2.1059504 0.45027852 0
4.6810002 2.1007447 0.45033264 0
4.6870003 2.0960205 0.45039755 0
4.6920004 2.0907767 0.45045167 0
4.6980004 2.0860112 0.45051661 0
4.7030001 2.0807295 0.45057073 0
4.7080002 2.0754299 0.45062485 0
4.7140002 2.0706031 0.45068979 0
4.7190003 2.0652657 0.45074391 0
4.7250004 2.0603971 0.45080882 0
4.7300005 2.0550218 0.45086294 0
4.7360005 2.0501118 0.45092788 0
4.7420001 2.0451801 0.45099282 0
4.7470002 2.039747 0.45104694 0
4.7530003 2.0347738 0.45111188 0
4.7580004 2.0293031 0.451166 0
4.7640004 2.0242884 0.45123094 0
4.7700005 2.0192523 0.45129585 0
4.7750001 2.0137234 0.45134997 0
4.7810001 2.0086458 0.45141491 0
4.7870002 2.0035465 0.45147985 0
4.7920003 1.9979601 0.45153397 0
4.7980003 1.9928191 0.45159891 0
4.8040004 1.9876568 0.45166385 0
4.8090005 1.9820125 0.45171797 0
4.8150005 1.9768088 0.45178288 0
4.8210001 1.9715829 0.45184782 0
4.8270001 1.9663355 0.45191276 0
4.8320003 1.960614 0.45196688 0
4.8380003 1.9553251 0.45203182 0
4.8440003 1.9500148 0.45209676 0
4.8500004 1.9446828 0.4521617 0
4.8560004 1.9393291 0.45222664 0
4.8620005 1.9339538 0.45229158 0
4.8670001 1.9281148 0.45234567 0
4.8730001 1.9226978 0.45241061 0
4.8790002 1.9172593 0.45247555 0
4.8850002 1.9117992 0.45254049 0
4.8910003 1.9063176 0.45260543 0
4.8970003 1.9008141 0.45267037 0
4.9030004 1.8952891 0.4527353 0
4.9090004 1.8897425 0.45280024 0
4.9150004 1.884174 0.45286518 0
4.9210005 1.878584 0.45293012 0
4.9270005 1.8729725 0.45299506 0
4.9330001 1.867339 0.45305997 0
4.9390001 1.8616841 0.45312494 0
4.9450002 1.8560076 0.45318985 0
4.9510002 1.8503093 0.45325479 0
4.9580002 1.8450042 0.45333055 0
4.9640002 1.8392609 0.45339549 0
4.9700003 1.8334961 0.45346043 0
4.9760003 1.8277094 0.45352536 0
4.9820004 1.8219012 0.4535903 0
4.9880004 1.8160713 0.45365524 0
4.9950004 1.8106236 0.453731 0
5.0010004 1.8047488 0.45379594 0
5.0070004 1.7988522 0.45386088 0
5.0130005 1.7929338 0.45392582 0
5.0200005 1.7873907 0.45400158 0
5.0260005 1.7814274 0.45406651 0
5.0320005 1.7754424 0.45413145 0
5.0390005 1.7698271 0.45420721 0
5.0450006 1.7637969 0.45427215 0
5.0510001 1.757745 0.45433709 0
5.0580001 1.7520577 0.45441285 0
5.0640001 1.7459607 0.45447779 0
5.0710001 1.7402246 0.45455354 0
5.0770001 1.7340826 0.45461848 0
5.0840001 1.7282978 0.45469424 0
5.0900002 1.7221109 0.45475918 0
5.0960002 1.7159021 0.45482412 0
5.1030002 1.7100451 0.45489988 0
5.1100001 1.704163 0.45497563 0
5.1160002 1.6978856 0.45504057 0
5.1230001 1.6919547 0.45511633 0
5.1290002 1.6856323 0.45518127 0
5.1360002 1.6796527 0.45525703 0
4.4700003 2.2959383 0.4407075 0
4.4750004 2.291465 0.4407526 0
4.4800005 2.2869735 0.44079769 0
4.4850001 2.2824638 0.44084281 0
4.4900002 2.2779365 0.4408879 0
4.4950004 2.2733908 0.44093299 0
4.5000005 2.2688272 0.44097808 0
4.5050001 2.2642453 0.44102317 0
4.5100002 2.2596457 0.44106826 0
4.5150003 2.255028 0.44111335 0
4.5200005 2.2503922 0.44115847 0
4.5250001 2.2457383 0.44120356 0
4.5300002 2.2410665 0.44124866 0
4.5350003 2.2363765 0.44129375 0
4.5400004 2.2316687 0.44133884 0
4.5450001 2.2269425 0.44138393 0
4.5500002 2.2221987 0.44142902 0
4.5550003 2.2174366 0.44147414 0
4.5600004 2.2126567 0.44151923 0
4.5660005 2.2083995 0.44157335 0
4.5710001 2.2035816 0.44161844 0
4.5760002 2.1987455 0.44166353 0
4.5810003 2.1938915 0.44170862 0
4.5860004 2.1890197 0.44175372 0
4.5910001 2.1841292 0.44179881 0
4.5960002 2.1792212 0.4418439 0
4.6020002 2.1748233 0.44189802 0
4.6070004 2.1698775 0.44194311 0
4.6120005 2.1649134 0.44198823 0
4.6170001 2.1599312 0.44203329 0
4.6230001 2.1554523 0.44208741 0
4.6280003 2.1504323 0.44213253 0
4.6330004 2.1453943 0.44217762 0
4.6380005 2.1403384 0.44222271 0
4.6440005 2.1357784 0.44227684 0
4.6490002 2.1306844 0.44232193 0
4.6540003 2.1255722 0.44236702 0
4.6600003 2.1209509 0.44242114 0
4.6650004 2.1158011 0.44246623 0
4.6700001 2.1106329 0.44251132 0
4.6760001 2.1059504 0.44256544 0
4.6810002 2.1007447 0.44261053 0
4.6870003 2.0960205 0.44266465 0
4.6920004 2.0907767 0.44270974 0
4.6980004 2.0860112 0.44276386 0
4.7030001 2.0807295 0.44280896 0
4.7080002 2.0754299 0.44285405 0
4.7140002 2.0706031 0.44290817 0
4.7190003 2.0652657 0.44295326 0
4.7250004 2.0603971 0.44300738 0
4.7300005 2.0550218 0.44305247 0
4.7360005 2.0501118 0.44310659 0
4.7420001 2.0451801 0.44316068 0
4.7470002 2.039747 0.44320577 0
4.7530003 2.0347738 0.44325989 0
4.7580004 2.0293031 0.44330499 0
4.7640004 2.0242884 0.44335911 0
4.7700005 2.0192523 0.44341323 0
4.7750001 2.0137234 0.44345832 0
4.7810001 2.0086458 0.44351244 0
4.7870002 2.0035465 0.44356656 0
4.7920003 1.9979601 0.44361165 0
4.7980003 1.9928191 0.44366574 0
4.8040004 1.9876568 0.44371986 0
4.8090005 1.9820125 0.44376498 0
4.8150005 1.9768088 0.44381908 0
4.8210001 1.9715829 0.4438732 0
4.8270001 1.9663355 0.44392732 0
4.8320003 1.960614 0.44397241 0
4.8380003 1.9553251 0.44402653 0
4.8440003 1.9500148 0.44408062 0
4.8500004 1.9446828 0.44413474 0
4.8560004 1.9393291 0.44418886 0
4.8620005 1.9339538 0.44424298 0
4.8670001 1.9281148 0.44428807 0
4.8730001 1.9226978 0.4443422 0
4.8790002 1.9172593 0.44439629 0
4.8850002 1.9117992 0.44445041 0
4.8910003 1.9063176 0.44450453 0
4.8970003 1.9008141 0.44455865 0
4.9030004 1.8952891 0.44461274 0
4.9090004 1.8897425 0.44466686 0
4.9150004 1.884174 0.44472098 0
4.9210005 1.878584 0.4447751 0
4.9270005 1.8729725 0.44482923 0
4.9330001 1.867339 0.44488332 0
4.9390001 1.8616841 0.44493744 0
4.9450002 1.8560076 0.44499156 0
4.9510002 1.8503093 0.44504568 0
4.9580002 1.8450042 0.4451088 0
4.9640002 1.8392609 0.44516292 0
4.9700003 1.8334961 0.44521704 0
4.9760003 1.8277094 0.44527113 0
4.9820004 1.8219012 0.44532526 0
4.9880004 1.8160713 0.44537938 0
4.9950004 1.8106236 0.4454425 0
5.0010004 1.8047488 0.44549662 0
5.0070004 1.7988522 0.44555074 0
5.0130005 1.7929338 0.44560486 0
5.0200005 1.7873907 0.44566798 0
5.0260005 1.7814274 0.4457221 0
5.0320005 1.7754424 0.44577622 0
5.0390005 1.7698271 0.44583935 0
5.0450006 1.7637969 0.44589347 0
5.0510001 1.757745 0.44594759 0
5.0580001 1.7520577 0.44601071 0
5.0640001 1.7459607 0.44606483 0
5.0710001 1.7402246 0.44612795 0
5.0770001 1.7340826 0.44618207 0
5.0830002 1.727919 0.44623619 0
5.0900002 1.7221109 0.44629931 0
5.0960002 1.7159021 0.44635344 0
5.1030002 1.7100451 0.44641656 0
5.1100001 1.704163 0.44647968 0
5.1160002 1.6978856 0.4465338 0
5.1230001 1.6919547 0.44659695 0
5.1290002 1.6856323 0.44665107 0
5.1360002 1.6796527 0.44671419 0
4.4700003 2.2959383 0.433366 0
4.4750004 2.291465 0.43340209 0
4.4800005 2.2869735 0.43343815 0
4.4850001 2.2824638 0.43347424 0
4.4900002 2.2779365 0.4335103 0
4.4950004 2.2733908 0.43354639 0
4.5000005 2.2688272 0.43358248 0
4.5050001 2.2642453 0.43361855 0
4.5100002 2.2596457 0.43365461 0
4.5150003 2.255028 0.4336907 0
4.5200005 2.2503922 0.43372679 0
4.5250001 2.2457383 0.43376285 0
4.5300002 2.2410665 0.43379894 0
4.5350003 2.2363765 0.433835 0
4.5400004 2.2316687 0.43387109 0
4.5450001 2.2269425 0.43390715 0
4.5500002 2.2221987 0.43394324 0
4.5550003 2.2174366 0.4339793 0
4.5600004 2.2126567 0.43401539 0
4.5660005 2.2083995 0.43405867 0
4.5710001 2.2035816 0.43409476 0
4.5760002 2.1987455 0.43413082 0
4.5810003 2.1938915 0.43416691 0
4.5860004 2.1890197 0.43420297 0
4.5910001 2.1841292 0.43423906 0
4.5960002 2.1792212 0.43427512 0
4.6020002 2.1748233 0.43431842 0
4.6070004 2.1698775 0.43435448 0
4.6120005 2.1649134 0.43439057 0
4.6170001 2.1599312 0.43442667 0
4.6230001 2.1554523 0.43446994 0
4.6280003 2.1504323 0.43450603 0
4.6330004 2.1453943 0.43454209 0
4.6380005 2.1403384 0.43457818 0
4.6440005 2.1357784 0.43462145 0
4.6490002 2.1306844 0.43465754 0
4.6540003 2.1255722 0.4346936 0
4.6600003 2.1209509 0.43473691 0
4.6650004 2.1158011 0.43477297 0
4.6700001 2.1106329 0.43480906 0
4.6760001 2.1059504 0.43485236 0
4.6810002 2.1007447 0.43488842 0
4.6870003 2.0960205 0.43493173 0
4.6920004 2.0907767 0.43496779 0
4.6980004 2.0860112 0.43501109 0
4.7030001 2.0807295 0.43504715 0
4.7080002 2.0754299 0.43508324 0
4.7140002 2.0706031 0.43512654 0
4.7190003 2.0652657 0.4351626 0
4.7250004 2.0603971 0.43520591 0
4.7300005 2.0550218 0.43524197 0
4.7360005 2.0501118 0.43528527 0
4.7420001 2.0451801 0.43532854 0
4.7470002 2.039747 0.43536463 0
4.7530003 2.0347738 0.43540794 0
4.7580004 2.0293031 0.435444 0
4.7640004 2.0242884 0.4354873 0
4.7700005 2.0192523 0.43553057 0
4.7750001 2.0137234 0.43556666 0
4.7810001 2.0086458 0.43560994 0
4.7870002 2.0035465 0.43565324 0
4.7920003 1.9979601 0.43568933 0
4.7980003 1.9928191 0.4357326 0
4.8040004 1.9876568 0.43577591 0
4.8090005 1.9820125 0.43581197 0
4.8150005 1.9768088 0.43585527 0
4.8210001 1.9715829 0.43589854 0
4.8270001 1.9663355 0.43594185 0
4.8320003 1.960614 0.43597794 0
4.8380003 1.9553251 0.43602121 0
4.8440003 1.9500148 0.43606451 0
4.8500004 1.9446828 0.43610781 0
4.8560004 1.9393291 0.43615109 0
4.8620005 1.9339538 0.43619439 0
4.8670001 1.9281148 0.43623045 0
4.8730001 1.9226978 0.43627375 0
4.8790002 1.9172593 0.43631703 0
4.8850002 1.9117992 0.43636033 0
4.8910003 1.9063176 0.43640363 0
4.8970003 1.9008141 0.43644691 0
4.9030004 1.8952891 0.43649021 0
4.9090004 1.8897425 0.43653351 0
4.9150004 1.884174 0.43657678 0
4.9210005 1.878584 0.43662009 0
4.9270005 1.8729725 0.43666339 0
4.9330001 1.867339 0.43670666 0
4.9390001 1.8616841 0.43674996 0
4.9450002 1.8560076 0.43679324 0
4.9510002 1.8503093 0.43683654 0
4.9580002 1.8450042 0.43688706 0
4.9640002 1.8392609 0.43693033 0
4.9700003 1.8334961 0.43697363 0
4.9760003 1.8277094 0.4370169 0
4.9820004 1.8219012 0.43706021 0
4.9880004 1.8160713 0.43710351 0
4.9950004 1.8106236 0.437154 0
5.0010004 1.8047488 0.4371973 0
5.0070004 1.7988522 0.4372406 0
5.0130005 1.7929338 0.43728387 0
5.0200005 1.7873907 0.43733439 0
5.0260005 1.7814274 0.43737769 0
5.0320005 1.7754424 0.43742096 0
5.0390005 1.7698271 0.43747148 0
5.0450006 1.7637969 0.43751478 0
5.0510001 1.757745 0.43755805 0
5.0580001 1.7520577 0.43760857 0
5.0640001 1.7459607 0.43765187 0
5.0710001 1.7402246 0.43770236 0
5.0770001 1.7340826 0.43774566 0
5.0830002 1.727919 0.43778896 0
5.0900002 1.7221109 0.43783945 0
5.0960002 1.7159021 0.43788275 0
5.1030002 1.7100451 0.43793327 0
5.1100001 1.704163 0.43798375 0
5.1160002 1.6978856 0.43802705 0
5.1230001 1.6919547 0.43807757 0
5.1290002 1.6856323 0.43812084 0
5.1360002 1.6796527 0.43817136 0
4.4700003 2.2959383 0.42602453 0
4.4750004 2.291465 0.42605156 0
4.4800005 2.2869735 0.42607862 0
4.4850001 2.2824638 0.42610568 0
4.4900002 2.2779365 0.42613274 0
4.4950004 2.2733908 0.4261598 0
4.5000005 2.2688272 0.42618686 0
4.5050001 2.2642453 0.42621392 0
4.5100002 2.2596457 0.42624098 0
4.5150003 2.255028 0.42626804 0
4.5200005 2.2503922 0.42629507 0
4.5250001 2.2457383 0.42632213 0
4.5300002 2.2410665 0.42634919 0
4.5350003 2.2363765 0.42637625 0
4.5400004 2.2316687 0.42640331 0
4.5450001 2.2269425 0.42643037 0
4.5500002 2.2221987 0.42645743 0
4.5550003 2.2174366 0.4264845 0
4.5600004 2.2126567 0.42651156 0
4.5660005 2.2083995 0.42654401 0
4.5710001 2.2035816 0.42657107 0
4.5760002 2.1987455 0.42659813 0
4.5810003 2.1938915 0.42662519 0
4.5860004 2.1890197 0.42665225 0
4.5910001 2.1841292 0.42667928 0
4.5960002 2.1792212 0.42670634 0
4.6020002 2.1748233 0.42673883 0
4.6070004 2.1698775 0.42676589 0
4.6120005 2.1649134 0.42679295 0
4.6170001 2.1599312 0.42681998 0
4.6230001 2.1554523 0.42685246 0
4.6280003 2.1504323 0.42687953 0
4.6330004 2.1453943 0.42690659 0
4.6380005 2.1403384 0.42693365 0
4.6440005 2.1357784 0.4269661 0
4.6490002 2.1306844 0.42699316 0
4.6540003 2.1255722 0.42702022 0
4.6600003 2.1209509 0.42705268 0
4.6650004 2.1158011 0.42707974 0
4.6700001 2.1106329 0.4271068 0
4.6760001 2.1059504 0.42713925 0
4.6810002 2.1007447 0.42716631 0
4.6870003 2.0960205 0.4271988 0
4.6920004 2.0907767 0.42722586 0
4.6980004 2.0860112 0.42725831 0
4.7030001 2.0807295 0.42728537 0
4.7080002 2.0754299 0.42731243 0
4.7140002 2.0706031 0.42734489 0
4.7190003 2.0652657 0.42737195 0
4.7250004 2.0603971 0.42740443 0
4.7300005 2.0550218 0.42743149 0
4.7360005 2.0501118 0.42746395 0
4.7420001 2.0451801 0.42749643 0
4.7470002 2.039747 0.42752346 0
4.7530003 2.0347738 0.42755595 0
4.7580004 2.0293031 0.42758301 0
4.7640004 2.0242884 0.42761546 0
4.7700005 2.0192523 0.42764795 0
4.7750001 2.0137234 0.42767501 0
4.7810001 2.0086458 0.42770746 0
4.7870002 2.0035465 0.42773992 0
4.7920003 1.9979601 0.42776698 0
4.7980003 1.9928191 0.42779946 0
4.8040004 1.9876568 0.42783192 0
4.8090005 1.9820125 0.42785898 0
4.8150005 1.9768088 0.42789146 0
4.8210001 1.9715829 0.42792392 0
4.8270001 1.9663355 0.4279564 0
4.8320003 1.960614 0.42798346 0
4.8380003 1.9553251 0.42801592 0
4.8440003 1.9500148 0.42804837 0
4.8500004 1.9446828 0.42808086 0
4.8560004 1.9393291 0.42811331 0
4.8620005 1.9339538 0.4281458 0
4.8670001 1.9281148 0.42817286 0
4.8730001 1.9226978 0.42820531 0
4.8790002 1.9172593 0.4282378 0
4.8850002 1.9117992 0.42827025 0
4.8910003 1.9063176 0.42830274 0
4.8970003 1.9008141 0.42833519 0
4.9030004 1.8952891 0.42836767 0
4.9090004 1.8897425 0.42840013 0
4.9150004 1.884174 0.42843258 0
4.9210005 1.878584 0.42846507 0
4.9270005 1.8729725 0.42849752 0
4.9330001 1.867339 0.42853001 0
4.9390001 1.8616841 0.42856246 0
4.9450002 1.8560076 0.42859495 0
4.9510002 1.8503093 0.4286274 0
4.9580002 1.8450042 0.42866528 0
4.9640002 1.8392609 0.42869776 0
4.9700003 1.8334961 0.42873022 0
4.9760003 1.8277094 0.4287627 0
4.9820004 1.8219012 0.42879516 0
4.9880004 1.8160713 0.42882764 0
4.9950004 1.8106236 0.42886552 0
5.0010004 1.8047488 0.42889798 0
5.0070004 1.7988522 0.42893046 0
5.0130005 1.7929338 0.42896292 0
5.0200005 1.7873907 0.42900079 0
5.0260005 1.7814274 0.42903328 0
5.0320005 1.7754424 0.42906573 0
5.0390005 1.7698271 0.42910361 0
5.0450006 1.7637969 0.4291361 0
5.0510001 1.757745 0.42916855 0
5.0580001 1.7520577 0.42920643 0
5.0640001 1.7459607 0.42923889 0
5.0710001 1.7402246 0.42927676 0
5.0770001 1.7340826 0.42930925 0
5.0830002 1.727919 0.4293417 0
5.0900002 1.7221109 0.42937958 0
5.0960002 1.7159021 0.42941207 0
5.1030002 1.7100451 0.42944995 0
5.1100001 1.704163 0.42948782 0
5.1160002 1.6978856 0.42952028 0
5.1230001 1.6919547 0.42955816 0
5.1290002 1.6856323 0.42959064 0
5.1360002 1.6796527 0.42962852 0
4.4700003 2.2959383 0.41868302 0
4.4750004 2.291465 0.41870105 0
4.4800005 2.2869735 0.41871908 0
4.4850001 2.2824638 0.41873711 0
4.4900002 2.2779365 0.41875517 0
4.4950004 2.2733908 0.4187732 0
4.5000005 2.2688272 0.41879123 0
4.5050001 2.2642453 0.41880926 0
4.5100002 2.2596457 0.41882733 0
4.5150003 2.255028 0.41884536 0
4.5200005 2.2503922 0.41886339 0
4.5250001 2.2457383 0.41888142 0
4.5300002 2.2410665 0.41889948 0
4.5350003 2.2363765 0.41891751 0
4.5400004 2.2316687 0.41893554 0
4.5450001 2.2269425 0.4189536 0
4.5500002 2.2221987 0.41897163 0
4.5550003 2.2174366 0.41898966 0
4.5600004 2.2126567 0.41900769 0
4.5660005 2.2083995 0.41902936 0
4.5710001 2.2035816 0.41904739 0
4.5760002 2.1987455 0.41906542 0
4.5810003 2.1938915 0.41908345 0
4.5860004 2.1890197 0.41910151 0
4.5910001 2.1841292 0.41911954 0
4.5960002 2.1792212 0.41913757 0
4.6020002 2.1748233 0.41915923 0
4.6070004 2.1698775 0.41917726 0
4.6120005 2.1649134 0.41919529 0
4.6170001 2.1599312 0.41921332 0
4.6230001 2.1554523 0.41923499 0
4.6280003 2.1504323 0.41925302 0
4.6330004 2.1453943 0.41927105 0
4.6380005 2.1403384 0.41928908 0
4.6440005 2.1357784 0.41931075 0
4.6490002 2.1306844 0.41932878 0
4.6540003 2.1255722 0.41934681 0
4.6600003 2.1209509 0.41936845 0
4.6650004 2.1158011 0.41938651 0
4.6700001 2.1106329 0.41940454 0
4.6760001 2.1059504 0.41942617 0
4.6810002 2.1007447 0.41944423 0
4.6870003 2.0960205 0.41946587 0
4.6920004 2.0907767 0.4194839 0
4.6980004 2.0860112 0.41950554 0
4.7030001 2.0807295 0.4195236 0
4.7080002 2.0754299 0.41954163 0
4.7140002 2.0706031 0.41956326 0
4.7190003 2.0652657 0.41958132 0
4.7250004 2.0603971 0.41960296 0
4.7300005 2.0550218 0.41962099 0
4.7360005 2.0501118 0.41964263 0
4.7420001 2.0451801 0.41966429 0
4.7470002 2.039747 0.41968232 0
4.7530003 2.0347738 0.41970396 0
4.7580004 2.0293031 0.41972202 0
4.7640004 2.0242884 0.41974366 0
4.7700005 2.0192523 0.41976529 0
4.7750001 2.0137234 0.41978332 0
4.7810001 2.0086458 0.41980499 0
4.7870002 2.0035465 0.41982663 0
4.7920003 1.9979601 0.41984466 0
4.7980003 1.9928191 0.41986632 0
4.8040004 1.9876568 0.41988796 0
4.8090005 1.9820125 0.41990599 0
4.8150005 1.9768088 0.41992766 0
4.8210001 1.9715829 0.41994929 0
4.8270001 1.9663355 0.41997093 0
4.8320003 1.960614 0.41998896 0
4.8380003 1.9553251 0.42001063 0
4.8440003 1.9500148 0.42003226 0
4.8500004 1.9446828 0.4200539 0
4.8560004 1.9393291 0.42007557 0
4.8620005 1.9339538 0.4200972 0
4.8670001 1.9281148 0.42011523 0
4.8730001 1.9226978 0.42013687 0
4.8790002 1.9172593 0.42015854 0
4.8850002 1.9117992 0.42018017 0
4.8910003 1.9063176 0.42020181 0
4.8970003 1.9008141 0.42022347 0
4.9030004 1.8952891 0.42024511 0
4.9090004 1.8897425 0.42026675 0
4.9150004 1.884174 0.42028841 0
4.9210005 1.878584 0.42031005 0
4.9270005 1.8729725 0.42033169 0
4.9330001 1.867339 0.42035335 0
4.9390001 1.8616841 0.42037499 0
4.9450002 1.8560076 0.42039663 0
4.9510002 1.8503093 0.42041826 0
4.9580002 1.8450042 0.42044353 0
4.9640002 1.8392609 0.42046517 0
4.9700003 1.8334961 0.42048681 0
4.9760003 1.8277094 0.42050847 0
4.9820004 1.8219012 0.42053011 0
4.9880004 1.8160713 0.42055175 0
4.9950004 1.8106236 0.42057702 0
5.0010004 1.8047488 0.42059866 0
5.0070004 1.7988522 0.42062029 0
5.0130005 1.7929338 0.42064196 0
5.0200005 1.7873907 0.4206672 0
5.0260005 1.7814274 0.42068884 0
5.0320005 1.7754424 0.4207105 0
5.0390005 1.7698271 0.42073575 0
5.0450006 1.7637969 0.42075738 0
5.0510001 1.757745 0.42077905 0
5.0580001 1.7520577 0.42080429 0
5.0640001 1.7459607 0.42082593 0
5.0710001 1.7402246 0.4208512 0
5.0770001 1.7340826 0.42087284 0
5.0830002 1.727919 0.42089447 0
5.0900002 1.7221109 0.42091975 0
5.0960002 1.7159021 0.42094138 0
5.1030002 1.7100451 0.42096663 0
5.1100001 1.704163 0.4209919 0
5.1160002 1.6978856 0.42101353 0
5.1230001 1.6919547 0.42103878 0
5.1290002 1.6856323 0.42106044 0
5.1360002 1.6796527 0.42108569 0
4.4700003 2.2959383 0.41134152 0
4.4750004 2.291465 0.41135052 0
4.4800005 2.2869735 0.41135955 0
4.4850001 2.2824638 0.41136858 0
4.4900002 2.2779365 0.41137758 0
4.4950004 2.2733908 0.41138661 0
4.5000005 2.2688272 0.41139564 0
4.5050001 2.2642453 0.41140464 0
4.5100002 2.2596457 0.41141367 0
4.5150003 2.255028 0.4114227 0
4.5200005 2.2503922 0.4114317 0
4.5250001 2.2457383 0.41144073 0
4.5300002 2.2410665 0.41144973 0
4.5350003 2.2363765 0.41145876 0
4.5400004 2.2316687 0.41146779 0
4.5450001 2.2269425 0.41147679 0
4.5500002 2.2221987 0.41148582 0
4.5550003 2.2174366 0.41149485 0
4.5600004 2.2126567 0.41150385 0
4.5660005 2.2083995 0.41151467 0
4.5710001 2.2035816 0.4115237 0
4.5760002 2.1987455 0.41153273 0
4.5810003 2.1938915 0.41154173 0
4.5860004 2.1890197 0.41155076 0
4.5910001 2.1841292 0.41155976 0
4.5960002 2.1792212 0.41156879 0
4.6020002 2.1748233 0.41157961 0
4.6070004 2.1698775 0.41158864 0
4.6120005 2.1649134 0.41159767 0
4.6170001 2.1599312 0.41160667 0
4.6230001 2.1554523 0.41161749 0
4.6280003 2.1504323 0.41162652 0
4.6330004 2.1453943 0.41163555 0
4.6380005 2.1403384 0.41164455 0
4.6440005 2.1357784 0.41165537 0
4.6490002 2.1306844 0.4116644 0
4.6540003 2.1255722 0.41167343 0
4.6600003 2.1209509 0.41168424 0
4.6650004 2.1158011 0.41169325 0
4.6700001 2.1106329 0.41170228 0
4.6760001 2.1059504 0.41171309 0
4.6810002 2.1007447 0.41172212 0
4.6870003 2.0960205 0.41173294 0
4.6920004 2.0907767 0.41174197 0
4.6980004 2.0860112 0.41175279 0
4.7030001 2.0807295 0.41176179 0
4.7080002 2.0754299 0.41177082 0
4.7140002 2.0706031 0.41178164 0
4.7190003 2.0652657 0.41179067 0
4.7250004 2.0603971 0.41180149 0
4.7300005 2.0550218 0.41181052 0
4.7360005 2.0501118 0.41182134 0
4.7420001 2.0451801 0.41183215 0
4.7470002 2.039747 0.41184115 0
4.7530003 2.0347738 0.411852 0
4.7580004 2.0293031 0.411861 0
4.7640004 2.0242884 0.41187182 0
4.7700005 2.0192523 0.41188267 0
4.7750001 2.0137234 0.41189167 0
4.7810001 2.0086458 0.41190249 0
4.7870002 2.0035465 0.41191334 0
4.7920003 1.9979601 0.41192234 0
4.7980003 1.9928191 0.41193315 0
4.8040004 1.9876568 0.41194397 0
4.8090005 1.9820125 0.411953 0
4.8150005 1.9768088 0.41196382 0
4.8210001 1.9715829 0.41197464 0
4.8270001 1.9663355 0.41198549 0
4.8320003 1.960614 0.41199449 0
4.8380003 1.9553251 0.41200531 0
4.8440003 1.9500148 0.41201612 0
4.8500004 1.9446828 0.41202697 0
4.8560004 1.9393291 0.41203779 0
4.8620005 1.9339538 0.41204861 0
4.8670001 1.9281148 0.41205764 0
4.8730001 1.9226978 0.41206846 0
4.8790002 1.9172593 0.41207927 0
4.8850002 1.9117992 0.41209009 0
4.8910003 1.9063176 0.41210091 0
4.8970003 1.9008141 0.41211173 0
4.9030004 1.8952891 0.41212255 0
4.9090004 1.8897425 0.4121334 0
4.9150004 1.884174 0.41214421 0
4.9210005 1.878584 0.41215503 0
4.9270005 1.8729725 0.41216585 0
4.9330001 1.867339 0.41217667 0
4.9390001 1.8616841 0.41218749 0
4.9450002 1.8560076 0.41219833 0
4.9510002 1.8503093 0.41220915 0
4.9580002 1.8450042 0.41222176 0
4.9640002 1.8392609 0.41223261 0
4.9700003 1.8334961 0.41224343 0
4.9760003 1.8277094 0.41225424 0
4.9820004 1.8219012 0.41226506 0
4.9880004 1.8160713 0.41227588 0
4.9950004 1.8106236 0.41228852 0
5.0010004 1.8047488 0.41229934 0
5.0070004 1.7988522 0.41231015 0
5.0130005 1.7929338 0.41232097 0
5.0200005 1.7873907 0.41233361 0
5.0260005 1.7814274 0.41234443 0
5.0320005 1.7754424 0.41235524 0
5.0390005 1.7698271 0.41236788 0
5.0450006 1.7637969 0.4123787 0
5.0510001 1.757745 0.41238952 0
5.0580001 1.7520577 0.41240215 0
5.0640001 1.7459607 0.41241297 0
5.0710001 1.7402246 0.41242561 0
5.0770001 1.7340826 0.41243643 0
5.0830002 1.727919 0.41244724 0
5.0900002 1.7221109 0.41245988 0
5.0960002 1.7159021 0.4124707 0
5.1030002 1.7100451 0.41248333 0
5.1100001 1.704163 0.41249594 0
5.1160002 1.6978856 0.41250676 0
5.1230001 1.6919547 0.4125194 0
5.1290002 1.6856323 0.41253021 0
5.1360002 1.6796527 0.41254285 0
4.4700003 2.2959383 0.40400001 0
4.4750004 2.291465 0.40400001 0
4.4800005 2.2869735 0.40400001 0
4.4850001 2.2824638 0.40400001 0
4.4900002 2.2779365 0.40400001 0
4.4950004 2.2733908 0.40400001 0
4.5000005 2.2688272 0.40400001 0
4.5050001 2.2642453 0.40400001 0
4.5100002 2.2596457 0.40400001 0
4.5150003 2.255028 0.40400001 0
4.5200005 2.2503922 0.40400001 0
4.5250001 2.2457383 0.40400001 0
4.5300002 2.2410665 0.40400001 0
4.5350003 2.2363765 0.40400001 0
4.5400004 2.2316687 0.40400001 0
4.5450001 2.2269425 0.40400001 0
4.5500002 2.2221987 0.40400001 0
4.5550003 2.2174366 0.40400001 0
4.5600004 2.2126567 0.40400001 0
4.5660005 2.2083995 0.40400001 0
4.5710001 2.2035816 0.40400001 0
4.5760002 2.1987455 0.40400001 0
4.5810003 2.1938915 0.40400001 0
4.5860004 2.1890197 0.40400001 0
4.5910001 2.1841292 0.40400001 0
4.5960002 2.1792212 0.40400001 0
4.6020002 2.1748233 0.40400001 0
4.6070004 2.1698775 0.40400001 0
4.6120005 2.1649134 0.40400001 0
4.6170001 2.1599312 0.40400001 0
4.6230001 2.1554523 0.40400001 0
4.6280003 2.1504323 0.40400001 0
4.6330004 2.1453943 0.40400001 0
4.6380005 2.1403384 0.40400001 0
4.6440005 2.1357784 0.40400001 0
4.6490002 2.1306844 0.40400001 0
4.6540003 2.1255722 0.40400001 0
4.6600003 2.1209509 0.40400001 0
4.6650004 2.1158011 0.40400001 0
4.6700001 2.1106329 0.40400001 0
4.6760001 2.1059504 0.40400001 0
4.6810002 2.1007447 0.40400001 0
4.6870003 2.0960205 0.40400001 0
4.6920004 2.0907767 0.40400001 0
4.6980004 2.0860112 0.40400001 0
4.7030001 2.0807295 0.40400001 0
4.7080002 2.0754299 0.40400001 0
4.7140002 2.0706031 0.40400001 0
4.7190003 2.0652657 0.40400001 0
4.7250004 2.0603971 0.40400001 0
4.7300005 2.0550218 0.40400001 0
4.7360005 2.0501118 0.40400001 0
4.7420001 2.0451801 0.40400001 0
4.7470002 2.039747 0.40400001 0
4.7530003 2.0347738 0.40400001 0
4.7580004 2.0293031 0.40400001 0
4.7640004 2.0242884 0.40400001 0
4.7700005 2.0192523 0.40400001 0
4.7750001 2.0137234 0.40400001 0
4.7810001 2.0086458 0.40400001 0
4.7870002 2.0035465 0.40400001 0
4.7920003 1.9979601 0.40400001 0
4.7980003 1.9928191 0.40400001 0
4.8040004 1.9876568 0.40400001 0
4.8090005 1.9820125 0.40400001 0
4.8150005 1.9768088 0.40400001 0
4.8210001 1.9715829 0.40400001 0
4.8270001 1.9663355 0.40400001 0
4.8320003 1.960614 0.40400001 0
4.8380003 1.9553251 0.40400001 0
4.8440003 1.9500148 0.40400001 0
4.8500004 1.9446828 0.40400001 0
4.8560004 1.9393291 0.40400001 0
4.8620005 1.9339538 0.40400001 0
4.8670001 1.9281148 0.40400001 0
4.8730001 1.9226978 0.40400001 0
4.8790002 1.9172593 0.40400001 0
4.8850002 1.9117992 0.40400001 0
4.8910003 1.9063176 0.40400001 0
4.8970003 1.9008141 0.40400001 0
4.9030004 1.8952891 0.40400001 0
4.9090004 1.8897425 0.40400001 0
4.9150004 1.884174 0.40400001 0
4.9210005 1.878584 0.40400001 0
4.9270005 1.8729725 0.40400001 0
4.9330001 1.867339 0.40400001 0
4.9390001 1.8616841 0.40400001 0
4.9450002 1.8560076 0.40400001 0
4.9510002 1.8503093 0.40400001 0
4.9580002 1.8450042 0.40400001 0
4.9640002 1.8392609 0.40400001 0
4.9700003 1.8334961 0.40400001 0
4.9760003 1.8277094 0.40400001 0
4.9820004 1.8219012 0.40400001 0
4.9880004 1.8160713 0.40400001 0
4.9950004 1.8106236 0.40400001 0
5.0010004 1.8047488 0.40400001 0
5.0070004 1.7988522 0.40400001 0
5.0130005 1.7929338 0.40400001 0
5.0200005 1.7873907 0.40400001 0
5.0260005 1.7814274 0.40400001 0
5.0320005 1.7754424 0.40400001 0
5.0390005 1.7698271 0.40400001 0
5.0450006 1.7637969 0.40400001 0
5.0510001 1.757745 0.40400001 0
5.0580001 1.7520577 0.40400001 0
5.0640001 1.7459607 0.40400001 0
5.0710001 1.7402246 0.40400001 0
5.0770001 1.7340826 0.40400001 0
5.0830002 1.727919 0.40400001 0
5.0900002 1.7221109 0.40400001 0
5.0960002 1.7159021 0.40400001 0
5.1030002 1.7100451 0.40400001 0
5.1100001 1.704163 0.40400001 0
5.1160002 1.6978856 0.40400001 0
5.1230001 1.6919547 0.40400001 0
5.1290002 1.6856323 0.40400001 0
5.1360002 1.6796527 0.40400001 0
4.4700003 2.2959383 0.39665851 0
4.4750004 2.291465 0.39664951 0
4.4800005 2.2869735 0.39664048 0
4.4850001 2.2824638 0.39663145 0
4.4900002 2.2779365 0.39662245 0
4.4950004 2.2733908 0.39661342 0
4.5000005 2.2688272 0.39660439 0
4.5050001 2.2642453 0.39659539 0
4.5100002 2.2596457 0.39658636 0
4.5150003 2.255028 0.39657733 0
4.5200005 2.2503922 0.39656833 0
4.5250001 2.2457383 0.3965593 0
4.5300002 2.2410665 0.3965503 0
4.5350003 2.2363765 0.39654127 0
4.5400004 2.2316687 0.39653224 0
4.5450001 2.2269425 0.39652324 0
4.5500002 2.2221987 0.39651421 0
4.5550003 2.2174366 0.39650518 0
4.5600004 2.2126567 0.39649618 0
4.5660005 2.2083995 0.39648536 0
4.5710001 2.2035816 0.39647633 0
4.5760002 2.1987455 0.3964673 0
4.5810003 2.1938915 0.3964583 0
4.5860004 2.1890197 0.39644927 0
4.5910001 2.1841292 0.39644027 0
4.5960002 2.1792212 0.39643124 0
4.6020002 2.1748233 0.39642042 0
4.6070004 2.1698775 0.39641139 0
4.6120005 2.1649134 0.39640236 0
4.6170001 2.1599312 0.39639336 0
4.6230001 2.1554523 0.39638254 0
4.6280003 2.1504323 0.39637351 0
4.6330004 2.1453943 0.39636448 0
4.6380005 2.1403384 0.39635548 0
4.6440005 2.1357784 0.39634466 0
4.6490002 2.1306844 0.39633563 0
4.6540003 2.1255722 0.3963266 0
4.6600003 2.1209509 0.39631578 0
4.6650004 2.1158011 0.39630678 0
4.6700001 2.1106329 0.39629775 0
4.6760001 2.1059504 0.39628693 0
4.6810002 2.1007447 0.3962779 0
4.6870003 2.0960205 0.39626709 0
4.6920004 2.0907767 0.39625806 0
4.6980004 2.0860112 0.39624724 0
4.7030001 2.0807295 0.39623824 0
4.7080002 2.0754299 0.39622921 0
4.7140002 2.0706031 0.39621839 0
4.7190003 2.0652657 0.39620936 0
4.7250004 2.0603971 0.39619854 0
4.7300005 2.0550218 0.39618951 0
4.7360005 2.0501118 0.39617869 0
4.7420001 2.0451801 0.39616787 0
4.7470002 2.039747 0.39615887 0
4.7530003 2.0347738 0.39614803 0
4.7580004 2.0293031 0.39613903 0
4.7640004 2.0242884 0.39612821 0
4.7700005 2.0192523 0.39611736 0
4.7750001 2.0137234 0.39610836 0
4.7810001 2.0086458 0.39609754 0
4.7870002 2.0035465 0.39608669 0
4.7920003 1.9979601 0.39607769 0
4.7980003 1.9928191 0.39606687 0
4.8040004 1.9876568 0.39605606 0
4.8090005 1.9820125 0.39604703 0
4.8150005 1.9768088 0.39603621 0
4.8210001 1.9715829 0.39602539 0
4.8270001 1.9663355 0.39601454 0
4.8320003 1.960614 0.39600554 0
4.8380003 1.9553251 0.39599472 0
4.8440003 1.9500148 0.3959839 0
4.8500004 1.9446828 0.39597306 0
4.8560004 1.9393291 0.39596224 0
4.8620005 1.9339538 0.39595142 0
4.8670001 1.9281148 0.39594239 0
4.8730001 1.9226978 0.39593157 0
4.8790002 1.9172593 0.39592075 0
4.8850002 1.9117992 0.39590994 0
4.8910003 1.9063176 0.39589912 0
4.8970003 1.9008141 0.3958883 0
4.9030004 1.8952891 0.39587748 0
4.9090004 1.8897425 0.39586663 0
4.9150004 1.884174 0.39585581 0
4.9210005 1.878584 0.395845 0
4.9270005 1.8729725 0.39583418 0
4.9330001 1.867339 0.39582336 0
4.9390001 1.8616841 0.39581254 0
4.9450002 1.8560076 0.39580169 0
4.9510002 1.8503093 0.39579087 0
4.9580002 1.8450042 0.39577827 0
4.9640002 1.8392609 0.39576742 0
4.9700003 1.8334961 0.3957566 0
4.9760003 1.8277094 0.39574578 0
4.9820004 1.8219012 0.39573497 0
4.9880004 1.8160713 0.39572415 0
4.9950004 1.8106236 0.39571151 0
5.0010004 1.8047488 0.39570069 0
5.0070004 1.7988522 0.39568987 0
5.0130005 1.7929338 0.39567906 0
5.0200005 1.7873907 0.39566642 0
5.0260005 1.7814274 0.3956556 0
5.0320005 1.7754424 0.39564478 0
5.0390005 1.7698271 0.39563215 0
5.0450006 1.7637969 0.39562133 0
5.0510001 1.757745 0.39561051 0
5.0580001 1.7520577 0.39559788 0
5.0640001 1.7459607 0.39558706 0
5.0710001 1.7402246 0.39557442 0
5.0770001 1.7340826 0.3955636 0
5.0830002 1.727919 0.39555278 0
5.0900002 1.7221109 0.39554015 0
5.0960002 1.7159021 0.39552933 0
5.1030002 1.7100451 0.39551669 0
5.1100001 1.704163 0.39550409 0
5.1160002 1.6978856 0.39549327 0
5.1230001 1.6919547 0.39548063 0
5.1290002 1.6856323 0.39546981 0
5.1360002 1.6796527 0.39545718 0
4.4700003 2.2959383 0.38931701 0
4.4750004 2.291465 0.38929898 0
4.4800005 2.2869735 0.38928095 0
4.4850001 2.2824638 0.38926291 0
4.4900002 2.2779365 0.38924485 0
4.4950004 2.2733908 0.38922682 0
4.5000005 2.2688272 0.38920879 0
4.5050001 2.2642453 0.38919076 0
4.5100002 2.2596457 0.3891727 0
4.5150003 2.255028 0.38915467 0
4.5200005 2.2503922 0.38913664 0
4.5250001 2.2457383 0.38911861 0
4.5300002 2.2410665 0.38910055 0
4.5350003 2.2363765 0.38908252 0
4.5400004 2.2316687 0.38906449 0
4.5450001 2.2269425 0.38904643 0
4.5500002 2.2221987 0.3890284 0
4.5550003 2.2174366 0.38901037 0
4.5600004 2.2126567 0.38899234 0
4.5660005 2.2083995 0.38897067 0
4.5710001 2.2035816 0.38895264 0
4.5760002 2.1987455 0.38893461 0
4.5810003 2.1938915 0.38891658 0
4.5860004 2.1890197 0.38889852 0
4.5910001 2.1841292 0.38888049 0
4.5960002 2.1792212 0.38886246 0
4.6020002 2.1748233 0.38884079 0
4.6070004 2.1698775 0.38882276 0
4.6120005 2.1649134 0.38880473 0
4.6170001 2.1599312 0.3887867 0
4.6230001 2.1554523 0.38876504 0
4.6280003 2.1504323 0.38874701 0
4.6330004 2.1453943 0.38872898 0
4.6380005 2.1403384 0.38871095 0
4.6440005 2.1357784 0.38868928 0
4.6490002 2.1306844 0.38867125 0
4.6540003 2.1255722 0.38865322 0
4.6600003 2.1209509 0.38863158 0
4.6650004 2.1158011 0.38861352 0
4.6700001 2.1106329 0.38859549 0
4.6760001 2.1059504 0.38857386 0
4.6810002 2.1007447 0.38855579 0
4.6870003 2.0960205 0.38853416 0
4.6920004 2.0907767 0.38851613 0
4.6980004 2.0860112 0.38849449 0
4.7030001 2.0807295 0.38847643 0
4.7080002 2.0754299 0.3884584 0
4.7140002 2.0706031 0.38843676 0
4.7190003 2.0652657 0.3884187 0
4.7250004 2.0603971 0.38839707 0
4.7300005 2.0550218 0.38837904 0
4.7360005 2.0501118 0.3883574 0
4.7420001 2.0451801 0.38833573 0
4.7470002 2.039747 0.3883177 0
4.7530003 2.0347738 0.38829607 0
4.7580004 2.0293031 0.38827801 0
4.7640004 2.0242884 0.38825637 0
4.7700005 2.0192523 0.38823473 0
4.7750001 2.0137234 0.3882167 0
4.7810001 2.0086458 0.38819504 0
4.7870002 2.0035465 0.3881734 0
4.7920003 1.9979601 0.38815537 0
4.7980003 1.9928191 0.3881337 0
4.8040004 1.9876568 0.38811207 0
4.8090005 1.9820125 0.38809404 0
4.8150005 1.9768088 0.38807237 0
4.8210001 1.9715829 0.38805073 0
4.8270001 1.9663355 0.3880291 0
4.8320003 1.960614 0.38801107 0
4.8380003 1.9553251 0.3879894 0
4.8440003 1.9500148 0.38796777 0
4.8500004 1.9446828 0.38794613 0
4.8560004 1.9393291 0.38792446 0
4.8620005 1.9339538 0.38790283 0
4.8670001 1.9281148 0.3878848 0
4.8730001 1.9226978 0.38786316 0
4.8790002 1.9172593 0.38784149 0
4.8850002 1.9117992 0.38781986 0
4.8910003 1.9063176 0.38779822 0
4.8970003 1.9008141 0.38777655 0
4.9030004 1.8952891 0.38775492 0
4.9090004 1.8897425 0.38773328 0
4.9150004 1.884174 0.38771161 0
4.9210005 1.878584 0.38768998 0
4.9270005 1.8729725 0.38766834 0
4.9330001 1.867339 0.38764668 0
4.9390001 1.8616841 0.38762504 0
4.9450002 1.8560076 0.3876034 0
4.9510002 1.8503093 0.38758177 0
4.9580002 1.8450042 0.38755649 0
4.9640002 1.8392609 0.38753486 0
4.9700003 1.8334961 0.38751322 0
4.9760003 1.8277094 0.38749155 0
4.9820004 1.8219012 0.38746992 0
4.9880004 1.8160713 0.38744828 0
4.9950004 1.8106236 0.38742301 0
5.0010004 1.8047488 0.38740137 0
5.0070004 1.7988522 0.38737974 0
5.0130005 1.7929338 0.38735807 0
5.0200005 1.7873907 0.38733283 0
5.0260005 1.7814274 0.38731119 0
5.0320005 1.7754424 0.38728952 0
5.0390005 1.7698271 0.38726428 0
5.0450006 1.7637969 0.38724265 0
5.0510001 1.757745 0.38722098 0
5.0580001 1.7520577 0.38719574 0
5.0640001 1.7459607 0.3871741 0
5.0710001 1.7402246 0.38714883 0
5.0770001 1.7340826 0.38712719 0
5.0830002 1.727919 0.38710555 0
5.0900002 1.7221109 0.38708028 0
5.0960002 1.7159021 0.38705865 0
5.1030002 1.7100451 0.3870334 0
5.1100001 1.704163 0.38700813 0
5.1160002 1.6978856 0.38698649 0
5.1230001 1.6919547 0.38696125 0
5.1290002 1.6856323 0.38693959 0
5.1360002 1.6796527 0.38691434 0
4.4700003 2.2959383 0.3819755 0
4.4750004 2.291465 0.38194847 0
4.4800005 2.2869735 0.38192141 0
4.4850001 2.2824638 0.38189435 0
4.4900002 2.2779365 0.38186729 0
4.4950004 2.2733908 0.38184023 0
4.5000005 2.2688272 0.38181317 0
4.5050001 2.2642453 0.38178611 0
4.5100002 2.2596457 0.38175905 0
4.5150003 2.255028 0.38173199 0
4.5200005 2.2503922 0.38170496 0
4.5250001 2.2457383 0.3816779 0
4.5300002 2.2410665 0.38165084 0
4.5350003 2.2363765 0.38162377 0
4.5400004 2.2316687 0.38159671 0
4.5450001 2.2269425 0.38156965 0
4.5500002 2.2221987 0.38154259 0
4.5550003 2.2174366 0.38151553 0
4.5600004 2.2126567 0.38148847 0
4.5660005 2.2083995 0.38145602 0
4.5710001 2.2035816 0.38142896 0
4.5760002 2.1987455 0.3814019 0
4.5810003 2.1938915 0.38137484 0
4.5860004 2.1890197 0.38134778 0
4.5910001 2.1841292 0.38132074 0
4.5960002 2.1792212 0.38129368 0
4.6020002 2.1748233 0.3812612 0
4.6070004 2.1698775 0.38123414 0
4.6120005 2.1649134 0.38120708 0
4.6170001 2.1599312 0.38118005 0
4.6230001 2.1554523 0.38114756 0
4.6280003 2.1504323 0.3811205 0
4.6330004 2.1453943 0.38109344 0
4.6380005 2.1403384 0.38106638 0
4.6440005 2.1357784 0.38103393 0
4.6490002 2.1306844 0.38100687 0
4.6540003 2.1255722 0.38097981 0
4.6600003 2.1209509 0.38094735 0
4.6650004 2.1158011 0.38092029 0
4.6700001 2.1106329 0.38089323 0
4.6760001 2.1059504 0.38086078 0
4.6810002 2.1007447 0.38083372 0
4.6870003 2.0960205 0.38080123 0
4.6920004 2.0907767 0.38077417 0
4.6980004 2.0860112 0.38074172 0
4.7030001 2.0807295 0.38071465 0
4.7080002 2.0754299 0.38068759 0
4.7140002 2.0706031 0.38065514 0
4.7190003 2.0652657 0.38062808 0
4.7250004 2.0603971 0.38059559 0
4.7300005 2.0550218 0.38056853 0
4.7360005 2.0501118 0.38053608 0
4.7420001 2.0451801 0.38050359 0
4.7470002 2.039747 0.38047656 0
4.7530003 2.0347738 0.38044408 0
4.7580004 2.0293031 0.38041702 0
4.7640004 2.0242884 0.38038456 0
4.7700005 2.0192523 0.38035208 0
4.7750001 2.0137234 0.38032502 0
4.7810001 2.0086458 0.38029256 0
4.7870002 2.0035465 0.38026011 0
4.7920003 1.9979601 0.38023305 0
4.7980003 1.9928191 0.38020056 0
4.8040004 1.9876568 0.38016811 0
4.8090005 1.9820125 0.38014105 0
4.8150005 1.9768088 0.38010857 0
4.8210001 1.9715829 0.38007611 0
4.8270001 1.9663355 0.38004363 0
4.8320003 1.960614 0.38001657 0
4.8380003 1.9553251 0.37998411 0
4.8440003 1.9500148 0.37995166 0
4.8500004 1.9446828 0.37991917 0
4.8560004 1.9393291 0.37988672 0
4.8620005 1.9339538 0.37985423 0
4.8670001 1.9281148 0.37982717 0
4.8730001 1.9226978 0.37979472 0
4.8790002 1.9172593 0.37976223 0
4.8850002 1.9117992 0.37972978 0
4.8910003 1.9063176 0.37969729 0
4.8970003 1.9008141 0.37966484 0
4.9030004 1.8952891 0.37963235 0
4.9090004 1.8897425 0.3795999 0
4.9150004 1.884174 0.37956744 0
4.9210005 1.878584 0.37953496 0
4.9270005 1.8729725 0.37950251 0
4.9330001 1.867339 0.37947002 0
4.9390001 1.8616841 0.37943757 0
4.9450002 1.8560076 0.37940508 0
4.9510002 1.8503093 0.37937263 0
4.9580002 1.8450042 0.37933475 0
4.9640002 1.8392609 0.37930226 0
4.9700003 1.8334961 0.37926981 0
4.9760003 1.8277094 0.37923732 0
4.9820004 1.8219012 0.37920487 0
4.9880004 1.8160713 0.37917238 0
4.9950004 1.8106236 0.37913451 0
5.0010004 1.8047488 0.37910205 0
5.0070004 1.7988522 0.37906957 0
5.0130005 1.7929338 0.37903711 0
5.0200005 1.7873907 0.37899923 0
5.0260005 1.7814274 0.37896675 0
5.0320005 1.7754424 0.37893429 0
5.0390005 1.7698271 0.37889642 0
5.0450006 1.7637969 0.37886393 0
5.0510001 1.757745 0.37883148 0
5.0580001 1.7520577 0.3787936 0
5.0640001 1.7459607 0.37876114 0
5.0710001 1.7402246 0.37872326 0
5.0770001 1.7340826 0.37869078 0
5.0830002 1.727919 0.37865832 0
5.0900002 1.7221109 0.37862045 0
5.0960002 1.7159021 0.37858796 0
5.1030002 1.7100451 0.37855008 0
5.1100001 1.704163 0.3785122 0
5.1160002 1.6978856 0.37847975 0
5.1230001 1.6919547 0.37844187 0
5.1290002 1.6856323 0.37840939 0
5.1360002 1.6796527 0.37837151 0
4.4700003 2.2959383 0.37463403 0
4.4750004 2.291465 0.37459794 0
4.4800005 2.2869735 0.37456188 0
4.4850001 2.2824638 0.37452579 0
4.4900002 2.2779365 0.37448972 0
4.4950004 2.2733908 0.37445363 0
4.5000005 2.2688272 0.37441754 0
4.5050001 2.2642453 0.37438148 0
4.5100002 2.2596457 0.37434542 0
4.5150003 2.255028 0.37430933 0
4.5200005 2.2503922 0.37427324 0
4.5250001 2.2457383 0.37423718 0
4.5300002 2.2410665 0.37420109 0
4.5350003 2.2363765 0.37416503 0
4.5400004 2.2316687 0.37412894 0
4.5450001 2.2269425 0.37409288 0
4.5500002 2.2221987 0.37405679 0
4.5550003 2.2174366 0.37402073 0
4.5600004 2.2126567 0.37398463 0
4.5660005 2.2083995 0.37394136 0
4.5710001 2.2035816 0.37390527 0
4.5760002 2.1987455 0.37386921 0
4.5810003 2.1938915 0.37383312 0
4.5860004 2.1890197 0.37379706 0
4.5910001 2.1841292 0.37376097 0
4.5960002 2.1792212 0.37372491 0
4.6020002 2.1748233 0.3736816 0
4.6070004 2.1698775 0.37364554 0
4.6120005 2.1649134 0.37360945 0
4.6170001 2.1599312 0.37357336 0
4.6230001 2.1554523 0.37353009 0
4.6280003 2.1504323 0.373494 0
4.6330004 2.1453943 0.37345794 0
4.6380005 2.1403384 0.37342185 0
4.6440005 2.1357784 0.37337857 0
4.6490002 2.1306844 0.37334248 0
4.6540003 2.1255722 0.37330642 0
4.6600003 2.1209509 0.37326312 0
4.6650004 2.1158011 0.37322706 0
4.6700001 2.1106329 0.37319097 0
4.6760001 2.1059504 0.37314767 0
4.6810002 2.1007447 0.37311161 0
4.6870003 2.0960205 0.3730683 0
4.6920004 2.0907767 0.37303224 0
4.6980004 2.0860112 0.37298894 0
4.7030001 2.0807295 0.37295288 0
4.7080002 2.0754299 0.37291679 0
4.7140002 2.0706031 0.37287349 0
4.7190003 2.0652657 0.37283742 0
4.7250004 2.0603971 0.37279412 0
4.7300005 2.0550218 0.37275806 0
4.7360005 2.0501118 0.37271476 0
4.7420001 2.0451801 0.37267148 0
4.7470002 2.039747 0.37263539 0
4.7530003 2.0347738 0.37259209 0
4.7580004 2.0293031 0.37255603 0
4.7640004 2.0242884 0.37251273 0
4.7700005 2.0192523 0.37246946 0
4.7750001 2.0137234 0.37243336 0
4.7810001 2.0086458 0.37239009 0
4.7870002 2.0035465 0.37234679 0
4.7920003 1.9979601 0.3723107 0
4.7980003 1.9928191 0.37226743 0
4.8040004 1.9876568 0.37222412 0
4.8090005 1.9820125 0.37218806 0
4.8150005 1.9768088 0.37214476 0
4.8210001 1.9715829 0.37210149 0
4.8270001 1.9663355 0.37205818 0
4.8320003 1.960614 0.37202209 0
4.8380003 1.9553251 0.37197882 0
4.8440003 1.9500148 0.37193552 0
4.8500004 1.9446828 0.37189221 0
4.8560004 1.9393291 0.37184894 0
4.8620005 1.9339538 0.37180564 0
4.8670001 1.9281148 0.37176958 0
4.8730001 1.9226978 0.37172627 0
4.8790002 1.9172593 0.371683 0
4.8850002 1.9117992 0.3716397 0
4.8910003 1.9063176 0.3715964 0
4.8970003 1.9008141 0.37155312 0
4.9030004 1.8952891 0.37150982 0
4.9090004 1.8897425 0.37146652 0
4.9150004 1.884174 0.37142324 0
4.9210005 1.878584 0.37137994 0
4.9270005 1.8729725 0.37133664 0
4.9330001 1.867339 0.37129337 0
4.9390001 1.8616841 0.37125006 0
4.9450002 1.8560076 0.37120679 0
4.9510002 1.8503093 0.37116349 0
4.9580002 1.8450042 0.37111297 0
4.9640002 1.8392609 0.3710697 0
4.9700003 1.8334961 0.3710264 0
4.9760003 1.8277094 0.37098312 0
4.9820004 1.8219012 0.37093982 0
4.9880004 1.8160713 0.37089652 0
4.9950004 1.8106236 0.37084603 0
5.0010004 1.8047488 0.37080273 0
5.0070004 1.7988522 0.37075943 0
5.0130005 1.7929338 0.37071615 0
5.0200005 1.7873907 0.37066564 0
5.0260005 1.7814274 0.37062234 0
5.0320005 1.7754424 0.37057906 0
5.0390005 1.7698271 0.37052855 0
5.0450006 1.7637969 0.37048525 0
5.0510001 1.757745 0.37044197 0
5.0580001 1.7520577 0.37039146 0
5.0640001 1.7459607 0.37034816 0
5.0710001 1.7402246 0.37029767 0
5.0770001 1.7340826 0.37025437 0
5.0830002 1.727919 0.37021106 0
5.0900002 1.7221109 0.37016058 0
5.0960002 1.7159021 0.37011728 0
5.1030002 1.7100451 0.37006676 0
5.1100001 1.704163 0.37001628 0
5.1160002 1.6978856 0.36997297 0
5.1230001 1.6919547 0.36992246 0
5.1290002 1.6856323 0.36987919 0
5.1360002 1.6796527 0.36982867 0
4.4700003 2.2959383 0.36729252 0
4.4750004 2.291465 0.36724743 0
4.4800005 2.2869735 0.36720234 0
4.4850001 2.2824638 0.36715722 0
4.4900002 2.2779365 0.36711213 0
4.4950004 2.2733908 0.36706704 0
4.5000005 2.2688272 0.36702195 0
4.5050001 2.2642453 0.36697686 0
4.5100002 2.2596457 0.36693177 0
4.5150003 2.255028 0.36688668 0
4.5200005 2.2503922 0.36684155 0
4.5250001 2.2457383 0.36679646 0
4.5300002 2.2410665 0.36675137 0
4.5350003 2.2363765 0.36670628 0
4.5400004 2.2316687 0.36666119 0
4.5450001 2.2269425 0.3666161 0
4.5500002 2.2221987 0.36657101 0
4.5550003 2.2174366 0.36652589 0
4.5600004 2.2126567 0.3664808 0
4.5660005 2.2083995 0.36642668 0
4.5710001 2.2035816 0.36638159 0
4.5760002 2.1987455 0.36633649 0
4.5810003 2.1938915 0.3662914 0
4.5860004 2.1890197 0.36624631 0
4.5910001 2.1841292 0.36620122 0
4.5960002 2.1792212 0.36615613 0
4.6020002 2.1748233 0.36610201 0
4.6070004 2.1698775 0.36605692 0
4.6120005 2.1649134 0.3660118 0
4.6170001 2.1599312 0.36596674 0
4.6230001 2.1554523 0.36591262 0
4.6280003 2.1504323 0.3658675 0
4.6330004 2.1453943 0.3658224 0
4.6380005 2.1403384 0.36577731 0
4.6440005 2.1357784 0.36572319 0
4.6490002 2.1306844 0.3656781 0
4.6540003 2.1255722 0.36563301 0
4.6600003 2.1209509 0.36557889 0
4.6650004 2.1158011 0.3655338 0
4.6700001 2.1106329 0.36548871 0
4.6760001 2.1059504 0.36543459 0
4.6810002 2.1007447 0.3653895 0
4.6870003 2.0960205 0.36533538 0
4.6920004 2.0907767 0.36529028 0
4.6980004 2.0860112 0.36523616 0
4.7030001 2.0807295 0.36519107 0
4.7080002 2.0754299 0.36514598 0
4.7140002 2.0706031 0.36509186 0
4.7190003 2.0652657 0.36504677 0
4.7250004 2.0603971 0.36499265 0
4.7300005 2.0550218 0.36494756 0
4.7360005 2.0501118 0.36489344 0
4.7420001 2.0451801 0.36483935 0
4.7470002 2.039747 0.36479425 0
4.7530003 2.0347738 0.36474013 0
4.7580004 2.0293031 0.36469504 0
4.7640004 2.0242884 0.36464092 0
4.7700005 2.0192523 0.3645868 0
4.7750001 2.0137234 0.36454171 0
4.7810001 2.0086458 0.36448759 0
4.7870002 2.0035465 0.36443347 0
4.7920003 1.9979601 0.36438838 0
4.7980003 1.9928191 0.36433429 0
4.8040004 1.9876568 0.36428016 0
4.8090005 1.9820125 0.36423504 0
4.8150005 1.9768088 0.36418095 0
4.8210001 1.9715829 0.36412683 0
4.8270001 1.9663355 0.36407271 0
4.8320003 1.960614 0.36402762 0
4.8380003 1.9553251 0.3639735 0
4.8440003 1.9500148 0.36391941 0
4.8500004 1.9446828 0.36386529 0
4.8560004 1.9393291 0.36381117 0
4.8620005 1.9339538 0.36375704 0
4.8670001 1.9281148 0.36371195 0
4.8730001 1.9226978 0.36365783 0
4.8790002 1.9172593 0.36360374 0
4.8850002 1.9117992 0.36354962 0
4.8910003 1.9063176 0.3634955 0
4.8970003 1.9008141 0.36344138 0
4.9030004 1.8952891 0.36338729 0
4.9090004 1.8897425 0.36333317 0
4.9150004 1.884174 0.36327904 0
4.9210005 1.878584 0.36322492 0
4.9270005 1.8729725 0.3631708 0
4.9330001 1.867339 0.36311671 0
4.9390001 1.8616841 0.36306259 0
4.9450002 1.8560076 0.36300847 0
4.9510002 1.8503093 0.36295435 0
4.9580002 1.8450042 0.36289123 0
4.9640002 1.8392609 0.36283711 0
4.9700003 1.8334961 0.36278298 0
4.9760003 1.8277094 0.36272889 0
4.9820004 1.8219012 0.36267477 0
4.9880004 1.8160713 0.36262065 0
4.9950004 1.8106236 0.36255753 0
5.0010004 1.8047488 0.36250341 0
5.0070004 1.7988522 0.36244929 0
5.0130005 1.7929338 0.36239517 0
5.0200005 1.7873907 0.36233205 0
5.0260005 1.7814274 0.36227793 0
5.0320005 1.7754424 0.3622238 0
5.0390005 1.7698271 0.36216068 0
5.0450006 1.7637969 0.36210656 0
5.0510001 1.757745 0.36205244 0
5.0580001 1.7520577 0.36198932 0
5.0640001 1.7459607 0.3619352 0
5.0710001 1.7402246 0.36187208 0
5.0770001 1.7340826 0.36181796 0
5.0830002 1.727919 0.36176383 0
5.0900002 1.7221109 0.36170071 0
5.0960002 1.7159021 0.36164659 0
5.1030002 1.7100451 0.36158347 0
5.1100001 1.704163 0.36152035 0
5.1160002 1.6978856 0.36146623 0
5.1230001 1.6919547 0.36140308 0
5.1290002 1.6856323 0.36134896 0
5.1360002 1.6796527 0.36128584 0
4.4700003 2.2959383 0.35995102 0
4.4750004 2.291465 0.3598969 0
4.4800005 2.2869735 0.35984278 0
4.4850001 2.2824638 0.35978869 0
4.4900002 2.2779365 0.35973457 0
4.4950004 2.2733908 0.35968044 0
4.5000005 2.2688272 0.35962632 0
4.5050001 2.2642453 0.35957223 0
