# .PCD v0.7 - Point Cloud Data file format
VERSION 0.7
FIELDS x y z intensity
SIZE 4 4 4 4
TYPE F F F F
COUNT 1 1 1 1
WIDTH 1417
HEIGHT 1
VIEWPOINT 0 0 0 1 0 0 0
POINTS 1417
DATA ascii
5.0460005 -1.1438446 0.32019508 0
5.0410004 -1.1510346 0.32028526 0
5.0360003 -1.1582065 0.32037547 0
5.0320005 -1.1656022 0.32044762 0
5.0270004 -1.1727397 0.32053781 0
5.0220003 -1.1798594 0.32062799 0
5.0170002 -1.1869609 0.3207182 0
5.0120001 -1.1940445 0.32080838 0
5.0070004 -1.2011101 0.32089856 0
5.0030003 -1.2084101 0.32097071 0
4.9980001 -1.2154412 0.32106093 0
4.9930005 -1.2224545 0.32115111 0
4.9880004 -1.2294497 0.32124129 0
4.9840002 -1.2366866 0.32131344 0
4.9790001 -1.2436475 0.32140362 0
4.9740005 -1.2505904 0.3214938 0
4.9690003 -1.2575152 0.32158402 0
4.9650002 -1.2646888 0.32165617 0
4.9600005 -1.2715795 0.32174635 0
4.9550004 -1.278452 0.32183653 0
4.9510002 -1.2855787 0.32190871 0
4.9460001 -1.292417 0.32199889 0
4.9410005 -1.2992374 0.32208908 0
4.9370003 -1.3063171 0.32216123 0
4.9320002 -1.3131031 0.32225144 0
4.9270005 -1.3198711 0.32234162 0
4.9230003 -1.3269041 0.32241377 0
4.9180002 -1.3336376 0.32250395 0
4.9140005 -1.3406402 0.32257611 0
4.9090004 -1.3473395 0.32266629 0
4.9040003 -1.3540207 0.3227565 0
4.9000001 -1.3609761 0.32282865 0
4.8950005 -1.3676233 0.32291883 0
4.8910003 -1.3745481 0.32299098 0
4.8860002 -1.3811607 0.3230812 0
4.8820004 -1.3880551 0.32315332 0
4.8770003 -1.3946335 0.3232435 0
4.8730001 -1.4014969 0.32331568 0
4.8680005 -1.4080412 0.32340586 0
4.8640003 -1.4148741 0.32347801 0
4.8590002 -1.4213839 0.32356822 0
4.8550005 -1.4281862 0.32364035 0
4.8500004 -1.4346617 0.32373053 0
4.8460002 -1.4414332 0.32380271 0
4.8410001 -1.4478745 0.32389289 0
4.8370004 -1.4546155 0.32396504 0
4.8320003 -1.4610226 0.32405525 0
4.8280001 -1.4677328 0.32412738 0
4.8230004 -1.4741056 0.32421756 0
4.8190002 -1.4807851 0.32428974 0
4.8150005 -1.4874502 0.32436186 0
4.8100004 -1.4937726 0.32445207 0
4.8060002 -1.500407 0.32452422 0
4.8010001 -1.506695 0.32461441 0
4.7970004 -1.5132989 0.32468656 0
4.7930002 -1.519888 0.32475871 0
4.7880001 -1.5261257 0.32484892 0
4.7840004 -1.5326844 0.32492107 0
4.7800002 -1.5392284 0.32499319 0
4.7750001 -1.5454155 0.3250834 0
4.7710004 -1.5519292 0.32515556 0
4.7670002 -1.5584282 0.32522771 0
4.7620001 -1.5645648 0.32531792 0
4.7580004 -1.5710332 0.32539004 0
4.7540002 -1.5774872 0.32546222 0
4.7500005 -1.583927 0.32553434 0
4.7450004 -1.5899967 0.32562453 0
4.7410002 -1.5964056 0.32569671 0
4.7370005 -1.6028001 0.32576886 0
4.7330003 -1.6091802 0.32584101 0
4.7280002 -1.6151832 0.32593119 0
4.7240005 -1.6215327 0.32600334 0
4.7200003 -1.6278676 0.32607549 0
4.7160001 -1.6341882 0.32614765 0
4.7110004 -1.6401246 0.32623783 0
4.7070003 -1.6464144 0.32631001 0
4.7030001 -1.6526898 0.32638216 0
4.6990004 -1.6589509 0.32645428 0
4.6950002 -1.6651975 0.32652646 0
4.6910005 -1.6714298 0.32659858 0
4.6860003 -1.6772668 0.3266888 0
4.6820002 -1.6834682 0.32676095 0
4.6780005 -1.6896553 0.3268331 0
4.6740003 -1.695828 0.32690525 0
4.6700001 -1.7019861 0.3269774 0
4.6660004 -1.70813 0.32704955 0
4.6620002 -1.7142591 0.3271217 0
4.6580005 -1.7203742 0.32719386 0
4.6540003 -1.7264746 0.32726601 0
4.6490002 -1.7321638 0.32735622 0
4.6450005 -1.7382337 0.32742834 0
4.6410003 -1.744289 0.32750052 0
4.6370001 -1.75033 0.32757267 0
4.6330004 -1.7563566 0.32764482 0
4.6290002 -1.7623686 0.32771698 0
4.6250005 -1.7683663 0.32778913 0
4.6210003 -1.7743496 0.32786125 0
4.6170001 -1.7803183 0.32793343 0
4.6130004 -1.7862726 0.32800555 0
4.6090002 -1.7922126 0.32807773 0
4.6050005 -1.7981383 0.32814988 0
4.6010003 -1.8040493 0.32822204 0
4.5970001 -1.8099458 0.32829419 0
4.5930004 -1.8158281 0.32836634 0
4.5890002 -1.8216959 0.32843849 0
4.5850005 -1.8275493 0.32851064 0
4.5810003 -1.8333881 0.32858279 0
4.5770001 -1.8392127 0.32865494 0
4.5730004 -1.8450228 0.3287271 0
4.5690002 -1.8508184 0.32879925 0
4.5660005 -1.8570344 0.32885337 0
4.5620003 -1.8628029 0.32892552 0
4.5580001 -1.8685569 0.32899767 0
4.5540004 -1.8742968 0.32906982 0
4.5500002 -1.8800219 0.32914197 0
4.5460005 -1.8857329 0.32921413 0
4.5420003 -1.8914293 0.32928628 0
4.5380001 -1.8971112 0.32935843 0
4.5340004 -1.902779 0.32943058 0
4.5310001 -1.9088829 0.3294847 0
4.5270004 -1.9145235 0.32955685 0
4.5230002 -1.9201496 0.329629 0
4.5190001 -1.925761 0.32970116 0
4.5150003 -1.9313585 0.32977331 0
4.5110002 -1.9369411 0.32984546 0
4.5080004 -1.9429713 0.32989958 0
4.5040002 -1.948527 0.32997173 0
4.5000005 -1.9540683 0.33004388 0
4.4960003 -1.9595952 0.33011603 0
4.4920001 -1.9651077 0.33018818 0
4.4890003 -1.9710764 0.33024228 0
4.4850001 -1.9765618 0.33031446 0
4.4810004 -1.9820329 0.33038658 0
4.4770002 -1.9874892 0.33045876 0
4.4740005 -1.9934095 0.33051285 0
4.4700003 -1.9988388 0.330585 0
4.4660001 -2.0042536 0.33065718 0
4.4620004 -2.0096545 0.33072931 0
4.4590001 -2.0155256 0.33078343 0
4.4550004 -2.0208995 0.33085558 0
4.4510002 -2.0262585 0.33092773 0
4.4480004 -2.032094 0.33098185 0
4.4440002 -2.037426 0.331054 0
4.4400001 -2.0427434 0.33112615 0
4.4360003 -2.0480468 0.33119833 0
4.4330001 -2.0538332 0.33125243 0
4.4290004 -2.0591094 0.33132458 0
4.4250002 -2.0643713 0.33139673 0
4.4220004 -2.0701218 0.33145085 0
4.4180002 -2.0753565 0.331523 0
4.4150004 -2.0810835 0.33157712 0
4.4110003 -2.0862911 0.33164927 0
4.4070001 -2.0914841 0.33172143 0
4.4040003 -2.0971754 0.33177555 0
4.4000001 -2.1023412 0.3318477 0
4.3960004 -2.1074932 0.33191985 0
4.3930001 -2.113148 0.33197394 0
4.3889999 -2.1182725 0.33204609 0
4.3860002 -2.1239042 0.33210021 0
4.382 -2.1290016 0.33217236 0
4.3780003 -2.1340847 0.33224452 0
4.375 -2.1396801 0.33229864 0
4.3710003 -2.1447363 0.33237079 0
4.368 -2.1503081 0.33242491 0
4.3640003 -2.1553373 0.33249706 0
4.3610001 -2.1608858 0.33255118 0
4.3570004 -2.1658878 0.3326233 0
4.3540001 -2.1714129 0.33267742 0
4.3500004 -2.1763878 0.33274958 0
4.3470001 -2.1818893 0.3328037 0
4.3429999 -2.1868372 0.33287585 0
4.3400002 -2.1923156 0.33292997 0
4.336 -2.1972361 0.33300212 0
4.3330002 -2.2026908 0.33305624 0
4.329 -2.2075846 0.33312839 0
4.3260002 -2.2130158 0.33318251 0
4.322 -2.2178826 0.33325467 0
4.3190002 -2.2232902 0.33330876 0
4.3150001 -2.2281301 0.33338094 0
4.3120003 -2.2335143 0.33343503 0
4.3080001 -2.2383268 0.33350718 0
4.3050003 -2.2436879 0.3335613 0
4.3010001 -2.2484734 0.33363345 0
4.2980003 -2.2538106 0.33368757 0
4.2950001 -2.2591374 0.33374169 0
4.2910004 -2.2638831 0.33381385 0
4.2880001 -2.2691865 0.33386797 0
4.2840004 -2.2739053 0.33394009 0
4.2810001 -2.2791851 0.33399421 0
5.1760001 -0.95057374 0.30923516 0
5.1710005 -0.95823276 0.30933434 0
5.1660004 -0.96587366 0.30943358 0
5.1610003 -0.9734965 0.30953276 0
5.1560001 -0.98110133 0.30963197 0
5.1510005 -0.98868829 0.30973119 0
5.1460004 -0.99625701 0.3098304 0
5.1410003 -1.0038077 0.30992961 0
5.1350002 -1.0111365 0.31004867 0
5.1300001 -1.0186495 0.31014788 0
5.1250005 -1.0261444 0.31024706 0
5.1200004 -1.0336211 0.31034631 0
5.1150002 -1.0410798 0.31044549 0
5.1100001 -1.0485206 0.31054473 0
5.1050005 -1.0559433 0.31064391 0
5.1000004 -1.0633479 0.31074312 0
5.0950003 -1.0707345 0.31084234 0
5.0900002 -1.0781029 0.31094155 0
5.0850005 -1.0854536 0.31104076 0
5.0800004 -1.0927861 0.31113997 0
5.0760002 -1.1003258 0.31121933 0
5.0710001 -1.1076241 0.31131855 0
5.0660005 -1.1149043 0.31141776 0
5.0610003 -1.1221664 0.31151697 0
5.0560002 -1.1294105 0.31161618 0
5.0510001 -1.1366365 0.31171539 0
5.0460005 -1.1438446 0.31181461 0
5.0410004 -1.1510346 0.31191379 0
5.0360003 -1.1582065 0.312013 0
5.0320005 -1.1656022 0.31209236 0
5.0270004 -1.1727397 0.31219158 0
5.0220003 -1.1798594 0.31229079 0
5.0170002 -1.1869609 0.31239 0
5.0120001 -1.1940445 0.31248921 0
5.0070004 -1.2011101 0.31258842 0
5.0030003 -1.2084101 0.31266779 0
4.9980001 -1.2154412 0.312767 0
4.9930005 -1.2224545 0.31286621 0
4.9880004 -1.2294497 0.31296542 0
4.9840002 -1.2366866 0.31304479 0
4.9790001 -1.2436475 0.313144 0
4.9740005 -1.2505904 0.31324321 0
4.9690003 -1.2575152 0.31334242 0
4.9650002 -1.2646888 0.31342179 0
4.9600005 -1.2715795 0.313521 0
4.9550004 -1.278452 0.31362021 0
4.9510002 -1.2855787 0.31369957 0
4.9460001 -1.292417 0.31379879 0
4.9410005 -1.2992374 0.313898 0
4.9370003 -1.3063171 0.31397736 0
4.9320002 -1.3131031 0.31407657 0
4.9270005 -1.3198711 0.31417578 0
4.9230003 -1.3269041 0.31425515 0
4.9180002 -1.3336376 0.31435436 0
4.9140005 -1.3406402 0.31443372 0
4.9090004 -1.3473395 0.31453294 0
4.9040003 -1.3540207 0.31463215 0
4.9000001 -1.3609761 0.31471151 0
4.8950005 -1.3676233 0.31481072 0
4.8910003 -1.3745481 0.31489009 0
4.8860002 -1.3811607 0.3149893 0
4.8820004 -1.3880551 0.31506866 0
4.8770003 -1.3946335 0.31516787 0
4.8730001 -1.4014969 0.31524724 0
4.8680005 -1.4080412 0.31534645 0
4.8640003 -1.4148741 0.31542581 0
4.8590002 -1.4213839 0.31552503 0
4.8550005 -1.4281862 0.31560439 0
4.8500004 -1.4346617 0.3157036 0
4.8460002 -1.4414332 0.31578296 0
4.8410001 -1.4478745 0.31588218 0
4.8370004 -1.4546155 0.31596154 0
4.8320003 -1.4610226 0.31606075 0
4.8280001 -1.4677328 0.31614012 0
4.8230004 -1.4741056 0.31623933 0
4.8190002 -1.4807851 0.31631869 0
4.8150005 -1.4874502 0.31639805 0
4.8100004 -1.4937726 0.31649727 0
4.8060002 -1.500407 0.31657666 0
4.8010001 -1.506695 0.31667584 0
4.7970004 -1.5132989 0.31675524 0
4.7930002 -1.519888 0.3168346 0
4.7880001 -1.5261257 0.31693381 0
4.7840004 -1.5326844 0.31701317 0
4.7800002 -1.5392284 0.31709254 0
4.7750001 -1.5454155 0.31719175 0
4.7710004 -1.5519292 0.31727111 0
4.7670002 -1.5584282 0.31735048 0
4.7620001 -1.5645648 0.31744969 0
4.7580004 -1.5710332 0.31752905 0
4.7540002 -1.5774872 0.31760842 0
4.7500005 -1.583927 0.31768778 0
4.7450004 -1.5899967 0.31778699 0
4.7410002 -1.5964056 0.31786638 0
4.7370005 -1.6028001 0.31794572 0
4.7330003 -1.6091802 0.31802511 0
4.7280002 -1.6151832 0.31812429 0
4.7240005 -1.6215327 0.31820369 0
4.7200003 -1.6278676 0.31828305 0
4.7160001 -1.6341882 0.31836241 0
4.7110004 -1.6401246 0.31846163 0
4.7070003 -1.6464144 0.31854099 0
4.7030001 -1.6526898 0.31862035 0
4.6990004 -1.6589509 0.31869972 0
4.6950002 -1.6651975 0.31877911 0
4.6910005 -1.6714298 0.31885844 0
4.6860003 -1.6772668 0.31895769 0
4.6820002 -1.6834682 0.31903705 0
4.6780005 -1.6896553 0.31911641 0
4.6740003 -1.695828 0.31919578 0
4.6700001 -1.7019861 0.31927514 0
4.6660004 -1.70813 0.3193545 0
4.6620002 -1.7142591 0.31943387 0
4.6580005 -1.7203742 0.31951323 0
4.6540003 -1.7264746 0.3195926 0
4.6490002 -1.7321638 0.31969184 0
4.6450005 -1.7382337 0.31977117 0
4.6410003 -1.744289 0.31985056 0
4.6370001 -1.75033 0.31992993 0
4.6330004 -1.7563566 0.32000929 0
4.6290002 -1.7623686 0.32008865 0
4.6250005 -1.7683663 0.32016802 0
4.6210003 -1.7743496 0.32024738 0
4.6170001 -1.7803183 0.32032675 0
4.6130004 -1.7862726 0.32040614 0
4.6090002 -1.7922126 0.3204855 0
4.6050005 -1.7981383 0.32056487 0
4.6010003 -1.8040493 0.32064423 0
4.5970001 -1.8099458 0.32072359 0
4.5930004 -1.8158281 0.32080296 0
4.5890002 -1.8216959 0.32088232 0
4.5850005 -1.8275493 0.32096171 0
4.5810003 -1.8333881 0.32104108 0
4.5770001 -1.8392127 0.32112044 0
4.5730004 -1.8450228 0.3211998 0
4.5690002 -1.8508184 0.32127917 0
4.5660005 -1.8570344 0.32133871 0
4.5620003 -1.8628029 0.32141808 0
4.5580001 -1.8685569 0.32149744 0
4.5540004 -1.8742968 0.3215768 0
4.5500002 -1.8800219 0.32165617 0
4.5460005 -1.8857329 0.32173553 0
4.5420003 -1.8914293 0.32181489 0
4.5380001 -1.8971112 0.32189429 0
4.5340004 -1.902779 0.32197362 0
4.5310001 -1.9088829 0.32203317 0
4.5270004 -1.9145235 0.32211253 0
4.5230002 -1.9201496 0.32219189 0
4.5190001 -1.925761 0.32227129 0
4.5150003 -1.9313585 0.32235062 0
4.5110002 -1.9369411 0.32243001 0
4.5080004 -1.9429713 0.32248953 0
4.5040002 -1.948527 0.32256889 0
4.5000005 -1.9540683 0.32264826 0
4.4960003 -1.9595952 0.32272762 0
4.4920001 -1.9651077 0.32280701 0
4.4890003 -1.9710764 0.32286653 0
4.4850001 -1.9765618 0.32294589 0
4.4810004 -1.9820329 0.32302526 0
4.4770002 -1.9874892 0.32310462 0
4.4740005 -1.9934095 0.32316417 0
4.4700003 -1.9988388 0.32324353 0
4.4660001 -2.0042536 0.32332289 0
4.4620004 -2.0096545 0.32340226 0
4.4590001 -2.0155256 0.32346177 0
4.4550004 -2.0208995 0.32354113 0
4.4510002 -2.0262585 0.32362053 0
4.4480004 -2.032094 0.32368004 0
4.4440002 -2.037426 0.32375941 0
4.4400001 -2.0427434 0.32383877 0
4.4360003 -2.0480468 0.32391813 0
4.4330001 -2.0538332 0.32397768 0
4.4290004 -2.0591094 0.32405704 0
4.4250002 -2.0643713 0.32413641 0
4.4220004 -2.0701218 0.32419592 0
4.4180002 -2.0753565 0.32427531 0
4.4150004 -2.0810835 0.3243348 0
4.4110003 -2.0862911 0.32441419 0
4.4070001 -2.0914841 0.32449356 0
4.4040003 -2.0971754 0.32455307 0
4.4000001 -2.1023412 0.32463247 0
4.3960004 -2.1074932 0.32471183 0
4.3930001 -2.113148 0.32477134 0
4.3889999 -2.1182725 0.32485071 0
4.3860002 -2.1239042 0.32491022 0
4.382 -2.1290016 0.32498962 0
4.3780003 -2.1340847 0.32506898 0
4.375 -2.1396801 0.3251285 0
4.3710003 -2.1447363 0.32520786 0
4.368 -2.1503081 0.32526737 0
4.3640003 -2.1553373 0.32534677 0
4.3610001 -2.1608858 0.32540628 0
4.3570004 -2.1658878 0.32548565 0
4.3540001 -2.1714129 0.32554519 0
4.3500004 -2.1763878 0.32562453 0
4.3470001 -2.1818893 0.32568407 0
4.3429999 -2.1868372 0.32576343 0
4.3400002 -2.1923156 0.32582295 0
4.336 -2.1972361 0.32590234 0
4.3330002 -2.2026908 0.32596186 0
4.329 -2.2075846 0.32604122 0
4.3260002 -2.2130158 0.32610077 0
4.322 -2.2178826 0.32618013 0
4.3190002 -2.2232902 0.32623965 0
4.3150001 -2.2281301 0.32631901 0
4.3120003 -2.2335143 0.32637852 0
4.3080001 -2.2383268 0.32645792 0
4.3050003 -2.2436879 0.32651743 0
4.3010001 -2.2484734 0.3265968 0
4.2980003 -2.2538106 0.32665634 0
4.2950001 -2.2591374 0.32671586 0
4.2910004 -2.2638831 0.32679522 0
4.2880001 -2.2691865 0.32685474 0
4.2840004 -2.2739053 0.3269341 0
4.2810001 -2.2791851 0.32699364 0
5.1760001 -0.95057374 0.30062017 0
5.1710005 -0.95823276 0.30072838 0
5.1660004 -0.96587366 0.30083662 0
5.1610003 -0.9734965 0.30094483 0
5.1560001 -0.98110133 0.30105308 0
5.1510005 -0.98868829 0.30116129 0
5.1460004 -0.99625701 0.30126953 0
5.1410003 -1.0038077 0.30137777 0
5.1350002 -1.0111365 0.30150765 0
5.1300001 -1.0186495 0.30161586 0
5.1250005 -1.0261444 0.30172408 0
5.1200004 -1.0336211 0.30183232 0
5.1150002 -1.0410798 0.30194056 0
5.1100001 -1.0485206 0.30204877 0
5.1050005 -1.0559433 0.30215698 0
5.1000004 -1.0633479 0.30226523 0
5.0950003 -1.0707345 0.30237347 0
5.0900002 -1.0781029 0.30248171 0
5.0850005 -1.0854536 0.30258989 0
5.0800004 -1.0927861 0.30269814 0
5.0760002 -1.1003258 0.30278474 0
5.0710001 -1.1076241 0.30289295 0
5.0660005 -1.1149043 0.30300117 0
5.0610003 -1.1221664 0.30310941 0
5.0560002 -1.1294105 0.30321765 0
5.0510001 -1.1366365 0.30332589 0
5.0460005 -1.1438446 0.30343407 0
5.0410004 -1.1510346 0.30354232 0
5.0360003 -1.1582065 0.30365056 0
5.0320005 -1.1656022 0.30373713 0
5.0270004 -1.1727397 0.30384538 0
5.0220003 -1.1798594 0.30395359 0
5.0170002 -1.1869609 0.30406183 0
5.0120001 -1.1940445 0.30417004 0
5.0070004 -1.2011101 0.30427828 0
5.0030003 -1.2084101 0.30436486 0
4.9980001 -1.2154412 0.3044731 0
4.9930005 -1.2224545 0.30458131 0
4.9880004 -1.2294497 0.30468956 0
4.9840002 -1.2366866 0.30477613 0
4.9790001 -1.2436475 0.30488437 0
4.9740005 -1.2505904 0.30499259 0
4.9690003 -1.2575152 0.3051008 0
4.9650002 -1.2646888 0.3051874 0
4.9600005 -1.2715795 0.30529562 0
4.9550004 -1.278452 0.30540386 0
4.9510002 -1.2855787 0.30549043 0
4.9460001 -1.292417 0.30559868 0
4.9410005 -1.2992374 0.30570689 0
4.9370003 -1.3063171 0.30579349 0
4.9320002 -1.3131031 0.30590171 0
4.9270005 -1.3198711 0.30600995 0
4.9230003 -1.3269041 0.30609652 0
4.9180002 -1.3336376 0.30620474 0
4.9140005 -1.3406402 0.30629131 0
4.9090004 -1.3473395 0.30639955 0
4.9040003 -1.3540207 0.30650777 0
4.9000001 -1.3609761 0.30659437 0
4.8950005 -1.3676233 0.30670261 0
4.8910003 -1.3745481 0.30678919 0
4.8860002 -1.3811607 0.3068974 0
4.8820004 -1.3880551 0.30698401 0
4.8770003 -1.3946335 0.30709222 0
4.8730001 -1.4014969 0.3071788 0
4.8680005 -1.4080412 0.30728704 0
4.8640003 -1.4148741 0.30737361 0
4.8590002 -1.4213839 0.30748183 0
4.8550005 -1.4281862 0.30756843 0
4.8500004 -1.4346617 0.30767667 0
4.8460002 -1.4414332 0.30776325 0
4.8410001 -1.4478745 0.30787146 0
4.8370004 -1.4546155 0.30795804 0
4.8320003 -1.4610226 0.30806628 0
4.8280001 -1.4677328 0.30815285 0
4.8230004 -1.4741056 0.3082611 0
4.8190002 -1.4807851 0.30834767 0
4.8150005 -1.4874502 0.30843425 0
4.8100004 -1.4937726 0.30854249 0
4.8060002 -1.500407 0.30862907 0
4.8010001 -1.506695 0.30873731 0
4.7970004 -1.5132989 0.30882388 0
4.7930002 -1.519888 0.30891046 0
4.7880001 -1.5261257 0.3090187 0
4.7840004 -1.5326844 0.30910528 0
4.7800002 -1.5392284 0.30919185 0
4.7750001 -1.5454155 0.30930009 0
4.7710004 -1.5519292 0.30938667 0
4.7670002 -1.5584282 0.30947325 0
4.7620001 -1.5645648 0.30958149 0
4.7580004 -1.5710332 0.30966806 0
4.7540002 -1.5774872 0.30975464 0
4.7500005 -1.583927 0.30984122 0
4.7450004 -1.5899967 0.30994946 0
4.7410002 -1.5964056 0.31003603 0
4.7370005 -1.6028001 0.31012261 0
4.7330003 -1.6091802 0.31020921 0
4.7280002 -1.6151832 0.31031743 0
4.7240005 -1.6215327 0.310404 0
4.7200003 -1.6278676 0.31049061 0
4.7160001 -1.6341882 0.31057718 0
4.7110004 -1.6401246 0.3106854 0
4.7070003 -1.6464144 0.310772 0
4.7030001 -1.6526898 0.31085858 0
4.6990004 -1.6589509 0.31094515 0
4.6950002 -1.6651975 0.31103176 0
4.6910005 -1.6714298 0.3111183 0
4.6860003 -1.6772668 0.31122655 0
4.6820002 -1.6834682 0.31131312 0
4.6780005 -1.6896553 0.3113997 0
4.6740003 -1.695828 0.3114863 0
4.6700001 -1.7019861 0.31157288 0
4.6660004 -1.70813 0.31165946 0
4.6620002 -1.7142591 0.31174606 0
4.6580005 -1.7203742 0.31183261 0
4.6540003 -1.7264746 0.31191921 0
4.6490002 -1.7321638 0.31202745 0
4.6450005 -1.7382337 0.31211403 0
4.6410003 -1.744289 0.31220061 0
4.6370001 -1.75033 0.31228718 0
4.6330004 -1.7563566 0.31237376 0
4.6290002 -1.7623686 0.31246036 0
4.6250005 -1.7683663 0.31254694 0
4.6210003 -1.7743496 0.31263351 0
4.6170001 -1.7803183 0.31272012 0
4.6130004 -1.7862726 0.31280667 0
4.6090002 -1.7922126 0.31289327 0
4.6050005 -1.7981383 0.31297985 0
4.6010003 -1.8040493 0.31306642 0
4.5970001 -1.8099458 0.31315303 0
4.5930004 -1.8158281 0.3132396 0
4.5890002 -1.8216959 0.31332618 0
4.5850005 -1.8275493 0.31341276 0
4.5810003 -1.8333881 0.31349933 0
4.5770001 -1.8392127 0.31358594 0
4.5730004 -1.8450228 0.31367251 0
4.5690002 -1.8508184 0.31375909 0
4.5660005 -1.8570344 0.31382403 0
4.5620003 -1.8628029 0.3139106 0
4.5580001 -1.8685569 0.31399721 0
4.5540004 -1.8742968 0.31408378 0
4.5500002 -1.8800219 0.31417036 0
4.5460005 -1.8857329 0.31425694 0
4.5420003 -1.8914293 0.31434351 0
4.5380001 -1.8971112 0.31443012 0
4.5340004 -1.902779 0.31451669 0
4.5310001 -1.9088829 0.31458163 0
4.5270004 -1.9145235 0.31466821 0
4.5230002 -1.9201496 0.31475478 0
4.5190001 -1.925761 0.31484139 0
4.5150003 -1.9313585 0.31492797 0
4.5110002 -1.9369411 0.31501454 0
4.5080004 -1.9429713 0.31507948 0
4.5040002 -1.948527 0.31516606 0
4.5000005 -1.9540683 0.31525266 0
4.4960003 -1.9595952 0.31533924 0
4.4920001 -1.9651077 0.31542581 0
4.4890003 -1.9710764 0.31549075 0
4.4850001 -1.9765618 0.31557733 0
4.4810004 -1.9820329 0.3156639 0
4.4770002 -1.9874892 0.31575048 0
4.4740005 -1.9934095 0.31581545 0
4.4700003 -1.9988388 0.31590202 0
4.4660001 -2.0042536 0.3159886 0
4.4620004 -2.0096545 0.31607518 0
4.4590001 -2.0155256 0.31614012 0
4.4550004 -2.0208995 0.31622672 0
4.4510002 -2.0262585 0.3163133 0
4.4480004 -2.032094 0.31637824 0
4.4440002 -2.037426 0.31646481 0
4.4400001 -2.0427434 0.31655139 0
4.4360003 -2.0480468 0.31663796 0
4.4330001 -2.0538332 0.3167029 0
4.4290004 -2.0591094 0.31678951 0
4.4250002 -2.0643713 0.31687608 0
4.4220004 -2.0701218 0.31694102 0
4.4180002 -2.0753565 0.3170276 0
4.4150004 -2.0810835 0.31709254 0
4.4110003 -2.0862911 0.31717911 0
4.4070001 -2.0914841 0.31726569 0
4.4040003 -2.0971754 0.31733063 0
4.4000001 -2.1023412 0.3174172 0
4.3960004 -2.1074932 0.31750381 0
4.3930001 -2.113148 0.31756872 0
4.3889999 -2.1182725 0.31765532 0
4.3860002 -2.1239042 0.31772026 0
4.382 -2.1290016 0.31780684 0
4.3780003 -2.1340847 0.31789345 0
4.375 -2.1396801 0.31795835 0
4.3710003 -2.1447363 0.31804496 0
4.368 -2.1503081 0.31810987 0
4.3640003 -2.1553373 0.31819648 0
4.3610001 -2.1608858 0.31826138 0
4.3570004 -2.1658878 0.31834799 0
4.3540001 -2.1714129 0.31841293 0
4.3500004 -2.1763878 0.31849951 0
4.3470001 -2.1818893 0.31856444 0
4.3429999 -2.1868372 0.31865102 0
4.3400002 -2.1923156 0.31871596 0
4.336 -2.1972361 0.31880254 0
4.3330002 -2.2026908 0.3188675 0
4.329 -2.2075846 0.31895405 0
4.3260002 -2.2130158 0.31901902 0
4.322 -2.2178826 0.31910557 0
4.3190002 -2.2232902 0.31917053 0
4.3150001 -2.2281301 0.31925711 0
4.3120003 -2.2335143 0.31932205 0
4.3080001 -2.2383268 0.31940863 0
4.3050003 -2.2436879 0.31947356 0
4.3010001 -2.2484734 0.31956014 0
4.2980003 -2.2538106 0.31962508 0
4.2950001 -2.2591374 0.31969002 0
4.2910004 -2.2638831 0.31977659 0
4.2880001 -2.2691865 0.31984153 0
4.2840004 -2.2739053 0.31992811 0
4.2810001 -2.2791851 0.31999305 0
5.1760001 -0.95057374 0.29200518 0
5.1710005 -0.95823276 0.29212242 0
5.1660004 -0.96587366 0.29223967 0
5.1610003 -0.9734965 0.29235691 0
5.1560001 -0.98110133 0.29247415 0
5.1510005 -0.98868829 0.29259139 0
5.1460004 -0.99625701 0.29270864 0
5.1410003 -1.0038077 0.29282591 0
5.1350002 -1.0111365 0.2929666 0
5.1300001 -1.0186495 0.29308385 0
5.1250005 -1.0261444 0.29320109 0
5.1200004 -1.0336211 0.29331833 0
5.1150002 -1.0410798 0.29343557 0
5.1100001 -1.0485206 0.29355285 0
5.1050005 -1.0559433 0.29367009 0
5.1000004 -1.0633479 0.29378733 0
5.0950003 -1.0707345 0.29390457 0
5.0900002 -1.0781029 0.29402184 0
5.0850005 -1.0854536 0.29413906 0
5.0800004 -1.0927861 0.29425633 0
5.0760002 -1.1003258 0.29435012 0
5.0710001 -1.1076241 0.29446739 0
5.0660005 -1.1149043 0.2945846 0
5.0610003 -1.1221664 0.29470187 0
5.0560002 -1.1294105 0.29481912 0
5.0510001 -1.1366365 0.29493636 0
5.0460005 -1.1438446 0.2950536 0
5.0410004 -1.1510346 0.29517084 0
5.0360003 -1.1582065 0.29528809 0
5.0320005 -1.1656022 0.2953819 0
5.0270004 -1.1727397 0.29549915 0
5.0220003 -1.1798594 0.29561639 0
5.0170002 -1.1869609 0.29573363 0
5.0120001 -1.1940445 0.29585087 0
5.0070004 -1.2011101 0.29596812 0
5.0030003 -1.2084101 0.29606193 0
4.9980001 -1.2154412 0.29617918 0
4.9930005 -1.2224545 0.29629642 0
4.9880004 -1.2294497 0.29641366 0
4.9840002 -1.2366866 0.29650748 0
4.9790001 -1.2436475 0.29662472 0
4.9740005 -1.2505904 0.29674196 0
4.9690003 -1.2575152 0.2968592 0
4.9650002 -1.2646888 0.29695302 0
4.9600005 -1.2715795 0.29707026 0
4.9550004 -1.278452 0.29718751 0
4.9510002 -1.2855787 0.29728132 0
4.9460001 -1.292417 0.29739857 0
4.9410005 -1.2992374 0.29751581 0
4.9370003 -1.3063171 0.2976096 0
4.9320002 -1.3131031 0.29772687 0
4.9270005 -1.3198711 0.29784408 0
4.9230003 -1.3269041 0.2979379 0
4.9180002 -1.3336376 0.29805514 0
4.9140005 -1.3406402 0.29814893 0
4.9090004 -1.3473395 0.29826617 0
4.9040003 -1.3540207 0.29838344 0
4.9000001 -1.3609761 0.29847723 0
4.8950005 -1.3676233 0.29859447 0
4.8910003 -1.3745481 0.29868829 0
4.8860002 -1.3811607 0.29880553 0
4.8820004 -1.3880551 0.29889932 0
4.8770003 -1.3946335 0.29901657 0
4.8730001 -1.4014969 0.29911035 0
4.8680005 -1.4080412 0.2992276 0
4.8640003 -1.4148741 0.29932141 0
4.8590002 -1.4213839 0.29943866 0
4.8550005 -1.4281862 0.29953247 0
4.8500004 -1.4346617 0.29964972 0
4.8460002 -1.4414332 0.2997435 0
4.8410001 -1.4478745 0.29986075 0
4.8370004 -1.4546155 0.29995453 0
4.8320003 -1.4610226 0.30007181 0
4.8280001 -1.4677328 0.30016559 0
4.8230004 -1.4741056 0.30028284 0
4.8190002 -1.4807851 0.30037665 0
4.8150005 -1.4874502 0.30047044 0
4.8100004 -1.4937726 0.30058768 0
4.8060002 -1.500407 0.3006815 0
4.8010001 -1.506695 0.30079874 0
4.7970004 -1.5132989 0.30089253 0
4.7930002 -1.519888 0.30098635 0
4.7880001 -1.5261257 0.30110359 0
4.7840004 -1.5326844 0.30119738 0
4.7800002 -1.5392284 0.30129117 0
4.7750001 -1.5454155 0.30140841 0
4.7710004 -1.5519292 0.30150223 0
4.7670002 -1.5584282 0.30159602 0
4.7620001 -1.5645648 0.30171326 0
4.7580004 -1.5710332 0.30180705 0
4.7540002 -1.5774872 0.30190086 0
4.7500005 -1.583927 0.30199465 0
4.7450004 -1.5899967 0.30211189 0
4.7410002 -1.5964056 0.30220571 0
4.7370005 -1.6028001 0.3022995 0
4.7330003 -1.6091802 0.30239332 0
4.7280002 -1.6151832 0.30251056 0
4.7240005 -1.6215327 0.30260435 0
4.7200003 -1.6278676 0.30269814 0
4.7160001 -1.6341882 0.30279195 0
4.7110004 -1.6401246 0.3029092 0
4.7070003 -1.6464144 0.30300298 0
4.7030001 -1.6526898 0.3030968 0
4.6990004 -1.6589509 0.30319059 0
4.6950002 -1.6651975 0.30328438 0
4.6910005 -1.6714298 0.30337816 0
4.6860003 -1.6772668 0.30349544 0
4.6820002 -1.6834682 0.30358922 0
4.6780005 -1.6896553 0.30368301 0
4.6740003 -1.695828 0.3037768 0
4.6700001 -1.7019861 0.30387062 0
4.6660004 -1.70813 0.30396441 0
4.6620002 -1.7142591 0.30405822 0
4.6580005 -1.7203742 0.30415201 0
4.6540003 -1.7264746 0.30424583 0
4.6490002 -1.7321638 0.30436307 0
4.6450005 -1.7382337 0.30445686 0
4.6410003 -1.744289 0.30455065 0
4.6370001 -1.75033 0.30464447 0
4.6330004 -1.7563566 0.30473825 0
4.6290002 -1.7623686 0.30483204 0
4.6250005 -1.7683663 0.30492586 0
4.6210003 -1.7743496 0.30501965 0
4.6170001 -1.7803183 0.30511343 0
4.6130004 -1.7862726 0.30520725 0
4.6090002 -1.7922126 0.30530104 0
4.6050005 -1.7981383 0.30539483 0
4.6010003 -1.8040493 0.30548865 0
4.5970001 -1.8099458 0.30558243 0
4.5930004 -1.8158281 0.30567622 0
4.5890002 -1.8216959 0.30577004 0
4.5850005 -1.8275493 0.30586383 0
4.5810003 -1.8333881 0.30595762 0
4.5770001 -1.8392127 0.30605143 0
4.5730004 -1.8450228 0.30614522 0
4.5690002 -1.8508184 0.30623901 0
4.5660005 -1.8570344 0.30630937 0
4.5620003 -1.8628029 0.30640316 0
4.5580001 -1.8685569 0.30649698 0
4.5540004 -1.8742968 0.30659077 0
4.5500002 -1.8800219 0.30668455 0
4.5460005 -1.8857329 0.30677834 0
4.5420003 -1.8914293 0.30687216 0
4.5380001 -1.8971112 0.30696595 0
4.5340004 -1.902779 0.30705976 0
4.5310001 -1.9088829 0.3071301 0
4.5270004 -1.9145235 0.30722389 0
4.5230002 -1.9201496 0.3073177 0
4.5190001 -1.925761 0.30741149 0
4.5150003 -1.9313585 0.30750531 0
4.5110002 -1.9369411 0.3075991 0
4.5080004 -1.9429713 0.30766943 0
4.5040002 -1.948527 0.30776325 0
4.5000005 -1.9540683 0.30785704 0
4.4960003 -1.9595952 0.30795085 0
4.4920001 -1.9651077 0.30804464 0
4.4890003 -1.9710764 0.30811498 0
4.4850001 -1.9765618 0.30820879 0
4.4810004 -1.9820329 0.30830258 0
4.4770002 -1.9874892 0.30839637 0
4.4740005 -1.9934095 0.30846673 0
4.4700003 -1.9988388 0.30856052 0
4.4660001 -2.0042536 0.30865431 0
4.4620004 -2.0096545 0.30874813 0
4.4590001 -2.0155256 0.30881846 0
4.4550004 -2.0208995 0.30891228 0
4.4510002 -2.0262585 0.30900607 0
4.4480004 -2.032094 0.3090764 0
4.4440002 -2.037426 0.30917022 0
4.4400001 -2.0427434 0.309264 0
4.4360003 -2.0480468 0.30935782 0
4.4330001 -2.0538332 0.30942816 0
4.4290004 -2.0591094 0.30952194 0
4.4250002 -2.0643713 0.30961576 0
4.4220004 -2.0701218 0.30968609 0
4.4180002 -2.0753565 0.30977988 0
4.4150004 -2.0810835 0.30985025 0
4.4110003 -2.0862911 0.30994403 0
4.4070001 -2.0914841 0.31003785 0
4.4040003 -2.0971754 0.31010818 0
4.4000001 -2.1023412 0.310202 0
4.3960004 -2.1074932 0.31029576 0
4.3930001 -2.113148 0.31036612 0
4.3889999 -2.1182725 0.31045994 0
4.3860002 -2.1239042 0.31053028 0
4.382 -2.1290016 0.31062406 0
4.3780003 -2.1340847 0.31071788 0
4.375 -2.1396801 0.31078821 0
4.3710003 -2.1447363 0.31088203 0
4.368 -2.1503081 0.31095237 0
4.3640003 -2.1553373 0.31104618 0
4.3610001 -2.1608858 0.31111652 0
4.3570004 -2.1658878 0.31121033 0
4.3540001 -2.1714129 0.31128067 0
4.3500004 -2.1763878 0.31137446 0
4.3470001 -2.1818893 0.31144482 0
4.3429999 -2.1868372 0.31153861 0
4.3400002 -2.1923156 0.31160897 0
4.336 -2.1972361 0.31170276 0
4.3330002 -2.2026908 0.31177312 0
4.329 -2.2075846 0.31186691 0
4.3260002 -2.2130158 0.31193724 0
4.322 -2.2178826 0.31203103 0
4.3190002 -2.2232902 0.31210139 0
4.3150001 -2.2281301 0.31219518 0
4.3120003 -2.2335143 0.31226555 0
4.3080001 -2.2383268 0.31235933 0
4.3050003 -2.2436879 0.3124297 0
4.3010001 -2.2484734 0.31252348 0
4.2980003 -2.2538106 0.31259382 0
4.2950001 -2.2591374 0.31266418 0
4.2910004 -2.2638831 0.31275797 0
4.2880001 -2.2691865 0.31282833 0
4.2840004 -2.2739053 0.31292212 0
4.2810001 -2.2791851 0.31299248 0
5.1760001 -0.95057374 0.28339019 0
5.1710005 -0.95823276 0.28351644 0
5.1660004 -0.96587366 0.28364271 0
5.1610003 -0.9734965 0.28376898 0
5.1560001 -0.98110133 0.28389525 0
5.1510005 -0.98868829 0.2840215 0
5.1460004 -0.99625701 0.2841478 0
5.1410003 -1.0038077 0.28427404 0
5.1350002 -1.0111365 0.28442556 0
5.1300001 -1.0186495 0.28455183 0
5.1250005 -1.0261444 0.2846781 0
5.1200004 -1.0336211 0.28480437 0
5.1150002 -1.0410798 0.28493065 0
5.1100001 -1.0485206 0.28505689 0
5.1050005 -1.0559433 0.28518316 0
5.1000004 -1.0633479 0.28530943 0
5.0950003 -1.0707345 0.28543571 0
5.0900002 -1.0781029 0.28556198 0
5.0850005 -1.0854536 0.28568822 0
5.0800004 -1.0927861 0.28581449 0
5.0760002 -1.1003258 0.28591549 0
5.0710001 -1.1076241 0.2860418 0
5.0660005 -1.1149043 0.28616804 0
5.0610003 -1.1221664 0.28629431 0
5.0560002 -1.1294105 0.28642058 0
5.0510001 -1.1366365 0.28654686 0
5.0460005 -1.1438446 0.2866731 0
5.0410004 -1.1510346 0.28679937 0
5.0360003 -1.1582065 0.28692564 0
5.0320005 -1.1656022 0.28702664 0
5.0270004 -1.1727397 0.28715292 0
5.0220003 -1.1798594 0.28727919 0
5.0170002 -1.1869609 0.28740546 0
5.0120001 -1.1940445 0.28753173 0
5.0070004 -1.2011101 0.28765798 0
5.0030003 -1.2084101 0.28775901 0
4.9980001 -1.2154412 0.28788528 0
4.9930005 -1.2224545 0.28801155 0
4.9880004 -1.2294497 0.28813779 0
4.9840002 -1.2366866 0.28823882 0
4.9790001 -1.2436475 0.28836507 0
4.9740005 -1.2505904 0.28849137 0
4.9690003 -1.2575152 0.28861761 0
4.9650002 -1.2646888 0.28871864 0
4.9600005 -1.2715795 0.28884488 0
4.9550004 -1.278452 0.28897116 0
4.9510002 -1.2855787 0.28907219 0
4.9460001 -1.292417 0.28919846 0
4.9410005 -1.2992374 0.2893247 0
4.9370003 -1.3063171 0.28942573 0
4.9320002 -1.3131031 0.28955197 0
4.9270005 -1.3198711 0.28967825 0
4.9230003 -1.3269041 0.28977928 0
4.9180002 -1.3336376 0.28990555 0
4.9140005 -1.3406402 0.29000655 0
4.9090004 -1.3473395 0.29013282 0
4.9040003 -1.3540207 0.29025906 0
4.9000001 -1.3609761 0.29036009 0
4.8950005 -1.3676233 0.29048637 0
4.8910003 -1.3745481 0.29058737 0
4.8860002 -1.3811607 0.29071364 0
4.8820004 -1.3880551 0.29081464 0
4.8770003 -1.3946335 0.29094094 0
4.8730001 -1.4014969 0.29104194 0
4.8680005 -1.4080412 0.29116821 0
4.8640003 -1.4148741 0.29126921 0
4.8590002 -1.4213839 0.29139549 0
4.8550005 -1.4281862 0.29149649 0
4.8500004 -1.4346617 0.29162276 0
4.8460002 -1.4414332 0.29172379 0
4.8410001 -1.4478745 0.29185003 0
4.8370004 -1.4546155 0.29195106 0
4.8320003 -1.4610226 0.2920773 0
4.8280001 -1.4677328 0.29217833 0
4.8230004 -1.4741056 0.29230461 0
4.8190002 -1.4807851 0.29240561 0
4.8150005 -1.4874502 0.29250664 0
4.8100004 -1.4937726 0.29263288 0
4.8060002 -1.500407 0.29273391 0
4.8010001 -1.506695 0.29286018 0
4.7970004 -1.5132989 0.29296118 0
4.7930002 -1.519888 0.29306221 0
4.7880001 -1.5261257 0.29318848 0
4.7840004 -1.5326844 0.29328948 0
4.7800002 -1.5392284 0.29339051 0
4.7750001 -1.5454155 0.29351676 0
4.7710004 -1.5519292 0.29361778 0
4.7670002 -1.5584282 0.29371879 0
4.7620001 -1.5645648 0.29384506 0
4.7580004 -1.5710332 0.29394606 0
4.7540002 -1.5774872 0.29404709 0
4.7500005 -1.583927 0.29414809 0
4.7450004 -1.5899967 0.29427436 0
4.7410002 -1.5964056 0.29437536 0
4.7370005 -1.6028001 0.29447639 0
4.7330003 -1.6091802 0.29457739 0
4.7280002 -1.6151832 0.29470366 0
4.7240005 -1.6215327 0.29480469 0
4.7200003 -1.6278676 0.29490569 0
4.7160001 -1.6341882 0.29500669 0
4.7110004 -1.6401246 0.29513296 0
4.7070003 -1.6464144 0.29523396 0
4.7030001 -1.6526898 0.29533499 0
4.6990004 -1.6589509 0.29543602 0
4.6950002 -1.6651975 0.29553702 0
4.6910005 -1.6714298 0.29563802 0
4.6860003 -1.6772668 0.2957643 0
4.6820002 -1.6834682 0.29586533 0
4.6780005 -1.6896553 0.29596633 0
4.6740003 -1.695828 0.29606736 0
4.6700001 -1.7019861 0.29616836 0
4.6660004 -1.70813 0.29626936 0
4.6620002 -1.7142591 0.29637039 0
4.6580005 -1.7203742 0.29647139 0
4.6540003 -1.7264746 0.29657242 0
4.6490002 -1.7321638 0.29669869 0
4.6450005 -1.7382337 0.29679969 0
4.6410003 -1.744289 0.29690069 0
4.6370001 -1.75033 0.29700172 0
4.6330004 -1.7563566 0.29710272 0
4.6290002 -1.7623686 0.29720375 0
4.6250005 -1.7683663 0.29730475 0
4.6210003 -1.7743496 0.29740578 0
4.6170001 -1.7803183 0.29750678 0
4.6130004 -1.7862726 0.29760778 0
4.6090002 -1.7922126 0.29770881 0
4.6050005 -1.7981383 0.29780981 0
4.6010003 -1.8040493 0.29791084 0
4.5970001 -1.8099458 0.29801184 0
4.5930004 -1.8158281 0.29811287 0
4.5890002 -1.8216959 0.29821387 0
4.5850005 -1.8275493 0.29831487 0
4.5810003 -1.8333881 0.2984159 0
4.5770001 -1.8392127 0.29851693 0
4.5730004 -1.8450228 0.29861793 0
4.5690002 -1.8508184 0.29871893 0
4.5660005 -1.8570344 0.29879469 0
4.5620003 -1.8628029 0.29889572 0
4.5580001 -1.8685569 0.29899675 0
4.5540004 -1.8742968 0.29909775 0
4.5500002 -1.8800219 0.29919875 0
4.5460005 -1.8857329 0.29929978 0
4.5420003 -1.8914293 0.29940078 0
4.5380001 -1.8971112 0.29950181 0
4.5340004 -1.902779 0.29960281 0
4.5310001 -1.9088829 0.29967856 0
4.5270004 -1.9145235 0.29977959 0
4.5230002 -1.9201496 0.29988059 0
4.5190001 -1.925761 0.29998162 0
4.5150003 -1.9313585 0.30008262 0
4.5110002 -1.9369411 0.30018365 0
4.5080004 -1.9429713 0.30025938 0
4.5040002 -1.948527 0.30036041 0
4.5000005 -1.9540683 0.30046141 0
4.4960003 -1.9595952 0.30056244 0
4.4920001 -1.9651077 0.30066344 0
4.4890003 -1.9710764 0.3007392 0
4.4850001 -1.9765618 0.30084023 0
4.4810004 -1.9820329 0.30094123 0
4.4770002 -1.9874892 0.30104226 0
4.4740005 -1.9934095 0.30111802 0
4.4700003 -1.9988388 0.30121902 0
4.4660001 -2.0042536 0.30132005 0
4.4620004 -2.0096545 0.30142105 0
4.4590001 -2.0155256 0.3014968 0
4.4550004 -2.0208995 0.30159783 0
4.4510002 -2.0262585 0.30169883 0
4.4480004 -2.032094 0.30177459 0
4.4440002 -2.037426 0.30187562 0
4.4400001 -2.0427434 0.30197662 0
4.4360003 -2.0480468 0.30207762 0
4.4330001 -2.0538332 0.30215341 0
4.4290004 -2.0591094 0.30225441 0
4.4250002 -2.0643713 0.30235541 0
4.4220004 -2.0701218 0.30243117 0
4.4180002 -2.0753565 0.3025322 0
4.4150004 -2.0810835 0.30260795 0
4.4110003 -2.0862911 0.30270898 0
4.4070001 -2.0914841 0.30280998 0
4.4040003 -2.0971754 0.30288574 0
4.4000001 -2.1023412 0.30298674 0
4.3960004 -2.1074932 0.30308777 0
4.3930001 -2.113148 0.30316353 0
4.3889999 -2.1182725 0.30326456 0
4.3860002 -2.1239042 0.30334029 0
4.382 -2.1290016 0.30344132 0
4.3780003 -2.1340847 0.30354232 0
4.375 -2.1396801 0.30361807 0
4.3710003 -2.1447363 0.3037191 0
4.368 -2.1503081 0.30379486 0
4.3640003 -2.1553373 0.30389589 0
4.3610001 -2.1608858 0.30397165 0
4.3570004 -2.1658878 0.30407265 0
4.3540001 -2.1714129 0.30414841 0
4.3500004 -2.1763878 0.30424941 0
4.3470001 -2.1818893 0.30432516 0
4.3429999 -2.1868372 0.30442619 0
4.3400002 -2.1923156 0.30450195 0
4.336 -2.1972361 0.30460298 0
4.3330002 -2.2026908 0.30467874 0
4.329 -2.2075846 0.30477974 0
4.3260002 -2.2130158 0.3048555 0
4.322 -2.2178826 0.30495653 0
4.3190002 -2.2232902 0.30503228 0
4.3150001 -2.2281301 0.30513328 0
4.3120003 -2.2335143 0.30520904 0
4.3080001 -2.2383268 0.30531007 0
4.3050003 -2.2436879 0.30538583 0
4.3010001 -2.2484734 0.30548683 0
4.2980003 -2.2538106 0.30556259 0
4.2950001 -2.2591374 0.30563834 0
4.2910004 -2.2638831 0.30573937 0
4.2880001 -2.2691865 0.30581513 0
4.2840004 -2.2739053 0.30591613 0
4.2810001 -2.2791851 0.30599189 0
5.1760001 -0.95057374 0.27477521 0
5.1710005 -0.95823276 0.27491048 0
5.1660004 -0.96587366 0.27504575 0
5.1610003 -0.9734965 0.27518106 0
5.1560001 -0.98110133 0.27531633 0
5.1510005 -0.98868829 0.2754516 0
5.1460004 -0.99625701 0.2755869 0
5.1410003 -1.0038077 0.27572221 0
5.1360002 -1.0113404 0.27585748 0
5.1300001 -1.0186495 0.27601981 0
5.1250005 -1.0261444 0.27615511 0
5.1200004 -1.0336211 0.27629039 0
5.1150002 -1.0410798 0.27642566 0
5.1100001 -1.0485206 0.27656096 0
5.1050005 -1.0559433 0.27669626 0
5.1000004 -1.0633479 0.27683151 0
5.0950003 -1.0707345 0.27696681 0
5.0900002 -1.0781029 0.27710211 0
5.0850005 -1.0854536 0.27723739 0
5.0800004 -1.0927861 0.27737266 0
5.0760002 -1.1003258 0.2774809 0
5.0710001 -1.1076241 0.2776162 0
5.0660005 -1.1149043 0.27775148 0
5.0610003 -1.1221664 0.27788675 0
5.0560002 -1.1294105 0.27802205 0
5.0510001 -1.1366365 0.27815735 0
5.0460005 -1.1438446 0.27829263 0
5.0410004 -1.1510346 0.2784279 0
5.0360003 -1.1582065 0.2785632 0
5.0320005 -1.1656022 0.27867141 0
5.0270004 -1.1727397 0.27880669 0
5.0220003 -1.1798594 0.27894199 0
5.0170002 -1.1869609 0.27907726 0
5.0120001 -1.1940445 0.27921256 0
5.0070004 -1.2011101 0.27934784 0
5.0030003 -1.2084101 0.27945608 0
4.9980001 -1.2154412 0.27959138 0
4.9930005 -1.2224545 0.27972665 0
4.9880004 -1.2294497 0.27986193 0
4.9840002 -1.2366866 0.27997017 0
4.9790001 -1.2436475 0.28010547 0
4.9740005 -1.2505904 0.28024071 0
4.9690003 -1.2575152 0.28037602 0
4.9650002 -1.2646888 0.28048426 0
4.9600005 -1.2715795 0.2806195 0
4.9550004 -1.278452 0.2807548 0
4.9510002 -1.2855787 0.28086305 0
4.9460001 -1.292417 0.28099835 0
4.9410005 -1.2992374 0.28113362 0
4.9370003 -1.3063171 0.28124183 0
4.9320002 -1.3131031 0.28137714 0
4.9270005 -1.3198711 0.28151241 0
4.9230003 -1.3269041 0.28162065 0
4.9180002 -1.3336376 0.28175592 0
4.9140005 -1.3406402 0.28186417 0
4.9090004 -1.3473395 0.28199944 0
4.9040003 -1.3540207 0.28213471 0
4.9000001 -1.3609761 0.28224295 0
4.8950005 -1.3676233 0.28237826 0
4.8910003 -1.3745481 0.28248647 0
4.8860002 -1.3811607 0.28262177 0
4.8820004 -1.3880551 0.28272998 0
4.8770003 -1.3946335 0.28286526 0
4.8730001 -1.4014969 0.2829735 0
4.8680005 -1.4080412 0.28310877 0
4.8640003 -1.4148741 0.28321701 0
4.8590002 -1.4213839 0.28335232 0
4.8550005 -1.4281862 0.28346053 0
4.8500004 -1.4346617 0.2835958 0
4.8460002 -1.4414332 0.28370404 0
4.8410001 -1.4478745 0.28383934 0
4.8370004 -1.4546155 0.28394756 0
4.8320003 -1.4610226 0.28408283 0
4.8280001 -1.4677328 0.28419107 0
4.8230004 -1.4741056 0.28432637 0
4.8190002 -1.4807851 0.28443459 0
4.8150005 -1.4874502 0.2845428 0
4.8100004 -1.4937726 0.2846781 0
4.8060002 -1.500407 0.28478634 0
4.8010001 -1.506695 0.28492162 0
4.7970004 -1.5132989 0.28502983 0
4.7930002 -1.519888 0.28513807 0
4.7880001 -1.5261257 0.28527337 0
4.7840004 -1.5326844 0.28538159 0
4.7800002 -1.5392284 0.2854898 0
4.7750001 -1.5454155 0.2856251 0
4.7710004 -1.5519292 0.28573334 0
4.7670002 -1.5584282 0.28584155 0
4.7620001 -1.5645648 0.28597686 0
4.7580004 -1.5710332 0.28608507 0
4.7540002 -1.5774872 0.28619331 0
4.7500005 -1.583927 0.28630152 0
4.7450004 -1.5899967 0.2864368 0
4.7410002 -1.5964056 0.28654504 0
4.7370005 -1.6028001 0.28665325 0
4.7330003 -1.6091802 0.28676149 0
4.7280002 -1.6151832 0.2868968 0
4.7240005 -1.6215327 0.28700501 0
4.7200003 -1.6278676 0.28711325 0
4.7160001 -1.6341882 0.28722149 0
4.7110004 -1.6401246 0.28735673 0
4.7070003 -1.6464144 0.28746498 0
4.7030001 -1.6526898 0.28757322 0
4.6990004 -1.6589509 0.28768146 0
4.6950002 -1.6651975 0.28778967 0
4.6910005 -1.6714298 0.28789788 0
4.6860003 -1.6772668 0.28803319 0
4.6820002 -1.6834682 0.2881414 0
4.6780005 -1.6896553 0.28824964 0
4.6740003 -1.695828 0.28835788 0
4.6700001 -1.7019861 0.2884661 0
4.6660004 -1.70813 0.28857434 0
4.6620002 -1.7142591 0.28868255 0
4.6580005 -1.7203742 0.28879076 0
4.6540003 -1.7264746 0.288899 0
4.6490002 -1.7321638 0.28903431 0
4.6450005 -1.7382337 0.28914252 0
4.6410003 -1.744289 0.28925076 0
4.6370001 -1.75033 0.28935897 0
4.6330004 -1.7563566 0.28946722 0
4.6290002 -1.7623686 0.28957546 0
4.6250005 -1.7683663 0.28968367 0
4.6210003 -1.7743496 0.28979188 0
4.6170001 -1.7803183 0.28990012 0
4.6130004 -1.7862726 0.29000837 0
4.6090002 -1.7922126 0.29011658 0
4.6050005 -1.7981383 0.29022479 0
4.6010003 -1.8040493 0.29033303 0
4.5970001 -1.8099458 0.29044127 0
4.5930004 -1.8158281 0.29054949 0
4.5890002 -1.8216959 0.29065773 0
4.5850005 -1.8275493 0.29076594 0
4.5810003 -1.8333881 0.29087418 0
4.5770001 -1.8392127 0.29098243 0
4.5730004 -1.8450228 0.29109064 0
4.5690002 -1.8508184 0.29119885 0
4.5660005 -1.8570344 0.29128003 0
4.5620003 -1.8628029 0.29138827 0
4.5580001 -1.8685569 0.29149652 0
4.5540004 -1.8742968 0.29160473 0
4.5500002 -1.8800219 0.29171294 0
4.5460005 -1.8857329 0.29182118 0
4.5420003 -1.8914293 0.29192939 0
4.5380001 -1.8971112 0.29203764 0
4.5340004 -1.902779 0.29214585 0
4.5310001 -1.9088829 0.29222703 0
4.5270004 -1.9145235 0.29233527 0
4.5230002 -1.9201496 0.29244351 0
4.5190001 -1.925761 0.29255173 0
4.5150003 -1.9313585 0.29265994 0
4.5110002 -1.9369411 0.29276818 0
4.5080004 -1.9429713 0.29284936 0
4.5040002 -1.948527 0.29295757 0
4.5000005 -1.9540683 0.29306579 0
4.4960003 -1.9595952 0.29317403 0
4.4920001 -1.9651077 0.29328227 0
4.4890003 -1.9710764 0.29336345 0
4.4850001 -1.9765618 0.29347166 0
4.4810004 -1.9820329 0.29357988 0
4.4770002 -1.9874892 0.29368812 0
4.4740005 -1.9934095 0.2937693 0
4.4700003 -1.9988388 0.29387751 0
4.4660001 -2.0042536 0.29398575 0
4.4620004 -2.0096545 0.29409397 0
4.4590001 -2.0155256 0.29417515 0
4.4550004 -2.0208995 0.29428339 0
4.4510002 -2.0262585 0.2943916 0
4.4480004 -2.032094 0.29447278 0
4.4440002 -2.037426 0.294581 0
4.4400001 -2.0427434 0.29468924 0
4.4360003 -2.0480468 0.29479745 0
4.4330001 -2.0538332 0.29487863 0
4.4290004 -2.0591094 0.29498684 0
4.4250002 -2.0643713 0.29509509 0
4.4220004 -2.0701218 0.29517627 0
4.4180002 -2.0753565 0.29528451 0
4.4150004 -2.0810835 0.29536566 0
4.4110003 -2.0862911 0.2954739 0
4.4070001 -2.0914841 0.29558212 0
4.4040003 -2.0971754 0.2956633 0
4.4000001 -2.1023412 0.29577154 0
4.3960004 -2.1074932 0.29587975 0
4.3930001 -2.113148 0.2959609 0
4.3889999 -2.1182725 0.29606915 0
4.3860002 -2.1239042 0.29615033 0
4.382 -2.1290016 0.29625854 0
4.3780003 -2.1340847 0.29636678 0
4.375 -2.1396801 0.29644793 0
4.3710003 -2.1447363 0.29655617 0
4.368 -2.1503081 0.29663736 0
4.3640003 -2.1553373 0.29674557 0
4.3610001 -2.1608858 0.29682675 0
4.3570004 -2.1658878 0.29693496 0
4.3540001 -2.1714129 0.29701614 0
4.3500004 -2.1763878 0.29712439 0
4.3470001 -2.1818893 0.29720554 0
4.3429999 -2.1868372 0.29731378 0
4.3400002 -2.1923156 0.29739493 0
4.336 -2.1972361 0.29750317 0
4.3330002 -2.2026908 0.29758435 0
4.329 -2.2075846 0.2976926 0
4.3260002 -2.2130158 0.29777375 0
4.322 -2.2178826 0.29788196 0
4.3190002 -2.2232902 0.29796314 0
4.3150001 -2.2281301 0.29807138 0
4.3120003 -2.2335143 0.29815254 0
4.3080001 -2.2383268 0.29826078 0
4.3050003 -2.2436879 0.29834193 0
4.3010001 -2.2484734 0.29845017 0
4.2980003 -2.2538106 0.29853135 0
4.2950001 -2.2591374 0.29861253 0
4.2910004 -2.2638831 0.29872075 0
4.2880001 -2.2691865 0.2988019 0
4.2840004 -2.2739053 0.29891014 0
4.2810001 -2.2791851 0.29899132 0
5.1760001 -0.95057374 0.26616019 0
5.1710005 -0.95823276 0.26630449 0
5.1660004 -0.96587366 0.2664488 0
5.1610003 -0.9734965 0.2665931 0
5.1560001 -0.98110133 0.26673743 0
5.1510005 -0.98868829 0.2668817 0
5.1460004 -0.99625701 0.26702604 0
5.1410003 -1.0038077 0.26717034 0
5.1360002 -1.0113404 0.26731464 0
5.1300001 -1.0186495 0.26748782 0
5.1250005 -1.0261444 0.26763213 0
5.1200004 -1.0336211 0.26777643 0
5.1150002 -1.0410798 0.26792073 0
5.1100001 -1.0485206 0.26806504 0
5.1050005 -1.0559433 0.26820934 0
5.1000004 -1.0633479 0.26835364 0
5.0950003 -1.0707345 0.26849794 0
5.0900002 -1.0781029 0.26864225 0
5.0850005 -1.0854536 0.26878655 0
5.0800004 -1.0927861 0.26893085 0
5.0760002 -1.1003258 0.26904631 0
5.0710001 -1.1076241 0.26919061 0
5.0660005 -1.1149043 0.26933491 0
5.0610003 -1.1221664 0.26947922 0
5.0560002 -1.1294105 0.26962352 0
5.0510001 -1.1366365 0.26976782 0
5.0460005 -1.1438446 0.26991212 0
5.0410004 -1.1510346 0.27005643 0
5.0360003 -1.1582065 0.27020073 0
5.0320005 -1.1656022 0.27031618 0
5.0270004 -1.1727397 0.27046049 0
5.0220003 -1.1798594 0.27060479 0
5.0170002 -1.1869609 0.27074909 0
5.0120001 -1.1940445 0.27089339 0
5.0070004 -1.2011101 0.2710377 0
5.0030003 -1.2084101 0.27115315 0
4.9980001 -1.2154412 0.27129745 0
4.9930005 -1.2224545 0.27144176 0
4.9880004 -1.2294497 0.27158606 0
4.9840002 -1.2366866 0.27170151 0
4.9790001 -1.2436475 0.27184582 0
4.9740005 -1.2505904 0.27199012 0
4.9690003 -1.2575152 0.27213442 0
4.9650002 -1.2646888 0.27224988 0
4.9600005 -1.2715795 0.27239418 0
4.9550004 -1.278452 0.27253848 0
4.9510002 -1.2855787 0.27265394 0
4.9460001 -1.292417 0.27279824 0
4.9410005 -1.2992374 0.27294251 0
4.9370003 -1.3063171 0.27305797 0
4.9320002 -1.3131031 0.27320227 0
4.9270005 -1.3198711 0.27334657 0
4.9230003 -1.3269041 0.273462 0
4.9180002 -1.3336376 0.27360633 0
4.9140005 -1.3406402 0.27372175 0
4.9090004 -1.3473395 0.27386606 0
4.9040003 -1.3540207 0.27401036 0
4.9000001 -1.3609761 0.27412581 0
4.8950005 -1.3676233 0.27427012 0
4.8910003 -1.3745481 0.27438557 0
4.8860002 -1.3811607 0.27452987 0
4.8820004 -1.3880551 0.27464533 0
4.8770003 -1.3946335 0.27478963 0
4.8730001 -1.4014969 0.27490509 0
4.8680005 -1.4080412 0.27504936 0
4.8640003 -1.4148741 0.27516481 0
4.8590002 -1.4213839 0.27530912 0
4.8550005 -1.4281862 0.27542454 0
4.8500004 -1.4346617 0.27556887 0
4.8460002 -1.4414332 0.2756843 0
4.8410001 -1.4478745 0.27582863 0
4.8370004 -1.4546155 0.27594405 0
4.8320003 -1.4610226 0.27608836 0
4.8280001 -1.4677328 0.27620381 0
4.8230004 -1.4741056 0.27634811 0
4.8190002 -1.4807851 0.27646357 0
4.8150005 -1.4874502 0.27657899 0
4.8100004 -1.4937726 0.2767233 0
4.8060002 -1.500407 0.27683875 0
4.8010001 -1.506695 0.27698305 0
4.7970004 -1.5132989 0.27709848 0
4.7930002 -1.519888 0.27721393 0
4.7880001 -1.5261257 0.27735823 0
4.7840004 -1.5326844 0.27747369 0
4.7800002 -1.5392284 0.27758914 0
4.7750001 -1.5454155 0.27773345 0
4.7710004 -1.5519292 0.2778489 0
4.7670002 -1.5584282 0.27796432 0
4.7620001 -1.5645648 0.27810866 0
4.7580004 -1.5710332 0.27822405 0
4.7540002 -1.5774872 0.27833951 0
4.7500005 -1.583927 0.27845496 0
4.7450004 -1.5899967 0.27859926 0
4.7410002 -1.5964056 0.27871472 0
4.7370005 -1.6028001 0.27883017 0
4.7330003 -1.6091802 0.2789456 0
4.7280002 -1.6151832 0.2790899 0
4.7240005 -1.6215327 0.27920532 0
4.7200003 -1.6278676 0.27932078 0
4.7160001 -1.6341882 0.27943623 0
4.7120004 -1.6404943 0.27955168 0
4.7070003 -1.6464144 0.27969599 0
4.7030001 -1.6526898 0.27981144 0
4.6990004 -1.6589509 0.27992687 0
4.6950002 -1.6651975 0.28004232 0
4.6910005 -1.6714298 0.28015774 0
4.6860003 -1.6772668 0.28030205 0
4.6820002 -1.6834682 0.2804175 0
4.6780005 -1.6896553 0.28053296 0
4.6740003 -1.695828 0.28064841 0
4.6700001 -1.7019861 0.28076383 0
4.6660004 -1.70813 0.28087926 0
4.6620002 -1.7142591 0.28099471 0
4.6580005 -1.7203742 0.28111017 0
4.6540003 -1.7264746 0.28122562 0
4.6490002 -1.7321638 0.28136992 0
4.6450005 -1.7382337 0.28148535 0
4.6410003 -1.744289 0.2816008 0
4.6370001 -1.75033 0.28171626 0
4.6330004 -1.7563566 0.28183168 0
4.6290002 -1.7623686 0.28194714 0
4.6250005 -1.7683663 0.28206259 0
4.6210003 -1.7743496 0.28217801 0
4.6170001 -1.7803183 0.28229347 0
4.6130004 -1.7862726 0.28240889 0
4.6090002 -1.7922126 0.28252435 0
4.6050005 -1.7981383 0.2826398 0
4.6010003 -1.8040493 0.28275526 0
4.5970001 -1.8099458 0.28287068 0
4.5930004 -1.8158281 0.28298613 0
4.5890002 -1.8216959 0.28310156 0
4.5850005 -1.8275493 0.28321701 0
4.5810003 -1.8333881 0.28333247 0
4.5770001 -1.8392127 0.28344792 0
4.5730004 -1.8450228 0.28356335 0
4.5690002 -1.8508184 0.2836788 0
4.5660005 -1.8570344 0.28376538 0
4.5620003 -1.8628029 0.28388083 0
4.5580001 -1.8685569 0.28399628 0
4.5540004 -1.8742968 0.28411171 0
4.5500002 -1.8800219 0.28422713 0
4.5460005 -1.8857329 0.28434259 0
4.5420003 -1.8914293 0.28445804 0
4.5380001 -1.8971112 0.2845735 0
4.5340004 -1.902779 0.28468892 0
4.5310001 -1.9088829 0.2847755 0
4.5270004 -1.9145235 0.28489095 0
4.5230002 -1.9201496 0.2850064 0
4.5190001 -1.925761 0.28512186 0
4.5150003 -1.9313585 0.28523728 0
4.5110002 -1.9369411 0.28535274 0
4.5080004 -1.9429713 0.28543931 0
4.5040002 -1.948527 0.28555477 0
