# .PCD v0.7 - Point Cloud Data file format
VERSION 0.7
FIELDS x y z intensity
SIZE 4 4 4 4
TYPE F F F F
COUNT 1 1 1 1
WIDTH 1462
HEIGHT 1
VIEWPOINT 0 0 0 1 0 0 0
POINTS 1462
DATA ascii
4.7300005 -1.9127072 1.8801826 0
4.7250004 -1.9183531 1.8784781 0
4.7200003 -1.9239807 1.8767734 0
4.7150002 -1.9295906 1.8750688 0
4.7100005 -1.9351826 1.8733643 0
4.7050004 -1.9407562 1.8716596 0
4.7000003 -1.9463118 1.8699549 0
4.6940002 -1.951406 1.8679094 0
4.6890001 -1.9569238 1.8662049 0
4.6840005 -1.9624237 1.8645004 0
4.6790004 -1.9679054 1.8627957 0
4.6740003 -1.973369 1.861091 0
4.6690001 -1.9788148 1.8593864 0
4.6640005 -1.9842426 1.8576819 0
4.6590004 -1.9896522 1.8559773 0
4.6540003 -1.9950435 1.8542727 0
4.6490002 -2.000417 1.852568 0
4.6440005 -2.0057728 1.8508636 0
4.6390004 -2.0111103 1.849159 0
4.6340003 -2.0164297 1.8474542 0
4.6290002 -2.0217309 1.8457496 0
4.6250005 -2.0274835 1.8443861 0
4.6200004 -2.0327504 1.8426815 0
4.6150002 -2.0379996 1.8409767 0
4.6100001 -2.0432303 1.8392721 0
4.6050005 -2.0484438 1.8375677 0
4.6000004 -2.0536387 1.835863 0
4.5950003 -2.0588155 1.8341584 0
4.5900002 -2.0639741 1.8324538 0
4.5860004 -2.0695989 1.8310902 0
4.5810003 -2.0747232 1.8293855 0
4.5760002 -2.0798297 1.8276809 0
4.5710001 -2.0849183 1.8259764 0
4.5660005 -2.0899889 1.8242718 0
4.5620003 -2.0955338 1.822908 0
4.5570002 -2.10057 1.8212035 0
4.5520005 -2.1055884 1.819499 0
4.5470004 -2.1105886 1.8177943 0
4.5430002 -2.1160703 1.8164306 0
4.5380001 -2.1210361 1.814726 0
4.5330005 -2.125984 1.8130215 0
4.5290003 -2.1314187 1.8116577 0
4.5240002 -2.1363323 1.8099531 0
4.5190001 -2.1412277 1.8082484 0
4.5140004 -2.1461055 1.8065439 0
4.5100002 -2.1514771 1.8051802 0
4.5050001 -2.1563203 1.8034756 0
4.5010004 -2.1616616 1.802112 0
4.4960003 -2.1664703 1.8004074 0
4.4910002 -2.1712613 1.7987027 0
4.4870005 -2.1765554 1.7973391 0
4.4820004 -2.1813121 1.7956345 0
4.4780002 -2.1865754 1.7942708 0
4.4730005 -2.1912982 1.7925663 0
4.4680004 -2.1960022 1.7908616 0
4.4640002 -2.2012188 1.7894979 0
4.4590001 -2.205889 1.7877933 0
4.4550004 -2.2110748 1.7864298 0
4.4500003 -2.2157109 1.7847251 0
4.4460001 -2.220866 1.7833613 0
4.4410005 -2.2254677 1.7816569 0
4.4370003 -2.2305923 1.7802931 0
4.4320002 -2.2351594 1.7785885 0
4.4280005 -2.2402534 1.7772249 0
4.4230003 -2.2447865 1.7755202 0
4.4190001 -2.2498496 1.7741565 0
4.4140005 -2.2543485 1.772452 0
4.4100003 -2.2593808 1.7710882 0
4.4060001 -2.2643991 1.7697246 0
4.4010005 -2.2688475 1.76802 0
4.3970003 -2.2738349 1.7666563 0
4.3920002 -2.2782488 1.7649517 0
4.388 -2.2832057 1.7635881 0
4.3840003 -2.2881482 1.7622243 0
4.3790002 -2.2925115 1.7605197 0
4.375 -2.2974231 1.7591561 0
4.3710003 -2.3023207 1.7577924 0
4.3660002 -2.3066335 1.7560878 0
4.362 -2.3115003 1.7547241 0
4.3580003 -2.3163524 1.7533604 0
5.0760002 -1.5389255 1.9897062 0
5.0700002 -1.5454336 1.9876715 0
5.0640001 -1.5519201 1.9856368 0
5.0580001 -1.5583849 1.983602 0
5.0520005 -1.5648283 1.9815675 0
5.0460005 -1.5712498 1.9795327 0
5.0400004 -1.5776497 1.9774981 0
5.0340004 -1.584028 1.9754634 0
5.0280004 -1.5903846 1.9734286 0
5.0220003 -1.5967195 1.9713939 0
5.0160003 -1.6030328 1.9693593 0
5.0100002 -1.6093246 1.9673246 0
5.0050001 -1.6159354 1.9656289 0
4.9990005 -1.6221857 1.9635943 0
4.9930005 -1.6284143 1.9615597 0
4.9870005 -1.6346213 1.959525 0
4.9810004 -1.6408064 1.9574903 0
4.9760003 -1.6473199 1.9557946 0
4.9700003 -1.6534637 1.9537599 0
4.9640002 -1.6595857 1.9517252 0
4.9580002 -1.6656862 1.9496905 0
4.9530005 -1.6721224 1.9479951 0
4.9470005 -1.6781814 1.9459603 0
4.9410005 -1.6842186 1.9439256 0
4.9360003 -1.6905968 1.94223 0
4.9300003 -1.6965928 1.9401952 0
4.9240003 -1.7025669 1.9381605 0
4.9190001 -1.7088875 1.936465 0
4.9130001 -1.7148201 1.9344302 0
4.9080005 -1.721103 1.9327348 0
4.9020004 -1.7269942 1.9307001 0
4.8960004 -1.7328638 1.9286654 0
4.8910003 -1.7390887 1.9269698 0
4.8850002 -1.7449168 1.9249351 0
4.8800001 -1.7511039 1.9232394 0
4.8740001 -1.7568903 1.9212047 0
4.8690004 -1.7630397 1.9195093 0
4.8630004 -1.7687849 1.9174746 0
4.8580003 -1.774896 1.9157789 0
4.8520002 -1.7805997 1.9137442 0
4.8470001 -1.7866731 1.9120486 0
4.8410001 -1.7923353 1.9100139 0
4.8360004 -1.7983708 1.9083184 0
4.8310003 -1.8043884 1.9066228 0
4.8250003 -1.8099892 1.9045881 0
4.8200002 -1.8159688 1.9028925 0
4.8140001 -1.8215281 1.9008578 0
4.8090005 -1.8274699 1.8991623 0
4.8040004 -1.8333937 1.8974667 0
4.7980003 -1.8388916 1.895432 0
4.7930002 -1.8447773 1.8937364 0
4.7880001 -1.8506451 1.8920408 0
4.7820005 -1.856082 1.8900062 0
4.7770004 -1.8619119 1.8883106 0
4.7720003 -1.8677237 1.8866149 0
4.7670002 -1.8735175 1.8849194 0
4.7610002 -1.878873 1.8828847 0
4.7560005 -1.884629 1.8811892 0
4.7510004 -1.8903669 1.8794935 0
4.7460003 -1.8960867 1.877798 0
4.7410002 -1.9017885 1.8761023 0
4.7350001 -1.907043 1.8740675 0
4.7300005 -1.9127072 1.8723722 0
4.7250004 -1.9183531 1.8706765 0
4.7200003 -1.9239807 1.8689809 0
4.7150002 -1.9295906 1.8672854 0
4.7100005 -1.9351826 1.8655899 0
4.7050004 -1.9407562 1.8638943 0
4.7000003 -1.9463118 1.8621986 0
4.6940002 -1.951406 1.8601639 0
4.6890001 -1.9569238 1.8584683 0
4.6840005 -1.9624237 1.8567729 0
4.6790004 -1.9679054 1.8550771 0
4.6740003 -1.973369 1.8533816 0
4.6690001 -1.9788148 1.851686 0
4.6640005 -1.9842426 1.8499905 0
4.6590004 -1.9896522 1.848295 0
4.6540003 -1.9950435 1.8465992 0
4.6490002 -2.000417 1.8449037 0
4.6440005 -2.0057728 1.8432082 0
4.6390004 -2.0111103 1.8415126 0
4.6340003 -2.0164297 1.839817 0
4.6290002 -2.0217309 1.8381213 0
4.6250005 -2.0274835 1.8367649 0
4.6200004 -2.0327504 1.8350694 0
4.6150002 -2.0379996 1.8333738 0
4.6100001 -2.0432303 1.831678 0
4.6050005 -2.0484438 1.8299828 0
4.6000004 -2.0536387 1.828287 0
4.5950003 -2.0588155 1.8265915 0
4.5900002 -2.0639741 1.8248959 0
4.5860004 -2.0695989 1.8235395 0
4.5810003 -2.0747232 1.8218437 0
4.5760002 -2.0798297 1.8201482 0
4.5710001 -2.0849183 1.8184526 0
4.5660005 -2.0899889 1.8167571 0
4.5620003 -2.0955338 1.8154006 0
4.5570002 -2.10057 1.813705 0
4.5520005 -2.1055884 1.8120095 0
4.5470004 -2.1105886 1.8103139 0
4.5430002 -2.1160703 1.8089575 0
4.5380001 -2.1210361 1.8072618 0
4.5330005 -2.125984 1.8055663 0
4.5290003 -2.1314187 1.8042097 0
4.5240002 -2.1363323 1.8025142 0
4.5190001 -2.1412277 1.8008186 0
4.5140004 -2.1461055 1.7991232 0
4.5100002 -2.1514771 1.7977666 0
4.5050001 -2.1563203 1.7960709 0
4.5010004 -2.1616616 1.7947146 0
4.4960003 -2.1664703 1.7930189 0
4.4910002 -2.1712613 1.7913234 0
4.4870005 -2.1765554 1.7899669 0
4.4820004 -2.1813121 1.7882714 0
4.4780002 -2.1865754 1.7869148 0
4.4730005 -2.1912982 1.7852193 0
4.4680004 -2.1960022 1.7835238 0
4.4640002 -2.2012188 1.7821673 0
4.4590001 -2.205889 1.7804716 0
4.4550004 -2.2110748 1.7791153 0
4.4500003 -2.2157109 1.7774196 0
4.4460001 -2.220866 1.7760631 0
4.4410005 -2.2254677 1.7743677 0
4.4370003 -2.2305923 1.7730112 0
4.4320002 -2.2351594 1.7713155 0
4.4280005 -2.2402534 1.7699591 0
4.4230003 -2.2447865 1.7682635 0
4.4190001 -2.2498496 1.766907 0
4.4140005 -2.2543485 1.7652116 0
4.4100003 -2.2593808 1.7638551 0
4.4060001 -2.2643991 1.7624985 0
4.4010005 -2.2688475 1.760803 0
4.3970003 -2.2738349 1.7594465 0
4.3920002 -2.2782488 1.7577509 0
4.388 -2.2832057 1.7563944 0
4.3840003 -2.2881482 1.755038 0
4.3790002 -2.2925115 1.7533424 0
4.375 -2.2974231 1.7519859 0
4.3710003 -2.3023207 1.7506294 0
4.3660002 -2.3066335 1.7489339 0
4.362 -2.3115003 1.7475774 0
4.3580003 -2.3163524 1.7462209 0
5.0760002 -1.5389255 1.9812716 0
5.0700002 -1.5454336 1.9792477 0
5.0640001 -1.5519201 1.9772239 0
5.0580001 -1.5583849 1.9751999 0
5.0520005 -1.5648283 1.9731761 0
5.0460005 -1.5712498 1.9711523 0
5.0400004 -1.5776497 1.9691284 0
5.0340004 -1.584028 1.9671046 0
5.0280004 -1.5903846 1.9650806 0
5.0220003 -1.5967195 1.9630567 0
5.0160003 -1.6030328 1.9610329 0
5.0100002 -1.6093246 1.9590089 0
5.0050001 -1.6159354 1.9573224 0
4.9990005 -1.6221857 1.9552987 0
4.9930005 -1.6284143 1.9532747 0
4.9870005 -1.6346213 1.9512508 0
4.9810004 -1.6408064 1.949227 0
4.9760003 -1.6473199 1.9475404 0
4.9700003 -1.6534637 1.9455165 0
4.9640002 -1.6595857 1.9434927 0
4.9580002 -1.6656862 1.9414687 0
4.9530005 -1.6721224 1.9397823 0
4.9470005 -1.6781814 1.9377583 0
4.9410005 -1.6842186 1.9357345 0
4.9360003 -1.6905968 1.9340479 0
4.9300003 -1.6965928 1.932024 0
4.9240003 -1.7025669 1.9300002 0
4.9190001 -1.7088875 1.9283136 0
4.9130001 -1.7148201 1.9262897 0
4.9080005 -1.721103 1.9246032 0
4.9020004 -1.7269942 1.9225794 0
4.8960004 -1.7328638 1.9205555 0
4.8910003 -1.7390887 1.9188688 0
4.8850002 -1.7449168 1.916845 0
4.8800001 -1.7511039 1.9151584 0
4.8740001 -1.7568903 1.9131345 0
4.8690004 -1.7630397 1.911448 0
4.8630004 -1.7687849 1.9094242 0
4.8580003 -1.774896 1.9077376 0
4.8520002 -1.7805997 1.9057137 0
4.8470001 -1.7866731 1.904027 0
4.8410001 -1.7923353 1.9020032 0
4.8360004 -1.7983708 1.9003167 0
4.8310003 -1.8043884 1.8986301 0
4.8250003 -1.8099892 1.8966062 0
4.8200002 -1.8159688 1.8949198 0
4.8140001 -1.8215281 1.8928958 0
4.8090005 -1.8274699 1.8912094 0
4.8040004 -1.8333937 1.8895227 0
4.7980003 -1.8388916 1.8874989 0
4.7930002 -1.8447773 1.8858123 0
4.7880001 -1.8506451 1.8841257 0
4.7820005 -1.856082 1.8821019 0
4.7770004 -1.8619119 1.8804153 0
4.7720003 -1.8677237 1.8787287 0
4.7670002 -1.8735175 1.8770422 0
4.7610002 -1.878873 1.8750182 0
4.7560005 -1.884629 1.8733318 0
4.7510004 -1.8903669 1.8716452 0
4.7460003 -1.8960867 1.8699586 0
4.7410002 -1.9017885 1.8682721 0
4.7350001 -1.907043 1.8662481 0
4.7300005 -1.9127072 1.8645617 0
4.7250004 -1.9183531 1.862875 0
4.7200003 -1.9239807 1.8611884 0
4.7150002 -1.9295906 1.859502 0
4.7100005 -1.9351826 1.8578155 0
4.7050004 -1.9407562 1.8561288 0
4.7000003 -1.9463118 1.8544422 0
4.6940002 -1.951406 1.8524183 0
4.6890001 -1.9569238 1.8507318 0
4.6840005 -1.9624237 1.8490454 0
4.6790004 -1.9679054 1.8473587 0
4.6740003 -1.973369 1.8456721 0
4.6690001 -1.9788148 1.8439856 0
4.6640005 -1.9842426 1.8422991 0
4.6590004 -1.9896522 1.8406124 0
4.6540003 -1.9950435 1.838926 0
4.6490002 -2.000417 1.8372393 0
4.6440005 -2.0057728 1.8355528 0
4.6390004 -2.0111103 1.8338662 0
4.6340003 -2.0164297 1.8321797 0
4.6290002 -2.0217309 1.830493 0
4.6250005 -2.0274835 1.8291439 0
4.6200004 -2.0327504 1.8274573 0
4.6150002 -2.0379996 1.8257706 0
4.6100001 -2.0432303 1.8240842 0
4.6050005 -2.0484438 1.8223977 0
4.6000004 -2.0536387 1.820711 0
4.5950003 -2.0588155 1.8190244 0
4.5900002 -2.0639741 1.8173379 0
4.5860004 -2.0695989 1.8159887 0
4.5810003 -2.0747232 1.8143021 0
4.5760002 -2.0798297 1.8126155 0
4.5710001 -2.0849183 1.8109289 0
4.5660005 -2.0899889 1.8092425 0
4.5620003 -2.0955338 1.8078932 0
4.5570002 -2.10057 1.8062066 0
4.5520005 -2.1055884 1.8045201 0
4.5470004 -2.1105886 1.8028336 0
4.5430002 -2.1160703 1.8014842 0
4.5380001 -2.1210361 1.7997977 0
4.5330005 -2.125984 1.7981112 0
4.5290003 -2.1314187 1.7967619 0
4.5240002 -2.1363323 1.7950752 0
4.5190001 -2.1412277 1.7933886 0
4.5140004 -2.1461055 1.7917023 0
4.5100002 -2.1514771 1.7903529 0
4.5050001 -2.1563203 1.7886664 0
4.5010004 -2.1616616 1.7873172 0
4.4960003 -2.1664703 1.7856306 0
4.4910002 -2.1712613 1.783944 0
4.4870005 -2.1765554 1.7825948 0
4.4820004 -2.1813121 1.7809082 0
4.4780002 -2.1865754 1.7795589 0
4.4730005 -2.1912982 1.7778724 0
4.4680004 -2.1960022 1.7761859 0
4.4640002 -2.2012188 1.7748365 0
4.4590001 -2.205889 1.77315 0
4.4550004 -2.2110748 1.7718008 0
4.4500003 -2.2157109 1.7701142 0
4.4460001 -2.220866 1.7687649 0
4.4410005 -2.2254677 1.7670784 0
4.4370003 -2.2305923 1.7657291 0
4.4320002 -2.2351594 1.7640425 0
4.4280005 -2.2402534 1.7626934 0
4.4230003 -2.2447865 1.7610067 0
4.4190001 -2.2498496 1.7596575 0
4.4140005 -2.2543485 1.757971 0
4.4100003 -2.2593808 1.7566217 0
4.4060001 -2.2643991 1.7552724 0
4.4010005 -2.2688475 1.7535859 0
4.3970003 -2.2738349 1.7522366 0
4.3920002 -2.2782488 1.7505502 0
4.388 -2.2832057 1.7492008 0
4.3840003 -2.2881482 1.7478516 0
4.3790002 -2.2925115 1.746165 0
4.375 -2.2974231 1.7448157 0
4.3710003 -2.3023207 1.7434665 0
4.3660002 -2.3066335 1.7417799 0
4.362 -2.3115003 1.7404307 0
4.3580003 -2.3163524 1.7390815 0
5.0760002 -1.5389255 1.972837 0
5.0700002 -1.5454336 1.9708239 0
5.0640001 -1.5519201 1.9688109 0
5.0580001 -1.5583849 1.9667978 0
5.0520005 -1.5648283 1.9647849 0
5.0460005 -1.5712498 1.9627718 0
5.0400004 -1.5776497 1.9607587 0
5.0340004 -1.584028 1.9587457 0
5.0280004 -1.5903846 1.9567326 0
5.0220003 -1.5967195 1.9547195 0
5.0160003 -1.6030328 1.9527066 0
5.0100002 -1.6093246 1.9506934 0
5.0050001 -1.6159354 1.9490159 0
4.9990005 -1.6221857 1.9470029 0
4.9930005 -1.6284143 1.9449899 0
4.9870005 -1.6346213 1.9429768 0
4.9810004 -1.6408064 1.9409637 0
4.9760003 -1.6473199 1.9392862 0
4.9700003 -1.6534637 1.937273 0
4.9640002 -1.6595857 1.9352601 0
4.9580002 -1.6656862 1.933247 0
4.9530005 -1.6721224 1.9315696 0
4.9470005 -1.6781814 1.9295565 0
4.9410005 -1.6842186 1.9275435 0
4.9360003 -1.6905968 1.9258659 0
4.9300003 -1.6965928 1.9238528 0
4.9240003 -1.7025669 1.9218397 0
4.9190001 -1.7088875 1.9201621 0
4.9130001 -1.7148201 1.9181491 0
4.9080005 -1.721103 1.9164717 0
4.9020004 -1.7269942 1.9144586 0
4.8960004 -1.7328638 1.9124455 0
4.8910003 -1.7390887 1.910768 0
4.8850002 -1.7449168 1.9087548 0
4.8800001 -1.7511039 1.9070773 0
4.8740001 -1.7568903 1.9050642 0
4.8690004 -1.7630397 1.9033868 0
4.8630004 -1.7687849 1.9013737 0
4.8580003 -1.774896 1.8996962 0
4.8520002 -1.7805997 1.8976831 0
4.8470001 -1.7866731 1.8960056 0
4.8410001 -1.7923353 1.8939924 0
4.8360004 -1.7983708 1.892315 0
4.8310003 -1.8043884 1.8906374 0
4.8250003 -1.8099892 1.8886244 0
4.8200002 -1.8159688 1.8869468 0
4.8140001 -1.8215281 1.8849338 0
4.8090005 -1.8274699 1.8832564 0
4.8040004 -1.8333937 1.8815787 0
4.7980003 -1.8388916 1.8795656 0
4.7930002 -1.8447773 1.8778881 0
4.7880001 -1.8506451 1.8762106 0
4.7820005 -1.856082 1.8741976 0
4.7770004 -1.8619119 1.8725201 0
4.7720003 -1.8677237 1.8708425 0
4.7670002 -1.8735175 1.8691649 0
4.7610002 -1.878873 1.8671519 0
4.7560005 -1.884629 1.8654743 0
4.7510004 -1.8903669 1.8637968 0
4.7460003 -1.8960867 1.8621192 0
4.7410002 -1.9017885 1.8604417 0
4.7350001 -1.907043 1.8584286 0
4.7300005 -1.9127072 1.8567512 0
4.7250004 -1.9183531 1.8550737 0
4.7200003 -1.9239807 1.8533961 0
4.7150002 -1.9295906 1.8517184 0
4.7100005 -1.9351826 1.850041 0
4.7050004 -1.9407562 1.8483634 0
4.7000003 -1.9463118 1.8466859 0
4.6940002 -1.951406 1.8446728 0
4.6890001 -1.9569238 1.8429953 0
4.6840005 -1.9624237 1.8413179 0
4.6790004 -1.9679054 1.8396403 0
4.6740003 -1.973369 1.8379626 0
4.6690001 -1.9788148 1.836285 0
4.6640005 -1.9842426 1.8346076 0
4.6590004 -1.9896522 1.8329301 0
4.6540003 -1.9950435 1.8312525 0
4.6490002 -2.000417 1.8295749 0
4.6440005 -2.0057728 1.8278975 0
4.6390004 -2.0111103 1.8262199 0
4.6340003 -2.0164297 1.8245423 0
4.6290002 -2.0217309 1.8228647 0
4.6250005 -2.0274835 1.8215228 0
4.6200004 -2.0327504 1.8198452 0
4.6150002 -2.0379996 1.8181677 0
4.6100001 -2.0432303 1.8164901 0
4.6050005 -2.0484438 1.8148127 0
4.6000004 -2.0536387 1.8131351 0
4.5950003 -2.0588155 1.8114575 0
4.5900002 -2.0639741 1.8097799 0
4.5860004 -2.0695989 1.8084379 0
4.5810003 -2.0747232 1.8067603 0
4.5760002 -2.0798297 1.8050828 0
4.5710001 -2.0849183 1.8034053 0
4.5660005 -2.0899889 1.8017279 0
4.5620003 -2.0955338 1.8003857 0
4.5570002 -2.10057 1.7987082 0
4.5520005 -2.1055884 1.7970307 0
4.5470004 -2.1105886 1.7953531 0
4.5430002 -2.1160703 1.794011 0
4.5380001 -2.1210361 1.7923335 0
4.5330005 -2.125984 1.7906561 0
4.5290003 -2.1314187 1.7893139 0
4.5240002 -2.1363323 1.7876364 0
4.5190001 -2.1412277 1.7859588 0
4.5150003 -2.1466157 1.7846169 0
4.5100002 -2.1514771 1.7829393 0
4.5050001 -2.1563203 1.7812617 0
4.5010004 -2.1616616 1.7799197 0
4.4960003 -2.1664703 1.7782421 0
4.4910002 -2.1712613 1.7765646 0
4.4870005 -2.1765554 1.7752227 0
4.4820004 -2.1813121 1.7735451 0
4.4780002 -2.1865754 1.772203 0
4.4730005 -2.1912982 1.7705256 0
4.4680004 -2.1960022 1.7688479 0
4.4640002 -2.2012188 1.7675059 0
4.4590001 -2.205889 1.7658283 0
4.4550004 -2.2110748 1.7644863 0
4.4500003 -2.2157109 1.7628088 0
4.4460001 -2.220866 1.7614667 0
4.4410005 -2.2254677 1.7597893 0
4.4370003 -2.2305923 1.7584472 0
4.4320002 -2.2351594 1.7567697 0
4.4280005 -2.2402534 1.7554277 0
4.4230003 -2.2447865 1.75375 0
4.4190001 -2.2498496 1.7524079 0
4.4140005 -2.2543485 1.7507305 0
4.4100003 -2.2593808 1.7493885 0
4.4060001 -2.2643991 1.7480464 0
4.4010005 -2.2688475 1.746369 0
4.3970003 -2.2738349 1.7450268 0
4.3920002 -2.2782488 1.7433493 0
4.388 -2.2832057 1.7420073 0
4.3840003 -2.2881482 1.7406653 0
4.3790002 -2.2925115 1.7389876 0
4.375 -2.2974231 1.7376456 0
4.3710003 -2.3023207 1.7363036 0
4.3660002 -2.3066335 1.7346261 0
4.362 -2.3115003 1.733284 0
4.3580003 -2.3163524 1.7319421 0
5.0760002 -1.5389255 1.9644023 0
5.0700002 -1.5454336 1.9624001 0
5.0640001 -1.5519201 1.960398 0
5.0580001 -1.5583849 1.9583956 0
5.0520005 -1.5648283 1.9563935 0
5.0460005 -1.5712498 1.9543914 0
5.0400004 -1.5776497 1.9523891 0
5.0340004 -1.584028 1.9503868 0
5.0280004 -1.5903846 1.9483846 0
5.0220003 -1.5967195 1.9463824 0
5.0160003 -1.6030328 1.94438 0
5.0100002 -1.6093246 1.9423779 0
5.0050001 -1.6159354 1.9407092 0
4.9990005 -1.6221857 1.9387072 0
4.9930005 -1.6284143 1.936705 0
4.9870005 -1.6346213 1.9347028 0
4.9810004 -1.6408064 1.9327005 0
4.9760003 -1.6473199 1.9310319 0
4.9700003 -1.6534637 1.9290297 0
4.9640002 -1.6595857 1.9270275 0
4.9580002 -1.6656862 1.9250252 0
4.9530005 -1.6721224 1.9233568 0
4.9470005 -1.6781814 1.9213545 0
4.9410005 -1.6842186 1.9193524 0
4.9360003 -1.6905968 1.9176837 0
4.9300003 -1.6965928 1.9156816 0
4.9240003 -1.7025669 1.9136792 0
4.9190001 -1.7088875 1.9120108 0
4.9130001 -1.7148201 1.9100085 0
4.9080005 -1.721103 1.9083401 0
4.9020004 -1.7269942 1.9063379 0
4.8960004 -1.7328638 1.9043356 0
4.8910003 -1.7390887 1.902667 0
4.8850002 -1.7449168 1.9006648 0
4.8800001 -1.7511039 1.8989962 0
4.8740001 -1.7568903 1.896994 0
4.8690004 -1.7630397 1.8953257 0
4.8630004 -1.7687849 1.8933233 0
4.8580003 -1.774896 1.8916548 0
4.8520002 -1.7805997 1.8896526 0
4.8470001 -1.7866731 1.887984 0
4.8410001 -1.7923353 1.8859818 0
4.8360004 -1.7983708 1.8843133 0
4.8310003 -1.8043884 1.8826448 0
4.8250003 -1.8099892 1.8806427 0
4.8200002 -1.8159688 1.878974 0
4.8140001 -1.8215281 1.8769718 0
4.8090005 -1.8274699 1.8753034 0
4.8040004 -1.8333937 1.8736348 0
4.7980003 -1.8388916 1.8716326 0
4.7930002 -1.8447773 1.869964 0
4.7880001 -1.8506451 1.8682954 0
4.7820005 -1.856082 1.8662934 0
4.7770004 -1.8619119 1.8646247 0
4.7720003 -1.8677237 1.8629563 0
4.7670002 -1.8735175 1.8612877 0
4.7610002 -1.878873 1.8592855 0
4.7560005 -1.884629 1.857617 0
4.7510004 -1.8903669 1.8559484 0
4.7460003 -1.8960867 1.8542799 0
4.7410002 -1.9017885 1.8526113 0
4.7350001 -1.907043 1.8506092 0
4.7300005 -1.9127072 1.8489406 0
4.7250004 -1.9183531 1.8472722 0
4.7200003 -1.9239807 1.8456036 0
4.7150002 -1.9295906 1.843935 0
4.7100005 -1.9351826 1.8422667 0
4.7050004 -1.9407562 1.840598 0
4.7000003 -1.9463118 1.8389295 0
4.6940002 -1.951406 1.8369272 0
4.6890001 -1.9569238 1.8352587 0
4.6840005 -1.9624237 1.8335904 0
4.6790004 -1.9679054 1.8319217 0
4.6740003 -1.973369 1.8302531 0
4.6690001 -1.9788148 1.8285847 0
4.6640005 -1.9842426 1.8269162 0
4.6590004 -1.9896522 1.8252476 0
4.6540003 -1.9950435 1.8235791 0
4.6490002 -2.000417 1.8219105 0
4.6440005 -2.0057728 1.8202422 0
4.6390004 -2.0111103 1.8185736 0
4.6340003 -2.0164297 1.816905 0
4.6290002 -2.0217309 1.8152363 0
4.6250005 -2.0274835 1.8139017 0
4.6200004 -2.0327504 1.8122332 0
4.6150002 -2.0379996 1.8105646 0
4.6100001 -2.0432303 1.8088961 0
4.6050005 -2.0484438 1.8072276 0
4.6000004 -2.0536387 1.805559 0
4.5950003 -2.0588155 1.8038905 0
4.5900002 -2.0639741 1.802222 0
4.5860004 -2.0695989 1.8008872 0
4.5810003 -2.0747232 1.7992187 0
4.5760002 -2.0798297 1.7975501 0
4.5710001 -2.0849183 1.7958815 0
4.5660005 -2.0899889 1.7942132 0
4.5620003 -2.0955338 1.7928783 0
4.5570002 -2.10057 1.7912097 0
4.5520005 -2.1055884 1.7895412 0
4.5470004 -2.1105886 1.7878728 0
4.5430002 -2.1160703 1.7865379 0
4.5380001 -2.1210361 1.7848693 0
4.5330005 -2.125984 1.7832009 0
4.5290003 -2.1314187 1.7818661 0
4.5240002 -2.1363323 1.7801974 0
4.5190001 -2.1412277 1.7785289 0
4.5150003 -2.1466157 1.7771941 0
4.5100002 -2.1514771 1.7755257 0
4.5050001 -2.1563203 1.773857 0
4.5010004 -2.1616616 1.7725223 0
4.4960003 -2.1664703 1.7708538 0
4.4910002 -2.1712613 1.7691852 0
4.4870005 -2.1765554 1.7678505 0
4.4820004 -2.1813121 1.7661819 0
4.4780002 -2.1865754 1.764847 0
4.4730005 -2.1912982 1.7631786 0
4.4680004 -2.1960022 1.7615101 0
4.4640002 -2.2012188 1.7601752 0
4.4590001 -2.205889 1.7585067 0
4.4550004 -2.2110748 1.7571719 0
4.4500003 -2.2157109 1.7555034 0
4.4460001 -2.220866 1.7541685 0
4.4410005 -2.2254677 1.7525001 0
4.4370003 -2.2305923 1.7511652 0
4.4320002 -2.2351594 1.7494966 0
4.4280005 -2.2402534 1.7481619 0
4.4230003 -2.2447865 1.7464933 0
4.4190001 -2.2498496 1.7451584 0
4.4140005 -2.2543485 1.7434901 0
4.4100003 -2.2593808 1.7421552 0
4.4060001 -2.2643991 1.7408203 0
4.4010005 -2.2688475 1.7391518 0
4.3970003 -2.2738349 1.737817 0
4.3920002 -2.2782488 1.7361485 0
4.388 -2.2832057 1.7348137 0
4.3840003 -2.2881482 1.7334789 0
4.3790002 -2.2925115 1.7318102 0
4.375 -2.2974231 1.7304754 0
4.3710003 -2.3023207 1.7291406 0
4.3660002 -2.3066335 1.7274722 0
4.362 -2.3115003 1.7261374 0
4.3580003 -2.3163524 1.7248026 0
5.0760002 -1.5389255 1.9559678 0
5.0700002 -1.5454336 1.9539764 0
5.0640001 -1.5519201 1.951985 0
5.0580001 -1.5583849 1.9499935 0
5.0520005 -1.5648283 1.9480022 0
5.0460005 -1.5712498 1.9460108 0
5.0400004 -1.5776497 1.9440194 0
5.0340004 -1.584028 1.942028 0
5.0280004 -1.5903846 1.9400365 0
5.0220003 -1.5967195 1.9380451 0
5.0160003 -1.6030328 1.9360538 0
5.0100002 -1.6093246 1.9340624 0
5.0050001 -1.6159354 1.9324027 0
4.9990005 -1.6221857 1.9304115 0
4.9930005 -1.6284143 1.9284201 0
4.9870005 -1.6346213 1.9264287 0
4.9810004 -1.6408064 1.9244373 0
4.9760003 -1.6473199 1.9227777 0
4.9700003 -1.6534637 1.9207863 0
4.9640002 -1.6595857 1.9187949 0
4.9580002 -1.6656862 1.9168035 0
4.9530005 -1.6721224 1.9151441 0
4.9470005 -1.6781814 1.9131527 0
4.9410005 -1.6842186 1.9111612 0
4.9360003 -1.6905968 1.9095017 0
4.9300003 -1.6965928 1.9075103 0
4.9240003 -1.7025669 1.9055189 0
4.9190001 -1.7088875 1.9038594 0
4.9130001 -1.7148201 1.901868 0
4.9080005 -1.721103 1.9002085 0
4.9020004 -1.7269942 1.8982171 0
4.8960004 -1.7328638 1.8962257 0
4.8910003 -1.7390887 1.8945662 0
4.8850002 -1.7449168 1.8925748 0
4.8800001 -1.7511039 1.8909152 0
4.8740001 -1.7568903 1.8889238 0
4.8690004 -1.7630397 1.8872644 0
4.8630004 -1.7687849 1.885273 0
4.8580003 -1.774896 1.8836135 0
4.8520002 -1.7805997 1.881622 0
4.8470001 -1.7866731 1.8799624 0
4.8410001 -1.7923353 1.8779711 0
4.8360004 -1.7983708 1.8763117 0
4.8310003 -1.8043884 1.874652 0
4.8250003 -1.8099892 1.8726606 0
4.8200002 -1.8159688 1.8710012 0
4.8140001 -1.8215281 1.8690097 0
4.8090005 -1.8274699 1.8673505 0
4.8040004 -1.8333937 1.8656908 0
4.7980003 -1.8388916 1.8636994 0
4.7930002 -1.8447773 1.8620398 0
4.7880001 -1.8506451 1.8603804 0
4.7820005 -1.856082 1.858389 0
4.7770004 -1.8619119 1.8567295 0
4.7720003 -1.8677237 1.85507 0
4.7670002 -1.8735175 1.8534105 0
4.7610002 -1.878873 1.851419 0
4.7560005 -1.884629 1.8497597 0
4.7510004 -1.8903669 1.8481001 0
4.7460003 -1.8960867 1.8464406 0
4.7410002 -1.9017885 1.844781 0
4.7350001 -1.907043 1.8427896 0
4.7300005 -1.9127072 1.8411303 0
4.7250004 -1.9183531 1.8394706 0
4.7200003 -1.9239807 1.8378111 0
4.7150002 -1.9295906 1.8361516 0
4.7100005 -1.9351826 1.8344922 0
4.7050004 -1.9407562 1.8328327 0
4.7000003 -1.9463118 1.8311731 0
4.6940002 -1.951406 1.8291817 0
4.6890001 -1.9569238 1.8275222 0
4.6840005 -1.9624237 1.8258629 0
4.6790004 -1.9679054 1.8242033 0
4.6740003 -1.973369 1.8225436 0
4.6690001 -1.9788148 1.8208842 0
4.6640005 -1.9842426 1.8192247 0
4.6590004 -1.9896522 1.8175652 0
4.6540003 -1.9950435 1.8159057 0
4.6490002 -2.000417 1.8142462 0
4.6440005 -2.0057728 1.8125867 0
4.6390004 -2.0111103 1.8109273 0
4.6340003 -2.0164297 1.8092676 0
4.6290002 -2.0217309 1.8076081 0
4.6250005 -2.0274835 1.8062806 0
4.6200004 -2.0327504 1.8046211 0
4.6150002 -2.0379996 1.8029616 0
4.6100001 -2.0432303 1.801302 0
4.6050005 -2.0484438 1.7996427 0
4.6000004 -2.0536387 1.7979831 0
4.5950003 -2.0588155 1.7963235 0
4.5900002 -2.0639741 1.794664 0
4.5860004 -2.0695989 1.7933365 0
4.5810003 -2.0747232 1.7916769 0
4.5760002 -2.0798297 1.7900174 0
4.5710001 -2.0849183 1.7883579 0
4.5660005 -2.0899889 1.7866985 0
4.5620003 -2.0955338 1.7853708 0
4.5570002 -2.10057 1.7837112 0
4.5520005 -2.1055884 1.7820519 0
4.5470004 -2.1105886 1.7803923 0
4.5430002 -2.1160703 1.7790647 0
4.5380001 -2.1210361 1.7774051 0
4.5330005 -2.125984 1.7757457 0
4.5290003 -2.1314187 1.7744181 0
4.5240002 -2.1363323 1.7727586 0
4.5190001 -2.1412277 1.771099 0
4.5150003 -2.1466157 1.7697715 0
4.5100002 -2.1514771 1.7681121 0
4.5050001 -2.1563203 1.7664524 0
4.5010004 -2.1616616 1.7651249 0
4.4960003 -2.1664703 1.7634654 0
4.4910002 -2.1712613 1.7618059 0
4.4870005 -2.1765554 1.7604783 0
4.4820004 -2.1813121 1.7588189 0
4.4780002 -2.1865754 1.7574911 0
4.4730005 -2.1912982 1.7558317 0
4.4680004 -2.1960022 1.7541722 0
4.4640002 -2.2012188 1.7528445 0
4.4590001 -2.205889 1.7511851 0
4.4550004 -2.2110748 1.7498574 0
4.4500003 -2.2157109 1.7481979 0
4.4460001 -2.220866 1.7468703 0
4.4410005 -2.2254677 1.7452109 0
4.4370003 -2.2305923 1.7438833 0
4.4320002 -2.2351594 1.7422236 0
4.4280005 -2.2402534 1.7408961 0
4.4230003 -2.2447865 1.7392367 0
4.4190001 -2.2498496 1.737909 0
4.4140005 -2.2543485 1.7362496 0
4.4100003 -2.2593808 1.7349219 0
4.4060001 -2.2643991 1.7335943 0
4.4010005 -2.2688475 1.7319349 0
4.3970003 -2.2738349 1.7306073 0
4.3920002 -2.2782488 1.7289476 0
4.388 -2.2832057 1.7276201 0
4.3840003 -2.2881482 1.7262925 0
4.3790002 -2.2925115 1.7246329 0
4.375 -2.2974231 1.7233053 0
4.3710003 -2.3023207 1.7219778 0
4.3660002 -2.3066335 1.7203182 0
4.362 -2.3115003 1.7189906 0
4.3580003 -2.3163524 1.717663 0
5.0760002 -1.5389255 1.9475331 0
5.0700002 -1.5454336 1.9455525 0
5.0640001 -1.5519201 1.943572 0
5.0580001 -1.5583849 1.9415914 0
5.0520005 -1.5648283 1.939611 0
5.0460005 -1.5712498 1.9376303 0
5.0400004 -1.5776497 1.9356498 0
5.0340004 -1.584028 1.9336691 0
5.0280004 -1.5903846 1.9316885 0
5.0220003 -1.5967195 1.929708 0
5.0160003 -1.6030328 1.9277273 0
5.0100002 -1.6093246 1.9257467 0
5.0050001 -1.6159354 1.9240962 0
4.9990005 -1.6221857 1.9221158 0
4.9930005 -1.6284143 1.9201353 0
4.9870005 -1.6346213 1.9181546 0
4.9810004 -1.6408064 1.9161741 0
4.9760003 -1.6473199 1.9145235 0
4.9700003 -1.6534637 1.9125429 0
4.9640002 -1.6595857 1.9105623 0
4.9580002 -1.6656862 1.9085817 0
4.9530005 -1.6721224 1.9069314 0
4.9470005 -1.6781814 1.9049507 0
4.9410005 -1.6842186 1.9029701 0
4.9360003 -1.6905968 1.9013196 0
4.9300003 -1.6965928 1.8993391 0
4.9240003 -1.7025669 1.8973584 0
4.9190001 -1.7088875 1.8957078 0
4.9130001 -1.7148201 1.8937274 0
4.9080005 -1.721103 1.892077 0
4.9020004 -1.7269942 1.8900964 0
4.8960004 -1.7328638 1.8881158 0
4.8910003 -1.7390887 1.8864652 0
4.8850002 -1.7449168 1.8844846 0
4.8800001 -1.7511039 1.8828342 0
4.8740001 -1.7568903 1.8808535 0
4.8690004 -1.7630397 1.8792032 0
4.8630004 -1.7687849 1.8772225 0
4.8580003 -1.774896 1.8755721 0
4.8520002 -1.7805997 1.8735914 0
4.8470001 -1.7866731 1.871941 0
4.8410001 -1.7923353 1.8699603 0
4.8360004 -1.7983708 1.86831 0
4.8310003 -1.8043884 1.8666594 0
4.8250003 -1.8099892 1.8646789 0
4.8200002 -1.8159688 1.8630283 0
4.8140001 -1.8215281 1.8610477 0
4.8090005 -1.8274699 1.8593973 0
4.8040004 -1.8333937 1.8577468 0
4.7980003 -1.8388916 1.8557663 0
4.7930002 -1.8447773 1.8541157 0
4.7880001 -1.8506451 1.8524653 0
4.7820005 -1.856082 1.8504847 0
4.7770004 -1.8619119 1.8488343 0
4.7720003 -1.8677237 1.8471837 0
4.7670002 -1.8735175 1.8455331 0
4.7610002 -1.878873 1.8435526 0
4.7560005 -1.884629 1.8419023 0
4.7510004 -1.8903669 1.8402517 0
4.7460003 -1.8960867 1.8386012 0
4.7410002 -1.9017885 1.8369507 0
4.7350001 -1.907043 1.83497 0
4.7300005 -1.9127072 1.8333197 0
4.7250004 -1.9183531 1.8316692 0
4.7200003 -1.9239807 1.8300188 0
4.7150002 -1.9295906 1.8283682 0
4.7100005 -1.9351826 1.8267179 0
4.7050004 -1.9407562 1.8250673 0
4.7000003 -1.9463118 1.8234167 0
4.6940002 -1.951406 1.821436 0
4.6890001 -1.9569238 1.8197856 0
4.6840005 -1.9624237 1.8181353 0
4.6790004 -1.9679054 1.8164848 0
4.6740003 -1.973369 1.8148342 0
4.6690001 -1.9788148 1.8131837 0
4.6640005 -1.9842426 1.8115333 0
4.6590004 -1.9896522 1.8098828 0
4.6540003 -1.9950435 1.8082323 0
4.6490002 -2.000417 1.8065817 0
4.6440005 -2.0057728 1.8049314 0
4.6390004 -2.0111103 1.8032808 0
4.6340003 -2.0164297 1.8016304 0
4.6290002 -2.0217309 1.7999799 0
4.6250005 -2.0274835 1.7986594 0
4.6200004 -2.0327504 1.7970091 0
4.6150002 -2.0379996 1.7953585 0
4.6100001 -2.0432303 1.793708 0
4.6050005 -2.0484438 1.7920576 0
4.6000004 -2.0536387 1.7904071 0
4.5950003 -2.0588155 1.7887566 0
4.5900002 -2.0639741 1.787106 0
4.5860004 -2.0695989 1.7857858 0
4.5810003 -2.0747232 1.7841352 0
4.5760002 -2.0798297 1.7824847 0
4.5710001 -2.0849183 1.7808342 0
4.5660005 -2.0899889 1.7791837 0
4.5620003 -2.0955338 1.7778634 0
4.5570002 -2.10057 1.7762128 0
4.5520005 -2.1055884 1.7745625 0
4.5470004 -2.1105886 1.7729119 0
4.5430002 -2.1160703 1.7715914 0
4.5380001 -2.1210361 1.769941 0
4.5330005 -2.125984 1.7682906 0
4.5290003 -2.1314187 1.7669702 0
4.5240002 -2.1363323 1.7653197 0
4.5190001 -2.1412277 1.7636691 0
4.5150003 -2.1466157 1.7623488 0
4.5100002 -2.1514771 1.7606983 0
4.5050001 -2.1563203 1.7590479 0
4.5010004 -2.1616616 1.7577275 0
4.4960003 -2.1664703 1.7560771 0
4.4910002 -2.1712613 1.7544265 0
4.4870005 -2.1765554 1.7531062 0
4.4820004 -2.1813121 1.7514557 0
4.4780002 -2.1865754 1.7501352 0
4.4730005 -2.1912982 1.7484848 0
4.4680004 -2.1960022 1.7468343 0
4.4640002 -2.2012188 1.7455139 0
4.4590001 -2.205889 1.7438633 0
4.4550004 -2.2110748 1.7425431 0
4.4500003 -2.2157109 1.7408925 0
4.4460001 -2.220866 1.7395722 0
4.4410005 -2.2254677 1.7379217 0
4.4370003 -2.2305923 1.7366014 0
4.4320002 -2.2351594 1.7349508 0
4.4280005 -2.2402534 1.7336304 0
4.4230003 -2.2447865 1.73198 0
4.4190001 -2.2498496 1.7306595 0
4.4140005 -2.2543485 1.7290092 0
4.4100003 -2.2593808 1.7276886 0
4.4060001 -2.2643991 1.7263682 0
4.4010005 -2.2688475 1.7247177 0
4.3970003 -2.2738349 1.7233974 0
4.3920002 -2.2782488 1.7217468 0
4.388 -2.2832057 1.7204264 0
4.3840003 -2.2881482 1.7191061 0
4.3790002 -2.2925115 1.7174556 0
4.375 -2.2974231 1.7161353 0
4.3710003 -2.3023207 1.7148149 0
4.3660002 -2.3066335 1.7131643 0
4.362 -2.3115003 1.711844 0
4.3580003 -2.3163524 1.7105236 0
5.0760002 -1.5389255 1.9390986 0
5.0700002 -1.5454336 1.9371288 0
5.0640001 -1.5519201 1.935159 0
5.0580001 -1.5583849 1.9331892 0
5.0520005 -1.5648283 1.9312196 0
5.0460005 -1.5712498 1.9292499 0
5.0400004 -1.5776497 1.9272801 0
5.0340004 -1.584028 1.9253103 0
5.0280004 -1.5903846 1.9233404 0
5.0220003 -1.5967195 1.9213707 0
5.0160003 -1.6030328 1.919401 0
5.0100002 -1.6093246 1.9174312 0
5.0050001 -1.6159354 1.9157896 0
4.9990005 -1.6221857 1.91382 0
4.9930005 -1.6284143 1.9118503 0
4.9870005 -1.6346213 1.9098805 0
4.9810004 -1.6408064 1.9079108 0
4.9760003 -1.6473199 1.9062692 0
4.9700003 -1.6534637 1.9042995 0
4.9640002 -1.6595857 1.9023297 0
4.9580002 -1.6656862 1.90036 0
4.9530005 -1.6721224 1.8987186 0
4.9470005 -1.6781814 1.8967488 0
4.9410005 -1.6842186 1.894779 0
4.9360003 -1.6905968 1.8931376 0
4.9300003 -1.6965928 1.8911678 0
4.9240003 -1.7025669 1.8891981 0
4.9190001 -1.7088875 1.8875566 0
4.9130001 -1.7148201 1.8855867 0
4.9080005 -1.721103 1.8839453 0
4.9020004 -1.7269942 1.8819757 0
4.8960004 -1.7328638 1.8800058 0
4.8910003 -1.7390887 1.8783644 0
4.8850002 -1.7449168 1.8763945 0
4.8800001 -1.7511039 1.874753 0
4.8740001 -1.7568903 1.8727833 0
4.8690004 -1.7630397 1.8711419 0
4.8630004 -1.7687849 1.8691722 0
4.8580003 -1.774896 1.8675306 0
4.8520002 -1.7805997 1.8655609 0
4.8470001 -1.7866731 1.8639194 0
4.8410001 -1.7923353 1.8619497 0
4.8360004 -1.7983708 1.8603083 0
4.8310003 -1.8043884 1.8586668 0
4.8250003 -1.8099892 1.856697 0
4.8200002 -1.8159688 1.8550555 0
4.8140001 -1.8215281 1.8530858 0
4.8090005 -1.8274699 1.8514444 0
4.8040004 -1.8333937 1.849803 0
4.7980003 -1.8388916 1.847833 0
4.7930002 -1.8447773 1.8461915 0
4.7880001 -1.8506451 1.8445501 0
4.7830005 -1.856495 1.8429087 0
4.7770004 -1.8619119 1.840939 0
4.7720003 -1.8677237 1.8392975 0
4.7670002 -1.8735175 1.8376559 0
4.7610002 -1.878873 1.8356862 0
4.7560005 -1.884629 1.8340448 0
4.7510004 -1.8903669 1.8324034 0
4.7460003 -1.8960867 1.8307619 0
4.7410002 -1.9017885 1.8291203 0
4.7350001 -1.907043 1.8271506 0
4.7300005 -1.9127072 1.8255092 0
4.7250004 -1.9183531 1.8238677 0
4.7200003 -1.9239807 1.8222263 0
4.7150002 -1.9295906 1.8205848 0
4.7100005 -1.9351826 1.8189434 0
4.7050004 -1.9407562 1.8173019 0
4.7000003 -1.9463118 1.8156604 0
4.6940002 -1.951406 1.8136907 0
4.6890001 -1.9569238 1.8120492 0
4.6840005 -1.9624237 1.8104078 0
4.6790004 -1.9679054 1.8087662 0
4.6740003 -1.973369 1.8071247 0
4.6690001 -1.9788148 1.8054832 0
4.6640005 -1.9842426 1.8038419 0
4.6590004 -1.9896522 1.8022004 0
4.6540003 -1.9950435 1.8005589 0
4.6490002 -2.000417 1.7989173 0
4.6440005 -2.0057728 1.797276 0
4.6390004 -2.0111103 1.7956345 0
4.6340003 -2.0164297 1.793993 0
4.6290002 -2.0217309 1.7923516 0
4.6250005 -2.0274835 1.7910384 0
4.6200004 -2.0327504 1.7893969 0
4.6150002 -2.0379996 1.7877554 0
4.6100001 -2.0432303 1.786114 0
4.6050005 -2.0484438 1.7844726 0
4.6000004 -2.0536387 1.7828311 0
4.5950003 -2.0588155 1.7811896 0
4.5900002 -2.0639741 1.779548 0
4.5860004 -2.0695989 1.778235 0
4.5810003 -2.0747232 1.7765934 0
4.5760002 -2.0798297 1.7749521 0
4.5710001 -2.0849183 1.7733105 0
4.5660005 -2.0899889 1.7716691 0
4.5620003 -2.0955338 1.7703558 0
4.5570002 -2.10057 1.7687144 0
4.5520005 -2.1055884 1.767073 0
4.5470004 -2.1105886 1.7654315 0
4.5430002 -2.1160703 1.7641183 0
4.5380001 -2.1210361 1.7624769 0
4.5330005 -2.125984 1.7608354 0
4.5290003 -2.1314187 1.7595222 0
4.5240002 -2.1363323 1.7578807 0
4.5190001 -2.1412277 1.7562393 0
4.5150003 -2.1466157 1.7549262 0
4.5100002 -2.1514771 1.7532847 0
4.5050001 -2.1563203 1.7516432 0
4.5010004 -2.1616616 1.7503301 0
4.4960003 -2.1664703 1.7486886 0
4.4910002 -2.1712613 1.7470471 0
4.4870005 -2.1765554 1.745734 0
4.4820004 -2.1813121 1.7440926 0
4.4780002 -2.1865754 1.7427793 0
4.4730005 -2.1912982 1.7411379 0
4.4680004 -2.1960022 1.7394964 0
4.4640002 -2.2012188 1.7381831 0
4.4590001 -2.205889 1.7365416 0
4.4550004 -2.2110748 1.7352287 0
4.4500003 -2.2157109 1.7335871 0
4.4460001 -2.220866 1.7322738 0
4.4410005 -2.2254677 1.7306324 0
4.4370003 -2.2305923 1.7293192 0
4.4320002 -2.2351594 1.7276778 0
4.4280005 -2.2402534 1.7263647 0
4.4230003 -2.2447865 1.7247232 0
4.4190001 -2.2498496 1.72341 0
4.4140005 -2.2543485 1.7217686 0
4.4100003 -2.2593808 1.7204554 0
4.4060001 -2.2643991 1.7191421 0
4.4010005 -2.2688475 1.7175008 0
4.3970003 -2.2738349 1.7161876 0
4.3920002 -2.2782488 1.7145461 0
4.388 -2.2832057 1.7132329 0
4.3840003 -2.2881482 1.7119197 0
4.3790002 -2.2925115 1.7102783 0
4.375 -2.2974231 1.7089651 0
4.3710003 -2.3023207 1.707652 0
4.3660002 -2.3066335 1.7060105 0
4.362 -2.3115003 1.7046974 0
4.3580003 -2.3163524 1.703384 0
5.0760002 -1.5389255 1.9306639 0
5.0700002 -1.5454336 1.928705 0
5.0640001 -1.5519201 1.926746 0
5.0580001 -1.5583849 1.9247872 0
5.0520005 -1.5648283 1.9228283 0
5.0460005 -1.5712498 1.9208694 0
5.0400004 -1.5776497 1.9189104 0
5.0340004 -1.584028 1.9169514 0
5.0280004 -1.5903846 1.9149925 0
5.0220003 -1.5967195 1.9130335 0
5.0160003 -1.6030328 1.9110746 0
5.0110002 -1.6096636 1.9094421 0
5.0050001 -1.6159354 1.9074832 0
4.9990005 -1.6221857 1.9055244 0
4.9930005 -1.6284143 1.9035654 0
4.9870005 -1.6346213 1.9016064 0
4.9810004 -1.6408064 1.8996476 0
4.9760003 -1.6473199 1.898015 0
4.9700003 -1.6534637 1.8960561 0
4.9640002 -1.6595857 1.8940972 0
4.9580002 -1.6656862 1.8921381 0
4.9530005 -1.6721224 1.8905059 0
4.9470005 -1.6781814 1.8885469 0
4.9410005 -1.6842186 1.886588 0
4.9360003 -1.6905968 1.8849555 0
4.9300003 -1.6965928 1.8829966 0
4.9240003 -1.7025669 1.8810376 0
4.9190001 -1.7088875 1.8794051 0
4.9130001 -1.7148201 1.8774462 0
4.9080005 -1.721103 1.8758138 0
4.9020004 -1.7269942 1.8738549 0
4.8960004 -1.7328638 1.8718959 0
4.8910003 -1.7390887 1.8702635 0
4.8850002 -1.7449168 1.8683045 0
4.8800001 -1.7511039 1.866672 0
4.8740001 -1.7568903 1.8647131 0
4.8690004 -1.7630397 1.8630807 0
4.8630004 -1.7687849 1.8611218 0
4.8580003 -1.774896 1.8594892 0
4.8520002 -1.7805997 1.8575304 0
4.8470001 -1.7866731 1.8558978 0
4.8410001 -1.7923353 1.8539389 0
4.8360004 -1.7983708 1.8523066 0
4.8310003 -1.8043884 1.8506742 0
4.8250003 -1.8099892 1.8487152 0
4.8200002 -1.8159688 1.8470826 0
4.8140001 -1.8215281 1.8451238 0
4.8090005 -1.8274699 1.8434913 0
4.8040004 -1.8333937 1.8418589 0
4.7980003 -1.8388916 1.8398999 0
4.7930002 -1.8447773 1.8382674 0
4.7880001 -1.8506451 1.836635 0
4.7830005 -1.856495 1.8350027 0
4.7770004 -1.8619119 1.8330437 0
4.7720003 -1.8677237 1.8314112 0
4.7670002 -1.8735175 1.8297787 0
4.7610002 -1.878873 1.8278198 0
4.7560005 -1.884629 1.8261875 0
4.7510004 -1.8903669 1.824555 0
4.7460003 -1.8960867 1.8229225 0
4.7410002 -1.9017885 1.82129 0
4.7350001 -1.907043 1.819331 0
4.7300005 -1.9127072 1.8176988 0
4.7250004 -1.9183531 1.8160663 0
4.7200003 -1.9239807 1.8144338 0
4.7150002 -1.9295906 1.8128012 0
4.7100005 -1.9351826 1.8111689 0
4.7050004 -1.9407562 1.8095365 0
4.7000003 -1.9463118 1.807904 0
4.6940002 -1.951406 1.805945 0
4.6890001 -1.9569238 1.8043126 0
4.6840005 -1.9624237 1.8026801 0
4.6790004 -1.9679054 1.8010477 0
4.6740003 -1.973369 1.7994153 0
4.6690001 -1.9788148 1.7977828 0
4.6640005 -1.9842426 1.7961504 0
4.6590004 -1.9896522 1.7945179 0
4.6540003 -1.9950435 1.7928855 0
4.6490002 -2.000417 1.791253 0
4.6440005 -2.0057728 1.7896206 0
4.6390004 -2.0111103 1.7879882 0
4.6340003 -2.0164297 1.7863557 0
4.6290002 -2.0217309 1.7847233 0
4.6250005 -2.0274835 1.7834175 0
4.6200004 -2.0327504 1.7817849 0
4.6150002 -2.0379996 1.7801524 0
4.6100001 -2.0432303 1.7785199 0
4.6050005 -2.0484438 1.7768877 0
4.6000004 -2.0536387 1.7752551 0
4.5950003 -2.0588155 1.7736226 0
4.5900002 -2.0639741 1.7719902 0
4.5860004 -2.0695989 1.7706842 0
4.5810003 -2.0747232 1.7690518 0
4.5760002 -2.0798297 1.7674193 0
4.5710001 -2.0849183 1.7657868 0
4.5660005 -2.0899889 1.7641546 0
4.5620003 -2.0955338 1.7628485 0
4.5570002 -2.10057 1.7612159 0
4.5520005 -2.1055884 1.7595837 0
4.5470004 -2.1105886 1.7579511 0
4.5430002 -2.1160703 1.7566451 0
4.5380001 -2.1210361 1.7550128 0
4.5330005 -2.125984 1.7533803 0
4.5290003 -2.1314187 1.7520744 0
4.5240002 -2.1363323 1.7504419 0
4.5190001 -2.1412277 1.7488093 0
4.5150003 -2.1466157 1.7475035 0
4.5100002 -2.1514771 1.7458711 0
4.5050001 -2.1563203 1.7442385 0
4.5010004 -2.1616616 1.7429327 0
4.4960003 -2.1664703 1.7413002 0
4.4910002 -2.1712613 1.7396677 0
4.4870005 -2.1765554 1.7383618 0
4.4820004 -2.1813121 1.7367294 0
4.4780002 -2.1865754 1.7354233 0
4.4730005 -2.1912982 1.733791 0
4.4680004 -2.1960022 1.7321585 0
4.4640002 -2.2012188 1.7308525 0
4.4590001 -2.205889 1.72922 0
4.4550004 -2.2110748 1.7279142 0
4.4500003 -2.2157109 1.7262816 0
4.4460001 -2.220866 1.7249756 0
4.4410005 -2.2254677 1.7233434 0
4.4370003 -2.2305923 1.7220373 0
4.4320002 -2.2351594 1.7204047 0
4.4280005 -2.2402534 1.7190989 0
4.4230003 -2.2447865 1.7174665 0
4.4190001 -2.2498496 1.7161605 0
4.4150004 -2.2548985 1.7148546 0
4.4100003 -2.2593808 1.7132221 0
4.4060001 -2.2643991 1.7119161 0
4.4010005 -2.2688475 1.7102838 0
4.3970003 -2.2738349 1.7089777 0
4.3920002 -2.2782488 1.7073452 0
4.388 -2.2832057 1.7060393 0
4.3840003 -2.2881482 1.7047334 0
4.3790002 -2.2925115 1.7031009 0
4.375 -2.2974231 1.701795 0
4.3710003 -2.3023207 1.700489 0
4.3660002 -2.3066335 1.6988565 0
4.362 -2.3115003 1.6975505 0
4.3580003 -2.3163524 1.6962446 0
5.0760002 -1.5389255 1.9222293 0
5.0700002 -1.5454336 1.9202813 0
5.0640001 -1.5519201 1.9183331 0
5.0580001 -1.5583849 1.9163849 0
5.0520005 -1.5648283 1.9144371 0
5.0460005 -1.5712498 1.9124889 0
5.0400004 -1.5776497 1.9105407 0
5.0340004 -1.584028 1.9085926 0
5.0280004 -1.5903846 1.9066445 0
5.0220003 -1.5967195 1.9046963 0
5.0160003 -1.6030328 1.9027481 0
5.0110002 -1.6096636 1.9011247 0
5.0050001 -1.6159354 1.8991767 0
4.9990005 -1.6221857 1.8972286 0
4.9930005 -1.6284143 1.8952805 0
4.9870005 -1.6346213 1.8933325 0
4.9810004 -1.6408064 1.8913844 0
4.9760003 -1.6473199 1.8897609 0
4.9700003 -1.6534637 1.8878127 0
4.9640002 -1.6595857 1.8858645 0
4.9580002 -1.6656862 1.8839164 0
4.9530005 -1.6721224 1.8822931 0
4.9470005 -1.6781814 1.880345 0
4.9410005 -1.6842186 1.8783969 0
4.9360003 -1.6905968 1.8767734 0
4.9300003 -1.6965928 1.8748252 0
4.9240003 -1.7025669 1.8728771 0
4.9190001 -1.7088875 1.8712536 0
4.9130001 -1.7148201 1.8693056 0
4.9080005 -1.721103 1.8676822 0
4.9020004 -1.7269942 1.8657341 0
4.8960004 -1.7328638 1.863786 0
4.8910003 -1.7390887 1.8621625 0
4.8850002 -1.7449168 1.8602145 0
4.8800001 -1.7511039 1.858591 0
4.8740001 -1.7568903 1.8566428 0
4.8690004 -1.7630397 1.8550195 0
4.8630004 -1.7687849 1.8530713 0
4.8580003 -1.774896 1.8514479 0
4.8520002 -1.7805997 1.8494998 0
4.8470001 -1.7866731 1.8478763 0
4.8410001 -1.7923353 1.8459282 0
4.8360004 -1.7983708 1.8443048 0
4.8310003 -1.8043884 1.8426814 0
4.8250003 -1.8099892 1.8407333 0
4.8200002 -1.8159688 1.8391099 0
4.8140001 -1.8215281 1.8371618 0
4.8090005 -1.8274699 1.8355384 0
4.8040004 -1.8333937 1.8339149 0
4.7980003 -1.8388916 1.8319668 0
4.7930002 -1.8447773 1.8303434 0
4.7880001 -1.8506451 1.82872 0
4.7830005 -1.856495 1.8270966 0
4.7770004 -1.8619119 1.8251485 0
4.7720003 -1.8677237 1.823525 0
4.7670002 -1.8735175 1.8219014 0
4.7610002 -1.878873 1.8199533 0
4.7560005 -1.884629 1.81833 0
4.7510004 -1.8903669 1.8167067 0
4.7460003 -1.8960867 1.8150831 0
4.7410002 -1.9017885 1.8134596 0
4.7350001 -1.907043 1.8115115 0
4.7300005 -1.9127072 1.8098882 0
4.7250004 -1.9183531 1.8082649 0
4.7200003 -1.9239807 1.8066413 0
4.7150002 -1.9295906 1.8050178 0
4.7100005 -1.9351826 1.8033944 0
4.7050004 -1.9407562 1.801771 0
4.7000003 -1.9463118 1.8001477 0
4.6940002 -1.951406 1.7981995 0
4.6890001 -1.9569238 1.796576 0
4.6840005 -1.9624237 1.7949526 0
4.6790004 -1.9679054 1.7933292 0
4.6740003 -1.973369 1.7917057 0
4.6690001 -1.9788148 1.7900822 0
4.6640005 -1.9842426 1.7884591 0
4.6590004 -1.9896522 1.7868356 0
4.6540003 -1.9950435 1.785212 0
4.6490002 -2.000417 1.7835886 0
4.6440005 -2.0057728 1.7819654 0
4.6390004 -2.0111103 1.7803419 0
4.6340003 -2.0164297 1.7787184 0
4.6290002 -2.0217309 1.777095 0
4.6250005 -2.0274835 1.7757963 0
4.6200004 -2.0327504 1.7741728 0
4.6150002 -2.0379996 1.7725493 0
4.6100001 -2.0432303 1.7709259 0
4.6050005 -2.0484438 1.7693026 0
4.6000004 -2.0536387 1.7676791 0
4.5950003 -2.0588155 1.7660556 0
4.5900002 -2.0639741 1.7644322 0
4.5860004 -2.0695989 1.7631335 0
4.5810003 -2.0747232 1.76151 0
4.5760002 -2.0798297 1.7598865 0
4.5710001 -2.0849183 1.7582632 0
4.5660005 -2.0899889 1.7566398 0
4.5620003 -2.0955338 1.7553411 0
4.5570002 -2.10057 1.7537175 0
4.5520005 -2.1055884 1.7520943 0
4.5470004 -2.1105886 1.7504709 0
4.5430002 -2.1160703 1.749172 0
4.5380001 -2.1210361 1.7475486 0
4.5330005 -2.125984 1.7459252 0
4.5290003 -2.1314187 1.7446264 0
4.5240002 -2.1363323 1.7430029 0
4.5190001 -2.1412277 1.7413795 0
4.5150003 -2.1466157 1.7400808 0
4.5100002 -2.1514771 1.7384574 0
4.5050001 -2.1563203 1.7368339 0
4.5010004 -2.1616616 1.7355353 0
4.4960003 -2.1664703 1.7339118 0
4.4910002 -2.1712613 1.7322882 0
4.4870005 -2.1765554 1.7309897 0
4.4820004 -2.1813121 1.7293663 0
4.4780002 -2.1865754 1.7280674 0
4.4730005 -2.1912982 1.7264441 0
4.4680004 -2.1960022 1.7248206 0
4.4640002 -2.2012188 1.7235218 0
4.4590001 -2.205889 1.7218983 0
4.4550004 -2.2110748 1.7205997 0
4.4500003 -2.2157109 1.7189763 0
4.4460001 -2.220866 1.7176775 0
4.4410005 -2.2254677 1.7160541 0
4.4370003 -2.2305923 1.7147553 0
4.4320002 -2.2351594 1.7131319 0
4.4280005 -2.2402534 1.7118331 0
4.4230003 -2.2447865 1.7102097 0
4.4190001 -2.2498496 1.7089109 0
4.4150004 -2.2548985 1.7076123 0
4.4100003 -2.2593808 1.7059889 0
4.4060001 -2.2643991 1.7046901 0
4.4010005 -2.2688475 1.7030667 0
4.3970003 -2.2738349 1.7017679 0
4.3920002 -2.2782488 1.7001444 0
4.388 -2.2832057 1.6988457 0
4.3840003 -2.2881482 1.6975471 0
4.3790002 -2.2925115 1.6959236 0
4.375 -2.2974231 1.6946248 0
4.3710003 -2.3023207 1.6933261 0
4.3660002 -2.3066335 1.6917026 0
4.362 -2.3115003 1.6904039 0
4.3580003 -2.3163524 1.6891053 0
5.0760002 -1.5389255 1.9137948 0
5.0700002 -1.5454336 1.9118574 0
5.0640001 -1.5519201 1.9099201 0
5.0580001 -1.5583849 1.9079828 0
5.0520005 -1.5648283 1.9060457 0
5.0460005 -1.5712498 1.9041084 0
5.0400004 -1.5776497 1.902171 0
5.0340004 -1.584028 1.9002337 0
5.0280004 -1.5903846 1.8982965 0
5.0220003 -1.5967195 1.8963591 0
5.0160003 -1.6030328 1.8944218 0
5.0110002 -1.6096636 1.8928074 0
5.0050001 -1.6159354 1.8908701 0
4.9990005 -1.6221857 1.8889329 0
4.9930005 -1.6284143 1.8869957 0
4.9870005 -1.6346213 1.8850583 0
4.9810004 -1.6408064 1.883121 0
4.9760003 -1.6473199 1.8815067 0
4.9700003 -1.6534637 1.8795693 0
4.9640002 -1.6595857 1.8776319 0
4.9580002 -1.6656862 1.8756946 0
4.9530005 -1.6721224 1.8740803 0
4.9470005 -1.6781814 1.8721431 0
4.9410005 -1.6842186 1.8702058 0
4.9360003 -1.6905968 1.8685913 0
4.9300003 -1.6965928 1.866654 0
4.9240003 -1.7025669 1.8647166 0
4.9190001 -1.7088875 1.8631023 0
4.9130001 -1.7148201 1.861165 0
4.9080005 -1.721103 1.8595507 0
4.9020004 -1.7269942 1.8576133 0
4.8960004 -1.7328638 1.8556761 0
4.8910003 -1.7390887 1.8540616 0
4.8850002 -1.7449168 1.8521243 0
4.8800001 -1.7511039 1.8505099 0
4.8740001 -1.7568903 1.8485726 0
4.8690004 -1.7630397 1.8469583 0
4.8630004 -1.7687849 1.845021 0
4.8580003 -1.774896 1.8434066 0
4.8520002 -1.7805997 1.8414692 0
4.8470001 -1.7866731 1.8398548 0
4.8410001 -1.7923353 1.8379176 0
4.8360004 -1.7983708 1.8363032 0
4.8310003 -1.8043884 1.8346888 0
4.8250003 -1.8099892 1.8327514 0
4.8200002 -1.8159688 1.8311369 0
4.8140001 -1.8215281 1.8291997 0
4.8090005 -1.8274699 1.8275853 0
4.8040004 -1.8333937 1.8259709 0
4.7980003 -1.8388916 1.8240337 0
4.7930002 -1.8447773 1.8224193 0
4.7880001 -1.8506451 1.8208048 0
4.7830005 -1.856495 1.8191905 0
4.7770004 -1.8619119 1.8172531 0
4.7720003 -1.8677237 1.8156387 0
4.7670002 -1.8735175 1.8140242 0
4.7610002 -1.878873 1.8120869 0
4.7560005 -1.884629 1.8104726 0
4.7510004 -1.8903669 1.8088582 0
4.7460003 -1.8960867 1.8072438 0
4.7410002 -1.9017885 1.8056294 0
4.7350001 -1.907043 1.8036921 0
4.7300005 -1.9127072 1.8020778 0
4.7250004 -1.9183531 1.8004633 0
4.7200003 -1.9239807 1.7988489 0
4.7150002 -1.9295906 1.7972344 0
4.7100005 -1.9351826 1.7956201 0
4.7050004 -1.9407562 1.7940056 0
4.7000003 -1.9463118 1.7923912 0
4.6940002 -1.951406 1.7904539 0
4.6890001 -1.9569238 1.7888395 0
4.6840005 -1.9624237 1.7872251 0
4.6790004 -1.9679054 1.7856107 0
4.6740003 -1.973369 1.7839963 0
4.6690001 -1.9788148 1.7823819 0
4.6640005 -1.9842426 1.7807677 0
4.6590004 -1.9896522 1.7791532 0
4.6540003 -1.9950435 1.7775387 0
4.6490002 -2.000417 1.7759242 0
4.6440005 -2.0057728 1.77431 0
4.6390004 -2.0111103 1.7726955 0
4.6340003 -2.0164297 1.7710811 0
4.6290002 -2.0217309 1.7694666 0
4.6250005 -2.0274835 1.7681752 0
4.6200004 -2.0327504 1.7665608 0
4.6150002 -2.0379996 1.7649463 0
4.6100001 -2.0432303 1.7633319 0
4.6050005 -2.0484438 1.7617176 0
4.6000004 -2.0536387 1.7601031 0
4.5950003 -2.0588155 1.7584887 0
4.5900002 -2.0639741 1.7568742 0
4.5860004 -2.0695989 1.7555828 0
4.5810003 -2.0747232 1.7539684 0
4.5760002 -2.0798297 1.7523539 0
4.5710001 -2.0849183 1.7507395 0
4.5660005 -2.0899889 1.7491251 0
4.5620003 -2.0955338 1.7478336 0
4.5570002 -2.10057 1.7462192 0
4.5520005 -2.1055884 1.7446048 0
4.5470004 -2.1105886 1.7429904 0
4.5430002 -2.1160703 1.7416989 0
4.5380001 -2.1210361 1.7400844 0
4.5330005 -2.125984 1.7384701 0
4.5290003 -2.1314187 1.7371784 0
