# .PCD v0.7 - Point Cloud Data file format
VERSION 0.7
FIELDS x y z intensity
SIZE 4 4 4 4
TYPE F F F F
COUNT 1 1 1 1
WIDTH 1416
HEIGHT 1
VIEWPOINT 0 0 0 1 0 0 0
POINTS 1416
DATA ascii
2.7880001 0.44936177 0.5547623 0
2.7910001 0.4456712 0.55495167 0
2.7940001 0.44196978 0.55514109 0
2.7980001 0.43845955 0.55539364 0
2.8020003 0.43493494 0.55564618 0
2.8080003 0.43179277 0.55602497 0
2.8160002 0.4290221 0.55653006 0
2.8200002 0.30321726 0.5567826 0
2.8140001 0.29799706 0.55640376 0
2.8160002 0.29392406 0.55653006 0
2.8170002 0.28970495 0.55659318 0
2.8190002 0.28561932 0.55671942 0
2.8200002 0.28139117 0.5567826 0
2.8220003 0.27729294 0.55690885 0
2.8230002 0.27305579 0.55697197 0
2.8250003 0.26894492 0.55709827 0
2.8270001 0.2648268 0.55722451 0
2.6830001 0.8270359 0.54401523 0
2.6770003 0.82063431 0.54364723 0
2.6730001 0.81501174 0.5434019 0
2.6690001 0.80940372 0.54315662 0
2.6670003 0.80456054 0.54303396 0
2.6650002 0.79972446 0.54291129 0
2.6640003 0.79526734 0.54284996 0
2.6630001 0.79081368 0.54278862 0
2.6630001 0.78673166 0.54278862 0
2.6630001 0.78264964 0.54278862 0
2.6630001 0.77856761 0.54278862 0
2.6630001 0.77448559 0.54278862 0
2.6640003 0.77076441 0.54284996 0
2.6650002 0.76703948 0.54291129 0
2.6660001 0.76331097 0.54297262 0
2.6670003 0.75957894 0.54303396 0
2.6690001 0.7561968 0.54315662 0
2.6710002 0.7528075 0.54327929 0
2.6730001 0.74941087 0.5434019 0
2.6750002 0.74600708 0.54352456 0
2.6780002 0.74294245 0.54370856 0
2.6810002 0.73986691 0.54389256 0
2.6850002 0.73712337 0.5441379 0
2.6890001 0.73436528 0.54438317 0
2.6930003 0.73159289 0.5446285 0
2.6980002 0.72914326 0.54493517 0
2.7040002 0.7270112 0.54530311 0
2.7120001 0.72552484 0.54579377 0
2.7220001 0.72467345 0.54640704 0
2.8000002 0.51678813 0.55119073 0
2.7930002 0.51083022 0.55076146 0
2.7890003 0.50559014 0.55051613 0
2.7860003 0.5005936 0.55033219 0
2.7830002 0.49560785 0.55014813 0
2.7820003 0.49108392 0.55008686 0
2.7810001 0.48656356 0.55002552 0
2.7800002 0.48204684 0.54996419 0
2.7800002 0.47775376 0.54996419 0
2.7800002 0.47346067 0.54996419 0
2.7800002 0.46916759 0.54996419 0
2.7810001 0.4650892 0.55002552 0
2.7820003 0.46100724 0.55008686 0
2.7840002 0.45713264 0.55020952 0
2.7860003 0.45325086 0.55033219 0
2.7880001 0.44936177 0.5504548 0
2.7910001 0.4456712 0.55063879 0
2.7940001 0.44196978 0.55082279 0
2.7980001 0.43845955 0.55106807 0
2.8020003 0.43493494 0.5513134 0
2.8080003 0.43179277 0.5516814 0
2.8160002 0.4290221 0.55217206 0
2.8200002 0.30321726 0.55241734 0
2.8140001 0.29799706 0.5520494 0
2.8160002 0.29392406 0.55217206 0
2.8170002 0.28970495 0.55223334 0
2.8190002 0.28561932 0.552356 0
2.8200002 0.28139117 0.55241734 0
2.8220003 0.27729294 0.55254 0
2.8230002 0.27305579 0.55260134 0
2.8250003 0.26894492 0.552724 0
2.8270001 0.2648268 0.55284667 0
2.6820002 0.82253724 0.5398376 0
2.6770003 0.81652701 0.53953999 0
2.6730001 0.81091172 0.53930187 0
2.6700003 0.80568612 0.5391233 0
2.6680002 0.80084467 0.53900421 0
2.6670003 0.79638207 0.53894472 0
2.6660001 0.79192299 0.53888518 0
2.6650002 0.78746766 0.53882563 0
2.6650002 0.783382 0.53882563 0
2.6650002 0.7792964 0.53882563 0
2.6660001 0.77557331 0.53888518 0
2.6660001 0.77148587 0.53888518 0
2.6670003 0.76775742 0.53894472 0
2.6680002 0.76402533 0.53900421 0
2.6700003 0.76064503 0.5391233 0
2.6710002 0.75690389 0.53918284 0
2.6730001 0.75351089 0.53930187 0
2.6750002 0.75011075 0.5394209 0
2.6780002 0.74705148 0.53959948 0
2.6810002 0.74398142 0.53977805 0
2.6840003 0.74090052 0.53995663 0
2.6870003 0.73780882 0.54013526 0
2.6920002 0.7353881 0.54043287 0
2.6960001 0.73261017 0.54067093 0
2.7010002 0.73015523 0.5409686 0
2.7080002 0.72835326 0.54138529 0
2.7170002 0.72719336 0.54192102 0
2.8000002 0.51678813 0.54686165 0
2.7930002 0.51083022 0.54644495 0
2.7890003 0.50559014 0.54620683 0
2.7860003 0.5005936 0.54602826 0
2.7830002 0.49560785 0.54584968 0
2.7820003 0.49108392 0.5457902 0
2.7810001 0.48656356 0.54573065 0
2.7800002 0.48204684 0.54567111 0
2.7800002 0.47775376 0.54567111 0
2.7800002 0.47346067 0.54567111 0
2.7800002 0.46916759 0.54567111 0
2.7810001 0.4650892 0.54573065 0
2.7820003 0.46100724 0.5457902 0
2.7840002 0.45713264 0.54590923 0
2.7860003 0.45325086 0.54602826 0
2.7880001 0.44936177 0.54614735 0
2.7910001 0.4456712 0.54632592 0
2.7940001 0.44196978 0.5465045 0
2.7980001 0.43845955 0.54674256 0
2.8020003 0.43493494 0.54698068 0
2.8080003 0.43179277 0.54733783 0
2.8160002 0.4290221 0.54781401 0
2.8200002 0.30321726 0.54805213 0
2.8140001 0.29799706 0.54769498 0
2.8160002 0.29392406 0.54781401 0
2.8170002 0.28970495 0.54787356 0
2.8190002 0.28561932 0.54799259 0
2.8200002 0.28139117 0.54805213 0
2.8220003 0.27729294 0.54817116 0
2.8230002 0.27305579 0.54823071 0
2.8250003 0.26894492 0.5483498 0
2.8270001 0.2648268 0.54846883 0
2.6820002 0.81842095 0.5357213 0
2.6770003 0.81241971 0.5354327 0
2.6740003 0.8071869 0.53525954 0
2.6720002 0.80233818 0.53514409 0
2.6700003 0.79749686 0.53502864 0
2.6690001 0.79303235 0.53497094 0
2.6680002 0.7885716 0.53491318 0
2.6680002 0.78448051 0.53491318 0
2.6680002 0.78038949 0.53491318 0
2.6680002 0.7762984 0.53491318 0
2.6690001 0.77256817 0.53497094 0
2.6700003 0.76883435 0.53502864 0
2.6710002 0.76509678 0.53508639 0
2.6720002 0.7613557 0.53514409 0
2.6740003 0.75796455 0.53525954 0
2.6760001 0.75456613 0.535375 0
2.6780002 0.75116062 0.53549039 0
2.6810002 0.74809593 0.5356636 0
2.6840003 0.74502039 0.53583676 0
2.6870003 0.74193412 0.53600991 0
2.6910002 0.73917973 0.53624082 0
2.6950002 0.7364108 0.53647172 0
2.7000003 0.73396671 0.53676033 0
2.7060001 0.73184174 0.53710663 0
2.7130003 0.73003083 0.53751069 0
2.7250001 0.72986299 0.53820336 0
2.8000002 0.51678813 0.5425325 0
2.7930002 0.51083022 0.54212844 0
2.7890003 0.50559014 0.54189754 0
2.7860003 0.5005936 0.54172438 0
2.7830002 0.49560785 0.54155123 0
2.7820003 0.49108392 0.54149354 0
2.7810001 0.48656356 0.54143578 0
2.7800002 0.48204684 0.54137802 0
2.7800002 0.47775376 0.54137802 0
2.7800002 0.47346067 0.54137802 0
2.7800002 0.46916759 0.54137802 0
2.7810001 0.4650892 0.54143578 0
2.7820003 0.46100724 0.54149354 0
2.7840002 0.45713264 0.54160893 0
2.7860003 0.45325086 0.54172438 0
2.7880001 0.44936177 0.54183984 0
2.7910001 0.4456712 0.54201299 0
2.7940001 0.44196978 0.54218614 0
2.7980001 0.43845955 0.54241705 0
2.8020003 0.43493494 0.54264796 0
2.8080003 0.43179277 0.54299426 0
2.8160002 0.4290221 0.54345602 0
2.8200002 0.30321726 0.54368693 0
2.8140001 0.29799706 0.54334056 0
2.8160002 0.29392406 0.54345602 0
2.8170002 0.28970495 0.54351377 0
2.8190002 0.28561932 0.54362917 0
2.8200002 0.28139117 0.54368693 0
2.8220003 0.27729294 0.54380238 0
2.8230002 0.27305579 0.54386008 0
2.8250003 0.26894492 0.54397553 0
2.8270001 0.2648268 0.54409099 0
2.6900003 0.82145143 0.5320524 0
2.6840003 0.81505865 0.53171688 0
2.6790001 0.80906278 0.53143728 0
2.6760001 0.80383176 0.53126949 0
2.6740003 0.79898316 0.53115767 0
2.6730001 0.79451144 0.53110176 0
2.6720002 0.79004341 0.53104579 0
2.6720002 0.78594518 0.53104579 0
2.6710002 0.78148264 0.53098989 0
2.6710002 0.77738619 0.53098989 0
2.6720002 0.77365047 0.53104579 0
2.6730001 0.76991111 0.53110176 0
2.6740003 0.7661683 0.53115767 0
2.6760001 0.76277709 0.53126949 0
2.6770003 0.75902516 0.53132546 0
2.6790001 0.75562137 0.53143728 0
2.6810002 0.75221044 0.5315491 0
2.6840003 0.74914032 0.53171688 0
2.6870003 0.74605942 0.53188461 0
2.6910002 0.74331224 0.53210831 0
2.6950002 0.74055058 0.53233194 0
2.6990001 0.73777449 0.53255558 0
2.7050002 0.73566228 0.53289115 0
2.7120001 0.73386562 0.53328258 0
2.7220001 0.73305029 0.53384173 0
2.8000002 0.51678813 0.53820336 0
2.7930002 0.51083022 0.53781193 0
2.7890003 0.50559014 0.53758824 0
2.7860003 0.5005936 0.53742051 0
2.7830002 0.49560785 0.53725272 0
2.7820003 0.49108392 0.53719682 0
2.7810001 0.48656356 0.53714091 0
2.7800002 0.48204684 0.537085 0
2.7800002 0.47775376 0.537085 0
2.7800002 0.47346067 0.537085 0
2.7800002 0.46916759 0.537085 0
2.7810001 0.4650892 0.53714091 0
2.7820003 0.46100724 0.53719682 0
2.7840002 0.45713264 0.53730863 0
2.7860003 0.45325086 0.53742051 0
2.7880001 0.44936177 0.53753233 0
2.7910001 0.4456712 0.53770006 0
2.7940001 0.44196978 0.53786784 0
2.7980001 0.43845955 0.53809148 0
2.8020003 0.43493494 0.53831518 0
2.8080003 0.43179277 0.53865069 0
2.8160002 0.4290221 0.53909802 0
2.8200002 0.30321726 0.53932172 0
2.8140001 0.29799706 0.53898621 0
2.8160002 0.29392406 0.53909802 0
2.8170002 0.28970495 0.53915393 0
2.8190002 0.28561932 0.53926581 0
2.8200002 0.28139117 0.53932172 0
2.8220003 0.27729294 0.53943354 0
2.8230002 0.27305579 0.53948945 0
2.8250003 0.26894492 0.53960133 0
2.8270001 0.2648268 0.53971314 0
2.6930003 0.8184517 0.52808398 0
2.6860001 0.81168914 0.52770519 0
2.6820002 0.80607212 0.52748871 0
2.6790001 0.80084103 0.52732641 0
2.6770003 0.79599065 0.52721816 0
2.6760001 0.79151535 0.52716404 0
2.6760001 0.7874099 0.52716404 0
2.6750002 0.78294009 0.52710992 0
2.6750002 0.77883643 0.52710992 0
2.6760001 0.7750935 0.52716404 0
2.6770003 0.77134705 0.52721816 0
2.6780002 0.7675969 0.52727228 0
2.6790001 0.76384312 0.52732641 0
2.6810002 0.76043934 0.52743459 0
2.6830001 0.75702834 0.52754283 0
2.6850002 0.75361013 0.52765107 0
2.6880002 0.75053287 0.52781343 0
2.6920002 0.74779105 0.52802986 0
2.6950002 0.7446903 0.52819222 0
2.7000003 0.74226421 0.52846277 0
2.7050002 0.73982 0.52873337 0
2.7110002 0.73769695 0.52905804 0
2.7200003 0.73656416 0.52954507 0
2.7240002 0.73372132 0.52976155 0
2.7260003 0.73019671 0.52986979 0
2.7280002 0.72666484 0.52997798 0
2.7290001 0.72279567 0.5300321 0
2.7310002 0.71925116 0.53014034 0
2.7330003 0.71569955 0.53024852 0
2.7350001 0.71214062 0.53035676 0
2.8000002 0.51678813 0.53387421 0
2.7930002 0.51083022 0.53349543 0
2.7890003 0.50559014 0.53327894 0
2.7860003 0.5005936 0.53311658 0
2.7830002 0.49560785 0.53295428 0
2.7820003 0.49108392 0.53290015 0
2.7810001 0.48656356 0.53284603 0
2.7800002 0.48204684 0.53279191 0
2.7800002 0.47775376 0.53279191 0
2.7800002 0.47346067 0.53279191 0
2.7800002 0.46916759 0.53279191 0
2.7810001 0.4650892 0.53284603 0
2.7820003 0.46100724 0.53290015 0
2.7840002 0.45713264 0.5330084 0
2.7860003 0.45325086 0.53311658 0
2.7880001 0.44936177 0.53322482 0
2.7910001 0.4456712 0.53338718 0
2.7940001 0.44196978 0.53354955 0
2.7980001 0.43845955 0.53376597 0
2.8020003 0.43493494 0.53398246 0
2.8080003 0.43179277 0.53430712 0
2.8160002 0.4290221 0.53474003 0
2.8200002 0.30321726 0.53495651 0
2.8140001 0.29799706 0.53463179 0
2.8160002 0.29392406 0.53474003 0
2.8170002 0.28970495 0.53479415 0
2.8190002 0.28561932 0.53490239 0
2.8200002 0.28139117 0.53495651 0
2.8220003 0.27729294 0.5350647 0
2.8230002 0.27305579 0.53511882 0
2.8250003 0.26894492 0.53522706 0
2.8270001 0.2648268 0.5353353 0
2.6960001 0.81544101 0.52410477 0
2.6900003 0.8090592 0.5237909 0
2.6860001 0.80344212 0.52358168 0
2.6830001 0.79820925 0.52342474 0
2.6820002 0.79372323 0.52337241 0
2.6810002 0.78924078 0.52332014 0
2.6800003 0.78476191 0.52326781 0
2.6800003 0.78064924 0.52326781 0
2.6810002 0.77689731 0.52332014 0
2.6810002 0.77278286 0.52332014 0
2.6820002 0.76902544 0.52337241 0
2.6840003 0.76561993 0.52347708 0
2.6850002 0.76185352 0.52352935 0
2.6880002 0.7587871 0.52368629 0
2.6900003 0.75535989 0.5237909 0
2.6930003 0.75227356 0.52394783 0
2.6970003 0.74952275 0.52415711 0
2.7010002 0.74675751 0.52436632 0
2.7060001 0.74432045 0.52462786 0
2.7080002 0.74084276 0.52473247 0
2.7100003 0.73735785 0.52483714 0
2.7110002 0.73352832 0.52488947 0
2.7130003 0.73003083 0.52499408 0
2.7140002 0.7261923 0.52504635 0
2.7160003 0.72268212 0.52515101 0
2.7170002 0.71883452 0.52520329 0
2.7190001 0.71531171 0.52530789 0
2.7200003 0.71145517 0.52536023 0
2.7220001 0.70791966 0.52546483 0
2.7230003 0.70405418 0.52551717 0
2.7250001 0.70050603 0.52562177 0
2.7260003 0.69663149 0.5256741 0
2.7280002 0.69307077 0.52577871 0
2.7290001 0.68918711 0.52583104 0
2.7310002 0.68561381 0.52593565 0
2.7320001 0.68172115 0.52598792 0
2.7340002 0.67813522 0.52609259 0
2.7350001 0.67423356 0.52614486 0
2.7370002 0.67063493 0.52624953 0
2.7380002 0.66672432 0.5263018 0
2.7400002 0.66311312 0.52640641 0
2.7410002 0.6591934 0.52645874 0
2.7430003 0.65556955 0.52656341 0
2.7440002 0.65164083 0.52661568 0
2.7460003 0.64800441 0.52672029 0
2.7470002 0.64406669 0.52677262 0
2.7490003 0.64041758 0.52687722 0
2.7500002 0.63647085 0.52692956 0
2.7520001 0.6328091 0.52703416 0
2.7530003 0.62885338 0.5270865 0
2.7550001 0.62517899 0.5271911 0
2.7570002 0.62149739 0.52729571 0
2.7580001 0.61752719 0.52734804 0
2.7600002 0.61383307 0.52745265 0
2.7610002 0.6098538 0.52750498 0
2.7630002 0.60614705 0.52760959 0
2.7650001 0.60243297 0.52771419 0
2.7660003 0.59843934 0.52776653 0
2.7680001 0.59471267 0.52787113 0
2.7700002 0.5909788 0.52797574 0
2.7710001 0.58697075 0.52802807 0
2.7730002 0.58322424 0.52813268 0
2.7750001 0.57947046 0.52823728 0
2.7770002 0.57570952 0.52834195 0
2.7780001 0.57168162 0.52839422 0
2.8000002 0.51678813 0.52954507 0
2.7930002 0.51083022 0.52917886 0
2.7890003 0.50559014 0.52896965 0
2.7860003 0.5005936 0.52881271 0
2.7830002 0.49560785 0.52865577 0
2.7820003 0.49108392 0.52860349 0
2.7810001 0.48656356 0.52855116 0
2.7800002 0.48204684 0.52849889 0
2.7800002 0.47775376 0.52849889 0
2.7800002 0.47346067 0.52849889 0
2.7800002 0.46916759 0.52849889 0
2.7810001 0.4650892 0.52855116 0
2.7820003 0.46100724 0.52860349 0
2.7840002 0.45713264 0.5287081 0
2.7860003 0.45325086 0.52881271 0
2.7880001 0.44936177 0.52891731 0
2.7910001 0.4456712 0.52907431 0
2.7940001 0.44196978 0.52923119 0
2.7980001 0.43845955 0.5294404 0
2.8020003 0.43493494 0.52964967 0
2.8080003 0.43179277 0.52996355 0
2.8160002 0.4290221 0.53038204 0
2.8200002 0.30321726 0.53059125 0
2.8140001 0.29799706 0.53027743 0
2.8160002 0.29392406 0.53038204 0
2.8170002 0.28970495 0.53043437 0
2.8190002 0.28561932 0.53053898 0
2.8200002 0.28139117 0.53059125 0
2.8220003 0.27729294 0.53069592 0
2.8230002 0.27305579 0.53074825 0
2.8250003 0.26894492 0.53085279 0
2.8270001 0.2648268 0.53095746 0
2.6960001 0.80715799 0.51996326 0
2.6910002 0.80116755 0.51971072 0
2.6890001 0.79629904 0.51960969 0
2.6870003 0.79143786 0.51950866 0
2.6860001 0.78694808 0.51945817 0
2.6860001 0.78282458 0.51945817 0
2.6860001 0.77870113 0.51945817 0
2.6860001 0.77457756 0.51945817 0
2.6880002 0.77116841 0.5195592 0
2.6890001 0.76739663 0.51960969 0
2.6910002 0.76397479 0.51971072 0
2.6930003 0.76054585 0.51981175 0
2.6950002 0.75710952 0.51991272 0
2.6960001 0.75331789 0.51996326 0
2.6980002 0.74986899 0.52006423 0
2.6990001 0.74606842 0.52011478 0
2.7000003 0.74226421 0.52016526 0
2.7020001 0.73879725 0.52026629 0
2.7030003 0.7349841 0.52031678 0
2.7050002 0.73150444 0.52041781 0
2.7060001 0.72768217 0.52046829 0
2.7080002 0.72419 0.52056932 0
2.7090001 0.72035873 0.52061981 0
2.7100003 0.71652389 0.52067035 0
2.7120001 0.71301359 0.52077132 0
2.7130003 0.70916975 0.52082187 0
2.7150002 0.70564687 0.52092284 0
2.7160003 0.70179397 0.52097338 0
2.7180002 0.69825846 0.52107435 0
2.7190001 0.6943965 0.5211249 0
2.7210002 0.69084847 0.52122593 0
2.7220001 0.68697745 0.52127641 0
2.7230003 0.68310291 0.5213269 0
2.7250001 0.67953676 0.52142793 0
2.7260003 0.67565316 0.52147841 0
2.7280002 0.67207438 0.52157944 0
2.7290001 0.66818172 0.52162993 0
2.7310002 0.66459042 0.52173096 0
2.7320001 0.66068876 0.52178144 0
2.7340002 0.65708476 0.52188247 0
2.7350001 0.6531741 0.52193302 0
2.7360003 0.64925987 0.5219835 0
2.7380002 0.64563775 0.52208453 0
2.7390003 0.64171457 0.52213502 0
2.7410002 0.63807982 0.52223605 0
2.7420001 0.63414752 0.52228653 0
2.7440002 0.6305002 0.52238756 0
2.7450001 0.6265589 0.52243805 0
2.7470002 0.622899 0.52253908 0
2.7480001 0.61894864 0.52258956 0
2.7500002 0.61527616 0.52269059 0
2.7510002 0.61131668 0.52274108 0
2.7530003 0.60763156 0.52284211 0
2.7540002 0.60366321 0.52289259 0
2.7560003 0.59996539 0.52299362 0
2.7570002 0.59598798 0.52304411 0
2.7590003 0.59227759 0.52314514 0
2.7600002 0.58829111 0.52319568 0
2.7620003 0.58456808 0.52329671 0
2.7640002 0.58083779 0.52339768 0
2.7650001 0.57683694 0.52344817 0
2.7670002 0.57309407 0.5235492 0
2.7680001 0.56908417 0.52359974 0
2.7700002 0.5653286 0.52370071 0
2.7710001 0.56130975 0.52375126 0
2.7730002 0.55754161 0.52385223 0
2.7740002 0.55351371 0.52390277 0
2.7760003 0.54973298 0.52400374 0
2.7780001 0.54594487 0.52410477 0
2.7790003 0.5419026 0.52415532 0
2.8000002 0.51678813 0.52521592 0
2.7930002 0.51083022 0.52486241 0
2.7890003 0.50559014 0.52466035 0
2.7860003 0.5005936 0.52450883 0
2.7830002 0.49560785 0.52435732 0
2.7820003 0.49108392 0.52430683 0
2.7810001 0.48656356 0.52425629 0
2.7800002 0.48204684 0.5242058 0
2.7800002 0.47775376 0.5242058 0
2.7800002 0.47346067 0.5242058 0
2.7800002 0.46916759 0.5242058 0
2.7810001 0.4650892 0.52425629 0
2.7820003 0.46100724 0.52430683 0
2.7840002 0.45713264 0.5244078 0
2.7860003 0.45325086 0.52450883 0
2.7880001 0.44936177 0.52460986 0
2.7910001 0.4456712 0.52476138 0
2.7940001 0.44196978 0.52491289 0
2.7980001 0.43845955 0.52511489 0
2.8020003 0.43493494 0.52531695 0
2.8080003 0.43179277 0.52561998 0
2.8160002 0.4290221 0.52602404 0
2.8200002 0.30321726 0.52622604 0
2.8140001 0.29799706 0.52592301 0
2.8160002 0.29392406 0.52602404 0
2.8170002 0.28970495 0.52607453 0
2.8190002 0.28561932 0.52617556 0
2.8200002 0.28139117 0.52622604 0
2.8220003 0.27729294 0.52632707 0
2.8230002 0.27305579 0.52637756 0
2.8250003 0.26894492 0.52647859 0
2.8270001 0.2648268 0.52657962 0
2.6910002 0.80530006 0.51557815 0
2.6870003 0.7996884 0.51538336 0
2.6850002 0.79482716 0.51528597 0
2.6830001 0.78997308 0.51518857 0
2.6830001 0.78585494 0.51518857 0
2.6820002 0.78137434 0.51513988 0
2.6830001 0.77761883 0.51518857 0
2.6840003 0.77385968 0.51523727 0
2.6850002 0.77009696 0.51528597 0
2.6860001 0.7663306 0.51533467 0
2.6870003 0.76256067 0.51538336 0
2.6890001 0.75913882 0.51548076 0
2.6900003 0.75535989 0.51552951 0
2.6920002 0.75192541 0.51562691 0
2.6930003 0.74813741 0.5156756 0
2.6940002 0.74434578 0.5157243 0
2.6960001 0.74089324 0.5158217 0
2.6970003 0.73709267 0.51587039 0
2.6980002 0.73328847 0.51591909 0
2.7000003 0.72981793 0.51601648 0
2.7010002 0.72600466 0.51606524 0
2.7030003 0.72252154 0.51616263 0
2.7040002 0.71869928 0.51621133 0
2.7050002 0.71487331 0.51626003 0
2.7070003 0.7113722 0.51635742 0
2.7080002 0.70753729 0.51640612 0
2.7100003 0.70402348 0.51650357 0
2.7110002 0.70017952 0.51655221 0
2.7120001 0.69633198 0.51660097 0
2.7140002 0.69280016 0.51669836 0
2.7150002 0.68894356 0.51674706 0
2.7170002 0.68539917 0.51684445 0
2.7180002 0.68153352 0.51689315 0
2.7200003 0.67797649 0.51699054 0
2.7210002 0.67410189 0.5170393 0
2.7230003 0.67053217 0.51713669 0
2.7240002 0.66664857 0.51718539 0
2.7250001 0.66276133 0.51723409 0
2.7270002 0.65917361 0.51733148 0
2.7280002 0.65527731 0.51738018 0
2.7300003 0.65167695 0.51747757 0
2.7310002 0.64777172 0.51752627 0
2.7330003 0.64415872 0.51762372 0
2.7340002 0.64024442 0.51767242 0
2.7360003 0.63661879 0.51776981 0
2.7370002 0.6326955 0.51781851 0
2.7390003 0.62905723 0.5179159 0
2.7400002 0.62512493 0.5179646 0
2.7420001 0.62147397 0.518062 0
2.7430003 0.61753267 0.51811075 0
2.7440002 0.61358768 0.51815945 0
2.7460003 0.60991883 0.51825684 0
2.7470002 0.60596484 0.51830554 0
2.7490003 0.6022833 0.51840293 0
2.7500002 0.59832031 0.51845163 0
2.7520001 0.59462607 0.51854903 0
2.7530003 0.59065408 0.51859778 0
2.7550001 0.58694726 0.51869518 0
2.7560003 0.58296627 0.51874387 0
2.7580001 0.57924682 0.51884127 0
2.7590003 0.57525682 0.51888996 0
2.7610002 0.57152468 0.51898736 0
2.7620003 0.56752568 0.51903605 0
2.7640002 0.56378096 0.51913351 0
2.7650001 0.55977285 0.51918221 0
2.7670002 0.55601555 0.5192796 0
2.7680001 0.5519985 0.5193283 0
2.7700002 0.54822856 0.51942569 0
2.7710001 0.54420239 0.51947439 0
2.7730002 0.54041988 0.51957184 0
2.8000002 0.51678813 0.52088678 0
2.7930002 0.51083022 0.52054584 0
2.7890003 0.50559014 0.52035105 0
2.7860003 0.5005936 0.52020496 0
2.7830002 0.49560785 0.52005887 0
2.7820003 0.49108392 0.52001011 0
2.7810001 0.48656356 0.51996142 0
2.7800002 0.48204684 0.51991272 0
2.7800002 0.47775376 0.51991272 0
2.7800002 0.47346067 0.51991272 0
2.7800002 0.46916759 0.51991272 0
2.7810001 0.4650892 0.51996142 0
2.7820003 0.46100724 0.52001011 0
2.7840002 0.45713264 0.52010757 0
2.7860003 0.45325086 0.52020496 0
2.7880001 0.44936177 0.52030236 0
2.7910001 0.4456712 0.52044845 0
2.7940001 0.44196978 0.5205946 0
2.7980001 0.43845955 0.52078938 0
2.8020003 0.43493494 0.52098417 0
2.8080003 0.43179277 0.52127641 0
2.8160002 0.4290221 0.52166605 0
2.8200002 0.30321726 0.52186084 0
2.8140001 0.29799706 0.52156866 0
2.8160002 0.29392406 0.52166605 0
2.8170002 0.28970495 0.52171475 0
2.8190002 0.28561932 0.52181214 0
2.8200002 0.28139117 0.52186084 0
2.8220003 0.27729294 0.52195823 0
2.8230002 0.27305579 0.52200699 0
2.8250003 0.26894492 0.52210438 0
2.8270001 0.2648268 0.52220178 0
2.6900003 0.8090592 0.51139879 0
2.6850002 0.80307055 0.51116425 0
2.6820002 0.79783952 0.51102358 0
2.6810002 0.79335529 0.51097667 0
2.6790001 0.78850842 0.51088285 0
2.6790001 0.78439748 0.51088285 0
2.6790001 0.78028667 0.51088285 0
2.6790001 0.7761758 0.51088285 0
2.6800003 0.77242386 0.51092976 0
2.6810002 0.76866835 0.51097667 0
2.6830001 0.76526451 0.51107049 0
2.6840003 0.7615 0.51111734 0
2.6850002 0.75773185 0.51116425 0
2.6870003 0.75431007 0.51125807 0
2.6880002 0.75053287 0.51130497 0
2.6900003 0.74709845 0.51139879 0
2.6910002 0.74331224 0.51144564 0
2.6920002 0.7395224 0.51149255 0
2.6940002 0.73606998 0.51158637 0
2.6950002 0.73227108 0.51163328 0
2.6970003 0.72880602 0.51172704 0
2.6980002 0.72499812 0.51177394 0
2.6990001 0.72118664 0.51182085 0
2.7010002 0.71770358 0.51191467 0
2.7020001 0.7138831 0.51196152 0
2.7030003 0.71005899 0.51200843 0
2.7050002 0.70655781 0.51210225 0
2.7060001 0.70272464 0.51214916 0
2.7080002 0.69921088 0.51224291 0
2.7090001 0.69536877 0.51228982 0
2.7100003 0.69152308 0.51233673 0
2.7120001 0.6879912 0.51243055 0
2.7130003 0.68413651 0.51247746 0
2.7150002 0.68059194 0.51257122 0
2.7160003 0.67672825 0.51261812 0
2.7180002 0.6731711 0.51271194 0
2.7190001 0.66929835 0.51275885 0
2.7200003 0.66542196 0.5128057 0
2.7220001 0.66184676 0.51289952 0
2.7230003 0.65796143 0.51294643 0
2.7250001 0.65437359 0.51304018 0
2.7260003 0.65047926 0.51308715 0
2.7270002 0.64658117 0.513134 0
2.7290001 0.64297533 0.51322782 0
2.7300003 0.63906837 0.51327473 0
2.7320001 0.63544983 0.51336849 0
2.7330003 0.63153386 0.5134154 0
2.7350001 0.62790275 0.51350921 0
2.7360003 0.62397772 0.51355612 0
2.7370002 0.620049 0.51360303 0
2.7390003 0.61639988 0.51369679 0
2.7400002 0.61246216 0.5137437 0
2.7420001 0.60880041 0.51383752 0
2.7430003 0.60485369 0.51388443 0
2.7450001 0.6011793 0.51397818 0
2.7460003 0.59722364 0.51402509 0
2.7480001 0.59353656 0.51411891 0
2.7490003 0.58957183 0.51416582 0
2.7500002 0.58560348 0.51421273 0
2.7520001 0.58189839 0.51430649 0
2.7530003 0.57792103 0.51435339 0
2.7550001 0.57420337 0.51444721 0
2.7560003 0.57021695 0.51449406 0
2.7580001 0.56648666 0.51458788 0
2.7590003 0.5624913 0.51463479 0
2.7610002 0.55874836 0.51472861 0
2.7620003 0.55474389 0.51477551 0
2.7640002 0.55098838 0.51486927 0
2.7650001 0.5469749 0.51491618 0
2.7670002 0.54320675 0.51501 0
2.7680001 0.53918427 0.51505685 0
2.7690003 0.53515816 0.51510376 0
2.8000002 0.51678813 0.51655763 0
2.7930002 0.51083022 0.51622933 0
2.7890003 0.50559014 0.51604176 0
2.7860003 0.5005936 0.51590109 0
2.7830002 0.49560785 0.51576036 0
2.7820003 0.49108392 0.51571345 0
2.7810001 0.48656356 0.51566654 0
2.7800002 0.48204684 0.5156197 0
2.7800002 0.47775376 0.5156197 0
2.7800002 0.47346067 0.5156197 0
2.7800002 0.46916759 0.5156197 0
2.7810001 0.4650892 0.51566654 0
2.7820003 0.46100724 0.51571345 0
2.7840002 0.45713264 0.51580727 0
2.7860003 0.45325086 0.51590109 0
2.7880001 0.44936177 0.51599485 0
2.7910001 0.4456712 0.51613557 0
2.7940001 0.44196978 0.51627624 0
2.7980001 0.43845955 0.51646388 0
2.8020003 0.43493494 0.51665145 0
2.8080003 0.43179277 0.51693285 0
2.8160002 0.4290221 0.517308 0
2.8200002 0.30321726 0.51749563 0
2.8140001 0.29799706 0.51721424 0
2.8160002 0.29392406 0.517308 0
2.8170002 0.28970495 0.51735491 0
2.8190002 0.28561932 0.51744872 0
2.8200002 0.28139117 0.51749563 0
2.8220003 0.27729294 0.51758945 0
2.8230002 0.27305579 0.5176363 0
2.8250003 0.26894492 0.51773012 0
2.8270001 0.2648268 0.51782393 0
2.6900003 0.81318998 0.50726801 0
2.6840003 0.8068189 0.50699747 0
2.6810002 0.80158424 0.50686216 0
2.6790001 0.79673016 0.50677198 0
2.6770003 0.79188335 0.5066818 0
2.6760001 0.7874099 0.50663668 0
2.6760001 0.78330445 0.50663668 0
2.6760001 0.77919894 0.50663668 0
2.6770003 0.77545428 0.5066818 0
2.6770003 0.77134705 0.5066818 0
2.6790001 0.76795399 0.50677198 0
2.6800003 0.76419854 0.5068171 0
2.6810002 0.76043934 0.50686216 0
2.6830001 0.75702834 0.50695235 0
2.6840003 0.75326025 0.50699747 0
2.6850002 0.74948841 0.50704259 0
2.6870003 0.74605942 0.50713277 0
2.6880002 0.74227864 0.50717783 0
2.6900003 0.738837 0.50726801 0
2.6910002 0.73504716 0.50731313 0
2.6920002 0.73125368 0.50735819 0
2.6940002 0.72779405 0.50744843 0
2.6950002 0.72399163 0.5074935 0
2.6960001 0.72018558 0.50753862 0
2.6980002 0.71670789 0.5076288 0
2.6990001 0.71289277 0.50767386 0
2.7000003 0.70907414 0.50771898 0
2.7020001 0.70557833 0.50780916 0
2.7030003 0.7017507 0.50785428 0
2.7050002 0.69824225 0.50794446 0
2.7060001 0.6944055 0.50798953 0
2.7070003 0.69056523 0.50803465 0
2.7090001 0.68703878 0.50812483 0
2.7100003 0.68318951 0.50816995 0
2.7120001 0.67965037 0.50826013 0
2.7130003 0.6757921 0.50830525 0
2.7140002 0.67193013 0.50835031 0
2.7160003 0.66837305 0.50844049 0
2.7170002 0.66450202 0.50848562 0
2.7180002 0.66062742 0.50853068 0
2.7200003 0.65705234 0.50862092 0
2.7210002 0.65316868 0.50866598 0
2.7230003 0.64958096 0.50875616 0
2.7240002 0.6456883 0.50880128 0
2.7250001 0.64179206 0.50884634 0
2.7270002 0.63818628 0.50893658 0
2.7280002 0.63428104 0.50898165 0
2.7300003 0.63066262 0.50907183 0
2.7310002 0.62674832 0.50911695 0
2.7330003 0.62311727 0.50920713 0
2.7340002 0.61919391 0.50925219 0
2.7350001 0.61526704 0.50929731 0
2.7370002 0.61161798 0.50938749 0
2.7380002 0.60768205 0.50943261 0
2.7400002 0.60402036 0.5095228 0
2.7410002 0.60007536 0.50956786 0
2.7430003 0.59640104 0.5096581 0
2.7440002 0.59244704 0.50970316 0
2.7460003 0.58876014 0.5097934 0
2.7470002 0.58479714 0.50983846 0
2.7480001 0.58083051 0.50988352 0
2.7500002 0.57712555 0.50997376 0
2.7510002 0.57314992 0.51001883 0
2.7530003 0.56943232 0.51010907 0
2.7540002 0.56544769 0.51015413 0
2.7560003 0.56171745 0.51024431 0
2.7570002 0.55772382 0.51028943 0
2.7590003 0.55398089 0.51037961 0
2.7600002 0.54997826 0.51042473 0
2.7620003 0.54622275 0.51051491 0
2.7630002 0.54221106 0.51055998 0
2.7640002 0.53819573 0.5106051 0
2.7660003 0.53442222 0.51069528 0
2.8000002 0.51678813 0.51222849 0
2.7930002 0.51083022 0.51191282 0
2.7890003 0.50559014 0.51173246 0
2.7860003 0.5005936 0.51159716 0
2.7830002 0.49560785 0.51146191 0
2.7820003 0.49108392 0.51141679 0
2.7810001 0.48656356 0.51137167 0
2.7800002 0.48204684 0.51132661 0
2.7800002 0.47775376 0.51132661 0
2.7800002 0.47346067 0.51132661 0
2.7800002 0.46916759 0.51132661 0
2.7810001 0.4650892 0.51137167 0
2.7820003 0.46100724 0.51141679 0
2.7840002 0.45713264 0.51150697 0
2.7860003 0.45325086 0.51159716 0
2.7880001 0.44936177 0.51168734 0
2.7910001 0.4456712 0.51182264 0
2.7940001 0.44196978 0.51195794 0
2.7980001 0.43845955 0.51213831 0
2.8020003 0.43493494 0.51231873 0
2.8080003 0.43179277 0.51258928 0
2.8160002 0.4290221 0.51295 0
2.8200002 0.30321726 0.51313043 0
2.8140001 0.29799706 0.51285982 0
2.8160002 0.29392406 0.51295 0
2.8170002 0.28970495 0.51299512 0
2.8190002 0.28561932 0.51308531 0
2.8200002 0.28139117 0.51313043 0
2.8220003 0.27729294 0.51322061 0
2.8230002 0.27305579 0.51326567 0
2.8250003 0.26894492 0.51335591 0
2.8270001 0.2648268 0.51344609 0
2.6930003 0.8184517 0.50326717 0
2.6850002 0.81131399 0.50292087 0
2.6800003 0.80532539 0.50270438 0
2.6780002 0.80046952 0.50261784 0
2.6760001 0.79562086 0.50253123 0
2.6750002 0.79114735 0.50248796 0
2.6740003 0.7866776 0.50244462 0
2.6740003 0.78257573 0.50244462 0
2.6740003 0.77847385 0.50244462 0
2.6740003 0.77437204 0.50244462 0
2.6750002 0.77062905 0.50248796 0
2.6760001 0.76688254 0.50253123 0
2.6780002 0.76348782 0.50261784 0
2.6790001 0.75973225 0.50266111 0
2.6810002 0.75632489 0.50274771 0
2.6820002 0.75256032 0.50279099 0
2.6830001 0.74879211 0.50283426 0
2.6850002 0.74536675 0.50292087 0
2.6860001 0.74158955 0.50296414 0
2.6870003 0.73780882 0.50300741 0
2.6890001 0.73436528 0.50309402 0
2.6900003 0.73057556 0.50313735 0
2.6910002 0.72678208 0.50318062 0
2.6930003 0.72332066 0.50326717 0
2.6940002 0.71951818 0.5033105 0
2.6960001 0.71604401 0.50339705 0
2.6970003 0.71223265 0.50344038 0
2.6980002 0.70841753 0.50348365 0
2.7000003 0.70492542 0.5035702 0
2.7010002 0.7011013 0.50361353 0
2.7020001 0.69727361 0.5036568 0
2.7040002 0.69376343 0.50374341 0
2.7050002 0.68992668 0.50378668 0
2.7070003 0.68640393 0.50387329 0
2.7080002 0.68255818 0.50391656 0
2.7090001 0.67870879 0.50395983 0
2.7110002 0.67516792 0.50404644 0
2.7120001 0.67130959 0.50408971 0
2.7130003 0.66744769 0.50413305 0
2.7150002 0.66388875 0.50421959 0
2.7160003 0.66001779 0.50426292 0
2.7180002 0.65644622 0.50434947 0
2.7190001 0.65256619 0.50439274 0
2.7200003 0.64868265 0.50443608 0
2.7220001 0.64509302 0.50452262 0
2.7230003 0.64120048 0.50456595 0
2.7250001 0.63759822 0.5046525 0
2.7260003 0.63369662 0.50469583 0
2.7270002 0.62979138 0.50473911 0
2.7290001 0.62617111 0.50482565 0
2.7300003 0.62225688 0.50486898 0
2.7320001 0.61862391 0.50495553 0
2.7330003 0.61470073 0.50499886 0
2.7350001 0.6110552 0.50508541 0
2.7360003 0.6071229 0.50512874 0
2.7370002 0.60318696 0.50517201 0
2.7390003 0.59952348 0.50525862 0
2.7400002 0.59557849 0.50530189 0
2.7420001 0.59190232 0.50538844 0
2.7430003 0.58794838 0.50543177 0
2.7440002 0.58399081 0.50547504 0
2.7460003 0.5802967 0.50556165 0
2.7470002 0.57633013 0.50560492 0
2.7490003 0.57262331 0.50569153 0
2.7500002 0.56864768 0.5057348 0
2.7520001 0.56492817 0.50582135 0
2.7530003 0.5609436 0.50586468 0
2.7550001 0.55721146 0.50595123 0
2.7560003 0.55321789 0.50599456 0
2.7570002 0.54922062 0.50603783 0
2.7590003 0.54547054 0.50612444 0
2.7600002 0.54146427 0.50616771 0
2.7620003 0.53770155 0.50625432 0
2.7630002 0.53368622 0.50629759 0
2.8000002 0.51678813 0.50789934 0
2.7930002 0.51083022 0.50759631 0
2.7890003 0.50559014 0.50742316 0
2.7860003 0.5005936 0.50729328 0
2.7830002 0.49560785 0.50716341 0
2.7820003 0.49108392 0.50712013 0
2.7810001 0.48656356 0.50707686 0
2.7800002 0.48204684 0.50703353 0
2.7800002 0.47775376 0.50703353 0
2.7800002 0.47346067 0.50703353 0
2.7800002 0.46916759 0.50703353 0
2.7810001 0.4650892 0.50707686 0
2.7820003 0.46100724 0.50712013 0
2.7840002 0.45713264 0.50720668 0
2.7860003 0.45325086 0.50729328 0
2.7880001 0.44936177 0.50737989 0
2.7910001 0.4456712 0.50750977 0
2.7940001 0.44196978 0.50763965 0
2.7980001 0.43845955 0.5078128 0
2.8020003 0.43493494 0.50798595 0
2.8080003 0.43179277 0.50824571 0
2.8160002 0.4290221 0.50859201 0
2.8200002 0.30321726 0.50876522 0
2.8140001 0.29799706 0.50850546 0
2.8160002 0.29392406 0.50859201 0
2.8170002 0.28970495 0.50863534 0
2.8190002 0.28561932 0.50872189 0
2.8200002 0.28139117 0.50876522 0
2.8220003 0.27729294 0.50885177 0
2.8230002 0.27305579 0.50889504 0
2.8250003 0.26894492 0.50898165 0
2.8270001 0.2648268 0.50906825 0
2.6870003 0.81618971 0.49888214 0
2.6810002 0.8098132 0.49863321 0
2.6780002 0.80457854 0.49850875 0
2.6760001 0.79972631 0.49842575 0
2.6740003 0.79488134 0.49834278 0
2.6730001 0.79041135 0.4983013 0
2.6720002 0.78594518 0.49825981 0
2.6720002 0.78184694 0.49825981 0
2.6720002 0.7777487 0.49825981 0
2.6730001 0.77401119 0.4983013 0
2.6740003 0.77027011 0.49834278 0
2.6750002 0.76652539 0.49838427 0
2.6760001 0.76277709 0.49842575 0
2.6780002 0.75937873 0.49850875 0
2.6790001 0.75562137 0.49855024 0
2.6800003 0.7518605 0.49859172 0
2.6820002 0.74844402 0.49867469 0
2.6830001 0.74467403 0.49871618 0
2.6840003 0.74090052 0.49875766 0
2.6860001 0.73746604 0.49884063 0
2.6870003 0.73368353 0.49888214 0
2.6880002 0.72989726 0.4989236 0
2.6900003 0.72644484 0.4990066 0
2.6910002 0.72264963 0.49904808 0
2.6920002 0.71885079 0.49908957 0
2.6940002 0.71538025 0.49917254 0
2.6950002 0.71157241 0.49921402 0
2.6960001 0.70776093 0.49925551 0
2.6980002 0.70427239 0.49933851 0
2.6990001 0.70045191 0.49937999 0
2.7000003 0.69662791 0.49942148 0
2.7020001 0.69312125 0.49950445 0
2.7030003 0.6892882 0.49954593 0
2.7050002 0.6857689 0.4996289 0
2.7060001 0.68192673 0.49967039 0
2.7070003 0.6780811 0.49971187 0
2.7090001 0.6745438 0.49979484 0
2.7100003 0.67068911 0.49983636 0
2.7110002 0.66683078 0.49987784 0
2.7130003 0.66327542 0.49996081 0
2.7140002 0.65940803 0.50000226 0
2.7160003 0.65584016 0.50008529 0
2.7170002 0.65196377 0.50012678 0
2.7180002 0.64808375 0.50016826 0
2.7200003 0.64449781 0.50025123 0
2.7210002 0.64060879 0.50029272 0
2.7220001 0.63671613 0.5003342 0
2.7240002 0.63311213 0.50041717 0
2.7250001 0.62921053 0.50045866 0
2.7270002 0.62559384 0.50054163 0
2.7280002 0.62168318 0.50058311 0
2.7290001 0.61776894 0.5006246 0
2.7310002 0.61413425 0.50070757 0
2.7320001 0.61021096 0.50074905 0
2.7340002 0.60656369 0.50083208 0
2.7350001 0.60263139 0.50087357 0
2.7370002 0.59897149 0.50095654 0
2.7380002 0.59503013 0.50099802 0
2.7390003 0.59108526 0.50103951 0
2.7410002 0.58740729 0.50112247 0
2.7420001 0.5834533 0.50116396 0
2.7440002 0.5797627 0.50124693 0
2.7450001 0.5757997 0.50128841 0
2.7470002 0.57209653 0.50137138 0
2.7480001 0.56812453 0.50141287 0
2.7490003 0.56414902 0.50145435 0
2.7510002 0.56042773 0.50153732 0
2.7520001 0.5564431 0.50157881 0
2.7540002 0.55270916 0.50166178 0
2.7550001 0.54871559 0.50170326 0
2.7570002 0.54496908 0.50178623 0
2.7580001 0.54096639 0.50182772 0
2.7590003 0.53696012 0.50186926 0
2.7610002 0.53319561 0.50195223 0
2.8000002 0.51678813 0.5035702 0
2.7930002 0.51083022 0.50327981 0
2.7890003 0.50559014 0.50311387 0
2.7860003 0.5005936 0.50298941 0
2.7830002 0.49560785 0.50286496 0
2.7820003 0.49108392 0.50282347 0
2.7810001 0.48656356 0.50278199 0
2.7800002 0.48204684 0.5027405 0
2.7800002 0.47775376 0.5027405 0
2.7800002 0.47346067 0.5027405 0
2.7800002 0.46916759 0.5027405 0
2.7810001 0.4650892 0.50278199 0
2.7820003 0.46100724 0.50282347 0
2.7840002 0.45713264 0.50290644 0
2.7860003 0.45325086 0.50298941 0
2.7880001 0.44936177 0.50307238 0
2.7910001 0.4456712 0.50319684 0
2.7940001 0.44196978 0.50332129 0
2.7980001 0.43845955 0.50348723 0
2.8020003 0.43493494 0.50365323 0
2.8080003 0.43179277 0.50390214 0
2.8160002 0.4290221 0.50423402 0
2.8200002 0.30321726 0.50440001 0
2.8140001 0.29799706 0.50415105 0
2.8160002 0.29392406 0.50423402 0
2.8170002 0.28970495 0.5042755 0
2.8190002 0.28561932 0.50435853 0
2.8200002 0.28139117 0.50440001 0
2.8220003 0.27729294 0.50448298 0
2.8230002 0.27305579 0.50452447 0
2.8250003 0.26894492 0.50460744 0
2.8270001 0.2648268 0.50469041 0
2.6840003 0.81505865 0.49463779 0
2.6790001 0.80906278 0.49443936 0
2.6760001 0.80383176 0.4943203 0
2.6740003 0.79898316 0.49424094 0
2.6720002 0.79414171 0.49416155 0
2.6710002 0.78967547 0.49412188 0
2.6710002 0.78557909 0.49412188 0
2.6710002 0.78148264 0.49412188 0
2.6710002 0.77738619 0.49412188 0
2.6720002 0.77365047 0.49416155 0
2.6720002 0.76955223 0.49416155 0
2.6740003 0.7661683 0.49424094 0
2.6750002 0.76242173 0.49428061 0
2.6760001 0.75867158 0.4943203 0
2.6780002 0.75526965 0.49439967 0
2.6790001 0.7515105 0.49443936 0
2.6800003 0.74774778 0.49447903 0
2.6820002 0.74432772 0.49455839 0
2.6830001 0.74055594 0.49459809 0
2.6840003 0.73678064 0.49463779 0
2.6860001 0.73334253 0.49471712 0
2.6870003 0.72955817 0.49475682 0
2.6880002 0.72577018 0.49479651 0
2.6900003 0.72231412 0.49487588 0
2.6910002 0.71851707 0.49491554 0
2.6920002 0.71471637 0.49495524 0
2.6940002 0.71124232 0.49503461 0
2.6950002 0.70743263 0.49507427 0
2.6970003 0.70394588 0.49515367 0
2.6980002 0.70012724 0.49519336 0
2.6990001 0.69630492 0.49523303 0
2.7010002 0.69280016 0.49531239 0
2.7020001 0.68896884 0.49535209 0
2.7030003 0.68513399 0.49539176 0
2.7050002 0.68161112 0.49547112 0
2.7060001 0.67776716 0.49551082 0
2.7070003 0.67391974 0.49555051 0
2.7090001 0.6703788 0.49562985 0
2.7100003 0.66652232 0.49566954 0
2.7120001 0.66296875 0.49574891 0
2.7130003 0.65910327 0.4957886 0
2.7140002 0.65523404 0.49582827 0
2.7160003 0.65166253 0.49590766 0
2.7170002 0.64778435 0.49594733 0
2.7180002 0.64390248 0.49598703 0
2.7200003 0.64031297 0.49606639 0
2.7210002 0.63642216 0.49610609 0
2.7230003 0.63281995 0.49618542 0
2.7240002 0.62892014 0.49622512 0
2.7250001 0.62501663 0.49626482 0
2.7270002 0.62139642 0.49634418 0
2.7280002 0.61748391 0.49638385 0
2.7300003 0.61385113 0.49646324 0
2.7310002 0.60992962 0.49650291 0
2.7320001 0.60600448 0.49654257 0
2.7340002 0.60235357 0.49662197 0
2.7350001 0.59841949 0.49666163 0
2.7370002 0.59475601 0.496741 0
2.7380002 0.5908128 0.49678069 0
2.7390003 0.58686614 0.49682039 0
2.7410002 0.58318454 0.49689975 0
2.7420001 0.57922876 0.49693942 0
2.7440002 0.57553458 0.49701878 0
2.7450001 0.5715698 0.49705848 0
2.7460003 0.56760144 0.49709815 0
2.7480001 0.56388915 0.49717754 0
2.7490003 0.55991185 0.49721724 0
2.7510002 0.55618691 0.49729657 0
2.7520001 0.5522005 0.49733627 0
2.7540002 0.54846299 0.49741563 0
2.7550001 0.54446757 0.4974553 0
2.7560003 0.54046857 0.497495 0
2.7580001 0.53671306 0.49757436 0
2.7590003 0.53270501 0.49761406 0
2.8000002 0.51678813 0.49924108 0
2.7930002 0.51083022 0.4989633 0
2.7890003 0.50559014 0.49880457 0
2.7860003 0.5005936 0.49868551 0
2.7830002 0.49560785 0.49856645 0
2.7820003 0.49108392 0.49852678 0
2.7810001 0.48656356 0.49848709 0
2.7800002 0.48204684 0.49844742 0
2.7800002 0.47775376 0.49844742 0
2.7800002 0.47346067 0.49844742 0
2.7800002 0.46916759 0.49844742 0
2.7810001 0.4650892 0.49848709 0
2.7820003 0.46100724 0.49852678 0
2.7840002 0.45713264 0.49860615 0
2.7860003 0.45325086 0.49868551 0
2.7880001 0.44936177 0.49876487 0
2.7910001 0.4456712 0.49888393 0
2.7940001 0.44196978 0.49900299 0
2.7980001 0.43845955 0.49916172 0
2.8020003 0.43493494 0.49932045 0
2.8080003 0.43179277 0.49955857 0
2.8160002 0.4290221 0.49987602 0
2.8200002 0.30321726 0.50003475 0
2.8140001 0.29799706 0.49979666 0
2.8160002 0.29392406 0.49987602 0
2.8170002 0.28970495 0.49991572 0
2.8190002 0.28561932 0.49999508 0
2.8200002 0.28139117 0.50003475 0
2.8220003 0.27729294 0.50011414 0
2.8230002 0.27305579 0.50015384 0
2.8250003 0.26894492 0.50023317 0
2.8270001 0.2648268 0.50031257 0
2.6890001 0.82107252 0.49070728 0
2.6820002 0.81430471 0.4904421 0
2.6780002 0.80868763 0.49029058 0
2.6750002 0.80345839 0.49017695 0
2.6730001 0.79861152 0.49010119 0
2.6710002 0.79377192 0.49002543 0
2.6700003 0.78930753 0.48998755 0
2.6700003 0.78521293 0.48998755 0
2.6700003 0.78111827 0.48998755 0
2.6700003 0.77702361 0.48998755 0
2.6710002 0.77328974 0.49002543 0
2.6710002 0.76919323 0.49002543 0
2.6730001 0.76581103 0.49010119 0
2.6740003 0.76206642 0.49013907 0
2.6750002 0.75831807 0.49017695 0
2.6770003 0.75491798 0.49025273 0
2.6780002 0.75116062 0.49029058 0
2.6790001 0.74739963 0.49032846 0
2.6810002 0.74398142 0.49040425 0
2.6820002 0.74021143 0.4904421 0
2.6830001 0.73643786 0.49048001 0
2.6850002 0.73300165 0.49055576 0
2.6860001 0.72921902 0.49059361 0
2.6870003 0.72543287 0.49063152 0
2.6890001 0.72197855 0.49070728 0
2.6900003 0.71818334 0.49074516 0
2.6910002 0.71438456 0.49078304 0
2.6930003 0.71091223 0.49085879 0
2.6940002 0.70710438 0.49089667 0
2.6950002 0.70329291 0.49093455 0
2.6970003 0.69980258 0.49101031 0
2.6980002 0.69598204 0.49104819 0
2.6990001 0.69215798 0.49108607 0
2.7010002 0.68864959 0.49116182 0
2.7020001 0.68481648 0.4911997 0
2.7030003 0.68097985 0.49123758 0
2.7050002 0.67745334 0.49131334 0
2.7060001 0.67360759 0.49135122 0
2.7080002 0.67006856 0.491427 0
2.7090001 0.66621381 0.49146485 0
2.7100003 0.66235554 0.49150276 0
2.7120001 0.65879834 0.49157852 0
2.7130003 0.65493107 0.4916164 0
2.7140002 0.65106004 0.49165428 0
2.7160003 0.6474849 0.49173003 0
2.7170002 0.64360493 0.49176791 0
2.7190001 0.64001709 0.49184367 0
2.7200003 0.63612813 0.49188155 0
2.7210002 0.63223547 0.49191943 0
2.7230003 0.62862968 0.49199519 0
2.7240002 0.62472808 0.49203306 0
2.7260003 0.62110966 0.49210882 0
2.7270002 0.61719894 0.49214673 0
2.7280002 0.61328465 0.49218458 0
2.7300003 0.60964823 0.49226034 0
2.7310002 0.60572493 0.49229825 0
2.7330003 0.60207587 0.492374 0
2.7340002 0.59814352 0.49241188 0
2.7350001 0.59420758 0.49244976 0
2.7370002 0.59054047 0.49252552 0
2.7380002 0.58659554 0.4925634 0
2.7400002 0.58291578 0.49263915 0
2.7410002 0.57896185 0.49267703 0
2.7420001 0.57500422 0.49271491 0
2.7440002 0.57130647 0.49279067 0
2.7450001 0.56733984 0.49282855 0
2.7470002 0.56362945 0.49290431 0
2.7480001 0.55965388 0.49294218 0
2.7490003 0.55567473 0.49298006 0
2.7510002 0.55194616 0.49305582 0
2.7520001 0.54795796 0.4930937 0
2.7540002 0.54421687 0.49316949 0
2.7550001 0.5402196 0.49320734 0
2.7570002 0.53646594 0.49328309 0
2.7580001 0.53245968 0.493321 0
2.8000002 0.51678813 0.49491194 0
2.7930002 0.51083022 0.49464679 0
2.7890003 0.50559014 0.49449527 0
2.7860003 0.5005936 0.49438164 0
2.7830002 0.49560785 0.494268 0
2.7820003 0.49108392 0.49423012 0
2.7810001 0.48656356 0.49419224 0
2.7800002 0.48204684 0.49415433 0
2.7800002 0.47775376 0.49415433 0
2.7800002 0.47346067 0.49415433 0
2.7800002 0.46916759 0.49415433 0
2.7810001 0.4650892 0.49419224 0
2.7820003 0.46100724 0.49423012 0
2.7840002 0.45713264 0.49430588 0
2.7860003 0.45325086 0.49438164 0
2.7880001 0.44936177 0.49445739 0
2.7910001 0.4456712 0.49457103 0
2.7940001 0.44196978 0.49468467 0
2.7980001 0.43845955 0.49483618 0
2.8020003 0.43493494 0.49498773 0
2.8080003 0.43179277 0.495215 0
2.8160002 0.4290221 0.49551803 0
2.8200002 0.30321726 0.49566954 0
2.8140001 0.29799706 0.49544227 0
2.8160002 0.29392406 0.49551803 0
2.8170002 0.28970495 0.49555591 0
2.8190002 0.28561932 0.49563166 0
2.8200002 0.28139117 0.49566954 0
2.8220003 0.27729294 0.4957453 0
2.8230002 0.27305579 0.49578318 0
2.8250003 0.26894492 0.49585897 0
2.8270001 0.2648268 0.49593472 0
2.6880002 0.82069373 0.48654228 0
2.6810002 0.81392771 0.48628974 0
2.6770003 0.80831242 0.48614544 0
2.6740003 0.80308503 0.48603722 0
2.6720002 0.79823995 0.48596507 0
2.6710002 0.79377192 0.48592898 0
2.6700003 0.78930753 0.48589292 0
2.6690001 0.78484672 0.48585683 0
2.6690001 0.78075385 0.48585683 0
2.6700003 0.77702361 0.48589292 0
2.6700003 0.77292895 0.48589292 0
2.6710002 0.76919323 0.48592898 0
2.6720002 0.76545393 0.48596507 0
2.6740003 0.76206642 0.48603722 0
2.6750002 0.75831807 0.48607329 0
2.6760001 0.75456613 0.48610938 0
2.6780002 0.75116062 0.4861815 0
2.6790001 0.74739963 0.48621759 0
2.6800003 0.74363512 0.48625368 0
2.6820002 0.74021143 0.4863258 0
2.6830001 0.73643786 0.48636189 0
2.6840003 0.73266071 0.48639798 0
2.6860001 0.72921902 0.48647013 0
2.6870003 0.72543287 0.48650622 0
2.6880002 0.72164309 0.48654228 0
2.6900003 0.71818334 0.48661444 0
2.6910002 0.71438456 0.48665053 0
2.6920002 0.71058208 0.48668659 0
2.6940002 0.70710438 0.48675874 0
2.6950002 0.70329291 0.48679483 0
2.6960001 0.69947785 0.48683089 0
2.6980002 0.69598204 0.48690304 0
2.6990001 0.69215798 0.4869391 0
2.7000003 0.68833035 0.48697519 0
2.7020001 0.68481648 0.48704734 0
2.7030003 0.68097985 0.48708344 0
2.7040002 0.67713952 0.4871195 0
2.7060001 0.67360759 0.48719165 0
2.7070003 0.66975832 0.48722774 0
2.7080002 0.66590542 0.4872638 0
2.7100003 0.66235554 0.48733595 0
2.7110002 0.65849352 0.48737204 0
2.7130003 0.65493107 0.48744419 0
2.7140002 0.65106004 0.48748025 0
2.7150002 0.64718544 0.48751634 0
2.7170002 0.64360493 0.4875885 0
2.7180002 0.63972127 0.48762456 0
2.7190001 0.6358341 0.48766065 0
2.7210002 0.63223547 0.4877328 0
2.7220001 0.62833923 0.48776886 0
2.7240002 0.62472808 0.48784101 0
2.7250001 0.62082279 0.4878771 0
2.7260003 0.61691397 0.48791319 0
2.7280002 0.61328465 0.48798531 0
2.7290001 0.60936677 0.4880214 0
2.7300003 0.60544533 0.48805749 0
2.7320001 0.601798 0.48812962 0
2.7330003 0.59786755 0.48816571 0
2.7350001 0.59420758 0.48823786 0
2.7360003 0.59026814 0.48827395 0
2.7370002 0.58632499 0.48831001 0
2.7390003 0.58264709 0.48838216 0
2.7400002 0.57869482 0.48841825 0
2.7420001 0.57500422 0.4884904 0
2.7430003 0.57104313 0.48852646 0
2.7440002 0.56707829 0.48856252 0
2.7460003 0.56336975 0.48863471 0
2.7470002 0.55939597 0.48867077 0
2.7490003 0.55567473 0.48874292 0
2.7500002 0.55169183 0.48877901 0
2.7510002 0.54770541 0.48881507 0
2.7530003 0.54396617 0.48888725 0
2.7540002 0.5399707 0.48892331 0
2.7560003 0.53621882 0.48899546 0
2.7570002 0.53221428 0.48903155 0
2.8000002 0.51678813 0.49058282 0
2.7930002 0.51083022 0.49033028 0
2.7890003 0.50559014 0.49018598 0
2.7860003 0.5005936 0.49007773 0
2.7830002 0.49560785 0.48996952 0
2.7820003 0.49108392 0.48993343 0
2.7810001 0.48656356 0.48989737 0
2.7800002 0.48204684 0.48986128 0
2.7800002 0.47775376 0.48986128 0
2.7800002 0.47346067 0.48986128 0
2.7800002 0.46916759 0.48986128 0
2.7810001 0.4650892 0.48989737 0
2.7820003 0.46100724 0.48993343 0
2.7840002 0.45713264 0.49000558 0
2.7860003 0.45325086 0.49007773 0
2.7880001 0.44936177 0.49014989 0
2.7910001 0.4456712 0.49025813 0
2.7940001 0.44196978 0.49036634 0
2.7980001 0.43845955 0.49051064 0
2.8020003 0.43493494 0.49065498 0
2.8080003 0.43179277 0.49087143 0
2.8160002 0.4290221 0.49116004 0
2.8200002 0.30321726 0.49130434 0
2.8140001 0.29799706 0.49108785 0
2.8160002 0.29392406 0.49116004 0
2.8170002 0.28970495 0.4911961 0
2.8190002 0.28561932 0.49126828 0
2.8200002 0.28139117 0.49130434 0
2.8220003 0.27729294 0.49137649 0
2.8230002 0.27305579 0.49141258 0
2.8250003 0.26894492 0.4914847 0
2.8270001 0.2648268 0.49155685 0
2.6870003 0.820315 0.4823809 0
2.6800003 0.81355077 0.48214099 0
2.6760001 0.80793726 0.4820039 0
2.6740003 0.80308503 0.48193535 0
2.6720002 0.79823995 0.48186681 0
2.6700003 0.79340219 0.48179826 0
2.6690001 0.78893954 0.48176399 0
2.6690001 0.78484672 0.48176399 0
2.6690001 0.78075385 0.48176399 0
2.6690001 0.77666098 0.48176399 0
2.6700003 0.77292895 0.48179826 0
2.6710002 0.76919323 0.48183253 0
2.6720002 0.76545393 0.48186681 0
2.6730001 0.761711 0.48190108 0
2.6750002 0.75831807 0.48196962 0
2.6760001 0.75456613 0.4820039 0
2.6770003 0.75081068 0.48203817 0
2.6790001 0.74739963 0.48210672 0
2.6800003 0.74363512 0.48214099 0
2.6810002 0.73986691 0.48217526 0
2.6830001 0.73643786 0.48224381 0
2.6840003 0.73266071 0.48227808 0
2.6850002 0.72887993 0.48231235 0
2.6870003 0.72543287 0.4823809 0
2.6880002 0.72164309 0.48241517 0
2.6890001 0.71784961 0.48244944 0
2.6910002 0.71438456 0.48251799 0
2.6920002 0.71058208 0.48255226 0
2.6930003 0.70677614 0.48258653 0
2.6950002 0.70329291 0.48265508 0
2.6960001 0.69947785 0.48268935 0
2.6970003 0.69565922 0.48272362 0
2.6990001 0.69215798 0.48279214 0
2.7000003 0.68833035 0.48282644 0
2.7010002 0.68449903 0.48286071 0
2.7030003 0.68097985 0.48292926 0
2.7040002 0.67713952 0.48296353 0
2.7050002 0.67329556 0.4829978 0
2.7070003 0.66975832 0.48306635 0
2.7080002 0.66590542 0.48310059 0
2.7090001 0.66204882 0.4831349 0
2.7110002 0.65849352 0.48320341 0
2.7120001 0.65462798 0.48323768 0
2.7140002 0.65106004 0.48330626 0
2.7150002 0.64718544 0.4833405 0
2.7160003 0.64330733 0.4833748 0
2.7180002 0.63972127 0.48344332 0
2.7190001 0.6358341 0.48347759 0
2.7200003 0.63194329 0.48351187 0
2.7220001 0.62833923 0.48358041 0
2.7230003 0.62443948 0.48361471 0
2.7250001 0.62082279 0.48368323 0
2.7260003 0.61691397 0.4837175 0
2.7270002 0.61300153 0.48375177 0
2.7290001 0.60936677 0.48382032 0
2.7300003 0.60544533 0.48385459 0
2.7310002 0.60152024 0.48388886 0
2.7330003 0.59786755 0.48395741 0
2.7340002 0.5939334 0.48399168 0
2.7360003 0.59026814 0.48406023 0
