# .PCD v0.7 - Point Cloud Data file format
VERSION 0.7
FIELDS x y z intensity
SIZE 4 4 4 4
TYPE F F F F
COUNT 1 1 1 1
WIDTH 1374
HEIGHT 1
VIEWPOINT 0 0 0 1 0 0 0
POINTS 1374
DATA ascii
2.5960002 -0.76693165 0.47530094 0
2.5930002 -0.76990247 0.47520354 0
2.5900002 -0.77286255 0.47510612 0
2.5870001 -0.77581179 0.47500873 0
2.5850003 -0.77908576 0.47494379 0
2.5830002 -0.78235239 0.47487885 0
2.5820003 -0.78595102 0.47484639 0
2.5800002 -0.78920507 0.47478145 0
2.5790002 -0.7927947 0.47474897 0
2.5780003 -0.7963807 0.47471651 0
2.5770001 -0.79996294 0.47468406 0
2.5770001 -0.80388987 0.47468406 0
2.5770001 -0.80781674 0.47468406 0
2.5780003 -0.81209546 0.47471651 0
2.5780003 -0.81602412 0.47471651 0
2.5790002 -0.82030815 0.47474897 0
2.5810001 -0.8249529 0.47481391 0
2.5830002 -0.82960498 0.47487885 0
2.5860002 -0.83462495 0.47497627 0
2.5910003 -0.84038097 0.4751386 0
2.6000001 -0.84761238 0.47543082 0
3.1680002 -0.55028707 0.48888001 0
3.1510003 -0.55215222 0.48835871 0
3.1500003 -0.55692869 0.48832804 0
3.1490002 -0.56170154 0.48829737 0
3.1490002 -0.56666023 0.48829737 0
3.1480002 -0.5714277 0.48826671 0
3.1470003 -0.57619154 0.48823607 0
3.1470003 -0.58114666 0.48823607 0
2.6520002 -0.50908804 0.473057 0
2.6430001 -0.51128328 0.47278103 0
2.6370001 -0.51407379 0.47259703 0
2.6320002 -0.51705366 0.4724437 0
2.6280003 -0.52022839 0.47232106 0
2.6250002 -0.52360332 0.47222906 0
2.6220002 -0.52696741 0.47213706 0
2.6190002 -0.5303207 0.47204506 0
2.6170001 -0.53388321 0.47198373 0
2.6150002 -0.53743851 0.4719224 0
2.6140001 -0.54121029 0.47189176 0
2.6120002 -0.54475302 0.47183043 0
2.6120002 -0.54874301 0.47183043 0
2.6110003 -0.55250394 0.47179976 0
2.6110003 -0.55649221 0.47179976 0
2.6110003 -0.56048042 0.47179976 0
2.6110003 -0.56446862 0.47179976 0
2.6120002 -0.5686931 0.47183043 0
2.6130002 -0.57292122 0.47186109 0
2.6140001 -0.57715297 0.47189176 0
2.6170001 -0.58187175 0.47198373 0
2.6190002 -0.58635777 0.47204506 0
2.6230001 -0.59134173 0.47216773 0
2.6290002 -0.59683436 0.47235173 0
2.6410003 -0.60384214 0.4727197 0
2.9220002 -0.67833942 0.48133647 0
2.9210002 -0.68263608 0.48130584 0
2.9210002 -0.6871835 0.48130584 0
2.9200003 -0.69147474 0.48127517 0
2.9190001 -0.6957624 0.4812445 0
2.9190001 -0.70030618 0.4812445 0
2.9180002 -0.70458841 0.48121384 0
2.9180002 -0.70913041 0.48121384 0
2.9170003 -0.71340728 0.48118317 0
2.9160001 -0.71768045 0.4811525 0
2.9160001 -0.72221881 0.4811525 0
2.9150002 -0.72648668 0.48112184 0
2.9150002 -0.73102325 0.48112184 0
2.9140003 -0.73528564 0.48109117 0
2.9130001 -0.73954439 0.4810605 0
2.9130001 -0.74407738 0.4810605 0
2.9120002 -0.74833077 0.48102984 0
2.9120002 -0.75286192 0.48102984 0
2.9110003 -0.75710994 0.48099917 0
2.9100003 -0.76135433 0.48096853 0
2.9100003 -0.76588184 0.48096853 0
2.9090002 -0.77012074 0.48093784 0
2.9090002 -0.77464652 0.48093784 0
2.9080002 -0.77888006 0.48090717 0
2.9080002 -0.78340399 0.48090717 0
2.9070003 -0.78763217 0.48087651 0
2.9060001 -0.79185665 0.48084587 0
2.9060001 -0.796377 0.48084587 0
2.6240003 -0.75606555 0.4721984 0
2.6150002 -0.75718749 0.4719224 0
2.6090002 -0.75924563 0.47173843 0
2.6040001 -0.76160675 0.47158509 0
2.6000001 -0.76427644 0.47146243 0
2.5960002 -0.76693165 0.47133979 0
2.5930002 -0.76990247 0.47124779 0
2.5900002 -0.77286255 0.47115579 0
2.5870001 -0.77581179 0.47106379 0
2.5850003 -0.77908576 0.47100246 0
2.5830002 -0.78235239 0.47094113 0
2.5820003 -0.78595102 0.47091049 0
2.5800002 -0.78920507 0.47084916 0
2.5790002 -0.7927947 0.47081849 0
2.5780003 -0.7963807 0.47078782 0
2.5770001 -0.79996294 0.47075716 0
2.5770001 -0.80388987 0.47075716 0
2.5770001 -0.80781674 0.47075716 0
2.5780003 -0.81209546 0.47078782 0
2.5780003 -0.81602412 0.47078782 0
2.5790002 -0.82030815 0.47081849 0
2.5810001 -0.8249529 0.47087979 0
2.5830002 -0.82960498 0.47094113 0
2.5860002 -0.83462495 0.47103313 0
2.5910003 -0.84038097 0.47118646 0
2.6000001 -0.84761238 0.47146243 0
3.1680002 -0.55028707 0.48388708 0
3.1510003 -0.55215222 0.48339644 0
3.1500003 -0.55692869 0.48336756 0
3.1490002 -0.56170154 0.48333871 0
3.1490002 -0.56666023 0.48333871 0
3.1480002 -0.5714277 0.48330986 0
3.1470003 -0.57619154 0.48328099 0
3.1470003 -0.58114666 0.48328099 0
2.6520002 -0.50908804 0.46899483 0
2.6430001 -0.51128328 0.4687351 0
2.6370001 -0.51407379 0.46856192 0
2.6320002 -0.51705366 0.46841761 0
2.6280003 -0.52022839 0.46830216 0
2.6250002 -0.52360332 0.46821558 0
2.6220002 -0.52696741 0.46812901 0
2.6190002 -0.5303207 0.46804243 0
2.6170001 -0.53388321 0.46798471 0
2.6150002 -0.53743851 0.46792698 0
2.6140001 -0.54121029 0.46789813 0
2.6120002 -0.54475302 0.4678404 0
2.6120002 -0.54874301 0.4678404 0
2.6110003 -0.55250394 0.46781152 0
2.6110003 -0.55649221 0.46781152 0
2.6110003 -0.56048042 0.46781152 0
2.6110003 -0.56446862 0.46781152 0
2.6120002 -0.5686931 0.4678404 0
2.6130002 -0.57292122 0.46786925 0
2.6140001 -0.57715297 0.46789813 0
2.6170001 -0.58187175 0.46798471 0
2.6190002 -0.58635777 0.46804243 0
2.6230001 -0.59134173 0.46815786 0
2.6290002 -0.59683436 0.46833104 0
2.6410003 -0.60384214 0.46867737 0
2.9220002 -0.67833942 0.47678727 0
2.9210002 -0.68263608 0.47675842 0
2.9210002 -0.6871835 0.47675842 0
2.9200003 -0.69147474 0.47672957 0
2.9190001 -0.6957624 0.47670069 0
2.9190001 -0.70030618 0.47670069 0
2.9180002 -0.70458841 0.47667184 0
2.9180002 -0.70913041 0.47667184 0
2.9170003 -0.71340728 0.47664297 0
2.9160001 -0.71768045 0.47661412 0
2.9160001 -0.72221881 0.47661412 0
2.9150002 -0.72648668 0.47658527 0
2.9150002 -0.73102325 0.47658527 0
2.9140003 -0.73528564 0.47655639 0
2.9130001 -0.73954439 0.47652754 0
2.9130001 -0.74407738 0.47652754 0
2.9120002 -0.74833077 0.47649866 0
2.9120002 -0.75286192 0.47649866 0
2.9110003 -0.75710994 0.47646981 0
2.9100003 -0.76135433 0.47644097 0
2.9100003 -0.76588184 0.47644097 0
2.9090002 -0.77012074 0.47641209 0
2.9090002 -0.77464652 0.47641209 0
2.9080002 -0.77888006 0.47638324 0
2.9080002 -0.78340399 0.47638324 0
2.9070003 -0.78763217 0.47635436 0
2.9060001 -0.79185665 0.47632551 0
2.9060001 -0.796377 0.47632551 0
2.6240003 -0.75606555 0.46818674 0
2.6150002 -0.75718749 0.46792698 0
2.6090002 -0.75924563 0.46775383 0
2.6040001 -0.76160675 0.46760949 0
2.6000001 -0.76427644 0.46749407 0
2.5960002 -0.76693165 0.46737862 0
2.5930002 -0.76990247 0.46729204 0
2.5900002 -0.77286255 0.46720546 0
2.5870001 -0.77581179 0.46711886 0
2.5850003 -0.77908576 0.46706116 0
2.5830002 -0.78235239 0.46700343 0
2.5820003 -0.78595102 0.46697456 0
2.5800002 -0.78920507 0.46691686 0
2.5790002 -0.7927947 0.46688798 0
2.5780003 -0.7963807 0.46685913 0
2.5770001 -0.79996294 0.46683025 0
2.5770001 -0.80388987 0.46683025 0
2.5770001 -0.80781674 0.46683025 0
2.5780003 -0.81209546 0.46685913 0
2.5780003 -0.81602412 0.46685913 0
2.5790002 -0.82030815 0.46688798 0
2.5810001 -0.8249529 0.46694571 0
2.5830002 -0.82960498 0.46700343 0
2.5860002 -0.83462495 0.46709001 0
2.5910003 -0.84038097 0.46723431 0
2.6000001 -0.84761238 0.46749407 0
3.1680002 -0.55028707 0.47889411 0
3.1510003 -0.55215222 0.47843415 0
3.1500003 -0.55692869 0.47840711 0
3.1490002 -0.56170154 0.47838005 0
3.1490002 -0.56666023 0.47838005 0
3.1480002 -0.5714277 0.47835299 0
3.1470003 -0.57619154 0.47832593 0
3.1470003 -0.58114666 0.47832593 0
2.6520002 -0.50908804 0.46493265 0
2.6430001 -0.51128328 0.46468914 0
2.6370001 -0.51407379 0.4645268 0
2.6320002 -0.51705366 0.46439153 0
2.6280003 -0.52022839 0.46428329 0
2.6250002 -0.52360332 0.46420211 0
2.6220002 -0.52696741 0.46412095 0
2.6190002 -0.5303207 0.46403977 0
2.6170001 -0.53388321 0.46398565 0
2.6150002 -0.53743851 0.46393156 0
2.6140001 -0.54121029 0.46390447 0
2.6120002 -0.54475302 0.46385038 0
2.6120002 -0.54874301 0.46385038 0
2.6110003 -0.55250394 0.46382332 0
2.6110003 -0.55649221 0.46382332 0
2.6110003 -0.56048042 0.46382332 0
2.6110003 -0.56446862 0.46382332 0
2.6120002 -0.5686931 0.46385038 0
2.6130002 -0.57292122 0.46387744 0
2.6140001 -0.57715297 0.46390447 0
2.6170001 -0.58187175 0.46398565 0
2.6190002 -0.58635777 0.46403977 0
2.6230001 -0.59134173 0.46414798 0
2.6290002 -0.59683436 0.46431035 0
2.6410003 -0.60384214 0.46463501 0
2.9220002 -0.67833942 0.47223806 0
2.9210002 -0.68263608 0.47221103 0
2.9210002 -0.6871835 0.47221103 0
2.9200003 -0.69147474 0.47218397 0
2.9190001 -0.6957624 0.47215691 0
2.9190001 -0.70030618 0.47215691 0
2.9180002 -0.70458841 0.47212985 0
2.9180002 -0.70913041 0.47212985 0
2.9170003 -0.71340728 0.47210279 0
2.9160001 -0.71768045 0.47207573 0
2.9160001 -0.72221881 0.47207573 0
2.9150002 -0.72648668 0.47204867 0
2.9150002 -0.73102325 0.47204867 0
2.9140003 -0.73528564 0.47202164 0
2.9130001 -0.73954439 0.47199458 0
2.9130001 -0.74407738 0.47199458 0
2.9120002 -0.74833077 0.47196752 0
2.9120002 -0.75286192 0.47196752 0
2.9110003 -0.75710994 0.47194046 0
2.9100003 -0.76135433 0.4719134 0
2.9100003 -0.76588184 0.4719134 0
2.9090002 -0.77012074 0.47188634 0
2.9090002 -0.77464652 0.47188634 0
2.9080002 -0.77888006 0.47185928 0
2.9080002 -0.78340399 0.47185928 0
2.9070003 -0.78763217 0.47183222 0
2.9060001 -0.79185665 0.47180516 0
2.9060001 -0.796377 0.47180516 0
2.6240003 -0.75606555 0.46417505 0
2.6150002 -0.75718749 0.46393156 0
2.6090002 -0.75924563 0.4637692 0
2.6040001 -0.76160675 0.46363392 0
2.6000001 -0.76427644 0.46352568 0
2.5960002 -0.76693165 0.46341747 0
2.5930002 -0.76990247 0.46333629 0
2.5900002 -0.77286255 0.46325511 0
2.5870001 -0.77581179 0.46317393 0
2.5850003 -0.77908576 0.46311983 0
2.5830002 -0.78235239 0.46306571 0
2.5820003 -0.78595102 0.46303865 0
2.5800002 -0.78920507 0.46298453 0
2.5790002 -0.7927947 0.4629575 0
2.5780003 -0.7963807 0.46293044 0
2.5770001 -0.79996294 0.46290338 0
2.5770001 -0.80388987 0.46290338 0
2.5770001 -0.80781674 0.46290338 0
2.5780003 -0.81209546 0.46293044 0
2.5780003 -0.81602412 0.46293044 0
2.5790002 -0.82030815 0.4629575 0
2.5810001 -0.8249529 0.46301159 0
2.5830002 -0.82960498 0.46306571 0
2.5860002 -0.83462495 0.4631469 0
2.5910003 -0.84038097 0.46328217 0
2.6000001 -0.84761238 0.46352568 0
3.1680002 -0.55028707 0.47390118 0
3.1510003 -0.55215222 0.47347188 0
3.1500003 -0.55692869 0.47344664 0
3.1490002 -0.56170154 0.47342137 0
3.1490002 -0.56666023 0.47342137 0
3.1480002 -0.5714277 0.47339612 0
3.1470003 -0.57619154 0.47337088 0
3.1470003 -0.58114666 0.47337088 0
2.6520002 -0.50908804 0.46087047 0
2.6430001 -0.51128328 0.4606432 0
2.6370001 -0.51407379 0.46049169 0
2.6320002 -0.51705366 0.46036541 0
2.6280003 -0.52022839 0.46026438 0
2.6250002 -0.52360332 0.46018863 0
2.6220002 -0.52696741 0.46011287 0
2.6190002 -0.5303207 0.46003711 0
2.6170001 -0.53388321 0.45998663 0
2.6150002 -0.53743851 0.45993611 0
2.6140001 -0.54121029 0.45991084 0
2.6120002 -0.54475302 0.45986035 0
2.6120002 -0.54874301 0.45986035 0
2.6110003 -0.55250394 0.45983511 0
2.6110003 -0.55649221 0.45983511 0
2.6110003 -0.56048042 0.45983511 0
2.6110003 -0.56446862 0.45983511 0
2.6120002 -0.5686931 0.45986035 0
2.6130002 -0.57292122 0.4598856 0
2.6140001 -0.57715297 0.45991084 0
2.6170001 -0.58187175 0.45998663 0
2.6190002 -0.58635777 0.46003711 0
2.6230001 -0.59134173 0.46013814 0
2.6290002 -0.59683436 0.46028966 0
2.6410003 -0.60384214 0.46059269 0
2.9220002 -0.67833942 0.46768886 0
2.9210002 -0.68263608 0.46766362 0
2.9210002 -0.6871835 0.46766362 0
2.9200003 -0.69147474 0.46763837 0
2.9190001 -0.6957624 0.4676131 0
2.9190001 -0.70030618 0.4676131 0
2.9180002 -0.70458841 0.46758786 0
2.9180002 -0.70913041 0.46758786 0
2.9170003 -0.71340728 0.46756262 0
2.9160001 -0.71768045 0.46753734 0
2.9160001 -0.72221881 0.46753734 0
2.9150002 -0.72648668 0.4675121 0
2.9150002 -0.73102325 0.4675121 0
2.9140003 -0.73528564 0.46748686 0
2.9130001 -0.73954439 0.46746159 0
2.9130001 -0.74407738 0.46746159 0
2.9120002 -0.74833077 0.46743634 0
2.9120002 -0.75286192 0.46743634 0
2.9110003 -0.75710994 0.4674111 0
2.9100003 -0.76135433 0.46738583 0
2.9100003 -0.76588184 0.46738583 0
2.9090002 -0.77012074 0.46736059 0
2.9090002 -0.77464652 0.46736059 0
2.9080002 -0.77888006 0.46733534 0
2.9080002 -0.78340399 0.46733534 0
2.9070003 -0.78763217 0.46731007 0
2.9060001 -0.79185665 0.46728483 0
2.9060001 -0.796377 0.46728483 0
2.6240003 -0.75606555 0.46016338 0
2.6150002 -0.75718749 0.45993611 0
2.6090002 -0.75924563 0.4597846 0
2.6040001 -0.76160675 0.45965832 0
2.6000001 -0.76427644 0.45955729 0
2.5960002 -0.76693165 0.45945629 0
2.5930002 -0.76990247 0.45938054 0
2.5900002 -0.77286255 0.45930478 0
2.5870001 -0.77581179 0.45922902 0
2.5850003 -0.77908576 0.45917851 0
2.5830002 -0.78235239 0.45912799 0
2.5820003 -0.78595102 0.45910275 0
2.5800002 -0.78920507 0.45905223 0
2.5790002 -0.7927947 0.45902699 0
2.5780003 -0.7963807 0.45900172 0
2.5770001 -0.79996294 0.45897648 0
2.5770001 -0.80388987 0.45897648 0
2.5770001 -0.80781674 0.45897648 0
2.5780003 -0.81209546 0.45900172 0
2.5780003 -0.81602412 0.45900172 0
2.5790002 -0.82030815 0.45902699 0
2.5810001 -0.8249529 0.45907748 0
2.5830002 -0.82960498 0.45912799 0
2.5860002 -0.83462495 0.45920375 0
2.5910003 -0.84038097 0.45933002 0
2.6000001 -0.84761238 0.45955729 0
3.1680002 -0.55028707 0.46890825 0
3.1510003 -0.55215222 0.46850961 0
3.1500003 -0.55692869 0.46848616 0
3.1490002 -0.56170154 0.46846271 0
3.1490002 -0.56666023 0.46846271 0
3.1480002 -0.5714277 0.46843925 0
3.1470003 -0.57619154 0.4684158 0
3.1470003 -0.58114666 0.4684158 0
2.6520002 -0.50908804 0.4568083 0
2.6430001 -0.51128328 0.45659727 0
2.6370001 -0.51407379 0.45645654 0
2.6320002 -0.51705366 0.4563393 0
2.6280003 -0.52022839 0.45624551 0
2.6250002 -0.52360332 0.45617518 0
2.6220002 -0.52696741 0.45610482 0
2.6190002 -0.5303207 0.45603448 0
2.6170001 -0.53388321 0.45598757 0
2.6150002 -0.53743851 0.45594066 0
2.6140001 -0.54121029 0.45591721 0
2.6120002 -0.54475302 0.45587033 0
2.6120002 -0.54874301 0.45587033 0
2.6110003 -0.55250394 0.45584688 0
2.6110003 -0.55649221 0.45584688 0
2.6110003 -0.56048042 0.45584688 0
2.6110003 -0.56446862 0.45584688 0
2.6120002 -0.5686931 0.45587033 0
2.6130002 -0.57292122 0.45589378 0
2.6140001 -0.57715297 0.45591721 0
2.6170001 -0.58187175 0.45598757 0
2.6190002 -0.58635777 0.45603448 0
2.6230001 -0.59134173 0.45612827 0
2.6290002 -0.59683436 0.45626897 0
2.6410003 -0.60384214 0.45655036 0
2.9220002 -0.67833942 0.46313965 0
2.9210002 -0.68263608 0.46311623 0
2.9210002 -0.6871835 0.46311623 0
2.9200003 -0.69147474 0.46309277 0
2.9190001 -0.6957624 0.46306932 0
2.9190001 -0.70030618 0.46306932 0
2.9180002 -0.70458841 0.46304587 0
2.9180002 -0.70913041 0.46304587 0
2.9170003 -0.71340728 0.46302241 0
2.9160001 -0.71768045 0.46299899 0
2.9160001 -0.72221881 0.46299899 0
2.9150002 -0.72648668 0.46297553 0
2.9150002 -0.73102325 0.46297553 0
2.9140003 -0.73528564 0.46295208 0
2.9130001 -0.73954439 0.46292862 0
2.9130001 -0.74407738 0.46292862 0
2.9120002 -0.74833077 0.46290517 0
2.9120002 -0.75286192 0.46290517 0
2.9110003 -0.75710994 0.46288171 0
2.9100003 -0.76135433 0.46285829 0
2.9100003 -0.76588184 0.46285829 0
2.9090002 -0.77012074 0.46283484 0
2.9090002 -0.77464652 0.46283484 0
2.9080002 -0.77888006 0.46281138 0
2.9080002 -0.78340399 0.46281138 0
2.9070003 -0.78763217 0.46278793 0
2.9060001 -0.79185665 0.46276447 0
2.9060001 -0.796377 0.46276447 0
2.8800001 -0.79306519 0.46215481 0
2.6240003 -0.75606555 0.45615172 0
2.6150002 -0.75718749 0.45594066 0
2.6090002 -0.75924563 0.45579997 0
2.6040001 -0.76160675 0.45568272 0
2.6000001 -0.76427644 0.45558894 0
2.5960002 -0.76693165 0.45549512 0
2.5930002 -0.76990247 0.45542479 0
2.5900002 -0.77286255 0.45535442 0
2.5870001 -0.77581179 0.45528409 0
2.5850003 -0.77908576 0.45523718 0
2.5830002 -0.78235239 0.4551903 0
2.5820003 -0.78595102 0.45516685 0
2.5800002 -0.78920507 0.45511994 0
2.5790002 -0.7927947 0.45509648 0
2.5780003 -0.7963807 0.45507306 0
2.5770001 -0.79996294 0.45504957 0
2.5770001 -0.80388987 0.45504957 0
2.5770001 -0.80781674 0.45504957 0
2.5780003 -0.81209546 0.45507306 0
2.5780003 -0.81602412 0.45507306 0
2.5790002 -0.82030815 0.45509648 0
2.5810001 -0.8249529 0.45514339 0
2.5830002 -0.82960498 0.4551903 0
2.5860002 -0.83462495 0.45526063 0
2.5910003 -0.84038097 0.45537788 0
2.6000001 -0.84761238 0.45558894 0
3.1680002 -0.55028707 0.46391532 0
3.1510003 -0.55215222 0.46354732 0
3.1500003 -0.55692869 0.46352568 0
3.1490002 -0.56170154 0.46350405 0
3.1490002 -0.56666023 0.46350405 0
3.1480002 -0.5714277 0.46348238 0
3.1470003 -0.57619154 0.46346074 0
3.1470003 -0.58114666 0.46346074 0
2.6520002 -0.50908804 0.45274612 0
2.6430001 -0.51128328 0.45255131 0
2.6370001 -0.51407379 0.45242143 0
2.6320002 -0.51705366 0.45231321 0
2.6280003 -0.52022839 0.45222664 0
2.6250002 -0.52360332 0.4521617 0
2.6220002 -0.52696741 0.45209676 0
2.6190002 -0.5303207 0.45203182 0
2.6170001 -0.53388321 0.45198852 0
2.6150002 -0.53743851 0.45194525 0
2.6140001 -0.54121029 0.45192358 0
2.6120002 -0.54475302 0.45188031 0
2.6120002 -0.54874301 0.45188031 0
2.6110003 -0.55250394 0.45185864 0
2.6110003 -0.55649221 0.45185864 0
2.6110003 -0.56048042 0.45185864 0
2.6110003 -0.56446862 0.45185864 0
2.6120002 -0.5686931 0.45188031 0
2.6130002 -0.57292122 0.45190194 0
2.6140001 -0.57715297 0.45192358 0
2.6170001 -0.58187175 0.45198852 0
2.6190002 -0.58635777 0.45203182 0
2.6230001 -0.59134173 0.4521184 0
2.6290002 -0.59683436 0.45224828 0
2.6410003 -0.60384214 0.45250803 0
2.9220002 -0.67833942 0.45859045 0
2.9210002 -0.68263608 0.45856881 0
2.9210002 -0.6871835 0.45856881 0
2.9200003 -0.69147474 0.45854717 0
2.9190001 -0.6957624 0.45852554 0
2.9190001 -0.70030618 0.45852554 0
2.9180002 -0.70458841 0.45850387 0
2.9180002 -0.70913041 0.45850387 0
2.9170003 -0.71340728 0.45848224 0
2.9160001 -0.71768045 0.4584606 0
2.9160001 -0.72221881 0.4584606 0
2.9150002 -0.72648668 0.45843893 0
2.9150002 -0.73102325 0.45843893 0
2.9140003 -0.73528564 0.4584173 0
2.9130001 -0.73954439 0.45839566 0
2.9130001 -0.74407738 0.45839566 0
2.9120002 -0.74833077 0.45837402 0
2.9120002 -0.75286192 0.45837402 0
2.9110003 -0.75710994 0.45835236 0
2.9100003 -0.76135433 0.45833072 0
2.9100003 -0.76588184 0.45833072 0
2.9090002 -0.77012074 0.45830908 0
2.9090002 -0.77464652 0.45830908 0
2.9080002 -0.77888006 0.45828742 0
2.9080002 -0.78340399 0.45828742 0
2.9070003 -0.78763217 0.45826578 0
2.9060001 -0.79185665 0.45824414 0
2.9060001 -0.796377 0.45824414 0
2.9050002 -0.80059612 0.45822248 0
2.6240003 -0.75606555 0.45214006 0
2.6150002 -0.75718749 0.45194525 0
2.6090002 -0.75924563 0.45181537 0
2.6040001 -0.76160675 0.45170712 0
2.6000001 -0.76427644 0.45162055 0
2.5960002 -0.76693165 0.45153397 0
2.5930002 -0.76990247 0.45146903 0
2.5900002 -0.77286255 0.45140409 0
2.5870001 -0.77581179 0.45133916 0
2.5850003 -0.77908576 0.45129585 0
2.5830002 -0.78235239 0.45125258 0
2.5820003 -0.78595102 0.45123094 0
2.5800002 -0.78920507 0.45118764 0
2.5790002 -0.7927947 0.451166 0
2.5780003 -0.7963807 0.45114434 0
2.5770001 -0.79996294 0.4511227 0
2.5770001 -0.80388987 0.4511227 0
2.5770001 -0.80781674 0.4511227 0
2.5780003 -0.81209546 0.45114434 0
2.5780003 -0.81602412 0.45114434 0
2.5790002 -0.82030815 0.451166 0
2.5810001 -0.8249529 0.45120928 0
2.5830002 -0.82960498 0.45125258 0
2.5860002 -0.83462495 0.45131752 0
2.5910003 -0.84038097 0.45142573 0
2.6000001 -0.84761238 0.45162055 0
3.1680002 -0.55028707 0.45892236 0
3.1510003 -0.55215222 0.45858505 0
3.1500003 -0.55692869 0.45856521 0
3.1490002 -0.56170154 0.45854536 0
3.1490002 -0.56666023 0.45854536 0
3.1480002 -0.5714277 0.45852554 0
3.1470003 -0.57619154 0.45850569 0
3.1470003 -0.58114666 0.45850569 0
2.6520002 -0.50908804 0.44868395 0
2.6430001 -0.51128328 0.44850537 0
2.6370001 -0.51407379 0.44838631 0
2.6320002 -0.51705366 0.44828713 0
2.6280003 -0.52022839 0.44820774 0
2.6250002 -0.52360332 0.44814822 0
2.6220002 -0.52696741 0.44808871 0
2.6190002 -0.5303207 0.44802916 0
2.6170001 -0.53388321 0.44798949 0
2.6150002 -0.53743851 0.4479498 0
2.6140001 -0.54121029 0.44792995 0
2.6120002 -0.54475302 0.44789028 0
2.6120002 -0.54874301 0.44789028 0
2.6110003 -0.55250394 0.44787043 0
2.6110003 -0.55649221 0.44787043 0
2.6110003 -0.56048042 0.44787043 0
2.6110003 -0.56446862 0.44787043 0
2.6120002 -0.5686931 0.44789028 0
2.6130002 -0.57292122 0.44791013 0
2.6140001 -0.57715297 0.44792995 0
2.6170001 -0.58187175 0.44798949 0
2.6190002 -0.58635777 0.44802916 0
2.6230001 -0.59134173 0.44810852 0
2.6290002 -0.59683436 0.44822758 0
2.6410003 -0.60384214 0.4484657 0
2.9220002 -0.67833942 0.45404127 0
2.9210002 -0.68263608 0.45402142 0
2.9210002 -0.6871835 0.45402142 0
2.9200003 -0.69147474 0.45400158 0
2.9190001 -0.6957624 0.45398173 0
2.9190001 -0.70030618 0.45398173 0
2.9180002 -0.70458841 0.45396191 0
2.9180002 -0.70913041 0.45396191 0
2.9170003 -0.71340728 0.45394206 0
2.9160001 -0.71768045 0.45392221 0
2.9160001 -0.72221881 0.45392221 0
2.9150002 -0.72648668 0.45390236 0
2.9150002 -0.73102325 0.45390236 0
2.9140003 -0.73528564 0.45388252 0
2.9130001 -0.73954439 0.45386267 0
2.9130001 -0.74407738 0.45386267 0
2.9120002 -0.74833077 0.45384285 0
2.9120002 -0.75286192 0.45384285 0
2.9110003 -0.75710994 0.453823 0
2.9100003 -0.76135433 0.45380315 0
2.9100003 -0.76588184 0.45380315 0
2.9090002 -0.77012074 0.45378333 0
2.9090002 -0.77464652 0.45378333 0
2.9080002 -0.77888006 0.45376348 0
2.9080002 -0.78340399 0.45376348 0
2.9070003 -0.78763217 0.45374364 0
2.9060001 -0.79185665 0.45372379 0
2.9060001 -0.796377 0.45372379 0
2.9050002 -0.80059612 0.45370394 0
2.9050002 -0.80511469 0.45370394 0
2.6240003 -0.75606555 0.44812837 0
2.6150002 -0.75718749 0.4479498 0
2.6090002 -0.75924563 0.44783074 0
2.6040001 -0.76160675 0.44773155 0
2.6000001 -0.76427644 0.44765216 0
2.5960002 -0.76693165 0.4475728 0
2.5930002 -0.76990247 0.44751328 0
2.5900002 -0.77286255 0.44745374 0
2.5870001 -0.77581179 0.44739422 0
2.5850003 -0.77908576 0.44735456 0
2.5830002 -0.78235239 0.44731486 0
2.5820003 -0.78595102 0.44729501 0
2.5800002 -0.78920507 0.44725534 0
2.5790002 -0.7927947 0.44723549 0
2.5780003 -0.7963807 0.44721565 0
2.5770001 -0.79996294 0.4471958 0
2.5770001 -0.80388987 0.4471958 0
2.5770001 -0.80781674 0.4471958 0
2.5780003 -0.81209546 0.44721565 0
2.5780003 -0.81602412 0.44721565 0
2.5790002 -0.82030815 0.44723549 0
2.5810001 -0.8249529 0.44727516 0
2.5830002 -0.82960498 0.44731486 0
2.5860002 -0.83462495 0.4473744 0
2.5910003 -0.84038097 0.44747359 0
2.6000001 -0.84761238 0.44765216 0
3.1680002 -0.55028707 0.45392942 0
3.1510003 -0.55215222 0.45362279 0
3.1500003 -0.55692869 0.45360476 0
3.1490002 -0.56170154 0.4535867 0
3.1490002 -0.56666023 0.4535867 0
3.1480002 -0.5714277 0.45356867 0
3.1470003 -0.57619154 0.45355064 0
3.1470003 -0.58114666 0.45355064 0
2.6520002 -0.50908804 0.44462177 0
2.6430001 -0.51128328 0.44445944 0
2.6370001 -0.51407379 0.4443512 0
2.6320002 -0.51705366 0.44426101 0
2.6280003 -0.52022839 0.44418886 0
2.6250002 -0.52360332 0.44413474 0
2.6220002 -0.52696741 0.44408062 0
2.6190002 -0.5303207 0.44402653 0
2.6170001 -0.53388321 0.44399044 0
2.6150002 -0.53743851 0.44395438 0
2.6140001 -0.54121029 0.44393632 0
2.6120002 -0.54475302 0.44390026 0
2.6120002 -0.54874301 0.44390026 0
2.6110003 -0.55250394 0.44388223 0
2.6110003 -0.55649221 0.44388223 0
2.6110003 -0.56048042 0.44388223 0
2.6110003 -0.56446862 0.44388223 0
2.6120002 -0.5686931 0.44390026 0
2.6130002 -0.57292122 0.44391829 0
2.6140001 -0.57715297 0.44393632 0
2.6170001 -0.58187175 0.44399044 0
2.6190002 -0.58635777 0.44402653 0
2.6230001 -0.59134173 0.44409868 0
2.6290002 -0.59683436 0.44420689 0
2.6410003 -0.60384214 0.44442335 0
2.9220002 -0.67833942 0.44949207 0
2.9210002 -0.68263608 0.44947401 0
2.9210002 -0.6871835 0.44947401 0
2.9200003 -0.69147474 0.44945598 0
2.9190001 -0.6957624 0.44943795 0
2.9190001 -0.70030618 0.44943795 0
2.9180002 -0.70458841 0.44941992 0
2.9180002 -0.70913041 0.44941992 0
2.9170003 -0.71340728 0.44940186 0
2.9160001 -0.71768045 0.44938383 0
2.9160001 -0.72221881 0.44938383 0
2.9150002 -0.72648668 0.44936579 0
2.9150002 -0.73102325 0.44936579 0
2.9140003 -0.73528564 0.44934776 0
2.9130001 -0.73954439 0.4493297 0
2.9130001 -0.74407738 0.4493297 0
2.9120002 -0.74833077 0.44931167 0
2.9120002 -0.75286192 0.44931167 0
2.9110003 -0.75710994 0.44929364 0
2.9100003 -0.76135433 0.44927561 0
2.9100003 -0.76588184 0.44927561 0
2.9090002 -0.77012074 0.44925755 0
2.9090002 -0.77464652 0.44925755 0
2.9080002 -0.77888006 0.44923952 0
2.9080002 -0.78340399 0.44923952 0
2.9070003 -0.78763217 0.44922149 0
2.9060001 -0.79185665 0.44920346 0
2.9060001 -0.796377 0.44920346 0
2.9050002 -0.80059612 0.4491854 0
2.9050002 -0.80511469 0.4491854 0
2.6240003 -0.75606555 0.44411671 0
2.6150002 -0.75718749 0.44395438 0
2.6090002 -0.75924563 0.44384614 0
2.6040001 -0.76160675 0.44375595 0
2.6000001 -0.76427644 0.4436838 0
2.5960002 -0.76693165 0.44361165 0
2.5930002 -0.76990247 0.44355753 0
2.5900002 -0.77286255 0.44350341 0
2.5870001 -0.77581179 0.44344929 0
2.5850003 -0.77908576 0.44341323 0
2.5830002 -0.78235239 0.44337714 0
2.5820003 -0.78595102 0.44335911 0
2.5800002 -0.78920507 0.44332305 0
2.5790002 -0.7927947 0.44330499 0
2.5780003 -0.7963807 0.44328696 0
2.5770001 -0.79996294 0.44326892 0
2.5770001 -0.80388987 0.44326892 0
2.5770001 -0.80781674 0.44326892 0
2.5780003 -0.81209546 0.44328696 0
2.5780003 -0.81602412 0.44328696 0
2.5790002 -0.82030815 0.44330499 0
2.5810001 -0.8249529 0.44334108 0
2.5830002 -0.82960498 0.44337714 0
2.5860002 -0.83462495 0.44343126 0
2.5910003 -0.84038097 0.44352144 0
2.6000001 -0.84761238 0.4436838 0
3.1680002 -0.55028707 0.44893649 0
3.1510003 -0.55215222 0.44866049 0
3.1500003 -0.55692869 0.44864428 0
3.1490002 -0.56170154 0.44862804 0
3.1490002 -0.56666023 0.44862804 0
3.1480002 -0.5714277 0.4486118 0
3.1470003 -0.57619154 0.44859555 0
3.1470003 -0.58114666 0.44859555 0
2.6520002 -0.50908804 0.4405596 0
2.6430001 -0.51128328 0.44041348 0
2.6370001 -0.51407379 0.44031608 0
2.6320002 -0.51705366 0.4402349 0
2.6280003 -0.52022839 0.44016999 0
2.6250002 -0.52360332 0.44012126 0
2.6220002 -0.52696741 0.44007257 0
2.6190002 -0.5303207 0.44002387 0
2.6170001 -0.53388321 0.43999138 0
2.6150002 -0.53743851 0.43995893 0
2.6140001 -0.54121029 0.43994269 0
2.6120002 -0.54475302 0.43991023 0
2.6120002 -0.54874301 0.43991023 0
2.6110003 -0.55250394 0.43989399 0
2.6110003 -0.55649221 0.43989399 0
2.6110003 -0.56048042 0.43989399 0
2.6110003 -0.56446862 0.43989399 0
2.6120002 -0.5686931 0.43991023 0
2.6130002 -0.57292122 0.43992645 0
2.6140001 -0.57715297 0.43994269 0
2.6170001 -0.58187175 0.43999138 0
2.6190002 -0.58635777 0.44002387 0
2.6230001 -0.59134173 0.44008881 0
2.6290002 -0.59683436 0.4401862 0
2.6410003 -0.60384214 0.44038102 0
2.9220002 -0.67833942 0.44494286 0
2.9210002 -0.68263608 0.44492662 0
2.9210002 -0.6871835 0.44492662 0
2.9200003 -0.69147474 0.44491038 0
2.9190001 -0.6957624 0.44489413 0
2.9190001 -0.70030618 0.44489413 0
2.9180002 -0.70458841 0.44487792 0
2.9180002 -0.70913041 0.44487792 0
2.9170003 -0.71340728 0.44486168 0
2.9160001 -0.71768045 0.44484544 0
2.9160001 -0.72221881 0.44484544 0
2.9150002 -0.72648668 0.44482923 0
2.9150002 -0.73102325 0.44482923 0
2.9140003 -0.73528564 0.44481298 0
2.9130001 -0.73954439 0.44479674 0
2.9130001 -0.74407738 0.44479674 0
2.9120002 -0.74833077 0.4447805 0
2.9120002 -0.75286192 0.4447805 0
2.9110003 -0.75710994 0.44476429 0
2.9100003 -0.76135433 0.44474804 0
2.9100003 -0.76588184 0.44474804 0
2.9090002 -0.77012074 0.4447318 0
2.9090002 -0.77464652 0.4447318 0
2.9080002 -0.77888006 0.44471556 0
2.9080002 -0.78340399 0.44471556 0
2.9070003 -0.78763217 0.44469935 0
2.9060001 -0.79185665 0.4446831 0
2.9060001 -0.796377 0.4446831 0
2.9050002 -0.80059612 0.44466686 0
2.9050002 -0.80511469 0.44466686 0
2.9040003 -0.80932838 0.44465065 0
2.6240003 -0.75606555 0.44010505 0
2.6150002 -0.75718749 0.43995893 0
2.6090002 -0.75924563 0.43986154 0
2.6040001 -0.76160675 0.43978035 0
2.6000001 -0.76427644 0.43971542 0
2.5960002 -0.76693165 0.43965048 0
2.5930002 -0.76990247 0.43960178 0
2.5900002 -0.77286255 0.43955308 0
2.5870001 -0.77581179 0.43950438 0
2.5850003 -0.77908576 0.4394719 0
2.5830002 -0.78235239 0.43943945 0
2.5820003 -0.78595102 0.4394232 0
2.5800002 -0.78920507 0.43939072 0
2.5790002 -0.7927947 0.43937451 0
2.5780003 -0.7963807 0.43935826 0
2.5770001 -0.79996294 0.43934202 0
2.5770001 -0.80388987 0.43934202 0
2.5770001 -0.80781674 0.43934202 0
2.5780003 -0.81209546 0.43935826 0
2.5780003 -0.81602412 0.43935826 0
2.5790002 -0.82030815 0.43937451 0
2.5810001 -0.8249529 0.43940696 0
2.5830002 -0.82960498 0.43943945 0
2.5860002 -0.83462495 0.43948814 0
2.5910003 -0.84038097 0.43956929 0
2.6000001 -0.84761238 0.43971542 0
3.1680002 -0.55028707 0.44394356 0
3.1510003 -0.55215222 0.44369823 0
3.1500003 -0.55692869 0.4436838 0
3.1490002 -0.56170154 0.44366938 0
3.1490002 -0.56666023 0.44366938 0
3.1480002 -0.5714277 0.44365492 0
3.1470003 -0.57619154 0.4436405 0
3.1470003 -0.58114666 0.4436405 0
2.6520002 -0.50908804 0.43649742 0
2.6430001 -0.51128328 0.43636754 0
2.6370001 -0.51407379 0.43628097 0
2.6320002 -0.51705366 0.43620881 0
2.6280003 -0.52022839 0.43615109 0
2.6250002 -0.52360332 0.43610781 0
2.6220002 -0.52696741 0.43606451 0
2.6190002 -0.5303207 0.43602121 0
2.6170001 -0.53388321 0.43599236 0
2.6150002 -0.53743851 0.43596351 0
2.6140001 -0.54121029 0.43594906 0
2.6120002 -0.54475302 0.43592021 0
2.6120002 -0.54874301 0.43592021 0
2.6110003 -0.55250394 0.43590578 0
2.6110003 -0.55649221 0.43590578 0
2.6110003 -0.56048042 0.43590578 0
2.6110003 -0.56446862 0.43590578 0
2.6120002 -0.5686931 0.43592021 0
2.6130002 -0.57292122 0.43593463 0
2.6140001 -0.57715297 0.43594906 0
2.6170001 -0.58187175 0.43599236 0
2.6190002 -0.58635777 0.43602121 0
2.6230001 -0.59134173 0.43607894 0
2.6290002 -0.59683436 0.43616551 0
2.6410003 -0.60384214 0.43633869 0
2.9220002 -0.67833942 0.44039366 0
2.9210002 -0.68263608 0.4403792 0
2.9210002 -0.6871835 0.4403792 0
2.9200003 -0.69147474 0.44036478 0
2.9190001 -0.6957624 0.44035035 0
2.9190001 -0.70030618 0.44035035 0
2.9180002 -0.70458841 0.44033593 0
2.9180002 -0.70913041 0.44033593 0
2.9170003 -0.71340728 0.44032151 0
2.9160001 -0.71768045 0.44030708 0
2.9160001 -0.72221881 0.44030708 0
2.9150002 -0.72648668 0.44029263 0
2.9150002 -0.73102325 0.44029263 0
2.9140003 -0.73528564 0.4402782 0
2.9130001 -0.73954439 0.44026378 0
2.9130001 -0.74407738 0.44026378 0
2.9120002 -0.74833077 0.44024935 0
2.9120002 -0.75286192 0.44024935 0
2.9110003 -0.75710994 0.4402349 0
2.9100003 -0.76135433 0.44022048 0
2.9100003 -0.76588184 0.44022048 0
2.9090002 -0.77012074 0.44020605 0
2.9090002 -0.77464652 0.44020605 0
2.9080002 -0.77888006 0.44019163 0
2.9080002 -0.78340399 0.44019163 0
2.9070003 -0.78763217 0.4401772 0
2.9060001 -0.79185665 0.44016275 0
2.9060001 -0.796377 0.44016275 0
2.9050002 -0.80059612 0.44014832 0
2.9050002 -0.80511469 0.44014832 0
2.9040003 -0.80932838 0.4401339 0
2.9030001 -0.81353843 0.44011948 0
2.9030001 -0.81805336 0.44011948 0
2.6240003 -0.75606555 0.43609336 0
2.6150002 -0.75718749 0.43596351 0
2.6090002 -0.75924563 0.43587691 0
2.6040001 -0.76160675 0.43580475 0
2.6000001 -0.76427644 0.43574703 0
2.5960002 -0.76693165 0.43568933 0
2.5930002 -0.76990247 0.43564603 0
2.5900002 -0.77286255 0.43560272 0
2.5870001 -0.77581179 0.43555945 0
2.5850003 -0.77908576 0.43553057 0
2.5830002 -0.78235239 0.43550172 0
2.5820003 -0.78595102 0.4354873 0
2.5800002 -0.78920507 0.43545842 0
2.5790002 -0.7927947 0.435444 0
2.5780003 -0.7963807 0.43542957 0
2.5770001 -0.79996294 0.43541515 0
2.5770001 -0.80388987 0.43541515 0
2.5770001 -0.80781674 0.43541515 0
2.5780003 -0.81209546 0.43542957 0
2.5780003 -0.81602412 0.43542957 0
2.5790002 -0.82030815 0.435444 0
2.5810001 -0.8249529 0.43547285 0
2.5830002 -0.82960498 0.43550172 0
2.5860002 -0.83462495 0.43554503 0
2.5910003 -0.84038097 0.43561718 0
2.6000001 -0.84761238 0.43574703 0
3.1510003 -0.55215222 0.43873596 0
3.1500003 -0.55692869 0.43872333 0
3.1490002 -0.56170154 0.43871069 0
3.1490002 -0.56666023 0.43871069 0
3.1480002 -0.5714277 0.43869805 0
3.1470003 -0.57619154 0.43868545 0
3.1470003 -0.58114666 0.43868545 0
2.6520002 -0.50908804 0.43243524 0
2.6430001 -0.51128328 0.43232161 0
2.6370001 -0.51407379 0.43224585 0
2.6320002 -0.51705366 0.43218273 0
2.6280003 -0.52022839 0.43213221 0
2.6250002 -0.52360332 0.43209434 0
2.6220002 -0.52696741 0.43205646 0
2.6190002 -0.5303207 0.43201858 0
2.6170001 -0.53388321 0.43199331 0
2.6150002 -0.53743851 0.43196806 0
2.6140001 -0.54121029 0.43195543 0
2.6120002 -0.54475302 0.43193018 0
2.6120002 -0.54874301 0.43193018 0
2.6110003 -0.55250394 0.43191755 0
2.6110003 -0.55649221 0.43191755 0
2.6110003 -0.56048042 0.43191755 0
2.6110003 -0.56446862 0.43191755 0
2.6120002 -0.5686931 0.43193018 0
2.6130002 -0.57292122 0.43194282 0
2.6140001 -0.57715297 0.43195543 0
2.6170001 -0.58187175 0.43199331 0
2.6190002 -0.58635777 0.43201858 0
2.6230001 -0.59134173 0.43206906 0
2.6290002 -0.59683436 0.43214482 0
2.6410003 -0.60384214 0.43229637 0
2.9220002 -0.67833942 0.43584445 0
2.9210002 -0.68263608 0.43583182 0
2.9210002 -0.6871835 0.43583182 0
2.9200003 -0.69147474 0.43581921 0
2.9190001 -0.6957624 0.43580657 0
2.9190001 -0.70030618 0.43580657 0
2.9180002 -0.70458841 0.43579394 0
2.9180002 -0.70913041 0.43579394 0
2.9170003 -0.71340728 0.4357813 0
2.9160001 -0.71768045 0.43576869 0
2.9160001 -0.72221881 0.43576869 0
2.9150002 -0.72648668 0.43575606 0
2.9150002 -0.73102325 0.43575606 0
2.9140003 -0.73528564 0.43574342 0
2.9130001 -0.73954439 0.43573081 0
2.9130001 -0.74407738 0.43573081 0
2.9120002 -0.74833077 0.43571818 0
2.9120002 -0.75286192 0.43571818 0
2.9110003 -0.75710994 0.43570554 0
2.9100003 -0.76135433 0.43569294 0
2.9100003 -0.76588184 0.43569294 0
2.9090002 -0.77012074 0.4356803 0
2.9090002 -0.77464652 0.4356803 0
2.9080002 -0.77888006 0.43566766 0
2.9080002 -0.78340399 0.43566766 0
2.9070003 -0.78763217 0.43565506 0
2.9060001 -0.79185665 0.43564242 0
2.9060001 -0.796377 0.43564242 0
2.9050002 -0.80059612 0.43562979 0
2.9050002 -0.80511469 0.43562979 0
2.9040003 -0.80932838 0.43561718 0
2.9030001 -0.81353843 0.43560454 0
2.9030001 -0.81805336 0.43560454 0
2.6240003 -0.75606555 0.4320817 0
2.6150002 -0.75718749 0.43196806 0
2.6090002 -0.75924563 0.43189231 0
2.6040001 -0.76160675 0.43182915 0
2.6000001 -0.76427644 0.43177867 0
2.5960002 -0.76693165 0.43172815 0
2.5930002 -0.76990247 0.43169028 0
2.5900002 -0.77286255 0.4316524 0
2.5870001 -0.77581179 0.43161452 0
2.5850003 -0.77908576 0.43158925 0
2.5830002 -0.78235239 0.431564 0
2.5820003 -0.78595102 0.4315514 0
2.5800002 -0.78920507 0.43152612 0
2.5790002 -0.7927947 0.43151349 0
2.5780003 -0.7963807 0.43150088 0
2.5770001 -0.79996294 0.43148825 0
2.5770001 -0.80388987 0.43148825 0
2.5770001 -0.80781674 0.43148825 0
2.5780003 -0.81209546 0.43150088 0
2.5780003 -0.81602412 0.43150088 0
2.5790002 -0.82030815 0.43151349 0
2.5810001 -0.8249529 0.43153876 0
2.5830002 -0.82960498 0.431564 0
2.5860002 -0.83462495 0.43160188 0
2.5910003 -0.84038097 0.43166503 0
2.6000001 -0.84761238 0.43177867 0
3.1510003 -0.55215222 0.43377367 0
3.1500003 -0.55692869 0.43376285 0
3.1490002 -0.56170154 0.43375203 0
3.1490002 -0.56666023 0.43375203 0
3.1480002 -0.5714277 0.43374121 0
2.6520002 -0.50908804 0.42837307 0
2.6430001 -0.51128328 0.42827567 0
2.6370001 -0.51407379 0.42821074 0
2.6320002 -0.51705366 0.42815661 0
2.6280003 -0.52022839 0.42811331 0
2.6250002 -0.52360332 0.42808086 0
2.6220002 -0.52696741 0.42804837 0
2.6190002 -0.5303207 0.42801592 0
2.6170001 -0.53388321 0.42799428 0
2.6150002 -0.53743851 0.42797261 0
2.6140001 -0.54121029 0.4279618 0
2.6120002 -0.54475302 0.42794016 0
2.6120002 -0.54874301 0.42794016 0
2.6110003 -0.55250394 0.42792934 0
2.6110003 -0.55649221 0.42792934 0
2.6110003 -0.56048042 0.42792934 0
2.6110003 -0.56446862 0.42792934 0
2.6120002 -0.5686931 0.42794016 0
2.6130002 -0.57292122 0.42795098 0
2.6140001 -0.57715297 0.4279618 0
2.6170001 -0.58187175 0.42799428 0
2.6190002 -0.58635777 0.42801592 0
2.6230001 -0.59134173 0.42805922 0
2.6290002 -0.59683436 0.42812413 0
2.6410003 -0.60384214 0.42825401 0
2.9220002 -0.67833942 0.43129525 0
2.9210002 -0.68263608 0.43128443 0
2.9210002 -0.6871835 0.43128443 0
2.9200003 -0.69147474 0.43127358 0
2.9190001 -0.6957624 0.43126276 0
2.9190001 -0.70030618 0.43126276 0
2.9180002 -0.70458841 0.43125194 0
2.9180002 -0.70913041 0.43125194 0
2.9170003 -0.71340728 0.43124112 0
2.9160001 -0.71768045 0.43123031 0
2.9160001 -0.72221881 0.43123031 0
2.9150002 -0.72648668 0.43121949 0
2.9150002 -0.73102325 0.43121949 0
2.9140003 -0.73528564 0.43120867 0
2.9130001 -0.73954439 0.43119782 0
2.9130001 -0.74407738 0.43119782 0
2.9120002 -0.74833077 0.431187 0
2.9120002 -0.75286192 0.431187 0
2.9110003 -0.75710994 0.43117619 0
2.9100003 -0.76135433 0.43116537 0
2.9100003 -0.76588184 0.43116537 0
2.9090002 -0.77012074 0.43115455 0
2.9090002 -0.77464652 0.43115455 0
2.9080002 -0.77888006 0.43114373 0
2.9080002 -0.78340399 0.43114373 0
2.9070003 -0.78763217 0.43113291 0
2.9060001 -0.79185665 0.43112206 0
2.9060001 -0.796377 0.43112206 0
2.9050002 -0.80059612 0.43111125 0
2.9050002 -0.80511469 0.43111125 0
2.9040003 -0.80932838 0.43110043 0
2.9030001 -0.81353843 0.43108961 0
2.6240003 -0.75606555 0.42807004 0
2.6150002 -0.75718749 0.42797261 0
2.6090002 -0.75924563 0.42790768 0
2.6040001 -0.76160675 0.42785358 0
2.6000001 -0.76427644 0.42781028 0
2.5960002 -0.76693165 0.42776698 0
2.5930002 -0.76990247 0.42773452 0
2.5900002 -0.77286255 0.42770207 0
2.5870001 -0.77581179 0.42766958 0
2.5850003 -0.77908576 0.42764795 0
2.5830002 -0.78235239 0.42762628 0
2.5820003 -0.78595102 0.42761546 0
2.5800002 -0.78920507 0.42759383 0
2.5790002 -0.7927947 0.42758301 0
2.5780003 -0.7963807 0.42757219 0
2.5770001 -0.79996294 0.42756134 0
2.5770001 -0.80388987 0.42756134 0
2.5770001 -0.80781674 0.42756134 0
2.5780003 -0.81209546 0.42757219 0
2.5780003 -0.81602412 0.42757219 0
2.5790002 -0.82030815 0.42758301 0
2.5810001 -0.8249529 0.42760465 0
2.5830002 -0.82960498 0.42762628 0
2.5860002 -0.83462495 0.42765877 0
2.5910003 -0.84038097 0.42771289 0
2.6000001 -0.84761238 0.42781028 0
3.1490002 -0.56170154 0.42879337 0
2.7940001 -0.50374156 0.42559159 0
2.7930002 -0.50786692 0.42558259 0
2.7930002 -0.51218337 0.42558259 0
2.7920003 -0.5163033 0.42557356 0
2.7920003 -0.52061802 0.42557356 0
2.7910001 -0.52473247 0.42556453 0
2.7900002 -0.5288434 0.42555553 0
2.7900002 -0.53315449 0.42555553 0
2.6520002 -0.50908804 0.42431089 0
2.6430001 -0.51128328 0.42422971 0
2.6370001 -0.51407379 0.42417562 0
2.6320002 -0.51705366 0.4241305 0
2.6280003 -0.52022839 0.42409444 0
2.6250002 -0.52360332 0.42406738 0
2.6220002 -0.52696741 0.42404032 0
2.6190002 -0.5303207 0.42401326 0
2.6170001 -0.53388321 0.42399523 0
2.6150002 -0.53743851 0.4239772 0
2.6140001 -0.54121029 0.42396817 0
2.6120002 -0.54475302 0.42395014 0
2.6120002 -0.54874301 0.42395014 0
2.6110003 -0.55250394 0.42394111 0
2.6110003 -0.55649221 0.42394111 0
2.6110003 -0.56048042 0.42394111 0
2.6110003 -0.56446862 0.42394111 0
2.6120002 -0.5686931 0.42395014 0
2.6130002 -0.57292122 0.42395917 0
2.6140001 -0.57715297 0.42396817 0
2.6170001 -0.58187175 0.42399523 0
2.6190002 -0.58635777 0.42401326 0
2.6230001 -0.59134173 0.42404935 0
2.6290002 -0.59683436 0.42410347 0
2.6410003 -0.60384214 0.42421168 0
2.7750001 -0.64148217 0.42542022 0
2.7750001 -0.6457662 0.42542022 0
2.7740002 -0.64979595 0.42541122 0
2.7740002 -0.65407819 0.42541122 0
2.7730002 -0.65810251 0.42540219 0
2.7730002 -0.66238296 0.42540219 0
2.7720003 -0.66640186 0.42539316 0
2.7710001 -0.67041707 0.42538416 0
2.7710001 -0.67469394 0.42538416 0
2.7700002 -0.67870378 0.42537513 0
2.7700002 -0.68297881 0.42537513 0
2.7690003 -0.68698329 0.42536613 0
2.7690003 -0.69125652 0.42536613 0
2.7680001 -0.69525552 0.4253571 0
2.7680001 -0.69952697 0.4253571 0
2.7670002 -0.70352054 0.42534807 0
2.7660003 -0.70751065 0.42533907 0
2.7660003 -0.71177846 0.42533907 0
2.7650001 -0.71576297 0.42533004 0
2.7650001 -0.720029 0.42533004 0
2.7640002 -0.7240082 0.42532104 0
2.7640002 -0.72827244 0.42532104 0
2.7630002 -0.73224622 0.42531201 0
2.7630002 -0.73650867 0.42531201 0
2.7620003 -0.74047703 0.42530298 0
2.7610002 -0.74444175 0.42529398 0
2.7610002 -0.7487005 0.42529398 0
2.7600002 -0.75265992 0.42528495 0
2.7600002 -0.75691694 0.42528495 0
2.7590003 -0.76087087 0.42527592 0
2.7590003 -0.76512605 0.42527592 0
2.7580001 -0.76907456 0.42526692 0
2.7580001 -0.77332795 0.42526692 0
2.7570002 -0.77727109 0.42525789 0
2.7560003 -0.78121066 0.42524886 0
2.7560003 -0.78546041 0.42524886 0
2.7550001 -0.78939444 0.42523986 0
2.7550001 -0.7936424 0.42523986 0
2.6240003 -0.75606555 0.42405838 0
2.6150002 -0.75718749 0.4239772 0
2.6090002 -0.75924563 0.42392308 0
2.6040001 -0.76160675 0.42387798 0
2.6000001 -0.76427644 0.42384189 0
2.5960002 -0.76693165 0.42380583 0
2.5930002 -0.76990247 0.42377877 0
2.5900002 -0.77286255 0.42375171 0
2.5870001 -0.77581179 0.42372465 0
2.5850003 -0.77908576 0.42370662 0
2.5830002 -0.78235239 0.42368859 0
2.5820003 -0.78595102 0.42367956 0
2.5800002 -0.78920507 0.42366153 0
2.5790002 -0.7927947 0.4236525 0
2.5780003 -0.7963807 0.4236435 0
2.5770001 -0.79996294 0.42363447 0
2.5770001 -0.80388987 0.42363447 0
2.5770001 -0.80781674 0.42363447 0
2.5780003 -0.81209546 0.4236435 0
2.5780003 -0.81602412 0.4236435 0
2.5790002 -0.82030815 0.4236525 0
2.5810001 -0.8249529 0.42367053 0
2.5830002 -0.82960498 0.42368859 0
2.5860002 -0.83462495 0.42371565 0
2.5910003 -0.84038097 0.42376074 0
2.6000001 -0.84761238 0.42384189 0
2.7940001 -0.50374156 0.42127329 0
2.7930002 -0.50786692 0.42126608 0
2.7930002 -0.51218337 0.42126608 0
2.7920003 -0.5163033 0.42125887 0
2.7920003 -0.52061802 0.42125887 0
2.7910001 -0.52473247 0.42125162 0
2.7900002 -0.5288434 0.42124441 0
2.7900002 -0.53315449 0.42124441 0
2.6520002 -0.50908804 0.42024872 0
2.6430001 -0.51128328 0.42018378 0
2.6370001 -0.51407379 0.4201405 0
2.6320002 -0.51705366 0.42010441 0
2.6280003 -0.52022839 0.42007557 0
2.6250002 -0.52360332 0.4200539 0
2.6220002 -0.52696741 0.42003226 0
2.6190002 -0.5303207 0.42001063 0
2.6170001 -0.53388321 0.41999617 0
2.6150002 -0.53743851 0.41998175 0
2.6140001 -0.54121029 0.41997454 0
2.6120002 -0.54475302 0.41996011 0
2.6120002 -0.54874301 0.41996011 0
2.6110003 -0.55250394 0.4199529 0
2.6110003 -0.55649221 0.4199529 0
2.6110003 -0.56048042 0.4199529 0
2.6110003 -0.56446862 0.4199529 0
2.6120002 -0.5686931 0.41996011 0
2.6130002 -0.57292122 0.41996732 0
2.6140001 -0.57715297 0.41997454 0
2.6170001 -0.58187175 0.41999617 0
2.6190002 -0.58635777 0.42001063 0
2.6230001 -0.59134173 0.42003947 0
2.6290002 -0.59683436 0.42008278 0
2.6410003 -0.60384214 0.42016935 0
2.7750001 -0.64148217 0.4211362 0
2.7750001 -0.6457662 0.4211362 0
2.7740002 -0.64979595 0.42112899 0
2.7740002 -0.65407819 0.42112899 0
2.7730002 -0.65810251 0.42112178 0
2.7730002 -0.66238296 0.42112178 0
2.7720003 -0.66640186 0.42111453 0
2.7710001 -0.67041707 0.42110732 0
2.7710001 -0.67469394 0.42110732 0
2.7700002 -0.67870378 0.42110011 0
2.7700002 -0.68297881 0.42110011 0
2.7690003 -0.68698329 0.4210929 0
2.7690003 -0.69125652 0.4210929 0
2.7680001 -0.69525552 0.42108569 0
2.7680001 -0.69952697 0.42108569 0
2.7670002 -0.70352054 0.42107847 0
2.7660003 -0.70751065 0.42107126 0
2.7660003 -0.71177846 0.42107126 0
2.7650001 -0.71576297 0.42106405 0
2.7650001 -0.720029 0.42106405 0
2.7640002 -0.7240082 0.42105684 0
2.7640002 -0.72827244 0.42105684 0
2.7630002 -0.73224622 0.42104959 0
2.7630002 -0.73650867 0.42104959 0
2.7620003 -0.74047703 0.42104238 0
2.7610002 -0.74444175 0.42103517 0
2.7610002 -0.7487005 0.42103517 0
2.7600002 -0.75265992 0.42102796 0
2.7600002 -0.75691694 0.42102796 0
2.7590003 -0.76087087 0.42102075 0
2.7590003 -0.76512605 0.42102075 0
2.7580001 -0.76907456 0.42101353 0
2.7580001 -0.77332795 0.42101353 0
2.7570002 -0.77727109 0.42100632 0
2.7560003 -0.78121066 0.42099911 0
2.7560003 -0.78546041 0.42099911 0
2.7550001 -0.78939444 0.4209919 0
2.7550001 -0.7936424 0.4209919 0
2.6240003 -0.75606555 0.42004669 0
2.6150002 -0.75718749 0.41998175 0
2.6090002 -0.75924563 0.41993847 0
2.6040001 -0.76160675 0.41990238 0
2.6000001 -0.76427644 0.41987354 0
2.5960002 -0.76693165 0.41984466 0
2.5930002 -0.76990247 0.41982302 0
2.5900002 -0.77286255 0.41980138 0
2.5870001 -0.77581179 0.41977972 0
2.5850003 -0.77908576 0.41976529 0
2.5830002 -0.78235239 0.41975087 0
2.5820003 -0.78595102 0.41974366 0
2.5800002 -0.78920507 0.41972923 0
2.5790002 -0.7927947 0.41972202 0
2.5780003 -0.7963807 0.41971478 0
2.5770001 -0.79996294 0.41970757 0
2.5770001 -0.80388987 0.41970757 0
2.5770001 -0.80781674 0.41970757 0
2.5780003 -0.81209546 0.41971478 0
2.5780003 -0.81602412 0.41971478 0
2.5790002 -0.82030815 0.41972202 0
2.5810001 -0.8249529 0.41973644 0
2.5830002 -0.82960498 0.41975087 0
2.5860002 -0.83462495 0.41977251 0
2.5910003 -0.84038097 0.4198086 0
2.6000001 -0.84761238 0.41987354 0
2.8100002 -0.50245363 0.41704154 0
2.7940001 -0.50374156 0.41695496 0
2.7930002 -0.50786692 0.41694954 0
2.7930002 -0.51218337 0.41694954 0
2.7920003 -0.5163033 0.41694415 0
2.7920003 -0.52061802 0.41694415 0
2.7910001 -0.52473247 0.41693872 0
2.7900002 -0.5288434 0.41693333 0
2.7900002 -0.53315449 0.41693333 0
2.6520002 -0.50908804 0.41618654 0
2.6430001 -0.51128328 0.41613784 0
2.6370001 -0.51407379 0.41610536 0
2.6320002 -0.51705366 0.4160783 0
2.6280003 -0.52022839 0.41605666 0
2.6250002 -0.52360332 0.41604042 0
2.6220002 -0.52696741 0.41602421 0
2.6190002 -0.5303207 0.41600797 0
2.6170001 -0.53388321 0.41599715 0
2.6150002 -0.53743851 0.41598633 0
2.6140001 -0.54121029 0.41598091 0
2.6120002 -0.54475302 0.41597009 0
2.6120002 -0.54874301 0.41597009 0
2.6110003 -0.55250394 0.41596466 0
2.6110003 -0.55649221 0.41596466 0
2.6110003 -0.56048042 0.41596466 0
2.6110003 -0.56446862 0.41596466 0
2.6120002 -0.5686931 0.41597009 0
2.6130002 -0.57292122 0.41597551 0
2.6140001 -0.57715297 0.41598091 0
2.6170001 -0.58187175 0.41599715 0
2.6190002 -0.58635777 0.41600797 0
2.6230001 -0.59134173 0.4160296 0
2.6290002 -0.59683436 0.41606209 0
2.6410003 -0.60384214 0.41612703 0
2.7750001 -0.64148217 0.41685215 0
2.7750001 -0.6457662 0.41685215 0
2.7740002 -0.64979595 0.41684672 0
2.7740002 -0.65407819 0.41684672 0
2.7730002 -0.65810251 0.41684133 0
2.7730002 -0.66238296 0.41684133 0
2.7720003 -0.66640186 0.4168359 0
2.7710001 -0.67041707 0.41683051 0
2.7710001 -0.67469394 0.41683051 0
2.7700002 -0.67870378 0.41682509 0
2.7700002 -0.68297881 0.41682509 0
2.7690003 -0.68698329 0.41681969 0
2.7690003 -0.69125652 0.41681969 0
2.7680001 -0.69525552 0.41681427 0
2.7680001 -0.69952697 0.41681427 0
2.7670002 -0.70352054 0.41680884 0
2.7660003 -0.70751065 0.41680345 0
2.7660003 -0.71177846 0.41680345 0
2.7650001 -0.71576297 0.41679803 0
2.7650001 -0.720029 0.41679803 0
2.7640002 -0.7240082 0.41679263 0
2.7640002 -0.72827244 0.41679263 0
2.7630002 -0.73224622 0.41678721 0
2.7630002 -0.73650867 0.41678721 0
2.7620003 -0.74047703 0.41678181 0
2.7610002 -0.74444175 0.41677639 0
2.7610002 -0.7487005 0.41677639 0
2.7600002 -0.75265992 0.41677096 0
2.7600002 -0.75691694 0.41677096 0
2.7590003 -0.76087087 0.41676557 0
2.7590003 -0.76512605 0.41676557 0
2.7580001 -0.76907456 0.41676015 0
2.7580001 -0.77332795 0.41676015 0
2.7570002 -0.77727109 0.41675475 0
2.7560003 -0.78121066 0.41674933 0
2.7560003 -0.78546041 0.41674933 0
2.7550001 -0.78939444 0.4167439 0
2.7550001 -0.7936424 0.4167439 0
2.6240003 -0.75606555 0.41603503 0
2.6150002 -0.75718749 0.41598633 0
2.6090002 -0.75924563 0.41595384 0
2.6040001 -0.76160675 0.41592678 0
2.6000001 -0.76427644 0.41590515 0
2.5960002 -0.76693165 0.41588351 0
2.5930002 -0.76990247 0.41586727 0
2.5900002 -0.77286255 0.41585103 0
2.5870001 -0.77581179 0.41583478 0
2.5850003 -0.77908576 0.41582397 0
2.5830002 -0.78235239 0.41581315 0
2.5820003 -0.78595102 0.41580775 0
2.5800002 -0.78920507 0.41579691 0
2.5790002 -0.7927947 0.41579151 0
2.5780003 -0.7963807 0.41578609 0
2.5770001 -0.79996294 0.41578069 0
2.5770001 -0.80388987 0.41578069 0
2.5770001 -0.80781674 0.41578069 0
2.5780003 -0.81209546 0.41578609 0
2.5780003 -0.81602412 0.41578609 0
2.5790002 -0.82030815 0.41579151 0
2.5810001 -0.8249529 0.41580233 0
2.5830002 -0.82960498 0.41581315 0
