# .PCD v0.7 - Point Cloud Data file format
VERSION 0.7
FIELDS x y z intensity
SIZE 4 4 4 4
TYPE F F F F
COUNT 1 1 1 1
WIDTH 1459
HEIGHT 1
VIEWPOINT 0 0 0 1 0 0 0
POINTS 1459
DATA ascii
4.5890002 -2.3128459 1.7489952 0
4.5840001 -2.3176873 1.7473898 0
4.5790005 -2.3225107 1.7457845 0
4.5730004 -2.3267694 1.743858 0
4.5680003 -2.3315549 1.7422526 0
4.5630002 -2.3363223 1.7406472 0
4.5580001 -2.3410718 1.7390418 0
4.5530005 -2.3458033 1.7374365 0
4.5470004 -2.349961 1.73551 0
4.5420003 -2.3546546 1.7339046 0
4.5370002 -2.3593297 1.7322991 0
4.5320001 -2.3639872 1.7306937 0
4.5270004 -2.3686268 1.7290884 0
4.5220003 -2.3732481 1.727483 0
4.5160003 -2.377285 1.7255565 0
4.5110002 -2.3818684 1.7239511 0
4.5060005 -2.3864341 1.7223458 0
4.5010004 -2.3909814 1.7207403 0
4.9140005 -2.024601 1.8452033 0
4.9080005 -2.0301025 1.8432876 0
4.9020004 -2.0355825 1.8413719 0
4.8960004 -2.0410409 1.8394562 0
4.8890004 -2.046032 1.8372213 0
4.8830004 -2.0514452 1.8353056 0
4.8770003 -2.0568368 1.83339 0
4.8710003 -2.0622065 1.8314743 0
4.8650002 -2.067555 1.8295587 0
4.8590002 -2.0728815 1.827643 0
4.8530002 -2.0781865 1.8257275 0
4.8470001 -2.0834699 1.8238118 0
4.8410001 -2.0887315 1.8218961 0
4.8350005 -2.0939717 1.8199805 0
4.8300004 -2.099654 1.8183842 0
4.8240004 -2.1048524 1.8164685 0
4.8180003 -2.1100292 1.8145528 0
4.8120003 -2.1151843 1.8126371 0
4.8060002 -2.1203182 1.8107215 0
4.8000002 -2.1254301 1.8088058 0
4.7940001 -2.1305206 1.8068902 0
4.7890005 -2.1360655 1.8052939 0
4.7830005 -2.1411145 1.8033783 0
4.7770004 -2.1461415 1.8014627 0
4.7710004 -2.1511471 1.799547 0
4.7650003 -2.156131 1.7976313 0
4.7600002 -2.1615784 1.7960349 0
4.7540002 -2.1665208 1.7941192 0
4.7480001 -2.1714416 1.7922035 0
4.7430005 -2.1768317 1.7906073 0
4.7370005 -2.1817107 1.7886916 0
4.7310004 -2.1865685 1.7867759 0
4.7260003 -2.1919005 1.7851796 0
4.7200003 -2.1967165 1.7832639 0
4.7140002 -2.2015111 1.7813482 0
4.7090001 -2.2067854 1.7797519 0
4.7030001 -2.2115383 1.7778362 0
4.6980004 -2.2167749 1.77624 0
4.6920004 -2.2214866 1.7743244 0
4.6870003 -2.226685 1.7727278 0
4.6810002 -2.2313552 1.7708123 0
4.6760001 -2.2365158 1.7692158 0
4.6700001 -2.2411442 1.7673001 0
4.6650004 -2.2462673 1.765704 0
4.6590004 -2.2508545 1.7637883 0
4.6540003 -2.2559392 1.7621919 0
4.6480002 -2.2604847 1.7602762 0
4.6430001 -2.2655318 1.7586797 0
4.6370001 -2.270036 1.7567642 0
4.6320004 -2.2750454 1.755168 0
4.6270003 -2.2800364 1.7535714 0
4.6210003 -2.2844789 1.7516558 0
4.6160002 -2.2894323 1.7500594 0
4.6100001 -2.2938337 1.7481437 0
4.6050005 -2.2987492 1.7465476 0
4.6000004 -2.3036466 1.744951 0
4.5940003 -2.3079865 1.7430354 0
4.5890002 -2.3128459 1.741439 0
4.5840001 -2.3176873 1.7398427 0
4.5790005 -2.3225107 1.7382463 0
4.5730004 -2.3267694 1.7363306 0
4.5680003 -2.3315549 1.7347343 0
4.5630002 -2.3363223 1.7331378 0
4.5580001 -2.3410718 1.7315415 0
4.5530005 -2.3458033 1.7299452 0
4.5470004 -2.349961 1.7280296 0
4.5420003 -2.3546546 1.7264332 0
4.5370002 -2.3593297 1.7248368 0
4.5320001 -2.3639872 1.7232404 0
4.5270004 -2.3686268 1.7216442 0
4.5220003 -2.3732481 1.7200477 0
4.5160003 -2.377285 1.7181321 0
4.5110002 -2.3818684 1.7165357 0
4.5060005 -2.3864341 1.7149394 0
4.5010004 -2.3909814 1.713343 0
4.9140005 -2.024601 1.8370608 0
4.9080005 -2.0301025 1.835156 0
4.9020004 -2.0355825 1.8332511 0
4.8960004 -2.0410409 1.8313463 0
4.8890004 -2.046032 1.8291241 0
4.8830004 -2.0514452 1.8272192 0
4.8770003 -2.0568368 1.8253143 0
4.8710003 -2.0622065 1.8234096 0
4.8650002 -2.067555 1.8215047 0
4.8590002 -2.0728815 1.8195999 0
4.8530002 -2.0781865 1.817695 0
4.8470001 -2.0834699 1.8157902 0
4.8410001 -2.0887315 1.8138853 0
4.8350005 -2.0939717 1.8119806 0
4.8300004 -2.099654 1.8103933 0
4.8240004 -2.1048524 1.8084884 0
4.8180003 -2.1100292 1.8065836 0
4.8120003 -2.1151843 1.8046788 0
4.8060002 -2.1203182 1.802774 0
4.8000002 -2.1254301 1.8008691 0
4.7940001 -2.1305206 1.7989643 0
4.7890005 -2.1360655 1.797377 0
4.7830005 -2.1411145 1.7954723 0
4.7770004 -2.1461415 1.7935673 0
4.7710004 -2.1511471 1.7916625 0
4.7650003 -2.156131 1.7897577 0
4.7600002 -2.1615784 1.7881703 0
4.7540002 -2.1665208 1.7862655 0
4.7480001 -2.1714416 1.7843606 0
4.7430005 -2.1768317 1.7827734 0
4.7370005 -2.1817107 1.7808685 0
4.7310004 -2.1865685 1.7789637 0
4.7260003 -2.1919005 1.7773763 0
4.7200003 -2.1967165 1.7754714 0
4.7140002 -2.2015111 1.7735667 0
4.7090001 -2.2067854 1.7719793 0
4.7030001 -2.2115383 1.7700745 0
4.6980004 -2.2167749 1.7684872 0
4.6920004 -2.2214866 1.7665824 0
4.6870003 -2.226685 1.764995 0
4.6810002 -2.2313552 1.7630903 0
4.6760001 -2.2365158 1.7615027 0
4.6700001 -2.2411442 1.759598 0
4.6650004 -2.2462673 1.7580107 0
4.6590004 -2.2508545 1.7561059 0
4.6540003 -2.2559392 1.7545185 0
4.6480002 -2.2604847 1.7526137 0
4.6430001 -2.2655318 1.7510263 0
4.6370001 -2.270036 1.7491214 0
4.6320004 -2.2750454 1.7475342 0
4.6270003 -2.2800364 1.7459468 0
4.6210003 -2.2844789 1.744042 0
4.6160002 -2.2894323 1.7424545 0
4.6100001 -2.2938337 1.7405498 0
4.6050005 -2.2987492 1.7389625 0
4.6000004 -2.3036466 1.7373751 0
4.5940003 -2.3079865 1.7354703 0
4.5890002 -2.3128459 1.7338829 0
4.5840001 -2.3176873 1.7322955 0
4.5790005 -2.3225107 1.7307084 0
4.5730004 -2.3267694 1.7288034 0
4.5680003 -2.3315549 1.7272161 0
4.5630002 -2.3363223 1.7256286 0
4.5580001 -2.3410718 1.7240412 0
4.5530005 -2.3458033 1.722454 0
4.5470004 -2.349961 1.7205492 0
4.5420003 -2.3546546 1.7189618 0
4.5370002 -2.3593297 1.7173744 0
4.5320001 -2.3639872 1.7157871 0
4.5270004 -2.3686268 1.7141998 0
4.5220003 -2.3732481 1.7126124 0
4.5160003 -2.377285 1.7107075 0
4.5110002 -2.3818684 1.7091202 0
4.5060005 -2.3864341 1.707533 0
4.5010004 -2.3909814 1.7059456 0
4.9140005 -2.024601 1.8289185 0
4.9080005 -2.0301025 1.8270245 0
4.9020004 -2.0355825 1.8251303 0
4.8960004 -2.0410409 1.8232363 0
4.8890004 -2.046032 1.8210268 0
4.8830004 -2.0514452 1.8191327 0
4.8770003 -2.0568368 1.8172387 0
4.8710003 -2.0622065 1.8153447 0
4.8650002 -2.067555 1.8134507 0
4.8590002 -2.0728815 1.8115567 0
4.8530002 -2.0781865 1.8096627 0
4.8470001 -2.0834699 1.8077686 0
4.8410001 -2.0887315 1.8058746 0
4.8350005 -2.0939717 1.8039807 0
4.8300004 -2.099654 1.8024024 0
4.8240004 -2.1048524 1.8005085 0
4.8180003 -2.1100292 1.7986144 0
4.8120003 -2.1151843 1.7967204 0
4.8060002 -2.1203182 1.7948264 0
4.8000002 -2.1254301 1.7929323 0
4.7940001 -2.1305206 1.7910384 0
4.7890005 -2.1360655 1.7894601 0
4.7830005 -2.1411145 1.7875662 0
4.7770004 -2.1461415 1.7856721 0
4.7710004 -2.1511471 1.7837781 0
4.7650003 -2.156131 1.7818841 0
4.7600002 -2.1615784 1.7803056 0
4.7540002 -2.1665208 1.7784116 0
4.7480001 -2.1714416 1.7765177 0
4.7430005 -2.1768317 1.7749395 0
4.7370005 -2.1817107 1.7730454 0
4.7310004 -2.1865685 1.7711514 0
4.7260003 -2.1919005 1.7695731 0
4.7200003 -2.1967165 1.767679 0
4.7140002 -2.2015111 1.765785 0
4.7090001 -2.2067854 1.7642066 0
4.7030001 -2.2115383 1.7623128 0
4.6980004 -2.2167749 1.7607344 0
4.6920004 -2.2214866 1.7588404 0
4.6870003 -2.226685 1.7572621 0
4.6810002 -2.2313552 1.7553681 0
4.6760001 -2.2365158 1.7537897 0
4.6700001 -2.2411442 1.7518957 0
4.6650004 -2.2462673 1.7503175 0
4.6590004 -2.2508545 1.7484235 0
4.6540003 -2.2559392 1.746845 0
4.6480002 -2.2604847 1.744951 0
4.6430001 -2.2655318 1.7433727 0
4.6370001 -2.270036 1.7414787 0
4.6320004 -2.2750454 1.7399005 0
4.6270003 -2.2800364 1.7383221 0
4.6210003 -2.2844789 1.7364281 0
4.6160002 -2.2894323 1.7348497 0
4.6100001 -2.2938337 1.7329557 0
4.6050005 -2.2987492 1.7313775 0
4.6000004 -2.3036466 1.7297992 0
4.5940003 -2.3079865 1.7279052 0
4.5890002 -2.3128459 1.7263267 0
4.5840001 -2.3176873 1.7247484 0
4.5790005 -2.3225107 1.7231702 0
4.5730004 -2.3267694 1.7212762 0
4.5680003 -2.3315549 1.7196977 0
4.5630002 -2.3363223 1.7181194 0
4.5580001 -2.3410718 1.7165411 0
4.5530005 -2.3458033 1.7149628 0
4.5470004 -2.349961 1.7130687 0
4.5420003 -2.3546546 1.7114904 0
4.5370002 -2.3593297 1.7099121 0
4.5320001 -2.3639872 1.7083336 0
4.5270004 -2.3686268 1.7067554 0
4.5220003 -2.3732481 1.7051771 0
4.5160003 -2.377285 1.7032832 0
4.5110002 -2.3818684 1.7017047 0
4.5060005 -2.3864341 1.7001265 0
4.5010004 -2.3909814 1.6985482 0
4.9140005 -2.024601 1.8207761 0
4.9080005 -2.0301025 1.8188928 0
4.9020004 -2.0355825 1.8170097 0
4.8960004 -2.0410409 1.8151265 0
4.8890004 -2.046032 1.8129294 0
4.8830004 -2.0514452 1.8110462 0
4.8770003 -2.0568368 1.8091631 0
4.8710003 -2.0622065 1.8072798 0
4.8650002 -2.067555 1.8053967 0
4.8590002 -2.0728815 1.8035135 0
4.8530002 -2.0781865 1.8016304 0
4.8470001 -2.0834699 1.7997471 0
4.8410001 -2.0887315 1.797864 0
4.8350005 -2.0939717 1.7959808 0
4.8300004 -2.099654 1.7944115 0
4.8240004 -2.1048524 1.7925284 0
4.8180003 -2.1100292 1.7906452 0
4.8120003 -2.1151843 1.788762 0
4.8060002 -2.1203182 1.7868788 0
4.8000002 -2.1254301 1.7849957 0
4.7940001 -2.1305206 1.7831124 0
4.7890005 -2.1360655 1.7815433 0
4.7830005 -2.1411145 1.7796601 0
4.7770004 -2.1461415 1.7777768 0
4.7710004 -2.1511471 1.7758937 0
4.7650003 -2.156131 1.7740105 0
4.7600002 -2.1615784 1.772441 0
4.7540002 -2.1665208 1.7705579 0
4.7480001 -2.1714416 1.7686747 0
4.7430005 -2.1768317 1.7671055 0
4.7370005 -2.1817107 1.7652223 0
4.7310004 -2.1865685 1.7633392 0
4.7260003 -2.1919005 1.7617699 0
4.7200003 -2.1967165 1.7598866 0
4.7140002 -2.2015111 1.7580035 0
4.7090001 -2.2067854 1.7564341 0
4.7030001 -2.2115383 1.7545508 0
4.6980004 -2.2167749 1.7529817 0
4.6920004 -2.2214866 1.7510985 0
4.6870003 -2.226685 1.7495291 0
4.6810002 -2.2313552 1.747646 0
4.6760001 -2.2365158 1.7460766 0
4.6700001 -2.2411442 1.7441934 0
4.6650004 -2.2462673 1.7426242 0
4.6590004 -2.2508545 1.740741 0
4.6540003 -2.2559392 1.7391717 0
4.6480002 -2.2604847 1.7372885 0
4.6430001 -2.2655318 1.7357191 0
4.6370001 -2.270036 1.7338359 0
4.6320004 -2.2750454 1.7322667 0
4.6270003 -2.2800364 1.7306974 0
4.6210003 -2.2844789 1.7288142 0
4.6160002 -2.2894323 1.7272449 0
4.6100001 -2.2938337 1.7253616 0
4.6050005 -2.2987492 1.7237924 0
4.6000004 -2.3036466 1.7222232 0
4.5940003 -2.3079865 1.7203399 0
4.5890002 -2.3128459 1.7187706 0
4.5840001 -2.3176873 1.7172012 0
4.5790005 -2.3225107 1.7156321 0
4.5730004 -2.3267694 1.7137488 0
4.5680003 -2.3315549 1.7121795 0
4.5630002 -2.3363223 1.7106102 0
4.5580001 -2.3410718 1.7090408 0
4.5530005 -2.3458033 1.7074716 0
4.5470004 -2.349961 1.7055885 0
4.5420003 -2.3546546 1.7040191 0
4.5370002 -2.3593297 1.7024497 0
4.5320001 -2.3639872 1.7008804 0
4.5270004 -2.3686268 1.6993113 0
4.5220003 -2.3732481 1.6977417 0
4.5160003 -2.377285 1.6958586 0
4.5110002 -2.3818684 1.6942893 0
4.5060005 -2.3864341 1.6927202 0
4.5010004 -2.3909814 1.6911507 0
4.9140005 -2.024601 1.8126336 0
4.9080005 -2.0301025 1.8107613 0
4.9020004 -2.0355825 1.8088889 0
4.8960004 -2.0410409 1.8070165 0
4.8890004 -2.046032 1.8048321 0
4.8830004 -2.0514452 1.8029597 0
4.8770003 -2.0568368 1.8010874 0
4.8710003 -2.0622065 1.7992151 0
4.8650002 -2.067555 1.7973427 0
4.8590002 -2.0728815 1.7954704 0
4.8530002 -2.0781865 1.7935979 0
4.8470001 -2.0834699 1.7917255 0
4.8410001 -2.0887315 1.7898532 0
4.8350005 -2.0939717 1.787981 0
4.8300004 -2.099654 1.7864207 0
4.8240004 -2.1048524 1.7845483 0
4.8180003 -2.1100292 1.7826759 0
4.8120003 -2.1151843 1.7808036 0
4.8060002 -2.1203182 1.7789313 0
4.8000002 -2.1254301 1.7770588 0
4.7940001 -2.1305206 1.7751864 0
4.7890005 -2.1360655 1.7736262 0
4.7830005 -2.1411145 1.771754 0
4.7770004 -2.1461415 1.7698816 0
4.7710004 -2.1511471 1.7680092 0
4.7650003 -2.156131 1.7661368 0
4.7600002 -2.1615784 1.7645766 0
4.7540002 -2.1665208 1.7627041 0
4.7480001 -2.1714416 1.7608317 0
4.7430005 -2.1768317 1.7592715 0
4.7370005 -2.1817107 1.7573992 0
4.7310004 -2.1865685 1.7555269 0
4.7260003 -2.1919005 1.7539665 0
4.7200003 -2.1967165 1.7520941 0
4.7140002 -2.2015111 1.7502217 0
4.7090001 -2.2067854 1.7486615 0
4.7030001 -2.2115383 1.7467891 0
4.6980004 -2.2167749 1.7452289 0
4.6920004 -2.2214866 1.7433566 0
4.6870003 -2.226685 1.7417961 0
4.6810002 -2.2313552 1.7399238 0
4.6760001 -2.2365158 1.7383635 0
4.6700001 -2.2411442 1.7364912 0
4.6650004 -2.2462673 1.7349309 0
4.6590004 -2.2508545 1.7330587 0
4.6540003 -2.2559392 1.7314982 0
4.6480002 -2.2604847 1.7296259 0
4.6430001 -2.2655318 1.7280656 0
4.6370001 -2.270036 1.7261932 0
4.6320004 -2.2750454 1.724633 0
4.6270003 -2.2800364 1.7230728 0
4.6210003 -2.2844789 1.7212003 0
4.6160002 -2.2894323 1.71964 0
4.6100001 -2.2938337 1.7177677 0
4.6050005 -2.2987492 1.7162075 0
4.6000004 -2.3036466 1.7146471 0
4.5940003 -2.3079865 1.7127748 0
4.5890002 -2.3128459 1.7112144 0
4.5840001 -2.3176873 1.7096542 0
4.5790005 -2.3225107 1.7080939 0
4.5730004 -2.3267694 1.7062216 0
4.5680003 -2.3315549 1.7046613 0
4.5630002 -2.3363223 1.7031009 0
4.5580001 -2.3410718 1.7015406 0
4.5530005 -2.3458033 1.6999804 0
4.5470004 -2.349961 1.698108 0
4.5420003 -2.3546546 1.6965477 0
4.5370002 -2.3593297 1.6949873 0
4.5320001 -2.3639872 1.6934271 0
4.5270004 -2.3686268 1.6918669 0
4.5220003 -2.3732481 1.6903065 0
4.5160003 -2.377285 1.6884342 0
4.5110002 -2.3818684 1.6868738 0
4.5060005 -2.3864341 1.6853137 0
4.5010004 -2.3909814 1.6837534 0
4.9140005 -2.024601 1.8044913 0
4.9080005 -2.0301025 1.8026297 0
4.9020004 -2.0355825 1.8007681 0
4.8960004 -2.0410409 1.7989067 0
4.8890004 -2.046032 1.7967348 0
4.8830004 -2.0514452 1.7948734 0
4.8770003 -2.0568368 1.7930118 0
4.8710003 -2.0622065 1.7911502 0
4.8650002 -2.067555 1.7892886 0
4.8590002 -2.0728815 1.7874271 0
4.8530002 -2.0781865 1.7855656 0
4.8470001 -2.0834699 1.783704 0
4.8410001 -2.0887315 1.7818425 0
4.8350005 -2.0939717 1.7799811 0
4.8300004 -2.099654 1.7784299 0
4.8240004 -2.1048524 1.7765683 0
4.8180003 -2.1100292 1.7747067 0
4.8120003 -2.1151843 1.7728451 0
4.8060002 -2.1203182 1.7709836 0
4.8000002 -2.1254301 1.769122 0
4.7940001 -2.1305206 1.7672606 0
4.7890005 -2.1360655 1.7657094 0
4.7830005 -2.1411145 1.7638478 0
4.7770004 -2.1461415 1.7619863 0
4.7710004 -2.1511471 1.7601248 0
4.7650003 -2.156131 1.7582632 0
4.7600002 -2.1615784 1.756712 0
4.7540002 -2.1665208 1.7548503 0
4.7480001 -2.1714416 1.7529888 0
4.7430005 -2.1768317 1.7514377 0
4.7370005 -2.1817107 1.7495761 0
4.7310004 -2.1865685 1.7477145 0
4.7260003 -2.1919005 1.7461632 0
4.7200003 -2.1967165 1.7443017 0
4.7140002 -2.2015111 1.7424401 0
4.7090001 -2.2067854 1.7408888 0
4.7030001 -2.2115383 1.7390273 0
4.6980004 -2.2167749 1.7374761 0
4.6920004 -2.2214866 1.7356147 0
4.6870003 -2.226685 1.7340633 0
4.6810002 -2.2313552 1.7322018 0
4.6760001 -2.2365158 1.7306504 0
4.6700001 -2.2411442 1.7287889 0
4.6650004 -2.2462673 1.7272378 0
4.6590004 -2.2508545 1.7253761 0
4.6540003 -2.2559392 1.7238249 0
4.6480002 -2.2604847 1.7219633 0
4.6430001 -2.2655318 1.720412 0
4.6370001 -2.270036 1.7185504 0
4.6320004 -2.2750454 1.7169993 0
4.6270003 -2.2800364 1.715448 0
4.6210003 -2.2844789 1.7135864 0
4.6160002 -2.2894323 1.7120352 0
4.6100001 -2.2938337 1.7101736 0
4.6050005 -2.2987492 1.7086225 0
4.6000004 -2.3036466 1.7070711 0
4.5940003 -2.3079865 1.7052096 0
4.5890002 -2.3128459 1.7036582 0
4.5840001 -2.3176873 1.702107 0
4.5790005 -2.3225107 1.7005558 0
4.5730004 -2.3267694 1.6986942 0
4.5680003 -2.3315549 1.697143 0
4.5630002 -2.3363223 1.6955917 0
4.5580001 -2.3410718 1.6940404 0
4.5530005 -2.3458033 1.6924891 0
4.5470004 -2.349961 1.6906277 0
4.5420003 -2.3546546 1.6890763 0
4.5370002 -2.3593297 1.687525 0
4.5320001 -2.3639872 1.6859736 0
4.5270004 -2.3686268 1.6844225 0
4.5220003 -2.3732481 1.6828712 0
4.5160003 -2.377285 1.6810097 0
4.5110002 -2.3818684 1.6794584 0
4.5060005 -2.3864341 1.6779072 0
4.5010004 -2.3909814 1.676356 0
4.9140005 -2.024601 1.7963488 0
4.9080005 -2.0301025 1.7944981 0
4.9020004 -2.0355825 1.7926474 0
4.8960004 -2.0410409 1.7907966 0
4.8890004 -2.046032 1.7886376 0
4.8830004 -2.0514452 1.7867868 0
4.8770003 -2.0568368 1.7849361 0
4.8710003 -2.0622065 1.7830853 0
4.8650002 -2.067555 1.7812346 0
4.8590002 -2.0728815 1.7793839 0
4.8530002 -2.0781865 1.7775332 0
4.8470001 -2.0834699 1.7756826 0
4.8410001 -2.0887315 1.7738318 0
4.8350005 -2.0939717 1.7719812 0
4.8300004 -2.099654 1.7704389 0
4.8240004 -2.1048524 1.7685882 0
4.8180003 -2.1100292 1.7667375 0
4.8120003 -2.1151843 1.7648867 0
4.8060002 -2.1203182 1.763036 0
4.8000002 -2.1254301 1.7611853 0
4.7940001 -2.1305206 1.7593347 0
4.7890005 -2.1360655 1.7577924 0
4.7830005 -2.1411145 1.7559417 0
4.7770004 -2.1461415 1.754091 0
4.7710004 -2.1511471 1.7522403 0
4.7650003 -2.156131 1.7503896 0
4.7600002 -2.1615784 1.7488472 0
4.7540002 -2.1665208 1.7469965 0
4.7480001 -2.1714416 1.7451458 0
4.7430005 -2.1768317 1.7436037 0
4.7370005 -2.1817107 1.741753 0
4.7310004 -2.1865685 1.7399023 0
4.7260003 -2.1919005 1.7383599 0
4.7200003 -2.1967165 1.7365092 0
4.7140002 -2.2015111 1.7346586 0
4.7090001 -2.2067854 1.7331163 0
4.7030001 -2.2115383 1.7312655 0
4.6980004 -2.2167749 1.7297235 0
4.6920004 -2.2214866 1.7278727 0
4.6870003 -2.226685 1.7263304 0
4.6810002 -2.2313552 1.7244797 0
4.6760001 -2.2365158 1.7229373 0
4.6700001 -2.2411442 1.7210866 0
4.6650004 -2.2462673 1.7195445 0
4.6590004 -2.2508545 1.7176938 0
4.6540003 -2.2559392 1.7161515 0
4.6480002 -2.2604847 1.7143008 0
4.6430001 -2.2655318 1.7127584 0
4.6370001 -2.270036 1.7109077 0
4.6320004 -2.2750454 1.7093656 0
4.6270003 -2.2800364 1.7078233 0
4.6210003 -2.2844789 1.7059726 0
4.6160002 -2.2894323 1.7044303 0
4.6100001 -2.2938337 1.7025796 0
4.6050005 -2.2987492 1.7010374 0
4.6000004 -2.3036466 1.6994952 0
4.5940003 -2.3079865 1.6976445 0
4.5890002 -2.3128459 1.6961021 0
4.5840001 -2.3176873 1.6945598 0
4.5790005 -2.3225107 1.6930177 0
4.5730004 -2.3267694 1.691167 0
4.5680003 -2.3315549 1.6896247 0
4.5630002 -2.3363223 1.6880825 0
4.5580001 -2.3410718 1.6865401 0
4.5530005 -2.3458033 1.684998 0
4.5470004 -2.349961 1.6831472 0
4.5420003 -2.3546546 1.681605 0
4.5370002 -2.3593297 1.6800627 0
4.5320001 -2.3639872 1.6785204 0
4.5270004 -2.3686268 1.6769782 0
4.5220003 -2.3732481 1.675436 0
4.5160003 -2.377285 1.6735853 0
4.5110002 -2.3818684 1.672043 0
4.5060005 -2.3864341 1.6705009 0
4.5010004 -2.3909814 1.6689585 0
4.9140005 -2.024601 1.7882065 0
4.9080005 -2.0301025 1.7863666 0
4.9020004 -2.0355825 1.7845266 0
4.8960004 -2.0410409 1.7826868 0
4.8890004 -2.046032 1.7805402 0
4.8830004 -2.0514452 1.7787004 0
4.8770003 -2.0568368 1.7768605 0
4.8710003 -2.0622065 1.7750205 0
4.8650002 -2.067555 1.7731807 0
4.8590002 -2.0728815 1.7713407 0
4.8530002 -2.0781865 1.7695009 0
4.8470001 -2.0834699 1.767661 0
4.8410001 -2.0887315 1.765821 0
4.8350005 -2.0939717 1.7639813 0
4.8300004 -2.099654 1.7624481 0
4.8240004 -2.1048524 1.7606081 0
4.8180003 -2.1100292 1.7587683 0
4.8120003 -2.1151843 1.7569283 0
4.8060002 -2.1203182 1.7550884 0
4.8000002 -2.1254301 1.7532486 0
4.7940001 -2.1305206 1.7514086 0
4.7890005 -2.1360655 1.7498755 0
4.7830005 -2.1411145 1.7480357 0
4.7770004 -2.1461415 1.7461957 0
4.7710004 -2.1511471 1.7443559 0
4.7650003 -2.156131 1.7425159 0
4.7600002 -2.1615784 1.7409827 0
4.7540002 -2.1665208 1.7391428 0
4.7480001 -2.1714416 1.7373029 0
4.7430005 -2.1768317 1.7357697 0
4.7370005 -2.1817107 1.7339299 0
4.7310004 -2.1865685 1.73209 0
4.7260003 -2.1919005 1.7305567 0
4.7200003 -2.1967165 1.7287169 0
4.7140002 -2.2015111 1.7268769 0
4.7090001 -2.2067854 1.7253437 0
4.7030001 -2.2115383 1.7235037 0
4.6980004 -2.2167749 1.7219706 0
4.6920004 -2.2214866 1.7201308 0
4.6870003 -2.226685 1.7185974 0
4.6810002 -2.2313552 1.7167575 0
4.6760001 -2.2365158 1.7152243 0
4.6700001 -2.2411442 1.7133844 0
4.6650004 -2.2462673 1.7118512 0
4.6590004 -2.2508545 1.7100114 0
4.6540003 -2.2559392 1.7084781 0
4.6480002 -2.2604847 1.7066382 0
4.6430001 -2.2655318 1.7051049 0
4.6370001 -2.270036 1.703265 0
4.6320004 -2.2750454 1.7017319 0
4.6270003 -2.2800364 1.7001985 0
4.6210003 -2.2844789 1.6983587 0
4.6160002 -2.2894323 1.6968255 0
4.6100001 -2.2938337 1.6949855 0
4.6050005 -2.2987492 1.6934525 0
4.6000004 -2.3036466 1.6919192 0
4.5940003 -2.3079865 1.6900792 0
4.5890002 -2.3128459 1.6885459 0
4.5840001 -2.3176873 1.6870128 0
4.5790005 -2.3225107 1.6854795 0
4.5730004 -2.3267694 1.6836396 0
4.5680003 -2.3315549 1.6821065 0
4.5630002 -2.3363223 1.6805731 0
4.5580001 -2.3410718 1.6790398 0
4.5530005 -2.3458033 1.6775068 0
4.5470004 -2.349961 1.6756668 0
4.5420003 -2.3546546 1.6741335 0
4.5370002 -2.3593297 1.6726004 0
4.5320001 -2.3639872 1.671067 0
4.5270004 -2.3686268 1.6695338 0
4.5220003 -2.3732481 1.6680007 0
4.5160003 -2.377285 1.6661607 0
4.5110002 -2.3818684 1.6646274 0
4.5060005 -2.3864341 1.6630944 0
4.5010004 -2.3909814 1.661561 0
4.9140005 -2.024601 1.7800641 0
4.9080005 -2.0301025 1.778235 0
4.9020004 -2.0355825 1.7764059 0
4.8960004 -2.0410409 1.7745768 0
4.8890004 -2.046032 1.7724429 0
4.8830004 -2.0514452 1.7706139 0
4.8770003 -2.0568368 1.7687848 0
4.8710003 -2.0622065 1.7669557 0
4.8650002 -2.067555 1.7651267 0
4.8590002 -2.0728815 1.7632977 0
4.8530002 -2.0781865 1.7614685 0
4.8470001 -2.0834699 1.7596395 0
4.8410001 -2.0887315 1.7578104 0
4.8350005 -2.0939717 1.7559814 0
4.8300004 -2.099654 1.7544571 0
4.8240004 -2.1048524 1.7526282 0
4.8180003 -2.1100292 1.7507991 0
4.8120003 -2.1151843 1.74897 0
4.8060002 -2.1203182 1.7471409 0
4.8000002 -2.1254301 1.7453119 0
4.7940001 -2.1305206 1.7434827 0
4.7890005 -2.1360655 1.7419586 0
4.7830005 -2.1411145 1.7401296 0
4.7770004 -2.1461415 1.7383006 0
4.7710004 -2.1511471 1.7364714 0
4.7650003 -2.156131 1.7346424 0
4.7600002 -2.1615784 1.7331181 0
4.7540002 -2.1665208 1.7312889 0
4.7480001 -2.1714416 1.7294599 0
4.7430005 -2.1768317 1.7279358 0
4.7370005 -2.1817107 1.7261068 0
4.7310004 -2.1865685 1.7242776 0
4.7260003 -2.1919005 1.7227534 0
4.7200003 -2.1967165 1.7209244 0
4.7140002 -2.2015111 1.7190953 0
4.7090001 -2.2067854 1.717571 0
4.7030001 -2.2115383 1.7157419 0
4.6980004 -2.2167749 1.7142179 0
4.6920004 -2.2214866 1.7123888 0
4.6870003 -2.226685 1.7108645 0
4.6810002 -2.2313552 1.7090354 0
4.6760001 -2.2365158 1.7075112 0
4.6700001 -2.2411442 1.7056822 0
4.6650004 -2.2462673 1.7041579 0
4.6590004 -2.2508545 1.7023289 0
4.6540003 -2.2559392 1.7008047 0
4.6480002 -2.2604847 1.6989757 0
4.6430001 -2.2655318 1.6974514 0
4.6370001 -2.270036 1.6956222 0
4.6320004 -2.2750454 1.6940982 0
4.6270003 -2.2800364 1.6925739 0
4.6210003 -2.2844789 1.6907449 0
4.6160002 -2.2894323 1.6892207 0
4.6100001 -2.2938337 1.6873915 0
4.6050005 -2.2987492 1.6858674 0
4.6000004 -2.3036466 1.6843431 0
4.5940003 -2.3079865 1.6825141 0
4.5890002 -2.3128459 1.6809899 0
4.5840001 -2.3176873 1.6794655 0
4.5790005 -2.3225107 1.6779414 0
4.5730004 -2.3267694 1.6761124 0
4.5680003 -2.3315549 1.6745881 0
4.5630002 -2.3363223 1.6730639 0
4.5580001 -2.3410718 1.6715397 0
4.5530005 -2.3458033 1.6700156 0
4.5470004 -2.349961 1.6681865 0
4.5420003 -2.3546546 1.6666622 0
4.5370002 -2.3593297 1.665138 0
4.5320001 -2.3639872 1.6636137 0
4.5270004 -2.3686268 1.6620896 0
4.5220003 -2.3732481 1.6605654 0
4.5160003 -2.377285 1.6587362 0
4.5110002 -2.3818684 1.657212 0
4.5060005 -2.3864341 1.6556879 0
4.5010004 -2.3909814 1.6541636 0
4.9140005 -2.024601 1.7719216 0
4.9080005 -2.0301025 1.7701035 0
4.9020004 -2.0355825 1.7682852 0
4.8960004 -2.0410409 1.766467 0
4.8890004 -2.046032 1.7643456 0
4.8830004 -2.0514452 1.7625273 0
4.8770003 -2.0568368 1.7607092 0
4.8710003 -2.0622065 1.758891 0
4.8650002 -2.067555 1.7570726 0
4.8590002 -2.0728815 1.7552544 0
4.8530002 -2.0781865 1.7534361 0
4.8470001 -2.0834699 1.7516179 0
4.8410001 -2.0887315 1.7497997 0
4.8350005 -2.0939717 1.7479815 0
4.8300004 -2.099654 1.7464663 0
4.8240004 -2.1048524 1.7446481 0
4.8180003 -2.1100292 1.7428298 0
4.8120003 -2.1151843 1.7410115 0
4.8060002 -2.1203182 1.7391933 0
4.8000002 -2.1254301 1.737375 0
4.7940001 -2.1305206 1.7355568 0
4.7890005 -2.1360655 1.7340417 0
4.7830005 -2.1411145 1.7322234 0
4.7770004 -2.1461415 1.7304052 0
4.7710004 -2.1511471 1.728587 0
4.7650003 -2.156131 1.7267687 0
4.7600002 -2.1615784 1.7252535 0
4.7540002 -2.1665208 1.7234353 0
4.7480001 -2.1714416 1.721617 0
4.7430005 -2.1768317 1.720102 0
4.7370005 -2.1817107 1.7182837 0
4.7310004 -2.1865685 1.7164654 0
4.7260003 -2.1919005 1.7149502 0
4.7200003 -2.1967165 1.7131319 0
4.7140002 -2.2015111 1.7113136 0
4.7090001 -2.2067854 1.7097983 0
4.7030001 -2.2115383 1.7079802 0
4.6980004 -2.2167749 1.7064651 0
4.6920004 -2.2214866 1.7046468 0
4.6870003 -2.226685 1.7031316 0
4.6810002 -2.2313552 1.7013133 0
4.6760001 -2.2365158 1.6997981 0
4.6700001 -2.2411442 1.6979798 0
4.6650004 -2.2462673 1.6964648 0
4.6590004 -2.2508545 1.6946465 0
4.6540003 -2.2559392 1.6931313 0
4.6480002 -2.2604847 1.691313 0
4.6430001 -2.2655318 1.6897978 0
4.6370001 -2.270036 1.6879795 0
4.6320004 -2.2750454 1.6864644 0
4.6270003 -2.2800364 1.6849493 0
4.6210003 -2.2844789 1.683131 0
4.6160002 -2.2894323 1.6816157 0
4.6100001 -2.2938337 1.6797975 0
4.6050005 -2.2987492 1.6782824 0
4.6000004 -2.3036466 1.6767671 0
4.5940003 -2.3079865 1.6749489 0
4.5890002 -2.3128459 1.6734337 0
4.5840001 -2.3176873 1.6719184 0
4.5790005 -2.3225107 1.6704034 0
4.5730004 -2.3267694 1.6685852 0
4.5680003 -2.3315549 1.6670699 0
4.5630002 -2.3363223 1.6655546 0
4.5580001 -2.3410718 1.6640394 0
4.5530005 -2.3458033 1.6625242 0
4.5470004 -2.349961 1.660706 0
4.5420003 -2.3546546 1.6591908 0
4.5370002 -2.3593297 1.6576755 0
4.5320001 -2.3639872 1.6561604 0
4.5270004 -2.3686268 1.6546453 0
4.5220003 -2.3732481 1.6531301 0
4.5160003 -2.377285 1.6513118 0
4.5110002 -2.3818684 1.6497966 0
4.5060005 -2.3864341 1.6482815 0
4.5010004 -2.3909814 1.6467663 0
4.9140005 -2.024601 1.7637793 0
4.9080005 -2.0301025 1.7619718 0
4.9020004 -2.0355825 1.7601644 0
4.8960004 -2.0410409 1.7583569 0
4.8890004 -2.046032 1.7562484 0
4.8830004 -2.0514452 1.754441 0
4.8770003 -2.0568368 1.7526336 0
4.8710003 -2.0622065 1.7508261 0
4.8650002 -2.067555 1.7490187 0
4.8590002 -2.0728815 1.7472112 0
4.8530002 -2.0781865 1.7454038 0
4.8470001 -2.0834699 1.7435963 0
4.8410001 -2.0887315 1.7417889 0
4.8350005 -2.0939717 1.7399817 0
4.8300004 -2.099654 1.7384754 0
4.8240004 -2.1048524 1.736668 0
4.8180003 -2.1100292 1.7348605 0
4.8120003 -2.1151843 1.7330531 0
4.8060002 -2.1203182 1.7312456 0
4.8000002 -2.1254301 1.7294383 0
4.7940001 -2.1305206 1.727631 0
4.7890005 -2.1360655 1.7261248 0
4.7830005 -2.1411145 1.7243173 0
4.7770004 -2.1461415 1.72251 0
4.7710004 -2.1511471 1.7207025 0
4.7650003 -2.156131 1.7188951 0
4.7600002 -2.1615784 1.7173889 0
4.7540002 -2.1665208 1.7155815 0
4.7480001 -2.1714416 1.7137741 0
4.7430005 -2.1768317 1.712268 0
4.7370005 -2.1817107 1.7104605 0
4.7310004 -2.1865685 1.7086531 0
4.7260003 -2.1919005 1.7071469 0
4.7200003 -2.1967165 1.7053394 0
4.7140002 -2.2015111 1.7035321 0
4.7090001 -2.2067854 1.7020259 0
4.7030001 -2.2115383 1.7002184 0
4.6980004 -2.2167749 1.6987123 0
4.6920004 -2.2214866 1.6969049 0
4.6870003 -2.226685 1.6953987 0
4.6810002 -2.2313552 1.6935912 0
4.6760001 -2.2365158 1.692085 0
4.6700001 -2.2411442 1.6902777 0
4.6650004 -2.2462673 1.6887715 0
4.6590004 -2.2508545 1.686964 0
4.6540003 -2.2559392 1.6854578 0
4.6480002 -2.2604847 1.6836504 0
4.6430001 -2.2655318 1.6821442 0
4.6370001 -2.270036 1.6803367 0
4.6320004 -2.2750454 1.6788307 0
4.6270003 -2.2800364 1.6773245 0
4.6210003 -2.2844789 1.6755171 0
4.6160002 -2.2894323 1.6740109 0
4.6100001 -2.2938337 1.6722034 0
4.6050005 -2.2987492 1.6706973 0
4.6000004 -2.3036466 1.6691911 0
4.5940003 -2.3079865 1.6673838 0
4.5890002 -2.3128459 1.6658776 0
4.5840001 -2.3176873 1.6643714 0
4.5790005 -2.3225107 1.6628653 0
4.5730004 -2.3267694 1.6610578 0
4.5680003 -2.3315549 1.6595516 0
4.5630002 -2.3363223 1.6580454 0
4.5580001 -2.3410718 1.6565392 0
4.5530005 -2.3458033 1.6550331 0
4.5470004 -2.349961 1.6532257 0
4.5420003 -2.3546546 1.6517195 0
4.5370002 -2.3593297 1.6502132 0
4.5320001 -2.3639872 1.648707 0
4.5270004 -2.3686268 1.6472009 0
4.5220003 -2.3732481 1.6456947 0
4.5160003 -2.377285 1.6438873 0
4.5110002 -2.3818684 1.6423811 0
4.5060005 -2.3864341 1.6408751 0
4.5010004 -2.3909814 1.6393689 0
4.9140005 -2.024601 1.7556369 0
4.9080005 -2.0301025 1.7538403 0
4.9020004 -2.0355825 1.7520436 0
4.8960004 -2.0410409 1.7502471 0
4.8890004 -2.046032 1.7481511 0
4.8830004 -2.0514452 1.7463545 0
4.8770003 -2.0568368 1.7445579 0
4.8710003 -2.0622065 1.7427613 0
4.8650002 -2.067555 1.7409647 0
4.8590002 -2.0728815 1.739168 0
4.8530002 -2.0781865 1.7373714 0
4.8470001 -2.0834699 1.7355748 0
4.8410001 -2.0887315 1.7337782 0
4.8350005 -2.0939717 1.7319818 0
4.8300004 -2.099654 1.7304846 0
4.8240004 -2.1048524 1.728688 0
4.8180003 -2.1100292 1.7268914 0
4.8120003 -2.1151843 1.7250948 0
4.8060002 -2.1203182 1.7232981 0
4.8000002 -2.1254301 1.7215016 0
4.7940001 -2.1305206 1.7197049 0
4.7890005 -2.1360655 1.718208 0
4.7830005 -2.1411145 1.7164112 0
4.7770004 -2.1461415 1.7146146 0
4.7710004 -2.1511471 1.7128181 0
4.7650003 -2.156131 1.7110214 0
4.7600002 -2.1615784 1.7095243 0
4.7540002 -2.1665208 1.7077277 0
4.7480001 -2.1714416 1.7059311 0
4.7430005 -2.1768317 1.7044339 0
4.7370005 -2.1817107 1.7026374 0
4.7310004 -2.1865685 1.7008408 0
4.7260003 -2.1919005 1.6993436 0
4.7200003 -2.1967165 1.6975471 0
4.7140002 -2.2015111 1.6957504 0
4.7090001 -2.2067854 1.6942532 0
4.7030001 -2.2115383 1.6924566 0
4.6980004 -2.2167749 1.6909596 0
4.6920004 -2.2214866 1.689163 0
4.6870003 -2.226685 1.6876657 0
4.6810002 -2.2313552 1.6858691 0
4.6760001 -2.2365158 1.6843719 0
4.6700001 -2.2411442 1.6825753 0
4.6650004 -2.2462673 1.6810783 0
4.6590004 -2.2508545 1.6792817 0
4.6540003 -2.2559392 1.6777844 0
4.6480002 -2.2604847 1.6759878 0
4.6430001 -2.2655318 1.6744907 0
4.6370001 -2.270036 1.6726941 0
4.6320004 -2.2750454 1.6711971 0
4.6270003 -2.2800364 1.6696999 0
4.6210003 -2.2844789 1.6679032 0
4.6160002 -2.2894323 1.666406 0
4.6100001 -2.2938337 1.6646094 0
4.6050005 -2.2987492 1.6631124 0
4.6000004 -2.3036466 1.6616153 0
4.5940003 -2.3079865 1.6598185 0
4.5890002 -2.3128459 1.6583214 0
4.5840001 -2.3176873 1.6568242 0
4.5790005 -2.3225107 1.6553271 0
4.5730004 -2.3267694 1.6535306 0
4.5680003 -2.3315549 1.6520333 0
4.5630002 -2.3363223 1.6505362 0
4.5580001 -2.3410718 1.649039 0
4.5530005 -2.3458033 1.6475419 0
4.5470004 -2.349961 1.6457453 0
4.5420003 -2.3546546 1.644248 0
4.5370002 -2.3593297 1.6427509 0
4.5320001 -2.3639872 1.6412537 0
4.5270004 -2.3686268 1.6397566 0
4.5220003 -2.3732481 1.6382594 0
4.5160003 -2.377285 1.6364628 0
4.5110002 -2.3818684 1.6349657 0
4.5060005 -2.3864341 1.6334686 0
4.5010004 -2.3909814 1.6319714 0
4.9140005 -2.024601 1.7474945 0
4.9080005 -2.0301025 1.7457087 0
4.9020004 -2.0355825 1.7439229 0
4.8960004 -2.0410409 1.7421371 0
4.8890004 -2.046032 1.7400538 0
4.8830004 -2.0514452 1.738268 0
4.8770003 -2.0568368 1.7364821 0
4.8710003 -2.0622065 1.7346964 0
4.8650002 -2.067555 1.7329106 0
4.8590002 -2.0728815 1.7311249 0
4.8530002 -2.0781865 1.729339 0
4.8470001 -2.0834699 1.7275532 0
4.8410001 -2.0887315 1.7257675 0
4.8350005 -2.0939717 1.7239819 0
4.8300004 -2.099654 1.7224938 0
4.8240004 -2.1048524 1.7207079 0
4.8180003 -2.1100292 1.7189221 0
4.8120003 -2.1151843 1.7171364 0
4.8060002 -2.1203182 1.7153506 0
4.8000002 -2.1254301 1.7135648 0
4.7940001 -2.1305206 1.711779 0
4.7890005 -2.1360655 1.7102909 0
4.7830005 -2.1411145 1.7085052 0
4.7770004 -2.1461415 1.7067194 0
4.7710004 -2.1511471 1.7049336 0
4.7650003 -2.156131 1.7031479 0
4.7600002 -2.1615784 1.7016597 0
4.7540002 -2.1665208 1.6998739 0
4.7480001 -2.1714416 1.698088 0
4.7430005 -2.1768317 1.6966001 0
4.7370005 -2.1817107 1.6948142 0
4.7310004 -2.1865685 1.6930285 0
4.7260003 -2.1919005 1.6915404 0
4.7200003 -2.1967165 1.6897546 0
4.7140002 -2.2015111 1.6879687 0
4.7090001 -2.2067854 1.6864805 0
4.7030001 -2.2115383 1.6846948 0
4.6980004 -2.2167749 1.6832068 0
4.6920004 -2.2214866 1.681421 0
4.6870003 -2.226685 1.6799328 0
4.6810002 -2.2313552 1.6781471 0
4.6760001 -2.2365158 1.6766587 0
4.6700001 -2.2411442 1.674873 0
4.6650004 -2.2462673 1.673385 0
4.6590004 -2.2508545 1.6715993 0
4.6540003 -2.2559392 1.6701111 0
4.6480002 -2.2604847 1.6683253 0
4.6430001 -2.2655318 1.6668372 0
4.6370001 -2.270036 1.6650513 0
4.6320004 -2.2750454 1.6635633 0
4.6270003 -2.2800364 1.662075 0
4.6210003 -2.2844789 1.6602893 0
4.6160002 -2.2894323 1.6588012 0
4.6100001 -2.2938337 1.6570154 0
4.6050005 -2.2987492 1.6555274 0
4.6000004 -2.3036466 1.6540391 0
4.5940003 -2.3079865 1.6522534 0
4.5890002 -2.3128459 1.6507652 0
4.5840001 -2.3176873 1.649277 0
4.5790005 -2.3225107 1.647789 0
4.5730004 -2.3267694 1.6460032 0
4.5680003 -2.3315549 1.644515 0
4.5630002 -2.3363223 1.6430268 0
4.5580001 -2.3410718 1.6415387 0
4.5530005 -2.3458033 1.6400506 0
4.5470004 -2.349961 1.6382649 0
4.5420003 -2.3546546 1.6367767 0
4.5370002 -2.3593297 1.6352886 0
4.5320001 -2.3639872 1.6338003 0
4.5270004 -2.3686268 1.6323124 0
4.5220003 -2.3732481 1.6308242 0
4.5160003 -2.377285 1.6290383 0
4.5110002 -2.3818684 1.6275501 0
4.5060005 -2.3864341 1.6260622 0
4.5010004 -2.3909814 1.6245739 0
4.9140005 -2.024601 1.7393521 0
4.9080005 -2.0301025 1.7375772 0
4.9020004 -2.0355825 1.7358022 0
4.8960004 -2.0410409 1.7340273 0
4.8890004 -2.046032 1.7319565 0
4.8830004 -2.0514452 1.7301815 0
4.8770003 -2.0568368 1.7284065 0
4.8710003 -2.0622065 1.7266315 0
4.8650002 -2.067555 1.7248566 0
4.8590002 -2.0728815 1.7230817 0
4.8530002 -2.0781865 1.7213067 0
4.8470001 -2.0834699 1.7195318 0
4.8410001 -2.0887315 1.7177567 0
4.8350005 -2.0939717 1.7159821 0
4.8300004 -2.099654 1.7145028 0
4.8240004 -2.1048524 1.7127279 0
4.8180003 -2.1100292 1.710953 0
4.8120003 -2.1151843 1.709178 0
4.8060002 -2.1203182 1.7074031 0
4.8000002 -2.1254301 1.705628 0
4.7940001 -2.1305206 1.7038531 0
4.7890005 -2.1360655 1.7023741 0
4.7830005 -2.1411145 1.7005991 0
4.7770004 -2.1461415 1.6988242 0
4.7710004 -2.1511471 1.6970491 0
4.7650003 -2.156131 1.6952742 0
4.7600002 -2.1615784 1.6937951 0
4.7540002 -2.1665208 1.6920202 0
4.7480001 -2.1714416 1.6902452 0
4.7430005 -2.1768317 1.6887661 0
4.7370005 -2.1817107 1.6869912 0
4.7310004 -2.1865685 1.6852162 0
4.7260003 -2.1919005 1.683737 0
4.7200003 -2.1967165 1.6819621 0
4.7140002 -2.2015111 1.6801871 0
4.7090001 -2.2067854 1.678708 0
4.7030001 -2.2115383 1.6769331 0
4.6980004 -2.2167749 1.675454 0
4.6920004 -2.2214866 1.6736791 0
4.6870003 -2.226685 1.6722 0
4.6810002 -2.2313552 1.6704249 0
4.6760001 -2.2365158 1.6689457 0
4.6700001 -2.2411442 1.6671708 0
4.6650004 -2.2462673 1.6656919 0
4.6590004 -2.2508545 1.6639168 0
4.6540003 -2.2559392 1.6624377 0
4.6480002 -2.2604847 1.6606627 0
4.6430001 -2.2655318 1.6591835 0
4.6370001 -2.270036 1.6574086 0
4.6320004 -2.2750454 1.6559296 0
4.6270003 -2.2800364 1.6544504 0
4.6210003 -2.2844789 1.6526754 0
4.6160002 -2.2894323 1.6511964 0
4.6100001 -2.2938337 1.6494213 0
4.6050005 -2.2987492 1.6479423 0
4.6000004 -2.3036466 1.6464632 0
4.5940003 -2.3079865 1.6446882 0
4.5890002 -2.3128459 1.6432091 0
4.5840001 -2.3176873 1.64173 0
4.5790005 -2.3225107 1.6402509 0
4.5730004 -2.3267694 1.638476 0
4.5680003 -2.3315549 1.6369969 0
4.5630002 -2.3363223 1.6355176 0
4.5580001 -2.3410718 1.6340384 0
4.5530005 -2.3458033 1.6325594 0
4.5470004 -2.349961 1.6307845 0
4.5420003 -2.3546546 1.6293054 0
4.5370002 -2.3593297 1.6278262 0
4.5320001 -2.3639872 1.6263471 0
4.5270004 -2.3686268 1.624868 0
4.5220003 -2.3732481 1.6233889 0
4.5160003 -2.377285 1.621614 0
4.5110002 -2.3818684 1.6201347 0
4.5060005 -2.3864341 1.6186558 0
4.5010004 -2.3909814 1.6171765 0
4.9140005 -2.024601 1.7312096 0
4.9080005 -2.0301025 1.7294456 0
4.9020004 -2.0355825 1.7276814 0
4.8960004 -2.0410409 1.7259172 0
4.8890004 -2.046032 1.7238592 0
4.8830004 -2.0514452 1.7220951 0
4.8770003 -2.0568368 1.720331 0
4.8710003 -2.0622065 1.7185668 0
4.8650002 -2.067555 1.7168027 0
4.8590002 -2.0728815 1.7150385 0
4.8530002 -2.0781865 1.7132744 0
4.8470001 -2.0834699 1.7115103 0
4.8410001 -2.0887315 1.7097461 0
4.8350005 -2.0939717 1.7079822 0
4.8300004 -2.099654 1.706512 0
4.8240004 -2.1048524 1.7047478 0
4.8180003 -2.1100292 1.7029837 0
4.8120003 -2.1151843 1.7012196 0
4.8060002 -2.1203182 1.6994555 0
4.8000002 -2.1254301 1.6976913 0
4.7940001 -2.1305206 1.6959271 0
4.7890005 -2.1360655 1.6944571 0
4.7830005 -2.1411145 1.692693 0
4.7770004 -2.1461415 1.6909288 0
4.7710004 -2.1511471 1.6891646 0
4.7650003 -2.156131 1.6874006 0
4.7600002 -2.1615784 1.6859304 0
4.7540002 -2.1665208 1.6841663 0
4.7480001 -2.1714416 1.6824021 0
4.7430005 -2.1768317 1.6809322 0
4.7370005 -2.1817107 1.679168 0
4.7310004 -2.1865685 1.6774039 0
4.7260003 -2.1919005 1.6759338 0
4.7200003 -2.1967165 1.6741697 0
4.7140002 -2.2015111 1.6724055 0
4.7090001 -2.2067854 1.6709354 0
4.7030001 -2.2115383 1.6691712 0
4.6980004 -2.2167749 1.6677012 0
4.6920004 -2.2214866 1.6659372 0
4.6870003 -2.226685 1.6644669 0
4.6810002 -2.2313552 1.6627028 0
4.6760001 -2.2365158 1.6612326 0
4.6700001 -2.2411442 1.6594685 0
4.6650004 -2.2462673 1.6579986 0
4.6590004 -2.2508545 1.6562344 0
4.6540003 -2.2559392 1.6547643 0
4.6480002 -2.2604847 1.6530001 0
4.6430001 -2.2655318 1.65153 0
4.6370001 -2.270036 1.6497658 0
4.6320004 -2.2750454 1.6482959 0
4.6270003 -2.2800364 1.6468257 0
4.6210003 -2.2844789 1.6450616 0
4.6160002 -2.2894323 1.6435914 0
4.6100001 -2.2938337 1.6418272 0
4.6050005 -2.2987492 1.6403573 0
4.6000004 -2.3036466 1.6388872 0
4.5940003 -2.3079865 1.6371231 0
4.5890002 -2.3128459 1.6356529 0
4.5840001 -2.3176873 1.6341828 0
4.5790005 -2.3225107 1.6327127 0
4.5730004 -2.3267694 1.6309487 0
4.5680003 -2.3315549 1.6294785 0
4.5630002 -2.3363223 1.6280084 0
4.5580001 -2.3410718 1.6265383 0
4.5530005 -2.3458033 1.6250683 0
4.5470004 -2.349961 1.6233041 0
4.5420003 -2.3546546 1.621834 0
4.5370002 -2.3593297 1.6203638 0
4.5320001 -2.3639872 1.6188936 0
4.5270004 -2.3686268 1.6174237 0
4.5220003 -2.3732481 1.6159536 0
4.5160003 -2.377285 1.6141894 0
4.5110002 -2.3818684 1.6127193 0
4.5060005 -2.3864341 1.6112493 0
4.5010004 -2.3909814 1.6097792 0
4.9140005 -2.024601 1.7230673 0
4.9080005 -2.0301025 1.7213141 0
4.9020004 -2.0355825 1.7195606 0
4.8960004 -2.0410409 1.7178074 0
4.8890004 -2.046032 1.7157619 0
4.8830004 -2.0514452 1.7140086 0
4.8770003 -2.0568368 1.7122552 0
4.8710003 -2.0622065 1.7105019 0
4.8650002 -2.067555 1.7087486 0
4.8590002 -2.0728815 1.7069954 0
4.8530002 -2.0781865 1.7052419 0
4.8470001 -2.0834699 1.7034887 0
4.8410001 -2.0887315 1.7017354 0
4.8350005 -2.0939717 1.6999823 0
4.8300004 -2.099654 1.698521 0
4.8240004 -2.1048524 1.6967678 0
4.8180003 -2.1100292 1.6950145 0
4.8120003 -2.1151843 1.6932611 0
4.8060002 -2.1203182 1.6915078 0
4.8000002 -2.1254301 1.6897545 0
4.7940001 -2.1305206 1.6880012 0
4.7890005 -2.1360655 1.6865402 0
4.7830005 -2.1411145 1.6847869 0
4.7770004 -2.1461415 1.6830336 0
4.7710004 -2.1511471 1.6812803 0
4.7650003 -2.156131 1.679527 0
4.7600002 -2.1615784 1.6780658 0
4.7540002 -2.1665208 1.6763126 0
4.7480001 -2.1714416 1.6745592 0
4.7430005 -2.1768317 1.6730982 0
4.7370005 -2.1817107 1.6713449 0
4.7310004 -2.1865685 1.6695917 0
4.7260003 -2.1919005 1.6681305 0
4.7200003 -2.1967165 1.6663772 0
4.7140002 -2.2015111 1.6646239 0
4.7090001 -2.2067854 1.6631627 0
4.7030001 -2.2115383 1.6614095 0
4.6980004 -2.2167749 1.6599485 0
4.6920004 -2.2214866 1.6581953 0
4.6870003 -2.226685 1.656734 0
4.6810002 -2.2313552 1.6549808 0
4.6760001 -2.2365158 1.6535195 0
4.6700001 -2.2411442 1.6517663 0
4.6650004 -2.2462673 1.6503053 0
4.6590004 -2.2508545 1.6485521 0
4.6540003 -2.2559392 1.6470908 0
4.6480002 -2.2604847 1.6453376 0
4.6430001 -2.2655318 1.6438764 0
4.6370001 -2.270036 1.6421231 0
4.6320004 -2.2750454 1.6406621 0
4.6270003 -2.2800364 1.639201 0
4.6210003 -2.2844789 1.6374477 0
4.6160002 -2.2894323 1.6359866 0
4.6100001 -2.2938337 1.6342334 0
4.6050005 -2.2987492 1.6327723 0
4.6000004 -2.3036466 1.6313112 0
4.5940003 -2.3079865 1.6295578 0
4.5890002 -2.3128459 1.6280968 0
4.5840001 -2.3176873 1.6266356 0
4.5790005 -2.3225107 1.6251746 0
4.5730004 -2.3267694 1.6234213 0
4.5680003 -2.3315549 1.6219603 0
4.5630002 -2.3363223 1.6204991 0
4.5580001 -2.3410718 1.619038 0
4.5530005 -2.3458033 1.6175771 0
4.5470004 -2.349961 1.6158236 0
4.5420003 -2.3546546 1.6143626 0
4.5370002 -2.3593297 1.6129014 0
4.5320001 -2.3639872 1.6114403 0
4.5270004 -2.3686268 1.6099794 0
4.5220003 -2.3732481 1.6085182 0
4.5160003 -2.377285 1.606765 0
4.5110002 -2.3818684 1.6053038 0
4.5060005 -2.3864341 1.6038429 0
4.5010004 -2.3909814 1.6023817 0
4.9140005 -2.024601 1.7149251 0
4.9080005 -2.0301025 1.7131824 0
4.9020004 -2.0355825 1.71144 0
4.8960004 -2.0410409 1.7096975 0
4.8890004 -2.046032 1.7076646 0
4.8830004 -2.0514452 1.7059221 0
4.8770003 -2.0568368 1.7041796 0
4.8710003 -2.0622065 1.7024372 0
4.8650002 -2.067555 1.7006947 0
4.8590002 -2.0728815 1.6989522 0
4.8530002 -2.0781865 1.6972096 0
4.8470001 -2.0834699 1.6954671 0
4.8410001 -2.0887315 1.6937246 0
4.8350005 -2.0939717 1.6919824 0
4.8300004 -2.099654 1.6905302 0
4.8240004 -2.1048524 1.6887877 0
4.8180003 -2.1100292 1.6870452 0
4.8120003 -2.1151843 1.6853027 0
4.8060002 -2.1203182 1.6835603 0
4.8000002 -2.1254301 1.6818178 0
4.7940001 -2.1305206 1.6800753 0
4.7890005 -2.1360655 1.6786233 0
4.7830005 -2.1411145 1.6768808 0
4.7770004 -2.1461415 1.6751384 0
4.7710004 -2.1511471 1.6733958 0
4.7650003 -2.156131 1.6716533 0
4.7600002 -2.1615784 1.6702013 0
4.7540002 -2.1665208 1.6684588 0
4.7480001 -2.1714416 1.6667163 0
4.7430005 -2.1768317 1.6652644 0
4.7370005 -2.1817107 1.6635219 0
4.7310004 -2.1865685 1.6617794 0
4.7260003 -2.1919005 1.6603272 0
4.7200003 -2.1967165 1.6585847 0
4.7140002 -2.2015111 1.6568422 0
4.7090001 -2.2067854 1.6553901 0
4.7030001 -2.2115383 1.6536477 0
4.6980004 -2.2167749 1.6521957 0
4.6920004 -2.2214866 1.6504532 0
4.6870003 -2.226685 1.6490011 0
4.6810002 -2.2313552 1.6472586 0
4.6760001 -2.2365158 1.6458064 0
4.6700001 -2.2411442 1.6440639 0
4.6650004 -2.2462673 1.642612 0
4.6590004 -2.2508545 1.6408695 0
4.6540003 -2.2559392 1.6394175 0
4.6480002 -2.2604847 1.637675 0
4.6430001 -2.2655318 1.6362228 0
4.6370001 -2.270036 1.6344804 0
4.6320004 -2.2750454 1.6330284 0
4.6270003 -2.2800364 1.6315764 0
4.6210003 -2.2844789 1.6298339 0
4.6160002 -2.2894323 1.6283817 0
4.6100001 -2.2938337 1.6266392 0
4.6050005 -2.2987492 1.6251873 0
4.6000004 -2.3036466 1.6237352 0
4.5940003 -2.3079865 1.6219927 0
4.5890002 -2.3128459 1.6205406 0
4.5840001 -2.3176873 1.6190885 0
4.5790005 -2.3225107 1.6176364 0
4.5730004 -2.3267694 1.615894 0
4.5680003 -2.3315549 1.614442 0
4.5630002 -2.3363223 1.6129899 0
4.5580001 -2.3410718 1.6115377 0
4.5530005 -2.3458033 1.6100858 0
4.5470004 -2.349961 1.6083434 0
4.5420003 -2.3546546 1.6068913 0
4.5370002 -2.3593297 1.6054391 0
4.5320001 -2.3639872 1.6039871 0
4.5270004 -2.3686268 1.6025351 0
4.5220003 -2.3732481 1.6010829 0
4.5160003 -2.377285 1.5993404 0
4.5110002 -2.3818684 1.5978884 0
4.5060005 -2.3864341 1.5964364 0
4.5010004 -2.3909814 1.5949843 0
4.9140005 -2.024601 1.7067826 0
4.9080005 -2.0301025 1.7050508 0
4.9020004 -2.0355825 1.7033193 0
4.8960004 -2.0410409 1.7015876 0
4.8890004 -2.046032 1.6995673 0
4.8830004 -2.0514452 1.6978356 0
4.8770003 -2.0568368 1.696104 0
4.8710003 -2.0622065 1.6943723 0
4.8650002 -2.067555 1.6926407 0
4.8590002 -2.0728815 1.6909089 0
4.8530002 -2.0781865 1.6891773 0
4.8470001 -2.0834699 1.6874456 0
4.8410001 -2.0887315 1.685714 0
4.8350005 -2.0939717 1.6839825 0
4.8300004 -2.099654 1.6825393 0
4.8240004 -2.1048524 1.6808077 0
4.8180003 -2.1100292 1.679076 0
4.8120003 -2.1151843 1.6773443 0
4.8060002 -2.1203182 1.6756127 0
4.8000002 -2.1254301 1.6738809 0
4.7940001 -2.1305206 1.6721494 0
4.7890005 -2.1360655 1.6707064 0
4.7830005 -2.1411145 1.6689746 0
4.7770004 -2.1461415 1.6672431 0
4.7710004 -2.1511471 1.6655114 0
4.7650003 -2.156131 1.6637797 0
4.7600002 -2.1615784 1.6623367 0
4.7540002 -2.1665208 1.660605 0
4.7480001 -2.1714416 1.6588733 0
4.7430005 -2.1768317 1.6574304 0
4.7370005 -2.1817107 1.6556987 0
4.7310004 -2.1865685 1.6539671 0
4.7260003 -2.1919005 1.652524 0
4.7200003 -2.1967165 1.6507922 0
4.7140002 -2.2015111 1.6490606 0
4.7090001 -2.2067854 1.6476176 0
4.7030001 -2.2115383 1.6458858 0
4.6980004 -2.2167749 1.6444429 0
4.6920004 -2.2214866 1.6427113 0
4.6870003 -2.226685 1.6412683 0
4.6810002 -2.2313552 1.6395365 0
4.6760001 -2.2365158 1.6380935 0
4.6700001 -2.2411442 1.6363618 0
4.6650004 -2.2462673 1.6349188 0
4.6590004 -2.2508545 1.6331872 0
4.6540003 -2.2559392 1.631744 0
4.6480002 -2.2604847 1.6300125 0
4.6430001 -2.2655318 1.6285694 0
4.6370001 -2.270036 1.6268376 0
4.6320004 -2.2750454 1.6253947 0
4.6270003 -2.2800364 1.6239517 0
4.6210003 -2.2844789 1.62222 0
4.6160002 -2.2894323 1.6207769 0
4.6100001 -2.2938337 1.6190451 0
4.6050005 -2.2987492 1.6176022 0
4.6000004 -2.3036466 1.6161592 0
4.5940003 -2.3079865 1.6144276 0
4.5890002 -2.3128459 1.6129844 0
4.5840001 -2.3176873 1.6115414 0
4.5790005 -2.3225107 1.6100985 0
4.5730004 -2.3267694 1.6083667 0
4.5680003 -2.3315549 1.6069236 0
4.5630002 -2.3363223 1.6054806 0
4.5580001 -2.3410718 1.6040375 0
4.5530005 -2.3458033 1.6025946 0
4.5470004 -2.349961 1.6008629 0
4.5420003 -2.3546546 1.5994198 0
4.5370002 -2.3593297 1.5979768 0
4.5320001 -2.3639872 1.5965337 0
4.5270004 -2.3686268 1.5950907 0
4.5220003 -2.3732481 1.5936476 0
4.5160003 -2.377285 1.5919161 0
4.5110002 -2.3818684 1.5904729 0
4.5060005 -2.3864341 1.58903 0
4.5010004 -2.3909814 1.5875869 0
4.9140005 -2.024601 1.6986402 0
4.9080005 -2.0301025 1.6969193 0
4.9020004 -2.0355825 1.6951985 0
4.8960004 -2.0410409 1.6934776 0
4.8890004 -2.046032 1.69147 0
4.8830004 -2.0514452 1.6897492 0
4.8770003 -2.0568368 1.6880283 0
4.8710003 -2.0622065 1.6863074 0
4.8650002 -2.067555 1.6845865 0
4.8590002 -2.0728815 1.6828657 0
4.8530002 -2.0781865 1.681145 0
4.8470001 -2.0834699 1.679424 0
4.8410001 -2.0887315 1.6777033 0
4.8350005 -2.0939717 1.6759825 0
4.8300004 -2.099654 1.6745485 0
4.8240004 -2.1048524 1.6728276 0
4.8180003 -2.1100292 1.6711068 0
4.8120003 -2.1151843 1.669386 0
4.8060002 -2.1203182 1.6676651 0
4.8000002 -2.1254301 1.6659443 0
4.7940001 -2.1305206 1.6642234 0
4.7890005 -2.1360655 1.6627895 0
4.7830005 -2.1411145 1.6610686 0
4.7770004 -2.1461415 1.6593478 0
4.7710004 -2.1511471 1.657627 0
4.7650003 -2.156131 1.6559061 0
4.7600002 -2.1615784 1.6544721 0
4.7540002 -2.1665208 1.6527512 0
4.7480001 -2.1714416 1.6510304 0
4.7430005 -2.1768317 1.6495965 0
4.7370005 -2.1817107 1.6478755 0
4.7310004 -2.1865685 1.6461546 0
4.7260003 -2.1919005 1.6447207 0
4.7200003 -2.1967165 1.6429998 0
4.7140002 -2.2015111 1.641279 0
4.7090001 -2.2067854 1.6398449 0
4.7030001 -2.2115383 1.6381241 0
4.6980004 -2.2167749 1.6366903 0
4.6920004 -2.2214866 1.6349694 0
4.6870003 -2.226685 1.6335353 0
4.6810002 -2.2313552 1.6318144 0
4.6760001 -2.2365158 1.6303804 0
4.6700001 -2.2411442 1.6286595 0
4.6650004 -2.2462673 1.6272256 0
4.6590004 -2.2508545 1.6255047 0
4.6540003 -2.2559392 1.6240708 0
4.6480002 -2.2604847 1.6223499 0
4.6430001 -2.2655318 1.6209158 0
4.6370001 -2.270036 1.6191949 0
4.6320004 -2.2750454 1.617761 0
4.6270003 -2.2800364 1.6163269 0
4.6210003 -2.2844789 1.6146061 0
4.6160002 -2.2894323 1.6131721 0
4.6100001 -2.2938337 1.6114511 0
4.6050005 -2.2987492 1.6100173 0
4.6000004 -2.3036466 1.6085832 0
4.5940003 -2.3079865 1.6068624 0
4.5890002 -2.3128459 1.6054283 0
4.5840001 -2.3176873 1.6039943 0
4.5790005 -2.3225107 1.6025603 0
4.5730004 -2.3267694 1.6008395 0
4.5680003 -2.3315549 1.5994054 0
4.5630002 -2.3363223 1.5979713 0
4.5580001 -2.3410718 1.5965374 0
4.5530005 -2.3458033 1.5951033 0
4.5470004 -2.349961 1.5933825 0
4.5420003 -2.3546546 1.5919484 0
4.5370002 -2.3593297 1.5905144 0
4.5320001 -2.3639872 1.5890803 0
4.5270004 -2.3686268 1.5876464 0
4.5220003 -2.3732481 1.5862123 0
4.5160003 -2.377285 1.5844915 0
4.5110002 -2.3818684 1.5830574 0
4.5060005 -2.3864341 1.5816236 0
4.5010004 -2.3909814 1.5801895 0
4.9140005 -2.024601 1.6904978 0
4.9080005 -2.0301025 1.6887877 0
4.9020004 -2.0355825 1.6870778 0
4.8960004 -2.0410409 1.6853677 0
4.8890004 -2.046032 1.6833726 0
4.8830004 -2.0514452 1.6816627 0
4.8770003 -2.0568368 1.6799526 0
4.8710003 -2.0622065 1.6782427 0
4.8650002 -2.067555 1.6765326 0
4.8590002 -2.0728815 1.6748226 0
4.8530002 -2.0781865 1.6731126 0
4.8470001 -2.0834699 1.6714025 0
4.8410001 -2.0887315 1.6696925 0
4.8350005 -2.0939717 1.6679826 0
4.8300004 -2.099654 1.6665577 0
4.8240004 -2.1048524 1.6648476 0
