# .PCD v0.7 - Point Cloud Data file format
VERSION 0.7
FIELDS x y z intensity
SIZE 4 4 4 4
TYPE F F F F
COUNT 1 1 1 1
WIDTH 1456
HEIGHT 1
VIEWPOINT 0 0 0 1 0 0 0
POINTS 1456
DATA ascii
4.2840004 -0.57845533 2.0293901 0
4.2860003 -0.58573914 2.0302269 0
4.2880001 -0.5930301 2.0310638 0
4.29 -0.60032827 2.0319009 0
4.2920003 -0.60763371 2.0327377 0
4.2940001 -0.61494642 2.0335748 0
4.2950001 -0.62211829 2.0339932 0
4.2969999 -0.62944359 2.0348301 0
4.2990003 -0.63677609 2.0356672 0
4.3010001 -0.64411575 2.0365043 0
4.303 -0.65146267 2.0373411 0
4.3050003 -0.65881681 2.038178 0
4.3070002 -0.66617817 2.0390151 0
4.3080001 -0.67338616 2.0394335 0
4.3099999 -0.68076009 2.0402703 0
4.3120003 -0.68814129 2.0411074 0
4.3140001 -0.6955297 2.0419445 0
4.316 -0.70292532 2.0427814 0
4.3180003 -0.71032816 2.0436184 0
4.3200002 -0.71773815 2.0444553 0
4.322 -0.72515547 2.0452924 0
4.323 -0.73240495 2.0457108 0
4.3250003 -0.73983485 2.0465477 0
4.3270001 -0.74727196 2.0473847 0
4.329 -0.75471628 2.0482216 0
4.3310003 -0.76216781 2.0490587 0
4.3330002 -0.76962656 2.0498955 0
4.335 -0.77709252 2.0507326 0
4.3370004 -0.78456569 2.0515695 0
4.3390002 -0.79204601 2.0524065 0
4.3400002 -0.79934251 2.052825 0
4.342 -0.80683547 2.0536618 0
4.3440003 -0.81433576 2.0544989 0
4.3460002 -0.82184315 2.055336 0
4.348 -0.82935786 2.0561728 0
4.3500004 -0.83687979 2.0570099 0
4.3520002 -0.84440881 2.0578468 0
4.3540001 -0.85194516 2.0586839 0
4.3559999 -0.85948861 2.0595207 0
4.3580003 -0.86703938 2.0603578 0
4.3600001 -0.87459737 2.0611947 0
4.3610001 -0.88195145 2.0616131 0
4.3630004 -0.88952208 2.0624502 0
4.3650002 -0.89709985 2.063287 0
4.3670001 -0.9046849 2.0641241 0
4.369 -0.9122771 2.064961 0
4.3710003 -0.91987658 2.065798 0
4.3730001 -0.92748326 2.0666351 0
4.375 -0.9350971 2.067472 0
4.3770003 -0.94271821 2.0683088 0
4.3790002 -0.95034647 2.0691459 0
4.381 -0.957982 2.0699828 0
4.3830004 -0.96562475 2.0708199 0
4.3850002 -0.97327465 2.0716567 0
4.3870001 -0.98093194 2.0724938 0
4.388 -0.98835993 2.0729122 0
4.3900003 -0.99602979 2.0737493 0
4.3920002 -1.0037067 2.0745862 0
4.3940001 -1.0113909 2.075423 0
4.3960004 -1.0190823 2.0762601 0
4.3980002 -1.026781 2.0770969 0
4.4000001 -1.0344869 2.077934 0
4.4020004 -1.0422001 2.0787711 0
4.4040003 -1.0499203 2.079608 0
4.4060001 -1.0576478 2.0804448 0
4.4080005 -1.0653826 2.0812819 0
4.4100003 -1.0731245 2.082119 0
4.4120002 -1.0808736 2.0829558 0
4.4140005 -1.0886301 2.0837929 0
4.4160004 -1.0963937 2.0846298 0
4.4180002 -1.1041644 2.0854666 0
4.4200001 -1.1119424 2.0863037 0
4.4220004 -1.1197277 2.0871408 0
4.4240003 -1.1275202 2.0879776 0
4.4260001 -1.1353198 2.0888145 0
4.4280005 -1.1431267 2.0896516 0
4.4260001 -1.1498441 2.0888145 0
4.4210005 -1.1557263 2.0867221 0
4.4150004 -1.1613127 2.0842113 0
4.4090004 -1.1668774 2.0817003 0
4.4110003 -1.1746716 2.0825374 0
4.4210005 -1.1847388 2.0867221 0
4.4460001 -1.2137132 2.0971842 0
4.4480004 -1.2215923 2.0980213 0
4.4500003 -1.2294786 2.0988581 0
4.4520001 -1.237372 2.0996952 0
4.4540005 -1.2452729 2.1005323 0
4.2480001 -0.35834745 2.0073836 0
4.2480001 -0.3652885 2.0073836 0
4.2480001 -0.37222958 2.0073836 0
4.2480001 -0.3791706 2.0073836 0
4.2480001 -0.38611168 2.0073836 0
4.2480001 -0.3930527 2.0073836 0
4.2480001 -0.39999378 2.0073836 0
4.2480001 -0.40693483 2.0073836 0
4.2480001 -0.41387588 2.0073836 0
4.2480001 -0.42081696 2.0073836 0
4.2480001 -0.42775798 2.0073836 0
4.2480001 -0.43469906 2.0073836 0
4.25 -0.44184572 2.0082169 0
4.2509999 -0.44889498 2.0086334 0
4.2530003 -0.45605433 2.0094669 0
4.2550001 -0.46322086 2.0103002 0
4.257 -0.47039458 2.0111337 0
4.2590003 -0.47757554 2.0119669 0
4.2600002 -0.48465008 2.0123837 0
4.2620001 -0.49184367 2.013217 0
4.2639999 -0.49904448 2.0140502 0
4.2660003 -0.50625247 2.0148838 0
4.2680001 -0.51346773 2.015717 0
4.27 -0.52069014 2.0165503 0
4.2710004 -0.52779537 2.0169671 0
4.2730002 -0.53503042 2.0178003 0
4.2750001 -0.54227275 2.0186338 0
4.277 -0.54952222 2.0194671 0
4.2790003 -0.55677897 2.0203006 0
4.2810001 -0.56404293 2.0211339 0
4.2820001 -0.57117879 2.0215507 0
4.2840004 -0.57845533 2.0223839 0
4.2860003 -0.58573914 2.0232172 0
4.2880001 -0.5930301 2.0240507 0
4.29 -0.60032827 2.024884 0
4.2920003 -0.60763371 2.0257175 0
4.2940001 -0.61494642 2.0265508 0
4.2950001 -0.62211829 2.0269675 0
4.2969999 -0.62944359 2.0278008 0
4.2990003 -0.63677609 2.0286341 0
4.3010001 -0.64411575 2.0294676 0
4.303 -0.65146267 2.0303009 0
4.3050003 -0.65881681 2.0311341 0
4.3070002 -0.66617817 2.0319676 0
4.3080001 -0.67338616 2.0323842 0
4.3099999 -0.68076009 2.0332177 0
4.3120003 -0.68814129 2.0340509 0
4.3140001 -0.6955297 2.0348842 0
4.316 -0.70292532 2.0357177 0
4.3180003 -0.71032816 2.036551 0
4.3200002 -0.71773815 2.0373843 0
4.322 -0.72515547 2.0382178 0
4.323 -0.73240495 2.0386343 0
4.3250003 -0.73983485 2.0394678 0
4.3270001 -0.74727196 2.0403013 0
4.329 -0.75471628 2.0411346 0
4.3310003 -0.76216781 2.0419679 0
4.3330002 -0.76962656 2.0428011 0
4.335 -0.77709252 2.0436347 0
4.3370004 -0.78456569 2.0444679 0
4.3390002 -0.79204601 2.0453014 0
4.3400002 -0.79934251 2.045718 0
4.342 -0.80683547 2.0465515 0
4.3440003 -0.81433576 2.0473847 0
4.3460002 -0.82184315 2.048218 0
4.348 -0.82935786 2.0490515 0
4.3500004 -0.83687979 2.0498848 0
4.3520002 -0.84440881 2.0507181 0
4.3540001 -0.85194516 2.0515516 0
4.3559999 -0.85948861 2.0523849 0
4.3580003 -0.86703938 2.0532181 0
4.3600001 -0.87459737 2.0540516 0
4.3610001 -0.88195145 2.0544682 0
4.3630004 -0.88952208 2.0553017 0
4.3650002 -0.89709985 2.0561349 0
4.3670001 -0.9046849 2.0569685 0
4.369 -0.9122771 2.0578017 0
4.3710003 -0.91987658 2.058635 0
4.3730001 -0.92748326 2.0594685 0
4.375 -0.9350971 2.0603018 0
4.3770003 -0.94271821 2.0611353 0
4.3790002 -0.95034647 2.0619686 0
4.381 -0.957982 2.0628018 0
4.3830004 -0.96562475 2.0636353 0
4.3850002 -0.97327465 2.0644686 0
4.3870001 -0.98093194 2.0653019 0
4.388 -0.98835993 2.0657187 0
4.3900003 -0.99602979 2.0665519 0
4.3920002 -1.0037067 2.0673854 0
4.3940001 -1.0113909 2.0682187 0
4.3960004 -1.0190823 2.069052 0
4.3980002 -1.026781 2.0698855 0
4.4000001 -1.0344869 2.0707188 0
4.4020004 -1.0422001 2.0715523 0
4.4040003 -1.0499203 2.0723855 0
4.4060001 -1.0576478 2.0732188 0
4.4080005 -1.0653826 2.0740523 0
4.4100003 -1.0731245 2.0748856 0
4.4120002 -1.0808736 2.0757189 0
4.4140005 -1.0886301 2.0765524 0
4.4160004 -1.0963937 2.0773857 0
4.4180002 -1.1041644 2.0782189 0
4.4200001 -1.1119424 2.0790522 0
4.4220004 -1.1197277 2.0798857 0
4.4240003 -1.1275202 2.0807192 0
4.4260001 -1.1353198 2.0815523 0
4.4280005 -1.1431267 2.0823858 0
4.4260001 -1.1498441 2.0815523 0
4.4210005 -1.1557263 2.0794692 0
4.4150004 -1.1613127 2.0769691 0
4.4090004 -1.1668774 2.0744689 0
4.4110003 -1.1746716 2.0753021 0
4.4210005 -1.1847388 2.0794692 0
4.4460001 -1.2137132 2.089886 0
4.4480004 -1.2215923 2.0907195 0
4.4500003 -1.2294786 2.0915527 0
4.4520001 -1.237372 2.092386 0
4.4540005 -1.2452729 2.0932195 0
4.2639999 -0.42237541 2.0070803 0
4.2639999 -0.42934531 2.0070803 0
4.2639999 -0.43631524 2.0070803 0
4.2639999 -0.44328514 2.0070803 0
4.2639999 -0.45025507 2.0070803 0
4.2639999 -0.45722497 2.0070803 0
4.2639999 -0.46419489 2.0070803 0
4.2639999 -0.47116482 2.0070803 0
4.2639999 -0.47813472 2.0070803 0
4.2639999 -0.48510465 2.0070803 0
4.2639999 -0.49207455 2.0070803 0
4.2639999 -0.49904448 2.0070803 0
4.2660003 -0.50625247 2.0079103 0
4.2680001 -0.51346773 2.0087399 0
4.27 -0.52069014 2.0095696 0
4.2710004 -0.52779537 2.0099847 0
4.2730002 -0.53503042 2.0108144 0
4.2750001 -0.54227275 2.0116441 0
4.277 -0.54952222 2.0124738 0
4.2790003 -0.55677897 2.0133035 0
4.2810001 -0.56404293 2.0141335 0
4.2820001 -0.57117879 2.0145483 0
4.2840004 -0.57845533 2.015378 0
4.2860003 -0.58573914 2.0162077 0
4.2880001 -0.5930301 2.0170374 0
4.29 -0.60032827 2.0178671 0
4.2920003 -0.60763371 2.018697 0
4.2940001 -0.61494642 2.0195267 0
4.2950001 -0.62211829 2.0199416 0
4.2969999 -0.62944359 2.0207713 0
4.2990003 -0.63677609 2.021601 0
4.3010001 -0.64411575 2.0224309 0
4.303 -0.65146267 2.0232606 0
4.3050003 -0.65881681 2.0240903 0
4.3070002 -0.66617817 2.0249202 0
4.3080001 -0.67338616 2.0253348 0
4.3099999 -0.68076009 2.0261648 0
4.3120003 -0.68814129 2.0269945 0
4.3140001 -0.6955297 2.0278244 0
4.316 -0.70292532 2.0286541 0
4.3180003 -0.71032816 2.0294838 0
4.3200002 -0.71773815 2.0303135 0
4.322 -0.72515547 2.0311432 0
4.323 -0.73240495 2.031558 0
4.3250003 -0.73983485 2.032388 0
4.3270001 -0.74727196 2.0332177 0
4.329 -0.75471628 2.0340474 0
4.3310003 -0.76216781 2.0348771 0
4.3330002 -0.76962656 2.0357068 0
4.335 -0.77709252 2.0365367 0
4.3370004 -0.78456569 2.0373664 0
4.3390002 -0.79204601 2.0381961 0
4.3400002 -0.79934251 2.0386112 0
4.342 -0.80683547 2.0394406 0
4.3440003 -0.81433576 2.0402706 0
4.3460002 -0.82184315 2.0411003 0
4.348 -0.82935786 2.04193 0
4.3500004 -0.83687979 2.0427599 0
4.3520002 -0.84440881 2.0435896 0
4.3540001 -0.85194516 2.0444193 0
4.3559999 -0.85948861 2.045249 0
4.3580003 -0.86703938 2.0460787 0
4.3600001 -0.87459737 2.0469086 0
4.3610001 -0.88195145 2.0473235 0
4.3630004 -0.88952208 2.0481532 0
4.3650002 -0.89709985 2.0489829 0
4.3670001 -0.9046849 2.0498126 0
4.369 -0.9122771 2.0506423 0
4.3710003 -0.91987658 2.0514722 0
4.3730001 -0.92748326 2.0523019 0
4.375 -0.9350971 2.0531316 0
4.3770003 -0.94271821 2.0539615 0
4.3790002 -0.95034647 2.0547912 0
4.381 -0.957982 2.0556209 0
4.3830004 -0.96562475 2.0564508 0
4.3850002 -0.97327465 2.0572805 0
4.3870001 -0.98093194 2.0581102 0
4.388 -0.98835993 2.0585251 0
4.3900003 -0.99602979 2.0593548 0
4.3920002 -1.0037067 2.0601845 0
4.3940001 -1.0113909 2.0610144 0
4.3960004 -1.0190823 2.0618441 0
4.3980002 -1.026781 2.0626738 0
4.4000001 -1.0344869 2.0635035 0
4.4020004 -1.0422001 2.0643334 0
4.4040003 -1.0499203 2.0651631 0
4.4060001 -1.0576478 2.0659928 0
4.4080005 -1.0653826 2.0668225 0
4.4100003 -1.0731245 2.0676522 0
4.4120002 -1.0808736 2.0684819 0
4.4140005 -1.0886301 2.0693119 0
4.4160004 -1.0963937 2.0701416 0
4.4180002 -1.1041644 2.0709713 0
4.4200001 -1.1119424 2.0718009 0
4.4220004 -1.1197277 2.0726309 0
4.4240003 -1.1275202 2.0734606 0
4.4260001 -1.1353198 2.0742903 0
4.4280005 -1.1431267 2.0751202 0
4.4260001 -1.1498441 2.0742903 0
4.4210005 -1.1557263 2.072216 0
4.4150004 -1.1613127 2.0697267 0
4.4090004 -1.1668774 2.0672374 0
4.4110003 -1.1746716 2.0680671 0
4.4210005 -1.1847388 2.072216 0
4.4460001 -1.2137132 2.0825877 0
4.4480004 -1.2215923 2.0834177 0
4.4500003 -1.2294786 2.0842474 0
4.4520001 -1.237372 2.085077 0
4.4540005 -1.2452729 2.085907 0
4.2810001 -0.50103766 2.0071328 0
4.2810001 -0.50803828 2.0071328 0
4.2810001 -0.51503885 2.0071328 0
4.2810001 -0.52203941 2.0071328 0
4.2810001 -0.52904004 2.0071328 0
4.2810001 -0.53604054 2.0071328 0
4.2810001 -0.54304117 2.0071328 0
4.2810001 -0.55004174 2.0071328 0
4.2810001 -0.55704236 2.0071328 0
4.2810001 -0.56404293 2.0071328 0
4.2820001 -0.57117879 2.0075457 0
4.2840004 -0.57845533 2.0083721 0
4.2860003 -0.58573914 2.0091982 0
4.2880001 -0.5930301 2.0100243 0
4.29 -0.60032827 2.0108504 0
4.2920003 -0.60763371 2.0116765 0
4.2940001 -0.61494642 2.0125027 0
4.2950001 -0.62211829 2.0129158 0
4.2969999 -0.62944359 2.013742 0
4.2990003 -0.63677609 2.0145681 0
4.3010001 -0.64411575 2.0153942 0
4.303 -0.65146267 2.0162203 0
4.3050003 -0.65881681 2.0170465 0
4.3070002 -0.66617817 2.0178726 0
4.3080001 -0.67338616 2.0182858 0
4.3099999 -0.68076009 2.0191119 0
4.3120003 -0.68814129 2.019938 0
4.3140001 -0.6955297 2.0207641 0
4.316 -0.70292532 2.0215902 0
4.3180003 -0.71032816 2.0224164 0
4.3200002 -0.71773815 2.0232425 0
4.322 -0.72515547 2.0240688 0
4.323 -0.73240495 2.0244818 0
4.3250003 -0.73983485 2.0253079 0
4.3270001 -0.74727196 2.026134 0
4.329 -0.75471628 2.0269601 0
4.3310003 -0.76216781 2.0277863 0
4.3330002 -0.76962656 2.0286126 0
4.335 -0.77709252 2.0294387 0
4.3370004 -0.78456569 2.0302649 0
4.3390002 -0.79204601 2.031091 0
4.3400002 -0.79934251 2.0315042 0
4.342 -0.80683547 2.03233 0
4.3440003 -0.81433576 2.0331562 0
4.3460002 -0.82184315 2.0339825 0
4.348 -0.82935786 2.0348086 0
4.3500004 -0.83687979 2.0356348 0
4.3520002 -0.84440881 2.0364609 0
4.3540001 -0.85194516 2.037287 0
4.3559999 -0.85948861 2.0381131 0
4.3580003 -0.86703938 2.0389392 0
4.3600001 -0.87459737 2.0397656 0
4.3610001 -0.88195145 2.0401785 0
4.3630004 -0.88952208 2.0410047 0
4.3650002 -0.89709985 2.0418308 0
4.3670001 -0.9046849 2.0426569 0
4.369 -0.9122771 2.043483 0
4.3710003 -0.91987658 2.0443094 0
4.3730001 -0.92748326 2.0451355 0
4.375 -0.9350971 2.0459614 0
4.3770003 -0.94271821 2.0467877 0
4.3790002 -0.95034647 2.0476139 0
4.381 -0.957982 2.04844 0
4.3830004 -0.96562475 2.0492661 0
4.3850002 -0.97327465 2.0500922 0
4.3870001 -0.98093194 2.0509183 0
4.388 -0.98835993 2.0513315 0
4.3900003 -0.99602979 2.0521576 0
4.3920002 -1.0037067 2.0529838 0
4.3940001 -1.0113909 2.0538099 0
4.3960004 -1.0190823 2.054636 0
4.3980002 -1.026781 2.0554621 0
4.4000001 -1.0344869 2.0562882 0
4.4020004 -1.0422001 2.0571146 0
4.4040003 -1.0499203 2.0579405 0
4.4060001 -1.0576478 2.0587666 0
4.4080005 -1.0653826 2.059593 0
4.4100003 -1.0731245 2.0604191 0
4.4120002 -1.0808736 2.0612452 0
4.4140005 -1.0886301 2.0620716 0
4.4160004 -1.0963937 2.0628974 0
4.4180002 -1.1041644 2.0637236 0
4.4200001 -1.1119424 2.0645497 0
4.4220004 -1.1197277 2.065376 0
4.4240003 -1.1275202 2.0662019 0
4.4260001 -1.1353198 2.067028 0
4.4280005 -1.1431267 2.0678544 0
4.4260001 -1.1498441 2.067028 0
4.4210005 -1.1557263 2.0649629 0
4.4150004 -1.1613127 2.0624845 0
4.4090004 -1.1668774 2.0600061 0
4.4110003 -1.1746716 2.060832 0
4.4210005 -1.1847388 2.0649629 0
4.4460001 -1.2137132 2.0752895 0
4.4480004 -1.2215923 2.0761158 0
4.4500003 -1.2294786 2.076942 0
4.4520001 -1.237372 2.0777681 0
4.4540005 -1.2452729 2.0785942 0
4.2980003 -0.57334334 2.0071237 0
4.2980003 -0.5803746 2.0071237 0
4.2980003 -0.58740586 2.0071237 0
4.2980003 -0.59443706 2.0071237 0
4.2980003 -0.60146832 2.0071237 0
4.2980003 -0.60849959 2.0071237 0
4.2980003 -0.61553079 2.0071237 0
4.2980003 -0.62256205 2.0071237 0
4.2980003 -0.62959331 2.0071237 0
4.2990003 -0.63677609 2.007535 0
4.3010001 -0.64411575 2.0083575 0
4.303 -0.65146267 2.0091801 0
4.3050003 -0.65881681 2.0100026 0
4.3070002 -0.66617817 2.0108252 0
4.3080001 -0.67338616 2.0112364 0
4.3099999 -0.68076009 2.012059 0
4.3120003 -0.68814129 2.0128815 0
4.3140001 -0.6955297 2.0137041 0
4.316 -0.70292532 2.0145266 0
4.3180003 -0.71032816 2.0153491 0
4.3200002 -0.71773815 2.0161715 0
4.322 -0.72515547 2.0169942 0
4.323 -0.73240495 2.0174055 0
4.3250003 -0.73983485 2.0182281 0
4.3270001 -0.74727196 2.0190506 0
4.329 -0.75471628 2.0198729 0
4.3310003 -0.76216781 2.0206957 0
4.3330002 -0.76962656 2.021518 0
4.335 -0.77709252 2.0223408 0
4.3370004 -0.78456569 2.0231633 0
4.3390002 -0.79204601 2.0239856 0
4.3400002 -0.79934251 2.0243971 0
4.342 -0.80683547 2.0252197 0
4.3440003 -0.81433576 2.026042 0
4.3460002 -0.82184315 2.0268645 0
4.348 -0.82935786 2.0276871 0
4.3500004 -0.83687979 2.0285096 0
4.3520002 -0.84440881 2.0293322 0
4.3540001 -0.85194516 2.0301547 0
4.3559999 -0.85948861 2.0309772 0
4.3580003 -0.86703938 2.0317998 0
4.3600001 -0.87459737 2.0326223 0
4.3610001 -0.88195145 2.0330336 0
4.3630004 -0.88952208 2.0338562 0
4.3650002 -0.89709985 2.0346787 0
4.3670001 -0.9046849 2.0355012 0
4.369 -0.9122771 2.0363238 0
4.3710003 -0.91987658 2.0371463 0
4.3730001 -0.92748326 2.0379689 0
4.375 -0.9350971 2.0387914 0
4.3770003 -0.94271821 2.039614 0
4.3790002 -0.95034647 2.0404365 0
4.381 -0.957982 2.0412591 0
4.3830004 -0.96562475 2.0420816 0
4.3850002 -0.97327465 2.0429041 0
4.3870001 -0.98093194 2.0437267 0
4.388 -0.98835993 2.044138 0
4.3900003 -0.99602979 2.0449605 0
4.3920002 -1.0037067 2.0457828 0
4.3940001 -1.0113909 2.0466053 0
4.3960004 -1.0190823 2.0474281 0
4.3980002 -1.026781 2.0482504 0
4.4000001 -1.0344869 2.049073 0
4.4020004 -1.0422001 2.0498958 0
4.4040003 -1.0499203 2.0507181 0
4.4060001 -1.0576478 2.0515406 0
4.4080005 -1.0653826 2.0523634 0
4.4100003 -1.0731245 2.0531857 0
4.4120002 -1.0808736 2.0540082 0
4.4140005 -1.0886301 2.054831 0
4.4160004 -1.0963937 2.0556533 0
4.4180002 -1.1041644 2.0564759 0
4.4200001 -1.1119424 2.0572984 0
4.4220004 -1.1197277 2.058121 0
4.4240003 -1.1275202 2.0589435 0
4.4260001 -1.1353198 2.0597661 0
4.4280005 -1.1431267 2.0605886 0
4.4260001 -1.1498441 2.0597661 0
4.4210005 -1.1557263 2.0577097 0
4.4150004 -1.1613127 2.0552423 0
4.4090004 -1.1668774 2.0527744 0
4.4110003 -1.1746716 2.053597 0
4.4210005 -1.1847388 2.0577097 0
4.4460001 -1.2137132 2.0679913 0
4.4480004 -1.2215923 2.068814 0
4.4500003 -1.2294786 2.0696366 0
4.4520001 -1.237372 2.0704589 0
4.4540005 -1.2452729 2.0712817 0
4.316 -0.63935184 2.0074627 0
4.316 -0.64641559 2.0074627 0
4.316 -0.65347928 2.0074627 0
4.316 -0.66054302 2.0074627 0
4.316 -0.66760671 2.0074627 0
4.316 -0.67467046 2.0074627 0
4.316 -0.68173414 2.0074627 0
4.316 -0.68879789 2.0074627 0
4.316 -0.69586158 2.0074627 0
4.3180003 -0.71032816 2.0082817 0
4.3200002 -0.71773815 2.0091007 0
4.322 -0.72515547 2.0099196 0
4.323 -0.73240495 2.010329 0
4.3250003 -0.73983485 2.011148 0
4.3270001 -0.74727196 2.0119669 0
4.329 -0.75471628 2.0127859 0
4.3310003 -0.76216781 2.0136049 0
4.3330002 -0.76962656 2.0144236 0
4.335 -0.77709252 2.0152426 0
4.3370004 -0.78456569 2.0160615 0
4.3390002 -0.79204601 2.0168805 0
4.3400002 -0.79934251 2.0172901 0
4.342 -0.80683547 2.0181088 0
4.3440003 -0.81433576 2.0189278 0
4.3460002 -0.82184315 2.0197468 0
4.348 -0.82935786 2.0205657 0
4.3500004 -0.83687979 2.0213847 0
4.3520002 -0.84440881 2.0222034 0
4.3540001 -0.85194516 2.0230224 0
4.3559999 -0.85948861 2.0238414 0
4.3580003 -0.86703938 2.0246603 0
4.3600001 -0.87459737 2.0254793 0
4.3610001 -0.88195145 2.0258887 0
4.3630004 -0.88952208 2.0267076 0
4.3650002 -0.89709985 2.0275266 0
4.3670001 -0.9046849 2.0283456 0
4.369 -0.9122771 2.0291643 0
4.3710003 -0.91987658 2.0299835 0
4.3730001 -0.92748326 2.0308025 0
4.375 -0.9350971 2.0316212 0
4.3770003 -0.94271821 2.0324402 0
4.3790002 -0.95034647 2.0332592 0
4.381 -0.957982 2.0340779 0
4.3830004 -0.96562475 2.0348971 0
4.3850002 -0.97327465 2.0357158 0
4.3870001 -0.98093194 2.0365348 0
4.388 -0.98835993 2.0369444 0
4.3900003 -0.99602979 2.0377631 0
4.3920002 -1.0037067 2.0385821 0
4.3940001 -1.0113909 2.0394011 0
4.3960004 -1.0190823 2.04022 0
4.3980002 -1.026781 2.041039 0
4.4000001 -1.0344869 2.0418577 0
4.4020004 -1.0422001 2.0426769 0
4.4040003 -1.0499203 2.0434957 0
4.4060001 -1.0576478 2.0443146 0
4.4080005 -1.0653826 2.0451336 0
4.4100003 -1.0731245 2.0459526 0
4.4120002 -1.0808736 2.0467713 0
4.4140005 -1.0886301 2.0475905 0
4.4160004 -1.0963937 2.0484095 0
4.4180002 -1.1041644 2.0492282 0
4.4200001 -1.1119424 2.0500469 0
4.4220004 -1.1197277 2.0508661 0
4.4240003 -1.1275202 2.0516851 0
4.4260001 -1.1353198 2.0525038 0
4.4280005 -1.1431267 2.053323 0
4.4260001 -1.1498441 2.0525038 0
4.4210005 -1.1557263 2.0504568 0
4.4150004 -1.1613127 2.0479999 0
4.4090004 -1.1668774 2.0455432 0
4.4110003 -1.1746716 2.0463619 0
4.4210005 -1.1847388 2.0504568 0
4.4460001 -1.2137132 2.0606933 0
4.4480004 -1.2215923 2.0615122 0
4.4500003 -1.2294786 2.062331 0
4.4520001 -1.237372 2.0631499 0
4.4540005 -1.2452729 2.0639689 0
4.3330002 -0.71287149 2.0073292 0
4.3330002 -0.71996588 2.0073292 0
4.3330002 -0.7270602 2.0073292 0
4.3330002 -0.73415464 2.0073292 0
4.3330002 -0.74124902 2.0073292 0
4.3330002 -0.74834341 2.0073292 0
4.3330002 -0.75543779 2.0073292 0
4.3370004 -0.78456569 2.00896 0
4.3390002 -0.79204601 2.0097754 0
4.3400002 -0.79934251 2.0101831 0
4.342 -0.80683547 2.0109982 0
4.3440003 -0.81433576 2.0118136 0
4.3460002 -0.82184315 2.0126288 0
4.348 -0.82935786 2.0134442 0
4.3500004 -0.83687979 2.0142596 0
4.3520002 -0.84440881 2.015075 0
4.3540001 -0.85194516 2.0158904 0
4.3559999 -0.85948861 2.0167055 0
4.3580003 -0.86703938 2.0175209 0
4.3600001 -0.87459737 2.0183363 0
4.3610001 -0.88195145 2.0187438 0
4.3630004 -0.88952208 2.0195591 0
4.3650002 -0.89709985 2.0203745 0
4.3670001 -0.9046849 2.0211899 0
4.369 -0.9122771 2.0220051 0
4.3710003 -0.91987658 2.0228205 0
4.3730001 -0.92748326 2.0236359 0
4.375 -0.9350971 2.024451 0
4.3770003 -0.94271821 2.0252664 0
4.3790002 -0.95034647 2.0260818 0
4.381 -0.957982 2.0268972 0
4.3830004 -0.96562475 2.0277126 0
4.3850002 -0.97327465 2.0285277 0
4.3870001 -0.98093194 2.0293431 0
4.388 -0.98835993 2.0297506 0
4.3900003 -0.99602979 2.030566 0
4.3920002 -1.0037067 2.0313814 0
4.3940001 -1.0113909 2.0321968 0
4.3960004 -1.0190823 2.0330119 0
4.3980002 -1.026781 2.0338273 0
4.4000001 -1.0344869 2.0346425 0
4.4020004 -1.0422001 2.0354581 0
4.4040003 -1.0499203 2.0362732 0
4.4060001 -1.0576478 2.0370886 0
4.4080005 -1.0653826 2.037904 0
4.4100003 -1.0731245 2.0387192 0
4.4120002 -1.0808736 2.0395346 0
4.4140005 -1.0886301 2.04035 0
4.4160004 -1.0963937 2.0411654 0
4.4180002 -1.1041644 2.0419805 0
4.4200001 -1.1119424 2.0427959 0
4.4220004 -1.1197277 2.043611 0
4.4240003 -1.1275202 2.0444264 0
4.4260001 -1.1353198 2.0452416 0
4.4280005 -1.1431267 2.0460572 0
4.4260001 -1.1498441 2.0452416 0
4.4210005 -1.1557263 2.0432036 0
4.4150004 -1.1613127 2.0407577 0
4.4090004 -1.1668774 2.0383115 0
4.4110003 -1.1746716 2.0391269 0
4.4210005 -1.1847388 2.0432036 0
4.4460001 -1.2137132 2.053395 0
4.4480004 -1.2215923 2.0542104 0
4.4500003 -1.2294786 2.0550256 0
4.4520001 -1.237372 2.055841 0
4.4540005 -1.2452729 2.0566564 0
4.3500004 -0.79412949 2.0071347 0
4.3500004 -0.80125457 2.0071347 0
4.3500004 -0.80837959 2.0071347 0
4.3500004 -0.81550461 2.0071347 0
4.3559999 -0.85948861 2.0095696 0
4.3580003 -0.86703938 2.0103815 0
4.3600001 -0.87459737 2.011193 0
4.3610001 -0.88195145 2.0115991 0
4.3630004 -0.88952208 2.0124106 0
4.3650002 -0.89709985 2.0132225 0
4.3670001 -0.9046849 2.0140343 0
4.369 -0.9122771 2.0148458 0
4.3710003 -0.91987658 2.0156574 0
4.3730001 -0.92748326 2.0164692 0
4.375 -0.9350971 2.0172811 0
4.3770003 -0.94271821 2.0180926 0
4.3790002 -0.95034647 2.0189044 0
4.381 -0.957982 2.019716 0
4.3830004 -0.96562475 2.0205278 0
4.3850002 -0.97327465 2.0213394 0
4.3870001 -0.98093194 2.0221512 0
4.388 -0.98835993 2.022557 0
4.3900003 -0.99602979 2.0233688 0
4.3920002 -1.0037067 2.0241804 0
4.3940001 -1.0113909 2.0249922 0
4.3960004 -1.0190823 2.025804 0
4.3980002 -1.026781 2.0266156 0
4.4000001 -1.0344869 2.0274274 0
4.4020004 -1.0422001 2.0282393 0
4.4040003 -1.0499203 2.0290508 0
4.4060001 -1.0576478 2.0298626 0
4.4080005 -1.0653826 2.0306745 0
4.4100003 -1.0731245 2.031486 0
4.4120002 -1.0808736 2.0322976 0
4.4140005 -1.0886301 2.0331094 0
4.4160004 -1.0963937 2.033921 0
4.4180002 -1.1041644 2.0347328 0
4.4200001 -1.1119424 2.0355444 0
4.4220004 -1.1197277 2.0363562 0
4.4240003 -1.1275202 2.037168 0
4.4260001 -1.1353198 2.0379796 0
4.4280005 -1.1431267 2.0387914 0
4.4260001 -1.1498441 2.0379796 0
4.4210005 -1.1557263 2.0359504 0
4.4150004 -1.1613127 2.0335152 0
4.4090004 -1.1668774 2.0310802 0
4.4110003 -1.1746716 2.0318918 0
4.4210005 -1.1847388 2.0359504 0
4.4460001 -1.2137132 2.0460968 0
4.4480004 -1.2215923 2.0469086 0
4.4500003 -1.2294786 2.0477202 0
4.4520001 -1.237372 2.048532 0
4.4540005 -1.2452729 2.0493438 0
4.375 -0.9350971 2.0101109 0
4.3770003 -0.94271821 2.0109189 0
4.3790002 -0.95034647 2.0117271 0
4.381 -0.957982 2.0125351 0
4.3830004 -0.96562475 2.0133433 0
4.3850002 -0.97327465 2.0141513 0
4.3870001 -0.98093194 2.0149596 0
4.388 -0.98835993 2.0153635 0
4.3900003 -0.99602979 2.0161717 0
4.3920002 -1.0037067 2.0169797 0
4.3940001 -1.0113909 2.0177879 0
4.3960004 -1.0190823 2.0185959 0
4.3980002 -1.026781 2.0194039 0
4.4000001 -1.0344869 2.0202122 0
4.4020004 -1.0422001 2.0210204 0
4.4040003 -1.0499203 2.0218284 0
4.4060001 -1.0576478 2.0226364 0
4.4080005 -1.0653826 2.0234447 0
4.4100003 -1.0731245 2.0242527 0
4.4120002 -1.0808736 2.0250607 0
4.4140005 -1.0886301 2.0258691 0
4.4160004 -1.0963937 2.0266771 0
4.4180002 -1.1041644 2.0274851 0
4.4200001 -1.1119424 2.0282931 0
4.4220004 -1.1197277 2.0291014 0
4.4240003 -1.1275202 2.0299094 0
4.4260001 -1.1353198 2.0307174 0
4.4280005 -1.1431267 2.0315259 0
4.4260001 -1.1498441 2.0307174 0
4.4210005 -1.1557263 2.0286975 0
4.4150004 -1.1613127 2.026273 0
4.4090004 -1.1668774 2.0238488 0
4.4110003 -1.1746716 2.0246568 0
4.4210005 -1.1847388 2.0286975 0
4.4460001 -1.2137132 2.0387986 0
4.4480004 -1.2215923 2.0396068 0
4.4500003 -1.2294786 2.0404148 0
4.4520001 -1.237372 2.0412228 0
4.4540005 -1.2452729 2.042031 0
4.3940001 -1.0113909 2.0105834 0
4.3960004 -1.0190823 2.0113881 0
4.3980002 -1.026781 2.0121925 0
4.4000001 -1.0344869 2.0129969 0
4.4020004 -1.0422001 2.0138013 0
4.4040003 -1.0499203 2.014606 0
4.4060001 -1.0576478 2.0154104 0
4.4080005 -1.0653826 2.0162148 0
4.4100003 -1.0731245 2.0170195 0
4.4120002 -1.0808736 2.0178239 0
4.4140005 -1.0886301 2.0186284 0
4.4160004 -1.0963937 2.019433 0
4.4180002 -1.1041644 2.0202374 0
4.4200001 -1.1119424 2.0210419 0
4.4220004 -1.1197277 2.0218465 0
4.4240003 -1.1275202 2.022651 0
4.4260001 -1.1353198 2.0234554 0
4.4280005 -1.1431267 2.02426 0
4.4260001 -1.1498441 2.0234554 0
4.4210005 -1.1557263 2.0214443 0
4.4150004 -1.1613127 2.0190308 0
4.4090004 -1.1668774 2.0166173 0
4.4110003 -1.1746716 2.0174217 0
4.4210005 -1.1847388 2.0214443 0
4.4460001 -1.2137132 2.0315003 0
4.4480004 -1.2215923 2.032305 0
4.4500003 -1.2294786 2.0331094 0
4.4520001 -1.237372 2.0339139 0
4.4540005 -1.2452729 2.0347185 0
4.4100003 -1.0731245 2.0097861 0
4.4120002 -1.0808736 2.010587 0
4.4140005 -1.0886301 2.0113881 0
4.4160004 -1.0963937 2.0121889 0
4.4180002 -1.1041644 2.0129898 0
4.4200001 -1.1119424 2.0137906 0
4.4220004 -1.1197277 2.0145917 0
4.4240003 -1.1275202 2.0153925 0
4.4260001 -1.1353198 2.0161932 0
4.4280005 -1.1431267 2.0169942 0
4.4260001 -1.1498441 2.0161932 0
4.4210005 -1.1557263 2.0141912 0
4.4150004 -1.1613127 2.0117884 0
4.4090004 -1.1668774 2.0093858 0
4.4110003 -1.1746716 2.0101864 0
4.4210005 -1.1847388 2.0141912 0
4.4460001 -1.2137132 2.0242021 0
4.4480004 -1.2215923 2.0250032 0
4.4500003 -1.2294786 2.025804 0
4.4520001 -1.237372 2.0266049 0
4.4540005 -1.2452729 2.0274057 0
4.4220004 -1.0689433 2.0073366 0
4.4220004 -1.0761982 2.0073366 0
4.4220004 -1.0834532 2.0073366 0
4.4220004 -1.090708 2.0073366 0
4.4220004 -1.097963 2.0073366 0
4.4190001 -1.1044277 2.0061407 0
4.4200001 -1.1119424 2.0065391 0
4.4220004 -1.1197277 2.0073366 0
4.4240003 -1.1275202 2.0081339 0
4.4260001 -1.1353198 2.0089312 0
4.4280005 -1.1431267 2.0097284 0
4.4260001 -1.1498441 2.0089312 0
4.4210005 -1.1557263 2.006938 0
4.4150004 -1.1613127 2.0045462 0
4.4090004 -1.1668774 2.0021544 0
4.4110003 -1.1746716 2.0029514 0
4.4210005 -1.1847388 2.006938 0
4.4460001 -1.2137132 2.0169039 0
4.4480004 -1.2215923 2.0177014 0
4.4500003 -1.2294786 2.0184987 0
4.4520001 -1.237372 2.0192957 0
4.4540005 -1.2452729 2.0200932 0
4.4400001 -1.0953834 2.0072246 0
4.4330001 -1.1008399 2.0044467 0
4.4190001 -1.1044277 1.9988911 0
4.4200001 -1.1119424 1.999288 0
4.4220004 -1.1197277 2.0000818 0
4.4240003 -1.1275202 2.0008752 0
4.4260001 -1.1353198 2.0016689 0
4.4280005 -1.1431267 2.0024629 0
4.4260001 -1.1498441 2.0016689 0
4.4210005 -1.1557263 1.9996849 0
4.4150004 -1.1613127 1.9973038 0
4.4090004 -1.1668774 1.9949229 0
4.4110003 -1.1746716 1.9957165 0
4.4210005 -1.1847388 1.9996849 0
4.4460001 -1.2137132 2.0096056 0
4.4480004 -1.2215923 2.0103996 0
4.4500003 -1.2294786 2.011193 0
4.4520001 -1.237372 2.0119867 0
4.4540005 -1.2452729 2.0127804 0
4.4330001 -1.1008399 1.9971721 0
4.4190001 -1.1044277 1.9916416 0
4.4200001 -1.1119424 1.9920367 0
4.4220004 -1.1197277 1.9928268 0
4.4240003 -1.1275202 1.9936168 0
4.4260001 -1.1353198 1.9944069 0
4.4280005 -1.1431267 1.9951971 0
4.4260001 -1.1498441 1.9944069 0
4.4210005 -1.1557263 1.9924318 0
4.4150004 -1.1613127 1.9900616 0
4.4090004 -1.1668774 1.9876914 0
4.4110003 -1.1746716 1.9884814 0
4.4210005 -1.1847388 1.9924318 0
4.4460001 -1.2137132 2.0023074 0
4.4480004 -1.2215923 2.0030978 0
4.4500003 -1.2294786 2.0038877 0
4.4520001 -1.237372 2.0046778 0
4.4540005 -1.2452729 2.0054679 0
4.4330001 -1.1008399 1.9898973 0
4.4190001 -1.1044277 1.9843922 0
4.4200001 -1.1119424 1.9847853 0
4.4220004 -1.1197277 1.985572 0
4.4240003 -1.1275202 1.9863584 0
4.4260001 -1.1353198 1.9871448 0
4.4280005 -1.1431267 1.9879313 0
4.4260001 -1.1498441 1.9871448 0
4.4210005 -1.1557263 1.9851787 0
4.4150004 -1.1613127 1.9828193 0
4.4090004 -1.1668774 1.9804599 0
4.4110003 -1.1746716 1.9812464 0
4.4210005 -1.1847388 1.9851787 0
4.4460001 -1.2137132 1.9950094 0
4.4480004 -1.2215923 1.9957958 0
4.4500003 -1.2294786 1.9965823 0
4.4520001 -1.237372 1.9973687 0
4.4540005 -1.2452729 1.9981554 0
4.4330001 -1.1008399 1.9826226 0
4.4190001 -1.1044277 1.9771426 0
4.4200001 -1.1119424 1.9775339 0
4.4220004 -1.1197277 1.978317 0
4.4240003 -1.1275202 1.9790998 0
4.4260001 -1.1353198 1.9798826 0
4.4280005 -1.1431267 1.9806656 0
4.4260001 -1.1498441 1.9798826 0
4.4210005 -1.1557263 1.9779255 0
4.4150004 -1.1613127 1.975577 0
4.4090004 -1.1668774 1.9732285 0
4.4110003 -1.1746716 1.9740113 0
4.4210005 -1.1847388 1.9779255 0
4.4460001 -1.2137132 1.9877111 0
4.4480004 -1.2215923 1.9884942 0
4.4500003 -1.2294786 1.9892769 0
4.4520001 -1.237372 1.9900597 0
4.4540005 -1.2452729 1.9908427 0
4.4330001 -1.1008399 1.9753478 0
4.4190001 -1.1044277 1.9698931 0
4.4200001 -1.1119424 1.9702828 0
4.4220004 -1.1197277 1.9710621 0
4.4240003 -1.1275202 1.9718412 0
4.4260001 -1.1353198 1.9726205 0
4.4280005 -1.1431267 1.9733999 0
4.4260001 -1.1498441 1.9726205 0
4.4210005 -1.1557263 1.9706725 0
4.4150004 -1.1613127 1.9683347 0
4.4090004 -1.1668774 1.9659971 0
4.4110003 -1.1746716 1.9667763 0
4.4210005 -1.1847388 1.9706725 0
4.4460001 -1.2137132 1.9804128 0
4.4480004 -1.2215923 1.9811922 0
4.4500003 -1.2294786 1.9819715 0
4.4520001 -1.237372 1.9827507 0
4.4540005 -1.2452729 1.98353 0
4.4330001 -1.1008399 1.968073 0
4.4190001 -1.1044277 1.9626436 0
4.4200001 -1.1119424 1.9630314 0
4.4220004 -1.1197277 1.9638071 0
4.4240003 -1.1275202 1.9645828 0
4.4260001 -1.1353198 1.9653584 0
4.4280005 -1.1431267 1.9661341 0
4.4260001 -1.1498441 1.9653584 0
4.4210005 -1.1557263 1.9634194 0
4.4150004 -1.1613127 1.9610925 0
4.4090004 -1.1668774 1.9587655 0
4.4110003 -1.1746716 1.9595412 0
4.4210005 -1.1847388 1.9634194 0
4.4460001 -1.2137132 1.9731147 0
4.4480004 -1.2215923 1.9738904 0
4.4500003 -1.2294786 1.9746661 0
4.4520001 -1.237372 1.9754416 0
4.4540005 -1.2452729 1.9762175 0
4.4330001 -1.1008399 1.9607984 0
4.4190001 -1.1044277 1.9553941 0
4.4200001 -1.1119424 1.95578 0
4.4220004 -1.1197277 1.9565523 0
4.4240003 -1.1275202 1.9573243 0
4.4260001 -1.1353198 1.9580963 0
4.4280005 -1.1431267 1.9588684 0
4.4260001 -1.1498441 1.9580963 0
4.4210005 -1.1557263 1.9561663 0
4.4150004 -1.1613127 1.9538502 0
4.4090004 -1.1668774 1.9515342 0
4.4110003 -1.1746716 1.952306 0
4.4210005 -1.1847388 1.9561663 0
4.4460001 -1.2137132 1.9658165 0
4.4480004 -1.2215923 1.9665887 0
4.4500003 -1.2294786 1.9673606 0
4.4520001 -1.237372 1.9681326 0
4.4540005 -1.2452729 1.9689047 0
4.4330001 -1.1008399 1.9535235 0
4.4190001 -1.1044277 1.9481446 0
4.4200001 -1.1119424 1.9485288 0
4.4220004 -1.1197277 1.9492974 0
4.4240003 -1.1275202 1.9500657 0
4.4260001 -1.1353198 1.9508342 0
4.4280005 -1.1431267 1.9516026 0
4.4260001 -1.1498441 1.9508342 0
4.4210005 -1.1557263 1.9489132 0
4.4150004 -1.1613127 1.9466078 0
4.4090004 -1.1668774 1.9443026 0
4.4110003 -1.1746716 1.945071 0
4.4210005 -1.1847388 1.9489132 0
4.4460001 -1.2137132 1.9585183 0
4.4480004 -1.2215923 1.9592868 0
4.4500003 -1.2294786 1.9600552 0
4.4520001 -1.237372 1.9608235 0
4.4540005 -1.2452729 1.9615921 0
4.4330001 -1.1008399 1.9462488 0
4.4190001 -1.1044277 1.9408951 0
4.4200001 -1.1119424 1.9412775 0
4.4220004 -1.1197277 1.9420425 0
4.4240003 -1.1275202 1.9428072 0
4.4260001 -1.1353198 1.943572 0
4.4280005 -1.1431267 1.9443369 0
4.4260001 -1.1498441 1.943572 0
4.4210005 -1.1557263 1.94166 0
4.4150004 -1.1613127 1.9393655 0
4.4090004 -1.1668774 1.9370712 0
4.4110003 -1.1746716 1.9378359 0
4.4210005 -1.1847388 1.94166 0
4.4460001 -1.2137132 1.9512202 0
4.4480004 -1.2215923 1.951985 0
4.4500003 -1.2294786 1.9527497 0
4.4520001 -1.237372 1.9535145 0
4.4540005 -1.2452729 1.9542794 0
4.4330001 -1.1008399 1.938974 0
4.4190001 -1.1044277 1.9336456 0
4.4200001 -1.1119424 1.9340261 0
4.4220004 -1.1197277 1.9347875 0
4.4240003 -1.1275202 1.9355487 0
4.4260001 -1.1353198 1.9363098 0
4.4280005 -1.1431267 1.9370712 0
4.4260001 -1.1498441 1.9363098 0
4.4210005 -1.1557263 1.934407 0
4.4150004 -1.1613127 1.9321233 0
4.4090004 -1.1668774 1.9298396 0
4.4110003 -1.1746716 1.9306009 0
4.4210005 -1.1847388 1.934407 0
4.4460001 -1.2137132 1.9439219 0
4.4480004 -1.2215923 1.9446832 0
4.4500003 -1.2294786 1.9454443 0
4.4520001 -1.237372 1.9462055 0
4.4540005 -1.2452729 1.9469669 0
4.4330001 -1.1008399 1.9316993 0
4.4190001 -1.1044277 1.926396 0
4.4200001 -1.1119424 1.9267749 0
4.4220004 -1.1197277 1.9275326 0
4.4240003 -1.1275202 1.9282901 0
4.4260001 -1.1353198 1.9290477 0
4.4280005 -1.1431267 1.9298054 0
4.4260001 -1.1498441 1.9290477 0
4.4210005 -1.1557263 1.9271538 0
4.4150004 -1.1613127 1.924881 0
4.4090004 -1.1668774 1.9226083 0
4.4110003 -1.1746716 1.9233658 0
4.4210005 -1.1847388 1.9271538 0
4.4460001 -1.2137132 1.9366236 0
4.4480004 -1.2215923 1.9373814 0
4.4500003 -1.2294786 1.938139 0
4.4520001 -1.237372 1.9388964 0
4.4540005 -1.2452729 1.9396542 0
4.4330001 -1.1008399 1.9244245 0
4.4190001 -1.1044277 1.9191465 0
4.4200001 -1.1119424 1.9195236 0
4.4220004 -1.1197277 1.9202777 0
4.4240003 -1.1275202 1.9210316 0
4.4260001 -1.1353198 1.9217856 0
4.4280005 -1.1431267 1.9225396 0
4.4260001 -1.1498441 1.9217856 0
4.4210005 -1.1557263 1.9199008 0
4.4150004 -1.1613127 1.9176388 0
4.4090004 -1.1668774 1.9153767 0
4.4110003 -1.1746716 1.9161307 0
4.4210005 -1.1847388 1.9199008 0
4.4460001 -1.2137132 1.9293255 0
4.4480004 -1.2215923 1.9300796 0
4.4500003 -1.2294786 1.9308335 0
4.4520001 -1.237372 1.9315875 0
4.4540005 -1.2452729 1.9323416 0
4.4330001 -1.1008399 1.9171498 0
4.4190001 -1.1044277 1.9118971 0
4.4200001 -1.1119424 1.9122722 0
4.4220004 -1.1197277 1.9130228 0
4.4240003 -1.1275202 1.9137732 0
4.4260001 -1.1353198 1.9145235 0
4.4280005 -1.1431267 1.915274 0
4.4260001 -1.1498441 1.9145235 0
4.4210005 -1.1557263 1.9126476 0
4.4150004 -1.1613127 1.9103965 0
4.4090004 -1.1668774 1.9081453 0
4.4110003 -1.1746716 1.9088956 0
4.4210005 -1.1847388 1.9126476 0
4.4460001 -1.2137132 1.9220272 0
4.4480004 -1.2215923 1.9227778 0
4.4500003 -1.2294786 1.9235281 0
4.4520001 -1.237372 1.9242785 0
4.4540005 -1.2452729 1.9250289 0
4.4330001 -1.1008399 1.909875 0
4.4190001 -1.1044277 1.9046476 0
4.4200001 -1.1119424 1.905021 0
4.4220004 -1.1197277 1.9057679 0
4.4240003 -1.1275202 1.9065145 0
4.4260001 -1.1353198 1.9072614 0
4.4280005 -1.1431267 1.9080082 0
4.4260001 -1.1498441 1.9072614 0
4.4210005 -1.1557263 1.9053946 0
4.4150004 -1.1613127 1.9031541 0
4.4090004 -1.1668774 1.9009137 0
4.4110003 -1.1746716 1.9016606 0
4.4210005 -1.1847388 1.9053946 0
4.4460001 -1.2137132 1.914729 0
4.4480004 -1.2215923 1.915476 0
4.4500003 -1.2294786 1.9162227 0
4.4520001 -1.237372 1.9169694 0
4.4540005 -1.2452729 1.9177164 0
4.4330001 -1.1008399 1.9026002 0
4.4190001 -1.1044277 1.8973981 0
4.4200001 -1.1119424 1.8977697 0
4.4220004 -1.1197277 1.8985128 0
4.4240003 -1.1275202 1.899256 0
4.4260001 -1.1353198 1.8999991 0
4.4280005 -1.1431267 1.9007424 0
4.4260001 -1.1498441 1.8999991 0
4.4210005 -1.1557263 1.8981413 0
4.4150004 -1.1613127 1.8959119 0
4.4090004 -1.1668774 1.8936824 0
4.4110003 -1.1746716 1.8944255 0
4.4210005 -1.1847388 1.8981413 0
4.4460001 -1.2137132 1.9074309 0
4.4480004 -1.2215923 1.9081742 0
4.4500003 -1.2294786 1.9089173 0
4.4520001 -1.237372 1.9096605 0
4.4540005 -1.2452729 1.9104037 0
4.4330001 -1.1008399 1.8953255 0
4.4190001 -1.1044277 1.8901486 0
4.4200001 -1.1119424 1.8905183 0
4.4220004 -1.1197277 1.891258 0
4.4240003 -1.1275202 1.8919976 0
4.4260001 -1.1353198 1.892737 0
4.4280005 -1.1431267 1.8934767 0
4.4260001 -1.1498441 1.892737 0
4.4210005 -1.1557263 1.8908882 0
4.4150004 -1.1613127 1.8886696 0
4.4090004 -1.1668774 1.8864508 0
4.4110003 -1.1746716 1.8871903 0
4.4210005 -1.1847388 1.8908882 0
4.4460001 -1.2137132 1.9001327 0
4.4480004 -1.2215923 1.9008723 0
4.4500003 -1.2294786 1.9016119 0
4.4520001 -1.237372 1.9023514 0
4.4540005 -1.2452729 1.903091 0
4.4330001 -1.1008399 1.8880507 0
4.4190001 -1.1044277 1.8828992 0
4.4200001 -1.1119424 1.883267 0
4.4220004 -1.1197277 1.884003 0
4.4240003 -1.1275202 1.884739 0
4.4260001 -1.1353198 1.8854749 0
4.4280005 -1.1431267 1.886211 0
4.4260001 -1.1498441 1.8854749 0
4.4210005 -1.1557263 1.8836352 0
4.4150004 -1.1613127 1.8814273 0
4.4090004 -1.1668774 1.8792194 0
4.4110003 -1.1746716 1.8799553 0
4.4210005 -1.1847388 1.8836352 0
4.4460001 -1.2137132 1.8928344 0
4.4480004 -1.2215923 1.8935704 0
4.4500003 -1.2294786 1.8943063 0
4.4520001 -1.237372 1.8950423 0
4.4540005 -1.2452729 1.8957783 0
4.4330001 -1.1008399 1.8807759 0
4.4190001 -1.1044277 1.8756496 0
4.4200001 -1.1119424 1.8760157 0
4.4220004 -1.1197277 1.8767482 0
4.4240003 -1.1275202 1.8774804 0
4.4260001 -1.1353198 1.8782128 0
4.4280005 -1.1431267 1.8789452 0
4.4260001 -1.1498441 1.8782128 0
4.4210005 -1.1557263 1.876382 0
4.4150004 -1.1613127 1.874185 0
4.4090004 -1.1668774 1.8719879 0
4.4110003 -1.1746716 1.8727202 0
4.4210005 -1.1847388 1.876382 0
4.4460001 -1.2137132 1.8855362 0
4.4480004 -1.2215923 1.8862687 0
4.4500003 -1.2294786 1.8870009 0
4.4520001 -1.237372 1.8877333 0
4.4540005 -1.2452729 1.8884658 0
4.4330001 -1.1008399 1.8735012 0
4.4190001 -1.1044277 1.8684001 0
4.4200001 -1.1119424 1.8687644 0
4.4220004 -1.1197277 1.8694934 0
4.4240003 -1.1275202 1.870222 0
4.4260001 -1.1353198 1.8709507 0
4.4280005 -1.1431267 1.8716795 0
4.4260001 -1.1498441 1.8709507 0
4.4210005 -1.1557263 1.8691289 0
4.4150004 -1.1613127 1.8669428 0
4.4090004 -1.1668774 1.8647565 0
4.4110003 -1.1746716 1.8654852 0
4.4210005 -1.1847388 1.8691289 0
4.4460001 -1.2137132 1.878238 0
4.4480004 -1.2215923 1.8789668 0
4.4500003 -1.2294786 1.8796955 0
4.4520001 -1.237372 1.8804243 0
4.4540005 -1.2452729 1.8811531 0
4.4330001 -1.1008399 1.8662264 0
4.4190001 -1.1044277 1.8611506 0
4.4200001 -1.1119424 1.8615131 0
4.4220004 -1.1197277 1.8622383 0
4.4240003 -1.1275202 1.8629634 0
4.4260001 -1.1353198 1.8636885 0
4.4280005 -1.1431267 1.8644137 0
4.4260001 -1.1498441 1.8636885 0
4.4210005 -1.1557263 1.8618758 0
4.4150004 -1.1613127 1.8597004 0
4.4090004 -1.1668774 1.857525 0
4.4110003 -1.1746716 1.8582501 0
4.4210005 -1.1847388 1.8618758 0
4.4460001 -1.2137132 1.8709397 0
4.4480004 -1.2215923 1.8716651 0
4.4500003 -1.2294786 1.8723902 0
4.4520001 -1.237372 1.8731153 0
4.4540005 -1.2452729 1.8738405 0
4.4330001 -1.1008399 1.8589517 0
4.4190001 -1.1044277 1.853901 0
4.4200001 -1.1119424 1.8542618 0
4.4220004 -1.1197277 1.8549834 0
4.4240003 -1.1275202 1.8557049 0
4.4260001 -1.1353198 1.8564264 0
4.4280005 -1.1431267 1.8571481 0
4.4260001 -1.1498441 1.8564264 0
4.4210005 -1.1557263 1.8546227 0
4.4150004 -1.1613127 1.8524581 0
4.4090004 -1.1668774 1.8502935 0
4.4110003 -1.1746716 1.851015 0
4.4210005 -1.1847388 1.8546227 0
4.4460001 -1.2137132 1.8636416 0
4.4480004 -1.2215923 1.8643633 0
4.4500003 -1.2294786 1.8650848 0
4.4520001 -1.237372 1.8658062 0
4.4540005 -1.2452729 1.8665278 0
4.4330001 -1.1008399 1.8516769 0
4.4190001 -1.1044277 1.8466516 0
4.4200001 -1.1119424 1.8470105 0
4.4220004 -1.1197277 1.8477285 0
4.4240003 -1.1275202 1.8484464 0
4.4260001 -1.1353198 1.8491642 0
4.4280005 -1.1431267 1.8498822 0
4.4260001 -1.1498441 1.8491642 0
4.4210005 -1.1557263 1.8473696 0
4.4150004 -1.1613127 1.8452158 0
4.4090004 -1.1668774 1.843062 0
4.4110003 -1.1746716 1.8437799 0
4.4210005 -1.1847388 1.8473696 0
4.4460001 -1.2137132 1.8563434 0
4.4480004 -1.2215923 1.8570614 0
4.4500003 -1.2294786 1.8577793 0
4.4520001 -1.237372 1.8584971 0
4.4540005 -1.2452729 1.8592153 0
4.4330001 -1.1008399 1.8444022 0
4.4190001 -1.1044277 1.8394021 0
4.4200001 -1.1119424 1.8397592 0
4.4220004 -1.1197277 1.8404737 0
4.4240003 -1.1275202 1.8411878 0
4.4260001 -1.1353198 1.8419021 0
4.4280005 -1.1431267 1.8426166 0
4.4260001 -1.1498441 1.8419021 0
4.4210005 -1.1557263 1.8401165 0
4.4150004 -1.1613127 1.8379736 0
4.4090004 -1.1668774 1.8358306 0
4.4110003 -1.1746716 1.8365449 0
4.4210005 -1.1847388 1.8401165 0
4.4460001 -1.2137132 1.8490452 0
4.4480004 -1.2215923 1.8497597 0
4.4500003 -1.2294786 1.8504739 0
4.4520001 -1.237372 1.8511882 0
4.4540005 -1.2452729 1.8519026 0
4.4330001 -1.1008399 1.8371273 0
4.4190001 -1.1044277 1.8321525 0
4.4200001 -1.1119424 1.8325078 0
4.4220004 -1.1197277 1.8332187 0
4.4240003 -1.1275202 1.8339293 0
4.4260001 -1.1353198 1.83464 0
4.4280005 -1.1431267 1.8353508 0
4.4260001 -1.1498441 1.83464 0
4.4210005 -1.1557263 1.8328633 0
4.4150004 -1.1613127 1.8307313 0
4.4090004 -1.1668774 1.8285991 0
4.4110003 -1.1746716 1.8293098 0
4.4210005 -1.1847388 1.8328633 0
4.4460001 -1.2137132 1.841747 0
4.4480004 -1.2215923 1.8424578 0
4.4500003 -1.2294786 1.8431685 0
4.4520001 -1.237372 1.8438791 0
4.4540005 -1.2452729 1.8445898 0
4.4330001 -1.1008399 1.8298527 0
4.4190001 -1.1044277 1.824903 0
4.4200001 -1.1119424 1.8252566 0
4.4220004 -1.1197277 1.8259637 0
4.4240003 -1.1275202 1.8266708 0
4.4260001 -1.1353198 1.8273778 0
4.4280005 -1.1431267 1.8280851 0
4.4260001 -1.1498441 1.8273778 0
4.4210005 -1.1557263 1.8256103 0
4.4150004 -1.1613127 1.823489 0
4.4090004 -1.1668774 1.8213676 0
4.4110003 -1.1746716 1.8220747 0
4.4210005 -1.1847388 1.8256103 0
4.4460001 -1.2137132 1.8344487 0
4.4480004 -1.2215923 1.835156 0
4.4500003 -1.2294786 1.835863 0
4.4520001 -1.237372 1.83657 0
4.4540005 -1.2452729 1.8372772 0
4.4330001 -1.1008399 1.822578 0
4.4190001 -1.1044277 1.8176535 0
4.4200001 -1.1119424 1.8180053 0
4.4220004 -1.1197277 1.8187088 0
4.4240003 -1.1275202 1.8194124 0
4.4260001 -1.1353198 1.8201157 0
4.4280005 -1.1431267 1.8208194 0
4.4260001 -1.1498441 1.8201157 0
4.4210005 -1.1557263 1.8183571 0
4.4150004 -1.1613127 1.8162466 0
4.4090004 -1.1668774 1.8141361 0
4.4110003 -1.1746716 1.8148396 0
4.4210005 -1.1847388 1.8183571 0
4.4460001 -1.2137132 1.8271505 0
4.4480004 -1.2215923 1.8278542 0
4.4500003 -1.2294786 1.8285576 0
4.4520001 -1.237372 1.8292611 0
4.4540005 -1.2452729 1.8299646 0
4.4330001 -1.1008399 1.8153031 0
4.4190001 -1.1044277 1.8104041 0
4.4200001 -1.1119424 1.8107539 0
4.4220004 -1.1197277 1.8114539 0
4.4240003 -1.1275202 1.8121537 0
4.4260001 -1.1353198 1.8128536 0
4.4280005 -1.1431267 1.8135536 0
4.4260001 -1.1498441 1.8128536 0
4.4210005 -1.1557263 1.8111041 0
4.4150004 -1.1613127 1.8090044 0
4.4090004 -1.1668774 1.8069047 0
4.4110003 -1.1746716 1.8076046 0
4.4210005 -1.1847388 1.8111041 0
4.4460001 -1.2137132 1.8198524 0
4.4480004 -1.2215923 1.8205523 0
4.4500003 -1.2294786 1.8212521 0
4.4520001 -1.237372 1.821952 0
4.4540005 -1.2452729 1.822652 0
4.4330001 -1.1008399 1.8080285 0
4.4190001 -1.1044277 1.8031545 0
4.4200001 -1.1119424 1.8035026 0
4.4220004 -1.1197277 1.804199 0
4.4240003 -1.1275202 1.8048952 0
4.4260001 -1.1353198 1.8055915 0
4.4280005 -1.1431267 1.8062878 0
4.4260001 -1.1498441 1.8055915 0
4.4210005 -1.1557263 1.803851 0
4.4150004 -1.1613127 1.8017621 0
4.4090004 -1.1668774 1.7996732 0
4.4110003 -1.1746716 1.8003695 0
4.4210005 -1.1847388 1.803851 0
4.4460001 -1.2137132 1.8125541 0
4.4480004 -1.2215923 1.8132504 0
4.4500003 -1.2294786 1.8139467 0
4.4520001 -1.237372 1.814643 0
4.4540005 -1.2452729 1.8153393 0
4.4330001 -1.1008399 1.8007536 0
4.4190001 -1.1044277 1.795905 0
4.4200001 -1.1119424 1.7962513 0
4.4220004 -1.1197277 1.7969441 0
4.4240003 -1.1275202 1.7976367 0
4.4260001 -1.1353198 1.7983294 0
4.4280005 -1.1431267 1.7990222 0
4.4260001 -1.1498441 1.7983294 0
4.4210005 -1.1557263 1.7965978 0
4.4150004 -1.1613127 1.7945198 0
4.4090004 -1.1668774 1.7924417 0
4.4110003 -1.1746716 1.7931345 0
4.4210005 -1.1847388 1.7965978 0
4.4460001 -1.2137132 1.805256 0
4.4480004 -1.2215923 1.8059487 0
4.4500003 -1.2294786 1.8066413 0
4.4520001 -1.237372 1.8073339 0
4.4540005 -1.2452729 1.8080267 0
4.4330001 -1.1008399 1.7934788 0
4.4190001 -1.1044277 1.7886555 0
4.4200001 -1.1119424 1.789 0
4.4220004 -1.1197277 1.7896892 0
4.4240003 -1.1275202 1.7903782 0
4.4260001 -1.1353198 1.7910672 0
4.4280005 -1.1431267 1.7917564 0
4.4260001 -1.1498441 1.7910672 0
4.4210005 -1.1557263 1.7893447 0
4.4150004 -1.1613127 1.7872775 0
4.4090004 -1.1668774 1.7852104 0
4.4110003 -1.1746716 1.7858993 0
4.4210005 -1.1847388 1.7893447 0
4.4460001 -1.2137132 1.7979578 0
4.4480004 -1.2215923 1.7986469 0
4.4500003 -1.2294786 1.799336 0
4.4520001 -1.237372 1.8000249 0
4.4540005 -1.2452729 1.8007141 0
4.4330001 -1.1008399 1.7862041 0
4.4190001 -1.1044277 1.7814059 0
4.4200001 -1.1119424 1.7817487 0
4.4220004 -1.1197277 1.7824342 0
4.4240003 -1.1275202 1.7831197 0
4.4260001 -1.1353198 1.783805 0
4.4280005 -1.1431267 1.7844906 0
4.4260001 -1.1498441 1.783805 0
4.4210005 -1.1557263 1.7820915 0
4.4150004 -1.1613127 1.7800351 0
4.4090004 -1.1668774 1.7779789 0
4.4110003 -1.1746716 1.7786642 0
4.4210005 -1.1847388 1.7820915 0
4.4460001 -1.2137132 1.7906595 0
4.4480004 -1.2215923 1.7913451 0
4.4500003 -1.2294786 1.7920306 0
4.4520001 -1.237372 1.7927159 0
4.4540005 -1.2452729 1.7934015 0
4.4330001 -1.1008399 1.7789294 0
4.4190001 -1.1044277 1.7741565 0
4.4200001 -1.1119424 1.7744974 0
4.4220004 -1.1197277 1.7751794 0
4.4240003 -1.1275202 1.7758611 0
4.4260001 -1.1353198 1.7765429 0
4.4280005 -1.1431267 1.7772249 0
4.4260001 -1.1498441 1.7765429 0
4.4210005 -1.1557263 1.7748384 0
4.4150004 -1.1613127 1.7727929 0
4.4090004 -1.1668774 1.7707474 0
4.4110003 -1.1746716 1.7714292 0
4.4210005 -1.1847388 1.7748384 0
4.4460001 -1.2137132 1.7833613 0
4.4480004 -1.2215923 1.7840433 0
4.4500003 -1.2294786 1.7847251 0
4.4520001 -1.237372 1.7854068 0
4.4540005 -1.2452729 1.7860888 0
4.4330001 -1.1008399 1.7716546 0
4.4190001 -1.1044277 1.766907 0
4.4200001 -1.1119424 1.7672461 0
4.4220004 -1.1197277 1.7679244 0
4.4240003 -1.1275202 1.7686026 0
4.4260001 -1.1353198 1.7692808 0
4.4280005 -1.1431267 1.7699591 0
4.4260001 -1.1498441 1.7692808 0
4.4210005 -1.1557263 1.7675853 0
4.4150004 -1.1613127 1.7655506 0
4.4090004 -1.1668774 1.7635159 0
4.4110003 -1.1746716 1.7641941 0
4.4210005 -1.1847388 1.7675853 0
4.4460001 -1.2137132 1.7760631 0
4.4480004 -1.2215923 1.7767414 0
4.4500003 -1.2294786 1.7774196 0
4.4520001 -1.237372 1.7780977 0
4.4540005 -1.2452729 1.7787762 0
4.4330001 -1.1008399 1.7643799 0
4.4190001 -1.1044277 1.7596575 0
4.4200001 -1.1119424 1.7599947 0
4.4220004 -1.1197277 1.7606696 0
4.4240003 -1.1275202 1.7613441 0
4.4260001 -1.1353198 1.7620187 0
4.4280005 -1.1431267 1.7626934 0
4.4260001 -1.1498441 1.7620187 0
4.4210005 -1.1557263 1.7603322 0
4.4150004 -1.1613127 1.7583083 0
4.4090004 -1.1668774 1.7562845 0
4.4110003 -1.1746716 1.756959 0
4.4210005 -1.1847388 1.7603322 0
4.4460001 -1.2137132 1.7687649 0
4.4480004 -1.2215923 1.7694397 0
4.4500003 -1.2294786 1.7701142 0
4.4520001 -1.237372 1.7707888 0
4.4540005 -1.2452729 1.7714635 0
4.4330001 -1.1008399 1.7571051 0
4.4190001 -1.1044277 1.7524079 0
4.4200001 -1.1119424 1.7527434 0
4.4220004 -1.1197277 1.7534145 0
4.4240003 -1.1275202 1.7540855 0
4.4260001 -1.1353198 1.7547566 0
4.4280005 -1.1431267 1.7554277 0
4.4260001 -1.1498441 1.7547566 0
4.4210005 -1.1557263 1.7530791 0
4.4150004 -1.1613127 1.751066 0
4.4090004 -1.1668774 1.749053 0
4.4110003 -1.1746716 1.7497239 0
4.4210005 -1.1847388 1.7530791 0
4.4460001 -1.2137132 1.7614667 0
4.4480004 -1.2215923 1.7621378 0
4.4500003 -1.2294786 1.7628088 0
4.4520001 -1.237372 1.7634797 0
4.4540005 -1.2452729 1.7641509 0
4.4330001 -1.1008399 1.7498302 0
4.4190001 -1.1044277 1.7451584 0
4.4200001 -1.1119424 1.7454922 0
4.4220004 -1.1197277 1.7461597 0
4.4240003 -1.1275202 1.746827 0
4.4260001 -1.1353198 1.7474943 0
4.4280005 -1.1431267 1.7481619 0
4.4260001 -1.1498441 1.7474943 0
4.4210005 -1.1557263 1.745826 0
4.4150004 -1.1613127 1.7438238 0
4.4090004 -1.1668774 1.7418215 0
4.4110003 -1.1746716 1.7424889 0
4.4210005 -1.1847388 1.745826 0
4.4460001 -1.2137132 1.7541685 0
4.4480004 -1.2215923 1.754836 0
4.4500003 -1.2294786 1.7555034 0
4.4520001 -1.237372 1.7561707 0
