# .PCD v0.7 - Point Cloud Data file format
VERSION 0.7
FIELDS x y z intensity
SIZE 4 4 4 4
TYPE F F F F
COUNT 1 1 1 1
WIDTH 1225
HEIGHT 1
VIEWPOINT 0 0 0 1 0 0 0
POINTS 1225
DATA ascii
3.7920003 1.8996885 0.63038516 0
3.8030002 1.8998598 0.63111931 0
3.8140004 1.8999916 0.63185346 0
3.7910004 1.8991151 0.62420171 0
3.8010004 1.8987163 0.62485111 0
3.8110003 1.8982817 0.62550044 0
3.8220003 1.898379 0.62621474 0
3.8370004 1.9007025 0.6271888 0
3.7840002 1.9012036 0.61764306 0
3.7920003 1.8996885 0.61814815 0
3.8000002 1.8981445 0.61865318 0
3.8090003 1.8971416 0.61922139 0
3.8190002 1.8966745 0.61985272 0
3.8310003 1.8973041 0.62061036 0
3.8450003 1.8990194 0.62149417 0
3.8550003 1.8984332 0.62212551 0
3.8610003 1.8955669 0.62250435 0
3.7850003 1.9017792 0.61160028 0
3.7920003 1.8996885 0.61202961 0
3.8010004 1.8987163 0.61258161 0
3.8090003 1.8971416 0.61307222 0
3.8180003 1.8961062 0.61362416 0
3.8280003 1.8956048 0.61423749 0
3.8400002 1.8961962 0.61497343 0
3.8490002 1.8950564 0.61552536 0
3.8550003 1.8922008 0.61589336 0
3.8620002 1.8898832 0.6163227 0
3.8700004 1.8880974 0.6168133 0
3.7810001 1.9055762 0.60525632 0
3.7870002 1.9029299 0.60561347 0
3.7940001 1.9008356 0.60603011 0
3.8010004 1.8987163 0.60644686 0
3.8090003 1.8971416 0.60692304 0
3.8170002 1.8955379 0.60739923 0
3.8270001 1.8950382 0.6079945 0
3.8370004 1.8945028 0.60858977 0
3.8450003 1.8928053 0.60906595 0
3.8500001 1.8893961 0.60936356 0
3.8560002 1.8865279 0.60972071 0
3.8640003 1.8847531 0.61019695 0
3.8730001 1.8835046 0.61073267 0
3.7840002 1.9073077 0.59933078 0
3.7900002 1.9046562 0.59967715 0
3.7960002 1.9019831 0.60002345 0
3.8030002 1.8998598 0.60042751 0
3.8100002 1.8977116 0.60083157 0
3.8180003 1.8961062 0.60129333 0
3.8260002 1.8944719 0.60175514 0
3.8360002 1.8939379 0.60233235 0
3.8420002 1.8911169 0.60267866 0
3.8470004 1.8877132 0.60296726 0
3.8530002 1.8848505 0.60331362 0
3.8590002 1.8819661 0.60365993 0
3.8670003 1.8801714 0.60412169 0
3.8770003 1.8794553 0.60469896 0
3.7870002 1.9090396 0.59339446 0
3.7930002 1.9063826 0.59372997 0
3.7990003 1.9037039 0.59406549 0
3.8050003 1.9010035 0.594401 0
3.8120003 1.8988515 0.59479243 0
3.8190002 1.8966745 0.59518385 0
3.8270001 1.8950382 0.59563118 0
3.8350003 1.8933734 0.59607852 0
3.8400002 1.8899913 0.59635812 0
3.8450003 1.8865911 0.59663773 0
3.8500001 1.8831728 0.59691727 0
3.8560002 1.8802941 0.59725279 0
3.8640003 1.8785048 0.59770018 0
3.8730001 1.8772402 0.59820342 0
3.7910004 1.9113485 0.58750141 0
3.7960002 1.9081088 0.58777201 0
3.8010004 1.9048511 0.58804256 0
3.8080003 1.902719 0.58842134 0
3.8140004 1.8999916 0.58874607 0
3.8210003 1.8978109 0.58912486 0
3.8280003 1.8956048 0.58950365 0
3.8340003 1.8928088 0.58982837 0
3.8380003 1.8888656 0.5900448 0
3.8430002 1.8854692 0.59031534 0
3.8480003 1.8820544 0.59058595 0
3.8540003 1.8791794 0.59091061 0
3.8610003 1.8768378 0.5912894 0
3.8700004 1.8755789 0.59177649 0
3.8800004 1.8748394 0.59231758 0
3.7950003 1.9136572 0.58159399 0
3.8000002 1.9104103 0.58185554 0
3.8050003 1.9071455 0.58211708 0
3.8100002 1.9038625 0.58237863 0
3.8170002 1.9017015 0.58274478 0
3.8230002 1.8989471 0.58305866 0
3.8290002 1.8961711 0.58337247 0
3.8330002 1.8922442 0.58358175 0
3.8370004 1.888303 0.58379102 0
3.8420002 1.8849081 0.58405256 0
3.8470004 1.8814954 0.58431411 0
3.8530002 1.8786219 0.58462799 0
3.8600004 1.8762823 0.58499414 0
3.8680003 1.8744713 0.58541262 0
3.8780003 1.8737354 0.58593571 0
3.7990003 1.9159662 0.57567203 0
3.8040001 1.912712 0.57592458 0
3.8090003 1.9094399 0.57617712 0
3.8140004 1.9061497 0.57642967 0
3.8190002 1.9028417 0.57668221 0
3.8250003 1.9000835 0.57698524 0
3.8290002 1.8961711 0.57718724 0
3.8320003 1.8916796 0.57733876 0
3.8370004 1.888303 0.5775913 0
3.8410003 1.8843473 0.57779336 0
3.8470004 1.8814954 0.57809639 0
3.8520002 1.8780646 0.57834888 0
3.8590002 1.8757268 0.57870245 0
3.8670003 1.8739175 0.57910651 0
3.8770003 1.8731834 0.57961154 0
3.8040001 1.9188522 0.5697844 0
3.8090003 1.9155892 0.57002795 0
3.8130002 1.9117342 0.57022274 0
3.8180003 1.9084371 0.57046628 0
3.8230002 1.9051217 0.57070976 0
3.8260002 1.9006518 0.57085586 0
3.8290002 1.8961711 0.57100201 0
3.8330002 1.8922442 0.57119679 0
3.8370004 1.888303 0.57139164 0
3.8410003 1.8843473 0.57158643 0
3.8470004 1.8814954 0.57187867 0
3.8530002 1.8786219 0.57217085 0
3.8590002 1.8757268 0.5724631 0
3.8670003 1.8739175 0.57285273 0
3.8770003 1.8731834 0.5733397 0
3.8100002 1.9223156 0.56392562 0
3.8130002 1.9178908 0.56406635 0
3.8180003 1.9146025 0.56430084 0
3.8210003 1.9101524 0.56444156 0
3.8230002 1.9051217 0.56453532 0
3.8260002 1.9006518 0.56467605 0
3.8300002 1.8967375 0.56486362 0
3.8330002 1.8922442 0.56500435 0
3.8370004 1.888303 0.56519192 0
3.8420002 1.8849081 0.56542641 0
3.8470004 1.8814954 0.56566095 0
3.8530002 1.8786219 0.56594229 0
3.8600004 1.8762823 0.56627059 0
3.8680003 1.8744713 0.5666458 0
3.8780003 1.8737354 0.56711477 0
3.8160002 1.9257787 0.55804527 0
3.8180003 1.9207679 0.55813545 0
3.8200002 1.9157497 0.55822563 0
3.8220003 1.9107243 0.55831581 0
3.8250003 1.9062617 0.55845112 0
3.8280003 1.9017882 0.55858636 0
3.8310003 1.8973041 0.55872166 0
3.8340003 1.8928088 0.55885696 0
3.8390002 1.8894285 0.55908245 0
3.8430002 1.8854692 0.55926281 0
3.8490002 1.8826138 0.55953336 0
3.8550003 1.8797368 0.55980396 0
3.8620002 1.8773935 0.56011963 0
3.8700004 1.8755789 0.56048036 0
3.8800004 1.8748394 0.56093132 0
3.8190002 1.9275105 0.55201328 0
3.8200002 1.9219186 0.55205661 0
3.8220003 1.9168969 0.55214322 0
3.8240004 1.911868 0.55222976 0
3.8260002 1.9068317 0.55231631 0
3.8290002 1.9023564 0.55244625 0
3.8330002 1.8984367 0.55261934 0
3.8360002 1.8939379 0.55274928 0
3.8410003 1.8905541 0.5529657 0
3.8450003 1.8865911 0.55313885 0
3.8510003 1.8837321 0.55339861 0
3.8570004 1.8808515 0.55365837 0
3.8640003 1.8785048 0.5539614 0
3.8730001 1.8772402 0.55435103 0
3.8840003 1.8770471 0.55482721 0
3.8220003 1.9292421 0.54597056 0
3.8230002 1.9236449 0.54601204 0
3.8240004 1.9180441 0.54605353 0
3.8260002 1.9130114 0.5461365 0
3.8290002 1.9085417 0.54626095 0
3.8320003 1.9040611 0.54638541 0
3.8350003 1.8995696 0.54650986 0
3.8390002 1.8956317 0.5466758 0
3.8430002 1.8916796 0.5468418 0
3.8480003 1.888274 0.54704922 0
3.8540003 1.8854097 0.54729819 0
3.8600004 1.8825237 0.5475471 0
3.8680003 1.8807269 0.54787898 0
3.8770003 1.8794553 0.54825234 0
3.8250003 1.9309738 0.53991699 0
3.8260002 1.9253712 0.53995663 0
3.8270001 1.9197649 0.53999633 0
3.8290002 1.9147269 0.54007572 0
3.8320003 1.9102517 0.54019475 0
3.8350003 1.9057655 0.54031384 0
3.8380003 1.9012688 0.54043287 0
3.8420002 1.8973256 0.5405916 0
3.8470004 1.8939309 0.54079002 0
3.8520002 1.890518 0.54098845 0
3.8570004 1.8870871 0.54118687 0
3.8640003 1.8847531 0.54146463 0
3.8720002 1.8829491 0.54178208 0
3.8830004 1.882778 0.54221863 0
3.8290002 1.9332826 0.53389043 0
3.8300002 1.9276729 0.53392833 0
3.8320003 1.9226331 0.53400409 0
3.8340003 1.9175861 0.53407985 0
3.8360002 1.9125316 0.53415561 0
3.8390002 1.9080384 0.53426921 0
3.8420002 1.9035343 0.53438288 0
3.8460002 1.8995839 0.53453439 0
3.8510003 1.8961819 0.53472382 0
3.8560002 1.8927619 0.53491318 0
3.8630002 1.8904423 0.53517836 0
3.8700004 1.8880974 0.53544354 0
3.8790002 1.8868381 0.53578442 0
3.8150003 1.9252017 0.5272001 0
3.8240004 1.9242204 0.52752483 0
3.8340003 1.9237803 0.52788556 0
3.8390002 1.9204451 0.52806592 0
3.8410003 1.9153818 0.5281381 0
3.8440003 1.9108795 0.52824634 0
3.8470004 1.9063662 0.52835453 0
3.8520002 1.9029715 0.52853495 0
3.8560002 1.8989958 0.52867925 0
3.8630002 1.8966888 0.52893174 0
3.8700004 1.8943566 0.52918434 0
3.8790002 1.8931136 0.52950901 0
3.8000002 1.9165432 0.52052599 0
3.8090003 1.9155892 0.52083445 0
3.8180003 1.9146025 0.5211429 0
3.8280003 1.914155 0.52148569 0
3.8370004 1.9131017 0.52179408 0
3.8460002 1.9120157 0.52210253 0
3.8540003 1.910331 0.52237672 0
3.8590002 1.9069235 0.52254808 0
3.8650002 1.9040611 0.52275372 0
3.8720002 1.9017376 0.52299362 0
3.8810003 1.9005076 0.52330208 0
3.8000002 1.9104103 0.51439309 0
3.8090003 1.9094399 0.51468527 0
3.8180003 1.9084371 0.51497751 0
3.8270001 1.9074016 0.51526976 0
3.8360002 1.9063339 0.51556194 0
3.8450003 1.9052336 0.51585418 0
3.8540003 1.9041007 0.51614636 0
3.8640003 1.9034983 0.51647109 0
3.8730001 1.9022987 0.51676327 0
3.7930002 1.9063826 0.50804549 0
3.8020003 1.9054247 0.50832146 0
3.8110003 1.9044344 0.50859743 0
3.8200002 1.9034115 0.5088734 0
3.8290002 1.9023564 0.50914943 0
3.8380003 1.9012688 0.5094254 0
3.8470004 1.9001486 0.50970137 0
3.8560002 1.8989958 0.50997734 0
3.8650002 1.8978107 0.51025331 0
3.8750002 1.8971523 0.51055998 0
3.7970002 1.9025565 0.50204062 0
3.8060002 1.9015753 0.50230032 0
3.8150003 1.9005616 0.50256008 0
3.8240004 1.8995154 0.50281984 0
3.8330002 1.8984367 0.50307959 0
3.8420002 1.8973256 0.50333935 0
3.8510003 1.8961819 0.50359911 0
3.8600004 1.8950059 0.50385886 0
3.8690002 1.8937973 0.50411856 0
3.8790002 1.8931136 0.50440717 0
3.7860003 1.9023546 0.49561542 0
3.7940001 1.9008356 0.49583188 0
3.8030002 1.8998598 0.49607539 0
3.8120003 1.8988515 0.49631894 0
3.8210003 1.8978109 0.49656242 0
3.8300002 1.8967375 0.49680594 0
3.8390002 1.8956317 0.49704945 0
3.8470004 1.8939309 0.49726593 0
3.8570004 1.8933229 0.49753648 0
3.8660002 1.8921199 0.49778 0
3.8750002 1.8908842 0.49802351 0
3.7840002 1.9012036 0.48945722 0
3.7920003 1.8996885 0.48965925 0
3.8010004 1.8987163 0.48988652 0
3.8100002 1.8977116 0.49011382 0
3.8180003 1.8961062 0.49031585 0
3.8270001 1.8950382 0.49054313 0
3.8360002 1.8939379 0.4907704 0
3.8450003 1.8928053 0.49099767 0
3.8540003 1.8916401 0.49122497 0
3.8630002 1.8904423 0.49145225 0
3.8720002 1.889212 0.49167952 0
3.7910004 1.8991151 0.48351729 0
3.8000002 1.8981445 0.48372835 0
3.8090003 1.8971416 0.48393938 0
3.8180003 1.8961062 0.48415044 0
3.8260002 1.8944719 0.48433802 0
3.8350003 1.8933734 0.48454908 0
3.8440003 1.8922426 0.48476011 0
3.8530002 1.8910789 0.48497117 0
3.8620002 1.8898832 0.4851822 0
3.8710003 1.8886547 0.48539326 0
3.7920003 1.8996885 0.47742224 0
3.8010004 1.8987163 0.47761703 0
3.8090003 1.8971416 0.47779021 0
3.8180003 1.8961062 0.47798502 0
3.8270001 1.8950382 0.47817981 0
3.8350003 1.8933734 0.47835299 0
3.8440003 1.8922426 0.47854781 0
3.8530002 1.8910789 0.4787426 0
3.8620002 1.8898832 0.47893742 0
3.8710003 1.8886547 0.47913224 0
3.8810003 1.8879495 0.47934869 0
3.7850003 1.9017792 0.47116482 0
3.7930002 1.9002621 0.47132355 0
3.8020003 1.8992882 0.47150213 0
3.8100002 1.8977116 0.47166085 0
3.8190002 1.8966745 0.47183943 0
3.8280003 1.8956048 0.472018 0
3.8360002 1.8939379 0.47217676 0
3.8450003 1.8928053 0.47235531 0
3.8540003 1.8916401 0.47253391 0
3.8630002 1.8904423 0.47271249 0
3.8710003 1.8886547 0.47287121 0
3.8810003 1.8879495 0.47306964 0
3.7870002 1.9029299 0.46509501 0
3.7960002 1.9019831 0.46525735 0
3.8040001 1.9004316 0.46540165 0
3.8130002 1.8994216 0.46556398 0
3.8220003 1.898379 0.46572632 0
3.8300002 1.8967375 0.46587062 0
3.8390002 1.8956317 0.46603298 0
3.8480003 1.8944935 0.46619532 0
3.8560002 1.8927619 0.46633962 0
3.8630002 1.8904423 0.46646589 0
3.8710003 1.8886547 0.46661019 0
3.8810003 1.8879495 0.46679059 0
3.7910004 1.9052318 0.45905045 0
3.8000002 1.9042774 0.45919654 0
3.8080003 1.902719 0.45932642 0
3.8170002 1.9017015 0.45947254 0
3.8250003 1.9000835 0.45960242 0
3.8340003 1.8990033 0.45974851 0
3.8430002 1.8978902 0.45989463 0
3.8510003 1.8961819 0.46002451 0
3.8560002 1.8927619 0.46010566 0
3.8630002 1.8904423 0.46021929 0
3.8710003 1.8886547 0.46034917 0
3.8810003 1.8879495 0.46051154 0
3.7960002 1.9081088 0.45300588 0
3.8050003 1.9071455 0.45313576 0
3.8130002 1.9055779 0.45325118 0
3.8220003 1.9045516 0.45338106 0
3.8300002 1.9029247 0.45349652 0
3.8390002 1.9018351 0.45362639 0
3.8460002 1.8995839 0.45372739 0
3.8510003 1.8961819 0.45379955 0
3.8560002 1.8927619 0.4538717 0
3.8630002 1.8904423 0.45397273 0
3.8710003 1.8886547 0.45408815 0
3.8810003 1.8879495 0.45423245 0
3.8030002 1.9121366 0.44696853 0
3.8120003 1.9111609 0.44708216 0
3.8200002 1.9095806 0.44718319 0
3.8290002 1.9085417 0.44729683 0
3.8380003 1.9074702 0.44741046 0
3.8420002 1.9035343 0.44746098 0
3.8460002 1.8995839 0.44751146 0
3.8510003 1.8961819 0.44757462 0
3.8560002 1.8927619 0.44763774 0
3.8630002 1.8904423 0.44772613 0
3.8710003 1.8886547 0.44782713 0
3.8810003 1.8879495 0.4479534 0
3.8050003 1.9194295 0.44085181 0
3.8140004 1.9184662 0.44094923 0
3.8220003 1.9168969 0.44103581 0
3.8310003 1.9158705 0.4411332 0
3.8350003 1.9119618 0.4411765 0
3.8380003 1.9074702 0.44120896 0
3.8420002 1.9035343 0.44125226 0
3.8460002 1.8995839 0.44129556 0
3.8510003 1.8961819 0.44134966 0
3.8560002 1.8927619 0.44140378 0
3.8630002 1.8904423 0.44147953 0
3.8710003 1.8886547 0.44156611 0
3.8810003 1.8879495 0.44167435 0
3.8230002 1.9298192 0.43487218 0
3.8290002 1.9270974 0.4349263 0
3.8310003 1.9220595 0.43494433 0
3.8330002 1.917014 0.43496239 0
3.8350003 1.9119618 0.43498042 0
3.8380003 1.9074702 0.43500748 0
3.8420002 1.9035343 0.43504354 0
3.8460002 1.8995839 0.43507963 0
3.8510003 1.8961819 0.43512473 0
3.8560002 1.8927619 0.43516982 0
3.8630002 1.8904423 0.43523294 0
3.8710003 1.8886547 0.43530512 0
3.8810003 1.8879495 0.4353953 0
3.8280003 1.9327055 0.42873383 0
3.8290002 1.9270974 0.42874104 0
3.8310003 1.9220595 0.42875549 0
3.8330002 1.917014 0.42876992 0
3.8350003 1.9119618 0.42878434 0
3.8380003 1.9074702 0.42880598 0
3.8420002 1.9035343 0.42883486 0
3.8460002 1.8995839 0.4288637 0
3.8510003 1.8961819 0.42889979 0
3.8560002 1.8927619 0.42893586 0
3.8630002 1.8904423 0.42898637 0
3.8710003 1.8886547 0.4290441 0
3.8810003 1.8879495 0.42911625 0
3.8290002 1.9270974 0.4225558 0
3.8310003 1.9220595 0.42256662 0
3.8330002 1.917014 0.42257744 0
3.8350003 1.9119618 0.42258826 0
3.8380003 1.9074702 0.4226045 0
3.8420002 1.9035343 0.42262614 0
3.8460002 1.8995839 0.42264777 0
3.8510003 1.8961819 0.42267483 0
3.8560002 1.8927619 0.4227019 0
3.8630002 1.8904423 0.42273977 0
3.8710003 1.8886547 0.42278308 0
3.8810003 1.8879495 0.4228372 0
3.8290002 1.9270974 0.41637054 0
3.8310003 1.9220595 0.41637775 0
3.8330002 1.917014 0.41638497 0
3.8350003 1.9119618 0.41639218 0
3.8380003 1.9074702 0.416403 0
3.8420002 1.9035343 0.41641742 0
3.8460002 1.8995839 0.41643187 0
3.8510003 1.8961819 0.4164499 0
3.8560002 1.8927619 0.41646793 0
3.8630002 1.8904423 0.41649318 0
3.8710003 1.8886547 0.41652206 0
3.8810003 1.8879495 0.41655812 0
3.8290002 1.9270974 0.41018528 0
3.8310003 1.9220595 0.41018888 0
3.8330002 1.917014 0.41019249 0
3.8350003 1.9119618 0.4101961 0
3.8380003 1.9074702 0.41020152 0
3.8420002 1.9035343 0.41020873 0
3.8460002 1.8995839 0.41021594 0
3.8510003 1.8961819 0.41022494 0
3.8560002 1.8927619 0.41023397 0
3.8630002 1.8904423 0.41024661 0
3.8710003 1.8886547 0.41026103 0
3.8810003 1.8879495 0.41027907 0
3.8290002 1.9270974 0.40400001 0
3.8310003 1.9220595 0.40400001 0
3.8330002 1.917014 0.40400001 0
3.8350003 1.9119618 0.40400001 0
3.8380003 1.9074702 0.40400001 0
3.8420002 1.9035343 0.40400001 0
3.8460002 1.8995839 0.40400001 0
3.8510003 1.8961819 0.40400001 0
3.8560002 1.8927619 0.40400001 0
3.8630002 1.8904423 0.40400001 0
3.8710003 1.8886547 0.40400001 0
3.8810003 1.8879495 0.40400001 0
3.8290002 1.9270974 0.39781475 0
3.8310003 1.9220595 0.39781114 0
3.8330002 1.917014 0.39780754 0
3.8350003 1.9119618 0.39780393 0
3.8380003 1.9074702 0.39779851 0
3.8420002 1.9035343 0.3977913 0
3.8460002 1.8995839 0.39778408 0
3.8510003 1.8961819 0.39777508 0
3.8560002 1.8927619 0.39776605 0
3.8630002 1.8904423 0.39775342 0
3.8710003 1.8886547 0.39773899 0
3.8810003 1.8879495 0.39772096 0
3.8290002 1.9270974 0.39162949 0
3.8310003 1.9220595 0.39162228 0
3.8330002 1.917014 0.39161506 0
3.8350003 1.9119618 0.39160785 0
3.8380003 1.9074702 0.39159703 0
3.8420002 1.9035343 0.39158261 0
3.8460002 1.8995839 0.39156815 0
3.8510003 1.8961819 0.39155012 0
3.8560002 1.8927619 0.39153209 0
3.8630002 1.8904423 0.39150685 0
3.8710003 1.8886547 0.39147797 0
3.8810003 1.8879495 0.39144191 0
3.8280003 1.9327055 0.38544965 0
3.8290002 1.9270974 0.38544422 0
3.8310003 1.9220595 0.38543341 0
3.8330002 1.917014 0.38542259 0
3.8350003 1.9119618 0.38541177 0
3.8380003 1.9074702 0.38539553 0
3.8420002 1.9035343 0.38537389 0
3.8460002 1.8995839 0.38535225 0
3.8510003 1.8961819 0.38532519 0
3.8560002 1.8927619 0.38529813 0
3.8630002 1.8904423 0.38526025 0
3.8710003 1.8886547 0.38521695 0
3.8810003 1.8879495 0.38516283 0
3.8280003 1.9327055 0.3792662 0
3.8290002 1.9270974 0.37925899 0
3.8310003 1.9220595 0.37924454 0
3.8330002 1.917014 0.37923011 0
3.8350003 1.9119618 0.37921569 0
3.8380003 1.9074702 0.37919405 0
3.8420002 1.9035343 0.37916517 0
3.8460002 1.8995839 0.37913632 0
3.8510003 1.8961819 0.37910023 0
3.8560002 1.8927619 0.37906417 0
3.8630002 1.8904423 0.37901366 0
3.8710003 1.8886547 0.37895593 0
3.8810003 1.8879495 0.37888378 0
3.8280003 1.9327055 0.37308273 0
3.8290002 1.9270974 0.37307373 0
3.8310003 1.9220595 0.3730557 0
3.8330002 1.917014 0.37303764 0
3.8350003 1.9119618 0.37301961 0
3.8380003 1.9074702 0.37299255 0
3.8420002 1.9035343 0.37295648 0
3.8460002 1.8995839 0.37292039 0
3.8510003 1.8961819 0.3728753 0
3.8560002 1.8927619 0.37283021 0
3.8630002 1.8904423 0.37276709 0
3.8710003 1.8886547 0.37269491 0
3.8810003 1.8879495 0.37260473 0
3.8280003 1.9327055 0.36689928 0
3.8290002 1.9270974 0.36688846 0
3.8310003 1.9220595 0.36686683 0
3.8330002 1.917014 0.36684519 0
3.8350003 1.9119618 0.36682352 0
3.8380003 1.9074702 0.36679107 0
3.8420002 1.9035343 0.36674777 0
3.8460002 1.8995839 0.36670446 0
3.8510003 1.8961819 0.36665037 0
3.8560002 1.8927619 0.36659625 0
3.8630002 1.8904423 0.36652049 0
3.8710003 1.8886547 0.36643392 0
3.8810003 1.8879495 0.36632568 0
3.8280003 1.9327055 0.36071584 0
3.8290002 1.9270974 0.3607032 0
3.8310003 1.9220595 0.36067796 0
3.8330002 1.917014 0.36065269 0
3.8350003 1.9119618 0.36062744 0
3.8380003 1.9074702 0.36058956 0
3.8420002 1.9035343 0.36053905 0
3.8460002 1.8995839 0.36048856 0
3.8510003 1.8961819 0.36042541 0
3.8560002 1.8927619 0.36036229 0
3.8630002 1.8904423 0.3602739 0
3.8710003 1.8886547 0.3601729 0
3.8810003 1.8879495 0.36004663 0
3.8280003 1.9327055 0.35453236 0
3.8290002 1.9270974 0.35451794 0
3.8310003 1.9220595 0.35448909 0
3.8330002 1.917014 0.35446024 0
3.8350003 1.9119618 0.35443136 0
3.8380003 1.9074702 0.35438806 0
3.8420002 1.9035343 0.35433036 0
3.8460002 1.8995839 0.35427263 0
3.8510003 1.8961819 0.35420048 0
3.8560002 1.8927619 0.35412833 0
3.8630002 1.8904423 0.3540273 0
3.8710003 1.8886547 0.35391188 0
3.8810003 1.8879495 0.35376757 0
3.8280003 1.9327055 0.34834892 0
3.8290002 1.9270974 0.3483327 0
3.8310003 1.9220595 0.34830022 0
3.8330002 1.917014 0.34826776 0
3.8350003 1.9119618 0.34823528 0
3.8380003 1.9074702 0.34818658 0
3.8420002 1.9035343 0.34812164 0
3.8460002 1.8995839 0.3480567 0
3.8510003 1.8961819 0.34797552 0
3.8560002 1.8927619 0.34789437 0
3.8630002 1.8904423 0.34778073 0
3.8710003 1.8886547 0.34765086 0
3.8810003 1.8879495 0.34748849 0
3.8280003 1.9327055 0.34216547 0
3.8290002 1.9270974 0.34214744 0
3.8310003 1.9220595 0.34211135 0
3.8330002 1.917014 0.34207529 0
3.8350003 1.9119618 0.3420392 0
3.8380003 1.9074702 0.34198508 0
3.8420002 1.9035343 0.34191293 0
3.8460002 1.8995839 0.3418408 0
3.8510003 1.8961819 0.34175059 0
3.8560002 1.8927619 0.34166041 0
3.8630002 1.8904423 0.34153414 0
3.8710003 1.8886547 0.34138983 0
3.8810003 1.8879495 0.34120944 0
3.8280003 1.9327055 0.33598202 0
3.8290002 1.9270974 0.33596218 0
3.8310003 1.9220595 0.33592248 0
3.8330002 1.917014 0.33588281 0
3.8350003 1.9119618 0.33584312 0
3.8380003 1.9074702 0.3357836 0
3.8420002 1.9035343 0.33570421 0
3.8460002 1.8995839 0.33562487 0
3.8510003 1.8961819 0.33552563 0
3.8560002 1.8927619 0.33542645 0
3.8630002 1.8904423 0.33528754 0
3.8710003 1.8886547 0.33512881 0
3.8810003 1.8879495 0.33493039 0
3.8280003 1.9327055 0.32979855 0
3.8290002 1.9270974 0.32977691 0
3.8310003 1.9220595 0.32973361 0
3.8330002 1.917014 0.32969034 0
3.8350003 1.9119618 0.32964703 0
3.8380003 1.9074702 0.3295821 0
3.8420002 1.9035343 0.32949552 0
3.8460002 1.8995839 0.32940894 0
3.8510003 1.8961819 0.3293007 0
3.8560002 1.8927619 0.32919249 0
3.8630002 1.8904423 0.32904094 0
3.8710003 1.8886547 0.32886779 0
3.8810003 1.8879495 0.32865134 0
3.8280003 1.9327055 0.3236151 0
3.8290002 1.9270974 0.32359165 0
3.8310003 1.9220595 0.32354474 0
3.8330002 1.917014 0.32349786 0
3.8350003 1.9119618 0.32345095 0
3.8380003 1.9074702 0.32338059 0
3.8420002 1.9035343 0.3232868 0
3.8460002 1.8995839 0.32319301 0
3.8510003 1.8961819 0.32307577 0
3.8560002 1.8927619 0.32295853 0
3.8630002 1.8904423 0.32279438 0
3.8710003 1.8886547 0.32260677 0
3.8810003 1.8879495 0.32237229 0
3.8280003 1.9327055 0.31743163 0
3.8290002 1.9270974 0.31740642 0
3.8310003 1.9220595 0.31735587 0
3.8330002 1.917014 0.31730539 0
3.8350003 1.9119618 0.31725487 0
3.8380003 1.9074702 0.31717911 0
3.8420002 1.9035343 0.31707811 0
3.8460002 1.8995839 0.31697708 0
3.8510003 1.8961819 0.31685081 0
3.8560002 1.8927619 0.31672454 0
3.8630002 1.8904423 0.31654778 0
3.8710003 1.8886547 0.31634575 0
3.8810003 1.8879495 0.31609324 0
3.8280003 1.9327055 0.31124818 0
3.8290002 1.9270974 0.31122112 0
3.8310003 1.9220595 0.31116703 0
3.8330002 1.917014 0.31111291 0
3.8350003 1.9119618 0.31105879 0
3.8380003 1.9074702 0.31097764 0
3.8420002 1.9035343 0.3108694 0
3.8460002 1.8995839 0.31076115 0
3.8510003 1.8961819 0.31062588 0
3.8560002 1.8927619 0.31049061 0
3.8630002 1.8904423 0.31030118 0
3.8710003 1.8886547 0.31008473 0
3.8810003 1.8879495 0.30981416 0
3.8280003 1.9327055 0.30506474 0
3.8290002 1.9270974 0.30503589 0
3.8310003 1.9220595 0.30497816 0
3.8330002 1.917014 0.30492043 0
3.8350003 1.9119618 0.30486271 0
3.8380003 1.9074702 0.30477613 0
3.8420002 1.9035343 0.30466068 0
3.8460002 1.8995839 0.30454525 0
3.8510003 1.8961819 0.30440092 0
3.8560002 1.8927619 0.30425662 0
3.8630002 1.8904423 0.30405462 0
3.8710003 1.8886547 0.30382371 0
3.8810003 1.8879495 0.3035351 0
3.8280003 1.9327055 0.29888129 0
3.8290002 1.9270974 0.29885063 0
3.8310003 1.9220595 0.29878929 0
3.8330002 1.917014 0.29872796 0
3.8350003 1.9119618 0.29866663 0
3.8380003 1.9074702 0.29857463 0
3.8420002 1.9035343 0.29845196 0
3.8460002 1.8995839 0.29832932 0
3.8510003 1.8961819 0.29817599 0
3.8560002 1.8927619 0.29802269 0
3.8630002 1.8904423 0.29780802 0
3.8710003 1.8886547 0.29756272 0
3.8810003 1.8879495 0.29725605 0
3.8280003 1.9327055 0.29269785 0
3.8290002 1.9270974 0.29266536 0
3.8310003 1.9220595 0.29260042 0
3.8330002 1.917014 0.29253548 0
3.8350003 1.9119618 0.29247054 0
3.8380003 1.9074702 0.29237315 0
3.8420002 1.9035343 0.29224327 0
3.8460002 1.8995839 0.29211339 0
3.8510003 1.8961819 0.29195106 0
3.8560002 1.8927619 0.29178873 0
3.8630002 1.8904423 0.29156142 0
3.8710003 1.8886547 0.29130167 0
3.8810003 1.8879495 0.290977 0
3.8280003 1.9327055 0.28651437 0
3.8290002 1.9270974 0.2864801 0
3.8310003 1.9220595 0.28641155 0
3.8330002 1.917014 0.28634301 0
3.8350003 1.9119618 0.28627446 0
3.8380003 1.9074702 0.28617164 0
3.8420002 1.9035343 0.28603455 0
3.8460002 1.8995839 0.28589749 0
3.8510003 1.8961819 0.28572613 0
3.8560002 1.8927619 0.28555477 0
3.8630002 1.8904423 0.28531486 0
3.8710003 1.8886547 0.28504068 0
3.8810003 1.8879495 0.28469795 0
3.8280003 1.9327055 0.28033093 0
3.8290002 1.9270974 0.28029484 0
3.8310003 1.9220595 0.28022268 0
3.8330002 1.917014 0.28015053 0
3.8350003 1.9119618 0.28007838 0
3.8380003 1.9074702 0.27997017 0
3.8420002 1.9035343 0.27982587 0
3.8460002 1.8995839 0.27968156 0
3.8510003 1.8961819 0.27950117 0
3.8560002 1.8927619 0.27932078 0
3.8630002 1.8904423 0.27906826 0
3.8710003 1.8886547 0.27877963 0
3.8810003 1.8879495 0.2784189 0
3.8280003 1.9327055 0.27414745 0
3.8290002 1.9270974 0.2741096 0
3.8310003 1.9220595 0.27403384 0
3.8330002 1.917014 0.27395809 0
3.8350003 1.9119618 0.27388233 0
3.8380003 1.9074702 0.27376866 0
3.8420002 1.9035343 0.27361715 0
3.8460002 1.8995839 0.27346563 0
3.8510003 1.8961819 0.27327621 0
3.8560002 1.8927619 0.27308685 0
3.8630002 1.8904423 0.27282166 0
3.8710003 1.8886547 0.27251863 0
3.8810003 1.8879495 0.27213982 0
3.8280003 1.9327055 0.26796401 0
3.8290002 1.9270974 0.26792431 0
3.8310003 1.9220595 0.26784497 0
3.8330002 1.917014 0.26776558 0
3.8350003 1.9119618 0.26768622 0
3.8380003 1.9074702 0.26756716 0
3.8420002 1.9035343 0.26740843 0
3.8460002 1.8995839 0.2672497 0
3.8510003 1.8961819 0.26705128 0
3.8560002 1.8927619 0.26685286 0
3.8630002 1.8904423 0.2665751 0
3.8710003 1.8886547 0.26625758 0
3.8810003 1.8879495 0.2658608 0
3.8280003 1.9327055 0.26178056 0
3.8290002 1.9270974 0.26173908 0
3.8310003 1.9220595 0.26165611 0
3.8330002 1.917014 0.26157314 0
3.8350003 1.9119618 0.26149014 0
3.8380003 1.9074702 0.26136568 0
3.8420002 1.9035343 0.26119974 0
3.8460002 1.8995839 0.26103377 0
3.8510003 1.8961819 0.26082635 0
3.8560002 1.8927619 0.26061893 0
3.8630002 1.8904423 0.2603285 0
3.8710003 1.8886547 0.25999659 0
3.8810003 1.8879495 0.25958171 0
3.8280003 1.9327055 0.25559711 0
3.8290002 1.9270974 0.25555381 0
3.8310003 1.9220595 0.25546724 0
3.8330002 1.917014 0.25538066 0
3.8350003 1.9119618 0.25529408 0
3.8380003 1.9074702 0.25516418 0
3.8420002 1.9035343 0.25499102 0
3.8460002 1.8995839 0.25481784 0
3.8510003 1.8961819 0.25460142 0
3.8560002 1.8927619 0.25438493 0
3.8630002 1.8904423 0.2540819 0
3.8710003 1.8886547 0.25373557 0
3.8810003 1.8879495 0.25330263 0
3.8280003 1.9327055 0.24941365 0
3.8290002 1.9270974 0.24936855 0
3.8310003 1.9220595 0.24927835 0
3.8330002 1.917014 0.24918817 0
3.8350003 1.9119618 0.24909797 0
3.8380003 1.9074702 0.2489627 0
3.8420002 1.9035343 0.24878232 0
3.8460002 1.8995839 0.24860194 0
3.8510003 1.8961819 0.24837644 0
3.8560002 1.8927619 0.24815099 0
3.8630002 1.8904423 0.24783531 0
3.8710003 1.8886547 0.24747457 0
3.8810003 1.8879495 0.24702361 0
3.8280003 1.9327055 0.24323019 0
3.8290002 1.9270974 0.24318328 0
3.8310003 1.9220595 0.24308948 0
3.8330002 1.917014 0.24299569 0
3.8350003 1.9119618 0.24290191 0
3.8380003 1.9074702 0.24276119 0
3.8420002 1.9035343 0.2425736 0
3.8460002 1.8995839 0.24238601 0
3.8510003 1.8961819 0.24215151 0
3.8560002 1.8927619 0.24191703 0
3.8630002 1.8904423 0.24158873 0
3.8710003 1.8886547 0.24121355 0
3.8810003 1.8879495 0.24074455 0
3.8280003 1.9327055 0.23704673 0
3.8290002 1.9270974 0.23699805 0
3.8310003 1.9220595 0.23690063 0
3.8330002 1.917014 0.23680323 0
3.8350003 1.9119618 0.23670582 0
3.8380003 1.9074702 0.23655972 0
3.8420002 1.9035343 0.2363649 0
3.8460002 1.8995839 0.2361701 0
3.8510003 1.8961819 0.23592658 0
3.8560002 1.8927619 0.23568305 0
3.8630002 1.8904423 0.23534214 0
3.8710003 1.8886547 0.23495252 0
3.8810003 1.8879495 0.23446548 0
3.8280003 1.9327055 0.23086327 0
3.8290002 1.9270974 0.23081279 0
3.8310003 1.9220595 0.23071176 0
3.8330002 1.917014 0.23061076 0
3.8350003 1.9119618 0.23050973 0
3.8380003 1.9074702 0.23035821 0
3.8420002 1.9035343 0.23015618 0
3.8460002 1.8995839 0.22995417 0
3.8510003 1.8961819 0.22970162 0
3.8560002 1.8927619 0.22944909 0
3.8630002 1.8904423 0.22909555 0
3.8710003 1.8886547 0.2286915 0
3.8810003 1.8879495 0.22818644 0
3.8280003 1.9327055 0.22467983 0
3.8290002 1.9270974 0.22462752 0
3.8310003 1.9220595 0.22452289 0
3.8330002 1.917014 0.22441828 0
3.8350003 1.9119618 0.22431366 0
3.8380003 1.9074702 0.22415672 0
3.8420002 1.9035343 0.2239475 0
3.8460002 1.8995839 0.22373824 0
3.8510003 1.8961819 0.22347668 0
3.8560002 1.8927619 0.22321515 0
3.8630002 1.8904423 0.22284897 0
3.8710003 1.8886547 0.22243048 0
3.8810003 1.8879495 0.22190738 0
3.8280003 1.9327055 0.21849638 0
3.8290002 1.9270974 0.21844226 0
3.8310003 1.9220595 0.21833403 0
3.8330002 1.917014 0.21822581 0
3.8350003 1.9119618 0.21811758 0
3.8380003 1.9074702 0.21795523 0
3.8420002 1.9035343 0.21773878 0
3.8460002 1.8995839 0.21752232 0
3.8510003 1.8961819 0.21725175 0
3.8560002 1.8927619 0.21698119 0
3.8630002 1.8904423 0.21660239 0
3.8710003 1.8886547 0.21616946 0
3.8810003 1.8879495 0.21562831 0
3.8280003 1.9327055 0.21231292 0
3.8290002 1.9270974 0.21225701 0
3.8310003 1.9220595 0.21214516 0
3.8330002 1.917014 0.21203333 0
3.8350003 1.9119618 0.21192148 0
3.8380003 1.9074702 0.21175374 0
3.8420002 1.9035343 0.21153007 0
3.8460002 1.8995839 0.21130639 0
3.8510003 1.8961819 0.2110268 0
3.8560002 1.8927619 0.21074723 0
3.8630002 1.8904423 0.21035579 0
3.8710003 1.8886547 0.20990844 0
3.8810003 1.8879495 0.20934927 0
3.8280003 1.9327055 0.20612946 0
3.8290002 1.9270974 0.20607175 0
3.8310003 1.9220595 0.2059563 0
3.8330002 1.917014 0.20584086 0
3.8350003 1.9119618 0.20572542 0
3.8380003 1.9074702 0.20555225 0
3.8420002 1.9035343 0.20532136 0
3.8460002 1.8995839 0.20509048 0
3.8510003 1.8961819 0.20480186 0
3.8560002 1.8927619 0.20451325 0
3.8630002 1.8904423 0.20410921 0
3.8710003 1.8886547 0.20364742 0
3.8810003 1.8879495 0.20307021 0
3.8280003 1.9327055 0.199946 0
3.8290002 1.9270974 0.19988649 0
3.8310003 1.9220595 0.19976743 0
3.8330002 1.917014 0.1996484 0
3.8350003 1.9119618 0.19952933 0
3.8380003 1.9074702 0.19935074 0
3.8420002 1.9035343 0.19911265 0
3.8460002 1.8995839 0.19887455 0
3.8510003 1.8961819 0.19857691 0
3.8560002 1.8927619 0.19827929 0
3.8630002 1.8904423 0.19786263 0
3.8710003 1.8886547 0.1973864 0
3.8810003 1.8879495 0.19679114 0
3.8280003 1.9327055 0.19376256 0
3.8290002 1.9270974 0.19370122 0
3.8310003 1.9220595 0.19357857 0
3.8330002 1.917014 0.19345592 0
3.8350003 1.9119618 0.19333324 0
3.8380003 1.9074702 0.19314927 0
3.8420002 1.9035343 0.19290394 0
3.8460002 1.8995839 0.19265863 0
3.8510003 1.8961819 0.19235198 0
3.8560002 1.8927619 0.19204533 0
3.8630002 1.8904423 0.19161603 0
3.8710003 1.8886547 0.19112539 0
3.8810003 1.8879495 0.19051209 0
3.8280003 1.9327055 0.1875791 0
3.8290002 1.9270974 0.18751597 0
3.8310003 1.9220595 0.1873897 0
3.8330002 1.917014 0.18726343 0
3.8350003 1.9119618 0.18713717 0
3.8380003 1.9074702 0.18694776 0
3.8420002 1.9035343 0.18669523 0
3.8460002 1.8995839 0.18644272 0
3.8510003 1.8961819 0.18612704 0
3.8560002 1.8927619 0.18581137 0
3.8630002 1.8904423 0.18536945 0
3.8710003 1.8886547 0.18486437 0
3.8810003 1.8879495 0.18423304 0
3.8280003 1.9327055 0.18139565 0
3.8290002 1.9270974 0.18133071 0
3.8310003 1.9220595 0.18120083 0
3.8330002 1.917014 0.18107097 0
3.8350003 1.9119618 0.18094109 0
3.8380003 1.9074702 0.18074627 0
3.8420002 1.9035343 0.18048653 0
3.8460002 1.8995839 0.18022679 0
3.8510003 1.8961819 0.17990209 0
3.8560002 1.8927619 0.17957743 0
3.8630002 1.8904423 0.17912287 0
3.8710003 1.8886547 0.17860335 0
3.8810003 1.8879495 0.17795397 0
3.8280003 1.9327055 0.17521219 0
3.8290002 1.9270974 0.17514545 0
3.8310003 1.9220595 0.17501196 0
3.8330002 1.917014 0.17487849 0
3.8350003 1.9119618 0.17474501 0
3.8380003 1.9074702 0.17454478 0
3.8420002 1.9035343 0.17427783 0
3.8460002 1.8995839 0.17401086 0
3.8510003 1.8961819 0.17367715 0
3.8560002 1.8927619 0.17334345 0
3.8630002 1.8904423 0.17287628 0
3.8710003 1.8886547 0.17234235 0
3.8810003 1.8879495 0.17167491 0
3.8280003 1.9327055 0.16902873 0
3.8290002 1.9270974 0.1689602 0
3.8310003 1.9220595 0.16882311 0
3.8330002 1.917014 0.168686 0
3.8350003 1.9119618 0.16854891 0
3.8380003 1.9074702 0.16834328 0
3.8420002 1.9035343 0.16806911 0
3.8460002 1.8995839 0.16779494 0
3.8510003 1.8961819 0.16745222 0
3.8560002 1.8927619 0.16710949 0
3.8630002 1.8904423 0.16662967 0
3.8710003 1.8886547 0.16608131 0
3.8810003 1.8879495 0.16539589 0
3.8280003 1.9327055 0.1628453 0
3.8290002 1.9270974 0.16277494 0
3.8310003 1.9220595 0.16263424 0
3.8330002 1.917014 0.16249354 0
3.8350003 1.9119618 0.16235283 0
3.8380003 1.9074702 0.16214181 0
3.8420002 1.9035343 0.16186041 0
3.8460002 1.8995839 0.16157903 0
3.8510003 1.8961819 0.16122727 0
3.8560002 1.8927619 0.16087554 0
3.8630002 1.8904423 0.16038309 0
3.8710003 1.8886547 0.1598203 0
3.8810003 1.8879495 0.15911682 0
3.8280003 1.9327055 0.15666182 0
3.8290002 1.9270974 0.15658969 0
3.8310003 1.9220595 0.15644537 0
3.8330002 1.917014 0.15630107 0
3.8350003 1.9119618 0.15615676 0
3.8380003 1.9074702 0.15594031 0
3.8420002 1.9035343 0.15565169 0
3.8460002 1.8995839 0.15536311 0
3.8510003 1.8961819 0.15500233 0
3.8560002 1.8927619 0.15464157 0
3.8630002 1.8904423 0.15413651 0
3.8710003 1.8886547 0.15355927 0
3.8810003 1.8879495 0.15283775 0
3.8280003 1.9327055 0.15047839 0
3.8290002 1.9270974 0.15040442 0
3.8310003 1.9220595 0.15025651 0
3.8330002 1.917014 0.15010861 0
3.8350003 1.9119618 0.14996067 0
3.8380003 1.9074702 0.14973882 0
3.8420002 1.9035343 0.14944297 0
3.8460002 1.8995839 0.14914715 0
3.8510003 1.8961819 0.14877737 0
3.8560002 1.8927619 0.14840761 0
3.8630002 1.8904423 0.14788991 0
3.8710003 1.8886547 0.14729828 0
3.8810003 1.8879495 0.1465587 0
3.8280003 1.9327055 0.14429492 0
3.8290002 1.9270974 0.14421916 0
3.8310003 1.9220595 0.14406765 0
3.8330002 1.917014 0.14391613 0
3.8350003 1.9119618 0.14376462 0
3.8380003 1.9074702 0.14353731 0
3.8420002 1.9035343 0.14323428 0
3.8460002 1.8995839 0.14293122 0
3.8510003 1.8961819 0.14255244 0
3.8560002 1.8927619 0.14217365 0
3.8630002 1.8904423 0.14164335 0
3.8710003 1.8886547 0.14103723 0
3.8810003 1.8879495 0.14027962 0
3.8280003 1.9327055 0.13811147 0
3.8290002 1.9270974 0.1380339 0
3.8310003 1.9220595 0.13787878 0
3.8330002 1.917014 0.13772365 0
3.8350003 1.9119618 0.13756853 0
3.8380003 1.9074702 0.13733581 0
3.8420002 1.9035343 0.13702556 0
3.8460002 1.8995839 0.13671532 0
3.8510003 1.8961819 0.13632751 0
3.8560002 1.8927619 0.13593969 0
3.8630002 1.8904423 0.13539675 0
3.8710003 1.8886547 0.13477623 0
3.8810003 1.8879495 0.13400057 0
3.8280003 1.9327055 0.131928 0
3.8290002 1.9270974 0.13184863 0
3.8310003 1.9220595 0.13168991 0
3.8330002 1.917014 0.13153118 0
3.8350003 1.9119618 0.13137242 0
3.8380003 1.9074702 0.13113433 0
3.8420002 1.9035343 0.13081685 0
3.8460002 1.8995839 0.13049939 0
3.8510003 1.8961819 0.13010255 0
3.8560002 1.8927619 0.12970573 0
3.8630002 1.8904423 0.12915015 0
3.8710003 1.8886547 0.12851518 0
3.8810003 1.8879495 0.12772155 0
3.8280003 1.9327055 0.12574455 0
3.8290002 1.9270974 0.12566337 0
3.8310003 1.9220595 0.12550104 0
3.8330002 1.917014 0.1253387 0
3.8350003 1.9119618 0.12517634 0
3.8380003 1.9074702 0.12493286 0
3.8420002 1.9035343 0.12460816 0
3.8460002 1.8995839 0.12428346 0
3.8510003 1.8961819 0.12387761 0
3.8560002 1.8927619 0.12347177 0
3.8630002 1.8904423 0.12290356 0
3.8710003 1.8886547 0.12225419 0
3.8810003 1.8879495 0.12144247 0
3.8280003 1.9327055 0.11956111 0
3.8290002 1.9270974 0.11947814 0
3.8310003 1.9220595 0.1193122 0
3.8330002 1.917014 0.11914623 0
3.8350003 1.9119618 0.11898026 0
3.8380003 1.9074702 0.11873135 0
3.8420002 1.9035343 0.11839947 0
3.8460002 1.8995839 0.11806756 0
3.8510003 1.8961819 0.11765268 0
3.8560002 1.8927619 0.11723781 0
3.8630002 1.8904423 0.11665699 0
3.8710003 1.8886547 0.11599314 0
3.8810003 1.8879495 0.11516342 0
3.8280003 1.9327055 0.11337763 0
3.8290002 1.9270974 0.11329287 0
3.8310003 1.9220595 0.11312333 0
3.8330002 1.917014 0.11295378 0
3.8350003 1.9119618 0.11278421 0
3.8380003 1.9074702 0.11252984 0
3.8420002 1.9035343 0.11219075 0
3.8460002 1.8995839 0.11185163 0
3.8510003 1.8961819 0.11142772 0
3.8560002 1.8927619 0.11100385 0
3.8630002 1.8904423 0.11041039 0
3.8710003 1.8886547 0.10973215 0
3.8810003 1.8879495 0.10888436 0
3.8280003 1.9327055 0.10719419 0
3.8290002 1.9270974 0.10710761 0
3.8310003 1.9220595 0.10693443 0
3.8330002 1.917014 0.10676131 0
3.8350003 1.9119618 0.10658813 0
3.8380003 1.9074702 0.10632834 0
3.8420002 1.9035343 0.10598204 0
3.8460002 1.8995839 0.1056357 0
3.8510003 1.8961819 0.10520279 0
3.8560002 1.8927619 0.10476989 0
3.8630002 1.8904423 0.1041638 0
3.8710003 1.8886547 0.10347113 0
3.8810003 1.8879495 0.10260528 0
3.8280003 1.9327055 0.10101071 0
3.8290002 1.9270974 0.10092235 0
3.8310003 1.9220595 0.10074556 0
3.8330002 1.917014 0.1005688 0
3.8350003 1.9119618 0.10039204 0
3.8380003 1.9074702 0.10012686 0
3.8420002 1.9035343 0.099773318 0
3.8460002 1.8995839 0.099419773 0
3.8510003 1.8961819 0.098977834 0
3.8560002 1.8927619 0.098535925 0
3.8630002 1.8904423 0.097917229 0
3.8710003 1.8886547 0.097210109 0
3.8810003 1.8879495 0.096326232 0
3.8280003 1.9327055 0.094827294 0
3.8290002 1.9270974 0.094737083 0
3.8310003 1.9220595 0.094556689 0
3.8330002 1.917014 0.094376326 0
3.8350003 1.9119618 0.094195932 0
3.8380003 1.9074702 0.093925387 0
3.8420002 1.9035343 0.09356463 0
3.8460002 1.8995839 0.093203872 0
3.8510003 1.8961819 0.092752874 0
3.8560002 1.8927619 0.092301965 0
3.8630002 1.8904423 0.091670603 0
3.8710003 1.8886547 0.090949118 0
3.8810003 1.8879495 0.09004721 0
3.8280003 1.9327055 0.088643819 0
3.8290002 1.9270974 0.088551819 0
3.8310003 1.9220595 0.08836782 0
3.8330002 1.917014 0.08818385 0
3.8350003 1.9119618 0.087999851 0
3.8380003 1.9074702 0.087723881 0
3.8420002 1.9035343 0.087355912 0
3.8460002 1.8995839 0.086987942 0
3.8510003 1.8961819 0.086527973 0
3.8560002 1.8927619 0.086067975 0
3.8630002 1.8904423 0.085424036 0
3.8710003 1.8886547 0.084688067 0
3.8810003 1.8879495 0.083768129 0
3.8280003 1.9327055 0.082460374 0
3.8290002 1.9270974 0.082366556 0
3.8310003 1.9220595 0.08217895 0
3.8330002 1.917014 0.081991374 0
3.8350003 1.9119618 0.081803799 0
3.8380003 1.9074702 0.081522375 0
3.8420002 1.9035343 0.081147194 0
3.8460002 1.8995839 0.080772012 0
3.8510003 1.8961819 0.080303013 0
3.8560002 1.8927619 0.079834044 0
3.8630002 1.8904423 0.079177439 0
3.8710003 1.8886547 0.078427076 0
3.8810003 1.8879495 0.077489078 0
3.8280003 1.9327055 0.076276928 0
3.8290002 1.9270974 0.076181293 0
3.8310003 1.9220595 0.075990111 0
3.8330002 1.917014 0.075798929 0
3.8350003 1.9119618 0.075607717 0
3.8380003 1.9074702 0.075320899 0
3.8420002 1.9035343 0.074938476 0
3.8460002 1.8995839 0.074556112 0
3.8510003 1.8961819 0.074078053 0
3.8560002 1.8927619 0.073600084 0
3.8630002 1.8904423 0.072930872 0
3.8710003 1.8886547 0.072166026 0
3.8800004 1.8873938 0.071305603 0
3.8890002 1.8861005 0.07044521 0
3.8980002 1.8847747 0.069584787 0
3.9070003 1.8834163 0.068724364 0
3.9160004 1.8820258 0.067863971 0
3.9260004 1.8811491 0.066907912 0
3.9350002 1.8796916 0.066047519 0
3.9440002 1.8782016 0.065187126 0
3.9540002 1.8772204 0.064231068 0
3.9630003 1.8756636 0.063370675 0
3.9730003 1.874612 0.062414676 0
3.9820004 1.8729887 0.061554223 0
3.8270001 1.9321282 0.070190877 0
3.8260002 1.9253712 0.070288271 0
3.8250003 1.9186177 0.070385665 0
3.8240004 1.911868 0.070483088 0
3.8230002 1.9051217 0.070580482 0
3.8220003 1.898379 0.070677906 0
3.8260002 1.8944719 0.070288271 0
3.8350003 1.8933734 0.069411635 0
3.8440003 1.8922426 0.06853497 0
3.8530002 1.8910789 0.067658335 0
3.8620002 1.8898832 0.06678167 0
3.8710003 1.8886547 0.065905035 0
3.8800004 1.8873938 0.065028369 0
3.8890002 1.8861005 0.064151734 0
3.8980002 1.8847747 0.063275069 0
3.9070003 1.8834163 0.062398434 0
3.9160004 1.8820258 0.061521769 0
3.9260004 1.8811491 0.060547709 0
3.9350002 1.8796916 0.059671074 0
3.9440002 1.8782016 0.058794409 0
3.9540002 1.8772204 0.05782038 0
3.9630003 1.8756636 0.056943715 0
3.9730003 1.874612 0.055969626 0
3.9820004 1.8729887 0.05509299 0
3.9920003 1.8718666 0.054118931 0
3.8270001 1.9321282 0.064009249 0
3.8260002 1.9253712 0.064108431 0
3.8250003 1.9186177 0.064207613 0
3.8240004 1.911868 0.064306855 0
3.8230002 1.9051217 0.064406067 0
3.8220003 1.898379 0.064505279 0
3.8260002 1.8944719 0.064108431 0
3.8350003 1.8933734 0.063215554 0
3.8440003 1.8922426 0.062322646 0
3.8530002 1.8910789 0.061429769 0
3.8620002 1.8898832 0.060536891 0
3.8710003 1.8886547 0.059643984 0
3.8800004 1.8873938 0.058751106 0
3.8890002 1.8861005 0.057858229 0
3.8980002 1.8847747 0.056965351 0
3.9070003 1.8834163 0.056072474 0
3.9160004 1.8820258 0.055179566 0
3.9260004 1.8811491 0.054187477 0
3.9350002 1.8796916 0.053294599 0
3.9440002 1.8782016 0.052401692 0
3.9540002 1.8772204 0.051409632 0
3.9630003 1.8756636 0.050516725 0
3.8270001 1.9321282 0.057827592 0
3.8260002 1.9253712 0.057928592 0
3.8250003 1.9186177 0.058029592 0
3.8240004 1.911868 0.058130592 0
3.8230002 1.9051217 0.058231622 0
3.8220003 1.898379 0.058332652 0
3.8260002 1.8944719 0.057928592 0
3.8350003 1.8933734 0.057019442 0
3.8440003 1.8922426 0.056110322 0
3.8530002 1.8910789 0.055201232 0
3.8620002 1.8898832 0.054292113 0
3.8710003 1.8886547 0.053382993 0
3.8800004 1.8873938 0.052473843 0
3.8890002 1.8861005 0.051564753 0
3.8980002 1.8847747 0.050655633 0
3.8270001 1.9321282 0.051645935 0
3.8260002 1.9253712 0.051748723 0
3.8250003 1.9186177 0.051851571 0
3.8240004 1.911868 0.051954359 0
3.8230002 1.9051217 0.052057177 0
3.8220003 1.898379 0.052159995 0
3.8260002 1.8944719 0.051748723 0
3.8350003 1.8933734 0.050823361 0
