# .PCD v0.7 - Point Cloud Data file format
VERSION 0.7
FIELDS x y z intensity
SIZE 4 4 4 4
TYPE F F F F
COUNT 1 1 1 1
WIDTH 1541
HEIGHT 1
VIEWPOINT 0 0 0 1 0 0 0
POINTS 1541
DATA ascii
4.3330002 1.3870642 1.5249116 0
4.3240004 1.3767068 1.5223467 0
4.3300004 1.3717933 1.5240568 0
4.335 1.3664992 1.5254817 0
4.3400002 1.3611869 1.5269067 0
4.3460002 1.3562119 1.5286168 0
4.3510003 1.3508619 1.5300418 0
4.355 1.345142 1.5311817 0
4.3530002 1.337308 1.5306118 0
4.3510003 1.3294814 1.5300418 0
4.349 1.3216618 1.5294718 0
4.3500004 1.3148832 1.5297568 0
4.362 1.3118707 1.5331768 0
4.3990002 1.3029112 1.5437219 0
4.4050002 1.2977108 1.5454319 0
4.4110003 1.2924888 1.5471419 0
4.4160004 1.2869133 1.5485668 0
4.4220004 1.2816498 1.550277 0
4.4280005 1.2763647 1.5519869 0
4.3330002 1.3870642 1.5178174 0
4.3240004 1.3767068 1.5152686 0
4.3300004 1.3717933 1.5169679 0
4.335 1.3664992 1.5183837 0
4.3400002 1.3611869 1.5197997 0
4.3460002 1.3562119 1.5214989 0
4.3510003 1.3508619 1.5229149 0
4.355 1.345142 1.5240476 0
4.3530002 1.337308 1.5234814 0
4.3510003 1.3294814 1.5229149 0
4.349 1.3216618 1.5223485 0
4.3500004 1.3148832 1.5226318 0
4.362 1.3118707 1.5260301 0
4.3990002 1.3029112 1.5365084 0
4.4050002 1.2977108 1.5382077 0
4.4110003 1.2924888 1.5399069 0
4.4160004 1.2869133 1.5413228 0
4.4220004 1.2816498 1.543022 0
4.4280005 1.2763647 1.5447212 0
4.3330002 1.3870642 1.510723 0
4.3240004 1.3767068 1.5081905 0
4.3300004 1.3717933 1.5098789 0
4.335 1.3664992 1.5112858 0
4.3400002 1.3611869 1.5126928 0
4.3460002 1.3562119 1.5143811 0
4.3510003 1.3508619 1.5157881 0
4.355 1.345142 1.5169137 0
4.3530002 1.337308 1.5163509 0
4.3510003 1.3294814 1.5157881 0
4.349 1.3216618 1.5152253 0
4.3500004 1.3148832 1.5155067 0
4.362 1.3118707 1.5188833 0
4.3990002 1.3029112 1.529295 0
4.4050002 1.2977108 1.5309833 0
4.4110003 1.2924888 1.5326717 0
4.4160004 1.2869133 1.5340787 0
4.4220004 1.2816498 1.5357671 0
4.4280005 1.2763647 1.5374554 0
4.3330002 1.3870642 1.5036285 0
4.3240004 1.3767068 1.5011123 0
4.3300004 1.3717933 1.5027899 0
4.335 1.3664992 1.5041878 0
4.3400002 1.3611869 1.5055858 0
4.3460002 1.3562119 1.5072632 0
4.3510003 1.3508619 1.5086613 0
4.355 1.345142 1.5097796 0
4.3530002 1.337308 1.5092204 0
4.3510003 1.3294814 1.5086613 0
4.349 1.3216618 1.5081021 0
4.3500004 1.3148832 1.5083817 0
4.362 1.3118707 1.5117368 0
4.3990002 1.3029112 1.5220816 0
4.4050002 1.2977108 1.5237591 0
4.4110003 1.2924888 1.5254366 0
4.4160004 1.2869133 1.5268346 0
4.4220004 1.2816498 1.5285121 0
4.4280005 1.2763647 1.5301896 0
4.3330002 1.3870642 1.4965342 0
4.3240004 1.3767068 1.4940342 0
4.3300004 1.3717933 1.4957008 0
4.335 1.3664992 1.4970899 0
4.3400002 1.3611869 1.4984788 0
4.3460002 1.3562119 1.5001454 0
4.3510003 1.3508619 1.5015343 0
4.355 1.345142 1.5026455 0
4.3530002 1.337308 1.50209 0
4.3510003 1.3294814 1.5015343 0
4.349 1.3216618 1.5009787 0
4.3500004 1.3148832 1.5012566 0
4.362 1.3118707 1.50459 0
4.3990002 1.3029112 1.5148681 0
4.4050002 1.2977108 1.5165348 0
4.4110003 1.2924888 1.5182016 0
4.4160004 1.2869133 1.5195905 0
4.4220004 1.2816498 1.5212573 0
4.4280005 1.2763647 1.5229241 0
4.3330002 1.3870642 1.4894398 0
4.3240004 1.3767068 1.4869561 0
4.3300004 1.3717933 1.4886119 0
4.335 1.3664992 1.4899919 0
4.3400002 1.3611869 1.4913718 0
4.3460002 1.3562119 1.4930277 0
4.3510003 1.3508619 1.4944075 0
4.355 1.345142 1.4955115 0
4.3530002 1.337308 1.4949595 0
4.3510003 1.3294814 1.4944075 0
4.349 1.3216618 1.4938556 0
4.3500004 1.3148832 1.4941316 0
4.362 1.3118707 1.4974433 0
4.3990002 1.3029112 1.5076547 0
4.4050002 1.2977108 1.5093106 0
4.4110003 1.2924888 1.5109665 0
4.4160004 1.2869133 1.5123465 0
4.4220004 1.2816498 1.5140023 0
4.4280005 1.2763647 1.5156583 0
4.3330002 1.3870642 1.4823455 0
4.3240004 1.3767068 1.4798779 0
4.3300004 1.3717933 1.4815229 0
4.335 1.3664992 1.4828938 0
4.3400002 1.3611869 1.4842647 0
4.3460002 1.3562119 1.4859097 0
4.3510003 1.3508619 1.4872806 0
4.355 1.345142 1.4883775 0
4.3530002 1.337308 1.487829 0
4.3510003 1.3294814 1.4872806 0
4.349 1.3216618 1.4867324 0
4.3500004 1.3148832 1.4870065 0
4.362 1.3118707 1.4902966 0
4.3990002 1.3029112 1.5004413 0
4.4050002 1.2977108 1.5020863 0
4.4110003 1.2924888 1.5037314 0
4.4160004 1.2869133 1.5051024 0
4.4220004 1.2816498 1.5067475 0
4.4280005 1.2763647 1.5083925 0
4.3330002 1.3870642 1.4752511 0
4.3240004 1.3767068 1.4727998 0
4.3300004 1.3717933 1.474434 0
4.335 1.3664992 1.4757957 0
4.3400002 1.3611869 1.4771578 0
4.3460002 1.3562119 1.478792 0
4.3510003 1.3508619 1.4801538 0
4.355 1.345142 1.4812434 0
4.3530002 1.337308 1.4806986 0
4.3510003 1.3294814 1.4801538 0
4.349 1.3216618 1.479609 0
4.3500004 1.3148832 1.4798815 0
4.362 1.3118707 1.48315 0
4.3990002 1.3029112 1.4932278 0
4.4050002 1.2977108 1.4948621 0
4.4110003 1.2924888 1.4964963 0
4.4160004 1.2869133 1.4978582 0
4.4220004 1.2816498 1.4994924 0
4.4280005 1.2763647 1.5011268 0
4.3330002 1.3870642 1.4681567 0
4.3240004 1.3767068 1.4657216 0
4.3300004 1.3717933 1.467345 0
4.335 1.3664992 1.4686978 0
4.3400002 1.3611869 1.4700508 0
4.3460002 1.3562119 1.4716741 0
4.3510003 1.3508619 1.473027 0
4.355 1.345142 1.4741092 0
4.3530002 1.337308 1.4735681 0
4.3510003 1.3294814 1.473027 0
4.349 1.3216618 1.4724859 0
4.3500004 1.3148832 1.4727565 0
4.362 1.3118707 1.4760033 0
4.3990002 1.3029112 1.4860145 0
4.4050002 1.2977108 1.4876378 0
4.4110003 1.2924888 1.4892613 0
4.4160004 1.2869133 1.4906141 0
4.4220004 1.2816498 1.4922376 0
4.4280005 1.2763647 1.4938611 0
4.3330002 1.3870642 1.4610623 0
4.3240004 1.3767068 1.4586434 0
4.3300004 1.3717933 1.4602561 0
4.335 1.3664992 1.4615998 0
4.3400002 1.3611869 1.4629438 0
4.3460002 1.3562119 1.4645563 0
4.3510003 1.3508619 1.4659002 0
4.355 1.345142 1.4669752 0
4.3530002 1.337308 1.4664377 0
4.3510003 1.3294814 1.4659002 0
4.349 1.3216618 1.4653625 0
4.3500004 1.3148832 1.4656314 0
4.362 1.3118707 1.4688566 0
4.3990002 1.3029112 1.478801 0
4.4050002 1.2977108 1.4804136 0
4.4110003 1.2924888 1.4820262 0
4.4160004 1.2869133 1.4833701 0
4.4220004 1.2816498 1.4849827 0
4.4280005 1.2763647 1.4865953 0
4.3330002 1.3870642 1.4539679 0
4.3240004 1.3767068 1.4515653 0
4.3300004 1.3717933 1.4531671 0
4.335 1.3664992 1.4545019 0
4.3400002 1.3611869 1.4558368 0
4.3460002 1.3562119 1.4574385 0
4.3510003 1.3508619 1.4587734 0
4.355 1.345142 1.4598411 0
4.3530002 1.337308 1.4593072 0
4.3510003 1.3294814 1.4587734 0
4.349 1.3216618 1.4582393 0
4.3500004 1.3148832 1.4585063 0
4.362 1.3118707 1.46171 0
4.3990002 1.3029112 1.4715875 0
4.4050002 1.2977108 1.4731892 0
4.4110003 1.2924888 1.4747912 0
4.4160004 1.2869133 1.476126 0
4.4220004 1.2816498 1.4777278 0
4.4280005 1.2763647 1.4793295 0
4.3330002 1.3870642 1.4468735 0
4.3240004 1.3767068 1.4444872 0
4.3300004 1.3717933 1.4460781 0
4.335 1.3664992 1.4474039 0
4.3400002 1.3611869 1.4487298 0
4.3460002 1.3562119 1.4503206 0
4.3510003 1.3508619 1.4516466 0
4.355 1.345142 1.4527071 0
4.3530002 1.337308 1.4521767 0
4.3510003 1.3294814 1.4516466 0
4.349 1.3216618 1.4511161 0
4.3500004 1.3148832 1.4513813 0
4.362 1.3118707 1.4545631 0
4.3990002 1.3029112 1.4643741 0
4.4050002 1.2977108 1.4659652 0
4.4110003 1.2924888 1.467556 0
4.4160004 1.2869133 1.4688818 0
4.4220004 1.2816498 1.4704729 0
4.4280005 1.2763647 1.4720638 0
4.3330002 1.3870642 1.4397792 0
4.3240004 1.3767068 1.437409 0
4.3300004 1.3717933 1.4389892 0
4.335 1.3664992 1.4403058 0
4.3400002 1.3611869 1.4416227 0
4.3460002 1.3562119 1.4432029 0
4.3510003 1.3508619 1.4445195 0
4.355 1.345142 1.4455731 0
4.3530002 1.337308 1.4450463 0
4.3510003 1.3294814 1.4445195 0
4.349 1.3216618 1.4439929 0
4.3500004 1.3148832 1.4442562 0
4.362 1.3118707 1.4474165 0
4.3990002 1.3029112 1.4571607 0
4.4050002 1.2977108 1.4587408 0
4.4110003 1.2924888 1.4603209 0
4.4160004 1.2869133 1.4616379 0
4.4220004 1.2816498 1.4632179 0
4.4280005 1.2763647 1.4647981 0
4.3330002 1.3870642 1.4326848 0
4.3240004 1.3767068 1.4303309 0
4.3300004 1.3717933 1.4319001 0
4.335 1.3664992 1.4332079 0
4.3400002 1.3611869 1.4345157 0
4.3460002 1.3562119 1.436085 0
4.3510003 1.3508619 1.4373927 0
4.355 1.345142 1.438439 0
4.3530002 1.337308 1.4379158 0
4.3510003 1.3294814 1.4373927 0
4.349 1.3216618 1.4368697 0
4.3500004 1.3148832 1.4371313 0
4.362 1.3118707 1.4402698 0
4.3990002 1.3029112 1.4499472 0
4.4050002 1.2977108 1.4515166 0
4.4110003 1.2924888 1.4530859 0
4.4160004 1.2869133 1.4543937 0
4.4220004 1.2816498 1.455963 0
4.4280005 1.2763647 1.4575323 0
4.3330002 1.3870642 1.4255904 0
4.3240004 1.3767068 1.4232527 0
4.3300004 1.3717933 1.4248112 0
4.335 1.3664992 1.4261099 0
4.3400002 1.3611869 1.4274087 0
4.3460002 1.3562119 1.4289671 0
4.3510003 1.3508619 1.4302659 0
4.355 1.345142 1.4313049 0
4.3530002 1.337308 1.4307853 0
4.3510003 1.3294814 1.4302659 0
4.349 1.3216618 1.4297464 0
4.3500004 1.3148832 1.4300061 0
4.362 1.3118707 1.4331231 0
4.3990002 1.3029112 1.4427338 0
4.4050002 1.2977108 1.4442923 0
4.4110003 1.2924888 1.4458508 0
4.4160004 1.2869133 1.4471495 0
4.4220004 1.2816498 1.4487081 0
4.4280005 1.2763647 1.4502666 0
4.3330002 1.3870642 1.418496 0
4.3240004 1.3767068 1.4161745 0
4.3300004 1.3717933 1.4177222 0
4.335 1.3664992 1.419012 0
4.3400002 1.3611869 1.4203017 0
4.3460002 1.3562119 1.4218494 0
4.3510003 1.3508619 1.4231391 0
4.355 1.345142 1.4241709 0
4.3530002 1.337308 1.4236549 0
4.3510003 1.3294814 1.4231391 0
4.349 1.3216618 1.4226232 0
4.3500004 1.3148832 1.4228811 0
4.362 1.3118707 1.4259765 0
4.3990002 1.3029112 1.4355203 0
4.4050002 1.2977108 1.4370681 0
4.4110003 1.2924888 1.4386157 0
4.4160004 1.2869133 1.4399054 0
4.4220004 1.2816498 1.4414532 0
4.4280005 1.2763647 1.4430008 0
4.3330002 1.3870642 1.4114016 0
4.3240004 1.3767068 1.4090964 0
4.3300004 1.3717933 1.4106333 0
4.335 1.3664992 1.411914 0
4.3400002 1.3611869 1.4131947 0
4.3460002 1.3562119 1.4147315 0
4.3510003 1.3508619 1.4160123 0
4.355 1.345142 1.4170368 0
4.3530002 1.337308 1.4165244 0
4.3510003 1.3294814 1.4160123 0
4.349 1.3216618 1.4154999 0
4.3500004 1.3148832 1.4157561 0
4.362 1.3118707 1.4188297 0
4.3990002 1.3029112 1.4283069 0
4.4050002 1.2977108 1.4298438 0
4.4110003 1.2924888 1.4313806 0
4.4160004 1.2869133 1.4326614 0
4.4220004 1.2816498 1.4341983 0
4.4280005 1.2763647 1.4357351 0
4.3330002 1.3870642 1.4043074 0
4.3240004 1.3767068 1.4020183 0
4.3300004 1.3717933 1.4035443 0
4.335 1.3664992 1.404816 0
4.3400002 1.3611869 1.4060876 0
4.3460002 1.3562119 1.4076136 0
4.3510003 1.3508619 1.4088854 0
4.355 1.345142 1.4099027 0
4.3530002 1.337308 1.409394 0
4.3510003 1.3294814 1.4088854 0
4.349 1.3216618 1.4083767 0
4.3500004 1.3148832 1.408631 0
4.362 1.3118707 1.4116831 0
4.3990002 1.3029112 1.4210935 0
4.4050002 1.2977108 1.4226196 0
4.4110003 1.2924888 1.4241456 0
4.4160004 1.2869133 1.4254173 0
4.4220004 1.2816498 1.4269433 0
4.4280005 1.2763647 1.4284694 0
4.3330002 1.3870642 1.3972129 0
4.3240004 1.3767068 1.3949401 0
4.3300004 1.3717933 1.3964554 0
4.335 1.3664992 1.397718 0
4.3400002 1.3611869 1.3989806 0
4.3460002 1.3562119 1.4004958 0
4.3510003 1.3508619 1.4017584 0
4.355 1.345142 1.4027686 0
4.3530002 1.337308 1.4022635 0
4.3510003 1.3294814 1.4017584 0
4.349 1.3216618 1.4012535 0
4.3500004 1.3148832 1.4015061 0
4.362 1.3118707 1.4045364 0
4.3990002 1.3029112 1.41388 0
4.4050002 1.2977108 1.4153953 0
4.4110003 1.2924888 1.4169105 0
4.4160004 1.2869133 1.4181732 0
4.4220004 1.2816498 1.4196883 0
4.4280005 1.2763647 1.4212036 0
4.3330002 1.3870642 1.3901185 0
4.3240004 1.3767068 1.387862 0
4.3300004 1.3717933 1.3893663 0
4.335 1.3664992 1.39062 0
4.3400002 1.3611869 1.3918736 0
4.3460002 1.3562119 1.393378 0
4.3510003 1.3508619 1.3946316 0
4.355 1.345142 1.3956345 0
4.3530002 1.337308 1.395133 0
4.3510003 1.3294814 1.3946316 0
4.349 1.3216618 1.3941301 0
4.3500004 1.3148832 1.3943809 0
4.362 1.3118707 1.3973897 0
4.3990002 1.3029112 1.4066666 0
4.4050002 1.2977108 1.4081711 0
4.4110003 1.2924888 1.4096754 0
4.4160004 1.2869133 1.4109292 0
4.4220004 1.2816498 1.4124335 0
4.4280005 1.2763647 1.4139378 0
4.3330002 1.3870642 1.3830241 0
4.3240004 1.3767068 1.3807838 0
4.3300004 1.3717933 1.3822774 0
4.335 1.3664992 1.383522 0
4.3400002 1.3611869 1.3847666 0
4.3460002 1.3562119 1.3862602 0
4.3510003 1.3508619 1.3875048 0
4.355 1.345142 1.3885006 0
4.3530002 1.337308 1.3880026 0
4.3510003 1.3294814 1.3875048 0
4.349 1.3216618 1.387007 0
4.3500004 1.3148832 1.3872559 0
4.362 1.3118707 1.3902431 0
4.3990002 1.3029112 1.3994532 0
4.4050002 1.2977108 1.4009467 0
4.4110003 1.2924888 1.4024403 0
4.4160004 1.2869133 1.403685 0
4.4220004 1.2816498 1.4051787 0
4.4280005 1.2763647 1.4066722 0
4.3330002 1.3870642 1.3759297 0
4.3240004 1.3767068 1.3737056 0
4.3300004 1.3717933 1.3751885 0
4.335 1.3664992 1.3764241 0
4.3400002 1.3611869 1.3776597 0
4.3460002 1.3562119 1.3791423 0
4.3510003 1.3508619 1.380378 0
4.355 1.345142 1.3813665 0
4.3530002 1.337308 1.3808722 0
4.3510003 1.3294814 1.380378 0
4.349 1.3216618 1.3798836 0
4.3500004 1.3148832 1.3801309 0
4.362 1.3118707 1.3830962 0
4.3990002 1.3029112 1.3922398 0
4.4050002 1.2977108 1.3937225 0
4.4110003 1.2924888 1.3952053 0
4.4160004 1.2869133 1.3964409 0
4.4220004 1.2816498 1.3979236 0
4.4280005 1.2763647 1.3994064 0
4.3330002 1.3870642 1.3688353 0
4.3240004 1.3767068 1.3666276 0
4.3300004 1.3717933 1.3680995 0
4.335 1.3664992 1.369326 0
4.3400002 1.3611869 1.3705527 0
4.3460002 1.3562119 1.3720245 0
4.3510003 1.3508619 1.3732512 0
4.355 1.345142 1.3742323 0
4.3530002 1.337308 1.3737417 0
4.3510003 1.3294814 1.3732512 0
4.349 1.3216618 1.3727605 0
4.3500004 1.3148832 1.3730057 0
4.362 1.3118707 1.3759496 0
4.3990002 1.3029112 1.3850263 0
4.4050002 1.2977108 1.3864982 0
4.4110003 1.2924888 1.3879702 0
4.4160004 1.2869133 1.3891968 0
4.4220004 1.2816498 1.3906687 0
4.4280005 1.2763647 1.3921406 0
4.3330002 1.3870642 1.3617409 0
4.3240004 1.3767068 1.3595494 0
4.3300004 1.3717933 1.3610106 0
4.335 1.3664992 1.362228 0
4.3400002 1.3611869 1.3634456 0
4.3460002 1.3562119 1.3649067 0
4.3510003 1.3508619 1.3661243 0
4.355 1.345142 1.3670983 0
4.3530002 1.337308 1.3666114 0
4.3510003 1.3294814 1.3661243 0
4.349 1.3216618 1.3656372 0
4.3500004 1.3148832 1.3658808 0
4.362 1.3118707 1.3688029 0
4.3990002 1.3029112 1.3778129 0
4.4050002 1.2977108 1.379274 0
4.4110003 1.2924888 1.3807352 0
4.4160004 1.2869133 1.3819526 0
4.4220004 1.2816498 1.3834138 0
4.4280005 1.2763647 1.3848748 0
4.3330002 1.3870642 1.3546467 0
4.3240004 1.3767068 1.3524712 0
4.3300004 1.3717933 1.3539215 0
4.335 1.3664992 1.3551301 0
4.3400002 1.3611869 1.3563386 0
4.3460002 1.3562119 1.3577889 0
4.3510003 1.3508619 1.3589975 0
4.355 1.345142 1.3599643 0
4.3530002 1.337308 1.3594809 0
4.3510003 1.3294814 1.3589975 0
4.349 1.3216618 1.358514 0
4.3500004 1.3148832 1.3587557 0
4.362 1.3118707 1.3616562 0
4.3990002 1.3029112 1.3705995 0
4.4050002 1.2977108 1.3720498 0
4.4110003 1.2924888 1.3735 0
4.4160004 1.2869133 1.3747087 0
4.4220004 1.2816498 1.376159 0
4.4280005 1.2763647 1.3776093 0
4.3330002 1.3870642 1.3475522 0
4.3240004 1.3767068 1.3453931 0
4.3300004 1.3717933 1.3468326 0
4.335 1.3664992 1.3480321 0
4.3400002 1.3611869 1.3492316 0
4.3460002 1.3562119 1.3506709 0
4.3510003 1.3508619 1.3518705 0
4.355 1.345142 1.3528302 0
4.3530002 1.337308 1.3523504 0
4.3510003 1.3294814 1.3518705 0
4.349 1.3216618 1.3513908 0
4.3500004 1.3148832 1.3516307 0
4.362 1.3118707 1.3545096 0
4.3990002 1.3029112 1.363386 0
4.4050002 1.2977108 1.3648256 0
4.4110003 1.2924888 1.3662649 0
4.4160004 1.2869133 1.3674645 0
4.4220004 1.2816498 1.368904 0
4.4280005 1.2763647 1.3703434 0
4.3330002 1.3870642 1.3404578 0
4.3240004 1.3767068 1.3383149 0
4.3300004 1.3717933 1.3397435 0
4.335 1.3664992 1.3409342 0
4.3400002 1.3611869 1.3421246 0
4.3460002 1.3562119 1.3435532 0
4.3510003 1.3508619 1.3447437 0
4.355 1.345142 1.3456961 0
4.3530002 1.337308 1.34522 0
4.3510003 1.3294814 1.3447437 0
4.349 1.3216618 1.3442675 0
4.3500004 1.3148832 1.3445057 0
4.362 1.3118707 1.3473629 0
4.3990002 1.3029112 1.3561726 0
4.4050002 1.2977108 1.3576013 0
4.4110003 1.2924888 1.3590299 0
4.4160004 1.2869133 1.3602204 0
4.4220004 1.2816498 1.361649 0
4.4280005 1.2763647 1.3630776 0
4.3330002 1.3870642 1.3333635 0
4.3240004 1.3767068 1.3312368 0
4.3300004 1.3717933 1.3326546 0
4.335 1.3664992 1.3338362 0
4.3400002 1.3611869 1.3350176 0
4.3460002 1.3562119 1.3364354 0
4.3510003 1.3508619 1.3376169 0
4.355 1.345142 1.3385621 0
4.3530002 1.337308 1.3380895 0
4.3510003 1.3294814 1.3376169 0
4.349 1.3216618 1.3371443 0
4.3500004 1.3148832 1.3373805 0
4.362 1.3118707 1.3402162 0
4.3990002 1.3029112 1.3489592 0
4.4050002 1.2977108 1.3503771 0
4.4110003 1.2924888 1.3517948 0
4.4160004 1.2869133 1.3529763 0
4.4220004 1.2816498 1.3543941 0
4.4280005 1.2763647 1.355812 0
4.3330002 1.3870642 1.3262691 0
4.3240004 1.3767068 1.3241587 0
4.3300004 1.3717933 1.3255657 0
4.335 1.3664992 1.3267381 0
4.3400002 1.3611869 1.3279105 0
4.3460002 1.3562119 1.3293176 0
4.3510003 1.3508619 1.33049 0
4.355 1.345142 1.3314281 0
4.3530002 1.337308 1.330959 0
4.3510003 1.3294814 1.33049 0
4.349 1.3216618 1.330021 0
4.3500004 1.3148832 1.3302556 0
4.362 1.3118707 1.3330694 0
4.3990002 1.3029112 1.3417457 0
4.4050002 1.2977108 1.3431528 0
4.4110003 1.2924888 1.3445597 0
4.4160004 1.2869133 1.3457322 0
4.4220004 1.2816498 1.3471392 0
4.4280005 1.2763647 1.3485463 0
4.3330002 1.3870642 1.3191748 0
4.3240004 1.3767068 1.3170806 0
4.3300004 1.3717933 1.3184767 0
4.335 1.3664992 1.3196402 0
4.3400002 1.3611869 1.3208036 0
4.3460002 1.3562119 1.3221997 0
4.3510003 1.3508619 1.3233632 0
4.355 1.345142 1.324294 0
4.3530002 1.337308 1.3238286 0
4.3510003 1.3294814 1.3233632 0
4.349 1.3216618 1.3228978 0
4.3500004 1.3148832 1.3231305 0
4.362 1.3118707 1.3259228 0
4.3990002 1.3029112 1.3345324 0
4.4050002 1.2977108 1.3359286 0
4.4110003 1.2924888 1.3373246 0
4.4160004 1.2869133 1.3384881 0
4.4220004 1.2816498 1.3398843 0
4.4280005 1.2763647 1.3412805 0
4.3330002 1.3870642 1.3120804 0
4.3240004 1.3767068 1.3100024 0
4.3300004 1.3717933 1.3113878 0
4.335 1.3664992 1.3125422 0
4.3400002 1.3611869 1.3136966 0
4.3460002 1.3562119 1.3150818 0
4.3510003 1.3508619 1.3162364 0
4.355 1.345142 1.3171599 0
4.3530002 1.337308 1.3166981 0
4.3510003 1.3294814 1.3162364 0
4.349 1.3216618 1.3157746 0
4.3500004 1.3148832 1.3160055 0
4.362 1.3118707 1.3187761 0
4.3990002 1.3029112 1.3273189 0
4.4050002 1.2977108 1.3287042 0
4.4110003 1.2924888 1.3300896 0
4.4160004 1.2869133 1.331244 0
4.4220004 1.2816498 1.3326293 0
4.4280005 1.2763647 1.3340148 0
4.3330002 1.3870642 1.304986 0
4.3240004 1.3767068 1.3029243 0
4.3300004 1.3717933 1.3042988 0
4.335 1.3664992 1.3054441 0
4.3400002 1.3611869 1.3065896 0
4.3460002 1.3562119 1.3079641 0
4.3510003 1.3508619 1.3091096 0
4.355 1.345142 1.3100258 0
4.3530002 1.337308 1.3095677 0
4.3510003 1.3294814 1.3091096 0
4.349 1.3216618 1.3086513 0
4.3500004 1.3148832 1.3088804 0
4.362 1.3118707 1.3116294 0
4.3990002 1.3029112 1.3201056 0
4.4050002 1.2977108 1.32148 0
4.4110003 1.2924888 1.3228545 0
4.4160004 1.2869133 1.324 0
4.4220004 1.2816498 1.3253745 0
4.4280005 1.2763647 1.326749 0
4.3330002 1.3870642 1.2978916 0
4.3240004 1.3767068 1.2958461 0
4.3300004 1.3717933 1.2972099 0
4.335 1.3664992 1.2983462 0
4.3400002 1.3611869 1.2994826 0
4.3460002 1.3562119 1.3008462 0
4.3510003 1.3508619 1.3019826 0
4.355 1.345142 1.3028917 0
4.3530002 1.337308 1.3024372 0
4.3510003 1.3294814 1.3019826 0
4.349 1.3216618 1.3015281 0
4.3500004 1.3148832 1.3017554 0
4.362 1.3118707 1.3044827 0
4.3990002 1.3029112 1.3128921 0
4.4050002 1.2977108 1.3142557 0
4.4110003 1.2924888 1.3156195 0
4.4160004 1.2869133 1.3167559 0
4.4220004 1.2816498 1.3181195 0
4.4280005 1.2763647 1.3194833 0
4.3330002 1.3870642 1.2907972 0
4.3240004 1.3767068 1.2887679 0
4.3300004 1.3717933 1.2901208 0
4.335 1.3664992 1.2912482 0
4.3400002 1.3611869 1.2923756 0
4.3460002 1.3562119 1.2937284 0
4.3510003 1.3508619 1.2948558 0
4.355 1.345142 1.2957578 0
4.3530002 1.337308 1.2953067 0
4.3510003 1.3294814 1.2948558 0
4.349 1.3216618 1.2944049 0
4.3500004 1.3148832 1.2946303 0
4.362 1.3118707 1.2973361 0
4.3990002 1.3029112 1.3056786 0
4.4050002 1.2977108 1.3070315 0
4.4110003 1.2924888 1.3083844 0
4.4160004 1.2869133 1.3095118 0
4.4220004 1.2816498 1.3108646 0
4.4280005 1.2763647 1.3122175 0
4.3330002 1.3870642 1.2837029 0
4.3240004 1.3767068 1.2816898 0
4.3300004 1.3717933 1.2830318 0
4.335 1.3664992 1.2841502 0
4.3400002 1.3611869 1.2852685 0
4.3460002 1.3562119 1.2866106 0
4.3510003 1.3508619 1.2877289 0
4.355 1.345142 1.2886236 0
4.3530002 1.337308 1.2881763 0
4.3510003 1.3294814 1.2877289 0
4.349 1.3216618 1.2872816 0
4.3500004 1.3148832 1.2875054 0
4.362 1.3118707 1.2901894 0
4.3990002 1.3029112 1.2984653 0
4.4050002 1.2977108 1.2998073 0
4.4110003 1.2924888 1.3011492 0
4.4160004 1.2869133 1.3022677 0
4.4220004 1.2816498 1.3036097 0
4.4280005 1.2763647 1.3049518 0
4.3330002 1.3870642 1.2766085 0
4.3240004 1.3767068 1.2746117 0
4.3300004 1.3717933 1.2759429 0
4.335 1.3664992 1.2770523 0
4.3400002 1.3611869 1.2781615 0
4.3460002 1.3562119 1.2794927 0
4.3510003 1.3508619 1.2806021 0
4.355 1.345142 1.2814896 0
4.3530002 1.337308 1.2810458 0
4.3510003 1.3294814 1.2806021 0
4.349 1.3216618 1.2801584 0
4.3500004 1.3148832 1.2803802 0
4.362 1.3118707 1.2830427 0
4.3990002 1.3029112 1.2912518 0
4.4050002 1.2977108 1.292583 0
4.4110003 1.2924888 1.2939142 0
4.4160004 1.2869133 1.2950236 0
4.4220004 1.2816498 1.2963548 0
4.4280005 1.2763647 1.297686 0
4.3330002 1.3870642 1.2695141 0
4.3240004 1.3767068 1.2675335 0
4.3300004 1.3717933 1.2688539 0
4.335 1.3664992 1.2699542 0
4.3400002 1.3611869 1.2710545 0
4.3460002 1.3562119 1.272375 0
4.3510003 1.3508619 1.2734753 0
4.355 1.345142 1.2743555 0
4.3530002 1.337308 1.2739154 0
4.3510003 1.3294814 1.2734753 0
4.349 1.3216618 1.2730352 0
4.3500004 1.3148832 1.2732552 0
4.362 1.3118707 1.275896 0
4.3990002 1.3029112 1.2840383 0
4.4050002 1.2977108 1.2853588 0
4.4110003 1.2924888 1.2866791 0
4.4160004 1.2869133 1.2877795 0
4.4220004 1.2816498 1.2890999 0
4.4280005 1.2763647 1.2904203 0
4.3330002 1.3870642 1.2624197 0
4.3240004 1.3767068 1.2604554 0
4.3300004 1.3717933 1.261765 0
4.335 1.3664992 1.2628562 0
4.3400002 1.3611869 1.2639476 0
4.3460002 1.3562119 1.2652571 0
4.3510003 1.3508619 1.2663484 0
4.355 1.345142 1.2672215 0
4.3530002 1.337308 1.2667849 0
4.3510003 1.3294814 1.2663484 0
4.349 1.3216618 1.2659118 0
4.3500004 1.3148832 1.2661302 0
4.362 1.3118707 1.2687492 0
4.3990002 1.3029112 1.276825 0
4.4050002 1.2977108 1.2781345 0
4.4110003 1.2924888 1.2794441 0
4.4160004 1.2869133 1.2805353 0
4.4220004 1.2816498 1.281845 0
4.4280005 1.2763647 1.2831545 0
4.3330002 1.3870642 1.2553253 0
4.3240004 1.3767068 1.2533772 0
4.3300004 1.3717933 1.254676 0
4.335 1.3664992 1.2557583 0
4.3400002 1.3611869 1.2568406 0
4.3460002 1.3562119 1.2581393 0
4.3510003 1.3508619 1.2592216 0
4.355 1.345142 1.2600874 0
4.3530002 1.337308 1.2596545 0
4.3510003 1.3294814 1.2592216 0
4.349 1.3216618 1.2587886 0
4.3500004 1.3148832 1.2590052 0
4.362 1.3118707 1.2616025 0
4.3990002 1.3029112 1.2696115 0
4.4050002 1.2977108 1.2709103 0
4.4110003 1.2924888 1.2722089 0
4.4160004 1.2869133 1.2732913 0
4.4220004 1.2816498 1.27459 0
4.4280005 1.2763647 1.2758888 0
4.3330002 1.3870642 1.2482309 0
4.3240004 1.3767068 1.2462991 0
4.3300004 1.3717933 1.2475871 0
4.335 1.3664992 1.2486602 0
4.3400002 1.3611869 1.2497336 0
4.3460002 1.3562119 1.2510214 0
4.3510003 1.3508619 1.2520947 0
4.355 1.345142 1.2529533 0
4.3530002 1.337308 1.252524 0
4.3510003 1.3294814 1.2520947 0
4.349 1.3216618 1.2516654 0
4.3500004 1.3148832 1.2518802 0
4.362 1.3118707 1.2544559 0
4.3990002 1.3029112 1.262398 0
4.4050002 1.2977108 1.2636859 0
4.4110003 1.2924888 1.2649739 0
4.4160004 1.2869133 1.2660472 0
4.4220004 1.2816498 1.2673352 0
4.4280005 1.2763647 1.268623 0
4.3330002 1.3870642 1.2411366 0
4.3240004 1.3767068 1.239221 0
4.3300004 1.3717933 1.2404981 0
4.335 1.3664992 1.2415622 0
4.3400002 1.3611869 1.2426265 0
4.3460002 1.3562119 1.2439036 0
4.3510003 1.3508619 1.2449678 0
4.355 1.345142 1.2458193 0
4.3530002 1.337308 1.2453935 0
4.3510003 1.3294814 1.2449678 0
4.349 1.3216618 1.2445422 0
4.3500004 1.3148832 1.244755 0
4.362 1.3118707 1.2473092 0
4.3990002 1.3029112 1.2551847 0
4.4050002 1.2977108 1.2564617 0
4.4110003 1.2924888 1.2577388 0
4.4160004 1.2869133 1.2588031 0
4.4220004 1.2816498 1.2600802 0
4.4280005 1.2763647 1.2613573 0
4.3330002 1.3870642 1.2340422 0
4.3240004 1.3767068 1.2321428 0
4.3300004 1.3717933 1.233409 0
4.335 1.3664992 1.2344643 0
4.3400002 1.3611869 1.2355195 0
4.3460002 1.3562119 1.2367858 0
4.3510003 1.3508619 1.237841 0
4.355 1.345142 1.2386853 0
4.3530002 1.337308 1.2382631 0
4.3510003 1.3294814 1.237841 0
4.349 1.3216618 1.2374189 0
4.3500004 1.3148832 1.23763 0
4.362 1.3118707 1.2401625 0
4.3990002 1.3029112 1.2479712 0
4.4050002 1.2977108 1.2492375 0
4.4110003 1.2924888 1.2505038 0
4.4160004 1.2869133 1.251559 0
4.4220004 1.2816498 1.2528253 0
4.4280005 1.2763647 1.2540915 0
4.3330002 1.3870642 1.2269478 0
4.3240004 1.3767068 1.2250646 0
4.3300004 1.3717933 1.2263201 0
4.335 1.3664992 1.2273663 0
4.3400002 1.3611869 1.2284125 0
4.3460002 1.3562119 1.229668 0
4.3510003 1.3508619 1.2307142 0
4.355 1.345142 1.2315512 0
4.3530002 1.337308 1.2311326 0
4.3510003 1.3294814 1.2307142 0
4.349 1.3216618 1.2302957 0
4.3500004 1.3148832 1.230505 0
4.362 1.3118707 1.2330158 0
4.3990002 1.3029112 1.2407577 0
4.4050002 1.2977108 1.2420132 0
4.4110003 1.2924888 1.2432687 0
4.4160004 1.2869133 1.2443149 0
4.4220004 1.2816498 1.2455704 0
4.4280005 1.2763647 1.2468258 0
4.3330002 1.3870642 1.2198534 0
4.3240004 1.3767068 1.2179866 0
4.3300004 1.3717933 1.2192311 0
4.335 1.3664992 1.2202684 0
4.3400002 1.3611869 1.2213056 0
4.3460002 1.3562119 1.2225502 0
4.3510003 1.3508619 1.2235874 0
4.355 1.345142 1.2244171 0
4.3530002 1.337308 1.2240021 0
4.3510003 1.3294814 1.2235874 0
4.349 1.3216618 1.2231724 0
4.3500004 1.3148832 1.22338 0
4.362 1.3118707 1.2258692 0
4.3990002 1.3029112 1.2335443 0
4.4050002 1.2977108 1.234789 0
4.4110003 1.2924888 1.2360336 0
4.4160004 1.2869133 1.2370708 0
4.4220004 1.2816498 1.2383155 0
4.4280005 1.2763647 1.2395601 0
4.3330002 1.3870642 1.212759 0
4.3240004 1.3767068 1.2109084 0
4.3300004 1.3717933 1.2121422 0
4.335 1.3664992 1.2131704 0
4.3400002 1.3611869 1.2141986 0
4.3460002 1.3562119 1.2154323 0
4.3510003 1.3508619 1.2164605 0
4.355 1.345142 1.217283 0
4.3530002 1.337308 1.2168717 0
4.3510003 1.3294814 1.2164605 0
4.349 1.3216618 1.2160492 0
4.3500004 1.3148832 1.2162548 0
4.362 1.3118707 1.2187225 0
4.3990002 1.3029112 1.2263309 0
4.4050002 1.2977108 1.2275647 0
4.4110003 1.2924888 1.2287985 0
4.4160004 1.2869133 1.2298267 0
4.4220004 1.2816498 1.2310605 0
4.4280005 1.2763647 1.2322943 0
4.3330002 1.3870642 1.2056646 0
4.3240004 1.3767068 1.2038302 0
4.3300004 1.3717933 1.2050532 0
4.335 1.3664992 1.2060723 0
4.3400002 1.3611869 1.2070916 0
4.3460002 1.3562119 1.2083144 0
4.3510003 1.3508619 1.2093337 0
4.355 1.345142 1.2101489 0
4.3530002 1.337308 1.2097412 0
4.3510003 1.3294814 1.2093337 0
4.349 1.3216618 1.208926 0
4.3500004 1.3148832 1.2091298 0
4.362 1.3118707 1.2115757 0
4.3990002 1.3029112 1.2191174 0
4.4050002 1.2977108 1.2203405 0
4.4110003 1.2924888 1.2215635 0
4.4160004 1.2869133 1.2225827 0
4.4220004 1.2816498 1.2238055 0
4.4280005 1.2763647 1.2250286 0
4.3330002 1.3870642 1.1985703 0
4.3240004 1.3767068 1.1967521 0
4.3300004 1.3717933 1.1979643 0
4.335 1.3664992 1.1989744 0
4.3400002 1.3611869 1.1999846 0
4.3460002 1.3562119 1.2011967 0
4.3510003 1.3508619 1.2022069 0
4.355 1.345142 1.203015 0
4.3530002 1.337308 1.2026109 0
4.3510003 1.3294814 1.2022069 0
4.349 1.3216618 1.2018027 0
4.3500004 1.3148832 1.2020048 0
4.362 1.3118707 1.204429 0
4.3990002 1.3029112 1.211904 0
4.4050002 1.2977108 1.2131162 0
4.4110003 1.2924888 1.2143284 0
4.4160004 1.2869133 1.2153386 0
4.4220004 1.2816498 1.2165507 0
4.4280005 1.2763647 1.2177629 0
4.3330002 1.3870642 1.191476 0
4.3240004 1.3767068 1.1896739 0
4.3300004 1.3717933 1.1908753 0
4.335 1.3664992 1.1918764 0
4.3400002 1.3611869 1.1928775 0
4.3460002 1.3562119 1.1940788 0
4.3510003 1.3508619 1.1950799 0
4.355 1.345142 1.1958808 0
4.3530002 1.337308 1.1954803 0
4.3510003 1.3294814 1.1950799 0
4.349 1.3216618 1.1946795 0
4.3500004 1.3148832 1.1948798 0
4.362 1.3118707 1.1972824 0
4.3990002 1.3029112 1.2046906 0
4.4050002 1.2977108 1.205892 0
4.4110003 1.2924888 1.2070932 0
4.4160004 1.2869133 1.2080945 0
4.4220004 1.2816498 1.2092959 0
4.4280005 1.2763647 1.2104971 0
4.3330002 1.3870642 1.1843815 0
4.3240004 1.3767068 1.1825957 0
4.3300004 1.3717933 1.1837864 0
4.335 1.3664992 1.1847783 0
4.3400002 1.3611869 1.1857705 0
4.3460002 1.3562119 1.1869609 0
4.3510003 1.3508619 1.1879531 0
4.355 1.345142 1.1887468 0
4.3530002 1.337308 1.18835 0
4.3510003 1.3294814 1.1879531 0
4.349 1.3216618 1.1875563 0
4.3500004 1.3148832 1.1877548 0
4.362 1.3118707 1.1901357 0
4.3990002 1.3029112 1.1974772 0
4.4050002 1.2977108 1.1986678 0
4.4110003 1.2924888 1.1998582 0
4.4160004 1.2869133 1.2008504 0
4.4220004 1.2816498 1.2020409 0
4.4280005 1.2763647 1.2032315 0
4.3330002 1.3870642 1.1772872 0
4.3240004 1.3767068 1.1755177 0
4.3300004 1.3717933 1.1766974 0
4.335 1.3664992 1.1776804 0
4.3400002 1.3611869 1.1786635 0
4.3460002 1.3562119 1.1798432 0
4.3510003 1.3508619 1.1808263 0
4.355 1.345142 1.1816127 0
4.3530002 1.337308 1.1812195 0
4.3510003 1.3294814 1.1808263 0
4.349 1.3216618 1.180433 0
4.3500004 1.3148832 1.1806296 0
4.362 1.3118707 1.182989 0
4.3990002 1.3029112 1.1902637 0
4.4050002 1.2977108 1.1914434 0
4.4110003 1.2924888 1.1926231 0
4.4160004 1.2869133 1.1936063 0
4.4220004 1.2816498 1.194786 0
4.4280005 1.2763647 1.1959656 0
4.3330002 1.3870642 1.1701928 0
4.3240004 1.3767068 1.1684395 0
4.3300004 1.3717933 1.1696084 0
4.335 1.3664992 1.1705824 0
4.3400002 1.3611869 1.1715565 0
4.3460002 1.3562119 1.1727253 0
4.3510003 1.3508619 1.1736994 0
4.355 1.345142 1.1744787 0
4.3530002 1.337308 1.1740891 0
4.3510003 1.3294814 1.1736994 0
4.349 1.3216618 1.1733098 0
4.3500004 1.3148832 1.1735046 0
4.362 1.3118707 1.1758424 0
4.3990002 1.3029112 1.1830503 0
4.4050002 1.2977108 1.1842192 0
4.4110003 1.2924888 1.1853881 0
4.4160004 1.2869133 1.1863621 0
4.4220004 1.2816498 1.187531 0
4.4280005 1.2763647 1.1887 0
4.3330002 1.3870642 1.1630985 0
4.3240004 1.3767068 1.1613615 0
4.3300004 1.3717933 1.1625195 0
4.335 1.3664992 1.1634845 0
4.3400002 1.3611869 1.1644495 0
4.3460002 1.3562119 1.1656076 0
4.3510003 1.3508619 1.1665726 0
4.355 1.345142 1.1673446 0
4.3530002 1.337308 1.1669586 0
4.3510003 1.3294814 1.1665726 0
4.349 1.3216618 1.1661866 0
4.3500004 1.3148832 1.1663796 0
4.362 1.3118707 1.1686957 0
4.3990002 1.3029112 1.1758369 0
4.4050002 1.2977108 1.1769949 0
4.4110003 1.2924888 1.178153 0
4.4160004 1.2869133 1.179118 0
4.4220004 1.2816498 1.1802762 0
4.4280005 1.2763647 1.1814342 0
4.3330002 1.3870642 1.1560041 0
4.3240004 1.3767068 1.1542833 0
4.3300004 1.3717933 1.1554304 0
4.335 1.3664992 1.1563865 0
4.3400002 1.3611869 1.1573426 0
4.3460002 1.3562119 1.1584897 0
4.3510003 1.3508619 1.1594458 0
4.355 1.345142 1.1602105 0
4.3530002 1.337308 1.1598281 0
4.3510003 1.3294814 1.1594458 0
4.349 1.3216618 1.1590633 0
4.3500004 1.3148832 1.1592546 0
4.362 1.3118707 1.161549 0
4.3990002 1.3029112 1.1686234 0
4.4050002 1.2977108 1.1697707 0
4.4110003 1.2924888 1.170918 0
4.4160004 1.2869133 1.1718739 0
4.4220004 1.2816498 1.1730212 0
4.4280005 1.2763647 1.1741685 0
4.3330002 1.3870642 1.1489097 0
4.3240004 1.3767068 1.1472051 0
4.3300004 1.3717933 1.1483415 0
4.335 1.3664992 1.1492885 0
4.3400002 1.3611869 1.1502355 0
4.3460002 1.3562119 1.1513718 0
4.3510003 1.3508619 1.1523188 0
4.355 1.345142 1.1530765 0
4.3530002 1.337308 1.1526977 0
4.3510003 1.3294814 1.1523188 0
4.349 1.3216618 1.1519401 0
4.3500004 1.3148832 1.1521295 0
4.362 1.3118707 1.1544023 0
4.3990002 1.3029112 1.1614101 0
4.4050002 1.2977108 1.1625465 0
4.4110003 1.2924888 1.1636829 0
4.4160004 1.2869133 1.1646298 0
4.4220004 1.2816498 1.1657662 0
4.4280005 1.2763647 1.1669027 0
4.3330002 1.3870642 1.1418153 0
4.3240004 1.3767068 1.1401269 0
4.3300004 1.3717933 1.1412525 0
4.335 1.3664992 1.1421905 0
4.3400002 1.3611869 1.1431285 0
4.3460002 1.3562119 1.144254 0
4.3510003 1.3508619 1.145192 0
4.355 1.345142 1.1459424 0
4.3530002 1.337308 1.1455672 0
4.3510003 1.3294814 1.145192 0
4.349 1.3216618 1.1448169 0
4.3500004 1.3148832 1.1450044 0
4.362 1.3118707 1.1472555 0
4.3990002 1.3029112 1.1541966 0
4.4050002 1.2977108 1.1553222 0
4.4110003 1.2924888 1.1564478 0
4.4160004 1.2869133 1.1573858 0
4.4220004 1.2816498 1.1585114 0
4.4280005 1.2763647 1.159637 0
4.3330002 1.3870642 1.1347209 0
4.3240004 1.3767068 1.1330488 0
4.3300004 1.3717933 1.1341636 0
4.335 1.3664992 1.1350925 0
4.3400002 1.3611869 1.1360215 0
4.3460002 1.3562119 1.1371362 0
4.3510003 1.3508619 1.1380652 0
4.355 1.345142 1.1388084 0
4.3530002 1.337308 1.1384367 0
4.3510003 1.3294814 1.1380652 0
4.349 1.3216618 1.1376935 0
4.3500004 1.3148832 1.1378794 0
4.362 1.3118707 1.1401088 0
4.3990002 1.3029112 1.1469831 0
4.4050002 1.2977108 1.148098 0
4.4110003 1.2924888 1.1492127 0
4.4160004 1.2869133 1.1501417 0
4.4220004 1.2816498 1.1512564 0
4.4280005 1.2763647 1.1523712 0
4.3330002 1.3870642 1.1276265 0
4.3240004 1.3767068 1.1259706 0
4.3300004 1.3717933 1.1270746 0
4.335 1.3664992 1.1279945 0
4.3400002 1.3611869 1.1289145 0
4.3460002 1.3562119 1.1300184 0
4.3510003 1.3508619 1.1309383 0
4.355 1.345142 1.1316743 0
4.3530002 1.337308 1.1313063 0
4.3510003 1.3294814 1.1309383 0
4.349 1.3216618 1.1305703 0
4.3500004 1.3148832 1.1307544 0
4.362 1.3118707 1.1329622 0
4.3990002 1.3029112 1.1397698 0
4.4050002 1.2977108 1.1408737 0
4.4110003 1.2924888 1.1419777 0
4.4160004 1.2869133 1.1428976 0
4.4220004 1.2816498 1.1440015 0
4.4280005 1.2763647 1.1451055 0
4.3330002 1.3870642 1.1205322 0
4.3240004 1.3767068 1.1188926 0
4.3300004 1.3717933 1.1199856 0
4.335 1.3664992 1.1208966 0
4.3400002 1.3611869 1.1218075 0
4.3460002 1.3562119 1.1229006 0
4.3510003 1.3508619 1.1238115 0
4.355 1.345142 1.1245402 0
4.3530002 1.337308 1.1241759 0
4.3510003 1.3294814 1.1238115 0
4.349 1.3216618 1.1234471 0
4.3500004 1.3148832 1.1236293 0
4.362 1.3118707 1.1258155 0
4.3990002 1.3029112 1.1325563 0
4.4050002 1.2977108 1.1336495 0
4.4110003 1.2924888 1.1347426 0
4.4160004 1.2869133 1.1356535 0
4.4220004 1.2816498 1.1367466 0
4.4280005 1.2763647 1.1378398 0
4.3330002 1.3870642 1.1134378 0
4.3240004 1.3767068 1.1118144 0
4.3300004 1.3717933 1.1128967 0
4.335 1.3664992 1.1137986 0
4.3400002 1.3611869 1.1147004 0
4.3460002 1.3562119 1.1157827 0
4.3510003 1.3508619 1.1166847 0
4.355 1.345142 1.1174062 0
4.3530002 1.337308 1.1170454 0
4.3510003 1.3294814 1.1166847 0
4.349 1.3216618 1.1163239 0
4.3500004 1.3148832 1.1165043 0
4.362 1.3118707 1.1186688 0
4.3990002 1.3029112 1.1253428 0
4.4050002 1.2977108 1.1264251 0
4.4110003 1.2924888 1.1275074 0
4.4160004 1.2869133 1.1284094 0
4.4220004 1.2816498 1.1294917 0
4.4280005 1.2763647 1.130574 0
4.3330002 1.3870642 1.1063434 0
4.3240004 1.3767068 1.1047362 0
4.3300004 1.3717933 1.1058077 0
4.335 1.3664992 1.1067005 0
4.3400002 1.3611869 1.1075934 0
4.3460002 1.3562119 1.1086649 0
4.3510003 1.3508619 1.1095577 0
4.355 1.345142 1.110272 0
4.3530002 1.337308 1.1099149 0
4.3510003 1.3294814 1.1095577 0
4.349 1.3216618 1.1092006 0
4.3500004 1.3148832 1.1093792 0
4.362 1.3118707 1.1115221 0
4.3990002 1.3029112 1.1181295 0
4.4050002 1.2977108 1.1192009 0
4.4110003 1.2924888 1.1202724 0
4.4160004 1.2869133 1.1211653 0
4.4220004 1.2816498 1.1222368 0
4.4280005 1.2763647 1.1233083 0
4.3330002 1.3870642 1.099249 0
4.3240004 1.3767068 1.0976582 0
4.3300004 1.3717933 1.0987188 0
4.335 1.3664992 1.0996026 0
4.3400002 1.3611869 1.1004865 0
4.3460002 1.3562119 1.1015471 0
4.3510003 1.3508619 1.1024309 0
4.355 1.345142 1.1031381 0
4.3530002 1.337308 1.1027845 0
4.3510003 1.3294814 1.1024309 0
4.349 1.3216618 1.1020774 0
4.3500004 1.3148832 1.1022543 0
4.362 1.3118707 1.1043755 0
4.3990002 1.3029112 1.110916 0
4.4050002 1.2977108 1.1119767 0
4.4110003 1.2924888 1.1130373 0
4.4160004 1.2869133 1.1139212 0
4.4220004 1.2816498 1.1149819 0
4.4280005 1.2763647 1.1160425 0
4.3330002 1.3870642 1.0921546 0
4.3240004 1.3767068 1.09058 0
4.3300004 1.3717933 1.0916297 0
4.335 1.3664992 1.0925046 0
4.3400002 1.3611869 1.0933795 0
4.3460002 1.3562119 1.0944293 0
4.3510003 1.3508619 1.0953041 0
4.355 1.345142 1.096004 0
4.3530002 1.337308 1.095654 0
4.3510003 1.3294814 1.0953041 0
4.349 1.3216618 1.0949541 0
4.3500004 1.3148832 1.0951291 0
4.362 1.3118707 1.0972288 0
4.3990002 1.3029112 1.1037027 0
4.4050002 1.2977108 1.1047524 0
4.4110003 1.2924888 1.1058023 0
4.4160004 1.2869133 1.1066772 0
4.4220004 1.2816498 1.1077269 0
4.4280005 1.2763647 1.1087768 0
4.3330002 1.3870642 1.0850602 0
4.3240004 1.3767068 1.0835018 0
4.3300004 1.3717933 1.0845408 0
4.335 1.3664992 1.0854065 0
4.3400002 1.3611869 1.0862725 0
4.3460002 1.3562119 1.0873114 0
4.3510003 1.3508619 1.0881773 0
4.355 1.345142 1.0888699 0
4.3530002 1.337308 1.0885236 0
4.3510003 1.3294814 1.0881773 0
4.349 1.3216618 1.0878309 0
4.3500004 1.3148832 1.0880041 0
4.362 1.3118707 1.090082 0
4.3990002 1.3029112 1.0964892 0
4.4050002 1.2977108 1.0975282 0
4.4110003 1.2924888 1.0985672 0
4.4160004 1.2869133 1.0994331 0
4.4220004 1.2816498 1.1004721 0
4.4280005 1.2763647 1.1015111 0
4.3330002 1.3870642 1.0779659 0
4.3240004 1.3767068 1.0764236 0
4.3300004 1.3717933 1.0774518 0
4.335 1.3664992 1.0783086 0
4.3400002 1.3611869 1.0791655 0
4.3460002 1.3562119 1.0801935 0
4.3510003 1.3508619 1.0810504 0
4.355 1.345142 1.0817358 0
4.3530002 1.337308 1.0813931 0
4.3510003 1.3294814 1.0810504 0
4.349 1.3216618 1.0807077 0
4.3500004 1.3148832 1.0808791 0
4.362 1.3118707 1.0829353 0
4.3990002 1.3029112 1.0892757 0
4.4050002 1.2977108 1.0903039 0
4.4110003 1.2924888 1.0913321 0
4.4160004 1.2869133 1.092189 0
4.4220004 1.2816498 1.0932171 0
4.4280005 1.2763647 1.0942453 0
4.3330002 1.3870642 1.0708715 0
4.3240004 1.3767068 1.0693455 0
4.3300004 1.3717933 1.0703629 0
4.335 1.3664992 1.0712106 0
4.3400002 1.3611869 1.0720584 0
4.3460002 1.3562119 1.0730758 0
4.3510003 1.3508619 1.0739236 0
4.355 1.345142 1.0746018 0
4.3530002 1.337308 1.0742626 0
4.3510003 1.3294814 1.0739236 0
4.349 1.3216618 1.0735844 0
4.3500004 1.3148832 1.073754 0
4.362 1.3118707 1.0757887 0
4.3990002 1.3029112 1.0820624 0
4.4050002 1.2977108 1.0830797 0
4.4110003 1.2924888 1.084097 0
4.4160004 1.2869133 1.0849448 0
4.4220004 1.2816498 1.0859622 0
4.4280005 1.2763647 1.0869795 0
4.3330002 1.3870642 1.0637771 0
4.3240004 1.3767068 1.0622674 0
4.3300004 1.3717933 1.0632739 0
4.335 1.3664992 1.0641127 0
4.3400002 1.3611869 1.0649514 0
4.3460002 1.3562119 1.0659579 0
4.3510003 1.3508619 1.0667968 0
4.355 1.345142 1.0674677 0
4.3530002 1.337308 1.0671322 0
4.3510003 1.3294814 1.0667968 0
4.349 1.3216618 1.0664612 0
4.3500004 1.3148832 1.0666291 0
4.362 1.3118707 1.068642 0
4.3990002 1.3029112 1.0748489 0
4.4050002 1.2977108 1.0758554 0
4.4110003 1.2924888 1.076862 0
4.4160004 1.2869133 1.0777007 0
4.4220004 1.2816498 1.0787072 0
4.4280005 1.2763647 1.0797138 0
4.3330002 1.3870642 1.0566827 0
4.3240004 1.3767068 1.0551893 0
4.3300004 1.3717933 1.0561849 0
4.335 1.3664992 1.0570147 0
4.3400002 1.3611869 1.0578445 0
4.3460002 1.3562119 1.0588402 0
4.3510003 1.3508619 1.0596699 0
4.355 1.345142 1.0603337 0
4.3530002 1.337308 1.0600017 0
4.3510003 1.3294814 1.0596699 0
4.349 1.3216618 1.059338 0
4.3500004 1.3148832 1.0595039 0
4.362 1.3118707 1.0614953 0
4.3990002 1.3029112 1.0676355 0
4.4050002 1.2977108 1.0686312 0
4.4110003 1.2924888 1.0696269 0
4.4160004 1.2869133 1.0704566 0
4.4220004 1.2816498 1.0714524 0
4.4280005 1.2763647 1.072448 0
4.3330002 1.3870642 1.0495884 0
4.3240004 1.3767068 1.0481111 0
4.3300004 1.3717933 1.049096 0
4.335 1.3664992 1.0499167 0
4.3400002 1.3611869 1.0507375 0
4.3460002 1.3562119 1.0517223 0
4.3510003 1.3508619 1.052543 0
4.355 1.345142 1.0531996 0
4.3530002 1.337308 1.0528712 0
4.3510003 1.3294814 1.052543 0
4.349 1.3216618 1.0522147 0
4.3500004 1.3148832 1.0523789 0
4.362 1.3118707 1.0543487 0
4.3990002 1.3029112 1.0604221 0
4.4050002 1.2977108 1.061407 0
4.4110003 1.2924888 1.0623918 0
4.4160004 1.2869133 1.0632125 0
4.4220004 1.2816498 1.0641974 0
4.4280005 1.2763647 1.0651823 0
4.3330002 1.3870642 1.0424939 0
4.3240004 1.3767068 1.0410329 0
4.3300004 1.3717933 1.042007 0
4.335 1.3664992 1.0428187 0
4.3400002 1.3611869 1.0436305 0
4.3460002 1.3562119 1.0446044 0
4.3510003 1.3508619 1.0454162 0
4.355 1.345142 1.0460656 0
4.3530002 1.337308 1.0457408 0
4.3510003 1.3294814 1.0454162 0
4.349 1.3216618 1.0450915 0
4.3500004 1.3148832 1.0452539 0
4.362 1.3118707 1.047202 0
4.3990002 1.3029112 1.0532086 0
4.4050002 1.2977108 1.0541826 0
4.4110003 1.2924888 1.0551567 0
4.4160004 1.2869133 1.0559685 0
4.4220004 1.2816498 1.0569426 0
4.4280005 1.2763647 1.0579165 0
4.3330002 1.3870642 1.0353997 0
4.3240004 1.3767068 1.0339547 0
4.3300004 1.3717933 1.0349181 0
4.335 1.3664992 1.0357207 0
4.3400002 1.3611869 1.0365235 0
4.3460002 1.3562119 1.0374867 0
4.3510003 1.3508619 1.0382893 0
4.355 1.345142 1.0389315 0
4.3530002 1.337308 1.0386105 0
4.3510003 1.3294814 1.0382893 0
4.349 1.3216618 1.0379683 0
4.3500004 1.3148832 1.0381289 0
4.362 1.3118707 1.0400553 0
4.3990002 1.3029112 1.0459952 0
4.4050002 1.2977108 1.0469584 0
4.4110003 1.2924888 1.0479217 0
4.4160004 1.2869133 1.0487244 0
4.4220004 1.2816498 1.0496876 0
4.4280005 1.2763647 1.0506508 0
4.3330002 1.3870642 1.0283053 0
4.3240004 1.3767068 1.0268767 0
4.3300004 1.3717933 1.0278291 0
4.335 1.3664992 1.0286227 0
4.3400002 1.3611869 1.0294164 0
4.3460002 1.3562119 1.0303688 0
4.3510003 1.3508619 1.0311625 0
4.355 1.345142 1.0317974 0
4.3530002 1.337308 1.03148 0
4.3510003 1.3294814 1.0311625 0
4.349 1.3216618 1.030845 0
4.3500004 1.3148832 1.0310038 0
4.362 1.3118707 1.0329086 0
4.3990002 1.3029112 1.0387818 0
4.4050002 1.2977108 1.0397341 0
4.4110003 1.2924888 1.0406866 0
4.4160004 1.2869133 1.0414803 0
4.4220004 1.2816498 1.0424327 0
4.4280005 1.2763647 1.0433851 0
4.3330002 1.3870642 1.0212109 0
4.3240004 1.3767068 1.0197985 0
4.3300004 1.3717933 1.0207402 0
4.335 1.3664992 1.0215247 0
4.3400002 1.3611869 1.0223094 0
4.3460002 1.3562119 1.0232509 0
4.3510003 1.3508619 1.0240357 0
4.355 1.345142 1.0246633 0
4.3530002 1.337308 1.0243495 0
4.3510003 1.3294814 1.0240357 0
4.349 1.3216618 1.0237218 0
4.3500004 1.3148832 1.0238787 0
4.362 1.3118707 1.0257618 0
4.3990002 1.3029112 1.0315683 0
4.4050002 1.2977108 1.0325099 0
4.4110003 1.2924888 1.0334514 0
4.4160004 1.2869133 1.0342362 0
4.4220004 1.2816498 1.0351778 0
4.4280005 1.2763647 1.0361193 0
4.3330002 1.3870642 1.0141165 0
4.3240004 1.3767068 1.0127203 0
4.3300004 1.3717933 1.0136511 0
4.335 1.3664992 1.0144267 0
4.3400002 1.3611869 1.0152024 0
4.3460002 1.3562119 1.0161332 0
4.3510003 1.3508619 1.0169088 0
4.355 1.345142 1.0175292 0
4.3530002 1.337308 1.0172191 0
4.3510003 1.3294814 1.0169088 0
4.349 1.3216618 1.0165986 0
4.3500004 1.3148832 1.0167537 0
4.362 1.3118707 1.0186152 0
4.3990002 1.3029112 1.0243549 0
4.4050002 1.2977108 1.0252857 0
4.4110003 1.2924888 1.0262164 0
4.4160004 1.2869133 1.0269921 0
4.4220004 1.2816498 1.0279229 0
4.4280005 1.2763647 1.0288537 0
4.3330002 1.3870642 1.0070221 0
4.3240004 1.3767068 1.0056422 0
4.3300004 1.3717933 1.0065621 0
4.335 1.3664992 1.0073287 0
4.3400002 1.3611869 1.0080954 0
4.3460002 1.3562119 1.0090153 0
4.3510003 1.3508619 1.009782 0
4.355 1.345142 1.0103953 0
4.3530002 1.337308 1.0100886 0
4.3510003 1.3294814 1.009782 0
4.349 1.3216618 1.0094754 0
4.3500004 1.3148832 1.0096287 0
4.362 1.3118707 1.0114685 0
4.3990002 1.3029112 1.0171415 0
4.4050002 1.2977108 1.0180614 0
4.4110003 1.2924888 1.0189813 0
4.4160004 1.2869133 1.019748 0
4.4220004 1.2816498 1.0206679 0
4.4280005 1.2763647 1.021588 0
4.3330002 1.3870642 0.99992776 0
4.3240004 1.3767068 0.99856412 0
4.3300004 1.3717933 0.99947321 0
4.335 1.3664992 1.0002308 0
4.3400002 1.3611869 1.0009884 0
4.3460002 1.3562119 1.0018975 0
4.3510003 1.3508619 1.0026551 0
4.355 1.345142 1.0032612 0
4.3530002 1.337308 1.0029582 0
4.3510003 1.3294814 1.0026551 0
4.349 1.3216618 1.002352 0
4.3500004 1.3148832 1.0025036 0
4.362 1.3118707 1.0043218 0
4.3990002 1.3029112 1.0099281 0
4.4050002 1.2977108 1.0108372 0
4.4110003 1.2924888 1.0117463 0
4.4160004 1.2869133 1.0125039 0
4.4220004 1.2816498 1.0134131 0
4.4280005 1.2763647 1.0143222 0
4.3330002 1.3870642 0.99283338 0
4.3240004 1.3767068 0.99148595 0
4.3300004 1.3717933 0.9923842 0
4.335 1.3664992 0.99313283 0
4.3400002 1.3611869 0.99388134 0
4.3460002 1.3562119 0.99477971 0
4.3510003 1.3508619 0.99552822 0
4.355 1.345142 0.99612713 0
4.3530002 1.337308 0.99582767 0
4.3510003 1.3294814 0.99552822 0
4.349 1.3216618 0.99522877 0
4.3500004 1.3148832 0.99537861 0
4.362 1.3118707 0.9971751 0
4.3990002 1.3029112 1.0027146 0
4.4050002 1.2977108 1.0036129 0
4.4110003 1.2924888 1.0045112 0
4.4160004 1.2869133 1.0052599 0
4.4220004 1.2816498 1.0061581 0
4.4280005 1.2763647 1.0070565 0
4.3330002 1.3870642 0.98573899 0
4.3240004 1.3767068 0.98440778 0
4.3300004 1.3717933 0.9852953 0
4.335 1.3664992 0.98603487 0
4.3400002 1.3611869 0.98677433 0
4.3460002 1.3562119 0.98766184 0
4.3510003 1.3508619 0.98840141 0
4.355 1.345142 0.98899305 0
4.3530002 1.337308 0.98869717 0
4.3510003 1.3294814 0.98840141 0
4.349 1.3216618 0.98810565 0
4.3500004 1.3148832 0.98825347 0
4.362 1.3118707 0.99002838 0
4.3990002 1.3029112 0.99550116 0
4.4050002 1.2977108 0.99638867 0
4.4110003 1.2924888 0.99727619 0
4.4160004 1.2869133 0.99801576 0
4.4220004 1.2816498 0.99890316 0
4.4280005 1.2763647 0.99979067 0
4.3330002 1.3870642 0.97864461 0
4.3240004 1.3767068 0.97732961 0
4.3300004 1.3717933 0.97820628 0
4.335 1.3664992 0.97893679 0
4.3400002 1.3611869 0.97966743 0
4.3460002 1.3562119 0.98054397 0
4.3510003 1.3508619 0.9812746 0
4.355 1.345142 0.98185897 0
4.3530002 1.337308 0.98156679 0
4.3510003 1.3294814 0.9812746 0
4.349 1.3216618 0.9809823 0
4.3500004 1.3148832 0.98112845 0
4.362 1.3118707 0.98288178 0
4.3990002 1.3029112 0.98828781 0
4.4050002 1.2977108 0.98916435 0
4.4110003 1.2924888 0.99004114 0
4.4160004 1.2869133 0.99077165 0
4.4220004 1.2816498 0.99164832 0
4.4280005 1.2763647 0.99252498 0
4.3330002 1.3870642 0.97155023 0
4.3240004 1.3767068 0.97025144 0
4.3300004 1.3717933 0.97111738 0
4.335 1.3664992 0.97183883 0
4.3400002 1.3611869 0.97256041 0
4.3460002 1.3562119 0.9734261 0
4.3510003 1.3508619 0.97414768 0
4.355 1.345142 0.97472501 0
4.3530002 1.337308 0.97443628 0
4.3510003 1.3294814 0.97414768 0
4.349 1.3216618 0.97385907 0
4.3500004 1.3148832 0.97400343 0
4.362 1.3118707 0.97573507 0
4.3990002 1.3029112 0.98107433 0
4.4050002 1.2977108 0.98194015 0
4.4110003 1.2924888 0.98280597 0
4.4160004 1.2869133 0.98352754 0
4.4220004 1.2816498 0.98439336 0
4.4280005 1.2763647 0.98525918 0
4.3330002 1.3870642 0.96445584 0
4.3240004 1.3767068 0.96317339 0
4.3300004 1.3717933 0.96402836 0
4.335 1.3664992 0.96474087 0
4.3400002 1.3611869 0.96545339 0
4.3460002 1.3562119 0.96630836 0
4.3510003 1.3508619 0.96702087 0
4.355 1.345142 0.96759081 0
4.3530002 1.337308 0.9673059 0
4.3510003 1.3294814 0.96702087 0
4.349 1.3216618 0.96673584 0
4.3500004 1.3148832 0.96687841 0
4.362 1.3118707 0.96858835 0
4.3990002 1.3029112 0.97386098 0
4.4050002 1.2977108 0.97471595 0
4.4110003 1.2924888 0.97557092 0
4.4160004 1.2869133 0.97628343 0
4.4220004 1.2816498 0.97713852 0
4.4280005 1.2763647 0.97799349 0
4.3330002 1.3870642 0.95736146 0
4.3240004 1.3767068 0.95609522 0
4.3300004 1.3717933 0.95693946 0
4.335 1.3664992 0.95764291 0
4.3400002 1.3611869 0.95834637 0
4.3460002 1.3562119 0.95919049 0
4.3510003 1.3508619 0.95989406 0
4.355 1.345142 0.96045685 0
4.3530002 1.337308 0.9601754 0
4.3510003 1.3294814 0.95989406 0
4.349 1.3216618 0.95961261 0
4.3500004 1.3148832 0.95975339 0
4.362 1.3118707 0.96144164 0
4.3990002 1.3029112 0.96664751 0
4.4050002 1.2977108 0.96749163 0
4.4110003 1.2924888 0.96833587 0
4.4160004 1.2869133 0.96903932 0
4.4220004 1.2816498 0.96988356 0
4.4280005 1.2763647 0.97072768 0
4.3330002 1.3870642 0.95026708 0
4.3240004 1.3767068 0.94901705 0
