# .PCD v0.7 - Point Cloud Data file format
VERSION 0.7
FIELDS x y z intensity
SIZE 4 4 4 4
TYPE F F F F
COUNT 1 1 1 1
WIDTH 1400
HEIGHT 1
VIEWPOINT 0 0 0 1 0 0 0
POINTS 1400
DATA ascii
3.8900003 -0.3229928 0.37252355 0
3.8850002 -0.32888225 0.37256867 0
3.8880002 -0.33541745 0.37254161 0
3.8950002 -0.34230256 0.37247846 0
3.9020002 -0.34921294 0.37241533 0
3.9090002 -0.3561486 0.37235221 0
4.4490004 -0.42578822 0.36748192 0
4.4440002 -0.43261382 0.36752701 0
4.4400001 -0.43951881 0.3675631 0
4.4380002 -0.44660777 0.36758113 0
4.4370003 -0.45379052 0.36759013 0
4.4370003 -0.4610725 0.36759013 0
4.4380002 -0.4684591 0.36758113 0
4.4410005 -0.47606218 0.36755407 0
4.4450002 -0.48378426 0.36751801 0
4.152 -0.51298428 0.37016058 0
4.1460004 -0.51899463 0.3702147 0
4.1430001 -0.52536744 0.37024173 0
4.1410003 -0.53185934 0.37025979 0
4.1410003 -0.53860742 0.37025979 0
4.1420002 -0.54548895 0.37025076 0
4.1460004 -0.55277991 0.3702147 0
4.1540003 -0.56063372 0.37014252 0
4.2840004 -0.59947336 0.36897007 0
4.277 -0.60546917 0.36903319 0
4.2720003 -0.61173201 0.36907828 0
4.2690001 -0.6182726 0.36910534 0
4.2670002 -0.62495208 0.36912337 0
4.2650003 -0.6316244 0.36914143 0
4.2650003 -0.63859612 0.36914143 0
4.2650003 -0.64556783 0.36914143 0
4.2670002 -0.65285343 0.36912337 0
4.27 -0.6603049 0.36909634 0
4.2740002 -0.6679278 0.36906025 0
4.2820001 -0.67621452 0.3689881 0
4.1350002 -0.066211671 0.36357668 0
4.1290002 -0.0729056 0.36364162 0
4.1220002 -0.07956887 0.36371738 0
4.1160002 -0.086217709 0.36378232 0
4.1100001 -0.092844903 0.36384726 0
4.1030002 -0.099436015 0.36392301 0
4.0970001 -0.10601811 0.36398795 0
4.0910001 -0.11257857 0.36405289 0
4.085 -0.11911736 0.3641178 0
4.0780001 -0.12561288 0.36419356 0
4.072 -0.13210659 0.3642585 0
4.066 -0.13857865 0.36432344 0
4.0599999 -0.14502907 0.36438838 0
4.0540004 -0.15145785 0.36445332 0
4.0480003 -0.15786497 0.36451825 0
4.0420003 -0.16425045 0.36458319 0
4.0360003 -0.17061429 0.36464813 0
4.0300002 -0.17695649 0.36471307 0
4.0240002 -0.18327703 0.36477801 0
4.0180001 -0.18957593 0.36484295 0
4.0120001 -0.19585317 0.36490789 0
4.006 -0.20210879 0.36497283 0
4 -0.20834273 0.36503777 0
3.9940002 -0.21455505 0.36510271 0
3.9880002 -0.22074573 0.36516762 0
3.9820004 -0.22691475 0.36523256 0
3.9760003 -0.23306215 0.3652975 0
3.9700003 -0.23918787 0.36536244 0
3.9640002 -0.24529195 0.36542737 0
3.9590003 -0.25143212 0.3654815 0
3.9530003 -0.25749472 0.36554644 0
3.9470003 -0.26353568 0.36561137 0
3.9410002 -0.26955497 0.36567631 0
3.9360003 -0.27561757 0.3657304 0
3.9300003 -0.28159538 0.36579534 0
3.9240003 -0.28755155 0.36586028 0
3.9180002 -0.29348609 0.36592522 0
3.9130003 -0.29947114 0.36597934 0
3.9070003 -0.30536416 0.36604428 0
3.9020002 -0.31131133 0.3660984 0
3.8960001 -0.31716287 0.36616334 0
3.8900003 -0.3229928 0.36622828 0
3.8850002 -0.32888225 0.36628237 0
3.8880002 -0.33541745 0.36624992 0
3.8950002 -0.34230256 0.36617416 0
3.9020002 -0.34921294 0.3660984 0
3.9090002 -0.3561486 0.36602265 0
4.4550004 -0.4190366 0.36011335 0
4.4490004 -0.42578822 0.36017829 0
4.4440002 -0.43261382 0.36023241 0
4.4400001 -0.43951881 0.36027572 0
4.4380002 -0.44660777 0.36029735 0
4.4370003 -0.45379052 0.36030817 0
4.4370003 -0.4610725 0.36030817 0
4.4380002 -0.4684591 0.36029735 0
4.4410005 -0.47606218 0.36026487 0
4.4450002 -0.48378426 0.36022159 0
4.4510002 -0.49174085 0.36015666 0
4.152 -0.51298428 0.36339268 0
4.1460004 -0.51899463 0.36345762 0
4.1430001 -0.52536744 0.36349007 0
4.1410003 -0.53185934 0.36351174 0
4.1410003 -0.53860742 0.36351174 0
4.1420002 -0.54548895 0.36350092 0
4.1460004 -0.55277991 0.36345762 0
4.1540003 -0.56063372 0.36337104 0
4.2930002 -0.59373361 0.36186665 0
4.2840004 -0.59947336 0.36196408 0
4.277 -0.60546917 0.36203983 0
4.2720003 -0.61173201 0.36209393 0
4.2690001 -0.6182726 0.36212641 0
4.2670002 -0.62495208 0.36214805 0
4.2650003 -0.6316244 0.36216968 0
4.2650003 -0.63859612 0.36216968 0
4.2650003 -0.64556783 0.36216968 0
4.2670002 -0.65285343 0.36214805 0
4.27 -0.6603049 0.36211559 0
4.2740002 -0.6679278 0.36207229 0
4.2820001 -0.67621452 0.36198571 0
4.145 -0.086531572 0.35671318 0
4.1100001 -0.092844903 0.35715511 0
4.1030002 -0.099436015 0.35724351 0
4.0970001 -0.10601811 0.35731927 0
4.0910001 -0.11257857 0.35739502 0
4.085 -0.11911736 0.35747078 0
4.0780001 -0.12561288 0.35755917 0
4.072 -0.13210659 0.35763493 0
4.066 -0.13857865 0.35771069 0
4.0599999 -0.14502907 0.35778645 0
4.0540004 -0.15145785 0.3578622 0
4.0480003 -0.15786497 0.35793796 0
4.0420003 -0.16425045 0.35801372 0
4.0360003 -0.17061429 0.35808948 0
4.0300002 -0.17695649 0.35816526 0
4.0240002 -0.18327703 0.35824102 0
4.0180001 -0.18957593 0.35831678 0
4.0120001 -0.19585317 0.35839254 0
4.006 -0.20210879 0.35846829 0
4 -0.20834273 0.35854405 0
3.9940002 -0.21455505 0.35861981 0
3.9880002 -0.22074573 0.35869557 0
3.9820004 -0.22691475 0.35877132 0
3.9760003 -0.23306215 0.35884708 0
3.9700003 -0.23918787 0.35892284 0
3.9640002 -0.24529195 0.3589986 0
3.9590003 -0.25143212 0.35906175 0
3.9530003 -0.25749472 0.35913751 0
3.9470003 -0.26353568 0.35921326 0
3.9410002 -0.26955497 0.35928902 0
3.9360003 -0.27561757 0.35935214 0
3.9300003 -0.28159538 0.35942793 0
3.9240003 -0.28755155 0.35950369 0
3.9180002 -0.29348609 0.35957944 0
3.9130003 -0.29947114 0.35964257 0
3.9070003 -0.30536416 0.35971832 0
3.9020002 -0.31131133 0.35978147 0
3.8960001 -0.31716287 0.35985723 0
3.8900003 -0.3229928 0.35993299 0
3.8850002 -0.32888225 0.35999611 0
3.8880002 -0.33541745 0.35995823 0
3.8950002 -0.34230256 0.35986984 0
3.9020002 -0.34921294 0.35978147 0
3.9090002 -0.3561486 0.35969308 0
4.4550004 -0.4190366 0.35279891 0
4.4490004 -0.42578822 0.35287467 0
4.4440002 -0.43261382 0.35293782 0
4.4400001 -0.43951881 0.35298833 0
4.4380002 -0.44660777 0.35301358 0
4.4370003 -0.45379052 0.35302621 0
4.4370003 -0.4610725 0.35302621 0
4.4380002 -0.4684591 0.35301358 0
4.4410005 -0.47606218 0.3529757 0
4.4450002 -0.48378426 0.35292518 0
4.4510002 -0.49174085 0.35284942 0
4.1620002 -0.50744301 0.35649854 0
4.152 -0.51298428 0.35662478 0
4.1460004 -0.51899463 0.35670054 0
4.1430001 -0.52536744 0.35673845 0
4.1410003 -0.53185934 0.35676369 0
4.1410003 -0.53860742 0.35676369 0
4.1420002 -0.54548895 0.35675105 0
4.1460004 -0.55277991 0.35670054 0
4.1540003 -0.56063372 0.35659954 0
4.2930002 -0.59373361 0.35484445 0
4.2840004 -0.59947336 0.35495809 0
4.277 -0.60546917 0.35504645 0
4.2720003 -0.61173201 0.3551096 0
4.2690001 -0.6182726 0.35514748 0
4.2670002 -0.62495208 0.35517272 0
4.2650003 -0.6316244 0.35519797 0
4.2650003 -0.63859612 0.35519797 0
4.2650003 -0.64556783 0.35519797 0
4.2670002 -0.65285343 0.35517272 0
4.27 -0.6603049 0.35513484 0
4.2740002 -0.6679278 0.35508436 0
4.2820001 -0.67621452 0.35498333 0
4.145 -0.086531572 0.34995791 0
4.1370001 -0.093185827 0.35007337 0
4.1330004 -0.099868931 0.35013109 0
4.131 -0.10657008 0.35015994 0
4.131 -0.11330009 0.35015994 0
4.132 -0.12004994 0.35014552 0
4.1350002 -0.12684669 0.35010222 0
3.9420002 -0.30156356 0.3528873 0
3.9330003 -0.30728704 0.35301718 0
3.9280002 -0.31328109 0.35308933 0
3.9250002 -0.31941223 0.35313264 0
3.9240003 -0.32569128 0.35314706 0
3.9240003 -0.33204791 0.35314706 0
3.9250002 -0.33848751 0.35313264 0
3.9280002 -0.34510028 0.35308933 0
3.9340003 -0.35198361 0.35300276 0
4.4550004 -0.4190366 0.34548447 0
4.4490004 -0.42578822 0.34557104 0
4.4440002 -0.43261382 0.34564322 0
4.4400001 -0.43951881 0.34570092 0
4.4380002 -0.44660777 0.3457298 0
4.4370003 -0.45379052 0.34574422 0
4.4370003 -0.4610725 0.34574422 0
4.4380002 -0.4684591 0.3457298 0
4.4410005 -0.47606218 0.3456865 0
4.4450002 -0.48378426 0.3456288 0
4.4510002 -0.49174085 0.34554219 0
4.1620002 -0.50744301 0.34971261 0
4.152 -0.51298428 0.34985691 0
4.1460004 -0.51899463 0.34994349 0
4.1430001 -0.52536744 0.34998679 0
4.1410003 -0.53185934 0.35001564 0
4.1410003 -0.53860742 0.35001564 0
4.1420002 -0.54548895 0.35000122 0
4.1460004 -0.55277991 0.34994349 0
4.1540003 -0.56063372 0.34982803 0
4.2930002 -0.59373361 0.34782222 0
4.2840004 -0.59947336 0.34795207 0
4.277 -0.60546917 0.3480531 0
4.2720003 -0.61173201 0.34812525 0
4.2690001 -0.6182726 0.34816855 0
4.2670002 -0.62495208 0.3481974 0
4.2650003 -0.6316244 0.34822625 0
4.2650003 -0.63859612 0.34822625 0
4.2650003 -0.64556783 0.34822625 0
4.2670002 -0.65285343 0.3481974 0
4.27 -0.6603049 0.34815413 0
4.2740002 -0.6679278 0.3480964 0
4.2820001 -0.67621452 0.34798095 0
4.145 -0.086531572 0.34320265 0
4.1370001 -0.093185827 0.34333253 0
4.1330004 -0.099868931 0.34339747 0
4.131 -0.10657008 0.34342992 0
4.131 -0.11330009 0.34342992 0
4.132 -0.12004994 0.34341371 0
4.1350002 -0.12684669 0.34336501 0
4.1400003 -0.13370116 0.34328383 0
3.9420002 -0.30156356 0.34649822 0
3.9330003 -0.30728704 0.34664431 0
3.9280002 -0.31328109 0.34672549 0
3.9250002 -0.31941223 0.34677419 0
3.9240003 -0.32569128 0.34679043 0
3.9240003 -0.33204791 0.34679043 0
3.9250002 -0.33848751 0.34677419 0
3.9280002 -0.34510028 0.34672549 0
3.9340003 -0.35198361 0.3466281 0
4.4550004 -0.4190366 0.33817002 0
4.4490004 -0.42578822 0.33826745 0
4.4440002 -0.43261382 0.33834863 0
4.4400001 -0.43951881 0.33841354 0
4.4380002 -0.44660777 0.33844602 0
4.4370003 -0.45379052 0.33846226 0
4.4370003 -0.4610725 0.33846226 0
4.4380002 -0.4684591 0.33844602 0
4.4410005 -0.47606218 0.33839732 0
4.4450002 -0.48378426 0.33833238 0
4.4510002 -0.49174085 0.33823496 0
4.1620002 -0.50744301 0.34292668 0
4.152 -0.51298428 0.34308901 0
4.1460004 -0.51899463 0.34318641 0
4.1430001 -0.52536744 0.34323514 0
4.1410003 -0.53185934 0.34326759 0
4.1410003 -0.53860742 0.34326759 0
4.1420002 -0.54548895 0.34325135 0
4.1460004 -0.55277991 0.34318641 0
4.1540003 -0.56063372 0.34305656 0
4.2930002 -0.59373361 0.34079999 0
4.2840004 -0.59947336 0.34094608 0
4.277 -0.60546917 0.34105974 0
4.2720003 -0.61173201 0.3411409 0
4.2690001 -0.6182726 0.34118962 0
4.2670002 -0.62495208 0.34122208 0
4.2650003 -0.6316244 0.34125453 0
4.2650003 -0.63859612 0.34125453 0
4.2650003 -0.64556783 0.34125453 0
4.2670002 -0.65285343 0.34122208 0
4.27 -0.6603049 0.34117338 0
4.2740002 -0.6679278 0.34110844 0
4.2820001 -0.67621452 0.34097856 0
4.145 -0.086531572 0.33644739 0
4.1370001 -0.093185827 0.33659169 0
4.1330004 -0.099868931 0.33666384 0
4.131 -0.10657008 0.33669993 0
4.131 -0.11330009 0.33669993 0
4.132 -0.12004994 0.3366819 0
4.1350002 -0.12684669 0.33662778 0
4.1400003 -0.13370116 0.3365376 0
3.9420002 -0.30156356 0.34010911 0
3.9330003 -0.30728704 0.34027147 0
3.9280002 -0.31328109 0.34036165 0
3.9250002 -0.31941223 0.34041578 0
3.9240003 -0.32569128 0.34043381 0
3.9240003 -0.33204791 0.34043381 0
3.9250002 -0.33848751 0.34041578 0
3.9280002 -0.34510028 0.34036165 0
3.9340003 -0.35198361 0.34025344 0
4.4550004 -0.4190366 0.33085558 0
4.4490004 -0.42578822 0.33096382 0
4.4440002 -0.43261382 0.331054 0
4.4400001 -0.43951881 0.33112615 0
4.4380002 -0.44660777 0.33116224 0
4.4370003 -0.45379052 0.33118027 0
4.4370003 -0.4610725 0.33118027 0
4.4380002 -0.4684591 0.33116224 0
4.4410005 -0.47606218 0.33110812 0
4.4450002 -0.48378426 0.33103597 0
4.4510002 -0.49174085 0.33092773 0
4.1620002 -0.50744301 0.33614075 0
4.152 -0.51298428 0.33632112 0
4.1460004 -0.51899463 0.33642936 0
4.1430001 -0.52536744 0.33648348 0
4.1410003 -0.53185934 0.33651954 0
4.1410003 -0.53860742 0.33651954 0
4.1420002 -0.54548895 0.33650151 0
4.1460004 -0.55277991 0.33642936 0
4.1540003 -0.56063372 0.33628505 0
4.2930002 -0.59373361 0.33377776 0
4.2840004 -0.59947336 0.33394009 0
4.277 -0.60546917 0.33406636 0
4.2720003 -0.61173201 0.33415657 0
4.2690001 -0.6182726 0.33421066 0
4.2670002 -0.62495208 0.33424675 0
4.2650003 -0.6316244 0.33428282 0
4.2650003 -0.63859612 0.33428282 0
4.2650003 -0.64556783 0.33428282 0
4.2670002 -0.65285343 0.33424675 0
4.27 -0.6603049 0.33419263 0
4.2740002 -0.6679278 0.33412048 0
4.2820001 -0.67621452 0.33397618 0
4.145 -0.086531572 0.32969213 0
4.1370001 -0.093185827 0.32985085 0
4.1330004 -0.099868931 0.32993025 0
4.131 -0.10657008 0.32996991 0
4.131 -0.11330009 0.32996991 0
4.132 -0.12004994 0.32995009 0
4.1350002 -0.12684669 0.32989055 0
4.1400003 -0.13370116 0.32979134 0
3.9420002 -0.30156356 0.33372003 0
3.9330003 -0.30728704 0.3338986 0
3.9280002 -0.31328109 0.33399782 0
3.9250002 -0.31941223 0.33405736 0
3.9240003 -0.32569128 0.33407718 0
3.9240003 -0.33204791 0.33407718 0
3.9250002 -0.33848751 0.33405736 0
3.9280002 -0.34510028 0.33399782 0
3.9340003 -0.35198361 0.33387879 0
4.4550004 -0.4190366 0.32354113 0
4.4490004 -0.42578822 0.32366019 0
4.4440002 -0.43261382 0.32375941 0
4.4400001 -0.43951881 0.32383877 0
4.4380002 -0.44660777 0.32387847 0
4.4370003 -0.45379052 0.32389832 0
4.4370003 -0.4610725 0.32389832 0
4.4380002 -0.4684591 0.32387847 0
4.4410005 -0.47606218 0.32381892 0
4.4450002 -0.48378426 0.32373956 0
4.4510002 -0.49174085 0.32362053 0
4.1620002 -0.50744301 0.32935482 0
4.152 -0.51298428 0.32955325 0
4.1460004 -0.51899463 0.32967228 0
4.1430001 -0.52536744 0.32973182 0
4.1410003 -0.53185934 0.32977152 0
4.1410003 -0.53860742 0.32977152 0
4.1420002 -0.54548895 0.32975167 0
4.1460004 -0.55277991 0.32967228 0
4.1540003 -0.56063372 0.32951355 0
4.2930002 -0.59373361 0.32675552 0
4.2840004 -0.59947336 0.3269341 0
4.277 -0.60546917 0.32707301 0
4.2720003 -0.61173201 0.32717222 0
4.2690001 -0.6182726 0.32723173 0
4.2670002 -0.62495208 0.32727143 0
4.2650003 -0.6316244 0.3273111 0
4.2650003 -0.63859612 0.3273111 0
4.2650003 -0.64556783 0.3273111 0
4.2670002 -0.65285343 0.32727143 0
4.27 -0.6603049 0.32721192 0
4.2740002 -0.6679278 0.32713252 0
4.2820001 -0.67621452 0.3269738 0
4.145 -0.086531572 0.32293686 0
4.1370001 -0.093185827 0.32311004 0
4.1330004 -0.099868931 0.32319662 0
4.131 -0.10657008 0.32323992 0
4.131 -0.11330009 0.32323992 0
4.132 -0.12004994 0.32321829 0
4.1350002 -0.12684669 0.32315332 0
4.1400003 -0.13370116 0.3230451 0
3.9420002 -0.30156356 0.32733095 0
3.9330003 -0.30728704 0.32752576 0
3.9280002 -0.31328109 0.32763398 0
3.9250002 -0.31941223 0.32769892 0
3.9240003 -0.32569128 0.32772058 0
3.9240003 -0.33204791 0.32772058 0
3.9250002 -0.33848751 0.32769892 0
3.9280002 -0.34510028 0.32763398 0
3.9340003 -0.35198361 0.3275041 0
4.4550004 -0.4190366 0.31622672 0
4.4490004 -0.42578822 0.31635657 0
4.4440002 -0.43261382 0.31646481 0
4.4400001 -0.43951881 0.31655139 0
4.4380002 -0.44660777 0.31659469 0
4.4370003 -0.45379052 0.31661633 0
4.4370003 -0.4610725 0.31661633 0
4.4380002 -0.4684591 0.31659469 0
4.4410005 -0.47606218 0.31652975 0
4.4450002 -0.48378426 0.31644318 0
4.4510002 -0.49174085 0.3163133 0
4.1620002 -0.50744301 0.32256889 0
4.152 -0.51298428 0.32278535 0
4.1460004 -0.51899463 0.32291523 0
4.1430001 -0.52536744 0.32298017 0
4.1410003 -0.53185934 0.32302344 0
4.1410003 -0.53860742 0.32302344 0
4.1420002 -0.54548895 0.3230018 0
4.1460004 -0.55277991 0.32291523 0
4.1540003 -0.56063372 0.32274204 0
4.2930002 -0.59373361 0.31973332 0
4.2840004 -0.59947336 0.31992811 0
4.277 -0.60546917 0.32007962 0
4.2720003 -0.61173201 0.32018787 0
4.2690001 -0.6182726 0.32025281 0
4.2670002 -0.62495208 0.32029611 0
4.2650003 -0.6316244 0.32033938 0
4.2650003 -0.63859612 0.32033938 0
4.2650003 -0.64556783 0.32033938 0
4.2670002 -0.65285343 0.32029611 0
4.27 -0.6603049 0.32023117 0
4.2740002 -0.6679278 0.32014459 0
4.2820001 -0.67621452 0.31997141 0
4.145 -0.086531572 0.3161816 0
4.1370001 -0.093185827 0.31636921 0
4.1330004 -0.099868931 0.31646299 0
4.131 -0.10657008 0.3165099 0
4.131 -0.11330009 0.3165099 0
4.132 -0.12004994 0.31648645 0
4.1350002 -0.12684669 0.31641611 0
4.1400003 -0.13370116 0.31629884 0
4.1530004 -0.1407757 0.31599402 0
4.3580003 -0.29588154 0.31118685 0
4.3520002 -0.30263141 0.31132758 0
4.349 -0.30955982 0.31139791 0
4.348 -0.31661451 0.31142136 0
3.9420002 -0.30156356 0.32094187 0
3.9330003 -0.30728704 0.3211529 0
3.9280002 -0.31328109 0.32127017 0
3.9250002 -0.31941223 0.3213405 0
3.9240003 -0.32569128 0.32136396 0
3.9240003 -0.33204791 0.32136396 0
3.9250002 -0.33848751 0.3213405 0
3.9280002 -0.34510028 0.32127017 0
3.9340003 -0.35198361 0.32112944 0
4.4550004 -0.4190366 0.30891228 0
4.4490004 -0.42578822 0.30905294 0
4.4440002 -0.43261382 0.30917022 0
4.4400001 -0.43951881 0.309264 0
4.4380002 -0.44660777 0.30931091 0
4.4370003 -0.45379052 0.30933434 0
4.4370003 -0.4610725 0.30933434 0
4.4380002 -0.4684591 0.30931091 0
4.4410005 -0.47606218 0.30924055 0
4.4450002 -0.48378426 0.30914676 0
4.4510002 -0.49174085 0.30900607 0
4.1620002 -0.50744301 0.31578296 0
4.152 -0.51298428 0.31601745 0
4.1460004 -0.51899463 0.31615815 0
4.1430001 -0.52536744 0.31622851 0
4.1410003 -0.53185934 0.31627542 0
4.1410003 -0.53860742 0.31627542 0
4.1420002 -0.54548895 0.31625196 0
4.1460004 -0.55277991 0.31615815 0
4.1540003 -0.56063372 0.31597057 0
4.2930002 -0.59373361 0.31271109 0
4.2840004 -0.59947336 0.31292212 0
4.277 -0.60546917 0.31308627 0
4.2720003 -0.61173201 0.31320351 0
4.2690001 -0.6182726 0.31327388 0
4.2670002 -0.62495208 0.31332079 0
4.2650003 -0.6316244 0.31336766 0
4.2650003 -0.63859612 0.31336766 0
4.2650003 -0.64556783 0.31336766 0
4.2670002 -0.65285343 0.31332079 0
4.27 -0.6603049 0.31325042 0
4.2740002 -0.6679278 0.31315663 0
4.2820001 -0.67621452 0.31296903 0
4.145 -0.086531572 0.30942637 0
4.1370001 -0.093185827 0.30962837 0
4.1330004 -0.099868931 0.3097294 0
4.131 -0.10657008 0.30977988 0
4.131 -0.11330009 0.30977988 0
4.132 -0.12004994 0.30975464 0
4.1350002 -0.12684669 0.30967888 0
4.1400003 -0.13370116 0.30955261 0
4.1530004 -0.1407757 0.30922431 0
4.3580003 -0.29588154 0.30404741 0
4.3520002 -0.30263141 0.30419892 0
4.349 -0.30955982 0.30427468 0
4.348 -0.31661451 0.30429992 0
3.9420002 -0.30156356 0.31455278 0
3.9330003 -0.30728704 0.31478006 0
3.9280002 -0.31328109 0.31490633 0
3.9250002 -0.31941223 0.31498209 0
3.9240003 -0.32569128 0.31500733 0
3.9240003 -0.33204791 0.31500733 0
3.9250002 -0.33848751 0.31498209 0
3.9280002 -0.34510028 0.31490633 0
3.9340003 -0.35198361 0.31475478 0
4.4550004 -0.4190366 0.30159783 0
4.4490004 -0.42578822 0.30174935 0
4.4440002 -0.43261382 0.30187562 0
4.4400001 -0.43951881 0.30197662 0
4.4380002 -0.44660777 0.30202714 0
4.4370003 -0.45379052 0.30205238 0
4.4370003 -0.4610725 0.30205238 0
4.4380002 -0.4684591 0.30202714 0
4.4410005 -0.47606218 0.30195135 0
4.4450002 -0.48378426 0.30185035 0
4.4510002 -0.49174085 0.30169883 0
4.1620002 -0.50744301 0.30899704 0
4.152 -0.51298428 0.30924958 0
4.1460004 -0.51899463 0.30940109 0
4.1430001 -0.52536744 0.30947685 0
4.1410003 -0.53185934 0.30952737 0
4.1410003 -0.53860742 0.30952737 0
4.1420002 -0.54548895 0.30950212 0
4.1460004 -0.55277991 0.30940109 0
4.1540003 -0.56063372 0.30919906 0
4.2930002 -0.59373361 0.30568886 0
4.2840004 -0.59947336 0.30591613 0
4.277 -0.60546917 0.30609292 0
4.2720003 -0.61173201 0.30621916 0
4.2690001 -0.6182726 0.30629492 0
4.2670002 -0.62495208 0.30634546 0
4.2650003 -0.6316244 0.30639595 0
4.2650003 -0.63859612 0.30639595 0
4.2650003 -0.64556783 0.30639595 0
4.2670002 -0.65285343 0.30634546 0
4.27 -0.6603049 0.30626971 0
4.2740002 -0.6679278 0.30616868 0
4.2820001 -0.67621452 0.30596665 0
4.145 -0.086531572 0.30267107 0
4.1370001 -0.093185827 0.30288756 0
4.1330004 -0.099868931 0.30299577 0
4.131 -0.10657008 0.30304989 0
4.131 -0.11330009 0.30304989 0
4.132 -0.12004994 0.30302283 0
4.1350002 -0.12684669 0.30294165 0
4.1400003 -0.13370116 0.30280638 0
4.1530004 -0.1407757 0.30245462 0
4.3580003 -0.29588154 0.2969079 0
4.3520002 -0.30263141 0.29707026 0
4.349 -0.30955982 0.29715145 0
4.348 -0.31661451 0.29717851 0
4.348 -0.32373595 0.29717851 0
3.9420002 -0.30156356 0.3081637 0
3.9330003 -0.30728704 0.30840719 0
3.9280002 -0.31328109 0.30854249 0
3.9250002 -0.31941223 0.30862367 0
3.9240003 -0.32569128 0.30865073 0
3.9240003 -0.33204791 0.30865073 0
3.9250002 -0.33848751 0.30862367 0
3.9280002 -0.34510028 0.30854249 0
3.9340003 -0.35198361 0.30838013 0
4.4550004 -0.4190366 0.29428339 0
4.4490004 -0.42578822 0.29444572 0
4.4440002 -0.43261382 0.294581 0
4.4400001 -0.43951881 0.29468924 0
4.4380002 -0.44660777 0.29474336 0
4.4370003 -0.45379052 0.29477042 0
4.4370003 -0.4610725 0.29477042 0
4.4380002 -0.4684591 0.29474336 0
4.4410005 -0.47606218 0.29466218 0
4.4450002 -0.48378426 0.29455394 0
4.4510002 -0.49174085 0.2943916 0
4.1620002 -0.50744301 0.30221111 0
4.152 -0.51298428 0.30248168 0
4.1460004 -0.51899463 0.30264401 0
4.1430001 -0.52536744 0.3027252 0
4.1410003 -0.53185934 0.30277932 0
4.1410003 -0.53860742 0.30277932 0
4.1420002 -0.54548895 0.30275226 0
4.1460004 -0.55277991 0.30264401 0
4.1540003 -0.56063372 0.30242759 0
4.2930002 -0.59373361 0.29866663 0
4.2840004 -0.59947336 0.29891014 0
4.277 -0.60546917 0.29909956 0
4.2720003 -0.61173201 0.29923484 0
4.2690001 -0.6182726 0.29931599 0
4.2670002 -0.62495208 0.29937011 0
4.2650003 -0.6316244 0.29942423 0
4.2650003 -0.63859612 0.29942423 0
4.2650003 -0.64556783 0.29942423 0
4.2670002 -0.65285343 0.29937011 0
4.27 -0.6603049 0.29928893 0
4.2740002 -0.6679278 0.29918072 0
4.2820001 -0.67621452 0.29896426 0
4.145 -0.086531572 0.29591584 0
4.1370001 -0.093185827 0.29614672 0
4.1330004 -0.099868931 0.29626215 0
4.131 -0.10657008 0.29631987 0
4.131 -0.11330009 0.29631987 0
4.132 -0.12004994 0.29629102 0
4.1350002 -0.12684669 0.29620445 0
4.1400003 -0.13370116 0.29606014 0
4.1530004 -0.1407757 0.29568493 0
4.3580003 -0.29588154 0.28976846 0
4.3520002 -0.30263141 0.28994161 0
4.349 -0.30955982 0.29002821 0
4.348 -0.31661451 0.29005706 0
4.348 -0.32373595 0.29005706 0
3.9420002 -0.30156356 0.30177459 0
3.9330003 -0.30728704 0.30203435 0
3.9280002 -0.31328109 0.30217865 0
3.9250002 -0.31941223 0.30226523 0
3.9240003 -0.32569128 0.30229408 0
3.9240003 -0.33204791 0.30229408 0
3.9250002 -0.33848751 0.30226523 0
3.9280002 -0.34510028 0.30217865 0
3.9340003 -0.35198361 0.30200547 0
4.4550004 -0.4190366 0.28696895 0
4.4490004 -0.42578822 0.2871421 0
4.4440002 -0.43261382 0.2872864 0
4.4400001 -0.43951881 0.28740185 0
4.4380002 -0.44660777 0.28745958 0
4.4370003 -0.45379052 0.28748843 0
4.4370003 -0.4610725 0.28748843 0
4.4380002 -0.4684591 0.28745958 0
4.4410005 -0.47606218 0.28737298 0
4.4450002 -0.48378426 0.28725755 0
4.4510002 -0.49174085 0.28708437 0
4.1620002 -0.50744301 0.29542518 0
4.152 -0.51298428 0.29571378 0
4.1460004 -0.51899463 0.29588696 0
4.1430001 -0.52536744 0.29597354 0
4.1410003 -0.53185934 0.29603127 0
4.1410003 -0.53860742 0.29603127 0
4.1420002 -0.54548895 0.29600242 0
4.1460004 -0.55277991 0.29588696 0
4.1540003 -0.56063372 0.29565609 0
4.2930002 -0.59373361 0.29164439 0
4.2840004 -0.59947336 0.29190415 0
4.277 -0.60546917 0.29210618 0
4.2720003 -0.61173201 0.29225048 0
4.2690001 -0.6182726 0.29233706 0
4.2670002 -0.62495208 0.29239479 0
4.2650003 -0.6316244 0.29245251 0
4.2650003 -0.63859612 0.29245251 0
4.2650003 -0.64556783 0.29245251 0
4.2670002 -0.65285343 0.29239479 0
4.27 -0.6603049 0.29230821 0
4.2740002 -0.6679278 0.29219276 0
4.2820001 -0.67621452 0.29196188 0
4.145 -0.086531572 0.28916055 0
4.1370001 -0.093185827 0.28940588 0
4.1330004 -0.099868931 0.28952855 0
4.131 -0.10657008 0.28958988 0
4.131 -0.11330009 0.28958988 0
4.132 -0.12004994 0.28955922 0
4.1350002 -0.12684669 0.28946722 0
4.1400003 -0.13370116 0.28931388 0
4.1530004 -0.1407757 0.28891525 0
4.3580003 -0.29588154 0.28262898 0
4.3520002 -0.30263141 0.28281295 0
4.349 -0.30955982 0.28290495 0
4.348 -0.31661451 0.28293562 0
4.348 -0.32373595 0.28293562 0
3.9420002 -0.30156356 0.29538551 0
3.9330003 -0.30728704 0.29566148 0
3.9280002 -0.31328109 0.29581481 0
3.9250002 -0.31941223 0.29590681 0
3.9240003 -0.32569128 0.29593748 0
3.9240003 -0.33204791 0.29593748 0
3.9250002 -0.33848751 0.29590681 0
3.9280002 -0.34510028 0.29581481 0
3.9340003 -0.35198361 0.29563081 0
4.4550004 -0.4190366 0.2796545 0
4.4490004 -0.42578822 0.27983847 0
4.4440002 -0.43261382 0.27999181 0
4.4400001 -0.43951881 0.28011447 0
4.4380002 -0.44660777 0.28017581 0
4.4370003 -0.45379052 0.28020644 0
4.4370003 -0.4610725 0.28020644 0
4.4380002 -0.4684591 0.28017581 0
4.4410005 -0.47606218 0.28008381 0
4.4450002 -0.48378426 0.27996114 0
4.4510002 -0.49174085 0.27977714 0
4.1620002 -0.50744301 0.28863925 0
4.152 -0.51298428 0.28894591 0
4.1460004 -0.51899463 0.28912988 0
4.1430001 -0.52536744 0.28922188 0
4.1410003 -0.53185934 0.28928322 0
4.1410003 -0.53860742 0.28928322 0
4.1420002 -0.54548895 0.28925255 0
4.1460004 -0.55277991 0.28912988 0
4.1540003 -0.56063372 0.28888458 0
4.2930002 -0.59373361 0.28462219 0
4.2840004 -0.59947336 0.28489816 0
4.277 -0.60546917 0.2851128 0
4.2720003 -0.61173201 0.28526613 0
4.2690001 -0.6182726 0.28535813 0
4.2670002 -0.62495208 0.28541946 0
4.2650003 -0.6316244 0.2854808 0
4.2650003 -0.63859612 0.2854808 0
4.2650003 -0.64556783 0.2854808 0
4.2670002 -0.65285343 0.28541946 0
4.27 -0.6603049 0.28532746 0
4.2740002 -0.6679278 0.28520483 0
4.2820001 -0.67621452 0.2849595 0
4.145 -0.086531572 0.28240532 0
4.1370001 -0.093185827 0.28266504 0
4.1330004 -0.099868931 0.28279492 0
4.131 -0.10657008 0.28285986 0
4.131 -0.11330009 0.28285986 0
4.132 -0.12004994 0.28282738 0
4.1350002 -0.12684669 0.28272998 0
4.1400003 -0.13370116 0.28256762 0
4.1530004 -0.1407757 0.28214556 0
4.3580003 -0.29588154 0.27548951 0
4.3520002 -0.30263141 0.2756843 0
4.349 -0.30955982 0.27578172 0
4.348 -0.31661451 0.27581418 0
4.348 -0.32373595 0.27581418 0
3.9420002 -0.30156356 0.28899643 0
3.9330003 -0.30728704 0.28928864 0
3.9280002 -0.31328109 0.28945097 0
3.9250002 -0.31941223 0.2895484 0
3.9240003 -0.32569128 0.28958085 0
3.9240003 -0.33204791 0.28958085 0
3.9250002 -0.33848751 0.2895484 0
3.9280002 -0.34510028 0.28945097 0
3.9340003 -0.35198361 0.28925616 0
4.4550004 -0.4190366 0.27234006 0
4.4490004 -0.42578822 0.27253485 0
4.4440002 -0.43261382 0.27269721 0
4.4400001 -0.43951881 0.27282709 0
4.4380002 -0.44660777 0.272892 0
4.4370003 -0.45379052 0.27292448 0
4.4370003 -0.4610725 0.27292448 0
4.4380002 -0.4684591 0.272892 0
4.4410005 -0.47606218 0.2727946 0
4.4450002 -0.48378426 0.27266473 0
4.4510002 -0.49174085 0.27246994 0
4.1620002 -0.50744301 0.28185332 0
4.152 -0.51298428 0.28217801 0
4.1460004 -0.51899463 0.28237283 0
4.1430001 -0.52536744 0.28247023 0
4.1410003 -0.53185934 0.28253517 0
4.1410003 -0.53860742 0.28253517 0
4.1420002 -0.54548895 0.28250271 0
4.1460004 -0.55277991 0.28237283 0
4.1540003 -0.56063372 0.28211308 0
4.2930002 -0.59373361 0.27759993 0
4.2840004 -0.59947336 0.27789217 0
4.277 -0.60546917 0.27811944 0
4.2720003 -0.61173201 0.27828181 0
4.2690001 -0.6182726 0.2783792 0
4.2670002 -0.62495208 0.27844414 0
4.2650003 -0.6316244 0.27850908 0
4.2650003 -0.63859612 0.27850908 0
4.2650003 -0.64556783 0.27850908 0
4.2670002 -0.65285343 0.27844414 0
4.27 -0.6603049 0.27834672 0
4.2740002 -0.6679278 0.27821684 0
4.2820001 -0.67621452 0.27795708 0
4.145 -0.086531572 0.27565005 0
4.1370001 -0.093185827 0.27592421 0
4.1330004 -0.099868931 0.2760613 0
4.131 -0.10657008 0.27612984 0
4.131 -0.11330009 0.27612984 0
4.132 -0.12004994 0.27609557 0
4.1350002 -0.12684669 0.27599275 0
4.1400003 -0.13370116 0.27582139 0
4.1530004 -0.1407757 0.27537584 0
4.3580003 -0.29588154 0.26835003 0
4.3520002 -0.30263141 0.26855564 0
4.349 -0.30955982 0.26865846 0
4.348 -0.31661451 0.26869276 0
4.348 -0.32373595 0.26869276 0
3.9420002 -0.30156356 0.28260732 0
3.9330003 -0.30728704 0.28291577 0
3.9280002 -0.31328109 0.28308713 0
3.9250002 -0.31941223 0.28318995 0
3.9240003 -0.32569128 0.28322423 0
3.9240003 -0.33204791 0.28322423 0
3.9250002 -0.33848751 0.28318995 0
3.9280002 -0.34510028 0.28308713 0
3.9340003 -0.35198361 0.2828815 0
4.4550004 -0.4190366 0.26502562 0
4.4490004 -0.42578822 0.26523125 0
4.4440002 -0.43261382 0.26540262 0
4.4400001 -0.43951881 0.26553971 0
4.4380002 -0.44660777 0.26560825 0
4.4370003 -0.45379052 0.26564252 0
4.4370003 -0.4610725 0.26564252 0
4.4380002 -0.4684591 0.26560825 0
4.4410005 -0.47606218 0.26550543 0
4.4450002 -0.48378426 0.26536834 0
4.4510002 -0.49174085 0.26516271 0
4.1620002 -0.50744301 0.27506739 0
4.152 -0.51298428 0.27541012 0
4.1460004 -0.51899463 0.27561575 0
4.1430001 -0.52536744 0.27571857 0
4.1410003 -0.53185934 0.27578712 0
4.1410003 -0.53860742 0.27578712 0
4.1420002 -0.54548895 0.27575284 0
4.1460004 -0.55277991 0.27561575 0
4.1540003 -0.56063372 0.27534157 0
4.2930002 -0.59373361 0.27057773 0
4.2840004 -0.59947336 0.27088618 0
4.277 -0.60546917 0.27112609 0
4.2720003 -0.61173201 0.27129745 0
4.2690001 -0.6182726 0.27140027 0
4.2670002 -0.62495208 0.27146882 0
4.2650003 -0.6316244 0.27153736 0
4.2650003 -0.63859612 0.27153736 0
4.2650003 -0.64556783 0.27153736 0
4.2670002 -0.65285343 0.27146882 0
4.27 -0.6603049 0.271366 0
4.2740002 -0.6679278 0.27122891 0
4.2820001 -0.67621452 0.27095473 0
4.145 -0.086531572 0.26889479 0
4.1370001 -0.093185827 0.2691834 0
4.1330004 -0.099868931 0.2693277 0
4.131 -0.10657008 0.26939985 0
4.131 -0.11330009 0.26939985 0
4.132 -0.12004994 0.26936376 0
4.1350002 -0.12684669 0.26925552 0
4.1400003 -0.13370116 0.26907516 0
4.1530004 -0.1407757 0.26860619 0
4.3580003 -0.29588154 0.26121056 0
4.3520002 -0.30263141 0.26142702 0
4.349 -0.30955982 0.26153523 0
4.348 -0.31661451 0.26157132 0
4.348 -0.32373595 0.26157132 0
3.9420002 -0.30156356 0.27621824 0
3.9330003 -0.30728704 0.2765429 0
3.9280002 -0.31328109 0.2767233 0
3.9250002 -0.31941223 0.27683154 0
3.9240003 -0.32569128 0.27686763 0
3.9240003 -0.33204791 0.27686763 0
3.9250002 -0.33848751 0.27683154 0
3.9280002 -0.34510028 0.2767233 0
3.9340003 -0.35198361 0.27650684 0
4.4550004 -0.4190366 0.25771117 0
4.4490004 -0.42578822 0.25792763 0
4.4440002 -0.43261382 0.25810802 0
4.4400001 -0.43951881 0.25825232 0
4.4380002 -0.44660777 0.25832444 0
4.4370003 -0.45379052 0.25836053 0
4.4370003 -0.4610725 0.25836053 0
4.4380002 -0.4684591 0.25832444 0
4.4410005 -0.47606218 0.25821623 0
4.4450002 -0.48378426 0.25807193 0
4.4510002 -0.49174085 0.25785547 0
4.1620002 -0.50744301 0.26828146 0
4.152 -0.51298428 0.26864225 0
4.1460004 -0.51899463 0.2688587 0
4.1430001 -0.52536744 0.26896691 0
4.1410003 -0.53185934 0.26903909 0
4.1410003 -0.53860742 0.26903909 0
4.1420002 -0.54548895 0.269003 0
4.1460004 -0.55277991 0.2688587 0
4.1540003 -0.56063372 0.2685701 0
4.2930002 -0.59373361 0.26355553 0
4.2840004 -0.59947336 0.26388019 0
4.277 -0.60546917 0.26413274 0
4.2720003 -0.61173201 0.2643131 0
4.2690001 -0.6182726 0.26442134 0
4.2670002 -0.62495208 0.26449347 0
4.2650003 -0.6316244 0.26456565 0
4.2650003 -0.63859612 0.26456565 0
4.2650003 -0.64556783 0.26456565 0
4.2670002 -0.65285343 0.26449347 0
4.27 -0.6603049 0.26438528 0
4.2740002 -0.6679278 0.26424095 0
4.2820001 -0.67621452 0.26395231 0
4.145 -0.086531572 0.2621395 0
4.1370001 -0.093185827 0.26244256 0
4.1330004 -0.099868931 0.26259407 0
4.131 -0.10657008 0.26266983 0
4.131 -0.11330009 0.26266983 0
4.132 -0.12004994 0.26263195 0
4.1350002 -0.12684669 0.26251832 0
4.1400003 -0.13370116 0.26232892 0
4.1530004 -0.1407757 0.26183647 0
4.3580003 -0.29588154 0.25407109 0
4.3520002 -0.30263141 0.25429836 0
4.349 -0.30955982 0.254412 0
4.348 -0.31661451 0.25444987 0
4.348 -0.32373595 0.25444987 0
3.9420002 -0.30156356 0.26982915 0
3.9330003 -0.30728704 0.27017006 0
3.9280002 -0.31328109 0.27035946 0
3.9250002 -0.31941223 0.27047312 0
3.9240003 -0.32569128 0.27051097 0
3.9240003 -0.33204791 0.27051097 0
3.9250002 -0.33848751 0.27047312 0
3.9280002 -0.34510028 0.27035946 0
3.9340003 -0.35198361 0.27013218 0
4.4550004 -0.4190366 0.25039673 0
4.4490004 -0.42578822 0.250624 0
4.4440002 -0.43261382 0.25081342 0
4.4400001 -0.43951881 0.25096494 0
4.4380002 -0.44660777 0.2510407 0
4.4370003 -0.45379052 0.25107858 0
4.4370003 -0.4610725 0.25107858 0
4.4380002 -0.4684591 0.2510407 0
4.4410005 -0.47606218 0.25092703 0
4.4450002 -0.48378426 0.25077552 0
4.4510002 -0.49174085 0.25054824 0
4.1620002 -0.50744301 0.26149556 0
4.152 -0.51298428 0.26187438 0
4.1460004 -0.51899463 0.26210165 0
4.1430001 -0.52536744 0.26221526 0
4.1410003 -0.53185934 0.26229101 0
4.1410003 -0.53860742 0.26229101 0
4.1420002 -0.54548895 0.26225317 0
4.1460004 -0.55277991 0.26210165 0
4.1540003 -0.56063372 0.26179859 0
4.2930002 -0.59373361 0.25653327 0
4.2840004 -0.59947336 0.2568742 0
4.277 -0.60546917 0.25713938 0
4.2720003 -0.61173201 0.25732875 0
4.2690001 -0.6182726 0.25744241 0
4.2670002 -0.62495208 0.25751817 0
4.2650003 -0.6316244 0.25759393 0
4.2650003 -0.63859612 0.25759393 0
4.2650003 -0.64556783 0.25759393 0
4.2670002 -0.65285343 0.25751817 0
4.27 -0.6603049 0.25740451 0
4.2740002 -0.6679278 0.25725299 0
4.2820001 -0.67621452 0.25694996 0
4.145 -0.086531572 0.25538427 0
4.1370001 -0.093185827 0.25570172 0
4.1330004 -0.099868931 0.25586045 0
4.131 -0.10657008 0.25593984 0
4.131 -0.11330009 0.25593984 0
4.132 -0.12004994 0.25590014 0
4.1350002 -0.12684669 0.25578108 0
4.1400003 -0.13370116 0.25558269 0
4.1530004 -0.1407757 0.25506675 0
4.3580003 -0.29588154 0.24693161 0
4.3520002 -0.30263141 0.24716972 0
4.349 -0.30955982 0.24728876 0
4.348 -0.31661451 0.24732845 0
4.348 -0.32373595 0.24732845 0
3.9420002 -0.30156356 0.26344007 0
3.9330003 -0.30728704 0.26379722 0
3.9280002 -0.31328109 0.26399565 0
3.9250002 -0.31941223 0.26411468 0
3.9240003 -0.32569128 0.26415437 0
3.9240003 -0.33204791 0.26415437 0
3.9250002 -0.33848751 0.26411468 0
3.9280002 -0.34510028 0.26399565 0
3.9340003 -0.35198361 0.26375753 0
4.4550004 -0.4190366 0.24308227 0
4.4490004 -0.42578822 0.24332039 0
4.4440002 -0.43261382 0.2435188 0
4.4400001 -0.43951881 0.24367756 0
4.4380002 -0.44660777 0.24375692 0
4.4370003 -0.45379052 0.24379659 0
4.4370003 -0.4610725 0.24379659 0
4.4380002 -0.4684591 0.24375692 0
4.4410005 -0.47606218 0.24363784 0
4.4450002 -0.48378426 0.24347912 0
4.4510002 -0.49174085 0.24324103 0
4.1620002 -0.50744301 0.25470963 0
4.152 -0.51298428 0.25510648 0
4.1460004 -0.51899463 0.25534457 0
4.1430001 -0.52536744 0.2554636 0
4.1410003 -0.53185934 0.25554299 0
4.1410003 -0.53860742 0.25554299 0
4.1420002 -0.54548895 0.2555033 0
4.1460004 -0.55277991 0.25534457 0
4.1540003 -0.56063372 0.25502712 0
4.2930002 -0.59373361 0.24951105 0
4.2840004 -0.59947336 0.2498682 0
4.277 -0.60546917 0.250146 0
4.2720003 -0.61173201 0.2503444 0
4.2690001 -0.6182726 0.25046349 0
4.2670002 -0.62495208 0.25054282 0
4.2650003 -0.6316244 0.25062221 0
4.2650003 -0.63859612 0.25062221 0
4.2650003 -0.64556783 0.25062221 0
4.2670002 -0.65285343 0.25054282 0
4.27 -0.6603049 0.25042379 0
4.2740002 -0.6679278 0.25026506 0
4.2820001 -0.67621452 0.24994758 0
4.145 -0.086531572 0.24862899 0
4.1370001 -0.093185827 0.2489609 0
4.1330004 -0.099868931 0.24912684 0
4.131 -0.10657008 0.24920982 0
4.131 -0.11330009 0.24920982 0
4.132 -0.12004994 0.24916832 0
4.1350002 -0.12684669 0.24904387 0
4.1400003 -0.13370116 0.24883643 0
4.1530004 -0.1407757 0.24829708 0
4.3580003 -0.29588154 0.23979214 0
4.3520002 -0.30263141 0.24004106 0
4.349 -0.30955982 0.24016553 0
4.348 -0.31661451 0.24020702 0
4.348 -0.32373595 0.24020702 0
3.9420002 -0.30156356 0.25705099 0
3.9330003 -0.30728704 0.25742435 0
3.9280002 -0.31328109 0.25763178 0
3.9250002 -0.31941223 0.25775626 0
3.9240003 -0.32569128 0.25779775 0
3.9240003 -0.33204791 0.25779775 0
3.9250002 -0.33848751 0.25775626 0
3.9280002 -0.34510028 0.25763178 0
3.9340003 -0.35198361 0.25738287 0
4.4550004 -0.4190366 0.23576784 0
4.4490004 -0.42578822 0.23601677 0
4.4440002 -0.43261382 0.2362242 0
4.4400001 -0.43951881 0.23639016 0
4.4380002 -0.44660777 0.23647313 0
4.4370003 -0.45379052 0.23651461 0
4.4370003 -0.4610725 0.23651461 0
4.4380002 -0.4684591 0.23647313 0
4.4410005 -0.47606218 0.23634866 0
4.4450002 -0.48378426 0.23618272 0
4.4510002 -0.49174085 0.2359338 0
4.1620002 -0.50744301 0.2479237 0
4.152 -0.51298428 0.24833858 0
4.1460004 -0.51899463 0.2485875 0
4.1430001 -0.52536744 0.24871197 0
4.1410003 -0.53185934 0.24879494 0
4.1410003 -0.53860742 0.24879494 0
4.1420002 -0.54548895 0.24875346 0
4.1460004 -0.55277991 0.2485875 0
4.1540003 -0.56063372 0.24825561 0
4.2930002 -0.59373361 0.24248883 0
4.2840004 -0.59947336 0.24286221 0
4.277 -0.60546917 0.24315263 0
4.2720003 -0.61173201 0.24336006 0
4.2690001 -0.6182726 0.24348453 0
4.2670002 -0.62495208 0.24356751 0
4.2650003 -0.6316244 0.24365048 0
4.2650003 -0.63859612 0.24365048 0
4.2650003 -0.64556783 0.24365048 0
4.2670002 -0.65285343 0.24356751 0
4.27 -0.6603049 0.24344304 0
4.2740002 -0.6679278 0.24327709 0
4.2820001 -0.67621452 0.24294519 0
4.145 -0.086531572 0.24187373 0
4.1370001 -0.093185827 0.24222006 0
4.1330004 -0.099868931 0.24239321 0
4.131 -0.10657008 0.2424798 0
4.131 -0.11330009 0.2424798 0
4.132 -0.12004994 0.24243653 0
4.1350002 -0.12684669 0.24230665 0
4.1400003 -0.13370116 0.24209018 0
4.1530004 -0.1407757 0.24152739 0
4.3580003 -0.29588154 0.23265266 0
4.3520002 -0.30263141 0.23291241 0
4.349 -0.30955982 0.23304228 0
4.348 -0.31661451 0.23308557 0
4.348 -0.32373595 0.23308557 0
3.9420002 -0.30156356 0.25066188 0
3.9330003 -0.30728704 0.25105149 0
3.9280002 -0.31328109 0.25126797 0
3.9250002 -0.31941223 0.25139785 0
3.9240003 -0.32569128 0.25144112 0
3.9240003 -0.33204791 0.25144112 0
3.9250002 -0.33848751 0.25139785 0
3.9280002 -0.34510028 0.25126797 0
3.9340003 -0.35198361 0.25100821 0
4.4550004 -0.4190366 0.2284534 0
4.4490004 -0.42578822 0.22871314 0
4.4440002 -0.43261382 0.22892961 0
4.4400001 -0.43951881 0.22910278 0
4.4380002 -0.44660777 0.22918935 0
4.4370003 -0.45379052 0.22923265 0
4.4370003 -0.4610725 0.22923265 0
4.4380002 -0.4684591 0.22918935 0
4.4410005 -0.47606218 0.22905947 0
4.4450002 -0.48378426 0.22888632 0
4.4510002 -0.49174085 0.22862658 0
4.1620002 -0.50744301 0.24113779 0
4.152 -0.51298428 0.2415707 0
4.1460004 -0.51899463 0.24183044 0
4.1430001 -0.52536744 0.2419603 0
4.1410003 -0.53185934 0.24204689 0
4.1410003 -0.53860742 0.24204689 0
4.1420002 -0.54548895 0.24200362 0
4.1460004 -0.55277991 0.24183044 0
4.1540003 -0.56063372 0.24148411 0
4.2930002 -0.59373361 0.2354666 0
4.2840004 -0.59947336 0.23585624 0
4.277 -0.60546917 0.23615927 0
4.2720003 -0.61173201 0.23637572 0
4.2690001 -0.6182726 0.2365056 0
4.2670002 -0.62495208 0.23659219 0
4.2650003 -0.6316244 0.23667875 0
4.2650003 -0.63859612 0.23667875 0
4.2650003 -0.64556783 0.23667875 0
4.2670002 -0.65285343 0.23659219 0
4.27 -0.6603049 0.23646231 0
4.2740002 -0.6679278 0.23628916 0
4.2820001 -0.67621452 0.23594281 0
4.145 -0.086531572 0.23511848 0
4.1370001 -0.093185827 0.23547924 0
4.1330004 -0.099868931 0.23565961 0
4.131 -0.10657008 0.23574981 0
4.131 -0.11330009 0.23574981 0
4.132 -0.12004994 0.23570471 0
4.1350002 -0.12684669 0.23556943 0
4.1400003 -0.13370116 0.23534393 0
4.1530004 -0.1407757 0.23475771 0
4.3580003 -0.29588154 0.22551319 0
4.3520002 -0.30263141 0.22578377 0
4.349 -0.30955982 0.22591904 0
4.348 -0.31661451 0.22596414 0
4.348 -0.32373595 0.22596414 0
3.9420002 -0.30156356 0.2442728 0
3.9330003 -0.30728704 0.24467865 0
3.9280002 -0.31328109 0.24490413 0
3.9250002 -0.31941223 0.24503942 0
3.9240003 -0.32569128 0.24508451 0
3.9240003 -0.33204791 0.24508451 0
3.9250002 -0.33848751 0.24503942 0
3.9280002 -0.34510028 0.24490413 0
3.9340003 -0.35198361 0.24463356 0
4.4550004 -0.4190366 0.22113895 0
4.4490004 -0.42578822 0.22140953 0
4.4440002 -0.43261382 0.221635 0
4.4400001 -0.43951881 0.22181539 0
4.4380002 -0.44660777 0.22190557 0
4.4370003 -0.45379052 0.22195067 0
4.4370003 -0.4610725 0.22195067 0
4.4380002 -0.4684591 0.22190557 0
4.4410005 -0.47606218 0.22177029 0
4.4450002 -0.48378426 0.22158991 0
4.4510002 -0.49174085 0.22131935 0
4.1620002 -0.50744301 0.23435186 0
4.152 -0.51298428 0.2348028 0
4.1460004 -0.51899463 0.23507336 0
4.1430001 -0.52536744 0.23520866 0
4.1410003 -0.53185934 0.23529886 0
4.1410003 -0.53860742 0.23529886 0
4.1420002 -0.54548895 0.23525375 0
4.1460004 -0.55277991 0.23507336 0
4.1540003 -0.56063372 0.23471262 0
4.2930002 -0.59373361 0.22844438 0
4.2840004 -0.59947336 0.22885023 0
4.277 -0.60546917 0.2291659 0
4.2720003 -0.61173201 0.22939138 0
4.2690001 -0.6182726 0.22952665 0
4.2670002 -0.62495208 0.22961685 0
4.2650003 -0.6316244 0.22970703 0
4.2650003 -0.63859612 0.22970703 0
4.2650003 -0.64556783 0.22970703 0
4.2670002 -0.65285343 0.22961685 0
4.27 -0.6603049 0.22948158 0
4.2740002 -0.6679278 0.2293012 0
4.2820001 -0.67621452 0.22894043 0
4.145 -0.086531572 0.22836322 0
4.1370001 -0.093185827 0.2287384 0
4.1330004 -0.099868931 0.22892599 0
4.131 -0.10657008 0.22901979 0
4.131 -0.11330009 0.22901979 0
4.132 -0.12004994 0.2289729 0
4.1350002 -0.12684669 0.2288322 0
4.1400003 -0.13370116 0.2285977 0
4.1530004 -0.1407757 0.22798802 0
4.3580003 -0.29588154 0.21837372 0
4.3520002 -0.30263141 0.21865511 0
4.349 -0.30955982 0.21879581 0
4.348 -0.31661451 0.21884272 0
4.348 -0.32373595 0.21884272 0
3.9420002 -0.30156356 0.2378837 0
3.9330003 -0.30728704 0.23830579 0
3.9280002 -0.31328109 0.23854029 0
3.9250002 -0.31941223 0.23868099 0
3.9240003 -0.32569128 0.23872788 0
3.9240003 -0.33204791 0.23872788 0
3.9250002 -0.33848751 0.23868099 0
3.9280002 -0.34510028 0.23854029 0
3.9340003 -0.35198361 0.2382589 0
4.4550004 -0.4190366 0.21382451 0
4.4490004 -0.42578822 0.2141059 0
4.4440002 -0.43261382 0.2143404 0
4.4400001 -0.43951881 0.21452801 0
4.4380002 -0.44660777 0.2146218 0
4.4370003 -0.45379052 0.21466869 0
4.4370003 -0.4610725 0.21466869 0
4.4380002 -0.4684591 0.2146218 0
4.4410005 -0.47606218 0.21448109 0
4.4450002 -0.48378426 0.21429351 0
4.4510002 -0.49174085 0.21401212 0
4.1620002 -0.50744301 0.22756593 0
4.152 -0.51298428 0.22803491 0
4.1460004 -0.51899463 0.22831629 0
4.1430001 -0.52536744 0.228457 0
4.1410003 -0.53185934 0.22855079 0
4.1410003 -0.53860742 0.22855079 0
4.1420002 -0.54548895 0.22850391 0
4.1460004 -0.55277991 0.22831629 0
4.1540003 -0.56063372 0.22794111 0
4.2930002 -0.59373361 0.22142215 0
4.2840004 -0.59947336 0.22184424 0
4.277 -0.60546917 0.22217254 0
4.2720003 -0.61173201 0.22240703 0
4.2690001 -0.6182726 0.22254774 0
4.2670002 -0.62495208 0.22264154 0
4.2650003 -0.6316244 0.22273533 0
4.2650003 -0.63859612 0.22273533 0
4.2650003 -0.64556783 0.22273533 0
4.2670002 -0.65285343 0.22264154 0
4.27 -0.6603049 0.22250083 0
4.2740002 -0.6679278 0.22231324 0
4.2820001 -0.67621452 0.22193804 0
4.145 -0.086531572 0.22160794 0
4.1370001 -0.093185827 0.22199756 0
4.1330004 -0.099868931 0.22219238 0
4.131 -0.10657008 0.22228979 0
4.131 -0.11330009 0.22228979 0
4.132 -0.12004994 0.22224109 0
4.1350002 -0.12684669 0.22209498 0
4.1400003 -0.13370116 0.22185147 0
4.1530004 -0.1407757 0.22121832 0
4.3580003 -0.29588154 0.21123424 0
4.3520002 -0.30263141 0.21152647 0
4.349 -0.30955982 0.21167257 0
4.348 -0.31661451 0.21172127 0
4.348 -0.32373595 0.21172127 0
3.9420002 -0.30156356 0.23149462 0
3.9330003 -0.30728704 0.23193294 0
3.9280002 -0.31328109 0.23217645 0
3.9250002 -0.31941223 0.23232257 0
3.9240003 -0.32569128 0.23237127 0
3.9240003 -0.33204791 0.23237127 0
3.9250002 -0.33848751 0.23232257 0
3.9280002 -0.34510028 0.23217645 0
3.9340003 -0.35198361 0.23188424 0
4.4550004 -0.4190366 0.20651007 0
4.4490004 -0.42578822 0.20680228 0
4.4440002 -0.43261382 0.20704581 0
4.4400001 -0.43951881 0.20724061 0
4.4380002 -0.44660777 0.20733802 0
4.4370003 -0.45379052 0.20738672 0
4.4370003 -0.4610725 0.20738672 0
4.4380002 -0.4684591 0.20733802 0
4.4410005 -0.47606218 0.2071919 0
4.4450002 -0.48378426 0.2069971 0
4.4510002 -0.49174085 0.20670488 0
4.1620002 -0.50744301 0.22078 0
4.152 -0.51298428 0.22126703 0
4.1460004 -0.51899463 0.22155924 0
4.1430001 -0.52536744 0.22170535 0
4.1410003 -0.53185934 0.22180276 0
4.1410003 -0.53860742 0.22180276 0
4.1420002 -0.54548895 0.22175406 0
4.1460004 -0.55277991 0.22155924 0
4.1540003 -0.56063372 0.22116962 0
4.2930002 -0.59373361 0.21439993 0
4.2840004 -0.59947336 0.21483824 0
4.277 -0.60546917 0.21517918 0
4.2720003 -0.61173201 0.21542269 0
4.2690001 -0.6182726 0.2155688 0
4.2670002 -0.62495208 0.2156662 0
4.2650003 -0.6316244 0.21576361 0
4.2650003 -0.63859612 0.21576361 0
4.2650003 -0.64556783 0.21576361 0
4.2670002 -0.65285343 0.2156662 0
4.27 -0.6603049 0.21552008 0
4.2740002 -0.6679278 0.2153253 0
4.2820001 -0.67621452 0.21493566 0
4.145 -0.086531572 0.21485269 0
4.1370001 -0.093185827 0.21525672 0
4.1330004 -0.099868931 0.21545875 0
4.131 -0.10657008 0.21555978 0
4.131 -0.11330009 0.21555978 0
4.132 -0.12004994 0.21550928 0
4.1350002 -0.12684669 0.21535775 0
4.1400003 -0.13370116 0.21510521 0
4.1530004 -0.1407757 0.21444863 0
4.3580003 -0.29588154 0.20409477 0
4.3520002 -0.30263141 0.20439781 0
4.349 -0.30955982 0.20454933 0
4.348 -0.31661451 0.20459983 0
4.348 -0.32373595 0.20459983 0
3.9420002 -0.30156356 0.22510554 0
3.9330003 -0.30728704 0.22556008 0
3.9280002 -0.31328109 0.22581263 0
3.9250002 -0.31941223 0.22596414 0
3.9240003 -0.32569128 0.22601464 0
3.9240003 -0.33204791 0.22601464 0
3.9250002 -0.33848751 0.22596414 0
3.9280002 -0.34510028 0.22581263 0
3.9340003 -0.35198361 0.22550958 0
4.4550004 -0.4190366 0.19919562 0
4.4490004 -0.42578822 0.19949865 0
4.4440002 -0.43261382 0.19975121 0
4.4400001 -0.43951881 0.19995324 0
4.4380002 -0.44660777 0.20005424 0
4.4370003 -0.45379052 0.20010476 0
4.4370003 -0.4610725 0.20010476 0
4.4380002 -0.4684591 0.20005424 0
4.4410005 -0.47606218 0.19990271 0
4.4450002 -0.48378426 0.1997007 0
4.4510002 -0.49174085 0.19939767 0
4.1620002 -0.50744301 0.21399409 0
4.152 -0.51298428 0.21449915 0
4.1460004 -0.51899463 0.21480218 0
4.1430001 -0.52536744 0.21495369 0
4.1410003 -0.53185934 0.21505472 0
4.1410003 -0.53860742 0.21505472 0
4.1420002 -0.54548895 0.21500421 0
4.1460004 -0.55277991 0.21480218 0
4.1540003 -0.56063372 0.21439812 0
4.2930002 -0.59373361 0.2073777 0
4.2840004 -0.59947336 0.20783226 0
4.277 -0.60546917 0.20818582 0
4.2720003 -0.61173201 0.20843834 0
4.2690001 -0.6182726 0.20858985 0
4.2670002 -0.62495208 0.20869088 0
4.2650003 -0.6316244 0.20879188 0
4.2650003 -0.63859612 0.20879188 0
4.2650003 -0.64556783 0.20879188 0
4.2670002 -0.65285343 0.20869088 0
4.27 -0.6603049 0.20853937 0
4.2740002 -0.6679278 0.20833734 0
4.2820001 -0.67621452 0.20793328 0
4.145 -0.086531572 0.20809743 0
4.1370001 -0.093185827 0.2085159 0
4.1330004 -0.099868931 0.20872514 0
4.131 -0.10657008 0.20882976 0
4.131 -0.11330009 0.20882976 0
4.132 -0.12004994 0.20877746 0
4.1350002 -0.12684669 0.20862053 0
4.1400003 -0.13370116 0.20835897 0
4.1530004 -0.1407757 0.20767894 0
4.3580003 -0.29588154 0.19695529 0
4.3520002 -0.30263141 0.19726917 0
4.349 -0.30955982 0.1974261 0
4.348 -0.31661451 0.1974784 0
4.348 -0.32373595 0.1974784 0
3.9420002 -0.30156356 0.21871644 0
3.9330003 -0.30728704 0.21918723 0
3.9280002 -0.31328109 0.21944879 0
3.9250002 -0.31941223 0.21960571 0
3.9240003 -0.32569128 0.21965802 0
3.9240003 -0.33204791 0.21965802 0
3.9250002 -0.33848751 0.21960571 0
3.9280002 -0.34510028 0.21944879 0
3.9340003 -0.35198361 0.21913491 0
4.4550004 -0.4190366 0.19188118 0
4.4490004 -0.42578822 0.19219504 0
4.4440002 -0.43261382 0.1924566 0
4.4400001 -0.43951881 0.19266586 0
4.4380002 -0.44660777 0.19277047 0
4.4370003 -0.45379052 0.19282277 0
4.4370003 -0.4610725 0.19282277 0
4.4380002 -0.4684591 0.19277047 0
4.4410005 -0.47606218 0.19261353 0
4.4450002 -0.48378426 0.1924043 0
4.4510002 -0.49174085 0.19209044 0
4.1620002 -0.50744301 0.20720816 0
4.152 -0.51298428 0.20773125 0
4.1460004 -0.51899463 0.2080451 0
4.1430001 -0.52536744 0.20820205 0
4.1410003 -0.53185934 0.20830666 0
4.1410003 -0.53860742 0.20830666 0
4.1420002 -0.54548895 0.20825435 0
4.1460004 -0.55277991 0.2080451 0
4.1540003 -0.56063372 0.20762663 0
4.2930002 -0.59373361 0.20035549 0
4.2840004 -0.59947336 0.20082626 0
4.277 -0.60546917 0.20119244 0
4.2720003 -0.61173201 0.20145398 0
4.2690001 -0.6182726 0.20161092 0
4.2670002 -0.62495208 0.20171554 0
4.2650003 -0.6316244 0.20182016 0
4.2650003 -0.63859612 0.20182016 0
4.2650003 -0.64556783 0.20182016 0
4.2670002 -0.65285343 0.20171554 0
4.27 -0.6603049 0.20155862 0
4.2740002 -0.6679278 0.20134938 0
4.2820001 -0.67621452 0.20093089 0
4.145 -0.086531572 0.20134215 0
4.1370001 -0.093185827 0.20177507 0
4.1330004 -0.099868931 0.20199153 0
4.131 -0.10657008 0.20209976 0
4.131 -0.11330009 0.20209976 0
4.132 -0.12004994 0.20204563 0
4.1350002 -0.12684669 0.2018833 0
4.1400003 -0.13370116 0.20161273 0
4.1530004 -0.1407757 0.20090923 0
4.3580003 -0.29588154 0.18981582 0
