# .PCD v0.7 - Point Cloud Data file format
VERSION 0.7
FIELDS x y z intensity
SIZE 4 4 4 4
TYPE F F F F
COUNT 1 1 1 1
WIDTH 1395
HEIGHT 1
VIEWPOINT 0 0 0 1 0 0 0
POINTS 1395
DATA ascii
2.7410002 0.12290859 0.42089087 0
2.7410002 0.11868589 0.42089087 0
2.7420001 0.11453171 0.42089808 0
2.7430003 0.11037394 0.42090529 0
2.7430003 0.10614762 0.42090529 0
2.7440002 0.10198441 0.4209125 0
2.7450001 0.09781763 0.42091975 0
2.7450001 0.093587697 0.42091975 0
2.7460003 0.089415491 0.42092696 0
2.7470002 0.085239679 0.42093417 0
2.7470002 0.08100614 0.42093417 0
2.7480001 0.076824903 0.42094138 0
2.7480001 0.072589561 0.42094138 0
2.7490003 0.068402931 0.42094859 0
2.7500002 0.06421268 0.42095581 0
2.7500002 0.059973735 0.42095581 0
2.7510002 0.055778075 0.42096302 0
2.7520001 0.051578809 0.42097023 0
2.7520001 0.047336247 0.42097023 0
2.7530003 0.043131579 0.42097747 0
2.7540002 0.03892329 0.42098469 0
2.7540002 0.034677129 0.42098469 0
2.7550001 0.030463424 0.4209919 0
2.7560003 0.026246127 0.42099911 0
2.7560003 0.02199636 0.42099911 0
2.7570002 0.017773639 0.42100632 0
2.7580001 0.013547316 0.42101353 0
2.7580001 0.0092939362 0.42101353 0
2.7590003 0.0050622039 0.42102075 0
2.7600002 0.00082686171 0.42102796 0
2.7600002 -0.0034301244 0.42102796 0
2.7610002 -0.0076708794 0.42103517 0
2.7620003 -0.011915237 0.42104238 0
2.7620003 -0.016175833 0.42104238 0
2.7630002 -0.020425607 0.42104959 0
2.7640002 -0.024678987 0.42105684 0
2.7640002 -0.02894319 0.42105684 0
2.7650001 -0.033201981 0.42106405 0
2.7650001 -0.037467986 0.42106405 0
2.7660003 -0.041732188 0.42107126 0
2.7670002 -0.046 0.42107847 0
2.7060001 0.34500065 0.41647875 0
2.7070003 0.34100884 0.41648418 0
2.7080002 0.33701342 0.41648957 0
2.7080002 0.33285025 0.41648957 0
2.7090001 0.32884938 0.416495 0
2.7100003 0.32484493 0.41650042 0
2.7100003 0.32067814 0.41650042 0
2.7110002 0.31666827 0.41650581 0
2.7110002 0.31249964 0.41650581 0
2.7120001 0.30848438 0.41651124 0
2.7130003 0.30446553 0.41651663 0
2.7130003 0.30029333 0.41651663 0
2.7140002 0.296269 0.41652206 0
2.7150002 0.29224107 0.41652745 0
2.7150002 0.28806528 0.41652745 0
2.7160003 0.28403199 0.41653287 0
2.7160003 0.27985436 0.41653287 0
2.7170002 0.27581564 0.4165383 0
2.7180002 0.27177328 0.41654369 0
2.7180002 0.26759204 0.41654369 0
2.7190001 0.26354429 0.41654912 0
2.7200003 0.25949296 0.41655451 0
2.7200003 0.25530812 0.41655451 0
2.7210002 0.25125134 0.41655993 0
2.7220001 0.24719098 0.41656533 0
2.7220001 0.24300253 0.41656533 0
2.7230003 0.23893678 0.41657075 0
2.7230003 0.23474652 0.41657075 0
2.7240002 0.23067531 0.41657618 0
2.7250001 0.2266005 0.41658157 0
2.7250001 0.22240666 0.41658157 0
2.7260003 0.21832645 0.416587 0
2.7270002 0.21424261 0.41659239 0
2.7270002 0.21004516 0.41659239 0
2.7280002 0.20595592 0.41659781 0
2.7290001 0.20186307 0.41660321 0
2.7290001 0.19766201 0.41660321 0
2.7300003 0.19356377 0.41660863 0
2.7300003 0.1893609 0.41660863 0
2.7310002 0.18525723 0.41661406 0
2.7320001 0.18114994 0.41661945 0
2.7320001 0.17694347 0.41661945 0
2.7330003 0.17283081 0.41662487 0
2.7340002 0.16871451 0.41663027 0
2.7340002 0.16450441 0.41663027 0
2.7350001 0.1603827 0.41663569 0
2.7360003 0.15625741 0.41664112 0
2.7360003 0.15204372 0.41664112 0
2.7370002 0.14791299 0.41664651 0
2.7380002 0.14377865 0.41665193 0
2.7380002 0.13956136 0.41665193 0
2.7390003 0.13542163 0.41665733 0
2.7390003 0.13120252 0.41665733 0
2.7400002 0.12705736 0.41666275 0
2.7410002 0.12290859 0.41666815 0
2.7410002 0.11868589 0.41666815 0
2.7420001 0.11453171 0.41667357 0
2.7430003 0.11037394 0.41667899 0
2.7430003 0.10614762 0.41667899 0
2.7440002 0.10198441 0.41668439 0
2.7450001 0.09781763 0.41668981 0
2.7450001 0.093587697 0.41668981 0
2.7460003 0.089415491 0.41669521 0
2.7470002 0.085239679 0.41670063 0
2.7470002 0.08100614 0.41670063 0
2.7480001 0.076824903 0.41670603 0
2.7480001 0.072589561 0.41670603 0
2.7490003 0.068402931 0.41671145 0
2.7500002 0.06421268 0.41671687 0
2.7500002 0.059973735 0.41671687 0
2.7510002 0.055778075 0.41672227 0
2.7520001 0.051578809 0.41672769 0
2.7520001 0.047336247 0.41672769 0
2.7530003 0.043131579 0.41673309 0
2.7540002 0.03892329 0.41673851 0
2.7540002 0.034677129 0.41673851 0
2.7550001 0.030463424 0.4167439 0
2.7560003 0.026246127 0.41674933 0
2.7560003 0.02199636 0.41674933 0
2.7570002 0.017773639 0.41675475 0
2.7580001 0.013547316 0.41676015 0
2.7580001 0.0092939362 0.41676015 0
2.7590003 0.0050622039 0.41676557 0
2.7600002 0.00082686171 0.41677096 0
2.7600002 -0.0034301244 0.41677096 0
2.7610002 -0.0076708794 0.41677639 0
2.7620003 -0.011915237 0.41678181 0
2.7620003 -0.016175833 0.41678181 0
2.7630002 -0.020425607 0.41678721 0
2.7640002 -0.024678987 0.41679263 0
2.7640002 -0.02894319 0.41679263 0
2.7650001 -0.033201981 0.41679803 0
2.7650001 -0.037467986 0.41679803 0
2.7660003 -0.041732188 0.41680345 0
2.7670002 -0.046 0.41680884 0
2.7060001 0.34500065 0.41231918 0
2.7070003 0.34100884 0.41232279 0
2.7080002 0.33701342 0.4123264 0
2.7080002 0.33285025 0.4123264 0
2.7090001 0.32884938 0.41233 0
2.7100003 0.32484493 0.41233361 0
2.7100003 0.32067814 0.41233361 0
2.7110002 0.31666827 0.41233721 0
2.7110002 0.31249964 0.41233721 0
2.7120001 0.30848438 0.41234082 0
2.7130003 0.30446553 0.41234443 0
2.7130003 0.30029333 0.41234443 0
2.7140002 0.296269 0.41234803 0
2.7150002 0.29224107 0.41235164 0
2.7150002 0.28806528 0.41235164 0
2.7160003 0.28403199 0.41235524 0
2.7160003 0.27985436 0.41235524 0
2.7170002 0.27581564 0.41235885 0
2.7180002 0.27177328 0.41236246 0
2.7180002 0.26759204 0.41236246 0
2.7190001 0.26354429 0.41236606 0
2.7200003 0.25949296 0.4123697 0
2.7200003 0.25530812 0.4123697 0
2.7210002 0.25125134 0.4123733 0
2.7220001 0.24719098 0.41237691 0
2.7220001 0.24300253 0.41237691 0
2.7230003 0.23893678 0.41238052 0
2.7230003 0.23474652 0.41238052 0
2.7240002 0.23067531 0.41238412 0
2.7250001 0.2266005 0.41238773 0
2.7250001 0.22240666 0.41238773 0
2.7260003 0.21832645 0.41239133 0
2.7270002 0.21424261 0.41239494 0
2.7270002 0.21004516 0.41239494 0
2.7280002 0.20595592 0.41239855 0
2.7290001 0.20186307 0.41240215 0
2.7290001 0.19766201 0.41240215 0
2.7300003 0.19356377 0.41240576 0
2.7300003 0.1893609 0.41240576 0
2.7310002 0.18525723 0.41240937 0
2.7320001 0.18114994 0.41241297 0
2.7320001 0.17694347 0.41241297 0
2.7330003 0.17283081 0.41241658 0
2.7340002 0.16871451 0.41242018 0
2.7340002 0.16450441 0.41242018 0
2.7350001 0.1603827 0.41242379 0
2.7360003 0.15625741 0.4124274 0
2.7360003 0.15204372 0.4124274 0
2.7370002 0.14791299 0.412431 0
2.7380002 0.14377865 0.41243461 0
2.7380002 0.13956136 0.41243461 0
2.7390003 0.13542163 0.41243824 0
2.7390003 0.13120252 0.41243824 0
2.7400002 0.12705736 0.41244185 0
2.7410002 0.12290859 0.41244546 0
2.7410002 0.11868589 0.41244546 0
2.7420001 0.11453171 0.41244906 0
2.7430003 0.11037394 0.41245267 0
2.7430003 0.10614762 0.41245267 0
2.7440002 0.10198441 0.41245627 0
2.7450001 0.09781763 0.41245988 0
2.7450001 0.093587697 0.41245988 0
2.7460003 0.089415491 0.41246349 0
2.7470002 0.085239679 0.41246709 0
2.7470002 0.08100614 0.41246709 0
2.7480001 0.076824903 0.4124707 0
2.7480001 0.072589561 0.4124707 0
2.7490003 0.068402931 0.4124743 0
2.7500002 0.06421268 0.41247791 0
2.7500002 0.059973735 0.41247791 0
2.7510002 0.055778075 0.41248152 0
2.7520001 0.051578809 0.41248512 0
2.7520001 0.047336247 0.41248512 0
2.7530003 0.043131579 0.41248873 0
2.7540002 0.03892329 0.41249233 0
2.7540002 0.034677129 0.41249233 0
2.7550001 0.030463424 0.41249594 0
2.7560003 0.026246127 0.41249955 0
2.7560003 0.02199636 0.41249955 0
2.7570002 0.017773639 0.41250315 0
2.7580001 0.013547316 0.41250676 0
2.7580001 0.0092939362 0.41250676 0
2.7590003 0.0050622039 0.4125104 0
2.7600002 0.00082686171 0.412514 0
2.7600002 -0.0034301244 0.412514 0
2.7610002 -0.0076708794 0.41251761 0
2.7620003 -0.011915237 0.41252121 0
2.7620003 -0.016175833 0.41252121 0
2.7630002 -0.020425607 0.41252482 0
2.7640002 -0.024678987 0.41252843 0
2.7640002 -0.02894319 0.41252843 0
2.7650001 -0.033201981 0.41253203 0
2.7650001 -0.037467986 0.41253203 0
2.7660003 -0.041732188 0.41253564 0
2.7670002 -0.046 0.41253924 0
2.7060001 0.34500065 0.40815958 0
2.7070003 0.34100884 0.4081614 0
2.7080002 0.33701342 0.40816319 0
2.7080002 0.33285025 0.40816319 0
2.7090001 0.32884938 0.40816501 0
2.7100003 0.32484493 0.40816683 0
2.7100003 0.32067814 0.40816683 0
2.7110002 0.31666827 0.40816861 0
2.7110002 0.31249964 0.40816861 0
2.7120001 0.30848438 0.40817043 0
2.7130003 0.30446553 0.40817222 0
2.7130003 0.30029333 0.40817222 0
2.7140002 0.296269 0.40817404 0
2.7150002 0.29224107 0.40817583 0
2.7150002 0.28806528 0.40817583 0
2.7160003 0.28403199 0.40817764 0
2.7160003 0.27985436 0.40817764 0
2.7170002 0.27581564 0.40817943 0
2.7180002 0.27177328 0.40818125 0
2.7180002 0.26759204 0.40818125 0
2.7190001 0.26354429 0.40818304 0
2.7200003 0.25949296 0.40818486 0
2.7200003 0.25530812 0.40818486 0
2.7210002 0.25125134 0.40818664 0
2.7220001 0.24719098 0.40818846 0
2.7220001 0.24300253 0.40818846 0
2.7230003 0.23893678 0.40819025 0
2.7230003 0.23474652 0.40819025 0
2.7240002 0.23067531 0.40819207 0
2.7250001 0.2266005 0.40819386 0
2.7250001 0.22240666 0.40819386 0
2.7260003 0.21832645 0.40819567 0
2.7270002 0.21424261 0.40819746 0
2.7270002 0.21004516 0.40819746 0
2.7280002 0.20595592 0.40819928 0
2.7290001 0.20186307 0.40820107 0
2.7290001 0.19766201 0.40820107 0
2.7300003 0.19356377 0.40820289 0
2.7300003 0.1893609 0.40820289 0
2.7310002 0.18525723 0.4082047 0
2.7320001 0.18114994 0.40820649 0
2.7320001 0.17694347 0.40820649 0
2.7330003 0.17283081 0.40820831 0
2.7340002 0.16871451 0.4082101 0
2.7340002 0.16450441 0.4082101 0
2.7350001 0.1603827 0.40821192 0
2.7360003 0.15625741 0.4082137 0
2.7360003 0.15204372 0.4082137 0
2.7370002 0.14791299 0.40821552 0
2.7380002 0.14377865 0.40821731 0
2.7380002 0.13956136 0.40821731 0
2.7390003 0.13542163 0.40821913 0
2.7390003 0.13120252 0.40821913 0
2.7400002 0.12705736 0.40822092 0
2.7410002 0.12290859 0.40822273 0
2.7410002 0.11868589 0.40822273 0
2.7420001 0.11453171 0.40822452 0
2.7430003 0.11037394 0.40822634 0
2.7430003 0.10614762 0.40822634 0
2.7440002 0.10198441 0.40822813 0
2.7450001 0.09781763 0.40822995 0
2.7450001 0.093587697 0.40822995 0
2.7460003 0.089415491 0.40823174 0
2.7470002 0.085239679 0.40823355 0
2.7470002 0.08100614 0.40823355 0
2.7480001 0.076824903 0.40823534 0
2.7480001 0.072589561 0.40823534 0
2.7490003 0.068402931 0.40823716 0
2.7500002 0.06421268 0.40823898 0
2.7500002 0.059973735 0.40823898 0
2.7510002 0.055778075 0.40824077 0
2.7520001 0.051578809 0.40824258 0
2.7520001 0.047336247 0.40824258 0
2.7530003 0.043131579 0.40824437 0
2.7540002 0.03892329 0.40824619 0
2.7540002 0.034677129 0.40824619 0
2.7550001 0.030463424 0.40824798 0
2.7560003 0.026246127 0.4082498 0
2.7560003 0.02199636 0.4082498 0
2.7570002 0.017773639 0.40825158 0
2.7580001 0.013547316 0.4082534 0
2.7580001 0.0092939362 0.4082534 0
2.7590003 0.0050622039 0.40825519 0
2.7600002 0.00082686171 0.40825701 0
2.7600002 -0.0034301244 0.40825701 0
2.7610002 -0.0076708794 0.4082588 0
2.7620003 -0.011915237 0.40826061 0
2.7620003 -0.016175833 0.40826061 0
2.7630002 -0.020425607 0.4082624 0
2.7640002 -0.024678987 0.40826422 0
2.7640002 -0.02894319 0.40826422 0
2.7650001 -0.033201981 0.40826601 0
2.7650001 -0.037467986 0.40826601 0
2.7660003 -0.041732188 0.40826783 0
2.7670002 -0.046 0.40826961 0
2.7060001 0.34500065 0.40400001 0
2.7070003 0.34100884 0.40400001 0
2.7080002 0.33701342 0.40400001 0
2.7080002 0.33285025 0.40400001 0
2.7090001 0.32884938 0.40400001 0
2.7100003 0.32484493 0.40400001 0
2.7100003 0.32067814 0.40400001 0
2.7110002 0.31666827 0.40400001 0
2.7110002 0.31249964 0.40400001 0
2.7120001 0.30848438 0.40400001 0
2.7130003 0.30446553 0.40400001 0
2.7130003 0.30029333 0.40400001 0
2.7140002 0.296269 0.40400001 0
2.7150002 0.29224107 0.40400001 0
2.7150002 0.28806528 0.40400001 0
2.7160003 0.28403199 0.40400001 0
2.7160003 0.27985436 0.40400001 0
2.7170002 0.27581564 0.40400001 0
2.7180002 0.27177328 0.40400001 0
2.7180002 0.26759204 0.40400001 0
2.7190001 0.26354429 0.40400001 0
2.7200003 0.25949296 0.40400001 0
2.7200003 0.25530812 0.40400001 0
2.7210002 0.25125134 0.40400001 0
2.7220001 0.24719098 0.40400001 0
2.7220001 0.24300253 0.40400001 0
2.7230003 0.23893678 0.40400001 0
2.7230003 0.23474652 0.40400001 0
2.7240002 0.23067531 0.40400001 0
2.7250001 0.2266005 0.40400001 0
2.7250001 0.22240666 0.40400001 0
2.7260003 0.21832645 0.40400001 0
2.7270002 0.21424261 0.40400001 0
2.7270002 0.21004516 0.40400001 0
2.7280002 0.20595592 0.40400001 0
2.7290001 0.20186307 0.40400001 0
2.7290001 0.19766201 0.40400001 0
2.7300003 0.19356377 0.40400001 0
2.7300003 0.1893609 0.40400001 0
2.7310002 0.18525723 0.40400001 0
2.7320001 0.18114994 0.40400001 0
2.7320001 0.17694347 0.40400001 0
2.7330003 0.17283081 0.40400001 0
2.7340002 0.16871451 0.40400001 0
2.7340002 0.16450441 0.40400001 0
2.7350001 0.1603827 0.40400001 0
2.7360003 0.15625741 0.40400001 0
2.7360003 0.15204372 0.40400001 0
2.7370002 0.14791299 0.40400001 0
2.7380002 0.14377865 0.40400001 0
2.7380002 0.13956136 0.40400001 0
2.7390003 0.13542163 0.40400001 0
2.7390003 0.13120252 0.40400001 0
2.7400002 0.12705736 0.40400001 0
2.7410002 0.12290859 0.40400001 0
2.7410002 0.11868589 0.40400001 0
2.7420001 0.11453171 0.40400001 0
2.7430003 0.11037394 0.40400001 0
2.7430003 0.10614762 0.40400001 0
2.7440002 0.10198441 0.40400001 0
2.7450001 0.09781763 0.40400001 0
2.7450001 0.093587697 0.40400001 0
2.7460003 0.089415491 0.40400001 0
2.7470002 0.085239679 0.40400001 0
2.7470002 0.08100614 0.40400001 0
2.7480001 0.076824903 0.40400001 0
2.7480001 0.072589561 0.40400001 0
2.7490003 0.068402931 0.40400001 0
2.7500002 0.06421268 0.40400001 0
2.7500002 0.059973735 0.40400001 0
2.7510002 0.055778075 0.40400001 0
2.7520001 0.051578809 0.40400001 0
2.7520001 0.047336247 0.40400001 0
2.7530003 0.043131579 0.40400001 0
2.7540002 0.03892329 0.40400001 0
2.7540002 0.034677129 0.40400001 0
2.7550001 0.030463424 0.40400001 0
2.7560003 0.026246127 0.40400001 0
2.7560003 0.02199636 0.40400001 0
2.7570002 0.017773639 0.40400001 0
2.7580001 0.013547316 0.40400001 0
2.7580001 0.0092939362 0.40400001 0
2.7590003 0.0050622039 0.40400001 0
2.7600002 0.00082686171 0.40400001 0
2.7600002 -0.0034301244 0.40400001 0
2.7610002 -0.0076708794 0.40400001 0
2.7620003 -0.011915237 0.40400001 0
2.7620003 -0.016175833 0.40400001 0
2.7630002 -0.020425607 0.40400001 0
2.7640002 -0.024678987 0.40400001 0
2.7640002 -0.02894319 0.40400001 0
2.7650001 -0.033201981 0.40400001 0
2.7650001 -0.037467986 0.40400001 0
2.7660003 -0.041732188 0.40400001 0
2.7670002 -0.046 0.40400001 0
2.7060001 0.34500065 0.39984044 0
2.7070003 0.34100884 0.39983863 0
2.7080002 0.33701342 0.39983684 0
2.7080002 0.33285025 0.39983684 0
2.7090001 0.32884938 0.39983502 0
2.7100003 0.32484493 0.3998332 0
2.7100003 0.32067814 0.3998332 0
2.7110002 0.31666827 0.39983141 0
2.7110002 0.31249964 0.39983141 0
2.7120001 0.30848438 0.3998296 0
2.7130003 0.30446553 0.39982781 0
2.7130003 0.30029333 0.39982781 0
2.7140002 0.296269 0.39982599 0
2.7150002 0.29224107 0.3998242 0
2.7150002 0.28806528 0.3998242 0
2.7160003 0.28403199 0.39982238 0
2.7160003 0.27985436 0.39982238 0
2.7170002 0.27581564 0.3998206 0
2.7180002 0.27177328 0.39981878 0
2.7180002 0.26759204 0.39981878 0
2.7190001 0.26354429 0.39981699 0
2.7200003 0.25949296 0.39981517 0
2.7200003 0.25530812 0.39981517 0
2.7210002 0.25125134 0.39981338 0
2.7220001 0.24719098 0.39981157 0
2.7220001 0.24300253 0.39981157 0
2.7230003 0.23893678 0.39980978 0
2.7230003 0.23474652 0.39980978 0
2.7240002 0.23067531 0.39980796 0
2.7250001 0.2266005 0.39980617 0
2.7250001 0.22240666 0.39980617 0
2.7260003 0.21832645 0.39980435 0
2.7270002 0.21424261 0.39980257 0
2.7270002 0.21004516 0.39980257 0
2.7280002 0.20595592 0.39980075 0
2.7290001 0.20186307 0.39979896 0
2.7290001 0.19766201 0.39979896 0
2.7300003 0.19356377 0.39979714 0
2.7300003 0.1893609 0.39979714 0
2.7310002 0.18525723 0.39979532 0
2.7320001 0.18114994 0.39979354 0
2.7320001 0.17694347 0.39979354 0
2.7330003 0.17283081 0.39979172 0
2.7340002 0.16871451 0.39978993 0
2.7340002 0.16450441 0.39978993 0
2.7350001 0.1603827 0.39978811 0
2.7360003 0.15625741 0.39978632 0
2.7360003 0.15204372 0.39978632 0
2.7370002 0.14791299 0.39978451 0
2.7380002 0.14377865 0.39978272 0
2.7380002 0.13956136 0.39978272 0
2.7390003 0.13542163 0.3997809 0
2.7390003 0.13120252 0.3997809 0
2.7400002 0.12705736 0.39977911 0
2.7410002 0.12290859 0.39977729 0
2.7410002 0.11868589 0.39977729 0
2.7420001 0.11453171 0.39977551 0
2.7430003 0.11037394 0.39977369 0
2.7430003 0.10614762 0.39977369 0
2.7440002 0.10198441 0.3997719 0
2.7450001 0.09781763 0.39977008 0
2.7450001 0.093587697 0.39977008 0
2.7460003 0.089415491 0.39976829 0
2.7470002 0.085239679 0.39976647 0
2.7470002 0.08100614 0.39976647 0
2.7480001 0.076824903 0.39976469 0
2.7480001 0.072589561 0.39976469 0
2.7490003 0.068402931 0.39976287 0
2.7500002 0.06421268 0.39976105 0
2.7500002 0.059973735 0.39976105 0
2.7510002 0.055778075 0.39975926 0
2.7520001 0.051578809 0.39975744 0
2.7520001 0.047336247 0.39975744 0
2.7530003 0.043131579 0.39975566 0
2.7540002 0.03892329 0.39975384 0
2.7540002 0.034677129 0.39975384 0
2.7550001 0.030463424 0.39975205 0
2.7560003 0.026246127 0.39975023 0
2.7560003 0.02199636 0.39975023 0
2.7570002 0.017773639 0.39974844 0
2.7580001 0.013547316 0.39974663 0
2.7580001 0.0092939362 0.39974663 0
2.7590003 0.0050622039 0.39974484 0
2.7600002 0.00082686171 0.39974302 0
2.7600002 -0.0034301244 0.39974302 0
2.7610002 -0.0076708794 0.39974123 0
2.7620003 -0.011915237 0.39973941 0
2.7620003 -0.016175833 0.39973941 0
2.7630002 -0.020425607 0.39973763 0
2.7630002 -0.024688005 0.39973763 0
2.7640002 -0.02894319 0.39973581 0
2.7650001 -0.033201981 0.39973402 0
2.7650001 -0.037467986 0.39973402 0
2.7660003 -0.041732188 0.3997322 0
2.7670002 -0.046 0.39973041 0
2.7060001 0.34500065 0.39568084 0
2.7070003 0.34100884 0.39567724 0
2.7080002 0.33701342 0.39567363 0
2.7080002 0.33285025 0.39567363 0
2.7090001 0.32884938 0.39567003 0
2.7100003 0.32484493 0.39566642 0
2.7100003 0.32067814 0.39566642 0
2.7110002 0.31666827 0.39566281 0
2.7110002 0.31249964 0.39566281 0
2.7120001 0.30848438 0.39565921 0
2.7130003 0.30446553 0.3956556 0
2.7130003 0.30029333 0.3956556 0
2.7140002 0.296269 0.395652 0
2.7150002 0.29224107 0.39564839 0
2.7150002 0.28806528 0.39564839 0
2.7160003 0.28403199 0.39564478 0
2.7160003 0.27985436 0.39564478 0
2.7170002 0.27581564 0.39564118 0
2.7180002 0.27177328 0.39563757 0
2.7180002 0.26759204 0.39563757 0
2.7190001 0.26354429 0.39563397 0
2.7200003 0.25949296 0.39563033 0
2.7200003 0.25530812 0.39563033 0
2.7210002 0.25125134 0.39562672 0
2.7220001 0.24719098 0.39562312 0
2.7220001 0.24300253 0.39562312 0
2.7230003 0.23893678 0.39561951 0
2.7230003 0.23474652 0.39561951 0
2.7240002 0.23067531 0.39561591 0
2.7250001 0.2266005 0.3956123 0
2.7250001 0.22240666 0.3956123 0
2.7260003 0.21832645 0.39560869 0
2.7270002 0.21424261 0.39560509 0
2.7270002 0.21004516 0.39560509 0
2.7280002 0.20595592 0.39560148 0
2.7290001 0.20186307 0.39559788 0
2.7290001 0.19766201 0.39559788 0
2.7300003 0.19356377 0.39559427 0
2.7300003 0.1893609 0.39559427 0
2.7310002 0.18525723 0.39559066 0
2.7320001 0.18114994 0.39558706 0
2.7320001 0.17694347 0.39558706 0
2.7330003 0.17283081 0.39558345 0
2.7340002 0.16871451 0.39557984 0
2.7340002 0.16450441 0.39557984 0
2.7350001 0.1603827 0.39557624 0
2.7360003 0.15625741 0.39557263 0
2.7360003 0.15204372 0.39557263 0
2.7370002 0.14791299 0.39556903 0
2.7380002 0.14377865 0.39556542 0
2.7380002 0.13956136 0.39556542 0
2.7390003 0.13542163 0.39556178 0
2.7390003 0.13120252 0.39556178 0
2.7400002 0.12705736 0.39555818 0
2.7410002 0.12290859 0.39555457 0
2.7410002 0.11868589 0.39555457 0
2.7420001 0.11453171 0.39555097 0
2.7430003 0.11037394 0.39554736 0
2.7430003 0.10614762 0.39554736 0
2.7440002 0.10198441 0.39554375 0
2.7450001 0.09781763 0.39554015 0
2.7450001 0.093587697 0.39554015 0
2.7460003 0.089415491 0.39553654 0
2.7470002 0.085239679 0.39553294 0
2.7470002 0.08100614 0.39553294 0
2.7480001 0.076824903 0.39552933 0
2.7480001 0.072589561 0.39552933 0
2.7490003 0.068402931 0.39552572 0
2.7500002 0.06421268 0.39552212 0
2.7500002 0.059973735 0.39552212 0
2.7510002 0.055778075 0.39551851 0
2.7520001 0.051578809 0.39551491 0
2.7520001 0.047336247 0.39551491 0
2.7530003 0.043131579 0.3955113 0
2.7540002 0.03892329 0.39550769 0
2.7540002 0.034677129 0.39550769 0
2.7550001 0.030463424 0.39550409 0
2.7560003 0.026246127 0.39550048 0
2.7560003 0.02199636 0.39550048 0
2.7570002 0.017773639 0.39549688 0
2.7580001 0.013547316 0.39549327 0
2.7580001 0.0092939362 0.39549327 0
2.7590003 0.0050622039 0.39548963 0
2.7600002 0.00082686171 0.39548603 0
2.7600002 -0.0034301244 0.39548603 0
2.7610002 -0.0076708794 0.39548242 0
2.7620003 -0.011915237 0.39547881 0
2.7620003 -0.016175833 0.39547881 0
2.7630002 -0.020425607 0.39547521 0
2.7630002 -0.024688005 0.39547521 0
2.7640002 -0.02894319 0.3954716 0
2.7650001 -0.033201981 0.395468 0
2.7650001 -0.037467986 0.395468 0
2.7660003 -0.041732188 0.39546439 0
2.7670002 -0.046 0.39546078 0
2.7060001 0.34500065 0.39152128 0
2.7070003 0.34100884 0.39151585 0
2.7080002 0.33701342 0.39151046 0
2.7080002 0.33285025 0.39151046 0
2.7090001 0.32884938 0.39150503 0
2.7100003 0.32484493 0.39149961 0
2.7100003 0.32067814 0.39149961 0
2.7110002 0.31666827 0.39149421 0
2.7110002 0.31249964 0.39149421 0
2.7120001 0.30848438 0.39148879 0
2.7130003 0.30446553 0.3914834 0
2.7130003 0.30029333 0.3914834 0
2.7140002 0.296269 0.39147797 0
2.7150002 0.29224107 0.39147258 0
2.7150002 0.28806528 0.39147258 0
2.7160003 0.28403199 0.39146715 0
2.7160003 0.27985436 0.39146715 0
2.7170002 0.27581564 0.39146173 0
2.7180002 0.27177328 0.39145634 0
2.7180002 0.26759204 0.39145634 0
2.7190001 0.26354429 0.39145091 0
2.7200003 0.25949296 0.39144552 0
2.7200003 0.25530812 0.39144552 0
2.7210002 0.25125134 0.39144009 0
2.7220001 0.24719098 0.3914347 0
2.7220001 0.24300253 0.3914347 0
2.7230003 0.23893678 0.39142928 0
2.7230003 0.23474652 0.39142928 0
2.7240002 0.23067531 0.39142385 0
2.7250001 0.2266005 0.39141846 0
2.7250001 0.22240666 0.39141846 0
2.7260003 0.21832645 0.39141303 0
2.7270002 0.21424261 0.39140764 0
2.7270002 0.21004516 0.39140764 0
2.7280002 0.20595592 0.39140221 0
2.7290001 0.20186307 0.39139682 0
2.7290001 0.19766201 0.39139682 0
2.7300003 0.19356377 0.3913914 0
2.7300003 0.1893609 0.3913914 0
2.7310002 0.18525723 0.39138597 0
2.7320001 0.18114994 0.39138058 0
2.7320001 0.17694347 0.39138058 0
2.7330003 0.17283081 0.39137515 0
2.7340002 0.16871451 0.39136976 0
2.7340002 0.16450441 0.39136976 0
2.7350001 0.1603827 0.39136434 0
2.7360003 0.15625741 0.39135891 0
2.7360003 0.15204372 0.39135891 0
2.7370002 0.14791299 0.39135352 0
2.7380002 0.14377865 0.39134809 0
2.7380002 0.13956136 0.39134809 0
2.7390003 0.13542163 0.3913427 0
2.7390003 0.13120252 0.3913427 0
2.7400002 0.12705736 0.39133728 0
2.7410002 0.12290859 0.39133188 0
2.7410002 0.11868589 0.39133188 0
2.7420001 0.11453171 0.39132646 0
2.7430003 0.11037394 0.39132103 0
2.7430003 0.10614762 0.39132103 0
2.7440002 0.10198441 0.39131564 0
2.7450001 0.09781763 0.39131021 0
2.7450001 0.093587697 0.39131021 0
2.7460003 0.089415491 0.39130482 0
2.7470002 0.085239679 0.3912994 0
2.7470002 0.08100614 0.3912994 0
2.7480001 0.076824903 0.391294 0
2.7480001 0.072589561 0.391294 0
2.7490003 0.068402931 0.39128858 0
2.7500002 0.06421268 0.39128315 0
2.7500002 0.059973735 0.39128315 0
2.7510002 0.055778075 0.39127776 0
2.7520001 0.051578809 0.39127234 0
2.7520001 0.047336247 0.39127234 0
2.7530003 0.043131579 0.39126694 0
2.7540002 0.03892329 0.39126152 0
2.7540002 0.034677129 0.39126152 0
2.7550001 0.030463424 0.39125612 0
2.7560003 0.026246127 0.3912507 0
2.7560003 0.02199636 0.3912507 0
2.7570002 0.017773639 0.39124528 0
2.7580001 0.013547316 0.39123988 0
2.7580001 0.0092939362 0.39123988 0
2.7590003 0.0050622039 0.39123446 0
2.7600002 0.00082686171 0.39122906 0
2.7600002 -0.0034301244 0.39122906 0
2.7610002 -0.0076708794 0.39122364 0
2.7620003 -0.011915237 0.39121822 0
2.7620003 -0.016175833 0.39121822 0
2.7630002 -0.020425607 0.39121282 0
2.7630002 -0.024688005 0.39121282 0
2.7640002 -0.02894319 0.3912074 0
2.7650001 -0.033201981 0.391202 0
2.7650001 -0.037467986 0.391202 0
2.7660003 -0.041732188 0.39119658 0
2.7670002 -0.046 0.39119118 0
2.7060001 0.34500065 0.38736168 0
2.7070003 0.34100884 0.38735446 0
2.7080002 0.33701342 0.38734725 0
2.7080002 0.33285025 0.38734725 0
2.7090001 0.32884938 0.38734004 0
2.7100003 0.32484493 0.38733283 0
2.7100003 0.32067814 0.38733283 0
2.7110002 0.31666827 0.38732561 0
2.7110002 0.31249964 0.38732561 0
2.7120001 0.30848438 0.3873184 0
2.7130003 0.30446553 0.38731119 0
2.7130003 0.30029333 0.38731119 0
2.7140002 0.296269 0.38730398 0
2.7150002 0.29224107 0.38729674 0
2.7150002 0.28806528 0.38729674 0
2.7160003 0.28403199 0.38728952 0
2.7160003 0.27985436 0.38728952 0
2.7170002 0.27581564 0.38728231 0
2.7180002 0.27177328 0.3872751 0
2.7180002 0.26759204 0.3872751 0
2.7190001 0.26354429 0.38726789 0
2.7200003 0.25949296 0.38726068 0
2.7200003 0.25530812 0.38726068 0
2.7210002 0.25125134 0.38725346 0
2.7220001 0.24719098 0.38724625 0
2.7220001 0.24300253 0.38724625 0
2.7230003 0.23893678 0.38723904 0
2.7230003 0.23474652 0.38723904 0
2.7240002 0.23067531 0.38723183 0
2.7250001 0.2266005 0.38722458 0
2.7250001 0.22240666 0.38722458 0
2.7260003 0.21832645 0.38721737 0
2.7270002 0.21424261 0.38721016 0
2.7270002 0.21004516 0.38721016 0
2.7280002 0.20595592 0.38720295 0
2.7290001 0.20186307 0.38719574 0
2.7290001 0.19766201 0.38719574 0
2.7300003 0.19356377 0.38718852 0
2.7300003 0.1893609 0.38718852 0
2.7310002 0.18525723 0.38718131 0
2.7320001 0.18114994 0.3871741 0
2.7320001 0.17694347 0.3871741 0
2.7330003 0.17283081 0.38716689 0
2.7340002 0.16871451 0.38715965 0
2.7340002 0.16450441 0.38715965 0
2.7350001 0.1603827 0.38715243 0
2.7360003 0.15625741 0.38714522 0
2.7360003 0.15204372 0.38714522 0
2.7370002 0.14791299 0.38713801 0
2.7380002 0.14377865 0.3871308 0
2.7380002 0.13956136 0.3871308 0
2.7390003 0.13542163 0.38712358 0
2.7390003 0.13120252 0.38712358 0
2.7400002 0.12705736 0.38711637 0
2.7410002 0.12290859 0.38710916 0
2.7410002 0.11868589 0.38710916 0
2.7420001 0.11453171 0.38710195 0
2.7430003 0.11037394 0.38709474 0
2.7430003 0.10614762 0.38709474 0
2.7440002 0.10198441 0.38708752 0
2.7450001 0.09781763 0.38708028 0
2.7450001 0.093587697 0.38708028 0
2.7460003 0.089415491 0.38707307 0
2.7470002 0.085239679 0.38706586 0
2.7470002 0.08100614 0.38706586 0
2.7480001 0.076824903 0.38705865 0
2.7480001 0.072589561 0.38705865 0
2.7490003 0.068402931 0.38705143 0
2.7500002 0.06421268 0.38704422 0
2.7500002 0.059973735 0.38704422 0
2.7510002 0.055778075 0.38703701 0
2.7520001 0.051578809 0.3870298 0
2.7520001 0.047336247 0.3870298 0
2.7530003 0.043131579 0.38702255 0
2.7540002 0.03892329 0.38701534 0
2.7540002 0.034677129 0.38701534 0
2.7550001 0.030463424 0.38700813 0
2.7560003 0.026246127 0.38700092 0
2.7560003 0.02199636 0.38700092 0
2.7570002 0.017773639 0.38699371 0
2.7580001 0.013547316 0.38698649 0
2.7580001 0.0092939362 0.38698649 0
2.7590003 0.0050622039 0.38697928 0
2.7600002 0.00082686171 0.38697207 0
2.7600002 -0.0034301244 0.38697207 0
2.7610002 -0.0076708794 0.38696486 0
2.7620003 -0.011915237 0.38695765 0
2.7620003 -0.016175833 0.38695765 0
2.7630002 -0.020425607 0.38695043 0
2.7630002 -0.024688005 0.38695043 0
2.7640002 -0.02894319 0.38694319 0
2.7650001 -0.033201981 0.38693598 0
2.7650001 -0.037467986 0.38693598 0
2.7660003 -0.041732188 0.38692877 0
2.7670002 -0.046 0.38692155 0
2.7060001 0.34500065 0.38320211 0
2.7070003 0.34100884 0.38319308 0
2.7080002 0.33701342 0.38318408 0
2.7080002 0.33285025 0.38318408 0
2.7090001 0.32884938 0.38317505 0
2.7100003 0.32484493 0.38316602 0
2.7100003 0.32067814 0.38316602 0
2.7110002 0.31666827 0.38315701 0
2.7110002 0.31249964 0.38315701 0
2.7120001 0.30848438 0.38314798 0
2.7130003 0.30446553 0.38313898 0
2.7130003 0.30029333 0.38313898 0
2.7140002 0.296269 0.38312995 0
2.7150002 0.29224107 0.38312092 0
2.7150002 0.28806528 0.38312092 0
2.7160003 0.28403199 0.38311192 0
2.7160003 0.27985436 0.38311192 0
2.7170002 0.27581564 0.38310289 0
2.7180002 0.27177328 0.38309386 0
2.7180002 0.26759204 0.38309386 0
2.7190001 0.26354429 0.38308486 0
2.7200003 0.25949296 0.38307583 0
2.7200003 0.25530812 0.38307583 0
2.7210002 0.25125134 0.38306683 0
2.7220001 0.24719098 0.3830578 0
2.7220001 0.24300253 0.3830578 0
2.7230003 0.23893678 0.38304877 0
2.7230003 0.23474652 0.38304877 0
2.7240002 0.23067531 0.38303977 0
2.7250001 0.2266005 0.38303074 0
2.7250001 0.22240666 0.38303074 0
2.7260003 0.21832645 0.38302171 0
2.7270002 0.21424261 0.38301271 0
2.7270002 0.21004516 0.38301271 0
2.7280002 0.20595592 0.38300368 0
2.7290001 0.20186307 0.38299465 0
2.7290001 0.19766201 0.38299465 0
2.7300003 0.19356377 0.38298565 0
2.7300003 0.1893609 0.38298565 0
2.7310002 0.18525723 0.38297662 0
2.7320001 0.18114994 0.38296762 0
2.7320001 0.17694347 0.38296762 0
2.7330003 0.17283081 0.38295859 0
2.7340002 0.16871451 0.38294956 0
2.7340002 0.16450441 0.38294956 0
2.7350001 0.1603827 0.38294056 0
2.7360003 0.15625741 0.38293153 0
2.7360003 0.15204372 0.38293153 0
2.7370002 0.14791299 0.38292253 0
2.7380002 0.14377865 0.3829135 0
2.7380002 0.13956136 0.3829135 0
2.7390003 0.13542163 0.38290447 0
2.7390003 0.13120252 0.38290447 0
2.7400002 0.12705736 0.38289547 0
2.7410002 0.12290859 0.38288644 0
2.7410002 0.11868589 0.38288644 0
2.7420001 0.11453171 0.38287741 0
2.7430003 0.11037394 0.38286841 0
2.7430003 0.10614762 0.38286841 0
2.7440002 0.10198441 0.38285938 0
2.7450001 0.09781763 0.38285035 0
2.7450001 0.093587697 0.38285035 0
2.7460003 0.089415491 0.38284135 0
2.7470002 0.085239679 0.38283232 0
2.7470002 0.08100614 0.38283232 0
2.7480001 0.076824903 0.38282332 0
2.7480001 0.072589561 0.38282332 0
2.7490003 0.068402931 0.38281429 0
2.7500002 0.06421268 0.38280526 0
2.7500002 0.059973735 0.38280526 0
2.7510002 0.055778075 0.38279626 0
2.7520001 0.051578809 0.38278723 0
2.7520001 0.047336247 0.38278723 0
2.7530003 0.043131579 0.3827782 0
2.7540002 0.03892329 0.3827692 0
2.7540002 0.034677129 0.3827692 0
2.7550001 0.030463424 0.38276017 0
2.7560003 0.026246127 0.38275117 0
2.7560003 0.02199636 0.38275117 0
2.7570002 0.017773639 0.38274214 0
2.7580001 0.013547316 0.38273311 0
2.7580001 0.0092939362 0.38273311 0
2.7590003 0.0050622039 0.38272411 0
2.7600002 0.00082686171 0.38271508 0
2.7600002 -0.0034301244 0.38271508 0
2.7610002 -0.0076708794 0.38270605 0
2.7620003 -0.011915237 0.38269705 0
2.7620003 -0.016175833 0.38269705 0
2.7630002 -0.020425607 0.38268802 0
2.7630002 -0.024688005 0.38268802 0
2.7640002 -0.02894319 0.38267899 0
2.7650001 -0.033201981 0.38266999 0
2.7650001 -0.037467986 0.38266999 0
2.7660003 -0.041732188 0.38266096 0
2.7670002 -0.046 0.38265195 0
2.7060001 0.34500065 0.37904254 0
2.7070003 0.34100884 0.37903169 0
2.7080002 0.33701342 0.37902087 0
2.7080002 0.33285025 0.37902087 0
2.7090001 0.32884938 0.37901005 0
2.7100003 0.32484493 0.37899923 0
2.7100003 0.32067814 0.37899923 0
2.7110002 0.31666827 0.37898842 0
2.7110002 0.31249964 0.37898842 0
2.7120001 0.30848438 0.3789776 0
2.7130003 0.30446553 0.37896675 0
2.7130003 0.30029333 0.37896675 0
2.7140002 0.296269 0.37895593 0
2.7150002 0.29224107 0.37894511 0
2.7150002 0.28806528 0.37894511 0
2.7160003 0.28403199 0.37893429 0
2.7160003 0.27985436 0.37893429 0
2.7170002 0.27581564 0.37892348 0
2.7180002 0.27177328 0.37891266 0
2.7180002 0.26759204 0.37891266 0
2.7190001 0.26354429 0.37890184 0
2.7200003 0.25949296 0.37889099 0
2.7200003 0.25530812 0.37889099 0
2.7210002 0.25125134 0.37888017 0
2.7220001 0.24719098 0.37886935 0
2.7220001 0.24300253 0.37886935 0
2.7230003 0.23893678 0.37885854 0
2.7230003 0.23474652 0.37885854 0
2.7240002 0.23067531 0.37884772 0
2.7250001 0.2266005 0.3788369 0
2.7250001 0.22240666 0.3788369 0
2.7260003 0.21832645 0.37882605 0
2.7270002 0.21424261 0.37881523 0
2.7270002 0.21004516 0.37881523 0
2.7280002 0.20595592 0.37880442 0
2.7290001 0.20186307 0.3787936 0
2.7290001 0.19766201 0.3787936 0
2.7300003 0.19356377 0.37878278 0
2.7300003 0.1893609 0.37878278 0
2.7310002 0.18525723 0.37877196 0
2.7320001 0.18114994 0.37876114 0
2.7320001 0.17694347 0.37876114 0
2.7330003 0.17283081 0.37875029 0
2.7340002 0.16871451 0.37873948 0
2.7340002 0.16450441 0.37873948 0
2.7350001 0.1603827 0.37872866 0
2.7360003 0.15625741 0.37871784 0
2.7360003 0.15204372 0.37871784 0
2.7370002 0.14791299 0.37870702 0
2.7380002 0.14377865 0.3786962 0
2.7380002 0.13956136 0.3786962 0
2.7390003 0.13542163 0.37868536 0
2.7390003 0.13120252 0.37868536 0
2.7400002 0.12705736 0.37867454 0
2.7410002 0.12290859 0.37866372 0
2.7410002 0.11868589 0.37866372 0
2.7420001 0.11453171 0.3786529 0
2.7430003 0.11037394 0.37864208 0
2.7430003 0.10614762 0.37864208 0
2.7440002 0.10198441 0.37863126 0
2.7450001 0.09781763 0.37862045 0
2.7450001 0.093587697 0.37862045 0
2.7460003 0.089415491 0.3786096 0
2.7470002 0.085239679 0.37859878 0
2.7470002 0.08100614 0.37859878 0
2.7480001 0.076824903 0.37858796 0
2.7480001 0.072589561 0.37858796 0
2.7490003 0.068402931 0.37857714 0
2.7500002 0.06421268 0.37856632 0
2.7500002 0.059973735 0.37856632 0
2.7510002 0.055778075 0.37855551 0
2.7520001 0.051578809 0.37854469 0
2.7520001 0.047336247 0.37854469 0
2.7530003 0.043131579 0.37853384 0
2.7540002 0.03892329 0.37852302 0
2.7540002 0.034677129 0.37852302 0
2.7550001 0.030463424 0.3785122 0
2.7560003 0.026246127 0.37850139 0
2.7560003 0.02199636 0.37850139 0
2.7570002 0.017773639 0.37849057 0
2.7580001 0.013547316 0.37847975 0
2.7580001 0.0092939362 0.37847975 0
2.7590003 0.0050622039 0.3784689 0
2.7600002 0.00082686171 0.37845808 0
2.7600002 -0.0034301244 0.37845808 0
2.7610002 -0.0076708794 0.37844726 0
2.7620003 -0.011915237 0.37843645 0
2.7620003 -0.016175833 0.37843645 0
2.7630002 -0.020425607 0.37842563 0
2.7630002 -0.024688005 0.37842563 0
2.7640002 -0.02894319 0.37841481 0
2.7650001 -0.033201981 0.37840396 0
2.7650001 -0.037467986 0.37840396 0
2.7660003 -0.041732188 0.37839314 0
2.7670002 -0.046 0.37838233 0
2.7060001 0.34500065 0.37488294 0
2.7070003 0.34100884 0.3748703 0
2.7080002 0.33701342 0.37485769 0
2.7080002 0.33285025 0.37485769 0
2.7090001 0.32884938 0.37484506 0
2.7100003 0.32484493 0.37483242 0
2.7100003 0.32067814 0.37483242 0
2.7110002 0.31666827 0.37481982 0
2.7110002 0.31249964 0.37481982 0
2.7120001 0.30848438 0.37480718 0
2.7130003 0.30446553 0.37479454 0
2.7130003 0.30029333 0.37479454 0
2.7140002 0.296269 0.37478194 0
2.7150002 0.29224107 0.3747693 0
2.7150002 0.28806528 0.3747693 0
2.7160003 0.28403199 0.37475666 0
2.7160003 0.27985436 0.37475666 0
2.7170002 0.27581564 0.37474406 0
2.7180002 0.27177328 0.37473142 0
2.7180002 0.26759204 0.37473142 0
2.7190001 0.26354429 0.37471879 0
2.7200003 0.25949296 0.37470618 0
2.7200003 0.25530812 0.37470618 0
2.7210002 0.25125134 0.37469354 0
2.7220001 0.24719098 0.37468091 0
2.7220001 0.24300253 0.37468091 0
2.7230003 0.23893678 0.3746683 0
2.7230003 0.23474652 0.3746683 0
2.7240002 0.23067531 0.37465566 0
2.7250001 0.2266005 0.37464303 0
2.7250001 0.22240666 0.37464303 0
2.7260003 0.21832645 0.37463039 0
2.7270002 0.21424261 0.37461779 0
2.7270002 0.21004516 0.37461779 0
2.7280002 0.20595592 0.37460515 0
2.7290001 0.20186307 0.37459254 0
2.7290001 0.19766201 0.37459254 0
2.7300003 0.19356377 0.37457991 0
2.7300003 0.1893609 0.37457991 0
2.7310002 0.18525723 0.37456727 0
2.7320001 0.18114994 0.37455466 0
2.7320001 0.17694347 0.37455466 0
2.7330003 0.17283081 0.37454203 0
2.7340002 0.16871451 0.37452939 0
2.7340002 0.16450441 0.37452939 0
2.7350001 0.1603827 0.37451676 0
2.7360003 0.15625741 0.37450415 0
2.7360003 0.15204372 0.37450415 0
2.7370002 0.14791299 0.37449151 0
2.7380002 0.14377865 0.37447888 0
2.7380002 0.13956136 0.37447888 0
2.7390003 0.13542163 0.37446627 0
2.7390003 0.13120252 0.37446627 0
2.7400002 0.12705736 0.37445363 0
2.7410002 0.12290859 0.374441 0
2.7410002 0.11868589 0.374441 0
2.7420001 0.11453171 0.37442839 0
2.7430003 0.11037394 0.37441576 0
2.7430003 0.10614762 0.37441576 0
2.7440002 0.10198441 0.37440312 0
2.7450001 0.09781763 0.37439051 0
2.7450001 0.093587697 0.37439051 0
2.7460003 0.089415491 0.37437788 0
2.7470002 0.085239679 0.37436524 0
2.7470002 0.08100614 0.37436524 0
2.7480001 0.076824903 0.37435263 0
2.7480001 0.072589561 0.37435263 0
2.7490003 0.068402931 0.37434 0
2.7500002 0.06421268 0.37432736 0
2.7500002 0.059973735 0.37432736 0
2.7510002 0.055778075 0.37431476 0
2.7520001 0.051578809 0.37430212 0
2.7520001 0.047336247 0.37430212 0
2.7530003 0.043131579 0.37428948 0
2.7540002 0.03892329 0.37427688 0
2.7540002 0.034677129 0.37427688 0
2.7550001 0.030463424 0.37426424 0
2.7560003 0.026246127 0.3742516 0
2.7560003 0.02199636 0.3742516 0
2.7570002 0.017773639 0.37423897 0
2.7580001 0.013547316 0.37422636 0
2.7580001 0.0092939362 0.37422636 0
2.7590003 0.0050622039 0.37421373 0
2.7600002 0.00082686171 0.37420109 0
2.7600002 -0.0034301244 0.37420109 0
2.7610002 -0.0076708794 0.37418848 0
2.7620003 -0.011915237 0.37417585 0
2.7620003 -0.016175833 0.37417585 0
2.7630002 -0.020425607 0.37416321 0
2.7630002 -0.024688005 0.37416321 0
2.7640002 -0.02894319 0.3741506 0
2.7650001 -0.033201981 0.37413797 0
2.7650001 -0.037467986 0.37413797 0
2.7660003 -0.041732188 0.37412533 0
2.7670002 -0.046 0.37411273 0
2.7060001 0.34500065 0.37072337 0
2.7070003 0.34100884 0.37070894 0
2.7080002 0.33701342 0.37069449 0
2.7080002 0.33285025 0.37069449 0
2.7090001 0.32884938 0.37068006 0
2.7100003 0.32484493 0.37066564 0
2.7100003 0.32067814 0.37066564 0
2.7110002 0.31666827 0.37065122 0
2.7110002 0.31249964 0.37065122 0
2.7120001 0.30848438 0.37063679 0
2.7130003 0.30446553 0.37062234 0
2.7130003 0.30029333 0.37062234 0
2.7140002 0.296269 0.37060791 0
2.7150002 0.29224107 0.37059349 0
2.7150002 0.28806528 0.37059349 0
2.7160003 0.28403199 0.37057906 0
2.7160003 0.27985436 0.37057906 0
2.7170002 0.27581564 0.37056464 0
2.7180002 0.27177328 0.37055019 0
2.7180002 0.26759204 0.37055019 0
2.7190001 0.26354429 0.37053576 0
2.7200003 0.25949296 0.37052134 0
2.7200003 0.25530812 0.37052134 0
2.7210002 0.25125134 0.37050691 0
2.7220001 0.24719098 0.37049246 0
2.7220001 0.24300253 0.37049246 0
2.7230003 0.23893678 0.37047803 0
2.7230003 0.23474652 0.37047803 0
2.7240002 0.23067531 0.37046361 0
2.7250001 0.2266005 0.37044919 0
2.7250001 0.22240666 0.37044919 0
2.7260003 0.21832645 0.37043476 0
2.7270002 0.21424261 0.37042031 0
2.7270002 0.21004516 0.37042031 0
2.7280002 0.20595592 0.37040588 0
2.7290001 0.20186307 0.37039146 0
2.7290001 0.19766201 0.37039146 0
2.7300003 0.19356377 0.37037703 0
2.7300003 0.1893609 0.37037703 0
2.7310002 0.18525723 0.37036261 0
2.7320001 0.18114994 0.37034816 0
2.7320001 0.17694347 0.37034816 0
2.7330003 0.17283081 0.37033373 0
2.7340002 0.16871451 0.37031931 0
2.7340002 0.16450441 0.37031931 0
2.7350001 0.1603827 0.37030488 0
2.7360003 0.15625741 0.37029046 0
2.7360003 0.15204372 0.37029046 0
2.7370002 0.14791299 0.370276 0
2.7380002 0.14377865 0.37026158 0
2.7380002 0.13956136 0.37026158 0
2.7390003 0.13542163 0.37024716 0
2.7390003 0.13120252 0.37024716 0
2.7400002 0.12705736 0.37023273 0
2.7410002 0.12290859 0.37021831 0
2.7410002 0.11868589 0.37021831 0
2.7420001 0.11453171 0.37020385 0
2.7430003 0.11037394 0.37018943 0
2.7430003 0.10614762 0.37018943 0
2.7440002 0.10198441 0.370175 0
2.7450001 0.09781763 0.37016058 0
2.7450001 0.093587697 0.37016058 0
2.7460003 0.089415491 0.37014616 0
2.7470002 0.085239679 0.3701317 0
2.7470002 0.08100614 0.3701317 0
2.7480001 0.076824903 0.37011728 0
2.7480001 0.072589561 0.37011728 0
2.7490003 0.068402931 0.37010285 0
2.7500002 0.06421268 0.37008843 0
2.7500002 0.059973735 0.37008843 0
2.7510002 0.055778075 0.37007397 0
2.7520001 0.051578809 0.37005955 0
2.7520001 0.047336247 0.37005955 0
2.7530003 0.043131579 0.37004513 0
2.7540002 0.03892329 0.3700307 0
2.7540002 0.034677129 0.3700307 0
2.7550001 0.030463424 0.37001628 0
2.7560003 0.026246127 0.37000182 0
2.7560003 0.02199636 0.37000182 0
2.7570002 0.017773639 0.3699874 0
2.7580001 0.013547316 0.36997297 0
2.7580001 0.0092939362 0.36997297 0
2.7590003 0.0050622039 0.36995855 0
2.7600002 0.00082686171 0.36994413 0
2.7600002 -0.0034301244 0.36994413 0
2.7610002 -0.0076708794 0.36992967 0
2.7620003 -0.011915237 0.36991525 0
2.7620003 -0.016175833 0.36991525 0
2.7630002 -0.020425607 0.36990082 0
2.7630002 -0.024688005 0.36990082 0
2.7640002 -0.02894319 0.3698864 0
2.7650001 -0.033201981 0.36987197 0
2.7650001 -0.037467986 0.36987197 0
2.7660003 -0.041732188 0.36985752 0
2.7670002 -0.046 0.3698431 0
2.7060001 0.34500065 0.3665638 0
2.7070003 0.34100884 0.36654755 0
2.7080002 0.33701342 0.36653131 0
2.7080002 0.33285025 0.36653131 0
2.7090001 0.32884938 0.36651507 0
2.7100003 0.32484493 0.36649883 0
2.7100003 0.32067814 0.36649883 0
2.7110002 0.31666827 0.36648262 0
2.7110002 0.31249964 0.36648262 0
2.7120001 0.30848438 0.36646637 0
2.7130003 0.30446553 0.36645013 0
2.7130003 0.30029333 0.36645013 0
2.7140002 0.296269 0.36643392 0
2.7150002 0.29224107 0.36641768 0
2.7150002 0.28806528 0.36641768 0
2.7160003 0.28403199 0.36640143 0
2.7160003 0.27985436 0.36640143 0
2.7170002 0.27581564 0.36638519 0
2.7180002 0.27177328 0.36636895 0
2.7180002 0.26759204 0.36636895 0
2.7190001 0.26354429 0.36635274 0
2.7200003 0.25949296 0.36633649 0
2.7200003 0.25530812 0.36633649 0
2.7210002 0.25125134 0.36632025 0
2.7220001 0.24719098 0.36630404 0
2.7220001 0.24300253 0.36630404 0
2.7230003 0.23893678 0.3662878 0
2.7230003 0.23474652 0.3662878 0
2.7240002 0.23067531 0.36627156 0
2.7250001 0.2266005 0.36625534 0
2.7250001 0.22240666 0.36625534 0
2.7260003 0.21832645 0.3662391 0
2.7270002 0.21424261 0.36622286 0
2.7270002 0.21004516 0.36622286 0
2.7280002 0.20595592 0.36620662 0
2.7290001 0.20186307 0.3661904 0
2.7290001 0.19766201 0.3661904 0
2.7300003 0.19356377 0.36617416 0
2.7300003 0.1893609 0.36617416 0
2.7310002 0.18525723 0.36615792 0
2.7320001 0.18114994 0.36614168 0
2.7320001 0.17694347 0.36614168 0
2.7330003 0.17283081 0.36612546 0
2.7340002 0.16871451 0.36610922 0
2.7340002 0.16450441 0.36610922 0
2.7350001 0.1603827 0.36609298 0
2.7360003 0.15625741 0.36607674 0
2.7360003 0.15204372 0.36607674 0
2.7370002 0.14791299 0.36606053 0
2.7380002 0.14377865 0.36604428 0
2.7380002 0.13956136 0.36604428 0
2.7390003 0.13542163 0.36602804 0
2.7390003 0.13120252 0.36602804 0
2.7400002 0.12705736 0.3660118 0
2.7410002 0.12290859 0.36599559 0
2.7410002 0.11868589 0.36599559 0
2.7420001 0.11453171 0.36597934 0
2.7430003 0.11037394 0.3659631 0
2.7430003 0.10614762 0.3659631 0
2.7440002 0.10198441 0.36594689 0
2.7450001 0.09781763 0.36593065 0
2.7450001 0.093587697 0.36593065 0
2.7460003 0.089415491 0.3659144 0
2.7470002 0.085239679 0.36589816 0
2.7470002 0.08100614 0.36589816 0
2.7480001 0.076824903 0.36588195 0
2.7480001 0.072589561 0.36588195 0
2.7490003 0.068402931 0.36586571 0
2.7500002 0.06421268 0.36584947 0
2.7500002 0.059973735 0.36584947 0
2.7510002 0.055778075 0.36583322 0
2.7520001 0.051578809 0.36581701 0
2.7520001 0.047336247 0.36581701 0
2.7530003 0.043131579 0.36580077 0
2.7540002 0.03892329 0.36578453 0
2.7540002 0.034677129 0.36578453 0
2.7550001 0.030463424 0.36576831 0
2.7560003 0.026246127 0.36575207 0
2.7560003 0.02199636 0.36575207 0
2.7570002 0.017773639 0.36573583 0
2.7580001 0.013547316 0.36571959 0
2.7580001 0.0092939362 0.36571959 0
2.7590003 0.0050622039 0.36570334 0
2.7600002 0.00082686171 0.36568713 0
2.7600002 -0.0034301244 0.36568713 0
2.7610002 -0.0076708794 0.36567089 0
2.7620003 -0.011915237 0.36565465 0
2.7620003 -0.016175833 0.36565465 0
2.7630002 -0.020425607 0.36563843 0
2.7630002 -0.024688005 0.36563843 0
2.7640002 -0.02894319 0.36562219 0
2.7650001 -0.033201981 0.36560595 0
2.7650001 -0.037467986 0.36560595 0
2.7660003 -0.041732188 0.36558971 0
2.7670002 -0.046 0.3655735 0
2.7060001 0.34500065 0.3624042 0
2.7070003 0.34100884 0.36238617 0
2.7080002 0.33701342 0.36236811 0
2.7080002 0.33285025 0.36236811 0
2.7090001 0.32884938 0.36235008 0
2.7100003 0.32484493 0.36233205 0
2.7100003 0.32067814 0.36233205 0
2.7110002 0.31666827 0.36231402 0
2.7110002 0.31249964 0.36231402 0
2.7120001 0.30848438 0.36229596 0
2.7130003 0.30446553 0.36227793 0
2.7130003 0.30029333 0.36227793 0
2.7140002 0.296269 0.36225989 0
2.7150002 0.29224107 0.36224186 0
2.7150002 0.28806528 0.36224186 0
2.7160003 0.28403199 0.3622238 0
2.7160003 0.27985436 0.3622238 0
2.7170002 0.27581564 0.36220577 0
2.7180002 0.27177328 0.36218774 0
2.7180002 0.26759204 0.36218774 0
2.7190001 0.26354429 0.36216971 0
2.7200003 0.25949296 0.36215165 0
2.7200003 0.25530812 0.36215165 0
2.7210002 0.25125134 0.36213362 0
2.7220001 0.24719098 0.36211559 0
2.7220001 0.24300253 0.36211559 0
2.7230003 0.23893678 0.36209756 0
2.7230003 0.23474652 0.36209756 0
2.7240002 0.23067531 0.3620795 0
2.7250001 0.2266005 0.36206147 0
2.7250001 0.22240666 0.36206147 0
2.7260003 0.21832645 0.36204344 0
2.7270002 0.21424261 0.36202541 0
2.7270002 0.21004516 0.36202541 0
2.7280002 0.20595592 0.36200735 0
2.7290001 0.20186307 0.36198932 0
2.7290001 0.19766201 0.36198932 0
2.7300003 0.19356377 0.36197129 0
2.7300003 0.1893609 0.36197129 0
2.7310002 0.18525723 0.36195326 0
2.7320001 0.18114994 0.3619352 0
2.7320001 0.17694347 0.3619352 0
2.7330003 0.17283081 0.36191717 0
2.7340002 0.16871451 0.36189914 0
2.7340002 0.16450441 0.36189914 0
2.7350001 0.1603827 0.36188108 0
2.7360003 0.15625741 0.36186305 0
2.7360003 0.15204372 0.36186305 0
2.7370002 0.14791299 0.36184502 0
2.7380002 0.14377865 0.36182699 0
2.7380002 0.13956136 0.36182699 0
2.7390003 0.13542163 0.36180893 0
2.7390003 0.13120252 0.36180893 0
2.7400002 0.12705736 0.3617909 0
2.7410002 0.12290859 0.36177287 0
2.7410002 0.11868589 0.36177287 0
2.7420001 0.11453171 0.36175483 0
2.7430003 0.11037394 0.36173677 0
2.7430003 0.10614762 0.36173677 0
2.7440002 0.10198441 0.36171874 0
2.7450001 0.09781763 0.36170071 0
2.7450001 0.093587697 0.36170071 0
2.7460003 0.089415491 0.36168265 0
2.7470002 0.085239679 0.36166462 0
2.7470002 0.08100614 0.36166462 0
2.7480001 0.076824903 0.36164659 0
2.7480001 0.072589561 0.36164659 0
2.7490003 0.068402931 0.36162856 0
2.7500002 0.06421268 0.36161053 0
2.7500002 0.059973735 0.36161053 0
2.7510002 0.055778075 0.36159247 0
2.7520001 0.051578809 0.36157444 0
2.7520001 0.047336247 0.36157444 0
2.7530003 0.043131579 0.36155641 0
2.7540002 0.03892329 0.36153838 0
2.7540002 0.034677129 0.36153838 0
2.7550001 0.030463424 0.36152035 0
2.7560003 0.026246127 0.36150229 0
2.7560003 0.02199636 0.36150229 0
2.7570002 0.017773639 0.36148426 0
2.7580001 0.013547316 0.36146623 0
2.7580001 0.0092939362 0.36146623 0
2.7590003 0.0050622039 0.36144817 0
2.7600002 0.00082686171 0.36143014 0
2.7600002 -0.0034301244 0.36143014 0
2.7610002 -0.0076708794 0.36141211 0
2.7620003 -0.011915237 0.36139405 0
2.7620003 -0.016175833 0.36139405 0
2.7630002 -0.020425607 0.36137602 0
2.7630002 -0.024688005 0.36137602 0
2.7640002 -0.02894319 0.36135799 0
2.7650001 -0.033201981 0.36133996 0
2.7650001 -0.037467986 0.36133996 0
2.7660003 -0.041732188 0.36132193 0
2.7670002 -0.046 0.36130387 0
2.7060001 0.34500065 0.35824463 0
2.7070003 0.34100884 0.35822478 0
2.7080002 0.33701342 0.35820493 0
2.7080002 0.33285025 0.35820493 0
2.7090001 0.32884938 0.35818508 0
2.7100003 0.32484493 0.35816523 0
2.7100003 0.32067814 0.35816523 0
2.7110002 0.31666827 0.35814542 0
2.7110002 0.31249964 0.35814542 0
2.7120001 0.30848438 0.35812557 0
2.7130003 0.30446553 0.35810572 0
2.7130003 0.30029333 0.35810572 0
2.7140002 0.296269 0.35808587 0
2.7150002 0.29224107 0.35806605 0
2.7150002 0.28806528 0.35806605 0
2.7160003 0.28403199 0.3580462 0
2.7160003 0.27985436 0.3580462 0
2.7170002 0.27581564 0.35802636 0
2.7180002 0.27177328 0.35800651 0
2.7180002 0.26759204 0.35800651 0
2.7190001 0.26354429 0.35798666 0
2.7200003 0.25949296 0.35796684 0
2.7200003 0.25530812 0.35796684 0
2.7210002 0.25125134 0.35794699 0
