# .PCD v0.7 - Point Cloud Data file format
VERSION 0.7
FIELDS x y z intensity
SIZE 4 4 4 4
TYPE F F F F
COUNT 1 1 1 1
WIDTH 774
HEIGHT 1
VIEWPOINT 0 0 0 1 0 0 0
POINTS 774
DATA ascii
4.6600003 -1.1371597 0.31947356 0
4.6590004 -1.144586 0.31949341 0
4.6570001 -1.1517488 0.31953308 0
4.6560001 -1.1591661 0.31955293 0
4.6540003 -1.1663165 0.3195926 0
4.6520004 -1.1734595 0.31963229 0
4.6510005 -1.1808624 0.31965214 0
4.6490002 -1.1879928 0.31969184 0
4.6470003 -1.195116 0.3197315 0
4.6460004 -1.2025045 0.31975135 0
4.6440005 -1.2096151 0.31979102 0
4.6420002 -1.2167184 0.31983072 0
4.6410003 -1.2240924 0.31985056 0
4.6390004 -1.2311832 0.31989023 0
4.6370001 -1.2382667 0.31992993 0
4.6360002 -1.2456262 0.31994978 0
4.6620002 -1.1299841 0.31174606 0
4.6600003 -1.1371597 0.31178933 0
4.6590004 -1.144586 0.31181097 0
4.6570001 -1.1517488 0.31185427 0
4.6560001 -1.1591661 0.31187594 0
4.6540003 -1.1663165 0.31191921 0
4.6520004 -1.1734595 0.31196249 0
4.6510005 -1.1808624 0.31198415 0
4.6490002 -1.1879928 0.31202745 0
4.6470003 -1.195116 0.31207073 0
4.6460004 -1.2025045 0.31209236 0
4.6440005 -1.2096151 0.31213567 0
4.6420002 -1.2167184 0.31217897 0
4.6410003 -1.2240924 0.31220061 0
4.6390004 -1.2311832 0.31224388 0
4.6370001 -1.2382667 0.31228718 0
4.6360002 -1.2456262 0.31230885 0
4.6340003 -1.2526972 0.31235212 0
4.6330004 -1.2600478 0.31237376 0
4.6640005 -1.1228014 0.30401132 0
4.6620002 -1.1299841 0.30405822 0
4.6600003 -1.1371597 0.3041051 0
4.6590004 -1.144586 0.30412856 0
4.6570001 -1.1517488 0.30417547 0
4.6560001 -1.1591661 0.30419892 0
4.6540003 -1.1663165 0.30424583 0
4.6520004 -1.1734595 0.30429271 0
4.6510005 -1.1808624 0.30431616 0
4.6490002 -1.1879928 0.30436307 0
4.6470003 -1.195116 0.30440995 0
4.6460004 -1.2025045 0.30443341 0
4.6440005 -1.2096151 0.30448031 0
4.6420002 -1.2167184 0.30452722 0
4.6410003 -1.2240924 0.30455065 0
4.6390004 -1.2311832 0.30459756 0
4.6370001 -1.2382667 0.30464447 0
4.6360002 -1.2456262 0.30466789 0
4.6340003 -1.2526972 0.3047148 0
4.6330004 -1.2600478 0.30473825 0
4.6640005 -1.1228014 0.29631987 0
4.6620002 -1.1299841 0.29637039 0
4.6600003 -1.1371597 0.29642087 0
4.6590004 -1.144586 0.29644614 0
4.6570001 -1.1517488 0.29649666 0
4.6560001 -1.1591661 0.2965219 0
4.6540003 -1.1663165 0.29657242 0
4.6520004 -1.1734595 0.29662293 0
4.6510005 -1.1808624 0.29664814 0
4.6490002 -1.1879928 0.29669869 0
4.6470003 -1.195116 0.29674917 0
4.6460004 -1.2025045 0.29677445 0
4.6440005 -1.2096151 0.29682493 0
4.6420002 -1.2167184 0.29687545 0
4.6410003 -1.2240924 0.29690069 0
4.6390004 -1.2311832 0.2969512 0
4.6370001 -1.2382667 0.29700172 0
4.6360002 -1.2456262 0.29702699 0
4.6340003 -1.2526972 0.29707748 0
4.6330004 -1.2600478 0.29710272 0
4.6310005 -1.2671062 0.29715323 0
4.6650004 -1.1153606 0.28860137 0
4.6640005 -1.1228014 0.28862843 0
4.6620002 -1.1299841 0.28868255 0
4.6600003 -1.1371597 0.28873667 0
4.6590004 -1.144586 0.2887637 0
4.6570001 -1.1517488 0.28881785 0
4.6560001 -1.1591661 0.28884488 0
4.6540003 -1.1663165 0.288899 0
4.6520004 -1.1734595 0.28895313 0
4.6510005 -1.1808624 0.28898019 0
4.6490002 -1.1879928 0.28903431 0
4.6470003 -1.195116 0.28908843 0
4.6460004 -1.2025045 0.28911546 0
4.6440005 -1.2096151 0.28916958 0
4.6420002 -1.2167184 0.2892237 0
4.6410003 -1.2240924 0.28925076 0
4.6390004 -1.2311832 0.28930485 0
4.6370001 -1.2382667 0.28935897 0
4.6360002 -1.2456262 0.28938603 0
4.6340003 -1.2526972 0.28944016 0
4.6330004 -1.2600478 0.28946722 0
4.6310005 -1.2671062 0.28952131 0
4.6650004 -1.1153606 0.28090814 0
4.6640005 -1.1228014 0.28093699 0
4.6620002 -1.1299841 0.28099471 0
4.6600003 -1.1371597 0.28105244 0
4.6590004 -1.144586 0.28108132 0
4.6570001 -1.1517488 0.28113902 0
4.6560001 -1.1591661 0.28116789 0
4.6540003 -1.1663165 0.28122562 0
4.6520004 -1.1734595 0.28128332 0
4.6510005 -1.1808624 0.2813122 0
4.6490002 -1.1879928 0.28136992 0
4.6470003 -1.195116 0.28142762 0
4.6460004 -1.2025045 0.2814565 0
4.6440005 -1.2096151 0.28151423 0
4.6420002 -1.2167184 0.28157195 0
4.6410003 -1.2240924 0.2816008 0
4.6390004 -1.2311832 0.28165853 0
4.6380005 -1.2385482 0.28168738 0
4.6360002 -1.2456262 0.28174511 0
4.6340003 -1.2526972 0.28180283 0
4.6330004 -1.2600478 0.28183168 0
4.6310005 -1.2671062 0.28188941 0
4.6650004 -1.1153606 0.27321488 0
4.6640005 -1.1228014 0.27324557 0
4.6620002 -1.1299841 0.27330691 0
4.6600003 -1.1371597 0.27336824 0
4.6590004 -1.144586 0.27339888 0
4.6570001 -1.1517488 0.27346021 0
4.6560001 -1.1591661 0.27349091 0
4.6540003 -1.1663165 0.27355221 0
4.6520004 -1.1734595 0.27361354 0
4.6510005 -1.1808624 0.27364421 0
4.6490002 -1.1879928 0.27370554 0
4.6470003 -1.195116 0.27376688 0
4.6460004 -1.2025045 0.27379751 0
4.6440005 -1.2096151 0.27385885 0
4.6420002 -1.2167184 0.27392018 0
4.6410003 -1.2240924 0.27395087 0
4.6390004 -1.2311832 0.27401218 0
4.6380005 -1.2385482 0.27404284 0
4.6360002 -1.2456262 0.27410418 0
4.6340003 -1.2526972 0.27416551 0
4.6330004 -1.2600478 0.27419615 0
4.6310005 -1.2671062 0.27425748 0
4.6650004 -1.1153606 0.26552165 0
4.6640005 -1.1228014 0.26555413 0
4.6620002 -1.1299841 0.26561907 0
4.6600003 -1.1371597 0.26568401 0
4.6590004 -1.144586 0.26571646 0
4.6570001 -1.1517488 0.2657814 0
4.6560001 -1.1591661 0.26581389 0
4.6540003 -1.1663165 0.2658788 0
4.6520004 -1.1734595 0.26594377 0
4.6510005 -1.1808624 0.26597619 0
4.6490002 -1.1879928 0.26604116 0
4.6470003 -1.195116 0.26610607 0
4.6460004 -1.2025045 0.26613855 0
4.6440005 -1.2096151 0.26620349 0
4.6420002 -1.2167184 0.26626843 0
4.6410003 -1.2240924 0.26630092 0
4.6390004 -1.2311832 0.26636583 0
4.6380005 -1.2385482 0.26639831 0
4.6360002 -1.2456262 0.26646325 0
4.6340003 -1.2526972 0.26652819 0
4.6330004 -1.2600478 0.26656064 0
4.6310005 -1.2671062 0.26662558 0
4.6650004 -1.1153606 0.25782841 0
4.6640005 -1.1228014 0.25786269 0
4.6620002 -1.1299841 0.25793123 0
4.6610003 -1.1374158 0.25796551 0
4.6590004 -1.144586 0.25803405 0
4.6570001 -1.1517488 0.2581026 0
4.6560001 -1.1591661 0.25813687 0
4.6540003 -1.1663165 0.25820541 0
4.6520004 -1.1734595 0.25827396 0
4.6510005 -1.1808624 0.25830823 0
4.6490002 -1.1879928 0.25837678 0
4.6470003 -1.195116 0.25844532 0
4.6460004 -1.2025045 0.2584796 0
4.6440005 -1.2096151 0.25854814 0
4.6420002 -1.2167184 0.25861669 0
4.6410003 -1.2240924 0.25865096 0
4.6390004 -1.2311832 0.2587195 0
4.6380005 -1.2385482 0.25875378 0
4.6360002 -1.2456262 0.25882232 0
4.6340003 -1.2526972 0.25889087 0
4.6330004 -1.2600478 0.25892514 0
4.6310005 -1.2671062 0.25899369 0
4.6650004 -1.1153606 0.25013518 0
4.6640005 -1.1228014 0.25017124 0
4.6620002 -1.1299841 0.2502434 0
4.6610003 -1.1374158 0.25027949 0
4.6590004 -1.144586 0.25035161 0
4.6570001 -1.1517488 0.25042379 0
4.6560001 -1.1591661 0.25045985 0
4.6540003 -1.1663165 0.25053203 0
4.6520004 -1.1734595 0.25060415 0
4.6510005 -1.1808624 0.25064024 0
4.6490002 -1.1879928 0.25071239 0
4.6470003 -1.195116 0.25078455 0
4.6460004 -1.2025045 0.25082064 0
4.6440005 -1.2096151 0.25089276 0
4.6420002 -1.2167184 0.25096494 0
4.6410003 -1.2240924 0.251001 0
4.6390004 -1.2311832 0.25107315 0
4.6380005 -1.2385482 0.25110921 0
4.6360002 -1.2456262 0.25118136 0
4.6340003 -1.2526972 0.25125355 0
4.6330004 -1.2600478 0.25128961 0
4.6310005 -1.2671062 0.25136173 0
4.6650004 -1.1153606 0.24244192 0
4.6640005 -1.1228014 0.2424798 0
4.6620002 -1.1299841 0.24255557 0
4.6610003 -1.1374158 0.24259345 0
4.6590004 -1.144586 0.24266921 0
4.6570001 -1.1517488 0.24274497 0
4.6560001 -1.1591661 0.24278286 0
4.6540003 -1.1663165 0.2428586 0
4.6520004 -1.1734595 0.24293436 0
4.6510005 -1.1808624 0.24297224 0
4.6490002 -1.1879928 0.24304801 0
4.6470003 -1.195116 0.24312377 0
4.6460004 -1.2025045 0.24316165 0
4.6440005 -1.2096151 0.24323741 0
4.6420002 -1.2167184 0.24331318 0
4.6410003 -1.2240924 0.24335104 0
4.6390004 -1.2311832 0.24342681 0
4.6380005 -1.2385482 0.24346468 0
4.6360002 -1.2456262 0.24354045 0
4.6340003 -1.2526972 0.24361621 0
4.6330004 -1.2600478 0.24365409 0
4.6310005 -1.2671062 0.24372984 0
4.6650004 -1.1153606 0.23474868 0
4.6640005 -1.1228014 0.23478837 0
4.6620002 -1.1299841 0.23486775 0
4.6610003 -1.1374158 0.23490742 0
4.6590004 -1.144586 0.23498678 0
4.6570001 -1.1517488 0.23506616 0
4.6560001 -1.1591661 0.23510584 0
4.6540003 -1.1663165 0.23518521 0
4.6520004 -1.1734595 0.23526457 0
4.6510005 -1.1808624 0.23530425 0
4.6490002 -1.1879928 0.23538363 0
4.6470003 -1.195116 0.23546299 0
4.6460004 -1.2025045 0.23550269 0
4.6440005 -1.2096151 0.23558204 0
4.6420002 -1.2167184 0.23566142 0
4.6410003 -1.2240924 0.2357011 0
4.6390004 -1.2311832 0.23578045 0
4.6380005 -1.2385482 0.23582014 0
4.6360002 -1.2456262 0.23589952 0
4.6340003 -1.2526972 0.23597889 0
4.6330004 -1.2600478 0.23601857 0
4.6310005 -1.2671062 0.23609793 0
4.6650004 -1.1153606 0.22705545 0
4.6640005 -1.1228014 0.22709693 0
4.6620002 -1.1299841 0.22717991 0
4.6610003 -1.1374158 0.2272214 0
4.6590004 -1.144586 0.22730437 0
4.6570001 -1.1517488 0.22738737 0
4.6560001 -1.1591661 0.22742884 0
4.6540003 -1.1663165 0.22751181 0
4.6520004 -1.1734595 0.22759478 0
4.6510005 -1.1808624 0.22763626 0
4.6490002 -1.1879928 0.22771925 0
4.6470003 -1.195116 0.22780222 0
4.6460004 -1.2025045 0.22784372 0
4.6440005 -1.2096151 0.22792669 0
4.6420002 -1.2167184 0.22800967 0
4.6410003 -1.2240924 0.22805114 0
4.6390004 -1.2311832 0.22813411 0
4.6380005 -1.2385482 0.22817561 0
4.6360002 -1.2456262 0.22825859 0
4.6340003 -1.2526972 0.22834156 0
4.6330004 -1.2600478 0.22838303 0
4.6310005 -1.2671062 0.22846602 0
4.6650004 -1.1153606 0.2193622 0
4.6640005 -1.1228014 0.21940547 0
4.6620002 -1.1299841 0.21949208 0
4.6610003 -1.1374158 0.21953537 0
4.6590004 -1.144586 0.21962196 0
4.6570001 -1.1517488 0.21970855 0
4.6560001 -1.1591661 0.21975183 0
4.6540003 -1.1663165 0.2198384 0
4.6520004 -1.1734595 0.21992499 0
4.6510005 -1.1808624 0.21996827 0
4.6490002 -1.1879928 0.22005488 0
4.6470003 -1.195116 0.22014144 0
4.6460004 -1.2025045 0.22018474 0
4.6440005 -1.2096151 0.22027132 0
4.6420002 -1.2167184 0.22035791 0
4.6410003 -1.2240924 0.2204012 0
4.6390004 -1.2311832 0.22048777 0
4.6380005 -1.2385482 0.22053108 0
4.6360002 -1.2456262 0.22061767 0
4.6340003 -1.2526972 0.22070424 0
4.6330004 -1.2600478 0.22074752 0
4.6310005 -1.2671062 0.22083411 0
4.6650004 -1.1153606 0.21166895 0
4.6640005 -1.1228014 0.21171404 0
4.6620002 -1.1299841 0.21180426 0
4.6610003 -1.1374158 0.21184935 0
4.6590004 -1.144586 0.21193953 0
4.6570001 -1.1517488 0.21202973 0
4.6560001 -1.1591661 0.21207483 0
4.6540003 -1.1663165 0.21216501 0
4.6520004 -1.1734595 0.21225519 0
4.6510005 -1.1808624 0.21230029 0
4.6490002 -1.1879928 0.2123905 0
4.6470003 -1.195116 0.21248068 0
4.6460004 -1.2025045 0.21252577 0
4.6440005 -1.2096151 0.21261595 0
4.6420002 -1.2167184 0.21270615 0
4.6410003 -1.2240924 0.21275125 0
4.6390004 -1.2311832 0.21284144 0
4.6380005 -1.2385482 0.21288651 0
4.6360002 -1.2456262 0.21297672 0
4.6340003 -1.2526972 0.21306691 0
4.6330004 -1.2600478 0.21311201 0
4.6310005 -1.2671062 0.21320219 0
4.6650004 -1.1153606 0.20397572 0
4.6640005 -1.1228014 0.2040226 0
4.6620002 -1.1299841 0.20411642 0
4.6610003 -1.1374158 0.20416331 0
4.6590004 -1.144586 0.2042571 0
4.6570001 -1.1517488 0.20435092 0
4.6560001 -1.1591661 0.20439783 0
4.6540003 -1.1663165 0.20449162 0
4.6520004 -1.1734595 0.2045854 0
4.6510005 -1.1808624 0.2046323 0
4.6490002 -1.1879928 0.20472611 0
4.6470003 -1.195116 0.2048199 0
4.6460004 -1.2025045 0.2048668 0
4.6440005 -1.2096151 0.20496058 0
4.6420002 -1.2167184 0.2050544 0
4.6410003 -1.2240924 0.2051013 0
4.6390004 -1.2311832 0.2051951 0
4.6380005 -1.2385482 0.20524198 0
4.6360002 -1.2456262 0.2053358 0
4.6340003 -1.2526972 0.20542958 0
4.6330004 -1.2600478 0.20547649 0
4.6310005 -1.2671062 0.20557028 0
4.6660004 -1.1156114 0.19623376 0
4.6640005 -1.1228014 0.19633116 0
4.6620002 -1.1299841 0.19642858 0
4.6610003 -1.1374158 0.19647729 0
4.6590004 -1.144586 0.19657469 0
4.6570001 -1.1517488 0.19667211 0
4.6560001 -1.1591661 0.19672081 0
4.6540003 -1.1663165 0.19681822 0
4.6520004 -1.1734595 0.19691561 0
4.6510005 -1.1808624 0.19696431 0
4.6490002 -1.1879928 0.19706173 0
4.6470003 -1.195116 0.19715913 0
4.6460004 -1.2025045 0.19720782 0
4.6440005 -1.2096151 0.19730522 0
4.6420002 -1.2167184 0.19740264 0
4.6410003 -1.2240924 0.19745135 0
4.6390004 -1.2311832 0.19754875 0
4.6380005 -1.2385482 0.19759744 0
4.6360002 -1.2456262 0.19769487 0
4.6340003 -1.2526972 0.19779226 0
4.6330004 -1.2600478 0.19784096 0
4.6310005 -1.2671062 0.19793835 0
4.6660004 -1.1156114 0.18853873 0
4.6640005 -1.1228014 0.18863973 0
4.6620002 -1.1299841 0.18874077 0
4.6610003 -1.1374158 0.18879126 0
4.6590004 -1.144586 0.18889228 0
4.6570001 -1.1517488 0.1889933 0
4.6560001 -1.1591661 0.18904381 0
4.6540003 -1.1663165 0.18914481 0
4.6520004 -1.1734595 0.18924582 0
4.6510005 -1.1808624 0.18929631 0
4.6490002 -1.1879928 0.18939735 0
4.6470003 -1.195116 0.18949835 0
4.6460004 -1.2025045 0.18954885 0
4.6440005 -1.2096151 0.18964985 0
4.6420002 -1.2167184 0.18975089 0
4.6410003 -1.2240924 0.18980139 0
4.6390004 -1.2311832 0.1899024 0
4.6380005 -1.2385482 0.18995291 0
4.6360002 -1.2456262 0.19005394 0
4.6340003 -1.2526972 0.19015494 0
4.6330004 -1.2600478 0.19020544 0
4.6310005 -1.2671062 0.19030645 0
4.6660004 -1.1156114 0.18084368 0
4.6640005 -1.1228014 0.18094829 0
4.6620002 -1.1299841 0.18105294 0
4.6610003 -1.1374158 0.18110523 0
4.6590004 -1.144586 0.18120985 0
4.6570001 -1.1517488 0.18131448 0
4.6560001 -1.1591661 0.18136679 0
4.6540003 -1.1663165 0.18147141 0
4.6520004 -1.1734595 0.18157603 0
4.6510005 -1.1808624 0.18162832 0
4.6490002 -1.1879928 0.18173297 0
4.6470003 -1.195116 0.18183757 0
4.6460004 -1.2025045 0.18188988 0
4.6440005 -1.2096151 0.1819945 0
4.6420002 -1.2167184 0.18209913 0
4.6410003 -1.2240924 0.18215144 0
4.6390004 -1.2311832 0.18225606 0
4.6380005 -1.2385482 0.18230838 0
4.6360002 -1.2456262 0.182413 0
4.6340003 -1.2526972 0.18251762 0
4.6330004 -1.2600478 0.18256992 0
4.6310005 -1.2671062 0.18267454 0
4.6660004 -1.1156114 0.17314863 0
4.6640005 -1.1228014 0.17325684 0
4.6620002 -1.1299841 0.1733651 0
4.6610003 -1.1374158 0.17341922 0
4.6590004 -1.144586 0.17352742 0
4.6570001 -1.1517488 0.17363568 0
4.6560001 -1.1591661 0.17368978 0
4.6540003 -1.1663165 0.17379801 0
4.6520004 -1.1734595 0.17390622 0
4.6510005 -1.1808624 0.17396034 0
4.6490002 -1.1879928 0.17406859 0
4.6470003 -1.195116 0.17417681 0
4.6460004 -1.2025045 0.17423092 0
4.6440005 -1.2096151 0.17433913 0
4.6420002 -1.2167184 0.17444739 0
4.6410003 -1.2240924 0.17450149 0
4.6390004 -1.2311832 0.17460971 0
4.6380005 -1.2385482 0.17466383 0
4.6360002 -1.2456262 0.17477207 0
4.6340003 -1.2526972 0.1748803 0
4.6330004 -1.2600478 0.1749344 0
4.6310005 -1.2671062 0.17504261 0
4.6660004 -1.1156114 0.1654536 0
4.6640005 -1.1228014 0.16556543 0
4.6620002 -1.1299841 0.16567726 0
4.6610003 -1.1374158 0.16573319 0
4.6590004 -1.144586 0.16584502 0
4.6570001 -1.1517488 0.16595687 0
4.6560001 -1.1591661 0.16601278 0
4.6540003 -1.1663165 0.1661246 0
4.6520004 -1.1734595 0.16623643 0
4.6510005 -1.1808624 0.16629237 0
4.6490002 -1.1879928 0.16640419 0
4.6470003 -1.195116 0.16651602 0
4.6460004 -1.2025045 0.16657194 0
4.6440005 -1.2096151 0.16668378 0
4.6420002 -1.2167184 0.16679564 0
4.6410003 -1.2240924 0.16685154 0
4.6390004 -1.2311832 0.16696337 0
4.6380005 -1.2385482 0.16701929 0
4.6360002 -1.2456262 0.16713113 0
4.6340003 -1.2526972 0.16724296 0
4.6330004 -1.2600478 0.16729888 0
4.6310005 -1.2671062 0.16741072 0
4.6660004 -1.1156114 0.15775853 0
4.6640005 -1.1228014 0.15787397 0
4.6620002 -1.1299841 0.15798944 0
4.6610003 -1.1374158 0.15804715 0
4.6590004 -1.144586 0.15816259 0
4.6570001 -1.1517488 0.15827805 0
4.6560001 -1.1591661 0.15833578 0
4.6540003 -1.1663165 0.15845121 0
4.6520004 -1.1734595 0.15856664 0
4.6510005 -1.1808624 0.15862437 0
4.6490002 -1.1879928 0.15873982 0
4.6470003 -1.195116 0.15885526 0
4.6460004 -1.2025045 0.15891297 0
4.6440005 -1.2096151 0.15902841 0
4.6420002 -1.2167184 0.15914388 0
4.6410003 -1.2240924 0.15920159 0
4.6390004 -1.2311832 0.15931703 0
4.6380005 -1.2385482 0.15937474 0
4.6360002 -1.2456262 0.15949021 0
4.6340003 -1.2526972 0.15960564 0
4.6330004 -1.2600478 0.15966336 0
4.6310005 -1.2671062 0.1597788 0
4.6660004 -1.1156114 0.15006348 0
4.6640005 -1.1228014 0.15018252 0
4.6620002 -1.1299841 0.15030164 0
4.6610003 -1.1374158 0.15036112 0
4.6590004 -1.144586 0.15048018 0
4.6570001 -1.1517488 0.15059924 0
4.6560001 -1.1591661 0.15065876 0
4.6540003 -1.1663165 0.15077782 0
4.6520004 -1.1734595 0.15089685 0
4.6510005 -1.1808624 0.15095636 0
4.6490002 -1.1879928 0.15107545 0
4.6470003 -1.195116 0.15119448 0
4.6460004 -1.2025045 0.151254 0
4.6440005 -1.2096151 0.15137306 0
4.6420002 -1.2167184 0.15149212 0
4.6410003 -1.2240924 0.15155163 0
4.6390004 -1.2311832 0.15167069 0
4.6380005 -1.2385482 0.15173021 0
4.6360002 -1.2456262 0.1518493 0
4.6340003 -1.2526972 0.15196833 0
4.6330004 -1.2600478 0.15202785 0
4.6310005 -1.2671062 0.15214688 0
4.6660004 -1.1156114 0.14236847 0
4.6640005 -1.1228014 0.1424911 0
4.6620002 -1.1299841 0.14261377 0
4.6610003 -1.1374158 0.1426751 0
4.6590004 -1.144586 0.14279774 0
4.6570001 -1.1517488 0.1429204 0
4.6560001 -1.1591661 0.14298177 0
4.6540003 -1.1663165 0.1431044 0
4.6520004 -1.1734595 0.14322707 0
4.6510005 -1.1808624 0.14328837 0
4.6490002 -1.1879928 0.14341107 0
4.6470003 -1.195116 0.14353371 0
4.6460004 -1.2025045 0.14359504 0
4.6440005 -1.2096151 0.14371768 0
4.6430001 -1.2169944 0.14377907 0
4.6410003 -1.2240924 0.14390171 0
4.6390004 -1.2311832 0.14402434 0
4.6380005 -1.2385482 0.14408568 0
4.6360002 -1.2456262 0.14420834 0
4.6340003 -1.2526972 0.14433098 0
4.6330004 -1.2600478 0.14439231 0
4.6310005 -1.2671062 0.14451495 0
4.6660004 -1.1156114 0.13467339 0
4.6640005 -1.1228014 0.13479966 0
4.6620002 -1.1299841 0.13492596 0
4.6610003 -1.1374158 0.13498908 0
4.6590004 -1.144586 0.13511533 0
4.6570001 -1.1517488 0.13524163 0
4.6560001 -1.1591661 0.13530475 0
4.6540003 -1.1663165 0.13543102 0
4.6520004 -1.1734595 0.13555726 0
4.6510005 -1.1808624 0.13562039 0
4.6490002 -1.1879928 0.13574669 0
4.6470003 -1.195116 0.13587293 0
4.6460004 -1.2025045 0.13593605 0
4.6440005 -1.2096151 0.13606232 0
4.6430001 -1.2169944 0.13612548 0
4.6410003 -1.2240924 0.13625172 0
4.6390004 -1.2311832 0.13637802 0
4.6380005 -1.2385482 0.13644111 0
4.6360002 -1.2456262 0.13656741 0
4.6340003 -1.2526972 0.13669369 0
4.6330004 -1.2600478 0.13675681 0
4.6310005 -1.2671062 0.13688305 0
4.6660004 -1.1156114 0.12697837 0
4.6640005 -1.1228014 0.12710822 0
4.6620002 -1.1299841 0.12723812 0
4.6610003 -1.1374158 0.12730303 0
4.6590004 -1.144586 0.12743291 0
4.6570001 -1.1517488 0.12756282 0
4.6560001 -1.1591661 0.12762773 0
4.6540003 -1.1663165 0.12775761 0
4.6520004 -1.1734595 0.12788749 0
4.6510005 -1.1808624 0.1279524 0
4.6490002 -1.1879928 0.12808231 0
4.6470003 -1.195116 0.12821215 0
4.6460004 -1.2025045 0.12827709 0
4.6440005 -1.2096151 0.12840697 0
4.6430001 -1.2169944 0.12847191 0
4.6410003 -1.2240924 0.12860179 0
4.6390004 -1.2311832 0.12873167 0
4.6380005 -1.2385482 0.12879661 0
4.6360002 -1.2456262 0.12892649 0
4.6340003 -1.2526972 0.12905633 0
4.6330004 -1.2600478 0.12912127 0
4.6310005 -1.2671062 0.12925115 0
4.6660004 -1.1156114 0.11928332 0
4.6640005 -1.1228014 0.11941677 0
4.6620002 -1.1299841 0.11955029 0
4.6610003 -1.1374158 0.11961702 0
4.6590004 -1.144586 0.1197505 0
4.6570001 -1.1517488 0.11988398 0
4.6560001 -1.1591661 0.11995074 0
4.6540003 -1.1663165 0.1200842 0
4.6520004 -1.1734595 0.12021768 0
4.6510005 -1.1808624 0.12028441 0
4.6490002 -1.1879928 0.12041792 0
4.6470003 -1.195116 0.12055138 0
4.6460004 -1.2025045 0.12061813 0
4.6440005 -1.2096151 0.12075159 0
4.6430001 -1.2169944 0.12081838 0
4.6410003 -1.2240924 0.12095183 0
4.6390004 -1.2311832 0.12108532 0
4.6380005 -1.2385482 0.12115204 0
4.6360002 -1.2456262 0.12128556 0
4.6340003 -1.2526972 0.12141904 0
4.6330004 -1.2600478 0.12148574 0
4.6310005 -1.2671062 0.12161922 0
4.6660004 -1.1156114 0.11158824 0
4.6640005 -1.1228014 0.11172536 0
4.6620002 -1.1299841 0.11186245 0
4.6610003 -1.1374158 0.111931 0
4.6590004 -1.144586 0.11206809 0
4.6570001 -1.1517488 0.11220521 0
4.6560001 -1.1591661 0.11227372 0
4.6540003 -1.1663165 0.11241081 0
4.6520004 -1.1734595 0.11254787 0
4.6510005 -1.1808624 0.11261645 0
4.6490002 -1.1879928 0.11275354 0
4.6470003 -1.195116 0.11289063 0
4.6460004 -1.2025045 0.11295918 0
4.6440005 -1.2096151 0.11309624 0
4.6430001 -1.2169944 0.11316478 0
4.6410003 -1.2240924 0.1133019 0
4.6390004 -1.2311832 0.11343896 0
4.6380005 -1.2385482 0.11350751 0
4.6360002 -1.2456262 0.11364463 0
4.6340003 -1.2526972 0.11378169 0
4.6330004 -1.2600478 0.11385027 0
4.6310005 -1.2671062 0.11398733 0
4.6660004 -1.1156114 0.10389322 0
4.6640005 -1.1228014 0.10403389 0
4.6620002 -1.1299841 0.10417461 0
4.6610003 -1.1374158 0.10424498 0
4.6590004 -1.144586 0.10438564 0
4.6570001 -1.1517488 0.10452637 0
4.6560001 -1.1591661 0.1045967 0
4.6540003 -1.1663165 0.1047374 0
4.6520004 -1.1734595 0.1048781 0
4.6510005 -1.1808624 0.10494843 0
4.6490002 -1.1879928 0.10508916 0
4.6470003 -1.195116 0.10522982 0
4.6460004 -1.2025045 0.10530019 0
4.6440005 -1.2096151 0.10544086 0
4.6430001 -1.2169944 0.10551125 0
4.6410003 -1.2240924 0.10565194 0
4.6390004 -1.2311832 0.10579261 0
4.6380005 -1.2385482 0.10586298 0
4.6360002 -1.2456262 0.10600367 0
4.6340003 -1.2526972 0.10614437 0
4.6330004 -1.2600478 0.10621473 0
4.6310005 -1.2671062 0.1063554 0
4.6660004 -1.1156114 0.096198171 0
4.6640005 -1.1228014 0.096342474 0
4.6620002 -1.1299841 0.096486777 0
4.6610003 -1.1374158 0.096558958 0
4.6590004 -1.144586 0.096703231 0
4.6570001 -1.1517488 0.096847564 0
4.6560001 -1.1591661 0.096919715 0
4.6540003 -1.1663165 0.097064018 0
4.6520004 -1.1734595 0.097208291 0
4.6510005 -1.1808624 0.097280473 0
4.6490002 -1.1879928 0.097424775 0
4.6470003 -1.195116 0.097569078 0
4.6460004 -1.2025045 0.09764123 0
4.6440005 -1.2096151 0.097785532 0
4.6430001 -1.2169944 0.097857684 0
4.6410003 -1.2240924 0.098001987 0
4.6390004 -1.2311832 0.09814629 0
4.6380005 -1.2385482 0.098218411 0
4.6360002 -1.2456262 0.098362744 0
4.6340003 -1.2526972 0.098507047 0
4.6330004 -1.2600478 0.098579198 0
4.6310005 -1.2671062 0.098723471 0
4.6640005 -1.1228014 0.088651031 0
4.6620002 -1.1299841 0.08879897 0
4.6610003 -1.1374158 0.08887291 0
4.6590004 -1.144586 0.089020818 0
4.6570001 -1.1517488 0.089168757 0
4.6560001 -1.1591661 0.089242697 0
4.6540003 -1.1663165 0.089390606 0
4.6520004 -1.1734595 0.089538515 0
4.6510005 -1.1808624 0.089612454 0
4.6490002 -1.1879928 0.089760393 0
4.6470003 -1.195116 0.089908302 0
4.6460004 -1.2025045 0.089982241 0
4.6440005 -1.2096151 0.09013015 0
4.6430001 -1.2169944 0.090204149 0
4.6410003 -1.2240924 0.090352029 0
4.6390004 -1.2311832 0.090499938 0
4.6380005 -1.2385482 0.090573907 0
4.6360002 -1.2456262 0.090721846 0
4.6340003 -1.2526972 0.090869725 0
4.6330004 -1.2600478 0.090943694 0
4.6310005 -1.2671062 0.091091573 0
4.6640005 -1.1228014 0.080959588 0
4.6620002 -1.1299841 0.081111133 0
4.6610003 -1.1374158 0.081186891 0
4.6590004 -1.144586 0.081338406 0
4.6570001 -1.1517488 0.081489921 0
4.6560001 -1.1591661 0.081565708 0
4.6540003 -1.1663165 0.081717193 0
4.6520004 -1.1734595 0.081868708 0
4.6510005 -1.1808624 0.081944466 0
4.6490002 -1.1879928 0.08209601 0
4.6470003 -1.195116 0.082247525 0
4.6460004 -1.2025045 0.082323283 0
4.6440005 -1.2096151 0.082474798 0
4.6430001 -1.2169944 0.082550585 0
4.6410003 -1.2240924 0.08270207 0
4.6390004 -1.2311832 0.082853615 0
4.6380005 -1.2385482 0.082929343 0
4.6360002 -1.2456262 0.083080888 0
4.6340003 -1.2526972 0.083232403 0
4.6330004 -1.2600478 0.08330816 0
4.6310005 -1.2671062 0.083459675 0
4.6640005 -1.1228014 0.073268145 0
4.6620002 -1.1299841 0.073423296 0
4.6610003 -1.1374158 0.073500872 0
4.6590004 -1.144586 0.073655993 0
4.6570001 -1.1517488 0.073811144 0
4.6560001 -1.1591661 0.073888689 0
4.6540003 -1.1663165 0.07404381 0
4.6520004 -1.1734595 0.074198931 0
4.6510005 -1.1808624 0.074276477 0
4.6490002 -1.1879928 0.074431628 0
4.6470003 -1.195116 0.074586749 0
4.6460004 -1.2025045 0.074664295 0
4.6440005 -1.2096151 0.074819416 0
4.6430001 -1.2169944 0.074897021 0
4.6410003 -1.2240924 0.075052142 0
4.6390004 -1.2311832 0.075207263 0
4.6380005 -1.2385482 0.075284809 0
4.6360002 -1.2456262 0.07543996 0
4.6340003 -1.2526972 0.075595081 0
4.6330004 -1.2600478 0.075672626 0
4.6310005 -1.2671062 0.075827748 0
4.6640005 -1.1228014 0.065576732 0
4.6620002 -1.1299841 0.065735489 0
4.6610003 -1.1374158 0.065814823 0
4.6590004 -1.144586 0.06597355 0
4.6570001 -1.1517488 0.066132307 0
4.6560001 -1.1591661 0.066211671 0
4.6540003 -1.1663165 0.066370398 0
4.6520004 -1.1734595 0.066529125 0
4.6510005 -1.1808624 0.066608489 0
4.6490002 -1.1879928 0.066767246 0
4.6470003 -1.195116 0.066925973 0
4.6460004 -1.2025045 0.067005366 0
4.6440005 -1.2096151 0.067164063 0
4.6430001 -1.2169944 0.067243457 0
4.6410003 -1.2240924 0.067402184 0
4.6390004 -1.2311832 0.067560881 0
4.6380005 -1.2385482 0.067640275 0
4.6360002 -1.2456262 0.067799032 0
4.6340003 -1.2526972 0.067957759 0
4.6330004 -1.2600478 0.068037122 0
4.6310005 -1.2671062 0.06819585 0
4.6640005 -1.1228014 0.057885259 0
4.6620002 -1.1299841 0.058047622 0
4.6610003 -1.1374158 0.058128804 0
4.6590004 -1.144586 0.058291137 0
4.6570001 -1.1517488 0.0584535 0
4.6560001 -1.1591661 0.058534682 0
4.6540003 -1.1663165 0.058697015 0
4.6520004 -1.1734595 0.058859348 0
4.6510005 -1.1808624 0.0589405 0
4.6490002 -1.1879928 0.059102863 0
4.6470003 -1.195116 0.059265196 0
4.6460004 -1.2025045 0.059346378 0
4.6440005 -1.2096151 0.059508681 0
4.6430001 -1.2169944 0.059589922 0
4.6410003 -1.2240924 0.059752256 0
4.6390004 -1.2311832 0.059914559 0
4.6380005 -1.2385482 0.059995711 0
4.6360002 -1.2456262 0.060158104 0
4.6340003 -1.2526972 0.060320437 0
4.6330004 -1.2600478 0.060401589 0
4.6310005 -1.2671062 0.060563922 0
4.6640005 -1.1228014 0.050193846 0
4.6620002 -1.1299841 0.050359815 0
4.6610003 -1.1374158 0.050442785 0
4.6590004 -1.144586 0.050608724 0
4.6570001 -1.1517488 0.050774723 0
4.6560001 -1.1591661 0.050857663 0
4.6540003 -1.1663165 0.051023602 0
4.6520004 -1.1734595 0.051189542 0
4.6510005 -1.1808624 0.051272511 0
4.6490002 -1.1879928 0.051438481 0
4.6470003 -1.195116 0.05160442 0
4.6460004 -1.2025045 0.051687419 0
4.6440005 -1.2096151 0.051853359 0
4.6430001 -1.2169944 0.051936328 0
4.6410003 -1.2240924 0.052102268 0
4.6390004 -1.2311832 0.052268207 0
4.6380005 -1.2385482 0.052351207 0
4.6360002 -1.2456262 0.052517176 0
4.6340003 -1.2526972 0.052683115 0
4.6330004 -1.2600478 0.052766055 0
4.6310005 -1.2671062 0.052932024 0
