# .PCD v0.7 - Point Cloud Data file format
VERSION 0.7
FIELDS x y z intensity
SIZE 4 4 4 4
TYPE F F F F
COUNT 1 1 1 1
WIDTH 1417
HEIGHT 1
VIEWPOINT 0 0 0 1 0 0 0
POINTS 1417
DATA ascii
2.9840002 0.35951051 0.55315328 0
2.9850001 0.35500458 0.55321103 0
2.9860003 0.3504951 0.55326879 0
2.9860003 0.34583044 0.55326879 0
2.9870002 0.34131551 0.55332649 0
2.9880002 0.33679694 0.55338418 0
2.9890003 0.33227482 0.55344194 0
2.9900002 0.32774907 0.55349964 0
2.9910002 0.32321969 0.5535574 0
2.9920001 0.31868669 0.55361509 0
2.9930003 0.31415015 0.55367279 0
2.9930003 0.30947289 0.55367279 0
2.9940002 0.30493087 0.55373055 0
2.7090001 0.26220948 0.53727978 0
2.7010002 0.25699109 0.53681803 0
2.6950002 0.25206128 0.53647172 0
2.6910002 0.24740925 0.53624082 0
2.6880002 0.24289793 0.53606761 0
2.6860001 0.23852184 0.53595221 0
2.6840003 0.23415306 0.53583676 0
2.6820002 0.22979143 0.5357213 0
2.6810002 0.22555611 0.5356636 0
2.6810002 0.22144163 0.5356636 0
2.6810002 0.21732715 0.5356636 0
2.6810002 0.21321264 0.5356636 0
2.6810002 0.20909816 0.5356636 0
2.6820002 0.20509371 0.5357213 0
2.6830001 0.20108563 0.535779 0
2.6840003 0.19707398 0.53583676 0
2.6850002 0.19305868 0.53589445 0
2.6870003 0.18914264 0.53600991 0
2.6900003 0.18532036 0.53618312 0
2.6930003 0.18148728 0.53635627 0
2.6960001 0.17764334 0.53652942 0
2.7010002 0.17397982 0.53681803 0
2.7060001 0.17029825 0.53710663 0
2.7130003 0.16678263 0.53751069 0
2.7230003 0.16351233 0.5380879 0
2.6610003 0.500507 0.53043073 0
2.6540003 0.49474925 0.53003931 0
2.6490002 0.48949295 0.52975971 0
2.6460001 0.48472726 0.52959198 0
2.6430001 0.47997242 0.52942419 0
2.6420002 0.47569382 0.52936828 0
2.6410003 0.4714188 0.52931237 0
2.6400001 0.46714735 0.52925646 0
2.6400001 0.46310681 0.52925646 0
2.6400001 0.45906627 0.52925646 0
2.6400001 0.45502579 0.52925646 0
2.6410003 0.45120716 0.52931237 0
2.6420002 0.44738483 0.52936828 0
2.6430001 0.44355896 0.52942419 0
2.6450002 0.43994597 0.52953601 0
2.6470003 0.43632573 0.52964789 0
2.6490002 0.43269825 0.52975971 0
2.6520002 0.42927459 0.52992749 0
2.6550002 0.42584017 0.53009522 0
2.6590002 0.4226023 0.53031892 0
2.6640003 0.41955566 0.53059852 0
2.6700003 0.41669485 0.53093398 0
2.6790001 0.41441843 0.53143728 0
2.9630003 0.46717083 0.54731798 0
2.9640002 0.46274608 0.54737389 0
2.9650002 0.4583177 0.5474298 0
2.9660003 0.45388576 0.54748571 0
2.9670002 0.44945019 0.54754168 0
2.9680002 0.44501102 0.54759759 0
2.9680002 0.44037884 0.54759759 0
2.9690001 0.43593425 0.5476535 0
2.9700003 0.4314861 0.54770941 0
2.9710002 0.42703426 0.54776531 0
2.9720001 0.42257884 0.54782128 0
2.9730003 0.41811988 0.54787719 0
2.9740002 0.41365725 0.5479331 0
2.9740002 0.40901423 0.5479331 0
2.9750001 0.4045462 0.54798901 0
2.9760003 0.40007457 0.54804492 0
2.9770002 0.39559931 0.54810083 0
2.9780002 0.39112043 0.54815674 0
2.9790003 0.38663799 0.54821265 0
2.9800003 0.38215193 0.54826862 0
2.9800003 0.37749809 0.54826862 0
2.9810002 0.37300661 0.54832453 0
2.9820001 0.3685115 0.54838043 0
2.9830003 0.36401284 0.54843634 0
2.9840002 0.35951051 0.54849225 0
2.9850001 0.35500458 0.54854816 0
2.9860003 0.3504951 0.54860413 0
2.9860003 0.34583044 0.54860413 0
2.9870002 0.34131551 0.54866004 0
2.9880002 0.33679694 0.54871595 0
2.9890003 0.33227482 0.54877186 0
2.9900002 0.32774907 0.54882777 0
2.9910002 0.32321969 0.54888368 0
2.9920001 0.31868669 0.54893959 0
2.9930003 0.31415015 0.54899549 0
2.9930003 0.30947289 0.54899549 0
2.9940002 0.30493087 0.54905146 0
2.9950001 0.30038527 0.54910737 0
2.7080002 0.25791281 0.53305888 0
2.7010002 0.25284052 0.53266746 0
2.6960001 0.24804959 0.53238785 0
2.6930003 0.24352926 0.53222013 0
2.6900003 0.23901975 0.5320524 0
2.6880002 0.2346437 0.53194052 0
2.6860001 0.23027486 0.53182864 0
2.6850002 0.22603232 0.53177273 0
2.6850002 0.22191063 0.53177273 0
2.6840003 0.21767348 0.53171688 0
2.6840003 0.21355358 0.53171688 0
2.6840003 0.2094337 0.53171688 0
2.6850002 0.2054238 0.53177273 0
2.6860001 0.20141032 0.53182864 0
2.6870003 0.19739327 0.53188461 0
2.6890001 0.19347718 0.53199643 0
2.6910002 0.1895539 0.53210831 0
2.6940002 0.18572441 0.53227603 0
2.6970003 0.18188411 0.53244376 0
2.7010002 0.17813039 0.53266746 0
2.7050002 0.17436223 0.53289115 0
2.7120001 0.17086102 0.53328258 0
2.7210002 0.16751857 0.53378582 0
2.6630001 0.49690837 0.52646053 0
2.6570003 0.4913978 0.52613586 0
2.6520002 0.48614508 0.52586532 0
2.6490002 0.48137939 0.52570295 0
2.6470003 0.4768573 0.52559471 0
2.6450002 0.47234231 0.52548653 0
2.6440003 0.46806371 0.52543241 0
2.6440003 0.46401596 0.52543241 0
2.6440003 0.45996821 0.52543241 0
2.6440003 0.45592046 0.52543241 0
2.6450002 0.45209458 0.52548653 0
2.6460001 0.44826508 0.52554059 0
2.6470003 0.44443202 0.52559471 0
2.6490002 0.44081175 0.52570295 0
2.6510003 0.4371843 0.5258112 0
2.6540003 0.43376249 0.52597356 0
2.6570003 0.43032986 0.52613586 0
2.6610003 0.42709565 0.52635235 0
2.6650002 0.42384693 0.52656877 0
2.6710002 0.42099512 0.5268935 0
2.6790001 0.4185293 0.52732641 0
2.9620001 0.47159195 0.54264069 0
2.9630003 0.46717083 0.54269481 0
2.9640002 0.46274608 0.54274893 0
2.9650002 0.4583177 0.54280305 0
2.9660003 0.45388576 0.54285717 0
2.9670002 0.44945019 0.54291129 0
2.9680002 0.44501102 0.54296541 0
2.9680002 0.44037884 0.54296541 0
2.9690001 0.43593425 0.54301953 0
2.9700003 0.4314861 0.54307365 0
2.9710002 0.42703426 0.54312778 0
2.9720001 0.42257884 0.54318184 0
2.9730003 0.41811988 0.54323596 0
2.9740002 0.41365725 0.54329008 0
2.9740002 0.40901423 0.54329008 0
2.9750001 0.4045462 0.5433442 0
2.9760003 0.40007457 0.54339832 0
2.9770002 0.39559931 0.54345244 0
2.9780002 0.39112043 0.54350656 0
2.9790003 0.38663799 0.54356068 0
2.9800003 0.38215193 0.54361475 0
2.9800003 0.37749809 0.54361475 0
2.9810002 0.37300661 0.54366887 0
2.9820001 0.3685115 0.54372299 0
2.9830003 0.36401284 0.54377711 0
2.9840002 0.35951051 0.54383123 0
2.9850001 0.35500458 0.54388535 0
2.9860003 0.3504951 0.54393947 0
2.9860003 0.34583044 0.54393947 0
2.9870002 0.34131551 0.54399359 0
2.9880002 0.33679694 0.54404771 0
2.9890003 0.33227482 0.54410183 0
2.9900002 0.32774907 0.5441559 0
2.9910002 0.32321969 0.54421002 0
2.9920001 0.31868669 0.54426414 0
2.9930003 0.31415015 0.54431826 0
2.9930003 0.30947289 0.54431826 0
2.9940002 0.30493087 0.54437238 0
2.9950001 0.30038527 0.54442644 0
2.7090001 0.25387949 0.5289498 0
2.7030003 0.2489461 0.52862513 0
2.6980002 0.24416056 0.52835453 0
2.6950002 0.23964205 0.52819222 0
2.6930003 0.235257 0.52808398 0
2.6900003 0.23075831 0.52792162 0
2.6890001 0.22650853 0.5278675 0
2.6890001 0.2223796 0.5278675 0
2.6880002 0.21813524 0.52781343 0
2.6880002 0.21400815 0.52781343 0
2.6880002 0.20988101 0.52781343 0
2.6890001 0.20586392 0.5278675 0
2.6900003 0.20184325 0.52792162 0
2.6920002 0.19792536 0.52802986 0
2.6930003 0.1938957 0.52808398 0
2.6960001 0.19006796 0.52824628 0
2.6980002 0.18612847 0.52835453 0
2.7020001 0.18238014 0.52857101 0
2.7070003 0.17871483 0.52884161 0
2.7120001 0.17503144 0.52911216 0
2.7210002 0.17170522 0.52959919 0
2.6700003 0.49449307 0.52274472 0
2.6610003 0.48827177 0.5222739 0
2.6570003 0.48325539 0.52206469 0
2.6530001 0.47825336 0.52185541 0
2.6510003 0.47372764 0.52175081 0
2.6500001 0.4694382 0.52169847 0
2.6500001 0.4653796 0.52169847 0
2.6490002 0.46109557 0.5216462 0
2.6500001 0.45726246 0.52169847 0
2.6500001 0.45320389 0.52169847 0
2.6510003 0.44936541 0.52175081 0
2.6530001 0.44574156 0.52185541 0
2.6540003 0.44189405 0.52190775 0
2.6570003 0.43847227 0.52206469 0
2.6590002 0.43482673 0.52216929 0
2.6630001 0.43159607 0.5223785 0
2.6680002 0.42856029 0.52264011 0
2.6740003 0.4257139 0.52295399 0
2.6830001 0.42346269 0.52342474 0
2.9620001 0.47621328 0.53801936 0
2.9620001 0.47159195 0.53801936 0
2.9630003 0.46717083 0.53807163 0
2.9640002 0.46274608 0.53812397 0
2.9650002 0.4583177 0.5381763 0
2.9660003 0.45388576 0.53822863 0
2.9670002 0.44945019 0.5382809 0
2.9680002 0.44501102 0.53833318 0
2.9680002 0.44037884 0.53833318 0
2.9690001 0.43593425 0.53838551 0
2.9700003 0.4314861 0.53843784 0
2.9710002 0.42703426 0.53849018 0
2.9720001 0.42257884 0.53854245 0
2.9730003 0.41811988 0.53859478 0
2.9740002 0.41365725 0.53864706 0
2.9740002 0.40901423 0.53864706 0
2.9750001 0.4045462 0.53869939 0
2.9760003 0.40007457 0.53875172 0
2.9770002 0.39559931 0.53880399 0
2.9780002 0.39112043 0.53885633 0
2.9790003 0.38663799 0.53890866 0
2.9800003 0.38215193 0.53896093 0
2.9800003 0.37749809 0.53896093 0
2.9810002 0.37300661 0.53901327 0
2.9820001 0.3685115 0.53906554 0
2.9830003 0.36401284 0.53911787 0
2.9840002 0.35951051 0.53917021 0
2.9850001 0.35500458 0.53922248 0
2.9860003 0.3504951 0.53927481 0
2.9860003 0.34583044 0.53927481 0
2.9870002 0.34131551 0.53932714 0
2.9880002 0.33679694 0.53937942 0
2.9890003 0.33227482 0.53943175 0
2.9900002 0.32774907 0.53948402 0
2.9910002 0.32321969 0.53953636 0
2.9920001 0.31868669 0.53958869 0
2.9930003 0.31415015 0.53964102 0
2.9930003 0.30947289 0.53964102 0
2.9940002 0.30493087 0.5396933 0
2.9950001 0.30038527 0.53974557 0
2.9960003 0.29583609 0.5397979 0
2.9970002 0.29128328 0.53985023 0
2.7120001 0.25009874 0.52494174 0
2.7060001 0.24517071 0.52462786 0
2.7010002 0.24038884 0.52436632 0
2.6980002 0.23587027 0.52420938 0
2.6960001 0.2314834 0.52410477 0
2.6950002 0.22722283 0.52405244 0
2.6940002 0.22296587 0.52400017 0
2.6930003 0.21871248 0.52394783 0
2.6930003 0.21457633 0.52394783 0
2.6930003 0.21044022 0.52394783 0
2.6940002 0.2064141 0.52400017 0
2.6950002 0.2023844 0.52405244 0
2.6970003 0.19845751 0.52415711 0
2.6990001 0.19452338 0.52426171 0
2.7010002 0.19058208 0.52436632 0
2.7050002 0.18683556 0.52457559 0
2.7090001 0.18307462 0.5247848 0
2.7140002 0.17939666 0.52504635 0
2.7220001 0.17598745 0.52546483 0
2.6650002 0.48921698 0.51839751 0
2.6580002 0.48348987 0.51804399 0
2.6540003 0.47848612 0.51784194 0
2.6520002 0.47395855 0.51774096 0
2.6510003 0.46966726 0.51769042 0
2.6500001 0.4653796 0.51763994 0
2.6490002 0.46109557 0.51758945 0
2.6490002 0.45703882 0.51758945 0
2.6500001 0.45320389 0.51763994 0
2.6510003 0.44936541 0.51769042 0
2.6530001 0.44574156 0.51779145 0
2.6550002 0.44211048 0.51789248 0
2.6580002 0.43868691 0.51804399 0
2.6610003 0.4352524 0.51819551 0
2.6660001 0.43222925 0.51844805 0
2.6720002 0.42939726 0.51875108 0
2.6830001 0.42758083 0.51930666 0
2.9610002 0.48062903 0.53334749 0
2.9620001 0.47621328 0.53339803 0
2.9620001 0.47159195 0.53339803 0
2.9630003 0.46717083 0.53344852 0
2.9640002 0.46274608 0.533499 0
2.9650002 0.4583177 0.53354955 0
2.9660003 0.45388576 0.53360003 0
2.9670002 0.44945019 0.53365052 0
2.9680002 0.44501102 0.53370106 0
2.9680002 0.44037884 0.53370106 0
2.9690001 0.43593425 0.53375155 0
2.9700003 0.4314861 0.53380203 0
2.9710002 0.42703426 0.53385258 0
2.9720001 0.42257884 0.53390306 0
2.9730003 0.41811988 0.53395355 0
2.9740002 0.41365725 0.53400409 0
2.9740002 0.40901423 0.53400409 0
2.9750001 0.4045462 0.53405458 0
2.9760003 0.40007457 0.53410506 0
2.9770002 0.39559931 0.53415561 0
2.9780002 0.39112043 0.53420609 0
2.9790003 0.38663799 0.53425664 0
2.9800003 0.38215193 0.53430712 0
2.9800003 0.37749809 0.53430712 0
2.9810002 0.37300661 0.53435767 0
2.9820001 0.3685115 0.53440809 0
2.9830003 0.36401284 0.53445864 0
2.9840002 0.35951051 0.53450918 0
2.9850001 0.35500458 0.53455967 0
2.9860003 0.3504951 0.53461015 0
2.9860003 0.34583044 0.53461015 0
2.9870002 0.34131551 0.5346607 0
2.9880002 0.33679694 0.53471118 0
2.9890003 0.33227482 0.53476167 0
2.9900002 0.32774907 0.53481221 0
2.9910002 0.32321969 0.5348627 0
2.9920001 0.31868669 0.53491318 0
2.9930003 0.31415015 0.53496373 0
2.9930003 0.30947289 0.53496373 0
2.9940002 0.30493087 0.53501421 0
2.9950001 0.30038527 0.5350647 0
2.9960003 0.29583609 0.53511524 0
2.9970002 0.29128328 0.53516573 0
2.7180002 0.24668592 0.52107435 0
2.7100003 0.24150899 0.52067035 0
2.7060001 0.23685154 0.52046829 0
2.7030003 0.23232943 0.52031678 0
2.7010002 0.22793713 0.52021575 0
2.7000003 0.22366935 0.52016526 0
2.6990001 0.21940511 0.52011478 0
2.6990001 0.21525818 0.52011478 0
2.6990001 0.21111119 0.52011478 0
2.7000003 0.20707431 0.52016526 0
2.7010002 0.20303378 0.52021575 0
2.7030003 0.19909607 0.52031678 0
2.7050002 0.19515111 0.52041781 0
2.7080002 0.19130178 0.52056932 0
2.7130003 0.18764369 0.52082187 0
2.7180002 0.1839675 0.52107435 0
2.6630001 0.49282634 0.51421452 0
2.6560001 0.48709029 0.51387358 0
2.6520002 0.4820829 0.51367879 0
2.6490002 0.47732264 0.51353264 0
2.6480002 0.47303498 0.51348394 0
2.6460001 0.46852183 0.51338655 0
2.6460001 0.46447051 0.51338655 0
2.6460001 0.46041912 0.51338655 0
2.6460001 0.45636779 0.51338655 0
2.6470003 0.45253831 0.51343524 0
2.6480002 0.44870523 0.51348394 0
2.6490002 0.44486851 0.51353264 0
2.6510003 0.44124469 0.51363009 0
2.6540003 0.43782827 0.51377618 0
2.6570003 0.43440104 0.51392227 0
2.6600001 0.43096298 0.51406837 0
2.6650002 0.42793259 0.51431191 0
2.6720002 0.42529899 0.51465285 0
2.6830001 0.42346269 0.51518857 0
2.9620001 0.47621328 0.52877665 0
2.9620001 0.47159195 0.52877665 0
2.9630003 0.46717083 0.52882534 0
2.9640002 0.46274608 0.52887404 0
2.9650002 0.4583177 0.52892274 0
2.9660003 0.45388576 0.52897143 0
2.9670002 0.44945019 0.52902019 0
2.9680002 0.44501102 0.52906883 0
2.9680002 0.44037884 0.52906883 0
2.9690001 0.43593425 0.52911758 0
2.9700003 0.4314861 0.52916628 0
2.9710002 0.42703426 0.52921498 0
2.9720001 0.42257884 0.52926368 0
2.9730003 0.41811988 0.52931237 0
2.9740002 0.41365725 0.52936107 0
2.9740002 0.40901423 0.52936107 0
2.9750001 0.4045462 0.52940977 0
2.9760003 0.40007457 0.52945846 0
2.9770002 0.39559931 0.52950716 0
2.9780002 0.39112043 0.52955592 0
2.9790003 0.38663799 0.52960461 0
2.9800003 0.38215193 0.52965331 0
2.9800003 0.37749809 0.52965331 0
2.9810002 0.37300661 0.52970201 0
2.9820001 0.3685115 0.5297507 0
2.9830003 0.36401284 0.5297994 0
2.9840002 0.35951051 0.5298481 0
2.9850001 0.35500458 0.5298968 0
2.9860003 0.3504951 0.52994549 0
2.9860003 0.34583044 0.52994549 0
2.9870002 0.34131551 0.52999425 0
2.9880002 0.33679694 0.53004289 0
2.9890003 0.33227482 0.53009164 0
2.9900002 0.32774907 0.53014034 0
2.9910002 0.32321969 0.53018904 0
2.9920001 0.31868669 0.53023773 0
2.9930003 0.31415015 0.53028643 0
2.9930003 0.30947289 0.53028643 0
2.9940002 0.30493087 0.53033513 0
2.9950001 0.30038527 0.53038383 0
2.9960003 0.29583609 0.53043252 0
2.9970002 0.29128328 0.53048122 0
2.7120001 0.24592829 0.51660097 0
2.7050002 0.24088666 0.51626003 0
2.7010002 0.23623824 0.51606524 0
2.6990001 0.23184597 0.51596779 0
2.6970003 0.22746092 0.51587039 0
2.6950002 0.22308308 0.515773 0
2.6950002 0.21894336 0.515773 0
2.6950002 0.21480361 0.515773 0
2.6950002 0.21066388 0.515773 0
2.6960001 0.20663416 0.5158217 0
2.6970003 0.20260085 0.51587039 0
2.6990001 0.19867034 0.51596779 0
2.7010002 0.19473264 0.51606524 0
2.7040002 0.19089052 0.51621133 0
2.7090001 0.1872396 0.51645482 0
2.7140002 0.18357067 0.51669836 0
2.7250001 0.18046811 0.51723409 0
2.6650002 0.49738824 0.51022625 0
2.6560001 0.49115962 0.50980419 0
2.6510003 0.48590875 0.5095697 0
2.6480002 0.48114491 0.50942898 0
2.6460001 0.47662455 0.50933522 0
2.6440003 0.47211146 0.5092414 0
2.6430001 0.46783459 0.50919449 0
2.6430001 0.46378869 0.50919449 0
2.6430001 0.45974272 0.50919449 0
2.6430001 0.45569682 0.50919449 0
2.6440003 0.45187274 0.5092414 0
2.6450002 0.44804505 0.50928831 0
2.6460001 0.44421372 0.50933522 0
2.6480002 0.4405953 0.50942898 0
2.6500001 0.43696964 0.5095228 0
2.6530001 0.43354961 0.50966346 0
2.6570003 0.43032986 0.5098511 0
2.6610003 0.42709565 0.51003867 0
2.6660001 0.42405435 0.51027316 0
2.6730001 0.42140639 0.51060146 0
2.9620001 0.47159195 0.52415526 0
2.9630003 0.46717083 0.52420223 0
2.9640002 0.46274608 0.52424908 0
2.9650002 0.4583177 0.52429599 0
2.9660003 0.45388576 0.52434289 0
2.9670002 0.44945019 0.5243898 0
2.9680002 0.44501102 0.52443671 0
2.9680002 0.44037884 0.52443671 0
2.9690001 0.43593425 0.52448356 0
2.9700003 0.4314861 0.52453047 0
2.9710002 0.42703426 0.52457738 0
2.9720001 0.42257884 0.52462429 0
2.9730003 0.41811988 0.5246712 0
2.9740002 0.41365725 0.52471805 0
2.9740002 0.40901423 0.52471805 0
2.9750001 0.4045462 0.52476496 0
2.9760003 0.40007457 0.52481186 0
2.9770002 0.39559931 0.52485877 0
2.9780002 0.39112043 0.52490568 0
2.9790003 0.38663799 0.52495259 0
2.9800003 0.38215193 0.5249995 0
2.9800003 0.37749809 0.5249995 0
2.9810002 0.37300661 0.52504635 0
2.9820001 0.3685115 0.52509326 0
2.9830003 0.36401284 0.52514017 0
2.9840002 0.35951051 0.52518708 0
2.9850001 0.35500458 0.52523398 0
2.9860003 0.3504951 0.52528089 0
2.9860003 0.34583044 0.52528089 0
2.9870002 0.34131551 0.52532774 0
2.9880002 0.33679694 0.52537465 0
2.9890003 0.33227482 0.52542156 0
2.9900002 0.32774907 0.52546847 0
2.9910002 0.32321969 0.52551538 0
2.9920001 0.31868669 0.52556223 0
2.9930003 0.31415015 0.52560914 0
2.9930003 0.30947289 0.52560914 0
2.9940002 0.30493087 0.52565604 0
2.9950001 0.30038527 0.52570295 0
2.9960003 0.29583609 0.52574986 0
2.7120001 0.25009874 0.51243055 0
2.7040002 0.2449182 0.51205534 0
2.7000003 0.24026439 0.51186776 0
2.6970003 0.23574764 0.51172704 0
2.6940002 0.23124173 0.51158637 0
2.6930003 0.22698474 0.51153946 0
2.6920002 0.22273135 0.51149255 0
2.6910002 0.21848157 0.51144564 0
2.6910002 0.21434906 0.51144564 0
2.6910002 0.21021652 0.51144564 0
2.6920002 0.20619401 0.51149255 0
2.6930003 0.20216796 0.51153946 0
2.6950002 0.19824463 0.51163328 0
2.6970003 0.19431417 0.51172704 0
2.7000003 0.19047925 0.51186776 0
2.7040002 0.18673454 0.51205534 0
2.7080002 0.18297541 0.51224291 0
2.7150002 0.17949405 0.51257122 0
2.7270002 0.17646548 0.513134 0
2.6570003 0.49546897 0.50577992 0
2.6510003 0.48996913 0.50550932 0
2.6480002 0.48519987 0.50537401 0
2.6450002 0.48044139 0.50523877 0
2.6430001 0.47592652 0.50514853 0
2.6420002 0.47164965 0.50510347 0
2.6410003 0.46737647 0.50505841 0
2.6400001 0.46310681 0.50501329 0
2.6400001 0.45906627 0.50501329 0
2.6410003 0.45524949 0.50505841 0
2.6410003 0.45120716 0.50505841 0
2.6420002 0.44738483 0.50510347 0
2.6440003 0.44377723 0.50519365 0
2.6460001 0.44016239 0.50528383 0
2.6480002 0.43654037 0.50537401 0
2.6500001 0.43291107 0.5054642 0
2.6530001 0.42948565 0.5055995 0
2.6570003 0.42625862 0.50577992 0
2.6620002 0.42322463 0.50600535 0
2.6680002 0.42037821 0.50627595 0
2.6770003 0.4181217 0.5066818 0
2.9620001 0.47159195 0.51953393 0
2.9630003 0.46717083 0.51957905 0
2.9640002 0.46274608 0.51962411 0
2.9650002 0.4583177 0.51966923 0
2.9660003 0.45388576 0.51971436 0
2.9670002 0.44945019 0.51975942 0
2.9680002 0.44501102 0.51980448 0
2.9680002 0.44037884 0.51980448 0
2.9690001 0.43593425 0.5198496 0
2.9700003 0.4314861 0.51989472 0
2.9710002 0.42703426 0.51993978 0
2.9720001 0.42257884 0.5199849 0
2.9730003 0.41811988 0.52002996 0
2.9740002 0.41365725 0.52007508 0
2.9740002 0.40901423 0.52007508 0
2.9750001 0.4045462 0.52012014 0
2.9760003 0.40007457 0.52016526 0
2.9770002 0.39559931 0.52021039 0
2.9780002 0.39112043 0.52025545 0
2.9790003 0.38663799 0.52030057 0
2.9800003 0.38215193 0.52034563 0
2.9800003 0.37749809 0.52034563 0
2.9810002 0.37300661 0.52039075 0
2.9820001 0.3685115 0.52043581 0
2.9830003 0.36401284 0.52048093 0
2.9840002 0.35951051 0.52052605 0
2.9850001 0.35500458 0.52057111 0
2.9860003 0.3504951 0.52061623 0
2.9860003 0.34583044 0.52061623 0
2.9870002 0.34131551 0.52066129 0
2.9880002 0.33679694 0.52070642 0
2.9890003 0.33227482 0.52075148 0
2.9900002 0.32774907 0.5207966 0
2.9910002 0.32321969 0.52084172 0
2.9920001 0.31868669 0.52088678 0
2.9930003 0.31415015 0.5209319 0
2.9930003 0.30947289 0.5209319 0
2.9940002 0.30493087 0.52097696 0
2.9950001 0.30038527 0.52102208 0
2.7150002 0.25465876 0.50839543 0
2.7050002 0.24920222 0.50794446 0
2.7000003 0.24441314 0.50771898 0
2.6960001 0.23976648 0.50753862 0
2.6930003 0.235257 0.50740331 0
2.6910002 0.23087916 0.50731313 0
2.6900003 0.22662759 0.50726801 0
2.6890001 0.2223796 0.50722295 0
2.6880002 0.21813524 0.50717783 0
2.6880002 0.21400815 0.50717783 0
2.6890001 0.20999283 0.50722295 0
2.6890001 0.20586392 0.50722295 0
2.6910002 0.20195147 0.50731313 0
2.6920002 0.19792536 0.50735819 0
2.6940002 0.19400027 0.50744843 0
2.6970003 0.19017082 0.50758368 0
2.7000003 0.18633051 0.50771898 0
2.7040002 0.18257858 0.50789934 0
2.7090001 0.17890963 0.50812483 0
2.7170002 0.17550945 0.50848562 0
2.6620002 0.50074869 0.50192517 0
2.6530001 0.49450934 0.50153553 0
2.6480002 0.48925483 0.50131905 0
2.6450002 0.48449093 0.50118923 0
2.6420002 0.47973794 0.50105935 0
2.6410003 0.47546113 0.50101602 0
2.6390002 0.47095698 0.50092947 0
2.6390002 0.46691823 0.50092947 0
2.6380002 0.46265227 0.50088614 0
2.6380002 0.45861536 0.50088614 0
2.6390002 0.4548021 0.50092947 0
2.6390002 0.45076334 0.50092947 0
2.6400001 0.44694468 0.50097275 0
2.6420002 0.44334069 0.50105935 0
2.6430001 0.439513 0.50110263 0
2.6460001 0.43611103 0.5012325 0
2.6480002 0.43248537 0.50131905 0
2.6510003 0.42906356 0.50144893 0
2.6550002 0.42584017 0.50162214 0
2.6590002 0.4226023 0.50179529 0
2.6650002 0.41976133 0.50205505 0
2.6720002 0.41710252 0.50235808 0
2.6840003 0.41542858 0.50287759 0
2.9630003 0.46717083 0.51495588 0
2.9640002 0.46274608 0.51499915 0
2.9650002 0.4583177 0.51504242 0
2.9660003 0.45388576 0.51508576 0
2.9670002 0.44945019 0.51512903 0
2.9680002 0.44501102 0.5151723 0
2.9680002 0.44037884 0.5151723 0
2.9690001 0.43593425 0.51521564 0
2.9700003 0.4314861 0.51525891 0
2.9710002 0.42703426 0.51530218 0
2.9720001 0.42257884 0.51534545 0
2.9730003 0.41811988 0.51538879 0
2.9740002 0.41365725 0.51543206 0
2.9740002 0.40901423 0.51543206 0
2.9750001 0.4045462 0.51547539 0
2.9760003 0.40007457 0.51551867 0
2.9770002 0.39559931 0.51556194 0
2.9780002 0.39112043 0.51560521 0
2.9790003 0.38663799 0.51564854 0
2.9800003 0.38215193 0.51569182 0
2.9800003 0.37749809 0.51569182 0
2.9810002 0.37300661 0.51573509 0
2.9820001 0.3685115 0.51577842 0
2.9830003 0.36401284 0.5158217 0
2.9840002 0.35951051 0.51586497 0
2.9850001 0.35500458 0.51590824 0
2.9860003 0.3504951 0.51595157 0
2.9860003 0.34583044 0.51595157 0
2.9870002 0.34131551 0.51599485 0
2.9880002 0.33679694 0.51603812 0
2.9890003 0.33227482 0.51608145 0
2.9900002 0.32774907 0.51612473 0
2.9910002 0.32321969 0.516168 0
2.9920001 0.31868669 0.51621133 0
2.9930003 0.31415015 0.5162546 0
2.9930003 0.30947289 0.5162546 0
2.9940002 0.30493087 0.51629788 0
2.7080002 0.25374964 0.50391656 0
2.7010002 0.24868995 0.50361353 0
2.6960001 0.24390805 0.50339705 0
2.6930003 0.23939312 0.50326717 0
2.6910002 0.23501167 0.50318062 0
2.6890001 0.23063743 0.50309402 0
2.6870003 0.22627044 0.50300741 0
2.6870003 0.22214511 0.50300741 0
2.6860001 0.21790436 0.50296414 0
2.6860001 0.21378085 0.50296414 0
2.6870003 0.20976919 0.50300741 0
2.6870003 0.20564386 0.50300741 0
2.6880002 0.20162678 0.50305074 0
2.6900003 0.19771254 0.50313735 0
2.6920002 0.19379105 0.5032239 0
2.6940002 0.18986236 0.5033105 0
2.6970003 0.18602745 0.50344038 0
2.7010002 0.18228096 0.50361353 0
2.7050002 0.17851999 0.50378668 0
2.7120001 0.17503144 0.50408971 0
2.7220001 0.17179902 0.50452262 0
2.6570003 0.49954015 0.49763751 0
2.6500001 0.49378961 0.49734709 0
2.6460001 0.48877865 0.49718115 0
2.6430001 0.48401839 0.49705666 0
2.6410003 0.47950345 0.49697369 0
2.6390002 0.47499573 0.49689072 0
2.6380002 0.47072613 0.49684924 0
2.6370001 0.46646011 0.49680775 0
2.6370001 0.46242499 0.49680775 0
2.6370001 0.45838988 0.49680775 0
2.6370001 0.4543547 0.49680775 0
2.6380002 0.45054153 0.49684924 0
2.6390002 0.44672465 0.49689072 0
2.6400001 0.44290417 0.49693221 0
2.6420002 0.43929654 0.49701518 0
2.6440003 0.43568173 0.49709815 0
2.6470003 0.43227255 0.49722263 0
2.6500001 0.4288525 0.49734709 0
2.6530001 0.42542163 0.49747154 0
2.6570003 0.42218745 0.49763751 0
2.6620002 0.41914442 0.49784493 0
2.6680002 0.41628721 0.49809387 0
2.6780002 0.41421643 0.49850875 0
2.9630003 0.46717083 0.5103327 0
2.9640002 0.46274608 0.51037419 0
2.9650002 0.4583177 0.51041567 0
2.9660003 0.45388576 0.51045716 0
2.9670002 0.44945019 0.51049864 0
2.9680002 0.44501102 0.51054013 0
2.9680002 0.44037884 0.51054013 0
2.9690001 0.43593425 0.51058161 0
2.9700003 0.4314861 0.5106231 0
2.9710002 0.42703426 0.51066458 0
2.9720001 0.42257884 0.51070607 0
2.9730003 0.41811988 0.51074755 0
2.9740002 0.41365725 0.51078904 0
2.9740002 0.40901423 0.51078904 0
2.9750001 0.4045462 0.51083058 0
2.9760003 0.40007457 0.51087207 0
2.9770002 0.39559931 0.51091355 0
2.9780002 0.39112043 0.51095504 0
2.9790003 0.38663799 0.51099652 0
2.9800003 0.38215193 0.51103801 0
2.9800003 0.37749809 0.51103801 0
2.9810002 0.37300661 0.51107949 0
2.9820001 0.3685115 0.51112098 0
2.9830003 0.36401284 0.51116246 0
2.9840002 0.35951051 0.51120394 0
2.9850001 0.35500458 0.51124543 0
2.9860003 0.3504951 0.51128691 0
2.9860003 0.34583044 0.51128691 0
2.9870002 0.34131551 0.5113284 0
2.9880002 0.33679694 0.51136988 0
2.9890003 0.33227482 0.51141137 0
2.9900002 0.32774907 0.51145285 0
2.9910002 0.32321969 0.51149434 0
2.9920001 0.31868669 0.51153582 0
2.9930003 0.31415015 0.51157737 0
2.9930003 0.30947289 0.51157737 0
2.7140002 0.2587029 0.50000226 0
2.7040002 0.25323015 0.49958742 0
2.6980002 0.24830574 0.49933851 0
2.6940002 0.24365553 0.49917254 0
2.6910002 0.23914421 0.49904808 0
2.6890001 0.23476636 0.49896508 0
2.6870003 0.23039576 0.49888214 0
2.6860001 0.22615138 0.49884063 0
2.6850002 0.22191063 0.49879915 0
2.6850002 0.2177889 0.49879915 0
2.6850002 0.21366721 0.49879915 0
2.6850002 0.20954549 0.49879915 0
2.6860001 0.20553383 0.49884063 0
2.6870003 0.20151858 0.49888214 0
2.6880002 0.19749968 0.4989236 0
2.6900003 0.1935818 0.4990066 0
2.6920002 0.1896567 0.49908957 0
2.6950002 0.18582542 0.49921402 0
2.6990001 0.18208252 0.49937999 0
2.7030003 0.17832521 0.49954593 0
2.7090001 0.17474462 0.49979484 0
2.7170002 0.17133003 0.50012678 0
2.6540003 0.498815 0.49344724 0
2.6480002 0.4933098 0.49320915 0
2.6440003 0.48830247 0.49305043 0
2.6420002 0.48378211 0.49297106 0
2.6390002 0.47903442 0.492852 0
2.6380002 0.47476304 0.49281234 0
2.6370001 0.47049522 0.49277264 0
2.6360002 0.46623105 0.49273294 0
2.6360002 0.46219772 0.49273294 0
2.6360002 0.45816439 0.49273294 0
2.6360002 0.45413107 0.49273294 0
2.6370001 0.45031962 0.49277264 0
2.6380002 0.44650456 0.49281234 0
2.6390002 0.4426859 0.492852 0
2.6410003 0.43908012 0.49293137 0
2.6430001 0.43546703 0.49301073 0
2.6450002 0.43184683 0.49309009 0
2.6480002 0.42843044 0.49320915 0
2.6520002 0.42521244 0.49336788 0
2.6560001 0.42197999 0.49352664 0
2.6600001 0.41873309 0.49368536 0
2.6660001 0.41587952 0.49392346 0
2.6740003 0.41340831 0.49424094 0
2.9630003 0.46717083 0.50570953 0
2.9640002 0.46274608 0.50574923 0
2.9650002 0.4583177 0.50578892 0
2.9660003 0.45388576 0.50582862 0
2.9670002 0.44945019 0.50586826 0
2.9680002 0.44501102 0.50590795 0
2.9680002 0.44037884 0.50590795 0
2.9690001 0.43593425 0.50594765 0
2.9700003 0.4314861 0.50598735 0
2.9710002 0.42703426 0.50602704 0
2.9720001 0.42257884 0.50606668 0
2.9730003 0.41811988 0.50610638 0
2.9740002 0.41365725 0.50614607 0
2.9740002 0.40901423 0.50614607 0
2.9750001 0.4045462 0.50618577 0
2.9760003 0.40007457 0.50622547 0
2.9770002 0.39559931 0.5062651 0
2.9780002 0.39112043 0.5063048 0
2.9790003 0.38663799 0.5063445 0
2.9800003 0.38215193 0.50638419 0
2.9800003 0.37749809 0.50638419 0
2.9810002 0.37300661 0.50642383 0
2.9820001 0.3685115 0.50646353 0
2.9830003 0.36401284 0.50650322 0
2.9840002 0.35951051 0.50654292 0
2.9850001 0.35500458 0.50658262 0
2.9860003 0.3504951 0.50662225 0
2.9860003 0.34583044 0.50662225 0
2.9870002 0.34131551 0.50666195 0
2.9880002 0.33679694 0.50670165 0
2.9890003 0.33227482 0.50674134 0
2.9900002 0.32774907 0.50678098 0
2.9910002 0.32321969 0.50682068 0
2.9920001 0.31868669 0.50686038 0
2.9930003 0.31415015 0.50690007 0
2.9930003 0.30947289 0.50690007 0
2.7090001 0.25804451 0.49562985 0
2.7010002 0.25284052 0.49531239 0
2.6960001 0.24804959 0.49511397 0
2.6920002 0.24340299 0.49495524 0
2.6890001 0.23889527 0.49483618 0
2.6870003 0.23452103 0.49475682 0
2.6860001 0.23027486 0.49471712 0
2.6840003 0.22591326 0.49463779 0
2.6840003 0.22179335 0.49463779 0
2.6830001 0.217558 0.49459809 0
2.6830001 0.21343991 0.49459809 0
2.6840003 0.2094337 0.49463779 0
2.6840003 0.20531377 0.49463779 0
2.6850002 0.20130211 0.49467745 0
2.6870003 0.19739327 0.49475682 0
2.6890001 0.19347718 0.49483618 0
2.6910002 0.1895539 0.49491554 0
2.6940002 0.18572441 0.49503461 0
2.6970003 0.18188411 0.49515367 0
2.7010002 0.17813039 0.49531239 0
2.7060001 0.17445782 0.49551082 0
2.7130003 0.17095484 0.4957886 0
2.6620002 0.50482893 0.48968452 0
2.6520002 0.49833161 0.4893057 0
2.6470003 0.49306995 0.48911631 0
2.6430001 0.48806429 0.4889648 0
2.6410003 0.48354578 0.48888904 0
2.6390002 0.47903442 0.48881328 0
2.6370001 0.47453034 0.48873752 0
2.6360002 0.47026432 0.48869962 0
2.6350002 0.46600199 0.48866177 0
2.6350002 0.46197045 0.48866177 0
2.6350002 0.45793897 0.48866177 0
2.6360002 0.45413107 0.48869962 0
2.6360002 0.45009777 0.48869962 0
2.6370001 0.4462845 0.48873752 0
2.6390002 0.4426859 0.48881328 0
2.6400001 0.43886361 0.48885116 0
2.6420002 0.4352524 0.48892692 0
2.6450002 0.43184683 0.48904055 0
2.6470003 0.42821938 0.48911631 0
2.6510003 0.4250032 0.48926783 0
2.6540003 0.42156515 0.48938149 0
2.6590002 0.41852748 0.48957086 0
2.6650002 0.4156757 0.48979816 0
2.6720002 0.41300425 0.49006331 0
2.9640002 0.46274608 0.50112426 0
2.9650002 0.4583177 0.50116217 0
2.9660003 0.45388576 0.50120002 0
2.9670002 0.44945019 0.50123787 0
2.9680002 0.44501102 0.50127578 0
2.9680002 0.44037884 0.50127578 0
2.9690001 0.43593425 0.50131369 0
2.9700003 0.4314861 0.50135154 0
2.9710002 0.42703426 0.50138944 0
2.9720001 0.42257884 0.50142729 0
2.9730003 0.41811988 0.5014652 0
2.9740002 0.41365725 0.50150305 0
2.9740002 0.40901423 0.50150305 0
2.9750001 0.4045462 0.50154096 0
2.9760003 0.40007457 0.50157881 0
2.9770002 0.39559931 0.50161672 0
2.9780002 0.39112043 0.50165457 0
2.9790003 0.38663799 0.50169247 0
2.9800003 0.38215193 0.50173032 0
2.9800003 0.37749809 0.50173032 0
2.9810002 0.37300661 0.50176823 0
2.9820001 0.3685115 0.50180608 0
2.9830003 0.36401284 0.50184399 0
2.9840002 0.35951051 0.50188184 0
2.9850001 0.35500458 0.50191975 0
2.9860003 0.3504951 0.50195765 0
2.9860003 0.34583044 0.50195765 0
2.9870002 0.34131551 0.5019955 0
2.9880002 0.33679694 0.50203335 0
2.9890003 0.33227482 0.50207126 0
2.9900002 0.32774907 0.50210917 0
2.9910002 0.32321969 0.50214702 0
2.9920001 0.31868669 0.50218487 0
2.9930003 0.31415015 0.50222278 0
2.7060001 0.25764945 0.49135122 0
2.6990001 0.25258076 0.49108607 0
2.6950002 0.24792153 0.49093455 0
2.6910002 0.24327672 0.49078304 0
2.6880002 0.23877081 0.4906694 0
2.6860001 0.23439837 0.49059361 0
2.6840003 0.23003319 0.49051788 0
2.6830001 0.2257942 0.49048001 0
2.6830001 0.22167611 0.49048001 0
2.6820002 0.21744257 0.4904421 0
2.6820002 0.21332628 0.4904421 0
2.6830001 0.20932183 0.49048001 0
2.6830001 0.20520374 0.49048001 0
2.6840003 0.20119388 0.49051788 0
2.6860001 0.19728683 0.49059361 0
2.6880002 0.19337258 0.4906694 0
2.6900003 0.1894511 0.49074516 0
2.6920002 0.18552239 0.49082091 0
2.6960001 0.18178488 0.49097243 0
2.7000003 0.17803299 0.49112394 0
2.7050002 0.17436223 0.49131334 0
2.7110002 0.17076723 0.49154064 0
2.7210002 0.16751857 0.49191943 0
2.6600001 0.5043419 0.48553213 0
2.6520002 0.49833161 0.48524353 0
2.6460001 0.49282998 0.48502707 0
2.6430001 0.48806429 0.48491883 0
2.6400001 0.48330945 0.48481062 0
2.6380002 0.4788 0.48473847 0
2.6370001 0.47453034 0.48470238 0
2.6360002 0.47026432 0.48466632 0
2.6350002 0.46600199 0.48463026 0
2.6350002 0.46197045 0.48463026 0
2.6350002 0.45793897 0.48463026 0
2.6350002 0.4539074 0.48463026 0
2.6360002 0.45009777 0.48466632 0
2.6370001 0.4462845 0.48470238 0
2.6380002 0.44246763 0.48473847 0
2.6400001 0.43886361 0.48481062 0
2.6420002 0.4352524 0.48488277 0
2.6440003 0.43163401 0.48495492 0
2.6470003 0.42821938 0.48506317 0
2.6500001 0.42479393 0.48517138 0
2.6540003 0.42156515 0.48531568 0
2.6590002 0.41852748 0.48549607 0
2.6640003 0.41547188 0.48567647 0
2.6710002 0.41280225 0.48592898 0
2.6830001 0.41110843 0.48636189 0
2.9640002 0.46274608 0.4964993 0
2.9650002 0.4583177 0.49653536 0
2.9660003 0.45388576 0.49657145 0
2.9670002 0.44945019 0.49660754 0
2.9680002 0.44501102 0.4966436 0
2.9680002 0.44037884 0.4966436 0
2.9690001 0.43593425 0.49667966 0
2.9700003 0.4314861 0.49671575 0
2.9710002 0.42703426 0.49675184 0
2.9720001 0.42257884 0.49678791 0
2.9730003 0.41811988 0.496824 0
2.9740002 0.41365725 0.49686006 0
2.9740002 0.40901423 0.49686006 0
2.9750001 0.4045462 0.49689615 0
2.9760003 0.40007457 0.49693221 0
2.9770002 0.39559931 0.49696827 0
2.9780002 0.39112043 0.49700436 0
2.9790003 0.38663799 0.49704045 0
2.9800003 0.38215193 0.49707651 0
2.9800003 0.37749809 0.49707651 0
2.9810002 0.37300661 0.4971126 0
2.9820001 0.3685115 0.49714866 0
2.9830003 0.36401284 0.49718475 0
2.9840002 0.35951051 0.49722081 0
2.9850001 0.35500458 0.4972569 0
2.9860003 0.3504951 0.497293 0
2.9860003 0.34583044 0.497293 0
2.9870002 0.34131551 0.49732906 0
2.9880002 0.33679694 0.49736512 0
2.9890003 0.33227482 0.49740121 0
2.9900002 0.32774907 0.4974373 0
2.9910002 0.32321969 0.49747336 0
2.9920001 0.31868669 0.49750942 0
2.9930003 0.31415015 0.49754551 0
2.7050002 0.25751778 0.48715556 0
2.6980002 0.25245088 0.48690304 0
2.6940002 0.24779347 0.48675874 0
2.6900003 0.24315047 0.48661444 0
2.6880002 0.23877081 0.48654228 0
2.6860001 0.23439837 0.48647013 0
2.6840003 0.23003319 0.48639798 0
2.6830001 0.2257942 0.48636189 0
2.6820002 0.22155887 0.4863258 0
2.6820002 0.21744257 0.4863258 0
2.6820002 0.21332628 0.4863258 0
2.6820002 0.20921001 0.4863258 0
2.6830001 0.20520374 0.48636189 0
2.6840003 0.20119388 0.48639798 0
2.6850002 0.19718039 0.48643404 0
2.6870003 0.19326796 0.48650622 0
2.6890001 0.18934827 0.48657835 0
2.6920002 0.18552239 0.48668659 0
2.6950002 0.18168569 0.48679483 0
2.6990001 0.17793557 0.4869391 0
2.7040002 0.17426664 0.4871195 0
2.7100003 0.17067344 0.48733595 0
2.7190001 0.16733457 0.48766065 0
2.6600001 0.5043419 0.48145553 0
2.6510003 0.49808991 0.48114711 0
2.6460001 0.49282998 0.48097572 0
2.6430001 0.48806429 0.4808729 0
2.6400001 0.48330945 0.48077008 0
2.6380002 0.4788 0.48070157 0
2.6370001 0.47453034 0.48066726 0
2.6350002 0.47003347 0.48059875 0
2.6350002 0.46600199 0.48059875 0
2.6350002 0.46197045 0.48059875 0
2.6350002 0.45793897 0.48059875 0
2.6350002 0.4539074 0.48059875 0
2.6360002 0.45009777 0.48063299 0
2.6370001 0.4462845 0.48066726 0
2.6380002 0.44246763 0.48070157 0
2.6400001 0.43886361 0.48077008 0
2.6420002 0.4352524 0.48083866 0
2.6440003 0.43163401 0.4809072 0
2.6470003 0.42821938 0.48101002 0
2.6500001 0.42479393 0.48111281 0
2.6540003 0.42156515 0.4812499 0
2.6580002 0.41832188 0.48138699 0
2.6640003 0.41547188 0.48159263 0
2.6710002 0.41280225 0.48183253 0
2.6830001 0.41110843 0.48224381 0
2.9640002 0.46274608 0.49187434 0
2.9650002 0.4583177 0.49190861 0
2.9660003 0.45388576 0.49194288 0
2.9670002 0.44945019 0.49197716 0
2.9680002 0.44501102 0.49201143 0
2.9680002 0.44037884 0.49201143 0
2.9690001 0.43593425 0.4920457 0
2.9700003 0.4314861 0.49207997 0
2.9710002 0.42703426 0.49211425 0
2.9720001 0.42257884 0.49214852 0
2.9730003 0.41811988 0.49218279 0
2.9740002 0.41365725 0.49221706 0
2.9740002 0.40901423 0.49221706 0
2.9750001 0.4045462 0.49225134 0
2.9760003 0.40007457 0.49228561 0
2.9770002 0.39559931 0.49231988 0
2.9780002 0.39112043 0.49235415 0
2.9790003 0.38663799 0.49238843 0
2.9800003 0.38215193 0.4924227 0
2.9800003 0.37749809 0.4924227 0
2.9810002 0.37300661 0.49245697 0
2.9820001 0.3685115 0.49249125 0
2.9830003 0.36401284 0.49252552 0
2.9840002 0.35951051 0.49255979 0
2.9850001 0.35500458 0.49259406 0
2.9860003 0.3504951 0.49262834 0
2.9870002 0.34598196 0.49266261 0
2.9870002 0.34131551 0.49266261 0
2.9880002 0.33679694 0.49269688 0
2.9890003 0.33227482 0.49273115 0
2.9900002 0.32774907 0.49276543 0
2.9910002 0.32321969 0.4927997 0
2.9920001 0.31868669 0.49283397 0
2.7040002 0.25738612 0.48296353 0
2.6980002 0.25245088 0.4827579 0
2.6930003 0.24766538 0.48258653 0
2.6900003 0.24315047 0.48248371 0
2.6870003 0.23864636 0.4823809 0
2.6850002 0.23427573 0.48231235 0
2.6840003 0.23003319 0.48227808 0
2.6830001 0.2257942 0.48224381 0
2.6820002 0.22155887 0.48220953 0
2.6820002 0.21744257 0.48220953 0
2.6820002 0.21332628 0.48220953 0
2.6820002 0.20921001 0.48220953 0
2.6830001 0.20520374 0.48224381 0
2.6840003 0.20119388 0.48227808 0
2.6850002 0.19718039 0.48231235 0
2.6870003 0.19326796 0.4823809 0
2.6890001 0.18934827 0.48244944 0
2.6910002 0.18542138 0.48251799 0
2.6950002 0.18168569 0.48265508 0
2.6990001 0.17793557 0.48279214 0
2.7030003 0.17417105 0.48292926 0
2.7100003 0.17067344 0.48316917 0
2.7180002 0.16724259 0.48344332 0
2.6600001 0.5043419 0.47737893 0
2.6520002 0.49833161 0.47711918 0
2.6460001 0.49282998 0.47692436 0
2.6430001 0.48806429 0.47682697 0
2.6400001 0.48330945 0.47672957 0
2.6380002 0.4788 0.47666463 0
2.6370001 0.47453034 0.47663215 0
2.6350002 0.47003347 0.47656721 0
2.6350002 0.46600199 0.47656721 0
2.6350002 0.46197045 0.47656721 0
2.6350002 0.45793897 0.47656721 0
2.6350002 0.4539074 0.47656721 0
2.6360002 0.45009777 0.47659969 0
2.6370001 0.4462845 0.47663215 0
2.6380002 0.44246763 0.47666463 0
2.6400001 0.43886361 0.47672957 0
2.6420002 0.4352524 0.47679451 0
2.6440003 0.43163401 0.47685945 0
2.6470003 0.42821938 0.47695684 0
2.6500001 0.42479393 0.47705424 0
2.6540003 0.42156515 0.47718412 0
2.6580002 0.41832188 0.477314 0
2.6640003 0.41547188 0.47750881 0
2.6710002 0.41280225 0.47773609 0
2.6830001 0.41110843 0.47812569 0
2.9640002 0.46274608 0.48724937 0
2.9650002 0.4583177 0.48728183 0
2.9660003 0.45388576 0.48731431 0
2.9670002 0.44945019 0.48734677 0
2.9680002 0.44501102 0.48737925 0
2.9680002 0.44037884 0.48737925 0
2.9690001 0.43593425 0.48741171 0
2.9700003 0.4314861 0.48744419 0
2.9710002 0.42703426 0.48747665 0
2.9720001 0.42257884 0.48750913 0
2.9730003 0.41811988 0.48754159 0
2.9740002 0.41365725 0.48757404 0
2.9740002 0.40901423 0.48757404 0
2.9750001 0.4045462 0.48760653 0
2.9760003 0.40007457 0.48763901 0
2.9770002 0.39559931 0.48767146 0
2.9780002 0.39112043 0.48770392 0
2.9790003 0.38663799 0.4877364 0
2.9800003 0.38215193 0.48776886 0
2.9800003 0.37749809 0.48776886 0
2.9810002 0.37300661 0.48780134 0
2.9820001 0.3685115 0.4878338 0
2.9830003 0.36401284 0.48786628 0
2.9840002 0.35951051 0.48789874 0
2.9850001 0.35500458 0.48793119 0
2.9860003 0.3504951 0.48796368 0
2.9870002 0.34598196 0.48799616 0
2.9870002 0.34131551 0.48799616 0
2.9880002 0.33679694 0.48802862 0
2.9890003 0.33227482 0.4880611 0
2.9900002 0.32774907 0.48809355 0
2.9910002 0.32321969 0.48812601 0
2.9920001 0.31868669 0.48815849 0
2.7040002 0.25738612 0.47880757 0
2.6980002 0.25245088 0.47861272 0
2.6940002 0.24779347 0.47848287 0
2.6900003 0.24315047 0.47835299 0
2.6870003 0.23864636 0.47825557 0
2.6850002 0.23427573 0.47819066 0
2.6840003 0.23003319 0.47815818 0
2.6830001 0.2257942 0.47812569 0
2.6820002 0.22155887 0.47809324 0
2.6820002 0.21744257 0.47809324 0
2.6820002 0.21332628 0.47809324 0
2.6820002 0.20921001 0.47809324 0
2.6830001 0.20520374 0.47812569 0
2.6840003 0.20119388 0.47815818 0
2.6850002 0.19718039 0.47819066 0
2.6870003 0.19326796 0.47825557 0
2.6890001 0.18934827 0.47832051 0
2.6920002 0.18552239 0.47841793 0
2.6950002 0.18168569 0.47851533 0
2.6990001 0.17793557 0.47864521 0
2.7030003 0.17417105 0.47877508 0
2.7100003 0.17067344 0.47900236 0
2.7190001 0.16733457 0.47929457 0
2.6600001 0.5043419 0.4733023 0
2.6520002 0.49833161 0.473057 0
2.6460001 0.49282998 0.47287303 0
2.6430001 0.48806429 0.47278103 0
2.6400001 0.48330945 0.47268903 0
2.6380002 0.4788 0.4726277 0
2.6370001 0.47453034 0.47259703 0
2.6350002 0.47003347 0.4725357 0
2.6350002 0.46600199 0.4725357 0
2.6350002 0.46197045 0.4725357 0
2.6350002 0.45793897 0.4725357 0
2.6350002 0.4539074 0.4725357 0
2.6360002 0.45009777 0.47256637 0
2.6370001 0.4462845 0.47259703 0
2.6380002 0.44246763 0.4726277 0
2.6400001 0.43886361 0.47268903 0
2.6420002 0.4352524 0.47275037 0
2.6440003 0.43163401 0.4728117 0
2.6470003 0.42821938 0.4729037 0
2.6500001 0.42479393 0.47299567 0
2.6540003 0.42156515 0.47311834 0
2.6580002 0.41832188 0.473241 0
2.6640003 0.41547188 0.47342497 0
2.6710002 0.41280225 0.47363964 0
2.6830001 0.41110843 0.47400761 0
2.9640002 0.46274608 0.48262441 0
2.9650002 0.4583177 0.48265508 0
2.9660003 0.45388576 0.48268574 0
2.9670002 0.44945019 0.48271641 0
2.9680002 0.44501102 0.48274708 0
2.9680002 0.44037884 0.48274708 0
2.9690001 0.43593425 0.48277771 0
2.9700003 0.4314861 0.48280841 0
2.9710002 0.42703426 0.48283905 0
2.9720001 0.42257884 0.48286971 0
2.9730003 0.41811988 0.48290038 0
2.9740002 0.41365725 0.48293105 0
2.9740002 0.40901423 0.48293105 0
2.9750001 0.4045462 0.48296171 0
2.9760003 0.40007457 0.48299238 0
2.9770002 0.39559931 0.48302305 0
2.9780002 0.39112043 0.48305371 0
2.9790003 0.38663799 0.48308438 0
2.9800003 0.38215193 0.48311505 0
2.9800003 0.37749809 0.48311505 0
2.9810002 0.37300661 0.48314571 0
2.9820001 0.3685115 0.48317638 0
2.9830003 0.36401284 0.48320705 0
2.9840002 0.35951051 0.48323768 0
2.9850001 0.35500458 0.48326838 0
2.9860003 0.3504951 0.48329902 0
2.9870002 0.34598196 0.48332971 0
2.9870002 0.34131551 0.48332971 0
2.9880002 0.33679694 0.48336035 0
2.9890003 0.33227482 0.48339105 0
2.9900002 0.32774907 0.48342168 0
2.9910002 0.32321969 0.48345235 0
2.9920001 0.31868669 0.48348302 0
2.7040002 0.25738612 0.47465158 0
2.6980002 0.25245088 0.47446758 0
2.6940002 0.24779347 0.47434491 0
2.6900003 0.24315047 0.47422227 0
2.6870003 0.23864636 0.47413027 0
2.6850002 0.23427573 0.47406894 0
2.6840003 0.23003319 0.47403827 0
2.6830001 0.2257942 0.47400761 0
2.6820002 0.22155887 0.47397697 0
2.6820002 0.21744257 0.47397697 0
2.6820002 0.21332628 0.47397697 0
2.6820002 0.20921001 0.47397697 0
2.6830001 0.20520374 0.47400761 0
2.6840003 0.20119388 0.47403827 0
2.6850002 0.19718039 0.47406894 0
2.6870003 0.19326796 0.47413027 0
2.6890001 0.18934827 0.47419161 0
2.6920002 0.18552239 0.47428361 0
2.6950002 0.18168569 0.47437561 0
2.6990001 0.17793557 0.47449824 0
2.7030003 0.17417105 0.47462091 0
2.7100003 0.17067344 0.47483557 0
2.7190001 0.16733457 0.47511154 0
2.6600001 0.5043419 0.4692257 0
2.6520002 0.49833161 0.46899483 0
2.6460001 0.49282998 0.46882167 0
2.6430001 0.48806429 0.4687351 0
2.6400001 0.48330945 0.46864849 0
2.6380002 0.4788 0.4685908 0
2.6370001 0.47453034 0.46856192 0
2.6350002 0.47003347 0.46850419 0
2.6350002 0.46600199 0.46850419 0
2.6350002 0.46197045 0.46850419 0
2.6350002 0.45793897 0.46850419 0
2.6350002 0.4539074 0.46850419 0
2.6360002 0.45009777 0.46853304 0
2.6370001 0.4462845 0.46856192 0
2.6380002 0.44246763 0.4685908 0
2.6400001 0.43886361 0.46864849 0
2.6420002 0.4352524 0.46870622 0
2.6440003 0.43163401 0.46876395 0
2.6470003 0.42821938 0.46885052 0
2.6500001 0.42479393 0.4689371 0
2.6540003 0.42156515 0.46905255 0
2.6580002 0.41832188 0.46916801 0
2.6640003 0.41547188 0.46934116 0
2.6710002 0.41280225 0.46954319 0
2.6830001 0.41110843 0.46988952 0
2.9640002 0.46274608 0.47799945 0
2.9650002 0.4583177 0.4780283 0
2.9660003 0.45388576 0.47805718 0
2.9670002 0.44945019 0.47808602 0
2.9680002 0.44501102 0.4781149 0
2.9680002 0.44037884 0.4781149 0
2.9690001 0.43593425 0.47814375 0
2.9700003 0.4314861 0.4781726 0
2.9710002 0.42703426 0.47820148 0
2.9720001 0.42257884 0.47823033 0
2.9730003 0.41811988 0.47825921 0
2.9740002 0.41365725 0.47828805 0
2.9740002 0.40901423 0.47828805 0
2.9750001 0.4045462 0.4783169 0
2.9760003 0.40007457 0.47834578 0
2.9770002 0.39559931 0.47837463 0
2.9780002 0.39112043 0.47840351 0
2.9790003 0.38663799 0.47843236 0
2.9800003 0.38215193 0.47846121 0
2.9800003 0.37749809 0.47846121 0
2.9810002 0.37300661 0.47849008 0
2.9820001 0.3685115 0.47851893 0
2.9830003 0.36401284 0.47854781 0
2.9840002 0.35951051 0.47857666 0
2.9850001 0.35500458 0.47860551 0
2.9860003 0.3504951 0.47863439 0
2.9870002 0.34598196 0.47866324 0
2.9870002 0.34131551 0.47866324 0
2.9880002 0.33679694 0.47869211 0
2.9890003 0.33227482 0.47872096 0
2.9900002 0.32774907 0.47874981 0
2.9910002 0.32321969 0.47877869 0
2.9920001 0.31868669 0.47880754 0
2.7040002 0.25738612 0.47049561 0
2.6980002 0.25245088 0.47032243 0
2.6940002 0.24779347 0.47020698 0
2.6900003 0.24315047 0.47009155 0
2.6870003 0.23864636 0.47000498 0
2.6850002 0.23427573 0.46994725 0
2.6840003 0.23003319 0.46991837 0
2.6830001 0.2257942 0.46988952 0
2.6820002 0.22155887 0.46986067 0
2.6820002 0.21744257 0.46986067 0
2.6820002 0.21332628 0.46986067 0
2.6820002 0.20921001 0.46986067 0
2.6830001 0.20520374 0.46988952 0
2.6840003 0.20119388 0.46991837 0
2.6850002 0.19718039 0.46994725 0
2.6870003 0.19326796 0.47000498 0
2.6890001 0.18934827 0.47006267 0
2.6920002 0.18552239 0.47014928 0
2.6950002 0.18168569 0.47023585 0
2.6990001 0.17793557 0.47035128 0
2.7030003 0.17417105 0.47046673 0
2.7100003 0.17067344 0.47066876 0
2.7190001 0.16733457 0.47092852 0
2.6600001 0.5043419 0.4651491 0
2.6520002 0.49833161 0.46493265 0
2.6460001 0.49282998 0.46477032 0
2.6430001 0.48806429 0.46468914 0
2.6400001 0.48330945 0.46460795 0
2.6380002 0.4788 0.46455386 0
2.6370001 0.47453034 0.4645268 0
2.6350002 0.47003347 0.46447268 0
2.6350002 0.46600199 0.46447268 0
2.6350002 0.46197045 0.46447268 0
2.6350002 0.45793897 0.46447268 0
2.6350002 0.4539074 0.46447268 0
2.6360002 0.45009777 0.46449974 0
2.6370001 0.4462845 0.4645268 0
2.6380002 0.44246763 0.46455386 0
2.6400001 0.43886361 0.46460795 0
2.6420002 0.4352524 0.46466208 0
2.6440003 0.43163401 0.4647162 0
2.6470003 0.42821938 0.46479738 0
2.6500001 0.42479393 0.46487853 0
2.6540003 0.42156515 0.46498677 0
2.6580002 0.41832188 0.46509501 0
2.6640003 0.41547188 0.46525735 0
2.6710002 0.41280225 0.46544674 0
2.6830001 0.41110843 0.46577144 0
2.9640002 0.46274608 0.47337449 0
2.9650002 0.4583177 0.47340155 0
2.9660003 0.45388576 0.47342861 0
2.9670002 0.44945019 0.47345564 0
2.9680002 0.44501102 0.4734827 0
2.9680002 0.44037884 0.4734827 0
2.9690001 0.43593425 0.47350976 0
2.9700003 0.4314861 0.47353682 0
2.9710002 0.42703426 0.47356388 0
2.9720001 0.42257884 0.47359094 0
2.9730003 0.41811988 0.473618 0
2.9740002 0.41365725 0.47364503 0
2.9740002 0.40901423 0.47364503 0
2.9750001 0.4045462 0.47367209 0
2.9760003 0.40007457 0.47369915 0
2.9770002 0.39559931 0.47372621 0
2.9780002 0.39112043 0.47375327 0
2.9790003 0.38663799 0.47378033 0
2.9800003 0.38215193 0.47380739 0
2.9800003 0.37749809 0.47380739 0
2.9810002 0.37300661 0.47383446 0
2.9820001 0.3685115 0.47386152 0
2.9830003 0.36401284 0.47388858 0
2.9840002 0.35951051 0.47391564 0
2.9850001 0.35500458 0.47394267 0
2.9860003 0.3504951 0.47396976 0
2.9870002 0.34598196 0.47399679 0
2.9870002 0.34131551 0.47399679 0
2.9880002 0.33679694 0.47402385 0
2.9890003 0.33227482 0.47405091 0
2.9900002 0.32774907 0.47407797 0
2.9910002 0.32321969 0.47410503 0
2.9920001 0.31868669 0.47413206 0
2.7040002 0.25738612 0.46633962 0
2.6980002 0.25245088 0.46617728 0
2.6940002 0.24779347 0.46606904 0
2.6900003 0.24315047 0.46596083 0
2.6870003 0.23864636 0.46587965 0
2.6850002 0.23427573 0.46582556 0
2.6840003 0.23003319 0.4657985 0
2.6830001 0.2257942 0.46577144 0
2.6820002 0.22155887 0.46574438 0
2.6820002 0.21744257 0.46574438 0
2.6820002 0.21332628 0.46574438 0
2.6820002 0.20921001 0.46574438 0
2.6830001 0.20520374 0.46577144 0
2.6840003 0.20119388 0.4657985 0
2.6850002 0.19718039 0.46582556 0
2.6870003 0.19326796 0.46587965 0
2.6890001 0.18934827 0.46593377 0
2.6920002 0.18552239 0.46601495 0
2.6950002 0.18168569 0.4660961 0
2.6990001 0.17793557 0.46620435 0
2.7030003 0.17417105 0.46631256 0
2.7100003 0.17067344 0.46650195 0
2.7190001 0.16733457 0.4667455 0
2.6600001 0.5043419 0.4610725 0
2.6520002 0.49833161 0.46087047 0
2.6460001 0.49282998 0.46071896 0
2.6430001 0.48806429 0.4606432 0
2.6400001 0.48330945 0.46056744 0
2.6380002 0.4788 0.46051693 0
2.6370001 0.47453034 0.46049169 0
2.6350002 0.47003347 0.46044117 0
2.6350002 0.46600199 0.46044117 0
2.6350002 0.46197045 0.46044117 0
