# .PCD v0.7 - Point Cloud Data file format
VERSION 0.7
FIELDS x y z intensity
SIZE 4 4 4 4
TYPE F F F F
COUNT 1 1 1 1
WIDTH 1503
HEIGHT 1
VIEWPOINT 0 0 0 1 0 0 0
POINTS 1503
DATA ascii
3.8460002 1.6074356 1.7590712 0
3.6830003 1.8490088 1.6890529 0
3.6860003 1.8448132 1.6902273 0
3.6890004 1.8406067 1.6914015 0
3.6920002 1.8363892 1.6925757 0
3.6950002 1.8321611 1.6937499 0
3.6970003 1.8273541 1.6945329 0
3.7000003 1.8231062 1.6957071 0
3.7030003 1.8188474 1.6968814 0
3.7060003 1.8145777 1.6980557 0
3.7090003 1.8102974 1.69923 0
3.7120004 1.8060061 1.7004043 0
3.7150002 1.8017037 1.7015785 0
3.7180002 1.7973909 1.7027528 0
3.7210002 1.7930673 1.703927 0
3.7240002 1.7887328 1.7051014 0
3.7270002 1.7843874 1.7062757 0
3.7300003 1.7800312 1.7074499 0
3.7330003 1.7756641 1.7086242 0
3.7360003 1.7712862 1.7097985 0
3.7390003 1.7668977 1.7109728 0
3.7410002 1.761957 1.7117555 0
3.7440002 1.7575485 1.7129298 0
3.7470002 1.7531291 1.7141042 0
3.7500002 1.7486989 1.7152784 0
3.7530003 1.744258 1.7164527 0
3.7560003 1.7398063 1.7176269 0
3.7590003 1.7353437 1.7188013 0
3.7620003 1.7308701 1.7199756 0
3.7650003 1.726386 1.7211499 0
3.7680004 1.7218908 1.7223243 0
3.7710001 1.7173848 1.7234983 0
3.7750003 1.7133895 1.7250642 0
3.7780004 1.7088602 1.7262384 0
3.7810001 1.7043198 1.7274126 0
3.7840002 1.6997689 1.7285869 0
3.7870002 1.6952071 1.7297611 0
3.7900002 1.6906344 1.7309355 0
3.7930002 1.6860509 1.7321097 0
3.7960002 1.6814567 1.733284 0
3.7990003 1.6768515 1.7344583 0
3.8020003 1.6722356 1.7356327 0
3.8050003 1.6676089 1.736807 0
3.8080003 1.6629713 1.7379812 0
3.8110003 1.6583228 1.7391555 0
3.8140004 1.6536636 1.7403297 0
3.8170002 1.6489934 1.741504 0
3.8210003 1.6448069 1.7430698 0
3.8240004 1.6401134 1.744244 0
3.8270001 1.635409 1.7454182 0
3.8300002 1.6306938 1.7465925 0
3.8330002 1.6259679 1.7477667 0
3.8360002 1.6212311 1.7489411 0
3.8390002 1.6164834 1.7501153 0
3.8430002 1.6122066 1.7516811 0
3.8460002 1.6074356 1.7528554 0
3.6830003 1.8490088 1.683131 0
3.6860003 1.8448132 1.6842999 0
3.6890004 1.8406067 1.6854688 0
3.6920002 1.8363892 1.6866375 0
3.6950002 1.8321611 1.6878065 0
3.6970003 1.8273541 1.6885856 0
3.7000003 1.8231062 1.6897546 0
3.7030003 1.8188474 1.6909235 0
3.7060003 1.8145777 1.6920923 0
3.7090003 1.8102974 1.6932613 0
3.7120004 1.8060061 1.6944301 0
3.7150002 1.8017037 1.6955988 0
3.7180002 1.7973909 1.6967677 0
3.7210002 1.7930673 1.6979365 0
3.7240002 1.7887328 1.6991055 0
3.7270002 1.7843874 1.7002743 0
3.7300003 1.7800312 1.7014432 0
3.7330003 1.7756641 1.7026122 0
3.7360003 1.7712862 1.703781 0
3.7390003 1.7668977 1.7049499 0
3.7410002 1.761957 1.705729 0
3.7440002 1.7575485 1.7068979 0
3.7470002 1.7531291 1.7080668 0
3.7500002 1.7486989 1.7092357 0
3.7530003 1.744258 1.7104045 0
3.7560003 1.7398063 1.7115735 0
3.7590003 1.7353437 1.7127423 0
3.7620003 1.7308701 1.7139112 0
3.7650003 1.726386 1.71508 0
3.7680004 1.7218908 1.7162489 0
3.7710001 1.7173848 1.7174177 0
3.7750003 1.7133895 1.7189763 0
3.7780004 1.7088602 1.7201452 0
3.7810001 1.7043198 1.721314 0
3.7840002 1.6997689 1.7224828 0
3.7870002 1.6952071 1.7236518 0
3.7900002 1.6906344 1.7248206 0
3.7930002 1.6860509 1.7259893 0
3.7960002 1.6814567 1.7271583 0
3.7990003 1.6768515 1.7283272 0
3.8020003 1.6722356 1.729496 0
3.8050003 1.6676089 1.730665 0
3.8080003 1.6629713 1.7318338 0
3.8110003 1.6583228 1.7330027 0
3.8140004 1.6536636 1.7341716 0
3.8170002 1.6489934 1.7353404 0
3.8210003 1.6448069 1.7368989 0
3.8240004 1.6401134 1.7380677 0
3.8270001 1.635409 1.7392366 0
3.8300002 1.6306938 1.7404054 0
3.8330002 1.6259679 1.7415743 0
3.8360002 1.6212311 1.7427433 0
3.8390002 1.6164834 1.7439121 0
3.8430002 1.6122066 1.7454705 0
3.8460002 1.6074356 1.7466394 0
3.6830003 1.8490088 1.677209 0
3.6860003 1.8448132 1.6783725 0
3.6890004 1.8406067 1.6795361 0
3.6920002 1.8363892 1.6806995 0
3.6950002 1.8321611 1.6818628 0
3.6970003 1.8273541 1.6826385 0
3.7000003 1.8231062 1.683802 0
3.7030003 1.8188474 1.6849654 0
3.7060003 1.8145777 1.6861289 0
3.7090003 1.8102974 1.6872925 0
3.7120004 1.8060061 1.6884559 0
3.7150002 1.8017037 1.6896193 0
3.7180002 1.7973909 1.6907827 0
3.7210002 1.7930673 1.6919461 0
3.7240002 1.7887328 1.6931096 0
3.7270002 1.7843874 1.6942731 0
3.7300003 1.7800312 1.6954365 0
3.7330003 1.7756641 1.6966 0
3.7360003 1.7712862 1.6977634 0
3.7390003 1.7668977 1.6989269 0
3.7410002 1.761957 1.6997025 0
3.7440002 1.7575485 1.700866 0
3.7470002 1.7531291 1.7020295 0
3.7500002 1.7486989 1.7031929 0
3.7530003 1.744258 1.7043563 0
3.7560003 1.7398063 1.7055198 0
3.7590003 1.7353437 1.7066833 0
3.7620003 1.7308701 1.7078469 0
3.7650003 1.726386 1.7090102 0
3.7680004 1.7218908 1.7101737 0
3.7710001 1.7173848 1.7113371 0
3.7750003 1.7133895 1.7128885 0
3.7780004 1.7088602 1.714052 0
3.7810001 1.7043198 1.7152153 0
3.7840002 1.6997689 1.7163787 0
3.7870002 1.6952071 1.7175422 0
3.7900002 1.6906344 1.7187057 0
3.7930002 1.6860509 1.7198691 0
3.7960002 1.6814567 1.7210325 0
3.7990003 1.6768515 1.722196 0
3.8020003 1.6722356 1.7233596 0
3.8050003 1.6676089 1.7245231 0
3.8080003 1.6629713 1.7256864 0
3.8110003 1.6583228 1.7268499 0
3.8140004 1.6536636 1.7280134 0
3.8170002 1.6489934 1.7291768 0
3.8210003 1.6448069 1.7307281 0
3.8240004 1.6401134 1.7318915 0
3.8270001 1.635409 1.7330549 0
3.8300002 1.6306938 1.7342184 0
3.8330002 1.6259679 1.7353818 0
3.8360002 1.6212311 1.7365453 0
3.8390002 1.6164834 1.7377088 0
3.8430002 1.6122066 1.73926 0
3.8460002 1.6074356 1.7404234 0
3.6830003 1.8490088 1.6712872 0
3.6860003 1.8448132 1.6724452 0
3.6890004 1.8406067 1.6736033 0
3.6920002 1.8363892 1.6747613 0
3.6950002 1.8321611 1.6759193 0
3.6970003 1.8273541 1.6766914 0
3.7000003 1.8231062 1.6778494 0
3.7030003 1.8188474 1.6790075 0
3.7060003 1.8145777 1.6801655 0
3.7090003 1.8102974 1.6813235 0
3.7120004 1.8060061 1.6824816 0
3.7150002 1.8017037 1.6836396 0
3.7180002 1.7973909 1.6847976 0
3.7210002 1.7930673 1.6859558 0
3.7240002 1.7887328 1.6871138 0
3.7270002 1.7843874 1.6882718 0
3.7300003 1.7800312 1.6894299 0
3.7330003 1.7756641 1.6905879 0
3.7360003 1.7712862 1.691746 0
3.7390003 1.7668977 1.692904 0
3.7410002 1.761957 1.693676 0
3.7440002 1.7575485 1.6948341 0
3.7470002 1.7531291 1.6959921 0
3.7500002 1.7486989 1.6971501 0
3.7530003 1.744258 1.6983082 0
3.7560003 1.7398063 1.6994662 0
3.7590003 1.7353437 1.7006243 0
3.7620003 1.7308701 1.7017825 0
3.7650003 1.726386 1.7029405 0
3.7680004 1.7218908 1.7040985 0
3.7710001 1.7173848 1.7052563 0
3.7750003 1.7133895 1.7068006 0
3.7780004 1.7088602 1.7079586 0
3.7810001 1.7043198 1.7091166 0
3.7840002 1.6997689 1.7102747 0
3.7870002 1.6952071 1.7114327 0
3.7900002 1.6906344 1.7125907 0
3.7930002 1.6860509 1.7137488 0
3.7960002 1.6814567 1.7149068 0
3.7990003 1.6768515 1.7160649 0
3.8020003 1.6722356 1.7172229 0
3.8050003 1.6676089 1.718381 0
3.8080003 1.6629713 1.719539 0
3.8110003 1.6583228 1.720697 0
3.8140004 1.6536636 1.7218552 0
3.8170002 1.6489934 1.7230132 0
3.8210003 1.6448069 1.7245573 0
3.8240004 1.6401134 1.7257154 0
3.8270001 1.635409 1.7268733 0
3.8300002 1.6306938 1.7280313 0
3.8330002 1.6259679 1.7291894 0
3.8360002 1.6212311 1.7303474 0
3.8390002 1.6164834 1.7315055 0
3.8430002 1.6122066 1.7330495 0
3.8460002 1.6074356 1.7342076 0
3.6830003 1.8490088 1.6653653 0
3.6860003 1.8448132 1.6665179 0
3.6890004 1.8406067 1.6676706 0
3.6920002 1.8363892 1.6688231 0
3.6950002 1.8321611 1.6699758 0
3.6970003 1.8273541 1.6707443 0
3.7000003 1.8231062 1.6718968 0
3.7030003 1.8188474 1.6730496 0
3.7060003 1.8145777 1.6742021 0
3.7090003 1.8102974 1.6753548 0
3.7120004 1.8060061 1.6765075 0
3.7150002 1.8017037 1.67766 0
3.7180002 1.7973909 1.6788126 0
3.7210002 1.7930673 1.6799653 0
3.7240002 1.7887328 1.6811179 0
3.7270002 1.7843874 1.6822705 0
3.7300003 1.7800312 1.6834232 0
3.7330003 1.7756641 1.6845758 0
3.7360003 1.7712862 1.6857284 0
3.7390003 1.7668977 1.6868811 0
3.7410002 1.761957 1.6876495 0
3.7440002 1.7575485 1.6888021 0
3.7470002 1.7531291 1.6899548 0
3.7500002 1.7486989 1.6911074 0
3.7530003 1.744258 1.69226 0
3.7560003 1.7398063 1.6934128 0
3.7590003 1.7353437 1.6945653 0
3.7620003 1.7308701 1.6957179 0
3.7650003 1.726386 1.6968706 0
3.7680004 1.7218908 1.6980232 0
3.7710001 1.7173848 1.6991758 0
3.7750003 1.7133895 1.7007127 0
3.7780004 1.7088602 1.7018653 0
3.7810001 1.7043198 1.703018 0
3.7840002 1.6997689 1.7041705 0
3.7870002 1.6952071 1.7053232 0
3.7900002 1.6906344 1.7064759 0
3.7930002 1.6860509 1.7076285 0
3.7960002 1.6814567 1.7087811 0
3.7990003 1.6768515 1.7099338 0
3.8020003 1.6722356 1.7110864 0
3.8050003 1.6676089 1.712239 0
3.8080003 1.6629713 1.7133917 0
3.8110003 1.6583228 1.7145443 0
3.8140004 1.6536636 1.7156969 0
3.8170002 1.6489934 1.7168494 0
3.8210003 1.6448069 1.7183864 0
3.8240004 1.6401134 1.719539 0
3.8270001 1.635409 1.7206916 0
3.8300002 1.6306938 1.7218443 0
3.8330002 1.6259679 1.7229968 0
3.8360002 1.6212311 1.7241496 0
3.8390002 1.6164834 1.7253022 0
3.8430002 1.6122066 1.7268389 0
3.8460002 1.6074356 1.7279917 0
3.6830003 1.8490088 1.6594434 0
3.6860003 1.8448132 1.6605906 0
3.6890004 1.8406067 1.6617379 0
3.6920002 1.8363892 1.662885 0
3.6950002 1.8321611 1.6640322 0
3.6970003 1.8273541 1.6647971 0
3.7000003 1.8231062 1.6659443 0
3.7030003 1.8188474 1.6670915 0
3.7060003 1.8145777 1.6682388 0
3.7090003 1.8102974 1.669386 0
3.7120004 1.8060061 1.6705332 0
3.7150002 1.8017037 1.6716803 0
3.7180002 1.7973909 1.6728276 0
3.7210002 1.7930673 1.6739748 0
3.7240002 1.7887328 1.6751221 0
3.7270002 1.7843874 1.6762693 0
3.7300003 1.7800312 1.6774164 0
3.7330003 1.7756641 1.6785638 0
3.7360003 1.7712862 1.679711 0
3.7390003 1.7668977 1.6808581 0
3.7410002 1.761957 1.6816229 0
3.7440002 1.7575485 1.6827703 0
3.7470002 1.7531291 1.6839174 0
3.7500002 1.7486989 1.6850646 0
3.7530003 1.744258 1.6862119 0
3.7560003 1.7398063 1.6873591 0
3.7590003 1.7353437 1.6885064 0
3.7620003 1.7308701 1.6896535 0
3.7650003 1.726386 1.6908008 0
3.7680004 1.7218908 1.6919481 0
3.7710001 1.7173848 1.6930952 0
3.7750003 1.7133895 1.6946249 0
3.7780004 1.7088602 1.6957721 0
3.7810001 1.7043198 1.6969193 0
3.7840002 1.6997689 1.6980665 0
3.7870002 1.6952071 1.6992136 0
3.7900002 1.6906344 1.7003609 0
3.7930002 1.6860509 1.7015082 0
3.7960002 1.6814567 1.7026553 0
3.7990003 1.6768515 1.7038026 0
3.8020003 1.6722356 1.7049499 0
3.8050003 1.6676089 1.7060971 0
3.8080003 1.6629713 1.7072443 0
3.8110003 1.6583228 1.7083915 0
3.8140004 1.6536636 1.7095388 0
3.8170002 1.6489934 1.7106858 0
3.8210003 1.6448069 1.7122157 0
3.8240004 1.6401134 1.7133628 0
3.8270001 1.635409 1.71451 0
3.8300002 1.6306938 1.7156572 0
3.8330002 1.6259679 1.7168044 0
3.8360002 1.6212311 1.7179517 0
3.8390002 1.6164834 1.7190989 0
3.8430002 1.6122066 1.7206285 0
3.8460002 1.6074356 1.7217757 0
3.6830003 1.8490088 1.6535215 0
3.6860003 1.8448132 1.6546633 0
3.6890004 1.8406067 1.6558051 0
3.6920002 1.8363892 1.6569468 0
3.6950002 1.8321611 1.6580887 0
3.6970003 1.8273541 1.65885 0
3.7000003 1.8231062 1.6599917 0
3.7030003 1.8188474 1.6611335 0
3.7060003 1.8145777 1.6622753 0
3.7090003 1.8102974 1.6634171 0
3.7120004 1.8060061 1.664559 0
3.7150002 1.8017037 1.6657008 0
3.7180002 1.7973909 1.6668426 0
3.7210002 1.7930673 1.6679844 0
3.7240002 1.7887328 1.6691262 0
3.7270002 1.7843874 1.6702679 0
3.7300003 1.7800312 1.6714097 0
3.7330003 1.7756641 1.6725516 0
3.7360003 1.7712862 1.6736935 0
3.7390003 1.7668977 1.6748353 0
3.7410002 1.761957 1.6755964 0
3.7440002 1.7575485 1.6767383 0
3.7470002 1.7531291 1.67788 0
3.7500002 1.7486989 1.679022 0
3.7530003 1.744258 1.6801637 0
3.7560003 1.7398063 1.6813055 0
3.7590003 1.7353437 1.6824473 0
3.7620003 1.7308701 1.6835891 0
3.7650003 1.726386 1.684731 0
3.7680004 1.7218908 1.6858728 0
3.7710001 1.7173848 1.6870145 0
3.7750003 1.7133895 1.688537 0
3.7780004 1.7088602 1.6896788 0
3.7810001 1.7043198 1.6908206 0
3.7840002 1.6997689 1.6919624 0
3.7870002 1.6952071 1.6931043 0
3.7900002 1.6906344 1.6942461 0
3.7930002 1.6860509 1.6953878 0
3.7960002 1.6814567 1.6965296 0
3.7990003 1.6768515 1.6976714 0
3.8020003 1.6722356 1.6988132 0
3.8050003 1.6676089 1.6999551 0
3.8080003 1.6629713 1.701097 0
3.8110003 1.6583228 1.7022388 0
3.8140004 1.6536636 1.7033806 0
3.8170002 1.6489934 1.7045223 0
3.8210003 1.6448069 1.7060448 0
3.8240004 1.6401134 1.7071866 0
3.8270001 1.635409 1.7083282 0
3.8300002 1.6306938 1.7094702 0
3.8330002 1.6259679 1.7106119 0
3.8360002 1.6212311 1.7117538 0
3.8390002 1.6164834 1.7128956 0
3.8430002 1.6122066 1.7144181 0
3.8460002 1.6074356 1.7155598 0
3.6830003 1.8490088 1.6475996 0
3.6860003 1.8448132 1.648736 0
3.6890004 1.8406067 1.6498724 0
3.6920002 1.8363892 1.6510087 0
3.6950002 1.8321611 1.6521451 0
3.6970003 1.8273541 1.6529028 0
3.7000003 1.8231062 1.6540391 0
3.7030003 1.8188474 1.6551756 0
3.7060003 1.8145777 1.656312 0
3.7090003 1.8102974 1.6574484 0
3.7120004 1.8060061 1.6585848 0
3.7150002 1.8017037 1.6597211 0
3.7180002 1.7973909 1.6608576 0
3.7210002 1.7930673 1.661994 0
3.7240002 1.7887328 1.6631304 0
3.7270002 1.7843874 1.6642667 0
3.7300003 1.7800312 1.6654031 0
3.7330003 1.7756641 1.6665395 0
3.7360003 1.7712862 1.667676 0
3.7390003 1.7668977 1.6688124 0
3.7410002 1.761957 1.66957 0
3.7440002 1.7575485 1.6707064 0
3.7470002 1.7531291 1.6718427 0
3.7500002 1.7486989 1.6729791 0
3.7530003 1.744258 1.6741155 0
3.7560003 1.7398063 1.6752518 0
3.7590003 1.7353437 1.6763883 0
3.7620003 1.7308701 1.6775247 0
3.7650003 1.726386 1.6786611 0
3.7680004 1.7218908 1.6797975 0
3.7710001 1.7173848 1.680934 0
3.7750003 1.7133895 1.6824492 0
3.7780004 1.7088602 1.6835856 0
3.7810001 1.7043198 1.6847218 0
3.7840002 1.6997689 1.6858582 0
3.7870002 1.6952071 1.6869947 0
3.7900002 1.6906344 1.6881311 0
3.7930002 1.6860509 1.6892675 0
3.7960002 1.6814567 1.6904039 0
3.7990003 1.6768515 1.6915404 0
3.8020003 1.6722356 1.6926768 0
3.8050003 1.6676089 1.6938132 0
3.8080003 1.6629713 1.6949495 0
3.8110003 1.6583228 1.6960859 0
3.8140004 1.6536636 1.6972224 0
3.8170002 1.6489934 1.6983587 0
3.8210003 1.6448069 1.6998739 0
3.8240004 1.6401134 1.7010103 0
3.8270001 1.635409 1.7021466 0
3.8300002 1.6306938 1.7032831 0
3.8330002 1.6259679 1.7044195 0
3.8360002 1.6212311 1.7055558 0
3.8390002 1.6164834 1.7066922 0
3.8430002 1.6122066 1.7082075 0
3.8460002 1.6074356 1.7093439 0
3.6830003 1.8490088 1.6416776 0
3.6860003 1.8448132 1.6428087 0
3.6890004 1.8406067 1.6439397 0
3.6920002 1.8363892 1.6450706 0
3.6950002 1.8321611 1.6462016 0
3.6970003 1.8273541 1.6469556 0
3.7000003 1.8231062 1.6480865 0
3.7030003 1.8188474 1.6492176 0
3.7060003 1.8145777 1.6503485 0
3.7090003 1.8102974 1.6514796 0
3.7120004 1.8060061 1.6526105 0
3.7150002 1.8017037 1.6537415 0
3.7180002 1.7973909 1.6548725 0
3.7210002 1.7930673 1.6560035 0
3.7240002 1.7887328 1.6571344 0
3.7270002 1.7843874 1.6582655 0
3.7300003 1.7800312 1.6593964 0
3.7330003 1.7756641 1.6605275 0
3.7360003 1.7712862 1.6616585 0
3.7390003 1.7668977 1.6627895 0
3.7410002 1.761957 1.6635435 0
3.7440002 1.7575485 1.6646743 0
3.7470002 1.7531291 1.6658053 0
3.7500002 1.7486989 1.6669364 0
3.7530003 1.744258 1.6680673 0
3.7560003 1.7398063 1.6691984 0
3.7590003 1.7353437 1.6703295 0
3.7620003 1.7308701 1.6714603 0
3.7650003 1.726386 1.6725913 0
3.7680004 1.7218908 1.6737224 0
3.7710001 1.7173848 1.6748532 0
3.7750003 1.7133895 1.6763613 0
3.7780004 1.7088602 1.6774924 0
3.7810001 1.7043198 1.6786232 0
3.7840002 1.6997689 1.6797543 0
3.7870002 1.6952071 1.6808852 0
3.7900002 1.6906344 1.6820161 0
3.7930002 1.6860509 1.6831472 0
3.7960002 1.6814567 1.6842782 0
3.7990003 1.6768515 1.6854092 0
3.8020003 1.6722356 1.6865402 0
3.8050003 1.6676089 1.6876712 0
3.8080003 1.6629713 1.6888021 0
3.8110003 1.6583228 1.6899332 0
3.8140004 1.6536636 1.6910641 0
3.8170002 1.6489934 1.6921951 0
3.8210003 1.6448069 1.6937032 0
3.8240004 1.6401134 1.6948341 0
3.8270001 1.635409 1.6959649 0
3.8300002 1.6306938 1.697096 0
3.8330002 1.6259679 1.698227 0
3.8360002 1.6212311 1.699358 0
3.8390002 1.6164834 1.700489 0
3.8430002 1.6122066 1.701997 0
3.8460002 1.6074356 1.703128 0
3.6830003 1.8490088 1.6357558 0
3.6860003 1.8448132 1.6368814 0
3.6890004 1.8406067 1.6380069 0
3.6920002 1.8363892 1.6391325 0
3.6950002 1.8321611 1.640258 0
3.6970003 1.8273541 1.6410085 0
3.7000003 1.8231062 1.642134 0
3.7030003 1.8188474 1.6432596 0
3.7060003 1.8145777 1.6443852 0
3.7090003 1.8102974 1.6455108 0
3.7120004 1.8060061 1.6466364 0
3.7150002 1.8017037 1.6477618 0
3.7180002 1.7973909 1.6488875 0
3.7210002 1.7930673 1.650013 0
3.7240002 1.7887328 1.6511387 0
3.7270002 1.7843874 1.6522642 0
3.7300003 1.7800312 1.6533897 0
3.7330003 1.7756641 1.6545154 0
3.7360003 1.7712862 1.655641 0
3.7390003 1.7668977 1.6567665 0
3.7410002 1.761957 1.657517 0
3.7440002 1.7575485 1.6586424 0
3.7470002 1.7531291 1.659768 0
3.7500002 1.7486989 1.6608937 0
3.7530003 1.744258 1.6620191 0
3.7560003 1.7398063 1.6631448 0
3.7590003 1.7353437 1.6642704 0
3.7620003 1.7308701 1.6653959 0
3.7650003 1.726386 1.6665215 0
3.7680004 1.7218908 1.6676471 0
3.7710001 1.7173848 1.6687727 0
3.7750003 1.7133895 1.6702734 0
3.7780004 1.7088602 1.671399 0
3.7810001 1.7043198 1.6725245 0
3.7840002 1.6997689 1.6736501 0
3.7870002 1.6952071 1.6747757 0
3.7900002 1.6906344 1.6759013 0
3.7930002 1.6860509 1.6770269 0
3.7960002 1.6814567 1.6781524 0
3.7990003 1.6768515 1.6792781 0
3.8020003 1.6722356 1.6804036 0
3.8050003 1.6676089 1.6815292 0
3.8080003 1.6629713 1.6826549 0
3.8110003 1.6583228 1.6837803 0
3.8140004 1.6536636 1.684906 0
3.8170002 1.6489934 1.6860315 0
3.8210003 1.6448069 1.6875323 0
3.8240004 1.6401134 1.6886579 0
3.8270001 1.635409 1.6897835 0
3.8300002 1.6306938 1.6909089 0
3.8330002 1.6259679 1.6920346 0
3.8360002 1.6212311 1.6931602 0
3.8390002 1.6164834 1.6942856 0
3.8430002 1.6122066 1.6957865 0
3.8460002 1.6074356 1.6969121 0
3.6830003 1.8490088 1.6298339 0
3.6860003 1.8448132 1.630954 0
3.6890004 1.8406067 1.6320742 0
3.6920002 1.8363892 1.6331943 0
3.6950002 1.8321611 1.6343144 0
3.6970003 1.8273541 1.6350614 0
3.7000003 1.8231062 1.6361815 0
3.7030003 1.8188474 1.6373017 0
3.7060003 1.8145777 1.6384218 0
3.7090003 1.8102974 1.639542 0
3.7120004 1.8060061 1.6406621 0
3.7150002 1.8017037 1.6417823 0
3.7180002 1.7973909 1.6429024 0
3.7210002 1.7930673 1.6440226 0
3.7240002 1.7887328 1.6451428 0
3.7270002 1.7843874 1.6462629 0
3.7300003 1.7800312 1.6473831 0
3.7330003 1.7756641 1.6485033 0
3.7360003 1.7712862 1.6496235 0
3.7390003 1.7668977 1.6507436 0
3.7410002 1.761957 1.6514903 0
3.7440002 1.7575485 1.6526105 0
3.7470002 1.7531291 1.6537308 0
3.7500002 1.7486989 1.6548508 0
3.7530003 1.744258 1.6559711 0
3.7560003 1.7398063 1.6570911 0
3.7590003 1.7353437 1.6582114 0
3.7620003 1.7308701 1.6593316 0
3.7650003 1.726386 1.6604518 0
3.7680004 1.7218908 1.6615719 0
3.7710001 1.7173848 1.662692 0
3.7750003 1.7133895 1.6641856 0
3.7780004 1.7088602 1.6653057 0
3.7810001 1.7043198 1.6664258 0
3.7840002 1.6997689 1.667546 0
3.7870002 1.6952071 1.6686662 0
3.7900002 1.6906344 1.6697865 0
3.7930002 1.6860509 1.6709065 0
3.7960002 1.6814567 1.6720268 0
3.7990003 1.6768515 1.6731468 0
3.8020003 1.6722356 1.6742671 0
3.8050003 1.6676089 1.6753871 0
3.8080003 1.6629713 1.6765075 0
3.8110003 1.6583228 1.6776276 0
3.8140004 1.6536636 1.6787478 0
3.8170002 1.6489934 1.6798679 0
3.8210003 1.6448069 1.6813614 0
3.8240004 1.6401134 1.6824816 0
3.8270001 1.635409 1.6836017 0
3.8300002 1.6306938 1.6847218 0
3.8330002 1.6259679 1.6858422 0
3.8360002 1.6212311 1.6869622 0
3.8390002 1.6164834 1.6880825 0
3.8430002 1.6122066 1.6895759 0
3.8460002 1.6074356 1.6906961 0
3.6830003 1.8490088 1.623912 0
3.6860003 1.8448132 1.6250268 0
3.6890004 1.8406067 1.6261415 0
3.6920002 1.8363892 1.6272563 0
3.6950002 1.8321611 1.6283709 0
3.6970003 1.8273541 1.629114 0
3.7000003 1.8231062 1.6302289 0
3.7030003 1.8188474 1.6313436 0
3.7060003 1.8145777 1.6324584 0
3.7090003 1.8102974 1.6335732 0
3.7120004 1.8060061 1.6346879 0
3.7150002 1.8017037 1.6358026 0
3.7180002 1.7973909 1.6369174 0
3.7210002 1.7930673 1.6380322 0
3.7240002 1.7887328 1.6391469 0
3.7270002 1.7843874 1.6402617 0
3.7300003 1.7800312 1.6413764 0
3.7330003 1.7756641 1.6424911 0
3.7360003 1.7712862 1.6436059 0
3.7390003 1.7668977 1.6447207 0
3.7410002 1.761957 1.6454638 0
3.7440002 1.7575485 1.6465786 0
3.7470002 1.7531291 1.6476934 0
3.7500002 1.7486989 1.6488081 0
3.7530003 1.744258 1.6499228 0
3.7560003 1.7398063 1.6510377 0
3.7590003 1.7353437 1.6521524 0
3.7620003 1.7308701 1.6532671 0
3.7650003 1.726386 1.6543819 0
3.7680004 1.7218908 1.6554966 0
3.7710001 1.7173848 1.6566113 0
3.7750003 1.7133895 1.6580977 0
3.7780004 1.7088602 1.6592125 0
3.7810001 1.7043198 1.6603272 0
3.7840002 1.6997689 1.6614419 0
3.7870002 1.6952071 1.6625568 0
3.7900002 1.6906344 1.6636715 0
3.7930002 1.6860509 1.6647862 0
3.7960002 1.6814567 1.6659011 0
3.7990003 1.6768515 1.6670158 0
3.8020003 1.6722356 1.6681305 0
3.8050003 1.6676089 1.6692452 0
3.8080003 1.6629713 1.67036 0
3.8110003 1.6583228 1.6714748 0
3.8140004 1.6536636 1.6725895 0
3.8170002 1.6489934 1.6737043 0
3.8210003 1.6448069 1.6751907 0
3.8240004 1.6401134 1.6763054 0
3.8270001 1.635409 1.6774201 0
3.8300002 1.6306938 1.6785349 0
3.8330002 1.6259679 1.6796496 0
3.8360002 1.6212311 1.6807644 0
3.8390002 1.6164834 1.681879 0
3.8430002 1.6122066 1.6833653 0
3.8460002 1.6074356 1.6844802 0
3.6830003 1.8490088 1.6179901 0
3.6860003 1.8448132 1.6190995 0
3.6890004 1.8406067 1.6202087 0
3.6920002 1.8363892 1.621318 0
3.6950002 1.8321611 1.6224275 0
3.6970003 1.8273541 1.6231669 0
3.7000003 1.8231062 1.6242764 0
3.7030003 1.8188474 1.6253856 0
3.7060003 1.8145777 1.626495 0
3.7090003 1.8102974 1.6276044 0
3.7120004 1.8060061 1.6287137 0
3.7150002 1.8017037 1.629823 0
3.7180002 1.7973909 1.6309323 0
3.7210002 1.7930673 1.6320417 0
3.7240002 1.7887328 1.6331511 0
3.7270002 1.7843874 1.6342604 0
3.7300003 1.7800312 1.6353698 0
3.7330003 1.7756641 1.636479 0
3.7360003 1.7712862 1.6375885 0
3.7390003 1.7668977 1.6386977 0
3.7410002 1.761957 1.6394373 0
3.7440002 1.7575485 1.6405467 0
3.7470002 1.7531291 1.6416559 0
3.7500002 1.7486989 1.6427653 0
3.7530003 1.744258 1.6438748 0
3.7560003 1.7398063 1.644984 0
3.7590003 1.7353437 1.6460934 0
3.7620003 1.7308701 1.6472027 0
3.7650003 1.726386 1.6483121 0
3.7680004 1.7218908 1.6494215 0
3.7710001 1.7173848 1.6505307 0
3.7750003 1.7133895 1.65201 0
3.7780004 1.7088602 1.6531192 0
3.7810001 1.7043198 1.6542284 0
3.7840002 1.6997689 1.6553379 0
3.7870002 1.6952071 1.6564472 0
3.7900002 1.6906344 1.6575565 0
3.7930002 1.6860509 1.6586659 0
3.7960002 1.6814567 1.6597753 0
3.7990003 1.6768515 1.6608846 0
3.8020003 1.6722356 1.661994 0
3.8050003 1.6676089 1.6631032 0
3.8080003 1.6629713 1.6642127 0
3.8110003 1.6583228 1.6653221 0
3.8140004 1.6536636 1.6664313 0
3.8170002 1.6489934 1.6675406 0
3.8210003 1.6448069 1.6690198 0
3.8240004 1.6401134 1.6701292 0
3.8270001 1.635409 1.6712384 0
3.8300002 1.6306938 1.6723478 0
3.8330002 1.6259679 1.6734571 0
3.8360002 1.6212311 1.6745664 0
3.8390002 1.6164834 1.6756759 0
3.8430002 1.6122066 1.6771549 0
3.8460002 1.6074356 1.6782643 0
3.6830003 1.8490088 1.6120682 0
3.6860003 1.8448132 1.6131721 0
3.6890004 1.8406067 1.6142761 0
3.6920002 1.8363892 1.6153798 0
3.6950002 1.8321611 1.6164838 0
3.6970003 1.8273541 1.6172198 0
3.7000003 1.8231062 1.6183237 0
3.7030003 1.8188474 1.6194278 0
3.7060003 1.8145777 1.6205317 0
3.7090003 1.8102974 1.6216356 0
3.7120004 1.8060061 1.6227396 0
3.7150002 1.8017037 1.6238433 0
3.7180002 1.7973909 1.6249473 0
3.7210002 1.7930673 1.6260512 0
3.7240002 1.7887328 1.6271552 0
3.7270002 1.7843874 1.6282591 0
3.7300003 1.7800312 1.6293631 0
3.7330003 1.7756641 1.6304669 0
3.7360003 1.7712862 1.6315709 0
3.7390003 1.7668977 1.6326749 0
3.7410002 1.761957 1.6334108 0
3.7440002 1.7575485 1.6345147 0
3.7470002 1.7531291 1.6356187 0
3.7500002 1.7486989 1.6367226 0
3.7530003 1.744258 1.6378266 0
3.7560003 1.7398063 1.6389304 0
3.7590003 1.7353437 1.6400343 0
3.7620003 1.7308701 1.6411383 0
3.7650003 1.726386 1.6422422 0
3.7680004 1.7218908 1.6433463 0
3.7710001 1.7173848 1.6444501 0
3.7750003 1.7133895 1.6459221 0
3.7780004 1.7088602 1.6470259 0
3.7810001 1.7043198 1.6481298 0
3.7840002 1.6997689 1.6492337 0
3.7870002 1.6952071 1.6503377 0
3.7900002 1.6906344 1.6514416 0
3.7930002 1.6860509 1.6525456 0
3.7960002 1.6814567 1.6536496 0
3.7990003 1.6768515 1.6547534 0
3.8020003 1.6722356 1.6558574 0
3.8050003 1.6676089 1.6569613 0
3.8080003 1.6629713 1.6580653 0
3.8110003 1.6583228 1.6591692 0
3.8140004 1.6536636 1.6602732 0
3.8170002 1.6489934 1.661377 0
3.8210003 1.6448069 1.6628489 0
3.8240004 1.6401134 1.6639528 0
3.8270001 1.635409 1.6650568 0
3.8300002 1.6306938 1.6661607 0
3.8330002 1.6259679 1.6672647 0
3.8360002 1.6212311 1.6683686 0
3.8390002 1.6164834 1.6694726 0
3.8430002 1.6122066 1.6709445 0
3.8460002 1.6074356 1.6720483 0
3.6830003 1.8490088 1.6061462 0
3.6860003 1.8448132 1.6072447 0
3.6890004 1.8406067 1.6083434 0
3.6920002 1.8363892 1.6094418 0
3.6950002 1.8321611 1.6105403 0
3.6970003 1.8273541 1.6112726 0
3.7000003 1.8231062 1.6123712 0
3.7030003 1.8188474 1.6134697 0
3.7060003 1.8145777 1.6145682 0
3.7090003 1.8102974 1.6156667 0
3.7120004 1.8060061 1.6167653 0
3.7150002 1.8017037 1.6178638 0
3.7180002 1.7973909 1.6189623 0
3.7210002 1.7930673 1.6200608 0
3.7240002 1.7887328 1.6211593 0
3.7270002 1.7843874 1.6222578 0
3.7300003 1.7800312 1.6233565 0
3.7330003 1.7756641 1.624455 0
3.7360003 1.7712862 1.6255535 0
3.7390003 1.7668977 1.6266519 0
3.7410002 1.761957 1.6273843 0
3.7440002 1.7575485 1.6284828 0
3.7470002 1.7531291 1.6295813 0
3.7500002 1.7486989 1.6306798 0
3.7530003 1.744258 1.6317784 0
3.7560003 1.7398063 1.6328769 0
3.7590003 1.7353437 1.6339754 0
3.7620003 1.7308701 1.6350739 0
3.7650003 1.726386 1.6361724 0
3.7680004 1.7218908 1.6372709 0
3.7710001 1.7173848 1.6383694 0
3.7750003 1.7133895 1.6398342 0
3.7780004 1.7088602 1.6409328 0
3.7810001 1.7043198 1.6420312 0
3.7840002 1.6997689 1.6431297 0
3.7870002 1.6952071 1.6442282 0
3.7900002 1.6906344 1.6453267 0
3.7930002 1.6860509 1.6464254 0
3.7960002 1.6814567 1.6475238 0
3.7990003 1.6768515 1.6486223 0
3.8020003 1.6722356 1.6497208 0
3.8050003 1.6676089 1.6508193 0
3.8080003 1.6629713 1.6519179 0
3.8110003 1.6583228 1.6530164 0
3.8140004 1.6536636 1.654115 0
3.8170002 1.6489934 1.6552134 0
3.8210003 1.6448069 1.6566782 0
3.8240004 1.6401134 1.6577767 0
3.8270001 1.635409 1.6588751 0
3.8300002 1.6306938 1.6599737 0
3.8330002 1.6259679 1.6610723 0
3.8360002 1.6212311 1.6621706 0
3.8390002 1.6164834 1.6632692 0
3.8430002 1.6122066 1.6647339 0
3.8460002 1.6074356 1.6658324 0
3.6830003 1.8490088 1.6002244 0
3.6860003 1.8448132 1.6013174 0
3.6890004 1.8406067 1.6024106 0
3.6920002 1.8363892 1.6035036 0
3.6950002 1.8321611 1.6045967 0
3.6970003 1.8273541 1.6053255 0
3.7000003 1.8231062 1.6064186 0
3.7030003 1.8188474 1.6075118 0
3.7060003 1.8145777 1.6086049 0
3.7090003 1.8102974 1.6096979 0
3.7120004 1.8060061 1.6107911 0
3.7150002 1.8017037 1.6118841 0
3.7180002 1.7973909 1.6129773 0
3.7210002 1.7930673 1.6140704 0
3.7240002 1.7887328 1.6151634 0
3.7270002 1.7843874 1.6162566 0
3.7300003 1.7800312 1.6173497 0
3.7330003 1.7756641 1.6184429 0
3.7360003 1.7712862 1.6195359 0
3.7390003 1.7668977 1.620629 0
3.7410002 1.761957 1.6213577 0
3.7440002 1.7575485 1.6224508 0
3.7470002 1.7531291 1.6235439 0
3.7500002 1.7486989 1.624637 0
3.7530003 1.744258 1.6257302 0
3.7560003 1.7398063 1.6268233 0
3.7590003 1.7353437 1.6279165 0
3.7620003 1.7308701 1.6290095 0
3.7650003 1.726386 1.6301026 0
3.7680004 1.7218908 1.6311958 0
3.7710001 1.7173848 1.6322888 0
3.7750003 1.7133895 1.6337464 0
3.7780004 1.7088602 1.6348395 0
3.7810001 1.7043198 1.6359326 0
3.7840002 1.6997689 1.6370256 0
3.7870002 1.6952071 1.6381187 0
3.7900002 1.6906344 1.6392119 0
3.7930002 1.6860509 1.6403049 0
3.7960002 1.6814567 1.641398 0
3.7990003 1.6768515 1.6424911 0
3.8020003 1.6722356 1.6435843 0
3.8050003 1.6676089 1.6446774 0
3.8080003 1.6629713 1.6457705 0
3.8110003 1.6583228 1.6468636 0
3.8140004 1.6536636 1.6479567 0
3.8170002 1.6489934 1.6490498 0
3.8210003 1.6448069 1.6505073 0
3.8240004 1.6401134 1.6516005 0
3.8270001 1.635409 1.6526935 0
3.8300002 1.6306938 1.6537865 0
3.8330002 1.6259679 1.6548797 0
3.8360002 1.6212311 1.6559728 0
3.8390002 1.6164834 1.657066 0
3.8430002 1.6122066 1.6585234 0
3.8460002 1.6074356 1.6596166 0
3.6830003 1.8490088 1.5943025 0
3.6860003 1.8448132 1.5953901 0
3.6890004 1.8406067 1.5964779 0
3.6920002 1.8363892 1.5975655 0
3.6950002 1.8321611 1.5986532 0
3.6970003 1.8273541 1.5993783 0
3.7000003 1.8231062 1.6004661 0
3.7030003 1.8188474 1.6015537 0
3.7060003 1.8145777 1.6026415 0
3.7090003 1.8102974 1.6037292 0
3.7120004 1.8060061 1.6048168 0
3.7150002 1.8017037 1.6059045 0
3.7180002 1.7973909 1.6069922 0
3.7210002 1.7930673 1.6080799 0
3.7240002 1.7887328 1.6091676 0
3.7270002 1.7843874 1.6102554 0
3.7300003 1.7800312 1.611343 0
3.7330003 1.7756641 1.6124307 0
3.7360003 1.7712862 1.6135184 0
3.7390003 1.7668977 1.6146061 0
3.7410002 1.761957 1.6153312 0
3.7440002 1.7575485 1.616419 0
3.7470002 1.7531291 1.6175066 0
3.7500002 1.7486989 1.6185943 0
3.7530003 1.744258 1.619682 0
3.7560003 1.7398063 1.6207697 0
3.7590003 1.7353437 1.6218574 0
3.7620003 1.7308701 1.6229451 0
3.7650003 1.726386 1.6240329 0
3.7680004 1.7218908 1.6251205 0
3.7710001 1.7173848 1.6262081 0
3.7750003 1.7133895 1.6276585 0
3.7780004 1.7088602 1.6287462 0
3.7810001 1.7043198 1.6298338 0
3.7840002 1.6997689 1.6309215 0
3.7870002 1.6952071 1.6320091 0
3.7900002 1.6906344 1.6330969 0
3.7930002 1.6860509 1.6341846 0
3.7960002 1.6814567 1.6352723 0
3.7990003 1.6768515 1.63636 0
3.8020003 1.6722356 1.6374478 0
3.8050003 1.6676089 1.6385354 0
3.8080003 1.6629713 1.6396232 0
3.8110003 1.6583228 1.6407108 0
3.8140004 1.6536636 1.6417985 0
3.8170002 1.6489934 1.6428862 0
3.8210003 1.6448069 1.6443365 0
3.8240004 1.6401134 1.6454242 0
3.8270001 1.635409 1.6465118 0
3.8300002 1.6306938 1.6475995 0
3.8330002 1.6259679 1.6486872 0
3.8360002 1.6212311 1.649775 0
3.8390002 1.6164834 1.6508626 0
3.8430002 1.6122066 1.6523129 0
3.8460002 1.6074356 1.6534005 0
3.6830003 1.8490088 1.5883806 0
3.6860003 1.8448132 1.5894629 0
3.6890004 1.8406067 1.5905452 0
3.6920002 1.8363892 1.5916274 0
3.6950002 1.8321611 1.5927097 0
3.6970003 1.8273541 1.5934312 0
3.7000003 1.8231062 1.5945135 0
3.7030003 1.8188474 1.5955957 0
3.7060003 1.8145777 1.5966781 0
3.7090003 1.8102974 1.5977603 0
3.7120004 1.8060061 1.5988426 0
3.7150002 1.8017037 1.5999248 0
3.7180002 1.7973909 1.6010072 0
3.7210002 1.7930673 1.6020894 0
3.7240002 1.7887328 1.6031718 0
3.7270002 1.7843874 1.604254 0
3.7300003 1.7800312 1.6053364 0
3.7330003 1.7756641 1.6064186 0
3.7360003 1.7712862 1.6075009 0
3.7390003 1.7668977 1.6085832 0
3.7410002 1.761957 1.6093047 0
3.7440002 1.7575485 1.610387 0
3.7470002 1.7531291 1.6114693 0
3.7500002 1.7486989 1.6125515 0
3.7530003 1.744258 1.6136339 0
3.7560003 1.7398063 1.6147161 0
3.7590003 1.7353437 1.6157985 0
3.7620003 1.7308701 1.6168807 0
3.7650003 1.726386 1.6179631 0
3.7680004 1.7218908 1.6190453 0
3.7710001 1.7173848 1.6201276 0
3.7750003 1.7133895 1.6215707 0
3.7780004 1.7088602 1.6226529 0
3.7810001 1.7043198 1.6237352 0
3.7840002 1.6997689 1.6248174 0
3.7870002 1.6952071 1.6258997 0
3.7900002 1.6906344 1.626982 0
3.7930002 1.6860509 1.6280643 0
3.7960002 1.6814567 1.6291466 0
3.7990003 1.6768515 1.6302289 0
3.8020003 1.6722356 1.6313112 0
3.8050003 1.6676089 1.6323935 0
3.8080003 1.6629713 1.6334758 0
3.8110003 1.6583228 1.6345581 0
3.8140004 1.6536636 1.6356404 0
3.8170002 1.6489934 1.6367226 0
3.8210003 1.6448069 1.6381657 0
3.8240004 1.6401134 1.6392479 0
3.8270001 1.635409 1.6403302 0
3.8300002 1.6306938 1.6414124 0
3.8330002 1.6259679 1.6424948 0
3.8360002 1.6212311 1.643577 0
3.8390002 1.6164834 1.6446594 0
3.8430002 1.6122066 1.6461024 0
3.8460002 1.6074356 1.6471846 0
3.6830003 1.8490088 1.5824586 0
3.6860003 1.8448132 1.5835356 0
3.6890004 1.8406067 1.5846124 0
3.6920002 1.8363892 1.5856893 0
3.6950002 1.8321611 1.5867661 0
3.6970003 1.8273541 1.587484 0
3.7000003 1.8231062 1.5885608 0
3.7030003 1.8188474 1.5896379 0
3.7060003 1.8145777 1.5907147 0
3.7090003 1.8102974 1.5917915 0
3.7120004 1.8060061 1.5928684 0
3.7150002 1.8017037 1.5939453 0
3.7180002 1.7973909 1.5950222 0
3.7210002 1.7930673 1.596099 0
3.7240002 1.7887328 1.5971758 0
3.7270002 1.7843874 1.5982527 0
3.7300003 1.7800312 1.5993297 0
3.7330003 1.7756641 1.6004065 0
3.7360003 1.7712862 1.6014833 0
3.7390003 1.7668977 1.6025603 0
3.7410002 1.761957 1.6032782 0
3.7440002 1.7575485 1.604355 0
3.7470002 1.7531291 1.6054319 0
3.7500002 1.7486989 1.6065087 0
3.7530003 1.744258 1.6075857 0
3.7560003 1.7398063 1.6086626 0
3.7590003 1.7353437 1.6097394 0
3.7620003 1.7308701 1.6108162 0
3.7650003 1.726386 1.6118933 0
3.7680004 1.7218908 1.6129701 0
3.7710001 1.7173848 1.6140469 0
3.7750003 1.7133895 1.6154828 0
3.7780004 1.7088602 1.6165596 0
3.7810001 1.7043198 1.6176364 0
3.7840002 1.6997689 1.6187134 0
3.7870002 1.6952071 1.6197902 0
3.7900002 1.6906344 1.6208671 0
3.7930002 1.6860509 1.621944 0
3.7960002 1.6814567 1.6230209 0
3.7990003 1.6768515 1.6240978 0
3.8020003 1.6722356 1.6251746 0
3.8050003 1.6676089 1.6262515 0
3.8080003 1.6629713 1.6273283 0
3.8110003 1.6583228 1.6284053 0
3.8140004 1.6536636 1.6294822 0
3.8170002 1.6489934 1.630559 0
3.8210003 1.6448069 1.6319948 0
3.8240004 1.6401134 1.6330717 0
3.8270001 1.635409 1.6341485 0
3.8300002 1.6306938 1.6352254 0
3.8330002 1.6259679 1.6363022 0
3.8360002 1.6212311 1.6373792 0
3.8390002 1.6164834 1.638456 0
3.8430002 1.6122066 1.6398919 0
3.8460002 1.6074356 1.6409688 0
3.6830003 1.8490088 1.5765368 0
3.6860003 1.8448132 1.5776082 0
3.6890004 1.8406067 1.5786797 0
3.6920002 1.8363892 1.5797511 0
3.6950002 1.8321611 1.5808226 0
3.6970003 1.8273541 1.5815369 0
3.7000003 1.8231062 1.5826083 0
3.7030003 1.8188474 1.5836798 0
3.7060003 1.8145777 1.5847514 0
3.7090003 1.8102974 1.5858228 0
3.7120004 1.8060061 1.5868943 0
3.7150002 1.8017037 1.5879656 0
3.7180002 1.7973909 1.5890371 0
3.7210002 1.7930673 1.5901086 0
3.7240002 1.7887328 1.5911801 0
3.7270002 1.7843874 1.5922515 0
3.7300003 1.7800312 1.593323 0
3.7330003 1.7756641 1.5943944 0
3.7360003 1.7712862 1.5954659 0
3.7390003 1.7668977 1.5965375 0
3.7410002 1.761957 1.5972517 0
3.7440002 1.7575485 1.5983231 0
3.7470002 1.7531291 1.5993947 0
3.7500002 1.7486989 1.6004661 0
3.7530003 1.744258 1.6015376 0
3.7560003 1.7398063 1.602609 0
3.7590003 1.7353437 1.6036804 0
3.7620003 1.7308701 1.6047518 0
3.7650003 1.726386 1.6058233 0
3.7680004 1.7218908 1.6068949 0
3.7710001 1.7173848 1.6079662 0
3.7750003 1.7133895 1.6093949 0
3.7780004 1.7088602 1.6104664 0
3.7810001 1.7043198 1.6115377 0
3.7840002 1.6997689 1.6126091 0
3.7870002 1.6952071 1.6136807 0
3.7900002 1.6906344 1.6147522 0
3.7930002 1.6860509 1.6158236 0
3.7960002 1.6814567 1.6168951 0
3.7990003 1.6768515 1.6179665 0
3.8020003 1.6722356 1.619038 0
3.8050003 1.6676089 1.6201096 0
3.8080003 1.6629713 1.621181 0
3.8110003 1.6583228 1.6222525 0
3.8140004 1.6536636 1.6233239 0
3.8170002 1.6489934 1.6243954 0
3.8210003 1.6448069 1.625824 0
3.8240004 1.6401134 1.6268954 0
3.8270001 1.635409 1.6279669 0
3.8300002 1.6306938 1.6290383 0
3.8330002 1.6259679 1.6301098 0
3.8360002 1.6212311 1.6311812 0
3.8390002 1.6164834 1.6322527 0
3.8430002 1.6122066 1.6336813 0
3.8460002 1.6074356 1.6347529 0
3.6830003 1.8490088 1.5706148 0
3.6860003 1.8448132 1.5716809 0
3.6890004 1.8406067 1.572747 0
3.6920002 1.8363892 1.5738128 0
3.6950002 1.8321611 1.5748789 0
3.6970003 1.8273541 1.5755898 0
3.7000003 1.8231062 1.5766557 0
3.7030003 1.8188474 1.5777218 0
3.7060003 1.8145777 1.5787879 0
3.7090003 1.8102974 1.579854 0
3.7120004 1.8060061 1.58092 0
3.7150002 1.8017037 1.581986 0
3.7180002 1.7973909 1.583052 0
3.7210002 1.7930673 1.5841181 0
3.7240002 1.7887328 1.5851841 0
3.7270002 1.7843874 1.5862502 0
3.7300003 1.7800312 1.5873163 0
3.7330003 1.7756641 1.5883822 0
3.7360003 1.7712862 1.5894483 0
3.7390003 1.7668977 1.5905144 0
3.7410002 1.761957 1.591225 0
3.7440002 1.7575485 1.5922911 0
3.7470002 1.7531291 1.5933572 0
3.7500002 1.7486989 1.5944233 0
3.7530003 1.744258 1.5954893 0
3.7560003 1.7398063 1.5965554 0
3.7590003 1.7353437 1.5976214 0
3.7620003 1.7308701 1.5986875 0
3.7650003 1.726386 1.5997535 0
3.7680004 1.7218908 1.6008196 0
3.7710001 1.7173848 1.6018857 0
3.7750003 1.7133895 1.6033071 0
3.7780004 1.7088602 1.6043731 0
3.7810001 1.7043198 1.6054391 0
3.7840002 1.6997689 1.6065052 0
3.7870002 1.6952071 1.6075712 0
3.7900002 1.6906344 1.6086372 0
3.7930002 1.6860509 1.6097033 0
3.7960002 1.6814567 1.6107694 0
3.7990003 1.6768515 1.6118355 0
3.8020003 1.6722356 1.6129014 0
3.8050003 1.6676089 1.6139675 0
3.8080003 1.6629713 1.6150336 0
3.8110003 1.6583228 1.6160997 0
3.8140004 1.6536636 1.6171657 0
3.8170002 1.6489934 1.6182317 0
3.8210003 1.6448069 1.6196532 0
3.8240004 1.6401134 1.6207193 0
3.8270001 1.635409 1.6217853 0
3.8300002 1.6306938 1.6228513 0
3.8330002 1.6259679 1.6239173 0
3.8360002 1.6212311 1.6249834 0
3.8390002 1.6164834 1.6260494 0
3.8430002 1.6122066 1.6274709 0
3.8460002 1.6074356 1.6285368 0
3.6830003 1.8490088 1.5646929 0
3.6860003 1.8448132 1.5657536 0
3.6890004 1.8406067 1.5668142 0
3.6920002 1.8363892 1.5678748 0
3.6950002 1.8321611 1.5689354 0
3.6970003 1.8273541 1.5696425 0
3.7000003 1.8231062 1.5707033 0
3.7030003 1.8188474 1.5717639 0
3.7060003 1.8145777 1.5728246 0
3.7090003 1.8102974 1.5738851 0
3.7120004 1.8060061 1.5749458 0
3.7150002 1.8017037 1.5760063 0
3.7180002 1.7973909 1.577067 0
3.7210002 1.7930673 1.5781276 0
3.7240002 1.7887328 1.5791883 0
3.7270002 1.7843874 1.580249 0
3.7300003 1.7800312 1.5813097 0
3.7330003 1.7756641 1.5823703 0
3.7360003 1.7712862 1.5834309 0
3.7390003 1.7668977 1.5844915 0
3.7410002 1.761957 1.5851985 0
3.7440002 1.7575485 1.5862592 0
3.7470002 1.7531291 1.5873199 0
3.7500002 1.7486989 1.5883806 0
3.7530003 1.744258 1.5894412 0
3.7560003 1.7398063 1.5905019 0
3.7590003 1.7353437 1.5915624 0
3.7620003 1.7308701 1.5926231 0
3.7650003 1.726386 1.5936837 0
3.7680004 1.7218908 1.5947444 0
3.7710001 1.7173848 1.5958049 0
3.7750003 1.7133895 1.5972192 0
3.7780004 1.7088602 1.59828 0
3.7810001 1.7043198 1.5993404 0
3.7840002 1.6997689 1.6004012 0
3.7870002 1.6952071 1.6014616 0
3.7900002 1.6906344 1.6025224 0
3.7930002 1.6860509 1.603583 0
3.7960002 1.6814567 1.6046437 0
3.7990003 1.6768515 1.6057043 0
3.8020003 1.6722356 1.606765 0
3.8050003 1.6676089 1.6078256 0
3.8080003 1.6629713 1.6088862 0
3.8110003 1.6583228 1.6099468 0
3.8140004 1.6536636 1.6110076 0
3.8170002 1.6489934 1.6120681 0
3.8210003 1.6448069 1.6134824 0
3.8240004 1.6401134 1.6145431 0
3.8270001 1.635409 1.6156036 0
3.8300002 1.6306938 1.6166643 0
3.8330002 1.6259679 1.6177249 0
3.8360002 1.6212311 1.6187855 0
3.8390002 1.6164834 1.6198461 0
3.8430002 1.6122066 1.6212603 0
3.8460002 1.6074356 1.622321 0
3.6830003 1.8490088 1.558771 0
3.6860003 1.8448132 1.5598263 0
3.6890004 1.8406067 1.5608815 0
3.6920002 1.8363892 1.5619366 0
3.6950002 1.8321611 1.562992 0
3.6970003 1.8273541 1.5636954 0
3.7000003 1.8231062 1.5647507 0
3.7030003 1.8188474 1.5658059 0
3.7060003 1.8145777 1.5668612 0
3.7090003 1.8102974 1.5679164 0
3.7120004 1.8060061 1.5689715 0
3.7150002 1.8017037 1.5700268 0
3.7180002 1.7973909 1.571082 0
3.7210002 1.7930673 1.5721372 0
3.7240002 1.7887328 1.5731925 0
3.7270002 1.7843874 1.5742477 0
3.7300003 1.7800312 1.575303 0
3.7330003 1.7756641 1.5763582 0
3.7360003 1.7712862 1.5774133 0
3.7390003 1.7668977 1.5784687 0
3.7410002 1.761957 1.579172 0
3.7440002 1.7575485 1.5802273 0
3.7470002 1.7531291 1.5812826 0
3.7500002 1.7486989 1.5823377 0
3.7530003 1.744258 1.583393 0
3.7560003 1.7398063 1.5844482 0
3.7590003 1.7353437 1.5855035 0
3.7620003 1.7308701 1.5865587 0
3.7650003 1.726386 1.5876139 0
3.7680004 1.7218908 1.5886692 0
3.7710001 1.7173848 1.5897244 0
3.7750003 1.7133895 1.5911314 0
3.7780004 1.7088602 1.5921866 0
3.7810001 1.7043198 1.5932417 0
3.7840002 1.6997689 1.5942969 0
3.7870002 1.6952071 1.5953523 0
3.7900002 1.6906344 1.5964075 0
3.7930002 1.6860509 1.5974627 0
3.7960002 1.6814567 1.5985179 0
3.7990003 1.6768515 1.5995733 0
3.8020003 1.6722356 1.6006284 0
3.8050003 1.6676089 1.6016836 0
3.8080003 1.6629713 1.6027389 0
3.8110003 1.6583228 1.6037941 0
3.8140004 1.6536636 1.6048493 0
3.8170002 1.6489934 1.6059045 0
3.8210003 1.6448069 1.6073115 0
3.8240004 1.6401134 1.6083667 0
3.8270001 1.635409 1.609422 0
3.8300002 1.6306938 1.6104772 0
3.8330002 1.6259679 1.6115323 0
3.8360002 1.6212311 1.6125876 0
3.8390002 1.6164834 1.6136429 0
3.8430002 1.6122066 1.6150498 0
3.8460002 1.6074356 1.6161051 0
3.6830003 1.8490088 1.5528492 0
3.6860003 1.8448132 1.553899 0
3.6890004 1.8406067 1.5549488 0
3.6920002 1.8363892 1.5559986 0
3.6950002 1.8321611 1.5570484 0
3.6970003 1.8273541 1.5577483 0
3.7000003 1.8231062 1.5587981 0
3.7030003 1.8188474 1.559848 0
3.7060003 1.8145777 1.5608978 0
3.7090003 1.8102974 1.5619476 0
3.7120004 1.8060061 1.5629975 0
3.7150002 1.8017037 1.5640471 0
3.7180002 1.7973909 1.565097 0
3.7210002 1.7930673 1.5661469 0
3.7240002 1.7887328 1.5671966 0
3.7270002 1.7843874 1.5682465 0
3.7300003 1.7800312 1.5692962 0
3.7330003 1.7756641 1.5703461 0
3.7360003 1.7712862 1.5713959 0
3.7390003 1.7668977 1.5724458 0
3.7410002 1.761957 1.5731455 0
3.7440002 1.7575485 1.5741954 0
3.7470002 1.7531291 1.5752451 0
3.7500002 1.7486989 1.576295 0
3.7530003 1.744258 1.5773449 0
3.7560003 1.7398063 1.5783947 0
3.7590003 1.7353437 1.5794445 0
3.7620003 1.7308701 1.5804943 0
3.7650003 1.726386 1.5815442 0
3.7680004 1.7218908 1.5825939 0
3.7710001 1.7173848 1.5836437 0
3.7750003 1.7133895 1.5850435 0
3.7780004 1.7088602 1.5860933 0
3.7810001 1.7043198 1.5871431 0
3.7840002 1.6997689 1.5881929 0
3.7870002 1.6952071 1.5892427 0
3.7900002 1.6906344 1.5902926 0
3.7930002 1.6860509 1.5913423 0
3.7960002 1.6814567 1.5923922 0
3.7990003 1.6768515 1.593442 0
3.8020003 1.6722356 1.5944918 0
3.8050003 1.6676089 1.5955417 0
3.8080003 1.6629713 1.5965915 0
3.8110003 1.6583228 1.5976413 0
3.8140004 1.6536636 1.5986911 0
3.8170002 1.6489934 1.5997409 0
3.8210003 1.6448069 1.6011407 0
3.8240004 1.6401134 1.6021905 0
3.8270001 1.635409 1.6032403 0
3.8300002 1.6306938 1.60429 0
3.8330002 1.6259679 1.6053399 0
3.8360002 1.6212311 1.6063898 0
3.8390002 1.6164834 1.6074395 0
3.8430002 1.6122066 1.6088393 0
3.8460002 1.6074356 1.6098891 0
3.6830003 1.8490088 1.5469272 0
3.6860003 1.8448132 1.5479717 0
3.6890004 1.8406067 1.549016 0
3.6920002 1.8363892 1.5500604 0
3.6950002 1.8321611 1.5511048 0
3.6970003 1.8273541 1.5518011 0
3.7000003 1.8231062 1.5528455 0
3.7030003 1.8188474 1.55389 0
3.7060003 1.8145777 1.5549344 0
3.7090003 1.8102974 1.5559787 0
3.7120004 1.8060061 1.5570232 0
3.7150002 1.8017037 1.5580674 0
3.7180002 1.7973909 1.559112 0
3.7210002 1.7930673 1.5601563 0
3.7240002 1.7887328 1.5612007 0
3.7270002 1.7843874 1.5622451 0
3.7300003 1.7800312 1.5632895 0
3.7330003 1.7756641 1.564334 0
3.7360003 1.7712862 1.5653783 0
3.7390003 1.7668977 1.5664228 0
3.7410002 1.761957 1.567119 0
3.7440002 1.7575485 1.5681634 0
3.7470002 1.7531291 1.5692078 0
3.7500002 1.7486989 1.5702523 0
3.7530003 1.744258 1.5712967 0
3.7560003 1.7398063 1.5723411 0
3.7590003 1.7353437 1.5733855 0
3.7620003 1.7308701 1.5744299 0
3.7650003 1.726386 1.5754744 0
3.7680004 1.7218908 1.5765188 0
3.7710001 1.7173848 1.577563 0
3.7750003 1.7133895 1.5789557 0
3.7780004 1.7088602 1.58 0
3.7810001 1.7043198 1.5810444 0
3.7840002 1.6997689 1.5820888 0
3.7870002 1.6952071 1.5831332 0
3.7900002 1.6906344 1.5841776 0
3.7930002 1.6860509 1.585222 0
3.7960002 1.6814567 1.5862665 0
3.7990003 1.6768515 1.5873108 0
3.8020003 1.6722356 1.5883553 0
3.8050003 1.6676089 1.5893997 0
3.8080003 1.6629713 1.5904441 0
3.8110003 1.6583228 1.5914886 0
3.8140004 1.6536636 1.5925329 0
3.8170002 1.6489934 1.5935773 0
3.8210003 1.6448069 1.5949699 0
3.8240004 1.6401134 1.5960143 0
3.8270001 1.635409 1.5970587 0
3.8300002 1.6306938 1.5981029 0
3.8330002 1.6259679 1.5991474 0
3.8360002 1.6212311 1.6001918 0
3.8390002 1.6164834 1.6012363 0
3.8430002 1.6122066 1.6026288 0
3.8460002 1.6074356 1.6036732 0
3.6830003 1.8490088 1.5410054 0
3.6860003 1.8448132 1.5420443 0
3.6890004 1.8406067 1.5430833 0
3.6920002 1.8363892 1.5441223 0
3.6950002 1.8321611 1.5451612 0
3.6970003 1.8273541 1.545854 0
3.7000003 1.8231062 1.546893 0
3.7030003 1.8188474 1.5479319 0
3.7060003 1.8145777 1.5489711 0
3.7090003 1.8102974 1.55001 0
3.7120004 1.8060061 1.551049 0
3.7150002 1.8017037 1.5520878 0
3.7180002 1.7973909 1.5531269 0
3.7210002 1.7930673 1.5541658 0
3.7240002 1.7887328 1.5552049 0
3.7270002 1.7843874 1.5562439 0
3.7300003 1.7800312 1.5572829 0
3.7330003 1.7756641 1.5583218 0
3.7360003 1.7712862 1.5593609 0
3.7390003 1.7668977 1.5603998 0
3.7410002 1.761957 1.5610925 0
3.7440002 1.7575485 1.5621315 0
3.7470002 1.7531291 1.5631706 0
3.7500002 1.7486989 1.5642095 0
3.7530003 1.744258 1.5652485 0
3.7560003 1.7398063 1.5662875 0
3.7590003 1.7353437 1.5673265 0
3.7620003 1.7308701 1.5683655 0
3.7650003 1.726386 1.5694046 0
3.7680004 1.7218908 1.5704435 0
3.7710001 1.7173848 1.5714824 0
3.7750003 1.7133895 1.5728679 0
3.7780004 1.7088602 1.5739068 0
3.7810001 1.7043198 1.5749457 0
3.7840002 1.6997689 1.5759847 0
3.7870002 1.6952071 1.5770237 0
3.7900002 1.6906344 1.5780627 0
3.7930002 1.6860509 1.5791018 0
3.7960002 1.6814567 1.5801407 0
3.7990003 1.6768515 1.5811797 0
3.8020003 1.6722356 1.5822186 0
3.8050003 1.6676089 1.5832577 0
3.8080003 1.6629713 1.5842967 0
3.8110003 1.6583228 1.5853357 0
3.8140004 1.6536636 1.5863748 0
3.8170002 1.6489934 1.5874137 0
3.8210003 1.6448069 1.588799 0
3.8240004 1.6401134 1.5898381 0
3.8270001 1.635409 1.5908769 0
3.8300002 1.6306938 1.591916 0
3.8330002 1.6259679 1.5929549 0
3.8360002 1.6212311 1.593994 0
3.8390002 1.6164834 1.5950329 0
3.8430002 1.6122066 1.5964183 0
3.8460002 1.6074356 1.5974573 0
3.6830003 1.8490088 1.5350834 0
3.6860003 1.8448132 1.536117 0
3.6890004 1.8406067 1.5371506 0
3.6920002 1.8363892 1.5381842 0
3.6950002 1.8321611 1.5392177 0
3.6970003 1.8273541 1.5399069 0
3.7000003 1.8231062 1.5409404 0
3.7030003 1.8188474 1.5419739 0
3.7060003 1.8145777 1.5430076 0
3.7090003 1.8102974 1.5440412 0
3.7120004 1.8060061 1.5450747 0
3.7150002 1.8017037 1.5461082 0
3.7180002 1.7973909 1.5471419 0
3.7210002 1.7930673 1.5481755 0
3.7240002 1.7887328 1.549209 0
3.7270002 1.7843874 1.5502427 0
3.7300003 1.7800312 1.5512762 0
3.7330003 1.7756641 1.5523098 0
3.7360003 1.7712862 1.5533433 0
3.7390003 1.7668977 1.554377 0
3.7410002 1.761957 1.555066 0
3.7440002 1.7575485 1.5560997 0
3.7470002 1.7531291 1.5571332 0
3.7500002 1.7486989 1.5581667 0
3.7530003 1.744258 1.5592003 0
3.7560003 1.7398063 1.560234 0
3.7590003 1.7353437 1.5612675 0
3.7620003 1.7308701 1.562301 0
3.7650003 1.726386 1.5633347 0
3.7680004 1.7218908 1.5643682 0
3.7710001 1.7173848 1.5654018 0
3.7750003 1.7133895 1.56678 0
3.7780004 1.7088602 1.5678135 0
3.7810001 1.7043198 1.5688471 0
3.7840002 1.6997689 1.5698806 0
3.7870002 1.6952071 1.5709141 0
3.7900002 1.6906344 1.5719478 0
3.7930002 1.6860509 1.5729815 0
3.7960002 1.6814567 1.574015 0
3.7990003 1.6768515 1.5750486 0
3.8020003 1.6722356 1.5760822 0
3.8050003 1.6676089 1.5771158 0
3.8080003 1.6629713 1.5781493 0
3.8110003 1.6583228 1.579183 0
3.8140004 1.6536636 1.5802165 0
3.8170002 1.6489934 1.5812501 0
3.8210003 1.6448069 1.5826283 0
3.8240004 1.6401134 1.5836618 0
3.8270001 1.635409 1.5846953 0
3.8300002 1.6306938 1.5857289 0
3.8330002 1.6259679 1.5867624 0
3.8360002 1.6212311 1.5877961 0
3.8390002 1.6164834 1.5888296 0
3.8430002 1.6122066 1.5902078 0
3.8460002 1.6074356 1.5912414 0
3.6830003 1.8490088 1.5291615 0
3.6860003 1.8448132 1.5301896 0
3.6890004 1.8406067 1.5312178 0
3.6920002 1.8363892 1.5322459 0
3.6950002 1.8321611 1.5332741 0
3.6970003 1.8273541 1.5339596 0
3.7000003 1.8231062 1.5349878 0
3.7030003 1.8188474 1.536016 0
3.7060003 1.8145777 1.5370442 0
3.7090003 1.8102974 1.5380723 0
3.7120004 1.8060061 1.5391005 0
3.7150002 1.8017037 1.5401287 0
3.7180002 1.7973909 1.5411569 0
3.7210002 1.7930673 1.5421849 0
3.7240002 1.7887328 1.5432131 0
3.7270002 1.7843874 1.5442413 0
3.7300003 1.7800312 1.5452695 0
