# .PCD v0.7 - Point Cloud Data file format
VERSION 0.7
FIELDS x y z intensity
SIZE 4 4 4 4
TYPE F F F F
COUNT 1 1 1 1
WIDTH 1399
HEIGHT 1
VIEWPOINT 0 0 0 1 0 0 0
POINTS 1399
DATA ascii
2.5820003 -1.3015552 0.57324409 0
2.6980002 -0.77140146 0.57809639 0
2.6970003 -0.77522922 0.57802063 0
2.6960001 -0.77905321 0.57794487 0
2.6950002 -0.78287369 0.57786906 0
2.6940002 -0.78669059 0.57779336 0
2.6930003 -0.79050386 0.57771754 0
2.6920002 -0.79431343 0.57764179 0
2.6910002 -0.79811954 0.57756603 0
2.6900003 -0.80192196 0.57749033 0
2.6900003 -0.80605268 0.57749033 0
2.7260003 -0.93128389 0.58021766 0
2.7160003 -0.93165541 0.57946002 0
2.7100003 -0.93352777 0.57900548 0
2.7040002 -0.93537849 0.57855093 0
2.6990001 -0.93759531 0.57817209 0
2.6950002 -0.94018382 0.57786906 0
2.6920002 -0.94314927 0.57764179 0
2.6890001 -0.94610393 0.57741451 0
2.6860001 -0.94904768 0.57718724 0
2.6830001 -0.95198071 0.57695997 0
2.6810002 -0.95530158 0.57680845 0
2.6790001 -0.95861512 0.57665694 0
2.6780002 -0.96232373 0.57658118 0
2.6770003 -0.96602881 0.57650542 0
2.6750002 -0.96932435 0.57635391 0
2.6750002 -0.97342801 0.57635391 0
2.6740003 -0.97712225 0.57627815 0
2.6740003 -0.98122412 0.57627815 0
2.6740003 -0.98532593 0.57627815 0
2.6750002 -0.98984259 0.57635391 0
2.6760001 -0.99436295 0.57642967 0
2.6770003 -0.998887 0.57650542 0
2.6800003 -1.0042551 0.5767327 0
2.6830001 -1.0096339 0.57695997 0
2.6880002 -1.0158716 0.57733876 0
2.9110003 -1.2372224 0.59423327 0
2.9050002 -1.2388945 0.59377867 0
2.9000001 -1.2410229 0.59339988 0
2.8960001 -1.2436132 0.59309685 0
2.8920002 -1.246189 0.59279382 0
2.8890002 -1.2492338 0.59256649 0
2.8860002 -1.2522678 0.59233922 0
2.8830001 -1.2552911 0.59211195 0
2.8800001 -1.2583034 0.59188467 0
2.8770003 -1.2613051 0.5916574 0
2.8750002 -1.2647882 0.59150589 0
2.8720002 -1.2677698 0.59127861 0
2.8700001 -1.2712367 0.59112704 0
2.8680003 -1.2746965 0.59097558 0
2.8660002 -1.2781489 0.59082401 0
2.8640003 -1.2815943 0.59067249 0
2.8620002 -1.2850323 0.59052098 0
2.8600001 -1.288463 0.59036946 0
2.8580003 -1.2918868 0.59021795 0
2.8570001 -1.2958118 0.59014219 0
2.8550003 -1.2992229 0.58999068 0
2.6630001 -1.2093751 0.57544476 0
2.6570003 -1.210362 0.57499021 0
2.6530001 -1.2123623 0.57468718 0
2.6480002 -1.2138288 0.5743084 0
2.6450002 -1.2163198 0.57408106 0
2.6420002 -1.2188001 0.57385379 0
2.6390002 -1.2212694 0.57362652 0
2.6360002 -1.2237279 0.57339925 0
2.6330001 -1.2261757 0.57317197 0
2.6310003 -1.2291431 0.57302046 0
2.6280003 -1.2315711 0.57279319 0
2.6260002 -1.234522 0.57264167 0
2.6240003 -1.237466 0.57249016 0
2.6200001 -1.2393273 0.57218707 0
2.6160002 -1.2411745 0.57188404 0
2.6120002 -1.2430072 0.57158101 0
2.6090002 -1.2453684 0.57135373 0
2.6060002 -1.2477187 0.57112646 0
2.6030002 -1.2500583 0.57089919 0
2.6010003 -1.2529354 0.57074767 0
2.5980003 -1.2552551 0.5705204 0
2.5960002 -1.2581158 0.57036889 0
2.5940001 -1.2609694 0.57021731 0
2.5920002 -1.2638159 0.5700658 0
2.5900002 -1.2666551 0.56991428 0
2.5890002 -1.2700462 0.56983852 0
2.5880003 -1.2734339 0.56976277 0
2.5860002 -1.276255 0.56961125 0
2.5850003 -1.2796335 0.56953549 0
2.5840001 -1.2830083 0.56945974 0
2.5840001 -1.2869478 0.56945974 0
2.5830002 -1.2903174 0.56938398 0
2.5830002 -1.2942551 0.56938398 0
2.5830002 -1.2981929 0.56938398 0
2.5830002 -1.3021306 0.56938398 0
2.6980002 -0.77140146 0.57395124 0
2.6970003 -0.77522922 0.57387727 0
2.6960001 -0.77905321 0.57380331 0
2.6950002 -0.78287369 0.57372934 0
2.6940002 -0.78669059 0.57365537 0
2.6930003 -0.79050386 0.57358146 0
2.6920002 -0.79431343 0.57350749 0
2.6910002 -0.79811954 0.57343352 0
2.6900003 -0.80192196 0.57335961 0
2.6900003 -0.80605268 0.57335961 0
2.7260003 -0.93128389 0.57602203 0
2.7160003 -0.93165541 0.57528245 0
2.7100003 -0.93352777 0.5748387 0
2.7040002 -0.93537849 0.57439494 0
2.6990001 -0.93759531 0.57402515 0
2.6950002 -0.94018382 0.57372934 0
2.6920002 -0.94314927 0.57350749 0
2.6890001 -0.94610393 0.57328558 0
2.6860001 -0.94904768 0.57306373 0
2.6830001 -0.95198071 0.57284188 0
2.6810002 -0.95530158 0.57269394 0
2.6790001 -0.95861512 0.57254606 0
2.6780002 -0.96232373 0.5724721 0
2.6770003 -0.96602881 0.57239819 0
2.6750002 -0.96932435 0.57225025 0
2.6750002 -0.97342801 0.57225025 0
2.6740003 -0.97712225 0.57217628 0
2.6740003 -0.98122412 0.57217628 0
2.6740003 -0.98532593 0.57217628 0
2.6750002 -0.98984259 0.57225025 0
2.6760001 -0.99436295 0.57232416 0
2.6770003 -0.998887 0.57239819 0
2.6800003 -1.0042551 0.57262003 0
2.6830001 -1.0096339 0.57284188 0
2.6880002 -1.0158716 0.57321167 0
2.9090002 -1.245325 0.58955598 0
2.9030001 -1.246972 0.58911222 0
2.8980002 -1.2490789 0.58874243 0
2.8940003 -1.251651 0.58844662 0
2.8900001 -1.2542087 0.5881508 0
2.8870003 -1.2572392 0.58792895 0
2.8830001 -1.2597699 0.58763313 0
2.8810003 -1.2632675 0.58748519 0
2.8780003 -1.2662654 0.58726335 0
2.8750002 -1.2692525 0.58704144 0
2.8730001 -1.2727249 0.58689356 0
2.8700001 -1.2756921 0.58667171 0
2.8680003 -1.2791482 0.58652377 0
2.8660002 -1.2825972 0.58637583 0
2.8640003 -1.2860389 0.58622795 0
2.8620002 -1.2894733 0.58608001 0
2.8600001 -1.2929004 0.58593214 0
2.8580003 -1.2963206 0.5857842 0
2.8560002 -1.2997333 0.58563626 0
2.8530002 -1.3026266 0.58541441 0
2.8500001 -1.3055091 0.58519256 0
2.6610003 -1.2165039 0.57121485 0
2.6550002 -1.2174653 0.5707711 0
2.6510003 -1.2194476 0.57047528 0
2.6460001 -1.2208924 0.57010549 0
2.6430001 -1.223369 0.56988358 0
2.6400001 -1.2258348 0.56966174 0
2.6370001 -1.2282897 0.56943989 0
2.6340003 -1.2307341 0.56921804 0
2.6310003 -1.2331674 0.56899619 0
2.6290002 -1.2361239 0.56884825 0
2.6240003 -1.237466 0.56847847 0
2.6200001 -1.2393273 0.56818265 0
2.6160002 -1.2411745 0.56788683 0
2.6130002 -1.2435483 0.56766492 0
2.6100001 -1.2459112 0.56744307 0
2.6070001 -1.2482634 0.56722116 0
2.6040001 -1.2506047 0.56699932 0
2.6010003 -1.2529354 0.56677747 0
2.5990002 -1.2558051 0.56662953 0
2.5970001 -1.2586677 0.56648165 0
2.5950003 -1.2615232 0.56633377 0
2.5930002 -1.2643714 0.56618583 0
2.5910003 -1.2672125 0.56603789 0
2.5900002 -1.2706054 0.56596398 0
2.5880003 -1.2734339 0.56581604 0
2.5870001 -1.2768177 0.56574208 0
2.5860002 -1.2801981 0.56566811 0
2.5850003 -1.2835748 0.5655942 0
2.5850003 -1.2875162 0.5655942 0
2.5840001 -1.2908874 0.56552023 0
2.5840001 -1.2948269 0.56552023 0
2.5840001 -1.2987665 0.56552023 0
2.5840001 -1.3027059 0.56552023 0
2.6980002 -0.77140146 0.5698061 0
2.6970003 -0.77522922 0.56973392 0
2.6960001 -0.77905321 0.56966174 0
2.6950002 -0.78287369 0.56958961 0
2.6940002 -0.78669059 0.56951749 0
2.6930003 -0.79050386 0.56944531 0
2.6920002 -0.79431343 0.56937313 0
2.6910002 -0.79811954 0.56930101 0
2.6900003 -0.80192196 0.56922889 0
2.6900003 -0.80605268 0.56922889 0
2.7260003 -0.93128389 0.57182634 0
2.7160003 -0.93165541 0.57110482 0
2.7100003 -0.93352777 0.57067192 0
2.7040002 -0.93537849 0.57023895 0
2.6990001 -0.93759531 0.56987822 0
2.6950002 -0.94018382 0.56958961 0
2.6920002 -0.94314927 0.56937313 0
2.6890001 -0.94610393 0.56915665 0
2.6860001 -0.94904768 0.56894022 0
2.6830001 -0.95198071 0.5687238 0
2.6810002 -0.95530158 0.56857949 0
2.6790001 -0.95861512 0.56843519 0
2.6780002 -0.96232373 0.56836301 0
2.6770003 -0.96602881 0.56829089 0
2.6750002 -0.96932435 0.56814659 0
2.6750002 -0.97342801 0.56814659 0
2.6740003 -0.97712225 0.56807441 0
2.6740003 -0.98122412 0.56807441 0
2.6740003 -0.98532593 0.56807441 0
2.6750002 -0.98984259 0.56814659 0
2.6760001 -0.99436295 0.56821871 0
2.6770003 -0.998887 0.56829089 0
2.6800003 -1.0042551 0.56850731 0
2.6830001 -1.0096339 0.5687238 0
2.6880002 -1.0158716 0.56908453 0
2.9070003 -1.2534134 0.5848859 0
2.9010003 -1.255035 0.58445299 0
2.8960001 -1.2571201 0.58409226 0
2.8920002 -1.2596743 0.58380365 0
2.8880002 -1.2622141 0.58351499 0
2.8850002 -1.2652301 0.58329856 0
2.8810003 -1.2677428 0.58300996 0
2.8790002 -1.2712295 0.58286566 0
2.8760002 -1.274213 0.58264917 0
2.8730001 -1.2771857 0.58243275 0
2.8710003 -1.2806473 0.58228844 0
2.8680003 -1.2836001 0.58207196 0
2.8660002 -1.2870454 0.58192766 0
2.8640003 -1.2904834 0.58178335 0
2.8620002 -1.2939142 0.58163905 0
2.8600001 -1.2973379 0.58149475 0
2.8570001 -1.3002437 0.58127826 0
2.8530002 -1.3026266 0.58098966 0
2.8500001 -1.3055091 0.58077323 0
2.8460002 -1.3078649 0.58048463 0
2.8430002 -1.3107239 0.58026814 0
2.6590002 -1.223618 0.5669921 0
2.6530001 -1.2245542 0.5665592 0
2.6490002 -1.2265185 0.56627059 0
2.6450002 -1.2284684 0.56598198 0
2.6410003 -1.2304039 0.56569338 0
2.6380002 -1.2328553 0.56547689 0
2.6350002 -1.2352959 0.56526047 0
2.6300001 -1.2366577 0.56489968 0
2.6260002 -1.2385373 0.56461108 0
2.6210003 -1.2398649 0.56425035 0
2.6180003 -1.2422532 0.56403387 0
2.6140001 -1.2440894 0.56374526 0
2.6110003 -1.2464542 0.56352884 0
2.6080003 -1.2488083 0.56331235 0
2.6050003 -1.2511513 0.56309593 0
2.6020002 -1.2534837 0.56287944 0
2.6000001 -1.2563553 0.56273514 0
2.5980003 -1.2592199 0.56259084 0
2.5960002 -1.2620771 0.56244653 0
2.5940001 -1.264927 0.56230223 0
2.5920002 -1.2677699 0.56215793 0
2.5910003 -1.2711647 0.56208575 0
2.5890002 -1.2739948 0.56194144 0
2.5880003 -1.2773806 0.56186932 0
2.5870001 -1.2807626 0.56179714 0
2.5860002 -1.2841412 0.56172502 0
2.5850003 -1.2875162 0.5616529 0
2.5850003 -1.2914575 0.5616529 0
2.5850003 -1.2953988 0.5616529 0
2.5850003 -1.2993401 0.5616529 0
2.5850003 -1.3032814 0.5616529 0
2.6980002 -0.77140146 0.56566089 0
2.6970003 -0.77522922 0.56559056 0
2.6960001 -0.77905321 0.56552023 0
2.6950002 -0.78287369 0.56544983 0
2.6940002 -0.78669059 0.5653795 0
2.6930003 -0.79050386 0.56530917 0
2.6920002 -0.79431343 0.56523883 0
2.6910002 -0.79811954 0.5651685 0
2.6900003 -0.80192196 0.56509811 0
2.6900003 -0.80605268 0.56509811 0
2.7260003 -0.93128389 0.56763065 0
2.7160003 -0.93165541 0.56692719 0
2.7100003 -0.93352777 0.56650507 0
2.7040002 -0.93537849 0.56608301 0
2.6990001 -0.93759531 0.56573129 0
2.6950002 -0.94018382 0.56544983 0
2.6920002 -0.94314927 0.56523883 0
2.6890001 -0.94610393 0.56502777 0
2.6860001 -0.94904768 0.56481671 0
2.6830001 -0.95198071 0.56460571 0
2.6810002 -0.95530158 0.56446499 0
2.6790001 -0.95861512 0.56432426 0
2.6780002 -0.96232373 0.56425393 0
2.6770003 -0.96602881 0.56418359 0
2.6750002 -0.96932435 0.56404293 0
2.6750002 -0.97342801 0.56404293 0
2.6740003 -0.97712225 0.56397253 0
2.6740003 -0.98122412 0.56397253 0
2.6740003 -0.98532593 0.56397253 0
2.6750002 -0.98984259 0.56404293 0
2.6760001 -0.99436295 0.56411326 0
2.6770003 -0.998887 0.56418359 0
2.6800003 -1.0042551 0.56439465 0
2.6830001 -1.0096339 0.56460571 0
2.6880002 -1.0158716 0.56495744 0
2.9040003 -1.2610019 0.58015275 0
2.8990002 -1.2630836 0.57980096 0
2.8940003 -1.2651471 0.57944924 0
2.8900001 -1.2676833 0.57916784 0
2.8860002 -1.270205 0.57888645 0
2.8830001 -1.2732065 0.57867539 0
2.8790002 -1.2757012 0.578394 0
2.8770003 -1.2791771 0.57825333 0
2.8740003 -1.2821462 0.57804227 0
2.8710003 -1.2851045 0.57783121 0
2.8690002 -1.288555 0.57769048 0
2.8660002 -1.2914935 0.57747948 0
2.8640003 -1.294928 0.57733876 0
2.8610003 -1.2978466 0.57712775 0
2.8570001 -1.3002437 0.5768463 0
2.8530002 -1.3026266 0.57656491 0
2.8500001 -1.3055091 0.57635391 0
2.8470001 -1.3083807 0.57614285 0
2.8440001 -1.3112415 0.57593179 0
2.8410003 -1.3140917 0.57572079 0
2.8380003 -1.3169308 0.57550973 0
2.6570003 -1.2307178 0.56277663 0
2.6510003 -1.2316288 0.56235456 0
2.6470003 -1.2335751 0.56207317 0
2.6430001 -1.2355069 0.56179178 0
2.6370001 -1.2363601 0.56136966 0
2.6320002 -1.2377256 0.56101793 0
2.6270001 -1.239073 0.56066614 0
2.6230001 -1.24094 0.56038475 0
2.6190002 -1.2427925 0.56010336 0
2.6150002 -1.2446306 0.55982196 0
2.6120002 -1.2469971 0.55961096 0
2.6090002 -1.2493529 0.5593999 0
2.6060002 -1.2516979 0.55918884 0
2.6040001 -1.2545803 0.55904818 0
2.6010003 -1.2569056 0.55883712 0
2.5990002 -1.2597717 0.55869639 0
2.5970001 -1.2626307 0.55855572 0
2.5950003 -1.2654827 0.558415 0
2.5930002 -1.2683272 0.55827433 0
2.5920002 -1.2717237 0.558204 0
2.5900002 -1.2745558 0.55806327 0
2.5890002 -1.2779433 0.55799294 0
2.5880003 -1.2813272 0.5579226 0
2.5870001 -1.2847075 0.55785221 0
2.5870001 -1.2886525 0.55785221 0
2.5860002 -1.2920275 0.55778188 0
2.5860002 -1.2959706 0.55778188 0
2.5860002 -1.2999136 0.55778188 0
2.5870001 -1.3044322 0.55785221 0
2.6980002 -0.77140146 0.56151575 0
2.6970003 -0.77522922 0.5614472 0
2.6960001 -0.77905321 0.56137866 0
2.6950002 -0.78287369 0.56131011 0
2.6940002 -0.78669059 0.56124157 0
2.6930003 -0.79050386 0.56117308 0
2.6920002 -0.79431343 0.56110448 0
2.6910002 -0.79811954 0.56103599 0
2.6900003 -0.80192196 0.56096739 0
2.6900003 -0.80605268 0.56096739 0
2.7260003 -0.93128389 0.56343502 0
2.7160003 -0.93165541 0.56274956 0
2.7100003 -0.93352777 0.56233829 0
2.7040002 -0.93537849 0.56192702 0
2.6990001 -0.93759531 0.56158429 0
2.6950002 -0.94018382 0.56131011 0
2.6920002 -0.94314927 0.56110448 0
2.6890001 -0.94610393 0.56089884 0
2.6860001 -0.94904768 0.56069326 0
2.6830001 -0.95198071 0.56048757 0
2.6810002 -0.95530158 0.56035054 0
2.6790001 -0.95861512 0.56021345 0
2.6780002 -0.96232373 0.5601449 0
2.6770003 -0.96602881 0.56007636 0
2.6750002 -0.96932435 0.55993927 0
2.6750002 -0.97342801 0.55993927 0
2.6740003 -0.97712225 0.55987072 0
2.6740003 -0.98122412 0.55987072 0
2.6740003 -0.98532593 0.55987072 0
2.6750002 -0.98984259 0.55993927 0
2.6760001 -0.99436295 0.56000775 0
2.6770003 -0.998887 0.56007636 0
2.6800003 -1.0042551 0.56028199 0
2.6830001 -1.0096339 0.56048757 0
2.6880002 -1.0158716 0.5608303 0
2.9020002 -1.2690578 0.57549888 0
2.8970003 -1.2711178 0.57515615 0
2.8920002 -1.2731596 0.57481343 0
2.8880002 -1.2756777 0.57453924 0
2.8840003 -1.2781814 0.57426506 0
2.8810003 -1.2811686 0.57405949 0
2.8770003 -1.2836453 0.57378531 0
2.8750002 -1.2871103 0.57364815 0
2.8720002 -1.2900649 0.57344258 0
2.8690002 -1.2930087 0.57323694 0
2.8670001 -1.2964485 0.57309985 0
2.8620002 -1.2983552 0.57275712 0
2.8580003 -1.3007543 0.57248294 0
2.8540003 -1.303139 0.57220876 0
2.8500001 -1.3055091 0.57193458 0
2.8470001 -1.3083807 0.57172894 0
2.8440001 -1.3112415 0.57152331 0
2.8410003 -1.3140917 0.57131767 0
2.8390002 -1.3174521 0.57118058 0
2.8360002 -1.3202822 0.57097495 0
2.8340001 -1.3236265 0.57083786 0
2.6540003 -1.2372746 0.55849981 0
2.6460001 -1.2370979 0.55795145 0
2.6390002 -1.2374243 0.55747163 0
2.6340003 -1.2387935 0.55712891 0
2.6290002 -1.2401445 0.55678618 0
2.6240003 -1.2414776 0.55644345 0
2.6200001 -1.2433318 0.55616927 0
2.6170001 -1.2457128 0.55596364 0
2.6140001 -1.248083 0.555758 0
2.6100001 -1.2498976 0.55548382 0
2.6080003 -1.252791 0.55534673 0
2.6050003 -1.2551289 0.55514109 0
2.6030002 -1.2580059 0.555004 0
2.6000001 -1.2603236 0.55479836 0
2.5980003 -1.2631847 0.55466127 0
2.5960002 -1.2660382 0.55452418 0
2.5950003 -1.269442 0.55445564 0
2.5930002 -1.272283 0.55431855 0
2.5920002 -1.2756777 0.55425 0
2.5910003 -1.2790689 0.55418146 0
2.5900002 -1.2824564 0.55411291 0
2.5890002 -1.2858404 0.55404437 0
2.5880003 -1.2892208 0.55397582 0
2.5880003 -1.2931676 0.55397582 0
2.5880003 -1.2971143 0.55397582 0
2.5880003 -1.3010609 0.55397582 0
2.5880003 -1.3050077 0.55397582 0
2.6980002 -0.77140146 0.5573706 0
2.6970003 -0.77522922 0.55730391 0
2.6960001 -0.77905321 0.55723715 0
2.6950002 -0.78287369 0.55717039 0
2.6940002 -0.78669059 0.55710363 0
2.6930003 -0.79050386 0.55703694 0
2.6920002 -0.79431343 0.55697018 0
2.6910002 -0.79811954 0.55690342 0
2.6900003 -0.80192196 0.55683672 0
2.6900003 -0.80605268 0.55683672 0
2.7260003 -0.93128389 0.55923939 0
2.7160003 -0.93165541 0.55857193 0
2.7100003 -0.93352777 0.55817151 0
2.7040002 -0.93537849 0.55777109 0
2.6990001 -0.93759531 0.55743736 0
2.6950002 -0.94018382 0.55717039 0
2.6920002 -0.94314927 0.55697018 0
2.6890001 -0.94610393 0.55676997 0
2.6860001 -0.94904768 0.5565697 0
2.6830001 -0.95198071 0.55636948 0
2.6810002 -0.95530158 0.55623603 0
2.6790001 -0.95861512 0.55610251 0
2.6780002 -0.96232373 0.55603576 0
2.6770003 -0.96602881 0.55596906 0
2.6750002 -0.96932435 0.5558356 0
2.6750002 -0.97342801 0.5558356 0
2.6740003 -0.97712225 0.55576885 0
2.6740003 -0.98122412 0.55576885 0
2.6740003 -0.98532593 0.55576885 0
2.6750002 -0.98984259 0.5558356 0
2.6760001 -0.99436295 0.5559023 0
2.6770003 -0.998887 0.55596906 0
2.6800003 -1.0042551 0.55616927 0
2.6830001 -1.0096339 0.55636948 0
2.6880002 -1.0158716 0.55670321 0
2.9000001 -1.277099 0.57085228 0
2.8950002 -1.2791374 0.57051855 0
2.8900001 -1.2811576 0.57018483 0
2.8860002 -1.2836577 0.56991792 0
2.8820002 -1.2861434 0.56965095 0
2.8780003 -1.2886146 0.56938398 0
2.8750002 -1.2915747 0.56918377 0
2.8730001 -1.2950289 0.56905025 0
2.8680003 -1.2969555 0.56871659 0
2.8630002 -1.2988639 0.56838286 0
2.8590002 -1.3012648 0.56811589 0
2.8550003 -1.3036512 0.56784892 0
2.8510003 -1.3060232 0.56758201 0
2.8480003 -1.3088967 0.56738174 0
2.8450003 -1.3117592 0.56718153 0
2.8420002 -1.3146111 0.56698132 0
2.8400002 -1.3179734 0.5668478 0
2.8370001 -1.3208053 0.56664759 0
2.8350003 -1.3241515 0.56651413 0
2.8330002 -1.3274903 0.56638062 0
2.6580002 -1.2393887 0.55470097 0
2.6480002 -1.2381586 0.55403358 0
2.6410003 -1.2384886 0.5535664 0
2.6360002 -1.2398612 0.55323267 0
2.6310003 -1.2412161 0.552899 0
2.6270001 -1.24309 0.55263197 0
2.6220002 -1.2444105 0.55229831 0
2.6190002 -1.2467951 0.5520981 0
2.6150002 -1.248626 0.55183113 0
2.6120002 -1.2509872 0.55163085 0
2.6090002 -1.2533375 0.5514307 0
2.6070001 -1.2562253 0.55129719 0
2.6040001 -1.2585559 0.55109698 0
2.6020002 -1.2614278 0.55096352 0
2.6000001 -1.2642921 0.55083001 0
2.5980003 -1.2671493 0.55069649 0
2.5960002 -1.2699993 0.55056304 0
2.5950003 -1.2734014 0.55049628 0
2.5940001 -1.2767996 0.55042958 0
2.5920002 -1.2796317 0.55029607 0
2.5910003 -1.2830211 0.55022931 0
2.5910003 -1.2869732 0.55022931 0
2.5900002 -1.2903571 0.55016255 0
2.5900002 -1.2943075 0.55016255 0
2.5900002 -1.2982578 0.55016255 0
2.5900002 -1.3022082 0.55016255 0
2.5910003 -1.306734 0.55022931 0
2.6980002 -0.77140146 0.55322546 0
2.6970003 -0.77522922 0.55316055 0
2.6960001 -0.77905321 0.55309558 0
2.6950002 -0.78287369 0.55303067 0
2.6940002 -0.78669059 0.5529657 0
2.6930003 -0.79050386 0.55290079 0
2.6920002 -0.79431343 0.55283582 0
2.6910002 -0.79811954 0.55277091 0
2.6900003 -0.80192196 0.552706 0
2.6900003 -0.80605268 0.552706 0
2.7260003 -0.93128389 0.5550437 0
2.7160003 -0.93165541 0.55439436 0
2.7100003 -0.93352777 0.55400467 0
2.7040002 -0.93537849 0.55361509 0
2.6990001 -0.93759531 0.55329037 0
2.6950002 -0.94018382 0.55303067 0
2.6920002 -0.94314927 0.55283582 0
2.6890001 -0.94610393 0.55264103 0
2.6860001 -0.94904768 0.55244619 0
2.6830001 -0.95198071 0.5522514 0
2.6810002 -0.95530158 0.55212152 0
2.6790001 -0.95861512 0.55199164 0
2.6780002 -0.96232373 0.55192673 0
2.6770003 -0.96602881 0.55186176 0
2.6750002 -0.96932435 0.55173188 0
2.6750002 -0.97342801 0.55173188 0
2.6740003 -0.97712225 0.55166698 0
2.6740003 -0.98122412 0.55166698 0
2.6740003 -0.98532593 0.55166698 0
2.6750002 -0.98984259 0.55173188 0
2.6760001 -0.99436295 0.55179685 0
2.6770003 -0.998887 0.55186176 0
2.6800003 -1.0042551 0.55205661 0
2.6830001 -1.0096339 0.5522514 0
2.6880002 -1.0158716 0.55257607 0
2.8970003 -1.2846301 0.56614792 0
2.8920002 -1.2866449 0.56582326 0
2.8870003 -1.2886417 0.56549859 0
2.8840003 -1.2916235 0.5653038 0
2.8800001 -1.2940909 0.56504399 0
2.8740003 -1.295534 0.56465441 0
2.8690002 -1.2974622 0.56432968 0
2.8640003 -1.2993727 0.56400502 0
2.8600001 -1.3017751 0.56374526 0
2.8560002 -1.3041635 0.5634855 0
2.8520002 -1.3065374 0.56322575 0
2.8490002 -1.3094126 0.56303096 0
2.8460002 -1.312277 0.56283617 0
2.8430002 -1.3151306 0.56264132 0
2.8410003 -1.3184947 0.56251144 0
2.8380003 -1.3213286 0.56231666 0
2.8360002 -1.3246764 0.56218678 0
2.8340001 -1.328017 0.5620569 0
2.6530001 -1.24081 0.55030328 0
2.6450002 -1.240617 0.54978383 0
2.6390002 -1.2414631 0.54939419 0
2.6340003 -1.2428232 0.54906952 0
2.6290002 -1.2441652 0.5487448 0
2.6250002 -1.2460285 0.54848504 0
2.6210003 -1.2478775 0.54822528 0
2.6180003 -1.2502549 0.5480305 0
2.6140001 -1.2520766 0.54777074 0
2.6110003 -1.2544307 0.54757595 0
2.6090002 -1.2573221 0.54744607 0
2.6060002 -1.2596563 0.54725122 0
2.6040001 -1.2625315 0.54712141 0
2.6020002 -1.2653996 0.54699147 0
2.6000001 -1.2682605 0.54686165 0
2.5980003 -1.2711141 0.54673177 0
2.5970001 -1.2745197 0.5466668 0
2.5960002 -1.2779217 0.54660189 0
2.5940001 -1.2807572 0.54647201 0
2.5940001 -1.2847147 0.54647201 0
2.5930002 -1.288106 0.5464071 0
2.5920002 -1.2914935 0.54634213 0
2.5920002 -1.2954475 0.54634213 0
2.5920002 -1.2994015 0.54634213 0
2.5920002 -1.3033553 0.54634213 0
2.5930002 -1.3078847 0.5464071 0
2.6980002 -0.77140146 0.54908031 0
2.6970003 -0.77522922 0.54901719 0
2.6960001 -0.77905321 0.54895401 0
2.6950002 -0.78287369 0.54889095 0
2.6940002 -0.78669059 0.54882777 0
2.6930003 -0.79050386 0.54876465 0
2.6920002 -0.79431343 0.54870152 0
2.6910002 -0.79811954 0.54863834 0
2.6900003 -0.80192196 0.54857528 0
2.6900003 -0.80605268 0.54857528 0
2.7260003 -0.93128389 0.55084801 0
2.7160003 -0.93165541 0.55021667 0
2.7100003 -0.93352777 0.54983795 0
2.7040002 -0.93537849 0.5494591 0
2.7000003 -0.93798321 0.54920661 0
2.6960001 -0.94057339 0.54895401 0
2.6920002 -0.94314927 0.54870152 0
2.6890001 -0.94610393 0.5485121 0
2.6860001 -0.94904768 0.54832268 0
2.6830001 -0.95198071 0.54813331 0
2.6810002 -0.95530158 0.54800707 0
2.6790001 -0.95861512 0.54788077 0
2.6780002 -0.96232373 0.54781765 0
2.6770003 -0.96602881 0.54775453 0
2.6750002 -0.96932435 0.54762822 0
2.6750002 -0.97342801 0.54762822 0
2.6740003 -0.97712225 0.5475651 0
2.6740003 -0.98122412 0.5475651 0
2.6740003 -0.98532593 0.5475651 0
2.6750002 -0.98984259 0.54762822 0
2.6760001 -0.99436295 0.54769135 0
2.6770003 -0.998887 0.54775453 0
2.6800003 -1.0042551 0.54794395 0
2.6830001 -1.0096339 0.54813331 0
2.6880002 -1.0158716 0.54844898 0
2.8950002 -1.292639 0.5615176 0
2.8900001 -1.2946321 0.56120193 0
2.8830001 -1.2956008 0.56075996 0
2.8770003 -1.2970493 0.56038117 0
2.8710003 -1.2984761 0.56000239 0
2.8660002 -1.3003899 0.55968672 0
2.8610003 -1.3022858 0.55937105 0
2.8570001 -1.3046757 0.55911851 0
2.8540003 -1.3075656 0.55892909 0
2.8500001 -1.3099284 0.55867654 0
2.8470001 -1.3127947 0.55848718 0
2.8450003 -1.3161696 0.55836093 0
2.8420002 -1.319016 0.55817151 0
2.8400002 -1.3223747 0.55804527 0
2.8380003 -1.3257263 0.55791897 0
2.8360002 -1.3290704 0.55779266 0
2.6590002 -1.243992 0.5466181 0
2.6500001 -1.2432777 0.54604989 0
2.6430001 -1.2435987 0.54560798 0
2.6370001 -1.2444303 0.5452292 0
2.6320002 -1.2457778 0.54491353 0
2.6270001 -1.2471071 0.54459786 0
2.6240003 -1.249501 0.54440844 0
2.6200001 -1.2513407 0.5441559 0
2.6170001 -1.2537109 0.54396653 0
2.6140001 -1.2560703 0.54377711 0
2.6110003 -1.2584189 0.54358774 0
2.6090002 -1.2613069 0.54346144 0
2.6060002 -1.2636355 0.54327202 0
2.6040001 -1.266507 0.54314578 0
2.6020002 -1.2693716 0.54301953 0
2.6010003 -1.2727863 0.54295635 0
2.5990002 -1.2756381 0.54283011 0
2.5980003 -1.2790437 0.54276699 0
2.5970001 -1.2824455 0.54270387 0
2.5960002 -1.285844 0.54264069 0
2.5950003 -1.2892388 0.54257756 0
2.5950003 -1.2931981 0.54257756 0
2.5950003 -1.2971575 0.54257756 0
2.5950003 -1.3011169 0.54257756 0
2.5950003 -1.3050762 0.54257756 0
2.5960002 -1.309611 0.54264069 0
2.6980002 -0.77140146 0.54493517 0
2.6970003 -0.77522922 0.54487383 0
2.6960001 -0.77905321 0.5448125 0
2.6950002 -0.78287369 0.54475117 0
2.6940002 -0.78669059 0.54468983 0
2.6930003 -0.79050386 0.5446285 0
2.6920002 -0.79431343 0.54456717 0
2.6910002 -0.79811954 0.54450583 0
2.6900003 -0.80192196 0.54444456 0
2.6900003 -0.80605268 0.54444456 0
2.7260003 -0.93128389 0.54665238 0
2.7170002 -0.93203783 0.54610044 0
2.7100003 -0.93352777 0.54567111 0
2.7040002 -0.93537849 0.54530311 0
2.7000003 -0.93798321 0.54505783 0
2.6960001 -0.94057339 0.5448125 0
2.6920002 -0.94314927 0.54456717 0
2.6890001 -0.94610393 0.54438317 0
2.6860001 -0.94904768 0.54419923 0
2.6830001 -0.95198071 0.54401523 0
2.6810002 -0.95530158 0.54389256 0
2.6790001 -0.95861512 0.5437699 0
2.6780002 -0.96232373 0.54370856 0
2.6770003 -0.96602881 0.54364723 0
2.6750002 -0.96932435 0.54352456 0
2.6750002 -0.97342801 0.54352456 0
2.6740003 -0.97712225 0.54346323 0
2.6740003 -0.98122412 0.54346323 0
2.6740003 -0.98532593 0.54346323 0
2.6750002 -0.98984259 0.54352456 0
2.6760001 -0.99436295 0.5435859 0
2.6770003 -0.998887 0.54364723 0
2.6800003 -1.0042551 0.54383123 0
2.6830001 -1.0096339 0.54401523 0
2.6880002 -1.0158716 0.54432189 0
2.8860002 -1.2971106 0.55646509 0
2.8790002 -1.2980593 0.55603576 0
2.8730001 -1.2994897 0.55566782 0
2.8680003 -1.3014073 0.55536115 0
2.8630002 -1.3033066 0.55505455 0
2.8590002 -1.3057003 0.55480921 0
2.8560002 -1.3085936 0.55462521 0
2.8520002 -1.3109602 0.55437988 0
2.8490002 -1.31383 0.55419588 0
2.8460002 -1.316689 0.55401194 0
2.8440001 -1.3200585 0.55388927 0
2.8410003 -1.3228979 0.55370528 0
2.8390002 -1.326251 0.55358261 0
2.8380003 -1.3301239 0.55352128 0
2.6550002 -1.2459383 0.54229796 0
2.6470003 -1.2457346 0.54180735 0
2.6410003 -1.2465732 0.54143941 0
2.6360002 -1.2479279 0.54113275 0
2.6310003 -1.2492646 0.54082608 0
2.6270001 -1.2511241 0.54058075 0
2.6230001 -1.2529695 0.54033542 0
2.6200001 -1.2553451 0.54015148 0
2.6170001 -1.2577099 0.53996748 0
2.6140001 -1.2600639 0.53978348 0
2.6110003 -1.2624071 0.53959948 0
2.6090002 -1.2652915 0.53947681 0
2.6070001 -1.2681684 0.53935421 0
2.6050003 -1.2710384 0.53923154 0
2.6030002 -1.273901 0.53910887 0
2.6020002 -1.2773156 0.53904754 0
2.6000001 -1.2801656 0.53892487 0
2.6000001 -1.2841339 0.53892487 0
2.5990002 -1.2875378 0.53886354 0
2.5980003 -1.290938 0.53880221 0
2.5980003 -1.2949028 0.53880221 0
2.5980003 -1.2988675 0.53880221 0
2.5980003 -1.3028322 0.53880221 0
2.5990002 -1.3073707 0.53886354 0
2.6000001 -1.3119125 0.53892487 0
2.6980002 -0.77140146 0.54079002 0
2.6970003 -0.77522922 0.54073048 0
2.6960001 -0.77905321 0.54067093 0
2.6950002 -0.78287369 0.54061145 0
2.6940002 -0.78669059 0.5405519 0
2.6930003 -0.79050386 0.54049242 0
2.6920002 -0.79431343 0.54043287 0
2.6910002 -0.79811954 0.54037333 0
2.6900003 -0.80192196 0.54031384 0
2.6900003 -0.80605268 0.54031384 0
2.7260003 -0.93128389 0.54245675 0
2.7170002 -0.93203783 0.54192102 0
2.7100003 -0.93352777 0.54150432 0
2.7040002 -0.93537849 0.54114717 0
2.7000003 -0.93798321 0.54090905 0
2.6960001 -0.94057339 0.54067093 0
2.6920002 -0.94314927 0.54043287 0
2.6890001 -0.94610393 0.54025429 0
2.6860001 -0.94904768 0.54007572 0
2.6830001 -0.95198071 0.53989708 0
2.6810002 -0.95530158 0.53977805 0
2.6790001 -0.95861512 0.53965902 0
2.6780002 -0.96232373 0.53959948 0
2.6770003 -0.96602881 0.53953999 0
2.6750002 -0.96932435 0.5394209 0
2.6750002 -0.97342801 0.5394209 0
2.6740003 -0.97712225 0.53936142 0
2.6740003 -0.98122412 0.53936142 0
2.6740003 -0.98532593 0.53936142 0
2.6750002 -0.98984259 0.5394209 0
2.6760001 -0.99436295 0.53948045 0
2.6770003 -0.998887 0.53953999 0
2.6800003 -1.0042551 0.53971857 0
2.6830001 -1.0096339 0.53989708 0
2.6880002 -1.0158716 0.54019475 0
2.8820002 -1.2995745 0.55174273 0
2.8760002 -1.3010104 0.55138558 0
2.8710003 -1.3029333 0.55108798 0
2.8660002 -1.3048381 0.55079031 0
2.8610003 -1.3067249 0.5504927 0
2.8580003 -1.3096218 0.55031413 0
2.8540003 -1.311992 0.55007601 0
2.8510003 -1.3148655 0.54989743 0
2.8480003 -1.3177282 0.54971886 0
2.8460002 -1.3211012 0.54959983 0
2.8430002 -1.323944 0.54942125 0
2.8410003 -1.3273009 0.54930222 0
2.6550002 -1.250006 0.53823042 0
2.6470003 -1.2497877 0.53775418 0
2.6400001 -1.2500781 0.53733754 0
2.6350002 -1.2514219 0.53703988 0
2.6300001 -1.2527477 0.53674227 0
2.6270001 -1.2551414 0.53656369 0
2.6230001 -1.2569793 0.53632557 0
2.6200001 -1.2593497 0.536147 0
2.6170001 -1.261709 0.53596842 0
2.6140001 -1.2640575 0.53578985 0
2.6120002 -1.2669474 0.53567082 0
2.6100001 -1.2698298 0.53555173 0
2.6080003 -1.2727052 0.5354327 0
2.6060002 -1.2755731 0.53531367 0
2.6050003 -1.2789931 0.53525412 0
2.6040001 -1.2824094 0.53519458 0
2.6030002 -1.2858223 0.53513509 0
2.6020002 -1.2892317 0.53507555 0
2.6020002 -1.2932036 0.53507555 0
2.6010003 -1.2966074 0.53501606 0
2.6010003 -1.3005775 0.53501606 0
2.6020002 -1.3051195 0.53507555 0
2.6030002 -1.3096651 0.53513509 0
2.6050003 -1.3147898 0.53525412 0
2.6980002 -0.77140146 0.53664488 0
2.6970003 -0.77522922 0.53658712 0
2.6960001 -0.77905321 0.53652942 0
2.6950002 -0.78287369 0.53647172 0
2.6940002 -0.78669059 0.53641397 0
2.6930003 -0.79050386 0.53635627 0
2.6920002 -0.79431343 0.53629851 0
2.6910002 -0.79811954 0.53624082 0
2.6900003 -0.80192196 0.53618312 0
2.6900003 -0.80605268 0.53618312 0
2.7260003 -0.93128389 0.53826106 0
2.7170002 -0.93203783 0.53774154 0
2.7100003 -0.93352777 0.53733754 0
2.7040002 -0.93537849 0.53699118 0
2.7000003 -0.93798321 0.53676033 0
2.6960001 -0.94057339 0.53652942 0
2.6920002 -0.94314927 0.53629851 0
2.6890001 -0.94610393 0.53612536 0
2.6860001 -0.94904768 0.53595221 0
2.6830001 -0.95198071 0.535779 0
2.6810002 -0.95530158 0.5356636 0
2.6790001 -0.95861512 0.53554815 0
2.6780002 -0.96232373 0.53549039 0
2.6770003 -0.96602881 0.5354327 0
2.6750002 -0.96932435 0.53531724 0
2.6750002 -0.97342801 0.53531724 0
2.6740003 -0.97712225 0.53525954 0
2.6740003 -0.98122412 0.53525954 0
2.6740003 -0.98532593 0.53525954 0
2.6750002 -0.98984259 0.53531724 0
2.6760001 -0.99436295 0.535375 0
2.6770003 -0.998887 0.5354327 0
2.6800003 -1.0042551 0.53560585 0
2.6830001 -1.0096339 0.535779 0
2.6880002 -1.0158716 0.53606761 0
2.6800003 -1.1152976 0.53560585 0
2.6790001 -1.1189394 0.53554815 0
2.6780002 -1.1225778 0.53549039 0
2.6770003 -1.1262125 0.5354327 0
2.6760001 -1.1298434 0.535375 0
2.6750002 -1.1334709 0.53531724 0
2.6740003 -1.1370947 0.53525954 0
2.6730001 -1.1407149 0.53520179 0
2.6710002 -1.1438483 0.53508639 0
2.6700003 -1.1474595 0.53502864 0
2.6690001 -1.151067 0.53497094 0
2.6680002 -1.1546711 0.53491318 0
2.6670003 -1.1582714 0.53485548 0
2.6660001 -1.1618682 0.53479779 0
2.6650002 -1.1654614 0.53474003 0
2.6640003 -1.1690511 0.53468233 0
2.6620002 -1.172139 0.53456688 0
2.6610003 -1.1757197 0.53450918 0
2.6600001 -1.1792965 0.53445143 0
2.6590002 -1.18287 0.53439367 0
2.6580002 -1.1864398 0.53433597 0
2.6570003 -1.1900059 0.53427827 0
2.6560001 -1.1935683 0.53422052 0
2.6550002 -1.1971273 0.53416282 0
2.6540003 -1.2006826 0.53410506 0
2.6520002 -1.2037202 0.53398967 0
2.6510003 -1.2072666 0.53393191 0
2.6500001 -1.2108091 0.53387421 0
2.6490002 -1.2143482 0.53381646 0
2.6480002 -1.2178837 0.53375876 0
2.6470003 -1.2214156 0.53370106 0
2.6460001 -1.2249438 0.53364331 0
2.6450002 -1.2284684 0.53358561 0
2.6440003 -1.2319895 0.53352785 0
2.6430001 -1.2355069 0.53347015 0
2.6410003 -1.2384886 0.5333547 0
2.6400001 -1.2419969 0.533297 0
2.6390002 -1.2455018 0.53323925 0
2.6380002 -1.2490031 0.53318155 0
2.6370001 -1.2525005 0.53312385 0
2.6350002 -1.2554535 0.5330084 0
2.6310003 -1.2573133 0.53277749 0
2.6270001 -1.2591584 0.53254658 0
2.6240003 -1.2615359 0.53237343 0
2.6210003 -1.2639025 0.53220028 0
2.6180003 -1.2662582 0.53202713 0
2.6160002 -1.2691551 0.53191167 0
2.6130002 -1.2714911 0.53173852 0
2.6120002 -1.2749273 0.53168076 0
2.6100001 -1.2778026 0.53156531 0
2.6080003 -1.2806706 0.53144991 0
2.6070001 -1.2840924 0.53139216 0
2.6060002 -1.2875108 0.53133446 0
2.6060002 -1.2914898 0.53133446 0
2.6060002 -1.295469 0.53133446 0
2.6050003 -1.2988802 0.5312767 0
2.6060002 -1.3034275 0.53133446 0
2.6070001 -1.3079785 0.53139216 0
2.6080003 -1.3125331 0.53144991 0
2.6110003 -1.3182423 0.53162307 0
2.6980002 -0.77140146 0.53249973 0
2.6970003 -0.77522922 0.53244376 0
2.6960001 -0.77905321 0.53238785 0
2.6950002 -0.78287369 0.53233194 0
2.6940002 -0.78669059 0.53227603 0
2.6930003 -0.79050386 0.53222013 0
2.6920002 -0.79431343 0.53216422 0
2.6910002 -0.79811954 0.53210831 0
2.6910002 -0.80225199 0.53210831 0
2.6900003 -0.80605268 0.5320524 0
2.7260003 -0.93128389 0.53406543 0
2.7170002 -0.93203783 0.53356218 0
2.7100003 -0.93352777 0.5331707 0
2.7040002 -0.93537849 0.53283525 0
2.7000003 -0.93798321 0.53261155 0
2.6960001 -0.94057339 0.53238785 0
2.6920002 -0.94314927 0.53216422 0
2.6890001 -0.94610393 0.53199643 0
2.6860001 -0.94904768 0.53182864 0
2.6830001 -0.95198071 0.53166091 0
2.6810002 -0.95530158 0.5315491 0
2.6790001 -0.95861512 0.53143728 0
2.6780002 -0.96232373 0.53138137 0
2.6770003 -0.96602881 0.53132546 0
2.6750002 -0.96932435 0.53121358 0
2.6750002 -0.97342801 0.53121358 0
2.6740003 -0.97712225 0.53115767 0
2.6740003 -0.98122412 0.53115767 0
2.6740003 -0.98532593 0.53115767 0
2.6750002 -0.98984259 0.53121358 0
2.6760001 -0.99436295 0.53126949 0
2.6770003 -0.998887 0.53132546 0
2.6800003 -1.0042551 0.53149319 0
2.6830001 -1.0096339 0.53166091 0
2.6880002 -1.0158716 0.53194052 0
2.6850002 -1.0516952 0.53177273 0
2.6840003 -1.055375 0.53171688 0
2.6830001 -1.059051 0.53166091 0
2.6820002 -1.0627236 0.53160501 0
2.6810002 -1.0663927 0.5315491 0
2.6800003 -1.070058 0.53149319 0
2.6790001 -1.0737197 0.53143728 0
2.6780002 -1.0773778 0.53138137 0
2.6770003 -1.0810325 0.53132546 0
2.6760001 -1.0846833 0.53126949 0
2.6750002 -1.0883306 0.53121358 0
2.6740003 -1.0919744 0.53115767 0
2.6730001 -1.0956143 0.53110176 0
2.6720002 -1.0992508 0.53104579 0
2.6710002 -1.1028837 0.53098989 0
2.6700003 -1.106513 0.53093398 0
2.6690001 -1.1101385 0.53087807 0
2.6680002 -1.1137607 0.53082216 0
2.6670003 -1.1173792 0.53076625 0
2.6660001 -1.120994 0.53071034 0
2.6650002 -1.1246052 0.53065443 0
2.6640003 -1.1282128 0.53059852 0
2.6630001 -1.1318167 0.53054255 0
2.6620002 -1.1354172 0.53048664 0
2.6610003 -1.139014 0.53043073 0
2.6600001 -1.1426071 0.53037483 0
2.6590002 -1.1461967 0.53031892 0
2.6580002 -1.1497828 0.53026295 0
2.6570003 -1.1533651 0.53020704 0
2.6560001 -1.1569438 0.53015113 0
2.6550002 -1.160519 0.53009522 0
2.6540003 -1.1640905 0.53003931 0
2.6530001 -1.1676584 0.5299834 0
2.6520002 -1.1712228 0.52992749 0
2.6510003 -1.1747836 0.52987158 0
2.6500001 -1.1783406 0.52981561 0
2.6490002 -1.1818942 0.52975971 0
2.6480002 -1.185444 0.5297038 0
2.6470003 -1.1889904 0.52964789 0
2.6460001 -1.192533 0.52959198 0
2.6450002 -1.196072 0.52953601 0
2.6440003 -1.1996075 0.5294801 0
2.6430001 -1.2031393 0.52942419 0
2.6420002 -1.2066677 0.52936828 0
2.6410003 -1.2101923 0.52931237 0
2.6400001 -1.2137132 0.52925646 0
2.6390002 -1.2172307 0.52920055 0
2.6380002 -1.2207446 0.52914464 0
2.6370001 -1.2242546 0.52908868 0
2.6360002 -1.2277613 0.52903277 0
2.6350002 -1.2312644 0.52897686 0
2.6340003 -1.2347639 0.52892095 0
2.6330001 -1.2382596 0.52886504 0
2.6320002 -1.2417518 0.52880913 0
2.6310003 -1.2452403 0.52875316 0
2.6300001 -1.2487252 0.52869725 0
2.6290002 -1.2522066 0.52864134 0
2.6280003 -1.2556844 0.52858543 0
2.6270001 -1.2591584 0.52852952 0
2.6260002 -1.2626289 0.52847362 0
2.6250002 -1.2660959 0.52841771 0
2.6230001 -1.269009 0.52830583 0
2.6200001 -1.271363 0.5281381 0
2.6180003 -1.2742599 0.52802628 0
2.6160002 -1.2771496 0.5279144 0
2.6140001 -1.280032 0.52780259 0
2.6130002 -1.2834666 0.52774668 0
2.6120002 -1.2868974 0.52769077 0
2.6110003 -1.2903248 0.52763486 0
2.6100001 -1.2937483 0.52757889 0
2.6110003 -1.2983012 0.52763486 0
2.6110003 -1.3022894 0.52763486 0
2.6120002 -1.3068476 0.52769077 0
2.6130002 -1.3114092 0.52774668 0
2.6150002 -1.3165485 0.5278585 0
2.6980002 -0.77140146 0.52835453 0
2.6970003 -0.77522922 0.52830046 0
2.6960001 -0.77905321 0.52824628 0
2.6950002 -0.78287369 0.52819222 0
2.6940002 -0.78669059 0.5281381 0
2.6930003 -0.79050386 0.52808398 0
2.6920002 -0.79431343 0.52802986 0
2.6910002 -0.79811954 0.52797574 0
2.6910002 -0.80225199 0.52797574 0
2.6900003 -0.80605268 0.52792162 0
2.7260003 -0.93128389 0.52986979 0
2.7170002 -0.93203783 0.52938271 0
2.7100003 -0.93352777 0.52900392 0
2.7040002 -0.93537849 0.52867925 0
2.7000003 -0.93798321 0.52846277 0
2.6960001 -0.94057339 0.52824628 0
2.6920002 -0.94314927 0.52802986 0
2.6890001 -0.94610393 0.5278675 0
2.6860001 -0.94904768 0.52770519 0
2.6830001 -0.95198071 0.52754283 0
2.6810002 -0.95530158 0.52743459 0
2.6790001 -0.95861512 0.52732641 0
2.6780002 -0.96232373 0.52727228 0
2.6770003 -0.96602881 0.52721816 0
2.6750002 -0.96932435 0.52710992 0
2.6750002 -0.97342801 0.52710992 0
2.6740003 -0.97712225 0.5270558 0
2.6740003 -0.98122412 0.5270558 0
2.6740003 -0.98532593 0.5270558 0
2.6750002 -0.98984259 0.52710992 0
2.6760001 -0.99436295 0.52716404 0
2.6770003 -0.998887 0.52721816 0
2.6800003 -1.0042551 0.52738053 0
2.6830001 -1.0096339 0.52754283 0
2.6880002 -1.0158716 0.52781343 0
2.6930003 -1.0510801 0.52808398 0
2.6780002 -1.0486144 0.52727228 0
2.6770003 -1.0522815 0.52721816 0
2.6760001 -1.0559449 0.52716404 0
2.6750002 -1.059605 0.52710992 0
2.6740003 -1.0632613 0.5270558 0
2.6730001 -1.066914 0.52700168 0
2.6720002 -1.0705631 0.52694756 0
2.6710002 -1.0742086 0.5268935 0
2.6700003 -1.0778505 0.52683938 0
2.6690001 -1.0814887 0.52678525 0
2.6680002 -1.0851234 0.52673113 0
2.6670003 -1.0887545 0.52667701 0
2.6660001 -1.092382 0.52662289 0
2.6650002 -1.0960058 0.52656877 0
2.6640003 -1.0996261 0.52651465 0
2.6630001 -1.1032426 0.52646053 0
2.6620002 -1.1068556 0.52640641 0
2.6610003 -1.1104652 0.52635235 0
2.6600001 -1.1140709 0.52629822 0
2.6590002 -1.117673 0.5262441 0
2.6580002 -1.1212718 0.52618998 0
2.6570003 -1.1248667 0.52613586 0
2.6570003 -1.128938 0.52613586 0
2.6560001 -1.1325275 0.52608174 0
2.6550002 -1.1361135 0.52602762 0
2.6540003 -1.1396959 0.52597356 0
2.6530001 -1.1432745 0.52591944 0
2.6520002 -1.1468498 0.52586532 0
2.6510003 -1.1504213 0.5258112 0
2.6500001 -1.1539892 0.52575707 0
2.6490002 -1.1575536 0.52570295 0
2.6480002 -1.1611142 0.52564883 0
2.6470003 -1.1646714 0.52559471 0
2.6460001 -1.1682248 0.52554059 0
2.6450002 -1.1717747 0.52548653 0
2.6440003 -1.1753211 0.52543241 0
2.6430001 -1.1788638 0.52537829 0
2.6420002 -1.1824027 0.52532417 0
2.6410003 -1.1859382 0.52527004 0
2.6400001 -1.1894701 0.52521592 0
2.6390002 -1.1929984 0.5251618 0
2.6380002 -1.196523 0.52510768 0
2.6370001 -1.2000439 0.52505356 0
2.6370001 -1.204079 0.52505356 0
2.6360002 -1.2075948 0.5249995 0
2.6350002 -1.2111068 0.52494538 0
2.6340003 -1.2146152 0.52489126 0
2.6330001 -1.21812 0.52483714 0
2.6320002 -1.2216212 0.52478302 0
2.6310003 -1.2251188 0.52472889 0
2.6300001 -1.2286127 0.52467477 0
2.6290002 -1.2321031 0.52462065 0
2.6280003 -1.2355899 0.52456653 0
2.6270001 -1.239073 0.52451241 0
2.6260002 -1.2425525 0.52445829 0
2.6250002 -1.2460285 0.52440423 0
2.6240003 -1.249501 0.52435011 0
2.6230001 -1.2529695 0.52429599 0
2.6220002 -1.2564348 0.52424186 0
2.6210003 -1.2598963 0.52418774 0
2.6210003 -1.2639025 0.52418774 0
2.6200001 -1.2673585 0.52413362 0
2.6190002 -1.2708111 0.5240795 0
2.6180003 -1.2742599 0.52402544 0
2.6170001 -1.2777052 0.52397132 0
2.6160002 -1.2811469 0.5239172 0
2.6150002 -1.2845849 0.52386308 0
2.6140001 -1.2880193 0.52380896 0
2.6130002 -1.2914501 0.52375484 0
2.6130002 -1.295442 0.52375484 0
2.6130002 -1.2994338 0.52375484 0
2.6130002 -1.3034257 0.52375484 0
2.6150002 -1.3085576 0.52386308 0
2.6170001 -1.3136965 0.52397132 0
2.6980002 -0.77140146 0.52420938 0
2.6970003 -0.77522922 0.52415711 0
2.6960001 -0.77905321 0.52410477 0
2.6950002 -0.78287369 0.52405244 0
2.6940002 -0.78669059 0.52400017 0
2.6930003 -0.79050386 0.52394783 0
2.6920002 -0.79431343 0.52389556 0
2.6910002 -0.79811954 0.52384323 0
2.6910002 -0.80225199 0.52384323 0
2.6900003 -0.80605268 0.5237909 0
2.7260003 -0.93128389 0.5256741 0
2.7170002 -0.93203783 0.52520329 0
2.7100003 -0.93352777 0.52483714 0
2.7040002 -0.93537849 0.52452326 0
2.7000003 -0.93798321 0.52431405 0
2.6960001 -0.94057339 0.52410477 0
2.6920002 -0.94314927 0.52389556 0
2.6890001 -0.94610393 0.52373862 0
2.6860001 -0.94904768 0.52358168 0
2.6830001 -0.95198071 0.52342474 0
2.6810002 -0.95530158 0.52332014 0
2.6790001 -0.95861512 0.52321553 0
2.6780002 -0.96232373 0.5231632 0
2.6770003 -0.96602881 0.52311087 0
2.6750002 -0.96932435 0.52300626 0
2.6750002 -0.97342801 0.52300626 0
2.6740003 -0.97712225 0.52295399 0
2.6740003 -0.98122412 0.52295399 0
2.6740003 -0.98532593 0.52295399 0
2.6750002 -0.98984259 0.52300626 0
2.6760001 -0.99436295 0.52305853 0
2.6770003 -0.998887 0.52311087 0
2.6800003 -1.0042551 0.52326781 0
2.6830001 -1.0096339 0.52342474 0
2.6880002 -1.0158716 0.52368629 0
2.6930003 -1.0510801 0.52394783 0
2.6730001 -1.0464137 0.52290165 0
2.6720002 -1.0500718 0.52284932 0
2.6710002 -1.0537263 0.52279699 0
2.6700003 -1.0573773 0.52274472 0
2.6690001 -1.0610245 0.52269238 0
2.6680002 -1.0646683 0.52264011 0
2.6670003 -1.0683084 0.52258778 0
2.6660001 -1.0719447 0.52253544 0
2.6650002 -1.0755776 0.52248317 0
2.6640003 -1.0792069 0.52243084 0
2.6630001 -1.0828326 0.5223785 0
2.6620002 -1.0864546 0.52232623 0
2.6610003 -1.0900731 0.5222739 0
2.6600001 -1.0936879 0.52222162 0
2.6590002 -1.0972991 0.52216929 0
2.6580002 -1.1009067 0.52211696 0
2.6570003 -1.1045108 0.52206469 0
2.6560001 -1.1081111 0.52201235 0
2.6560001 -1.1121806 0.52201235 0
2.6550002 -1.1157755 0.52196008 0
2.6540003 -1.1193669 0.52190775 0
2.6530001 -1.1229546 0.52185541 0
2.6520002 -1.1265389 0.52180314 0
2.6510003 -1.1301194 0.52175081 0
2.6500001 -1.1336963 0.52169847 0
2.6490002 -1.1372697 0.5216462 0
2.6480002 -1.1408395 0.52159387 0
2.6470003 -1.1444056 0.5215416 0
2.6460001 -1.1479681 0.52148926 0
2.6450002 -1.1515269 0.52143693 0
2.6440003 -1.1550825 0.52138466 0
2.6430001 -1.1586339 0.52133232 0
2.6430001 -1.1626799 0.52133232 0
2.6420002 -1.1662263 0.52128005 0
2.6410003 -1.1697689 0.52122772 0
2.6400001 -1.173308 0.52117538 0
2.6390002 -1.1768435 0.52112305 0
2.6380002 -1.1803753 0.52107078 0
2.6370001 -1.1839035 0.52101845 0
2.6360002 -1.1874282 0.52096617 0
2.6350002 -1.1909493 0.52091384 0
2.6340003 -1.1944667 0.52086151 0
2.6330001 -1.1979804 0.52080923 0
2.6320002 -1.2014908 0.5207569 0
2.6310003 -1.2049974 0.52070463 0
2.6310003 -1.2090216 0.52070463 0
2.6300001 -1.2125227 0.52065229 0
2.6290002 -1.2160203 0.52059996 0
2.6280003 -1.2195144 0.52054769 0
2.6270001 -1.2230046 0.52049536 0
2.6260002 -1.2264915 0.52044302 0
2.6250002 -1.2299746 0.52039075 0
2.6240003 -1.2334542 0.52033842 0
2.6230001 -1.2369301 0.52028614 0
2.6220002 -1.2404025 0.52023381 0
2.6210003 -1.2438712 0.52018148 0
2.6210003 -1.2478775 0.52018148 0
2.6200001 -1.2513407 0.5201292 0
2.6190002 -1.2548004 0.52007687 0
2.6180003 -1.2582567 0.5200246 0
2.6170001 -1.261709 0.51997226 0
2.6160002 -1.2651578 0.51991993 0
2.6150002 -1.2686032 0.51986766 0
2.6140001 -1.2720448 0.51981533 0
2.6130002 -1.2754829 0.51976299 0
2.6120002 -1.2789174 0.51971072 0
2.6110003 -1.2823482 0.51965839 0
2.6100001 -1.2857754 0.51960611 0
2.6100001 -1.2897618 0.51960611 0
2.6090002 -1.2931837 0.51955378 0
2.6090002 -1.2971683 0.51955378 0
2.6090002 -1.3011529 0.51955378 0
2.6100001 -1.3057075 0.51960611 0
2.6110003 -1.3102658 0.51965839 0
2.6140001 -1.3159747 0.51981533 0
2.6980002 -0.77140146 0.52006423 0
2.6970003 -0.77522922 0.52001375 0
2.6960001 -0.77905321 0.51996326 0
2.6950002 -0.78287369 0.51991272 0
2.6940002 -0.78669059 0.51986223 0
2.6930003 -0.79050386 0.51981175 0
2.6920002 -0.79431343 0.5197612 0
2.6910002 -0.79811954 0.51971072 0
2.6910002 -0.80225199 0.51971072 0
2.6900003 -0.80605268 0.51966017 0
2.7260003 -0.93128389 0.52147841 0
2.7170002 -0.93203783 0.52102387 0
2.7100003 -0.93352777 0.52067035 0
2.7040002 -0.93537849 0.52036726 0
2.7000003 -0.93798321 0.52016526 0
2.6960001 -0.94057339 0.51996326 0
2.6920002 -0.94314927 0.5197612 0
2.6890001 -0.94610393 0.51960969 0
2.6860001 -0.94904768 0.51945817 0
2.6830001 -0.95198071 0.51930666 0
2.6810002 -0.95530158 0.51920563 0
2.6790001 -0.95861512 0.5191046 0
2.6780002 -0.96232373 0.51905411 0
2.6770003 -0.96602881 0.51900363 0
2.6750002 -0.96932435 0.5189026 0
2.6750002 -0.97342801 0.5189026 0
2.6740003 -0.97712225 0.51885211 0
2.6740003 -0.98122412 0.51885211 0
2.6740003 -0.98532593 0.51885211 0
2.6750002 -0.98984259 0.5189026 0
2.6760001 -0.99436295 0.51895308 0
2.6770003 -0.998887 0.51900363 0
2.6800003 -1.0042551 0.51915514 0
2.6830001 -1.0096339 0.51930666 0
2.6880002 -1.0158716 0.5195592 0
2.7000003 -1.0251071 0.52016526 0
2.6930003 -1.0510801 0.51981175 0
2.6720002 -1.0459735 0.51875108 0
2.6680002 -1.0483041 0.51854908 0
2.6670003 -1.0519514 0.51849854 0
2.6660001 -1.055595 0.51844805 0
2.6660001 -1.0596825 0.51844805 0
2.6650002 -1.0633209 0.51839751 0
2.6640003 -1.0669556 0.51834702 0
2.6630001 -1.0705864 0.51829648 0
2.6620002 -1.074214 0.518246 0
2.6610003 -1.0778378 0.51819551 0
2.6600001 -1.081458 0.51814497 0
2.6590002 -1.0850748 0.51809448 0
2.6580002 -1.0886878 0.51804399 0
2.6570003 -1.0922972 0.51799351 0
2.6560001 -1.095903 0.51794297 0
2.6550002 -1.0995052 0.51789248 0
2.6540003 -1.1031038 0.51784194 0
2.6530001 -1.1066988 0.51779145 0
2.6520002 -1.1102902 0.51774096 0
2.6510003 -1.113878 0.51769042 0
2.6500001 -1.117462 0.51763994 0
2.6500001 -1.1215206 0.51763994 0
2.6490002 -1.1250994 0.51758945 0
2.6480002 -1.1286746 0.51753891 0
2.6470003 -1.1322461 0.51748842 0
2.6460001 -1.135814 0.51743793 0
2.6450002 -1.1393783 0.51738739 0
2.6440003 -1.1429391 0.51733691 0
2.6430001 -1.1464962 0.51728636 0
2.6420002 -1.1500497 0.51723588 0
2.6410003 -1.1535996 0.51718539 0
2.6400001 -1.1571459 0.51713485 0
2.6390002 -1.1606886 0.51708436 0
2.6380002 -1.1642276 0.51703387 0
2.6380002 -1.1682646 0.51703387 0
2.6370001 -1.1717981 0.51698333 0
2.6360002 -1.1753283 0.51693285 0
2.6350002 -1.1788547 0.5168823 0
2.6340003 -1.1823776 0.51683182 0
2.6330001 -1.1858968 0.51678133 0
2.6320002 -1.1894125 0.51673079 0
2.6310003 -1.1929245 0.5166803 0
2.6300001 -1.1964328 0.51662982 0
2.6290002 -1.1999376 0.51657927 0
2.6280003 -1.2034389 0.51652879 0
2.6270001 -1.2069364 0.5164783 0
2.6270001 -1.2109535 0.5164783 0
2.6260002 -1.2144456 0.51642776 0
2.6250002 -1.2179341 0.51637727 0
2.6240003 -1.2214192 0.51632679 0
2.6230001 -1.2249005 0.51627624 0
2.6220002 -1.2283783 0.51622576 0
2.6210003 -1.2318525 0.51617527 0
2.6200001 -1.235323 0.51612473 0
2.6190002 -1.2387898 0.51607424 0
2.6180003 -1.2422532 0.51602376 0
2.6170001 -1.2457128 0.51597321 0
2.6170001 -1.2497119 0.51597321 0
2.6160002 -1.2531661 0.51592273 0
2.6150002 -1.2566168 0.51587218 0
2.6140001 -1.2600639 0.5158217 0
2.6130002 -1.2635074 0.51577115 0
2.6120002 -1.2669474 0.51572067 0
2.6110003 -1.2703836 0.51567018 0
2.6100001 -1.2738161 0.51561964 0
2.6090002 -1.2772453 0.51556915 0
2.6080003 -1.2806706 0.51551867 0
2.6070001 -1.2840924 0.51546812 0
2.6070001 -1.2880734 0.51546812 0
2.6060002 -1.2914898 0.51541764 0
2.6060002 -1.295469 0.51541764 0
2.6060002 -1.2994483 0.51541764 0
2.6060002 -1.3034275 0.51541764 0
2.6070001 -1.3079785 0.51546812 0
2.6090002 -1.3131068 0.51556915 0
2.6120002 -1.3188176 0.51572067 0
2.6980002 -0.77140146 0.51591909 0
2.6970003 -0.77522922 0.51587039 0
2.6960001 -0.77905321 0.5158217 0
2.6950002 -0.78287369 0.515773 0
2.6940002 -0.78669059 0.5157243 0
2.6930003 -0.79050386 0.5156756 0
2.6920002 -0.79431343 0.51562691 0
2.6910002 -0.79811954 0.51557815 0
2.6910002 -0.80225199 0.51557815 0
2.6900003 -0.80605268 0.51552951 0
2.7270002 -0.93166447 0.51733148 0
2.7170002 -0.93203783 0.51684445 0
2.7100003 -0.93352777 0.51650357 0
2.7040002 -0.93537849 0.51621133 0
2.7000003 -0.93798321 0.51601648 0
2.6960001 -0.94057339 0.5158217 0
2.6920002 -0.94314927 0.51562691 0
2.6890001 -0.94610393 0.51548076 0
2.6860001 -0.94904768 0.51533467 0
2.6830001 -0.95198071 0.51518857 0
2.6810002 -0.95530158 0.51509118 0
2.6790001 -0.95861512 0.51499373 0
2.6780002 -0.96232373 0.51494503 0
2.6770003 -0.96602881 0.51489633 0
2.6750002 -0.96932435 0.51479894 0
2.6750002 -0.97342801 0.51479894 0
2.6740003 -0.97712225 0.51475024 0
2.6740003 -0.98122412 0.51475024 0
2.6740003 -0.98532593 0.51475024 0
2.6750002 -0.98984259 0.51479894 0
2.6760001 -0.99436295 0.51484764 0
2.6770003 -0.998887 0.51489633 0
2.6800003 -1.0042551 0.51504242 0
2.6830001 -1.0096339 0.51518857 0
2.6880002 -1.0158716 0.51543206 0
2.7000003 -1.0251071 0.51601648 0
2.6930003 -1.0510801 0.5156756 0
2.6720002 -1.0459735 0.51465285 0
2.6650002 -1.0469784 0.51431191 0
2.6640003 -1.0506202 0.51426321 0
2.6630001 -1.0542585 0.51421452 0
