# .PCD v0.7 - Point Cloud Data file format
VERSION 0.7
FIELDS x y z intensity
SIZE 4 4 4 4
TYPE F F F F
COUNT 1 1 1 1
WIDTH 1374
HEIGHT 1
VIEWPOINT 0 0 0 1 0 0 0
POINTS 1374
DATA ascii
2.8120003 -0.17217278 0.74336129 0
2.8180003 -0.17684826 0.74420547 0
2.8150003 -0.1810421 0.74378335 0
2.8110001 -0.18516742 0.74322057 0
2.8080003 -0.18933782 0.74279851 0
2.8050003 -0.1934974 0.74237645 0
2.8020003 -0.19764617 0.74195433 0
2.8000002 -0.20184903 0.74167293 0
2.7980001 -0.20604469 0.74139154 0
2.7960002 -0.21023314 0.74111015 0
2.7950003 -0.21448472 0.74096942 0
2.7940001 -0.21873267 0.74082875 0
2.7940001 -0.22305098 0.74082875 0
2.7930002 -0.22729355 0.74068803 0
2.7930002 -0.23161006 0.74068803 0
2.7940001 -0.23600593 0.74082875 0
2.7940001 -0.24032426 0.74082875 0
2.7950003 -0.24472557 0.74096942 0
2.7960002 -0.24913046 0.74111015 0
2.7970002 -0.25353894 0.74125081 0
2.8000002 -0.25812784 0.74167293 0
2.8020003 -0.26263738 0.74195433 0
2.8050003 -0.2672461 0.74237645 0
2.8090003 -0.27195945 0.74293917 0
2.8150003 -0.27687845 0.74378335 0
2.7690003 0.065103769 0.73303807 0
2.7690003 0.060830552 0.73303807 0
2.7690003 0.056557324 0.73303807 0
2.7690003 0.052284103 0.73303807 0
2.7690003 0.048010882 0.73303807 0
2.7690003 0.043737661 0.73303807 0
2.7690003 0.03946444 0.73303807 0
2.7690003 0.035191219 0.73303807 0
2.7690003 0.030917991 0.73303807 0
2.7690003 0.02664477 0.73303807 0
2.8210001 -0.089670196 0.74026054 0
2.8140001 -0.093898326 0.73928827 0
2.8090003 -0.098144487 0.73859382 0
2.8050003 -0.10239607 0.73803824 0
2.8020003 -0.10665847 0.73762155 0
2.7990003 -0.11091004 0.73720491 0
2.7970002 -0.11517966 0.73692709 0
2.7960002 -0.11947271 0.73678815 0
2.7940001 -0.12372971 0.7365104 0
2.7940001 -0.12804802 0.7365104 0
2.7940001 -0.13236633 0.7365104 0
2.7940001 -0.13668466 0.7365104 0
2.7940001 -0.14100297 0.7365104 0
2.7950003 -0.14536278 0.73664933 0
2.7960002 -0.1497262 0.73678815 0
2.7980001 -0.1541383 0.73706597 0
2.8000002 -0.15855764 0.73734379 0
2.8030002 -0.16303289 0.73776042 0
2.8070002 -0.16756946 0.73831606 0
2.8120003 -0.17217278 0.73901051 0
2.8180003 -0.17684826 0.73984385 0
2.8190002 -0.18126579 0.73998272 0
2.8140001 -0.18534058 0.73928827 0
2.8100002 -0.18945688 0.7387327 0
2.8060002 -0.19355872 0.73817712 0
2.8030002 -0.19770929 0.73776042 0
2.8010001 -0.20191397 0.73748267 0
2.7990003 -0.20611145 0.73720491 0
2.7970002 -0.21030168 0.73692709 0
2.7960002 -0.21455507 0.73678815 0
2.7950003 -0.21880484 0.73664933 0
2.7940001 -0.22305098 0.7365104 0
2.7940001 -0.22736931 0.7365104 0
2.7930002 -0.23161006 0.73637152 0
2.7930002 -0.23592658 0.73637152 0
2.7940001 -0.24032426 0.7365104 0
2.7940001 -0.24464257 0.7365104 0
2.7950003 -0.24904568 0.73664933 0
2.7960002 -0.25345239 0.73678815 0
2.7980001 -0.25795105 0.73706597 0
2.8000002 -0.26245698 0.73734379 0
2.8030002 -0.2670621 0.73776042 0
2.8070002 -0.27177185 0.73831606 0
2.8120003 -0.27659163 0.73901051 0
2.8190002 -0.28162426 0.73998272 0
2.7690003 0.065103769 0.72876489 0
2.7690003 0.060830552 0.72876489 0
2.7690003 0.056557324 0.72876489 0
2.7690003 0.052284103 0.72876489 0
2.7690003 0.048010882 0.72876489 0
2.7690003 0.043737661 0.72876489 0
2.7690003 0.03946444 0.72876489 0
2.7690003 0.035191219 0.72876489 0
2.7690003 0.030917991 0.72876489 0
2.7690003 0.02664477 0.72876489 0
2.8210001 -0.089670196 0.73589349 0
2.8140001 -0.093898326 0.73493385 0
2.8090003 -0.098144487 0.73424846 0
2.8050003 -0.10239607 0.7337001 0
2.8020003 -0.10665847 0.73328882 0
2.7990003 -0.11091004 0.73287755 0
2.7970002 -0.11517966 0.73260337 0
2.7960002 -0.11947271 0.73246628 0
2.7940001 -0.12372971 0.73219204 0
2.7940001 -0.12804802 0.73219204 0
2.7940001 -0.13236633 0.73219204 0
2.7940001 -0.13668466 0.73219204 0
2.7940001 -0.14100297 0.73219204 0
2.7950003 -0.14536278 0.73232925 0
2.7960002 -0.1497262 0.73246628 0
2.7980001 -0.1541383 0.7327404 0
2.8000002 -0.15855764 0.73301464 0
2.8030002 -0.16303289 0.73342586 0
2.8070002 -0.16756946 0.73397422 0
2.8120003 -0.17217278 0.73465967 0
2.8180003 -0.17684826 0.73548228 0
2.8220003 -0.18143354 0.73603058 0
2.8160002 -0.18545602 0.73520803 0
2.8120003 -0.18957593 0.73465967 0
2.8080003 -0.1936814 0.73411137 0
2.8050003 -0.19783558 0.7337001 0
2.8020003 -0.20197892 0.73328882 0
2.8000002 -0.20617817 0.73301464 0
2.7980001 -0.21037021 0.7327404 0
2.7970002 -0.2146254 0.73260337 0
2.7960002 -0.21887699 0.73246628 0
2.7940001 -0.22305098 0.73219204 0
2.7940001 -0.22736931 0.73219204 0
2.7930002 -0.23161006 0.73205501 0
2.7930002 -0.23592658 0.73205501 0
2.7930002 -0.24024309 0.73205501 0
2.7940001 -0.24464257 0.73219204 0
2.7950003 -0.24904568 0.73232925 0
2.7960002 -0.25345239 0.73246628 0
2.7970002 -0.25786269 0.73260337 0
2.7990003 -0.2623668 0.73287755 0
2.8010001 -0.26687813 0.73315167 0
2.8050003 -0.27158427 0.7337001 0
2.8090003 -0.27630484 0.73424846 0
2.8140001 -0.28113723 0.73493385 0
2.7690003 0.065103769 0.72449166 0
2.7690003 0.060830552 0.72449166 0
2.7690003 0.056557324 0.72449166 0
2.7690003 0.052284103 0.72449166 0
2.7690003 0.048010882 0.72449166 0
2.7690003 0.043737661 0.72449166 0
2.7690003 0.03946444 0.72449166 0
2.7690003 0.035191219 0.72449166 0
2.7690003 0.030917991 0.72449166 0
2.7690003 0.02664477 0.72449166 0
2.8210001 -0.089670196 0.73152649 0
2.8140001 -0.093898326 0.7305795 0
2.8090003 -0.098144487 0.7299031 0
2.8050003 -0.10239607 0.72936189 0
2.8020003 -0.10665847 0.7289561 0
2.7990003 -0.11091004 0.7285502 0
2.7970002 -0.11517966 0.72827965 0
2.7960002 -0.11947271 0.72814435 0
2.7940001 -0.12372971 0.7278738 0
2.7940001 -0.12804802 0.7278738 0
2.7940001 -0.13236633 0.7278738 0
2.7940001 -0.13668466 0.7278738 0
2.7940001 -0.14100297 0.7278738 0
2.7950003 -0.14536278 0.7280091 0
2.7960002 -0.1497262 0.72814435 0
2.7980001 -0.1541383 0.72841489 0
2.8000002 -0.15855764 0.7286855 0
2.8030002 -0.16303289 0.72909135 0
2.8070002 -0.16756946 0.7296325 0
2.8120003 -0.17217278 0.73030889 0
2.8180003 -0.17684826 0.73112065 0
2.8260002 -0.1816572 0.73220289 0
2.8200002 -0.18568692 0.73139119 0
2.8140001 -0.18969497 0.7305795 0
2.8100002 -0.19380404 0.73003834 0
2.8070002 -0.19796182 0.7296325 0
2.8040001 -0.20210877 0.72922659 0
2.8010001 -0.2062449 0.7288208 0
2.7990003 -0.21043877 0.7285502 0
2.7970002 -0.2146254 0.72827965 0
2.7960002 -0.21887699 0.72814435 0
2.7950003 -0.22312495 0.7280091 0
2.7940001 -0.22736931 0.7278738 0
2.7940001 -0.23168762 0.7278738 0
2.7930002 -0.23592658 0.7277385 0
2.7930002 -0.24024309 0.7277385 0
2.7940001 -0.24464257 0.7278738 0
2.7940001 -0.2489609 0.7278738 0
2.7950003 -0.25336578 0.7280091 0
2.7960002 -0.25777429 0.72814435 0
2.7980001 -0.26227659 0.72841489 0
2.8000002 -0.26678613 0.7286855 0
2.8030002 -0.27139667 0.72909135 0
2.8060002 -0.27601802 0.72949719 0
2.8110001 -0.28084499 0.73017359 0
2.8180003 -0.28588846 0.73112065 0
2.7690003 0.065103769 0.72021842 0
2.7690003 0.060830552 0.72021842 0
2.7690003 0.056557324 0.72021842 0
2.7690003 0.052284103 0.72021842 0
2.7690003 0.048010882 0.72021842 0
2.7690003 0.043737661 0.72021842 0
2.7690003 0.03946444 0.72021842 0
2.7690003 0.035191219 0.72021842 0
2.7690003 0.030917991 0.72021842 0
2.7690003 0.02664477 0.72021842 0
2.8210001 -0.089670196 0.7271595 0
2.8140001 -0.093898326 0.72622508 0
2.8090003 -0.098144487 0.72555768 0
2.8050003 -0.10239607 0.72502375 0
2.8020003 -0.10665847 0.72462332 0
2.7990003 -0.11091004 0.7242229 0
2.7970002 -0.11517966 0.72395587 0
2.7960002 -0.11947271 0.72382247 0
2.7940001 -0.12372971 0.72355545 0
2.7940001 -0.12804802 0.72355545 0
2.7940001 -0.13236633 0.72355545 0
2.7940001 -0.13668466 0.72355545 0
2.7940001 -0.14100297 0.72355545 0
2.7950003 -0.14536278 0.72368896 0
2.7960002 -0.1497262 0.72382247 0
2.7980001 -0.1541383 0.72408938 0
2.8000002 -0.15855764 0.72435635 0
2.8030002 -0.16303289 0.72475684 0
2.8070002 -0.16756946 0.72529078 0
2.8120003 -0.17217278 0.72595811 0
2.8180003 -0.17684826 0.72675908 0
2.8300002 -0.18188088 0.72836077 0
2.8230002 -0.18586008 0.72742641 0
2.8170002 -0.18987355 0.72662556 0
2.8130002 -0.19398804 0.72609162 0
2.8090003 -0.19808809 0.72555768 0
2.8060002 -0.20223866 0.72515726 0
2.8030002 -0.2063784 0.72475684 0
2.8000002 -0.21050732 0.72435635 0
2.7990003 -0.2147661 0.7242229 0
2.7970002 -0.21894914 0.72395587 0
2.7960002 -0.22319892 0.72382247 0
2.7950003 -0.22744508 0.72368896 0
2.7940001 -0.23168762 0.72355545 0
2.7940001 -0.23600593 0.72355545 0
2.7930002 -0.24024309 0.72342199 0
2.7930002 -0.2445596 0.72342199 0
2.7940001 -0.2489609 0.72355545 0
2.7940001 -0.25327921 0.72355545 0
2.7960002 -0.25777429 0.72382247 0
2.7970002 -0.26218641 0.72395587 0
2.7990003 -0.26669413 0.7242229 0
2.8010001 -0.27120906 0.72448981 0
2.8040001 -0.27582681 0.72489023 0
2.8080003 -0.2805528 0.72542423 0
2.8130002 -0.2853924 0.72609162 0
2.8220003 -0.29065412 0.72729295 0
2.7690003 0.065103769 0.71594524 0
2.7690003 0.060830552 0.71594524 0
2.7690003 0.056557324 0.71594524 0
2.7690003 0.052284103 0.71594524 0
2.7690003 0.048010882 0.71594524 0
2.7690003 0.043737661 0.71594524 0
2.7690003 0.03946444 0.71594524 0
2.7690003 0.035191219 0.71594524 0
2.7690003 0.030917991 0.71594524 0
2.7690003 0.02664477 0.71594524 0
2.8210001 -0.089670196 0.72279245 0
2.8140001 -0.093898326 0.72187066 0
2.8090003 -0.098144487 0.72121233 0
2.8050003 -0.10239607 0.7206856 0
2.8020003 -0.10665847 0.72029054 0
2.7990003 -0.11091004 0.71989554 0
2.7970002 -0.11517966 0.71963215 0
2.7960002 -0.11947271 0.71950054 0
2.7940001 -0.12372971 0.71923715 0
2.7940001 -0.12804802 0.71923715 0
2.7940001 -0.13236633 0.71923715 0
2.7940001 -0.13668466 0.71923715 0
2.7940001 -0.14100297 0.71923715 0
2.7950003 -0.14536278 0.71936882 0
2.7960002 -0.1497262 0.71950054 0
2.7980001 -0.1541383 0.71976388 0
2.8000002 -0.15855764 0.72002721 0
2.8030002 -0.16303289 0.72042227 0
2.8070002 -0.16756946 0.72094893 0
2.8120003 -0.17217278 0.72160733 0
2.8180003 -0.17684826 0.72239745 0
2.8300002 -0.18188088 0.72397757 0
2.8280003 -0.18614869 0.72371423 0
2.8200002 -0.19005212 0.72266078 0
2.8150003 -0.19411071 0.72200239 0
2.8110001 -0.19821435 0.72147566 0
2.8070002 -0.20230359 0.72094893 0
2.8040001 -0.20644513 0.72055393 0
2.8020003 -0.21064441 0.72029054 0
2.8000002 -0.21483646 0.72002721 0
2.7980001 -0.21902128 0.71976388 0
2.7960002 -0.22319892 0.71950054 0
2.7950003 -0.22744508 0.71936882 0
2.7940001 -0.23168762 0.71923715 0
2.7940001 -0.23600593 0.71923715 0
2.7930002 -0.24024309 0.71910548 0
2.7930002 -0.2445596 0.71910548 0
2.7940001 -0.2489609 0.71923715 0
2.7940001 -0.25327921 0.71923715 0
2.7950003 -0.25768593 0.71936882 0
2.7960002 -0.26209623 0.71950054 0
2.7980001 -0.26660213 0.71976388 0
2.8000002 -0.27111527 0.72002721 0
2.8020003 -0.2756356 0.72029054 0
2.8060002 -0.28035799 0.72081733 0
2.8100002 -0.28509477 0.72134399 0
2.8160002 -0.29004803 0.72213411 0
2.7690003 0.065103769 0.71167195 0
2.7690003 0.060830552 0.71167195 0
2.7690003 0.056557324 0.71167195 0
2.7690003 0.052284103 0.71167195 0
2.7690003 0.048010882 0.71167195 0
2.7690003 0.043737661 0.71167195 0
2.7690003 0.03946444 0.71167195 0
2.7690003 0.035191219 0.71167195 0
2.7690003 0.030917991 0.71167195 0
2.7690003 0.02664477 0.71167195 0
2.8210001 -0.089670196 0.71842539 0
2.8140001 -0.093898326 0.7175163 0
2.8090003 -0.098144487 0.71686697 0
2.8050003 -0.10239607 0.71634746 0
2.8020003 -0.10665847 0.71595788 0
2.7990003 -0.11091004 0.71556818 0
2.7970002 -0.11517966 0.71530843 0
2.7960002 -0.11947271 0.71517861 0
2.7940001 -0.12372971 0.71491885 0
2.7940001 -0.12804802 0.71491885 0
2.7940001 -0.13236633 0.71491885 0
2.7940001 -0.13668466 0.71491885 0
2.7940001 -0.14100297 0.71491885 0
2.7950003 -0.14536278 0.71504873 0
2.7960002 -0.1497262 0.71517861 0
2.7980001 -0.1541383 0.71543837 0
2.8000002 -0.15855764 0.71569806 0
2.8030002 -0.16303289 0.7160877 0
2.8070002 -0.16756946 0.71660721 0
2.8120003 -0.17217278 0.71725655 0
2.8180003 -0.17684826 0.71803582 0
2.8300002 -0.18188088 0.7195943 0
2.8330002 -0.18643729 0.71998394 0
2.8240001 -0.19029023 0.71881503 0
2.8180003 -0.19429469 0.71803582 0
2.8130002 -0.19834062 0.71738648 0
2.8090003 -0.20243347 0.71686697 0
2.8060002 -0.20657861 0.71647733 0
2.8030002 -0.21071294 0.7160877 0
2.8010001 -0.2149068 0.71582794 0
2.7990003 -0.21909344 0.71556818 0
2.7970002 -0.22327286 0.71530843 0
2.7960002 -0.22752084 0.71517861 0
2.7950003 -0.2317652 0.71504873 0
2.7940001 -0.23600593 0.71491885 0
2.7940001 -0.24032426 0.71491885 0
2.7930002 -0.2445596 0.71478891 0
2.7930002 -0.24887612 0.71478891 0
2.7940001 -0.25327921 0.71491885 0
2.7940001 -0.25759751 0.71491885 0
2.7950003 -0.26200604 0.71504873 0
2.7970002 -0.26651013 0.71530843 0
2.7980001 -0.27092767 0.71543837 0
2.8010001 -0.27553999 0.71582794 0
2.8040001 -0.28016317 0.71621752 0
2.8070002 -0.28479716 0.71660721 0
2.8120003 -0.28964397 0.71725655 0
2.8200002 -0.2948173 0.71829557 0
2.7690003 0.065103769 0.70739877 0
2.7690003 0.060830552 0.70739877 0
2.7690003 0.056557324 0.70739877 0
2.7690003 0.052284103 0.70739877 0
2.7690003 0.048010882 0.70739877 0
2.7690003 0.043737661 0.70739877 0
2.7690003 0.03946444 0.70739877 0
2.7690003 0.035191219 0.70739877 0
2.7690003 0.030917991 0.70739877 0
2.7690003 0.02664477 0.70739877 0
2.8210001 -0.089670196 0.7140584 0
2.8140001 -0.093898326 0.71316195 0
2.8090003 -0.098144487 0.71252155 0
2.8050003 -0.10239607 0.71200931 0
2.8020003 -0.10665847 0.7116251 0
2.7990003 -0.11091004 0.71124089 0
2.7970002 -0.11517966 0.71098471 0
2.7960002 -0.11947271 0.71085668 0
2.7940001 -0.12372971 0.7106005 0
2.7940001 -0.12804802 0.7106005 0
2.7940001 -0.13236633 0.7106005 0
2.7940001 -0.13668466 0.7106005 0
2.7940001 -0.14100297 0.7106005 0
2.7950003 -0.14536278 0.71072859 0
2.7960002 -0.1497262 0.71085668 0
2.7980001 -0.1541383 0.71111274 0
2.8000002 -0.15855764 0.71136892 0
2.8030002 -0.16303289 0.71175313 0
2.8070002 -0.16756946 0.71226543 0
2.8120003 -0.17217278 0.71290576 0
2.8180003 -0.17684826 0.71367419 0
2.8300002 -0.18188088 0.71521103 0
2.8290002 -0.19058786 0.715083 0
2.8210001 -0.19447868 0.7140584 0
2.8160002 -0.19853003 0.71341807 0
2.8110001 -0.20256333 0.71277773 0
2.8080003 -0.20671211 0.71239352 0
2.8050003 -0.21085005 0.71200931 0
2.8020003 -0.21497716 0.7116251 0
2.8000002 -0.21916559 0.71136892 0
2.7980001 -0.22334681 0.71111274 0
2.7960002 -0.22752084 0.71085668 0
2.7950003 -0.2317652 0.71072859 0
2.7940001 -0.23600593 0.7106005 0
2.7940001 -0.24032426 0.7106005 0
2.7930002 -0.2445596 0.71047246 0
2.7930002 -0.24887612 0.71047246 0
2.7930002 -0.25319263 0.71047246 0
2.7940001 -0.25759751 0.7106005 0
2.7950003 -0.26200604 0.71072859 0
2.7960002 -0.26641816 0.71085668 0
2.7970002 -0.27083388 0.71098471 0
2.7990003 -0.27534881 0.71124089 0
2.8020003 -0.27996835 0.7116251 0
2.8050003 -0.28459874 0.71200931 0
2.8090003 -0.28934094 0.71252155 0
2.8150003 -0.29430324 0.71328998 0
2.8250003 -0.29970562 0.7145707 0
2.7690003 0.065103769 0.70312554 0
2.7690003 0.060830552 0.70312554 0
2.7690003 0.056557324 0.70312554 0
2.7690003 0.052284103 0.70312554 0
2.7690003 0.048010882 0.70312554 0
2.7690003 0.043737661 0.70312554 0
2.7690003 0.03946444 0.70312554 0
2.7690003 0.035191219 0.70312554 0
2.7690003 0.030917991 0.70312554 0
2.7690003 0.02664477 0.70312554 0
2.8210001 -0.089670196 0.70969141 0
2.8140001 -0.093898326 0.70880747 0
2.8090003 -0.098144487 0.7081762 0
2.8050003 -0.10239607 0.70767117 0
2.8020003 -0.10665847 0.70729232 0
2.7990003 -0.11091004 0.70691353 0
2.7970002 -0.11517966 0.70666099 0
2.7960002 -0.11947271 0.70653474 0
2.7940001 -0.12372971 0.7062822 0
2.7940001 -0.12804802 0.7062822 0
2.7940001 -0.13236633 0.7062822 0
2.7940001 -0.13668466 0.7062822 0
2.7940001 -0.14100297 0.7062822 0
2.7950003 -0.14536278 0.7064085 0
2.7960002 -0.1497262 0.70653474 0
2.7980001 -0.1541383 0.70678723 0
2.8000002 -0.15855764 0.70703977 0
2.8030002 -0.16303289 0.70741856 0
2.8070002 -0.16756946 0.70792365 0
2.8120003 -0.17217278 0.70855498 0
2.8180003 -0.17684826 0.70931256 0
2.8300002 -0.18188088 0.71082783 0
2.8350003 -0.19094501 0.71145916 0
2.8250003 -0.19472399 0.7101965 0
2.8190002 -0.19871944 0.70943892 0
2.8140001 -0.20275815 0.70880747 0
2.8100002 -0.20684558 0.7083025 0
2.8060002 -0.21091859 0.70779741 0
2.8040001 -0.21511784 0.7075448 0
2.8010001 -0.21923774 0.70716608 0
2.7990003 -0.22342078 0.70691353 0
2.7970002 -0.2275966 0.70666099 0
2.7960002 -0.23184276 0.70653474 0
2.7950003 -0.23608533 0.7064085 0
2.7940001 -0.24032426 0.7062822 0
2.7940001 -0.24464257 0.7062822 0
2.7930002 -0.24887612 0.7061559 0
2.7930002 -0.25319263 0.7061559 0
2.7940001 -0.25759751 0.7062822 0
2.7940001 -0.26191583 0.7062822 0
2.7950003 -0.26632616 0.7064085 0
2.7960002 -0.27074009 0.70653474 0
2.7980001 -0.27525321 0.70678723 0
2.8000002 -0.27977353 0.70703977 0
2.8030002 -0.28440031 0.70741856 0
2.8070002 -0.28913891 0.70792365 0
2.8110001 -0.29389194 0.70842874 0
2.8180003 -0.29897332 0.70931256 0
2.8130002 -0.30715534 0.70868123 0
2.8170002 -0.31194806 0.70918632 0
2.7690003 0.065103769 0.6988523 0
2.7690003 0.060830552 0.6988523 0
2.7690003 0.056557324 0.6988523 0
2.7690003 0.052284103 0.6988523 0
2.7690003 0.048010882 0.6988523 0
2.7690003 0.043737661 0.6988523 0
2.7690003 0.03946444 0.6988523 0
2.7690003 0.035191219 0.6988523 0
2.7690003 0.030917991 0.6988523 0
2.7690003 0.02664477 0.6988523 0
2.8210001 -0.089670196 0.70532435 0
2.8140001 -0.093898326 0.70445311 0
2.8090003 -0.098144487 0.70383084 0
2.8050003 -0.10239607 0.70333296 0
2.8020003 -0.10665847 0.70295954 0
2.7990003 -0.11091004 0.70258617 0
2.7970002 -0.11517966 0.70233727 0
2.7960002 -0.11947271 0.70221281 0
2.7940001 -0.12372971 0.7019639 0
2.7940001 -0.12804802 0.7019639 0
2.7940001 -0.13236633 0.7019639 0
2.7940001 -0.13668466 0.7019639 0
2.7940001 -0.14100297 0.7019639 0
2.7950003 -0.14536278 0.70208836 0
2.7960002 -0.1497262 0.70221281 0
2.7980001 -0.1541383 0.70246172 0
2.8000002 -0.15855764 0.70271063 0
2.8030002 -0.16303289 0.70308405 0
2.8070002 -0.16756946 0.70358193 0
2.8120003 -0.17217278 0.7042042 0
2.8180003 -0.17684826 0.70495099 0
2.8300002 -0.18188088 0.7064445 0
2.8300002 -0.19503064 0.7064445 0
2.8220003 -0.19890882 0.70544887 0
2.8160002 -0.20288803 0.70470208 0
2.8120003 -0.20697907 0.7042042 0
2.8080003 -0.21105568 0.70370638 0
2.8050003 -0.21518821 0.70333296 0
2.8020003 -0.21930991 0.70295954 0
2.8000002 -0.22349472 0.70271063 0
2.7980001 -0.22767235 0.70246172 0
2.7970002 -0.23192033 0.70233727 0
2.7960002 -0.23616467 0.70221281 0
2.7940001 -0.24032426 0.7019639 0
2.7940001 -0.24464257 0.7019639 0
2.7930002 -0.24887612 0.70183945 0
2.7930002 -0.25319263 0.70183945 0
2.7930002 -0.25750914 0.70183945 0
2.7940001 -0.26191583 0.7019639 0
2.7940001 -0.26623416 0.7019639 0
2.7960002 -0.27074009 0.70221281 0
2.7970002 -0.2751576 0.70233727 0
2.7990003 -0.27967614 0.70258617 0
2.8010001 -0.28420189 0.70283508 0
2.8040001 -0.28883588 0.70320851 0
2.8090003 -0.2936863 0.70383084 0
2.8140001 -0.29855481 0.70445311 0
2.8130002 -0.30280277 0.70432866 0
2.8070002 -0.30650598 0.70358193 0
2.8100002 -0.31117785 0.70395529 0
2.8140001 -0.31597236 0.70445311 0
2.8180003 -0.32078135 0.70495099 0
2.7690003 0.065103769 0.69457912 0
2.7690003 0.060830552 0.69457912 0
2.7690003 0.056557324 0.69457912 0
2.7690003 0.052284103 0.69457912 0
2.7690003 0.048010882 0.69457912 0
2.7690003 0.043737661 0.69457912 0
2.7690003 0.03946444 0.69457912 0
2.7690003 0.035191219 0.69457912 0
2.7690003 0.030917991 0.69457912 0
2.7690003 0.02664477 0.69457912 0
2.8210001 -0.089670196 0.70095736 0
2.8140001 -0.093898326 0.70009875 0
2.8090003 -0.098144487 0.69948542 0
2.8050003 -0.10239607 0.69899482 0
2.8020003 -0.10665847 0.69862688 0
2.7990003 -0.11091004 0.69825888 0
2.7970002 -0.11517966 0.69801354 0
2.7960002 -0.11947271 0.69789088 0
2.7940001 -0.12372971 0.69764555 0
2.7940001 -0.12804802 0.69764555 0
2.7940001 -0.13236633 0.69764555 0
2.7940001 -0.13668466 0.69764555 0
2.7940001 -0.14100297 0.69764555 0
2.7950003 -0.14536278 0.69776821 0
2.7960002 -0.1497262 0.69789088 0
2.7980001 -0.1541383 0.69813621 0
2.8000002 -0.15855764 0.69838154 0
2.8030002 -0.16303289 0.69874948 0
2.8070002 -0.16756946 0.69924015 0
2.8120003 -0.17217278 0.69985342 0
2.8180003 -0.17684826 0.70058942 0
2.8300002 -0.18188088 0.7020613 0
2.8380003 -0.19552128 0.70304257 0
2.8270001 -0.19922449 0.7016933 0
2.8200002 -0.20314777 0.70083469 0
2.8140001 -0.20711254 0.70009875 0
2.8100002 -0.21119276 0.69960809 0
2.8070002 -0.21532889 0.69924015 0
2.8040001 -0.2194542 0.69887215 0
2.8010001 -0.22356868 0.69850421 0
2.7990003 -0.22774813 0.69825888 0
2.7980001 -0.23199788 0.69813621 0
2.7960002 -0.23616467 0.69789088 0
2.7950003 -0.24040544 0.69776821 0
2.7940001 -0.24464257 0.69764555 0
2.7940001 -0.2489609 0.69764555 0
2.7930002 -0.25319263 0.69752288 0
2.7930002 -0.25750914 0.69752288 0
2.7940001 -0.26191583 0.69764555 0
2.7940001 -0.26623416 0.69764555 0
2.7950003 -0.27064627 0.69776821 0
2.7960002 -0.27506199 0.69789088 0
2.7980001 -0.27957872 0.69813621 0
2.8000002 -0.28410268 0.69838154 0
2.8030002 -0.28873485 0.69874948 0
2.8060002 -0.29337788 0.69911742 0
2.8120003 -0.29834557 0.69985342 0
2.8020003 -0.30163211 0.69862688 0
2.8040001 -0.30618131 0.69887215 0
2.8060002 -0.31073773 0.69911742 0
2.8080003 -0.31530139 0.69936281 0
2.8110001 -0.31998584 0.69973075 0
2.8140001 -0.32468116 0.70009875 0
2.8200002 -0.32973903 0.70083469 0
2.7690003 0.065103769 0.69030583 0
2.7690003 0.060830552 0.69030583 0
2.7690003 0.056557324 0.69030583 0
2.7690003 0.052284103 0.69030583 0
2.7690003 0.048010882 0.69030583 0
2.7690003 0.043737661 0.69030583 0
2.7690003 0.03946444 0.69030583 0
2.7690003 0.035191219 0.69030583 0
2.7690003 0.030917991 0.69030583 0
2.7690003 0.02664477 0.69030583 0
2.8210001 -0.089670196 0.6965903 0
2.8140001 -0.093898326 0.69574434 0
2.8090003 -0.098144487 0.69514012 0
2.8050003 -0.10239607 0.69465667 0
2.8020003 -0.10665847 0.6942941 0
2.7990003 -0.11091004 0.69393158 0
2.7970002 -0.11517966 0.69368982 0
2.7960002 -0.11947271 0.69356894 0
2.7940001 -0.12372971 0.69332725 0
2.7940001 -0.12804802 0.69332725 0
2.7940001 -0.13236633 0.69332725 0
2.7940001 -0.13668466 0.69332725 0
2.7940001 -0.14100297 0.69332725 0
2.7950003 -0.14536278 0.69344807 0
2.7960002 -0.1497262 0.69356894 0
2.7980001 -0.1541383 0.69381064 0
2.8000002 -0.15855764 0.69405234 0
2.8030002 -0.16303289 0.69441497 0
2.8070002 -0.16756946 0.69489837 0
2.8120003 -0.17217278 0.69550264 0
2.8180003 -0.17684826 0.69622779 0
2.8300002 -0.18188088 0.69767797 0
2.8320003 -0.19954015 0.69791973 0
2.8230002 -0.20334259 0.69683206 0
2.8170002 -0.20731276 0.69610691 0
2.8130002 -0.21139839 0.69562352 0
2.8090003 -0.21546958 0.69514012 0
2.8060002 -0.21959852 0.69477749 0
2.8030002 -0.2237166 0.69441497 0
2.8000002 -0.22782387 0.69405234 0
2.7990003 -0.23207545 0.69393158 0
2.7970002 -0.23624405 0.69368982 0
2.7960002 -0.24048661 0.69356894 0
2.7950003 -0.24472557 0.69344807 0
2.7940001 -0.2489609 0.69332725 0
2.7930002 -0.25319263 0.69320643 0
2.7930002 -0.25750914 0.69320643 0
2.7930002 -0.26182565 0.69320643 0
2.7940001 -0.26623416 0.69332725 0
2.7940001 -0.27055249 0.69332725 0
2.7950003 -0.27496642 0.69344807 0
2.7970002 -0.27948132 0.69368982 0
2.7990003 -0.28400347 0.69393158 0
2.8020003 -0.28863385 0.6942941 0
2.8050003 -0.29327506 0.69465667 0
2.7980001 -0.29688084 0.69381064 0
2.7990003 -0.30131283 0.69393158 0
2.8010001 -0.30585662 0.69417322 0
2.8020003 -0.31029761 0.6942941 0
2.8040001 -0.314854 0.69453579 0
2.8060002 -0.31941763 0.69477749 0
2.8090003 -0.32410395 0.69514012 0
2.8120003 -0.32880107 0.69550264 0
2.8150003 -0.333509 0.69586521 0
2.8210001 -0.33859032 0.6965903 0
2.7690003 0.065103769 0.68603265 0
2.7690003 0.060830552 0.68603265 0
2.7690003 0.056557324 0.68603265 0
2.7690003 0.052284103 0.68603265 0
2.7690003 0.048010882 0.68603265 0
2.7690003 0.043737661 0.68603265 0
2.7690003 0.03946444 0.68603265 0
2.7690003 0.035191219 0.68603265 0
2.7690003 0.030917991 0.68603265 0
2.7690003 0.02664477 0.68603265 0
2.8210001 -0.089670196 0.69222331 0
2.8140001 -0.093898326 0.69138992 0
2.8090003 -0.098144487 0.69079471 0
2.8050003 -0.10239607 0.69031847 0
2.8020003 -0.10665847 0.68996131 0
2.7990003 -0.11091004 0.68960416 0
2.7970002 -0.11517966 0.6893661 0
2.7960002 -0.11947271 0.68924701 0
2.7940001 -0.12372971 0.68900895 0
2.7940001 -0.12804802 0.68900895 0
2.7940001 -0.13236633 0.68900895 0
2.7940001 -0.13668466 0.68900895 0
2.7940001 -0.14100297 0.68900895 0
2.7950003 -0.14536278 0.68912798 0
2.7960002 -0.1497262 0.68924701 0
2.7980001 -0.1541383 0.68948513 0
2.8000002 -0.15855764 0.68972325 0
2.8030002 -0.16303289 0.6900804 0
2.8070002 -0.16756946 0.69055659 0
2.8120003 -0.17217278 0.69115186 0
2.8180003 -0.17684826 0.69186616 0
2.8300002 -0.18188088 0.69329476 0
2.8280003 -0.20366727 0.6930567 0
2.8210001 -0.20757973 0.69222331 0
2.8150003 -0.21153548 0.69150901 0
2.8110001 -0.21561028 0.69103277 0
2.8070002 -0.21967065 0.69055659 0
2.8040001 -0.22379056 0.69019943 0
2.8020003 -0.2279754 0.68996131 0
2.8000002 -0.23215301 0.68972325 0
2.7980001 -0.23632342 0.68948513 0
2.7960002 -0.24048661 0.68924701 0
2.7950003 -0.24472557 0.68912798 0
2.7940001 -0.2489609 0.68900895 0
2.7940001 -0.25327921 0.68900895 0
2.7930002 -0.25750914 0.68888986 0
2.7930002 -0.26182565 0.68888986 0
2.7930002 -0.26614216 0.68888986 0
2.7940001 -0.27055249 0.68900895 0
2.7950003 -0.27496642 0.68912798 0
2.7960002 -0.27938393 0.68924701 0
2.7990003 -0.28400347 0.68960416 0
2.8010001 -0.28853282 0.68984228 0
2.8050003 -0.29327506 0.69031847 0
2.7960002 -0.29667163 0.68924701 0
2.7970002 -0.30109996 0.6893661 0
2.7980001 -0.30553192 0.68948513 0
2.8000002 -0.31007752 0.68972325 0
2.8010001 -0.31451848 0.68984228 0
2.8030002 -0.31907672 0.6900804 0
2.8050003 -0.32364216 0.69031847 0
2.8070002 -0.32821482 0.69055659 0
2.8100002 -0.33291376 0.6909138 0
2.8130002 -0.33762348 0.69127095 0
2.8170002 -0.34246671 0.69174707 0
2.7690003 0.065103769 0.68175948 0
2.7690003 0.060830552 0.68175948 0
2.7690003 0.056557324 0.68175948 0
2.7690003 0.052284103 0.68175948 0
2.7690003 0.048010882 0.68175948 0
2.7690003 0.043737661 0.68175948 0
2.7690003 0.03946444 0.68175948 0
2.7690003 0.035191219 0.68175948 0
2.7690003 0.030917991 0.68175948 0
2.7690003 0.02664477 0.68175948 0
2.8210001 -0.089670196 0.68785632 0
2.8140001 -0.093898326 0.68703556 0
2.8090003 -0.098144487 0.68644929 0
2.8050003 -0.10239607 0.68598032 0
2.8020003 -0.10665847 0.68562859 0
2.7990003 -0.11091004 0.68527687 0
2.7970002 -0.11517966 0.68504238 0
2.7960002 -0.11947271 0.68492508 0
2.7940001 -0.12372971 0.68469059 0
2.7940001 -0.12804802 0.68469059 0
2.7940001 -0.13236633 0.68469059 0
2.7940001 -0.13668466 0.68469059 0
2.7940001 -0.14100297 0.68469059 0
2.7950003 -0.14536278 0.6848079 0
2.7960002 -0.1497262 0.68492508 0
2.7980001 -0.1541383 0.68515956 0
2.8000002 -0.15855764 0.68539405 0
2.8030002 -0.16303289 0.68574584 0
2.8070002 -0.16756946 0.6862148 0
2.8120003 -0.17217278 0.68680108 0
2.8180003 -0.17684826 0.68750453 0
2.8300002 -0.18188088 0.6889115 0
2.8330002 -0.20399196 0.68926322 0
2.8240001 -0.20777996 0.68820798 0
2.8180003 -0.21174113 0.68750453 0
2.8130002 -0.21575098 0.68691832 0
2.8090003 -0.21981497 0.68644929 0
2.8060002 -0.22393847 0.68609762 0
2.8030002 -0.22805116 0.68574584 0
2.8010001 -0.23223057 0.68551135 0
2.7990003 -0.23640279 0.68527687 0
2.7970002 -0.24056777 0.68504238 0
2.7960002 -0.24480852 0.68492508 0
2.7950003 -0.24904568 0.6848079 0
2.7940001 -0.25327921 0.68469059 0
2.7930002 -0.25750914 0.68457341 0
2.7930002 -0.26182565 0.68457341 0
2.7930002 -0.26614216 0.68457341 0
2.7940001 -0.27055249 0.68469059 0
2.7950003 -0.27496642 0.6848079 0
2.7970002 -0.27948132 0.68504238 0
2.7990003 -0.28400347 0.68527687 0
2.8010001 -0.28853282 0.68551135 0
2.7940001 -0.29214406 0.68469059 0
2.7950003 -0.29656702 0.6848079 0
2.7960002 -0.30099356 0.68492508 0
2.7960002 -0.30531549 0.68492508 0
2.7970002 -0.30974743 0.68504238 0
2.7990003 -0.31429484 0.68527687 0
2.8000002 -0.31873581 0.68539405 0
2.8010001 -0.32318038 0.68551135 0
2.8030002 -0.32774583 0.68574584 0
2.8050003 -0.33231848 0.68598032 0
2.8070002 -0.33689833 0.6862148 0
2.8100002 -0.34160808 0.68656659 0
2.8140001 -0.34645313 0.68703556 0
2.8180003 -0.35131258 0.68750453 0
2.7690003 0.065103769 0.67748618 0
2.7690003 0.060830552 0.67748618 0
2.7690003 0.056557324 0.67748618 0
2.7690003 0.052284103 0.67748618 0
2.7690003 0.048010882 0.67748618 0
2.7690003 0.043737661 0.67748618 0
2.7690003 0.03946444 0.67748618 0
2.7690003 0.035191219 0.67748618 0
2.7690003 0.030917991 0.67748618 0
2.7690003 0.02664477 0.67748618 0
2.8210001 -0.089670196 0.68348926 0
2.8140001 -0.093898326 0.6826812 0
2.8090003 -0.098144487 0.68210399 0
2.8050003 -0.10239607 0.68164217 0
2.8020003 -0.10665847 0.68129587 0
2.7990003 -0.11091004 0.68094951 0
2.7970002 -0.11517966 0.68071866 0
2.7960002 -0.11947271 0.68060315 0
2.7940001 -0.12372971 0.6803723 0
2.7940001 -0.12804802 0.6803723 0
2.7940001 -0.13236633 0.6803723 0
2.7940001 -0.13668466 0.6803723 0
2.7940001 -0.14100297 0.6803723 0
2.7950003 -0.14536278 0.68048775 0
2.7960002 -0.1497262 0.68060315 0
2.7980001 -0.1541383 0.68083405 0
2.8000002 -0.15855764 0.68106496 0
2.8030002 -0.16303289 0.68141127 0
2.8070002 -0.16756946 0.68187308 0
2.8120003 -0.17217278 0.68245029 0
2.8180003 -0.17684826 0.68314296 0
2.8300002 -0.18188088 0.68452823 0
2.8290002 -0.20811367 0.68441284 0
2.8220003 -0.2120153 0.68360472 0
2.8160002 -0.21596204 0.68291205 0
2.8120003 -0.22003144 0.68245029 0
2.8080003 -0.22408639 0.68198848 0
2.8050003 -0.22820269 0.68164217 0
2.8020003 -0.23230815 0.68129587 0
2.8000002 -0.23648216 0.68106496 0
2.7980001 -0.24064894 0.68083405 0
2.7960002 -0.24480852 0.68060315 0
2.7950003 -0.24904568 0.68048775 0
2.7940001 -0.25327921 0.6803723 0
2.7940001 -0.25759751 0.6803723 0
2.7940001 -0.26191583 0.6803723 0
2.7940001 -0.26623416 0.6803723 0
2.7950003 -0.27064627 0.68048775 0
2.7960002 -0.27506199 0.68060315 0
2.7970002 -0.27948132 0.68071866 0
2.7990003 -0.28400347 0.68094951 0
2.8020003 -0.28863385 0.68129587 0
2.7940001 -0.29214406 0.6803723 0
2.7940001 -0.29646239 0.6803723 0
2.7950003 -0.30088714 0.68048775 0
2.7950003 -0.30520725 0.68048775 0
2.7960002 -0.3096374 0.68060315 0
2.7970002 -0.31407115 0.68071866 0
2.7980001 -0.31850854 0.68083405 0
2.7990003 -0.3229495 0.68094951 0
2.8000002 -0.32739407 0.68106496 0
2.8020003 -0.33196133 0.68129587 0
2.8040001 -0.33653578 0.68152672 0
2.8060002 -0.34111744 0.68175763 0
2.8080003 -0.34570637 0.68198848 0
2.8110001 -0.3504287 0.68233484 0
2.8150003 -0.35529 0.6827966 0
2.8200002 -0.36029553 0.68337381 0
2.7690003 0.065103769 0.67321301 0
2.7690003 0.060830552 0.67321301 0
2.7690003 0.056557324 0.67321301 0
2.7690003 0.052284103 0.67321301 0
2.7690003 0.048010882 0.67321301 0
2.7690003 0.043737661 0.67321301 0
2.7690003 0.03946444 0.67321301 0
2.7690003 0.035191219 0.67321301 0
2.7690003 0.030917991 0.67321301 0
2.7690003 0.02664477 0.67321301 0
2.8210001 -0.089670196 0.67912221 0
2.8140001 -0.093898326 0.67832673 0
2.8090003 -0.098144487 0.67775857 0
2.8050003 -0.10239607 0.67730403 0
2.8020003 -0.10665847 0.67696309 0
2.7990003 -0.11091004 0.67662215 0
2.7970002 -0.11517966 0.67639488 0
2.7960002 -0.11947271 0.67628127 0
2.7940001 -0.12372971 0.676054 0
2.7940001 -0.12804802 0.676054 0
2.7940001 -0.13236633 0.676054 0
2.7940001 -0.13668466 0.676054 0
2.7940001 -0.14100297 0.676054 0
2.7950003 -0.14536278 0.67616761 0
2.7960002 -0.1497262 0.67628127 0
2.7980001 -0.1541383 0.67650855 0
2.8000002 -0.15855764 0.67673582 0
2.8030002 -0.16303289 0.6770767 0
2.8070002 -0.16756946 0.6775313 0
2.8120003 -0.17217278 0.67809951 0
2.8180003 -0.17684826 0.67878139 0
2.8300002 -0.18188088 0.68014503 0
2.8360002 -0.20858085 0.68082684 0
2.8250003 -0.21222094 0.67957681 0
2.8190002 -0.21617307 0.678895 0
2.8140001 -0.22017571 0.67832673 0
2.8100002 -0.2242343 0.67787218 0
2.8060002 -0.22827843 0.67741764 0
2.8040001 -0.23246326 0.67719036 0
2.8010001 -0.23656151 0.67684948 0
2.7990003 -0.24073014 0.67662215 0
2.7970002 -0.24489149 0.67639488 0
2.7960002 -0.24913046 0.67628127 0
2.7950003 -0.25336578 0.67616761 0
2.7950003 -0.25768593 0.67616761 0
2.7950003 -0.26200604 0.67616761 0
2.7950003 -0.26632616 0.67616761 0
2.7950003 -0.27064627 0.67616761 0
2.7960002 -0.27506199 0.67628127 0
2.7980001 -0.27957872 0.67650855 0
2.8000002 -0.28410268 0.67673582 0
2.7930002 -0.28772473 0.67594033 0
2.7930002 -0.29204124 0.67594033 0
2.7940001 -0.29646239 0.676054 0
2.7940001 -0.30078068 0.676054 0
2.7940001 -0.30509901 0.676054 0
2.7950003 -0.3095274 0.67616761 0
2.7950003 -0.31384751 0.67616761 0
2.7960002 -0.31828126 0.67628127 0
2.7970002 -0.32271862 0.67639488 0
2.7980001 -0.32715958 0.67650855 0
2.7990003 -0.33160418 0.67662215 0
2.8010001 -0.33617321 0.67684948 0
2.8020003 -0.34062684 0.67696309 0
2.8040001 -0.3452085 0.67719036 0
2.8060002 -0.3497974 0.67741764 0
2.8090003 -0.35452157 0.67775857 0
2.8120003 -0.35925657 0.67809951 0
2.8160002 -0.36413407 0.67855406 0
2.7690003 0.065103769 0.66893977 0
2.7690003 0.060830552 0.66893977 0
2.7690003 0.056557324 0.66893977 0
2.7690003 0.052284103 0.66893977 0
2.7690003 0.048010882 0.66893977 0
2.7690003 0.043737661 0.66893977 0
2.7690003 0.03946444 0.66893977 0
2.7690003 0.035191219 0.66893977 0
2.7690003 0.030917991 0.66893977 0
2.7690003 0.02664477 0.66893977 0
2.8210001 -0.089670196 0.67475522 0
2.8140001 -0.093898326 0.67397237 0
2.8090003 -0.098144487 0.67341322 0
2.8050003 -0.10239607 0.67296588 0
2.8020003 -0.10665847 0.67263037 0
2.7990003 -0.11091004 0.67229486 0
2.7970002 -0.11517966 0.67207116 0
2.7960002 -0.11947271 0.67195928 0
2.7940001 -0.12372971 0.67173564 0
2.7940001 -0.12804802 0.67173564 0
2.7940001 -0.13236633 0.67173564 0
2.7940001 -0.13668466 0.67173564 0
2.7940001 -0.14100297 0.67173564 0
2.7950003 -0.14536278 0.67184752 0
2.7960002 -0.1497262 0.67195928 0
2.7980001 -0.1541383 0.67218298 0
2.8000002 -0.15855764 0.67240667 0
2.8030002 -0.16303289 0.67274219 0
2.8070002 -0.16756946 0.67318952 0
2.8120003 -0.17217278 0.67374873 0
2.8180003 -0.17684826 0.67441976 0
2.8300002 -0.18188088 0.67576176 0
3.0580003 -0.21380828 0.70126045 0
2.8310003 -0.21263221 0.67587364 0
2.8220003 -0.21638413 0.67486709 0
2.8170002 -0.22039218 0.67430788 0
2.8120003 -0.22438221 0.67374873 0
2.8080003 -0.22842996 0.6733014 0
2.8050003 -0.23254085 0.67296588 0
2.8020003 -0.2366409 0.67263037 0
2.8000002 -0.2408113 0.67240667 0
2.7990003 -0.24505745 0.67229486 0
2.7970002 -0.24921523 0.67207116 0
2.7960002 -0.25345239 0.67195928 0
2.7960002 -0.25777429 0.67195928 0
2.7960002 -0.26209623 0.67195928 0
2.7960002 -0.26641816 0.67195928 0
2.7970002 -0.27083388 0.67207116 0
2.7980001 -0.27525321 0.67218298 0
2.7990003 -0.27967614 0.67229486 0
2.8010001 -0.28420189 0.67251849 0
2.7930002 -0.28772473 0.67162383 0
2.7930002 -0.29204124 0.67162383 0
2.7930002 -0.29635775 0.67162383 0
2.7930002 -0.30067429 0.67162383 0
2.7940001 -0.30509901 0.67173564 0
2.7940001 -0.30941731 0.67173564 0
2.7940001 -0.31373566 0.67173564 0
2.7950003 -0.31816763 0.67184752 0
2.7960002 -0.32260317 0.67195928 0
2.7960002 -0.3269251 0.67195928 0
2.7970002 -0.33136609 0.67207116 0
2.7980001 -0.33581063 0.67218298 0
2.8000002 -0.3403815 0.67240667 0
2.8010001 -0.3448351 0.67251849 0
2.8030002 -0.34941858 0.67274219 0
2.8050003 -0.3540093 0.67296588 0
2.8070002 -0.35860717 0.67318952 0
2.8100002 -0.36334398 0.67352504 0
2.8130002 -0.36809161 0.67386055 0
2.8170002 -0.37298533 0.67430788 0
2.7690003 0.065103769 0.66466653 0
2.7690003 0.060830552 0.66466653 0
2.7690003 0.056557324 0.66466653 0
2.7690003 0.052284103 0.66466653 0
2.7690003 0.048010882 0.66466653 0
2.7690003 0.043737661 0.66466653 0
2.7690003 0.03946444 0.66466653 0
2.7690003 0.035191219 0.66466653 0
2.7690003 0.030917991 0.66466653 0
2.7690003 0.02664477 0.66466653 0
2.8210001 -0.089670196 0.67038822 0
2.8140001 -0.093898326 0.66961801 0
2.8090003 -0.098144487 0.66906786 0
2.8050003 -0.10239607 0.66862774 0
2.8020003 -0.10665847 0.66829765 0
2.7990003 -0.11091004 0.6679675 0
2.7970002 -0.11517966 0.66774744 0
2.7960002 -0.11947271 0.66763741 0
2.7940001 -0.12372971 0.66741729 0
2.7940001 -0.12804802 0.66741729 0
2.7940001 -0.13236633 0.66741729 0
2.7940001 -0.13668466 0.66741729 0
2.7940001 -0.14100297 0.66741729 0
2.7950003 -0.14536278 0.66752744 0
2.7960002 -0.1497262 0.66763741 0
2.7980001 -0.1541383 0.66785747 0
2.8000002 -0.15855764 0.66807753 0
2.8030002 -0.16303289 0.66840768 0
2.8070002 -0.16756946 0.6688478 0
2.8120003 -0.17217278 0.66939795 0
2.8180003 -0.17684826 0.67005813 0
2.8300002 -0.18188088 0.67137849 0
3.0650003 -0.20944308 0.69723612 0
3.0600002 -0.21393456 0.69668591 0
3.0560002 -0.21847293 0.69624579 0
3.0530002 -0.22306362 0.6959157 0
2.8270001 -0.21673585 0.6710484 0
2.8200002 -0.22060864 0.67027819 0
2.8150003 -0.22460409 0.66972804 0
2.8100002 -0.22858147 0.66917789 0
2.8070002 -0.23269595 0.6688478 0
2.8040001 -0.23679961 0.66851765 0
2.8020003 -0.24097365 0.66829765 0
2.8000002 -0.24514043 0.66807753 0
2.7990003 -0.24938479 0.6679675 0
2.7980001 -0.25362554 0.66785747 0
2.7970002 -0.25786269 0.66774744 0
2.7970002 -0.26218641 0.66774744 0
2.7980001 -0.26660213 0.66785747 0
2.7980001 -0.27092767 0.66785747 0
2.7990003 -0.27534881 0.6679675 0
2.8010001 -0.27987096 0.66818756 0
2.7940001 -0.28350741 0.66741729 0
2.7940001 -0.28782573 0.66741729 0
2.7930002 -0.29204124 0.66730732 0
2.7930002 -0.29635775 0.66730732 0
2.7930002 -0.30067429 0.66730732 0
2.7930002 -0.30499077 0.66730732 0
2.7930002 -0.30930731 0.66730732 0
2.7940001 -0.31373566 0.66741729 0
2.7940001 -0.31805396 0.66741729 0
2.7940001 -0.32237229 0.66741729 0
2.7950003 -0.32680786 0.66752744 0
2.7960002 -0.33124703 0.66763741 0
2.7960002 -0.33556896 0.66763741 0
2.7970002 -0.34001353 0.66774744 0
2.7990003 -0.34458619 0.6679675 0
2.8000002 -0.34903976 0.66807753 0
2.8010001 -0.353497 0.66818756 0
2.8030002 -0.35808769 0.66840768 0
2.8050003 -0.36268562 0.66862774 0
2.8070002 -0.36729074 0.6688478 0
2.8100002 -0.37203833 0.66917789 0
2.8140001 -0.37693387 0.66961801 0
2.8190002 -0.38198274 0.67016816 0
2.7690003 0.065103769 0.66039336 0
2.7690003 0.060830552 0.66039336 0
2.7690003 0.056557324 0.66039336 0
2.7690003 0.052284103 0.66039336 0
2.7690003 0.048010882 0.66039336 0
2.7690003 0.043737661 0.66039336 0
2.7690003 0.03946444 0.66039336 0
2.7690003 0.035191219 0.66039336 0
2.7690003 0.030917991 0.66039336 0
2.7690003 0.02664477 0.66039336 0
2.8210001 -0.089670196 0.66602117 0
2.8140001 -0.093898326 0.66526359 0
2.8090003 -0.098144487 0.66472244 0
2.8050003 -0.10239607 0.66428959 0
2.8020003 -0.10665847 0.66396487 0
2.7990003 -0.11091004 0.66364014 0
2.7970002 -0.11517966 0.66342372 0
2.7960002 -0.11947271 0.66331553 0
2.7940001 -0.12372971 0.66309905 0
2.7940001 -0.12804802 0.66309905 0
2.7940001 -0.13236633 0.66309905 0
2.7940001 -0.13668466 0.66309905 0
2.7940001 -0.14100297 0.66309905 0
2.7950003 -0.14536278 0.66320729 0
2.7960002 -0.1497262 0.66331553 0
2.7980001 -0.1541383 0.6635319 0
2.8000002 -0.15855764 0.66374838 0
2.8030002 -0.16303289 0.66407311 0
2.8070002 -0.16756946 0.66450596 0
2.8120003 -0.17217278 0.66504717 0
2.8180003 -0.17684826 0.6656965 0
2.8300002 -0.18188088 0.66699529 0
3.0680003 -0.20962706 0.69275367 0
3.0630002 -0.21412395 0.69221246 0
3.0580003 -0.21860282 0.69167137 0
3.0550003 -0.22319712 0.69134665 0
3.0520003 -0.2277806 0.69102198 0
2.8320003 -0.21708761 0.66721171 0
2.8230002 -0.22082511 0.66623765 0
2.8170002 -0.22475198 0.66558826 0
2.8130002 -0.22880876 0.66515535 0
2.8090003 -0.23285109 0.66472244 0
2.8060002 -0.23695835 0.66439778 0
2.8040001 -0.24113597 0.66418135 0
2.8020003 -0.2453064 0.66396487 0
2.8010001 -0.24955434 0.66385663 0
2.8000002 -0.25379869 0.66374838 0
2.7990003 -0.25803947 0.66364014 0
2.7990003 -0.2623668 0.66364014 0
2.8000002 -0.26678613 0.66374838 0
2.8000002 -0.27111527 0.66374838 0
2.8020003 -0.2756356 0.66396487 0
2.7950003 -0.27928653 0.66320729 0
2.7940001 -0.28350741 0.66309905 0
2.7940001 -0.28782573 0.66309905 0
2.7940001 -0.29214406 0.66309905 0
2.7930002 -0.29635775 0.66299081 0
2.7930002 -0.30067429 0.66299081 0
2.7930002 -0.30499077 0.66299081 0
2.7930002 -0.30930731 0.66299081 0
2.7930002 -0.31362382 0.66299081 0
2.7930002 -0.31794032 0.66299081 0
2.7940001 -0.32237229 0.66309905 0
2.7940001 -0.32669058 0.66309905 0
2.7950003 -0.33112797 0.66320729 0
2.7950003 -0.33544809 0.66320729 0
2.7960002 -0.33989087 0.66331553 0
2.7970002 -0.34433725 0.66342372 0
2.7980001 -0.34878725 0.6635319 0
2.7990003 -0.35324085 0.66364014 0
2.8000002 -0.35769805 0.66374838 0
2.8020003 -0.36229056 0.66396487 0
2.8040001 -0.36689025 0.66418135 0
2.8060002 -0.37149721 0.66439778 0
2.8080003 -0.37611136 0.6646142 0
2.8110001 -0.38087159 0.66493893 0
2.8150003 -0.38578337 0.66537184 0
2.8200002 -0.39085206 0.66591299 0
2.7690003 0.065103769 0.65612006 0
2.7690003 0.060830552 0.65612006 0
2.7690003 0.056557324 0.65612006 0
2.7690003 0.052284103 0.65612006 0
2.7690003 0.048010882 0.65612006 0
2.7690003 0.043737661 0.65612006 0
2.7690003 0.03946444 0.65612006 0
2.7690003 0.035191219 0.65612006 0
2.7690003 0.030917991 0.65612006 0
2.7690003 0.02664477 0.65612006 0
2.8210001 -0.089670196 0.66165417 0
2.8140001 -0.093898326 0.66090918 0
2.8090003 -0.098144487 0.66037709 0
2.8050003 -0.10239607 0.65995145 0
2.8020003 -0.10665847 0.65963209 0
2.7990003 -0.11091004 0.65931284 0
2.7970002 -0.11517966 0.65909994 0
2.7960002 -0.11947271 0.6589936 0
2.7940001 -0.12372971 0.65878069 0
2.7940001 -0.12804802 0.65878069 0
2.7940001 -0.13236633 0.65878069 0
2.7940001 -0.13668466 0.65878069 0
2.7940001 -0.14100297 0.65878069 0
2.7950003 -0.14536278 0.65888715 0
2.7960002 -0.1497262 0.6589936 0
2.7980001 -0.1541383 0.65920639 0
2.8000002 -0.15855764 0.6594193 0
2.8030002 -0.16303289 0.65973854 0
2.8070002 -0.16756946 0.66016424 0
2.8120003 -0.17217278 0.66069639 0
2.8180003 -0.17684826 0.66133493 0
2.8300002 -0.18188088 0.66261202 0
3.0720003 -0.20987238 0.68836677 0
3.0650003 -0.21425022 0.68762183 0
3.0610001 -0.21879761 0.68719614 0
3.0570002 -0.22333059 0.68677038 0
3.0540001 -0.22791767 0.68645108 0
2.8280003 -0.22118586 0.66239917 0
2.8210001 -0.22504781 0.66165417 0
2.8160002 -0.22903603 0.66112208 0
2.8120003 -0.23308378 0.66069639 0
2.8090003 -0.23719648 0.66037709 0
2.8070002 -0.24137948 0.66016424 0
2.8050003 -0.24555533 0.65995145 0
2.8030002 -0.2497239 0.65973854 0
2.8020003 -0.25397187 0.65963209 0
2.8020003 -0.25830463 0.65963209 0
2.8020003 -0.26263738 0.65963209 0
2.8020003 -0.26697013 0.65963209 0
2.8030002 -0.27139667 0.65973854 0
2.8040001 -0.27582681 0.65984493 0
2.7960002 -0.27938393 0.6589936 0
2.7960002 -0.28370586 0.6589936 0
2.7950003 -0.28792676 0.65888715 0
2.7940001 -0.29214406 0.65878069 0
2.7940001 -0.29646239 0.65878069 0
2.7940001 -0.30078068 0.65878069 0
2.7930002 -0.30499077 0.6586743 0
2.7930002 -0.30930731 0.6586743 0
2.7930002 -0.31362382 0.6586743 0
2.7930002 -0.31794032 0.6586743 0
2.7930002 -0.32225683 0.6586743 0
2.7930002 -0.32657337 0.6586743 0
2.7940001 -0.33100891 0.65878069 0
2.7940001 -0.33532724 0.65878069 0
2.7950003 -0.33976823 0.65888715 0
2.7950003 -0.34408835 0.65888715 0
2.7960002 -0.34853473 0.6589936 0
2.7970002 -0.35298473 0.65909994 0
2.7980001 -0.35743833 0.65920639 0
2.7990003 -0.36189553 0.65931284 0
2.8010001 -0.3664898 0.65952563 0
2.8020003 -0.37095606 0.65963209 0
2.8040001 -0.375563 0.65984493 0
2.8060002 -0.38017711 0.66005778 0
2.8090003 -0.38493916 0.66037709 0
2.8120003 -0.38971207 0.66069639 0
2.8160002 -0.39464006 0.66112208 0
2.7690003 0.065103769 0.65184689 0
2.7690003 0.060830552 0.65184689 0
2.7690003 0.056557324 0.65184689 0
2.7690003 0.052284103 0.65184689 0
2.7690003 0.048010882 0.65184689 0
2.7690003 0.043737661 0.65184689 0
2.7690003 0.03946444 0.65184689 0
2.7690003 0.035191219 0.65184689 0
2.7690003 0.030917991 0.65184689 0
2.7690003 0.02664477 0.65184689 0
2.8210001 -0.089670196 0.65728712 0
2.8140001 -0.093898326 0.65655482 0
2.8090003 -0.098144487 0.65603173 0
2.8050003 -0.10239607 0.65561318 0
2.8020003 -0.10665847 0.65529937 0
2.7990003 -0.11091004 0.65498555 0
2.7970002 -0.11517966 0.65477622 0
2.7960002 -0.11947271 0.65467167 0
2.7940001 -0.12372971 0.6544624 0
2.7940001 -0.12804802 0.6544624 0
2.7940001 -0.13236633 0.6544624 0
2.7940001 -0.13668466 0.6544624 0
2.7940001 -0.14100297 0.6544624 0
2.7950003 -0.14536278 0.654567 0
2.7960002 -0.1497262 0.65467167 0
2.7980001 -0.1541383 0.65488088 0
2.8000002 -0.15855764 0.65509009 0
2.8030002 -0.16303289 0.65540397 0
2.8070002 -0.16756946 0.65582246 0
2.8120003 -0.17217278 0.65634561 0
2.8180003 -0.17684826 0.65697336 0
3.0760002 -0.21011768 0.68396544 0
3.0690002 -0.21450275 0.68323314 0
3.0630002 -0.21892749 0.68260539 0
3.0590003 -0.22346407 0.68218696 0
3.0550003 -0.22798622 0.68176842 0
3.0520003 -0.23256429 0.6814546 0
2.8260002 -0.22541758 0.65781027 0
2.8200002 -0.22933906 0.65718251 0
2.8160002 -0.23339404 0.65676403 0
2.8130002 -0.23751393 0.65645021 0
2.8100002 -0.241623 0.65613627 0
2.8080003 -0.24580425 0.65592706 0
2.8070002 -0.25006303 0.65582246 0
2.8060002 -0.25431821 0.65571785 0
2.8050003 -0.25856978 0.65561318 0
2.8050003 -0.26290795 0.65561318 0
2.8050003 -0.2672461 0.65561318 0
2.8060002 -0.27167806 0.65571785 0
2.7990003 -0.27534881 0.65498555 0
2.7980001 -0.27957872 0.65488088 0
2.7970002 -0.28380504 0.65477622 0
2.7960002 -0.28802776 0.65467167 0
2.7950003 -0.29224688 0.654567 0
2.7950003 -0.29656702 0.654567 0
2.7940001 -0.30078068 0.6544624 0
2.7940001 -0.30509901 0.6544624 0
2.7930002 -0.30930731 0.65435779 0
2.7930002 -0.31362382 0.65435779 0
2.7930002 -0.31794032 0.65435779 0
2.7930002 -0.32225683 0.65435779 0
2.7930002 -0.32657337 0.65435779 0
2.7930002 -0.33088985 0.65435779 0
2.7930002 -0.33520639 0.65435779 0
2.7940001 -0.33964556 0.6544624 0
2.7940001 -0.34396386 0.6544624 0
2.7950003 -0.34840846 0.654567 0
2.7950003 -0.35272858 0.654567 0
2.7960002 -0.35717857 0.65467167 0
2.7970002 -0.36163217 0.65477622 0
2.7980001 -0.36608937 0.65488088 0
2.8000002 -0.37068546 0.65509009 0
2.8010001 -0.37515169 0.65519476 0
2.8030002 -0.37976044 0.65540397 0
2.8050003 -0.38437641 0.65561318 0
2.8070002 -0.38899952 0.65582246 0
2.8100002 -0.39377421 0.65613627 0
2.8130002 -0.39855972 0.65645021 0
2.8170002 -0.40350395 0.6568687 0
2.7690003 0.065103769 0.64757365 0
2.7690003 0.060830552 0.64757365 0
2.7690003 0.056557324 0.64757365 0
2.7690003 0.052284103 0.64757365 0
2.7690003 0.048010882 0.64757365 0
2.7690003 0.043737661 0.64757365 0
2.7690003 0.03946444 0.64757365 0
2.7690003 0.035191219 0.64757365 0
2.7690003 0.030917991 0.64757365 0
2.7690003 0.02664477 0.64757365 0
2.8210001 -0.089670196 0.65292013 0
2.8140001 -0.093898326 0.6522004 0
2.8090003 -0.098144487 0.65168631 0
2.8050003 -0.10239607 0.65127504 0
2.8020003 -0.10665847 0.65096664 0
2.7990003 -0.11091004 0.65065819 0
2.7970002 -0.11517966 0.65045249 0
2.7960002 -0.11947271 0.65034974 0
2.7940001 -0.12372971 0.6501441 0
2.7940001 -0.12804802 0.6501441 0
2.7940001 -0.13236633 0.6501441 0
2.7940001 -0.13668466 0.6501441 0
2.7940001 -0.14100297 0.6501441 0
2.7950003 -0.14536278 0.65024692 0
2.7960002 -0.1497262 0.65034974 0
2.7980001 -0.1541383 0.65055537 0
2.8000002 -0.15855764 0.65076101 0
2.8030002 -0.16303289 0.6510694 0
2.8070002 -0.16756946 0.65148067 0
2.8120003 -0.17217278 0.65199482 0
2.8180003 -0.17684826 0.65261173 0
3.0730002 -0.21475528 0.67883003 0
3.0660002 -0.21912231 0.67811036 0
3.0610001 -0.22359754 0.67759621 0
3.0570002 -0.22812331 0.67718494 0
3.0540001 -0.23270498 0.67687654 0
3.0510001 -0.23727582 0.67656803 0
2.8330002 -0.2259353 0.65415394 0
2.8260002 -0.22979364 0.65343422 0
2.8210001 -0.23378184 0.65292013 0
2.8170002 -0.2378314 0.65250885 0
2.8140001 -0.2419477 0.6522004 0
2.8120003 -0.24613614 0.65199482 0
2.8100002 -0.25031736 0.65178919 0
2.8090003 -0.25457793 0.65168631 0
2.8090003 -0.25892332 0.65168631 0
2.8090003 -0.26326871 0.65168631 0
2.8090003 -0.26761407 0.65168631 0
2.8100002 -0.27205324 0.65178919 0
2.8010001 -0.27553999 0.65086377 0
2.8000002 -0.27977353 0.65076101 0
2.7980001 -0.28390425 0.65055537 0
