# .PCD v0.7 - Point Cloud Data file format
VERSION 0.7
FIELDS x y z intensity
SIZE 4 4 4 4
TYPE F F F F
COUNT 1 1 1 1
WIDTH 1416
HEIGHT 1
VIEWPOINT 0 0 0 1 0 0 0
POINTS 1416
DATA ascii
4.4580002 -0.067959562 2.0582869 0
4.4620004 -0.075308278 2.0599177 0
4.4650002 -0.082662404 2.0611405 0
4.4690003 -0.09003818 2.0627713 0
4.4730005 -0.097428381 2.0644019 0
4.4760003 -0.10481858 2.0656247 0
4.4800005 -0.11223584 2.0672555 0
4.4830003 -0.11964948 2.0684786 0
4.4870005 -0.12709381 2.0701091 0
4.4910002 -0.13455255 2.0717397 0
4.4940004 -0.14200228 2.0729628 0
4.4980001 -0.14948809 2.0745933 0
4.5020003 -0.15698832 2.0762241 0
4.5050001 -0.16447411 2.0774469 0
4.5090003 -0.17200142 2.0790777 0
4.5130005 -0.17954314 2.0807083 0
4.5160003 -0.18706502 2.0819314 0
4.5200005 -0.19463381 2.0835619 0
4.5240002 -0.20221701 2.0851924 0
4.5270004 -0.20977497 2.0864155 0
4.5310001 -0.21738523 2.0880461 0
4.5350003 -0.22500993 2.0896769 0
4.5390005 -0.23264907 2.0913076 0
4.5420003 -0.24025571 2.0925305 0
4.5460005 -0.24792191 2.0941613 0
4.5500002 -0.25560251 2.0957916 0
4.5540004 -0.26329756 2.0974224 0
4.5570002 -0.27095291 2.0986452 0
4.5610003 -0.27867505 2.100276 0
4.5650001 -0.28641155 2.1019065 0
4.5690002 -0.29416254 2.1035373 0
4.5720005 -0.30186659 2.1047604 0
4.5710001 -0.30932894 2.1043525 0
4.5660005 -0.31652796 2.1023145 0
4.5610003 -0.32370892 2.100276 0
4.5560002 -0.33087182 2.0982378 0
4.5680003 -0.33921263 2.1031296 0
4.6070004 -0.37231073 2.1190283 0
4.6110001 -0.38021678 2.1206589 0
4.3510003 0.19631279 2.0075405 0
4.3510003 0.18918593 2.0075405 0
4.3510003 0.18205908 2.0075405 0
4.3510003 0.17493223 2.0075405 0
4.3510003 0.16780539 2.0075405 0
4.3510003 0.16067855 2.0075405 0
4.3510003 0.1535517 2.0075405 0
4.3530002 0.14652225 2.008352 0
4.3570004 0.13957939 2.0099757 0
4.3600001 0.13257702 2.011193 0
4.3640003 0.12560709 2.0128164 0
4.3670001 0.11858127 2.0140343 0
4.3710003 0.11158429 2.0156574 0
4.3740001 0.104535 2.016875 0
4.3770003 0.097474918 2.0180926 0
4.381 0.090438247 2.019716 0
4.3840003 0.083354697 2.0209336 0
4.388 0.07629098 2.022557 0
4.3910003 0.069183975 2.0237746 0
4.395 0.062093209 2.025398 0
4.3980002 0.054962751 2.0266156 0
4.4020004 0.047844928 2.0282393 0
4.4050002 0.040691022 2.0294566 0
4.4090004 0.033546139 2.0310802 0
4.4120002 0.026368786 2.0322976 0
4.4160004 0.019196842 2.033921 0
4.4190001 0.011996042 2.0351386 0
4.4230003 0.0047970451 2.036762 0
4.4260001 -0.0024272092 2.0379796 0
4.4300003 -0.0096532628 2.0396032 0
4.4330001 -0.016900968 2.0408206 0
4.4370003 -0.02415408 2.042444 0
4.4400001 -0.03142523 2.0436616 0
4.4440002 -0.038705401 2.045285 0
4.4470005 -0.046 2.0465028 0
4.4510002 -0.053307228 2.048126 0
4.4550004 -0.060628884 2.0497496 0
4.4580002 -0.067959562 2.0509672 0
4.4620004 -0.075308278 2.0525906 0
4.4650002 -0.082662404 2.053808 0
4.4690003 -0.09003818 2.0554314 0
4.4730005 -0.097428381 2.057055 0
4.4760003 -0.10481858 2.0582726 0
4.4800005 -0.11223584 2.059896 0
4.4830003 -0.11964948 2.0611136 0
4.4870005 -0.12709381 2.062737 0
4.4910002 -0.13455255 2.0643604 0
4.4940004 -0.14200228 2.065578 0
4.4980001 -0.14948809 2.0672014 0
4.5020003 -0.15698832 2.0688248 0
4.5050001 -0.16447411 2.0700424 0
4.5090003 -0.17200142 2.0716658 0
4.5130005 -0.17954314 2.0732894 0
4.5160003 -0.18706502 2.0745068 0
4.5200005 -0.19463381 2.0761302 0
4.5240002 -0.20221701 2.0777535 0
4.5270004 -0.20977497 2.0789711 0
4.5310001 -0.21738523 2.0805945 0
4.5350003 -0.22500993 2.0822182 0
4.5390005 -0.23264907 2.0838416 0
4.5420003 -0.24025571 2.0850592 0
4.5460005 -0.24792191 2.0866826 0
4.5500002 -0.25560251 2.088306 0
4.5540004 -0.26329756 2.0899293 0
4.5570002 -0.27095291 2.0911469 0
4.5610003 -0.27867505 2.0927703 0
4.5650001 -0.28641155 2.0943937 0
4.5690002 -0.29416254 2.0960171 0
4.5720005 -0.30186659 2.0972347 0
4.5710001 -0.30932894 2.0968287 0
4.5660005 -0.31652796 2.0947998 0
4.5610003 -0.32370892 2.0927703 0
4.5560002 -0.33087182 2.0907412 0
4.5680003 -0.33921263 2.0956113 0
4.6070004 -0.37231073 2.1114397 0
4.6110001 -0.38021678 2.1130631 0
4.369 0.1544608 2.0076864 0
4.369 0.1473015 2.0076864 0
4.369 0.14014217 2.0076864 0
4.369 0.13298286 2.0076864 0
4.369 0.12582356 2.0076864 0
4.369 0.11866423 2.0076864 0
4.3710003 0.11158429 2.0084946 0
4.3740001 0.104535 2.0097067 0
4.3770003 0.097474918 2.0109189 0
4.381 0.090438247 2.0125351 0
4.3840003 0.083354697 2.0137472 0
4.388 0.07629098 2.0153635 0
4.3910003 0.069183975 2.0165756 0
4.395 0.062093209 2.0181918 0
4.3980002 0.054962751 2.0194039 0
4.4020004 0.047844928 2.0210204 0
4.4050002 0.040691022 2.0222323 0
4.4090004 0.033546139 2.0238488 0
4.4120002 0.026368786 2.0250607 0
4.4160004 0.019196842 2.0266771 0
4.4190001 0.011996042 2.027889 0
4.4230003 0.0047970451 2.0295055 0
4.4260001 -0.0024272092 2.0307174 0
4.4300003 -0.0096532628 2.0323339 0
4.4330001 -0.016900968 2.0335457 0
4.4370003 -0.02415408 2.035162 0
4.4400001 -0.03142523 2.0363741 0
4.4440002 -0.038705401 2.0379903 0
4.4470005 -0.046 2.0392027 0
4.4510002 -0.053307228 2.0408187 0
4.4550004 -0.060628884 2.0424352 0
4.4580002 -0.067959562 2.0436471 0
4.4620004 -0.075308278 2.0452635 0
4.4650002 -0.082662404 2.0464754 0
4.4690003 -0.09003818 2.0480919 0
4.4730005 -0.097428381 2.0497081 0
4.4760003 -0.10481858 2.0509202 0
4.4800005 -0.11223584 2.0525365 0
4.4830003 -0.11964948 2.0537486 0
4.4870005 -0.12709381 2.0553648 0
4.4910002 -0.13455255 2.0569811 0
4.4940004 -0.14200228 2.0581932 0
4.4980001 -0.14948809 2.0598094 0
4.5020003 -0.15698832 2.0614254 0
4.5050001 -0.16447411 2.0626378 0
4.5090003 -0.17200142 2.0642538 0
4.5130005 -0.17954314 2.0658703 0
4.5160003 -0.18706502 2.0670822 0
4.5200005 -0.19463381 2.0686986 0
4.5240002 -0.20221701 2.0703146 0
4.5270004 -0.20977497 2.071527 0
4.5310001 -0.21738523 2.073143 0
4.5350003 -0.22500993 2.0747592 0
4.5390005 -0.23264907 2.0763757 0
4.5420003 -0.24025571 2.0775876 0
4.5460005 -0.24792191 2.0792041 0
4.5500002 -0.25560251 2.0808201 0
4.5540004 -0.26329756 2.0824363 0
4.5570002 -0.27095291 2.0836484 0
4.5610003 -0.27867505 2.0852647 0
4.5650001 -0.28641155 2.0868807 0
4.5690002 -0.29416254 2.0884972 0
4.5720005 -0.30186659 2.0897093 0
4.5710001 -0.30932894 2.0893052 0
4.5660005 -0.31652796 2.087285 0
4.5610003 -0.32370892 2.0852647 0
4.5560002 -0.33087182 2.0832443 0
4.5680003 -0.33921263 2.088093 0
4.6070004 -0.37231073 2.1038511 0
4.6110001 -0.38021678 2.1054673 0
4.3870001 0.11221923 2.0077677 0
4.3870001 0.10502745 2.0077677 0
4.3870001 0.097835675 2.0077677 0
4.3870001 0.090643883 2.0077677 0
4.3870001 0.083452106 2.0077677 0
4.388 0.07629098 2.0081699 0
4.3910003 0.069183975 2.0093768 0
4.395 0.062093209 2.0109856 0
4.3980002 0.054962751 2.0121925 0
4.4020004 0.047844928 2.0138013 0
4.4050002 0.040691022 2.0150082 0
4.4090004 0.033546139 2.0166173 0
4.4120002 0.026368786 2.0178239 0
4.4160004 0.019196842 2.019433 0
4.4190001 0.011996042 2.0206397 0
4.4230003 0.0047970451 2.0222487 0
4.4260001 -0.0024272092 2.0234554 0
4.4300003 -0.0096532628 2.0250645 0
4.4330001 -0.016900968 2.0262711 0
4.4370003 -0.02415408 2.0278802 0
4.4400001 -0.03142523 2.0290868 0
4.4440002 -0.038705401 2.0306959 0
4.4470005 -0.046 2.0319028 0
4.4510002 -0.053307228 2.0335116 0
4.4550004 -0.060628884 2.0351207 0
4.4580002 -0.067959562 2.0363274 0
4.4620004 -0.075308278 2.0379364 0
4.4650002 -0.082662404 2.0391431 0
4.4690003 -0.09003818 2.0407522 0
4.4730005 -0.097428381 2.0423613 0
4.4760003 -0.10481858 2.0435679 0
4.4800005 -0.11223584 2.045177 0
4.4830003 -0.11964948 2.0463836 0
4.4870005 -0.12709381 2.0479927 0
4.4910002 -0.13455255 2.0496016 0
4.4940004 -0.14200228 2.0508084 0
4.4980001 -0.14948809 2.0524173 0
4.5020003 -0.15698832 2.0540264 0
4.5050001 -0.16447411 2.055233 0
4.5090003 -0.17200142 2.0568421 0
4.5130005 -0.17954314 2.0584512 0
4.5160003 -0.18706502 2.0596578 0
4.5200005 -0.19463381 2.0612669 0
4.5240002 -0.20221701 2.0628757 0
4.5270004 -0.20977497 2.0640826 0
4.5310001 -0.21738523 2.0656915 0
4.5350003 -0.22500993 2.0673006 0
4.5390005 -0.23264907 2.0689096 0
4.5420003 -0.24025571 2.0701163 0
4.5460005 -0.24792191 2.0717254 0
4.5500002 -0.25560251 2.0733342 0
4.5540004 -0.26329756 2.0749433 0
4.5570002 -0.27095291 2.0761499 0
4.5610003 -0.27867505 2.077759 0
4.5650001 -0.28641155 2.0793679 0
4.5690002 -0.29416254 2.080977 0
4.5720005 -0.30186659 2.0821838 0
4.5710001 -0.30932894 2.0817814 0
4.5660005 -0.31652796 2.0797703 0
4.5610003 -0.32370892 2.077759 0
4.5560002 -0.33087182 2.0757477 0
4.5680003 -0.33921263 2.0805748 0
4.6070004 -0.37231073 2.0962625 0
4.6110001 -0.38021678 2.0978713 0
4.4050002 0.076812282 2.0077839 0
4.4050002 0.069588035 2.0077839 0
4.4050002 0.062363777 2.0077839 0
4.4050002 0.055139523 2.0077839 0
4.4050002 0.047915276 2.0077839 0
4.4090004 0.033546139 2.0093858 0
4.4120002 0.026368786 2.010587 0
4.4160004 0.019196842 2.0121889 0
4.4190001 0.011996042 2.0133901 0
4.4230003 0.0047970451 2.014992 0
4.4260001 -0.0024272092 2.0161932 0
4.4300003 -0.0096532628 2.0177951 0
4.4330001 -0.016900968 2.0189962 0
4.4370003 -0.02415408 2.0205982 0
4.4400001 -0.03142523 2.0217993 0
4.4440002 -0.038705401 2.0234013 0
4.4470005 -0.046 2.0246027 0
4.4510002 -0.053307228 2.0262043 0
4.4550004 -0.060628884 2.0278063 0
4.4580002 -0.067959562 2.0290074 0
4.4620004 -0.075308278 2.0306094 0
4.4650002 -0.082662404 2.0318105 0
4.4690003 -0.09003818 2.0334125 0
4.4730005 -0.097428381 2.0350144 0
4.4760003 -0.10481858 2.0362155 0
4.4800005 -0.11223584 2.0378175 0
4.4830003 -0.11964948 2.0390186 0
4.4870005 -0.12709381 2.0406206 0
4.4910002 -0.13455255 2.0422223 0
4.4940004 -0.14200228 2.0434237 0
4.4980001 -0.14948809 2.0450253 0
4.5020003 -0.15698832 2.046627 0
4.5050001 -0.16447411 2.0478284 0
4.5090003 -0.17200142 2.0494304 0
4.5130005 -0.17954314 2.0510321 0
4.5160003 -0.18706502 2.0522332 0
4.5200005 -0.19463381 2.0538352 0
4.5240002 -0.20221701 2.0554368 0
4.5270004 -0.20977497 2.0566382 0
4.5310001 -0.21738523 2.0582399 0
4.5350003 -0.22500993 2.0598419 0
4.5390005 -0.23264907 2.0614438 0
4.5420003 -0.24025571 2.062645 0
4.5460005 -0.24792191 2.0642469 0
4.5500002 -0.25560251 2.0658486 0
4.5540004 -0.26329756 2.0674503 0
4.5570002 -0.27095291 2.0686514 0
4.5610003 -0.27867505 2.0702534 0
4.5650001 -0.28641155 2.0718551 0
4.5690002 -0.29416254 2.073457 0
4.5720005 -0.30186659 2.0746584 0
4.5710001 -0.30932894 2.0742579 0
4.5660005 -0.31652796 2.0722556 0
4.5610003 -0.32370892 2.0702534 0
4.5560002 -0.33087182 2.0682511 0
4.5680003 -0.33921263 2.0730565 0
4.6070004 -0.37231073 2.0886738 0
4.6110001 -0.38021678 2.0902755 0
4.4230003 0.033823926 2.0077353 0
4.4230003 0.02656721 2.0077353 0
4.4230003 0.019310486 2.0077353 0
4.4230003 0.012053765 2.0077353 0
4.4260001 -0.0024272092 2.0089312 0
4.4300003 -0.0096532628 2.0105257 0
4.4330001 -0.016900968 2.0117216 0
4.4370003 -0.02415408 2.0133162 0
4.4400001 -0.03142523 2.0145121 0
4.4440002 -0.038705401 2.0161068 0
4.4470005 -0.046 2.0173028 0
4.4510002 -0.053307228 2.0188971 0
4.4550004 -0.060628884 2.0204918 0
4.4580002 -0.067959562 2.0216875 0
4.4620004 -0.075308278 2.0232823 0
4.4650002 -0.082662404 2.024478 0
4.4690003 -0.09003818 2.0260727 0
4.4730005 -0.097428381 2.0276675 0
4.4760003 -0.10481858 2.0288632 0
4.4800005 -0.11223584 2.030458 0
4.4830003 -0.11964948 2.0316536 0
4.4870005 -0.12709381 2.0332484 0
4.4910002 -0.13455255 2.0348427 0
4.4940004 -0.14200228 2.0360389 0
4.4980001 -0.14948809 2.0376332 0
4.5020003 -0.15698832 2.039228 0
4.5050001 -0.16447411 2.0404239 0
4.5090003 -0.17200142 2.0420184 0
4.5130005 -0.17954314 2.043613 0
4.5160003 -0.18706502 2.0448089 0
4.5200005 -0.19463381 2.0464034 0
4.5240002 -0.20221701 2.047998 0
4.5270004 -0.20977497 2.0491941 0
4.5310001 -0.21738523 2.0507884 0
4.5350003 -0.22500993 2.0523829 0
4.5390005 -0.23264907 2.0539777 0
4.5420003 -0.24025571 2.0551736 0
4.5460005 -0.24792191 2.0567682 0
4.5500002 -0.25560251 2.0583627 0
4.5540004 -0.26329756 2.0599573 0
4.5570002 -0.27095291 2.0611532 0
4.5610003 -0.27867505 2.0627477 0
4.5650001 -0.28641155 2.0643423 0
4.5690002 -0.29416254 2.065937 0
4.5720005 -0.30186659 2.0671329 0
4.5710001 -0.30932894 2.0667341 0
4.5660005 -0.31652796 2.0647411 0
4.5610003 -0.32370892 2.0627477 0
4.5560002 -0.33087182 2.0607545 0
4.5680003 -0.33921263 2.0655382 0
4.6070004 -0.37231073 2.0810854 0
4.6110001 -0.38021678 2.0826797 0
4.4420004 -0.0095450357 2.0080185 0
4.4420004 -0.016836029 2.0080185 0
4.4420004 -0.02412702 2.0080185 0
4.4470005 -0.046 2.0100026 0
4.4510002 -0.053307228 2.01159 0
4.4550004 -0.060628884 2.0131774 0
4.4580002 -0.067959562 2.0143678 0
4.4620004 -0.075308278 2.0159552 0
4.4650002 -0.082662404 2.0171456 0
4.4690003 -0.09003818 2.018733 0
4.4730005 -0.097428381 2.0203204 0
4.4760003 -0.10481858 2.0215108 0
4.4800005 -0.11223584 2.0230985 0
4.4830003 -0.11964948 2.0242887 0
4.4870005 -0.12709381 2.0258763 0
4.4910002 -0.13455255 2.0274634 0
4.4940004 -0.14200228 2.0286541 0
4.4980001 -0.14948809 2.0302413 0
4.5020003 -0.15698832 2.0318286 0
4.5050001 -0.16447411 2.0330191 0
4.5090003 -0.17200142 2.0346065 0
4.5130005 -0.17954314 2.0361941 0
4.5160003 -0.18706502 2.0373843 0
4.5200005 -0.19463381 2.0389719 0
4.5240002 -0.20221701 2.0405591 0
4.5270004 -0.20977497 2.0417497 0
4.5310001 -0.21738523 2.0433369 0
4.5350003 -0.22500993 2.0449245 0
4.5390005 -0.23264907 2.0465117 0
4.5420003 -0.24025571 2.0477023 0
4.5460005 -0.24792191 2.0492895 0
4.5500002 -0.25560251 2.0508769 0
4.5540004 -0.26329756 2.0524642 0
4.5570002 -0.27095291 2.0536547 0
4.5610003 -0.27867505 2.0552421 0
4.5650001 -0.28641155 2.0568295 0
4.5690002 -0.29416254 2.0584168 0
4.5720005 -0.30186659 2.0596075 0
4.5710001 -0.30932894 2.0592103 0
4.5660005 -0.31652796 2.0572264 0
4.5610003 -0.32370892 2.0552421 0
4.5560002 -0.33087182 2.0532579 0
4.5680003 -0.33921263 2.0580199 0
4.6070004 -0.37231073 2.0734966 0
4.6110001 -0.38021678 2.075084 0
4.4690003 -0.09003818 2.0113933 0
4.4730005 -0.097428381 2.0129735 0
4.4760003 -0.10481858 2.0141585 0
4.4800005 -0.11223584 2.0157387 0
4.4830003 -0.11964948 2.0169239 0
4.4870005 -0.12709381 2.0185041 0
4.4910002 -0.13455255 2.0200841 0
4.4940004 -0.14200228 2.0212693 0
4.4980001 -0.14948809 2.0228493 0
4.5020003 -0.15698832 2.0244296 0
4.5050001 -0.16447411 2.0256145 0
4.5090003 -0.17200142 2.0271947 0
4.5130005 -0.17954314 2.028775 0
4.5160003 -0.18706502 2.0299599 0
4.5200005 -0.19463381 2.0315402 0
4.5240002 -0.20221701 2.0331202 0
4.5270004 -0.20977497 2.0343053 0
4.5310001 -0.21738523 2.0358853 0
4.5350003 -0.22500993 2.0374656 0
4.5390005 -0.23264907 2.0390458 0
4.5420003 -0.24025571 2.0402308 0
4.5460005 -0.24792191 2.041811 0
4.5500002 -0.25560251 2.043391 0
4.5540004 -0.26329756 2.0449712 0
4.5570002 -0.27095291 2.0461562 0
4.5610003 -0.27867505 2.0477364 0
4.5650001 -0.28641155 2.0493166 0
4.5690002 -0.29416254 2.0508966 0
4.5720005 -0.30186659 2.0520818 0
4.5710001 -0.30932894 2.0516868 0
4.5660005 -0.31652796 2.0497117 0
4.5610003 -0.32370892 2.0477364 0
4.5560002 -0.33087182 2.0457611 0
4.5680003 -0.33921263 2.0505018 0
4.6070004 -0.37231073 2.0659082 0
4.6110001 -0.38021678 2.067488 0
4.4870005 -0.12709381 2.0111318 0
4.4910002 -0.13455255 2.0127046 0
4.4940004 -0.14200228 2.0138845 0
4.4980001 -0.14948809 2.0154572 0
4.5020003 -0.15698832 2.0170302 0
4.5050001 -0.16447411 2.0182099 0
4.5090003 -0.17200142 2.0197828 0
4.5130005 -0.17954314 2.0213559 0
4.5160003 -0.18706502 2.0225353 0
4.5200005 -0.19463381 2.0241084 0
4.5240002 -0.20221701 2.0256813 0
4.5270004 -0.20977497 2.0268612 0
4.5310001 -0.21738523 2.0284338 0
4.5350003 -0.22500993 2.0300069 0
4.5390005 -0.23264907 2.0315797 0
4.5420003 -0.24025571 2.0327594 0
4.5460005 -0.24792191 2.0343325 0
4.5500002 -0.25560251 2.0359051 0
4.5540004 -0.26329756 2.0374782 0
4.5570002 -0.27095291 2.0386579 0
4.5610003 -0.27867505 2.040231 0
4.5650001 -0.28641155 2.0418036 0
4.5690002 -0.29416254 2.0433767 0
4.5720005 -0.30186659 2.0445564 0
4.5710001 -0.30932894 2.044163 0
4.5660005 -0.31652796 2.042197 0
4.5610003 -0.32370892 2.040231 0
4.5560002 -0.33087182 2.0382648 0
4.5680003 -0.33921263 2.0429833 0
4.6070004 -0.37231073 2.0583193 0
4.6110001 -0.38021678 2.0598922 0
4.5090003 -0.17200142 2.0123711 0
4.5130005 -0.17954314 2.0139368 0
4.5160003 -0.18706502 2.015111 0
4.5200005 -0.19463381 2.0166769 0
4.5240002 -0.20221701 2.0182424 0
4.5270004 -0.20977497 2.0194168 0
4.5310001 -0.21738523 2.0209823 0
4.5350003 -0.22500993 2.0225482 0
4.5390005 -0.23264907 2.0241139 0
4.5420003 -0.24025571 2.0252881 0
4.5460005 -0.24792191 2.0268538 0
4.5500002 -0.25560251 2.0284195 0
4.5540004 -0.26329756 2.0299852 0
4.5570002 -0.27095291 2.0311594 0
4.5610003 -0.27867505 2.0327253 0
4.5650001 -0.28641155 2.0342908 0
4.5690002 -0.29416254 2.0358565 0
4.5720005 -0.30186659 2.0370309 0
4.5710001 -0.30932894 2.0366395 0
4.5660005 -0.31652796 2.0346825 0
4.5610003 -0.32370892 2.0327253 0
4.5560002 -0.33087182 2.0307682 0
4.5680003 -0.33921263 2.0354652 0
4.6070004 -0.37231073 2.0507309 0
4.6110001 -0.38021678 2.0522964 0
4.5310001 -0.21738523 2.0135307 0
4.5350003 -0.22500993 2.0150893 0
4.5390005 -0.23264907 2.0166481 0
4.5420003 -0.24025571 2.0178168 0
4.5460005 -0.24792191 2.0193753 0
4.5500002 -0.25560251 2.0209336 0
4.5540004 -0.26329756 2.0224922 0
4.5570002 -0.27095291 2.0236609 0
4.5610003 -0.27867505 2.0252197 0
4.5650001 -0.28641155 2.026778 0
4.5690002 -0.29416254 2.0283365 0
4.5720005 -0.30186659 2.0295055 0
4.5710001 -0.30932894 2.0291157 0
4.5660005 -0.31652796 2.0271678 0
4.5610003 -0.32370892 2.0252197 0
4.5560002 -0.33087182 2.0232713 0
4.5680003 -0.33921263 2.0279469 0
4.6070004 -0.37231073 2.0431421 0
4.6110001 -0.38021678 2.0447006 0
4.5420003 -0.24025571 2.0103452 0
4.5460005 -0.24792191 2.0118966 0
4.5500002 -0.25560251 2.0134478 0
4.5540004 -0.26329756 2.0149992 0
4.5570002 -0.27095291 2.0161626 0
4.5610003 -0.27867505 2.0177138 0
4.5650001 -0.28641155 2.0192649 0
4.5690002 -0.29416254 2.0208163 0
4.5720005 -0.30186659 2.02198 0
4.5710001 -0.30932894 2.0215921 0
4.5660005 -0.31652796 2.0196531 0
4.5610003 -0.32370892 2.0177138 0
4.5560002 -0.33087182 2.0157747 0
4.5680003 -0.33921263 2.0204287 0
4.6070004 -0.37231073 2.0355537 0
4.6110001 -0.38021678 2.0371048 0
4.5560002 -0.23341568 2.0082781 0
4.5560002 -0.2409123 2.0082781 0
4.5560002 -0.24840893 2.0082781 0
4.5560002 -0.25590554 2.0082781 0
4.5560002 -0.26340216 2.0082781 0
4.5570002 -0.27095291 2.0086641 0
4.5610003 -0.27867505 2.0102081 0
4.5650001 -0.28641155 2.0117521 0
4.5690002 -0.29416254 2.0132964 0
4.5720005 -0.30186659 2.0144546 0
4.5710001 -0.30932894 2.0140684 0
4.5660005 -0.31652796 2.0121384 0
4.5610003 -0.32370892 2.0102081 0
4.5560002 -0.33087182 2.0082781 0
4.5680003 -0.33921263 2.0129104 0
4.6070004 -0.37231073 2.0279648 0
4.6110001 -0.38021678 2.0295088 0
4.5710001 -0.25666314 2.0065446 0
4.5570002 -0.2634545 2.0011656 0
4.5570002 -0.27095291 2.0011656 0
4.5610003 -0.27867505 2.0027025 0
4.5650001 -0.28641155 2.0042393 0
4.5690002 -0.29416254 2.0057762 0
4.5720005 -0.30186659 2.0069289 0
4.5710001 -0.30932894 2.0065446 0
4.5660005 -0.31652796 2.0046237 0
4.5610003 -0.32370892 2.0027025 0
4.5560002 -0.33087182 2.0007815 0
4.5680003 -0.33921263 2.0053921 0
4.6070004 -0.37231073 2.0203764 0
4.6110001 -0.38021678 2.0219131 0
4.5710001 -0.25666314 1.9990211 0
4.5570002 -0.2634545 1.9936672 0
4.5570002 -0.27095291 1.9936672 0
4.5610003 -0.27867505 1.9951971 0
4.5650001 -0.28641155 1.9967265 0
4.5690002 -0.29416254 1.9982562 0
4.5720005 -0.30186659 1.9994036 0
4.5710001 -0.30932894 1.9990211 0
4.5660005 -0.31652796 1.9971091 0
4.5610003 -0.32370892 1.9951971 0
4.5560002 -0.33087182 1.9932849 0
4.5680003 -0.33921263 1.9978738 0
4.6070004 -0.37231073 2.0127876 0
4.6110001 -0.38021678 2.0143173 0
4.5710001 -0.25666314 1.9914973 0
4.5570002 -0.2634545 1.9861689 0
4.5570002 -0.27095291 1.9861689 0
4.5610003 -0.27867505 1.9876914 0
4.5650001 -0.28641155 1.9892137 0
4.5690002 -0.29416254 1.9907362 0
4.5720005 -0.30186659 1.9918782 0
4.5710001 -0.30932894 1.9914973 0
4.5660005 -0.31652796 1.9895945 0
4.5610003 -0.32370892 1.9876914 0
4.5560002 -0.33087182 1.9857883 0
4.5680003 -0.33921263 1.9903556 0
4.6070004 -0.37231073 2.0051992 0
4.6110001 -0.38021678 2.0067215 0
4.5710001 -0.25666314 1.9839736 0
4.5570002 -0.2634545 1.9786705 0
4.5570002 -0.27095291 1.9786705 0
4.5610003 -0.27867505 1.9801857 0
4.5650001 -0.28641155 1.9817008 0
4.5690002 -0.29416254 1.9832162 0
4.5720005 -0.30186659 1.9843526 0
4.5710001 -0.30932894 1.9839736 0
4.5660005 -0.31652796 1.9820799 0
4.5610003 -0.32370892 1.9801857 0
4.5560002 -0.33087182 1.9782916 0
4.5680003 -0.33921263 1.9828373 0
4.6070004 -0.37231073 1.9976104 0
4.6110001 -0.38021678 1.9991256 0
4.5710001 -0.25666314 1.97645 0
4.5570002 -0.2634545 1.971172 0
4.5570002 -0.27095291 1.971172 0
4.5610003 -0.27867505 1.9726801 0
4.5650001 -0.28641155 1.974188 0
4.5690002 -0.29416254 1.9756961 0
4.5720005 -0.30186659 1.976827 0
4.5710001 -0.30932894 1.97645 0
4.5660005 -0.31652796 1.9745651 0
4.5610003 -0.32370892 1.9726801 0
4.5560002 -0.33087182 1.970795 0
4.5680003 -0.33921263 1.975319 0
4.6070004 -0.37231073 1.9900219 0
4.6110001 -0.38021678 1.9915298 0
4.5570002 -0.27095291 1.9636736 0
4.5610003 -0.27867505 1.9651744 0
4.5650001 -0.28641155 1.9666752 0
4.5690002 -0.29416254 1.968176 0
4.5720005 -0.30186659 1.9693016 0
4.5710001 -0.30932894 1.9689263 0
4.5660005 -0.31652796 1.9670504 0
4.5610003 -0.32370892 1.9651744 0
4.5560002 -0.33087182 1.9632984 0
4.5680003 -0.33921263 1.9678007 0
4.6070004 -0.37231073 1.9824332 0
4.6110001 -0.38021678 1.9839339 0
4.5570002 -0.27095291 1.9561752 0
4.5610003 -0.27867505 1.9576688 0
4.5650001 -0.28641155 1.9591622 0
4.5690002 -0.29416254 1.9606559 0
4.5720005 -0.30186659 1.9617761 0
4.5710001 -0.30932894 1.9614025 0
4.5660005 -0.31652796 1.9595357 0
4.5610003 -0.32370892 1.9576688 0
4.5560002 -0.33087182 1.9558018 0
4.5680003 -0.33921263 1.9602826 0
4.6070004 -0.37231073 1.9748447 0
4.6110001 -0.38021678 1.9763381 0
4.5570002 -0.27095291 1.9486768 0
4.5610003 -0.27867505 1.9501632 0
4.5650001 -0.28641155 1.9516494 0
4.5690002 -0.29416254 1.9531357 0
4.5720005 -0.30186659 1.9542506 0
4.5710001 -0.30932894 1.9538789 0
4.5660005 -0.31652796 1.952021 0
4.5610003 -0.32370892 1.9501632 0
4.5560002 -0.33087182 1.9483052 0
4.5680003 -0.33921263 1.9527642 0
4.6070004 -0.37231073 1.9672559 0
4.6110001 -0.38021678 1.9687423 0
4.5570002 -0.27095291 1.9411783 0
4.5610003 -0.27867505 1.9426576 0
4.5650001 -0.28641155 1.9441365 0
4.5690002 -0.29416254 1.9456156 0
4.5720005 -0.30186659 1.9467251 0
4.5710001 -0.30932894 1.9463552 0
4.5660005 -0.31652796 1.9445065 0
4.5610003 -0.32370892 1.9426576 0
4.5560002 -0.33087182 1.9408085 0
4.5680003 -0.33921263 1.945246 0
4.6070004 -0.37231073 1.9596674 0
4.6110001 -0.38021678 1.9611465 0
4.5570002 -0.27095291 1.9336799 0
4.5610003 -0.27867505 1.9351518 0
4.5650001 -0.28641155 1.9366236 0
4.5690002 -0.29416254 1.9380956 0
4.5720005 -0.30186659 1.9391997 0
4.5710001 -0.30932894 1.9388314 0
4.5660005 -0.31652796 1.9369918 0
4.5610003 -0.32370892 1.9351518 0
4.5560002 -0.33087182 1.9333119 0
4.5680003 -0.33921263 1.9377277 0
4.6070004 -0.37231073 1.9520787 0
4.6110001 -0.38021678 1.9535506 0
4.5570002 -0.27095291 1.9261814 0
4.5610003 -0.27867505 1.9276462 0
4.5650001 -0.28641155 1.9291108 0
4.5690002 -0.29416254 1.9305755 0
4.5720005 -0.30186659 1.9316741 0
4.5710001 -0.30932894 1.9313079 0
4.5660005 -0.31652796 1.9294771 0
4.5610003 -0.32370892 1.9276462 0
4.5560002 -0.33087182 1.9258153 0
4.5680003 -0.33921263 1.9302094 0
4.6070004 -0.37231073 1.9444902 0
4.6110001 -0.38021678 1.9459548 0
4.5570002 -0.27095291 1.9186829 0
4.5610003 -0.27867505 1.9201405 0
4.5650001 -0.28641155 1.921598 0
4.5690002 -0.29416254 1.9230554 0
4.5720005 -0.30186659 1.9241487 0
4.5710001 -0.30932894 1.9237841 0
4.5660005 -0.31652796 1.9219625 0
4.5610003 -0.32370892 1.9201405 0
4.5560002 -0.33087182 1.9183186 0
4.5680003 -0.33921263 1.9226911 0
4.6070004 -0.37231073 1.9369015 0
4.6110001 -0.38021678 1.9383589 0
4.5570002 -0.27095291 1.9111845 0
4.5610003 -0.27867505 1.9126348 0
4.5650001 -0.28641155 1.914085 0
4.5690002 -0.29416254 1.9155354 0
4.5720005 -0.30186659 1.9166232 0
4.5710001 -0.30932894 1.9162605 0
4.5660005 -0.31652796 1.9144478 0
4.5610003 -0.32370892 1.9126348 0
4.5560002 -0.33087182 1.910822 0
4.5680003 -0.33921263 1.9151729 0
4.6070004 -0.37231073 1.9293129 0
4.6110001 -0.38021678 1.9307631 0
4.5580001 -0.2635068 1.9040469 0
4.5570002 -0.27095291 1.9036862 0
4.5610003 -0.27867505 1.9051293 0
4.5650001 -0.28641155 1.9065722 0
4.5690002 -0.29416254 1.9080154 0
4.5720005 -0.30186659 1.9090977 0
4.5710001 -0.30932894 1.9087368 0
4.5660005 -0.31652796 1.9069331 0
4.5610003 -0.32370892 1.9051293 0
4.5560002 -0.33087182 1.9033254 0
4.5680003 -0.33921263 1.9076545 0
4.6070004 -0.37231073 1.9217243 0
4.6110001 -0.38021678 1.9231672 0
4.5580001 -0.2635068 1.8965467 0
4.5570002 -0.27095291 1.8961878 0
4.5610003 -0.27867505 1.8976237 0
4.5650001 -0.28641155 1.8990594 0
4.5690002 -0.29416254 1.9004953 0
4.5720005 -0.30186659 1.9015722 0
4.5710001 -0.30932894 1.901213 0
4.5660005 -0.31652796 1.8994185 0
4.5610003 -0.32370892 1.8976237 0
4.5560002 -0.33087182 1.8958287 0
4.5680003 -0.33921263 1.9001364 0
4.6070004 -0.37231073 1.9141357 0
4.6110001 -0.38021678 1.9155715 0
4.5580001 -0.2635068 1.8890464 0
4.5570002 -0.27095291 1.8886893 0
4.5610003 -0.27867505 1.890118 0
4.5650001 -0.28641155 1.8915465 0
4.5690002 -0.29416254 1.8929752 0
4.5720005 -0.30186659 1.8940468 0
4.5710001 -0.30932894 1.8936894 0
4.5660005 -0.31652796 1.8919038 0
4.5610003 -0.32370892 1.890118 0
4.5560002 -0.33087182 1.8883321 0
4.5680003 -0.33921263 1.8926181 0
4.6070004 -0.37231073 1.9065471 0
4.6110001 -0.38021678 1.9079757 0
4.5580001 -0.2635068 1.8815461 0
4.5570002 -0.27095291 1.8811909 0
4.5610003 -0.27867505 1.8826123 0
4.5650001 -0.28641155 1.8840337 0
4.5690002 -0.29416254 1.8854551 0
4.5720005 -0.30186659 1.8865212 0
4.5710001 -0.30932894 1.8861657 0
4.5660005 -0.31652796 1.8843892 0
4.5610003 -0.32370892 1.8826123 0
4.5560002 -0.33087182 1.8808357 0
4.5680003 -0.33921263 1.8850998 0
4.6070004 -0.37231073 1.8989584 0
4.6110001 -0.38021678 1.9003798 0
4.5580001 -0.2635068 1.874046 0
4.5570002 -0.27095291 1.8736925 0
4.5610003 -0.27867505 1.8751067 0
4.5650001 -0.28641155 1.8765208 0
4.5690002 -0.29416254 1.8779351 0
4.5720005 -0.30186659 1.8789958 0
4.5710001 -0.30932894 1.8786421 0
4.5660005 -0.31652796 1.8768744 0
4.5610003 -0.32370892 1.8751067 0
4.5560002 -0.33087182 1.8733389 0
4.5680003 -0.33921263 1.8775815 0
4.6070004 -0.37231073 1.8913698 0
4.6110001 -0.38021678 1.892784 0
4.5580001 -0.2635068 1.8665457 0
4.5570002 -0.27095291 1.866194 0
4.5610003 -0.27867505 1.867601 0
4.5650001 -0.28641155 1.8690079 0
4.5680003 -0.294103 1.8700633 0
4.5720005 -0.30186659 1.8714703 0
4.5710001 -0.30932894 1.8711183 0
4.5660005 -0.31652796 1.8693597 0
4.5610003 -0.32370892 1.867601 0
4.5560002 -0.33087182 1.8658423 0
4.5680003 -0.33921263 1.8700633 0
4.6070004 -0.37231073 1.8837812 0
4.6110001 -0.38021678 1.8851881 0
4.5580001 -0.2635068 1.8590455 0
4.5570002 -0.27095291 1.8586956 0
4.5610003 -0.27867505 1.8600954 0
4.5650001 -0.28641155 1.8614951 0
4.5680003 -0.294103 1.862545 0
4.5720005 -0.30186659 1.8639448 0
4.5710001 -0.30932894 1.8635948 0
4.5660005 -0.31652796 1.8618451 0
4.5610003 -0.32370892 1.8600954 0
4.5560002 -0.33087182 1.8583456 0
4.5680003 -0.33921263 1.862545 0
4.6070004 -0.37231073 1.8761926 0
4.6110001 -0.38021678 1.8775923 0
4.5580001 -0.2635068 1.8515453 0
4.5570002 -0.27095291 1.8511971 0
4.5610003 -0.27867505 1.8525897 0
4.5650001 -0.28641155 1.8539822 0
4.5680003 -0.294103 1.8550267 0
4.5720005 -0.30186659 1.8564193 0
4.5710001 -0.30932894 1.856071 0
4.5660005 -0.31652796 1.8543305 0
4.5610003 -0.32370892 1.8525897 0
4.5560002 -0.33087182 1.850849 0
4.5680003 -0.33921263 1.8550267 0
4.6070004 -0.37231073 1.8686039 0
4.6110001 -0.38021678 1.8699964 0
4.5580001 -0.2635068 1.844045 0
4.5570002 -0.27095291 1.8436987 0
4.5610003 -0.27867505 1.8450841 0
4.5650001 -0.28641155 1.8464693 0
4.5680003 -0.294103 1.8475084 0
4.5720005 -0.30186659 1.8488938 0
4.5710001 -0.30932894 1.8485473 0
4.5660005 -0.31652796 1.8468158 0
4.5610003 -0.32370892 1.8450841 0
4.5560002 -0.33087182 1.8433524 0
4.5680003 -0.33921263 1.8475084 0
4.6070004 -0.37231073 1.8610153 0
4.6100001 -0.38013744 1.8620542 0
4.5580001 -0.2635068 1.8365448 0
4.5570002 -0.27095291 1.8362002 0
4.5610003 -0.27867505 1.8375784 0
4.5650001 -0.28641155 1.8389565 0
4.5680003 -0.294103 1.8399901 0
4.5720005 -0.30186659 1.8413683 0
4.5710001 -0.30932894 1.8410237 0
4.5660005 -0.31652796 1.8393011 0
4.5610003 -0.32370892 1.8375784 0
4.5560002 -0.33087182 1.8358557 0
4.5680003 -0.33921263 1.8399901 0
4.6070004 -0.37231073 1.8534267 0
4.6100001 -0.38013744 1.8544602 0
4.5580001 -0.2635068 1.8290446 0
4.5570002 -0.27095291 1.8287019 0
4.5610003 -0.27867505 1.8300728 0
4.5650001 -0.28641155 1.8314435 0
4.5680003 -0.294103 1.8324718 0
4.5720005 -0.30186659 1.8338428 0
4.5710001 -0.30932894 1.8334999 0
4.5660005 -0.31652796 1.8317864 0
4.5610003 -0.32370892 1.8300728 0
4.5560002 -0.33087182 1.8283591 0
4.5680003 -0.33921263 1.8324718 0
4.6070004 -0.37231073 1.8458382 0
4.6100001 -0.38013744 1.8468663 0
4.5580001 -0.2635068 1.8215443 0
4.5570002 -0.27095291 1.8212035 0
4.5610003 -0.27867505 1.8225672 0
4.5650001 -0.28641155 1.8239307 0
4.5680003 -0.294103 1.8249536 0
4.5720005 -0.30186659 1.8263173 0
4.5710001 -0.30932894 1.8259764 0
4.5660005 -0.31652796 1.8242718 0
4.5610003 -0.32370892 1.8225672 0
4.5560002 -0.33087182 1.8208625 0
4.5680003 -0.33921263 1.8249536 0
4.6070004 -0.37231073 1.8382494 0
4.6100001 -0.38013744 1.8392721 0
4.5580001 -0.2635068 1.814044 0
4.5570002 -0.27095291 1.813705 0
4.5610003 -0.27867505 1.8150616 0
4.5650001 -0.28641155 1.8164179 0
4.5680003 -0.294103 1.8174354 0
4.5720005 -0.30186659 1.8187919 0
4.5710001 -0.30932894 1.8184526 0
4.5660005 -0.31652796 1.8167571 0
4.5610003 -0.32370892 1.8150616 0
4.5560002 -0.33087182 1.8133658 0
4.5680003 -0.33921263 1.8174354 0
4.6070004 -0.37231073 1.8306609 0
4.6100001 -0.38013744 1.831678 0
4.5580001 -0.2635068 1.8065439 0
4.5570002 -0.27095291 1.8062066 0
4.5610003 -0.27867505 1.8075559 0
4.5650001 -0.28641155 1.808905 0
4.5680003 -0.294103 1.809917 0
4.5720005 -0.30186659 1.8112663 0
4.5710001 -0.30932894 1.8109289 0
4.5660005 -0.31652796 1.8092425 0
4.5610003 -0.32370892 1.8075559 0
4.5560002 -0.33087182 1.8058692 0
4.5680003 -0.33921263 1.809917 0
4.6070004 -0.37231073 1.8230722 0
4.6100001 -0.38013744 1.8240842 0
4.5580001 -0.2635068 1.7990437 0
4.5570002 -0.27095291 1.7987082 0
4.5610003 -0.27867505 1.8000503 0
4.5650001 -0.28641155 1.8013922 0
4.5680003 -0.294103 1.8023988 0
4.5720005 -0.30186659 1.8037409 0
4.5710001 -0.30932894 1.8034053 0
4.5660005 -0.31652796 1.8017279 0
4.5610003 -0.32370892 1.8000503 0
4.5560002 -0.33087182 1.7983727 0
4.5680003 -0.33921263 1.8023988 0
4.6070004 -0.37231073 1.8154837 0
4.6100001 -0.38013744 1.8164901 0
4.5580001 -0.2635068 1.7915434 0
4.5570002 -0.27095291 1.7912097 0
4.5610003 -0.27867505 1.7925446 0
4.5650001 -0.28641155 1.7938793 0
4.5680003 -0.294103 1.7948805 0
4.5720005 -0.30186659 1.7962154 0
4.5710001 -0.30932894 1.7958815 0
4.5660005 -0.31652796 1.7942132 0
4.5610003 -0.32370892 1.7925446 0
4.5560002 -0.33087182 1.790876 0
4.5680003 -0.33921263 1.7948805 0
4.6070004 -0.37231073 1.8078949 0
4.6100001 -0.38013744 1.8088961 0
4.5580001 -0.2635068 1.7840432 0
4.5570002 -0.27095291 1.7837112 0
4.5610003 -0.27867505 1.7850389 0
4.5650001 -0.28641155 1.7863665 0
4.5680003 -0.294103 1.7873622 0
4.5720005 -0.30186659 1.7886899 0
4.5710001 -0.30932894 1.7883579 0
4.5660005 -0.31652796 1.7866985 0
4.5610003 -0.32370892 1.7850389 0
4.5560002 -0.33087182 1.7833794 0
4.5680003 -0.33921263 1.7873622 0
4.6070004 -0.37231073 1.8003064 0
4.6100001 -0.38013744 1.801302 0
4.5580001 -0.2635068 1.7765429 0
4.5570002 -0.27095291 1.7762128 0
4.5610003 -0.27867505 1.7775333 0
4.5650001 -0.28641155 1.7788537 0
4.5680003 -0.294103 1.7798439 0
4.5720005 -0.30186659 1.7811644 0
4.5710001 -0.30932894 1.7808342 0
4.5660005 -0.31652796 1.7791837 0
4.5610003 -0.32370892 1.7775333 0
4.5560002 -0.33087182 1.7758828 0
4.5680003 -0.33921263 1.7798439 0
4.6070004 -0.37231073 1.7927177 0
4.6100001 -0.38013744 1.793708 0
4.5580001 -0.2635068 1.7690426 0
4.5570002 -0.27095291 1.7687144 0
4.5610003 -0.27867505 1.7700276 0
4.5650001 -0.28641155 1.7713407 0
4.5680003 -0.294103 1.7723258 0
4.5720005 -0.30186659 1.773639 0
4.5710001 -0.30932894 1.7733105 0
4.5660005 -0.31652796 1.7716691 0
4.5610003 -0.32370892 1.7700276 0
4.5560002 -0.33087182 1.7683861 0
4.5680003 -0.33921263 1.7723258 0
4.6070004 -0.37231073 1.7851292 0
4.6100001 -0.38013744 1.786114 0
4.5580001 -0.2635068 1.7615424 0
4.5570002 -0.27095291 1.7612159 0
4.5610003 -0.27867505 1.762522 0
4.5650001 -0.28641155 1.7638278 0
4.5680003 -0.294103 1.7648073 0
4.5720005 -0.30186659 1.7661134 0
4.5710001 -0.30932894 1.7657868 0
4.5660005 -0.31652796 1.7641546 0
4.5610003 -0.32370892 1.762522 0
4.5560002 -0.33087182 1.7608895 0
4.5680003 -0.33921263 1.7648073 0
4.6070004 -0.37231073 1.7775404 0
4.6100001 -0.38013744 1.7785199 0
4.5580001 -0.2635068 1.7540423 0
4.5570002 -0.27095291 1.7537175 0
4.5610003 -0.27867505 1.7550163 0
4.5650001 -0.28641155 1.756315 0
4.5680003 -0.294103 1.7572892 0
4.5720005 -0.30186659 1.758588 0
4.5710001 -0.30932894 1.7582632 0
4.5660005 -0.31652796 1.7566398 0
4.5610003 -0.32370892 1.7550163 0
4.5560002 -0.33087182 1.7533928 0
4.5680003 -0.33921263 1.7572892 0
4.6070004 -0.37231073 1.7699519 0
4.6100001 -0.38013744 1.7709259 0
4.5580001 -0.2635068 1.746542 0
4.5570002 -0.27095291 1.7462192 0
4.5610003 -0.27867505 1.7475107 0
4.5650001 -0.28641155 1.7488021 0
4.5680003 -0.294103 1.7497709 0
4.5720005 -0.30186659 1.7510625 0
4.5710001 -0.30932894 1.7507395 0
4.5660005 -0.31652796 1.7491251 0
4.5610003 -0.32370892 1.7475107 0
4.5560002 -0.33087182 1.7458962 0
4.5680003 -0.33921263 1.7497709 0
4.6070004 -0.37231073 1.7623632 0
4.6100001 -0.38013744 1.7633319 0
4.5580001 -0.2635068 1.7390418 0
4.5570002 -0.27095291 1.7387207 0
4.5610003 -0.27867505 1.740005 0
4.5650001 -0.28641155 1.7412893 0
4.5680003 -0.294103 1.7422526 0
4.5720005 -0.30186659 1.7435369 0
4.5710001 -0.30932894 1.7432157 0
4.5660005 -0.31652796 1.7416105 0
4.5610003 -0.32370892 1.740005 0
4.5560002 -0.33087182 1.7383996 0
4.5680003 -0.33921263 1.7422526 0
4.6070004 -0.37231073 1.7547747 0
4.6100001 -0.38013744 1.7557378 0
4.5580001 -0.2635068 1.7315415 0
4.5570002 -0.27095291 1.7312223 0
4.5610003 -0.27867505 1.7324995 0
4.5650001 -0.28641155 1.7337765 0
4.5680003 -0.294103 1.7347343 0
4.5720005 -0.30186659 1.7360115 0
4.5710001 -0.30932894 1.7356921 0
4.5660005 -0.31652796 1.7340958 0
4.5610003 -0.32370892 1.7324995 0
4.5560002 -0.33087182 1.7309029 0
4.5680003 -0.33921263 1.7347343 0
4.6070004 -0.37231073 1.7471861 0
4.6100001 -0.38013744 1.7481437 0
4.5580001 -0.2635068 1.7240412 0
4.5570002 -0.27095291 1.7237239 0
4.5610003 -0.27867505 1.7249938 0
4.5650001 -0.28641155 1.7262635 0
4.5680003 -0.294103 1.7272161 0
4.5720005 -0.30186659 1.7284861 0
4.5710001 -0.30932894 1.7281684 0
4.5660005 -0.31652796 1.7265811 0
4.5610003 -0.32370892 1.7249938 0
4.5560002 -0.33087182 1.7234064 0
4.5680003 -0.33921263 1.7272161 0
4.6070004 -0.37231073 1.7395974 0
4.6100001 -0.38013744 1.7405498 0
4.5580001 -0.2635068 1.7165411 0
4.5570002 -0.27095291 1.7162254 0
4.5610003 -0.27867505 1.7174882 0
4.5650001 -0.28641155 1.7187507 0
4.5680003 -0.294103 1.7196977 0
4.5720005 -0.30186659 1.7209605 0
4.5710001 -0.30932894 1.7206447 0
4.5660005 -0.31652796 1.7190665 0
4.5610003 -0.32370892 1.7174882 0
4.5560002 -0.33087182 1.7159098 0
4.5680003 -0.33921263 1.7196977 0
4.6070004 -0.37231073 1.7320088 0
4.6100001 -0.38013744 1.7329557 0
4.5580001 -0.2635068 1.7090408 0
4.5570002 -0.27095291 1.7087269 0
4.5610003 -0.27867505 1.7099825 0
4.5650001 -0.28641155 1.7112379 0
4.5680003 -0.294103 1.7121795 0
4.5720005 -0.30186659 1.7134351 0
4.5710001 -0.30932894 1.7131211 0
4.5660005 -0.31652796 1.7115518 0
4.5610003 -0.32370892 1.7099825 0
4.5560002 -0.33087182 1.7084131 0
4.5680003 -0.33921263 1.7121795 0
4.6070004 -0.37231073 1.7244202 0
4.6100001 -0.38013744 1.7253616 0
4.5580001 -0.2635068 1.7015406 0
4.5570002 -0.27095291 1.7012285 0
4.5610003 -0.27867505 1.7024767 0
4.5650001 -0.28641155 1.703725 0
4.5680003 -0.294103 1.7046613 0
4.5720005 -0.30186659 1.7059095 0
4.5710001 -0.30932894 1.7055974 0
4.5660005 -0.31652796 1.7040372 0
4.5610003 -0.32370892 1.7024767 0
4.5560002 -0.33087182 1.7009165 0
4.5680003 -0.33921263 1.7046613 0
4.6070004 -0.37231073 1.7168316 0
4.6100001 -0.38013744 1.7177677 0
4.5580001 -0.2635068 1.6940404 0
4.5570002 -0.27095291 1.6937301 0
4.5610003 -0.27867505 1.6949711 0
4.5650001 -0.28641155 1.6962122 0
4.5680003 -0.294103 1.697143 0
4.5720005 -0.30186659 1.698384 0
4.5710001 -0.30932894 1.6980736 0
4.5660005 -0.31652796 1.6965225 0
4.5610003 -0.32370892 1.6949711 0
4.5560002 -0.33087182 1.6934199 0
4.5680003 -0.33921263 1.697143 0
4.6070004 -0.37231073 1.7092429 0
4.6100001 -0.38013744 1.7101736 0
4.5580001 -0.2635068 1.6865401 0
4.5570002 -0.27095291 1.6862316 0
4.5610003 -0.27867505 1.6874655 0
4.5650001 -0.28641155 1.6886992 0
4.5680003 -0.294103 1.6896247 0
4.5720005 -0.30186659 1.6908585 0
4.5710001 -0.30932894 1.69055 0
4.5660005 -0.31652796 1.6890078 0
4.5610003 -0.32370892 1.6874655 0
4.5560002 -0.33087182 1.6859232 0
4.5680003 -0.33921263 1.6896247 0
4.6070004 -0.37231073 1.7016543 0
4.6100001 -0.38013744 1.7025796 0
4.5580001 -0.2635068 1.6790398 0
4.5570002 -0.27095291 1.6787332 0
4.5610003 -0.27867505 1.6799599 0
4.5650001 -0.28641155 1.6811864 0
4.5680003 -0.294103 1.6821065 0
4.5720005 -0.30186659 1.683333 0
4.5710001 -0.30932894 1.6830263 0
4.5660005 -0.31652796 1.6814932 0
4.5610003 -0.32370892 1.6799599 0
4.5560002 -0.33087182 1.6784266 0
4.5680003 -0.33921263 1.6821065 0
4.6070004 -0.37231073 1.6940657 0
4.6100001 -0.38013744 1.6949855 0
4.5580001 -0.2635068 1.6715397 0
4.5570002 -0.27095291 1.6712348 0
4.5610003 -0.27867505 1.6724542 0
4.5650001 -0.28641155 1.6736735 0
4.5680003 -0.294103 1.6745881 0
4.5720005 -0.30186659 1.6758076 0
4.5710001 -0.30932894 1.6755025 0
4.5660005 -0.31652796 1.6739786 0
4.5610003 -0.32370892 1.6724542 0
4.5560002 -0.33087182 1.67093 0
4.5680003 -0.33921263 1.6745881 0
4.6070004 -0.37231073 1.6864771 0
4.6100001 -0.38013744 1.6873915 0
4.5580001 -0.2635068 1.6640394 0
4.5570002 -0.27095291 1.6637365 0
4.5610003 -0.27867505 1.6649486 0
4.5650001 -0.28641155 1.6661606 0
4.5680003 -0.294103 1.6670699 0
4.5720005 -0.30186659 1.668282 0
4.5710001 -0.30932894 1.667979 0
4.5660005 -0.31652796 1.6664639 0
4.5610003 -0.32370892 1.6649486 0
4.5560002 -0.33087182 1.6634333 0
4.5680003 -0.33921263 1.6670699 0
4.6070004 -0.37231073 1.6788884 0
4.6100001 -0.38013744 1.6797975 0
4.5580001 -0.2635068 1.6565392 0
4.5570002 -0.27095291 1.656238 0
4.5610003 -0.27867505 1.6574429 0
4.5650001 -0.28641155 1.6586478 0
4.5680003 -0.294103 1.6595516 0
4.5720005 -0.30186659 1.6607566 0
4.5710001 -0.30932894 1.6604552 0
4.5660005 -0.31652796 1.6589491 0
4.5610003 -0.32370892 1.6574429 0
4.5560002 -0.33087182 1.6559367 0
4.5680003 -0.33921263 1.6595516 0
4.6070004 -0.37231073 1.6712998 0
4.6100001 -0.38013744 1.6722034 0
4.5580001 -0.2635068 1.649039 0
4.5570002 -0.27095291 1.6487396 0
4.5610003 -0.27867505 1.6499373 0
4.5650001 -0.28641155 1.651135 0
4.5680003 -0.294103 1.6520333 0
4.5720005 -0.30186659 1.6532311 0
4.5710001 -0.30932894 1.6529316 0
4.5660005 -0.31652796 1.6514344 0
4.5610003 -0.32370892 1.6499373 0
4.5560002 -0.33087182 1.64844 0
4.5680003 -0.33921263 1.6520333 0
4.6070004 -0.37231073 1.6637112 0
4.6100001 -0.38013744 1.6646094 0
4.5580001 -0.2635068 1.6415387 0
4.5570002 -0.27095291 1.6412411 0
4.5610003 -0.27867505 1.6424317 0
4.5650001 -0.28641155 1.643622 0
4.5680003 -0.294103 1.644515 0
4.5720005 -0.30186659 1.6457056 0
4.5710001 -0.30932894 1.6454079 0
4.5660005 -0.31652796 1.6439198 0
4.5610003 -0.32370892 1.6424317 0
4.5560002 -0.33087182 1.6409435 0
4.5680003 -0.33921263 1.644515 0
4.6070004 -0.37231073 1.6561226 0
4.6100001 -0.38013744 1.6570154 0
4.5580001 -0.2635068 1.6340384 0
4.5570002 -0.27095291 1.6337426 0
4.5610003 -0.27867505 1.6349261 0
4.5650001 -0.28641155 1.6361092 0
4.5680003 -0.294103 1.6369969 0
4.5720005 -0.30186659 1.6381801 0
4.5710001 -0.30932894 1.6378841 0
4.5660005 -0.31652796 1.6364051 0
4.5610003 -0.32370892 1.6349261 0
4.5560002 -0.33087182 1.6334469 0
4.5680003 -0.33921263 1.6369969 0
4.6070004 -0.37231073 1.6485339 0
4.6100001 -0.38013744 1.6494213 0
4.5580001 -0.2635068 1.6265383 0
4.5570002 -0.27095291 1.6262442 0
4.5610003 -0.27867505 1.6274204 0
4.5650001 -0.28641155 1.6285964 0
4.5680003 -0.294103 1.6294785 0
4.5720005 -0.30186659 1.6306547 0
4.5710001 -0.30932894 1.6303605 0
4.5660005 -0.31652796 1.6288905 0
4.5610003 -0.32370892 1.6274204 0
4.5560002 -0.33087182 1.6259502 0
4.5680003 -0.33921263 1.6294785 0
4.6070004 -0.37231073 1.6409453 0
4.6100001 -0.38013744 1.6418272 0
4.5580001 -0.2635068 1.619038 0
4.5570002 -0.27095291 1.6187458 0
4.5610003 -0.27867505 1.6199147 0
4.5650001 -0.28641155 1.6210835 0
4.5680003 -0.294103 1.6219603 0
4.5720005 -0.30186659 1.6231291 0
4.5710001 -0.30932894 1.6228368 0
4.5660005 -0.31652796 1.6213759 0
4.5610003 -0.32370892 1.6199147 0
4.5560002 -0.33087182 1.6184536 0
4.5680003 -0.33921263 1.6219603 0
4.6070004 -0.37231073 1.6333567 0
4.6100001 -0.38013744 1.6342334 0
4.5580001 -0.2635068 1.6115377 0
4.5570002 -0.27095291 1.6112474 0
4.5610003 -0.27867505 1.612409 0
4.5650001 -0.28641155 1.6135707 0
4.5680003 -0.294103 1.614442 0
4.5720005 -0.30186659 1.6156037 0
4.5710001 -0.30932894 1.6153132 0
4.5660005 -0.31652796 1.6138612 0
4.5610003 -0.32370892 1.612409 0
4.5560002 -0.33087182 1.610957 0
4.5680003 -0.33921263 1.614442 0
4.6070004 -0.37231073 1.6257681 0
4.6100001 -0.38013744 1.6266392 0
4.5580001 -0.2635068 1.6040375 0
4.5570002 -0.27095291 1.6037489 0
4.5610003 -0.27867505 1.6049033 0
4.5650001 -0.28641155 1.6060579 0
4.5680003 -0.294103 1.6069236 0
4.5720005 -0.30186659 1.6080782 0
4.5710001 -0.30932894 1.6077894 0
4.5660005 -0.31652796 1.6063465 0
4.5610003 -0.32370892 1.6049033 0
4.5560002 -0.33087182 1.6034603 0
4.5680003 -0.33921263 1.6069236 0
4.6070004 -0.37231073 1.6181794 0
4.6100001 -0.38013744 1.6190451 0
4.5580001 -0.2635068 1.5965374 0
4.5570002 -0.27095291 1.5962505 0
4.5610003 -0.27867505 1.5973978 0
4.5650001 -0.28641155 1.598545 0
4.5680003 -0.294103 1.5994054 0
4.5720005 -0.30186659 1.6005527 0
4.5710001 -0.30932894 1.6002659 0
4.5660005 -0.31652796 1.5988318 0
4.5610003 -0.32370892 1.5973978 0
4.5560002 -0.33087182 1.5959637 0
4.5680003 -0.33921263 1.5994054 0
4.6070004 -0.37231073 1.6105908 0
4.6100001 -0.38013744 1.6114511 0
4.5580001 -0.2635068 1.5890371 0
4.5570002 -0.27095291 1.5887522 0
4.5610003 -0.27867505 1.5898921 0
4.5650001 -0.28641155 1.591032 0
4.5680003 -0.294103 1.5918871 0
4.5720005 -0.30186659 1.5930272 0
4.5710001 -0.30932894 1.5927421 0
4.5660005 -0.31652796 1.5913172 0
4.5610003 -0.32370892 1.5898921 0
4.5560002 -0.33087182 1.5884671 0
4.5680003 -0.33921263 1.5918871 0
4.6070004 -0.37231073 1.6030022 0
4.6100001 -0.38013744 1.6038572 0
4.5580001 -0.2635068 1.5815368 0
4.5570002 -0.27095291 1.5812536 0
4.5610003 -0.27867505 1.5823865 0
4.5650001 -0.28641155 1.5835191 0
4.5680003 -0.294103 1.5843688 0
4.5720005 -0.30186659 1.5855018 0
4.5710001 -0.30932894 1.5852184 0
4.5660005 -0.31652796 1.5838026 0
4.5610003 -0.32370892 1.5823865 0
4.5560002 -0.33087182 1.5809704 0
4.5670004 -0.33914229 1.5840857 0
4.6070004 -0.37231073 1.5954136 0
4.6100001 -0.38013744 1.5962632 0
4.5580001 -0.2635068 1.5740366 0
4.5570002 -0.27095291 1.5737553 0
4.5610003 -0.27867505 1.5748808 0
4.5650001 -0.28641155 1.5760063 0
4.5680003 -0.294103 1.5768505 0
4.5720005 -0.30186659 1.5779762 0
4.5710001 -0.30932894 1.5776948 0
4.5660005 -0.31652796 1.5762879 0
4.5610003 -0.32370892 1.5748808 0
4.5560002 -0.33087182 1.5734738 0
4.5670004 -0.33914229 1.5765692 0
4.6070004 -0.37231073 1.5878249 0
4.6100001 -0.38013744 1.5886691 0
4.5580001 -0.2635068 1.5665363 0
4.5570002 -0.27095291 1.5662568 0
4.5610003 -0.27867505 1.5673752 0
4.5650001 -0.28641155 1.5684935 0
4.5680003 -0.294103 1.5693324 0
4.5720005 -0.30186659 1.5704507 0
4.5710001 -0.30932894 1.570171 0
4.5660005 -0.31652796 1.5687732 0
4.5610003 -0.32370892 1.5673752 0
4.5560002 -0.33087182 1.5659772 0
4.5670004 -0.33914229 1.5690528 0
4.6070004 -0.37231073 1.5802363 0
4.6100001 -0.38013744 1.5810751 0
4.5580001 -0.2635068 1.559036 0
4.5570002 -0.27095291 1.5587584 0
4.5610003 -0.27867505 1.5598696 0
4.5650001 -0.28641155 1.5609806 0
4.5680003 -0.294103 1.561814 0
4.5720005 -0.30186659 1.5629252 0
4.5710001 -0.30932894 1.5626473 0
4.5660005 -0.31652796 1.5612586 0
4.5610003 -0.32370892 1.5598696 0
4.5560002 -0.33087182 1.5584806 0
4.5670004 -0.33914229 1.5615362 0
4.6060004 -0.37223318 1.5723699 0
4.6100001 -0.38013744 1.5734811 0
4.5580001 -0.2635068 1.551536 0
4.5570002 -0.27095291 1.5512599 0
4.5610003 -0.27867505 1.552364 0
4.5650001 -0.28641155 1.5534678 0
4.5680003 -0.294103 1.5542958 0
4.5720005 -0.30186659 1.5553998 0
4.5710001 -0.30932894 1.5551237 0
4.5660005 -0.31652796 1.5537438 0
4.5610003 -0.32370892 1.552364 0
4.5560002 -0.33087182 1.550984 0
4.5670004 -0.33914229 1.5540198 0
4.6060004 -0.37223318 1.5647832 0
4.6100001 -0.38013744 1.565887 0
4.5580001 -0.2635068 1.5440357 0
4.5570002 -0.27095291 1.5437615 0
4.5610003 -0.27867505 1.5448582 0
4.5650001 -0.28641155 1.5459549 0
4.5680003 -0.294103 1.5467775 0
4.5720005 -0.30186659 1.5478742 0
4.5710001 -0.30932894 1.5476 0
4.5660005 -0.31652796 1.5462292 0
4.5610003 -0.32370892 1.5448582 0
4.5560002 -0.33087182 1.5434873 0
4.5670004 -0.33914229 1.5465033 0
4.6060004 -0.37223318 1.5571964 0
4.6100001 -0.38013744 1.5582929 0
4.5580001 -0.2635068 1.5365354 0
4.5570002 -0.27095291 1.5362631 0
4.5610003 -0.27867505 1.5373526 0
4.5650001 -0.28641155 1.538442 0
4.5680003 -0.294103 1.5392592 0
4.5720005 -0.30186659 1.5403488 0
4.5710001 -0.30932894 1.5400763 0
4.5660005 -0.31652796 1.5387145 0
4.5610003 -0.32370892 1.5373526 0
4.5560002 -0.33087182 1.5359907 0
4.5670004 -0.33914229 1.5389869 0
4.6060004 -0.37223318 1.5496095 0
4.6100001 -0.38013744 1.550699 0
4.5580001 -0.2635068 1.5290352 0
4.5570002 -0.27095291 1.5287646 0
4.5610003 -0.27867505 1.5298469 0
4.5650001 -0.28641155 1.5309292 0
4.5680003 -0.294103 1.5317409 0
4.5720005 -0.30186659 1.5328233 0
4.5710001 -0.30932894 1.5325526 0
4.5660005 -0.31652796 1.5311998 0
4.5610003 -0.32370892 1.5298469 0
4.5560002 -0.33087182 1.5284941 0
4.5670004 -0.33914229 1.5314704 0
4.6060004 -0.37223318 1.5420227 0
4.6100001 -0.38013744 1.5431049 0
4.5580001 -0.2635068 1.5215349 0
4.5570002 -0.27095291 1.5212662 0
4.5610003 -0.27867505 1.5223413 0
4.5650001 -0.28641155 1.5234164 0
4.5680003 -0.294103 1.5242227 0
4.5720005 -0.30186659 1.5252978 0
4.5710001 -0.30932894 1.5250289 0
4.5660005 -0.31652796 1.5236852 0
4.5610003 -0.32370892 1.5223413 0
4.5560002 -0.33087182 1.5209974 0
4.5670004 -0.33914229 1.5239539 0
4.6060004 -0.37223318 1.5344359 0
4.6100001 -0.38013744 1.5355108 0
4.5580001 -0.2635068 1.5140346 0
4.5570002 -0.27095291 1.5137678 0
4.5610003 -0.27867505 1.5148357 0
4.5650001 -0.28641155 1.5159035 0
4.5680003 -0.294103 1.5167043 0
4.5720005 -0.30186659 1.5177723 0
4.5710001 -0.30932894 1.5175052 0
4.5660005 -0.31652796 1.5161705 0
4.5610003 -0.32370892 1.5148357 0
4.5560002 -0.33087182 1.5135008 0
4.5670004 -0.33914229 1.5164375 0
4.6060004 -0.37223318 1.526849 0
4.6100001 -0.38013744 1.5279169 0
4.5580001 -0.2635068 1.5065345 0
4.5570002 -0.27095291 1.5062693 0
4.5610003 -0.27867505 1.5073301 0
4.5650001 -0.28641155 1.5083907 0
4.5680003 -0.294103 1.5091861 0
4.5720005 -0.30186659 1.5102469 0
4.5710001 -0.30932894 1.5099816 0
4.5660005 -0.31652796 1.5086558 0
4.5610003 -0.32370892 1.5073301 0
4.5560002 -0.33087182 1.5060042 0
4.5670004 -0.33914229 1.508921 0
4.6060004 -0.37223318 1.5192622 0
4.6100001 -0.38013744 1.5203228 0
