# .PCD v0.7 - Point Cloud Data file format
VERSION 0.7
FIELDS x y z intensity
SIZE 4 4 4 4
TYPE F F F F
COUNT 1 1 1 1
WIDTH 1441
HEIGHT 1
VIEWPOINT 0 0 0 1 0 0 0
POINTS 1441
DATA ascii
4.086 0.59228837 0.74973953 0
4.0599999 0.58118409 0.7473008 0
4.0480003 0.5725475 0.74617523 0
4.0420003 0.56496066 0.74561238 0
4.0370002 0.5575614 0.74514341 0
4.0350003 0.55067271 0.7449559 0
4.0339999 0.54395348 0.74486208 0
4.033 0.53723794 0.74476826 0
4.033 0.53068471 0.74476826 0
4.0350003 0.52444535 0.7449559 0
4.0370002 0.51819873 0.74514341 0
4.04 0.51209825 0.74542481 0
4.0440001 0.5061385 0.74580002 0
4.0490003 0.50031394 0.74626899 0
4.0560002 0.49476731 0.74692559 0
4.0630002 0.48919529 0.7475822 0
4.0710001 0.48374242 0.74833262 0
4.0780001 0.47811812 0.74898916 0
3.9250002 0.44995707 0.73463809 0
3.9200003 0.44290417 0.73416907 0
3.9140003 0.43573228 0.73360628 0
3.9090002 0.42871723 0.73313725 0
3.9040003 0.42172027 0.73266828 0
3.9100003 0.41618979 0.73323107 0
3.9170003 0.41076753 0.73388767 0
3.9250002 0.40544811 0.73463809 0
3.9320002 0.39997354 0.73529464 0
3.9390004 0.39447376 0.73595124 0
3.9470003 0.38907135 0.73670161 0
3.9540002 0.3835192 0.73735821 0
3.9620004 0.37806088 0.73810863 0
3.9690003 0.37245646 0.73876518 0
3.9770002 0.3669422 0.73951554 0
3.9840002 0.36128545 0.74017215 0
3.9920003 0.3557153 0.74092257 0
3.9990003 0.35000625 0.74157912 0
4.007 0.34438017 0.74232948 0
4.0150003 0.33872524 0.7430799 0
4.0220003 0.33293682 0.74373651 0
4.0300002 0.32722595 0.74448687 0
4.0380001 0.32148623 0.74523723 0
4.046 0.31571767 0.74598765 0
4.0540004 0.30992022 0.74673802 0
4.0610003 0.30399835 0.74739456 0
4.0690002 0.29814497 0.74814498 0
4.0770001 0.29226273 0.74889541 0
4.085 0.28635168 0.74964571 0
4.0929999 0.28041172 0.75039613 0
4.1010003 0.27444291 0.75114655 0
4.1090002 0.26844525 0.75189692 0
4.1170001 0.26241875 0.75264728 0
4.1259999 0.25644451 0.75349146 0
4.1340003 0.25035846 0.75424182 0
4.1420002 0.24424356 0.75499225 0
4.1500001 0.23809981 0.75574267 0
4.1589999 0.2320011 0.75658679 0
4.1670003 0.22579783 0.75733721 0
4.1750002 0.21956566 0.75808752 0
4.184 0.21337318 0.75893176 0
4.1920004 0.20708153 0.75968218 0
4.2010002 0.20082588 0.7605263 0
4.2090001 0.19447468 0.76127672 0
4.1140003 0.65743113 0.74566656 0
4.1040001 0.64885581 0.74474657 0
4.098 0.6410597 0.74419463 0
4.0940003 0.63365328 0.74382663 0
4.0910001 0.62644345 0.74355066 0
4.0890002 0.61942488 0.74336672 0
4.0880003 0.61259204 0.74327469 0
4.0870004 0.60576284 0.74318272 0
4.0880003 0.59928715 0.74327469 0
4.0890002 0.59280783 0.74336672 0
4.0599999 0.58118409 0.74069881 0
4.0480003 0.5725475 0.73959494 0
4.0420003 0.56496066 0.739043 0
4.0370002 0.5575614 0.73858297 0
4.0350003 0.55067271 0.73839903 0
4.0339999 0.54395348 0.738307 0
4.033 0.53723794 0.73821497 0
4.033 0.53068471 0.73821497 0
4.0350003 0.52444535 0.73839903 0
4.0370002 0.51819873 0.73858297 0
4.04 0.51209825 0.73885894 0
4.0440001 0.5061385 0.73922694 0
4.0490003 0.50031394 0.73968697 0
4.0560002 0.49476731 0.74033087 0
4.0630002 0.48919529 0.74097484 0
4.0710001 0.48374242 0.74171078 0
4.0780001 0.47811812 0.74235475 0
3.9250002 0.44995707 0.72827965 0
3.9200003 0.44290417 0.72781968 0
3.9140003 0.43573228 0.72726768 0
3.9090002 0.42871723 0.72680771 0
3.9040003 0.42172027 0.7263478 0
3.9100003 0.41618979 0.72689974 0
3.9170003 0.41076753 0.72754371 0
3.9250002 0.40544811 0.72827965 0
3.9320002 0.39997354 0.72892356 0
3.9390004 0.39447376 0.72956753 0
3.9470003 0.38907135 0.73030353 0
3.9540002 0.3835192 0.73094749 0
3.9620004 0.37806088 0.73168343 0
3.9690003 0.37245646 0.7323274 0
3.9770002 0.3669422 0.73306334 0
3.9840002 0.36128545 0.73370731 0
3.9920003 0.3557153 0.73444331 0
3.9990003 0.35000625 0.73508722 0
4.007 0.34438017 0.73582315 0
4.0150003 0.33872524 0.73655915 0
4.0220003 0.33293682 0.73720312 0
4.0300002 0.32722595 0.737939 0
4.0380001 0.32148623 0.738675 0
4.046 0.31571767 0.73941094 0
4.053 0.30982283 0.74005491 0
4.0610003 0.30399835 0.74079084 0
4.0690002 0.29814497 0.74152678 0
4.0770001 0.29226273 0.74226272 0
4.085 0.28635168 0.74299872 0
4.0929999 0.28041172 0.74373466 0
4.1010003 0.27444291 0.7444706 0
4.1090002 0.26844525 0.74520659 0
4.1170001 0.26241875 0.74594253 0
4.1259999 0.25644451 0.7467705 0
4.1340003 0.25035846 0.74750644 0
4.1420002 0.24424356 0.74824238 0
4.1500001 0.23809981 0.74897838 0
4.1589999 0.2320011 0.74980628 0
4.1670003 0.22579783 0.75054222 0
4.1750002 0.21956566 0.75127816 0
4.184 0.21337318 0.75210613 0
4.1920004 0.20708153 0.75284207 0
4.2010002 0.20082588 0.75367004 0
4.2090001 0.19447468 0.75440598 0
4.112 0.65705228 0.73878682 0
4.1040001 0.64885581 0.7380653 0
4.099 0.64124548 0.73761439 0
4.0950003 0.63383728 0.73725361 0
4.092 0.62662566 0.736983 0
4.0910001 0.61978567 0.73689282 0
4.0900002 0.61294913 0.73680258 0
4.0900002 0.60629308 0.73680258 0
4.0910001 0.59981203 0.73689282 0
4.092 0.59332734 0.736983 0
4.0599999 0.58118409 0.73409688 0
4.0480003 0.5725475 0.73301464 0
4.0420003 0.56496066 0.73247349 0
4.0370002 0.5575614 0.73202252 0
4.0350003 0.55067271 0.73184216 0
4.0339999 0.54395348 0.73175192 0
4.033 0.53723794 0.7316618 0
4.033 0.53068471 0.7316618 0
4.0350003 0.52444535 0.73184216 0
4.0370002 0.51819873 0.73202252 0
4.04 0.51209825 0.73229313 0
4.0440001 0.5061385 0.73265386 0
4.0490003 0.50031394 0.73310483 0
4.0560002 0.49476731 0.73373616 0
4.0630002 0.48919529 0.73436749 0
4.0710001 0.48374242 0.73508906 0
4.0780001 0.47811812 0.73572034 0
3.9250002 0.44995707 0.72192121 0
3.9200003 0.44290417 0.72147024 0
3.9140003 0.43573228 0.72092915 0
3.9090002 0.42871723 0.72047818 0
3.9040003 0.42172027 0.72002721 0
3.9100003 0.41618979 0.72056836 0
3.9170003 0.41076753 0.72119969 0
3.9250002 0.40544811 0.72192121 0
3.9320002 0.39997354 0.72255254 0
3.9390004 0.39447376 0.72318387 0
3.9470003 0.38907135 0.72390544 0
3.9540002 0.3835192 0.72453678 0
3.9620004 0.37806088 0.72525823 0
3.9690003 0.37245646 0.72588956 0
3.9770002 0.3669422 0.72661114 0
3.9840002 0.36128545 0.72724247 0
3.9920003 0.3557153 0.72796392 0
3.9990003 0.35000625 0.72859532 0
4.007 0.34438017 0.72931683 0
4.0150003 0.33872524 0.7300384 0
4.0220003 0.33293682 0.73066968 0
4.0300002 0.32722595 0.73139119 0
4.0380001 0.32148623 0.73211277 0
4.046 0.31571767 0.73283422 0
4.053 0.30982283 0.73346555 0
4.0610003 0.30399835 0.73418713 0
4.0690002 0.29814497 0.73490864 0
4.0770001 0.29226273 0.73563015 0
4.085 0.28635168 0.73635173 0
4.0929999 0.28041172 0.73707318 0
4.1010003 0.27444291 0.73779476 0
4.1090002 0.26844525 0.73851627 0
4.1170001 0.26241875 0.73923779 0
4.1259999 0.25644451 0.74004948 0
4.1340003 0.25035846 0.74077106 0
4.1420002 0.24424356 0.74149251 0
4.1500001 0.23809981 0.74221408 0
4.1589999 0.2320011 0.74302578 0
4.1670003 0.22579783 0.74374729 0
4.1750002 0.21956566 0.74446881 0
4.184 0.21337318 0.7452805 0
4.1920004 0.20708153 0.74600208 0
4.2010002 0.20082588 0.74681377 0
4.2090001 0.19447468 0.74753529 0
4.1110001 0.65686291 0.73200274 0
4.1040001 0.64885581 0.73138404 0
4.099 0.64124548 0.73094207 0
4.0960002 0.63402122 0.73067689 0
4.0940003 0.62699002 0.7305001 0
4.092 0.61996597 0.73032331 0
4.092 0.61330634 0.73032331 0
4.092 0.60664666 0.73032331 0
4.0929999 0.60016197 0.73041177 0
4.0950003 0.59384686 0.73058856 0
4.0599999 0.58118409 0.72749496 0
4.0480003 0.5725475 0.72643435 0
4.0420003 0.56496066 0.72590399 0
4.0370002 0.5575614 0.72546208 0
4.0350003 0.55067271 0.72528529 0
4.0339999 0.54395348 0.72519696 0
4.033 0.53723794 0.72510856 0
4.033 0.53068471 0.72510856 0
4.0350003 0.52444535 0.72528529 0
4.0370002 0.51819873 0.72546208 0
4.04 0.51209825 0.7257272 0
4.0440001 0.5061385 0.72608078 0
4.0490003 0.50031394 0.72652274 0
4.0560002 0.49476731 0.72714144 0
4.0630002 0.48919529 0.72776014 0
4.0710001 0.48374242 0.72846723 0
4.0780001 0.47811812 0.72908592 0
3.9250002 0.44995707 0.71556282 0
3.9200003 0.44290417 0.71512085 0
3.9140003 0.43573228 0.71459055 0
3.9090002 0.42871723 0.71414864 0
3.9040003 0.42172027 0.71370667 0
3.9100003 0.41618979 0.71423697 0
3.9170003 0.41076753 0.71485567 0
3.9250002 0.40544811 0.71556282 0
3.9320002 0.39997354 0.71618152 0
3.9390004 0.39447376 0.71680021 0
3.9470003 0.38907135 0.7175073 0
3.9540002 0.3835192 0.718126 0
3.9620004 0.37806088 0.71883309 0
3.9690003 0.37245646 0.71945179 0
3.9770002 0.3669422 0.72015893 0
3.9840002 0.36128545 0.72077763 0
3.9920003 0.3557153 0.72148466 0
3.9990003 0.35000625 0.72210342 0
4.007 0.34438017 0.72281051 0
4.0150003 0.33872524 0.7235176 0
4.0220003 0.33293682 0.72413629 0
4.0300002 0.32722595 0.72484338 0
4.0380001 0.32148623 0.72555047 0
4.046 0.31571767 0.72625756 0
4.053 0.30982283 0.72687626 0
4.0610003 0.30399835 0.72758341 0
4.0690002 0.29814497 0.72829044 0
4.0770001 0.29226273 0.72899759 0
4.085 0.28635168 0.72970462 0
4.0929999 0.28041172 0.73041177 0
4.1010003 0.27444291 0.73111886 0
4.1090002 0.26844525 0.73182595 0
4.1170001 0.26241875 0.73253304 0
4.1259999 0.25644451 0.73332846 0
4.1340003 0.25035846 0.73403561 0
4.1420002 0.24424356 0.73474264 0
4.1500001 0.23809981 0.73544979 0
4.1589999 0.2320011 0.73624527 0
4.1670003 0.22579783 0.7369523 0
4.1750002 0.21956566 0.73765945 0
4.184 0.21337318 0.73845494 0
4.1920004 0.20708153 0.73916203 0
4.2010002 0.20082588 0.73995745 0
4.2090001 0.19447468 0.7406646 0
4.119 0.66508645 0.72600144 0
4.1100001 0.65667349 0.72522223 0
4.1040001 0.64885581 0.72470272 0
4.1000004 0.64143133 0.72435635 0
4.0970001 0.63420528 0.7240966 0
4.0950003 0.62717217 0.72392344 0
4.0940003 0.62032676 0.7238369 0
4.0940003 0.61366349 0.7238369 0
4.0950003 0.60717702 0.72392344 0
4.0960002 0.60068691 0.72400999 0
4.098 0.59436637 0.7241832 0
4.0599999 0.58118409 0.72089303 0
4.0480003 0.5725475 0.71985406 0
4.0420003 0.56496066 0.71933454 0
4.0370002 0.5575614 0.71890163 0
4.0350003 0.55067271 0.71872848 0
4.0339999 0.54395348 0.71864188 0
4.033 0.53723794 0.71855533 0
4.033 0.53068471 0.71855533 0
4.0350003 0.52444535 0.71872848 0
4.0370002 0.51819873 0.71890163 0
4.04 0.51209825 0.71916139 0
4.0440001 0.5061385 0.71950769 0
4.0490003 0.50031394 0.71994066 0
4.0560002 0.49476731 0.72054672 0
4.0630002 0.48919529 0.72115278 0
4.0710001 0.48374242 0.72184545 0
4.0780001 0.47811812 0.72245157 0
3.9250002 0.44995707 0.70920438 0
3.9200003 0.44290417 0.70877147 0
3.9140003 0.43573228 0.70825195 0
3.9090002 0.42871723 0.70781904 0
3.9040003 0.42172027 0.70738614 0
3.9100003 0.41618979 0.70790565 0
3.9170003 0.41076753 0.70851171 0
3.9250002 0.40544811 0.70920438 0
3.9320002 0.39997354 0.7098105 0
3.9390004 0.39447376 0.71041656 0
3.9470003 0.38907135 0.71110916 0
3.9540002 0.3835192 0.71171528 0
3.9620004 0.37806088 0.71240795 0
3.9690003 0.37245646 0.71301401 0
3.9770002 0.3669422 0.71370667 0
3.9840002 0.36128545 0.71431279 0
3.9920003 0.3557153 0.7150054 0
3.9990003 0.35000625 0.71561152 0
4.007 0.34438017 0.71630418 0
4.0150003 0.33872524 0.71699685 0
4.0220003 0.33293682 0.71760291 0
4.0300002 0.32722595 0.71829557 0
4.0380001 0.32148623 0.71898818 0
4.046 0.31571767 0.71968091 0
4.053 0.30982283 0.72028697 0
4.0610003 0.30399835 0.72097963 0
4.0690002 0.29814497 0.7216723 0
4.0770001 0.29226273 0.72236496 0
4.085 0.28635168 0.72305763 0
4.0929999 0.28041172 0.72375023 0
4.1010003 0.27444291 0.72444296 0
4.1090002 0.26844525 0.72513556 0
4.1170001 0.26241875 0.72582829 0
4.1259999 0.25644451 0.7266075 0
4.1340003 0.25035846 0.72730017 0
4.1420002 0.24424356 0.72799277 0
4.1500001 0.23809981 0.7286855 0
4.1589999 0.2320011 0.72946477 0
4.1670003 0.22579783 0.73015738 0
4.1750002 0.21956566 0.7308501 0
4.184 0.21337318 0.73162931 0
4.1920004 0.20708153 0.73232198 0
4.2010002 0.20082588 0.73310119 0
4.2090001 0.19447468 0.73379385 0
4.1170001 0.66470402 0.71912348 0
4.1090002 0.65648407 0.7184453 0
4.1040001 0.64885581 0.71802139 0
4.1010003 0.64161712 0.717767 0
4.098 0.63438922 0.71751273 0
4.0970001 0.62753659 0.71742797 0
4.0960002 0.62068748 0.71734315 0
4.0960002 0.61402065 0.71734315 0
4.0970001 0.60753059 0.71742797 0
4.099 0.60121179 0.71759748 0
4.1010003 0.59488583 0.717767 0
4.0599999 0.58118409 0.7142911 0
4.0480003 0.5725475 0.71327376 0
4.0420003 0.56496066 0.7127651 0
4.0370002 0.5575614 0.71234119 0
4.0350003 0.55067271 0.71217167 0
4.0339999 0.54395348 0.71208686 0
4.033 0.53723794 0.71200204 0
4.033 0.53068471 0.71200204 0
4.0350003 0.52444535 0.71217167 0
4.0370002 0.51819873 0.71234119 0
4.04 0.51209825 0.71259552 0
4.0440001 0.5061385 0.71293467 0
4.0490003 0.50031394 0.71335852 0
4.0560002 0.49476731 0.71395195 0
4.0630002 0.48919529 0.71454549 0
4.0710001 0.48374242 0.71522367 0
4.0780001 0.47811812 0.71581709 0
3.9250002 0.44995707 0.70284593 0
3.9200003 0.44290417 0.70242202 0
3.9140003 0.43573228 0.70191336 0
3.9090002 0.42871723 0.70148945 0
3.9040003 0.42172027 0.70106554 0
3.9100003 0.41618979 0.70157427 0
3.9170003 0.41076753 0.70216775 0
3.9250002 0.40544811 0.70284593 0
3.9320002 0.39997354 0.70343935 0
3.9390004 0.39447376 0.70403284 0
3.9470003 0.38907135 0.70471108 0
3.9540002 0.3835192 0.7053045 0
3.9620004 0.37806088 0.7059828 0
3.9690003 0.37245646 0.70657623 0
3.9770002 0.3669422 0.70725441 0
3.9840002 0.36128545 0.70784789 0
3.9920003 0.3557153 0.70852613 0
3.9990003 0.35000625 0.70911956 0
4.007 0.34438017 0.70979786 0
4.0150003 0.33872524 0.71047604 0
4.0220003 0.33293682 0.71106946 0
4.0300002 0.32722595 0.71174777 0
4.0380001 0.32148623 0.71242595 0
4.046 0.31571767 0.71310419 0
4.053 0.30982283 0.71369767 0
4.0610003 0.30399835 0.71437591 0
4.0690002 0.29814497 0.71505415 0
4.0770001 0.29226273 0.71573234 0
4.085 0.28635168 0.71641058 0
4.0929999 0.28041172 0.71708882 0
4.1010003 0.27444291 0.717767 0
4.1090002 0.26844525 0.7184453 0
4.1170001 0.26241875 0.71912348 0
4.1259999 0.25644451 0.71988654 0
4.1340003 0.25035846 0.72056472 0
4.1420002 0.24424356 0.72124302 0
4.1500001 0.23809981 0.72192121 0
4.1589999 0.2320011 0.7226842 0
4.1670003 0.22579783 0.72336245 0
4.1750002 0.21956566 0.72404069 0
4.184 0.21337318 0.72480369 0
4.1920004 0.20708153 0.72548199 0
4.2010002 0.20082588 0.72624493 0
4.2090001 0.19447468 0.72692317 0
4.1259999 0.67314583 0.71316552 0
4.1160002 0.66451281 0.71233577 0
4.1100001 0.65667349 0.71183795 0
4.105 0.64904338 0.71142304 0
4.1020002 0.64180285 0.71117413 0
4.1000004 0.63475722 0.71100819 0
4.099 0.6279009 0.71092522 0
4.099 0.62122869 0.71092522 0
4.099 0.61455637 0.71092522 0
4.1000004 0.6080609 0.71100819 0
4.1020002 0.60173672 0.71117413 0
4.105 0.59557849 0.71142304 0
4.0599999 0.58118409 0.70768917 0
4.0480003 0.5725475 0.70669347 0
4.0420003 0.56496066 0.70619559 0
4.0370002 0.5575614 0.70578074 0
4.0350003 0.55067271 0.70561481 0
4.0339999 0.54395348 0.70553184 0
4.033 0.53723794 0.70544887 0
4.033 0.53068471 0.70544887 0
4.0350003 0.52444535 0.70561481 0
4.0370002 0.51819873 0.70578074 0
4.04 0.51209825 0.70602965 0
4.0440001 0.5061385 0.70636153 0
4.0490003 0.50031394 0.70677644 0
4.0560002 0.49476731 0.70735729 0
4.0630002 0.48919529 0.70793808 0
4.0710001 0.48374242 0.70860189 0
4.0780001 0.47811812 0.70918274 0
3.9250002 0.44995707 0.69648755 0
3.9200003 0.44290417 0.6960727 0
3.9140003 0.43573228 0.69557476 0
3.9090002 0.42871723 0.69515991 0
3.9040003 0.42172027 0.69474506 0
3.9100003 0.41618979 0.69524288 0
3.9170003 0.41076753 0.69582373 0
3.9250002 0.40544811 0.69648755 0
3.9320002 0.39997354 0.69706833 0
3.9390004 0.39447376 0.69764918 0
3.9470003 0.38907135 0.698313 0
3.9540002 0.3835192 0.69889379 0
3.9620004 0.37806088 0.69955766 0
3.9690003 0.37245646 0.70013845 0
3.9770002 0.3669422 0.70080221 0
3.9840002 0.36128545 0.70138299 0
3.9920003 0.3557153 0.70204687 0
3.9990003 0.35000625 0.70262766 0
4.007 0.34438017 0.70329154 0
4.0150003 0.33872524 0.70395529 0
4.0220003 0.33293682 0.70453608 0
4.0300002 0.32722595 0.70519996 0
4.0380001 0.32148623 0.70586371 0
4.046 0.31571767 0.70652747 0
4.053 0.30982283 0.70710838 0
4.0610003 0.30399835 0.70777214 0
4.0690002 0.29814497 0.70843589 0
4.0770001 0.29226273 0.70909977 0
4.085 0.28635168 0.70976353 0
4.0929999 0.28041172 0.71042734 0
4.1010003 0.27444291 0.71109116 0
4.1090002 0.26844525 0.71175492 0
4.1170001 0.26241875 0.71241879 0
4.1259999 0.25644451 0.71316552 0
4.1340003 0.25035846 0.71382934 0
4.1420002 0.24424356 0.71449316 0
4.1500001 0.23809981 0.71515691 0
4.1589999 0.2320011 0.7159037 0
4.1670003 0.22579783 0.71656752 0
4.1750002 0.21956566 0.71723127 0
4.184 0.21337318 0.71797812 0
4.1920004 0.20708153 0.71864188 0
4.2010002 0.20082588 0.71938866 0
4.2090001 0.19447468 0.72005248 0
4.1240001 0.67275983 0.70628226 0
4.1160002 0.66451281 0.70563281 0
4.1100001 0.65667349 0.70514584 0
4.1059999 0.64923096 0.70482111 0
4.1030002 0.64198864 0.70457757 0
4.1020002 0.63512516 0.70449644 0
4.1010003 0.62826532 0.70441526 0
4.1010003 0.62158948 0.70441526 0
4.1020002 0.6150921 0.70449644 0
4.1030002 0.6085912 0.70457757 0
4.105 0.6022616 0.70473993 0
4.1090002 0.59627116 0.70506465 0
4.0599999 0.58118409 0.70108724 0
4.0480003 0.5725475 0.70011318 0
4.0420003 0.56496066 0.69962615 0
4.0370002 0.5575614 0.6992203 0
4.0350003 0.55067271 0.69905794 0
4.0339999 0.54395348 0.69897676 0
4.033 0.53723794 0.69889557 0
4.033 0.53068471 0.69889557 0
4.0350003 0.52444535 0.69905794 0
4.0370002 0.51819873 0.6992203 0
4.04 0.51209825 0.69946378 0
4.0440001 0.5061385 0.69978845 0
4.0490003 0.50031394 0.70019436 0
4.0560002 0.49476731 0.70076251 0
4.0630002 0.48919529 0.70133078 0
4.0710001 0.48374242 0.70198011 0
4.0780001 0.47811812 0.70254833 0
3.9250002 0.44995707 0.69012904 0
3.9200003 0.44290417 0.68972325 0
3.9140003 0.43573228 0.68923616 0
3.9090002 0.42871723 0.68883038 0
3.9040003 0.42172027 0.68842447 0
3.9100003 0.41618979 0.68891156 0
3.9170003 0.41076753 0.68947971 0
3.9250002 0.40544811 0.69012904 0
3.9320002 0.39997354 0.69069731 0
3.9390004 0.39447376 0.69126546 0
3.9470003 0.38907135 0.69191486 0
3.9540002 0.3835192 0.69248307 0
3.9620004 0.37806088 0.6931324 0
3.9690003 0.37245646 0.69370067 0
3.9770002 0.3669422 0.69435 0
3.9840002 0.36128545 0.69491816 0
3.9920003 0.3557153 0.69556761 0
3.9990003 0.35000625 0.69613576 0
4.007 0.34438017 0.69678515 0
4.0150003 0.33872524 0.69743454 0
4.0220003 0.33293682 0.6980027 0
4.0300002 0.32722595 0.69865209 0
4.0380001 0.32148623 0.69930148 0
4.046 0.31571767 0.69995081 0
4.053 0.30982283 0.70051903 0
4.0610003 0.30399835 0.70116842 0
4.0690002 0.29814497 0.70181775 0
4.0770001 0.29226273 0.70246714 0
4.085 0.28635168 0.70311654 0
4.0929999 0.28041172 0.70376587 0
4.1010003 0.27444291 0.70441526 0
4.1090002 0.26844525 0.70506465 0
4.1170001 0.26241875 0.70571399 0
4.1259999 0.25644451 0.7064445 0
4.1340003 0.25035846 0.70709395 0
4.1420002 0.24424356 0.70774329 0
4.1500001 0.23809981 0.70839268 0
4.1589999 0.2320011 0.70912313 0
4.1670003 0.22579783 0.70977259 0
4.1750002 0.21956566 0.71042192 0
4.184 0.21337318 0.71115249 0
4.1920004 0.20708153 0.71180189 0
4.2010002 0.20082588 0.7125324 0
4.2090001 0.19447468 0.71318173 0
4.1350002 0.68162012 0.7004379 0
4.1220002 0.67237383 0.69940609 0
4.1150002 0.6643216 0.69885051 0
4.1100001 0.65667349 0.69845366 0
4.1070004 0.64941859 0.6982156 0
4.105 0.64236027 0.69805682 0
4.1030002 0.63530916 0.69789809 0
4.1030002 0.62862968 0.69789809 0
4.1030002 0.62195021 0.69789809 0
4.1040001 0.61544925 0.69797748 0
4.1059999 0.6091215 0.69813621 0
4.1090002 0.60296148 0.69837427 0
4.1129999 0.59696382 0.69869179 0
4.0599999 0.58118409 0.69448531 0
4.0480003 0.5725475 0.69353288 0
4.0420003 0.56496066 0.6930567 0
4.0370002 0.5575614 0.69265985 0
4.0350003 0.55067271 0.69250107 0
4.0339999 0.54395348 0.69242167 0
4.033 0.53723794 0.6923424 0
4.033 0.53068471 0.6923424 0
4.0350003 0.52444535 0.69250107 0
4.0370002 0.51819873 0.69265985 0
4.04 0.51209825 0.69289792 0
4.0440001 0.5061385 0.69321543 0
4.0490003 0.50031394 0.69361222 0
4.0560002 0.49476731 0.69416785 0
4.0630002 0.48919529 0.69472337 0
4.0710001 0.48374242 0.6953584 0
4.0780001 0.47811812 0.69591391 0
3.9250002 0.44995707 0.68377066 0
3.9200003 0.44290417 0.68337381 0
3.9140003 0.43573228 0.68289763 0
3.9090002 0.42871723 0.68250078 0
3.9040003 0.42172027 0.68210399 0
3.9100003 0.41618979 0.68258011 0
3.9170003 0.41076753 0.68313575 0
3.9250002 0.40544811 0.68377066 0
3.9320002 0.39997354 0.68432623 0
3.9390004 0.39447376 0.68488181 0
3.9470003 0.38907135 0.68551672 0
3.9540002 0.3835192 0.68607235 0
3.9620004 0.37806088 0.68670726 0
3.9690003 0.37245646 0.68726289 0
3.9770002 0.3669422 0.6878978 0
3.9840002 0.36128545 0.68845332 0
3.9920003 0.3557153 0.68908828 0
3.9990003 0.35000625 0.68964386 0
4.007 0.34438017 0.69027877 0
4.0150003 0.33872524 0.6909138 0
4.0220003 0.33293682 0.69146931 0
4.0300002 0.32722595 0.69210422 0
4.0380001 0.32148623 0.69273919 0
4.046 0.31571767 0.69337416 0
4.053 0.30982283 0.69392973 0
4.0610003 0.30399835 0.6945647 0
4.0690002 0.29814497 0.69519961 0
4.0770001 0.29226273 0.69583452 0
4.085 0.28635168 0.69646949 0
4.0929999 0.28041172 0.69710445 0
4.1010003 0.27444291 0.69773936 0
4.1090002 0.26844525 0.69837427 0
4.1170001 0.26241875 0.69900924 0
4.1259999 0.25644451 0.69972354 0
4.1340003 0.25035846 0.70035851 0
4.1420002 0.24424356 0.70099342 0
4.1500001 0.23809981 0.70162839 0
4.1589999 0.2320011 0.70234263 0
4.1670003 0.22579783 0.70297766 0
4.1750002 0.21956566 0.70361257 0
4.184 0.21337318 0.70432687 0
4.1920004 0.20708153 0.70496178 0
4.2010002 0.20082588 0.70567608 0
4.2090001 0.19447468 0.70631105 0
4.1480002 0.6976741 0.69470894 0
4.1490002 0.69111001 0.69478655 0
4.131 0.68084091 0.69339037 0
4.1210003 0.67218083 0.69261473 0
4.1160002 0.66451281 0.69222689 0
4.1110001 0.65686291 0.6918391 0
4.1080003 0.64960617 0.6916064 0
4.1070004 0.64273185 0.69152886 0
4.105 0.63567716 0.69137371 0
4.105 0.62899405 0.69137371 0
4.1059999 0.6224913 0.69145131 0
4.1070004 0.61598498 0.69152886 0
4.1090002 0.60965186 0.69168401 0
4.1129999 0.60366136 0.69199419 0
4.1170001 0.59765655 0.69230449 0
4.0599999 0.58118409 0.68788338 0
4.0480003 0.5725475 0.68695259 0
4.0420003 0.56496066 0.6864872 0
4.0370002 0.5575614 0.68609941 0
4.0350003 0.55067271 0.68594426 0
4.0339999 0.54395348 0.68586671 0
4.033 0.53723794 0.68578911 0
4.033 0.53068471 0.68578911 0
4.0350003 0.52444535 0.68594426 0
4.0370002 0.51819873 0.68609941 0
4.04 0.51209825 0.68633211 0
4.0440001 0.5061385 0.68664235 0
4.0490003 0.50031394 0.6870302 0
4.0560002 0.49476731 0.68757308 0
4.0630002 0.48919529 0.68811607 0
4.0710001 0.48374242 0.68873656 0
4.0780001 0.47811812 0.6892795 0
3.9250002 0.44995707 0.67741227 0
3.9200003 0.44290417 0.67702448 0
3.9140003 0.43573228 0.67655903 0
3.9090002 0.42871723 0.67617124 0
3.9040003 0.42172027 0.6757834 0
3.9100003 0.41618979 0.67624879 0
3.9170003 0.41076753 0.67679173 0
3.9250002 0.40544811 0.67741227 0
3.9320002 0.39997354 0.67795515 0
3.9390004 0.39447376 0.67849815 0
3.9470003 0.38907135 0.67911863 0
3.9540002 0.3835192 0.67966163 0
3.9620004 0.37806088 0.68028212 0
3.9690003 0.37245646 0.68082505 0
3.9770002 0.3669422 0.6814456 0
3.9840002 0.36128545 0.68198848 0
3.9920003 0.3557153 0.68260902 0
3.9990003 0.35000625 0.68315196 0
4.007 0.34438017 0.68377244 0
4.0150003 0.33872524 0.68439299 0
4.0220003 0.33293682 0.68493593 0
4.0300002 0.32722595 0.68555641 0
4.0380001 0.32148623 0.68617696 0
4.046 0.31571767 0.68679744 0
4.053 0.30982283 0.68734038 0
4.0610003 0.30399835 0.68796092 0
4.0690002 0.29814497 0.68858147 0
4.0770001 0.29226273 0.68920195 0
4.085 0.28635168 0.68982244 0
4.0929999 0.28041172 0.69044292 0
4.1010003 0.27444291 0.69106346 0
4.1090002 0.26844525 0.69168401 0
4.1170001 0.26241875 0.69230449 0
4.1259999 0.25644451 0.69300258 0
4.1340003 0.25035846 0.69362307 0
4.1420002 0.24424356 0.69424355 0
4.1500001 0.23809981 0.69486409 0
4.1589999 0.2320011 0.69556212 0
4.1670003 0.22579783 0.69618267 0
4.1750002 0.21956566 0.69680315 0
4.184 0.21337318 0.69750124 0
4.1920004 0.20708153 0.69812179 0
4.2010002 0.20082588 0.69881988 0
4.2090001 0.19447468 0.69944036 0
4.1530004 0.70543587 0.68832707 0
4.1430001 0.69668198 0.6875695 0
4.1440001 0.6901269 0.6876452 0
4.131 0.68084091 0.68666041 0
4.1210003 0.67218083 0.68590277 0
4.1160002 0.66451281 0.68552399 0
4.112 0.65705228 0.68522096 0
4.1100001 0.64998138 0.68506944 0
4.1080003 0.64291763 0.68491793 0
4.1080003 0.6362291 0.68491793 0
4.1070004 0.62935841 0.68484211 0
4.1090002 0.62303251 0.68499362 0
4.1100001 0.61652076 0.68506944 0
4.1129999 0.61035889 0.68529665 0
4.1160002 0.60418624 0.68552399 0
4.1210003 0.59834915 0.68590277 0
4.0599999 0.58118409 0.68128145 0
4.0480003 0.5725475 0.6803723 0
4.0420003 0.56496066 0.67991769 0
4.0370002 0.5575614 0.67953891 0
4.0350003 0.55067271 0.67938745 0
4.0339999 0.54395348 0.67931163 0
4.033 0.53723794 0.67923588 0
4.033 0.53068471 0.67923588 0
4.0350003 0.52444535 0.67938745 0
4.0370002 0.51819873 0.67953891 0
4.04 0.51209825 0.67976618 0
4.0440001 0.5061385 0.68006927 0
4.0490003 0.50031394 0.68044806 0
4.0560002 0.49476731 0.68097836 0
4.0630002 0.48919529 0.68150866 0
4.0710001 0.48374242 0.68211478 0
4.0780001 0.47811812 0.68264508 0
3.9250002 0.44995707 0.67105383 0
3.9200003 0.44290417 0.67067504 0
3.9140003 0.43573228 0.67022049 0
3.9090002 0.42871723 0.66984165 0
3.9040003 0.42172027 0.66946292 0
3.9100003 0.41618979 0.66991746 0
3.9170003 0.41076753 0.67044771 0
3.9250002 0.40544811 0.67105383 0
3.9320002 0.39997354 0.67158413 0
3.9390004 0.39447376 0.67211449 0
3.9470003 0.38907135 0.67272055 0
3.9540002 0.3835192 0.67325085 0
3.9620004 0.37806088 0.67385697 0
3.9690003 0.37245646 0.67438728 0
3.9770002 0.3669422 0.67499334 0
3.9840002 0.36128545 0.67552364 0
3.9920003 0.3557153 0.67612976 0
3.9990003 0.35000625 0.67666006 0
4.007 0.34438017 0.67726612 0
4.0150003 0.33872524 0.67787224 0
4.0220003 0.33293682 0.67840254 0
4.0300002 0.32722595 0.6790086 0
4.0380001 0.32148623 0.67961466 0
4.046 0.31571767 0.68022078 0
4.053 0.30982283 0.68075109 0
4.0610003 0.30399835 0.68135715 0
4.0690002 0.29814497 0.68196326 0
4.0770001 0.29226273 0.68256932 0
4.085 0.28635168 0.68317544 0
4.0929999 0.28041172 0.6837815 0
4.1010003 0.27444291 0.68438756 0
4.1090002 0.26844525 0.68499362 0
4.1170001 0.26241875 0.68559974 0
4.1259999 0.25644451 0.68628156 0
4.1340003 0.25035846 0.68688762 0
4.1420002 0.24424356 0.68749368 0
4.1500001 0.23809981 0.68809986 0
4.1589999 0.2320011 0.68878162 0
4.1670003 0.22579783 0.68938774 0
4.1750002 0.21956566 0.6899938 0
4.184 0.21337318 0.69067562 0
4.1920004 0.20708153 0.69128174 0
4.2010002 0.20082588 0.69196355 0
4.2090001 0.19447468 0.69256961 0
4.158 0.71321565 0.6819272 0
4.1480002 0.70443469 0.68118763 0
4.1400003 0.6960867 0.68059599 0
4.138 0.6889472 0.68044806 0
4.1330004 0.68123055 0.68007827 0
4.1220002 0.67237383 0.67926478 0
4.1170001 0.66470402 0.678895 0
4.1129999 0.6572417 0.67859912 0
4.1110001 0.65016896 0.67845124 0
4.1100001 0.64328927 0.67837727 0
4.1100001 0.6365971 0.67837727 0
4.1100001 0.62990499 0.67837727 0
4.1110001 0.62339324 0.67845124 0
4.1129999 0.61705643 0.67859912 0
4.1160002 0.6108892 0.67882103 0
4.1200004 0.60488617 0.67911685 0
4.1259999 0.59921497 0.67956054 0
4.0599999 0.58118409 0.67467946 0
4.0480003 0.5725475 0.673792 0
4.0420003 0.56496066 0.67334831 0
4.0370002 0.5575614 0.67297852 0
4.0350003 0.55067271 0.67283058 0
4.0339999 0.54395348 0.67275661 0
4.033 0.53723794 0.67268264 0
4.033 0.53068471 0.67268264 0
4.0350003 0.52444535 0.67283058 0
4.0370002 0.51819873 0.67297852 0
4.04 0.51209825 0.67320037 0
4.0440001 0.5061385 0.67349619 0
4.0490003 0.50031394 0.67386597 0
4.0560002 0.49476731 0.67438364 0
4.0630002 0.48919529 0.67490137 0
4.0710001 0.48374242 0.675493 0
4.0780001 0.47811812 0.67601067 0
3.9250002 0.44995707 0.66469538 0
3.9200003 0.44290417 0.66432559 0
3.9140003 0.43573228 0.6638819 0
3.9090002 0.42871723 0.66351211 0
3.9040003 0.42172027 0.66314232 0
3.9100003 0.41618979 0.66358602 0
3.9170003 0.41076753 0.66410375 0
3.9250002 0.40544811 0.66469538 0
3.9320002 0.39997354 0.66521311 0
3.9390004 0.39447376 0.66573083 0
3.9470003 0.38907135 0.66632241 0
3.9540002 0.3835192 0.66684014 0
3.9620004 0.37806088 0.66743177 0
3.9690003 0.37245646 0.66794944 0
3.9770002 0.3669422 0.66854113 0
3.9840002 0.36128545 0.6690588 0
3.9920003 0.3557153 0.66965044 0
3.9990003 0.35000625 0.67016816 0
4.007 0.34438017 0.6707598 0
4.0150003 0.33872524 0.67135143 0
4.0220003 0.33293682 0.67186916 0
4.0300002 0.32722595 0.67246079 0
4.0380001 0.32148623 0.67305243 0
4.046 0.31571767 0.67364407 0
4.053 0.30982283 0.67416179 0
4.0610003 0.30399835 0.67475343 0
4.0690002 0.29814497 0.67534506 0
4.0770001 0.29226273 0.67593676 0
4.085 0.28635168 0.67652839 0
4.0929999 0.28041172 0.67712003 0
4.1010003 0.27444291 0.67771173 0
4.1090002 0.26844525 0.6783033 0
4.1170001 0.26241875 0.678895 0
4.1259999 0.25644451 0.67956054 0
4.1340003 0.25035846 0.68015224 0
4.1420002 0.24424356 0.68074387 0
4.1500001 0.23809981 0.68133557 0
4.1589999 0.2320011 0.68200111 0
4.1670003 0.22579783 0.68259275 0
4.1750002 0.21956566 0.68318444 0
4.184 0.21337318 0.68385005 0
4.1920004 0.20708153 0.68444169 0
4.2010002 0.20082588 0.68510729 0
4.2090001 0.19447468 0.68569893 0
4.164 0.72121739 0.6755814 0
4.1540003 0.71240759 0.67485988 0
4.145 0.70383406 0.67421049 0
4.1389999 0.69588828 0.67377758 0
4.1330004 0.6879642 0.67334467 0
4.138 0.6822046 0.67370546 0
4.125 0.67295283 0.6727674 0
4.119 0.66508645 0.67233455 0
4.1150002 0.65762049 0.67204595 0
4.1129999 0.65054411 0.67190158 0
4.112 0.64366078 0.67182946 0
4.112 0.6369651 0.67182946 0
4.1129999 0.6304515 0.67190158 0
4.1140003 0.62393439 0.67197376 0
4.1170001 0.61777079 0.67219019 0
4.1200004 0.61159635 0.67240667 0
4.1240001 0.60558605 0.67269528 0
4.1300001 0.59990764 0.67312825 0
4.0599999 0.58118409 0.66807753 0
4.0480003 0.5725475 0.66721171 0
4.0420003 0.56496066 0.6667788 0
4.0370002 0.5575614 0.66641808 0
4.0350003 0.55067271 0.66627371 0
4.0339999 0.54395348 0.66620159 0
4.033 0.53723794 0.66612947 0
4.033 0.53068471 0.66612947 0
4.0350003 0.52444535 0.66627371 0
4.0370002 0.51819873 0.66641808 0
4.04 0.51209825 0.6666345 0
4.0440001 0.5061385 0.66692311 0
4.0490003 0.50031394 0.66728389 0
4.0560002 0.49476731 0.66778892 0
4.0630002 0.48919529 0.66829395 0
4.0710001 0.48374242 0.66887122 0
4.0780001 0.47811812 0.66937625 0
3.9250002 0.44995707 0.658337 0
3.9200003 0.44290417 0.65797621 0
3.9140003 0.43573228 0.6575433 0
3.9090002 0.42871723 0.65718251 0
3.9040003 0.42172027 0.65682173 0
3.9100003 0.41618979 0.6572547 0
3.9170003 0.41076753 0.65775979 0
3.9250002 0.40544811 0.658337 0
3.9320002 0.39997354 0.65884203 0
3.9390004 0.39447376 0.65934712 0
3.9470003 0.38907135 0.65992433 0
3.9540002 0.3835192 0.66042936 0
3.9620004 0.37806088 0.66100663 0
3.9690003 0.37245646 0.66151166 0
3.9770002 0.3669422 0.66208887 0
3.9840002 0.36128545 0.66259396 0
3.9920003 0.3557153 0.66317117 0
3.9990003 0.35000625 0.66367626 0
4.007 0.34438017 0.66425347 0
4.0150003 0.33872524 0.66483068 0
4.0220003 0.33293682 0.66533577 0
4.0300002 0.32722595 0.66591299 0
4.0380001 0.32148623 0.6664902 0
4.046 0.31571767 0.66706741 0
4.053 0.30982283 0.6675725 0
4.0610003 0.30399835 0.66814971 0
4.0690002 0.29814497 0.66872692 0
4.0770001 0.29226273 0.66930413 0
4.085 0.28635168 0.66988134 0
4.0929999 0.28041172 0.67045856 0
4.1010003 0.27444291 0.67103577 0
4.1090002 0.26844525 0.67161298 0
4.1170001 0.26241875 0.67219019 0
4.1259999 0.25644451 0.67283958 0
4.1340003 0.25035846 0.67341685 0
4.1420002 0.24424356 0.67399406 0
4.1500001 0.23809981 0.67457128 0
4.1589999 0.2320011 0.67522061 0
4.1670003 0.22579783 0.67579782 0
4.1750002 0.21956566 0.67637503 0
4.184 0.21337318 0.67702442 0
4.1920004 0.20708153 0.67760164 0
4.2010002 0.20082588 0.67825103 0
4.2090001 0.19447468 0.67882824 0
4.1690001 0.72903514 0.66914356 0
4.1589999 0.72019815 0.6684401 0
4.151 0.71180147 0.66787732 0
4.145 0.70383406 0.6674552 0
4.1389999 0.69588828 0.66703308 0
4.1340003 0.68816078 0.66668141 0
4.1350002 0.68162012 0.66675174 0
4.1300001 0.67391789 0.66640002 0
4.1230001 0.66585129 0.66590756 0
4.119 0.65837812 0.66562617 0
4.1160002 0.65110695 0.66541511 0
4.1150002 0.64421821 0.66534477 0
4.1150002 0.63751704 0.66534477 0
4.1160002 0.63099808 0.66541511 0
4.1170001 0.62447548 0.6654855 0
4.1200004 0.61830652 0.6656965 0
4.1240001 0.61230344 0.6659779 0
4.1290002 0.60646087 0.66632962 0
4.1360002 0.60094661 0.66682208 0
4.0599999 0.58118409 0.6614756 0
4.0480003 0.5725475 0.66063142 0
4.0420003 0.56496066 0.6602093 0
4.0370002 0.5575614 0.65985757 0
4.0350003 0.55067271 0.6597169 0
4.0339999 0.54395348 0.65964651 0
4.033 0.53723794 0.65957618 0
4.033 0.53068471 0.65957618 0
4.0350003 0.52444535 0.6597169 0
4.0370002 0.51819873 0.65985757 0
4.04 0.51209825 0.66006863 0
4.0440001 0.5061385 0.66035002 0
4.0490003 0.50031394 0.66070175 0
4.0560002 0.49476731 0.66119421 0
4.0630002 0.48919529 0.66168666 0
4.0710001 0.48374242 0.66224945 0
4.0780001 0.47811812 0.6627419 0
3.9250002 0.44995707 0.65197855 0
3.9200003 0.44290417 0.65162683 0
3.9140003 0.43573228 0.65120471 0
3.9090002 0.42871723 0.65085298 0
3.9040003 0.42172027 0.65050125 0
3.9100003 0.41618979 0.65092337 0
3.9170003 0.41076753 0.65141577 0
3.9250002 0.40544811 0.65197855 0
3.9320002 0.39997354 0.65247095 0
3.9390004 0.39447376 0.65296346 0
3.9470003 0.38907135 0.65352619 0
3.9540002 0.3835192 0.65401864 0
3.9620004 0.37806088 0.65458143 0
3.9690003 0.37245646 0.65507388 0
3.9770002 0.3669422 0.65563667 0
3.9840002 0.36128545 0.65612912 0
3.9920003 0.3557153 0.65669191 0
3.9990003 0.35000625 0.65718436 0
4.007 0.34438017 0.65774715 0
4.0150003 0.33872524 0.65830994 0
4.0220003 0.33293682 0.65880239 0
4.0300002 0.32722595 0.65936518 0
4.0380001 0.32148623 0.65992796 0
4.046 0.31571767 0.66049075 0
4.053 0.30982283 0.6609832 0
4.0610003 0.30399835 0.66154599 0
4.0690002 0.29814497 0.66210872 0
4.0770001 0.29226273 0.66267157 0
4.085 0.28635168 0.66323435 0
4.0929999 0.28041172 0.66379714 0
4.1010003 0.27444291 0.66435993 0
4.1090002 0.26844525 0.66492265 0
4.1170001 0.26241875 0.6654855 0
4.1259999 0.25644451 0.66611862 0
4.1340003 0.25035846 0.66668141 0
4.1420002 0.24424356 0.6672442 0
4.1500001 0.23809981 0.66780698 0
4.1589999 0.2320011 0.6684401 0
4.1670003 0.22579783 0.66900289 0
4.1750002 0.21956566 0.66956568 0
4.184 0.21337318 0.6701988 0
4.1920004 0.20708153 0.67076159 0
4.2010002 0.20082588 0.67139471 0
4.2090001 0.19447468 0.67195749 0
4.1740003 0.73687077 0.66268778 0
4.165 0.72821254 0.66207087 0
4.1570001 0.71979052 0.66152251 0
4.1500001 0.71159947 0.66104269 0
4.145 0.70383406 0.66069996 0
4.1400003 0.6960867 0.66035724 0
4.1350002 0.68835741 0.66001451 0
4.132 0.6810357 0.65980887 0
4.1370001 0.67526901 0.6601516 0
4.1290002 0.66699851 0.65960324 0
4.1240001 0.65932512 0.65926051 0
4.1210003 0.65204489 0.65905488 0
4.119 0.64496136 0.65891778 0
4.119 0.63825297 0.65891778 0
4.1200004 0.63172686 0.65898633 0
4.1210003 0.62519699 0.65905488 0
4.1240001 0.61902082 0.65926051 0
4.1280003 0.61301053 0.65953469 0
4.1340003 0.60733575 0.65994596 0
4.0599999 0.58118409 0.65487367 0
4.0480003 0.5725475 0.65405113 0
4.0420003 0.56496066 0.65363985 0
4.0370002 0.5575614 0.65329713 0
4.0350003 0.55067271 0.65316004 0
4.0339999 0.54395348 0.65309149 0
4.033 0.53723794 0.65302294 0
4.033 0.53068471 0.65302294 0
4.0350003 0.52444535 0.65316004 0
4.0370002 0.51819873 0.65329713 0
4.04 0.51209825 0.65350276 0
4.0440001 0.5061385 0.65377694 0
4.0490003 0.50031394 0.65411967 0
4.0560002 0.49476731 0.65459949 0
4.0630002 0.48919529 0.65507925 0
4.0710001 0.48374242 0.65562767 0
4.0780001 0.47811812 0.65610743 0
3.9250002 0.44995707 0.64562011 0
3.9200003 0.44290417 0.64527738 0
3.9140003 0.43573228 0.64486617 0
3.9090002 0.42871723 0.64452338 0
3.9040003 0.42172027 0.64418066 0
3.9100003 0.41618979 0.64459193 0
3.9170003 0.41076753 0.64507174 0
3.9250002 0.40544811 0.64562011 0
3.9320002 0.39997354 0.64609993 0
3.9390004 0.39447376 0.64657974 0
3.9470003 0.38907135 0.64712811 0
3.9540002 0.3835192 0.64760792 0
3.9620004 0.37806088 0.64815629 0
3.9690003 0.37245646 0.6486361 0
3.9770002 0.3669422 0.64918447 0
3.9840002 0.36128545 0.64966428 0
3.9920003 0.3557153 0.65021265 0
3.9990003 0.35000625 0.65069246 0
4.007 0.34438017 0.65124083 0
4.0150003 0.33872524 0.65178919 0
4.0220003 0.33293682 0.65226895 0
4.0300002 0.32722595 0.65281731 0
4.0380001 0.32148623 0.65336567 0
4.046 0.31571767 0.65391403 0
4.053 0.30982283 0.65439385 0
4.0610003 0.30399835 0.65494221 0
4.0690002 0.29814497 0.65549058 0
4.0770001 0.29226273 0.65603894 0
4.085 0.28635168 0.6565873 0
4.0929999 0.28041172 0.65713561 0
4.1010003 0.27444291 0.65768397 0
4.1090002 0.26844525 0.65823233 0
4.1170001 0.26241875 0.65878069 0
4.1259999 0.25644451 0.6593976 0
4.1340003 0.25035846 0.65994596 0
4.1420002 0.24424356 0.66049433 0
4.1500001 0.23809981 0.66104269 0
4.1589999 0.2320011 0.6616596 0
4.1670003 0.22579783 0.66220796 0
4.1750002 0.21956566 0.66275632 0
4.184 0.21337318 0.66337323 0
4.1920004 0.20708153 0.66392159 0
4.2010002 0.20082588 0.6645385 0
4.2090001 0.19447468 0.66508687 0
4.1800003 0.74493378 0.65628064 0
4.171 0.73624849 0.65567994 0
4.1630001 0.72780126 0.655146 0
4.1560001 0.71958673 0.65467888 0
4.151 0.71180147 0.65434515 0
4.1460004 0.70403433 0.65401143 0
4.1420002 0.69648355 0.65374446 0
4.138 0.6889472 0.65347749 0
4.1350002 0.68162012 0.65327728 0
4.132 0.67430389 0.65307707 0
4.1389999 0.6689105 0.65354425 0
4.131 0.66065085 0.65301037 0
4.1270003 0.65317053 0.65274334 0
4.125 0.64607614 0.65260988 0
4.1240001 0.63917297 0.65254313 0
4.125 0.63263774 0.65260988 0
4.1270003 0.62627929 0.65274334 0
4.1300001 0.62009227 0.65294361 0
4.1350002 0.61424792 0.65327728 0
4.1410003 0.6085605 0.65367776 0
4.0599999 0.58118409 0.64827168 0
4.0480003 0.5725475 0.64747083 0
4.0420003 0.56496066 0.64707041 0
4.0370002 0.5575614 0.64673668 0
4.0350003 0.55067271 0.64660323 0
4.0339999 0.54395348 0.64653647 0
4.033 0.53723794 0.64646971 0
4.033 0.53068471 0.64646971 0
4.0350003 0.52444535 0.64660323 0
4.0370002 0.51819873 0.64673668 0
4.04 0.51209825 0.64693689 0
4.0440001 0.5061385 0.64720392 0
4.0490003 0.50031394 0.64753759 0
4.0560002 0.49476731 0.64800477 0
4.0630002 0.48919529 0.64847195 0
4.0710001 0.48374242 0.64900589 0
4.0780001 0.47811812 0.64947307 0
3.9250002 0.44995707 0.63926172 0
3.9200003 0.44290417 0.638928 0
3.9140003 0.43573228 0.63852757 0
3.9090002 0.42871723 0.63819385 0
3.9040003 0.42172027 0.63786018 0
3.9100003 0.41618979 0.6382606 0
3.9170003 0.41076753 0.63872778 0
3.9250002 0.40544811 0.63926172 0
3.9320002 0.39997354 0.6397289 0
3.9390004 0.39447376 0.64019608 0
3.9470003 0.38907135 0.64073002 0
3.9540002 0.3835192 0.6411972 0
3.9620004 0.37806088 0.64173114 0
3.9690003 0.37245646 0.64219832 0
3.9770002 0.3669422 0.6427322 0
3.9840002 0.36128545 0.64319944 0
3.9920003 0.3557153 0.64373332 0
3.9990003 0.35000625 0.64420056 0
4.007 0.34438017 0.64473444 0
4.0150003 0.33872524 0.64526838 0
4.0220003 0.33293682 0.64573556 0
4.0300002 0.32722595 0.6462695 0
4.0380001 0.32148623 0.64680344 0
4.046 0.31571767 0.64733738 0
4.053 0.30982283 0.64780456 0
4.0610003 0.30399835 0.6483385 0
4.0690002 0.29814497 0.64887238 0
4.0770001 0.29226273 0.64940631 0
4.085 0.28635168 0.64994025 0
4.0929999 0.28041172 0.65047419 0
4.1010003 0.27444291 0.65100813 0
4.1090002 0.26844525 0.65154201 0
4.1170001 0.26241875 0.65207595 0
4.1259999 0.25644451 0.65267658 0
4.1340003 0.25035846 0.65321052 0
4.1420002 0.24424356 0.65374446 0
4.1500001 0.23809981 0.6542784 0
4.1589999 0.2320011 0.65487909 0
4.1670003 0.22579783 0.65541303 0
4.1750002 0.21956566 0.65594691 0
4.184 0.21337318 0.65654761 0
4.1920004 0.20708153 0.65708154 0
4.2010002 0.20082588 0.65768218 0
4.2090001 0.19447468 0.65821612 0
4.1849999 0.75280744 0.64978695 0
4.1760001 0.74409688 0.64920247 0
4.1690001 0.73583364 0.64874792 0
4.1620002 0.72759563 0.64829338 0
4.1570001 0.71979052 0.64796871 0
4.152 0.71200347 0.64764398 0
4.1480002 0.70443469 0.64738429 0
4.1440001 0.6968804 0.64712453 0
4.1410003 0.68953705 0.64692968 0
4.138 0.6822046 0.64673489 0
4.1360002 0.67507595 0.64660501 0
4.1340003 0.6679545 0.64647514 0
4.1410003 0.66254491 0.64692968 0
4.1370001 0.65504646 0.64666998 0
4.1340003 0.64774823 0.64647514 0
4.132 0.64064485 0.64634526 0
4.1330004 0.63409525 0.64641023 0
4.1350002 0.62772232 0.64654005 0
4.1389999 0.62169945 0.6467998 0
4.145 0.61601561 0.64718944 0
4.0599999 0.58118409 0.64166981 0
4.0480003 0.5725475 0.64089054 0
4.0420003 0.56496066 0.6405009 0
4.0370002 0.5575614 0.64017624 0
4.0350003 0.55067271 0.64004636 0
4.0339999 0.54395348 0.63998139 0
4.033 0.53723794 0.63991648 0
4.033 0.53068471 0.63991648 0
4.0350003 0.52444535 0.64004636 0
4.0370002 0.51819873 0.64017624 0
4.04 0.51209825 0.64037108 0
4.0440001 0.5061385 0.64063078 0
4.0490003 0.50031394 0.64095551 0
4.0560002 0.49476731 0.64140999 0
4.0630002 0.48919529 0.6418646 0
4.0710001 0.48374242 0.64238411 0
4.0780001 0.47811812 0.64283866 0
3.9250002 0.44995707 0.63290328 0
3.9200003 0.44290417 0.63257861 0
3.9140003 0.43573228 0.63218898 0
3.9090002 0.42871723 0.63186431 0
3.9040003 0.42172027 0.63153958 0
3.9100003 0.41618979 0.63192922 0
3.9170003 0.41076753 0.63238376 0
3.9250002 0.40544811 0.63290328 0
3.9320002 0.39997354 0.63335782 0
3.9390004 0.39447376 0.63381243 0
3.9470003 0.38907135 0.63433188 0
3.9540002 0.3835192 0.63478649 0
3.9620004 0.37806088 0.63530594 0
3.9690003 0.37245646 0.63576055 0
3.9770002 0.3669422 0.63628 0
3.9840002 0.36128545 0.63673455 0
3.9920003 0.3557153 0.63725406 0
3.9990003 0.35000625 0.63770866 0
4.007 0.34438017 0.63822812 0
4.0150003 0.33872524 0.63874763 0
4.0220003 0.33293682 0.63920218 0
4.0300002 0.32722595 0.63972169 0
4.0380001 0.32148623 0.64024115 0
4.046 0.31571767 0.64076066 0
4.053 0.30982283 0.64121521 0
4.0610003 0.30399835 0.64173472 0
4.0690002 0.29814497 0.64225423 0
4.0770001 0.29226273 0.64277375 0
4.085 0.28635168 0.6432932 0
4.0929999 0.28041172 0.64381272 0
4.1010003 0.27444291 0.64433223 0
4.1090002 0.26844525 0.64485168 0
4.1170001 0.26241875 0.6453712 0
4.1259999 0.25644451 0.64595562 0
4.1340003 0.25035846 0.64647514 0
4.1420002 0.24424356 0.64699459 0
4.1500001 0.23809981 0.6475141 0
4.1589999 0.2320011 0.64809859 0
4.1670003 0.22579783 0.64861804 0
4.1750002 0.21956566 0.64913756 0
4.184 0.21337318 0.64972198 0
4.1920004 0.20708153 0.65024149 0
4.2010002 0.20082588 0.65082592 0
4.2090001 0.19447468 0.65134543 0
4.191 0.76091194 0.64333832 0
4.1820002 0.75217432 0.64277011 0
4.1750002 0.7438876 0.64232814 0
4.1680002 0.73562616 0.64188623 0
4.1630001 0.72780126 0.64157057 0
4.158 0.71999437 0.6412549 0
4.1540003 0.71240759 0.64100236 0
4.1500001 0.70483518 0.64074987 0
4.1470003 0.69747561 0.64056045 0
4.1440001 0.6901269 0.64037108 0
4.1420002 0.68298382 0.64024478 0
4.1410003 0.67604101 0.64018166 0
4.1400003 0.66910177 0.64011854 0
4.1389999 0.66216606 0.64005536 0
4.1430001 0.65617204 0.6403079 0
4.1500001 0.65072095 0.64074987 0
4.1460004 0.64322072 0.64049733 0
4.1460004 0.63646364 0.64049733 0
4.1490002 0.63024765 0.64068669 0
4.0599999 0.58118409 0.63506782 0
4.0480003 0.5725475 0.63431025 0
4.0420003 0.56496066 0.63393146 0
4.0370002 0.5575614 0.63361579 0
4.0350003 0.55067271 0.63348949 0
4.0339999 0.54395348 0.63342637 0
4.033 0.53723794 0.63336325 0
4.033 0.53068471 0.63336325 0
4.0350003 0.52444535 0.63348949 0
4.0370002 0.51819873 0.63361579 0
4.04 0.51209825 0.63380516 0
4.0440001 0.5061385 0.6340577 0
4.0490003 0.50031394 0.63437337 0
4.0560002 0.49476731 0.63481534 0
4.0630002 0.48919529 0.63525724 0
4.0710001 0.48374242 0.63576233 0
4.0780001 0.47811812 0.63620424 0
3.9250002 0.44995707 0.62654483 0
3.9200003 0.44290417 0.62622917 0
3.9140003 0.43573228 0.62585038 0
3.9090002 0.42871723 0.62553471 0
3.9040003 0.42172027 0.62521905 0
3.9100003 0.41618979 0.62559783 0
3.9170003 0.41076753 0.6260398 0
3.9250002 0.40544811 0.62654483 0
3.9320002 0.39997354 0.6269868 0
3.9390004 0.39447376 0.62742877 0
3.9470003 0.38907135 0.6279338 0
3.9540002 0.3835192 0.62837571 0
3.9620004 0.37806088 0.6288808 0
3.9690003 0.37245646 0.62932271 0
3.9770002 0.3669422 0.6298278 0
3.9840002 0.36128545 0.63026971 0
3.9920003 0.3557153 0.6307748 0
3.9990003 0.35000625 0.6312167 0
4.007 0.34438017 0.63172179 0
4.0150003 0.33872524 0.63222682 0
4.0220003 0.33293682 0.63266879 0
4.0300002 0.32722595 0.63317382 0
4.0380001 0.32148623 0.63367891 0
4.046 0.31571767 0.634184 0
4.053 0.30982283 0.63462591 0
4.0610003 0.30399835 0.635131 0
4.0690002 0.29814497 0.63563603 0
4.0770001 0.29226273 0.63614112 0
4.085 0.28635168 0.63664615 0
4.0929999 0.28041172 0.63715124 0
4.1010003 0.27444291 0.63765633 0
4.1090002 0.26844525 0.63816136 0
4.1170001 0.26241875 0.63866645 0
4.1259999 0.25644451 0.63923466 0
4.1340003 0.25035846 0.63973969 0
4.1420002 0.24424356 0.64024478 0
4.1500001 0.23809981 0.64074987 0
4.1589999 0.2320011 0.64131802 0
4.1670003 0.22579783 0.64182311 0
4.1750002 0.21956566 0.64232814 0
4.184 0.21337318 0.64289635 0
4.1920004 0.20708153 0.64340144 0
4.2010002 0.20082588 0.64396966 0
4.2090001 0.19447468 0.64447469 0
4.197 0.76903814 0.63686806 0
4.1880002 0.7602734 0.63631606 0
4.1810002 0.75196326 0.63588679 0
4.1740003 0.74367839 0.63545746 0
4.1690001 0.73583364 0.63515085 0
4.164 0.7280069 0.63484418 0
4.1600003 0.72040206 0.63459885 0
4.1560001 0.71281165 0.63435352 0
4.1530004 0.70543587 0.63416958 0
4.1500001 0.69807088 0.63398558 0
4.1490002 0.69111001 0.63392425 0
4.1470003 0.68395793 0.63380158 0
4.1460004 0.67700601 0.63374025 0
4.145 0.67005771 0.63367891 0
4.1460004 0.6634919 0.63374025 0
4.1460004 0.65673488 0.63374025 0
4.1480002 0.65034932 0.63386291 0
4.1530004 0.64450866 0.63416958 0
4.1610003 0.6391964 0.63466018 0
4.0599999 0.58118409 0.62846589 0
4.0480003 0.5725475 0.62772995 0
4.0420003 0.56496066 0.62736195 0
4.0370002 0.5575614 0.62705535 0
4.0350003 0.55067271 0.62693268 0
4.0339999 0.54395348 0.62687135 0
4.033 0.53723794 0.62681001 0
4.033 0.53068471 0.62681001 0
4.0350003 0.52444535 0.62693268 0
4.0370002 0.51819873 0.62705535 0
4.04 0.51209825 0.62723935 0
4.0440001 0.5061385 0.62748468 0
4.0490003 0.50031394 0.62779129 0
4.0560002 0.49476731 0.62822056 0
4.0630002 0.48919529 0.62864989 0
4.0710001 0.48374242 0.62914056 0
4.0780001 0.47811812 0.62956983 0
3.9250002 0.44995707 0.62018645 0
3.9200003 0.44290417 0.61987978 0
3.9140003 0.43573228 0.61951184 0
3.9090002 0.42871723 0.61920512 0
3.9040003 0.42172027 0.61889851 0
3.9100003 0.41618979 0.61926651 0
3.9170003 0.41076753 0.61969578 0
3.9250002 0.40544811 0.62018645 0
3.9320002 0.39997354 0.62061572 0
3.9390004 0.39447376 0.62104505 0
3.9470003 0.38907135 0.62153566 0
3.9540002 0.3835192 0.62196499 0
3.9620004 0.37806088 0.6224556 0
3.9690003 0.37245646 0.62288493 0
3.9770002 0.3669422 0.62337554 0
3.9840002 0.36128545 0.62380487 0
3.9920003 0.3557153 0.62429547 0
3.9990003 0.35000625 0.62472481 0
4.007 0.34438017 0.62521541 0
4.0150003 0.33872524 0.62570608 0
4.0220003 0.33293682 0.62613541 0
4.0300002 0.32722595 0.62662601 0
4.0380001 0.32148623 0.62711668 0
4.046 0.31571767 0.62760729 0
4.053 0.30982283 0.62803662 0
4.0610003 0.30399835 0.62852722 0
4.0690002 0.29814497 0.62901789 0
4.0770001 0.29226273 0.6295085 0
4.085 0.28635168 0.62999916 0
4.0929999 0.28041172 0.63048977 0
4.1010003 0.27444291 0.63098043 0
4.1090002 0.26844525 0.63147104 0
4.1170001 0.26241875 0.6319617 0
4.1259999 0.25644451 0.63251364 0
4.1340003 0.25035846 0.63300431 0
4.1420002 0.24424356 0.63349491 0
4.1500001 0.23809981 0.63398558 0
4.1589999 0.2320011 0.63453752 0
4.1670003 0.22579783 0.63502812 0
4.1750002 0.21956566 0.63551879 0
4.184 0.21337318 0.63607079 0
4.1920004 0.20708153 0.63656139 0
4.2010002 0.20082588 0.63711339 0
4.2090001 0.19447468 0.637604 0
4.2140002 0.78644669 0.63103092 0
4.2020001 0.77696949 0.63031662 0
4.1930003 0.76817954 0.62978089 0
4.1870003 0.76006055 0.62942374 0
4.1800003 0.7517522 0.62900704 0
4.1750002 0.7438876 0.62870944 0
4.1700001 0.73604107 0.62841177 0
4.1660004 0.72841817 0.62817371 0
4.1620002 0.7208097 0.62793559 0
4.1600003 0.71361971 0.62781656 0
