# .PCD v0.7 - Point Cloud Data file format
VERSION 0.7
FIELDS x y z intensity
SIZE 4 4 4 4
TYPE F F F F
COUNT 1 1 1 1
WIDTH 1456
HEIGHT 1
VIEWPOINT 0 0 0 1 0 0 0
POINTS 1456
DATA ascii
3.7080002 1.7799013 0.40400001 0
3.7110002 1.7755847 0.40400001 0
3.7140002 1.7712574 0.40400001 0
3.7170002 1.7669193 0.40400001 0
3.7200003 1.7625704 0.40400001 0
3.7230003 1.7582105 0.40400001 0
3.7260003 1.7538399 0.40400001 0
3.7290003 1.7494584 0.40400001 0
3.7320004 1.7450662 0.40400001 0
3.7350004 1.7406631 0.40400001 0
3.7380002 1.7362491 0.40400001 0
3.7420003 1.7323565 0.40400001 0
3.7450004 1.7279191 0.40400001 0
3.7480001 1.7234708 0.40400001 0
3.7510002 1.7190119 0.40400001 0
3.7540002 1.714542 0.40400001 0
3.7570002 1.7100614 0.40400001 0
3.7600002 1.70557 0.40400001 0
3.7630002 1.7010677 0.40400001 0
3.7670002 1.6970721 0.40400001 0
3.7700002 1.6925464 0.40400001 0
3.7730002 1.6880099 0.40400001 0
3.7760003 1.6834625 0.40400001 0
3.7790003 1.6789043 0.40400001 0
3.7830002 1.6748439 0.40400001 0
3.7860003 1.6702622 0.40400001 0
3.7890003 1.6656697 0.40400001 0
3.7920003 1.6610664 0.40400001 0
3.6650002 1.8386189 0.39811057 0
3.6680002 1.8344557 0.39810517 0
3.6710002 1.8302817 0.39809975 0
3.6740003 1.8260968 0.39809436 0
3.6770003 1.8219012 0.39808893 0
3.6800003 1.8176947 0.39808351 0
3.6830003 1.8134774 0.39807811 0
3.6860003 1.8092493 0.39807269 0
3.6890004 1.8050103 0.3980673 0
3.6920002 1.8007604 0.39806187 0
3.6950002 1.7964998 0.39805648 0
3.6980002 1.7922285 0.39805105 0
3.7020001 1.7885017 0.39804384 0
3.7050002 1.7842069 0.39803842 0
3.7080002 1.7799013 0.39803302 0
3.7110002 1.7755847 0.3980276 0
3.7140002 1.7712574 0.3980222 0
3.7170002 1.7669193 0.39801678 0
3.7200003 1.7625704 0.39801136 0
3.7230003 1.7582105 0.39800596 0
3.7260003 1.7538399 0.39800054 0
3.7290003 1.7494584 0.39799514 0
3.7320004 1.7450662 0.39798972 0
3.7350004 1.7406631 0.39798433 0
3.7380002 1.7362491 0.3979789 0
3.7420003 1.7323565 0.39797169 0
3.7450004 1.7279191 0.39796627 0
3.7480001 1.7234708 0.39796087 0
3.7510002 1.7190119 0.39795545 0
3.7540002 1.714542 0.39795005 0
3.7570002 1.7100614 0.39794463 0
3.7600002 1.70557 0.39793921 0
3.7630002 1.7010677 0.39793381 0
3.7670002 1.6970721 0.3979266 0
3.7700002 1.6925464 0.39792117 0
3.7730002 1.6880099 0.39791578 0
3.7760003 1.6834625 0.39791036 0
3.7790003 1.6789043 0.39790493 0
3.7830002 1.6748439 0.39789772 0
3.7860003 1.6702622 0.39789233 0
3.7890003 1.6656697 0.3978869 0
3.7920003 1.6610664 0.39788151 0
3.6650002 1.8386189 0.39222115 0
3.6680002 1.8344557 0.39221033 0
3.6710002 1.8302817 0.39219949 0
3.6740003 1.8260968 0.39218867 0
3.6770003 1.8219012 0.39217785 0
3.6800003 1.8176947 0.39216703 0
3.6830003 1.8134774 0.39215621 0
3.6860003 1.8092493 0.3921454 0
3.6890004 1.8050103 0.39213458 0
3.6920002 1.8007604 0.39212373 0
3.6950002 1.7964998 0.39211291 0
3.6980002 1.7922285 0.39210209 0
3.7020001 1.7885017 0.39208767 0
3.7050002 1.7842069 0.39207685 0
3.7080002 1.7799013 0.39206603 0
3.7110002 1.7755847 0.39205518 0
3.7140002 1.7712574 0.39204437 0
3.7170002 1.7669193 0.39203355 0
3.7200003 1.7625704 0.39202273 0
3.7230003 1.7582105 0.39201191 0
3.7260003 1.7538399 0.39200109 0
3.7290003 1.7494584 0.39199024 0
3.7320004 1.7450662 0.39197943 0
3.7350004 1.7406631 0.39196861 0
3.7380002 1.7362491 0.39195779 0
3.7420003 1.7323565 0.39194337 0
3.7450004 1.7279191 0.39193255 0
3.7480001 1.7234708 0.39192173 0
3.7510002 1.7190119 0.39191088 0
3.7540002 1.714542 0.39190006 0
3.7570002 1.7100614 0.39188924 0
3.7600002 1.70557 0.39187843 0
3.7630002 1.7010677 0.39186761 0
3.7670002 1.6970721 0.39185318 0
3.7700002 1.6925464 0.39184234 0
3.7730002 1.6880099 0.39183152 0
3.7760003 1.6834625 0.3918207 0
3.7790003 1.6789043 0.39180988 0
3.7830002 1.6748439 0.39179546 0
3.7860003 1.6702622 0.39178464 0
3.7890003 1.6656697 0.39177379 0
3.7920003 1.6610664 0.39176297 0
3.6650002 1.8386189 0.38633171 0
3.6680002 1.8344557 0.38631546 0
3.6710002 1.8302817 0.38629925 0
3.6740003 1.8260968 0.38628301 0
3.6770003 1.8219012 0.38626677 0
3.6800003 1.8176947 0.38625056 0
3.6830003 1.8134774 0.38623431 0
3.6860003 1.8092493 0.38621807 0
3.6890004 1.8050103 0.38620183 0
3.6920002 1.8007604 0.38618562 0
3.6950002 1.7964998 0.38616937 0
3.6980002 1.7922285 0.38615313 0
3.7020001 1.7885017 0.3861315 0
3.7050002 1.7842069 0.38611525 0
3.7080002 1.7799013 0.38609901 0
3.7110002 1.7755847 0.3860828 0
3.7140002 1.7712574 0.38606656 0
3.7170002 1.7669193 0.38605031 0
3.7200003 1.7625704 0.38603407 0
3.7230003 1.7582105 0.38601786 0
3.7260003 1.7538399 0.38600162 0
3.7290003 1.7494584 0.38598537 0
3.7320004 1.7450662 0.38596916 0
3.7350004 1.7406631 0.38595292 0
3.7380002 1.7362491 0.38593668 0
3.7420003 1.7323565 0.38591504 0
3.7450004 1.7279191 0.3858988 0
3.7480001 1.7234708 0.38588256 0
3.7510002 1.7190119 0.38586634 0
3.7540002 1.714542 0.3858501 0
3.7570002 1.7100614 0.38583386 0
3.7600002 1.70557 0.38581762 0
3.7630002 1.7010677 0.3858014 0
3.7670002 1.6970721 0.38577974 0
3.7700002 1.6925464 0.38576353 0
3.7730002 1.6880099 0.38574728 0
3.7760003 1.6834625 0.38573104 0
3.7790003 1.6789043 0.3857148 0
3.7830002 1.6748439 0.38569316 0
3.7860003 1.6702622 0.38567692 0
3.7890003 1.6656697 0.38566071 0
3.7920003 1.6610664 0.38564447 0
3.6650002 1.8386189 0.38044229 0
3.6680002 1.8344557 0.38042063 0
3.6710002 1.8302817 0.38039899 0
3.6740003 1.8260968 0.38037735 0
3.6770003 1.8219012 0.38035569 0
3.6800003 1.8176947 0.38033405 0
3.6830003 1.8134774 0.38031241 0
3.6860003 1.8092493 0.38029075 0
3.6890004 1.8050103 0.38026911 0
3.6920002 1.8007604 0.38024747 0
3.6950002 1.7964998 0.38022584 0
3.6980002 1.7922285 0.38020417 0
3.7020001 1.7885017 0.38017532 0
3.7050002 1.7842069 0.38015366 0
3.7080002 1.7799013 0.38013202 0
3.7110002 1.7755847 0.38011038 0
3.7140002 1.7712574 0.38008875 0
3.7170002 1.7669193 0.38006708 0
3.7200003 1.7625704 0.38004544 0
3.7230003 1.7582105 0.38002381 0
3.7260003 1.7538399 0.38000214 0
3.7290003 1.7494584 0.3799805 0
3.7320004 1.7450662 0.37995887 0
3.7350004 1.7406631 0.3799372 0
3.7380002 1.7362491 0.37991557 0
3.7420003 1.7323565 0.37988672 0
3.7450004 1.7279191 0.37986505 0
3.7480001 1.7234708 0.37984341 0
3.7510002 1.7190119 0.37982178 0
3.7540002 1.714542 0.37980011 0
3.7570002 1.7100614 0.37977847 0
3.7600002 1.70557 0.37975684 0
3.7630002 1.7010677 0.37973517 0
3.7670002 1.6970721 0.37970632 0
3.7700002 1.6925464 0.37968469 0
3.7730002 1.6880099 0.37966302 0
3.7760003 1.6834625 0.37964138 0
3.7790003 1.6789043 0.37961975 0
3.7830002 1.6748439 0.37959087 0
3.7860003 1.6702622 0.37956923 0
3.7890003 1.6656697 0.3795476 0
3.7920003 1.6610664 0.37952596 0
3.6650002 1.8386189 0.37455285 0
3.6680002 1.8344557 0.37452579 0
3.6710002 1.8302817 0.37449872 0
3.6740003 1.8260968 0.37447166 0
3.6770003 1.8219012 0.3744446 0
3.6800003 1.8176947 0.37441754 0
3.6830003 1.8134774 0.37439051 0
3.6860003 1.8092493 0.37436345 0
3.6890004 1.8050103 0.37433639 0
3.6920002 1.8007604 0.37430933 0
3.6950002 1.7964998 0.37428227 0
3.6980002 1.7922285 0.37425521 0
3.7020001 1.7885017 0.37421915 0
3.7050002 1.7842069 0.37419209 0
3.7080002 1.7799013 0.37416503 0
3.7110002 1.7755847 0.37413797 0
3.7140002 1.7712574 0.37411091 0
3.7170002 1.7669193 0.37408385 0
3.7200003 1.7625704 0.37405679 0
3.7230003 1.7582105 0.37402973 0
3.7260003 1.7538399 0.3740027 0
3.7290003 1.7494584 0.37397563 0
3.7320004 1.7450662 0.37394857 0
3.7350004 1.7406631 0.37392151 0
3.7380002 1.7362491 0.37389445 0
3.7420003 1.7323565 0.37385839 0
3.7450004 1.7279191 0.37383133 0
3.7480001 1.7234708 0.37380427 0
3.7510002 1.7190119 0.37377721 0
3.7540002 1.714542 0.37375015 0
3.7570002 1.7100614 0.37372309 0
3.7600002 1.70557 0.37369603 0
3.7630002 1.7010677 0.37366897 0
3.7670002 1.6970721 0.37363291 0
3.7700002 1.6925464 0.37360585 0
3.7730002 1.6880099 0.37357879 0
3.7760003 1.6834625 0.37355173 0
3.7790003 1.6789043 0.37352467 0
3.7830002 1.6748439 0.37348861 0
3.7860003 1.6702622 0.37346154 0
3.7890003 1.6656697 0.37343448 0
3.7920003 1.6610664 0.37340742 0
3.6650002 1.8386189 0.3686634 0
3.6680002 1.8344557 0.36863095 0
3.6710002 1.8302817 0.36859846 0
3.6740003 1.8260968 0.36856601 0
3.6770003 1.8219012 0.36853355 0
3.6800003 1.8176947 0.36850107 0
3.6830003 1.8134774 0.36846858 0
3.6860003 1.8092493 0.36843613 0
3.6890004 1.8050103 0.36840367 0
3.6920002 1.8007604 0.36837119 0
3.6950002 1.7964998 0.36833873 0
3.6980002 1.7922285 0.36830625 0
3.7020001 1.7885017 0.36826298 0
3.7050002 1.7842069 0.36823049 0
3.7080002 1.7799013 0.36819804 0
3.7110002 1.7755847 0.36816555 0
3.7140002 1.7712574 0.3681331 0
3.7170002 1.7669193 0.36810061 0
3.7200003 1.7625704 0.36806816 0
3.7230003 1.7582105 0.36803567 0
3.7260003 1.7538399 0.36800322 0
3.7290003 1.7494584 0.36797076 0
3.7320004 1.7450662 0.36793828 0
3.7350004 1.7406631 0.3679058 0
3.7380002 1.7362491 0.36787334 0
3.7420003 1.7323565 0.36783004 0
3.7450004 1.7279191 0.36779758 0
3.7480001 1.7234708 0.36776513 0
3.7510002 1.7190119 0.36773264 0
3.7540002 1.714542 0.36770019 0
3.7570002 1.7100614 0.3676677 0
3.7600002 1.70557 0.36763525 0
3.7630002 1.7010677 0.36760277 0
3.7670002 1.6970721 0.36755949 0
3.7700002 1.6925464 0.36752701 0
3.7730002 1.6880099 0.36749455 0
3.7760003 1.6834625 0.36746207 0
3.7790003 1.6789043 0.36742961 0
3.7830002 1.6748439 0.36738631 0
3.7860003 1.6702622 0.36735386 0
3.7890003 1.6656697 0.36732137 0
3.7920003 1.6610664 0.36728892 0
3.6650002 1.8386189 0.36277398 0
3.6680002 1.8344557 0.36273611 0
3.6710002 1.8302817 0.36269823 0
3.6740003 1.8260968 0.36266035 0
3.6770003 1.8219012 0.36262247 0
3.6800003 1.8176947 0.36258459 0
3.6830003 1.8134774 0.36254668 0
3.6860003 1.8092493 0.3625088 0
3.6890004 1.8050103 0.36247092 0
3.6920002 1.8007604 0.36243305 0
3.6950002 1.7964998 0.36239517 0
3.6980002 1.7922285 0.36235729 0
3.7020001 1.7885017 0.3623068 0
3.7050002 1.7842069 0.36226892 0
3.7080002 1.7799013 0.36223102 0
3.7110002 1.7755847 0.36219317 0
3.7140002 1.7712574 0.36215526 0
3.7170002 1.7669193 0.36211738 0
3.7200003 1.7625704 0.3620795 0
3.7230003 1.7582105 0.36204162 0
3.7260003 1.7538399 0.36200374 0
3.7290003 1.7494584 0.36196586 0
3.7320004 1.7450662 0.36192799 0
3.7350004 1.7406631 0.36189011 0
3.7380002 1.7362491 0.36185223 0
3.7420003 1.7323565 0.36180171 0
3.7450004 1.7279191 0.36176383 0
3.7480001 1.7234708 0.36172596 0
3.7510002 1.7190119 0.36168808 0
3.7540002 1.714542 0.3616502 0
3.7570002 1.7100614 0.36161232 0
3.7600002 1.70557 0.36157444 0
3.7630002 1.7010677 0.36153656 0
3.7670002 1.6970721 0.36148605 0
3.7700002 1.6925464 0.36144817 0
3.7730002 1.6880099 0.36141029 0
3.7760003 1.6834625 0.36137241 0
3.7790003 1.6789043 0.36133453 0
3.7830002 1.6748439 0.36128402 0
3.7860003 1.6702622 0.36124614 0
3.7890003 1.6656697 0.36120826 0
3.7920003 1.6610664 0.36117038 0
3.6650002 1.8386189 0.35688454 0
3.6680002 1.8344557 0.35684127 0
3.6710002 1.8302817 0.35679796 0
3.6740003 1.8260968 0.35675466 0
3.6770003 1.8219012 0.35671139 0
3.6800003 1.8176947 0.35666808 0
3.6830003 1.8134774 0.35662478 0
3.6860003 1.8092493 0.35658151 0
3.6890004 1.8050103 0.35653821 0
3.6920002 1.8007604 0.35649493 0
3.6950002 1.7964998 0.35645163 0
3.6980002 1.7922285 0.35640833 0
3.7020001 1.7885017 0.3563506 0
3.7050002 1.7842069 0.35630733 0
3.7080002 1.7799013 0.35626402 0
3.7110002 1.7755847 0.35622075 0
3.7140002 1.7712574 0.35617745 0
3.7170002 1.7669193 0.35613415 0
3.7200003 1.7625704 0.35609087 0
3.7230003 1.7582105 0.35604757 0
3.7260003 1.7538399 0.3560043 0
3.7290003 1.7494584 0.35596099 0
3.7320004 1.7450662 0.35591769 0
3.7350004 1.7406631 0.35587442 0
3.7380002 1.7362491 0.35583112 0
3.7420003 1.7323565 0.35577339 0
3.7450004 1.7279191 0.35573012 0
3.7480001 1.7234708 0.35568681 0
3.7510002 1.7190119 0.35564351 0
3.7540002 1.714542 0.35560024 0
3.7570002 1.7100614 0.35555694 0
3.7600002 1.70557 0.35551366 0
3.7630002 1.7010677 0.35547036 0
3.7670002 1.6970721 0.35541263 0
3.7700002 1.6925464 0.35536933 0
3.7730002 1.6880099 0.35532606 0
3.7760003 1.6834625 0.35528275 0
3.7790003 1.6789043 0.35523948 0
3.7830002 1.6748439 0.35518175 0
3.7860003 1.6702622 0.35513845 0
3.7890003 1.6656697 0.35509518 0
3.7920003 1.6610664 0.35505188 0
3.6650002 1.8386189 0.35099512 0
3.6680002 1.8344557 0.3509464 0
3.6710002 1.8302817 0.3508977 0
3.6740003 1.8260968 0.350849 0
3.6770003 1.8219012 0.35080031 0
3.6800003 1.8176947 0.35075158 0
3.6830003 1.8134774 0.35070288 0
3.6860003 1.8092493 0.35065418 0
3.6890004 1.8050103 0.35060549 0
3.6920002 1.8007604 0.35055679 0
3.6950002 1.7964998 0.35050809 0
3.6980002 1.7922285 0.35045937 0
3.7020001 1.7885017 0.35039443 0
3.7050002 1.7842069 0.35034573 0
3.7080002 1.7799013 0.35029703 0
3.7110002 1.7755847 0.35024834 0
3.7140002 1.7712574 0.35019964 0
3.7170002 1.7669193 0.35015094 0
3.7200003 1.7625704 0.35010222 0
3.7230003 1.7582105 0.35005352 0
3.7260003 1.7538399 0.35000482 0
3.7290003 1.7494584 0.34995613 0
3.7320004 1.7450662 0.3499074 0
3.7350004 1.7406631 0.3498587 0
3.7380002 1.7362491 0.34981 0
3.7420003 1.7323565 0.34974506 0
3.7450004 1.7279191 0.34969637 0
3.7480001 1.7234708 0.34964767 0
3.7510002 1.7190119 0.34959897 0
3.7540002 1.714542 0.34955025 0
3.7570002 1.7100614 0.34950155 0
3.7600002 1.70557 0.34945285 0
3.7630002 1.7010677 0.34940416 0
3.7670002 1.6970721 0.34933922 0
3.7700002 1.6925464 0.34929052 0
3.7730002 1.6880099 0.34924179 0
3.7760003 1.6834625 0.3491931 0
3.7790003 1.6789043 0.3491444 0
3.7830002 1.6748439 0.34907946 0
3.7860003 1.6702622 0.34903076 0
3.7890003 1.6656697 0.34898207 0
3.7920003 1.6610664 0.34893334 0
3.6650002 1.8386189 0.34510568 0
3.6680002 1.8344557 0.34505156 0
3.6710002 1.8302817 0.34499744 0
3.6740003 1.8260968 0.34494334 0
3.6770003 1.8219012 0.34488922 0
3.6800003 1.8176947 0.3448351 0
3.6830003 1.8134774 0.34478098 0
3.6860003 1.8092493 0.34472686 0
3.6890004 1.8050103 0.34467277 0
3.6920002 1.8007604 0.34461865 0
3.6950002 1.7964998 0.34456453 0
3.6980002 1.7922285 0.34451044 0
3.7020001 1.7885017 0.34443825 0
3.7050002 1.7842069 0.34438416 0
3.7080002 1.7799013 0.34433004 0
3.7110002 1.7755847 0.34427592 0
3.7140002 1.7712574 0.3442218 0
3.7170002 1.7669193 0.34416771 0
3.7200003 1.7625704 0.34411359 0
3.7230003 1.7582105 0.34405947 0
3.7260003 1.7538399 0.34400535 0
3.7290003 1.7494584 0.34395123 0
3.7320004 1.7450662 0.3438971 0
3.7350004 1.7406631 0.34384301 0
3.7380002 1.7362491 0.34378889 0
3.7420003 1.7323565 0.34371674 0
3.7450004 1.7279191 0.34366262 0
3.7480001 1.7234708 0.34360853 0
3.7510002 1.7190119 0.34355441 0
3.7540002 1.714542 0.34350029 0
3.7570002 1.7100614 0.34344617 0
3.7600002 1.70557 0.34339204 0
3.7630002 1.7010677 0.34333795 0
3.7670002 1.6970721 0.3432658 0
3.7700002 1.6925464 0.34321168 0
3.7730002 1.6880099 0.34315756 0
3.7760003 1.6834625 0.34310344 0
3.7790003 1.6789043 0.34304935 0
3.7830002 1.6748439 0.34297717 0
3.7860003 1.6702622 0.34292307 0
3.7890003 1.6656697 0.34286895 0
3.7920003 1.6610664 0.34281483 0
3.6650002 1.8386189 0.33921623 0
3.6680002 1.8344557 0.33915672 0
3.6710002 1.8302817 0.3390972 0
3.6740003 1.8260968 0.33903766 0
3.6770003 1.8219012 0.33897814 0
3.6800003 1.8176947 0.33891863 0
3.6830003 1.8134774 0.33885908 0
3.6860003 1.8092493 0.33879957 0
3.6890004 1.8050103 0.33874002 0
3.6920002 1.8007604 0.33868051 0
3.6950002 1.7964998 0.33862099 0
3.6980002 1.7922285 0.33856148 0
3.7020001 1.7885017 0.33848208 0
3.7050002 1.7842069 0.33842257 0
3.7080002 1.7799013 0.33836305 0
3.7110002 1.7755847 0.33830351 0
3.7140002 1.7712574 0.33824399 0
3.7170002 1.7669193 0.33818448 0
3.7200003 1.7625704 0.33812493 0
3.7230003 1.7582105 0.33806542 0
3.7260003 1.7538399 0.3380059 0
3.7290003 1.7494584 0.33794636 0
3.7320004 1.7450662 0.33788684 0
3.7350004 1.7406631 0.33782732 0
3.7380002 1.7362491 0.33776778 0
3.7420003 1.7323565 0.33768842 0
3.7450004 1.7279191 0.3376289 0
3.7480001 1.7234708 0.33756936 0
3.7510002 1.7190119 0.33750984 0
3.7540002 1.714542 0.33745033 0
3.7570002 1.7100614 0.33739078 0
3.7600002 1.70557 0.33733127 0
3.7630002 1.7010677 0.33727175 0
3.7670002 1.6970721 0.33719236 0
3.7700002 1.6925464 0.33713284 0
3.7730002 1.6880099 0.33707333 0
3.7760003 1.6834625 0.33701378 0
3.7790003 1.6789043 0.33695427 0
3.7830002 1.6748439 0.3368749 0
3.7860003 1.6702622 0.33681536 0
3.7890003 1.6656697 0.33675584 0
3.7920003 1.6610664 0.33669633 0
3.6650002 1.8386189 0.33332682 0
3.6680002 1.8344557 0.33326188 0
3.6710002 1.8302817 0.33319694 0
3.6740003 1.8260968 0.333132 0
3.6770003 1.8219012 0.33306706 0
3.6800003 1.8176947 0.33300212 0
3.6830003 1.8134774 0.33293718 0
3.6860003 1.8092493 0.33287224 0
3.6890004 1.8050103 0.3328073 0
3.6920002 1.8007604 0.33274236 0
3.6950002 1.7964998 0.33267742 0
3.6980002 1.7922285 0.33261251 0
3.7020001 1.7885017 0.33252591 0
3.7050002 1.7842069 0.332461 0
3.7080002 1.7799013 0.33239603 0
3.7110002 1.7755847 0.33233112 0
3.7140002 1.7712574 0.33226615 0
3.7170002 1.7669193 0.33220124 0
3.7200003 1.7625704 0.33213627 0
3.7230003 1.7582105 0.33207136 0
3.7260003 1.7538399 0.33200642 0
3.7290003 1.7494584 0.33194149 0
3.7320004 1.7450662 0.33187655 0
3.7350004 1.7406631 0.33181161 0
3.7380002 1.7362491 0.33174667 0
3.7420003 1.7323565 0.33166009 0
3.7450004 1.7279191 0.33159515 0
3.7480001 1.7234708 0.33153021 0
3.7510002 1.7190119 0.33146527 0
3.7540002 1.714542 0.33140033 0
3.7570002 1.7100614 0.3313354 0
3.7600002 1.70557 0.33127046 0
3.7630002 1.7010677 0.33120552 0
3.7670002 1.6970721 0.33111894 0
3.7700002 1.6925464 0.331054 0
3.7730002 1.6880099 0.33098906 0
3.7760003 1.6834625 0.33092415 0
3.7790003 1.6789043 0.33085918 0
3.7830002 1.6748439 0.33077261 0
3.7860003 1.6702622 0.33070767 0
3.7890003 1.6656697 0.33064273 0
3.7920003 1.6610664 0.33057779 0
3.6650002 1.8386189 0.32743737 0
3.6680002 1.8344557 0.32736704 0
3.6710002 1.8302817 0.32729667 0
3.6740003 1.8260968 0.32722634 0
3.6770003 1.8219012 0.32715598 0
3.6800003 1.8176947 0.32708561 0
3.6830003 1.8134774 0.32701528 0
3.6860003 1.8092493 0.32694495 0
3.6890004 1.8050103 0.32687458 0
3.6920002 1.8007604 0.32680422 0
3.6950002 1.7964998 0.32673389 0
3.6980002 1.7922285 0.32666355 0
3.7020001 1.7885017 0.32656974 0
3.7050002 1.7842069 0.3264994 0
3.7080002 1.7799013 0.32642904 0
3.7110002 1.7755847 0.32635868 0
3.7140002 1.7712574 0.32628834 0
3.7170002 1.7669193 0.32621801 0
3.7200003 1.7625704 0.32614765 0
3.7230003 1.7582105 0.32607731 0
3.7260003 1.7538399 0.32600695 0
3.7290003 1.7494584 0.32593662 0
3.7320004 1.7450662 0.32586625 0
3.7350004 1.7406631 0.32579589 0
3.7380002 1.7362491 0.32572556 0
3.7420003 1.7323565 0.32563177 0
3.7450004 1.7279191 0.3255614 0
3.7480001 1.7234708 0.32549107 0
3.7510002 1.7190119 0.32542074 0
3.7540002 1.714542 0.32535037 0
3.7570002 1.7100614 0.32528001 0
3.7600002 1.70557 0.32520968 0
3.7630002 1.7010677 0.32513931 0
3.7670002 1.6970721 0.32504553 0
3.7700002 1.6925464 0.32497519 0
3.7730002 1.6880099 0.32490483 0
3.7760003 1.6834625 0.32483447 0
3.7790003 1.6789043 0.32476413 0
3.7830002 1.6748439 0.32467034 0
3.7860003 1.6702622 0.32459998 0
3.7890003 1.6656697 0.32452965 0
3.7920003 1.6610664 0.32445928 0
3.6650002 1.8386189 0.32154793 0
3.6680002 1.8344557 0.32147217 0
3.6710002 1.8302817 0.32139641 0
3.6740003 1.8260968 0.32132065 0
3.6770003 1.8219012 0.3212449 0
3.6800003 1.8176947 0.32116914 0
3.6830003 1.8134774 0.32109338 0
3.6860003 1.8092493 0.32101762 0
3.6890004 1.8050103 0.32094187 0
3.6920002 1.8007604 0.32086611 0
3.6950002 1.7964998 0.32079035 0
3.6980002 1.7922285 0.32071459 0
3.7020001 1.7885017 0.32061356 0
3.7050002 1.7842069 0.32053781 0
3.7080002 1.7799013 0.32046205 0
3.7110002 1.7755847 0.32038629 0
3.7140002 1.7712574 0.32031053 0
3.7170002 1.7669193 0.32023478 0
3.7200003 1.7625704 0.32015902 0
3.7230003 1.7582105 0.32008326 0
3.7260003 1.7538399 0.3200075 0
3.7290003 1.7494584 0.31993172 0
3.7320004 1.7450662 0.31985596 0
3.7350004 1.7406631 0.3197802 0
3.7380002 1.7362491 0.31970444 0
3.7420003 1.7323565 0.31960344 0
3.7450004 1.7279191 0.31952769 0
3.7480001 1.7234708 0.31945193 0
3.7510002 1.7190119 0.31937617 0
3.7540002 1.714542 0.31930041 0
3.7570002 1.7100614 0.31922463 0
3.7600002 1.70557 0.31914887 0
3.7630002 1.7010677 0.31907311 0
3.7670002 1.6970721 0.31897211 0
3.7700002 1.6925464 0.31889635 0
3.7730002 1.6880099 0.3188206 0
3.7760003 1.6834625 0.31874481 0
3.7790003 1.6789043 0.31866905 0
3.7830002 1.6748439 0.31856805 0
3.7860003 1.6702622 0.31849229 0
3.7890003 1.6656697 0.31841654 0
3.7920003 1.6610664 0.31834078 0
3.6650002 1.8386189 0.31565851 0
3.6680002 1.8344557 0.31557733 0
3.6710002 1.8302817 0.31549615 0
3.6740003 1.8260968 0.31541499 0
3.6770003 1.8219012 0.31533381 0
3.6800003 1.8176947 0.31525266 0
3.6830003 1.8134774 0.31517148 0
3.6860003 1.8092493 0.3150903 0
3.6890004 1.8050103 0.31500912 0
3.6920002 1.8007604 0.31492797 0
3.6950002 1.7964998 0.31484678 0
3.6980002 1.7922285 0.31476563 0
3.7020001 1.7885017 0.31465739 0
3.7050002 1.7842069 0.31457621 0
3.7080002 1.7799013 0.31449506 0
3.7110002 1.7755847 0.31441388 0
3.7140002 1.7712574 0.31433272 0
3.7170002 1.7669193 0.31425154 0
3.7200003 1.7625704 0.31417036 0
3.7230003 1.7582105 0.31408918 0
3.7260003 1.7538399 0.31400803 0
3.7290003 1.7494584 0.31392685 0
3.7320004 1.7450662 0.31384569 0
3.7350004 1.7406631 0.31376451 0
3.7380002 1.7362491 0.31368333 0
3.7420003 1.7323565 0.31357509 0
3.7450004 1.7279191 0.31349394 0
3.7480001 1.7234708 0.31341276 0
3.7510002 1.7190119 0.3133316 0
3.7540002 1.714542 0.31325042 0
3.7570002 1.7100614 0.31316924 0
3.7600002 1.70557 0.31308809 0
3.7630002 1.7010677 0.31300691 0
3.7670002 1.6970721 0.3128987 0
3.7700002 1.6925464 0.31281751 0
3.7730002 1.6880099 0.31273633 0
3.7760003 1.6834625 0.31265515 0
3.7790003 1.6789043 0.312574 0
3.7830002 1.6748439 0.31246576 0
3.7860003 1.6702622 0.31238461 0
3.7890003 1.6656697 0.31230342 0
3.7920003 1.6610664 0.31222224 0
3.6650002 1.8386189 0.30976906 0
3.6680002 1.8344557 0.30968249 0
3.6710002 1.8302817 0.30959591 0
3.6740003 1.8260968 0.30950934 0
3.6770003 1.8219012 0.30942273 0
3.6800003 1.8176947 0.30933616 0
3.6830003 1.8134774 0.30924958 0
3.6860003 1.8092493 0.30916297 0
3.6890004 1.8050103 0.3090764 0
3.6920002 1.8007604 0.30898982 0
3.6950002 1.7964998 0.30890325 0
3.6980002 1.7922285 0.30881667 0
3.7020001 1.7885017 0.30870122 0
3.7050002 1.7842069 0.30861464 0
3.7080002 1.7799013 0.30852807 0
3.7110002 1.7755847 0.30844146 0
3.7140002 1.7712574 0.30835488 0
3.7170002 1.7669193 0.30826831 0
3.7200003 1.7625704 0.3081817 0
3.7230003 1.7582105 0.30809513 0
3.7260003 1.7538399 0.30800855 0
3.7290003 1.7494584 0.30792198 0
3.7320004 1.7450662 0.3078354 0
3.7350004 1.7406631 0.30774879 0
3.7380002 1.7362491 0.30766222 0
3.7420003 1.7323565 0.30754679 0
3.7450004 1.7279191 0.30746019 0
3.7480001 1.7234708 0.30737361 0
3.7510002 1.7190119 0.30728704 0
3.7540002 1.714542 0.30720046 0
3.7570002 1.7100614 0.30711389 0
3.7600002 1.70557 0.30702728 0
3.7630002 1.7010677 0.3069407 0
3.7670002 1.6970721 0.30682525 0
3.7700002 1.6925464 0.30673867 0
3.7730002 1.6880099 0.3066521 0
3.7760003 1.6834625 0.30656552 0
3.7790003 1.6789043 0.30647892 0
3.7830002 1.6748439 0.30636349 0
3.7860003 1.6702622 0.30627692 0
3.7890003 1.6656697 0.30619031 0
3.7920003 1.6610664 0.30610374 0
3.6650002 1.8386189 0.30387965 0
3.6680002 1.8344557 0.30378765 0
3.6710002 1.8302817 0.30369565 0
3.6740003 1.8260968 0.30360365 0
3.6770003 1.8219012 0.30351165 0
3.6800003 1.8176947 0.30341965 0
3.6830003 1.8134774 0.30332768 0
3.6860003 1.8092493 0.30323568 0
3.6890004 1.8050103 0.30314368 0
3.6920002 1.8007604 0.30305171 0
3.6950002 1.7964998 0.30295971 0
3.6980002 1.7922285 0.30286771 0
3.7020001 1.7885017 0.30274504 0
3.7050002 1.7842069 0.30265304 0
3.7080002 1.7799013 0.30256104 0
3.7110002 1.7755847 0.30246907 0
3.7140002 1.7712574 0.30237707 0
3.7170002 1.7669193 0.30228508 0
3.7200003 1.7625704 0.30219308 0
3.7230003 1.7582105 0.30210108 0
3.7260003 1.7538399 0.30200911 0
3.7290003 1.7494584 0.30191711 0
3.7320004 1.7450662 0.30182511 0
3.7350004 1.7406631 0.30173311 0
3.7380002 1.7362491 0.30164111 0
3.7420003 1.7323565 0.30151844 0
3.7450004 1.7279191 0.30142647 0
3.7480001 1.7234708 0.30133447 0
3.7510002 1.7190119 0.30124247 0
3.7540002 1.714542 0.30115047 0
3.7570002 1.7100614 0.30105847 0
3.7600002 1.70557 0.3009665 0
3.7630002 1.7010677 0.3008745 0
3.7670002 1.6970721 0.30075184 0
3.7700002 1.6925464 0.30065984 0
3.7730002 1.6880099 0.30056784 0
3.7760003 1.6834625 0.30047584 0
3.7790003 1.6789043 0.30038387 0
3.7830002 1.6748439 0.3002612 0
3.7860003 1.6702622 0.3001692 0
3.7890003 1.6656697 0.3000772 0
3.7920003 1.6610664 0.29998523 0
3.6650002 1.8386189 0.2979902 0
3.6680002 1.8344557 0.29789281 0
3.6710002 1.8302817 0.29779539 0
3.6740003 1.8260968 0.29769799 0
3.6770003 1.8219012 0.29760057 0
3.6800003 1.8176947 0.29750317 0
3.6830003 1.8134774 0.29740578 0
3.6860003 1.8092493 0.29730836 0
3.6890004 1.8050103 0.29721096 0
3.6920002 1.8007604 0.29711357 0
3.6950002 1.7964998 0.29701614 0
3.6980002 1.7922285 0.29691875 0
3.7020001 1.7885017 0.29678887 0
3.7050002 1.7842069 0.29669148 0
3.7080002 1.7799013 0.29659405 0
3.7110002 1.7755847 0.29649666 0
3.7140002 1.7712574 0.29639924 0
3.7170002 1.7669193 0.29630184 0
3.7200003 1.7625704 0.29620445 0
3.7230003 1.7582105 0.29610702 0
3.7260003 1.7538399 0.29600963 0
3.7290003 1.7494584 0.29591221 0
3.7320004 1.7450662 0.29581481 0
3.7350004 1.7406631 0.29571739 0
3.7380002 1.7362491 0.29562002 0
3.7420003 1.7323565 0.29549012 0
3.7450004 1.7279191 0.29539272 0
3.7480001 1.7234708 0.29529533 0
3.7510002 1.7190119 0.2951979 0
3.7540002 1.714542 0.29510051 0
3.7570002 1.7100614 0.29500312 0
3.7600002 1.70557 0.29490569 0
3.7630002 1.7010677 0.29480827 0
3.7670002 1.6970721 0.29467842 0
3.7700002 1.6925464 0.294581 0
3.7730002 1.6880099 0.2944836 0
3.7760003 1.6834625 0.29438621 0
3.7790003 1.6789043 0.29428878 0
3.7830002 1.6748439 0.29415894 0
3.7860003 1.6702622 0.29406151 0
3.7890003 1.6656697 0.29396409 0
3.7920003 1.6610664 0.29386669 0
3.6650002 1.8386189 0.29210079 0
3.6680002 1.8344557 0.29199797 0
3.6710002 1.8302817 0.29189515 0
3.6740003 1.8260968 0.29179233 0
3.6770003 1.8219012 0.29168952 0
3.6800003 1.8176947 0.2915867 0
3.6830003 1.8134774 0.29148388 0
3.6860003 1.8092493 0.29138106 0
3.6890004 1.8050103 0.29127824 0
3.6920002 1.8007604 0.29117543 0
3.6950002 1.7964998 0.29107261 0
3.6980002 1.7922285 0.29096979 0
3.7020001 1.7885017 0.2908327 0
3.7050002 1.7842069 0.29072988 0
3.7080002 1.7799013 0.29062706 0
3.7110002 1.7755847 0.29052424 0
3.7140002 1.7712574 0.29042143 0
3.7170002 1.7669193 0.29031861 0
3.7200003 1.7625704 0.29021579 0
3.7230003 1.7582105 0.29011297 0
3.7260003 1.7538399 0.29001015 0
3.7290003 1.7494584 0.28990734 0
3.7320004 1.7450662 0.28980452 0
3.7350004 1.7406631 0.2897017 0
3.7380002 1.7362491 0.28959888 0
3.7420003 1.7323565 0.28946179 0
3.7450004 1.7279191 0.28935897 0
3.7480001 1.7234708 0.28925616 0
3.7510002 1.7190119 0.28915334 0
3.7540002 1.714542 0.28905052 0
3.7570002 1.7100614 0.2889477 0
3.7600002 1.70557 0.28884488 0
3.7630002 1.7010677 0.28874207 0
3.7670002 1.6970721 0.28860497 0
3.7700002 1.6925464 0.28850219 0
3.7730002 1.6880099 0.28839934 0
3.7760003 1.6834625 0.28829652 0
3.7790003 1.6789043 0.2881937 0
3.7830002 1.6748439 0.28805664 0
3.7860003 1.6702622 0.28795382 0
3.7890003 1.6656697 0.28785098 0
3.7920003 1.6610664 0.28774816 0
3.6650002 1.8386189 0.28621134 0
3.6680002 1.8344557 0.28610313 0
3.6710002 1.8302817 0.28599489 0
3.6740003 1.8260968 0.28588665 0
3.6770003 1.8219012 0.28577843 0
3.6800003 1.8176947 0.28567019 0
3.6830003 1.8134774 0.28556198 0
3.6860003 1.8092493 0.28545374 0
3.6890004 1.8050103 0.28534549 0
3.6920002 1.8007604 0.28523728 0
3.6950002 1.7964998 0.28512907 0
3.6980002 1.7922285 0.28502083 0
3.7020001 1.7885017 0.28487653 0
3.7050002 1.7842069 0.28476828 0
3.7080002 1.7799013 0.28466007 0
3.7110002 1.7755847 0.28455183 0
3.7140002 1.7712574 0.28444362 0
3.7170002 1.7669193 0.28433537 0
3.7200003 1.7625704 0.28422713 0
3.7230003 1.7582105 0.28411892 0
3.7260003 1.7538399 0.28401068 0
3.7290003 1.7494584 0.28390247 0
3.7320004 1.7450662 0.28379422 0
3.7350004 1.7406631 0.28368601 0
3.7380002 1.7362491 0.28357777 0
3.7420003 1.7323565 0.28343347 0
3.7450004 1.7279191 0.28332523 0
3.7480001 1.7234708 0.28321701 0
3.7510002 1.7190119 0.28310877 0
3.7540002 1.714542 0.28300056 0
3.7570002 1.7100614 0.28289235 0
3.7600002 1.70557 0.2827841 0
3.7630002 1.7010677 0.28267586 0
3.7670002 1.6970721 0.28253156 0
3.7700002 1.6925464 0.28242335 0
3.7730002 1.6880099 0.28231511 0
3.7760003 1.6834625 0.28220689 0
3.7790003 1.6789043 0.28209865 0
3.7830002 1.6748439 0.28195435 0
3.7860003 1.6702622 0.28184611 0
3.7890003 1.6656697 0.28173789 0
3.7920003 1.6610664 0.28162965 0
3.6650002 1.8386189 0.2803219 0
3.6680002 1.8344557 0.28020826 0
3.6710002 1.8302817 0.28009462 0
3.6740003 1.8260968 0.27998099 0
3.6770003 1.8219012 0.27986735 0
3.6800003 1.8176947 0.27975368 0
3.6830003 1.8134774 0.27964005 0
3.6860003 1.8092493 0.27952641 0
3.6890004 1.8050103 0.27941278 0
3.6920002 1.8007604 0.27929914 0
3.6950002 1.7964998 0.2791855 0
3.6980002 1.7922285 0.27907187 0
3.7020001 1.7885017 0.27892035 0
3.7050002 1.7842069 0.27880672 0
3.7080002 1.7799013 0.27869308 0
3.7110002 1.7755847 0.27857941 0
3.7140002 1.7712574 0.27846581 0
3.7170002 1.7669193 0.27835214 0
3.7200003 1.7625704 0.27823851 0
3.7230003 1.7582105 0.27812487 0
3.7260003 1.7538399 0.2780112 0
3.7290003 1.7494584 0.2778976 0
3.7320004 1.7450662 0.27778393 0
3.7350004 1.7406631 0.27767032 0
3.7380002 1.7362491 0.27755666 0
3.7420003 1.7323565 0.27740514 0
3.7450004 1.7279191 0.27729151 0
3.7480001 1.7234708 0.27717787 0
3.7510002 1.7190119 0.27706423 0
3.7540002 1.714542 0.2769506 0
3.7570002 1.7100614 0.27683693 0
3.7600002 1.70557 0.2767233 0
3.7630002 1.7010677 0.27660966 0
3.7670002 1.6970721 0.27645814 0
3.7700002 1.6925464 0.27634451 0
3.7730002 1.6880099 0.27623087 0
3.7760003 1.6834625 0.27611721 0
3.7790003 1.6789043 0.2760036 0
3.7830002 1.6748439 0.27585208 0
3.7860003 1.6702622 0.27573842 0
3.7890003 1.6656697 0.27562478 0
3.7920003 1.6610664 0.27551115 0
3.6650002 1.8386189 0.27443248 0
3.6680002 1.8344557 0.27431342 0
3.6710002 1.8302817 0.27419436 0
3.6740003 1.8260968 0.27407533 0
3.6770003 1.8219012 0.27395627 0
3.6800003 1.8176947 0.27383721 0
3.6830003 1.8134774 0.27371818 0
3.6860003 1.8092493 0.27359909 0
3.6890004 1.8050103 0.27348006 0
3.6920002 1.8007604 0.27336103 0
3.6950002 1.7964998 0.27324194 0
3.6980002 1.7922285 0.27312291 0
3.7020001 1.7885017 0.27296418 0
3.7050002 1.7842069 0.27284512 0
3.7080002 1.7799013 0.27272606 0
3.7110002 1.7755847 0.27260703 0
3.7140002 1.7712574 0.27248797 0
3.7170002 1.7669193 0.27236891 0
3.7200003 1.7625704 0.27224988 0
3.7230003 1.7582105 0.27213082 0
3.7260003 1.7538399 0.27201176 0
3.7290003 1.7494584 0.2718927 0
3.7320004 1.7450662 0.27177364 0
3.7350004 1.7406631 0.27165461 0
3.7380002 1.7362491 0.27153555 0
3.7420003 1.7323565 0.27137682 0
3.7450004 1.7279191 0.27125776 0
3.7480001 1.7234708 0.27113873 0
3.7510002 1.7190119 0.27101967 0
3.7540002 1.714542 0.27090061 0
3.7570002 1.7100614 0.27078158 0
3.7600002 1.70557 0.27066249 0
3.7630002 1.7010677 0.27054346 0
3.7670002 1.6970721 0.27038473 0
3.7700002 1.6925464 0.2702657 0
3.7730002 1.6880099 0.27014661 0
3.7760003 1.6834625 0.27002758 0
3.7790003 1.6789043 0.26990852 0
3.7830002 1.6748439 0.26974979 0
3.7860003 1.6702622 0.26963073 0
3.7890003 1.6656697 0.26951167 0
3.7920003 1.6610664 0.26939261 0
3.6650002 1.8386189 0.26854303 0
3.6680002 1.8344557 0.26841858 0
3.6710002 1.8302817 0.2682941 0
3.6740003 1.8260968 0.26816964 0
3.6770003 1.8219012 0.26804519 0
3.6800003 1.8176947 0.26792073 0
3.6830003 1.8134774 0.26779628 0
3.6860003 1.8092493 0.26767179 0
3.6890004 1.8050103 0.26754734 0
3.6920002 1.8007604 0.26742285 0
3.6950002 1.7964998 0.2672984 0
3.6980002 1.7922285 0.26717395 0
3.7020001 1.7885017 0.26700801 0
3.7050002 1.7842069 0.26688355 0
3.7080002 1.7799013 0.2667591 0
3.7110002 1.7755847 0.26663461 0
3.7140002 1.7712574 0.26651013 0
3.7170002 1.7669193 0.26638567 0
3.7200003 1.7625704 0.26626122 0
3.7230003 1.7582105 0.26613677 0
3.7260003 1.7538399 0.26601231 0
3.7290003 1.7494584 0.26588783 0
3.7320004 1.7450662 0.26576334 0
3.7350004 1.7406631 0.26563889 0
3.7380002 1.7362491 0.26551443 0
3.7420003 1.7323565 0.26534849 0
3.7450004 1.7279191 0.26522404 0
3.7480001 1.7234708 0.26509959 0
3.7510002 1.7190119 0.26497513 0
3.7540002 1.714542 0.26485065 0
3.7570002 1.7100614 0.26472616 0
3.7600002 1.70557 0.26460171 0
3.7630002 1.7010677 0.26447725 0
3.7670002 1.6970721 0.26431131 0
3.7700002 1.6925464 0.26418686 0
3.7730002 1.6880099 0.26406237 0
3.7760003 1.6834625 0.26393792 0
3.7790003 1.6789043 0.26381344 0
3.7830002 1.6748439 0.2636475 0
3.7860003 1.6702622 0.26352304 0
3.7890003 1.6656697 0.26339859 0
3.7920003 1.6610664 0.2632741 0
3.6650002 1.8386189 0.26265359 0
3.6680002 1.8344557 0.26252371 0
3.6710002 1.8302817 0.26239383 0
3.6740003 1.8260968 0.26226398 0
3.6770003 1.8219012 0.2621341 0
3.6800003 1.8176947 0.26200426 0
3.6830003 1.8134774 0.26187435 0
3.6860003 1.8092493 0.2617445 0
3.6890004 1.8050103 0.26161462 0
3.6920002 1.8007604 0.26148474 0
3.6950002 1.7964998 0.26135486 0
3.6980002 1.7922285 0.26122499 0
3.7020001 1.7885017 0.26105183 0
3.7050002 1.7842069 0.26092196 0
3.7080002 1.7799013 0.26079208 0
3.7110002 1.7755847 0.2606622 0
3.7140002 1.7712574 0.26053232 0
3.7170002 1.7669193 0.26040244 0
3.7200003 1.7625704 0.26027256 0
3.7230003 1.7582105 0.26014268 0
3.7260003 1.7538399 0.26001281 0
3.7290003 1.7494584 0.25988296 0
3.7320004 1.7450662 0.25975308 0
3.7350004 1.7406631 0.2596232 0
3.7380002 1.7362491 0.25949335 0
3.7420003 1.7323565 0.25932014 0
3.7450004 1.7279191 0.25919029 0
3.7480001 1.7234708 0.25906041 0
3.7510002 1.7190119 0.25893053 0
3.7540002 1.714542 0.25880069 0
3.7570002 1.7100614 0.25867081 0
3.7600002 1.70557 0.25854093 0
3.7630002 1.7010677 0.25841105 0
3.7670002 1.6970721 0.2582379 0
3.7700002 1.6925464 0.25810802 0
3.7730002 1.6880099 0.25797814 0
3.7760003 1.6834625 0.25784826 0
3.7790003 1.6789043 0.25771838 0
3.7830002 1.6748439 0.25754523 0
3.7860003 1.6702622 0.25741535 0
3.7890003 1.6656697 0.25728548 0
3.7920003 1.6610664 0.2571556 0
3.6650002 1.8386189 0.25676417 0
3.6680002 1.8344557 0.25662887 0
3.6710002 1.8302817 0.2564936 0
3.6740003 1.8260968 0.25635833 0
3.6770003 1.8219012 0.25622302 0
3.6800003 1.8176947 0.25608772 0
3.6830003 1.8134774 0.25595245 0
3.6860003 1.8092493 0.25581717 0
3.6890004 1.8050103 0.25568187 0
3.6920002 1.8007604 0.2555466 0
3.6950002 1.7964998 0.25541133 0
3.6980002 1.7922285 0.25527602 0
3.7020001 1.7885017 0.25509566 0
3.7050002 1.7842069 0.25496036 0
3.7080002 1.7799013 0.25482506 0
3.7110002 1.7755847 0.25468981 0
3.7140002 1.7712574 0.25455451 0
3.7170002 1.7669193 0.25441921 0
3.7200003 1.7625704 0.25428391 0
3.7230003 1.7582105 0.25414866 0
3.7260003 1.7538399 0.25401336 0
3.7290003 1.7494584 0.25387806 0
3.7320004 1.7450662 0.25374278 0
3.7350004 1.7406631 0.25360751 0
3.7380002 1.7362491 0.25347221 0
3.7420003 1.7323565 0.25329185 0
3.7450004 1.7279191 0.25315654 0
3.7480001 1.7234708 0.25302127 0
3.7510002 1.7190119 0.252886 0
3.7540002 1.714542 0.25275069 0
3.7570002 1.7100614 0.25261539 0
3.7600002 1.70557 0.25248015 0
3.7630002 1.7010677 0.25234485 0
3.7670002 1.6970721 0.25216445 0
3.7700002 1.6925464 0.25202918 0
3.7730002 1.6880099 0.25189388 0
3.7760003 1.6834625 0.25175861 0
3.7790003 1.6789043 0.2516233 0
3.7830002 1.6748439 0.25144294 0
3.7860003 1.6702622 0.25130767 0
3.7890003 1.6656697 0.25117236 0
3.7920003 1.6610664 0.25103706 0
3.6650002 1.8386189 0.25087476 0
3.6680002 1.8344557 0.25073403 0
3.6710002 1.8302817 0.25059333 0
3.6740003 1.8260968 0.25045264 0
3.6770003 1.8219012 0.25031194 0
3.6800003 1.8176947 0.25017124 0
3.6830003 1.8134774 0.25003055 0
3.6860003 1.8092493 0.24988985 0
3.6890004 1.8050103 0.24974915 0
3.6920002 1.8007604 0.24960846 0
3.6950002 1.7964998 0.24946778 0
3.6980002 1.7922285 0.24932708 0
3.7020001 1.7885017 0.24913947 0
3.7050002 1.7842069 0.24899878 0
3.7080002 1.7799013 0.24885808 0
3.7110002 1.7755847 0.24871737 0
3.7140002 1.7712574 0.24857669 0
3.7170002 1.7669193 0.24843599 0
3.7200003 1.7625704 0.24829528 0
3.7230003 1.7582105 0.2481546 0
3.7260003 1.7538399 0.24801388 0
3.7290003 1.7494584 0.24787319 0
3.7320004 1.7450662 0.24773251 0
3.7350004 1.7406631 0.24759179 0
3.7380002 1.7362491 0.24745111 0
3.7420003 1.7323565 0.24726351 0
3.7450004 1.7279191 0.24712281 0
3.7480001 1.7234708 0.24698211 0
3.7510002 1.7190119 0.24684143 0
3.7540002 1.714542 0.24670072 0
3.7570002 1.7100614 0.24656002 0
3.7600002 1.70557 0.24641934 0
3.7630002 1.7010677 0.24627863 0
3.7670002 1.6970721 0.24609104 0
3.7700002 1.6925464 0.24595034 0
3.7730002 1.6880099 0.24580963 0
3.7760003 1.6834625 0.24566895 0
3.7790003 1.6789043 0.24552825 0
3.7830002 1.6748439 0.24534066 0
3.7860003 1.6702622 0.24519995 0
3.7890003 1.6656697 0.24505925 0
3.7920003 1.6610664 0.24491857 0
3.6650002 1.8386189 0.2449853 0
3.6680002 1.8344557 0.24483919 0
3.6710002 1.8302817 0.24469309 0
3.6740003 1.8260968 0.24454698 0
3.6770003 1.8219012 0.24440086 0
3.6800003 1.8176947 0.24425475 0
3.6830003 1.8134774 0.24410865 0
3.6860003 1.8092493 0.24396253 0
3.6890004 1.8050103 0.24381642 0
3.6920002 1.8007604 0.24367033 0
3.6950002 1.7964998 0.24352421 0
3.6980002 1.7922285 0.2433781 0
3.7020001 1.7885017 0.2431833 0
3.7050002 1.7842069 0.24303719 0
3.7080002 1.7799013 0.24289109 0
3.7110002 1.7755847 0.24274497 0
3.7140002 1.7712574 0.24259886 0
3.7170002 1.7669193 0.24245276 0
3.7200003 1.7625704 0.24230663 0
3.7230003 1.7582105 0.24216053 0
3.7260003 1.7538399 0.24201444 0
3.7290003 1.7494584 0.24186832 0
3.7320004 1.7450662 0.24172221 0
3.7350004 1.7406631 0.24157611 0
3.7380002 1.7362491 0.24143 0
3.7420003 1.7323565 0.24123517 0
3.7450004 1.7279191 0.24108906 0
3.7480001 1.7234708 0.24094297 0
3.7510002 1.7190119 0.24079685 0
3.7540002 1.714542 0.24065076 0
3.7570002 1.7100614 0.24050465 0
3.7600002 1.70557 0.24035853 0
3.7630002 1.7010677 0.24021243 0
3.7670002 1.6970721 0.24001761 0
3.7700002 1.6925464 0.2398715 0
3.7730002 1.6880099 0.2397254 0
3.7760003 1.6834625 0.23957928 0
3.7790003 1.6789043 0.23943318 0
3.7830002 1.6748439 0.23923837 0
3.7860003 1.6702622 0.23909226 0
3.7890003 1.6656697 0.23894614 0
3.7920003 1.6610664 0.23880003 0
3.6650002 1.8386189 0.23909587 0
3.6680002 1.8344557 0.23894434 0
3.6710002 1.8302817 0.23879282 0
3.6740003 1.8260968 0.23864131 0
3.6770003 1.8219012 0.23848979 0
3.6800003 1.8176947 0.23833826 0
3.6830003 1.8134774 0.23818675 0
3.6860003 1.8092493 0.23803522 0
3.6890004 1.8050103 0.2378837 0
3.6920002 1.8007604 0.23773219 0
3.6950002 1.7964998 0.23758067 0
3.6980002 1.7922285 0.23742916 0
3.7020001 1.7885017 0.23722713 0
3.7050002 1.7842069 0.23707561 0
3.7080002 1.7799013 0.23692408 0
3.7110002 1.7755847 0.23677257 0
3.7140002 1.7712574 0.23662104 0
3.7170002 1.7669193 0.23646952 0
3.7200003 1.7625704 0.23631799 0
3.7230003 1.7582105 0.23616648 0
3.7260003 1.7538399 0.23601496 0
3.7290003 1.7494584 0.23586343 0
3.7320004 1.7450662 0.23571192 0
3.7350004 1.7406631 0.2355604 0
3.7380002 1.7362491 0.23540889 0
3.7420003 1.7323565 0.23520686 0
3.7450004 1.7279191 0.23505534 0
3.7480001 1.7234708 0.23490381 0
3.7510002 1.7190119 0.2347523 0
3.7540002 1.714542 0.23460078 0
3.7570002 1.7100614 0.23444925 0
3.7600002 1.70557 0.23429774 0
3.7630002 1.7010677 0.23414622 0
3.7670002 1.6970721 0.23394419 0
3.7700002 1.6925464 0.23379268 0
3.7730002 1.6880099 0.23364116 0
3.7760003 1.6834625 0.23348962 0
3.7790003 1.6789043 0.2333381 0
3.7830002 1.6748439 0.23313607 0
3.7860003 1.6702622 0.23298456 0
3.7890003 1.6656697 0.23283304 0
3.7920003 1.6610664 0.23268153 0
3.6650002 1.8386189 0.23320644 0
3.6680002 1.8344557 0.2330495 0
3.6710002 1.8302817 0.23289257 0
3.6740003 1.8260968 0.23273563 0
3.6770003 1.8219012 0.23257871 0
3.6800003 1.8176947 0.23242179 0
3.6830003 1.8134774 0.23226483 0
3.6860003 1.8092493 0.23210791 0
3.6890004 1.8050103 0.23195098 0
3.6920002 1.8007604 0.23179406 0
3.6950002 1.7964998 0.23163712 0
3.6980002 1.7922285 0.23148018 0
3.7020001 1.7885017 0.23127095 0
3.7050002 1.7842069 0.23111401 0
3.7080002 1.7799013 0.23095709 0
3.7110002 1.7755847 0.23080015 0
3.7140002 1.7712574 0.23064323 0
3.7170002 1.7669193 0.23048629 0
3.7200003 1.7625704 0.23032935 0
3.7230003 1.7582105 0.23017243 0
3.7260003 1.7538399 0.23001549 0
3.7290003 1.7494584 0.22985856 0
3.7320004 1.7450662 0.22970162 0
3.7350004 1.7406631 0.22954468 0
3.7380002 1.7362491 0.22938778 0
3.7420003 1.7323565 0.22917852 0
3.7450004 1.7279191 0.22902159 0
3.7480001 1.7234708 0.22886467 0
3.7510002 1.7190119 0.22870775 0
3.7540002 1.714542 0.22855079 0
3.7570002 1.7100614 0.22839387 0
3.7600002 1.70557 0.22823694 0
3.7630002 1.7010677 0.22808 0
3.7670002 1.6970721 0.22787076 0
3.7700002 1.6925464 0.22771384 0
3.7730002 1.6880099 0.22755691 0
3.7760003 1.6834625 0.22739998 0
3.7790003 1.6789043 0.22724304 0
3.7830002 1.6748439 0.22703381 0
3.7860003 1.6702622 0.22687687 0
3.7890003 1.6656697 0.22671993 0
3.7920003 1.6610664 0.22656301 0
3.6650002 1.8386189 0.22731699 0
3.6680002 1.8344557 0.22715466 0
3.6710002 1.8302817 0.22699231 0
3.6740003 1.8260968 0.22682998 0
3.6770003 1.8219012 0.22666763 0
3.6800003 1.8176947 0.22650528 0
3.6830003 1.8134774 0.22634295 0
3.6860003 1.8092493 0.22618058 0
3.6890004 1.8050103 0.22601825 0
3.6920002 1.8007604 0.22585592 0
3.6950002 1.7964998 0.22569357 0
3.6980002 1.7922285 0.22553124 0
3.7020001 1.7885017 0.22531478 0
3.7050002 1.7842069 0.22515243 0
3.7080002 1.7799013 0.22499008 0
3.7110002 1.7755847 0.22482775 0
3.7140002 1.7712574 0.2246654 0
3.7170002 1.7669193 0.22450306 0
3.7200003 1.7625704 0.22434071 0
3.7230003 1.7582105 0.22417837 0
3.7260003 1.7538399 0.22401603 0
3.7290003 1.7494584 0.22385368 0
3.7320004 1.7450662 0.22369134 0
3.7350004 1.7406631 0.223529 0
3.7380002 1.7362491 0.22336666 0
3.7420003 1.7323565 0.22315019 0
3.7450004 1.7279191 0.22298786 0
3.7480001 1.7234708 0.22282551 0
3.7510002 1.7190119 0.22266318 0
3.7540002 1.714542 0.22250083 0
3.7570002 1.7100614 0.22233848 0
3.7600002 1.70557 0.22217615 0
3.7630002 1.7010677 0.2220138 0
3.7670002 1.6970721 0.22179735 0
3.7700002 1.6925464 0.221635 0
3.7730002 1.6880099 0.22147267 0
3.7760003 1.6834625 0.22131032 0
3.7790003 1.6789043 0.22114798 0
3.7830002 1.6748439 0.22093152 0
3.7860003 1.6702622 0.22076918 0
3.7890003 1.6656697 0.22060683 0
3.7920003 1.6610664 0.22044449 0
3.6650002 1.8386189 0.22142756 0
3.6680002 1.8344557 0.2212598 0
3.6710002 1.8302817 0.22109206 0
3.6740003 1.8260968 0.2209243 0
3.6770003 1.8219012 0.22075655 0
3.6800003 1.8176947 0.22058879 0
3.6830003 1.8134774 0.22042103 0
3.6860003 1.8092493 0.22025329 0
3.6890004 1.8050103 0.22008553 0
3.6920002 1.8007604 0.21991777 0
3.6950002 1.7964998 0.21975002 0
3.6980002 1.7922285 0.21958226 0
3.7020001 1.7885017 0.21935861 0
3.7050002 1.7842069 0.21919085 0
3.7080002 1.7799013 0.21902309 0
3.7110002 1.7755847 0.21885534 0
3.7140002 1.7712574 0.21868758 0
3.7170002 1.7669193 0.21851982 0
3.7200003 1.7625704 0.21835206 0
3.7230003 1.7582105 0.21818431 0
3.7260003 1.7538399 0.21801656 0
3.7290003 1.7494584 0.21784881 0
3.7320004 1.7450662 0.21768105 0
3.7350004 1.7406631 0.21751329 0
3.7380002 1.7362491 0.21734555 0
3.7420003 1.7323565 0.21712187 0
3.7450004 1.7279191 0.21695411 0
3.7480001 1.7234708 0.21678637 0
3.7510002 1.7190119 0.21661861 0
3.7540002 1.714542 0.21645087 0
3.7570002 1.7100614 0.21628311 0
3.7600002 1.70557 0.21611536 0
3.7630002 1.7010677 0.2159476 0
3.7670002 1.6970721 0.21572392 0
3.7700002 1.6925464 0.21555617 0
3.7730002 1.6880099 0.21538842 0
3.7760003 1.6834625 0.21522066 0
3.7790003 1.6789043 0.2150529 0
3.7830002 1.6748439 0.21482924 0
3.7860003 1.6702622 0.21466148 0
3.7890003 1.6656697 0.21449372 0
3.7920003 1.6610664 0.21432596 0
3.6650002 1.8386189 0.21553813 0
3.6680002 1.8344557 0.21536496 0
3.6710002 1.8302817 0.2151918 0
3.6740003 1.8260968 0.21501863 0
3.6770003 1.8219012 0.21484546 0
3.6800003 1.8176947 0.2146723 0
3.6830003 1.8134774 0.21449913 0
3.6860003 1.8092493 0.21432596 0
3.6890004 1.8050103 0.2141528 0
3.6920002 1.8007604 0.21397965 0
3.6950002 1.7964998 0.21380648 0
3.6980002 1.7922285 0.21363331 0
3.7020001 1.7885017 0.21340242 0
3.7050002 1.7842069 0.21322925 0
3.7080002 1.7799013 0.21305609 0
3.7110002 1.7755847 0.21288292 0
3.7140002 1.7712574 0.21270975 0
3.7170002 1.7669193 0.21253659 0
3.7200003 1.7625704 0.21236342 0
3.7230003 1.7582105 0.21219026 0
3.7260003 1.7538399 0.21201709 0
3.7290003 1.7494584 0.21184392 0
3.7320004 1.7450662 0.21167076 0
3.7350004 1.7406631 0.21149759 0
3.7380002 1.7362491 0.21132444 0
3.7420003 1.7323565 0.21109354 0
3.7450004 1.7279191 0.21092038 0
3.7480001 1.7234708 0.21074723 0
3.7510002 1.7190119 0.21057406 0
3.7540002 1.714542 0.21040089 0
3.7570002 1.7100614 0.21022773 0
3.7600002 1.70557 0.21005456 0
3.7630002 1.7010677 0.20988138 0
3.7670002 1.6970721 0.2096505 0
3.7700002 1.6925464 0.20947734 0
3.7730002 1.6880099 0.20930417 0
3.7760003 1.6834625 0.209131 0
3.7790003 1.6789043 0.20895784 0
3.7830002 1.6748439 0.20872696 0
3.7860003 1.6702622 0.20855379 0
3.7890003 1.6656697 0.20838062 0
3.7920003 1.6610664 0.20820746 0
3.6650002 1.8386189 0.2096487 0
3.6680002 1.8344557 0.20947012 0
3.6710002 1.8302817 0.20929153 0
3.6740003 1.8260968 0.20911296 0
3.6770003 1.8219012 0.20893438 0
3.6800003 1.8176947 0.20875581 0
3.6830003 1.8134774 0.20857723 0
3.6860003 1.8092493 0.20839864 0
3.6890004 1.8050103 0.20822006 0
3.6920002 1.8007604 0.2080415 0
3.6950002 1.7964998 0.20786293 0
3.6980002 1.7922285 0.20768435 0
3.7020001 1.7885017 0.20744625 0
3.7050002 1.7842069 0.20726767 0
3.7080002 1.7799013 0.2070891 0
3.7110002 1.7755847 0.20691052 0
3.7140002 1.7712574 0.20673193 0
3.7170002 1.7669193 0.20655335 0
3.7200003 1.7625704 0.20637478 0
3.7230003 1.7582105 0.2061962 0
3.7260003 1.7538399 0.20601761 0
3.7290003 1.7494584 0.20583904 0
3.7320004 1.7450662 0.20566046 0
3.7350004 1.7406631 0.20548189 0
3.7380002 1.7362491 0.20530333 0
3.7420003 1.7323565 0.20506521 0
3.7450004 1.7279191 0.20488663 0
3.7480001 1.7234708 0.20470807 0
3.7510002 1.7190119 0.20452949 0
3.7540002 1.714542 0.2043509 0
3.7570002 1.7100614 0.20417233 0
3.7600002 1.70557 0.20399375 0
3.7630002 1.7010677 0.20381518 0
3.7670002 1.6970721 0.20357709 0
3.7700002 1.6925464 0.2033985 0
3.7730002 1.6880099 0.20321992 0
3.7760003 1.6834625 0.20304134 0
3.7790003 1.6789043 0.20286277 0
3.7830002 1.6748439 0.20262466 0
3.7860003 1.6702622 0.20244609 0
3.7890003 1.6656697 0.20226751 0
3.7920003 1.6610664 0.20208894 0
3.6650002 1.8386189 0.20375927 0
3.6680002 1.8344557 0.20357527 0
3.6710002 1.8302817 0.20339128 0
3.6740003 1.8260968 0.20320728 0
3.6770003 1.8219012 0.2030233 0
3.6800003 1.8176947 0.20283931 0
3.6830003 1.8134774 0.20265533 0
3.6860003 1.8092493 0.20247135 0
3.6890004 1.8050103 0.20228735 0
3.6920002 1.8007604 0.20210338 0
3.6950002 1.7964998 0.20191939 0
3.6980002 1.7922285 0.20173539 0
3.7020001 1.7885017 0.20149007 0
3.7050002 1.7842069 0.20130609 0
3.7080002 1.7799013 0.20112211 0
3.7110002 1.7755847 0.20093811 0
3.7140002 1.7712574 0.20075412 0
3.7170002 1.7669193 0.20057012 0
3.7200003 1.7625704 0.20038614 0
3.7230003 1.7582105 0.20020214 0
3.7260003 1.7538399 0.20001817 0
3.7290003 1.7494584 0.19983418 0
3.7320004 1.7450662 0.19965018 0
3.7350004 1.7406631 0.1994662 0
3.7380002 1.7362491 0.19928221 0
3.7420003 1.7323565 0.1990369 0
3.7450004 1.7279191 0.1988529 0
3.7480001 1.7234708 0.19866893 0
3.7510002 1.7190119 0.19848493 0
3.7540002 1.714542 0.19830094 0
3.7570002 1.7100614 0.19811696 0
3.7600002 1.70557 0.19793296 0
3.7630002 1.7010677 0.19774897 0
3.7670002 1.6970721 0.19750366 0
3.7700002 1.6925464 0.19731967 0
3.7730002 1.6880099 0.19713567 0
3.7760003 1.6834625 0.19695169 0
3.7790003 1.6789043 0.19676769 0
3.7830002 1.6748439 0.19652238 0
3.7860003 1.6702622 0.19633839 0
3.7890003 1.6656697 0.1961544 0
3.7920003 1.6610664 0.19597042 0
