# .PCD v0.7 - Point Cloud Data file format
VERSION 0.7
FIELDS x y z intensity
SIZE 4 4 4 4
TYPE F F F F
COUNT 1 1 1 1
WIDTH 1398
HEIGHT 1
VIEWPOINT 0 0 0 1 0 0 0
POINTS 1398
DATA ascii
4.152 -0.72955668 0.41076791 0
4.296 -0.10924873 0.40400001 0
4.29 -0.11616814 0.40400001 0
4.283 -0.12304606 0.40400001 0
4.277 -0.12992038 0.40400001 0
4.2710004 -0.13677305 0.40400001 0
4.2639999 -0.14357881 0.40400001 0
4.0830002 -0.33831072 0.40400001 0
4.0770001 -0.34446713 0.40400001 0
4.0710001 -0.35060188 0.40400001 0
4.0650001 -0.35671499 0.40400001 0
4.0599999 -0.36289304 0.40400001 0
4.0540004 -0.36896467 0.40400001 0
4.0480003 -0.37501463 0.40400001 0
4.0560002 -0.40211505 0.40400001 0
4.0640001 -0.40950346 0.40400001 0
3.9830003 -0.48548704 0.40400001 0
3.9750004 -0.4909544 0.40400001 0
3.9700003 -0.49677166 0.40400001 0
3.9650002 -0.50257093 0.40400001 0
3.9620004 -0.50861186 0.40400001 0
3.9600003 -0.51477367 0.40400001 0
3.9590003 -0.52106178 0.40400001 0
3.9580002 -0.52734619 0.40400001 0
3.9590003 -0.53390127 0.40400001 0
3.9600003 -0.54045993 0.40400001 0
3.9620004 -0.54716289 0.40400001 0
3.9660003 -0.55415803 0.40400001 0
3.9710002 -0.5613119 0.40400001 0
4.164 -0.65705806 0.40400001 0
4.1570001 -0.66269863 0.40400001 0
4.151 -0.6684798 0.40400001 0
4.1470003 -0.67457485 0.40400001 0
4.1440001 -0.68082505 0.40400001 0
4.1420002 -0.68723577 0.40400001 0
4.1410003 -0.69381249 0.40400001 0
4.1410003 -0.70056051 0.40400001 0
4.1420002 -0.70748532 0.40400001 0
4.1440001 -0.71459234 0.40400001 0
4.1470003 -0.72188693 0.40400001 0
4.152 -0.72955668 0.40400001 0
4.296 -0.10924873 0.39697239 0
4.29 -0.11616814 0.39698321 0
4.283 -0.12304606 0.39699581 0
4.277 -0.12992038 0.39700666 0
4.2710004 -0.13677305 0.39701748 0
4.2639999 -0.14357881 0.39703009 0
4.0830002 -0.33831072 0.3973566 0
4.0770001 -0.34446713 0.39736742 0
4.0710001 -0.35060188 0.39737824 0
4.0650001 -0.35671499 0.39738905 0
4.0599999 -0.36289304 0.39739808 0
4.0540004 -0.36896467 0.3974089 0
4.0480003 -0.37501463 0.39741972 0
4.0560002 -0.40211505 0.3974053 0
3.9830003 -0.48548704 0.39753696 0
3.9750004 -0.4909544 0.39755139 0
3.9700003 -0.49677166 0.39756042 0
3.9650002 -0.50257093 0.39756945 0
3.9620004 -0.50861186 0.39757484 0
3.9600003 -0.51477367 0.39757845 0
3.9590003 -0.52106178 0.39758027 0
3.9580002 -0.52734619 0.39758205 0
3.9590003 -0.53390127 0.39758027 0
3.9600003 -0.54045993 0.39757845 0
3.9620004 -0.54716289 0.39757484 0
3.9660003 -0.55415803 0.39756763 0
3.9710002 -0.5613119 0.39755863 0
4.164 -0.65705806 0.39721048 0
4.1570001 -0.66269863 0.39722311 0
4.151 -0.6684798 0.39723393 0
4.1470003 -0.67457485 0.39724115 0
4.1440001 -0.68082505 0.39724657 0
4.1420002 -0.68723577 0.39725018 0
4.1410003 -0.69381249 0.39725196 0
4.1410003 -0.70056051 0.39725196 0
4.1420002 -0.70748532 0.39725018 0
4.1440001 -0.71459234 0.39724657 0
4.1470003 -0.72188693 0.39724115 0
4.152 -0.72955668 0.39723212 0
4.296 -0.10924873 0.38994473 0
4.29 -0.11616814 0.3899664 0
4.283 -0.12304606 0.38999164 0
4.277 -0.12992038 0.39001328 0
4.2710004 -0.13677305 0.39003494 0
4.2639999 -0.14357881 0.39006019 0
4.0770001 -0.34446713 0.39073482 0
4.0710001 -0.35060188 0.39075646 0
4.0650001 -0.35671499 0.39077809 0
4.0599999 -0.36289304 0.39079612 0
4.0540004 -0.36896467 0.39081779 0
3.9830003 -0.48548704 0.39107391 0
3.9750004 -0.4909544 0.39110279 0
3.9700003 -0.49677166 0.39112082 0
3.9650002 -0.50257093 0.39113885 0
3.9620004 -0.50861186 0.39114967 0
3.9600003 -0.51477367 0.39115691 0
3.9590003 -0.52106178 0.39116052 0
3.9580002 -0.52734619 0.39116412 0
3.9590003 -0.53390127 0.39116052 0
3.9600003 -0.54045993 0.39115691 0
3.9620004 -0.54716289 0.39114967 0
3.9660003 -0.55415803 0.39113525 0
3.9710002 -0.5613119 0.39111722 0
4.164 -0.65705806 0.39042094 0
4.1570001 -0.66269863 0.39044619 0
4.151 -0.6684798 0.39046785 0
4.1470003 -0.67457485 0.39048228 0
4.1440001 -0.68082505 0.39049309 0
4.1420002 -0.68723577 0.39050031 0
4.1410003 -0.69381249 0.39050391 0
4.1410003 -0.70056051 0.39050391 0
4.1420002 -0.70748532 0.39050031 0
4.1440001 -0.71459234 0.39049309 0
4.1470003 -0.72188693 0.39048228 0
4.152 -0.72955668 0.39046425 0
4.29 -0.11616814 0.38294956 0
4.2850003 -0.12308574 0.38297662 0
4.2930002 -0.13026671 0.38293335 0
4.3000002 -0.13745308 0.38289547 0
4.2910004 -0.14426064 0.38294417 0
4.2870002 -0.15117103 0.3829658 0
4.2840004 -0.15809587 0.38298205 0
4.092 -0.35900402 0.38402104 0
4.085 -0.36505759 0.38405892 0
4.0820003 -0.37143949 0.38407513 0
4.0799999 -0.37790069 0.38408598 0
4.079 -0.38444674 0.38409138 0
4.0799999 -0.39117673 0.38408598 0
4.0830002 -0.39810157 0.38406974 0
3.9830003 -0.48548704 0.38461089 0
3.9750004 -0.4909544 0.38465416 0
3.9700003 -0.49677166 0.38468122 0
3.9650002 -0.50257093 0.38470829 0
3.9620004 -0.50861186 0.38472453 0
3.9600003 -0.51477367 0.38473535 0
3.9590003 -0.52106178 0.38474074 0
3.9580002 -0.52734619 0.38474616 0
3.9590003 -0.53390127 0.38474074 0
3.9600003 -0.54045993 0.38473535 0
3.9620004 -0.54716289 0.38472453 0
3.9660003 -0.55415803 0.38470286 0
3.9710002 -0.5613119 0.38467583 0
4.164 -0.65705806 0.38363141 0
4.1570001 -0.66269863 0.38366929 0
4.151 -0.6684798 0.38370177 0
4.1470003 -0.67457485 0.38372341 0
4.1440001 -0.68082505 0.38373965 0
4.1420002 -0.68723577 0.38375047 0
4.1410003 -0.69381249 0.38375586 0
4.1410003 -0.70056051 0.38375586 0
4.1420002 -0.70748532 0.38375047 0
4.1440001 -0.71459234 0.38373965 0
4.1470003 -0.72188693 0.38372341 0
4.152 -0.72955668 0.38369635 0
4.29 -0.11616814 0.37593275 0
4.2850003 -0.12308574 0.37596884 0
4.2930002 -0.13026671 0.37591112 0
4.3000002 -0.13745308 0.3758606 0
4.2910004 -0.14426064 0.37592554 0
4.2870002 -0.15117103 0.37595439 0
4.2840004 -0.15809587 0.37597606 0
4.2840004 -0.16510186 0.37597606 0
4.092 -0.35900402 0.37736139 0
4.085 -0.36505759 0.37741187 0
4.0820003 -0.37143949 0.37743354 0
4.0799999 -0.37790069 0.37744796 0
4.079 -0.38444674 0.37745517 0
4.0799999 -0.39117673 0.37744796 0
4.0830002 -0.39810157 0.37742633 0
3.9830003 -0.48548704 0.37814784 0
3.9750004 -0.4909544 0.37820557 0
3.9700003 -0.49677166 0.37824163 0
3.9650002 -0.50257093 0.37827772 0
3.9620004 -0.50861186 0.37829936 0
3.9600003 -0.51477367 0.37831378 0
3.9590003 -0.52106178 0.37832099 0
3.9580002 -0.52734619 0.3783282 0
3.9590003 -0.53390127 0.37832099 0
3.9600003 -0.54045993 0.37831378 0
3.9620004 -0.54716289 0.37829936 0
3.9660003 -0.55415803 0.37827051 0
3.9710002 -0.5613119 0.37823442 0
4.164 -0.65705806 0.37684187 0
4.1570001 -0.66269863 0.37689239 0
4.151 -0.6684798 0.37693566 0
4.1470003 -0.67457485 0.37696454 0
4.1440001 -0.68082505 0.37698618 0
4.1420002 -0.68723577 0.3770006 0
4.1410003 -0.69381249 0.37700784 0
4.1410003 -0.70056051 0.37700784 0
4.1420002 -0.70748532 0.3770006 0
4.1440001 -0.71459234 0.37698618 0
4.1470003 -0.72188693 0.37696454 0
4.152 -0.72955668 0.37692845 0
4.2850003 -0.12308574 0.36896104 0
4.2930002 -0.13026671 0.36888888 0
4.3000002 -0.13745308 0.36882576 0
4.2910004 -0.14426064 0.36890692 0
4.2870002 -0.15117103 0.36894301 0
4.2840004 -0.15809587 0.36897007 0
4.2840004 -0.16510186 0.36897007 0
4.2850003 -0.17214032 0.36896104 0
4.092 -0.35900402 0.37070173 0
4.085 -0.36505759 0.37076485 0
4.0820003 -0.37143949 0.37079191 0
4.0799999 -0.37790069 0.37080994 0
4.079 -0.38444674 0.37081897 0
4.0799999 -0.39117673 0.37080994 0
4.0830002 -0.39810157 0.37078288 0
3.9830003 -0.48548704 0.37168479 0
3.9750004 -0.4909544 0.37175694 0
3.9700003 -0.49677166 0.37180203 0
3.9650002 -0.50257093 0.37184712 0
3.9620004 -0.50861186 0.37187418 0
3.9600003 -0.51477367 0.37189221 0
3.9590003 -0.52106178 0.37190124 0
3.9580002 -0.52734619 0.37191027 0
3.9590003 -0.53390127 0.37190124 0
3.9600003 -0.54045993 0.37189221 0
3.9620004 -0.54716289 0.37187418 0
3.9660003 -0.55415803 0.37183812 0
3.9710002 -0.5613119 0.37179303 0
4.164 -0.65705806 0.37005234 0
4.1570001 -0.66269863 0.37011546 0
4.151 -0.6684798 0.37016958 0
4.1470003 -0.67457485 0.37020567 0
4.1440001 -0.68082505 0.37023273 0
4.1420002 -0.68723577 0.37025076 0
4.1410003 -0.69381249 0.37025979 0
4.1410003 -0.70056051 0.37025979 0
4.1420002 -0.70748532 0.37025076 0
4.1440001 -0.71459234 0.37023273 0
4.1470003 -0.72188693 0.37020567 0
4.152 -0.72955668 0.37016058 0
4.2930002 -0.13026671 0.36186665 0
4.3000002 -0.13745308 0.3617909 0
4.2910004 -0.14426064 0.36188832 0
4.2870002 -0.15117103 0.36193159 0
4.2840004 -0.15809587 0.36196408 0
4.2840004 -0.16510186 0.36196408 0
4.2850003 -0.17214032 0.36195326 0
4.092 -0.35900402 0.36404204 0
4.085 -0.36505759 0.3641178 0
4.0820003 -0.37143949 0.36415029 0
4.0799999 -0.37790069 0.36417192 0
4.079 -0.38444674 0.36418274 0
4.0799999 -0.39117673 0.36417192 0
4.0830002 -0.39810157 0.36413947 0
3.9830003 -0.48548704 0.36522174 0
3.9750004 -0.4909544 0.36530834 0
3.9700003 -0.49677166 0.36536244 0
3.9650002 -0.50257093 0.36541656 0
3.9620004 -0.50861186 0.36544901 0
3.9600003 -0.51477367 0.36547068 0
3.9590003 -0.52106178 0.3654815 0
3.9580002 -0.52734619 0.36549231 0
3.9590003 -0.53390127 0.3654815 0
3.9600003 -0.54045993 0.36547068 0
3.9620004 -0.54716289 0.36544901 0
3.9660003 -0.55415803 0.36540574 0
3.9710002 -0.5613119 0.36535162 0
4.164 -0.65705806 0.3632628 0
4.1570001 -0.66269863 0.36333856 0
4.151 -0.6684798 0.3634035 0
4.1470003 -0.67457485 0.3634468 0
4.1440001 -0.68082505 0.36347926 0
4.1420002 -0.68723577 0.36350092 0
4.1410003 -0.69381249 0.36351174 0
4.1410003 -0.70056051 0.36351174 0
4.1420002 -0.70748532 0.36350092 0
4.1440001 -0.71459234 0.36347926 0
4.1470003 -0.72188693 0.3634468 0
4.152 -0.72955668 0.36339268 0
4.3000002 -0.13745308 0.35475606 0
4.2910004 -0.14426064 0.35486969 0
4.2870002 -0.15117103 0.35492021 0
4.2840004 -0.15809587 0.35495809 0
4.2840004 -0.16510186 0.35495809 0
4.2850003 -0.17214032 0.35494545 0
4.2880001 -0.17925093 0.35490757 0
4.092 -0.35900402 0.35738239 0
4.085 -0.36505759 0.35747078 0
4.0820003 -0.37143949 0.35750866 0
4.0799999 -0.37790069 0.35753393 0
4.079 -0.38444674 0.35754654 0
4.0799999 -0.39117673 0.35753393 0
4.0830002 -0.39810157 0.35749602 0
3.9830003 -0.48548704 0.35875869 0
3.9750004 -0.4909544 0.35885972 0
3.9700003 -0.49677166 0.35892284 0
3.9650002 -0.50257093 0.35898599 0
3.9620004 -0.50861186 0.35902387 0
3.9600003 -0.51477367 0.35904911 0
3.9590003 -0.52106178 0.35906175 0
3.9580002 -0.52734619 0.35907435 0
3.9590003 -0.53390127 0.35906175 0
3.9600003 -0.54045993 0.35904911 0
3.9620004 -0.54716289 0.35902387 0
3.9660003 -0.55415803 0.35897335 0
3.9710002 -0.5613119 0.3589102 0
4.164 -0.65705806 0.35647327 0
4.1570001 -0.66269863 0.35656166 0
4.151 -0.6684798 0.35663742 0
4.1470003 -0.67457485 0.35668793 0
4.1440001 -0.68082505 0.35672581 0
4.1420002 -0.68723577 0.35675105 0
4.1410003 -0.69381249 0.35676369 0
4.1410003 -0.70056051 0.35676369 0
4.1420002 -0.70748532 0.35675105 0
4.1440001 -0.71459234 0.35672581 0
4.1470003 -0.72188693 0.35668793 0
4.152 -0.72955668 0.35662478 0
4.2910004 -0.14426064 0.34785107 0
4.2870002 -0.15117103 0.34790879 0
4.2840004 -0.15809587 0.34795207 0
4.2840004 -0.16510186 0.34795207 0
4.2850003 -0.17214032 0.34793764 0
4.2880001 -0.17925093 0.34789437 0
4.5050001 -0.35699457 0.34476295 0
4.092 -0.35900402 0.35072273 0
4.085 -0.36505759 0.35082376 0
4.0820003 -0.37143949 0.35086703 0
4.0799999 -0.37790069 0.35089591 0
4.079 -0.38444674 0.35091034 0
4.0799999 -0.39117673 0.35089591 0
4.0830002 -0.39810157 0.35085261 0
3.9830003 -0.48548704 0.35229567 0
3.9750004 -0.4909544 0.35241109 0
3.9700003 -0.49677166 0.35248324 0
3.9650002 -0.50257093 0.35255539 0
3.9620004 -0.50861186 0.3525987 0
3.9600003 -0.51477367 0.35262755 0
3.9590003 -0.52106178 0.352642 0
3.9580002 -0.52734619 0.35265642 0
3.9590003 -0.53390127 0.352642 0
3.9600003 -0.54045993 0.35262755 0
3.9620004 -0.54716289 0.3525987 0
3.9660003 -0.55415803 0.35254097 0
3.9710002 -0.5613119 0.35246882 0
4.164 -0.65705806 0.34968373 0
4.1570001 -0.66269863 0.34978476 0
4.151 -0.6684798 0.34987134 0
4.1470003 -0.67457485 0.34992906 0
4.1440001 -0.68082505 0.34997234 0
4.1420002 -0.68723577 0.35000122 0
4.1410003 -0.69381249 0.35001564 0
4.1410003 -0.70056051 0.35001564 0
4.1420002 -0.70748532 0.35000122 0
4.1440001 -0.71459234 0.34997234 0
4.1470003 -0.72188693 0.34992906 0
4.152 -0.72955668 0.34985691 0
4.2910004 -0.14426064 0.34083247 0
4.2870002 -0.15117103 0.34089738 0
4.2840004 -0.15809587 0.34094608 0
4.2840004 -0.16510186 0.34094608 0
4.2850003 -0.17214032 0.34092987 0
4.2880001 -0.17925093 0.34088117 0
4.5050001 -0.35699457 0.33735833 0
4.092 -0.35900402 0.34406307 0
4.085 -0.36505759 0.34417671 0
4.0820003 -0.37143949 0.34422541 0
4.0799999 -0.37790069 0.34425789 0
4.079 -0.38444674 0.34427413 0
4.0799999 -0.39117673 0.34425789 0
4.0830002 -0.39810157 0.34420919 0
3.9830003 -0.48548704 0.34583262 0
3.9750004 -0.4909544 0.34596246 0
3.9700003 -0.49677166 0.34604365 0
3.9650002 -0.50257093 0.34612483 0
3.9620004 -0.50861186 0.34617352 0
3.9600003 -0.51477367 0.34620601 0
3.9590003 -0.52106178 0.34622222 0
3.9580002 -0.52734619 0.34623846 0
3.9590003 -0.53390127 0.34622222 0
3.9600003 -0.54045993 0.34620601 0
3.9620004 -0.54716289 0.34617352 0
3.9660003 -0.55415803 0.34610859 0
3.9710002 -0.5613119 0.34602743 0
4.164 -0.65705806 0.3428942 0
4.1570001 -0.66269863 0.34300783 0
4.151 -0.6684798 0.34310526 0
4.1470003 -0.67457485 0.3431702 0
4.1440001 -0.68082505 0.34321889 0
4.1420002 -0.68723577 0.34325135 0
4.1410003 -0.69381249 0.34326759 0
4.1410003 -0.70056051 0.34326759 0
4.1420002 -0.70748532 0.34325135 0
4.1440001 -0.71459234 0.34321889 0
4.1470003 -0.72188693 0.3431702 0
4.152 -0.72955668 0.34308901 0
4.2910004 -0.14426064 0.33381385 0
4.2870002 -0.15117103 0.333886 0
4.2840004 -0.15809587 0.33394009 0
4.2840004 -0.16510186 0.33394009 0
4.2850003 -0.17214032 0.33392206 0
4.2880001 -0.17925093 0.33386797 0
4.5050001 -0.35699457 0.3299537 0
4.092 -0.35900402 0.33740342 0
4.085 -0.36505759 0.33752969 0
4.0820003 -0.37143949 0.33758378 0
4.0799999 -0.37790069 0.33761987 0
4.079 -0.38444674 0.3376379 0
4.0799999 -0.39117673 0.33761987 0
4.0830002 -0.39810157 0.33756575 0
3.9830003 -0.48548704 0.33936957 0
3.9750004 -0.4909544 0.33951387 0
3.9700003 -0.49677166 0.33960408 0
3.9650002 -0.50257093 0.33969426 0
3.9620004 -0.50861186 0.33974835 0
3.9600003 -0.51477367 0.33978444 0
3.9590003 -0.52106178 0.33980247 0
3.9580002 -0.52734619 0.3398205 0
3.9590003 -0.53390127 0.33980247 0
3.9600003 -0.54045993 0.33978444 0
3.9620004 -0.54716289 0.33974835 0
3.9660003 -0.55415803 0.3396762 0
3.9710002 -0.5613119 0.33958602 0
4.164 -0.65705806 0.33610466 0
4.1570001 -0.66269863 0.33623093 0
4.151 -0.6684798 0.33633918 0
4.1470003 -0.67457485 0.33641133 0
4.1440001 -0.68082505 0.33646542 0
4.1420002 -0.68723577 0.33650151 0
4.1410003 -0.69381249 0.33651954 0
4.1410003 -0.70056051 0.33651954 0
4.1420002 -0.70748532 0.33650151 0
4.1440001 -0.71459234 0.33646542 0
4.1470003 -0.72188693 0.33641133 0
4.152 -0.72955668 0.33632112 0
4.2910004 -0.14426064 0.32679522 0
4.2870002 -0.15117103 0.32687458 0
4.2840004 -0.15809587 0.3269341 0
4.2840004 -0.16510186 0.3269341 0
4.2850003 -0.17214032 0.32691428 0
4.2880001 -0.17925093 0.32685474 0
4.092 -0.35900402 0.33074376 0
4.085 -0.36505759 0.33088264 0
4.0820003 -0.37143949 0.33094215 0
4.0799999 -0.37790069 0.33098185 0
4.079 -0.38444674 0.3310017 0
4.0799999 -0.39117673 0.33098185 0
4.0830002 -0.39810157 0.33092234 0
3.9830003 -0.48548704 0.33290651 0
3.9750004 -0.4909544 0.33306524 0
3.9700003 -0.49677166 0.33316445 0
3.9650002 -0.50257093 0.3332637 0
3.9620004 -0.50861186 0.33332318 0
3.9600003 -0.51477367 0.33336288 0
3.9590003 -0.52106178 0.33338273 0
3.9580002 -0.52734619 0.33340257 0
3.9590003 -0.53390127 0.33338273 0
3.9600003 -0.54045993 0.33336288 0
3.9620004 -0.54716289 0.33332318 0
3.9660003 -0.55415803 0.33324385 0
3.9710002 -0.5613119 0.33314461 0
4.164 -0.65705806 0.32931513 0
4.1570001 -0.66269863 0.32945403 0
4.151 -0.6684798 0.32957309 0
4.1470003 -0.67457485 0.32965246 0
4.1440001 -0.68082505 0.32971197 0
4.1420002 -0.68723577 0.32975167 0
4.1410003 -0.69381249 0.32977152 0
4.1410003 -0.70056051 0.32977152 0
4.1420002 -0.70748532 0.32975167 0
4.1440001 -0.71459234 0.32971197 0
4.1470003 -0.72188693 0.32965246 0
4.152 -0.72955668 0.32955325 0
4.2910004 -0.14426064 0.31977659 0
4.2870002 -0.15117103 0.3198632 0
4.2840004 -0.15809587 0.31992811 0
4.2840004 -0.16510186 0.31992811 0
4.2850003 -0.17214032 0.31990647 0
4.2880001 -0.17925093 0.31984153 0
4.092 -0.35900402 0.3240841 0
4.085 -0.36505759 0.32423562 0
4.0820003 -0.37143949 0.32430056 0
4.0799999 -0.37790069 0.32434386 0
4.079 -0.38444674 0.3243655 0
4.0799999 -0.39117673 0.32434386 0
4.0830002 -0.39810157 0.32427892 0
3.9830003 -0.48548704 0.32644349 0
3.9750004 -0.4909544 0.32661664 0
3.9700003 -0.49677166 0.32672486 0
3.9650002 -0.50257093 0.3268331 0
3.9620004 -0.50861186 0.32689804 0
3.9600003 -0.51477367 0.32694131 0
3.9590003 -0.52106178 0.32696298 0
3.9580002 -0.52734619 0.32698461 0
3.9590003 -0.53390127 0.32696298 0
3.9600003 -0.54045993 0.32694131 0
3.9620004 -0.54716289 0.32689804 0
3.9660003 -0.55415803 0.32681143 0
3.9710002 -0.5613119 0.32670322 0
4.164 -0.65705806 0.32252562 0
4.1570001 -0.66269863 0.32267714 0
4.151 -0.6684798 0.32280701 0
4.1470003 -0.67457485 0.32289356 0
4.1440001 -0.68082505 0.32295853 0
4.1420002 -0.68723577 0.3230018 0
4.1410003 -0.69381249 0.32302344 0
4.1410003 -0.70056051 0.32302344 0
4.1420002 -0.70748532 0.3230018 0
4.1440001 -0.71459234 0.32295853 0
4.1470003 -0.72188693 0.32289356 0
4.152 -0.72955668 0.32278535 0
4.2910004 -0.14426064 0.31275797 0
4.2870002 -0.15117103 0.31285179 0
4.2840004 -0.15809587 0.31292212 0
4.2840004 -0.16510186 0.31292212 0
4.2850003 -0.17214032 0.31289867 0
4.2880001 -0.17925093 0.31282833 0
4.092 -0.35900402 0.31742442 0
4.085 -0.36505759 0.31758857 0
4.0820003 -0.37143949 0.31765893 0
4.0799999 -0.37790069 0.31770584 0
4.079 -0.38444674 0.31772926 0
4.0799999 -0.39117673 0.31770584 0
4.0830002 -0.39810157 0.31763548 0
3.9830003 -0.48548704 0.31998044 0
3.9750004 -0.4909544 0.32016802 0
3.9700003 -0.49677166 0.32028526 0
3.9650002 -0.50257093 0.32040253 0
3.9620004 -0.50861186 0.32047287 0
3.9600003 -0.51477367 0.32051978 0
3.9590003 -0.52106178 0.32054323 0
3.9580002 -0.52734619 0.32056665 0
3.9590003 -0.53390127 0.32054323 0
3.9600003 -0.54045993 0.32051978 0
3.9620004 -0.54716289 0.32047287 0
3.9660003 -0.55415803 0.32037908 0
3.9710002 -0.5613119 0.32026184 0
4.164 -0.65705806 0.31573606 0
4.1570001 -0.66269863 0.31590021 0
4.151 -0.6684798 0.31604093 0
4.1470003 -0.67457485 0.31613472 0
4.1440001 -0.68082505 0.31620505 0
4.1420002 -0.68723577 0.31625196 0
4.1410003 -0.69381249 0.31627542 0
4.1410003 -0.70056051 0.31627542 0
4.1420002 -0.70748532 0.31625196 0
4.1440001 -0.71459234 0.31620505 0
4.1470003 -0.72188693 0.31613472 0
4.152 -0.72955668 0.31601745 0
4.2910004 -0.14426064 0.30573937 0
4.2870002 -0.15117103 0.30584037 0
4.2840004 -0.15809587 0.30591613 0
4.2840004 -0.16510186 0.30591613 0
4.2850003 -0.17214032 0.30589089 0
4.2880001 -0.17925093 0.30581513 0
4.092 -0.35900402 0.31076479 0
4.085 -0.36505759 0.31094155 0
4.0820003 -0.37143949 0.3110173 0
4.0799999 -0.37790069 0.31106782 0
4.079 -0.38444674 0.31109306 0
4.0799999 -0.39117673 0.31106782 0
4.0830002 -0.39810157 0.31099206 0
3.9830003 -0.48548704 0.31351739 0
3.9750004 -0.4909544 0.31371942 0
3.9700003 -0.49677166 0.31384569 0
3.9650002 -0.50257093 0.31397194 0
3.9620004 -0.50861186 0.31404769 0
3.9600003 -0.51477367 0.31409821 0
3.9590003 -0.52106178 0.31412345 0
3.9580002 -0.52734619 0.31414872 0
3.9590003 -0.53390127 0.31412345 0
3.9600003 -0.54045993 0.31409821 0
3.9620004 -0.54716289 0.31404769 0
3.9660003 -0.55415803 0.31394669 0
3.9710002 -0.5613119 0.31382042 0
4.164 -0.65705806 0.30894655 0
4.1570001 -0.66269863 0.30912331 0
4.151 -0.6684798 0.30927482 0
4.1470003 -0.67457485 0.30937582 0
4.1440001 -0.68082505 0.30945161 0
4.1420002 -0.68723577 0.30950212 0
4.1410003 -0.69381249 0.30952737 0
4.1410003 -0.70056051 0.30952737 0
4.1420002 -0.70748532 0.30950212 0
4.1440001 -0.71459234 0.30945161 0
4.1470003 -0.72188693 0.30937582 0
4.152 -0.72955668 0.30924958 0
4.2910004 -0.14426064 0.29872075 0
4.2870002 -0.15117103 0.29882899 0
4.2840004 -0.15809587 0.29891014 0
4.2840004 -0.16510186 0.29891014 0
4.2850003 -0.17214032 0.29888308 0
4.2880001 -0.17925093 0.2988019 0
4.092 -0.35900402 0.3041051 0
4.085 -0.36505759 0.30429453 0
4.0820003 -0.37143949 0.30437568 0
4.0799999 -0.37790069 0.3044298 0
4.079 -0.38444674 0.30445686 0
4.0799999 -0.39117673 0.3044298 0
4.0830002 -0.39810157 0.30434862 0
3.9830003 -0.48548704 0.30705434 0
3.9750004 -0.4909544 0.3072708 0
3.9700003 -0.49677166 0.30740607 0
3.9650002 -0.50257093 0.30754137 0
3.9620004 -0.50861186 0.30762255 0
3.9600003 -0.51477367 0.30767667 0
3.9590003 -0.52106178 0.3077037 0
3.9580002 -0.52734619 0.30773076 0
3.9590003 -0.53390127 0.3077037 0
3.9600003 -0.54045993 0.30767667 0
3.9620004 -0.54716289 0.30762255 0
3.9660003 -0.55415803 0.30751431 0
3.9710002 -0.5613119 0.30737904 0
4.164 -0.65705806 0.30215698 0
4.1570001 -0.66269863 0.30234641 0
4.151 -0.6684798 0.30250874 0
4.1470003 -0.67457485 0.30261698 0
4.1440001 -0.68082505 0.30269814 0
4.1420002 -0.68723577 0.30275226 0
4.1410003 -0.69381249 0.30277932 0
4.1410003 -0.70056051 0.30277932 0
4.1420002 -0.70748532 0.30275226 0
4.1440001 -0.71459234 0.30269814 0
4.1470003 -0.72188693 0.30261698 0
4.152 -0.72955668 0.30248168 0
4.2910004 -0.14426064 0.29170212 0
4.2870002 -0.15117103 0.29181758 0
4.2840004 -0.15809587 0.29190415 0
4.2840004 -0.16510186 0.29190415 0
4.2850003 -0.17214032 0.2918753 0
4.2880001 -0.17925093 0.2917887 0
4.092 -0.35900402 0.29744545 0
4.085 -0.36505759 0.29764748 0
4.0820003 -0.37143949 0.29773408 0
4.0799999 -0.37790069 0.29779178 0
4.079 -0.38444674 0.29782066 0
4.0799999 -0.39117673 0.29779178 0
4.0830002 -0.39810157 0.2977052 0
3.9830003 -0.48548704 0.30059129 0
3.9750004 -0.4909544 0.3008222 0
3.9700003 -0.49677166 0.3009665 0
3.9650002 -0.50257093 0.3011108 0
3.9620004 -0.50861186 0.30119738 0
3.9600003 -0.51477367 0.30125511 0
3.9590003 -0.52106178 0.30128396 0
3.9580002 -0.52734619 0.3013128 0
3.9590003 -0.53390127 0.30128396 0
3.9600003 -0.54045993 0.30125511 0
3.9620004 -0.54716289 0.30119738 0
3.9660003 -0.55415803 0.30108193 0
3.9710002 -0.5613119 0.30093762 0
4.164 -0.65705806 0.29536748 0
4.1570001 -0.66269863 0.29556948 0
4.151 -0.6684798 0.29574266 0
4.1470003 -0.67457485 0.29585809 0
4.1440001 -0.68082505 0.29594469 0
4.1420002 -0.68723577 0.29600242 0
4.1410003 -0.69381249 0.29603127 0
4.1410003 -0.70056051 0.29603127 0
4.1420002 -0.70748532 0.29600242 0
4.1440001 -0.71459234 0.29594469 0
4.1470003 -0.72188693 0.29585809 0
4.152 -0.72955668 0.29571378 0
4.2910004 -0.14426064 0.28468353 0
4.2870002 -0.15117103 0.28480616 0
4.2840004 -0.15809587 0.28489816 0
4.2840004 -0.16510186 0.28489816 0
4.2850003 -0.17214032 0.2848675 0
4.2880001 -0.17925093 0.2847755 0
4.092 -0.35900402 0.29078579 0
4.085 -0.36505759 0.29100046 0
4.0820003 -0.37143949 0.29109246 0
4.0799999 -0.37790069 0.29115379 0
4.079 -0.38444674 0.29118443 0
4.0799999 -0.39117673 0.29115379 0
4.0830002 -0.39810157 0.29106179 0
3.9830003 -0.48548704 0.29412824 0
3.9750004 -0.4909544 0.29437357 0
3.9700003 -0.49677166 0.29452688 0
3.9650002 -0.50257093 0.29468024 0
3.9620004 -0.50861186 0.29477221 0
3.9600003 -0.51477367 0.29483354 0
3.9590003 -0.52106178 0.29486421 0
3.9580002 -0.52734619 0.29489487 0
3.9590003 -0.53390127 0.29486421 0
3.9600003 -0.54045993 0.29483354 0
3.9620004 -0.54716289 0.29477221 0
3.9660003 -0.55415803 0.29464954 0
3.9710002 -0.5613119 0.29449624 0
4.164 -0.65705806 0.28857794 0
4.1570001 -0.66269863 0.28879258 0
4.151 -0.6684798 0.28897658 0
4.1470003 -0.67457485 0.28909922 0
4.1440001 -0.68082505 0.28919125 0
4.1420002 -0.68723577 0.28925255 0
4.1410003 -0.69381249 0.28928322 0
4.1410003 -0.70056051 0.28928322 0
4.1420002 -0.70748532 0.28925255 0
4.1440001 -0.71459234 0.28919125 0
4.1470003 -0.72188693 0.28909922 0
4.152 -0.72955668 0.28894591 0
4.2910004 -0.14426064 0.2776649 0
4.2870002 -0.15117103 0.27779478 0
4.2840004 -0.15809587 0.27789217 0
4.2840004 -0.16510186 0.27789217 0
4.2850003 -0.17214032 0.27785969 0
4.2880001 -0.17925093 0.27776229 0
4.092 -0.35900402 0.28412613 0
4.085 -0.36505759 0.28435341 0
4.0820003 -0.37143949 0.28445083 0
4.0799999 -0.37790069 0.28451577 0
4.079 -0.38444674 0.28454822 0
4.0799999 -0.39117673 0.28451577 0
4.0830002 -0.39810157 0.28441834 0
3.9830003 -0.48548704 0.28766519 0
3.9750004 -0.4909544 0.28792495 0
3.9700003 -0.49677166 0.28808731 0
3.9650002 -0.50257093 0.28824964 0
3.9620004 -0.50861186 0.28834704 0
3.9600003 -0.51477367 0.28841197 0
3.9590003 -0.52106178 0.28844446 0
3.9580002 -0.52734619 0.28847694 0
3.9590003 -0.53390127 0.28844446 0
3.9600003 -0.54045993 0.28841197 0
3.9620004 -0.54716289 0.28834704 0
3.9660003 -0.55415803 0.28821719 0
3.9710002 -0.5613119 0.28805482 0
4.164 -0.65705806 0.28178841 0
4.1570001 -0.66269863 0.28201568 0
4.151 -0.6684798 0.28221047 0
4.1470003 -0.67457485 0.28234035 0
4.1440001 -0.68082505 0.28243777 0
4.1420002 -0.68723577 0.28250271 0
4.1410003 -0.69381249 0.28253517 0
4.1410003 -0.70056051 0.28253517 0
4.1420002 -0.70748532 0.28250271 0
4.1440001 -0.71459234 0.28243777 0
4.1470003 -0.72188693 0.28234035 0
4.152 -0.72955668 0.28217801 0
4.2910004 -0.14426064 0.27064627 0
4.2870002 -0.15117103 0.27078336 0
4.2840004 -0.15809587 0.27088618 0
4.2840004 -0.16510186 0.27088618 0
4.2850003 -0.17214032 0.27085191 0
4.2880001 -0.17925093 0.27074909 0
4.092 -0.35900402 0.27746648 0
4.085 -0.36505759 0.27770638 0
4.0820003 -0.37143949 0.2778092 0
4.0799999 -0.37790069 0.27787775 0
4.079 -0.38444674 0.27791202 0
4.0799999 -0.39117673 0.27787775 0
4.0830002 -0.39810157 0.27777493 0
3.9830003 -0.48548704 0.28120217 0
3.9750004 -0.4909544 0.28147635 0
3.9700003 -0.49677166 0.28164771 0
3.9650002 -0.50257093 0.28181908 0
3.9620004 -0.50861186 0.28192186 0
3.9600003 -0.51477367 0.28199041 0
3.9590003 -0.52106178 0.28202468 0
3.9580002 -0.52734619 0.28205895 0
3.9590003 -0.53390127 0.28202468 0
3.9600003 -0.54045993 0.28199041 0
3.9620004 -0.54716289 0.28192186 0
3.9660003 -0.55415803 0.28178477 0
3.9710002 -0.5613119 0.28161344 0
4.164 -0.65705806 0.27499884 0
4.1570001 -0.66269863 0.27523875 0
4.151 -0.6684798 0.27544439 0
4.1470003 -0.67457485 0.27558148 0
4.1440001 -0.68082505 0.2756843 0
4.1420002 -0.68723577 0.27575284 0
4.1410003 -0.69381249 0.27578712 0
4.1410003 -0.70056051 0.27578712 0
4.1420002 -0.70748532 0.27575284 0
4.1440001 -0.71459234 0.2756843 0
4.1470003 -0.72188693 0.27558148 0
4.152 -0.72955668 0.27541012 0
4.2910004 -0.14426064 0.26362765 0
4.2870002 -0.15117103 0.26377195 0
4.2840004 -0.15809587 0.26388019 0
4.2840004 -0.16510186 0.26388019 0
4.2850003 -0.17214032 0.26384413 0
4.2880001 -0.17925093 0.26373589 0
4.092 -0.35900402 0.27080682 0
4.085 -0.36505759 0.27105933 0
4.0820003 -0.37143949 0.27116758 0
4.0799999 -0.37790069 0.27123976 0
4.079 -0.38444674 0.27127582 0
4.0799999 -0.39117673 0.27123976 0
4.0830002 -0.39810157 0.27113152 0
3.9830003 -0.48548704 0.27473912 0
3.9750004 -0.4909544 0.27502772 0
3.9700003 -0.49677166 0.27520812 0
3.9650002 -0.50257093 0.27538848 0
3.9620004 -0.50861186 0.27549672 0
3.9600003 -0.51477367 0.27556887 0
3.9590003 -0.52106178 0.27560493 0
3.9580002 -0.52734619 0.27564102 0
3.9590003 -0.53390127 0.27560493 0
3.9600003 -0.54045993 0.27556887 0
3.9620004 -0.54716289 0.27549672 0
3.9660003 -0.55415803 0.27535242 0
3.9710002 -0.5613119 0.27517205 0
4.164 -0.65705806 0.26820934 0
4.1570001 -0.66269863 0.26846185 0
4.151 -0.6684798 0.26867831 0
4.1470003 -0.67457485 0.26882261 0
4.1440001 -0.68082505 0.26893085 0
4.1420002 -0.68723577 0.269003 0
4.1410003 -0.69381249 0.26903909 0
4.1410003 -0.70056051 0.26903909 0
4.1420002 -0.70748532 0.269003 0
4.1440001 -0.71459234 0.26893085 0
4.1470003 -0.72188693 0.26882261 0
4.152 -0.72955668 0.26864225 0
4.2910004 -0.14426064 0.25660902 0
4.2870002 -0.15117103 0.25676057 0
4.2840004 -0.15809587 0.2568742 0
4.2840004 -0.16510186 0.2568742 0
4.2850003 -0.17214032 0.2568363 0
4.2880001 -0.17925093 0.25672269 0
4.092 -0.35900402 0.26414716 0
4.085 -0.36505759 0.26441231 0
4.0820003 -0.37143949 0.26452595 0
4.0799999 -0.37790069 0.26460171 0
4.079 -0.38444674 0.26463962 0
4.0799999 -0.39117673 0.26460171 0
4.0830002 -0.39810157 0.26448807 0
3.9830003 -0.48548704 0.26827607 0
3.9750004 -0.4909544 0.26857913 0
3.9700003 -0.49677166 0.26876852 0
3.9650002 -0.50257093 0.26895791 0
3.9620004 -0.50861186 0.26907155 0
3.9600003 -0.51477367 0.26914731 0
3.9590003 -0.52106178 0.26918519 0
3.9580002 -0.52734619 0.26922309 0
3.9590003 -0.53390127 0.26918519 0
3.9600003 -0.54045993 0.26914731 0
3.9620004 -0.54716289 0.26907155 0
3.9660003 -0.55415803 0.26892003 0
3.9710002 -0.5613119 0.26873064 0
4.164 -0.65705806 0.26141977 0
4.1570001 -0.66269863 0.26168495 0
4.151 -0.6684798 0.26191223 0
4.1470003 -0.67457485 0.26206374 0
4.1440001 -0.68082505 0.26217741 0
4.1420002 -0.68723577 0.26225317 0
4.1410003 -0.69381249 0.26229101 0
4.1410003 -0.70056051 0.26229101 0
4.1420002 -0.70748532 0.26225317 0
4.1440001 -0.71459234 0.26217741 0
4.1470003 -0.72188693 0.26206374 0
4.152 -0.72955668 0.26187438 0
4.2910004 -0.14426064 0.24959043 0
4.2870002 -0.15117103 0.24974917 0
4.2840004 -0.15809587 0.2498682 0
4.2840004 -0.16510186 0.2498682 0
4.2850003 -0.17214032 0.24982853 0
4.2880001 -0.17925093 0.24970947 0
4.092 -0.35900402 0.25748748 0
4.085 -0.36505759 0.25776529 0
4.0820003 -0.37143949 0.25788432 0
4.0799999 -0.37790069 0.25796372 0
4.079 -0.38444674 0.25800338 0
4.0799999 -0.39117673 0.25796372 0
4.0830002 -0.39810157 0.25784466 0
3.9830003 -0.48548704 0.26181304 0
3.9750004 -0.4909544 0.2621305 0
3.9700003 -0.49677166 0.26232892 0
3.9650002 -0.50257093 0.26252735 0
3.9620004 -0.50861186 0.26264638 0
3.9600003 -0.51477367 0.26272574 0
3.9590003 -0.52106178 0.26276544 0
3.9580002 -0.52734619 0.2628051 0
3.9590003 -0.53390127 0.26276544 0
3.9600003 -0.54045993 0.26272574 0
3.9620004 -0.54716289 0.26264638 0
3.9660003 -0.55415803 0.26248765 0
3.9710002 -0.5613119 0.26228923 0
4.164 -0.65705806 0.25463027 0
4.1570001 -0.66269863 0.25490803 0
4.151 -0.6684798 0.25514615 0
4.1470003 -0.67457485 0.25530487 0
4.1440001 -0.68082505 0.25542393 0
4.1420002 -0.68723577 0.2555033 0
4.1410003 -0.69381249 0.25554299 0
4.1410003 -0.70056051 0.25554299 0
4.1420002 -0.70748532 0.2555033 0
4.1440001 -0.71459234 0.25542393 0
4.1470003 -0.72188693 0.25530487 0
4.152 -0.72955668 0.25510648 0
4.2910004 -0.14426064 0.2425718 0
4.2870002 -0.15117103 0.24273776 0
4.2840004 -0.15809587 0.24286221 0
4.2840004 -0.16510186 0.24286221 0
4.2850003 -0.17214032 0.24282072 0
4.2880001 -0.17925093 0.24269627 0
4.092 -0.35900402 0.25082785 0
4.085 -0.36505759 0.25111824 0
4.0820003 -0.37143949 0.2512427 0
4.0799999 -0.37790069 0.2513257 0
4.079 -0.38444674 0.25136715 0
4.0799999 -0.39117673 0.2513257 0
4.0830002 -0.39810157 0.25120121 0
3.9830003 -0.48548704 0.25534999 0
3.9750004 -0.4909544 0.25568187 0
3.9700003 -0.49677166 0.25588933 0
3.9650002 -0.50257093 0.25609678 0
3.9620004 -0.50861186 0.2562212 0
3.9600003 -0.51477367 0.2563042 0
3.9590003 -0.52106178 0.25634569 0
3.9580002 -0.52734619 0.25638717 0
3.9590003 -0.53390127 0.25634569 0
3.9600003 -0.54045993 0.2563042 0
3.9620004 -0.54716289 0.2562212 0
3.9660003 -0.55415803 0.25605527 0
3.9710002 -0.5613119 0.25584781 0
4.164 -0.65705806 0.24784072 0
4.1570001 -0.66269863 0.24813114 0
4.151 -0.6684798 0.24838006 0
4.1470003 -0.67457485 0.248546 0
4.1440001 -0.68082505 0.24867047 0
4.1420002 -0.68723577 0.24875346 0
4.1410003 -0.69381249 0.24879494 0
4.1410003 -0.70056051 0.24879494 0
4.1420002 -0.70748532 0.24875346 0
4.1440001 -0.71459234 0.24867047 0
4.1470003 -0.72188693 0.248546 0
4.152 -0.72955668 0.24833858 0
4.2910004 -0.14426064 0.23555319 0
4.2870002 -0.15117103 0.23572636 0
4.2840004 -0.15809587 0.23585624 0
4.2840004 -0.16510186 0.23585624 0
4.2850003 -0.17214032 0.23581293 0
4.2880001 -0.17925093 0.23568305 0
4.092 -0.35900402 0.24416818 0
4.085 -0.36505759 0.24447122 0
4.0820003 -0.37143949 0.24460109 0
4.0799999 -0.37790069 0.24468768 0
4.079 -0.38444674 0.24473096 0
4.0799999 -0.39117673 0.24468768 0
4.0830002 -0.39810157 0.24455781 0
3.9830003 -0.48548704 0.24888694 0
3.9750004 -0.4909544 0.24923328 0
3.9700003 -0.49677166 0.24944972 0
3.9650002 -0.50257093 0.2496662 0
3.9620004 -0.50861186 0.24979605 0
3.9600003 -0.51477367 0.24988264 0
3.9590003 -0.52106178 0.24992593 0
3.9580002 -0.52734619 0.24996923 0
3.9590003 -0.53390127 0.24992593 0
3.9600003 -0.54045993 0.24988264 0
3.9620004 -0.54716289 0.24979605 0
3.9660003 -0.55415803 0.24962288 0
3.9710002 -0.5613119 0.24940644 0
4.164 -0.65705806 0.2410512 0
4.1570001 -0.66269863 0.24135423 0
4.151 -0.6684798 0.24161398 0
4.1470003 -0.67457485 0.24178714 0
4.1440001 -0.68082505 0.24191703 0
4.1420002 -0.68723577 0.24200362 0
4.1410003 -0.69381249 0.24204689 0
4.1410003 -0.70056051 0.24204689 0
4.1420002 -0.70748532 0.24200362 0
4.1440001 -0.71459234 0.24191703 0
4.1470003 -0.72188693 0.24178714 0
4.152 -0.72955668 0.2415707 0
4.2910004 -0.14426064 0.22853456 0
4.2870002 -0.15117103 0.22871496 0
4.2840004 -0.15809587 0.22885023 0
4.2840004 -0.16510186 0.22885023 0
4.2850003 -0.17214032 0.22880514 0
4.2880001 -0.17925093 0.22866985 0
4.092 -0.35900402 0.23750852 0
4.085 -0.36505759 0.23782417 0
4.0820003 -0.37143949 0.23795947 0
4.0799999 -0.37790069 0.23804967 0
4.079 -0.38444674 0.23809475 0
4.0799999 -0.39117673 0.23804967 0
4.0830002 -0.39810157 0.23791437 0
3.9830003 -0.48548704 0.24242389 0
3.9750004 -0.4909544 0.24278465 0
3.9700003 -0.49677166 0.24301012 0
3.9650002 -0.50257093 0.24323562 0
3.9620004 -0.50861186 0.24337089 0
3.9600003 -0.51477367 0.24346107 0
3.9590003 -0.52106178 0.24350618 0
3.9580002 -0.52734619 0.24355127 0
3.9590003 -0.53390127 0.24350618 0
3.9600003 -0.54045993 0.24346107 0
3.9620004 -0.54716289 0.24337089 0
3.9660003 -0.55415803 0.2431905 0
3.9710002 -0.5613119 0.24296504 0
4.164 -0.65705806 0.23426166 0
4.1570001 -0.66269863 0.23457733 0
4.151 -0.6684798 0.2348479 0
4.1470003 -0.67457485 0.23502828 0
4.1440001 -0.68082505 0.23516355 0
4.1420002 -0.68723577 0.23525375 0
4.1410003 -0.69381249 0.23529886 0
4.1410003 -0.70056051 0.23529886 0
4.1420002 -0.70748532 0.23525375 0
4.1440001 -0.71459234 0.23516355 0
4.1470003 -0.72188693 0.23502828 0
4.152 -0.72955668 0.2348028 0
4.2910004 -0.14426064 0.22151594 0
4.2870002 -0.15117103 0.22170354 0
4.2840004 -0.15809587 0.22184424 0
4.2840004 -0.16510186 0.22184424 0
4.2850003 -0.17214032 0.22179733 0
4.2880001 -0.17925093 0.22165665 0
4.092 -0.35900402 0.23084885 0
4.085 -0.36505759 0.23117715 0
4.0820003 -0.37143949 0.23131785 0
4.0799999 -0.37790069 0.23141165 0
4.079 -0.38444674 0.23145853 0
4.0799999 -0.39117673 0.23141165 0
4.0830002 -0.39810157 0.23127095 0
3.9830003 -0.48548704 0.23596084 0
3.9750004 -0.4909544 0.23633604 0
3.9700003 -0.49677166 0.23657052 0
3.9650002 -0.50257093 0.23680504 0
3.9620004 -0.50861186 0.23694572 0
3.9600003 -0.51477367 0.23703952 0
3.9590003 -0.52106178 0.23708643 0
3.9580002 -0.52734619 0.23713332 0
3.9590003 -0.53390127 0.23708643 0
3.9600003 -0.54045993 0.23703952 0
3.9620004 -0.54716289 0.23694572 0
3.9660003 -0.55415803 0.23675813 0
3.9710002 -0.5613119 0.23652364 0
4.164 -0.65705806 0.22747213 0
4.1570001 -0.66269863 0.22780041 0
4.151 -0.6684798 0.22808182 0
4.1470003 -0.67457485 0.22826941 0
4.1440001 -0.68082505 0.22841011 0
4.1420002 -0.68723577 0.22850391 0
4.1410003 -0.69381249 0.22855079 0
4.1410003 -0.70056051 0.22855079 0
4.1420002 -0.70748532 0.22850391 0
4.1440001 -0.71459234 0.22841011 0
4.1470003 -0.72188693 0.22826941 0
4.152 -0.72955668 0.22803491 0
4.2910004 -0.14426064 0.21449733 0
4.2870002 -0.15117103 0.21469215 0
4.2840004 -0.15809587 0.21483824 0
4.2840004 -0.16510186 0.21483824 0
4.2850003 -0.17214032 0.21478955 0
4.2880001 -0.17925093 0.21464343 0
4.092 -0.35900402 0.22418919 0
4.085 -0.36505759 0.22453012 0
4.0820003 -0.37143949 0.22467622 0
4.0799999 -0.37790069 0.22477363 0
4.079 -0.38444674 0.22482234 0
4.0799999 -0.39117673 0.22477363 0
4.0830002 -0.39810157 0.22462752 0
3.9830003 -0.48548704 0.22949781 0
3.9750004 -0.4909544 0.22988741 0
3.9700003 -0.49677166 0.23013094 0
3.9650002 -0.50257093 0.23037446 0
3.9620004 -0.50861186 0.23052055 0
3.9600003 -0.51477367 0.23061797 0
3.9590003 -0.52106178 0.23066667 0
3.9580002 -0.52734619 0.23071538 0
3.9590003 -0.53390127 0.23066667 0
3.9600003 -0.54045993 0.23061797 0
3.9620004 -0.54716289 0.23052055 0
3.9660003 -0.55415803 0.23032574 0
3.9710002 -0.5613119 0.23008224 0
4.164 -0.65705806 0.22068259 0
4.1570001 -0.66269863 0.22102351 0
4.151 -0.6684798 0.22131573 0
4.1470003 -0.67457485 0.22151053 0
4.1440001 -0.68082505 0.22165665 0
4.1420002 -0.68723577 0.22175406 0
4.1410003 -0.69381249 0.22180276 0
4.1410003 -0.70056051 0.22180276 0
4.1420002 -0.70748532 0.22175406 0
4.1440001 -0.71459234 0.22165665 0
4.1470003 -0.72188693 0.22151053 0
4.152 -0.72955668 0.22126703 0
4.2910004 -0.14426064 0.20747872 0
4.2870002 -0.15117103 0.20768075 0
4.2840004 -0.15809587 0.20783226 0
4.2840004 -0.16510186 0.20783226 0
4.2850003 -0.17214032 0.20778175 0
4.2880001 -0.17925093 0.20763023 0
4.092 -0.35900402 0.21752954 0
4.085 -0.36505759 0.21788308 0
4.0820003 -0.37143949 0.2180346 0
4.0799999 -0.37790069 0.21813563 0
4.079 -0.38444674 0.21818613 0
4.0799999 -0.39117673 0.21813563 0
4.0830002 -0.39810157 0.2179841 0
3.9830003 -0.48548704 0.22303475 0
3.9750004 -0.4909544 0.22343881 0
3.9700003 -0.49677166 0.22369134 0
3.9650002 -0.50257093 0.22394389 0
3.9620004 -0.50861186 0.22409539 0
3.9600003 -0.51477367 0.2241964 0
3.9590003 -0.52106178 0.2242469 0
3.9580002 -0.52734619 0.22429743 0
3.9590003 -0.53390127 0.2242469 0
3.9600003 -0.54045993 0.2241964 0
3.9620004 -0.54716289 0.22409539 0
3.9660003 -0.55415803 0.22389336 0
3.9710002 -0.5613119 0.22364083 0
4.164 -0.65705806 0.21389306 0
4.1570001 -0.66269863 0.2142466 0
4.151 -0.6684798 0.21454965 0
4.1470003 -0.67457485 0.21475166 0
4.1440001 -0.68082505 0.21490319 0
4.1420002 -0.68723577 0.21500421 0
4.1410003 -0.69381249 0.21505472 0
4.1410003 -0.70056051 0.21505472 0
4.1420002 -0.70748532 0.21500421 0
4.1440001 -0.71459234 0.21490319 0
4.1470003 -0.72188693 0.21475166 0
4.152 -0.72955668 0.21449915 0
4.2910004 -0.14426064 0.20046009 0
4.2870002 -0.15117103 0.20066935 0
4.2840004 -0.15809587 0.20082626 0
4.2840004 -0.16510186 0.20082626 0
4.2850003 -0.17214032 0.20077395 0
4.2880001 -0.17925093 0.20061703 0
4.092 -0.35900402 0.21086988 0
4.085 -0.36505759 0.21123604 0
4.0820003 -0.37143949 0.21139297 0
4.0799999 -0.37790069 0.2114976 0
4.079 -0.38444674 0.21154992 0
4.0799999 -0.39117673 0.2114976 0
4.0830002 -0.39810157 0.21134068 0
3.9830003 -0.48548704 0.21657172 0
3.9750004 -0.4909544 0.21699019 0
3.9700003 -0.49677166 0.21725175 0
3.9650002 -0.50257093 0.21751331 0
3.9620004 -0.50861186 0.21767023 0
3.9600003 -0.51477367 0.21777485 0
3.9590003 -0.52106178 0.21782716 0
3.9580002 -0.52734619 0.21787949 0
3.9590003 -0.53390127 0.21782716 0
3.9600003 -0.54045993 0.21777485 0
3.9620004 -0.54716289 0.21767023 0
3.9660003 -0.55415803 0.21746098 0
3.9710002 -0.5613119 0.21719943 0
4.164 -0.65705806 0.20710352 0
4.1570001 -0.66269863 0.2074697 0
4.151 -0.6684798 0.20778355 0
4.1470003 -0.67457485 0.20799279 0
4.1440001 -0.68082505 0.20814973 0
4.1420002 -0.68723577 0.20825435 0
4.1410003 -0.69381249 0.20830666 0
4.1410003 -0.70056051 0.20830666 0
4.1420002 -0.70748532 0.20825435 0
4.1440001 -0.71459234 0.20814973 0
4.1470003 -0.72188693 0.20799279 0
4.152 -0.72955668 0.20773125 0
4.2910004 -0.14426064 0.19344147 0
4.2870002 -0.15117103 0.19365795 0
4.2840004 -0.15809587 0.19382027 0
4.2840004 -0.16510186 0.19382027 0
4.2850003 -0.17214032 0.19376616 0
4.2880001 -0.17925093 0.19360381 0
4.092 -0.35900402 0.20421022 0
4.085 -0.36505759 0.20458902 0
4.0820003 -0.37143949 0.20475136 0
4.0799999 -0.37790069 0.20485958 0
4.079 -0.38444674 0.20491371 0
4.0799999 -0.39117673 0.20485958 0
4.0830002 -0.39810157 0.20469724 0
3.9830003 -0.48548704 0.21010867 0
3.9750004 -0.4909544 0.21054158 0
3.9700003 -0.49677166 0.21081215 0
3.9650002 -0.50257093 0.21108273 0
3.9620004 -0.50861186 0.21124506 0
3.9600003 -0.51477367 0.2113533 0
3.9590003 -0.52106178 0.21140741 0
3.9580002 -0.52734619 0.21146153 0
3.9590003 -0.53390127 0.21140741 0
3.9600003 -0.54045993 0.2113533 0
3.9620004 -0.54716289 0.21124506 0
3.9660003 -0.55415803 0.21102861 0
3.9710002 -0.5613119 0.21075805 0
4.164 -0.65705806 0.20031399 0
4.1570001 -0.66269863 0.20069279 0
4.151 -0.6684798 0.20101747 0
4.1470003 -0.67457485 0.20123394 0
4.1440001 -0.68082505 0.20139627 0
4.1420002 -0.68723577 0.20150451 0
4.1410003 -0.69381249 0.20155862 0
4.1410003 -0.70056051 0.20155862 0
4.1420002 -0.70748532 0.20150451 0
4.1440001 -0.71459234 0.20139627 0
4.1470003 -0.72188693 0.20123394 0
4.152 -0.72955668 0.20096336 0
4.2910004 -0.14426064 0.18642285 0
4.2870002 -0.15117103 0.18664654 0
4.2840004 -0.15809587 0.18681428 0
4.2840004 -0.16510186 0.18681428 0
4.2850003 -0.17214032 0.18675837 0
4.2880001 -0.17925093 0.18659061 0
4.092 -0.35900402 0.19755057 0
4.085 -0.36505759 0.19794197 0
4.0820003 -0.37143949 0.19810973 0
4.0799999 -0.37790069 0.19822158 0
4.079 -0.38444674 0.19827749 0
4.0799999 -0.39117673 0.19822158 0
4.0830002 -0.39810157 0.19805382 0
3.9830003 -0.48548704 0.20364562 0
3.9750004 -0.4909544 0.20409295 0
3.9700003 -0.49677166 0.20437256 0
3.9650002 -0.50257093 0.20465216 0
3.9620004 -0.50861186 0.20481989 0
3.9600003 -0.51477367 0.20493174 0
3.9590003 -0.52106178 0.20498765 0
3.9580002 -0.52734619 0.20504357 0
3.9590003 -0.53390127 0.20498765 0
3.9600003 -0.54045993 0.20493174 0
3.9620004 -0.54716289 0.20481989 0
3.9660003 -0.55415803 0.20459624 0
3.9710002 -0.5613119 0.20431665 0
4.164 -0.65705806 0.19352445 0
4.1570001 -0.66269863 0.19391589 0
4.151 -0.6684798 0.19425139 0
4.1470003 -0.67457485 0.19447505 0
4.1440001 -0.68082505 0.19464283 0
4.1420002 -0.68723577 0.19475465 0
4.1410003 -0.69381249 0.19481057 0
4.1410003 -0.70056051 0.19481057 0
4.1420002 -0.70748532 0.19475465 0
4.1440001 -0.71459234 0.19464283 0
4.1470003 -0.72188693 0.19447505 0
4.152 -0.72955668 0.19419548 0
4.2910004 -0.14426064 0.17940424 0
4.2870002 -0.15117103 0.17963514 0
4.2840004 -0.15809587 0.17980829 0
4.2840004 -0.16510186 0.17980829 0
4.2850003 -0.17214032 0.17975058 0
4.2880001 -0.17925093 0.17957741 0
4.092 -0.35900402 0.19089089 0
4.085 -0.36505759 0.19129495 0
4.0820003 -0.37143949 0.19146812 0
4.0799999 -0.37790069 0.19158356 0
4.079 -0.38444674 0.19164129 0
4.0799999 -0.39117673 0.19158356 0
4.0830002 -0.39810157 0.19141039 0
3.9830003 -0.48548704 0.19718258 0
3.9750004 -0.4909544 0.19764435 0
3.9700003 -0.49677166 0.19793296 0
3.9650002 -0.50257093 0.19822158 0
3.9620004 -0.50861186 0.19839473 0
3.9600003 -0.51477367 0.19851018 0
3.9590003 -0.52106178 0.1985679 0
3.9580002 -0.52734619 0.19862562 0
3.9590003 -0.53390127 0.1985679 0
3.9600003 -0.54045993 0.19851018 0
3.9620004 -0.54716289 0.19839473 0
3.9660003 -0.55415803 0.19816385 0
3.9710002 -0.5613119 0.19787525 0
4.164 -0.65705806 0.18673491 0
4.1570001 -0.66269863 0.18713897 0
4.151 -0.6684798 0.18748531 0
4.1470003 -0.67457485 0.18771619 0
4.1440001 -0.68082505 0.18788935 0
4.1420002 -0.68723577 0.18800481 0
4.1410003 -0.69381249 0.18806252 0
4.1410003 -0.70056051 0.18806252 0
4.1420002 -0.70748532 0.18800481 0
4.1440001 -0.71459234 0.18788935 0
4.1470003 -0.72188693 0.18771619 0
4.152 -0.72955668 0.18742758 0
4.2910004 -0.14426064 0.1723856 0
4.2870002 -0.15117103 0.17262375 0
4.2840004 -0.15809587 0.1728023 0
4.2840004 -0.16510186 0.1728023 0
4.2850003 -0.17214032 0.17274278 0
4.2880001 -0.17925093 0.17256421 0
4.092 -0.35900402 0.18423124 0
4.085 -0.36505759 0.18464792 0
4.0820003 -0.37143949 0.18482649 0
4.0799999 -0.37790069 0.18494555 0
4.079 -0.38444674 0.18500507 0
4.0799999 -0.39117673 0.18494555 0
4.0830002 -0.39810157 0.18476698 0
3.9830003 -0.48548704 0.19071953 0
3.9750004 -0.4909544 0.19119574 0
3.9700003 -0.49677166 0.19149336 0
3.9650002 -0.50257093 0.191791 0
3.9620004 -0.50861186 0.19196957 0
3.9600003 -0.51477367 0.19208863 0
3.9590003 -0.52106178 0.19214815 0
3.9580002 -0.52734619 0.19220768 0
3.9590003 -0.53390127 0.19214815 0
3.9600003 -0.54045993 0.19208863 0
3.9620004 -0.54716289 0.19196957 0
3.9660003 -0.55415803 0.19173147 0
3.9710002 -0.5613119 0.19143385 0
4.164 -0.65705806 0.17994538 0
4.1570001 -0.66269863 0.18036206 0
4.151 -0.6684798 0.18071923 0
4.1470003 -0.67457485 0.18095732 0
4.1440001 -0.68082505 0.18113589 0
4.1420002 -0.68723577 0.18125497 0
4.1410003 -0.69381249 0.18131448 0
4.1410003 -0.70056051 0.18131448 0
4.1420002 -0.70748532 0.18125497 0
4.1440001 -0.71459234 0.18113589 0
4.1470003 -0.72188693 0.18095732 0
4.152 -0.72955668 0.1806597 0
4.2910004 -0.14426064 0.16536701 0
4.2870002 -0.15117103 0.16561233 0
4.2840004 -0.15809587 0.16579629 0
4.2840004 -0.16510186 0.16579629 0
4.2850003 -0.17214032 0.16573498 0
4.2880001 -0.17925093 0.16555101 0
4.092 -0.35900402 0.17757156 0
4.085 -0.36505759 0.17800088 0
4.0820003 -0.37143949 0.17818487 0
4.0799999 -0.37790069 0.17830753 0
4.079 -0.38444674 0.17836885 0
4.0799999 -0.39117673 0.17830753 0
4.0830002 -0.39810157 0.17812355 0
3.9830003 -0.48548704 0.18425649 0
3.9750004 -0.4909544 0.18474711 0
3.9700003 -0.49677166 0.18505377 0
3.9650002 -0.50257093 0.18536043 0
3.9620004 -0.50861186 0.1855444 0
3.9600003 -0.51477367 0.18566707 0
3.9590003 -0.52106178 0.18572839 0
3.9580002 -0.52734619 0.18578973 0
3.9590003 -0.53390127 0.18572839 0
3.9600003 -0.54045993 0.18566707 0
3.9620004 -0.54716289 0.1855444 0
3.9660003 -0.55415803 0.18529908 0
3.9710002 -0.5613119 0.18499245 0
4.164 -0.65705806 0.17315586 0
4.1570001 -0.66269863 0.17358516 0
4.151 -0.6684798 0.17395313 0
4.1470003 -0.67457485 0.17419845 0
4.1440001 -0.68082505 0.17438245 0
4.1420002 -0.68723577 0.1745051 0
4.1410003 -0.69381249 0.17456643 0
4.1410003 -0.70056051 0.17456643 0
4.1420002 -0.70748532 0.1745051 0
4.1440001 -0.71459234 0.17438245 0
4.1470003 -0.72188693 0.17419845 0
4.152 -0.72955668 0.17389181 0
4.2910004 -0.14426064 0.15834838 0
4.2870002 -0.15117103 0.15860094 0
4.2840004 -0.15809587 0.15879031 0
4.2840004 -0.16510186 0.15879031 0
4.2850003 -0.17214032 0.15872718 0
4.2880001 -0.17925093 0.15853781 0
4.092 -0.35900402 0.17091192 0
4.085 -0.36505759 0.17135385 0
4.0820003 -0.37143949 0.17154324 0
4.0799999 -0.37790069 0.17166951 0
4.079 -0.38444674 0.17173266 0
4.0799999 -0.39117673 0.17166951 0
4.0830002 -0.39810157 0.17148013 0
3.9830003 -0.48548704 0.17779344 0
3.9750004 -0.4909544 0.1782985 0
3.9700003 -0.49677166 0.17861418 0
3.9650002 -0.50257093 0.17892985 0
3.9620004 -0.50861186 0.17911923 0
3.9600003 -0.51477367 0.1792455 0
3.9590003 -0.52106178 0.17930864 0
3.9580002 -0.52734619 0.17937177 0
3.9590003 -0.53390127 0.17930864 0
3.9600003 -0.54045993 0.1792455 0
3.9620004 -0.54716289 0.17911923 0
3.9660003 -0.55415803 0.17886671 0
3.9710002 -0.5613119 0.17855105 0
4.164 -0.65705806 0.16636632 0
4.1570001 -0.66269863 0.16680825 0
4.151 -0.6684798 0.16718705 0
4.1470003 -0.67457485 0.16743958 0
4.1440001 -0.68082505 0.16762897 0
4.1420002 -0.68723577 0.16775526 0
4.1410003 -0.69381249 0.16781837 0
4.1410003 -0.70056051 0.16781837 0
4.1420002 -0.70748532 0.16775526 0
4.1440001 -0.71459234 0.16762897 0
4.1470003 -0.72188693 0.16743958 0
4.152 -0.72955668 0.16712391 0
4.2910004 -0.14426064 0.15132979 0
4.2870002 -0.15117103 0.15158951 0
4.2840004 -0.15809587 0.15178433 0
4.2840004 -0.16510186 0.15178433 0
4.2850003 -0.17214032 0.15171939 0
4.2880001 -0.17925093 0.1515246 0
4.092 -0.35900402 0.16425227 0
4.085 -0.36505759 0.16470681 0
4.0820003 -0.37143949 0.16490163 0
4.0799999 -0.37790069 0.16503152 0
4.079 -0.38444674 0.16509645 0
4.0799999 -0.39117673 0.16503152 0
4.0830002 -0.39810157 0.1648367 0
3.9830003 -0.48548704 0.17133039 0
3.9750004 -0.4909544 0.17184988 0
3.9700003 -0.49677166 0.17217459 0
3.9650002 -0.50257093 0.17249928 0
3.9620004 -0.50861186 0.17269407 0
