# .PCD v0.7 - Point Cloud Data file format
VERSION 0.7
FIELDS x y z intensity
SIZE 4 4 4 4
TYPE F F F F
COUNT 1 1 1 1
WIDTH 1416
HEIGHT 1
VIEWPOINT 0 0 0 1 0 0 0
POINTS 1416
DATA ascii
2.4610002 -1.0832241 0.72371781 0
2.4600003 -1.0864366 0.72356272 0
2.4590001 -1.0896455 0.72340751 0
2.4580002 -1.0928509 0.72325242 0
2.4570003 -1.0960528 0.72309732 0
2.4560001 -1.0992508 0.72294211 0
2.4550002 -1.1024455 0.72278702 0
2.4540002 -1.1056364 0.72263193 0
2.4530003 -1.1088237 0.72247684 0
2.4510002 -1.1114879 0.72216654 0
2.4500003 -1.1146662 0.72201145 0
2.4490001 -1.1178409 0.72185624 0
2.4480002 -1.121012 0.72170115 0
2.4470003 -1.1241795 0.72154605 0
2.4460001 -1.1273433 0.72139084 0
2.4450002 -1.1305037 0.72123575 0
2.4440002 -1.1336603 0.72108066 0
2.4430001 -1.1368133 0.72092545 0
2.4420002 -1.1399628 0.72077036 0
2.4410002 -1.1431086 0.72061527 0
2.4400003 -1.146251 0.72046018 0
2.4390001 -1.1493895 0.72030497 0
2.4380002 -1.1525246 0.72014987 0
2.4370003 -1.155656 0.71999478 0
2.4360001 -1.1587837 0.71983963 0
2.4350002 -1.1619079 0.71968448 0
2.4340003 -1.1650286 0.71952939 0
2.4330001 -1.1681455 0.71937418 0
2.4320002 -1.1712589 0.71921909 0
2.4310002 -1.1743686 0.719064 0
2.4300003 -1.1774749 0.71890891 0
2.4290001 -1.1805773 0.7187537 0
2.4280002 -1.1836762 0.7185986 0
2.4270003 -1.1867718 0.71844351 0
2.4260001 -1.1898633 0.7182883 0
2.4250002 -1.1929514 0.71813321 0
2.4240003 -1.196036 0.71797812 0
2.4230001 -1.1991168 0.71782291 0
2.4220002 -1.2021941 0.71766782 0
2.4210002 -1.2052679 0.71751273 0
2.4200001 -1.2083379 0.71735758 0
2.5160003 -1.0116651 0.72843301 0
2.4890001 -1.0031115 0.72429323 0
2.4860003 -1.0054997 0.72383326 0
2.4850001 -1.0088006 0.7236799 0
2.4840002 -1.012098 0.7235266 0
2.4830003 -1.0153918 0.72337329 0
2.4810002 -1.0182147 0.72306663 0
2.4800003 -1.0214995 0.72291332 0
2.4790001 -1.0247806 0.72275996 0
2.4780002 -1.0280582 0.72260666 0
2.4770002 -1.031332 0.72245336 0
2.4760003 -1.0346024 0.72230005 0
2.4750001 -1.037869 0.72214669 0
2.4740002 -1.0411321 0.72199333 0
2.4730003 -1.0443916 0.72184002 0
2.4720001 -1.0476475 0.72168672 0
2.4710002 -1.0508997 0.72153342 0
2.4700003 -1.0541484 0.72138011 0
2.4690001 -1.0573934 0.72122675 0
2.4680002 -1.060635 0.72107345 0
2.4670002 -1.0638727 0.72092009 0
2.4660001 -1.067107 0.72076678 0
2.4650002 -1.0703375 0.72061348 0
2.4640002 -1.0735646 0.72046018 0
2.4630003 -1.0767881 0.72030681 0
2.4620001 -1.0800078 0.72015345 0
2.4610002 -1.0832241 0.72000015 0
2.4600003 -1.0864366 0.71984684 0
2.4590001 -1.0896455 0.71969348 0
2.4580002 -1.0928509 0.71954018 0
2.4570003 -1.0960528 0.71938688 0
2.4560001 -1.0992508 0.71923351 0
2.4550002 -1.1024455 0.71908021 0
2.4540002 -1.1056364 0.71892691 0
2.4530003 -1.1088237 0.7187736 0
2.4510002 -1.1114879 0.71846688 0
2.4500003 -1.1146662 0.71831357 0
2.4490001 -1.1178409 0.71816027 0
2.4480002 -1.121012 0.71800697 0
2.4470003 -1.1241795 0.71785367 0
2.4460001 -1.1273433 0.7177003 0
2.4450002 -1.1305037 0.717547 0
2.4440002 -1.1336603 0.71739364 0
2.4430001 -1.1368133 0.71724033 0
2.4420002 -1.1399628 0.71708703 0
2.4410002 -1.1431086 0.71693373 0
2.4400003 -1.146251 0.71678042 0
2.4390001 -1.1493895 0.716627 0
2.4380002 -1.1525246 0.7164737 0
2.4370003 -1.155656 0.7163204 0
2.4360001 -1.1587837 0.71616703 0
2.4350002 -1.1619079 0.71601373 0
2.4340003 -1.1650286 0.71586043 0
2.4330001 -1.1681455 0.71570706 0
2.4320002 -1.1712589 0.71555376 0
2.4310002 -1.1743686 0.71540046 0
2.4300003 -1.1774749 0.71524715 0
2.4290001 -1.1805773 0.71509379 0
2.4280002 -1.1836762 0.71494043 0
2.4270003 -1.1867718 0.71478713 0
2.4260001 -1.1898633 0.71463382 0
2.4250002 -1.1929514 0.71448052 0
2.4240003 -1.196036 0.71432722 0
2.4230001 -1.1991168 0.71417385 0
2.4220002 -1.2021941 0.71402055 0
2.4210002 -1.2052679 0.71386719 0
2.4200001 -1.2083379 0.71371388 0
2.5160003 -1.0116651 0.72461611 0
2.4890001 -1.0031115 0.72052503 0
2.4860003 -1.0054997 0.72007048 0
2.4850001 -1.0088006 0.71991897 0
2.4840002 -1.012098 0.71976745 0
2.4830003 -1.0153918 0.71961594 0
2.4810002 -1.0182147 0.71931291 0
2.4800003 -1.0214995 0.71916139 0
2.4790001 -1.0247806 0.71900988 0
2.4780002 -1.0280582 0.71885836 0
2.4770002 -1.031332 0.71870685 0
2.4760003 -1.0346024 0.71855533 0
2.4750001 -1.037869 0.71840382 0
2.4740002 -1.0411321 0.7182523 0
2.4730003 -1.0443916 0.71810079 0
2.4720001 -1.0476475 0.71794921 0
2.4710002 -1.0508997 0.7177977 0
2.4700003 -1.0541484 0.71764624 0
2.4690001 -1.0573934 0.71749467 0
2.4680002 -1.060635 0.71734315 0
2.4670002 -1.0638727 0.71719164 0
2.4660001 -1.067107 0.71704006 0
2.4650002 -1.0703375 0.71688855 0
2.4640002 -1.0735646 0.71673703 0
2.4630003 -1.0767881 0.71658558 0
2.4620001 -1.0800078 0.716434 0
2.4610002 -1.0832241 0.71628249 0
2.4600003 -1.0864366 0.71613097 0
2.4590001 -1.0896455 0.71597946 0
2.4580002 -1.0928509 0.71582794 0
2.4570003 -1.0960528 0.71567643 0
2.4560001 -1.0992508 0.71552491 0
2.4550002 -1.1024455 0.7153734 0
2.4540002 -1.1056364 0.71522188 0
2.4530003 -1.1088237 0.71507037 0
2.4510002 -1.1114879 0.71476734 0
2.4500003 -1.1146662 0.71461582 0
2.4490001 -1.1178409 0.71446425 0
2.4480002 -1.121012 0.71431279 0
2.4470003 -1.1241795 0.71416128 0
2.4460001 -1.1273433 0.7140097 0
2.4450002 -1.1305037 0.71385819 0
2.4440002 -1.1336603 0.71370667 0
2.4430001 -1.1368133 0.7135551 0
2.4420002 -1.1399628 0.71340358 0
2.4410002 -1.1431086 0.71325213 0
2.4400003 -1.146251 0.71310061 0
2.4390001 -1.1493895 0.71294904 0
2.4380002 -1.1525246 0.71279758 0
2.4370003 -1.155656 0.71264601 0
2.4360001 -1.1587837 0.71249449 0
2.4350002 -1.1619079 0.71234298 0
2.4340003 -1.1650286 0.71219146 0
2.4330001 -1.1681455 0.71203995 0
2.4320002 -1.1712589 0.71188843 0
2.4310002 -1.1743686 0.71173692 0
2.4300003 -1.1774749 0.7115854 0
2.4290001 -1.1805773 0.71143389 0
2.4280002 -1.1836762 0.71128237 0
2.4270003 -1.1867718 0.71113086 0
2.4260001 -1.1898633 0.71097934 0
2.4250002 -1.1929514 0.71082783 0
2.4240003 -1.196036 0.71067631 0
2.4230001 -1.1991168 0.71052474 0
2.4220002 -1.2021941 0.71037322 0
2.4210002 -1.2052679 0.71022171 0
2.4200001 -1.2083379 0.71007013 0
2.5160003 -1.0116651 0.72079927 0
2.4890001 -1.0031115 0.71675688 0
2.4860003 -1.0054997 0.71630776 0
2.4850001 -1.0088006 0.71615803 0
2.4840002 -1.012098 0.71600831 0
2.4830003 -1.0153918 0.71585858 0
2.4810002 -1.0182147 0.71555918 0
2.4800003 -1.0214995 0.71540952 0
2.4790001 -1.0247806 0.71525979 0
2.4780002 -1.0280582 0.71511 0
2.4770002 -1.031332 0.71496034 0
2.4760003 -1.0346024 0.71481061 0
2.4750001 -1.037869 0.71466088 0
2.4740002 -1.0411321 0.71451116 0
2.4730003 -1.0443916 0.71436149 0
2.4720001 -1.0476475 0.7142117 0
2.4710002 -1.0508997 0.71406198 0
2.4700003 -1.0541484 0.71391231 0
2.4690001 -1.0573934 0.71376258 0
2.4680002 -1.060635 0.71361291 0
2.4670002 -1.0638727 0.71346319 0
2.4660001 -1.067107 0.71331346 0
2.4650002 -1.0703375 0.71316373 0
2.4640002 -1.0735646 0.71301401 0
2.4630003 -1.0767881 0.71286428 0
2.4620001 -1.0800078 0.71271455 0
2.4610002 -1.0832241 0.71256483 0
2.4600003 -1.0864366 0.71241516 0
2.4590001 -1.0896455 0.71226543 0
2.4580002 -1.0928509 0.71211571 0
2.4570003 -1.0960528 0.71196604 0
2.4560001 -1.0992508 0.71181625 0
2.4550002 -1.1024455 0.71166658 0
2.4540002 -1.1056364 0.71151686 0
2.4530003 -1.1088237 0.71136713 0
2.4510002 -1.1114879 0.71106768 0
2.4500003 -1.1146662 0.71091795 0
2.4490001 -1.1178409 0.71076822 0
2.4480002 -1.121012 0.71061856 0
2.4470003 -1.1241795 0.71046889 0
2.4460001 -1.1273433 0.7103191 0
2.4450002 -1.1305037 0.71016943 0
2.4440002 -1.1336603 0.71001971 0
2.4430001 -1.1368133 0.70986998 0
2.4420002 -1.1399628 0.70972025 0
2.4410002 -1.1431086 0.70957053 0
2.4400003 -1.146251 0.70942086 0
2.4390001 -1.1493895 0.70927107 0
2.4380002 -1.1525246 0.70912135 0
2.4370003 -1.155656 0.70897168 0
2.4360001 -1.1587837 0.70882195 0
2.4350002 -1.1619079 0.70867229 0
2.4340003 -1.1650286 0.70852256 0
2.4330001 -1.1681455 0.70837283 0
2.4320002 -1.1712589 0.7082231 0
2.4310002 -1.1743686 0.70807338 0
2.4300003 -1.1774749 0.70792365 0
2.4290001 -1.1805773 0.70777392 0
2.4280002 -1.1836762 0.7076242 0
2.4270003 -1.1867718 0.70747453 0
2.4260001 -1.1898633 0.7073248 0
2.4250002 -1.1929514 0.70717508 0
2.4240003 -1.196036 0.70702541 0
2.4230001 -1.1991168 0.70687562 0
2.4220002 -1.2021941 0.70672596 0
2.4210002 -1.2052679 0.70657623 0
2.4200001 -1.2083379 0.7064265 0
2.5160003 -1.0116651 0.71698236 0
2.4890001 -1.0031115 0.71298873 0
2.4860003 -1.0054997 0.71254504 0
2.4850001 -1.0088006 0.7123971 0
2.4840002 -1.012098 0.71224922 0
2.4830003 -1.0153918 0.71210128 0
2.4810002 -1.0182147 0.71180546 0
2.4800003 -1.0214995 0.71165752 0
2.4790001 -1.0247806 0.71150959 0
2.4780002 -1.0280582 0.71136177 0
2.4770002 -1.031332 0.71121383 0
2.4760003 -1.0346024 0.71106589 0
2.4750001 -1.037869 0.71091795 0
2.4740002 -1.0411321 0.71077007 0
2.4730003 -1.0443916 0.71062219 0
2.4720001 -1.0476475 0.71047425 0
2.4710002 -1.0508997 0.71032631 0
2.4700003 -1.0541484 0.71017843 0
2.4690001 -1.0573934 0.7100305 0
2.4680002 -1.060635 0.70988262 0
2.4670002 -1.0638727 0.70973468 0
2.4660001 -1.067107 0.70958674 0
2.4650002 -1.0703375 0.70943886 0
2.4640002 -1.0735646 0.70929098 0
2.4630003 -1.0767881 0.70914304 0
2.4620001 -1.0800078 0.7089951 0
2.4610002 -1.0832241 0.70884722 0
2.4600003 -1.0864366 0.70869935 0
2.4590001 -1.0896455 0.70855141 0
2.4580002 -1.0928509 0.70840347 0
2.4570003 -1.0960528 0.70825553 0
2.4560001 -1.0992508 0.70810759 0
2.4550002 -1.1024455 0.70795977 0
2.4540002 -1.1056364 0.70781183 0
2.4530003 -1.1088237 0.70766395 0
2.4510002 -1.1114879 0.70736808 0
2.4500003 -1.1146662 0.7072202 0
2.4490001 -1.1178409 0.70707226 0
2.4480002 -1.121012 0.70692432 0
2.4470003 -1.1241795 0.7067765 0
2.4460001 -1.1273433 0.70662856 0
2.4450002 -1.1305037 0.70648062 0
2.4440002 -1.1336603 0.70633268 0
2.4430001 -1.1368133 0.70618474 0
2.4420002 -1.1399628 0.70603687 0
2.4410002 -1.1431086 0.70588899 0
2.4400003 -1.146251 0.70574105 0
2.4390001 -1.1493895 0.70559311 0
2.4380002 -1.1525246 0.70544523 0
2.4370003 -1.155656 0.70529735 0
2.4360001 -1.1587837 0.70514941 0
2.4350002 -1.1619079 0.70500147 0
2.4340003 -1.1650286 0.70485359 0
2.4330001 -1.1681455 0.70470566 0
2.4320002 -1.1712589 0.70455778 0
2.4310002 -1.1743686 0.70440984 0
2.4300003 -1.1774749 0.70426196 0
2.4290001 -1.1805773 0.70411402 0
2.4280002 -1.1836762 0.70396614 0
2.4270003 -1.1867718 0.7038182 0
2.4260001 -1.1898633 0.70367026 0
2.4250002 -1.1929514 0.70352232 0
2.4240003 -1.196036 0.70337451 0
2.4230001 -1.1991168 0.70322657 0
2.4220002 -1.2021941 0.70307863 0
2.4210002 -1.2052679 0.70293075 0
2.4200001 -1.2083379 0.70278275 0
2.5160003 -1.0116651 0.71316552 0
2.4890001 -1.0031115 0.70922059 0
2.4860003 -1.0054997 0.70878232 0
2.4850001 -1.0088006 0.70863616 0
2.4840002 -1.012098 0.70849007 0
2.4830003 -1.0153918 0.70834398 0
2.4810002 -1.0182147 0.70805174 0
2.4800003 -1.0214995 0.70790565 0
2.4790001 -1.0247806 0.7077595 0
2.4780002 -1.0280582 0.70761341 0
2.4770002 -1.031332 0.70746732 0
2.4760003 -1.0346024 0.70732123 0
2.4750001 -1.037869 0.70717508 0
2.4740002 -1.0411321 0.70702899 0
2.4730003 -1.0443916 0.70688283 0
2.4720001 -1.0476475 0.70673674 0
2.4710002 -1.0508997 0.70659065 0
2.4700003 -1.0541484 0.70644456 0
2.4690001 -1.0573934 0.70629841 0
2.4680002 -1.060635 0.70615232 0
2.4670002 -1.0638727 0.70600623 0
2.4660001 -1.067107 0.70586008 0
2.4650002 -1.0703375 0.70571399 0
2.4640002 -1.0735646 0.7055679 0
2.4630003 -1.0767881 0.70542181 0
2.4620001 -1.0800078 0.70527565 0
2.4610002 -1.0832241 0.70512956 0
2.4600003 -1.0864366 0.70498347 0
2.4590001 -1.0896455 0.70483732 0
2.4580002 -1.0928509 0.70469129 0
2.4570003 -1.0960528 0.70454514 0
2.4560001 -1.0992508 0.70439899 0
2.4550002 -1.1024455 0.7042529 0
2.4540002 -1.1056364 0.70410681 0
2.4530003 -1.1088237 0.70396072 0
2.4510002 -1.1114879 0.70366848 0
2.4500003 -1.1146662 0.70352238 0
2.4490001 -1.1178409 0.70337629 0
2.4480002 -1.121012 0.70323014 0
2.4470003 -1.1241795 0.70308405 0
2.4460001 -1.1273433 0.70293796 0
2.4450002 -1.1305037 0.70279181 0
2.4440002 -1.1336603 0.70264572 0
2.4430001 -1.1368133 0.70249963 0
2.4420002 -1.1399628 0.70235348 0
2.4410002 -1.1431086 0.70220745 0
2.4400003 -1.146251 0.7020613 0
2.4390001 -1.1493895 0.70191514 0
2.4380002 -1.1525246 0.70176905 0
2.4370003 -1.155656 0.70162296 0
2.4360001 -1.1587837 0.70147681 0
2.4350002 -1.1619079 0.70133078 0
2.4340003 -1.1650286 0.70118463 0
2.4330001 -1.1681455 0.70103848 0
2.4320002 -1.1712589 0.70089245 0
2.4310002 -1.1743686 0.7007463 0
2.4300003 -1.1774749 0.70060027 0
2.4290001 -1.1805773 0.70045412 0
2.4280002 -1.1836762 0.70030797 0
2.4270003 -1.1867718 0.70016187 0
2.4260001 -1.1898633 0.70001578 0
2.4250002 -1.1929514 0.69986963 0
2.4240003 -1.196036 0.6997236 0
2.4230001 -1.1991168 0.69957745 0
2.4220002 -1.2021941 0.6994313 0
2.4210002 -1.2052679 0.69928527 0
2.4200001 -1.2083379 0.69913912 0
2.5160003 -1.0116651 0.70934868 0
2.4890001 -1.0031115 0.70545244 0
2.4860003 -1.0054997 0.70501959 0
2.4850001 -1.0088006 0.70487523 0
2.4840002 -1.012098 0.70473087 0
2.4830003 -1.0153918 0.70458663 0
2.4810002 -1.0182147 0.70429802 0
2.4800003 -1.0214995 0.70415372 0
2.4790001 -1.0247806 0.70400941 0
2.4780002 -1.0280582 0.70386505 0
2.4770002 -1.031332 0.70372081 0
2.4760003 -1.0346024 0.70357651 0
2.4750001 -1.037869 0.7034322 0
2.4740002 -1.0411321 0.7032879 0
2.4730003 -1.0443916 0.7031436 0
2.4720001 -1.0476475 0.70299923 0
2.4710002 -1.0508997 0.70285499 0
2.4700003 -1.0541484 0.70271063 0
2.4690001 -1.0573934 0.70256639 0
2.4680002 -1.060635 0.70242202 0
2.4670002 -1.0638727 0.70227778 0
2.4660001 -1.067107 0.70213342 0
2.4650002 -1.0703375 0.70198917 0
2.4640002 -1.0735646 0.70184481 0
2.4630003 -1.0767881 0.70170057 0
2.4620001 -1.0800078 0.70155621 0
2.4610002 -1.0832241 0.7014119 0
2.4600003 -1.0864366 0.7012676 0
2.4590001 -1.0896455 0.7011233 0
2.4580002 -1.0928509 0.70097899 0
2.4570003 -1.0960528 0.70083469 0
2.4560001 -1.0992508 0.70069039 0
2.4550002 -1.1024455 0.70054609 0
2.4540002 -1.1056364 0.70040178 0
2.4530003 -1.1088237 0.70025754 0
2.4510002 -1.1114879 0.69996887 0
2.4500003 -1.1146662 0.69982457 0
2.4490001 -1.1178409 0.69968021 0
2.4480002 -1.121012 0.69953597 0
2.4470003 -1.1241795 0.69939166 0
2.4460001 -1.1273433 0.69924736 0
2.4450002 -1.1305037 0.699103 0
2.4440002 -1.1336603 0.69895875 0
2.4430001 -1.1368133 0.69881439 0
2.4420002 -1.1399628 0.69867015 0
2.4410002 -1.1431086 0.69852585 0
2.4400003 -1.146251 0.69838154 0
2.4390001 -1.1493895 0.69823718 0
2.4380002 -1.1525246 0.69809294 0
2.4370003 -1.155656 0.69794863 0
2.4360001 -1.1587837 0.69780433 0
2.4350002 -1.1619079 0.69765997 0
2.4340003 -1.1650286 0.69751573 0
2.4330001 -1.1681455 0.69737136 0
2.4320002 -1.1712589 0.69722706 0
2.4310002 -1.1743686 0.69708276 0
2.4300003 -1.1774749 0.69693851 0
2.4290001 -1.1805773 0.69679415 0
2.4280002 -1.1836762 0.69664985 0
2.4270003 -1.1867718 0.69650555 0
2.4260001 -1.1898633 0.69636124 0
2.4250002 -1.1929514 0.69621694 0
2.4240003 -1.196036 0.6960727 0
2.4230001 -1.1991168 0.69592834 0
2.4220002 -1.2021941 0.69578403 0
2.4210002 -1.2052679 0.69563973 0
2.4200001 -1.2083379 0.69549543 0
2.5160003 -1.0116651 0.70553184 0
2.4890001 -1.0031115 0.7016843 0
2.4860003 -1.0054997 0.70125681 0
2.4850001 -1.0088006 0.7011143 0
2.4840002 -1.012098 0.70097178 0
2.4830003 -1.0153918 0.70082927 0
2.4810002 -1.0182147 0.70054424 0
2.4800003 -1.0214995 0.70040178 0
2.4790001 -1.0247806 0.70025927 0
2.4780002 -1.0280582 0.70011675 0
2.4770002 -1.031332 0.6999743 0
2.4760003 -1.0346024 0.69983178 0
2.4750001 -1.037869 0.69968927 0
2.4740002 -1.0411321 0.69954681 0
2.4730003 -1.0443916 0.6994043 0
2.4720001 -1.0476475 0.69926178 0
2.4710002 -1.0508997 0.69911927 0
2.4700003 -1.0541484 0.69897676 0
2.4690001 -1.0573934 0.6988343 0
2.4680002 -1.060635 0.69869179 0
2.4670002 -1.0638727 0.69854927 0
2.4660001 -1.067107 0.69840676 0
2.4650002 -1.0703375 0.69826424 0
2.4640002 -1.0735646 0.69812179 0
2.4630003 -1.0767881 0.69797933 0
2.4620001 -1.0800078 0.69783676 0
2.4610002 -1.0832241 0.6976943 0
2.4600003 -1.0864366 0.69755179 0
2.4590001 -1.0896455 0.69740927 0
2.4580002 -1.0928509 0.69726676 0
2.4570003 -1.0960528 0.69712424 0
2.4560001 -1.0992508 0.69698173 0
2.4550002 -1.1024455 0.69683921 0
2.4540002 -1.1056364 0.69669676 0
2.4530003 -1.1088237 0.6965543 0
2.4510002 -1.1114879 0.69626927 0
2.4500003 -1.1146662 0.69612676 0
2.4490001 -1.1178409 0.69598424 0
2.4480002 -1.121012 0.69584179 0
2.4470003 -1.1241795 0.69569927 0
2.4460001 -1.1273433 0.69555676 0
2.4450002 -1.1305037 0.69541425 0
2.4440002 -1.1336603 0.69527173 0
2.4430001 -1.1368133 0.69512928 0
2.4420002 -1.1399628 0.69498676 0
2.4410002 -1.1431086 0.69484425 0
2.4400003 -1.146251 0.69470179 0
2.4390001 -1.1493895 0.69455922 0
2.4380002 -1.1525246 0.69441676 0
2.4370003 -1.155656 0.69427431 0
2.4360001 -1.1587837 0.69413173 0
2.4350002 -1.1619079 0.69398922 0
2.4340003 -1.1650286 0.69384676 0
2.4330001 -1.1681455 0.69370425 0
2.4320002 -1.1712589 0.69356173 0
2.4310002 -1.1743686 0.69341922 0
2.4300003 -1.1774749 0.69327676 0
2.4290001 -1.1805773 0.69313419 0
2.4280002 -1.1836762 0.69299173 0
2.4270003 -1.1867718 0.69284928 0
2.4260001 -1.1898633 0.6927067 0
2.4250002 -1.1929514 0.69256425 0
2.4240003 -1.196036 0.69242173 0
2.4230001 -1.1991168 0.69227922 0
2.4220002 -1.2021941 0.69213676 0
2.4210002 -1.2052679 0.69199425 0
2.4200001 -1.2083379 0.69185174 0
2.5160003 -1.0116651 0.70171499 0
2.4890001 -1.0031115 0.69791615 0
2.4860003 -1.0054997 0.69749403 0
2.4850001 -1.0088006 0.69735336 0
2.4840002 -1.012098 0.69721264 0
2.4830003 -1.0153918 0.69707197 0
2.4810002 -1.0182147 0.69679058 0
2.4800003 -1.0214995 0.69664985 0
2.4790001 -1.0247806 0.69650912 0
2.4780002 -1.0280582 0.69636846 0
2.4770002 -1.031332 0.69622779 0
2.4760003 -1.0346024 0.69608706 0
2.4750001 -1.037869 0.69594634 0
2.4740002 -1.0411321 0.69580567 0
2.4730003 -1.0443916 0.695665 0
2.4720001 -1.0476475 0.69552428 0
2.4710002 -1.0508997 0.69538355 0
2.4700003 -1.0541484 0.69524288 0
2.4690001 -1.0573934 0.69510221 0
2.4680002 -1.060635 0.69496149 0
2.4670002 -1.0638727 0.69482082 0
2.4660001 -1.067107 0.69468009 0
2.4650002 -1.0703375 0.69453943 0
2.4640002 -1.0735646 0.6943987 0
2.4630003 -1.0767881 0.69425803 0
2.4620001 -1.0800078 0.69411731 0
2.4610002 -1.0832241 0.69397664 0
2.4600003 -1.0864366 0.69383591 0
2.4590001 -1.0896455 0.69369519 0
2.4580002 -1.0928509 0.69355452 0
2.4570003 -1.0960528 0.69341385 0
2.4560001 -1.0992508 0.69327307 0
2.4550002 -1.1024455 0.6931324 0
2.4540002 -1.1056364 0.69299173 0
2.4530003 -1.1088237 0.69285107 0
2.4510002 -1.1114879 0.69256961 0
2.4500003 -1.1146662 0.69242895 0
2.4490001 -1.1178409 0.69228828 0
2.4480002 -1.121012 0.69214755 0
2.4470003 -1.1241795 0.69200689 0
2.4460001 -1.1273433 0.69186616 0
2.4450002 -1.1305037 0.69172549 0
2.4440002 -1.1336603 0.69158477 0
2.4430001 -1.1368133 0.69144404 0
2.4420002 -1.1399628 0.69130337 0
2.4410002 -1.1431086 0.69116271 0
2.4400003 -1.146251 0.69102198 0
2.4390001 -1.1493895 0.69088125 0
2.4380002 -1.1525246 0.69074059 0
2.4370003 -1.155656 0.69059992 0
2.4360001 -1.1587837 0.69045913 0
2.4350002 -1.1619079 0.69031847 0
2.4340003 -1.1650286 0.6901778 0
2.4330001 -1.1681455 0.69003713 0
2.4320002 -1.1712589 0.6898964 0
2.4310002 -1.1743686 0.68975568 0
2.4300003 -1.1774749 0.68961501 0
2.4290001 -1.1805773 0.68947434 0
2.4280002 -1.1836762 0.68933362 0
2.4270003 -1.1867718 0.68919295 0
2.4260001 -1.1898633 0.68905222 0
2.4250002 -1.1929514 0.68891156 0
2.4240003 -1.196036 0.68877083 0
2.4230001 -1.1991168 0.6886301 0
2.4220002 -1.2021941 0.68848944 0
2.4210002 -1.2052679 0.68834877 0
2.4200001 -1.2083379 0.68820798 0
2.5160003 -1.0116651 0.69789809 0
2.4890001 -1.0031115 0.69414794 0
2.4860003 -1.0054997 0.69373131 0
2.4850001 -1.0088006 0.69359243 0
2.4840002 -1.012098 0.69345349 0
2.4830003 -1.0153918 0.69331467 0
2.4810002 -1.0182147 0.69303679 0
2.4800003 -1.0214995 0.69289798 0
2.4790001 -1.0247806 0.69275904 0
2.4780002 -1.0280582 0.69262016 0
2.4770002 -1.031332 0.69248128 0
2.4760003 -1.0346024 0.6923424 0
2.4750001 -1.037869 0.69220352 0
2.4740002 -1.0411321 0.69206458 0
2.4730003 -1.0443916 0.6919257 0
2.4720001 -1.0476475 0.69178677 0
2.4710002 -1.0508997 0.69164789 0
2.4700003 -1.0541484 0.69150901 0
2.4690001 -1.0573934 0.69137013 0
2.4680002 -1.060635 0.69123125 0
2.4670002 -1.0638727 0.69109237 0
2.4660001 -1.067107 0.69095343 0
2.4650002 -1.0703375 0.6908145 0
2.4640002 -1.0735646 0.69067562 0
2.4630003 -1.0767881 0.69053674 0
2.4620001 -1.0800078 0.69039786 0
2.4610002 -1.0832241 0.69025898 0
2.4600003 -1.0864366 0.6901201 0
2.4590001 -1.0896455 0.68998116 0
2.4580002 -1.0928509 0.68984228 0
2.4570003 -1.0960528 0.6897034 0
2.4560001 -1.0992508 0.68956447 0
2.4550002 -1.1024455 0.68942559 0
2.4540002 -1.1056364 0.68928671 0
2.4530003 -1.1088237 0.68914783 0
2.4510002 -1.1114879 0.68887001 0
2.4500003 -1.1146662 0.68873119 0
2.4490001 -1.1178409 0.6885922 0
2.4480002 -1.121012 0.68845338 0
2.4470003 -1.1241795 0.6883145 0
2.4460001 -1.1273433 0.68817556 0
2.4450002 -1.1305037 0.68803668 0
2.4440002 -1.1336603 0.6878978 0
2.4430001 -1.1368133 0.68775892 0
2.4420002 -1.1399628 0.68762004 0
2.4410002 -1.1431086 0.68748111 0
2.4400003 -1.146251 0.68734223 0
2.4390001 -1.1493895 0.68720329 0
2.4380002 -1.1525246 0.68706441 0
2.4370003 -1.155656 0.68692553 0
2.4360001 -1.1587837 0.68678665 0
2.4350002 -1.1619079 0.68664777 0
2.4340003 -1.1650286 0.68650889 0
2.4330001 -1.1681455 0.68636996 0
2.4320002 -1.1712589 0.68623102 0
2.4310002 -1.1743686 0.68609214 0
2.4300003 -1.1774749 0.68595326 0
2.4290001 -1.1805773 0.68581438 0
2.4280002 -1.1836762 0.6856755 0
2.4270003 -1.1867718 0.68553662 0
2.4260001 -1.1898633 0.68539768 0
2.4250002 -1.1929514 0.68525881 0
2.4240003 -1.196036 0.68511993 0
2.4230001 -1.1991168 0.68498099 0
2.4220002 -1.2021941 0.68484211 0
2.4210002 -1.2052679 0.68470323 0
2.4200001 -1.2083379 0.68456435 0
2.5160003 -1.0116651 0.69408125 0
2.4890001 -1.0031115 0.6903798 0
2.4860003 -1.0054997 0.68996859 0
2.4850001 -1.0088006 0.6898315 0
2.4840002 -1.012098 0.6896944 0
2.4830003 -1.0153918 0.68955731 0
2.4810002 -1.0182147 0.68928313 0
2.4800003 -1.0214995 0.68914604 0
2.4790001 -1.0247806 0.68900895 0
2.4780002 -1.0280582 0.68887186 0
2.4770002 -1.031332 0.68873477 0
2.4760003 -1.0346024 0.68859768 0
2.4750001 -1.037869 0.68846059 0
2.4740002 -1.0411321 0.6883235 0
2.4730003 -1.0443916 0.68818641 0
2.4720001 -1.0476475 0.68804932 0
2.4710002 -1.0508997 0.68791223 0
2.4700003 -1.0541484 0.68777514 0
2.4690001 -1.0573934 0.68763804 0
2.4680002 -1.060635 0.68750095 0
2.4670002 -1.0638727 0.68736386 0
2.4660001 -1.067107 0.68722677 0
2.4650002 -1.0703375 0.68708968 0
2.4640002 -1.0735646 0.68695259 0
2.4630003 -1.0767881 0.6868155 0
2.4620001 -1.0800078 0.68667841 0
2.4610002 -1.0832241 0.68654132 0
2.4600003 -1.0864366 0.68640423 0
2.4590001 -1.0896455 0.68626714 0
2.4580002 -1.0928509 0.68613005 0
2.4570003 -1.0960528 0.68599296 0
2.4560001 -1.0992508 0.68585587 0
2.4550002 -1.1024455 0.68571877 0
2.4540002 -1.1056364 0.68558168 0
2.4530003 -1.1088237 0.68544459 0
2.4510002 -1.1114879 0.68517041 0
2.4500003 -1.1146662 0.68503332 0
2.4490001 -1.1178409 0.68489623 0
2.4480002 -1.121012 0.68475914 0
2.4470003 -1.1241795 0.68462205 0
2.4460001 -1.1273433 0.68448496 0
2.4450002 -1.1305037 0.68434787 0
2.4440002 -1.1336603 0.68421078 0
2.4430001 -1.1368133 0.68407369 0
2.4420002 -1.1399628 0.6839366 0
2.4410002 -1.1431086 0.68379951 0
2.4400003 -1.146251 0.68366241 0
2.4390001 -1.1493895 0.68352532 0
2.4380002 -1.1525246 0.68338823 0
2.4370003 -1.155656 0.68325114 0
2.4360001 -1.1587837 0.68311405 0
2.4350002 -1.1619079 0.68297696 0
2.4340003 -1.1650286 0.68283993 0
2.4330001 -1.1681455 0.68270278 0
2.4320002 -1.1712589 0.68256569 0
2.4310002 -1.1743686 0.68242866 0
2.4300003 -1.1774749 0.68229157 0
2.4290001 -1.1805773 0.68215448 0
2.4280002 -1.1836762 0.68201733 0
2.4270003 -1.1867718 0.6818803 0
2.4260001 -1.1898633 0.68174314 0
2.4250002 -1.1929514 0.68160611 0
2.4240003 -1.196036 0.68146896 0
2.4230001 -1.1991168 0.68133187 0
2.4220002 -1.2021941 0.68119484 0
2.4210002 -1.2052679 0.68105775 0
2.4200001 -1.2083379 0.68092066 0
2.5160003 -1.0116651 0.6902644 0
2.4890001 -1.0031115 0.68661165 0
2.4860003 -1.0054997 0.68620586 0
2.4850001 -1.0088006 0.6860705 0
2.4840002 -1.012098 0.68593526 0
2.4830003 -1.0153918 0.68579996 0
2.4810002 -1.0182147 0.68552935 0
2.4800003 -1.0214995 0.68539411 0
2.4790001 -1.0247806 0.68525881 0
2.4780002 -1.0280582 0.68512356 0
2.4770002 -1.031332 0.68498826 0
2.4760003 -1.0346024 0.68485296 0
2.4750001 -1.037869 0.68471766 0
2.4740002 -1.0411321 0.68458235 0
2.4730003 -1.0443916 0.68444711 0
2.4720001 -1.0476475 0.68431181 0
2.4710002 -1.0508997 0.68417656 0
2.4700003 -1.0541484 0.68404126 0
2.4690001 -1.0573934 0.68390596 0
2.4680002 -1.060635 0.68377066 0
2.4670002 -1.0638727 0.68363535 0
2.4660001 -1.067107 0.68350005 0
2.4650002 -1.0703375 0.68336481 0
2.4640002 -1.0735646 0.68322951 0
2.4630003 -1.0767881 0.68309426 0
2.4620001 -1.0800078 0.68295896 0
2.4610002 -1.0832241 0.68282366 0
2.4600003 -1.0864366 0.68268842 0
2.4590001 -1.0896455 0.68255305 0
2.4580002 -1.0928509 0.68241781 0
2.4570003 -1.0960528 0.68228257 0
2.4560001 -1.0992508 0.68214726 0
2.4550002 -1.1024455 0.68201196 0
2.4540002 -1.1056364 0.68187666 0
2.4530003 -1.1088237 0.68174142 0
2.4520001 -1.1120074 0.68160611 0
2.4500003 -1.1146662 0.68133557 0
2.4490001 -1.1178409 0.68120027 0
2.4480002 -1.121012 0.68106496 0
2.4470003 -1.1241795 0.68092966 0
2.4460001 -1.1273433 0.68079436 0
2.4450002 -1.1305037 0.68065906 0
2.4440002 -1.1336603 0.68052387 0
2.4430001 -1.1368133 0.68038857 0
2.4420002 -1.1399628 0.68025327 0
2.4410002 -1.1431086 0.68011796 0
2.4400003 -1.146251 0.67998266 0
2.4390001 -1.1493895 0.67984736 0
2.4380002 -1.1525246 0.67971206 0
2.4370003 -1.155656 0.67957681 0
2.4360001 -1.1587837 0.67944151 0
2.4350002 -1.1619079 0.67930627 0
2.4340003 -1.1650286 0.67917097 0
2.4330001 -1.1681455 0.67903566 0
2.4320002 -1.1712589 0.67890036 0
2.4310002 -1.1743686 0.67876512 0
2.4300003 -1.1774749 0.67862988 0
2.4290001 -1.1805773 0.67849451 0
2.4280002 -1.1836762 0.67835927 0
2.4270003 -1.1867718 0.67822397 0
2.4260001 -1.1898633 0.67808867 0
2.4250002 -1.1929514 0.67795336 0
2.4240003 -1.196036 0.67781812 0
2.4230001 -1.1991168 0.67768282 0
2.4220002 -1.2021941 0.67754757 0
2.4210002 -1.2052679 0.67741227 0
2.4200001 -1.2083379 0.67727697 0
2.5160003 -1.0116651 0.6864475 0
2.4890001 -1.0031115 0.68284351 0
2.4860003 -1.0054997 0.68244308 0
2.4850001 -1.0088006 0.68230963 0
2.4840002 -1.012098 0.68217611 0
2.4830003 -1.0153918 0.6820426 0
2.4810002 -1.0182147 0.68177569 0
2.4800003 -1.0214995 0.68164217 0
2.4790001 -1.0247806 0.68150866 0
2.4780002 -1.0280582 0.68137521 0
2.4770002 -1.031332 0.68124175 0
2.4760003 -1.0346024 0.68110824 0
2.4750001 -1.037869 0.68097472 0
2.4740002 -1.0411321 0.68084133 0
2.4730003 -1.0443916 0.68070781 0
2.4720001 -1.0476475 0.6805743 0
2.4710002 -1.0508997 0.68044084 0
2.4700003 -1.0541484 0.68030739 0
2.4690001 -1.0573934 0.68017387 0
2.4680002 -1.060635 0.68004042 0
2.4670002 -1.0638727 0.6799069 0
2.4660001 -1.067107 0.67977345 0
2.4650002 -1.0703375 0.67963994 0
2.4640002 -1.0735646 0.67950648 0
2.4630003 -1.0767881 0.67937303 0
2.4620001 -1.0800078 0.67923951 0
2.4610002 -1.0832241 0.679106 0
2.4600003 -1.0864366 0.6789726 0
2.4590001 -1.0896455 0.67883903 0
2.4580002 -1.0928509 0.67870557 0
2.4570003 -1.0960528 0.67857212 0
2.4560001 -1.0992508 0.6784386 0
2.4550002 -1.1024455 0.67830515 0
2.4540002 -1.1056364 0.67817163 0
2.4530003 -1.1088237 0.67803818 0
2.4520001 -1.1120074 0.67790473 0
2.4500003 -1.1146662 0.6776377 0
2.4490001 -1.1178409 0.67750424 0
2.4480002 -1.121012 0.67737079 0
2.4470003 -1.1241795 0.67723727 0
2.4460001 -1.1273433 0.67710376 0
2.4450002 -1.1305037 0.6769703 0
2.4440002 -1.1336603 0.67683685 0
2.4430001 -1.1368133 0.67670333 0
2.4420002 -1.1399628 0.67656982 0
2.4410002 -1.1431086 0.67643642 0
2.4400003 -1.146251 0.67630291 0
2.4390001 -1.1493895 0.6761694 0
2.4380002 -1.1525246 0.67603594 0
2.4370003 -1.155656 0.67590249 0
2.4360001 -1.1587837 0.67576897 0
2.4350002 -1.1619079 0.67563552 0
2.4340003 -1.1650286 0.675502 0
2.4330001 -1.1681455 0.67536855 0
2.4320002 -1.1712589 0.67523503 0
2.4310002 -1.1743686 0.67510158 0
2.4300003 -1.1774749 0.67496812 0
2.4290001 -1.1805773 0.67483461 0
2.4280002 -1.1836762 0.67470109 0
2.4270003 -1.1867718 0.6745677 0
2.4260001 -1.1898633 0.67443413 0
2.4250002 -1.1929514 0.67430067 0
2.4240003 -1.196036 0.67416722 0
2.4230001 -1.1991168 0.6740337 0
2.4220002 -1.2021941 0.67390025 0
2.4210002 -1.2052679 0.67376673 0
2.4200001 -1.2083379 0.67363322 0
2.5160003 -1.0116651 0.68263066 0
2.4890001 -1.0031115 0.67907536 0
2.4860003 -1.0054997 0.6786803 0
2.4850001 -1.0088006 0.67854863 0
2.4840002 -1.012098 0.67841697 0
2.4830003 -1.0153918 0.6782853 0
2.4810002 -1.0182147 0.67802191 0
2.4800003 -1.0214995 0.6778903 0
2.4790001 -1.0247806 0.67775857 0
2.4780002 -1.0280582 0.67762685 0
2.4770002 -1.031332 0.67749524 0
2.4760003 -1.0346024 0.67736357 0
2.4750001 -1.037869 0.67723191 0
2.4740002 -1.0411321 0.67710018 0
2.4730003 -1.0443916 0.67696851 0
2.4720001 -1.0476475 0.67683685 0
2.4710002 -1.0508997 0.67670512 0
2.4700003 -1.0541484 0.67657351 0
2.4690001 -1.0573934 0.67644179 0
2.4680002 -1.060635 0.67631012 0
2.4670002 -1.0638727 0.67617846 0
2.4660001 -1.067107 0.67604673 0
2.4650002 -1.0703375 0.67591512 0
2.4640002 -1.0735646 0.6757834 0
2.4630003 -1.0767881 0.67565173 0
2.4620001 -1.0800078 0.67552006 0
2.4610002 -1.0832241 0.67538834 0
2.4600003 -1.0864366 0.67525673 0
2.4590001 -1.0896455 0.675125 0
2.4580002 -1.0928509 0.67499334 0
2.4570003 -1.0960528 0.67486167 0
2.4560001 -1.0992508 0.67472994 0
2.4550002 -1.1024455 0.67459834 0
2.4540002 -1.1056364 0.67446661 0
2.4530003 -1.1088237 0.674335 0
2.4520001 -1.1120074 0.67420328 0
2.4500003 -1.1146662 0.67393994 0
2.4490001 -1.1178409 0.67380822 0
2.4480002 -1.121012 0.67367661 0
2.4470003 -1.1241795 0.67354488 0
2.4460001 -1.1273433 0.67341316 0
2.4450002 -1.1305037 0.67328155 0
2.4440002 -1.1336603 0.67314982 0
2.4430001 -1.1368133 0.67301816 0
2.4420002 -1.1399628 0.67288649 0
2.4410002 -1.1431086 0.67275482 0
2.4400003 -1.146251 0.67262316 0
2.4390001 -1.1493895 0.67249143 0
2.4380002 -1.1525246 0.67235976 0
2.4370003 -1.155656 0.6722281 0
2.4360001 -1.1587837 0.67209643 0
2.4350002 -1.1619079 0.67196476 0
2.4340003 -1.1650286 0.67183304 0
2.4330001 -1.1681455 0.67170137 0
2.4320002 -1.1712589 0.67156971 0
2.4310002 -1.1743686 0.67143804 0
2.4300003 -1.1774749 0.67130637 0
2.4290001 -1.1805773 0.67117465 0
2.4280002 -1.1836762 0.67104304 0
2.4270003 -1.1867718 0.67091131 0
2.4260001 -1.1898633 0.67077959 0
2.4250002 -1.1929514 0.67064798 0
2.4240003 -1.196036 0.67051631 0
2.4230001 -1.1991168 0.67038459 0
2.4220002 -1.2021941 0.67025292 0
2.4210002 -1.2052679 0.67012125 0
2.4200001 -1.2083379 0.66998959 0
2.5160003 -1.0116651 0.67881382 0
2.4890001 -1.0031115 0.67530715 0
2.4860003 -1.0054997 0.67491758 0
2.4850001 -1.0088006 0.67478764 0
2.4840002 -1.012098 0.67465782 0
2.4830003 -1.0153918 0.674528 0
2.4810002 -1.0182147 0.67426819 0
2.4800003 -1.0214995 0.67413831 0
2.4790001 -1.0247806 0.67400849 0
2.4780002 -1.0280582 0.67387855 0
2.4770002 -1.031332 0.67374873 0
2.4760003 -1.0346024 0.67361885 0
2.4750001 -1.037869 0.67348897 0
2.4740002 -1.0411321 0.6733591 0
2.4730003 -1.0443916 0.67322922 0
2.4720001 -1.0476475 0.67309934 0
2.4710002 -1.0508997 0.67296946 0
2.4700003 -1.0541484 0.67283958 0
2.4690001 -1.0573934 0.6727097 0
2.4680002 -1.060635 0.67257988 0
2.4670002 -1.0638727 0.67244995 0
2.4660001 -1.067107 0.67232007 0
2.4650002 -1.0703375 0.67219019 0
2.4640002 -1.0735646 0.67206037 0
2.4630003 -1.0767881 0.67193049 0
2.4620001 -1.0800078 0.67180061 0
2.4610002 -1.0832241 0.67167073 0
2.4600003 -1.0864366 0.67154086 0
2.4590001 -1.0896455 0.67141098 0
2.4580002 -1.0928509 0.6712811 0
2.4570003 -1.0960528 0.67115122 0
2.4560001 -1.0992508 0.67102134 0
2.4550002 -1.1024455 0.67089152 0
2.4540002 -1.1056364 0.67076159 0
2.4530003 -1.1088237 0.67063177 0
2.4520001 -1.1120074 0.67050183 0
2.4500003 -1.1146662 0.67024207 0
2.4490001 -1.1178409 0.67011225 0
2.4480002 -1.121012 0.66998237 0
2.4470003 -1.1241795 0.6698525 0
2.4460001 -1.1273433 0.66972256 0
2.4450002 -1.1305037 0.66959274 0
2.4440002 -1.1336603 0.66946292 0
2.4430001 -1.1368133 0.66933298 0
2.4420002 -1.1399628 0.6692031 0
2.4410002 -1.1431086 0.66907322 0
2.4400003 -1.146251 0.66894341 0
2.4390001 -1.1493895 0.66881347 0
2.4380002 -1.1525246 0.66868365 0
2.4370003 -1.155656 0.66855377 0
2.4360001 -1.1587837 0.66842389 0
2.4350002 -1.1619079 0.66829395 0
2.4340003 -1.1650286 0.66816413 0
2.4330001 -1.1681455 0.66803426 0
2.4320002 -1.1712589 0.66790438 0
2.4310002 -1.1743686 0.6677745 0
2.4300003 -1.1774749 0.66764462 0
2.4290001 -1.1805773 0.66751474 0
2.4280002 -1.1836762 0.66738486 0
2.4270003 -1.1867718 0.66725504 0
2.4260001 -1.1898633 0.66712511 0
2.4250002 -1.1929514 0.66699529 0
2.4240003 -1.196036 0.66686535 0
2.4230001 -1.1991168 0.66673553 0
2.4220002 -1.2021941 0.66660559 0
2.4210002 -1.2052679 0.66647577 0
2.4200001 -1.2083379 0.66634583 0
2.5160003 -1.0116651 0.67499697 0
2.4890001 -1.0031115 0.67153907 0
2.4860003 -1.0054997 0.67115486 0
2.4850001 -1.0088006 0.67102677 0
2.4840002 -1.012098 0.67089868 0
2.4830003 -1.0153918 0.67077065 0
2.4810002 -1.0182147 0.67051446 0
2.4800003 -1.0214995 0.67038643 0
2.4790001 -1.0247806 0.67025828 0
2.4780002 -1.0280582 0.67013025 0
2.4770002 -1.031332 0.67000222 0
2.4760003 -1.0346024 0.66987413 0
2.4750001 -1.037869 0.66974604 0
2.4740002 -1.0411321 0.66961801 0
2.4730003 -1.0443916 0.66948992 0
2.4720001 -1.0476475 0.66936183 0
2.4710002 -1.0508997 0.6692338 0
2.4700003 -1.0541484 0.66910577 0
2.4690001 -1.0573934 0.66897762 0
2.4680002 -1.060635 0.66884959 0
2.4670002 -1.0638727 0.6687215 0
2.4660001 -1.067107 0.66859341 0
2.4650002 -1.0703375 0.66846538 0
2.4640002 -1.0735646 0.66833729 0
2.4630003 -1.0767881 0.6682092 0
2.4620001 -1.0800078 0.66808116 0
2.4610002 -1.0832241 0.66795307 0
2.4600003 -1.0864366 0.66782498 0
2.4590001 -1.0896455 0.66769695 0
2.4580002 -1.0928509 0.66756886 0
2.4570003 -1.0960528 0.66744077 0
2.4560001 -1.0992508 0.66731274 0
2.4550002 -1.1024455 0.66718465 0
2.4540002 -1.1056364 0.66705656 0
2.4530003 -1.1088237 0.66692853 0
2.4520001 -1.1120074 0.66680044 0
2.4500003 -1.1146662 0.66654432 0
2.4490001 -1.1178409 0.66641623 0
2.4480002 -1.121012 0.66628814 0
2.4470003 -1.1241795 0.66616011 0
2.4460001 -1.1273433 0.66603202 0
2.4450002 -1.1305037 0.66590393 0
2.4440002 -1.1336603 0.6657759 0
2.4430001 -1.1368133 0.66564775 0
2.4420002 -1.1399628 0.66551971 0
2.4410002 -1.1431086 0.66539168 0
2.4400003 -1.146251 0.66526359 0
2.4390001 -1.1493895 0.6651355 0
2.4380002 -1.1525246 0.66500747 0
2.4370003 -1.155656 0.66487944 0
2.4360001 -1.1587837 0.66475129 0
2.4350002 -1.1619079 0.66462326 0
2.4340003 -1.1650286 0.66449523 0
2.4330001 -1.1681455 0.66436708 0
2.4320002 -1.1712589 0.66423905 0
2.4310002 -1.1743686 0.66411096 0
2.4300003 -1.1774749 0.66398293 0
2.4290001 -1.1805773 0.66385484 0
2.4280002 -1.1836762 0.66372675 0
2.4270003 -1.1867718 0.66359866 0
2.4260001 -1.1898633 0.66347063 0
2.4250002 -1.1929514 0.66334254 0
2.4240003 -1.196036 0.66321445 0
2.4230001 -1.1991168 0.66308641 0
2.4220002 -1.2021941 0.66295838 0
2.4210002 -1.2052679 0.66283023 0
2.4200001 -1.2083379 0.6627022 0
2.5160003 -1.0116651 0.67118013 0
2.4890001 -1.0031115 0.66777086 0
2.4860003 -1.0054997 0.66739213 0
2.4850001 -1.0088006 0.66726577 0
2.4840002 -1.012098 0.66713953 0
2.4830003 -1.0153918 0.66701329 0
2.4810002 -1.0182147 0.6667608 0
2.4800003 -1.0214995 0.6666345 0
2.4790001 -1.0247806 0.6665082 0
2.4780002 -1.0280582 0.66638196 0
2.4770002 -1.031332 0.66625571 0
2.4760003 -1.0346024 0.66612947 0
2.4750001 -1.037869 0.66600311 0
2.4740002 -1.0411321 0.66587687 0
2.4730003 -1.0443916 0.66575062 0
2.4720001 -1.0476475 0.66562438 0
2.4710002 -1.0508997 0.66549808 0
2.4700003 -1.0541484 0.66537184 0
2.4690001 -1.0573934 0.66524553 0
2.4680002 -1.060635 0.66511929 0
2.4670002 -1.0638727 0.66499305 0
2.4660001 -1.067107 0.66486675 0
2.4650002 -1.0703375 0.66474044 0
2.4640002 -1.0735646 0.6646142 0
2.4630003 -1.0767881 0.66448796 0
2.4620001 -1.0800078 0.66436172 0
2.4610002 -1.0832241 0.66423541 0
2.4600003 -1.0864366 0.66410917 0
2.4590001 -1.0896455 0.66398287 0
2.4580002 -1.0928509 0.66385663 0
2.4570003 -1.0960528 0.66373038 0
2.4560001 -1.0992508 0.66360408 0
2.4550002 -1.1024455 0.66347784 0
2.4540002 -1.1056364 0.66335154 0
2.4530003 -1.1088237 0.66322529 0
2.4520001 -1.1120074 0.66309905 0
2.4500003 -1.1146662 0.66284651 0
2.4490001 -1.1178409 0.6627202 0
2.4480002 -1.121012 0.66259396 0
2.4470003 -1.1241795 0.66246772 0
2.4460001 -1.1273433 0.66234142 0
2.4450002 -1.1305037 0.66221517 0
2.4440002 -1.1336603 0.66208887 0
2.4430001 -1.1368133 0.66196263 0
2.4420002 -1.1399628 0.66183639 0
2.4410002 -1.1431086 0.66171014 0
2.4400003 -1.146251 0.66158384 0
2.4390001 -1.1493895 0.66145754 0
2.4380002 -1.1525246 0.6613313 0
2.4370003 -1.155656 0.66120505 0
2.4360001 -1.1587837 0.66107875 0
2.4350002 -1.1619079 0.66095251 0
2.4340003 -1.1650286 0.66082621 0
2.4330001 -1.1681455 0.66069996 0
2.4320002 -1.1712589 0.66057372 0
2.4310002 -1.1743686 0.66044748 0
2.4300003 -1.1774749 0.66032118 0
2.4290001 -1.1805773 0.66019487 0
2.4280002 -1.1836762 0.66006863 0
2.4270003 -1.1867718 0.65994239 0
2.4260001 -1.1898633 0.65981609 0
2.4250002 -1.1929514 0.65968978 0
2.4240003 -1.196036 0.65956354 0
2.4230001 -1.1991168 0.6594373 0
2.4220002 -1.2021941 0.65931106 0
2.4210002 -1.2052679 0.65918481 0
2.4200001 -1.2083379 0.65905845 0
2.5160003 -1.0116651 0.66736329 0
2.4890001 -1.0031115 0.66400278 0
2.4860003 -1.0054997 0.66362941 0
2.4850001 -1.0088006 0.66350484 0
2.4840002 -1.012098 0.66338038 0
2.4830003 -1.0153918 0.66325599 0
2.4810002 -1.0182147 0.66300702 0
2.4800003 -1.0214995 0.66288257 0
2.4790001 -1.0247806 0.66275811 0
2.4780002 -1.0280582 0.66263366 0
2.4770002 -1.031332 0.6625092 0
2.4760003 -1.0346024 0.66238475 0
2.4750001 -1.037869 0.66226029 0
2.4740002 -1.0411321 0.66213578 0
2.4730003 -1.0443916 0.66201138 0
2.4720001 -1.0476475 0.66188687 0
2.4710002 -1.0508997 0.66176236 0
2.4700003 -1.0541484 0.66163796 0
2.4690001 -1.0573934 0.66151345 0
2.4680002 -1.060635 0.66138899 0
2.4670002 -1.0638727 0.66126454 0
2.4660001 -1.067107 0.66114008 0
2.4650002 -1.0703375 0.66101563 0
2.4640002 -1.0735646 0.66089118 0
2.4630003 -1.0767881 0.66076672 0
2.4620001 -1.0800078 0.66064227 0
2.4610002 -1.0832241 0.66051781 0
2.4600003 -1.0864366 0.66039336 0
2.4590001 -1.0896455 0.66026884 0
2.4580002 -1.0928509 0.66014439 0
2.4570003 -1.0960528 0.66001993 0
2.4560001 -1.0992508 0.65989542 0
2.4550002 -1.1024455 0.65977097 0
2.4540002 -1.1056364 0.65964651 0
2.4530003 -1.1088237 0.65952206 0
2.4520001 -1.1120074 0.6593976 0
2.4500003 -1.1146662 0.65914869 0
2.4490001 -1.1178409 0.65902424 0
2.4480002 -1.121012 0.65889978 0
2.4470003 -1.1241795 0.65877533 0
2.4460001 -1.1273433 0.65865082 0
2.4450002 -1.1305037 0.65852642 0
2.4440002 -1.1336603 0.65840191 0
2.4430001 -1.1368133 0.65827739 0
2.4420002 -1.1399628 0.658153 0
2.4410002 -1.1431086 0.65802854 0
2.4400003 -1.146251 0.65790403 0
2.4390001 -1.1493895 0.65777957 0
2.4380002 -1.1525246 0.65765512 0
2.4370003 -1.155656 0.65753067 0
2.4360001 -1.1587837 0.65740621 0
2.4350002 -1.1619079 0.65728176 0
2.4340003 -1.1650286 0.6571573 0
2.4330001 -1.1681455 0.65703279 0
2.4320002 -1.1712589 0.65690839 0
2.4310002 -1.1743686 0.65678394 0
2.4300003 -1.1774749 0.65665942 0
2.4290001 -1.1805773 0.65653497 0
2.4280002 -1.1836762 0.65641052 0
2.4270003 -1.1867718 0.656286 0
2.4260001 -1.1898633 0.65616155 0
2.4250002 -1.1929514 0.65603709 0
2.4240003 -1.196036 0.65591264 0
2.4230001 -1.1991168 0.65578818 0
2.4220002 -1.2021941 0.65566373 0
2.4210002 -1.2052679 0.65553927 0
2.4200001 -1.2083379 0.65541482 0
2.5160003 -1.0116651 0.66354638 0
2.4890001 -1.0031115 0.66023457 0
2.4860003 -1.0054997 0.65986657 0
2.4850001 -1.0088006 0.65974391 0
2.4840002 -1.012098 0.6596213 0
2.4830003 -1.0153918 0.65949863 0
2.4810002 -1.0182147 0.65925336 0
2.4800003 -1.0214995 0.65913069 0
2.4790001 -1.0247806 0.65900797 0
2.4780002 -1.0280582 0.65888536 0
2.4770002 -1.031332 0.65876269 0
2.4760003 -1.0346024 0.65864003 0
2.4750001 -1.037869 0.65851736 0
2.4740002 -1.0411321 0.65839469 0
2.4730003 -1.0443916 0.65827203 0
2.4720001 -1.0476475 0.65814936 0
2.4710002 -1.0508997 0.6580267 0
2.4700003 -1.0541484 0.65790403 0
2.4690001 -1.0573934 0.65778136 0
2.4680002 -1.060635 0.65765876 0
2.4670002 -1.0638727 0.65753609 0
2.4660001 -1.067107 0.65741342 0
2.4650002 -1.0703375 0.65729076 0
2.4640002 -1.0735646 0.65716809 0
2.4630003 -1.0767881 0.65704548 0
2.4620001 -1.0800078 0.65692282 0
2.4610002 -1.0832241 0.65680015 0
2.4600003 -1.0864366 0.65667748 0
2.4590001 -1.0896455 0.65655482 0
2.4580002 -1.0928509 0.65643215 0
2.4570003 -1.0960528 0.65630949 0
2.4560001 -1.0992508 0.65618682 0
2.4550002 -1.1024455 0.65606415 0
2.4540002 -1.1056364 0.65594149 0
2.4530003 -1.1088237 0.65581888 0
2.4520001 -1.1120074 0.65569621 0
2.4500003 -1.1146662 0.65545088 0
2.4490001 -1.1178409 0.65532821 0
2.4480002 -1.121012 0.65520561 0
2.4470003 -1.1241795 0.65508294 0
2.4460001 -1.1273433 0.65496027 0
2.4450002 -1.1305037 0.65483761 0
2.4440002 -1.1336603 0.65471494 0
2.4430001 -1.1368133 0.65459228 0
2.4420002 -1.1399628 0.65446961 0
2.4410002 -1.1431086 0.65434694 0
2.4400003 -1.146251 0.65422428 0
2.4390001 -1.1493895 0.65410161 0
2.4380002 -1.1525246 0.653979 0
2.4370003 -1.155656 0.65385634 0
2.4360001 -1.1587837 0.65373361 0
2.4350002 -1.1619079 0.653611 0
2.4340003 -1.1650286 0.65348834 0
2.4330001 -1.1681455 0.65336567 0
2.4320002 -1.1712589 0.65324301 0
2.4310002 -1.1743686 0.65312034 0
2.4300003 -1.1774749 0.65299773 0
2.4290001 -1.1805773 0.65287507 0
2.4280002 -1.1836762 0.6527524 0
2.4270003 -1.1867718 0.65262973 0
2.4260001 -1.1898633 0.65250707 0
2.4250002 -1.1929514 0.6523844 0
2.4240003 -1.196036 0.65226179 0
2.4230001 -1.1991168 0.65213907 0
2.4220002 -1.2021941 0.6520164 0
2.4210002 -1.2052679 0.65189379 0
2.4200001 -1.2083379 0.65177107 0
2.5160003 -1.0116651 0.65972954 0
2.4890001 -1.0031115 0.65646636 0
2.4860003 -1.0054997 0.65610385 0
2.4850001 -1.0088006 0.65598297 0
2.4840002 -1.012098 0.65586215 0
2.4830003 -1.0153918 0.65574133 0
2.4810002 -1.0182147 0.65549958 0
2.4800003 -1.0214995 0.65537876 0
2.4790001 -1.0247806 0.65525782 0
2.4780002 -1.0280582 0.655137 0
2.4770002 -1.031332 0.65501618 0
2.4760003 -1.0346024 0.65489531 0
2.4750001 -1.037869 0.65477443 0
2.4740002 -1.0411321 0.65465361 0
2.4730003 -1.0443916 0.65453273 0
2.4720001 -1.0476475 0.65441191 0
2.4710002 -1.0508997 0.65429103 0
2.4700003 -1.0541484 0.65417016 0
2.4690001 -1.0573934 0.65404928 0
2.4680002 -1.060635 0.65392846 0
2.4670002 -1.0638727 0.65380764 0
2.4660001 -1.067107 0.65368676 0
2.4650002 -1.0703375 0.65356588 0
2.4640002 -1.0735646 0.65344507 0
2.4630003 -1.0767881 0.65332419 0
2.4620001 -1.0800078 0.65320337 0
2.4610002 -1.0832241 0.65308249 0
2.4600003 -1.0864366 0.65296167 0
2.4590001 -1.0896455 0.65284073 0
2.4580002 -1.0928509 0.65271991 0
2.4570003 -1.0960528 0.6525991 0
2.4560001 -1.0992508 0.65247822 0
2.4550002 -1.1024455 0.65235734 0
2.4540002 -1.1056364 0.65223652 0
2.4530003 -1.1088237 0.65211564 0
2.4520001 -1.1120074 0.65199482 0
2.4500003 -1.1146662 0.65175307 0
2.4490001 -1.1178409 0.65163219 0
2.4480002 -1.121012 0.65151137 0
2.4470003 -1.1241795 0.65139055 0
2.4460001 -1.1273433 0.65126967 0
2.4450002 -1.1305037 0.6511488 0
2.4440002 -1.1336603 0.65102798 0
2.4430001 -1.1368133 0.65090704 0
2.4420002 -1.1399628 0.65078622 0
2.4410002 -1.1431086 0.6506654 0
2.4400003 -1.146251 0.65054452 0
2.4390001 -1.1493895 0.65042365 0
2.4380002 -1.1525246 0.65030283 0
2.4370003 -1.155656 0.65018201 0
2.4360001 -1.1587837 0.65006113 0
2.4350002 -1.1619079 0.64994025 0
2.4340003 -1.1650286 0.64981937 0
2.4330001 -1.1681455 0.6496985 0
2.4320002 -1.1712589 0.64957768 0
2.4310002 -1.1743686 0.64945686 0
2.4300003 -1.1774749 0.64933598 0
2.4290001 -1.1805773 0.6492151 0
2.4280002 -1.1836762 0.64909428 0
2.4270003 -1.1867718 0.64897341 0
2.4260001 -1.1898633 0.64885253 0
2.4250002 -1.1929514 0.64873171 0
2.4240003 -1.196036 0.64861083 0
2.4230001 -1.1991168 0.64848995 0
2.4220002 -1.2021941 0.64836913 0
2.4210002 -1.2052679 0.64824831 0
2.4200001 -1.2083379 0.64812744 0
2.5160003 -1.0116651 0.65591264 0
2.4890001 -1.0031115 0.65269828 0
2.4860003 -1.0054997 0.65234113 0
2.4850001 -1.0088006 0.65222204 0
2.4840002 -1.012098 0.65210301 0
2.4830003 -1.0153918 0.65198398 0
2.4810002 -1.0182147 0.65174586 0
2.4800003 -1.0214995 0.65162683 0
2.4790001 -1.0247806 0.65150774 0
2.4780002 -1.0280582 0.6513887 0
2.4770002 -1.031332 0.65126967 0
2.4760003 -1.0346024 0.65115064 0
2.4750001 -1.037869 0.65103155 0
2.4740002 -1.0411321 0.65091252 0
2.4730003 -1.0443916 0.65079343 0
2.4720001 -1.0476475 0.6506744 0
2.4710002 -1.0508997 0.65055537 0
2.4700003 -1.0541484 0.65043628 0
2.4690001 -1.0573934 0.65031725 0
2.4680002 -1.060635 0.65019822 0
2.4670002 -1.0638727 0.65007913 0
2.4660001 -1.067107 0.6499601 0
2.4650002 -1.0703375 0.64984107 0
2.4640002 -1.0735646 0.64972198 0
2.4630003 -1.0767881 0.64960295 0
2.4620001 -1.0800078 0.64948386 0
2.4610002 -1.0832241 0.64936483 0
2.4600003 -1.0864366 0.6492458 0
2.4590001 -1.0896455 0.64912671 0
2.4580002 -1.0928509 0.64900768 0
2.4570003 -1.0960528 0.64888865 0
2.4560001 -1.0992508 0.64876956 0
2.4550002 -1.1024455 0.64865053 0
2.4540002 -1.1056364 0.6485315 0
2.4530003 -1.1088237 0.64841247 0
2.4520001 -1.1120074 0.64829338 0
2.4500003 -1.1146662 0.64805532 0
2.4490001 -1.1178409 0.64793622 0
2.4480002 -1.121012 0.64781713 0
2.4470003 -1.1241795 0.6476981 0
2.4460001 -1.1273433 0.64757907 0
2.4450002 -1.1305037 0.64745998 0
2.4440002 -1.1336603 0.64734095 0
2.4430001 -1.1368133 0.64722192 0
2.4420002 -1.1399628 0.64710283 0
2.4410002 -1.1431086 0.6469838 0
2.4400003 -1.146251 0.64686477 0
2.4390001 -1.1493895 0.64674568 0
2.4380002 -1.1525246 0.64662665 0
2.4370003 -1.155656 0.64650762 0
2.4360001 -1.1587837 0.64638853 0
2.4350002 -1.1619079 0.6462695 0
2.4340003 -1.1650286 0.64615047 0
2.4330001 -1.1681455 0.64603138 0
2.4320002 -1.1712589 0.64591235 0
2.4310002 -1.1743686 0.64579332 0
2.4300003 -1.1774749 0.64567423 0
2.4290001 -1.1805773 0.6455552 0
2.4280002 -1.1836762 0.64543617 0
2.4270003 -1.1867718 0.64531708 0
2.4260001 -1.1898633 0.64519805 0
2.4250002 -1.1929514 0.64507902 0
2.4240003 -1.196036 0.64495993 0
2.4230001 -1.1991168 0.6448409 0
2.4220002 -1.2021941 0.64472187 0
2.4210002 -1.2052679 0.64460278 0
2.4200001 -1.2083379 0.64448369 0
2.5160003 -1.0116651 0.65209579 0
2.4890001 -1.0031115 0.64893007 0
2.4860003 -1.0054997 0.64857841 0
2.4850001 -1.0088006 0.6484611 0
2.4840002 -1.012098 0.64834386 0
2.4830003 -1.0153918 0.64822662 0
2.4810002 -1.0182147 0.64799213 0
2.4800003 -1.0214995 0.64787489 0
2.4790001 -1.0247806 0.64775765 0
2.4780002 -1.0280582 0.64764041 0
2.4770002 -1.031332 0.64752316 0
2.4760003 -1.0346024 0.64740592 0
2.4750001 -1.037869 0.64728862 0
2.4740002 -1.0411321 0.64717138 0
2.4730003 -1.0443916 0.6470542 0
2.4720001 -1.0476475 0.64693689 0
2.4710002 -1.0508997 0.64681965 0
2.4700003 -1.0541484 0.64670241 0
2.4690001 -1.0573934 0.64658517 0
2.4680002 -1.060635 0.64646792 0
2.4670002 -1.0638727 0.64635068 0
2.4660001 -1.067107 0.64623338 0
2.4650002 -1.0703375 0.64611614 0
2.4640002 -1.0735646 0.64599895 0
2.4630003 -1.0767881 0.64588171 0
2.4620001 -1.0800078 0.64576441 0
2.4610002 -1.0832241 0.64564717 0
2.4600003 -1.0864366 0.64552993 0
2.4590001 -1.0896455 0.64541268 0
2.4580002 -1.0928509 0.64529544 0
2.4570003 -1.0960528 0.6451782 0
2.4560001 -1.0992508 0.6450609 0
2.4550002 -1.1024455 0.64494371 0
2.4540002 -1.1056364 0.64482647 0
2.4530003 -1.1088237 0.64470923 0
