# .PCD v0.7 - Point Cloud Data file format
VERSION 0.7
FIELDS x y z intensity
SIZE 4 4 4 4
TYPE F F F F
COUNT 1 1 1 1
WIDTH 1500
HEIGHT 1
VIEWPOINT 0 0 0 1 0 0 0
POINTS 1500
DATA ascii
4.1350002 1.975167 0.59937948 0
4.1460004 1.9743626 0.59995496 0
4.1570001 1.9735184 0.60053033 0
4.164 1.9704916 0.60089648 0
4.1690001 1.966372 0.60115808 0
4.1750002 1.9627659 0.6014719 0
4.1800003 1.9586082 0.60173345 0
4.1860003 1.9549608 0.60204732 0
4.1920004 1.9512919 0.6023612 0
4.0780001 2.043838 0.5897634 0
4.072 2.0338054 0.58946037 0
4.0770001 2.0300047 0.58971292 0
4.0820003 2.026186 0.58996546 0
4.0880003 2.0229104 0.59026849 0
4.0929999 2.0190539 0.59052098 0
4.098 2.0151792 0.59077352 0
4.1040001 2.011842 0.59107655 0
4.1070004 2.0068221 0.59122813 0
4.1070004 2.0001354 0.59122813 0
4.1059999 1.9928987 0.59117758 0
4.1059999 1.9862137 0.59117758 0
4.105 1.978982 0.5911271 0
4.1129999 1.9766572 0.59153116 0
4.1240001 1.9759319 0.59208667 0
4.1350002 1.975167 0.59264231 0
4.1460004 1.9743626 0.59319782 0
4.1560001 1.972981 0.59370291 0
4.164 1.9704916 0.59410697 0
4.1690001 1.966372 0.59435952 0
4.1750002 1.9627659 0.59466255 0
4.1800003 1.9586082 0.59491509 0
4.1860003 1.9549608 0.59521812 0
4.1920004 1.9512919 0.59552115 0
4.0780001 2.043838 0.58312899 0
4.072 2.0338054 0.58283675 0
4.0770001 2.0300047 0.58308029 0
4.0820003 2.026186 0.58332384 0
4.0870004 2.0223494 0.58356732 0
4.0929999 2.0190539 0.5838595 0
4.098 2.0151792 0.58410305 0
4.1030002 2.0112865 0.58434653 0
4.1070004 2.0068221 0.58454138 0
4.1070004 2.0001354 0.58454138 0
4.1059999 1.9928987 0.58449268 0
4.1059999 1.9862137 0.58449268 0
4.105 1.978982 0.58444399 0
4.1129999 1.9766572 0.58483356 0
4.1240001 1.9759319 0.58536935 0
4.1340003 1.9746261 0.58585638 0
4.145 1.9738233 0.5863921 0
4.1560001 1.972981 0.58692783 0
4.1630001 1.9699559 0.58726871 0
4.1690001 1.966372 0.58756095 0
4.1750002 1.9627659 0.58785319 0
4.1800003 1.9586082 0.58809668 0
4.1860003 1.9549608 0.58838892 0
4.191 1.9507651 0.5886324 0
4.0780001 2.043838 0.57649457 0
4.0710001 2.0332389 0.57616627 0
4.0770001 2.0300047 0.57644773 0
4.0820003 2.026186 0.57668221 0
4.0870004 2.0223494 0.57691669 0
4.0929999 2.0190539 0.57719809 0
4.098 2.0151792 0.57743257 0
4.1030002 2.0112865 0.57766706 0
4.1070004 2.0068221 0.57785463 0
4.1070004 2.0001354 0.57785463 0
4.1059999 1.9928987 0.57780778 0
4.1059999 1.9862137 0.57780778 0
4.105 1.978982 0.57776088 0
4.1129999 1.9766572 0.57813603 0
4.1230001 1.975389 0.57860506 0
4.1340003 1.9746261 0.57912093 0
4.145 1.9738233 0.57963681 0
4.1560001 1.972981 0.58015275 0
4.1630001 1.9699559 0.58048099 0
4.1690001 1.966372 0.58076239 0
4.1740003 1.9622338 0.58099687 0
4.1800003 1.9586082 0.58127832 0
4.1860003 1.9549608 0.58155966 0
4.191 1.9507651 0.58179414 0
4.0780001 2.043838 0.56986016 0
4.0710001 2.0332389 0.56954455 0
4.0770001 2.0300047 0.5698151 0
4.0820003 2.026186 0.57004058 0
4.0870004 2.0223494 0.57026601 0
4.0929999 2.0190539 0.57053661 0
4.098 2.0151792 0.5707621 0
4.1030002 2.0112865 0.57098758 0
4.1070004 2.0068221 0.57116795 0
4.1070004 2.0001354 0.57116795 0
4.1059999 1.9928987 0.57112283 0
4.1059999 1.9862137 0.57112283 0
4.105 1.978982 0.57107776 0
4.112 1.9761124 0.57139343 0
4.1230001 1.975389 0.57188946 0
4.1340003 1.9746261 0.57238555 0
4.145 1.9738233 0.57288158 0
4.1560001 1.972981 0.57337761 0
4.1630001 1.9699559 0.57369328 0
4.1690001 1.966372 0.57396388 0
4.1740003 1.9622338 0.57418931 0
4.1800003 1.9586082 0.57445991 0
4.1860003 1.9549608 0.57473046 0
4.191 1.9507651 0.57495594 0
4.0780001 2.043838 0.56322575 0
4.0710001 2.0332389 0.56292272 0
4.0760002 2.0294399 0.5631392 0
4.0820003 2.026186 0.56339896 0
4.0870004 2.0223494 0.56361538 0
4.092 2.0184946 0.56383187 0
4.098 2.0151792 0.56409162 0
4.1030002 2.0112865 0.56430805 0
4.1070004 2.0068221 0.56448126 0
4.1070004 2.0001354 0.56448126 0
4.1059999 1.9928987 0.56443793 0
4.1059999 1.9862137 0.56443793 0
4.105 1.978982 0.56439465 0
4.112 1.9761124 0.56469768 0
4.1230001 1.975389 0.56517386 0
4.1340003 1.9746261 0.56565011 0
4.145 1.9738233 0.56612629 0
4.1550002 1.9724433 0.5665592 0
4.1630001 1.9699559 0.56690556 0
4.1690001 1.966372 0.56716532 0
4.1740003 1.9622338 0.56738174 0
4.1800003 1.9586082 0.5676415 0
4.1849999 1.9544322 0.56785798 0
4.191 1.9507651 0.56811768 0
4.079 2.0444062 0.55663288 0
4.0710001 2.0332389 0.55630094 0
4.0760002 2.0294399 0.55650842 0
4.0820003 2.026186 0.55675733 0
4.0870004 2.0223494 0.55696476 0
4.092 2.0184946 0.55717218 0
4.098 2.0151792 0.55742109 0
4.1030002 2.0112865 0.55762851 0
4.1070004 2.0068221 0.55779451 0
4.1070004 2.0001354 0.55779451 0
4.1059999 1.9928987 0.55775303 0
4.1059999 1.9862137 0.55775303 0
4.105 1.978982 0.55771154 0
4.112 1.9761124 0.55800194 0
4.1230001 1.975389 0.55845833 0
4.1330004 1.9740849 0.55887318 0
4.1440001 1.973284 0.55932957 0
4.1550002 1.9724433 0.5597859 0
4.1630001 1.9699559 0.56011784 0
4.1690001 1.966372 0.56036675 0
4.1740003 1.9622338 0.56057417 0
4.1800003 1.9586082 0.56082308 0
4.1849999 1.9544322 0.56103051 0
4.191 1.9507651 0.56127948 0
4.079 2.0444062 0.54999661 0
4.0710001 2.0332389 0.54967916 0
4.0760002 2.0294399 0.54987758 0
4.0810003 2.0256233 0.55007601 0
4.0870004 2.0223494 0.55031413 0
4.092 2.0184946 0.55051255 0
4.0970001 2.0146217 0.55071098 0
4.1030002 2.0112865 0.55094904 0
4.1070004 2.0068221 0.55110776 0
4.1070004 2.0001354 0.55110776 0
4.1059999 1.9928987 0.55106813 0
4.1059999 1.9862137 0.55106813 0
4.105 1.978982 0.55102843 0
4.112 1.9761124 0.55130619 0
4.1220002 1.9748459 0.55170304 0
4.1330004 1.9740849 0.55213958 0
4.1440001 1.973284 0.55257607 0
4.1550002 1.9724433 0.55301261 0
4.1630001 1.9699559 0.55333006 0
4.1680002 1.9658377 0.55352849 0
4.1740003 1.9622338 0.55376661 0
4.1800003 1.9586082 0.55400467 0
4.1849999 1.9544322 0.55420315 0
4.191 1.9507651 0.55444121 0
4.079 2.0444062 0.54336041 0
4.0710001 2.0332389 0.54305738 0
4.0760002 2.0294399 0.54324681 0
4.0810003 2.0256233 0.54343617 0
4.0870004 2.0223494 0.5436635 0
4.092 2.0184946 0.54385287 0
4.0970001 2.0146217 0.54404229 0
4.1030002 2.0112865 0.54426956 0
4.1070004 2.0068221 0.54442108 0
4.1070004 2.0001354 0.54442108 0
4.1059999 1.9928987 0.54438317 0
4.1059999 1.9862137 0.54438317 0
4.105 1.978982 0.54434532 0
4.1110001 1.9755676 0.54457259 0
4.1220002 1.9748459 0.54498929 0
4.1330004 1.9740849 0.54540598 0
4.1440001 1.973284 0.54582262 0
4.1550002 1.9724433 0.54623932 0
4.1630001 1.9699559 0.54654235 0
4.1680002 1.9658377 0.54673177 0
4.1740003 1.9622338 0.54695904 0
4.1790004 1.9580779 0.54714847 0
4.1849999 1.9544322 0.54737568 0
4.191 1.9507651 0.54760301 0
4.079 2.0444062 0.53672421 0
4.072 2.0338054 0.53647172 0
4.0760002 2.0294399 0.53661597 0
4.0810003 2.0256233 0.53679639 0
4.0870004 2.0223494 0.53701282 0
4.092 2.0184946 0.53719318 0
4.0970001 2.0146217 0.5373736 0
4.1030002 2.0112865 0.53759003 0
4.1070004 2.0068221 0.53773439 0
4.1070004 2.0001354 0.53773439 0
4.1059999 1.9928987 0.53769827 0
4.1059999 1.9862137 0.53769827 0
4.105 1.978982 0.53766221 0
4.1110001 1.9755676 0.53787863 0
4.1220002 1.9748459 0.53827548 0
4.1330004 1.9740849 0.53867233 0
4.1440001 1.973284 0.53906918 0
4.1540003 1.9719057 0.5394299 0
4.1630001 1.9699559 0.53975463 0
4.1680002 1.9658377 0.53993499 0
4.1740003 1.9622338 0.54015148 0
4.1790004 1.9580779 0.54033184 0
4.1849999 1.9544322 0.54054832 0
4.1900001 1.9502385 0.54072869 0
4.079 2.0444062 0.53008801 0
4.072 2.0338054 0.5298481 0
4.0760002 2.0294399 0.52998519 0
4.0810003 2.0256233 0.53015655 0
4.086 2.0217884 0.53032792 0
4.092 2.0184946 0.53053355 0
4.0970001 2.0146217 0.53070492 0
4.1020002 2.010731 0.53087628 0
4.1070004 2.0068221 0.53104764 0
4.1070004 2.0001354 0.53104764 0
4.1059999 1.9928987 0.53101337 0
4.1059999 1.9862137 0.53101337 0
4.105 1.978982 0.5309791 0
4.1110001 1.9755676 0.53118473 0
4.1220002 1.9748459 0.53156173 0
4.132 1.9735436 0.53190446 0
4.1430001 1.9727447 0.53228146 0
4.1540003 1.9719057 0.53265846 0
4.1620002 1.96942 0.53293264 0
4.1680002 1.9658377 0.53313828 0
4.1740003 1.9622338 0.53334391 0
4.1790004 1.9580779 0.53351521 0
4.1849999 1.9544322 0.53372085 0
4.1900001 1.9502385 0.53389227 0
4.079 2.0444062 0.52345181 0
4.072 2.0338054 0.52322453 0
4.0760002 2.0294399 0.52335441 0
4.0810003 2.0256233 0.52351671 0
4.086 2.0217884 0.52367908 0
4.092 2.0184946 0.52387387 0
4.0970001 2.0146217 0.52403623 0
4.1020002 2.010731 0.52419859 0
4.1070004 2.0068221 0.5243609 0
4.1070004 2.0001354 0.5243609 0
4.1059999 1.9928987 0.52432847 0
4.1059999 1.9862137 0.52432847 0
4.105 1.978982 0.52429599 0
4.1110001 1.9755676 0.52449077 0
4.1210003 1.9743032 0.5248155 0
4.132 1.9735436 0.52517265 0
4.1430001 1.9727447 0.5255298 0
4.1540003 1.9719057 0.52588695 0
4.1620002 1.96942 0.52614671 0
4.1680002 1.9658377 0.5263415 0
4.1730003 1.9617016 0.52650386 0
4.1790004 1.9580779 0.52669865 0
4.1849999 1.9544322 0.5268935 0
4.1900001 1.9502385 0.5270558 0
4.079 2.0444062 0.5168156 0
4.072 2.0338054 0.51660097 0
4.0760002 2.0294399 0.51672357 0
4.0810003 2.0256233 0.51687694 0
4.086 2.0217884 0.51703024 0
4.0910001 2.0179355 0.51718354 0
4.0970001 2.0146217 0.51736754 0
4.1020002 2.010731 0.5175209 0
4.1070004 2.0068221 0.51767421 0
4.1070004 2.0001354 0.51767421 0
4.1059999 1.9928987 0.51764357 0
4.1059999 1.9862137 0.51764357 0
4.105 1.978982 0.51761287 0
4.1100001 1.9750228 0.51776618 0
4.1210003 1.9743032 0.51810348 0
4.132 1.9735436 0.51844084 0
4.1430001 1.9727447 0.51877815 0
4.1540003 1.9719057 0.51911545 0
4.1620002 1.96942 0.51936078 0
4.1680002 1.9658377 0.51954472 0
4.1730003 1.9617016 0.51969808 0
4.1790004 1.9580779 0.51988208 0
4.184 1.9539038 0.52003539 0
4.1900001 1.9502385 0.52021939 0
4.0799999 2.0449746 0.51020825 0
4.072 2.0338054 0.50997734 0
4.0750003 2.0288754 0.51006395 0
4.0810003 2.0256233 0.5102371 0
4.086 2.0217884 0.5103814 0
4.0910001 2.0179355 0.5105257 0
4.0970001 2.0146217 0.51069891 0
4.1020002 2.010731 0.51084316 0
4.1070004 2.0068221 0.51098752 0
4.1070004 2.0001354 0.51098752 0
4.1059999 1.9928987 0.51095861 0
4.1059999 1.9862137 0.51095861 0
4.105 1.978982 0.51092976 0
4.1100001 1.9750228 0.51107407 0
4.1210003 1.9743032 0.51139152 0
4.132 1.9735436 0.51170903 0
4.1430001 1.9727447 0.51202649 0
4.1530004 1.9713683 0.51231509 0
4.1620002 1.96942 0.51257485 0
4.1680002 1.9658377 0.512748 0
4.1730003 1.9617016 0.51289231 0
4.1790004 1.9580779 0.51306546 0
4.184 1.9539038 0.51320976 0
4.1900001 1.9502385 0.51338297 0
4.0799999 2.0449746 0.5035702 0
4.072 2.0338054 0.50335377 0
4.0750003 2.0288754 0.50343496 0
4.0810003 2.0256233 0.50359726 0
4.086 2.0217884 0.50373256 0
4.0910001 2.0179355 0.50386786 0
4.0970001 2.0146217 0.50403023 0
4.1020002 2.010731 0.50416547 0
4.1070004 2.0068221 0.50430077 0
4.1070004 2.0001354 0.50430077 0
4.1059999 1.9928987 0.50427371 0
4.1059999 1.9862137 0.50427371 0
4.105 1.978982 0.50424665 0
4.1100001 1.9750228 0.50438195 0
4.1210003 1.9743032 0.50467956 0
4.131 1.9730024 0.50495017 0
4.1420002 1.9722052 0.50524777 0
4.1530004 1.9713683 0.50554538 0
4.1620002 1.96942 0.50578892 0
4.1670003 1.9653039 0.50592422 0
4.1730003 1.9617016 0.50608653 0
4.1790004 1.9580779 0.50624889 0
4.184 1.9539038 0.50638419 0
4.1900001 1.9502385 0.5065465 0
4.0799999 2.0449746 0.49693221 0
4.072 2.0338054 0.49673018 0
4.0750003 2.0288754 0.49680597 0
4.0799999 2.0250604 0.49693221 0
4.086 2.0217884 0.49708372 0
4.0910001 2.0179355 0.49721 0
4.0960002 2.0140646 0.49733627 0
4.1020002 2.010731 0.49748778 0
4.1070004 2.0068221 0.49761406 0
4.1070004 2.0001354 0.49761406 0
4.1059999 1.9928987 0.49758881 0
4.1059999 1.9862137 0.49758881 0
4.105 1.978982 0.49756354 0
4.1100001 1.9750228 0.49768981 0
4.1200004 1.9737601 0.49794233 0
4.131 1.9730024 0.49822015 0
4.1420002 1.9722052 0.4984979 0
4.1530004 1.9713683 0.49877572 0
4.1620002 1.96942 0.49900299 0
4.1670003 1.9653039 0.49912924 0
4.1730003 1.9617016 0.49928078 0
4.178 1.9575474 0.49940705 0
4.184 1.9539038 0.49955857 0
4.1900001 1.9502385 0.49971008 0
4.0799999 2.0449746 0.49029419 0
4.073 2.0343716 0.49013007 0
4.0750003 2.0288754 0.49017695 0
4.0799999 2.0250604 0.49029419 0
4.086 2.0217884 0.49043489 0
4.0910001 2.0179355 0.49055213 0
4.0960002 2.0140646 0.4906694 0
4.1020002 2.010731 0.4908101 0
4.1070004 2.0068221 0.49092734 0
4.1070004 2.0001354 0.49092734 0
4.1059999 1.9928987 0.49090388 0
4.1059999 1.9862137 0.49090388 0
4.105 1.978982 0.49088043 0
4.1090002 1.974478 0.49097425 0
4.1200004 1.9737601 0.49123219 0
4.131 1.9730024 0.49149013 0
4.1420002 1.9722052 0.49174806 0
4.1530004 1.9713683 0.492006 0
4.1620002 1.96942 0.49221706 0
4.1670003 1.9653039 0.49233431 0
4.1730003 1.9617016 0.492475 0
4.178 1.9575474 0.49259225 0
4.184 1.9539038 0.49273294 0
4.1890001 1.9497118 0.49285018 0
4.0799999 2.0449746 0.48365617 0
4.073 2.0343716 0.48350465 0
4.0750003 2.0288754 0.48354796 0
4.0799999 2.0250604 0.48365617 0
4.085 2.0212274 0.48376441 0
4.0910001 2.0179355 0.48389429 0
4.0960002 2.0140646 0.48400253 0
4.1020002 2.010731 0.48413241 0
4.1070004 2.0068221 0.48424062 0
4.1070004 2.0001354 0.48424062 0
4.1059999 1.9928987 0.48421896 0
4.1059999 1.9862137 0.48421896 0
4.105 1.978982 0.48419732 0
4.1090002 1.974478 0.48428392 0
4.1200004 1.9737601 0.48452201 0
4.131 1.9730024 0.48476011 0
4.1420002 1.9722052 0.48499823 0
4.152 1.9708307 0.48521468 0
4.1610003 1.9688845 0.4854095 0
4.1670003 1.9653039 0.48553938 0
4.1730003 1.9617016 0.48566923 0
4.178 1.9575474 0.48577747 0
4.184 1.9539038 0.48590735 0
4.1890001 1.9497118 0.48601556 0
4.0799999 2.0449746 0.47701818 0
4.073 2.0343716 0.47687927 0
4.0750003 2.0288754 0.47691897 0
4.0799999 2.0250604 0.47701818 0
4.085 2.0212274 0.47711739 0
4.0910001 2.0179355 0.47723645 0
4.0960002 2.0140646 0.47733563 0
4.1010003 2.0101755 0.47743484 0
4.1070004 2.0068221 0.4775539 0
4.1070004 2.0001354 0.4775539 0
4.1059999 1.9928987 0.47753406 0
4.1059999 1.9862137 0.47753406 0
4.105 1.978982 0.47751421 0
4.1090002 1.974478 0.4775936 0
4.1200004 1.9737601 0.47781184 0
4.1300001 1.9724615 0.47801027 0
4.1410003 1.9716661 0.47822851 0
4.152 1.9708307 0.47844678 0
4.1610003 1.9688845 0.47862536 0
4.1670003 1.9653039 0.47874442 0
4.1719999 1.9611695 0.47884363 0
4.178 1.9575474 0.47896266 0
4.184 1.9539038 0.47908172 0
4.1890001 1.9497118 0.47918093 0
4.0799999 2.0449746 0.47038016 0
4.073 2.0343716 0.47025388 0
4.0750003 2.0288754 0.47028995 0
4.0799999 2.0250604 0.47038016 0
4.085 2.0212274 0.47047034 0
4.0910001 2.0179355 0.47057858 0
4.0960002 2.0140646 0.47066876 0
4.1010003 2.0101755 0.47075897 0
4.1070004 2.0068221 0.47086719 0
4.1070004 2.0001354 0.47086719 0
4.1059999 1.9928987 0.47084916 0
4.1059999 1.9862137 0.47084916 0
4.105 1.978982 0.4708311 0
4.1090002 1.974478 0.47090325 0
4.119 1.9732172 0.47108364 0
4.1300001 1.9724615 0.47128206 0
4.1410003 1.9716661 0.47148049 0
4.152 1.9708307 0.47167891 0
4.1610003 1.9688845 0.47184125 0
4.1670003 1.9653039 0.47194946 0
4.1719999 1.9611695 0.47203967 0
4.178 1.9575474 0.47214788 0
4.1830001 1.9533753 0.47223806 0
4.1890001 1.9497118 0.47234631 0
4.0810003 2.0455427 0.46375838 0
4.073 2.0343716 0.4636285 0
4.0750003 2.0288754 0.46366096 0
4.0799999 2.0250604 0.46374214 0
4.085 2.0212274 0.46382332 0
4.0900002 2.0173762 0.46390447 0
4.0960002 2.0140646 0.46400189 0
4.1010003 2.0101755 0.46408308 0
4.1059999 2.0062685 0.46416423 0
4.1070004 2.0001354 0.46418047 0
4.1059999 1.9928987 0.46416423 0
4.1059999 1.9862137 0.46416423 0
4.105 1.978982 0.46414798 0
4.1080003 1.9739332 0.46419671 0
4.119 1.9732172 0.46437529 0
4.1300001 1.9724615 0.46455386 0
4.1410003 1.9716661 0.46473244 0
4.152 1.9708307 0.46491101 0
4.1610003 1.9688845 0.46505713 0
4.1670003 1.9653039 0.46515453 0
4.1719999 1.9611695 0.46523571 0
4.178 1.9575474 0.4653331 0
4.1830001 1.9533753 0.46541429 0
4.1890001 1.9497118 0.46551168 0
4.0810003 2.0455427 0.45711857 0
4.073 2.0343716 0.45700312 0
4.0740004 2.0283108 0.45701754 0
4.0799999 2.0250604 0.45710412 0
4.085 2.0212274 0.45717627 0
4.0900002 2.0173762 0.45724842 0
4.0960002 2.0140646 0.45733503 0
4.1010003 2.0101755 0.45740718 0
4.1059999 2.0062685 0.45747933 0
4.1070004 2.0001354 0.45749375 0
4.1059999 1.9928987 0.45747933 0
4.1059999 1.9862137 0.45747933 0
4.105 1.978982 0.45746487 0
4.1080003 1.9739332 0.45750818 0
4.119 1.9732172 0.4576669 0
4.1300001 1.9724615 0.45782566 0
4.1410003 1.9716661 0.45798439 0
4.151 1.9702933 0.45812869 0
4.1610003 1.9688845 0.45827299 0
4.1660004 1.9647701 0.45834514 0
4.1719999 1.9611695 0.45843172 0
4.178 1.9575474 0.45851833 0
4.1830001 1.9533753 0.45859048 0
4.1890001 1.9497118 0.45867705 0
4.0810003 2.0455427 0.45047873 0
4.073 2.0343716 0.45037773 0
4.0740004 2.0283108 0.45039037 0
4.0799999 2.0250604 0.4504661 0
4.085 2.0212274 0.45052925 0
4.0900002 2.0173762 0.45059237 0
4.0960002 2.0140646 0.45066816 0
4.1010003 2.0101755 0.45073128 0
4.1059999 2.0062685 0.4507944 0
4.1070004 2.0001354 0.45080703 0
4.1059999 1.9928987 0.4507944 0
4.1059999 1.9862137 0.4507944 0
4.105 1.978982 0.45078179 0
4.1080003 1.9739332 0.45081967 0
4.119 1.9732172 0.45095855 0
4.1290002 1.9719203 0.45108482 0
4.1400003 1.9711268 0.45122373 0
4.151 1.9702933 0.45136261 0
4.1610003 1.9688845 0.45148888 0
4.1660004 1.9647701 0.451552 0
4.1719999 1.9611695 0.45162776 0
4.177 1.9570174 0.45169091 0
4.1830001 1.9533753 0.45176667 0
4.1890001 1.9497118 0.45184243 0
4.0810003 2.0455427 0.44383892 0
4.0740004 2.0349381 0.44376317 0
4.0740004 2.0283108 0.44376317 0
4.079 2.0244975 0.44381729 0
4.085 2.0212274 0.44388223 0
4.0900002 2.0173762 0.44393632 0
4.0950003 2.0135069 0.44399044 0
4.1010003 2.0101755 0.44405538 0
4.1059999 2.0062685 0.4441095 0
4.1070004 2.0001354 0.44412032 0
4.1059999 1.9928987 0.4441095 0
4.1059999 1.9862137 0.4441095 0
4.105 1.978982 0.44409868 0
4.1080003 1.9739332 0.44413114 0
4.118 1.9726741 0.44423938 0
4.1290002 1.9719203 0.44435841 0
4.1400003 1.9711268 0.44447747 0
4.151 1.9702933 0.44459653 0
4.1610003 1.9688845 0.44470474 0
4.1660004 1.9647701 0.44475886 0
4.1719999 1.9611695 0.4448238 0
4.177 1.9570174 0.44487792 0
4.1830001 1.9533753 0.44494286 0
4.1890001 1.9497118 0.4450078 0
4.0810003 2.0455427 0.43719912 0
4.0740004 2.0349381 0.43713596 0
4.0740004 2.0283108 0.43713596 0
4.079 2.0244975 0.43718106 0
4.085 2.0212274 0.43723518 0
4.0900002 2.0173762 0.43728027 0
4.0950003 2.0135069 0.43732536 0
4.1010003 2.0101755 0.43737948 0
4.1059999 2.0062685 0.43742457 0
4.1070004 2.0001354 0.4374336 0
4.1059999 1.9928987 0.43742457 0
4.1059999 1.9862137 0.43742457 0
4.105 1.978982 0.43741557 0
4.1070004 1.9733884 0.4374336 0
4.118 1.9726741 0.43753281 0
4.1290002 1.9719203 0.43763202 0
4.1400003 1.9711268 0.43773124 0
4.151 1.9702933 0.43783045 0
4.1610003 1.9688845 0.43792063 0
4.1660004 1.9647701 0.43796572 0
4.1719999 1.9611695 0.43801984 0
4.177 1.9570174 0.43806493 0
4.1830001 1.9533753 0.43811905 0
4.1880002 1.9491851 0.43816414 0
4.0810003 2.0455427 0.43055928 0
4.0740004 2.0349381 0.43050879 0
4.0740004 2.0283108 0.43050879 0
4.079 2.0244975 0.43054485 0
4.0840001 2.0206666 0.43058094 0
4.0900002 2.0173762 0.43062422 0
4.0950003 2.0135069 0.43066031 0
4.1000004 2.00962 0.43069637 0
4.1059999 2.0062685 0.43073967 0
4.1070004 2.0001354 0.43074688 0
4.1059999 1.9928987 0.43073967 0
4.1059999 1.9862137 0.43073967 0
4.105 1.978982 0.43073246 0
4.1070004 1.9733884 0.43074688 0
4.118 1.9726741 0.43082625 0
4.1290002 1.9719203 0.43090561 0
4.1400003 1.9711268 0.43098497 0
4.1500001 1.9697559 0.43105713 0
4.1600003 1.9683487 0.43112928 0
4.1660004 1.9647701 0.43117258 0
4.171 1.9606376 0.43120867 0
4.177 1.9570174 0.43125194 0
4.1830001 1.9533753 0.43129525 0
4.1880002 1.9491851 0.43133131 0
4.0810003 2.0455427 0.42391947 0
4.0740004 2.0349381 0.42388159 0
4.0740004 2.0283108 0.42388159 0
4.079 2.0244975 0.42390865 0
4.0840001 2.0206666 0.42393571 0
4.0900002 2.0173762 0.42396817 0
4.0950003 2.0135069 0.42399523 0
4.1000004 2.00962 0.42402229 0
4.1059999 2.0062685 0.42405474 0
4.1070004 2.0001354 0.42406017 0
4.1059999 1.9928987 0.42405474 0
4.1059999 1.9862137 0.42405474 0
4.105 1.978982 0.42404935 0
4.1070004 1.9733884 0.42406017 0
4.118 1.9726741 0.42411968 0
4.1280003 1.971379 0.4241738 0
4.1389999 1.9705873 0.42423332 0
4.1500001 1.9697559 0.42429286 0
4.1600003 1.9683487 0.42434698 0
4.1660004 1.9647701 0.42437944 0
4.171 1.9606376 0.4244065 0
4.177 1.9570174 0.42443895 0
4.1830001 1.9533753 0.42447144 0
4.1880002 1.9491851 0.4244985 0
4.0820003 2.0461109 0.41728327 0
4.0740004 2.0349381 0.41725439 0
4.0740004 2.0283108 0.41725439 0
4.079 2.0244975 0.41727245 0
4.0840001 2.0206666 0.41729048 0
4.0900002 2.0173762 0.41731212 0
4.0950003 2.0135069 0.41733015 0
4.1000004 2.00962 0.41734821 0
4.1059999 2.0062685 0.41736984 0
4.1070004 2.0001354 0.41737345 0
4.1059999 1.9928987 0.41736984 0
4.1059999 1.9862137 0.41736984 0
4.105 1.978982 0.41736624 0
4.1070004 1.9733884 0.41737345 0
4.1170001 1.9721313 0.41740954 0
4.1280003 1.971379 0.41744921 0
4.1389999 1.9705873 0.4174889 0
4.1500001 1.9697559 0.41752857 0
4.1600003 1.9683487 0.41756466 0
4.1660004 1.9647701 0.4175863 0
4.171 1.9606376 0.41760433 0
4.177 1.9570174 0.41762599 0
4.1820002 1.9528466 0.41764402 0
4.1880002 1.9491851 0.41766566 0
4.1940002 1.9455017 0.4176873 0
4.0820003 2.0461109 0.41064164 0
4.0740004 2.0349381 0.41062722 0
4.073 2.0277462 0.4106254 0
4.079 2.0244975 0.41063622 0
4.0840001 2.0206666 0.41064525 0
4.0890002 2.0168171 0.41065428 0
4.0950003 2.0135069 0.41066509 0
4.1000004 2.00962 0.4106741 0
4.105 2.0057147 0.41068313 0
4.1070004 2.0001354 0.41068673 0
4.1059999 1.9928987 0.41068491 0
4.1059999 1.9862137 0.41068491 0
4.105 1.978982 0.41068313 0
4.1059999 1.9728439 0.41068491 0
4.1170001 1.9721313 0.41070476 0
4.1280003 1.971379 0.41072461 0
4.1389999 1.9705873 0.41074446 0
4.1500001 1.9697559 0.41076431 0
4.1600003 1.9683487 0.41078234 0
4.1660004 1.9647701 0.41079316 0
4.171 1.9606376 0.41080219 0
4.177 1.9570174 0.410813 0
4.1820002 1.9528466 0.410822 0
4.1880002 1.9491851 0.41083285 0
4.1930003 1.9449768 0.41084185 0
4.0820003 2.0461109 0.40400001 0
4.0740004 2.0349381 0.40400001 0
4.073 2.0277462 0.40400001 0
4.079 2.0244975 0.40400001 0
4.0840001 2.0206666 0.40400001 0
4.0890002 2.0168171 0.40400001 0
4.0950003 2.0135069 0.40400001 0
4.1000004 2.00962 0.40400001 0
4.105 2.0057147 0.40400001 0
4.1070004 2.0001354 0.40400001 0
4.1059999 1.9928987 0.40400001 0
4.1059999 1.9862137 0.40400001 0
4.105 1.978982 0.40400001 0
4.1059999 1.9728439 0.40400001 0
4.1170001 1.9721313 0.40400001 0
4.1280003 1.971379 0.40400001 0
4.1389999 1.9705873 0.40400001 0
4.1490002 1.969218 0.40400001 0
4.1600003 1.9683487 0.40400001 0
4.165 1.964236 0.40400001 0
4.171 1.9606376 0.40400001 0
4.177 1.9570174 0.40400001 0
4.1820002 1.9528466 0.40400001 0
4.1880002 1.9491851 0.40400001 0
4.1930003 1.9449768 0.40400001 0
4.0820003 2.0461109 0.39735839 0
4.0750003 2.0355046 0.39737102 0
4.073 2.0277462 0.39737463 0
4.079 2.0244975 0.39736381 0
4.0840001 2.0206666 0.39735478 0
4.0890002 2.0168171 0.39734575 0
4.0940003 2.0129497 0.39733675 0
4.1000004 2.00962 0.39732593 0
4.105 2.0057147 0.3973169 0
4.1070004 2.0001354 0.3973133 0
4.1059999 1.9928987 0.39731511 0
4.1059999 1.9862137 0.39731511 0
4.105 1.978982 0.3973169 0
4.1059999 1.9728439 0.39731511 0
4.1170001 1.9721313 0.39729527 0
4.1270003 1.9708381 0.39727721 0
4.138 1.9700477 0.39725739 0
4.1490002 1.969218 0.39723754 0
4.1600003 1.9683487 0.39721769 0
4.165 1.964236 0.39720869 0
4.171 1.9606376 0.39719784 0
4.1760001 1.9564869 0.39718884 0
4.1820002 1.9528466 0.39717802 0
4.1880002 1.9491851 0.39716718 0
4.1930003 1.9449768 0.39715818 0
4.0820003 2.0461109 0.39071676 0
4.0750003 2.0355046 0.39074203 0
4.073 2.0277462 0.39074925 0
4.0780001 2.0239348 0.39073122 0
4.0840001 2.0206666 0.39070955 0
4.0890002 2.0168171 0.39069152 0
4.0940003 2.0129497 0.39067349 0
4.1000004 2.00962 0.39065182 0
4.105 2.0057147 0.39063379 0
4.1070004 2.0001354 0.39062658 0
4.1059999 1.9928987 0.39063019 0
4.1059999 1.9862137 0.39063019 0
4.105 1.978982 0.39063379 0
4.1059999 1.9728439 0.39063019 0
4.1160002 1.9715881 0.39059412 0
4.1270003 1.9708381 0.39055443 0
4.138 1.9700477 0.39051473 0
4.1490002 1.969218 0.39047506 0
4.1600003 1.9683487 0.39043537 0
4.165 1.964236 0.39041734 0
4.171 1.9606376 0.3903957 0
4.1760001 1.9564869 0.39037764 0
4.1820002 1.9528466 0.390356 0
4.1870003 1.9486583 0.39033797 0
4.1930003 1.9449768 0.39031634 0
4.0820003 2.0461109 0.38407513 0
4.0750003 2.0355046 0.38411301 0
4.073 2.0277462 0.38412386 0
4.0780001 2.0239348 0.3840968 0
4.0840001 2.0206666 0.38406432 0
4.0890002 2.0168171 0.38403726 0
4.0940003 2.0129497 0.3840102 0
4.1000004 2.00962 0.38397774 0
4.105 2.0057147 0.38395068 0
4.1070004 2.0001354 0.38393986 0
4.1059999 1.9928987 0.38394529 0
4.1059999 1.9862137 0.38394529 0
4.105 1.978982 0.38395068 0
4.105 1.9722991 0.38395068 0
4.1160002 1.9715881 0.38389117 0
4.1270003 1.9708381 0.38383162 0
4.138 1.9700477 0.3837721 0
4.1490002 1.969218 0.38371259 0
4.1589999 1.9678128 0.38365847 0
4.165 1.964236 0.38362601 0
4.171 1.9606376 0.38359353 0
4.1760001 1.9564869 0.38356647 0
4.1820002 1.9528466 0.38353401 0
4.1870003 1.9486583 0.38350695 0
4.1930003 1.9449768 0.38347447 0
4.0820003 2.0461109 0.37743354 0
4.0750003 2.0355046 0.37748402 0
4.073 2.0277462 0.37749848 0
4.0780001 2.0239348 0.37746239 0
4.0830002 2.0201054 0.37742633 0
4.0890002 2.0168171 0.37738302 0
4.0940003 2.0129497 0.37734693 0
4.099 2.0090642 0.37731087 0
4.105 2.0057147 0.37726757 0
4.1070004 2.0001354 0.37725314 0
4.1059999 1.9928987 0.37726036 0
4.1059999 1.9862137 0.37726036 0
4.105 1.978982 0.37726757 0
4.105 1.9722991 0.37726757 0
4.1160002 1.9715881 0.37718821 0
4.1270003 1.9708381 0.37710884 0
4.138 1.9700477 0.37702948 0
4.1480002 1.9686806 0.37695733 0
4.1589999 1.9678128 0.37687796 0
4.165 1.964236 0.37683466 0
4.1700001 1.9601052 0.37679857 0
4.1760001 1.9564869 0.3767553 0
4.1820002 1.9528466 0.37671199 0
4.1870003 1.9486583 0.37667593 0
4.1930003 1.9449768 0.37663263 0
4.0830002 2.046679 0.37078288 0
4.0750003 2.0355046 0.37085503 0
4.073 2.0277462 0.37087309 0
4.0780001 2.0239348 0.37082797 0
4.0830002 2.0201054 0.37078288 0
4.0890002 2.0168171 0.37072876 0
4.0940003 2.0129497 0.37068367 0
4.099 2.0090642 0.37063858 0
4.105 2.0057147 0.37058446 0
4.1070004 2.0001354 0.37056643 0
4.1059999 1.9928987 0.37057546 0
4.1059999 1.9862137 0.37057546 0
4.105 1.978982 0.37058446 0
4.105 1.9722991 0.37058446 0
4.1160002 1.9715881 0.37048525 0
4.1259999 1.9702969 0.37039506 0
4.1370001 1.9695086 0.37029585 0
4.1480002 1.9686806 0.37019664 0
4.1589999 1.9678128 0.37009743 0
4.165 1.964236 0.37004334 0
4.1700001 1.9601052 0.36999822 0
4.1760001 1.9564869 0.36994413 0
4.1810002 1.9523182 0.36989903 0
4.1870003 1.9486583 0.36984491 0
4.1930003 1.9449768 0.36979079 0
4.0830002 2.046679 0.36413947 0
4.0750003 2.0355046 0.36422604 0
4.073 2.0277462 0.36424768 0
4.0780001 2.0239348 0.36419356 0
4.0830002 2.0201054 0.36413947 0
4.0880003 2.0162578 0.36408535 0
4.0940003 2.0129497 0.36402041 0
4.099 2.0090642 0.36396629 0
4.105 2.0057147 0.36390135 0
4.1070004 2.0001354 0.36387971 0
4.1059999 1.9928987 0.36389053 0
4.1059999 1.9862137 0.36389053 0
4.105 1.978982 0.36390135 0
4.105 1.9722991 0.36390135 0
4.1150002 1.9710455 0.36379313 0
4.1259999 1.9702969 0.36367407 0
4.1370001 1.9695086 0.36355501 0
4.1480002 1.9686806 0.36343598 0
4.1589999 1.9678128 0.36331692 0
4.165 1.964236 0.36325198 0
4.1700001 1.9601052 0.36319786 0
4.1760001 1.9564869 0.36313292 0
4.1810002 1.9523182 0.36307883 0
4.1870003 1.9486583 0.36301389 0
4.1930003 1.9449768 0.36294895 0
4.0830002 2.046679 0.35749602 0
4.0750003 2.0355046 0.35759705 0
4.072 2.0271816 0.35763493 0
4.0780001 2.0239348 0.35755917 0
4.0830002 2.0201054 0.35749602 0
4.0880003 2.0162578 0.3574329 0
4.0940003 2.0129497 0.35735714 0
4.099 2.0090642 0.35729402 0
4.1040001 2.0051608 0.35723087 0
4.1070004 2.0001354 0.35719299 0
4.1059999 1.9928987 0.35720563 0
4.1059999 1.9862137 0.35720563 0
4.105 1.978982 0.35721824 0
4.1040001 1.9717543 0.35723087 0
4.1150002 1.9710455 0.35709199 0
4.1259999 1.9702969 0.35695308 0
4.1370001 1.9695086 0.35681421 0
4.1480002 1.9686806 0.3566753 0
4.1589999 1.9678128 0.35653642 0
4.164 1.9637022 0.35647327 0
4.1700001 1.9601052 0.35639751 0
4.1760001 1.9564869 0.35632175 0
4.1810002 1.9523182 0.35625863 0
4.1870003 1.9486583 0.35618287 0
4.1920004 1.9444518 0.35611972 0
4.0830002 2.046679 0.35085261 0
4.0760002 2.0360708 0.35095364 0
4.072 2.0271816 0.35101134 0
4.0780001 2.0239348 0.35092476 0
4.0830002 2.0201054 0.35085261 0
4.0880003 2.0162578 0.35078046 0
4.0940003 2.0129497 0.35069388 0
4.099 2.0090642 0.35062173 0
4.1040001 2.0051608 0.35054958 0
4.1070004 2.0001354 0.35050628 0
4.1059999 1.9928987 0.3505207 0
4.1059999 1.9862137 0.3505207 0
4.105 1.978982 0.35053515 0
4.1040001 1.9717543 0.35054958 0
4.1150002 1.9710455 0.35039082 0
4.1259999 1.9702969 0.35023209 0
4.1370001 1.9695086 0.35007337 0
4.1470003 1.9681432 0.34992906 0
4.158 1.9672773 0.34977031 0
4.164 1.9637022 0.34968373 0
4.1700001 1.9601052 0.34959716 0
4.1750002 1.9559565 0.349525 0
4.1810002 1.9523182 0.34943843 0
4.1870003 1.9486583 0.34935182 0
4.1920004 1.9444518 0.3492797 0
4.0830002 2.046679 0.34420919 0
4.0760002 2.0360708 0.34432283 0
4.072 2.0271816 0.34438777 0
4.0770001 2.0233722 0.34430659 0
4.0830002 2.0201054 0.34420919 0
4.0880003 2.0162578 0.34412801 0
4.0929999 2.0123923 0.34404683 0
4.099 2.0090642 0.34394944 0
4.1040001 2.0051608 0.34386826 0
4.1070004 2.0001354 0.34381956 0
4.1059999 1.9928987 0.3438358 0
4.1059999 1.9862137 0.3438358 0
4.105 1.978982 0.34385204 0
4.1040001 1.9717543 0.34386826 0
4.1150002 1.9710455 0.34368968 0
4.125 1.9697556 0.34352735 0
4.1360002 1.9689691 0.34334877 0
4.1470003 1.9681432 0.3431702 0
4.158 1.9672773 0.34299162 0
4.164 1.9637022 0.3428942 0
4.1700001 1.9601052 0.3427968 0
4.1750002 1.9559565 0.34271562 0
4.1810002 1.9523182 0.34261823 0
4.1860003 1.9481317 0.34253705 0
4.1920004 1.9444518 0.34243965 0
4.0830002 2.046679 0.33756575 0
4.0760002 2.0360708 0.33769202 0
4.072 2.0271816 0.33776417 0
4.0770001 2.0233722 0.33767399 0
4.0830002 2.0201054 0.33756575 0
4.0880003 2.0162578 0.33747557 0
4.0929999 2.0123923 0.33738539 0
4.099 2.0090642 0.33727714 0
4.1040001 2.0051608 0.33718696 0
4.1070004 2.0001354 0.33713284 0
4.1059999 1.9928987 0.33715087 0
4.1059999 1.9862137 0.33715087 0
4.105 1.978982 0.33716893 0
4.1040001 1.9717543 0.33718696 0
4.1140003 1.9705024 0.33700657 0
4.125 1.9697556 0.33680815 0
4.1360002 1.9689691 0.33660975 0
4.1470003 1.9681432 0.33641133 0
4.158 1.9672773 0.3362129 0
4.164 1.9637022 0.33610466 0
4.1700001 1.9601052 0.33599645 0
4.1750002 1.9559565 0.33590627 0
4.1810002 1.9523182 0.33579803 0
4.1860003 1.9481317 0.33570784 0
4.1920004 1.9444518 0.3355996 0
4.0830002 2.046679 0.33092234 0
4.0760002 2.0360708 0.33106124 0
4.072 2.0271816 0.33114058 0
4.0770001 2.0233722 0.3310414 0
4.0830002 2.0201054 0.33092234 0
4.0880003 2.0162578 0.33082312 0
4.0929999 2.0123923 0.33072391 0
4.099 2.0090642 0.33060485 0
4.1040001 2.0051608 0.33050564 0
4.1070004 2.0001354 0.33044612 0
4.1059999 1.9928987 0.33046597 0
4.1059999 1.9862137 0.33046597 0
4.105 1.978982 0.33048582 0
4.1040001 1.9717543 0.33050564 0
4.1140003 1.9705024 0.33030725 0
4.125 1.9697556 0.33008897 0
4.1360002 1.9689691 0.3298707 0
4.1470003 1.9681432 0.32965246 0
4.158 1.9672773 0.32943419 0
4.164 1.9637022 0.32931513 0
4.1690001 1.9595733 0.32921594 0
4.1750002 1.9559565 0.32909688 0
4.1810002 1.9523182 0.32897782 0
4.1860003 1.9481317 0.32887861 0
4.1920004 1.9444518 0.32875955 0
4.0840001 2.0472474 0.32425725 0
4.0760002 2.0360708 0.32443044 0
4.072 2.0271816 0.32451701 0
4.0770001 2.0233722 0.32440877 0
4.0820003 2.0195444 0.32430056 0
4.0880003 2.0162578 0.32417068 0
4.0929999 2.0123923 0.32406247 0
4.098 2.0085087 0.32395422 0
4.1040001 2.0051608 0.32382435 0
4.1070004 2.0001354 0.32375941 0
4.1059999 1.9928987 0.32378107 0
4.1059999 1.9862137 0.32378107 0
4.105 1.978982 0.32380271 0
4.1040001 1.9717543 0.32382435 0
4.1140003 1.9705024 0.32360789 0
4.125 1.9697556 0.3233698 0
4.1360002 1.9689691 0.32313168 0
4.1460004 1.9676056 0.32291523 0
4.1570001 1.9667416 0.32267714 0
4.164 1.9637022 0.32252562 0
4.1690001 1.9595733 0.32241738 0
4.1750002 1.9559565 0.3222875 0
4.1800003 1.9517897 0.32217926 0
4.1860003 1.9481317 0.32204938 0
4.1920004 1.9444518 0.3219195 0
4.0840001 2.0472474 0.31761202 0
4.0760002 2.0360708 0.31779963 0
4.072 2.0271816 0.31789342 0
4.0770001 2.0233722 0.31777617 0
4.0820003 2.0195444 0.31765893 0
4.0880003 2.0162578 0.31751823 0
4.0929999 2.0123923 0.31740099 0
4.098 2.0085087 0.31728375 0
4.1040001 2.0051608 0.31714302 0
4.1070004 2.0001354 0.31707269 0
4.1059999 1.9928987 0.31709614 0
4.1059999 1.9862137 0.31709614 0
4.105 1.978982 0.3171196 0
4.1040001 1.9717543 0.31714302 0
4.1140003 1.9705024 0.31690854 0
4.1240001 1.9692147 0.31667405 0
4.1350002 1.9684298 0.31641611 0
4.1460004 1.9676056 0.31615815 0
4.1570001 1.9667416 0.31590021 0
4.164 1.9637022 0.31573606 0
4.1690001 1.9595733 0.31561881 0
4.1750002 1.9559565 0.31547815 0
4.1800003 1.9517897 0.31536087 0
4.1860003 1.9481317 0.31522018 0
4.1920004 1.9444518 0.31507948 0
4.0840001 2.0472474 0.31096679 0
4.0760002 2.0360708 0.31116882 0
4.072 2.0271816 0.31126985 0
4.0770001 2.0233722 0.31114358 0
4.0820003 2.0195444 0.3110173 0
4.0870004 2.0156987 0.31089103 0
4.0929999 2.0123923 0.31073952 0
4.098 2.0085087 0.31061324 0
4.1030002 2.004607 0.31048697 0
4.1070004 2.0001354 0.31038597 0
4.1059999 1.9928987 0.31041121 0
4.1059999 1.9862137 0.31041121 0
4.105 1.978982 0.31043649 0
4.1040001 1.9717543 0.31046173 0
4.1129999 1.9699595 0.31023446 0
4.1240001 1.9692147 0.30995667 0
4.1350002 1.9684298 0.30967888 0
4.1460004 1.9676056 0.30940109 0
4.1570001 1.9667416 0.30912331 0
4.1630001 1.9631681 0.30897179 0
4.1690001 1.9595733 0.30882028 0
4.1750002 1.9559565 0.30866873 0
4.1800003 1.9517897 0.30854249 0
4.1860003 1.9481317 0.30839097 0
4.191 1.9439269 0.3082647 0
4.0840001 2.0472474 0.30432159 0
4.0770001 2.0366373 0.30451098 0
4.0710001 2.0266173 0.30467331 0
4.0770001 2.0233722 0.30451098 0
4.0820003 2.0195444 0.30437568 0
4.0870004 2.0156987 0.30424041 0
4.0929999 2.0123923 0.30407804 0
4.098 2.0085087 0.30394277 0
4.1030002 2.004607 0.3038075 0
4.1070004 2.0001354 0.30369925 0
4.1059999 1.9928987 0.30372632 0
4.105 1.9856653 0.30375338 0
4.105 1.978982 0.30375338 0
4.1040001 1.9717543 0.30378044 0
4.1129999 1.9699595 0.30353692 0
4.1240001 1.9692147 0.30323929 0
4.1350002 1.9684298 0.30294165 0
4.1460004 1.9676056 0.30264401 0
4.1570001 1.9667416 0.30234641 0
4.1630001 1.9631681 0.30218405 0
4.1690001 1.9595733 0.30202171 0
4.1740003 1.9554262 0.30188644 0
4.1800003 1.9517897 0.30172408 0
4.1860003 1.9481317 0.30156174 0
4.191 1.9439269 0.30142647 0
4.0840001 2.0472474 0.29767632 0
4.0770001 2.0366373 0.29787835 0
4.0710001 2.0266173 0.29805154 0
4.0770001 2.0233722 0.29787835 0
4.0820003 2.0195444 0.29773408 0
4.0870004 2.0156987 0.29758975 0
4.0929999 2.0123923 0.2974166 0
4.098 2.0085087 0.29727229 0
4.1030002 2.004607 0.29712799 0
4.1070004 2.0001354 0.29701254 0
4.1059999 1.9928987 0.29704142 0
4.105 1.9856653 0.29707026 0
4.105 1.978982 0.29707026 0
4.1040001 1.9717543 0.29709911 0
4.1129999 1.9699595 0.29683939 0
4.1240001 1.9692147 0.2965219 0
4.1350002 1.9684298 0.29620445 0
4.145 1.967068 0.29591584 0
4.1560001 1.9662058 0.29559836 0
4.1630001 1.9631681 0.29539633 0
4.1690001 1.9595733 0.29522318 0
4.1740003 1.9554262 0.29507887 0
4.1800003 1.9517897 0.29490569 0
4.1860003 1.9481317 0.29473251 0
4.191 1.9439269 0.29458821 0
4.0840001 2.0472474 0.29103112 0
4.0770001 2.0366373 0.29124576 0
4.0710001 2.0266173 0.29142976 0
4.0760002 2.0228093 0.29127643 0
4.0820003 2.0195444 0.29109246 0
4.0870004 2.0156987 0.29093912 0
4.092 2.0118349 0.29078579 0
4.098 2.0085087 0.29060179 0
4.1030002 2.004607 0.29044849 0
4.1070004 2.0001354 0.29032582 0
4.1059999 1.9928987 0.29035649 0
4.105 1.9856653 0.29038715 0
4.105 1.978982 0.29038715 0
4.1040001 1.9717543 0.29041782 0
4.1129999 1.9699595 0.29014182 0
4.1230001 1.9686735 0.28983518 0
4.1340003 1.9678905 0.28949788 0
4.145 1.967068 0.28916055 0
4.1560001 1.9662058 0.28882325 0
4.1630001 1.9631681 0.28860861 0
4.1690001 1.9595733 0.28842461 0
4.1740003 1.9554262 0.28827128 0
4.1800003 1.9517897 0.28808731 0
4.1849999 1.9476048 0.28793398 0
4.191 1.9439269 0.28775001 0
4.0840001 2.0472474 0.28438589 0
4.0770001 2.0366373 0.28461316 0
4.0710001 2.0266173 0.28480798 0
4.0760002 2.0228093 0.28464565 0
4.0820003 2.0195444 0.28445083 0
4.0870004 2.0156987 0.28428847 0
4.092 2.0118349 0.28412613 0
4.098 2.0085087 0.28393131 0
4.1030002 2.004607 0.28376898 0
4.1070004 2.0001354 0.2836391 0
4.1059999 1.9928987 0.28367159 0
4.105 1.9856653 0.28370404 0
4.105 1.978982 0.28370404 0
4.1040001 1.9717543 0.28373653 0
4.112 1.9694166 0.28347677 0
4.1230001 1.9686735 0.28311962 0
4.1340003 1.9678905 0.28276247 0
4.145 1.967068 0.28240532 0
4.1560001 1.9662058 0.28204817 0
4.1630001 1.9631681 0.28182086 0
4.1680002 1.9590411 0.28165853 0
4.1740003 1.9554262 0.28146371 0
4.1800003 1.9517897 0.28126889 0
4.1849999 1.9476048 0.28110656 0
4.191 1.9439269 0.28091174 0
4.0770001 2.0366373 0.27798057 0
4.0710001 2.0266173 0.2781862 0
4.0760002 2.0228093 0.27801484 0
4.0810003 2.0189834 0.27784348 0
4.0870004 2.0156987 0.27763784 0
4.092 2.0118349 0.27746648 0
4.0970001 2.0079532 0.27729511 0
4.1030002 2.004607 0.27708948 0
4.1070004 2.0001354 0.27695239 0
4.1059999 1.9928987 0.27698666 0
4.105 1.9856653 0.27702093 0
4.105 1.978982 0.27702093 0
4.1040001 1.9717543 0.2770552 0
4.112 1.9694166 0.27678102 0
4.1230001 1.9686735 0.27640402 0
4.1340003 1.9678905 0.27602702 0
4.145 1.967068 0.27565005 0
4.1560001 1.9662058 0.27527303 0
4.1630001 1.9631681 0.27503315 0
4.1680002 1.9590411 0.27486178 0
4.1740003 1.9554262 0.27465615 0
4.1800003 1.9517897 0.27445048 0
4.1849999 1.9476048 0.27427915 0
4.191 1.9439269 0.27407351 0
4.0770001 2.0366373 0.27134794 0
4.0710001 2.0266173 0.27156442 0
4.0760002 2.0228093 0.27138403 0
4.0810003 2.0189834 0.27120364 0
4.0870004 2.0156987 0.27098721 0
4.092 2.0118349 0.27080682 0
4.0970001 2.0079532 0.27062643 0
4.1030002 2.004607 0.27041 0
4.1070004 2.0001354 0.27026567 0
4.1059999 1.9928987 0.27030176 0
4.105 1.9856653 0.27033782 0
4.105 1.978982 0.27033782 0
4.1040001 1.9717543 0.27037391 0
4.112 1.9694166 0.27008528 0
4.1230001 1.9686735 0.26968843 0
4.1340003 1.9678905 0.26929161 0
4.1440001 1.9665306 0.26893085 0
4.1550002 1.9656699 0.268534 0
4.1630001 1.9631681 0.2682454 0
4.1680002 1.9590411 0.26806504 0
4.1740003 1.9554262 0.26784855 0
4.1790004 1.9512613 0.26766819 0
4.1849999 1.9476048 0.26745173 0
4.191 1.9439269 0.26723528 0
4.0770001 2.0366373 0.26471537 0
4.0710001 2.0266173 0.26494265 0
4.0760002 2.0228093 0.26475322 0
4.0810003 2.0189834 0.26456383 0
4.0870004 2.0156987 0.26433656 0
4.092 2.0118349 0.26414716 0
4.0970001 2.0079532 0.26395774 0
4.1030002 2.004607 0.26373047 0
4.1070004 2.0001354 0.26357895 0
4.1059999 1.9928987 0.26361683 0
4.105 1.9856653 0.26365471 0
4.105 1.978982 0.26365471 0
4.1040001 1.9717543 0.26369259 0
4.112 1.9694166 0.26338956 0
4.1220002 1.9681323 0.26301074 0
4.1330004 1.9673514 0.26259407 0
4.1440001 1.9665306 0.26217741 0
4.1550002 1.9656699 0.26176071 0
4.1630001 1.9631681 0.26145768 0
4.1680002 1.9590411 0.26126826 0
4.1740003 1.9554262 0.26104099 0
4.1790004 1.9512613 0.26085159 0
4.1849999 1.9476048 0.26062432 0
4.1900001 1.9434019 0.26043493 0
4.0780001 2.0372038 0.25804305 0
4.0710001 2.0266173 0.25832084 0
4.0760002 2.0228093 0.25812244 0
4.0810003 2.0189834 0.25792402 0
4.086 2.0151396 0.2577256 0
4.092 2.0118349 0.25748748 0
4.0970001 2.0079532 0.25728905 0
4.1020002 2.0040534 0.25709066 0
4.1070004 2.0001354 0.25689223 0
4.1059999 1.9928987 0.2569319 0
4.105 1.9856653 0.2569716 0
4.105 1.978982 0.2569716 0
4.1040001 1.9717543 0.25701129 0
4.1110001 1.9688737 0.25673348 0
4.1220002 1.9681323 0.25629699 0
4.1330004 1.9673514 0.25586045 0
4.1440001 1.9665306 0.25542393 0
4.1550002 1.9656699 0.25498742 0
4.1620002 1.9626341 0.25470963 0
4.1680002 1.9590411 0.25447154 0
4.1740003 1.9554262 0.25423342 0
4.1790004 1.9512613 0.254035 0
4.1849999 1.9476048 0.25379691 0
4.1900001 1.9434019 0.25359848 0
4.0780001 2.0372038 0.25140867 0
4.0700002 2.0260527 0.25174057 0
4.0760002 2.0228093 0.25149164 0
4.0810003 2.0189834 0.25128418 0
4.086 2.0151396 0.25107676 0
4.092 2.0118349 0.25082785 0
4.0970001 2.0079532 0.25062039 0
4.1020002 2.0040534 0.25041294 0
4.1070004 2.0001354 0.25020552 0
4.1059999 1.9928987 0.250247 0
4.105 1.9856653 0.25028849 0
4.105 1.978982 0.25028849 0
4.1040001 1.9717543 0.25032997 0
4.1110001 1.9688737 0.25003958 0
4.1220002 1.9681323 0.24958321 0
4.1330004 1.9673514 0.24912684 0
4.1440001 1.9665306 0.24867047 0
4.1550002 1.9656699 0.24821411 0
4.1620002 1.9626341 0.2479237 0
4.1680002 1.9590411 0.24767478 0
4.1730003 1.954896 0.24746734 0
4.1790004 1.9512613 0.24721842 0
4.1849999 1.9476048 0.24696949 0
4.1900001 1.9434019 0.24676205 0
4.0780001 2.0372038 0.24477425 0
4.0700002 2.0260527 0.24512058 0
4.0760002 2.0228093 0.24486084 0
4.0810003 2.0189834 0.24464437 0
4.086 2.0151396 0.24442792 0
4.0910001 2.0112774 0.24421147 0
4.0970001 2.0079532 0.24395172 0
4.1020002 2.0040534 0.24373525 0
4.1070004 2.0001354 0.2435188 0
4.1059999 1.9928987 0.2435621 0
4.105 1.9856653 0.24360539 0
4.105 1.978982 0.24360539 0
4.1040001 1.9717543 0.24364868 0
4.1110001 1.9688737 0.24334563 0
4.1220002 1.9681323 0.24286944 0
4.1330004 1.9673514 0.24239321 0
4.1430001 1.9659929 0.2419603 0
4.1540003 1.9651344 0.24148411 0
4.1620002 1.9626341 0.24113779 0
4.1680002 1.9590411 0.24087803 0
4.1730003 1.954896 0.24066158 0
4.1790004 1.9512613 0.24040182 0
4.184 1.9470783 0.24018537 0
4.1900001 1.9434019 0.23992561 0
4.0780001 2.0372038 0.23813985 0
4.0700002 2.0260527 0.23850061 0
4.0750003 2.0222466 0.23827513 0
4.0810003 2.0189834 0.23800455 0
4.086 2.0151396 0.2377791 0
4.0910001 2.0112774 0.2375536 0
4.0970001 2.0079532 0.23728304 0
4.1020002 2.0040534 0.23705757 0
4.1070004 2.0001354 0.23683208 0
4.1059999 1.9928987 0.23687719 0
4.105 1.9856653 0.23692226 0
4.105 1.978982 0.23692226 0
4.1040001 1.9717543 0.23696737 0
4.1110001 1.9688737 0.2366517 0
4.1210003 1.967591 0.23620076 0
4.132 1.9668119 0.23570471 0
4.1430001 1.9659929 0.23520866 0
4.1540003 1.9651344 0.23471262 0
4.1620002 1.9626341 0.23435186 0
4.1680002 1.9590411 0.23408128 0
4.1730003 1.954896 0.2338558 0
4.1790004 1.9512613 0.23358522 0
4.184 1.9470783 0.23335975 0
4.1900001 1.9434019 0.23308918 0
4.0780001 2.0372038 0.23150544 0
4.0710001 2.0266173 0.23183373 0
4.0750003 2.0222466 0.23164614 0
4.0810003 2.0189834 0.23136474 0
4.086 2.0151396 0.23113024 0
4.0910001 2.0112774 0.23089576 0
4.0970001 2.0079532 0.23061435 0
4.1020002 2.0040534 0.23037986 0
4.1070004 2.0001354 0.23014536 0
4.1059999 1.9928987 0.23019227 0
4.105 1.9856653 0.23023917 0
4.105 1.978982 0.23023917 0
4.1040001 1.9717543 0.23028606 0
4.1100001 1.9683309 0.23000467 0
4.1210003 1.967591 0.22948879 0
4.132 1.9668119 0.2289729 0
4.1430001 1.9659929 0.228457 0
4.1540003 1.9651344 0.22794111 0
4.1620002 1.9626341 0.22756593 0
4.1670003 1.958509 0.22733143 0
4.1730003 1.954896 0.22705004 0
4.1790004 1.9512613 0.22676864 0
4.184 1.9470783 0.22653414 0
4.1900001 1.9434019 0.22625275 0
4.0780001 2.0372038 0.22487102 0
4.0710001 2.0266173 0.22521195 0
4.0750003 2.0222466 0.22501715 0
4.0799999 2.0184224 0.22477363 0
4.086 2.0151396 0.22448142 0
4.0910001 2.0112774 0.22423789 0
4.0960002 2.0073977 0.22399439 0
4.1020002 2.0040534 0.22370218 0
4.1070004 2.0001354 0.22345865 0
4.1059999 1.9928987 0.22350736 0
4.105 1.9856653 0.22355606 0
4.105 1.978982 0.22355606 0
4.1040001 1.9717543 0.22360477 0
4.1100001 1.9683309 0.22331254 0
4.1210003 1.967591 0.22277682 0
4.132 1.9668119 0.22224109 0
4.1430001 1.9659929 0.22170535 0
4.1540003 1.9651344 0.22116962 0
4.1620002 1.9626341 0.22078 0
4.1670003 1.958509 0.22053649 0
4.1730003 1.954896 0.22024426 0
4.178 1.9507326 0.22000076 0
4.184 1.9470783 0.21970853 0
4.1900001 1.9434019 0.21941632 0
4.0780001 2.0372038 0.21823663 0
4.0710001 2.0266173 0.21859017 0
4.0750003 2.0222466 0.21838814 0
4.0799999 2.0184224 0.21813563 0
4.086 2.0151396 0.21783258 0
4.0910001 2.0112774 0.21758004 0
4.0960002 2.0073977 0.21732751 0
4.1020002 2.0040534 0.21702446 0
4.1070004 2.0001354 0.21677193 0
4.1059999 1.9928987 0.21682245 0
4.105 1.9856653 0.21687295 0
4.105 1.978982 0.21687295 0
4.1040001 1.9717543 0.21692346 0
4.1100001 1.9683309 0.21662042 0
4.1210003 1.967591 0.21606484 0
4.132 1.9668119 0.21550928 0
4.1420002 1.9654555 0.21500421 0
4.1530004 1.9645987 0.21444863 0
4.1620002 1.9626341 0.21399409 0
4.1670003 1.958509 0.21374154 0
4.1730003 1.954896 0.2134385 0
4.178 1.9507326 0.21318597 0
4.184 1.9470783 0.21288292 0
4.1890001 1.9428773 0.21263038 0
4.0780001 2.0372038 0.21160223 0
4.0710001 2.0266173 0.21196839 0
4.0750003 2.0222466 0.21175915 0
4.0799999 2.0184224 0.2114976 0
4.085 2.0145805 0.21123604 0
4.0910001 2.0112774 0.21092218 0
4.0960002 2.0073977 0.21066064 0
4.1010003 2.0034995 0.21039908 0
4.1070004 2.0001354 0.21008521 0
4.1059999 1.9928987 0.21013755 0
4.105 1.9856653 0.21018983 0
4.105 1.978982 0.21018983 0
4.1040001 1.9717543 0.21024214 0
4.1100001 1.9683309 0.20992827 0
4.1200004 1.9670501 0.20940518 0
4.131 1.9662726 0.20882976 0
4.1420002 1.9654555 0.20825435 0
4.1530004 1.9645987 0.20767894 0
4.1610003 1.9621005 0.20726044 0
4.1670003 1.958509 0.2069466 0
4.1730003 1.954896 0.20663272 0
4.178 1.9507326 0.20637117 0
4.184 1.9470783 0.20605731 0
4.1890001 1.9428773 0.20579576 0
4.079 2.03777 0.20491371 0
4.0710001 2.0266173 0.20534661 0
4.0750003 2.0222466 0.20513014 0
4.0799999 2.0184224 0.20485958 0
4.085 2.0145805 0.20458902 0
4.0910001 2.0112774 0.20426433 0
4.0960002 2.0073977 0.20399375 0
4.1010003 2.0034995 0.20372318 0
4.1070004 2.0001354 0.2033985 0
4.1059999 1.9928987 0.20345262 0
4.105 1.9856653 0.20350674 0
4.105 1.978982 0.20350674 0
4.1040001 1.9717543 0.20356083 0
4.1090002 1.9677877 0.20329027 0
4.1200004 1.9670501 0.20269501 0
4.131 1.9662726 0.20209976 0
4.1420002 1.9654555 0.20150451 0
4.1530004 1.9645987 0.20090923 0
4.1610003 1.9621005 0.20047633 0
4.1670003 1.958509 0.20015164 0
4.1719999 1.9543655 0.19988108 0
4.178 1.9507326 0.1995564 0
4.184 1.9470783 0.1992317 0
4.1890001 1.9428773 0.19896114 0
4.079 2.03777 0.19827749 0
4.0710001 2.0266173 0.19872482 0
4.0750003 2.0222466 0.19850117 0
4.0799999 2.0184224 0.19822158 0
4.085 2.0145805 0.19794197 0
4.0910001 2.0112774 0.19760647 0
4.0960002 2.0073977 0.19732688 0
4.1010003 2.0034995 0.19704729 0
4.1070004 2.0001354 0.19671178 0
4.1059999 1.9928987 0.1967677 0
4.105 1.9856653 0.19682363 0
4.105 1.978982 0.19682363 0
4.1040001 1.9717543 0.19687954 0
4.1090002 1.9677877 0.19659995 0
4.1200004 1.9670501 0.19598484 0
4.131 1.9662726 0.19536975 0
4.1420002 1.9654555 0.19475465 0
4.1530004 1.9645987 0.19413954 0
4.1610003 1.9621005 0.19369221 0
4.1670003 1.958509 0.19335669 0
4.1719999 1.9543655 0.19307712 0
4.178 1.9507326 0.1927416 0
4.1830001 1.9465516 0.192462 0
4.1890001 1.9428773 0.1921265 0
4.079 2.03777 0.19164129 0
4.0710001 2.0266173 0.19210304 0
4.0740004 2.0216837 0.19192988 0
4.0799999 2.0184224 0.19158356 0
4.085 2.0145805 0.19129495 0
4.0900002 2.01072 0.19100635 0
4.0960002 2.0073977 0.19066001 0
4.1010003 2.0034995 0.19037139 0
4.1059999 1.9995835 0.19008279 0
4.1059999 1.9928987 0.19008279 0
4.105 1.9856653 0.19014052 0
4.105 1.978982 0.19014052 0
4.1040001 1.9717543 0.19019823 0
4.1090002 1.9677877 0.18990962 0
4.1200004 1.9670501 0.18927468 0
4.131 1.9662726 0.18863975 0
4.1410003 1.9649177 0.18806252 0
4.152 1.9640627 0.18742758 0
4.1610003 1.9621005 0.18690808 0
4.1670003 1.958509 0.18656175 0
4.1719999 1.9543655 0.18627316 0
4.178 1.9507326 0.18592682 0
4.1830001 1.9465516 0.1856382 0
4.1890001 1.9428773 0.18529187 0
4.079 2.03777 0.18500507 0
4.072 2.0271816 0.18542175 0
4.0740004 2.0216837 0.18530269 0
4.0799999 2.0184224 0.18494555 0
4.085 2.0145805 0.18464792 0
4.0900002 2.01072 0.18435028 0
