# .PCD v0.7 - Point Cloud Data file format
VERSION 0.7
FIELDS x y z intensity
SIZE 4 4 4 4
TYPE F F F F
COUNT 1 1 1 1
WIDTH 1409
HEIGHT 1
VIEWPOINT 0 0 0 1 0 0 0
POINTS 1409
DATA ascii
2.7030003 -0.74390066 0.29599157 0
2.7020001 -0.74774992 0.29603848 0
2.7010002 -0.75159568 0.29608539 0
2.7010002 -0.75574619 0.29608539 0
2.7020001 -0.760207 0.29603848 0
2.7040002 -0.76498353 0.29594469 0
2.7070003 -0.7700811 0.29580399 0
2.7130003 -0.77613652 0.2955226 0
2.9570003 -1.0791637 0.28407925 0
2.9500003 -1.080935 0.28440753 0
2.9450002 -1.0834965 0.28464204 0
2.9410002 -1.0864491 0.28482962 0
2.9380002 -1.0897988 0.28497031 0
2.9350002 -1.0931377 0.28511101 0
2.9330003 -1.0968807 0.2852048 0
2.9320002 -1.101033 0.28525171 0
2.9310002 -1.1051817 0.28529862 0
2.9300003 -1.109327 0.28534549 0
2.9310002 -1.1143126 0.28529862 0
2.9320002 -1.1193019 0.28525171 0
2.9350002 -1.1251463 0.28511101 0
2.6680002 -1.0155758 0.29763305 0
2.6600001 -1.0162323 0.29800826 0
2.6550002 -1.0181533 0.29824275 0
2.6510003 -1.0204893 0.29843032 0
2.6470003 -1.0228108 0.29861793 0
2.6450002 -1.025991 0.29871172 0
2.6420002 -1.0287255 0.29885241 0
2.6400001 -1.0318893 0.29894623 0
2.6390002 -1.0354879 0.29899311 0
2.6380002 -1.039083 0.29904002 0
2.6370001 -1.0426743 0.29908693 0
2.6370001 -1.0467094 0.29908693 0
2.6380002 -1.0511938 0.29904002 0
2.6390002 -1.0556816 0.29899311 0
2.6420002 -1.0610787 0.29885241 0
2.6470003 -1.0673957 0.29861793 0
2.9050002 -1.2253389 0.28651798 0
2.8950002 -1.2251314 0.28698698 0
2.8880002 -1.2263111 0.28731525 0
2.8820002 -1.2279418 0.28759664 0
2.8770003 -1.2300289 0.28783116 0
2.8720002 -1.2320976 0.28806564 0
2.8690002 -1.2351118 0.28820634 0
2.8650002 -1.2376318 0.28839394 0
2.8620002 -1.2406225 0.28853464 0
2.8600001 -1.2440894 0.28862846 0
2.8570001 -1.2470602 0.28876913 0
2.8550003 -1.2505111 0.28886294 0
2.8530002 -1.2539544 0.28895673 0
2.8520002 -1.257885 0.28900364 0
2.8510003 -1.261812 0.28905052 0
2.6630001 -1.172637 0.29786754 0
2.6530001 -1.1717224 0.29833654 0
2.6460001 -1.1722761 0.29866484 0
2.6410003 -1.1738113 0.29889932 0
2.6360002 -1.1753283 0.29913384 0
2.6320002 -1.1773341 0.29932141 0
2.6280003 -1.1793255 0.29950899 0
2.6250002 -1.181813 0.29964972 0
2.6220002 -1.1842896 0.29979041 0
2.6190002 -1.1867554 0.29993111 0
2.6160002 -1.1892103 0.30007181 0
2.6140001 -1.1921722 0.30016559 0
2.6120002 -1.1951269 0.30025938 0
2.6100001 -1.1980742 0.3003532 0
2.6090002 -1.2015376 0.30040008 0
2.6070001 -1.2044723 0.3004939 0
2.6060002 -1.2079268 0.3005408 0
2.6050003 -1.2113774 0.30058768 0
2.6050003 -1.2153548 0.30058768 0
2.6050003 -1.2193322 0.30058768 0
2.6040001 -1.2227756 0.30063459 0
2.6050003 -1.2272871 0.30058768 0
2.6050003 -1.2312644 0.30058768 0
2.6070001 -1.2363204 0.3004939 0
2.6080003 -1.2408426 0.30044699 0
2.6110003 -1.2464542 0.30030629 0
2.6160002 -1.2531661 0.30007181 0
2.7290001 -0.72237211 0.29057115 0
2.7210002 -0.72423548 0.29096076 0
2.7150002 -0.72665799 0.29125297 0
2.7110002 -0.72965056 0.29144779 0
2.7080002 -0.73292625 0.29159391 0
2.7060001 -0.73649055 0.2916913 0
2.7040002 -0.74004769 0.2917887 0
2.7030003 -0.74390066 0.29183739 0
2.7020001 -0.74774992 0.29188612 0
2.7010002 -0.75159568 0.29193482 0
2.7010002 -0.75574619 0.29193482 0
2.7020001 -0.760207 0.29188612 0
2.7040002 -0.76498353 0.2917887 0
2.7070003 -0.7700811 0.29164261 0
2.7130003 -0.77613652 0.29135039 0
2.9570003 -1.0791637 0.2794669 0
2.9500003 -1.080935 0.27980781 0
2.9450002 -1.0834965 0.28005132 0
2.9410002 -1.0864491 0.28024614 0
2.9380002 -1.0897988 0.28039226 0
2.9350002 -1.0931377 0.28053838 0
2.9330003 -1.0968807 0.28063577 0
2.9310002 -1.1006163 0.28073317 0
2.9310002 -1.1051817 0.28073317 0
2.9300003 -1.109327 0.28078187 0
2.9310002 -1.1143126 0.28073317 0
2.9320002 -1.1193019 0.28068447 0
2.9350002 -1.1251463 0.28053838 0
2.6680002 -1.0155758 0.29354203 0
2.6600001 -1.0162323 0.29393163 0
2.6550002 -1.0181533 0.29417515 0
2.6510003 -1.0204893 0.29436997 0
2.6470003 -1.0228108 0.29456478 0
2.6450002 -1.025991 0.29466218 0
2.6420002 -1.0287255 0.29480827 0
2.6400001 -1.0318893 0.29490569 0
2.6390002 -1.0354879 0.29495439 0
2.6380002 -1.039083 0.29500312 0
2.6370001 -1.0426743 0.29505181 0
2.6370001 -1.0467094 0.29505181 0
2.6380002 -1.0511938 0.29500312 0
2.6390002 -1.0556816 0.29495439 0
2.6420002 -1.0610787 0.29480827 0
2.6470003 -1.0673957 0.29456478 0
2.9050002 -1.2253389 0.28199944 0
2.8950002 -1.2251314 0.28248647 0
2.8880002 -1.2263111 0.28282738 0
2.8820002 -1.2279418 0.28311962 0
2.8770003 -1.2300289 0.2833631 0
2.8720002 -1.2320976 0.28360665 0
2.8690002 -1.2351118 0.28375274 0
2.8650002 -1.2376318 0.28394756 0
2.8620002 -1.2406225 0.28409365 0
2.8600001 -1.2440894 0.28419107 0
2.8570001 -1.2470602 0.28433719 0
2.8550003 -1.2505111 0.28443459 0
2.8530002 -1.2539544 0.28453198 0
2.8520002 -1.257885 0.28458071 0
2.8510003 -1.261812 0.2846294 0
2.6630001 -1.172637 0.29378551 0
2.6530001 -1.1717224 0.29427254 0
2.6460001 -1.1722761 0.29461348 0
2.6410003 -1.1738113 0.294857 0
2.6360002 -1.1753283 0.29510051 0
2.6320002 -1.1773341 0.2952953 0
2.6280003 -1.1793255 0.29549012 0
2.6250002 -1.181813 0.29563624 0
2.6220002 -1.1842896 0.29578233 0
2.6190002 -1.1867554 0.29592845 0
2.6160002 -1.1892103 0.29607457 0
2.6140001 -1.1921722 0.29617196 0
2.6120002 -1.1951269 0.29626936 0
2.6100001 -1.1980742 0.29636678 0
2.6090002 -1.2015376 0.29641548 0
2.6070001 -1.2044723 0.2965129 0
2.6060002 -1.2079268 0.2965616 0
2.6050003 -1.2113774 0.2966103 0
2.6050003 -1.2153548 0.2966103 0
2.6040001 -1.2187999 0.29665899 0
2.6040001 -1.2227756 0.29665899 0
2.6050003 -1.2272871 0.2966103 0
2.6050003 -1.2312644 0.2966103 0
2.6070001 -1.2363204 0.2965129 0
2.6080003 -1.2408426 0.29646417 0
2.6110003 -1.2464542 0.29631805 0
2.6160002 -1.2531661 0.29607457 0
2.7300003 -0.72266263 0.28631955 0
2.7210002 -0.72423548 0.28677413 0
2.7150002 -0.72665799 0.28707719 0
2.7110002 -0.72965056 0.28727919 0
2.7080002 -0.73292625 0.2874307 0
2.7060001 -0.73649055 0.28753173 0
2.7040002 -0.74004769 0.28763273 0
2.7030003 -0.74390066 0.28768325 0
2.7020001 -0.74774992 0.28773376 0
2.7010002 -0.75159568 0.28778428 0
2.7010002 -0.75574619 0.28778428 0
2.7020001 -0.760207 0.28773376 0
2.7040002 -0.76498353 0.28763273 0
2.7070003 -0.7700811 0.28748122 0
2.7130003 -0.77613652 0.28717816 0
2.9570003 -1.0791637 0.27485454 0
2.9500003 -1.080935 0.27520812 0
2.9450002 -1.0834965 0.27546066 0
2.9410002 -1.0864491 0.27566266 0
2.9380002 -1.0897988 0.27581418 0
2.9350002 -1.0931377 0.27596569 0
2.9330003 -1.0968807 0.27606672 0
2.9310002 -1.1006163 0.27616775 0
2.9310002 -1.1051817 0.27616775 0
2.9300003 -1.109327 0.27621824 0
2.9310002 -1.1143126 0.27616775 0
2.9320002 -1.1193019 0.27611721 0
2.9350002 -1.1251463 0.27596569 0
2.6680002 -1.0155758 0.28945097 0
2.6600001 -1.0162323 0.28985503 0
2.6550002 -1.0181533 0.29010755 0
2.6510003 -1.0204893 0.29030958 0
2.6470003 -1.0228108 0.29051161 0
2.6450002 -1.025991 0.29061264 0
2.6420002 -1.0287255 0.29076415 0
2.6400001 -1.0318893 0.29086518 0
2.6390002 -1.0354879 0.29091567 0
2.6380002 -1.039083 0.29096615 0
2.6370001 -1.0426743 0.2910167 0
2.6370001 -1.0467094 0.2910167 0
2.6380002 -1.0511938 0.29096615 0
2.6390002 -1.0556816 0.29091567 0
2.6420002 -1.0610787 0.29076415 0
2.6470003 -1.0673957 0.29051161 0
2.9050002 -1.2253389 0.2774809 0
2.8950002 -1.2251314 0.27798599 0
2.8880002 -1.2263111 0.27833951 0
2.8820002 -1.2279418 0.27864257 0
2.8770003 -1.2300289 0.27889508 0
2.8720002 -1.2320976 0.27914762 0
2.8690002 -1.2351118 0.27929914 0
2.8650002 -1.2376318 0.27950117 0
2.8620002 -1.2406225 0.27965268 0
2.8600001 -1.2440894 0.27975368 0
2.8570001 -1.2470602 0.27990523 0
2.8550003 -1.2505111 0.28000623 0
2.8530002 -1.2539544 0.28010726 0
2.8520002 -1.257885 0.28015774 0
2.8510003 -1.261812 0.28020826 0
2.6630001 -1.172637 0.28970352 0
2.6530001 -1.1717224 0.29020858 0
2.6460001 -1.1722761 0.29056212 0
2.6410003 -1.1738113 0.29081464 0
2.6360002 -1.1753283 0.29106718 0
2.6320002 -1.1773341 0.29126921 0
2.6280003 -1.1793255 0.29147124 0
2.6250002 -1.181813 0.29162276 0
2.6220002 -1.1842896 0.29177427 0
2.6190002 -1.1867554 0.29192579 0
2.6160002 -1.1892103 0.2920773 0
2.6140001 -1.1921722 0.29217833 0
2.6120002 -1.1951269 0.29227936 0
2.6100001 -1.1980742 0.29238036 0
2.6090002 -1.2015376 0.29243088 0
2.6070001 -1.2044723 0.29253188 0
2.6060002 -1.2079268 0.29258239 0
2.6050003 -1.2113774 0.29263288 0
2.6050003 -1.2153548 0.29263288 0
2.6040001 -1.2187999 0.29268342 0
2.6040001 -1.2227756 0.29268342 0
2.6050003 -1.2272871 0.29263288 0
2.6050003 -1.2312644 0.29263288 0
2.6070001 -1.2363204 0.29253188 0
2.6080003 -1.2408426 0.29248136 0
2.6110003 -1.2464542 0.29232985 0
2.6160002 -1.2531661 0.2920773 0
2.7300003 -0.72266263 0.28211668 0
2.7210002 -0.72423548 0.28258747 0
2.7150002 -0.72665799 0.28290135 0
2.7110002 -0.72965056 0.28311059 0
2.7080002 -0.73292625 0.28326753 0
2.7060001 -0.73649055 0.28337216 0
2.7040002 -0.74004769 0.28347677 0
2.7030003 -0.74390066 0.28352907 0
2.7020001 -0.74774992 0.28358138 0
2.7010002 -0.75159568 0.28363371 0
2.7010002 -0.75574619 0.28363371 0
2.7020001 -0.760207 0.28358138 0
2.7040002 -0.76498353 0.28347677 0
2.7070003 -0.7700811 0.28331983 0
2.7130003 -0.77613652 0.28300595 0
2.9570003 -1.0791637 0.27024221 0
2.9500003 -1.080935 0.2706084 0
2.9450002 -1.0834965 0.27086997 0
2.9410002 -1.0864491 0.27107918 0
2.9380002 -1.0897988 0.27123612 0
2.9350002 -1.0931377 0.27139306 0
2.9330003 -1.0968807 0.27149767 0
2.9310002 -1.1006163 0.2716023 0
2.9310002 -1.1051817 0.2716023 0
2.9300003 -1.109327 0.27165461 0
2.9310002 -1.1143126 0.2716023 0
2.9320002 -1.1193019 0.27155 0
2.9350002 -1.1251463 0.27139306 0
2.6680002 -1.0155758 0.28535995 0
2.6600001 -1.0162323 0.28577843 0
2.6550002 -1.0181533 0.28603998 0
2.6510003 -1.0204893 0.28624922 0
2.6470003 -1.0228108 0.28645843 0
2.6450002 -1.025991 0.28656307 0
2.6420002 -1.0287255 0.28672001 0
2.6400001 -1.0318893 0.28682464 0
2.6390002 -1.0354879 0.28687695 0
2.6380002 -1.039083 0.28692925 0
2.6370001 -1.0426743 0.28698158 0
2.6370001 -1.0467094 0.28698158 0
2.6380002 -1.0511938 0.28692925 0
2.6390002 -1.0556816 0.28687695 0
2.6420002 -1.0610787 0.28672001 0
2.6470003 -1.0673957 0.28645843 0
2.9050002 -1.2253389 0.27296236 0
2.8950002 -1.2251314 0.27348548 0
2.8880002 -1.2263111 0.27385163 0
2.8820002 -1.2279418 0.27416551 0
2.8770003 -1.2300289 0.27442706 0
2.8720002 -1.2320976 0.2746886 0
2.8690002 -1.2351118 0.27484554 0
2.8650002 -1.2376318 0.27505478 0
2.8620002 -1.2406225 0.27521172 0
2.8600001 -1.2440894 0.27531633 0
2.8570001 -1.2470602 0.2754733 0
2.8550003 -1.2505111 0.27557787 0
2.8530002 -1.2539544 0.27568251 0
2.8520002 -1.257885 0.27573484 0
2.8510003 -1.261812 0.27578712 0
2.6630001 -1.172637 0.28562149 0
2.6530001 -1.1717224 0.28614461 0
2.6460001 -1.1722761 0.28651077 0
2.6410003 -1.1738113 0.28677231 0
2.6360002 -1.1753283 0.28703389 0
2.6320002 -1.1773341 0.28724313 0
2.6280003 -1.1793255 0.28745234 0
2.6250002 -1.181813 0.28760928 0
2.6220002 -1.1842896 0.28776622 0
2.6190002 -1.1867554 0.28792316 0
2.6160002 -1.1892103 0.2880801 0
2.6140001 -1.1921722 0.2881847 0
2.6120002 -1.1951269 0.28828931 0
2.6100001 -1.1980742 0.28839394 0
2.6090002 -1.2015376 0.28844625 0
2.6070001 -1.2044723 0.28855088 0
2.6060002 -1.2079268 0.28860319 0
2.6050003 -1.2113774 0.28865549 0
2.6050003 -1.2153548 0.28865549 0
2.6040001 -1.2187999 0.28870782 0
2.6040001 -1.2227756 0.28870782 0
2.6050003 -1.2272871 0.28865549 0
2.6050003 -1.2312644 0.28865549 0
2.6070001 -1.2363204 0.28855088 0
2.6080003 -1.2408426 0.28849855 0
2.6110003 -1.2464542 0.28834164 0
2.6150002 -1.2526215 0.2881324 0
2.7300003 -0.72266263 0.27791381 0
2.7210002 -0.72423548 0.27840084 0
2.7150002 -0.72665799 0.27872553 0
2.7110002 -0.72965056 0.27894199 0
2.7080002 -0.73292625 0.27910432 0
2.7060001 -0.73649055 0.27921256 0
2.7040002 -0.74004769 0.27932078 0
2.7030003 -0.74390066 0.2793749 0
2.7020001 -0.74774992 0.27942902 0
2.7010002 -0.75159568 0.27948314 0
2.7010002 -0.75574619 0.27948314 0
2.7020001 -0.760207 0.27942902 0
2.7040002 -0.76498353 0.27932078 0
2.7070003 -0.7700811 0.27915844 0
2.7130003 -0.77613652 0.27883375 0
2.9570003 -1.0791637 0.26562989 0
2.9500003 -1.080935 0.26600868 0
2.9450002 -1.0834965 0.26627925 0
2.9410002 -1.0864491 0.2664957 0
2.9380002 -1.0897988 0.26665807 0
2.9350002 -1.0931377 0.2668204 0
2.9330003 -1.0968807 0.26692861 0
2.9310002 -1.1006163 0.26703686 0
2.9310002 -1.1051817 0.26703686 0
2.9300003 -1.109327 0.26709098 0
2.9310002 -1.1143126 0.26703686 0
2.9320002 -1.1193019 0.26698273 0
2.9350002 -1.1251463 0.2668204 0
2.6680002 -1.0155758 0.28126889 0
2.6600001 -1.0162323 0.2817018 0
2.6550002 -1.0181533 0.28197241 0
2.6510003 -1.0204893 0.28218883 0
2.6470003 -1.0228108 0.28240532 0
2.6450002 -1.025991 0.28251353 0
2.6420002 -1.0287255 0.28267586 0
2.6400001 -1.0318893 0.2827841 0
2.6390002 -1.0354879 0.28283823 0
2.6380002 -1.039083 0.28289232 0
2.6370001 -1.0426743 0.28294644 0
2.6370001 -1.0467094 0.28294644 0
2.6380002 -1.0511938 0.28289232 0
2.6390002 -1.0556816 0.28283823 0
2.6420002 -1.0610787 0.28267586 0
2.6470003 -1.0673957 0.28240532 0
2.9050002 -1.2253389 0.26844382 0
2.8950002 -1.2251314 0.26898497 0
2.8880002 -1.2263111 0.26936376 0
2.8820002 -1.2279418 0.26968843 0
2.8770003 -1.2300289 0.26995903 0
2.8720002 -1.2320976 0.27022958 0
2.8690002 -1.2351118 0.27039194 0
2.8650002 -1.2376318 0.2706084 0
2.8620002 -1.2406225 0.27077073 0
2.8600001 -1.2440894 0.27087897 0
2.8570001 -1.2470602 0.27104133 0
2.8550003 -1.2505111 0.27114955 0
2.8530002 -1.2539544 0.27125776 0
2.8520002 -1.257885 0.27131188 0
2.8510003 -1.261812 0.271366 0
2.6630001 -1.172637 0.28153947 0
2.6530001 -1.1717224 0.28208062 0
2.6460001 -1.1722761 0.28245941 0
2.6410003 -1.1738113 0.28272998 0
2.6360002 -1.1753283 0.28300056 0
2.6320002 -1.1773341 0.28321701 0
2.6280003 -1.1793255 0.28343347 0
2.6250002 -1.181813 0.2835958 0
2.6220002 -1.1842896 0.28375816 0
2.6190002 -1.1867554 0.2839205 0
2.6160002 -1.1892103 0.28408283 0
2.6140001 -1.1921722 0.28419107 0
2.6120002 -1.1951269 0.28429931 0
2.6100001 -1.1980742 0.28440753 0
2.6090002 -1.2015376 0.28446165 0
2.6070001 -1.2044723 0.28456989 0
2.6060002 -1.2079268 0.28462398 0
2.6050003 -1.2113774 0.2846781 0
2.6050003 -1.2153548 0.2846781 0
2.6040001 -1.2187999 0.28473222 0
2.6040001 -1.2227756 0.28473222 0
2.6050003 -1.2272871 0.2846781 0
2.6050003 -1.2312644 0.2846781 0
2.6070001 -1.2363204 0.28456989 0
2.6080003 -1.2408426 0.28451574 0
2.6110003 -1.2464542 0.28435341 0
2.6150002 -1.2526215 0.28413695 0
2.7300003 -0.72266263 0.27371097 0
2.7210002 -0.72423548 0.27421421 0
2.7150002 -0.72665799 0.27454972 0
2.7120001 -0.72994632 0.27471745 0
2.7080002 -0.73292625 0.27494115 0
2.7060001 -0.73649055 0.27505296 0
2.7040002 -0.74004769 0.27516481 0
2.7030003 -0.74390066 0.27522072 0
2.7020001 -0.74774992 0.27527666 0
2.7010002 -0.75159568 0.27533257 0
2.7010002 -0.75574619 0.27533257 0
2.7020001 -0.760207 0.27527666 0
2.7040002 -0.76498353 0.27516481 0
2.7070003 -0.7700811 0.27499706 0
2.7130003 -0.77613652 0.27466154 0
2.9570003 -1.0791637 0.26101756 0
2.9500003 -1.080935 0.26140898 0
2.9450002 -1.0834965 0.26168856 0
2.9410002 -1.0864491 0.26191223 0
2.9380002 -1.0897988 0.26208001 0
2.9350002 -1.0931377 0.26224774 0
2.9330003 -1.0968807 0.26235956 0
2.9310002 -1.1006163 0.26247141 0
2.9310002 -1.1051817 0.26247141 0
2.9300003 -1.109327 0.26252735 0
2.9310002 -1.1143126 0.26247141 0
2.9320002 -1.1193019 0.2624155 0
2.9350002 -1.1251463 0.26224774 0
2.6680002 -1.0155758 0.27717787 0
2.6600001 -1.0162323 0.2776252 0
2.6550002 -1.0181533 0.27790481 0
2.6510003 -1.0204893 0.27812845 0
2.6470003 -1.0228108 0.27835214 0
2.6450002 -1.025991 0.27846399 0
2.6420002 -1.0287255 0.27863175 0
2.6400001 -1.0318893 0.27874357 0
2.6390002 -1.0354879 0.27879947 0
2.6380002 -1.039083 0.27885538 0
2.6370001 -1.0426743 0.27891135 0
2.6370001 -1.0467094 0.27891135 0
2.6380002 -1.0511938 0.27885538 0
2.6390002 -1.0556816 0.27879947 0
2.6420002 -1.0610787 0.27863175 0
2.6470003 -1.0673957 0.27835214 0
2.9050002 -1.2253389 0.26392528 0
2.8950002 -1.2251314 0.26448447 0
2.8880002 -1.2263111 0.26487589 0
2.8820002 -1.2279418 0.2652114 0
2.8770003 -1.2300289 0.26549098 0
2.8720002 -1.2320976 0.26577058 0
2.8690002 -1.2351118 0.26593834 0
2.8650002 -1.2376318 0.26616198 0
2.8620002 -1.2406225 0.26632977 0
2.8600001 -1.2440894 0.26644158 0
2.8570001 -1.2470602 0.26660937 0
2.8550003 -1.2505111 0.26672119 0
2.8530002 -1.2539544 0.26683304 0
2.8520002 -1.257885 0.26688895 0
2.8510003 -1.261812 0.26694486 0
2.6630001 -1.172637 0.27745748 0
2.6530001 -1.1717224 0.27801663 0
2.6460001 -1.1722761 0.27840805 0
2.6410003 -1.1738113 0.27868766 0
2.6360002 -1.1753283 0.27896726 0
2.6320002 -1.1773341 0.27919093 0
2.6280003 -1.1793255 0.27941459 0
2.6250002 -1.181813 0.27958232 0
2.6220002 -1.1842896 0.27975011 0
2.6190002 -1.1867554 0.27991784 0
2.6160002 -1.1892103 0.28008562 0
2.6140001 -1.1921722 0.28019744 0
2.6120002 -1.1951269 0.28030926 0
2.6100001 -1.1980742 0.28042111 0
2.6090002 -1.2015376 0.28047705 0
2.6070001 -1.2044723 0.28058887 0
2.6060002 -1.2079268 0.28064477 0
2.6050003 -1.2113774 0.28070068 0
2.6050003 -1.2153548 0.28070068 0
2.6040001 -1.2187999 0.28075662 0
2.6040001 -1.2227756 0.28075662 0
2.6050003 -1.2272871 0.28070068 0
2.6050003 -1.2312644 0.28070068 0
2.6070001 -1.2363204 0.28058887 0
2.6080003 -1.2408426 0.28053296 0
2.6110003 -1.2464542 0.28036517 0
2.6150002 -1.2526215 0.2801415 0
2.7300003 -0.72266263 0.26950806 0
2.7210002 -0.72423548 0.27002758 0
2.7160003 -0.72695208 0.27031618 0
2.7120001 -0.72994632 0.27054709 0
2.7080002 -0.73292625 0.27077794 0
2.7060001 -0.73649055 0.27089339 0
2.7040002 -0.74004769 0.27100885 0
2.7030003 -0.74390066 0.27106655 0
2.7020001 -0.74774992 0.2711243 0
2.7010002 -0.75159568 0.271182 0
2.7010002 -0.75574619 0.271182 0
2.7020001 -0.760207 0.2711243 0
2.7040002 -0.76498353 0.27100885 0
2.7070003 -0.7700811 0.27083567 0
2.7130003 -0.77613652 0.27048934 0
2.9570003 -1.0791637 0.2564052 0
2.9500003 -1.080935 0.25680926 0
2.9450002 -1.0834965 0.25709787 0
2.9410002 -1.0864491 0.25732875 0
2.9380002 -1.0897988 0.25750193 0
2.9350002 -1.0931377 0.25767511 0
2.9330003 -1.0968807 0.25779051 0
2.9310002 -1.1006163 0.25790596 0
2.9310002 -1.1051817 0.25790596 0
2.9300003 -1.109327 0.25796369 0
2.9310002 -1.1143126 0.25790596 0
2.9320002 -1.1193019 0.25784826 0
2.9350002 -1.1251463 0.25767511 0
2.6680002 -1.0155758 0.27308685 0
2.6600001 -1.0162323 0.2735486 0
2.6550002 -1.0181533 0.27383721 0
2.6510003 -1.0204893 0.27406812 0
2.6470003 -1.0228108 0.27429897 0
2.6450002 -1.025991 0.27441442 0
2.6420002 -1.0287255 0.2745876 0
2.6400001 -1.0318893 0.27470303 0
2.6390002 -1.0354879 0.27476078 0
2.6380002 -1.039083 0.27481848 0
2.6370001 -1.0426743 0.27487621 0
2.6370001 -1.0467094 0.27487621 0
2.6380002 -1.0511938 0.27481848 0
2.6390002 -1.0556816 0.27476078 0
2.6420002 -1.0610787 0.2745876 0
2.6470003 -1.0673957 0.27429897 0
2.9050002 -1.2253389 0.25940675 0
2.8950002 -1.2251314 0.25998396 0
2.8880002 -1.2263111 0.26038802 0
2.8820002 -1.2279418 0.26073435 0
2.8770003 -1.2300289 0.26102296 0
2.8720002 -1.2320976 0.26131156 0
2.8690002 -1.2351118 0.26148474 0
2.8650002 -1.2376318 0.26171562 0
2.8620002 -1.2406225 0.2618888 0
2.8600001 -1.2440894 0.26200426 0
2.8570001 -1.2470602 0.26217741 0
2.8550003 -1.2505111 0.26229283 0
2.8530002 -1.2539544 0.26240829 0
2.8520002 -1.257885 0.26246601 0
2.8510003 -1.261812 0.26252371 0
2.6630001 -1.172637 0.27337545 0
2.6530001 -1.1717224 0.27395266 0
2.6460001 -1.1722761 0.27435672 0
2.6410003 -1.1738113 0.27464533 0
2.6360002 -1.1753283 0.27493393 0
2.6320002 -1.1773341 0.27516481 0
2.6280003 -1.1793255 0.27539569 0
2.6250002 -1.181813 0.27556887 0
2.6220002 -1.1842896 0.27574205 0
2.6190002 -1.1867554 0.27591521 0
2.6160002 -1.1892103 0.27608836 0
2.6140001 -1.1921722 0.27620381 0
2.6120002 -1.1951269 0.27631927 0
2.6100001 -1.1980742 0.27643472 0
2.6090002 -1.2015376 0.27649242 0
2.6070001 -1.2044723 0.27660787 0
2.6060002 -1.2079268 0.27666557 0
2.6050003 -1.2113774 0.2767233 0
2.6050003 -1.2153548 0.2767233 0
2.6040001 -1.2187999 0.27678102 0
2.6040001 -1.2227756 0.27678102 0
2.6050003 -1.2272871 0.2767233 0
2.6050003 -1.2312644 0.2767233 0
2.6070001 -1.2363204 0.27660787 0
2.6080003 -1.2408426 0.27655011 0
2.6110003 -1.2464542 0.27637696 0
2.6150002 -1.2526215 0.27614608 0
2.7300003 -0.72266263 0.26530519 0
2.7210002 -0.72423548 0.26584095 0
2.7160003 -0.72695208 0.26613855 0
2.7120001 -0.72994632 0.26637667 0
2.7080002 -0.73292625 0.26661476 0
2.7060001 -0.73649055 0.26673383 0
2.7040002 -0.74004769 0.26685286 0
2.7030003 -0.74390066 0.2669124 0
2.7020001 -0.74774992 0.26697192 0
2.7010002 -0.75159568 0.26703143 0
2.7010002 -0.75574619 0.26703143 0
2.7020001 -0.760207 0.26697192 0
2.7040002 -0.76498353 0.26685286 0
2.7070003 -0.7700811 0.26667428 0
2.7130003 -0.77613652 0.26631713 0
2.9570003 -1.0791637 0.25179288 0
2.9500003 -1.080935 0.25220954 0
2.9450002 -1.0834965 0.25250718 0
2.9410002 -1.0864491 0.25274527 0
2.9380002 -1.0897988 0.25292385 0
2.9350002 -1.0931377 0.25310242 0
2.9330003 -1.0968807 0.25322148 0
2.9310002 -1.1006163 0.25334054 0
2.9310002 -1.1051817 0.25334054 0
2.9300003 -1.109327 0.25340006 0
2.9310002 -1.1143126 0.25334054 0
2.9320002 -1.1193019 0.25328103 0
2.9350002 -1.1251463 0.25310242 0
2.6680002 -1.0155758 0.26899579 0
2.6600001 -1.0162323 0.269472 0
2.6550002 -1.0181533 0.26976961 0
2.6510003 -1.0204893 0.27000773 0
2.6470003 -1.0228108 0.27024582 0
2.6450002 -1.025991 0.27036488 0
2.6420002 -1.0287255 0.27054346 0
2.6400001 -1.0318893 0.27066252 0
2.6390002 -1.0354879 0.27072203 0
2.6380002 -1.039083 0.27078158 0
2.6370001 -1.0426743 0.27084109 0
2.6370001 -1.0467094 0.27084109 0
2.6380002 -1.0511938 0.27078158 0
2.6390002 -1.0556816 0.27072203 0
2.6410003 -1.0606259 0.270603 0
2.6470003 -1.0673957 0.27024582 0
2.9050002 -1.2253389 0.25488821 0
2.8950002 -1.2251314 0.25548345 0
2.8880002 -1.2263111 0.25590014 0
2.8820002 -1.2279418 0.2562573 0
2.8770003 -1.2300289 0.2565549 0
2.8720002 -1.2320976 0.25685257 0
2.8690002 -1.2351118 0.25703114 0
2.8650002 -1.2376318 0.25726923 0
2.8620002 -1.2406225 0.25744781 0
2.8600001 -1.2440894 0.25756687 0
2.8570001 -1.2470602 0.25774544 0
2.8550003 -1.2505111 0.25786448 0
2.8530002 -1.2539544 0.25798354 0
2.8520002 -1.257885 0.25804305 0
2.8510003 -1.261812 0.2581026 0
2.6630001 -1.172637 0.26929343 0
2.6530001 -1.1717224 0.2698887 0
2.6460001 -1.1722761 0.27030534 0
2.6410003 -1.1738113 0.270603 0
2.6360002 -1.1753283 0.27090061 0
2.6320002 -1.1773341 0.27113873 0
2.6280003 -1.1793255 0.27137682 0
2.6250002 -1.181813 0.27155539 0
2.6220002 -1.1842896 0.27173397 0
2.6190002 -1.1867554 0.27191254 0
2.6160002 -1.1892103 0.27209112 0
2.6140001 -1.1921722 0.27221018 0
2.6120002 -1.1951269 0.27232921 0
2.6100001 -1.1980742 0.2724483 0
2.6090002 -1.2015376 0.27250779 0
2.6070001 -1.2044723 0.27262688 0
2.6060002 -1.2079268 0.27268636 0
2.6050003 -1.2113774 0.27274591 0
2.6050003 -1.2153548 0.27274591 0
2.6040001 -1.2187999 0.27280545 0
2.6040001 -1.2227756 0.27280545 0
2.6050003 -1.2272871 0.27274591 0
2.6050003 -1.2312644 0.27274591 0
2.6070001 -1.2363204 0.27262688 0
2.6080003 -1.2408426 0.27256733 0
2.6110003 -1.2464542 0.27238876 0
2.6150002 -1.2526215 0.27215064 0
2.7300003 -0.72266263 0.26110232 0
2.7210002 -0.72423548 0.26165432 0
2.7160003 -0.72695208 0.26196092 0
2.7120001 -0.72994632 0.26220626 0
2.7080002 -0.73292625 0.26245159 0
2.7060001 -0.73649055 0.26257426 0
2.7040002 -0.74004769 0.26269689 0
2.7030003 -0.74390066 0.2627582 0
2.7020001 -0.74774992 0.26281953 0
2.7010002 -0.75159568 0.26288089 0
2.7010002 -0.75574619 0.26288089 0
2.7020001 -0.760207 0.26281953 0
2.7040002 -0.76498353 0.26269689 0
2.7070003 -0.7700811 0.26251292 0
2.7130003 -0.77613652 0.26214492 0
2.9570003 -1.0791637 0.24718054 0
2.9500003 -1.080935 0.24760984 0
2.9450002 -1.0834965 0.2479165 0
2.9410002 -1.0864491 0.24816181 0
2.9380002 -1.0897988 0.24834579 0
2.9350002 -1.0931377 0.24852979 0
2.9330003 -1.0968807 0.24865243 0
2.9310002 -1.1006163 0.24877511 0
2.9310002 -1.1051817 0.24877511 0
2.9300003 -1.109327 0.24883643 0
2.9310002 -1.1143126 0.24877511 0
2.9320002 -1.1193019 0.24871378 0
2.9350002 -1.1251463 0.24852979 0
2.6680002 -1.0155758 0.26490474 0
2.6600001 -1.0162323 0.2653954 0
2.6550002 -1.0181533 0.26570204 0
2.6510003 -1.0204893 0.26594734 0
2.6470003 -1.0228108 0.26619267 0
2.6450002 -1.025991 0.26631534 0
2.6420002 -1.0287255 0.26649934 0
2.6400001 -1.0318893 0.26662198 0
2.6390002 -1.0354879 0.26668331 0
2.6380002 -1.039083 0.26674464 0
2.6370001 -1.0426743 0.26680598 0
2.6370001 -1.0467094 0.26680598 0
2.6380002 -1.0511938 0.26674464 0
2.6390002 -1.0556816 0.26668331 0
2.6410003 -1.0606259 0.26656064 0
2.6470003 -1.0673957 0.26619267 0
2.8950002 -1.2251314 0.25098297 0
2.8880002 -1.2263111 0.25141227 0
2.8820002 -1.2279418 0.25178027 0
2.8770003 -1.2300289 0.25208688 0
2.8720002 -1.2320976 0.25239354 0
2.8690002 -1.2351118 0.25257754 0
2.8650002 -1.2376318 0.25282285 0
2.8620002 -1.2406225 0.25300682 0
2.8600001 -1.2440894 0.25312948 0
2.8570001 -1.2470602 0.25331348 0
2.8550003 -1.2505111 0.25343615 0
2.8530002 -1.2539544 0.25355881 0
2.8520002 -1.257885 0.25362015 0
2.8510003 -1.261812 0.25368145 0
2.6630001 -1.172637 0.2652114 0
2.6530001 -1.1717224 0.26582471 0
2.6460001 -1.1722761 0.26625401 0
2.6410003 -1.1738113 0.26656064 0
2.6360002 -1.1753283 0.26686728 0
2.6320002 -1.1773341 0.26711261 0
2.6280003 -1.1793255 0.26735795 0
2.6250002 -1.181813 0.26754194 0
2.6220002 -1.1842896 0.26772591 0
2.6190002 -1.1867554 0.26790988 0
2.6160002 -1.1892103 0.26809388 0
2.6140001 -1.1921722 0.26821655 0
2.6120002 -1.1951269 0.26833922 0
2.6100001 -1.1980742 0.26846188 0
2.6090002 -1.2015376 0.26852322 0
2.6070001 -1.2044723 0.26864585 0
2.6060002 -1.2079268 0.26870716 0
2.6050003 -1.2113774 0.26876849 0
2.6050003 -1.2153548 0.26876849 0
2.6040001 -1.2187999 0.26882985 0
2.6040001 -1.2227756 0.26882985 0
2.6050003 -1.2272871 0.26876849 0
2.6050003 -1.2312644 0.26876849 0
2.6070001 -1.2363204 0.26864585 0
2.6080003 -1.2408426 0.26858452 0
2.6110003 -1.2464542 0.26840055 0
2.6150002 -1.2526215 0.26815522 0
2.7300003 -0.72266263 0.25689948 0
2.7210002 -0.72423548 0.25746766 0
2.7160003 -0.72695208 0.25778332 0
2.7120001 -0.72994632 0.25803587 0
2.7080002 -0.73292625 0.25828838 0
2.7060001 -0.73649055 0.25841466 0
2.7040002 -0.74004769 0.25854093 0
2.7030003 -0.74390066 0.25860405 0
2.7020001 -0.74774992 0.25866717 0
2.7010002 -0.75159568 0.25873032 0
2.7010002 -0.75574619 0.25873032 0
2.7020001 -0.760207 0.25866717 0
2.7040002 -0.76498353 0.25854093 0
2.7070003 -0.7700811 0.2583515 0
2.7130003 -0.77613652 0.25797272 0
2.9570003 -1.0791637 0.24256819 0
2.9500003 -1.080935 0.24301012 0
2.9450002 -1.0834965 0.2433258 0
2.9410002 -1.0864491 0.24357833 0
2.9380002 -1.0897988 0.24376774 0
2.9350002 -1.0931377 0.24395713 0
2.9330003 -1.0968807 0.24408339 0
2.9310002 -1.1006163 0.24420966 0
2.9310002 -1.1051817 0.24420966 0
2.9300003 -1.109327 0.24427278 0
2.9310002 -1.1143126 0.24420966 0
2.9320002 -1.1193019 0.24414653 0
2.9350002 -1.1251463 0.24395713 0
2.6680002 -1.0155758 0.26081371 0
2.6600001 -1.0162323 0.2613188 0
2.6550002 -1.0181533 0.26163447 0
2.6510003 -1.0204893 0.26188698 0
2.6470003 -1.0228108 0.2621395 0
2.6450002 -1.025991 0.2622658 0
2.6420002 -1.0287255 0.26245517 0
2.6400001 -1.0318893 0.26258147 0
2.6390002 -1.0354879 0.26264459 0
2.6380002 -1.039083 0.26270771 0
2.6370001 -1.0426743 0.26277086 0
2.6370001 -1.0467094 0.26277086 0
2.6380002 -1.0511938 0.26270771 0
2.6390002 -1.0556816 0.26264459 0
2.6410003 -1.0606259 0.26251832 0
2.6470003 -1.0673957 0.2621395 0
2.8950002 -1.2251314 0.24648246 0
2.8880002 -1.2263111 0.2469244 0
2.8820002 -1.2279418 0.2473032 0
2.8770003 -1.2300289 0.24761885 0
2.8720002 -1.2320976 0.24793452 0
2.8690002 -1.2351118 0.24812393 0
2.8650002 -1.2376318 0.24837644 0
2.8620002 -1.2406225 0.24856585 0
2.8600001 -1.2440894 0.24869214 0
2.8570001 -1.2470602 0.24888153 0
2.8550003 -1.2505111 0.24900779 0
2.8530002 -1.2539544 0.24913406 0
2.8520002 -1.257885 0.24919719 0
2.8510003 -1.261812 0.24926032 0
2.6630001 -1.172637 0.26112938 0
2.6530001 -1.1717224 0.26176071 0
2.6460001 -1.1722761 0.26220265 0
2.6410003 -1.1738113 0.26251832 0
2.6360002 -1.1753283 0.26283398 0
2.6320002 -1.1773341 0.2630865 0
2.6280003 -1.1793255 0.26333904 0
2.6250002 -1.181813 0.26352844 0
2.6220002 -1.1842896 0.26371783 0
2.6190002 -1.1867554 0.26390725 0
2.6160002 -1.1892103 0.26409665 0
2.6140001 -1.1921722 0.26422292 0
2.6120002 -1.1951269 0.26434916 0
2.6100001 -1.1980742 0.26447546 0
2.6090002 -1.2015376 0.26453859 0
2.6070001 -1.2044723 0.26466483 0
2.6060002 -1.2079268 0.26472798 0
2.6050003 -1.2113774 0.26479113 0
2.6050003 -1.2153548 0.26479113 0
2.6040001 -1.2187999 0.26485425 0
2.6040001 -1.2227756 0.26485425 0
2.6050003 -1.2272871 0.26479113 0
2.6050003 -1.2312644 0.26479113 0
2.6070001 -1.2363204 0.26466483 0
2.6080003 -1.2408426 0.26460171 0
2.6110003 -1.2464542 0.26441228 0
2.6150002 -1.2526215 0.26415977 0
2.7300003 -0.72266263 0.25269657 0
2.7210002 -0.72423548 0.25328103 0
2.7160003 -0.72695208 0.25360569 0
2.7120001 -0.72994632 0.25386545 0
2.7080002 -0.73292625 0.25412518 0
2.7060001 -0.73649055 0.25425509 0
2.7040002 -0.74004769 0.25438493 0
2.7030003 -0.74390066 0.25444987 0
2.7020001 -0.74774992 0.25451481 0
2.7010002 -0.75159568 0.25457975 0
2.7010002 -0.75574619 0.25457975 0
2.7020001 -0.760207 0.25451481 0
2.7040002 -0.76498353 0.25438493 0
2.7070003 -0.7700811 0.25419015 0
2.7130003 -0.77613652 0.25380051 0
2.9570003 -1.0791637 0.23795587 0
2.9500003 -1.080935 0.23841041 0
2.9450002 -1.0834965 0.23873511 0
2.9410002 -1.0864491 0.23899485 0
2.9380002 -1.0897988 0.23918967 0
2.9350002 -1.0931377 0.23938447 0
2.9330003 -1.0968807 0.23951434 0
2.9310002 -1.1006163 0.23964423 0
2.9310002 -1.1051817 0.23964423 0
2.9300003 -1.109327 0.23970915 0
2.9310002 -1.1143126 0.23964423 0
2.9320002 -1.1193019 0.23957929 0
2.9350002 -1.1251463 0.23938447 0
2.6680002 -1.0155758 0.25672269 0
2.6600001 -1.0162323 0.2572422 0
2.6550002 -1.0181533 0.25756687 0
2.6510003 -1.0204893 0.25782663 0
2.6470003 -1.0228108 0.25808635 0
2.6450002 -1.025991 0.25821623 0
2.6420002 -1.0287255 0.25841105 0
2.6400001 -1.0318893 0.25854093 0
2.6390002 -1.0354879 0.25860584 0
2.6380002 -1.039083 0.25867078 0
2.6370001 -1.0426743 0.25873575 0
2.6370001 -1.0467094 0.25873575 0
2.6380002 -1.0511938 0.25867078 0
2.6390002 -1.0556816 0.25860584 0
2.6410003 -1.0606259 0.25847596 0
2.6470003 -1.0673957 0.25808635 0
2.8950002 -1.2251314 0.24198195 0
2.8880002 -1.2263111 0.24243651 0
2.8820002 -1.2279418 0.24282613 0
2.8770003 -1.2300289 0.24315082 0
2.8720002 -1.2320976 0.24347551 0
2.8690002 -1.2351118 0.24367033 0
2.8650002 -1.2376318 0.24393007 0
2.8620002 -1.2406225 0.24412489 0
2.8600001 -1.2440894 0.24425477 0
2.8570001 -1.2470602 0.24444957 0
2.8550003 -1.2505111 0.24457943 0
2.8530002 -1.2539544 0.24470933 0
2.8520002 -1.257885 0.24477425 0
2.8510003 -1.261812 0.24483919 0
2.6630001 -1.172637 0.25704736 0
2.6530001 -1.1717224 0.25769675 0
2.6460001 -1.1722761 0.25815129 0
2.6410003 -1.1738113 0.25847596 0
2.6360002 -1.1753283 0.25880069 0
2.6320002 -1.1773341 0.25906041 0
2.6280003 -1.1793255 0.25932014 0
2.6250002 -1.181813 0.25951499 0
2.6220002 -1.1842896 0.25970978 0
2.6190002 -1.1867554 0.25990459 0
2.6160002 -1.1892103 0.26009941 0
2.6140001 -1.1921722 0.26022929 0
2.6120002 -1.1951269 0.26035917 0
2.6100001 -1.1980742 0.26048905 0
2.6090002 -1.2015376 0.26055396 0
2.6070001 -1.2044723 0.26068383 0
2.6060002 -1.2079268 0.2607488 0
2.6050003 -1.2113774 0.26081371 0
2.6050003 -1.2153548 0.26081371 0
2.6040001 -1.2187999 0.26087865 0
2.6040001 -1.2227756 0.26087865 0
2.6050003 -1.2272871 0.26081371 0
2.6050003 -1.2312644 0.26081371 0
2.6070001 -1.2363204 0.26068383 0
2.6080003 -1.2408426 0.2606189 0
2.6110003 -1.2464542 0.26042408 0
2.6150002 -1.2526215 0.26016432 0
2.7300003 -0.72266263 0.2484937 0
2.7210002 -0.72423548 0.24909437 0
2.7160003 -0.72695208 0.24942806 0
2.7120001 -0.72994632 0.24969505 0
2.7080002 -0.73292625 0.249962 0
2.7060001 -0.73649055 0.25009549 0
2.7040002 -0.74004769 0.25022894 0
2.7030003 -0.74390066 0.2502957 0
2.7020001 -0.74774992 0.25036246 0
2.7010002 -0.75159568 0.25042921 0
2.7010002 -0.75574619 0.25042921 0
2.7020001 -0.760207 0.25036246 0
2.7040002 -0.76498353 0.25022894 0
2.7070003 -0.7700811 0.25002873 0
2.7130003 -0.77613652 0.24962829 0
2.9570003 -1.0791637 0.23334351 0
2.9500003 -1.080935 0.23381071 0
2.9450002 -1.0834965 0.23414442 0
2.9410002 -1.0864491 0.23441137 0
2.9380002 -1.0897988 0.2346116 0
2.9350002 -1.0931377 0.23481181 0
2.9330003 -1.0968807 0.2349453 0
2.9310002 -1.1006163 0.23507878 0
2.9310002 -1.1051817 0.23507878 0
2.9300003 -1.109327 0.23514552 0
2.9310002 -1.1143126 0.23507878 0
2.9320002 -1.1193019 0.23501204 0
2.9350002 -1.1251463 0.23481181 0
2.6680002 -1.0155758 0.25263163 0
2.6600001 -1.0162323 0.25316557 0
2.6550002 -1.0181533 0.25349927 0
2.6510003 -1.0204893 0.25376624 0
2.6470003 -1.0228108 0.25403321 0
2.6450002 -1.025991 0.25416669 0
2.6420002 -1.0287255 0.2543669 0
2.6400001 -1.0318893 0.25450039 0
2.6390002 -1.0354879 0.25456715 0
2.6380002 -1.039083 0.25463384 0
2.6370001 -1.0426743 0.2547006 0
2.6370001 -1.0467094 0.2547006 0
2.6380002 -1.0511938 0.25463384 0
2.6390002 -1.0556816 0.25456715 0
2.6410003 -1.0606259 0.25443363 0
2.6470003 -1.0673957 0.25403321 0
2.8950002 -1.2251314 0.23748146 0
2.8880002 -1.2263111 0.23794864 0
2.8820002 -1.2279418 0.23834908 0
2.8770003 -1.2300289 0.23868278 0
2.8720002 -1.2320976 0.2390165 0
2.8690002 -1.2351118 0.23921672 0
2.8650002 -1.2376318 0.23948368 0
2.8620002 -1.2406225 0.23968391 0
2.8600001 -1.2440894 0.2398174 0
2.8570001 -1.2470602 0.24001761 0
2.8550003 -1.2505111 0.24015109 0
2.8530002 -1.2539544 0.24028458 0
2.8520002 -1.257885 0.2403513 0
2.8510003 -1.261812 0.24041805 0
2.6630001 -1.172637 0.25296533 0
2.6530001 -1.1717224 0.25363278 0
2.6460001 -1.1722761 0.25409994 0
2.6410003 -1.1738113 0.25443363 0
2.6360002 -1.1753283 0.25476736 0
2.6320002 -1.1773341 0.25503433 0
2.6280003 -1.1793255 0.2553013 0
2.6250002 -1.181813 0.25550151 0
2.6220002 -1.1842896 0.25570172 0
2.6190002 -1.1867554 0.25590193 0
2.6160002 -1.1892103 0.25610217 0
2.6140001 -1.1921722 0.25623566 0
2.6120002 -1.1951269 0.25636914 0
2.6100001 -1.1980742 0.25650263 0
2.6090002 -1.2015376 0.25656936 0
2.6070001 -1.2044723 0.25670284 0
2.6060002 -1.2079268 0.2567696 0
2.6050003 -1.2113774 0.2568363 0
2.6050003 -1.2153548 0.2568363 0
2.6040001 -1.2187999 0.25690305 0
2.6040001 -1.2227756 0.25690305 0
2.6050003 -1.2272871 0.2568363 0
2.6050003 -1.2312644 0.2568363 0
2.6070001 -1.2363204 0.25670284 0
2.6080003 -1.2408426 0.25663608 0
2.6110003 -1.2464542 0.25643587 0
2.6150002 -1.2526215 0.2561689 0
2.7300003 -0.72266263 0.24429083 0
2.7210002 -0.72423548 0.24490774 0
2.7160003 -0.72695208 0.24525045 0
2.7120001 -0.72994632 0.24552464 0
2.7080002 -0.73292625 0.24579883 0
2.7060001 -0.73649055 0.24593592 0
2.7040002 -0.74004769 0.24607299 0
2.7030003 -0.74390066 0.24614154 0
2.7020001 -0.74774992 0.2462101 0
2.7010002 -0.75159568 0.24627863 0
2.7010002 -0.75574619 0.24627863 0
2.7020001 -0.760207 0.2462101 0
2.7040002 -0.76498353 0.24607299 0
2.7070003 -0.7700811 0.24586736 0
2.7130003 -0.77613652 0.2454561 0
2.9570003 -1.0791637 0.22873117 0
2.9500003 -1.080935 0.22921099 0
2.9450002 -1.0834965 0.22955371 0
2.9410002 -1.0864491 0.2298279 0
2.9380002 -1.0897988 0.23003355 0
2.9350002 -1.0931377 0.23023917 0
2.9330003 -1.0968807 0.23037626 0
2.9310002 -1.1006163 0.23051333 0
2.9310002 -1.1051817 0.23051333 0
2.9300003 -1.109327 0.23058188 0
2.9310002 -1.1143126 0.23051333 0
2.9320002 -1.1193019 0.2304448 0
2.9350002 -1.1251463 0.23023917 0
2.6680002 -1.0155758 0.2485406 0
2.6600001 -1.0162323 0.24908897 0
2.6550002 -1.0181533 0.24943168 0
2.6510003 -1.0204893 0.24970585 0
2.6470003 -1.0228108 0.24998003 0
2.6450002 -1.025991 0.25011712 0
2.6420002 -1.0287255 0.25032276 0
2.6400001 -1.0318893 0.25045985 0
2.6390002 -1.0354879 0.2505284 0
2.6380002 -1.039083 0.25059694 0
2.6370001 -1.0426743 0.25066549 0
2.6370001 -1.0467094 0.25066549 0
2.6380002 -1.0511938 0.25059694 0
2.6390002 -1.0556816 0.2505284 0
2.6410003 -1.0606259 0.2503913 0
2.6470003 -1.0673957 0.24998003 0
2.8950002 -1.2251314 0.23298095 0
2.8880002 -1.2263111 0.23346077 0
2.8820002 -1.2279418 0.23387204 0
2.8770003 -1.2300289 0.23421475 0
2.8720002 -1.2320976 0.23455748 0
2.8690002 -1.2351118 0.23476312 0
2.8650002 -1.2376318 0.2350373 0
2.8620002 -1.2406225 0.23524293 0
2.8600001 -1.2440894 0.23538002 0
2.8570001 -1.2470602 0.23558567 0
2.8550003 -1.2505111 0.23572274 0
2.8530002 -1.2539544 0.23585983 0
2.8520002 -1.257885 0.23592839 0
2.8510003 -1.261812 0.23599692 0
2.6630001 -1.172637 0.24888334 0
2.6530001 -1.1717224 0.24956879 0
2.6460001 -1.1722761 0.25004858 0
2.6410003 -1.1738113 0.2503913 0
2.6360002 -1.1753283 0.25073403 0
2.6320002 -1.1773341 0.25100821 0
2.6280003 -1.1793255 0.25128239 0
2.6250002 -1.181813 0.25148803 0
2.6220002 -1.1842896 0.25169367 0
2.6190002 -1.1867554 0.2518993 0
2.6160002 -1.1892103 0.25210494 0
2.6140001 -1.1921722 0.25224203 0
2.6120002 -1.1951269 0.25237912 0
2.6100001 -1.1980742 0.25251621 0
2.6090002 -1.2015376 0.25258476 0
2.6070001 -1.2044723 0.25272185 0
2.6060002 -1.2079268 0.25279039 0
2.6050003 -1.2113774 0.25285891 0
2.6050003 -1.2153548 0.25285891 0
2.6040001 -1.2187999 0.25292748 0
2.6040001 -1.2227756 0.25292748 0
2.6050003 -1.2272871 0.25285891 0
2.6050003 -1.2312644 0.25285891 0
2.6070001 -1.2363204 0.25272185 0
2.6080003 -1.2408426 0.2526533 0
2.6110003 -1.2464542 0.25244766 0
2.6150002 -1.2526215 0.25217348 0
2.7300003 -0.72266263 0.24008796 0
2.7210002 -0.72423548 0.24072109 0
2.7160003 -0.72695208 0.24107283 0
2.7120001 -0.72994632 0.24135424 0
2.7080002 -0.73292625 0.24163564 0
2.7060001 -0.73649055 0.24177633 0
2.7040002 -0.74004769 0.24191703 0
2.7030003 -0.74390066 0.24198736 0
2.7020001 -0.74774992 0.24205773 0
2.7010002 -0.75159568 0.24212806 0
2.7010002 -0.75574619 0.24212806 0
2.7020001 -0.760207 0.24205773 0
2.7040002 -0.76498353 0.24191703 0
2.7070003 -0.7700811 0.24170597 0
2.7130003 -0.77613652 0.24128388 0
2.9580002 -1.0795677 0.22404851 0
2.9500003 -1.080935 0.22461128 0
2.9450002 -1.0834965 0.22496302 0
2.9410002 -1.0864491 0.22524442 0
2.9380002 -1.0897988 0.22545548 0
2.9350002 -1.0931377 0.22566651 0
2.9330003 -1.0968807 0.2258072 0
2.9310002 -1.1006163 0.2259479 0
2.9310002 -1.1051817 0.2259479 0
2.9300003 -1.109327 0.22601825 0
2.9310002 -1.1143126 0.2259479 0
2.9320002 -1.1193019 0.22587757 0
2.9350002 -1.1251463 0.22566651 0
2.6680002 -1.0155758 0.24444957 0
2.6600001 -1.0162323 0.24501236 0
2.6550002 -1.0181533 0.2453641 0
2.6510003 -1.0204893 0.24564548 0
2.6470003 -1.0228108 0.24592687 0
2.6450002 -1.025991 0.24606758 0
2.6420002 -1.0287255 0.24627863 0
2.6400001 -1.0318893 0.24641934 0
2.6390002 -1.0354879 0.24648967 0
2.6380002 -1.039083 0.24656002 0
2.6370001 -1.0426743 0.24663039 0
2.6370001 -1.0467094 0.24663039 0
2.6380002 -1.0511938 0.24656002 0
2.6390002 -1.0556816 0.24648967 0
2.6410003 -1.0606259 0.24634896 0
2.6460001 -1.066941 0.24599724 0
2.8950002 -1.2251314 0.22848044 0
2.8880002 -1.2263111 0.2289729 0
2.8820002 -1.2279418 0.22939499 0
2.8770003 -1.2300289 0.22974671 0
2.8720002 -1.2320976 0.23009847 0
2.8690002 -1.2351118 0.23030952 0
2.8650002 -1.2376318 0.23059089 0
2.8620002 -1.2406225 0.23080195 0
2.8600001 -1.2440894 0.23094265 0
2.8570001 -1.2470602 0.23115371 0
2.8550003 -1.2505111 0.23129439 0
2.8530002 -1.2539544 0.23143511 0
2.8520002 -1.257885 0.23150544 0
2.8510003 -1.261812 0.23157579 0
2.6630001 -1.172637 0.24480131 0
2.6530001 -1.1717224 0.2455048 0
2.6460001 -1.1722761 0.24599724 0
2.6410003 -1.1738113 0.24634896 0
2.6360002 -1.1753283 0.24670072 0
2.6320002 -1.1773341 0.24698211 0
2.6280003 -1.1793255 0.24726351 0
2.6250002 -1.181813 0.24747455 0
2.6220002 -1.1842896 0.2476856 0
2.6190002 -1.1867554 0.24789666 0
2.6160002 -1.1892103 0.24810769 0
2.6140001 -1.1921722 0.2482484 0
2.6120002 -1.1951269 0.24838908 0
2.6100001 -1.1980742 0.24852979 0
2.6090002 -1.2015376 0.24860014 0
2.6070001 -1.2044723 0.24874084 0
2.6060002 -1.2079268 0.24881117 0
2.6050003 -1.2113774 0.24888153 0
2.6050003 -1.2153548 0.24888153 0
2.6040001 -1.2187999 0.24895188 0
2.6040001 -1.2227756 0.24895188 0
2.6050003 -1.2272871 0.24888153 0
2.6050003 -1.2312644 0.24888153 0
2.6070001 -1.2363204 0.24874084 0
2.6080003 -1.2408426 0.24867047 0
2.6110003 -1.2464542 0.24845941 0
2.6150002 -1.2526215 0.24817804 0
2.6240003 -1.2615359 0.2475449 0
2.7300003 -0.72266263 0.23588508 0
2.7210002 -0.72423548 0.23653446 0
2.7160003 -0.72695208 0.23689522 0
2.7120001 -0.72994632 0.23718382 0
2.7080002 -0.73292625 0.23747243 0
2.7060001 -0.73649055 0.23761675 0
2.7040002 -0.74004769 0.23776105 0
2.7030003 -0.74390066 0.23783319 0
2.7020001 -0.74774992 0.23790535 0
2.7010002 -0.75159568 0.23797749 0
2.7010002 -0.75574619 0.23797749 0
2.7020001 -0.760207 0.23790535 0
2.7040002 -0.76498353 0.23776105 0
2.7070003 -0.7700811 0.23754458 0
2.7130003 -0.77613652 0.23711167 0
2.9580002 -1.0795677 0.21943435 0
2.9500003 -1.080935 0.22001156 0
2.9450002 -1.0834965 0.22037233 0
2.9410002 -1.0864491 0.22066094 0
2.9380002 -1.0897988 0.22087741 0
2.9350002 -1.0931377 0.22109386 0
2.9330003 -1.0968807 0.22123817 0
2.9310002 -1.1006163 0.22138247 0
2.9310002 -1.1051817 0.22138247 0
2.9300003 -1.109327 0.22145461 0
2.9310002 -1.1143126 0.22138247 0
2.9320002 -1.1193019 0.22131033 0
2.9350002 -1.1251463 0.22109386 0
2.6680002 -1.0155758 0.24035853 0
2.6600001 -1.0162323 0.24093576 0
2.6550002 -1.0181533 0.24129651 0
2.6510003 -1.0204893 0.24158511 0
2.6470003 -1.0228108 0.24187373 0
2.6450002 -1.025991 0.24201804 0
2.6420002 -1.0287255 0.24223448 0
2.6400001 -1.0318893 0.2423788 0
2.6390002 -1.0354879 0.24245095 0
2.6380002 -1.039083 0.2425231 0
2.6370001 -1.0426743 0.24259527 0
2.6370001 -1.0467094 0.24259527 0
2.6380002 -1.0511938 0.2425231 0
2.6390002 -1.0556816 0.24245095 0
2.6410003 -1.0606259 0.24230663 0
2.6460001 -1.066941 0.24194588 0
2.8950002 -1.2251314 0.22397995 0
2.8880002 -1.2263111 0.22448502 0
2.8820002 -1.2279418 0.22491793 0
2.8770003 -1.2300289 0.22527869 0
2.8720002 -1.2320976 0.22563946 0
2.8690002 -1.2351118 0.22585592 0
2.8650002 -1.2376318 0.22614452 0
2.8620002 -1.2406225 0.22636098 0
2.8600001 -1.2440894 0.22650529 0
2.8570001 -1.2470602 0.22672175 0
2.8550003 -1.2505111 0.22686605 0
2.8530002 -1.2539544 0.22701035 0
2.8520002 -1.257885 0.22708251 0
2.8510003 -1.261812 0.22715464 0
2.6630001 -1.172637 0.24071929 0
2.6530001 -1.1717224 0.24144082 0
2.6460001 -1.1722761 0.24194588 0
2.6410003 -1.1738113 0.24230663 0
2.6360002 -1.1753283 0.24266741 0
2.6320002 -1.1773341 0.24295601 0
2.6280003 -1.1793255 0.24324462 0
2.6250002 -1.181813 0.24346107 0
2.6220002 -1.1842896 0.24367754 0
2.6190002 -1.1867554 0.243894 0
2.6160002 -1.1892103 0.24411047 0
2.6140001 -1.1921722 0.24425477 0
2.6120002 -1.1951269 0.24439906 0
2.6100001 -1.1980742 0.24454337 0
2.6090002 -1.2015376 0.24461553 0
2.6070001 -1.2044723 0.24475983 0
2.6060002 -1.2079268 0.24483198 0
2.6050003 -1.2113774 0.24490413 0
2.6050003 -1.2153548 0.24490413 0
2.6040001 -1.2187999 0.24497628 0
2.6040001 -1.2227756 0.24497628 0
2.6050003 -1.2272871 0.24490413 0
2.6050003 -1.2312644 0.24490413 0
2.6070001 -1.2363204 0.24475983 0
2.6080003 -1.2408426 0.24468766 0
2.6110003 -1.2464542 0.24447121 0
2.6150002 -1.2526215 0.2441826 0
2.6240003 -1.2615359 0.24353322 0
2.7300003 -0.72266263 0.23168221 0
2.7210002 -0.72423548 0.23234782 0
2.7160003 -0.72695208 0.23271759 0
2.7120001 -0.72994632 0.23301344 0
2.7080002 -0.73292625 0.23330924 0
2.7060001 -0.73649055 0.23345718 0
2.7040002 -0.74004769 0.23360507 0
2.7030003 -0.74390066 0.23367901 0
2.7020001 -0.74774992 0.23375298 0
2.7010002 -0.75159568 0.23382695 0
2.7010002 -0.75574619 0.23382695 0
2.7020001 -0.760207 0.23375298 0
2.7040002 -0.76498353 0.23360507 0
2.7070003 -0.7700811 0.23338321 0
2.7130003 -0.77613652 0.23293947 0
2.9580002 -1.0795677 0.21482021 0
2.9500003 -1.080935 0.21541186 0
2.9450002 -1.0834965 0.21578164 0
2.9410002 -1.0864491 0.21607746 0
2.9380002 -1.0897988 0.21629934 0
2.9350002 -1.0931377 0.2165212 0
2.9330003 -1.0968807 0.2166691 0
2.9310002 -1.1006163 0.21681704 0
2.9310002 -1.1051817 0.21681704 0
2.9300003 -1.109327 0.21689098 0
2.9310002 -1.1143126 0.21681704 0
2.9320002 -1.1193019 0.21674308 0
2.9350002 -1.1251463 0.2165212 0
2.6680002 -1.0155758 0.23626749 0
2.6600001 -1.0162323 0.23685916 0
2.6550002 -1.0181533 0.23722893 0
2.6510003 -1.0204893 0.23752475 0
2.6470003 -1.0228108 0.23782057 0
2.6450002 -1.025991 0.23796849 0
2.6420002 -1.0287255 0.23819035 0
2.6400001 -1.0318893 0.23833826 0
2.6390002 -1.0354879 0.23841222 0
2.6380002 -1.039083 0.23848619 0
2.6370001 -1.0426743 0.23856014 0
2.6370001 -1.0467094 0.23856014 0
2.6380002 -1.0511938 0.23848619 0
2.6390002 -1.0556816 0.23841222 0
2.6410003 -1.0606259 0.23826431 0
2.6460001 -1.066941 0.23789454 0
2.8950002 -1.2251314 0.21947946 0
2.8880002 -1.2263111 0.21999715 0
2.8820002 -1.2279418 0.22044089 0
2.8770003 -1.2300289 0.22081065 0
2.8720002 -1.2320976 0.22118044 0
2.8690002 -1.2351118 0.22140232 0
2.8650002 -1.2376318 0.22169814 0
2.8620002 -1.2406225 0.22192 0
2.8600001 -1.2440894 0.22206792 0
2.8570001 -1.2470602 0.2222898 0
2.8550003 -1.2505111 0.22243769 0
2.8530002 -1.2539544 0.2225856 0
2.8520002 -1.257885 0.22265956 0
2.8510003 -1.261812 0.22273351 0
2.6630001 -1.172637 0.23663729 0
2.6530001 -1.1717224 0.23737684 0
2.6460001 -1.1722761 0.23789454 0
2.6410003 -1.1738113 0.23826431 0
2.6360002 -1.1753283 0.23863409 0
2.6320002 -1.1773341 0.23892993 0
2.6280003 -1.1793255 0.23922573 0
2.6250002 -1.181813 0.23944761 0
2.6220002 -1.1842896 0.23966947 0
2.6190002 -1.1867554 0.23989135 0
2.6160002 -1.1892103 0.24011321 0
2.6140001 -1.1921722 0.24026112 0
2.6120002 -1.1951269 0.24040903 0
2.6100001 -1.1980742 0.24055696 0
2.6090002 -1.2015376 0.24063089 0
2.6070001 -1.2044723 0.24077883 0
2.6060002 -1.2079268 0.24085277 0
2.6050003 -1.2113774 0.24092673 0
2.6050003 -1.2153548 0.24092673 0
2.6040001 -1.2187999 0.2410007 0
2.6040001 -1.2227756 0.2410007 0
2.6050003 -1.2272871 0.24092673 0
2.6050003 -1.2312644 0.24092673 0
2.6070001 -1.2363204 0.24077883 0
2.6080003 -1.2408426 0.24070485 0
2.6110003 -1.2464542 0.24048299 0
2.6150002 -1.2526215 0.24018717 0
2.6240003 -1.2615359 0.23952156 0
2.7300003 -0.72266263 0.22747934 0
2.7210002 -0.72423548 0.22816119 0
2.7160003 -0.72695208 0.22853997 0
2.7120001 -0.72994632 0.22884302 0
2.7080002 -0.73292625 0.22914606 0
2.7060001 -0.73649055 0.22929759 0
2.7040002 -0.74004769 0.22944909 0
2.7020001 -0.74359757 0.22960062 0
2.7020001 -0.74774992 0.22960062 0
2.7010002 -0.75159568 0.22967638 0
2.7010002 -0.75574619 0.22967638 0
2.7020001 -0.760207 0.22960062 0
2.7040002 -0.76498353 0.22944909 0
2.7070003 -0.7700811 0.22922182 0
2.7130003 -0.77613652 0.22876725 0
2.9580002 -1.0795677 0.21020608 0
2.9500003 -1.080935 0.21081215 0
2.9450002 -1.0834965 0.21119097 0
2.9410002 -1.0864491 0.21149398 0
2.9380002 -1.0897988 0.21172127 0
2.9350002 -1.0931377 0.21194856 0
2.9330003 -1.0968807 0.21210006 0
2.9310002 -1.1006163 0.2122516 0
2.9310002 -1.1051817 0.2122516 0
2.9300003 -1.109327 0.21232735 0
2.9310002 -1.1143126 0.2122516 0
2.9320002 -1.1193019 0.21217583 0
2.9350002 -1.1251463 0.21194856 0
2.6680002 -1.0155758 0.23217645 0
2.6600001 -1.0162323 0.23278254 0
2.6550002 -1.0181533 0.23316133 0
2.6510003 -1.0204893 0.23346438 0
2.6470003 -1.0228108 0.23376741 0
2.6450002 -1.025991 0.23391894 0
2.6420002 -1.0287255 0.23414622 0
2.6400001 -1.0318893 0.23429774 0
2.6390002 -1.0354879 0.23437349 0
2.6380002 -1.039083 0.23444925 0
2.6370001 -1.0426743 0.23452502 0
2.6370001 -1.0467094 0.23452502 0
2.6380002 -1.0511938 0.23444925 0
2.6390002 -1.0556816 0.23437349 0
2.6410003 -1.0606259 0.23422197 0
2.6460001 -1.066941 0.23384318 0
2.8950002 -1.2251314 0.21497895 0
