# .PCD v0.7 - Point Cloud Data file format
VERSION 0.7
FIELDS x y z intensity
SIZE 4 4 4 4
TYPE F F F F
COUNT 1 1 1 1
WIDTH 1378
HEIGHT 1
VIEWPOINT 0 0 0 1 0 0 0
POINTS 1378
DATA ascii
2.7010002 -0.57727206 0.29608539 0
2.6960001 -0.58025908 0.2963199 0
2.6920002 -0.58346272 0.29650748 0
2.6890001 -0.58688813 0.29664817 0
2.6860001 -0.59030277 0.29678887 0
2.6830001 -0.59370655 0.29692957 0
2.6810002 -0.59734124 0.29702336 0
2.6800003 -0.6012122 0.29707026 0
2.6780002 -0.6048342 0.29716405 0
2.6770003 -0.60869622 0.29721096 0
2.6760001 -0.61255449 0.29725784 0
2.6760001 -0.61666 0.29725784 0
2.6760001 -0.62076545 0.29725784 0
2.6760001 -0.62487096 0.29725784 0
2.6760001 -0.6289764 0.29725784 0
2.6770003 -0.63333982 0.29721096 0
2.6790001 -0.63796651 0.29711717 0
2.6810002 -0.6426006 0.29702336 0
2.6830001 -0.64724171 0.29692957 0
2.6870003 -0.65242052 0.29674196 0
2.6930003 -0.65814763 0.29646057 0
2.7030003 -0.66497141 0.29599157 0
2.8940003 -0.32941797 0.28253517 0
2.8900001 -0.33345488 0.28272998 0
2.8860002 -0.33747736 0.2829248 0
2.7240002 -0.32267532 0.29081464 0
2.7150002 -0.32577968 0.29125297 0
2.7090001 -0.32921952 0.29154521 0
2.7040002 -0.33276224 0.2917887 0
2.7000003 -0.33641315 0.29198352 0
2.6970003 -0.34017769 0.29212964 0
2.6940002 -0.34393141 0.29227573 0
2.6920002 -0.34780598 0.29237315 0
2.6900003 -0.35167336 0.29247054 0
2.6890001 -0.35566878 0.29251927 0
2.6870003 -0.35952353 0.29261667 0
2.6870003 -0.36364883 0.29261667 0
2.6860001 -0.36763343 0.29266536 0
2.6860001 -0.37175691 0.29266536 0
2.6860001 -0.37588045 0.29266536 0
2.6870003 -0.38015008 0.29261667 0
2.6880002 -0.38442329 0.29256797 0
2.6890001 -0.3887001 0.29251927 0
2.6920002 -0.39328358 0.29237315 0
2.6940002 -0.39772457 0.29227573 0
2.6970003 -0.4023279 0.29212964 0
2.7020001 -0.40725589 0.29188612 0
2.7090001 -0.4125194 0.29154521 0
3.1940002 -0.6356613 0.26792431 0
3.1850002 -0.63878548 0.26836264 0
3.1790001 -0.6425212 0.26865488 0
3.1750002 -0.64666814 0.26884967 0
3.1730003 -0.65123719 0.26894706 0
3.1710002 -0.65579903 0.26904452 0
3.1700003 -0.66057551 0.26909319 0
3.1690001 -0.66534841 0.26914191 0
2.7270002 -0.57068276 0.29066855 0
2.7140002 -0.57192558 0.29130167 0
2.7070003 -0.57449597 0.29164261 0
2.7010002 -0.57727206 0.29193482 0
2.6960001 -0.58025908 0.29217833 0
2.6920002 -0.58346272 0.29237315 0
2.6890001 -0.58688813 0.29251927 0
2.6860001 -0.59030277 0.29266536 0
2.6830001 -0.59370655 0.29281148 0
2.6810002 -0.59734124 0.29290888 0
2.6800003 -0.6012122 0.29295757 0
2.6780002 -0.6048342 0.293055 0
2.6770003 -0.60869622 0.29310369 0
2.6760001 -0.61255449 0.29315239 0
2.6760001 -0.61666 0.29315239 0
2.6760001 -0.62076545 0.29315239 0
2.6760001 -0.62487096 0.29315239 0
2.6760001 -0.6289764 0.29315239 0
2.6770003 -0.63333982 0.29310369 0
2.6790001 -0.63796651 0.2930063 0
2.6810002 -0.6426006 0.29290888 0
2.6830001 -0.64724171 0.29281148 0
2.6870003 -0.65242052 0.29261667 0
2.6930003 -0.65814763 0.29232442 0
2.7030003 -0.66497141 0.29183739 0
2.8940003 -0.32941797 0.27803648 0
2.8900001 -0.33345488 0.27823851 0
2.8860002 -0.33747736 0.27844054 0
2.7240002 -0.32267532 0.28662258 0
2.7150002 -0.32577968 0.28707719 0
2.7090001 -0.32921952 0.28738022 0
2.7040002 -0.33276224 0.28763273 0
2.7000003 -0.33641315 0.28783476 0
2.6970003 -0.34017769 0.28798628 0
2.6940002 -0.34393141 0.28813779 0
2.6920002 -0.34780598 0.28823882 0
2.6900003 -0.35167336 0.28833982 0
2.6890001 -0.35566878 0.28839034 0
2.6870003 -0.35952353 0.28849137 0
2.6870003 -0.36364883 0.28849137 0
2.6860001 -0.36763343 0.28854185 0
2.6860001 -0.37175691 0.28854185 0
2.6860001 -0.37588045 0.28854185 0
2.6870003 -0.38015008 0.28849137 0
2.6880002 -0.38442329 0.28844085 0
2.6890001 -0.3887001 0.28839034 0
2.6920002 -0.39328358 0.28823882 0
2.6940002 -0.39772457 0.28813779 0
2.6970003 -0.4023279 0.28798628 0
2.7020001 -0.40725589 0.28773376 0
2.7090001 -0.4125194 0.28738022 0
3.1940002 -0.6356613 0.2628845 0
3.1850002 -0.63878548 0.26333904 0
3.1790001 -0.6425212 0.26364207 0
3.1750002 -0.64666814 0.26384413 0
3.1730003 -0.65123719 0.26394513 0
3.1710002 -0.65579903 0.26404613 0
3.1700003 -0.66057551 0.26409665 0
3.1690001 -0.66534841 0.26414716 0
2.7270002 -0.57068276 0.28647107 0
2.7140002 -0.57192558 0.28712767 0
2.7070003 -0.57449597 0.28748122 0
2.7010002 -0.57727206 0.28778428 0
2.6960001 -0.58025908 0.28803679 0
2.6920002 -0.58346272 0.28823882 0
2.6890001 -0.58688813 0.28839034 0
2.6860001 -0.59030277 0.28854185 0
2.6830001 -0.59370655 0.28869337 0
2.6810002 -0.59734124 0.2887944 0
2.6800003 -0.6012122 0.28884488 0
2.6780002 -0.6048342 0.28894591 0
2.6770003 -0.60869622 0.2889964 0
2.6760001 -0.61255449 0.28904694 0
2.6760001 -0.61666 0.28904694 0
2.6760001 -0.62076545 0.28904694 0
2.6760001 -0.62487096 0.28904694 0
2.6760001 -0.6289764 0.28904694 0
2.6770003 -0.63333982 0.2889964 0
2.6790001 -0.63796651 0.2888954 0
2.6810002 -0.6426006 0.2887944 0
2.6830001 -0.64724171 0.28869337 0
2.6870003 -0.65242052 0.28849137 0
2.6930003 -0.65814763 0.28818831 0
2.7030003 -0.66497141 0.28768325 0
2.8940003 -0.32941797 0.27353778 0
2.8900001 -0.33345488 0.27374703 0
2.8860002 -0.33747736 0.27395627 0
2.7240002 -0.32267532 0.28243056 0
2.7150002 -0.32577968 0.28290135 0
2.7090001 -0.32921952 0.28321522 0
2.7040002 -0.33276224 0.28347677 0
2.7000003 -0.33641315 0.28368601 0
2.6970003 -0.34017769 0.28384292 0
2.6940002 -0.34393141 0.28399986 0
2.6920002 -0.34780598 0.2841045 0
2.6900003 -0.35167336 0.2842091 0
2.6890001 -0.35566878 0.28426141 0
2.6870003 -0.35952353 0.28436604 0
2.6870003 -0.36364883 0.28436604 0
2.6860001 -0.36763343 0.28441834 0
2.6860001 -0.37175691 0.28441834 0
2.6860001 -0.37588045 0.28441834 0
2.6870003 -0.38015008 0.28436604 0
2.6880002 -0.38442329 0.28431374 0
2.6890001 -0.3887001 0.28426141 0
2.6920002 -0.39328358 0.2841045 0
2.6940002 -0.39772457 0.28399986 0
2.6970003 -0.4023279 0.28384292 0
2.7020001 -0.40725589 0.28358138 0
2.7090001 -0.4125194 0.28321522 0
3.1940002 -0.6356613 0.25784466 0
3.1850002 -0.63878548 0.25831544 0
3.1790001 -0.6425212 0.25862932 0
3.1750002 -0.64666814 0.25883853 0
3.1730003 -0.65123719 0.25894314 0
3.1710002 -0.65579903 0.25904781 0
3.1700003 -0.66057551 0.25910008 0
3.1690001 -0.66534841 0.25915241 0
2.7270002 -0.57068276 0.28227362 0
2.7140002 -0.57192558 0.28295365 0
2.7070003 -0.57449597 0.28331983 0
2.7010002 -0.57727206 0.28363371 0
2.6960001 -0.58025908 0.28389525 0
2.6920002 -0.58346272 0.2841045 0
2.6890001 -0.58688813 0.28426141 0
2.6860001 -0.59030277 0.28441834 0
2.6830001 -0.59370655 0.28457528 0
2.6810002 -0.59734124 0.28467989 0
2.6800003 -0.6012122 0.28473222 0
2.6780002 -0.6048342 0.28483683 0
2.6770003 -0.60869622 0.28488913 0
2.6760001 -0.61255449 0.28494146 0
2.6760001 -0.61666 0.28494146 0
2.6760001 -0.62076545 0.28494146 0
2.6760001 -0.62487096 0.28494146 0
2.6760001 -0.6289764 0.28494146 0
2.6770003 -0.63333982 0.28488913 0
2.6790001 -0.63796651 0.28478453 0
2.6810002 -0.6426006 0.28467989 0
2.6830001 -0.64724171 0.28457528 0
2.6870003 -0.65242052 0.28436604 0
2.6930003 -0.65814763 0.28405216 0
2.7030003 -0.66497141 0.28352907 0
2.8940003 -0.32941797 0.26903909 0
2.8900001 -0.33345488 0.26925555 0
2.8860002 -0.33747736 0.269472 0
2.7240002 -0.32267532 0.27823851 0
2.7150002 -0.32577968 0.27872553 0
2.7090001 -0.32921952 0.27905023 0
2.7040002 -0.33276224 0.27932078 0
2.7000003 -0.33641315 0.27953723 0
2.6970003 -0.34017769 0.27969959 0
2.6940002 -0.34393141 0.27986193 0
2.6920002 -0.34780598 0.27997017 0
2.6900003 -0.35167336 0.28007838 0
2.6890001 -0.35566878 0.2801325 0
2.6870003 -0.35952353 0.28024071 0
2.6870003 -0.36364883 0.28024071 0
2.6860001 -0.36763343 0.28029484 0
2.6860001 -0.37175691 0.28029484 0
2.6860001 -0.37588045 0.28029484 0
2.6870003 -0.38015008 0.28024071 0
2.6880002 -0.38442329 0.28018662 0
2.6890001 -0.3887001 0.2801325 0
2.6920002 -0.39328358 0.27997017 0
2.6940002 -0.39772457 0.27986193 0
2.6970003 -0.4023279 0.27969959 0
2.7020001 -0.40725589 0.27942902 0
2.7090001 -0.4125194 0.27905023 0
3.1940002 -0.6356613 0.25280482 0
3.1850002 -0.63878548 0.25329185 0
3.1790001 -0.6425212 0.25361651 0
3.1750002 -0.64666814 0.253833 0
3.1730003 -0.65123719 0.25394118 0
3.1710002 -0.65579903 0.25404942 0
3.1700003 -0.66057551 0.25410354 0
3.1690001 -0.66534841 0.25415766 0
2.7270002 -0.57068276 0.27807617 0
2.7140002 -0.57192558 0.27877963 0
2.7070003 -0.57449597 0.27915844 0
2.7010002 -0.57727206 0.27948314 0
2.6960001 -0.58025908 0.27975371 0
2.6920002 -0.58346272 0.27997017 0
2.6890001 -0.58688813 0.2801325 0
2.6860001 -0.59030277 0.28029484 0
2.6830001 -0.59370655 0.2804572 0
2.6810002 -0.59734124 0.28056541 0
2.6800003 -0.6012122 0.2806195 0
2.6780002 -0.6048342 0.28072774 0
2.6770003 -0.60869622 0.28078187 0
2.6760001 -0.61255449 0.28083599 0
2.6760001 -0.61666 0.28083599 0
2.6760001 -0.62076545 0.28083599 0
2.6760001 -0.62487096 0.28083599 0
2.6760001 -0.6289764 0.28083599 0
2.6770003 -0.63333982 0.28078187 0
2.6790001 -0.63796651 0.28067365 0
2.6810002 -0.6426006 0.28056541 0
2.6830001 -0.64724171 0.2804572 0
2.6870003 -0.65242052 0.28024071 0
2.6930003 -0.65814763 0.27991605 0
2.7030003 -0.66497141 0.2793749 0
2.8940003 -0.32941797 0.26454037 0
2.8900001 -0.33345488 0.26476407 0
2.8860002 -0.33747736 0.26498774 0
2.7240002 -0.32267532 0.27404645 0
2.7150002 -0.32577968 0.27454972 0
2.7090001 -0.32921952 0.27488524 0
2.7040002 -0.33276224 0.27516481 0
2.7000003 -0.33641315 0.27538848 0
2.6970003 -0.34017769 0.27555624 0
2.6940002 -0.34393141 0.27572399 0
2.6920002 -0.34780598 0.27583581 0
2.6900003 -0.35167336 0.27594766 0
2.6890001 -0.35566878 0.2760036 0
2.6870003 -0.35952353 0.27611542 0
2.6870003 -0.36364883 0.27611542 0
2.6860001 -0.36763343 0.27617136 0
2.6860001 -0.37175691 0.27617136 0
2.6860001 -0.37588045 0.27617136 0
2.6870003 -0.38015008 0.27611542 0
2.6880002 -0.38442329 0.27605951 0
2.6890001 -0.3887001 0.2760036 0
2.6920002 -0.39328358 0.27583581 0
2.6940002 -0.39772457 0.27572399 0
2.6970003 -0.4023279 0.27555624 0
2.7020001 -0.40725589 0.27527666 0
2.7090001 -0.4125194 0.27488524 0
3.1940002 -0.6356613 0.24776496 0
3.1850002 -0.63878548 0.24826825 0
3.1790001 -0.6425212 0.24860375 0
3.1750002 -0.64666814 0.24882741 0
3.1730003 -0.65123719 0.24893925 0
3.1710002 -0.65579903 0.24905109 0
3.1700003 -0.66057551 0.24910699 0
3.1690001 -0.66534841 0.24916291 0
2.7270002 -0.57068276 0.27387869 0
2.7140002 -0.57192558 0.27460563 0
2.7070003 -0.57449597 0.27499706 0
2.7010002 -0.57727206 0.27533257 0
2.6960001 -0.58025908 0.27561218 0
2.6920002 -0.58346272 0.27583581 0
2.6890001 -0.58688813 0.2760036 0
2.6860001 -0.59030277 0.27617136 0
2.6830001 -0.59370655 0.27633911 0
2.6810002 -0.59734124 0.27645093 0
2.6800003 -0.6012122 0.27650684 0
2.6780002 -0.6048342 0.27661869 0
2.6770003 -0.60869622 0.2766746 0
2.6760001 -0.61255449 0.27673054 0
2.6760001 -0.61666 0.27673054 0
2.6760001 -0.62076545 0.27673054 0
2.6760001 -0.62487096 0.27673054 0
2.6760001 -0.6289764 0.27673054 0
2.6770003 -0.63333982 0.2766746 0
2.6790001 -0.63796651 0.27656275 0
2.6810002 -0.6426006 0.27645093 0
2.6830001 -0.64724171 0.27633911 0
2.6870003 -0.65242052 0.27611542 0
2.6930003 -0.65814763 0.2757799 0
2.7030003 -0.66497141 0.27522072 0
2.8940003 -0.32941797 0.26004168 0
2.8900001 -0.33345488 0.26027256 0
2.8860002 -0.33747736 0.26050347 0
2.7240002 -0.32267532 0.2698544 0
2.7150002 -0.32577968 0.27037391 0
2.7090001 -0.32921952 0.27072024 0
2.7040002 -0.33276224 0.27100885 0
2.7000003 -0.33641315 0.27123973 0
2.6970003 -0.34017769 0.27141291 0
2.6940002 -0.34393141 0.27158606 0
2.6920002 -0.34780598 0.27170151 0
2.6900003 -0.35167336 0.27181694 0
2.6890001 -0.35566878 0.27187467 0
2.6870003 -0.35952353 0.27199012 0
2.6870003 -0.36364883 0.27199012 0
2.6860001 -0.36763343 0.27204782 0
2.6860001 -0.37175691 0.27204782 0
2.6860001 -0.37588045 0.27204782 0
2.6870003 -0.38015008 0.27199012 0
2.6880002 -0.38442329 0.27193239 0
2.6890001 -0.3887001 0.27187467 0
2.6920002 -0.39328358 0.27170151 0
2.6940002 -0.39772457 0.27158606 0
2.6970003 -0.4023279 0.27141291 0
2.7020001 -0.40725589 0.2711243 0
2.7090001 -0.4125194 0.27072024 0
3.1940002 -0.6356613 0.24272513 0
3.1850002 -0.63878548 0.24324463 0
3.1790001 -0.6425212 0.24359097 0
3.1750002 -0.64666814 0.24382184 0
3.1730003 -0.65123719 0.24393728 0
3.1710002 -0.65579903 0.24405272 0
3.1700003 -0.66057551 0.24411045 0
3.1690001 -0.66534841 0.24416818 0
2.7270002 -0.57068276 0.26968122 0
2.7140002 -0.57192558 0.27043164 0
2.7070003 -0.57449597 0.27083567 0
2.7010002 -0.57727206 0.271182 0
2.6960001 -0.58025908 0.27147061 0
2.6920002 -0.58346272 0.27170151 0
2.6890001 -0.58688813 0.27187467 0
2.6860001 -0.59030277 0.27204782 0
2.6830001 -0.59370655 0.27222103 0
2.6810002 -0.59734124 0.27233642 0
2.6800003 -0.6012122 0.27239418 0
2.6780002 -0.6048342 0.2725096 0
2.6770003 -0.60869622 0.27256733 0
2.6760001 -0.61255449 0.27262506 0
2.6760001 -0.61666 0.27262506 0
2.6760001 -0.62076545 0.27262506 0
2.6760001 -0.62487096 0.27262506 0
2.6760001 -0.6289764 0.27262506 0
2.6770003 -0.63333982 0.27256733 0
2.6790001 -0.63796651 0.27245188 0
2.6810002 -0.6426006 0.27233642 0
2.6830001 -0.64724171 0.27222103 0
2.6870003 -0.65242052 0.27199012 0
2.6930003 -0.65814763 0.27164376 0
2.7030003 -0.66497141 0.27106655 0
2.8940003 -0.32941797 0.25554299 0
2.8900001 -0.33345488 0.25578111 0
2.8860002 -0.33747736 0.2560192 0
2.7240002 -0.32267532 0.26566237 0
2.7150002 -0.32577968 0.2661981 0
2.7090001 -0.32921952 0.26655525 0
2.7040002 -0.33276224 0.26685286 0
2.7000003 -0.33641315 0.26709098 0
2.6970003 -0.34017769 0.26726955 0
2.6940002 -0.34393141 0.26744813 0
2.6920002 -0.34780598 0.26756716 0
2.6900003 -0.35167336 0.26768622 0
2.6890001 -0.35566878 0.26774573 0
2.6870003 -0.35952353 0.26786479 0
2.6870003 -0.36364883 0.26786479 0
2.6860001 -0.36763343 0.26792431 0
2.6860001 -0.37175691 0.26792431 0
2.6860001 -0.37588045 0.26792431 0
2.6870003 -0.38015008 0.26786479 0
2.6880002 -0.38442329 0.26780528 0
2.6890001 -0.3887001 0.26774573 0
2.6920002 -0.39328358 0.26756716 0
2.6940002 -0.39772457 0.26744813 0
2.6970003 -0.4023279 0.26726955 0
2.7020001 -0.40725589 0.26697192 0
2.7090001 -0.4125194 0.26655525 0
3.1940002 -0.6356613 0.23768529 0
3.1850002 -0.63878548 0.23822102 0
3.1790001 -0.6425212 0.23857819 0
3.1750002 -0.64666814 0.23881628 0
3.1730003 -0.65123719 0.23893532 0
3.1710002 -0.65579903 0.23905437 0
3.1700003 -0.66057551 0.23911391 0
3.1690001 -0.66534841 0.23917344 0
2.7270002 -0.57068276 0.26548377 0
2.7140002 -0.57192558 0.26625758 0
2.7070003 -0.57449597 0.26667428 0
2.7010002 -0.57727206 0.26703143 0
2.6960001 -0.58025908 0.2673291 0
2.6920002 -0.58346272 0.26756716 0
2.6890001 -0.58688813 0.26774573 0
2.6860001 -0.59030277 0.26792431 0
2.6830001 -0.59370655 0.26810291 0
2.6810002 -0.59734124 0.26822197 0
2.6800003 -0.6012122 0.26828146 0
2.6780002 -0.6048342 0.26840055 0
2.6770003 -0.60869622 0.26846004 0
2.6760001 -0.61255449 0.26851958 0
2.6760001 -0.61666 0.26851958 0
2.6760001 -0.62076545 0.26851958 0
2.6760001 -0.62487096 0.26851958 0
2.6760001 -0.6289764 0.26851958 0
2.6770003 -0.63333982 0.26846004 0
2.6790001 -0.63796651 0.268341 0
2.6810002 -0.6426006 0.26822197 0
2.6830001 -0.64724171 0.26810291 0
2.6870003 -0.65242052 0.26786479 0
2.6930003 -0.65814763 0.26750764 0
2.7030003 -0.66497141 0.2669124 0
2.8940003 -0.32941797 0.25104427 0
2.8900001 -0.33345488 0.25128961 0
2.8860002 -0.33747736 0.25153494 0
2.7240002 -0.32267532 0.26147032 0
2.7150002 -0.32577968 0.26202226 0
2.7090001 -0.32921952 0.26239026 0
2.7040002 -0.33276224 0.26269689 0
2.7000003 -0.33641315 0.26294219 0
2.6970003 -0.34017769 0.26312619 0
2.6940002 -0.34393141 0.26331019 0
2.6920002 -0.34780598 0.26343286 0
2.6900003 -0.35167336 0.2635555 0
2.6890001 -0.35566878 0.26361683 0
2.6870003 -0.35952353 0.2637395 0
2.6870003 -0.36364883 0.2637395 0
2.6860001 -0.36763343 0.26380083 0
2.6860001 -0.37175691 0.26380083 0
2.6860001 -0.37588045 0.26380083 0
2.6870003 -0.38015008 0.2637395 0
2.6880002 -0.38442329 0.26367816 0
2.6890001 -0.3887001 0.26361683 0
2.6920002 -0.39328358 0.26343286 0
2.6940002 -0.39772457 0.26331019 0
2.6970003 -0.4023279 0.26312619 0
2.7020001 -0.40725589 0.26281953 0
2.7090001 -0.4125194 0.26239026 0
3.1940002 -0.6356613 0.23264545 0
3.1850002 -0.63878548 0.23319742 0
3.1790001 -0.6425212 0.23356539 0
3.1750002 -0.64666814 0.23381071 0
3.1730003 -0.65123719 0.23393336 0
3.1710002 -0.65579903 0.23405603 0
3.1700003 -0.66057551 0.23411734 0
3.1690001 -0.66534841 0.23417869 0
2.7270002 -0.57068276 0.26128632 0
2.7140002 -0.57192558 0.26208359 0
2.7070003 -0.57449597 0.26251292 0
2.7010002 -0.57727206 0.26288089 0
2.6960001 -0.58025908 0.26318753 0
2.6920002 -0.58346272 0.26343286 0
2.6890001 -0.58688813 0.26361683 0
2.6860001 -0.59030277 0.26380083 0
2.6830001 -0.59370655 0.2639848 0
2.6810002 -0.59734124 0.26410747 0
2.6800003 -0.6012122 0.2641688 0
2.6780002 -0.6048342 0.26429147 0
2.6770003 -0.60869622 0.2643528 0
2.6760001 -0.61255449 0.26441413 0
2.6760001 -0.61666 0.26441413 0
2.6760001 -0.62076545 0.26441413 0
2.6760001 -0.62487096 0.26441413 0
2.6760001 -0.6289764 0.26441413 0
2.6770003 -0.63333982 0.2643528 0
2.6790001 -0.63796651 0.26423013 0
2.6810002 -0.6426006 0.26410747 0
2.6830001 -0.64724171 0.2639848 0
2.6870003 -0.65242052 0.2637395 0
2.6930003 -0.65814763 0.26337153 0
2.7030003 -0.66497141 0.2627582 0
2.8940003 -0.32941797 0.24654558 0
2.8900001 -0.33345488 0.24679813 0
2.8860002 -0.33747736 0.24705066 0
2.7240002 -0.32267532 0.25727826 0
2.7150002 -0.32577968 0.25784647 0
2.7090001 -0.32921952 0.25822526 0
2.7040002 -0.33276224 0.25854093 0
2.7000003 -0.33641315 0.25879344 0
2.6970003 -0.34017769 0.25898284 0
2.6940002 -0.34393141 0.25917226 0
2.6920002 -0.34780598 0.2592985 0
2.6900003 -0.35167336 0.25942478 0
2.6890001 -0.35566878 0.25948793 0
2.6870003 -0.35952353 0.25961417 0
2.6870003 -0.36364883 0.25961417 0
2.6860001 -0.36763343 0.25967732 0
2.6860001 -0.37175691 0.25967732 0
2.6860001 -0.37588045 0.25967732 0
2.6870003 -0.38015008 0.25961417 0
2.6880002 -0.38442329 0.25955105 0
2.6890001 -0.3887001 0.25948793 0
2.6920002 -0.39328358 0.2592985 0
2.6940002 -0.39772457 0.25917226 0
2.6970003 -0.4023279 0.25898284 0
2.7020001 -0.40725589 0.25866717 0
2.7090001 -0.4125194 0.25822526 0
3.1940002 -0.6356613 0.2276056 0
3.1850002 -0.63878548 0.22817381 0
3.1790001 -0.6425212 0.22855261 0
3.1750002 -0.64666814 0.22880515 0
3.1730003 -0.65123719 0.2289314 0
3.1710002 -0.65579903 0.22905767 0
3.1700003 -0.66057551 0.22912081 0
3.1690001 -0.66534841 0.22918394 0
2.7270002 -0.57068276 0.25708884 0
2.7140002 -0.57192558 0.2579096 0
2.7070003 -0.57449597 0.2583515 0
2.7010002 -0.57727206 0.25873032 0
2.6960001 -0.58025908 0.25904599 0
2.6920002 -0.58346272 0.2592985 0
2.6890001 -0.58688813 0.25948793 0
2.6860001 -0.59030277 0.25967732 0
2.6830001 -0.59370655 0.25986671 0
2.6810002 -0.59734124 0.25999296 0
2.6800003 -0.6012122 0.26005611 0
2.6780002 -0.6048342 0.26018238 0
2.6770003 -0.60869622 0.2602455 0
2.6760001 -0.61255449 0.26030865 0
2.6760001 -0.61666 0.26030865 0
2.6760001 -0.62076545 0.26030865 0
2.6760001 -0.62487096 0.26030865 0
2.6760001 -0.6289764 0.26030865 0
2.6770003 -0.63333982 0.2602455 0
2.6790001 -0.63796651 0.26011926 0
2.6810002 -0.6426006 0.25999296 0
2.6830001 -0.64724171 0.25986671 0
2.6870003 -0.65242052 0.25961417 0
2.6930003 -0.65814763 0.25923538 0
2.7030003 -0.66497141 0.25860405 0
2.8940003 -0.32941797 0.24204689 0
2.8900001 -0.33345488 0.24230665 0
2.8860002 -0.33747736 0.24256639 0
2.7240002 -0.32267532 0.25308621 0
2.7150002 -0.32577968 0.25367063 0
2.7090001 -0.32921952 0.25406027 0
2.7040002 -0.33276224 0.25438493 0
2.7000003 -0.33641315 0.25464469 0
2.6970003 -0.34017769 0.25483948 0
2.6940002 -0.34393141 0.25503433 0
2.6920002 -0.34780598 0.25516421 0
2.6900003 -0.35167336 0.25529405 0
2.6890001 -0.35566878 0.25535899 0
2.6870003 -0.35952353 0.25548887 0
2.6870003 -0.36364883 0.25548887 0
2.6860001 -0.36763343 0.25555384 0
2.6860001 -0.37175691 0.25555384 0
2.6860001 -0.37588045 0.25555384 0
2.6870003 -0.38015008 0.25548887 0
2.6880002 -0.38442329 0.25542393 0
2.6890001 -0.3887001 0.25535899 0
2.6920002 -0.39328358 0.25516421 0
2.6940002 -0.39772457 0.25503433 0
2.6970003 -0.4023279 0.25483948 0
2.7020001 -0.40725589 0.25451481 0
2.7090001 -0.4125194 0.25406027 0
3.1940002 -0.6356613 0.22256576 0
3.1850002 -0.63878548 0.22315021 0
3.1790001 -0.6425212 0.22353983 0
3.1750002 -0.64666814 0.22379957 0
3.1730003 -0.65123719 0.22392944 0
3.1710002 -0.65579903 0.22405931 0
3.1700003 -0.66057551 0.22412425 0
3.1690001 -0.66534841 0.22418919 0
2.7270002 -0.57068276 0.25289139 0
2.7140002 -0.57192558 0.25373557 0
2.7070003 -0.57449597 0.25419015 0
2.7010002 -0.57727206 0.25457975 0
2.6960001 -0.58025908 0.25490445 0
2.6920002 -0.58346272 0.25516421 0
2.6890001 -0.58688813 0.25535899 0
2.6860001 -0.59030277 0.25555384 0
2.6830001 -0.59370655 0.25574863 0
2.6810002 -0.59734124 0.25587851 0
2.6800003 -0.6012122 0.25594342 0
2.6780002 -0.6048342 0.2560733 0
2.6770003 -0.60869622 0.25613824 0
2.6760001 -0.61255449 0.25620317 0
2.6760001 -0.61666 0.25620317 0
2.6760001 -0.62076545 0.25620317 0
2.6760001 -0.62487096 0.25620317 0
2.6760001 -0.6289764 0.25620317 0
2.6770003 -0.63333982 0.25613824 0
2.6790001 -0.63796651 0.25600839 0
2.6810002 -0.6426006 0.25587851 0
2.6830001 -0.64724171 0.25574863 0
2.6870003 -0.65242052 0.25548887 0
2.6930003 -0.65814763 0.25509924 0
2.7030003 -0.66497141 0.25444987 0
2.8940003 -0.32941797 0.23754819 0
2.8900001 -0.33345488 0.23781517 0
2.8860002 -0.33747736 0.23808213 0
2.7240002 -0.32267532 0.24889414 0
2.7150002 -0.32577968 0.24949484 0
2.7090001 -0.32921952 0.24989527 0
2.7040002 -0.33276224 0.25022894 0
2.7000003 -0.33641315 0.25049591 0
2.6970003 -0.34017769 0.25069615 0
2.6940002 -0.34393141 0.25089639 0
2.6920002 -0.34780598 0.25102985 0
2.6900003 -0.35167336 0.25116333 0
2.6890001 -0.35566878 0.25123009 0
2.6870003 -0.35952353 0.25136358 0
2.6870003 -0.36364883 0.25136358 0
2.6860001 -0.36763343 0.25143033 0
2.6860001 -0.37175691 0.25143033 0
2.6860001 -0.37588045 0.25143033 0
2.6870003 -0.38015008 0.25136358 0
2.6880002 -0.38442329 0.25129682 0
2.6890001 -0.3887001 0.25123009 0
2.6920002 -0.39328358 0.25102985 0
2.6940002 -0.39772457 0.25089639 0
2.6970003 -0.4023279 0.25069615 0
2.7020001 -0.40725589 0.25036246 0
2.7090001 -0.4125194 0.24989527 0
3.1940002 -0.6356613 0.21752593 0
3.1850002 -0.63878548 0.2181266 0
3.1790001 -0.6425212 0.21852705 0
3.1750002 -0.64666814 0.218794 0
3.1730003 -0.65123719 0.21892749 0
3.1710002 -0.65579903 0.21906096 0
3.1700003 -0.66057551 0.2191277 0
3.1690001 -0.66534841 0.21919446 0
2.7270002 -0.57068276 0.24869393 0
2.7140002 -0.57192558 0.24956156 0
2.7070003 -0.57449597 0.25002873 0
2.7010002 -0.57727206 0.25042921 0
2.6960001 -0.58025908 0.25076288 0
2.6920002 -0.58346272 0.25102985 0
2.6890001 -0.58688813 0.25123009 0
2.6860001 -0.59030277 0.25143033 0
2.6830001 -0.59370655 0.25163054 0
2.6810002 -0.59734124 0.251764 0
2.6800003 -0.6012122 0.25183076 0
2.6780002 -0.6048342 0.25196424 0
2.6770003 -0.60869622 0.25203097 0
2.6760001 -0.61255449 0.25209773 0
2.6760001 -0.61666 0.25209773 0
2.6760001 -0.62076545 0.25209773 0
2.6760001 -0.62487096 0.25209773 0
2.6760001 -0.6289764 0.25209773 0
2.6770003 -0.63333982 0.25203097 0
2.6790001 -0.63796651 0.25189751 0
2.6810002 -0.6426006 0.251764 0
2.6830001 -0.64724171 0.25163054 0
2.6870003 -0.65242052 0.25136358 0
2.6930003 -0.65814763 0.25096309 0
2.7030003 -0.66497141 0.2502957 0
2.8940003 -0.32941797 0.23304948 0
2.8900001 -0.33345488 0.23332368 0
2.8860002 -0.33747736 0.23359786 0
2.7240002 -0.32267532 0.2447021 0
2.7150002 -0.32577968 0.24531901 0
2.7090001 -0.32921952 0.24573027 0
2.7040002 -0.33276224 0.24607299 0
2.7000003 -0.33641315 0.24634716 0
2.6970003 -0.34017769 0.24655281 0
2.6940002 -0.34393141 0.24675845 0
2.6920002 -0.34780598 0.24689554 0
2.6900003 -0.35167336 0.24703263 0
2.6890001 -0.35566878 0.24710117 0
2.6870003 -0.35952353 0.24723825 0
2.6870003 -0.36364883 0.24723825 0
2.6860001 -0.36763343 0.24730679 0
2.6860001 -0.37175691 0.24730679 0
2.6860001 -0.37588045 0.24730679 0
2.6870003 -0.38015008 0.24723825 0
2.6880002 -0.38442329 0.24716972 0
2.6890001 -0.3887001 0.24710117 0
2.6920002 -0.39328358 0.24689554 0
2.6940002 -0.39772457 0.24675845 0
2.6970003 -0.4023279 0.24655281 0
2.7020001 -0.40725589 0.2462101 0
2.7090001 -0.4125194 0.24573027 0
3.1940002 -0.6356613 0.21248609 0
3.1850002 -0.63878548 0.213103 0
3.1790001 -0.6425212 0.21351425 0
3.1750002 -0.64666814 0.21378843 0
3.1730003 -0.65123719 0.21392553 0
3.1710002 -0.65579903 0.21406262 0
3.1700003 -0.66057551 0.21413115 0
3.1690001 -0.66534841 0.21419971 0
2.7270002 -0.57068276 0.24449646 0
2.7140002 -0.57192558 0.24538754 0
2.7070003 -0.57449597 0.24586736 0
2.7010002 -0.57727206 0.24627863 0
2.6960001 -0.58025908 0.24662136 0
2.6920002 -0.58346272 0.24689554 0
2.6890001 -0.58688813 0.24710117 0
2.6860001 -0.59030277 0.24730679 0
2.6830001 -0.59370655 0.24751244 0
2.6810002 -0.59734124 0.24764952 0
2.6800003 -0.6012122 0.24771807 0
2.6780002 -0.6048342 0.24785516 0
2.6770003 -0.60869622 0.2479237 0
2.6760001 -0.61255449 0.24799226 0
2.6760001 -0.61666 0.24799226 0
2.6760001 -0.62076545 0.24799226 0
2.6760001 -0.62487096 0.24799226 0
2.6760001 -0.6289764 0.24799226 0
2.6770003 -0.63333982 0.2479237 0
2.6790001 -0.63796651 0.24778661 0
2.6810002 -0.6426006 0.24764952 0
2.6830001 -0.64724171 0.24751244 0
2.6870003 -0.65242052 0.24723825 0
2.6930003 -0.65814763 0.24682698 0
2.7030003 -0.66497141 0.24614154 0
2.8940003 -0.32941797 0.22855079 0
2.8900001 -0.33345488 0.2288322 0
2.8860002 -0.33747736 0.22911359 0
2.7240002 -0.32267532 0.24051006 0
2.7150002 -0.32577968 0.24114318 0
2.7090001 -0.32921952 0.24156529 0
2.7040002 -0.33276224 0.24191703 0
2.7000003 -0.33641315 0.24219841 0
2.6970003 -0.34017769 0.24240945 0
2.6940002 -0.34393141 0.24262051 0
2.6920002 -0.34780598 0.24276121 0
2.6900003 -0.35167336 0.24290191 0
2.6890001 -0.35566878 0.24297225 0
2.6870003 -0.35952353 0.24311294 0
2.6870003 -0.36364883 0.24311294 0
2.6860001 -0.36763343 0.2431833 0
2.6860001 -0.37175691 0.2431833 0
2.6860001 -0.37588045 0.2431833 0
2.6870003 -0.38015008 0.24311294 0
2.6880002 -0.38442329 0.2430426 0
2.6890001 -0.3887001 0.24297225 0
2.6920002 -0.39328358 0.24276121 0
2.6940002 -0.39772457 0.24262051 0
2.6970003 -0.4023279 0.24240945 0
2.7020001 -0.40725589 0.24205773 0
2.7090001 -0.4125194 0.24156529 0
3.1940002 -0.6356613 0.20744625 0
3.1850002 -0.63878548 0.20807938 0
3.1790001 -0.6425212 0.20850147 0
3.1750002 -0.64666814 0.20878287 0
3.1730003 -0.65123719 0.20892355 0
3.1710002 -0.65579903 0.20906426 0
3.1700003 -0.66057551 0.20913461 0
3.1690001 -0.66534841 0.20920496 0
2.7270002 -0.57068276 0.240299 0
2.7140002 -0.57192558 0.24121355 0
2.7070003 -0.57449597 0.24170597 0
2.7010002 -0.57727206 0.24212806 0
2.6960001 -0.58025908 0.24247982 0
2.6920002 -0.58346272 0.24276121 0
2.6890001 -0.58688813 0.24297225 0
2.6860001 -0.59030277 0.2431833 0
2.6830001 -0.59370655 0.24339435 0
2.6810002 -0.59734124 0.24353503 0
2.6800003 -0.6012122 0.24360539 0
2.6780002 -0.6048342 0.24374609 0
2.6770003 -0.60869622 0.24381642 0
2.6760001 -0.61255449 0.24388678 0
2.6760001 -0.61666 0.24388678 0
2.6760001 -0.62076545 0.24388678 0
2.6760001 -0.62487096 0.24388678 0
2.6760001 -0.6289764 0.24388678 0
2.6770003 -0.63333982 0.24381642 0
2.6790001 -0.63796651 0.24367574 0
2.6810002 -0.6426006 0.24353503 0
2.6830001 -0.64724171 0.24339435 0
2.6870003 -0.65242052 0.24311294 0
2.6930003 -0.65814763 0.24269085 0
2.7030003 -0.66497141 0.24198736 0
2.8940003 -0.32941797 0.2240521 0
2.8900001 -0.33345488 0.22434072 0
2.8860002 -0.33747736 0.22462933 0
2.7240002 -0.32267532 0.23631799 0
2.7150002 -0.32577968 0.23696737 0
2.7090001 -0.32921952 0.23740029 0
2.7040002 -0.33276224 0.23776105 0
2.7000003 -0.33641315 0.23804966 0
2.6970003 -0.34017769 0.23826611 0
2.6940002 -0.34393141 0.23848256 0
2.6920002 -0.34780598 0.23862688 0
2.6900003 -0.35167336 0.23877117 0
2.6890001 -0.35566878 0.23884335 0
2.6870003 -0.35952353 0.23898762 0
2.6870003 -0.36364883 0.23898762 0
2.6860001 -0.36763343 0.23905979 0
2.6860001 -0.37175691 0.23905979 0
2.6860001 -0.37588045 0.23905979 0
2.6870003 -0.38015008 0.23898762 0
2.6880002 -0.38442329 0.23891549 0
2.6890001 -0.3887001 0.23884335 0
2.6920002 -0.39328358 0.23862688 0
2.6940002 -0.39772457 0.23848256 0
2.6970003 -0.4023279 0.23826611 0
2.7020001 -0.40725589 0.23790535 0
2.7090001 -0.4125194 0.23740029 0
3.1940002 -0.6356613 0.20240639 0
3.1850002 -0.63878548 0.20305578 0
3.1790001 -0.6425212 0.20348869 0
3.1750002 -0.64666814 0.20377731 0
3.1730003 -0.65123719 0.20392159 0
3.1710002 -0.65579903 0.20406592 0
3.1700003 -0.66057551 0.20413806 0
3.1690001 -0.66534841 0.20421022 0
2.7270002 -0.57068276 0.23610155 0
2.7140002 -0.57192558 0.23703952 0
2.7070003 -0.57449597 0.23754458 0
2.7010002 -0.57727206 0.23797749 0
2.6960001 -0.58025908 0.23833828 0
2.6920002 -0.58346272 0.23862688 0
2.6890001 -0.58688813 0.23884335 0
2.6860001 -0.59030277 0.23905979 0
2.6830001 -0.59370655 0.23927626 0
2.6810002 -0.59734124 0.23942055 0
2.6800003 -0.6012122 0.23949268 0
2.6780002 -0.6048342 0.23963702 0
2.6770003 -0.60869622 0.23970915 0
2.6760001 -0.61255449 0.23978132 0
2.6760001 -0.61666 0.23978132 0
2.6760001 -0.62076545 0.23978132 0
2.6760001 -0.62487096 0.23978132 0
2.6760001 -0.6289764 0.23978132 0
2.6770003 -0.63333982 0.23970915 0
2.6790001 -0.63796651 0.23956485 0
2.6810002 -0.6426006 0.23942055 0
2.6830001 -0.64724171 0.23927626 0
2.6870003 -0.65242052 0.23898762 0
2.6930003 -0.65814763 0.23855472 0
2.7030003 -0.66497141 0.23783319 0
2.8940003 -0.32941797 0.21955341 0
2.8900001 -0.33345488 0.21984923 0
2.8860002 -0.33747736 0.22014506 0
2.7240002 -0.32267532 0.23212595 0
2.7150002 -0.32577968 0.23279156 0
2.7090001 -0.32921952 0.2332353 0
2.7040002 -0.33276224 0.23360507 0
2.7000003 -0.33641315 0.23390089 0
2.6970003 -0.34017769 0.23412275 0
2.6940002 -0.34393141 0.23434463 0
2.6920002 -0.34780598 0.23449256 0
2.6900003 -0.35167336 0.23464045 0
2.6890001 -0.35566878 0.23471442 0
2.6870003 -0.35952353 0.23486233 0
2.6870003 -0.36364883 0.23486233 0
2.6860001 -0.36763343 0.2349363 0
2.6860001 -0.37175691 0.2349363 0
2.6860001 -0.37588045 0.2349363 0
2.6870003 -0.38015008 0.23486233 0
2.6880002 -0.38442329 0.23478837 0
2.6890001 -0.3887001 0.23471442 0
2.6920002 -0.39328358 0.23449256 0
2.6940002 -0.39772457 0.23434463 0
2.6970003 -0.4023279 0.23412275 0
2.7020001 -0.40725589 0.23375298 0
2.7090001 -0.4125194 0.2332353 0
3.1940002 -0.6356613 0.19736657 0
3.1850002 -0.63878548 0.19803217 0
3.1790001 -0.6425212 0.19847591 0
3.1750002 -0.64666814 0.19877174 0
3.1730003 -0.65123719 0.19891964 0
3.1710002 -0.65579903 0.19906755 0
3.1700003 -0.66057551 0.1991415 0
3.1690001 -0.66534841 0.19921549 0
2.7270002 -0.57068276 0.23190407 0
2.7140002 -0.57192558 0.23286551 0
2.7070003 -0.57449597 0.23338321 0
2.7010002 -0.57727206 0.23382695 0
2.6960001 -0.58025908 0.23419672 0
2.6920002 -0.58346272 0.23449256 0
2.6890001 -0.58688813 0.23471442 0
2.6860001 -0.59030277 0.2349363 0
2.6830001 -0.59370655 0.23515816 0
2.6810002 -0.59734124 0.23530607 0
2.6800003 -0.6012122 0.23538001 0
2.6780002 -0.6048342 0.23552793 0
2.6770003 -0.60869622 0.23560187 0
2.6760001 -0.61255449 0.23567586 0
2.6760001 -0.61666 0.23567586 0
2.6760001 -0.62076545 0.23567586 0
2.6760001 -0.62487096 0.23567586 0
2.6760001 -0.6289764 0.23567586 0
2.6770003 -0.63333982 0.23560187 0
2.6790001 -0.63796651 0.23545398 0
2.6810002 -0.6426006 0.23530607 0
2.6830001 -0.64724171 0.23515816 0
2.6870003 -0.65242052 0.23486233 0
2.6930003 -0.65814763 0.23441859 0
2.7030003 -0.66497141 0.23367901 0
2.8940003 -0.32941797 0.21505471 0
2.8900001 -0.33345488 0.21535775 0
2.8860002 -0.33747736 0.2156608 0
2.7240002 -0.32267532 0.2279339 0
2.7150002 -0.32577968 0.22861575 0
2.7090001 -0.32921952 0.22907032 0
2.7040002 -0.33276224 0.22944909 0
2.7000003 -0.33641315 0.22975214 0
2.6970003 -0.34017769 0.22997941 0
2.6940002 -0.34393141 0.2302067 0
2.6920002 -0.34780598 0.23035823 0
2.6900003 -0.35167336 0.23050973 0
2.6890001 -0.35566878 0.2305855 0
2.6870003 -0.35952353 0.23073702 0
2.6870003 -0.36364883 0.23073702 0
2.6860001 -0.36763343 0.23081279 0
2.6860001 -0.37175691 0.23081279 0
2.6860001 -0.37588045 0.23081279 0
2.6870003 -0.38015008 0.23073702 0
2.6880002 -0.38442329 0.23066126 0
2.6890001 -0.3887001 0.2305855 0
2.6920002 -0.39328358 0.23035823 0
2.6940002 -0.39772457 0.2302067 0
2.6970003 -0.4023279 0.22997941 0
2.7020001 -0.40725589 0.22960062 0
2.7090001 -0.4125194 0.22907032 0
3.1940002 -0.6356613 0.19232672 0
3.1850002 -0.63878548 0.19300857 0
3.1790001 -0.6425212 0.19346313 0
3.1750002 -0.64666814 0.19376616 0
3.1730003 -0.65123719 0.19391768 0
3.1710002 -0.65579903 0.19406921 0
3.1700003 -0.66057551 0.19414495 0
3.1690001 -0.66534841 0.19422072 0
2.7270002 -0.57068276 0.22770661 0
2.7140002 -0.57192558 0.2286915 0
2.7070003 -0.57449597 0.22922182 0
2.7010002 -0.57727206 0.22967638 0
2.6960001 -0.58025908 0.23005518 0
2.6920002 -0.58346272 0.23035823 0
2.6890001 -0.58688813 0.2305855 0
2.6860001 -0.59030277 0.23081279 0
2.6830001 -0.59370655 0.23104006 0
2.6810002 -0.59734124 0.23119158 0
2.6800003 -0.6012122 0.23126733 0
2.6780002 -0.6048342 0.23141886 0
2.6770003 -0.60869622 0.23149461 0
2.6760001 -0.61255449 0.23157038 0
2.6760001 -0.61666 0.23157038 0
2.6760001 -0.62076545 0.23157038 0
2.6760001 -0.62487096 0.23157038 0
2.6760001 -0.6289764 0.23157038 0
2.6770003 -0.63333982 0.23149461 0
2.6790001 -0.63796651 0.23134311 0
2.6810002 -0.6426006 0.23119158 0
2.6830001 -0.64724171 0.23104006 0
2.6870003 -0.65242052 0.23073702 0
2.6930003 -0.65814763 0.23028246 0
2.7030003 -0.66497141 0.22952485 0
2.8940003 -0.32941797 0.210556 0
2.8900001 -0.33345488 0.21086627 0
2.8860002 -0.33747736 0.21117653 0
2.7240002 -0.32267532 0.22374184 0
2.7150002 -0.32577968 0.22443992 0
2.7090001 -0.32921952 0.22490531 0
2.7040002 -0.33276224 0.22529311 0
2.7000003 -0.33641315 0.22560337 0
2.6970003 -0.34017769 0.22583607 0
2.6940002 -0.34393141 0.22606876 0
2.6920002 -0.34780598 0.2262239 0
2.6900003 -0.35167336 0.22637901 0
2.6890001 -0.35566878 0.22645658 0
2.6870003 -0.35952353 0.2266117 0
2.6870003 -0.36364883 0.2266117 0
2.6860001 -0.36763343 0.22668928 0
2.6860001 -0.37175691 0.22668928 0
2.6860001 -0.37588045 0.22668928 0
2.6870003 -0.38015008 0.2266117 0
2.6880002 -0.38442329 0.22653414 0
2.6890001 -0.3887001 0.22645658 0
2.6920002 -0.39328358 0.2262239 0
2.6940002 -0.39772457 0.22606876 0
2.6970003 -0.4023279 0.22583607 0
2.7020001 -0.40725589 0.22544827 0
2.7090001 -0.4125194 0.22490531 0
3.1940002 -0.6356613 0.18728688 0
3.1850002 -0.63878548 0.18798496 0
3.1790001 -0.6425212 0.18845035 0
3.1750002 -0.64666814 0.18876059 0
3.1730003 -0.65123719 0.18891571 0
3.1710002 -0.65579903 0.18907085 0
3.1700003 -0.66057551 0.18914841 0
3.1690001 -0.66534841 0.18922599 0
2.7270002 -0.57068276 0.22350916 0
2.7140002 -0.57192558 0.22451748 0
2.7070003 -0.57449597 0.22506043 0
2.7010002 -0.57727206 0.22552581 0
2.6960001 -0.58025908 0.22591364 0
2.6920002 -0.58346272 0.2262239 0
2.6890001 -0.58688813 0.22645658 0
2.6860001 -0.59030277 0.22668928 0
2.6830001 -0.59370655 0.22692198 0
2.6810002 -0.59734124 0.22707708 0
2.6800003 -0.6012122 0.22715464 0
2.6780002 -0.6048342 0.22730979 0
2.6770003 -0.60869622 0.22738734 0
2.6760001 -0.61255449 0.22746491 0
2.6760001 -0.61666 0.22746491 0
2.6760001 -0.62076545 0.22746491 0
2.6760001 -0.62487096 0.22746491 0
2.6760001 -0.6289764 0.22746491 0
2.6770003 -0.63333982 0.22738734 0
2.6790001 -0.63796651 0.22723222 0
2.6810002 -0.6426006 0.22707708 0
2.6830001 -0.64724171 0.22692198 0
2.6870003 -0.65242052 0.2266117 0
2.6930003 -0.65814763 0.22614633 0
2.7030003 -0.66497141 0.22537069 0
2.8940003 -0.32941797 0.20605731 0
2.8900001 -0.33345488 0.20637479 0
2.8860002 -0.33747736 0.20669226 0
2.7240002 -0.32267532 0.2195498 0
2.7150002 -0.32577968 0.22026412 0
2.7090001 -0.32921952 0.22074032 0
2.7040002 -0.33276224 0.22113715 0
2.7000003 -0.33641315 0.22145461 0
2.6970003 -0.34017769 0.22169271 0
2.6940002 -0.34393141 0.22193083 0
2.6920002 -0.34780598 0.22208957 0
2.6900003 -0.35167336 0.22224829 0
2.6890001 -0.35566878 0.22232766 0
2.6870003 -0.35952353 0.22248639 0
2.6870003 -0.36364883 0.22248639 0
2.6860001 -0.36763343 0.22256577 0
2.6860001 -0.37175691 0.22256577 0
2.6860001 -0.37588045 0.22256577 0
2.6870003 -0.38015008 0.22248639 0
2.6880002 -0.38442329 0.22240703 0
2.6890001 -0.3887001 0.22232766 0
2.6920002 -0.39328358 0.22208957 0
2.6940002 -0.39772457 0.22193083 0
2.6970003 -0.4023279 0.22169271 0
2.7020001 -0.40725589 0.22129589 0
2.7090001 -0.4125194 0.22074032 0
3.1940002 -0.6356613 0.18224704 0
3.1850002 -0.63878548 0.18296136 0
3.1790001 -0.6425212 0.18343757 0
3.1750002 -0.64666814 0.18375503 0
3.1730003 -0.65123719 0.18391375 0
3.1710002 -0.65579903 0.18407251 0
3.1700003 -0.66057551 0.18415186 0
3.1690001 -0.66534841 0.18423125 0
2.7270002 -0.57068276 0.21931168 0
2.7140002 -0.57192558 0.22034347 0
2.7070003 -0.57449597 0.22089903 0
2.7010002 -0.57727206 0.22137526 0
2.6960001 -0.58025908 0.22177209 0
2.6920002 -0.58346272 0.22208957 0
2.6890001 -0.58688813 0.22232766 0
2.6860001 -0.59030277 0.22256577 0
2.6830001 -0.59370655 0.22280389 0
2.6810002 -0.59734124 0.2229626 0
2.6800003 -0.6012122 0.22304197 0
2.6780002 -0.6048342 0.22320071 0
2.6770003 -0.60869622 0.22328006 0
2.6760001 -0.61255449 0.22335945 0
2.6760001 -0.61666 0.22335945 0
2.6760001 -0.62076545 0.22335945 0
2.6760001 -0.62487096 0.22335945 0
2.6760001 -0.6289764 0.22335945 0
2.6770003 -0.63333982 0.22328006 0
2.6790001 -0.63796651 0.22312135 0
2.6810002 -0.6426006 0.2229626 0
2.6830001 -0.64724171 0.22280389 0
2.6870003 -0.65242052 0.22248639 0
2.6930003 -0.65814763 0.22201018 0
2.7030003 -0.66497141 0.22121651 0
2.8940003 -0.32941797 0.2015586 0
2.8900001 -0.33345488 0.2018833 0
2.8860002 -0.33747736 0.202208 0
2.7240002 -0.32267532 0.21535775 0
2.7150002 -0.32577968 0.21608829 0
2.7090001 -0.32921952 0.21657532 0
2.7040002 -0.33276224 0.21698117 0
2.7000003 -0.33641315 0.21730585 0
2.6970003 -0.34017769 0.21754937 0
2.6940002 -0.34393141 0.2177929 0
2.6920002 -0.34780598 0.21795525 0
2.6900003 -0.35167336 0.21811756 0
2.6890001 -0.35566878 0.21819875 0
2.6870003 -0.35952353 0.21836108 0
2.6870003 -0.36364883 0.21836108 0
2.6860001 -0.36763343 0.21844226 0
2.6860001 -0.37175691 0.21844226 0
2.6860001 -0.37588045 0.21844226 0
2.6870003 -0.38015008 0.21836108 0
2.6880002 -0.38442329 0.21827991 0
2.6890001 -0.3887001 0.21819875 0
2.6920002 -0.39328358 0.21795525 0
2.6940002 -0.39772457 0.2177929 0
2.6970003 -0.4023279 0.21754937 0
2.7020001 -0.40725589 0.21714352 0
2.7090001 -0.4125194 0.21657532 0
3.1940002 -0.6356613 0.17720722 0
3.1850002 -0.63878548 0.17793775 0
3.1790001 -0.6425212 0.17842479 0
3.1750002 -0.64666814 0.17874946 0
3.1730003 -0.65123719 0.17891179 0
3.1710002 -0.65579903 0.17907414 0
3.1700003 -0.66057551 0.17915531 0
3.1690001 -0.66534841 0.17923649 0
2.7270002 -0.57068276 0.21511424 0
2.7140002 -0.57192558 0.21616946 0
2.7070003 -0.57449597 0.21673766 0
2.7010002 -0.57727206 0.21722469 0
2.6960001 -0.58025908 0.21763055 0
2.6920002 -0.58346272 0.21795525 0
2.6890001 -0.58688813 0.21819875 0
2.6860001 -0.59030277 0.21844226 0
2.6830001 -0.59370655 0.21868578 0
2.6810002 -0.59734124 0.21884812 0
2.6800003 -0.6012122 0.21892929 0
2.6780002 -0.6048342 0.21909164 0
2.6770003 -0.60869622 0.21917279 0
2.6760001 -0.61255449 0.21925399 0
2.6760001 -0.61666 0.21925399 0
2.6760001 -0.62076545 0.21925399 0
2.6760001 -0.62487096 0.21925399 0
2.6760001 -0.6289764 0.21925399 0
2.6770003 -0.63333982 0.21917279 0
2.6790001 -0.63796651 0.21901047 0
2.6810002 -0.6426006 0.21884812 0
2.6830001 -0.64724171 0.21868578 0
2.6870003 -0.65242052 0.21836108 0
2.6930003 -0.65814763 0.21787405 0
2.7030003 -0.66497141 0.21706234 0
2.8940003 -0.32941797 0.19705991 0
2.8900001 -0.33345488 0.19739182 0
2.8860002 -0.33747736 0.19772373 0
2.7240002 -0.32267532 0.2111657 0
2.7150002 -0.32577968 0.21191247 0
2.7090001 -0.32921952 0.21241033 0
2.7040002 -0.33276224 0.21282519 0
2.7000003 -0.33641315 0.21315709 0
2.6970003 -0.34017769 0.21340603 0
2.6940002 -0.34393141 0.21365495 0
2.6920002 -0.34780598 0.21382092 0
2.6900003 -0.35167336 0.21398684 0
2.6890001 -0.35566878 0.21406984 0
2.6870003 -0.35952353 0.21423577 0
2.6870003 -0.36364883 0.21423577 0
2.6860001 -0.36763343 0.21431877 0
2.6860001 -0.37175691 0.21431877 0
2.6860001 -0.37588045 0.21431877 0
2.6870003 -0.38015008 0.21423577 0
2.6880002 -0.38442329 0.21415281 0
2.6890001 -0.3887001 0.21406984 0
2.6920002 -0.39328358 0.21382092 0
2.6940002 -0.39772457 0.21365495 0
2.6970003 -0.4023279 0.21340603 0
2.7020001 -0.40725589 0.21299116 0
2.7090001 -0.4125194 0.21241033 0
3.1940002 -0.6356613 0.17216738 0
3.1850002 -0.63878548 0.17291415 0
3.1790001 -0.6425212 0.17341201 0
3.1750002 -0.64666814 0.1737439 0
3.1730003 -0.65123719 0.17390983 0
3.1710002 -0.65579903 0.1740758 0
3.1700003 -0.66057551 0.17415875 0
3.1690001 -0.66534841 0.17424175 0
2.7270002 -0.57068276 0.21091677 0
2.7140002 -0.57192558 0.21199545 0
2.7070003 -0.57449597 0.21257627 0
2.7010002 -0.57727206 0.21307412 0
2.6960001 -0.58025908 0.21348901 0
2.6920002 -0.58346272 0.21382092 0
2.6890001 -0.58688813 0.21406984 0
2.6860001 -0.59030277 0.21431877 0
2.6830001 -0.59370655 0.21456769 0
2.6810002 -0.59734124 0.21473362 0
2.6800003 -0.6012122 0.2148166 0
2.6780002 -0.6048342 0.21498257 0
2.6770003 -0.60869622 0.21506552 0
2.6760001 -0.61255449 0.21514852 0
2.6760001 -0.61666 0.21514852 0
2.6760001 -0.62076545 0.21514852 0
2.6760001 -0.62487096 0.21514852 0
2.6760001 -0.6289764 0.21514852 0
2.6770003 -0.63333982 0.21506552 0
2.6790001 -0.63796651 0.21489958 0
2.6810002 -0.6426006 0.21473362 0
2.6830001 -0.64724171 0.21456769 0
2.6870003 -0.65242052 0.21423577 0
2.6930003 -0.65814763 0.21373792 0
2.7030003 -0.66497141 0.21290816 0
2.8940003 -0.32941797 0.19256121 0
2.8900001 -0.33345488 0.19290034 0
2.8860002 -0.33747736 0.19323945 0
2.7240002 -0.32267532 0.20697366 0
2.7150002 -0.32577968 0.20773667 0
2.7090001 -0.32921952 0.20824534 0
2.7040002 -0.33276224 0.20866922 0
2.7000003 -0.33641315 0.20900834 0
2.6970003 -0.34017769 0.20926268 0
2.6940002 -0.34393141 0.20951702 0
2.6920002 -0.34780598 0.20968659 0
2.6900003 -0.35167336 0.20985612 0
2.6890001 -0.35566878 0.20994093 0
2.6870003 -0.35952353 0.21011047 0
2.6870003 -0.36364883 0.21011047 0
2.6860001 -0.36763343 0.21019526 0
2.6860001 -0.37175691 0.21019526 0
2.6860001 -0.37588045 0.21019526 0
2.6870003 -0.38015008 0.21011047 0
2.6880002 -0.38442329 0.2100257 0
2.6890001 -0.3887001 0.20994093 0
2.6920002 -0.39328358 0.20968659 0
2.6940002 -0.39772457 0.20951702 0
2.6970003 -0.4023279 0.20926268 0
2.7020001 -0.40725589 0.20883879 0
2.7090001 -0.4125194 0.20824534 0
3.1940002 -0.6356613 0.16712752 0
3.1850002 -0.63878548 0.16789053 0
3.1790001 -0.6425212 0.16839921 0
3.1750002 -0.64666814 0.16873834 0
3.1730003 -0.65123719 0.16890788 0
3.1710002 -0.65579903 0.16907746 0
3.1700003 -0.66057551 0.1691622 0
3.1690001 -0.66534841 0.169247 0
2.7270002 -0.57068276 0.20671931 0
2.7140002 -0.57192558 0.20782144 0
2.7070003 -0.57449597 0.20841488 0
2.7010002 -0.57727206 0.20892356 0
2.6960001 -0.58025908 0.20934747 0
2.6920002 -0.58346272 0.20968659 0
2.6890001 -0.58688813 0.20994093 0
2.6860001 -0.59030277 0.21019526 0
2.6830001 -0.59370655 0.21044959 0
2.6810002 -0.59734124 0.21061914 0
2.6800003 -0.6012122 0.21070391 0
2.6780002 -0.6048342 0.21087348 0
2.6770003 -0.60869622 0.21095824 0
2.6760001 -0.61255449 0.21104304 0
2.6760001 -0.61666 0.21104304 0
2.6760001 -0.62076545 0.21104304 0
2.6760001 -0.62487096 0.21104304 0
2.6760001 -0.6289764 0.21104304 0
2.6770003 -0.63333982 0.21095824 0
2.6790001 -0.63796651 0.21078871 0
2.6810002 -0.6426006 0.21061914 0
2.6830001 -0.64724171 0.21044959 0
2.6870003 -0.65242052 0.21011047 0
2.6930003 -0.65814763 0.20960179 0
2.7030003 -0.66497141 0.20875399 0
2.8940003 -0.32941797 0.18806252 0
2.8900001 -0.33345488 0.18840885 0
2.8860002 -0.33747736 0.18875518 0
2.7240002 -0.32267532 0.2027816 0
2.7150002 -0.32577968 0.20356084 0
2.7090001 -0.32921952 0.20408034 0
2.7040002 -0.33276224 0.20451325 0
2.7000003 -0.33641315 0.20485958 0
2.6970003 -0.34017769 0.20511933 0
2.6940002 -0.34393141 0.20537908 0
2.6920002 -0.34780598 0.20555225 0
2.6900003 -0.35167336 0.2057254 0
2.6890001 -0.35566878 0.20581201 0
2.6870003 -0.35952353 0.20598516 0
2.6870003 -0.36364883 0.20598516 0
2.6860001 -0.36763343 0.20607176 0
2.6860001 -0.37175691 0.20607176 0
2.6860001 -0.37588045 0.20607176 0
2.6870003 -0.38015008 0.20598516 0
2.6880002 -0.38442329 0.20589858 0
2.6890001 -0.3887001 0.20581201 0
2.6920002 -0.39328358 0.20555225 0
2.6940002 -0.39772457 0.20537908 0
2.6970003 -0.4023279 0.20511933 0
2.7020001 -0.40725589 0.20468642 0
2.7090001 -0.4125194 0.20408034 0
3.1940002 -0.6356613 0.16208769 0
3.1850002 -0.63878548 0.16286692 0
3.1790001 -0.6425212 0.16338643 0
3.1750002 -0.64666814 0.16373275 0
3.1730003 -0.65123719 0.16390593 0
3.1710002 -0.65579903 0.16407908 0
3.1700003 -0.66057551 0.16416568 0
3.1690001 -0.66534841 0.16425227 0
2.7270002 -0.57068276 0.20252185 0
2.7140002 -0.57192558 0.20364742 0
2.7070003 -0.57449597 0.20425349 0
2.7010002 -0.57727206 0.20477301 0
2.6960001 -0.58025908 0.20520593 0
2.6920002 -0.58346272 0.20555225 0
2.6890001 -0.58688813 0.20581201 0
2.6860001 -0.59030277 0.20607176 0
2.6830001 -0.59370655 0.20633151 0
2.6810002 -0.59734124 0.20650466 0
2.6800003 -0.6012122 0.20659123 0
2.6780002 -0.6048342 0.2067644 0
2.6770003 -0.60869622 0.20685099 0
2.6760001 -0.61255449 0.20693758 0
2.6760001 -0.61666 0.20693758 0
2.6760001 -0.62076545 0.20693758 0
2.6760001 -0.62487096 0.20693758 0
2.6760001 -0.6289764 0.20693758 0
2.6770003 -0.63333982 0.20685099 0
2.6790001 -0.63796651 0.20667784 0
2.6810002 -0.6426006 0.20650466 0
2.6830001 -0.64724171 0.20633151 0
2.6870003 -0.65242052 0.20598516 0
2.6930003 -0.65814763 0.20546566 0
2.7030003 -0.66497141 0.20459983 0
2.8940003 -0.32941797 0.18356381 0
2.8900001 -0.33345488 0.18391737 0
2.8860002 -0.33747736 0.18427092 0
2.7240002 -0.32267532 0.19858955 0
2.7150002 -0.32577968 0.19938503 0
2.7090001 -0.32921952 0.19991536 0
2.7040002 -0.33276224 0.20035729 0
2.7000003 -0.33641315 0.20071082 0
2.6970003 -0.34017769 0.20097598 0
2.6940002 -0.34393141 0.20124115 0
2.6920002 -0.34780598 0.20141792 0
2.6900003 -0.35167336 0.2015947 0
2.6890001 -0.35566878 0.20168309 0
2.6870003 -0.35952353 0.20185985 0
2.6870003 -0.36364883 0.20185985 0
2.6860001 -0.36763343 0.20194826 0
2.6860001 -0.37175691 0.20194826 0
2.6860001 -0.37588045 0.20194826 0
2.6870003 -0.38015008 0.20185985 0
2.6880002 -0.38442329 0.20177147 0
2.6890001 -0.3887001 0.20168309 0
2.6920002 -0.39328358 0.20141792 0
2.6940002 -0.39772457 0.20124115 0
2.6970003 -0.4023279 0.20097598 0
2.7020001 -0.40725589 0.20053406 0
2.7090001 -0.4125194 0.19991536 0
3.1940002 -0.6356613 0.15704784 0
3.1850002 -0.63878548 0.15784332 0
3.1790001 -0.6425212 0.15837364 0
3.1750002 -0.64666814 0.15872718 0
3.1730003 -0.65123719 0.15890394 0
3.1710002 -0.65579903 0.15908073 0
3.1700003 -0.66057551 0.15916911 0
3.1690001 -0.66534841 0.15925752 0
2.7270002 -0.57068276 0.19832438 0
2.7140002 -0.57192558 0.19947341 0
2.7070003 -0.57449597 0.20009212 0
2.7010002 -0.57727206 0.20062244 0
2.6960001 -0.58025908 0.20106439 0
2.6920002 -0.58346272 0.20141792 0
2.6890001 -0.58688813 0.20168309 0
2.6860001 -0.59030277 0.20194826 0
2.6830001 -0.59370655 0.20221341 0
2.6810002 -0.59734124 0.20239018 0
2.6800003 -0.6012122 0.20247856 0
2.6780002 -0.6048342 0.20265533 0
2.6770003 -0.60869622 0.20274372 0
2.6760001 -0.61255449 0.20283212 0
2.6760001 -0.61666 0.20283212 0
2.6760001 -0.62076545 0.20283212 0
2.6760001 -0.62487096 0.20283212 0
2.6760001 -0.6289764 0.20283212 0
2.6770003 -0.63333982 0.20274372 0
2.6790001 -0.63796651 0.20256695 0
2.6810002 -0.6426006 0.20239018 0
2.6830001 -0.64724171 0.20221341 0
2.6870003 -0.65242052 0.20185985 0
2.6930003 -0.65814763 0.20132953 0
