# .PCD v0.7 - Point Cloud Data file format
VERSION 0.7
FIELDS x y z intensity
SIZE 4 4 4 4
TYPE F F F F
COUNT 1 1 1 1
WIDTH 1503
HEIGHT 1
VIEWPOINT 0 0 0 1 0 0 0
POINTS 1503
DATA ascii
4.6720004 2.0499964 1.5675862 0
4.6770005 2.0447347 1.5689481 0
4.6820002 2.0394547 1.57031 0
4.6880002 2.0346422 1.5719442 0
4.6930003 2.0293245 1.5733061 0
4.6980004 2.023989 1.574668 0
4.7040005 2.0191152 1.5763023 0
4.7090001 2.0137415 1.577664 0
4.7140002 2.0083499 1.579026 0
4.7200003 2.0034146 1.5806602 0
4.7250004 1.9979851 1.5820222 0
4.7310004 1.9930086 1.5836564 0
4.7360005 1.9875414 1.5850183 0
4.7410002 1.9820557 1.5863801 0
4.7470002 1.9770176 1.5880144 0
4.7520003 1.9714947 1.5893762 0
4.7580004 1.9664152 1.5910105 0
4.7630005 1.9608538 1.5923724 0
4.7690005 1.9557328 1.5940067 0
4.7740002 1.9501339 1.5953684 0
4.7800002 1.9449713 1.5970026 0
4.7850003 1.9393344 1.5983646 0
4.7910004 1.9341307 1.5999988 0
4.7960005 1.9284558 1.6013608 0
4.8020005 1.9232103 1.602995 0
4.8080001 1.917943 1.6046292 0
4.8130002 1.9122106 1.6059911 0
4.8190002 1.906902 1.6076254 0
4.8250003 1.9015718 1.6092596 0
4.8300004 1.8957816 1.6106216 0
4.8360004 1.8904098 1.6122558 0
4.8420005 1.8850164 1.6138901 0
4.8470001 1.8791684 1.6152518 0
4.8530002 1.8737334 1.6168861 0
4.8590002 1.8682771 1.6185204 0
4.8640003 1.8623713 1.6198822 0
4.8700004 1.8568734 1.6215165 0
4.8760004 1.8513539 1.6231507 0
4.8820004 1.8458124 1.6247851 0
4.8880005 1.8402495 1.6264193 0
4.8930001 1.8342463 1.627781 0
4.8990002 1.828642 1.6294153 0
4.9050002 1.8230158 1.6310495 0
4.9110003 1.8173681 1.6326839 0
4.9170003 1.8116989 1.6343181 0
4.9230003 1.8060079 1.6359524 0
4.9290004 1.8002952 1.6375866 0
4.9350004 1.7945608 1.6392208 0
4.9400005 1.7884009 1.6405828 0
4.9460001 1.782625 1.6422169 0
4.9520001 1.7768275 1.6438512 0
4.9580002 1.7710084 1.6454854 0
4.9640002 1.7651677 1.6471196 0
4.9700003 1.7593054 1.648754 0
4.9760003 1.7534214 1.6503882 0
4.9820004 1.7475157 1.6520225 0
4.9890003 1.741978 1.6539291 0
4.9950004 1.7360272 1.6555634 0
5.0010004 1.7300549 1.6571976 0
5.0070004 1.7240609 1.6588318 0
5.0130005 1.7180451 1.6604662 0
5.0190005 1.7120078 1.6621004 0
5.0250001 1.7059487 1.6637346 0
5.0310001 1.6998681 1.6653688 0
5.0380001 1.6941409 1.6672754 0
5.0440001 1.6880152 1.6689097 0
5.0500002 1.6818678 1.670544 0
5.0560002 1.6756989 1.6721783 0
5.0630002 1.6698761 1.6740849 0
5.0690002 1.663662 1.6757191 0
5.0750003 1.6574262 1.6773534 0
5.0820003 1.6515315 1.6792599 0
5.0880003 1.6452506 1.6808941 0
5.0940003 1.6389482 1.6825286 0
5.1010003 1.6329811 1.6844351 0
5.1070004 1.6266335 1.6860694 0
5.1130004 1.6202643 1.6877036 0
5.1200004 1.614225 1.6896102 0
5.1260004 1.6078107 1.6912445 0
5.1330004 1.601723 1.6931511 0
4.4380002 2.2775252 1.4965667 0
4.4430003 2.2731094 1.4979196 0
4.4470005 2.2681041 1.4990019 0
4.4520001 2.2636538 1.5003546 0
4.4570003 2.2591858 1.5017076 0
4.4620004 2.2546997 1.5030605 0
4.4660001 2.2496307 1.5041426 0
4.4710002 2.2451105 1.5054955 0
4.4760003 2.2405725 1.5068483 0
4.4810004 2.2360158 1.5082012 0
4.4860001 2.2314413 1.5095541 0
4.4900002 2.2262933 1.5106363 0
4.4950004 2.2216845 1.5119894 0
4.5000005 2.2170579 1.5133421 0
4.5050001 2.2124128 1.5146949 0
4.5100002 2.2077501 1.5160477 0
4.5150003 2.2030694 1.5174007 0
4.5200005 2.1983705 1.5187536 0
4.5240002 2.1931102 1.5198358 0
4.5290003 2.1883774 1.5211887 0
4.5340004 2.1836259 1.5225415 0
4.5390005 2.1788568 1.5238944 0
4.5440001 2.1740694 1.5252472 0
4.5490003 2.1692641 1.5266001 0
4.5540004 2.1644406 1.5279529 0
4.5590005 2.1595993 1.5293058 0
4.5640001 2.1547396 1.5306586 0
4.5690002 2.1498623 1.5320115 0
4.5740004 2.1449668 1.5333644 0
4.5790005 2.1400535 1.5347172 0
4.5840001 2.1351216 1.53607 0
4.5890002 2.1301718 1.537423 0
4.5940003 2.1252043 1.5387758 0
4.5990005 2.1202185 1.5401287 0
4.6040001 2.1152148 1.5414814 0
4.6100001 2.1107051 1.5431049 0
4.6150002 2.1056638 1.5444578 0
4.6200004 2.1006038 1.5458107 0
4.6250005 2.0955262 1.5471636 0
4.6300001 2.0904305 1.5485163 0
4.6350002 2.0853167 1.5498692 0
4.6410003 2.0806863 1.5514927 0
4.6460004 2.0755346 1.5528455 0
4.6510005 2.070365 1.5541985 0
4.6560001 2.0651772 1.5555512 0
4.6610003 2.0599713 1.5569041 0
4.6670003 2.0552402 1.5585276 0
4.6720004 2.0499964 1.5598804 0
4.6770005 2.0447347 1.5612333 0
4.6820002 2.0394547 1.5625859 0
4.6880002 2.0346422 1.5642095 0
4.6930003 2.0293245 1.5655624 0
4.6980004 2.023989 1.5669153 0
4.7040005 2.0191152 1.5685387 0
4.7090001 2.0137415 1.5698915 0
4.7140002 2.0083499 1.5712444 0
4.7200003 2.0034146 1.5728678 0
4.7250004 1.9979851 1.5742207 0
4.7310004 1.9930086 1.575844 0
4.7360005 1.9875414 1.5771971 0
4.7410002 1.9820557 1.5785497 0
4.7470002 1.9770176 1.5801733 0
4.7520003 1.9714947 1.581526 0
4.7580004 1.9664152 1.5831494 0
4.7630005 1.9608538 1.5845025 0
4.7690005 1.9557328 1.5861257 0
4.7740002 1.9501339 1.5874786 0
4.7800002 1.9449713 1.589102 0
4.7850003 1.9393344 1.5904549 0
4.7910004 1.9341307 1.5920783 0
4.7960005 1.9284558 1.5934312 0
4.8020005 1.9232103 1.5950546 0
4.8080001 1.917943 1.596678 0
4.8130002 1.9122106 1.5980309 0
4.8190002 1.906902 1.5996543 0
4.8250003 1.9015718 1.6012777 0
4.8300004 1.8957816 1.6026306 0
4.8360004 1.8904098 1.604254 0
4.8420005 1.8850164 1.6058775 0
4.8470001 1.8791684 1.6072303 0
4.8530002 1.8737334 1.6088537 0
4.8590002 1.8682771 1.6104772 0
4.8640003 1.8623713 1.61183 0
4.8700004 1.8568734 1.6134535 0
4.8760004 1.8513539 1.6150769 0
4.8820004 1.8458124 1.6167003 0
4.8880005 1.8402495 1.6183238 0
4.8930001 1.8342463 1.6196766 0
4.8990002 1.828642 1.6213 0
4.9050002 1.8230158 1.6229234 0
4.9110003 1.8173681 1.6245469 0
4.9170003 1.8116989 1.6261704 0
4.9230003 1.8060079 1.6277937 0
4.9290004 1.8002952 1.6294172 0
4.9350004 1.7945608 1.6310407 0
4.9400005 1.7884009 1.6323935 0
4.9460001 1.782625 1.6340169 0
4.9520001 1.7768275 1.6356403 0
4.9580002 1.7710084 1.6372637 0
4.9640002 1.7651677 1.6388872 0
4.9700003 1.7593054 1.6405106 0
4.9760003 1.7534214 1.642134 0
4.9820004 1.7475157 1.6437575 0
4.9890003 1.741978 1.6456515 0
4.9950004 1.7360272 1.647275 0
5.0010004 1.7300549 1.6488982 0
5.0070004 1.7240609 1.6505218 0
5.0130005 1.7180451 1.6521453 0
5.0190005 1.7120078 1.6537685 0
5.0250001 1.7059487 1.6553919 0
5.0310001 1.6998681 1.6570154 0
5.0380001 1.6941409 1.6589094 0
5.0440001 1.6880152 1.6605328 0
5.0500002 1.6818678 1.6621562 0
5.0560002 1.6756989 1.6637797 0
5.0630002 1.6698761 1.6656737 0
5.0690002 1.663662 1.6672971 0
5.0750003 1.6574262 1.6689205 0
5.0820003 1.6515315 1.6708146 0
5.0880003 1.6452506 1.6724379 0
5.0940003 1.6389482 1.6740614 0
5.1010003 1.6329811 1.6759554 0
5.1070004 1.6266335 1.6775789 0
5.1130004 1.6202643 1.6792023 0
5.1200004 1.614225 1.6810963 0
5.1260004 1.6078107 1.6827197 0
5.1330004 1.601723 1.6846137 0
4.4380002 2.2775252 1.4892828 0
4.4430003 2.2731094 1.4906268 0
4.4470005 2.2681041 1.4917018 0
4.4520001 2.2636538 1.4930456 0
4.4570003 2.2591858 1.4943895 0
4.4620004 2.2546997 1.4957334 0
4.4660001 2.2496307 1.4968083 0
4.4710002 2.2451105 1.4981523 0
4.4760003 2.2405725 1.4994961 0
4.4810004 2.2360158 1.5008399 0
4.4860001 2.2314413 1.5021837 0
4.4900002 2.2262933 1.5032588 0
4.4950004 2.2216845 1.5046027 0
4.5000005 2.2170579 1.5059466 0
4.5050001 2.2124128 1.5072904 0
4.5100002 2.2077501 1.5086341 0
4.5150003 2.2030694 1.5099779 0
4.5200005 2.1983705 1.5113219 0
4.5240002 2.1931102 1.5123969 0
4.5290003 2.1883774 1.5137407 0
4.5340004 2.1836259 1.5150846 0
4.5390005 2.1788568 1.5164285 0
4.5440001 2.1740694 1.5177722 0
4.5490003 2.1692641 1.5191162 0
4.5540004 2.1644406 1.52046 0
4.5590005 2.1595993 1.5218037 0
4.5640001 2.1547396 1.5231476 0
4.5690002 2.1498623 1.5244914 0
4.5740004 2.1449668 1.5258353 0
4.5790005 2.1400535 1.5271792 0
4.5840001 2.1351216 1.528523 0
4.5890002 2.1301718 1.5298668 0
4.5940003 2.1252043 1.5312105 0
4.5990005 2.1202185 1.5325545 0
4.6040001 2.1152148 1.5338982 0
4.6100001 2.1107051 1.5355108 0
4.6150002 2.1056638 1.5368547 0
4.6200004 2.1006038 1.5381986 0
4.6250005 2.0955262 1.5395426 0
4.6300001 2.0904305 1.5408863 0
4.6350002 2.0853167 1.54223 0
4.6410003 2.0806863 1.5438427 0
4.6460004 2.0755346 1.5451865 0
4.6510005 2.070365 1.5465304 0
4.6560001 2.0651772 1.5478741 0
4.6610003 2.0599713 1.5492181 0
4.6670003 2.0552402 1.5508306 0
4.6720004 2.0499964 1.5521746 0
4.6770005 2.0447347 1.5535184 0
4.6820002 2.0394547 1.5548621 0
4.6880002 2.0346422 1.5564747 0
4.6930003 2.0293245 1.5578187 0
4.6980004 2.023989 1.5591625 0
4.7040005 2.0191152 1.5607752 0
4.7090001 2.0137415 1.5621189 0
4.7140002 2.0083499 1.5634627 0
4.7200003 2.0034146 1.5650754 0
4.7250004 1.9979851 1.5664192 0
4.7310004 1.9930086 1.5680318 0
4.7360005 1.9875414 1.5693758 0
4.7410002 1.9820557 1.5707195 0
4.7470002 1.9770176 1.572332 0
4.7520003 1.9714947 1.573676 0
4.7580004 1.9664152 1.5752885 0
4.7630005 1.9608538 1.5766324 0
4.7690005 1.9557328 1.578245 0
4.7740002 1.9501339 1.5795888 0
4.7800002 1.9449713 1.5812013 0
4.7850003 1.9393344 1.5825453 0
4.7910004 1.9341307 1.5841578 0
4.7960005 1.9284558 1.5855017 0
4.8020005 1.9232103 1.5871143 0
4.8080001 1.917943 1.5887268 0
4.8130002 1.9122106 1.5900706 0
4.8190002 1.906902 1.5916833 0
4.8250003 1.9015718 1.5932959 0
4.8300004 1.8957816 1.5946398 0
4.8360004 1.8904098 1.5962524 0
4.8420005 1.8850164 1.597865 0
4.8470001 1.8791684 1.5992088 0
4.8530002 1.8737334 1.6008214 0
4.8590002 1.8682771 1.6024339 0
4.8640003 1.8623713 1.6037779 0
4.8700004 1.8568734 1.6053904 0
4.8760004 1.8513539 1.6070031 0
4.8820004 1.8458124 1.6086156 0
4.8880005 1.8402495 1.6102283 0
4.8930001 1.8342463 1.6115721 0
4.8990002 1.828642 1.6131847 0
4.9050002 1.8230158 1.6147972 0
4.9110003 1.8173681 1.6164099 0
4.9170003 1.8116989 1.6180224 0
4.9230003 1.8060079 1.6196352 0
4.9290004 1.8002952 1.6212478 0
4.9350004 1.7945608 1.6228603 0
4.9400005 1.7884009 1.6242043 0
4.9460001 1.782625 1.6258167 0
4.9520001 1.7768275 1.6274292 0
4.9580002 1.7710084 1.6290419 0
4.9640002 1.7651677 1.6306546 0
4.9700003 1.7593054 1.6322672 0
4.9760003 1.7534214 1.6338798 0
4.9820004 1.7475157 1.6354923 0
4.9890003 1.741978 1.6373738 0
4.9950004 1.7360272 1.6389863 0
5.0010004 1.7300549 1.640599 0
5.0070004 1.7240609 1.6422117 0
5.0130005 1.7180451 1.6438242 0
5.0190005 1.7120078 1.6454369 0
5.0250001 1.7059487 1.6470493 0
5.0310001 1.6998681 1.6486619 0
5.0380001 1.6941409 1.6505433 0
5.0440001 1.6880152 1.6521559 0
5.0500002 1.6818678 1.6537685 0
5.0560002 1.6756989 1.6553812 0
5.0630002 1.6698761 1.6572624 0
5.0690002 1.663662 1.6588751 0
5.0750003 1.6574262 1.6604878 0
5.0820003 1.6515315 1.6623691 0
5.0880003 1.6452506 1.6639817 0
5.0940003 1.6389482 1.6655943 0
5.1010003 1.6329811 1.6674757 0
5.1070004 1.6266335 1.6690882 0
5.1130004 1.6202643 1.670701 0
5.1200004 1.614225 1.6725823 0
5.1260004 1.6078107 1.6741949 0
5.1330004 1.601723 1.6760763 0
4.4380002 2.2775252 1.4819992 0
4.4430003 2.2731094 1.4833339 0
4.4470005 2.2681041 1.4844018 0
4.4520001 2.2636538 1.4857365 0
4.4570003 2.2591858 1.4870715 0
4.4620004 2.2546997 1.4884063 0
4.4660001 2.2496307 1.4894741 0
4.4710002 2.2451105 1.4908088 0
4.4760003 2.2405725 1.4921438 0
4.4810004 2.2360158 1.4934785 0
4.4860001 2.2314413 1.4948133 0
4.4900002 2.2262933 1.4958812 0
4.4950004 2.2216845 1.4972161 0
4.5000005 2.2170579 1.4985509 0
4.5050001 2.2124128 1.4998856 0
4.5100002 2.2077501 1.5012205 0
4.5150003 2.2030694 1.5025554 0
4.5200005 2.1983705 1.5038903 0
4.5240002 2.1931102 1.5049579 0
4.5290003 2.1883774 1.5062928 0
4.5340004 2.1836259 1.5076276 0
4.5390005 2.1788568 1.5089625 0
4.5440001 2.1740694 1.5102973 0
4.5490003 2.1692641 1.5116321 0
4.5540004 2.1644406 1.512967 0
4.5590005 2.1595993 1.5143018 0
4.5640001 2.1547396 1.5156366 0
4.5690002 2.1498623 1.5169713 0
4.5740004 2.1449668 1.5183061 0
4.5790005 2.1400535 1.519641 0
4.5840001 2.1351216 1.5209757 0
4.5890002 2.1301718 1.5223106 0
4.5940003 2.1252043 1.5236455 0
4.5990005 2.1202185 1.5249803 0
4.6040001 2.1152148 1.5263151 0
4.6100001 2.1107051 1.5279169 0
4.6150002 2.1056638 1.5292517 0
4.6200004 2.1006038 1.5305866 0
4.6250005 2.0955262 1.5319214 0
4.6300001 2.0904305 1.5332561 0
4.6350002 2.0853167 1.534591 0
4.6410003 2.0806863 1.5361928 0
4.6460004 2.0755346 1.5375276 0
4.6510005 2.070365 1.5388625 0
4.6560001 2.0651772 1.5401971 0
4.6610003 2.0599713 1.541532 0
4.6670003 2.0552402 1.5431339 0
4.6720004 2.0499964 1.5444686 0
4.6770005 2.0447347 1.5458035 0
4.6820002 2.0394547 1.5471382 0
4.6880002 2.0346422 1.54874 0
4.6930003 2.0293245 1.5500748 0
4.6980004 2.023989 1.5514097 0
4.7040005 2.0191152 1.5530115 0
4.7090001 2.0137415 1.5543462 0
4.7140002 2.0083499 1.5556811 0
4.7200003 2.0034146 1.5572829 0
4.7250004 1.9979851 1.5586177 0
4.7310004 1.9930086 1.5602195 0
4.7360005 1.9875414 1.5615544 0
4.7410002 1.9820557 1.5628891 0
4.7470002 1.9770176 1.5644909 0
4.7520003 1.9714947 1.5658257 0
4.7580004 1.9664152 1.5674275 0
4.7630005 1.9608538 1.5687624 0
4.7690005 1.9557328 1.5703641 0
4.7740002 1.9501339 1.5716988 0
4.7800002 1.9449713 1.5733006 0
4.7850003 1.9393344 1.5746355 0
4.7910004 1.9341307 1.5762373 0
4.7960005 1.9284558 1.5775721 0
4.8020005 1.9232103 1.579174 0
4.8080001 1.917943 1.5807756 0
4.8130002 1.9122106 1.5821105 0
4.8190002 1.906902 1.5837122 0
4.8250003 1.9015718 1.585314 0
4.8300004 1.8957816 1.5866488 0
4.8360004 1.8904098 1.5882508 0
4.8420005 1.8850164 1.5898526 0
4.8470001 1.8791684 1.5911872 0
4.8530002 1.8737334 1.5927889 0
4.8590002 1.8682771 1.5943907 0
4.8640003 1.8623713 1.5957257 0
4.8700004 1.8568734 1.5973275 0
4.8760004 1.8513539 1.5989293 0
4.8820004 1.8458124 1.600531 0
4.8880005 1.8402495 1.6021328 0
4.8930001 1.8342463 1.6034675 0
4.8990002 1.828642 1.6050693 0
4.9050002 1.8230158 1.6066711 0
4.9110003 1.8173681 1.6082729 0
4.9170003 1.8116989 1.6098747 0
4.9230003 1.8060079 1.6114765 0
4.9290004 1.8002952 1.6130784 0
4.9350004 1.7945608 1.6146801 0
4.9400005 1.7884009 1.6160148 0
4.9460001 1.782625 1.6176165 0
4.9520001 1.7768275 1.6192183 0
4.9580002 1.7710084 1.6208202 0
4.9640002 1.7651677 1.622422 0
4.9700003 1.7593054 1.6240238 0
4.9760003 1.7534214 1.6256256 0
4.9820004 1.7475157 1.6272274 0
4.9890003 1.741978 1.6290962 0
4.9950004 1.7360272 1.630698 0
5.0010004 1.7300549 1.6322997 0
5.0070004 1.7240609 1.6339015 0
5.0130005 1.7180451 1.6355033 0
5.0190005 1.7120078 1.6371051 0
5.0250001 1.7059487 1.6387067 0
5.0310001 1.6998681 1.6403085 0
5.0380001 1.6941409 1.6421772 0
5.0440001 1.6880152 1.643779 0
5.0500002 1.6818678 1.6453809 0
5.0560002 1.6756989 1.6469827 0
5.0630002 1.6698761 1.6488514 0
5.0690002 1.663662 1.6504532 0
5.0750003 1.6574262 1.6520549 0
5.0820003 1.6515315 1.6539237 0
5.0880003 1.6452506 1.6555254 0
5.0940003 1.6389482 1.6571273 0
5.1010003 1.6329811 1.658996 0
5.1070004 1.6266335 1.6605978 0
5.1130004 1.6202643 1.6621996 0
5.1200004 1.614225 1.6640683 0
5.1260004 1.6078107 1.6656702 0
5.1330004 1.601723 1.6675389 0
4.4380002 2.2775252 1.4747154 0
4.4430003 2.2731094 1.4760412 0
4.4470005 2.2681041 1.4771018 0
4.4520001 2.2636538 1.4784275 0
4.4570003 2.2591858 1.4797534 0
4.4620004 2.2546997 1.4810792 0
4.4660001 2.2496307 1.4821398 0
4.4710002 2.2451105 1.4834656 0
4.4760003 2.2405725 1.4847915 0
4.4810004 2.2360158 1.4861172 0
4.4860001 2.2314413 1.487443 0
4.4900002 2.2262933 1.4885037 0
4.4950004 2.2216845 1.4898294 0
4.5000005 2.2170579 1.4911554 0
4.5050001 2.2124128 1.492481 0
4.5100002 2.2077501 1.4938068 0
4.5150003 2.2030694 1.4951327 0
4.5200005 2.1983705 1.4964585 0
4.5240002 2.1931102 1.4975191 0
4.5290003 2.1883774 1.4988449 0
4.5340004 2.1836259 1.5001707 0
4.5390005 2.1788568 1.5014966 0
4.5440001 2.1740694 1.5028223 0
4.5490003 2.1692641 1.5041481 0
4.5540004 2.1644406 1.505474 0
4.5590005 2.1595993 1.5067997 0
4.5640001 2.1547396 1.5081255 0
4.5690002 2.1498623 1.5094513 0
4.5740004 2.1449668 1.5107771 0
4.5790005 2.1400535 1.512103 0
4.5840001 2.1351216 1.5134286 0
4.5890002 2.1301718 1.5147544 0
4.5940003 2.1252043 1.5160804 0
4.5990005 2.1202185 1.5174061 0
4.6040001 2.1152148 1.5187318 0
4.6100001 2.1107051 1.5203228 0
4.6150002 2.1056638 1.5216486 0
4.6200004 2.1006038 1.5229745 0
4.6250005 2.0955262 1.5243003 0
4.6300001 2.0904305 1.5256259 0
4.6350002 2.0853167 1.5269519 0
4.6410003 2.0806863 1.5285428 0
4.6460004 2.0755346 1.5298686 0
4.6510005 2.070365 1.5311944 0
4.6560001 2.0651772 1.5325202 0
4.6610003 2.0599713 1.5338459 0
4.6670003 2.0552402 1.535437 0
4.6720004 2.0499964 1.5367628 0
4.6770005 2.0447347 1.5380886 0
4.6820002 2.0394547 1.5394143 0
4.6880002 2.0346422 1.5410053 0
4.6930003 2.0293245 1.5423311 0
4.6980004 2.023989 1.5436569 0
4.7040005 2.0191152 1.5452479 0
4.7090001 2.0137415 1.5465735 0
4.7140002 2.0083499 1.5478995 0
4.7200003 2.0034146 1.5494905 0
4.7250004 1.9979851 1.5508162 0
4.7310004 1.9930086 1.5524073 0
4.7360005 1.9875414 1.5537331 0
4.7410002 1.9820557 1.5550587 0
4.7470002 1.9770176 1.5566497 0
4.7520003 1.9714947 1.5579755 0
4.7580004 1.9664152 1.5595665 0
4.7630005 1.9608538 1.5608923 0
4.7690005 1.9557328 1.5624833 0
4.7740002 1.9501339 1.563809 0
4.7800002 1.9449713 1.5654 0
4.7850003 1.9393344 1.5667259 0
4.7910004 1.9341307 1.5683168 0
4.7960005 1.9284558 1.5696425 0
4.8020005 1.9232103 1.5712336 0
4.8080001 1.917943 1.5728245 0
4.8130002 1.9122106 1.5741502 0
4.8190002 1.906902 1.5757412 0
4.8250003 1.9015718 1.5773323 0
4.8300004 1.8957816 1.578658 0
4.8360004 1.8904098 1.580249 0
4.8420005 1.8850164 1.5818399 0
4.8470001 1.8791684 1.5831656 0
4.8530002 1.8737334 1.5847566 0
4.8590002 1.8682771 1.5863476 0
4.8640003 1.8623713 1.5876734 0
4.8700004 1.8568734 1.5892644 0
4.8760004 1.8513539 1.5908554 0
4.8820004 1.8458124 1.5924463 0
4.8880005 1.8402495 1.5940374 0
4.8930001 1.8342463 1.595363 0
4.8990002 1.828642 1.596954 0
4.9050002 1.8230158 1.5985451 0
4.9110003 1.8173681 1.6001359 0
4.9170003 1.8116989 1.6017269 0
4.9230003 1.8060079 1.6033179 0
4.9290004 1.8002952 1.6049088 0
4.9350004 1.7945608 1.6064998 0
4.9400005 1.7884009 1.6078256 0
4.9460001 1.782625 1.6094165 0
4.9520001 1.7768275 1.6110075 0
4.9580002 1.7710084 1.6125984 0
4.9640002 1.7651677 1.6141894 0
4.9700003 1.7593054 1.6157804 0
4.9760003 1.7534214 1.6173714 0
4.9820004 1.7475157 1.6189623 0
4.9890003 1.741978 1.6208184 0
4.9950004 1.7360272 1.6224093 0
5.0010004 1.7300549 1.6240003 0
5.0070004 1.7240609 1.6255914 0
5.0130005 1.7180451 1.6271824 0
5.0190005 1.7120078 1.6287732 0
5.0250001 1.7059487 1.6303641 0
5.0310001 1.6998681 1.6319551 0
5.0380001 1.6941409 1.6338112 0
5.0440001 1.6880152 1.6354022 0
5.0500002 1.6818678 1.6369931 0
5.0560002 1.6756989 1.638584 0
5.0630002 1.6698761 1.6404402 0
5.0690002 1.663662 1.6420312 0
5.0750003 1.6574262 1.6436222 0
5.0820003 1.6515315 1.6454782 0
5.0880003 1.6452506 1.6470692 0
5.0940003 1.6389482 1.6486603 0
5.1010003 1.6329811 1.6505164 0
5.1070004 1.6266335 1.6521072 0
5.1130004 1.6202643 1.6536982 0
5.1200004 1.614225 1.6555543 0
5.1260004 1.6078107 1.6571454 0
5.1330004 1.601723 1.6590015 0
4.4380002 2.2775252 1.4674315 0
4.4430003 2.2731094 1.4687483 0
4.4470005 2.2681041 1.4698018 0
4.4520001 2.2636538 1.4711185 0
4.4570003 2.2591858 1.4724354 0
4.4620004 2.2546997 1.4737521 0
4.4660001 2.2496307 1.4748055 0
4.4710002 2.2451105 1.4761224 0
4.4760003 2.2405725 1.477439 0
4.4810004 2.2360158 1.478756 0
4.4860001 2.2314413 1.4800726 0
4.4900002 2.2262933 1.4811261 0
4.4950004 2.2216845 1.482443 0
4.5000005 2.2170579 1.4837596 0
4.5050001 2.2124128 1.4850764 0
4.5100002 2.2077501 1.4863932 0
4.5150003 2.2030694 1.48771 0
4.5200005 2.1983705 1.4890269 0
4.5240002 2.1931102 1.4900801 0
4.5290003 2.1883774 1.491397 0
4.5340004 2.1836259 1.4927138 0
4.5390005 2.1788568 1.4940306 0
4.5440001 2.1740694 1.4953473 0
4.5490003 2.1692641 1.496664 0
4.5540004 2.1644406 1.497981 0
4.5590005 2.1595993 1.4992977 0
4.5640001 2.1547396 1.5006144 0
4.5690002 2.1498623 1.5019312 0
4.5740004 2.1449668 1.5032481 0
4.5790005 2.1400535 1.5045648 0
4.5840001 2.1351216 1.5058815 0
4.5890002 2.1301718 1.5071982 0
4.5940003 2.1252043 1.5085151 0
4.5990005 2.1202185 1.509832 0
4.6040001 2.1152148 1.5111486 0
4.6100001 2.1107051 1.5127288 0
4.6150002 2.1056638 1.5140456 0
4.6200004 2.1006038 1.5153624 0
4.6250005 2.0955262 1.5166792 0
4.6300001 2.0904305 1.517996 0
4.6350002 2.0853167 1.5193126 0
4.6410003 2.0806863 1.5208929 0
4.6460004 2.0755346 1.5222096 0
4.6510005 2.070365 1.5235264 0
4.6560001 2.0651772 1.5248431 0
4.6610003 2.0599713 1.52616 0
4.6670003 2.0552402 1.5277401 0
4.6720004 2.0499964 1.5290569 0
4.6770005 2.0447347 1.5303737 0
4.6820002 2.0394547 1.5316904 0
4.6880002 2.0346422 1.5332706 0
4.6930003 2.0293245 1.5345874 0
4.6980004 2.023989 1.5359042 0
4.7040005 2.0191152 1.5374843 0
4.7090001 2.0137415 1.5388011 0
4.7140002 2.0083499 1.5401177 0
4.7200003 2.0034146 1.541698 0
4.7250004 1.9979851 1.5430148 0
4.7310004 1.9930086 1.5445949 0
4.7360005 1.9875414 1.5459118 0
4.7410002 1.9820557 1.5472285 0
4.7470002 1.9770176 1.5488085 0
4.7520003 1.9714947 1.5501254 0
4.7580004 1.9664152 1.5517056 0
4.7630005 1.9608538 1.5530223 0
4.7690005 1.9557328 1.5546025 0
4.7740002 1.9501339 1.5559192 0
4.7800002 1.9449713 1.5574994 0
4.7850003 1.9393344 1.5588161 0
4.7910004 1.9341307 1.5603963 0
4.7960005 1.9284558 1.5617131 0
4.8020005 1.9232103 1.5632932 0
4.8080001 1.917943 1.5648732 0
4.8130002 1.9122106 1.5661901 0
4.8190002 1.906902 1.5677701 0
4.8250003 1.9015718 1.5693504 0
4.8300004 1.8957816 1.5706671 0
4.8360004 1.8904098 1.5722474 0
4.8420005 1.8850164 1.5738274 0
4.8470001 1.8791684 1.5751442 0
4.8530002 1.8737334 1.5767243 0
4.8590002 1.8682771 1.5783045 0
4.8640003 1.8623713 1.5796212 0
4.8700004 1.8568734 1.5812014 0
4.8760004 1.8513539 1.5827816 0
4.8820004 1.8458124 1.5843617 0
4.8880005 1.8402495 1.5859418 0
4.8930001 1.8342463 1.5872586 0
4.8990002 1.828642 1.5888387 0
4.9050002 1.8230158 1.5904188 0
4.9110003 1.8173681 1.5919989 0
4.9170003 1.8116989 1.5935792 0
4.9230003 1.8060079 1.5951593 0
4.9290004 1.8002952 1.5967394 0
4.9350004 1.7945608 1.5983195 0
4.9400005 1.7884009 1.5996364 0
4.9460001 1.782625 1.6012164 0
4.9520001 1.7768275 1.6027964 0
4.9580002 1.7710084 1.6043767 0
4.9640002 1.7651677 1.6059568 0
4.9700003 1.7593054 1.607537 0
4.9760003 1.7534214 1.609117 0
4.9820004 1.7475157 1.6106973 0
4.9890003 1.741978 1.6125407 0
4.9950004 1.7360272 1.614121 0
5.0010004 1.7300549 1.615701 0
5.0070004 1.7240609 1.6172812 0
5.0130005 1.7180451 1.6188613 0
5.0190005 1.7120078 1.6204416 0
5.0250001 1.7059487 1.6220214 0
5.0310001 1.6998681 1.6236016 0
5.0380001 1.6941409 1.6254451 0
5.0440001 1.6880152 1.6270252 0
5.0500002 1.6818678 1.6286055 0
5.0560002 1.6756989 1.6301855 0
5.0630002 1.6698761 1.6320291 0
5.0690002 1.663662 1.6336092 0
5.0750003 1.6574262 1.6351894 0
5.0820003 1.6515315 1.6370329 0
5.0880003 1.6452506 1.638613 0
5.0940003 1.6389482 1.6401931 0
5.1010003 1.6329811 1.6420366 0
5.1070004 1.6266335 1.6436168 0
5.1130004 1.6202643 1.6451969 0
5.1200004 1.614225 1.6470404 0
5.1260004 1.6078107 1.6486205 0
5.1330004 1.601723 1.6504641 0
4.4380002 2.2775252 1.4601477 0
4.4430003 2.2731094 1.4614556 0
4.4470005 2.2681041 1.4625019 0
4.4520001 2.2636538 1.4638095 0
4.4570003 2.2591858 1.4651172 0
4.4620004 2.2546997 1.4664251 0
4.4660001 2.2496307 1.4674712 0
4.4710002 2.2451105 1.4687791 0
4.4760003 2.2405725 1.4700868 0
4.4810004 2.2360158 1.4713945 0
4.4860001 2.2314413 1.4727021 0
4.4900002 2.2262933 1.4737486 0
4.4950004 2.2216845 1.4750563 0
4.5000005 2.2170579 1.4763641 0
4.5050001 2.2124128 1.4776717 0
4.5100002 2.2077501 1.4789796 0
4.5150003 2.2030694 1.4802873 0
4.5200005 2.1983705 1.481595 0
4.5240002 2.1931102 1.4826412 0
4.5290003 2.1883774 1.4839491 0
4.5340004 2.1836259 1.4852569 0
4.5390005 2.1788568 1.4865646 0
4.5440001 2.1740694 1.4878722 0
4.5490003 2.1692641 1.4891801 0
4.5540004 2.1644406 1.4904878 0
4.5590005 2.1595993 1.4917957 0
4.5640001 2.1547396 1.4931034 0
4.5690002 2.1498623 1.4944111 0
4.5740004 2.1449668 1.495719 0
4.5790005 2.1400535 1.4970268 0
4.5840001 2.1351216 1.4983344 0
4.5890002 2.1301718 1.4996421 0
4.5940003 2.1252043 1.5009499 0
4.5990005 2.1202185 1.5022577 0
4.6040001 2.1152148 1.5035654 0
4.6100001 2.1107051 1.5051347 0
4.6150002 2.1056638 1.5064425 0
4.6200004 2.1006038 1.5077503 0
4.6250005 2.0955262 1.5090581 0
4.6300001 2.0904305 1.5103657 0
4.6350002 2.0853167 1.5116736 0
4.6410003 2.0806863 1.5132428 0
4.6460004 2.0755346 1.5145507 0
4.6510005 2.070365 1.5158585 0
4.6560001 2.0651772 1.5171661 0
4.6610003 2.0599713 1.518474 0
4.6670003 2.0552402 1.5200433 0
4.6720004 2.0499964 1.5213511 0
4.6770005 2.0447347 1.5226588 0
4.6820002 2.0394547 1.5239666 0
4.6880002 2.0346422 1.5255358 0
4.6930003 2.0293245 1.5268437 0
4.6980004 2.023989 1.5281514 0
4.7040005 2.0191152 1.5297208 0
4.7090001 2.0137415 1.5310284 0
4.7140002 2.0083499 1.5323362 0
4.7200003 2.0034146 1.5339055 0
4.7250004 1.9979851 1.5352134 0
4.7310004 1.9930086 1.5367826 0
4.7360005 1.9875414 1.5380905 0
4.7410002 1.9820557 1.5393981 0
4.7470002 1.9770176 1.5409673 0
4.7520003 1.9714947 1.5422752 0
4.7580004 1.9664152 1.5438445 0
4.7630005 1.9608538 1.5451523 0
4.7690005 1.9557328 1.5467217 0
4.7740002 1.9501339 1.5480293 0
4.7800002 1.9449713 1.5495987 0
4.7850003 1.9393344 1.5509064 0
4.7910004 1.9341307 1.5524758 0
4.7960005 1.9284558 1.5537835 0
4.8020005 1.9232103 1.5553528 0
4.8080001 1.917943 1.556922 0
4.8130002 1.9122106 1.5582298 0
4.8190002 1.906902 1.5597992 0
4.8250003 1.9015718 1.5613685 0
4.8300004 1.8957816 1.5626763 0
4.8360004 1.8904098 1.5642456 0
4.8420005 1.8850164 1.5658149 0
4.8470001 1.8791684 1.5671226 0
4.8530002 1.8737334 1.5686918 0
4.8590002 1.8682771 1.5702612 0
4.8640003 1.8623713 1.5715691 0
4.8700004 1.8568734 1.5731384 0
4.8760004 1.8513539 1.5747076 0
4.8820004 1.8458124 1.576277 0
4.8880005 1.8402495 1.5778464 0
4.8930001 1.8342463 1.579154 0
4.8990002 1.828642 1.5807233 0
4.9050002 1.8230158 1.5822927 0
4.9110003 1.8173681 1.5838619 0
4.9170003 1.8116989 1.5854313 0
4.9230003 1.8060079 1.5870006 0
4.9290004 1.8002952 1.5885699 0
4.9350004 1.7945608 1.5901393 0
4.9400005 1.7884009 1.591447 0
4.9460001 1.782625 1.5930163 0
4.9520001 1.7768275 1.5945855 0
4.9580002 1.7710084 1.5961549 0
4.9640002 1.7651677 1.5977242 0
4.9700003 1.7593054 1.5992936 0
4.9760003 1.7534214 1.6008629 0
4.9820004 1.7475157 1.6024321 0
4.9890003 1.741978 1.6042631 0
4.9950004 1.7360272 1.6058323 0
5.0010004 1.7300549 1.6074016 0
5.0070004 1.7240609 1.6089711 0
5.0130005 1.7180451 1.6105404 0
5.0190005 1.7120078 1.6121097 0
5.0250001 1.7059487 1.6136789 0
5.0310001 1.6998681 1.6152482 0
5.0380001 1.6941409 1.617079 0
5.0440001 1.6880152 1.6186484 0
5.0500002 1.6818678 1.6202177 0
5.0560002 1.6756989 1.621787 0
5.0630002 1.6698761 1.6236179 0
5.0690002 1.663662 1.6251872 0
5.0750003 1.6574262 1.6267565 0
5.0820003 1.6515315 1.6285874 0
5.0880003 1.6452506 1.6301566 0
5.0940003 1.6389482 1.631726 0
5.1010003 1.6329811 1.6335568 0
5.1070004 1.6266335 1.6351262 0
5.1130004 1.6202643 1.6366956 0
5.1200004 1.614225 1.6385264 0
5.1260004 1.6078107 1.6400957 0
5.1330004 1.601723 1.6419265 0
5.1390004 1.5952635 1.6434959 0
4.4380002 2.2775252 1.4528641 0
4.4430003 2.2731094 1.4541627 0
4.4470005 2.2681041 1.4552019 0
4.4520001 2.2636538 1.4565005 0
4.4570003 2.2591858 1.4577992 0
4.4620004 2.2546997 1.459098 0
4.4660001 2.2496307 1.460137 0
4.4710002 2.2451105 1.4614357 0
4.4760003 2.2405725 1.4627345 0
4.4810004 2.2360158 1.4640332 0
4.4860001 2.2314413 1.4653318 0
4.4900002 2.2262933 1.4663709 0
4.4950004 2.2216845 1.4676697 0
4.5000005 2.2170579 1.4689684 0
4.5050001 2.2124128 1.4702671 0
4.5100002 2.2077501 1.471566 0
4.5150003 2.2030694 1.4728647 0
4.5200005 2.1983705 1.4741634 0
4.5240002 2.1931102 1.4752023 0
4.5290003 2.1883774 1.4765011 0
4.5340004 2.1836259 1.4777999 0
4.5390005 2.1788568 1.4790987 0
4.5440001 2.1740694 1.4803973 0
4.5490003 2.1692641 1.4816961 0
4.5540004 2.1644406 1.4829948 0
4.5590005 2.1595993 1.4842936 0
4.5640001 2.1547396 1.4855924 0
4.5690002 2.1498623 1.486891 0
4.5740004 2.1449668 1.4881898 0
4.5790005 2.1400535 1.4894886 0
4.5840001 2.1351216 1.4907871 0
4.5890002 2.1301718 1.4920859 0
4.5940003 2.1252043 1.4933848 0
4.5990005 2.1202185 1.4946836 0
4.6040001 2.1152148 1.4959822 0
4.6100001 2.1107051 1.4975407 0
4.6150002 2.1056638 1.4988395 0
4.6200004 2.1006038 1.5001383 0
4.6250005 2.0955262 1.5014369 0
4.6300001 2.0904305 1.5027356 0
4.6350002 2.0853167 1.5040344 0
4.6410003 2.0806863 1.5055929 0
4.6460004 2.0755346 1.5068917 0
4.6510005 2.070365 1.5081905 0
4.6560001 2.0651772 1.5094892 0
4.6610003 2.0599713 1.510788 0
4.6670003 2.0552402 1.5123464 0
4.6720004 2.0499964 1.5136452 0
4.6770005 2.0447347 1.514944 0
4.6820002 2.0394547 1.5162426 0
4.6880002 2.0346422 1.5178012 0
4.6930003 2.0293245 1.5190998 0
4.6980004 2.023989 1.5203986 0
4.7040005 2.0191152 1.5219572 0
4.7090001 2.0137415 1.5232557 0
4.7140002 2.0083499 1.5245545 0
4.7200003 2.0034146 1.526113 0
4.7250004 1.9979851 1.5274118 0
4.7310004 1.9930086 1.5289704 0
4.7360005 1.9875414 1.530269 0
4.7410002 1.9820557 1.5315677 0
4.7470002 1.9770176 1.5331262 0
4.7520003 1.9714947 1.534425 0
4.7580004 1.9664152 1.5359836 0
4.7630005 1.9608538 1.5372822 0
4.7690005 1.9557328 1.5388408 0
4.7740002 1.9501339 1.5401394 0
4.7800002 1.9449713 1.541698 0
4.7850003 1.9393344 1.5429968 0
4.7910004 1.9341307 1.5445552 0
4.7960005 1.9284558 1.545854 0
4.8020005 1.9232103 1.5474125 0
4.8080001 1.917943 1.5489709 0
4.8130002 1.9122106 1.5502697 0
4.8190002 1.906902 1.5518281 0
4.8250003 1.9015718 1.5533866 0
4.8300004 1.8957816 1.5546855 0
4.8360004 1.8904098 1.5562439 0
4.8420005 1.8850164 1.5578024 0
4.8470001 1.8791684 1.559101 0
4.8530002 1.8737334 1.5606595 0
4.8590002 1.8682771 1.5622181 0
4.8640003 1.8623713 1.5635169 0
4.8700004 1.8568734 1.5650754 0
4.8760004 1.8513539 1.5666339 0
4.8820004 1.8458124 1.5681924 0
4.8880005 1.8402495 1.5697508 0
4.8930001 1.8342463 1.5710495 0
4.8990002 1.828642 1.572608 0
4.9050002 1.8230158 1.5741665 0
4.9110003 1.8173681 1.5757251 0
4.9170003 1.8116989 1.5772834 0
4.9230003 1.8060079 1.5788419 0
4.9290004 1.8002952 1.5804005 0
4.9350004 1.7945608 1.581959 0
4.9400005 1.7884009 1.5832578 0
4.9460001 1.782625 1.5848162 0
4.9520001 1.7768275 1.5863748 0
4.9580002 1.7710084 1.5879331 0
4.9640002 1.7651677 1.5894916 0
4.9700003 1.7593054 1.5910501 0
4.9760003 1.7534214 1.5926087 0
4.9820004 1.7475157 1.5941671 0
4.9890003 1.741978 1.5959854 0
4.9950004 1.7360272 1.597544 0
5.0010004 1.7300549 1.5991024 0
5.0070004 1.7240609 1.6006609 0
5.0130005 1.7180451 1.6022193 0
5.0190005 1.7120078 1.6037779 0
5.0250001 1.7059487 1.6053363 0
5.0310001 1.6998681 1.6068947 0
5.0380001 1.6941409 1.608713 0
5.0440001 1.6880152 1.6102716 0
5.0500002 1.6818678 1.61183 0
5.0560002 1.6756989 1.6133884 0
5.0630002 1.6698761 1.6152068 0
5.0690002 1.663662 1.6167651 0
5.0750003 1.6574262 1.6183237 0
5.0820003 1.6515315 1.620142 0
5.0880003 1.6452506 1.6217004 0
5.0940003 1.6389482 1.6232589 0
5.1010003 1.6329811 1.6250772 0
5.1070004 1.6266335 1.6266357 0
5.1130004 1.6202643 1.6281942 0
5.1200004 1.614225 1.6300125 0
5.1260004 1.6078107 1.6315709 0
5.1330004 1.601723 1.6333892 0
5.1390004 1.5952635 1.6349477 0
4.4380002 2.2775252 1.4455802 0
4.4430003 2.2731094 1.44687 0
4.4470005 2.2681041 1.4479018 0
4.4520001 2.2636538 1.4491915 0
4.4570003 2.2591858 1.4504812 0
4.4620004 2.2546997 1.4517709 0
4.4660001 2.2496307 1.4528027 0
4.4710002 2.2451105 1.4540924 0
4.4760003 2.2405725 1.4553821 0
4.4810004 2.2360158 1.456672 0
4.4860001 2.2314413 1.4579614 0
4.4900002 2.2262933 1.4589933 0
4.4950004 2.2216845 1.460283 0
4.5000005 2.2170579 1.4615729 0
4.5050001 2.2124128 1.4628625 0
4.5100002 2.2077501 1.4641523 0
4.5150003 2.2030694 1.4654419 0
4.5200005 2.1983705 1.4667317 0
4.5240002 2.1931102 1.4677634 0
4.5290003 2.1883774 1.4690531 0
4.5340004 2.1836259 1.470343 0
4.5390005 2.1788568 1.4716327 0
4.5440001 2.1740694 1.4729223 0
4.5490003 2.1692641 1.4742121 0
4.5540004 2.1644406 1.4755018 0
4.5590005 2.1595993 1.4767916 0
4.5640001 2.1547396 1.4780812 0
4.5690002 2.1498623 1.479371 0
4.5740004 2.1449668 1.4806607 0
4.5790005 2.1400535 1.4819505 0
4.5840001 2.1351216 1.4832401 0
4.5890002 2.1301718 1.4845299 0
4.5940003 2.1252043 1.4858197 0
4.5990005 2.1202185 1.4871093 0
4.6040001 2.1152148 1.488399 0
4.6100001 2.1107051 1.4899467 0
4.6150002 2.1056638 1.4912363 0
4.6200004 2.1006038 1.4925262 0
4.6250005 2.0955262 1.4938159 0
4.6300001 2.0904305 1.4951056 0
4.6350002 2.0853167 1.4963953 0
4.6410003 2.0806863 1.4979429 0
4.6460004 2.0755346 1.4992328 0
4.6510005 2.070365 1.5005225 0
4.6560001 2.0651772 1.5018122 0
4.6610003 2.0599713 1.5031018 0
4.6670003 2.0552402 1.5046495 0
4.6720004 2.0499964 1.5059394 0
4.6770005 2.0447347 1.5072291 0
4.6820002 2.0394547 1.5085187 0
4.6880002 2.0346422 1.5100664 0
4.6930003 2.0293245 1.5113561 0
4.6980004 2.023989 1.512646 0
4.7040005 2.0191152 1.5141935 0
4.7090001 2.0137415 1.5154831 0
4.7140002 2.0083499 1.516773 0
4.7200003 2.0034146 1.5183206 0
4.7250004 1.9979851 1.5196104 0
4.7310004 1.9930086 1.5211581 0
4.7360005 1.9875414 1.5224477 0
4.7410002 1.9820557 1.5237374 0
4.7470002 1.9770176 1.5252851 0
4.7520003 1.9714947 1.5265749 0
4.7580004 1.9664152 1.5281225 0
4.7630005 1.9608538 1.5294123 0
4.7690005 1.9557328 1.53096 0
4.7740002 1.9501339 1.5322496 0
4.7800002 1.9449713 1.5337973 0
4.7850003 1.9393344 1.5350871 0
4.7910004 1.9341307 1.5366347 0
4.7960005 1.9284558 1.5379244 0
4.8020005 1.9232103 1.5394722 0
4.8080001 1.917943 1.5410197 0
4.8130002 1.9122106 1.5423094 0
4.8190002 1.906902 1.5438571 0
4.8250003 1.9015718 1.5454048 0
4.8300004 1.8957816 1.5466945 0
4.8360004 1.8904098 1.5482422 0
4.8420005 1.8850164 1.5497899 0
4.8470001 1.8791684 1.5510795 0
4.8530002 1.8737334 1.5526272 0
4.8590002 1.8682771 1.5541749 0
4.8640003 1.8623713 1.5554646 0
4.8700004 1.8568734 1.5570123 0
4.8760004 1.8513539 1.55856 0
4.8820004 1.8458124 1.5601076 0
4.8880005 1.8402495 1.5616554 0
4.8930001 1.8342463 1.562945 0
4.8990002 1.828642 1.5644926 0
4.9050002 1.8230158 1.5660404 0
4.9110003 1.8173681 1.567588 0
4.9170003 1.8116989 1.5691357 0
4.9230003 1.8060079 1.5706835 0
4.9290004 1.8002952 1.5722311 0
4.9350004 1.7945608 1.5737787 0
4.9400005 1.7884009 1.5750686 0
4.9460001 1.782625 1.576616 0
4.9520001 1.7768275 1.5781637 0
4.9580002 1.7710084 1.5797114 0
4.9640002 1.7651677 1.5812591 0
4.9700003 1.7593054 1.5828067 0
4.9760003 1.7534214 1.5843544 0
4.9820004 1.7475157 1.5859021 0
4.9890003 1.741978 1.5877078 0
4.9950004 1.7360272 1.5892553 0
5.0010004 1.7300549 1.590803 0
5.0070004 1.7240609 1.5923507 0
5.0130005 1.7180451 1.5938984 0
5.0190005 1.7120078 1.5954461 0
5.0250001 1.7059487 1.5969937 0
5.0310001 1.6998681 1.5985414 0
5.0380001 1.6941409 1.6003469 0
5.0440001 1.6880152 1.6018946 0
5.0500002 1.6818678 1.6034423 0
5.0560002 1.6756989 1.60499 0
5.0630002 1.6698761 1.6067955 0
5.0690002 1.663662 1.6083432 0
5.0750003 1.6574262 1.6098909 0
5.0820003 1.6515315 1.6116965 0
5.0880003 1.6452506 1.6132442 0
5.0940003 1.6389482 1.614792 0
5.1010003 1.6329811 1.6165975 0
5.1070004 1.6266335 1.6181451 0
5.1130004 1.6202643 1.6196928 0
5.1200004 1.614225 1.6214985 0
5.1260004 1.6078107 1.6230462 0
5.1330004 1.601723 1.6248517 0
5.1390004 1.5952635 1.6263994 0
4.4380002 2.2775252 1.4382964 0
4.4430003 2.2731094 1.4395771 0
4.4470005 2.2681041 1.4406018 0
4.4520001 2.2636538 1.4418825 0
4.4570003 2.2591858 1.443163 0
4.4620004 2.2546997 1.4444438 0
4.4660001 2.2496307 1.4454684 0
4.4710002 2.2451105 1.4467491 0
4.4760003 2.2405725 1.4480299 0
4.4810004 2.2360158 1.4493107 0
4.4860001 2.2314413 1.4505911 0
4.4900002 2.2262933 1.4516158 0
4.4950004 2.2216845 1.4528966 0
4.5000005 2.2170579 1.4541773 0
4.5050001 2.2124128 1.4554578 0
4.5100002 2.2077501 1.4567386 0
4.5150003 2.2030694 1.4580193 0
4.5200005 2.1983705 1.4593 0
4.5240002 2.1931102 1.4603245 0
4.5290003 2.1883774 1.4616053 0
4.5340004 2.1836259 1.462886 0
4.5390005 2.1788568 1.4641668 0
4.5440001 2.1740694 1.4654473 0
4.5490003 2.1692641 1.4667281 0
4.5540004 2.1644406 1.4680089 0
4.5590005 2.1595993 1.4692895 0
4.5640001 2.1547396 1.4705702 0
4.5690002 2.1498623 1.471851 0
4.5740004 2.1449668 1.4731315 0
4.5790005 2.1400535 1.4744123 0
4.5840001 2.1351216 1.475693 0
4.5890002 2.1301718 1.4769737 0
4.5940003 2.1252043 1.4782544 0
4.5990005 2.1202185 1.4795352 0
4.6040001 2.1152148 1.4808158 0
4.6100001 2.1107051 1.4823526 0
4.6150002 2.1056638 1.4836334 0
4.6200004 2.1006038 1.4849142 0
4.6250005 2.0955262 1.4861948 0
4.6300001 2.0904305 1.4874754 0
4.6350002 2.0853167 1.4887562 0
4.6410003 2.0806863 1.490293 0
4.6460004 2.0755346 1.4915738 0
4.6510005 2.070365 1.4928545 0
4.6560001 2.0651772 1.4941351 0
4.6610003 2.0599713 1.4954158 0
4.6670003 2.0552402 1.4969527 0
4.6720004 2.0499964 1.4982334 0
4.6770005 2.0447347 1.4995141 0
4.6820002 2.0394547 1.5007948 0
4.6880002 2.0346422 1.5023316 0
4.6930003 2.0293245 1.5036124 0
4.6980004 2.023989 1.5048931 0
4.7040005 2.0191152 1.5064299 0
4.7090001 2.0137415 1.5077106 0
4.7140002 2.0083499 1.5089912 0
4.7200003 2.0034146 1.5105281 0
4.7250004 1.9979851 1.5118089 0
4.7310004 1.9930086 1.5133458 0
4.7360005 1.9875414 1.5146264 0
4.7410002 1.9820557 1.515907 0
4.7470002 1.9770176 1.517444 0
4.7520003 1.9714947 1.5187247 0
4.7580004 1.9664152 1.5202615 0
4.7630005 1.9608538 1.5215423 0
4.7690005 1.9557328 1.5230792 0
4.7740002 1.9501339 1.5243598 0
4.7800002 1.9449713 1.5258965 0
4.7850003 1.9393344 1.5271773 0
4.7910004 1.9341307 1.5287142 0
4.7960005 1.9284558 1.529995 0
4.8020005 1.9232103 1.5315317 0
4.8080001 1.917943 1.5330684 0
4.8130002 1.9122106 1.5343492 0
4.8190002 1.906902 1.5358862 0
4.8250003 1.9015718 1.537423 0
4.8300004 1.8957816 1.5387037 0
4.8360004 1.8904098 1.5402405 0
4.8420005 1.8850164 1.5417774 0
4.8470001 1.8791684 1.543058 0
4.8530002 1.8737334 1.5445948 0
4.8590002 1.8682771 1.5461317 0
4.8640003 1.8623713 1.5474125 0
4.8700004 1.8568734 1.5489494 0
4.8760004 1.8513539 1.5504861 0
4.8820004 1.8458124 1.5520229 0
4.8880005 1.8402495 1.5535599 0
4.8930001 1.8342463 1.5548404 0
4.8990002 1.828642 1.5563774 0
4.9050002 1.8230158 1.5579141 0
4.9110003 1.8173681 1.559451 0
4.9170003 1.8116989 1.5609878 0
4.9230003 1.8060079 1.5625248 0
4.9290004 1.8002952 1.5640616 0
4.9350004 1.7945608 1.5655985 0
4.9400005 1.7884009 1.5668792 0
4.9460001 1.782625 1.5684159 0
4.9520001 1.7768275 1.5699528 0
4.9580002 1.7710084 1.5714897 0
4.9640002 1.7651677 1.5730265 0
4.9700003 1.7593054 1.5745633 0
4.9760003 1.7534214 1.5761002 0
4.9820004 1.7475157 1.5776371 0
4.9890003 1.741978 1.5794301 0
4.9950004 1.7360272 1.5809669 0
5.0010004 1.7300549 1.5825038 0
5.0070004 1.7240609 1.5840405 0
5.0130005 1.7180451 1.5855775 0
5.0190005 1.7120078 1.5871143 0
5.0250001 1.7059487 1.5886511 0
5.0310001 1.6998681 1.5901879 0
5.0380001 1.6941409 1.5919809 0
5.0440001 1.6880152 1.5935177 0
5.0500002 1.6818678 1.5950545 0
5.0560002 1.6756989 1.5965915 0
5.0630002 1.6698761 1.5983844 0
5.0690002 1.663662 1.5999213 0
5.0750003 1.6574262 1.6014582 0
5.0820003 1.6515315 1.6032511 0
5.0880003 1.6452506 1.6047879 0
5.0940003 1.6389482 1.6063248 0
5.1010003 1.6329811 1.6081178 0
5.1070004 1.6266335 1.6096547 0
5.1130004 1.6202643 1.6111915 0
5.1200004 1.614225 1.6129845 0
5.1260004 1.6078107 1.6145214 0
5.1330004 1.601723 1.6163144 0
5.1390004 1.5952635 1.6178511 0
4.4380002 2.2775252 1.4310127 0
4.4430003 2.2731094 1.4322845 0
4.4470005 2.2681041 1.4333018 0
4.4520001 2.2636538 1.4345734 0
4.4570003 2.2591858 1.4358451 0
4.4620004 2.2546997 1.4371169 0
4.4660001 2.2496307 1.4381341 0
4.4710002 2.2451105 1.4394057 0
4.4760003 2.2405725 1.4406774 0
4.4810004 2.2360158 1.4419491 0
4.4860001 2.2314413 1.4432207 0
4.4900002 2.2262933 1.4442382 0
4.4950004 2.2216845 1.4455099 0
4.5000005 2.2170579 1.4467816 0
4.5050001 2.2124128 1.4480532 0
4.5100002 2.2077501 1.449325 0
4.5150003 2.2030694 1.4505967 0
4.5200005 2.1983705 1.4518683 0
4.5240002 2.1931102 1.4528856 0
4.5290003 2.1883774 1.4541574 0
4.5340004 2.1836259 1.4554291 0
4.5390005 2.1788568 1.4567008 0
4.5440001 2.1740694 1.4579724 0
4.5490003 2.1692641 1.4592441 0
4.5540004 2.1644406 1.4605159 0
4.5590005 2.1595993 1.4617876 0
4.5640001 2.1547396 1.4630592 0
4.5690002 2.1498623 1.4643309 0
4.5740004 2.1449668 1.4656025 0
4.5790005 2.1400535 1.4668742 0
4.5840001 2.1351216 1.4681458 0
4.5890002 2.1301718 1.4694176 0
4.5940003 2.1252043 1.4706892 0
4.5990005 2.1202185 1.4719609 0
4.6040001 2.1152148 1.4732325 0
4.6100001 2.1107051 1.4747586 0
4.6150002 2.1056638 1.4760302 0
4.6200004 2.1006038 1.477302 0
4.6250005 2.0955262 1.4785737 0
4.6300001 2.0904305 1.4798453 0
4.6350002 2.0853167 1.481117 0
4.6410003 2.0806863 1.4826431 0
4.6460004 2.0755346 1.4839147 0
4.6510005 2.070365 1.4851865 0
4.6560001 2.0651772 1.4864581 0
4.6610003 2.0599713 1.4877298 0
4.6670003 2.0552402 1.4892559 0
4.6720004 2.0499964 1.4905276 0
4.6770005 2.0447347 1.4917994 0
4.6820002 2.0394547 1.493071 0
4.6880002 2.0346422 1.494597 0
4.6930003 2.0293245 1.4958687 0
4.6980004 2.023989 1.4971404 0
4.7040005 2.0191152 1.4986664 0
4.7090001 2.0137415 1.499938 0
4.7140002 2.0083499 1.5012097 0
4.7200003 2.0034146 1.5027356 0
4.7250004 1.9979851 1.5040073 0
4.7310004 1.9930086 1.5055335 0
4.7360005 1.9875414 1.5068051 0
4.7410002 1.9820557 1.5080767 0
4.7470002 1.9770176 1.5096028 0
4.7520003 1.9714947 1.5108745 0
4.7580004 1.9664152 1.5124005 0
4.7630005 1.9608538 1.5136722 0
4.7690005 1.9557328 1.5151982 0
4.7740002 1.9501339 1.5164698 0
4.7800002 1.9449713 1.517996 0
4.7850003 1.9393344 1.5192677 0
4.7910004 1.9341307 1.5207937 0
4.7960005 1.9284558 1.5220654 0
4.8020005 1.9232103 1.5235914 0
4.8080001 1.917943 1.5251174 0
4.8130002 1.9122106 1.526389 0
4.8190002 1.906902 1.5279151 0
4.8250003 1.9015718 1.5294411 0
4.8300004 1.8957816 1.5307128 0
4.8360004 1.8904098 1.5322388 0
4.8420005 1.8850164 1.533765 0
4.8470001 1.8791684 1.5350364 0
4.8530002 1.8737334 1.5365624 0
4.8590002 1.8682771 1.5380884 0
4.8640003 1.8623713 1.5393602 0
4.8700004 1.8568734 1.5408863 0
4.8760004 1.8513539 1.5424123 0
4.8820004 1.8458124 1.5439383 0
4.8880005 1.8402495 1.5454644 0
4.8930001 1.8342463 1.546736 0
4.8990002 1.828642 1.548262 0
4.9050002 1.8230158 1.549788 0
4.9110003 1.8173681 1.5513141 0
4.9170003 1.8116989 1.5528401 0
4.9230003 1.8060079 1.5543661 0
4.9290004 1.8002952 1.5558922 0
4.9350004 1.7945608 1.5574182 0
4.9400005 1.7884009 1.55869 0
4.9460001 1.782625 1.5602158 0
4.9520001 1.7768275 1.5617419 0
4.9580002 1.7710084 1.5632679 0
4.9640002 1.7651677 1.5647939 0
4.9700003 1.7593054 1.5663199 0
4.9760003 1.7534214 1.5678459 0
4.9820004 1.7475157 1.5693719 0
4.9890003 1.741978 1.5711523 0
4.9950004 1.7360272 1.5726783 0
5.0010004 1.7300549 1.5742044 0
5.0070004 1.7240609 1.5757304 0
5.0130005 1.7180451 1.5772564 0
5.0190005 1.7120078 1.5787826 0
5.0250001 1.7059487 1.5803084 0
5.0310001 1.6998681 1.5818344 0
5.0380001 1.6941409 1.5836148 0
5.0440001 1.6880152 1.5851408 0
5.0500002 1.6818678 1.5866669 0
5.0560002 1.6756989 1.5881929 0
5.0630002 1.6698761 1.5899733 0
5.0690002 1.663662 1.5914993 0
5.0750003 1.6574262 1.5930253 0
5.0820003 1.6515315 1.5948057 0
5.0880003 1.6452506 1.5963317 0
5.0940003 1.6389482 1.5978577 0
5.1010003 1.6329811 1.5996381 0
5.1070004 1.6266335 1.6011641 0
5.1130004 1.6202643 1.6026901 0
5.1200004 1.614225 1.6044705 0
5.1260004 1.6078107 1.6059965 0
5.1330004 1.601723 1.6077769 0
5.1390004 1.5952635 1.6093029 0
4.4380002 2.2775252 1.4237288 0
4.4430003 2.2731094 1.4249916 0
4.4470005 2.2681041 1.4260018 0
4.4520001 2.2636538 1.4272643 0
4.4570003 2.2591858 1.4285271 0
4.4620004 2.2546997 1.4297898 0
4.4660001 2.2496307 1.4307997 0
4.4710002 2.2451105 1.4320625 0
4.4760003 2.2405725 1.4333252 0
4.4810004 2.2360158 1.4345878 0
4.4860001 2.2314413 1.4358504 0
4.4900002 2.2262933 1.4368607 0
4.4950004 2.2216845 1.4381233 0
4.5000005 2.2170579 1.439386 0
4.5050001 2.2124128 1.4406486 0
4.5100002 2.2077501 1.4419113 0
4.5150003 2.2030694 1.443174 0
4.5200005 2.1983705 1.4444367 0
4.5240002 2.1931102 1.4454467 0
4.5290003 2.1883774 1.4467094 0
4.5340004 2.1836259 1.4479722 0
4.5390005 2.1788568 1.4492348 0
4.5440001 2.1740694 1.4504974 0
4.5490003 2.1692641 1.4517602 0
4.5540004 2.1644406 1.4530228 0
4.5590005 2.1595993 1.4542855 0
4.5640001 2.1547396 1.455548 0
4.5690002 2.1498623 1.4568107 0
4.5740004 2.1449668 1.4580735 0
4.5790005 2.1400535 1.4593362 0
4.5840001 2.1351216 1.4605987 0
4.5890002 2.1301718 1.4618614 0
4.5940003 2.1252043 1.4631242 0
4.5990005 2.1202185 1.4643868 0
4.6040001 2.1152148 1.4656494 0
4.6100001 2.1107051 1.4671646 0
4.6150002 2.1056638 1.4684273 0
4.6200004 2.1006038 1.46969 0
4.6250005 2.0955262 1.4709526 0
4.6300001 2.0904305 1.4722153 0
4.6350002 2.0853167 1.473478 0
4.6410003 2.0806863 1.4749932 0
4.6460004 2.0755346 1.4762559 0
4.6510005 2.070365 1.4775186 0
4.6560001 2.0651772 1.4787811 0
4.6610003 2.0599713 1.4800438 0
4.6670003 2.0552402 1.4815589 0
4.6720004 2.0499964 1.4828217 0
4.6770005 2.0447347 1.4840844 0
4.6820002 2.0394547 1.4853469 0
4.6880002 2.0346422 1.4868622 0
4.6930003 2.0293245 1.4881248 0
4.6980004 2.023989 1.4893875 0
4.7040005 2.0191152 1.4909028 0
4.7090001 2.0137415 1.4921653 0
4.7140002 2.0083499 1.4934281 0
4.7200003 2.0034146 1.4949433 0
4.7250004 1.9979851 1.496206 0
4.7310004 1.9930086 1.4977211 0
4.7360005 1.9875414 1.4989839 0
4.7410002 1.9820557 1.5002464 0
4.7470002 1.9770176 1.5017617 0
4.7520003 1.9714947 1.5030243 0
4.7580004 1.9664152 1.5045396 0
4.7630005 1.9608538 1.5058023 0
4.7690005 1.9557328 1.5073174 0
4.7740002 1.9501339 1.50858 0
4.7800002 1.9449713 1.5100952 0
4.7850003 1.9393344 1.5113579 0
4.7910004 1.9341307 1.5128732 0
4.7960005 1.9284558 1.5141358 0
4.8020005 1.9232103 1.515651 0
4.8080001 1.917943 1.5171661 0
4.8130002 1.9122106 1.5184288 0
4.8190002 1.906902 1.5199441 0
4.8250003 1.9015718 1.5214592 0
4.8300004 1.8957816 1.522722 0
4.8360004 1.8904098 1.5242372 0
4.8420005 1.8850164 1.5257524 0
4.8470001 1.8791684 1.527015 0
4.8530002 1.8737334 1.5285301 0
4.8590002 1.8682771 1.5300454 0
4.8640003 1.8623713 1.5313081 0
4.8700004 1.8568734 1.5328233 0
4.8760004 1.8513539 1.5343384 0
4.8820004 1.8458124 1.5358536 0
4.8880005 1.8402495 1.5373689 0
4.8930001 1.8342463 1.5386314 0
4.8990002 1.828642 1.5401466 0
4.9050002 1.8230158 1.5416619 0
4.9110003 1.8173681 1.5431771 0
4.9170003 1.8116989 1.5446923 0
4.9230003 1.8060079 1.5462075 0
4.9290004 1.8002952 1.5477227 0
4.9350004 1.7945608 1.5492378 0
4.9400005 1.7884009 1.5505005 0
4.9460001 1.782625 1.5520157 0
4.9520001 1.7768275 1.5535309 0
4.9580002 1.7710084 1.5550461 0
4.9640002 1.7651677 1.5565614 0
4.9700003 1.7593054 1.5580766 0
4.9760003 1.7534214 1.5595918 0
4.9820004 1.7475157 1.5611069 0
4.9890003 1.741978 1.5628747 0
4.9950004 1.7360272 1.5643899 0
5.0010004 1.7300549 1.5659051 0
5.0070004 1.7240609 1.5674202 0
5.0130005 1.7180451 1.5689355 0
5.0190005 1.7120078 1.5704507 0
5.0250001 1.7059487 1.5719658 0
5.0310001 1.6998681 1.5734811 0
5.0380001 1.6941409 1.5752487 0
5.0440001 1.6880152 1.576764 0
5.0500002 1.6818678 1.5782791 0
5.0560002 1.6756989 1.5797944 0
5.0630002 1.6698761 1.581562 0
5.0690002 1.663662 1.5830773 0
5.0750003 1.6574262 1.5845925 0
5.0820003 1.6515315 1.5863603 0
5.0880003 1.6452506 1.5878754 0
5.0940003 1.6389482 1.5893906 0
5.1010003 1.6329811 1.5911584 0
5.1070004 1.6266335 1.5926737 0
5.1130004 1.6202643 1.5941888 0
5.1200004 1.614225 1.5959566 0
5.1260004 1.6078107 1.5974717 0
5.1330004 1.601723 1.5992395 0
5.1390004 1.5952635 1.6007546 0
4.4380002 2.2775252 1.4164451 0
4.4430003 2.2731094 1.4176989 0
4.4470005 2.2681041 1.4187018 0
4.4520001 2.2636538 1.4199554 0
4.4570003 2.2591858 1.421209 0
4.4620004 2.2546997 1.4224627 0
4.4660001 2.2496307 1.4234655 0
4.4710002 2.2451105 1.4247192 0
4.4760003 2.2405725 1.4259728 0
4.4810004 2.2360158 1.4272265 0
4.4860001 2.2314413 1.42848 0
4.4900002 2.2262933 1.4294831 0
4.4950004 2.2216845 1.4307367 0
4.5000005 2.2170579 1.4319904 0
4.5050001 2.2124128 1.433244 0
4.5100002 2.2077501 1.4344977 0
4.5150003 2.2030694 1.4357513 0
4.5200005 2.1983705 1.437005 0
4.5240002 2.1931102 1.4380078 0
4.5290003 2.1883774 1.4392616 0
