# .PCD v0.7 - Point Cloud Data file format
VERSION 0.7
FIELDS x y z intensity
SIZE 4 4 4 4
TYPE F F F F
COUNT 1 1 1 1
WIDTH 1426
HEIGHT 1
VIEWPOINT 0 0 0 1 0 0 0
POINTS 1426
DATA ascii
2.388 -0.92814881 0.55461079 0
2.3830001 -0.92950702 0.554232 0
2.378 -0.93084729 0.55385315 0
2.3740001 -0.93261868 0.55355012 0
2.3700001 -0.93437558 0.55324709 0
2.3670001 -0.93657082 0.55301982 0
2.3640001 -0.93875521 0.55279255 0
2.3610001 -0.94092882 0.55256528 0
2.358 -0.94309157 0.552338 0
2.3560002 -0.94570351 0.55218649 0
2.3530002 -0.94784641 0.55195916 0
2.3510001 -0.95044208 0.55180764 0
2.3490002 -0.95303059 0.55165613 0
2.3470001 -0.95561182 0.55150461 0
2.3460002 -0.95865482 0.55142885 0
2.3440001 -0.96122348 0.55127734 0
2.3430002 -0.96425742 0.55120158 0
2.3420002 -0.96728784 0.55112582 0
2.3410001 -0.97031462 0.55105007 0
2.3400002 -0.97333783 0.55097431 0
2.3390002 -0.97635746 0.55089855 0
2.3380001 -0.9793734 0.55082279 0
2.3380001 -0.98286915 0.55082279 0
2.3380001 -0.9863649 0.55082279 0
2.3380001 -0.98986065 0.55082279 0
2.3380001 -0.99335641 0.55082279 0
2.3380001 -0.99685228 0.55082279 0
2.3390002 -1.0008405 0.55089855 0
2.3400002 -1.0048323 0.55097431 0
2.3410001 -1.0088277 0.55105007 0
2.3430002 -1.0133246 0.55120158 0
2.345 -1.0178287 0.5513531 0
2.348 -1.0228415 0.55158037 0
2.3520002 -1.0283684 0.55188346 0
2.358 -1.0349197 0.552338 0
2.5230002 -1.1488917 0.56483841 0
2.5140002 -1.1480294 0.56415653 0
2.5070002 -1.148181 0.56362623 0
2.5010002 -1.1488321 0.56317163 0
2.4960003 -1.1499884 0.5627929 0
2.4910002 -1.1511265 0.56241405 0
2.4870002 -1.1527771 0.56211102 0
2.4830003 -1.1544131 0.56180799 0
2.4800003 -1.1565686 0.56158072 0
2.4770002 -1.1587133 0.56135345 0
2.4740002 -1.1608473 0.56112611 0
2.4710002 -1.1629703 0.56089884 0
2.4680002 -1.1650826 0.56067157 0
2.4660001 -1.1677269 0.56052005 0
2.4640002 -1.1703643 0.56036854 0
2.4620001 -1.1729941 0.56021702 0
2.4600003 -1.1756169 0.56006551 0
2.4580002 -1.1782323 0.55991399 0
2.4560001 -1.1808406 0.55976248 0
2.4550002 -1.1839955 0.55968672 0
2.4530003 -1.1865913 0.55953521 0
2.4520001 -1.189737 0.55945945 0
2.4510002 -1.1928793 0.55938363 0
2.4500003 -1.196018 0.55930793 0
2.4500003 -1.1997157 0.55930793 0
2.4490001 -1.202849 0.55923212 0
2.4490001 -1.2065449 0.55923212 0
2.4480002 -1.2096728 0.55915642 0
2.4480002 -1.213367 0.55915642 0
2.4470003 -1.2164894 0.5590806 0
2.4460001 -1.2196081 0.55900484 0
2.4450002 -1.2227234 0.55892909 0
2.4060001 -0.92889917 0.552356 0
2.3970001 -0.92854023 0.55169046 0
2.3900001 -0.92903632 0.55117273 0
2.3850002 -0.93039823 0.55080295 0
2.3800001 -0.93174201 0.55043316 0
2.3760002 -0.93351692 0.55013734 0
2.3720002 -0.93527746 0.54984152 0
2.368 -0.93702352 0.54954571 0
2.3650002 -0.93920982 0.5493238 0
2.3620002 -0.94138521 0.54910195 0
2.3590002 -0.94354975 0.5488801 0
2.3570001 -0.94616348 0.54873216 0
2.355 -0.94876993 0.54858422 0
2.3520002 -0.95090568 0.54836237 0
2.3510001 -0.95396131 0.54828846 0
2.3490002 -0.95654619 0.54814053 0
2.3470001 -0.95912385 0.54799259 0
2.3460002 -0.96216506 0.54791868 0
2.3440001 -0.96473008 0.54777074 0
2.3430002 -0.96776223 0.54769677 0
2.3420002 -0.97079086 0.54762286 0
2.3410001 -0.97381586 0.54754889 0
2.3410001 -0.97731704 0.54754889 0
2.3400002 -0.98033661 0.54747492 0
2.3400002 -0.983836 0.54747492 0
2.3390002 -0.9868502 0.54740095 0
2.3390002 -0.99034774 0.54740095 0
2.3390002 -0.99384534 0.54740095 0
2.3400002 -0.99783349 0.54747492 0
2.3400002 -1.0013329 0.54747492 0
2.3410001 -1.0053265 0.54754889 0
2.3430002 -1.0098197 0.54769677 0
2.345 -1.0143203 0.54784471 0
2.3470001 -1.018828 0.54799259 0
2.3500001 -1.0238445 0.5482145 0
2.355 -1.0298781 0.54858422 0
2.3630002 -1.0374451 0.54917592 0
2.5250001 -1.1499306 0.56115681 0
2.5150001 -1.1485506 0.56041723 0
2.5080001 -1.1487041 0.55989957 0
2.5020001 -1.149357 0.55945581 0
2.4970002 -1.1505151 0.55908602 0
2.4920001 -1.1516551 0.55871624 0
2.4880002 -1.1533073 0.55842042 0
2.4840002 -1.1549453 0.5581246 0
2.4810002 -1.1571026 0.55790275 0
2.4780002 -1.1592491 0.55768085 0
2.4750001 -1.1613848 0.557459 0
2.4720001 -1.1635097 0.55723715 0
2.4690001 -1.1656238 0.55701524 0
2.4670002 -1.16827 0.55686736 0
2.4650002 -1.1709089 0.55671942 0
2.4620001 -1.1729941 0.55649757 0
2.4610002 -1.1761652 0.5564236 0
2.4590001 -1.1787825 0.55627573 0
2.4570003 -1.1813928 0.55612779 0
2.4560001 -1.1845493 0.55605382 0
2.4540002 -1.1871468 0.55590594 0
2.4530003 -1.1902945 0.55583197 0
2.4520001 -1.1934384 0.555758 0
2.4510002 -1.1965789 0.55568403 0
2.4510002 -1.2002785 0.55568403 0
2.4500003 -1.2034136 0.55561012 0
2.4500003 -1.2071115 0.55561012 0
2.4490001 -1.210241 0.55553615 0
2.4490001 -1.2139369 0.55553615 0
2.4500003 -1.2182047 0.55561012 0
2.4500003 -1.2219027 0.55561012 0
2.4500003 -1.2256005 0.55561012 0
2.4110003 -0.93109989 0.54909837 0
2.4000001 -0.92986602 0.54830468 0
2.3930001 -0.93036753 0.54779959 0
2.3870001 -0.93128926 0.54736668 0
2.3820002 -0.93263674 0.54700595 0
2.378 -0.93441522 0.54671729 0
2.3740001 -0.9361794 0.54642868 0
2.3700001 -0.93792909 0.54614007 0
2.3670001 -0.94011891 0.54592365 0
2.3640001 -0.94229788 0.54570723 0
2.3610001 -0.94446605 0.54549074 0
2.3590002 -0.94708335 0.54534644 0
2.3560002 -0.94923174 0.54512995 0
2.3540001 -0.95183283 0.54498565 0
2.3520002 -0.95442671 0.54484135 0
2.3500001 -0.95701337 0.54469705 0
2.3490002 -0.96006179 0.54462492 0
2.3470001 -0.96263587 0.54448062 0
2.3460002 -0.96567523 0.54440844 0
2.345 -0.96871102 0.54433632 0
2.3430002 -0.97126704 0.54419196 0
2.3430002 -0.97477186 0.54419196 0
2.3420002 -0.97779685 0.54411983 0
2.3420002 -0.98129988 0.54411983 0
2.3410001 -0.98431945 0.54404771 0
2.3410001 -0.98782063 0.54404771 0
2.3410001 -0.99132174 0.54404771 0
2.3410001 -0.99482304 0.54404771 0
2.3420002 -0.99881488 0.54411983 0
2.3430002 -1.0028102 0.54419196 0
2.3440001 -1.0068092 0.54426414 0
2.345 -1.0108118 0.54433632 0
2.3470001 -1.0153161 0.54448062 0
2.3500001 -1.020327 0.54469705 0
2.3530002 -1.0253488 0.54491353 0
2.3590002 -1.0318912 0.54534644 0
2.5290003 -1.1520087 0.5576123 0
2.5180001 -1.1501145 0.55681866 0
2.5100002 -1.1497502 0.55624145 0
2.5040002 -1.1504068 0.55580854 0
2.4980001 -1.1510417 0.55537558 0
2.4940002 -1.1527121 0.55508697 0
2.4900002 -1.154368 0.55479836 0
2.4860003 -1.1560096 0.55450976 0
2.4820001 -1.1576365 0.55422115 0
2.4790001 -1.1597848 0.55400467 0
2.4760003 -1.1619225 0.55378824 0
2.4730003 -1.1640491 0.55357182 0
2.4700003 -1.166165 0.55335534 0
2.4680002 -1.1688129 0.55321103 0
2.4660001 -1.1714536 0.55306673 0
2.4640002 -1.1740873 0.55292243 0
2.4610002 -1.1761652 0.55270594 0
2.4600003 -1.1793327 0.55263382 0
2.4580002 -1.1819446 0.55248952 0
2.4570003 -1.1851031 0.55241734 0
2.4550002 -1.1877023 0.55227304 0
2.4540002 -1.1908518 0.55220091 0
2.4530003 -1.1939977 0.55212879 0
2.4520001 -1.1971399 0.55205661 0
2.4520001 -1.2008413 0.55205661 0
2.4510002 -1.2039781 0.55198443 0
2.4510002 -1.2076777 0.55198443 0
2.4510002 -1.2113774 0.55198443 0
2.4510002 -1.2150769 0.55198443 0
2.4510002 -1.2187766 0.55198443 0
2.4520001 -1.2230498 0.55205661 0
2.4530003 -1.2273266 0.55212879 0
2.4050002 -0.93207574 0.54504883 0
2.3960001 -0.93169868 0.54441565 0
2.3900001 -0.93262589 0.54399359 0
2.3850002 -0.93397874 0.54364181 0
2.3800001 -0.93531352 0.54329008 0
2.3760002 -0.93708128 0.54300869 0
2.3720002 -0.93883461 0.54272729 0
2.3690002 -0.941028 0.54251623 0
2.3660002 -0.9432106 0.54230523 0
2.3630002 -0.94538242 0.54209417 0
2.3600001 -0.94754332 0.54188311 0
2.358 -0.95015526 0.54174244 0
2.3560002 -0.95275998 0.54160172 0
2.3540001 -0.95535743 0.54146099 0
2.3520002 -0.95794773 0.54132032 0
2.3500001 -0.96053076 0.54117966 0
2.3490002 -0.96357739 0.54110926 0
2.348 -0.96662039 0.54103893 0
2.3460002 -0.96918547 0.5408982 0
2.345 -0.97221947 0.54082787 0
2.3440001 -0.97524989 0.54075754 0
2.3440001 -0.97875643 0.54075754 0
2.3430002 -0.98178142 0.5406872 0
2.3430002 -0.98528618 0.5406872 0
2.3430002 -0.98879099 0.5406872 0
2.3430002 -0.99229586 0.5406872 0
2.3430002 -0.99580067 0.5406872 0
2.3440001 -0.99979603 0.54075754 0
2.345 -1.003795 0.54082787 0
2.3460002 -1.0077977 0.5408982 0
2.348 -1.0123 0.54103893 0
2.3500001 -1.0168096 0.54117966 0
2.3530002 -1.0218259 0.54139066 0
2.358 -1.0278561 0.54174244 0
2.368 -1.0364206 0.5424459 0
2.5370002 -1.1561646 0.55433482 0
2.5200002 -1.1511573 0.55313885 0
2.5120001 -1.1507964 0.55257607 0
2.5060003 -1.1514567 0.552154 0
2.5000002 -1.1520952 0.55173194 0
2.4950001 -1.1532406 0.55138016 0
2.4910002 -1.1548983 0.55109876 0
2.4870002 -1.1565416 0.55081737 0
2.4840002 -1.1587043 0.55060631 0
2.4800003 -1.1603206 0.55032492 0
2.4770002 -1.16246 0.55011392 0
2.4740002 -1.1645885 0.54990286 0
2.4720001 -1.1672472 0.54976213 0
2.4690001 -1.1693558 0.54955113 0
2.4670002 -1.1719985 0.5494104 0
2.4650002 -1.1746337 0.54926968 0
2.4630003 -1.1772619 0.54912901 0
2.4610002 -1.1798829 0.54898834 0
2.4590001 -1.1824965 0.54884762 0
2.4580002 -1.1856569 0.54877728 0
2.4570003 -1.1888136 0.54870695 0
2.4560001 -1.1919665 0.54863656 0
2.4550002 -1.195116 0.54856622 0
2.4540002 -1.198262 0.54849589 0
2.4530003 -1.2014042 0.54842556 0
2.4520001 -1.2045426 0.54835516 0
2.4520001 -1.2082441 0.54835516 0
2.4520001 -1.2119455 0.54835516 0
2.4520001 -1.215647 0.54835516 0
2.4520001 -1.2193483 0.54835516 0
2.4530003 -1.2236235 0.54842556 0
2.4540002 -1.2279022 0.54849589 0
2.4110003 -0.93472731 0.54184341 0
2.4010003 -0.9339174 0.54115796 0
2.3930001 -0.93396246 0.54060966 0
2.388 -0.93532073 0.54026687 0
2.3830001 -0.93666095 0.53992414 0
2.378 -0.93798316 0.53958142 0
2.3750002 -0.94019288 0.53937584 0
2.3710001 -0.94193709 0.53910166 0
2.368 -0.94412333 0.53889602 0
2.3650002 -0.94629878 0.53869039 0
2.3630002 -0.94892323 0.5385533 0
2.3600001 -0.95107877 0.53834766 0
2.358 -0.95368713 0.53821057 0
2.3560002 -0.95628822 0.53807348 0
2.3540001 -0.95888209 0.53793639 0
2.3520002 -0.96146882 0.5377993 0
2.3510001 -0.96451902 0.53773075 0
2.3490002 -0.96709305 0.53759366 0
2.348 -0.97013426 0.53752512 0
2.3470001 -0.97317195 0.53745657 0
2.3470001 -0.97668386 0.53745657 0
2.3460002 -0.97971612 0.53738803 0
2.345 -0.98274463 0.53731948 0
2.345 -0.98625308 0.53731948 0
2.345 -0.98976147 0.53731948 0
2.345 -0.99326992 0.53731948 0
2.3460002 -0.99726713 0.53738803 0
2.3460002 -1.0007772 0.53738803 0
2.3470001 -1.0047801 0.53745657 0
2.3490002 -1.0092806 0.53759366 0
2.3510001 -1.0137882 0.53773075 0
2.3540001 -1.018801 0.53793639 0
2.3570001 -1.0238246 0.53814203 0
2.3640001 -1.0308648 0.53862184 0
2.5250001 -1.1537637 0.54965752 0
2.5150001 -1.1523657 0.54897207 0
2.5080001 -1.1525065 0.54849225 0
2.5030003 -1.1536754 0.54814959 0
2.4970002 -1.1542976 0.54773831 0
2.4930003 -1.155959 0.54746413 0
2.4890001 -1.1576058 0.54718989 0
2.4850001 -1.1592383 0.54691577 0
2.4820001 -1.161392 0.54671007 0
2.4790001 -1.1635349 0.5465045 0
2.4760003 -1.1656672 0.54629886 0
2.4730003 -1.1677884 0.54609323 0
2.4710002 -1.1704417 0.54595613 0
2.4680002 -1.1725432 0.5457505 0
2.4660001 -1.1751803 0.54561341 0
2.4640002 -1.1778103 0.54547632 0
2.4630003 -1.1809833 0.54540777 0
2.4610002 -1.1836005 0.54527068 0
2.2380002 -1.0638276 0.52998519 0
2.23 -1.0626985 0.52943683 0
2.2260001 -1.0637699 0.52916265 0
2.2220001 -1.0648271 0.52888846 0
2.2180002 -1.0658696 0.52861428 0
2.2140002 -1.0668977 0.5283401 0
2.21 -1.0679115 0.52806592 0
2.2060001 -1.0689108 0.52779174 0
2.2020001 -1.0698956 0.52751756 0
2.1990001 -1.0714362 0.52731198 0
2.1950002 -1.0723939 0.5270378 0
2.1910002 -1.0733373 0.52676362 0
2.187 -1.0742663 0.52648944 0
2.4070003 -0.93657982 0.53794903 0
2.3980002 -0.93619025 0.53734833 0
2.391 -0.93666273 0.53688115 0
2.3860002 -0.93800843 0.53654742 0
2.3820002 -0.93978697 0.53628051 0
2.3770001 -0.94109833 0.53594679 0
2.3740001 -0.94330078 0.53574657 0
2.3710001 -0.94549245 0.5355463 0
2.368 -0.9476732 0.53534609 0
2.3650002 -0.94984323 0.53514588 0
2.3620002 -0.95200241 0.53494567 0
2.3600001 -0.95461422 0.53481221 0
2.358 -0.95721895 0.5346787 0
2.3560002 -0.95981652 0.53454518 0
2.355 -0.96287572 0.53447849 0
2.3530002 -0.9654606 0.53434503 0
2.3520002 -0.96851087 0.53427827 0
2.3510001 -0.9715575 0.53421152 0
2.3500001 -0.97460043 0.53414476 0
2.3490002 -0.97763991 0.53407806 0
2.348 -0.9806757 0.5340113 0
2.348 -0.98418951 0.5340113 0
2.348 -0.98770332 0.5340113 0
2.348 -0.99121714 0.5340113 0
2.348 -0.99473095 0.5340113 0
2.3490002 -0.99873364 0.53407806 0
2.3490002 -1.0022492 0.53407806 0
2.3500001 -1.0062573 0.53414476 0
2.3520002 -1.0107632 0.53427827 0
2.355 -1.0157723 0.53447849 0
2.358 -1.0207924 0.5346787 0
2.3640001 -1.0273222 0.53507912 0
2.5330002 -1.1579341 0.54635835 0
2.5190003 -1.1544583 0.54542398 0
2.2920001 -1.0391263 0.5302738 0
2.2820001 -1.037272 0.5296064 0
2.2770002 -1.0380241 0.52927268 0
2.2730002 -1.0392886 0.52900571 0
2.2690001 -1.0405387 0.52873874 0
2.2650001 -1.0417743 0.52847183 0
2.2610002 -1.0429955 0.52820486 0
2.256 -1.0436647 0.52787113 0
2.2520001 -1.0448552 0.52760416 0
2.2480001 -1.0460312 0.52733719 0
2.2440002 -1.0471929 0.52707022 0
2.24 -1.0483401 0.52680326 0
2.2360001 -1.0494729 0.52653635 0
2.233 -1.0511396 0.52633607 0
2.2290001 -1.0522454 0.5260691 0
2.2250001 -1.0533367 0.52580214 0
2.2220001 -1.0549674 0.52560198 0
2.2180002 -1.0560316 0.52533495 0
2.2150002 -1.0576388 0.52513474 0
2.2110002 -1.058676 0.52486777 0
2.2080002 -1.0602597 0.52466756 0
2.2040002 -1.0612699 0.52440059 0
2.2010002 -1.0628301 0.52420038 0
2.197 -1.0638132 0.52393341 0
2.194 -1.0653501 0.5237332 0
2.1900001 -1.0663061 0.52346623 0
2.187 -1.0678195 0.52326602 0
2.184 -1.069322 0.52306581 0
2.1800001 -1.0702384 0.52279884 0
2.4040003 -0.93886346 0.53413397 0
2.3960001 -0.93889952 0.53361446 0
2.3900001 -0.93980503 0.53322482 0
2.3850002 -0.94113988 0.53290015 0
2.381 -0.94290936 0.5326404 0
2.3770001 -0.94466454 0.53238064 0
2.3740001 -0.94686151 0.53218585 0
2.3710001 -0.94904774 0.531991 0
2.368 -0.95122313 0.53179622 0
2.3650002 -0.95338774 0.53160143 0
2.3630002 -0.95600504 0.53147149 0
2.3610001 -0.95861512 0.53134167 0
2.3590002 -0.96121806 0.53121179 0
2.3570001 -0.96381372 0.53108191 0
2.3560002 -0.96687299 0.53101695 0
2.3540001 -0.96945602 0.53088713 0
2.3530002 -0.97250628 0.53082216 0
2.3520002 -0.97555298 0.53075719 0
2.3510001 -0.97859591 0.53069228 0
2.3510001 -0.98211509 0.53069228 0
2.3510001 -0.98563445 0.53069228 0
2.3510001 -0.98915362 0.53069228 0
2.3510001 -0.99267286 0.53069228 0
2.3510001 -0.99619204 0.53069228 0
2.3520002 -1.0002002 0.53075719 0
2.3530002 -1.0042118 0.53082216 0
2.355 -1.0087194 0.53095204 0
2.3570001 -1.0132344 0.53108191 0
2.3490002 -1.0127962 0.5305624 0
2.3360002 -1.0098397 0.52971822 0
2.3310001 -1.0108335 0.52939355 0
2.3270001 -1.0123109 0.5291338 0
2.322 -1.0132705 0.52880913 0
2.3180001 -1.0147172 0.52854937 0
2.3140001 -1.0161493 0.52828962 0
2.309 -1.0170585 0.52796495 0
2.3050001 -1.0184602 0.52770519 0
2.3000002 -1.0193349 0.52738047 0
2.2960002 -1.0207058 0.52712077 0
2.2920001 -1.0220622 0.52686101 0
2.2880001 -1.0234042 0.52660125 0
2.2840002 -1.0247319 0.5263415 0
2.2800002 -1.0260451 0.52608174 0
2.276 -1.0273439 0.52582198 0
2.2730002 -1.029153 0.5256272 0
2.2690001 -1.0304247 0.52536744 0
2.2650001 -1.0316819 0.52510768 0
2.2610002 -1.0329248 0.52484792 0
2.2580001 -1.0346853 0.52465314 0
2.2540002 -1.0359011 0.52439338 0
2.2500002 -1.0371023 0.52413362 0
2.2470002 -1.0388268 0.52393883 0
2.243 -1.040001 0.52367908 0
2.2390001 -1.0411609 0.52341932 0
2.2360001 -1.0428494 0.52322453 0
2.2320001 -1.0439821 0.52296478 0
2.2290001 -1.045647 0.52276993 0
2.2250001 -1.0467527 0.52251023 0
2.2210002 -1.0478442 0.52225047 0
2.2180002 -1.0494729 0.52205569 0
2.2150002 -1.051091 0.52186084 0
2.2110002 -1.0521426 0.52160108 0
2.2080002 -1.053737 0.52140629 0
2.2050002 -1.055321 0.5212115 0
2.2010002 -1.0563328 0.52095175 0
2.1980002 -1.0578932 0.5207569 0
2.1950002 -1.0594426 0.52056211 0
2.1910002 -1.0604148 0.52030236 0
2.1880002 -1.0619409 0.52010757 0
2.1850002 -1.0634561 0.51991272 0
2.1820002 -1.0649605 0.51971793 0
2.1780002 -1.0658804 0.51945817 0
2.1750002 -1.0673614 0.51926339 0
2.4030001 -0.94203091 0.53045601 0
2.3960001 -0.94249988 0.53001404 0
2.3900001 -0.9433946 0.52963525 0
2.3850002 -0.94472045 0.52931958 0
2.381 -0.94648266 0.52906704 0
2.3770001 -0.94823062 0.52881455 0
2.3740001 -0.95042223 0.52862513 0
2.3710001 -0.95260304 0.52843571 0
2.3690002 -0.95523483 0.52830946 0
2.3660002 -0.95739573 0.52812004 0
2.3640001 -0.9600113 0.5279938 0
2.3620002 -0.9626196 0.52786756 0
2.3600001 -0.96522063 0.52774125 0
2.3590002 -0.96828538 0.52767813 0
2.3570001 -0.97087377 0.52755189 0
2.3560002 -0.97392946 0.52748871 0
2.355 -0.97698146 0.52742559 0
2.355 -0.98050791 0.52742559 0
2.3540001 -0.9835546 0.52736247 0
2.3540001 -0.9870792 0.52736247 0
2.3540001 -0.99060392 0.52736247 0
2.3510001 -0.99267286 0.52717304 0
2.3460002 -0.99375695 0.52685738 0
2.3420002 -0.99531186 0.52660489 0
2.3380001 -0.99685228 0.52635235 0
2.3340001 -0.99837834 0.5260998 0
2.3300002 -0.99988985 0.52584726 0
2.3260002 -1.001387 0.52559471 0
2.322 -1.0028696 0.52534223 0
2.3180001 -1.004338 0.52508968 0
2.3140001 -1.0057918 0.52483714 0
2.3110001 -1.0077347 0.52464771 0
2.3070002 -1.0091614 0.52439517 0
2.3030002 -1.0105739 0.52414268 0
2.299 -1.0119717 0.52389014 0
2.2950001 -1.0133553 0.52363759 0
2.2910001 -1.0147244 0.52338505 0
2.2870002 -1.0160791 0.52313256 0
2.2840002 -1.0179352 0.52294314 0
2.2800002 -1.0192628 0.52269059 0
2.276 -1.0205759 0.52243805 0
2.2720001 -1.0218747 0.52218556 0
2.2690001 -1.023682 0.52199614 0
2.2650001 -1.0249537 0.5217436 0
2.2620001 -1.0267378 0.52155423 0
2.2580001 -1.0279822 0.52130163 0
2.2550001 -1.029743 0.52111226 0
2.2510002 -1.0309604 0.52085972 0
2.2480001 -1.0326974 0.52067029 0
2.2440002 -1.033888 0.52041781 0
2.2410002 -1.0356016 0.52022839 0
2.2370002 -1.0367652 0.5199759 0
2.2340002 -1.0384552 0.51978648 0
2.23 -1.0395917 0.51953393 0
2.2270002 -1.0412583 0.51934451 0
2.223 -1.0423677 0.51909202 0
2.22 -1.044011 0.5189026 0
2.217 -1.0456433 0.51871318 0
2.2130001 -1.0467131 0.51846063 0
2.21 -1.0483222 0.51827127 0
2.207 -1.0499203 0.51808184 0
2.2030001 -1.0509503 0.51782936 0
2.2 -1.0525249 0.51763994 0
2.197 -1.0540888 0.51745051 0
2.1930001 -1.0550792 0.51719803 0
2.1900001 -1.0566196 0.5170086 0
2.187 -1.0581493 0.51681918 0
2.184 -1.0596681 0.51662982 0
2.1800001 -1.0606061 0.51637727 0
2.177 -1.0621014 0.51618785 0
2.174 -1.0635859 0.51599848 0
2.171 -1.0650597 0.51580906 0
2.4030001 -0.9456439 0.52684295 0
2.3960001 -0.94610029 0.52641368 0
2.3900001 -0.94698417 0.52604568 0
2.3860002 -0.9487555 0.52580035 0
2.381 -0.95005608 0.52549374 0
2.378 -0.95225489 0.52530974 0
2.3750002 -0.95444292 0.52512574 0
2.3720002 -0.95662016 0.52494174 0
2.3700001 -0.95925009 0.52481908 0
2.3670001 -0.96140742 0.52463508 0
2.3650002 -0.96402115 0.52451247 0
2.3640001 -0.96709663 0.52445114 0
2.3620002 -0.96969777 0.52432847 0
2.3610001 -0.97276425 0.52426714 0
2.3600001 -0.97582698 0.5242058 0
2.3590002 -0.97888631 0.52414447 0
2.358 -0.98194194 0.52408314 0
2.3540001 -0.9835546 0.5238378 0
2.3500001 -0.98515278 0.52359247 0
2.3460002 -0.98673648 0.5233472 0
2.3420002 -0.98830581 0.52310187 0
2.3380001 -0.98986065 0.52285653 0
2.3340001 -0.99140114 0.52261126 0
2.3300002 -0.99292719 0.52236593 0
2.3260002 -0.99443877 0.52212059 0
2.322 -0.99593586 0.52187526 0
2.3180001 -0.99741864 0.52162993 0
2.3150001 -0.99938482 0.52144599 0
2.3110001 -1.0008405 0.52120066 0
2.3070002 -1.0022817 0.52095532 0
2.3040001 -1.0042118 0.52077132 0
2.3000002 -1.005626 0.52052605 0
2.2960002 -1.0070257 0.52028072 0
2.2930002 -1.0089197 0.52009672 0
2.289 -1.0102924 0.51985139 0
2.2850001 -1.0116507 0.51960611 0
2.2820001 -1.0135086 0.51942211 0
2.2780001 -1.0148398 0.51917678 0
2.2740002 -1.0161566 0.51893145 0
2.2710001 -1.0179784 0.51874745 0
2.2670002 -1.0192682 0.51850218 0
2.2640002 -1.0210665 0.51831818 0
2.2600002 -1.0223292 0.51807284 0
2.2570002 -1.0241041 0.51788884 0
2.253 -1.0253397 0.51764357 0
2.2500002 -1.0270913 0.51745957 0
2.2460001 -1.0282998 0.51721424 0
2.243 -1.0300279 0.51703024 0
2.2390001 -1.0312093 0.51678491 0
2.2360001 -1.032914 0.51660097 0
2.2320001 -1.0340685 0.51635563 0
2.2290001 -1.0357496 0.51617163 0
2.2260001 -1.0374199 0.51598763 0
2.2220001 -1.0385346 0.5157423 0
2.2190001 -1.0401815 0.51555836 0
2.2160001 -1.0418175 0.51537436 0
2.2120001 -1.0428927 0.51512903 0
2.2090001 -1.0445052 0.51494503 0
2.2060001 -1.0461071 0.51476103 0
2.2030001 -1.047698 0.51457703 0
2.2 -1.0492781 0.51439309 0
2.1960001 -1.0502882 0.51414776 0
2.1930001 -1.051845 0.51396376 0
2.1900001 -1.0533909 0.51377976 0
2.187 -1.0549258 0.51359582 0
2.184 -1.0564501 0.51341182 0
2.1800001 -1.0573952 0.51316649 0
2.177 -1.0588961 0.51298249 0
2.174 -1.0603861 0.51279849 0
2.171 -1.061865 0.51261449 0
2.1680002 -1.0633335 0.51243055 0
2.4050002 -0.95015889 0.52334899 0
2.3970001 -0.95015347 0.52287281 0
2.391 -0.95102835 0.52251565 0
2.3870001 -0.95279425 0.52227753 0
2.3830001 -0.95454574 0.52203941 0
2.3800001 -0.95674276 0.52186084 0
2.3760002 -0.95846719 0.52162272 0
2.3740001 -0.96110439 0.52150369 0
2.3720002 -0.96373433 0.52138466 0
2.3700001 -0.96635711 0.52126557 0
2.368 -0.96897262 0.52114654 0
2.3660002 -0.97158092 0.52102751 0
2.3630002 -0.9737094 0.52084887 0
2.3590002 -0.9753527 0.52061081 0
2.355 -0.97698146 0.52037269 0
2.3510001 -0.97859591 0.52013457 0
2.348 -0.9806757 0.51995599 0
2.3440001 -0.98226309 0.51971793 0
2.3400002 -0.983836 0.51947981 0
2.3360002 -0.98539454 0.51924169 0
2.332 -0.98693854 0.51900363 0
2.3280001 -0.98846817 0.51876551 0
2.325 -0.99047405 0.51858693 0
2.3210001 -0.99197662 0.51834881 0
2.3170002 -0.99346465 0.51811075 0
2.3130002 -0.99493837 0.51787263 0
2.3100002 -0.99689555 0.51769406 0
2.3060002 -0.99834222 0.51745594 0
2.302 -0.99977446 0.51721787 0
2.299 -1.0016954 0.51703924 0
2.2950001 -1.0031006 0.51680118 0
2.2910001 -1.0044913 0.51656306 0
2.2880001 -1.0063763 0.51638448 0
2.2840002 -1.00774 0.51614636 0
2.2800002 -1.0090894 0.5159083 0
2.2770002 -1.0109382 0.51572967 0
2.2730002 -1.0122604 0.5154916 0
2.2700002 -1.0140859 0.51531303 0
2.266 -1.015381 0.51507491 0
2.263 -1.0171828 0.51489633 0
2.2600002 -1.0189742 0.51471776 0
2.256 -1.0202296 0.51447964 0
2.253 -1.0219972 0.51430106 0
2.2490001 -1.0232257 0.514063 0
2.2460001 -1.0249699 0.51388443 0
2.243 -1.0267034 0.51370585 0
2.2390001 -1.0278922 0.51346773 0
2.2360001 -1.0296022 0.51328915 0
2.233 -1.0313014 0.51311058 0
2.2290001 -1.0324504 0.51287246 0
2.2260001 -1.0341262 0.51269388 0
2.223 -1.035791 0.51251531 0
2.2190001 -1.0369004 0.51227725 0
2.2160001 -1.0385419 0.51209867 0
2.2130001 -1.0401725 0.51192003 0
2.2090001 -1.0412422 0.51168197 0
2.2060001 -1.0428494 0.5115034 0
2.2030001 -1.0444458 0.51132482 0
2.2 -1.0460312 0.51114619 0
2.197 -1.047606 0.51096761 0
2.1930001 -1.0486107 0.51072955 0
2.1900001 -1.050162 0.51055098 0
2.187 -1.0517024 0.5103724 0
2.184 -1.0532321 0.51019382 0
2.1810002 -1.0547509 0.51001525 0
2.1780002 -1.0562588 0.50983667 0
2.174 -1.0571861 0.50959855 0
2.171 -1.0586705 0.50941998 0
2.1680002 -1.0601443 0.5092414 0
2.1650002 -1.0616072 0.50906283 0
2.4120002 -0.95694482 0.52013642 0
2.4010003 -0.95557398 0.51950145 0
2.3940001 -0.95598876 0.51909739 0
2.3900001 -0.95775288 0.51886654 0
2.3850002 -0.95904267 0.51857793 0
2.381 -0.96077609 0.51834702 0
2.378 -0.96295869 0.51817387 0
2.3740001 -0.96466511 0.51794297 0
2.3700001 -0.96635711 0.51771212 0
2.3660002 -0.96803463 0.51748121 0
2.3620002 -0.96969777 0.5172503 0
2.358 -0.97134644 0.51701939 0
2.3540001 -0.97298068 0.51678854 0
2.3500001 -0.97460043 0.51655763 0
2.3460002 -0.97620583 0.51632679 0
2.3420002 -0.97779685 0.51609588 0
2.3390002 -0.97985494 0.51592273 0
2.335 -0.98141885 0.51569182 0
2.3310001 -0.98296833 0.51546091 0
2.3270001 -0.98450339 0.51523006 0
2.3240001 -0.9865129 0.51505691 0
2.3200002 -0.98802078 0.514826 0
2.3160002 -0.98951441 0.51459509 0
2.3130002 -0.9914878 0.51442194 0
2.309 -0.99295425 0.51419103 0
2.3060002 -0.99490416 0.51401788 0
2.302 -0.99634355 0.51378697 0
2.2980001 -0.99776864 0.51355612 0
2.2950001 -0.99968243 0.51338297 0
2.2910001 -1.0010803 0.51315206 0
2.2880001 -1.0029707 0.51297891 0
2.2840002 -1.0043416 0.512748 0
2.2810001 -1.0062085 0.51257485 0
2.2770002 -1.0075525 0.51234394 0
2.2740002 -1.009396 0.51217079 0
2.2700002 -1.0107126 0.51193988 0
2.2670002 -1.0125327 0.51176673 0
2.263 -1.0138224 0.51153582 0
2.2600002 -1.015619 0.51136267 0
2.256 -1.0168817 0.51113176 0
2.253 -1.0186548 0.51095861 0
2.2500002 -1.0204172 0.51078546 0
2.2460001 -1.0216402 0.51055455 0
2.243 -1.0233791 0.5103814 0
2.2390001 -1.0245749 0.51015055 0
2.2360001 -1.0262904 0.50997734 0
2.233 -1.027995 0.50980419 0
2.2290001 -1.0291513 0.50957328 0
2.2260001 -1.0308323 0.50940013 0
2.223 -1.0325027 0.50922698 0
2.22 -1.0341622 0.50905383 0
2.2160001 -1.035266 0.50882292 0
2.2130001 -1.0369022 0.50864977 0
2.21 -1.0385274 0.50847661 0
2.207 -1.0401418 0.5083034 0
2.2030001 -1.0411935 0.50807256 0
2.2 -1.0427845 0.50789934 0
2.197 -1.0443646 0.50772619 0
2.194 -1.0459338 0.50755304 0
2.1910002 -1.0474924 0.50737989 0
2.1880002 -1.0490401 0.50720668 0
2.1850002 -1.0505769 0.50703353 0
2.1810002 -1.0515383 0.50680268 0
2.1780002 -1.0530517 0.50662947 0
2.1750002 -1.0545542 0.50645632 0
2.1720002 -1.056046 0.50628316 0
2.1690001 -1.0575269 0.50611001 0
2.1660001 -1.058997 0.5059368 0
2.1630001 -1.0604564 0.50576365 0
2.3970001 -0.95375568 0.51566839 0
2.3900001 -0.95416337 0.51527697 0
2.3850002 -0.9554621 0.51499736 0
2.381 -0.95720273 0.51477367 0
2.3770001 -0.958929 0.51455003 0
2.3730001 -0.96064079 0.51432633 0
2.3690002 -0.96233815 0.51410264 0
2.3650002 -0.96402115 0.513879 0
2.3610001 -0.96568966 0.5136553 0
2.358 -0.96781456 0.51348758 0
2.3540001 -0.96945602 0.51326388 0
2.3500001 -0.9710831 0.51304018 0
2.3460002 -0.97269565 0.51281655 0
2.3430002 -0.97477186 0.51264882 0
2.3390002 -0.97635746 0.51242512 0
2.335 -0.97792852 0.51220143 0
2.3310001 -0.97948527 0.51197779 0
2.3280001 -0.98151267 0.51181 0
2.3240001 -0.98304236 0.51158637 0
2.3200002 -0.98455745 0.51136267 0
2.3170002 -0.9865489 0.51119494 0
2.3130002 -0.98803705 0.51097125 0
2.309 -0.98951077 0.51074755 0
2.3060002 -0.9914661 0.51057982 0
2.302 -0.99291277 0.51035613 0
2.299 -0.99484462 0.5101884 0
2.2950001 -0.99626416 0.5099647 0
2.2920001 -0.9981727 0.50979698 0
2.2880001 -0.99956518 0.50957328 0
2.2840002 -1.0009432 0.50934964 0
2.2810001 -1.0028156 0.50918186 0
2.2770002 -1.0041667 0.50895822 0
2.2740002 -1.0060155 0.50879043 0
2.2700002 -1.0073396 0.5085668 0
2.2670002 -1.009165 0.50839901 0
2.2640002 -1.0109797 0.50823128 0
2.2600002 -1.012264 0.50800759 0
2.2570002 -1.0140551 0.50783986 0
2.2540002 -1.0158355 0.50767207 0
2.2500002 -1.0170802 0.50744843 0
2.2470002 -1.0188371 0.50728065 0
2.2440002 -1.0205832 0.50711292 0
2.24 -1.0217881 0.50688922 0
2.2370002 -1.0235107 0.5067215 0
2.2340002 -1.0252225 0.50655371 0
2.23 -1.0263878 0.50633007 0
2.2270002 -1.0280762 0.50616229 0
2.2240002 -1.0297537 0.50599456 0
2.2210002 -1.0314205 0.50582677 0
2.217 -1.0325333 0.50560313 0
2.2140002 -1.0341767 0.50543535 0
2.2110002 -1.035809 0.50526762 0
2.2080002 -1.0374306 0.50509989 0
2.2050002 -1.0390415 0.50493211 0
2.2010002 -1.0400895 0.50470841 0
2.1980002 -1.0416769 0.50454068 0
2.1950002 -1.0432534 0.50437295 0
2.1920002 -1.0448191 0.50420517 0
2.1890001 -1.046374 0.50403738 0
2.1860001 -1.0479181 0.50386965 0
2.1830001 -1.0494514 0.50370193 0
2.1800001 -1.0509737 0.50353414 0
2.1760001 -1.051919 0.5033105 0
2.1730001 -1.0534179 0.50314271 0
2.1700001 -1.054906 0.50297499 0
2.1670001 -1.0563834 0.5028072 0
2.164 -1.0578499 0.50263947 0
2.161 -1.0593055 0.50247169 0
2.3980002 -0.95060629 0.51212025 0
2.391 -0.95102835 0.51174146 0
2.3850002 -0.95188159 0.51141679 0
2.381 -0.95362937 0.51120031 0
2.3770001 -0.95536292 0.51098388 0
2.3730001 -0.95708185 0.5107674 0
2.3690002 -0.95878649 0.51055098 0
2.3660002 -0.96094203 0.51038861 0
2.3620002 -0.9626196 0.51017219 0
2.358 -0.96428269 0.5099557 0
2.3540001 -0.96593136 0.50973928 0
2.3500001 -0.96756566 0.5095228 0
2.3470001 -0.96965986 0.50936043 0
2.3430002 -0.97126704 0.50914401 0
2.3390002 -0.9728598 0.50892752 0
2.335 -0.97443813 0.5087111 0
2.332 -0.97648358 0.50854874 0
2.3280001 -0.97803497 0.50833225 0
2.3240001 -0.97957176 0.50811583 0
2.3210001 -0.98158127 0.50795346 0
2.3170002 -0.983091 0.50773704 0
2.3140001 -0.98507702 0.50757468 0
2.3100002 -0.98655981 0.50735819 0
2.3070002 -0.98852223 0.50719589 0
2.3030002 -0.9899779 0.50697941 0
2.299 -0.9914192 0.50676298 0
2.2960002 -0.99334562 0.50660062 0
2.2920001 -0.9947598 0.50638419 0
2.289 -0.99666286 0.50622183 0
2.286 -0.99855506 0.50605947 0
2.2820001 -0.99992961 0.50584304 0
2.279 -1.0017982 0.50568068 0
2.2750001 -1.0031458 0.5054642 0
2.2720001 -1.0049909 0.50530189 0
2.2680001 -1.0063114 0.50508541 0
2.2650001 -1.0081332 0.50492311 0
2.2620001 -1.0099443 0.50476074 0
2.2580001 -1.011225 0.50454426 0
2.2550001 -1.0130125 0.50438195 0
2.2520001 -1.0147893 0.50421959 0
2.2480001 -1.0160303 0.50400317 0
2.2450001 -1.0177835 0.5038408 0
2.2420001 -1.0195261 0.50367844 0
2.2380002 -1.0207274 0.50346202 0
2.2350001 -1.0224464 0.50329965 0
2.2320001 -1.0241547 0.50313729 0
2.2280002 -1.0253164 0.50292087 0
2.2250001 -1.0270011 0.5027585 0
2.2220001 -1.028675 0.5025962 0
2.2190001 -1.030338 0.50243384 0
2.2150002 -1.0314474 0.50221735 0
2.2120001 -1.0330871 0.50205505 0
2.2090001 -1.0347159 0.50189269 0
2.2060001 -1.036334 0.50173032 0
2.2030001 -1.0379412 0.50156802 0
2.2 -1.0395375 0.50140566 0
2.1960001 -1.0405693 0.50118923 0
2.1930001 -1.0421423 0.50102687 0
2.1900001 -1.0437044 0.50086451 0
2.187 -1.0452557 0.50070214 0
2.184 -1.0467961 0.50053984 0
2.1810002 -1.0483258 0.50037748 0
2.1780002 -1.0498445 0.50021517 0
2.1750002 -1.0513525 0.50005281 0
2.1720002 -1.0528498 0.49989045 0
2.1690001 -1.0543361 0.49972811 0
2.1660001 -1.0558115 0.49956578 0
2.1630001 -1.0572762 0.49940342 0
2.1600001 -1.0587301 0.49924108 0
2.4000001 -0.94790405 0.50862086 0
2.3920002 -0.94788969 0.50820243 0
2.3870001 -0.94921011 0.50794089 0
2.3820002 -0.95051241 0.50767928 0
2.378 -0.95225489 0.50747007 0
2.3740001 -0.95398295 0.5072608 0
2.3700001 -0.95569658 0.50705159 0
2.3660002 -0.95739573 0.50684232 0
2.3630002 -0.95954585 0.50668538 0
2.3590002 -0.96121806 0.50647616 0
2.355 -0.96287572 0.50626689 0
2.3520002 -0.96498984 0.50611001 0
2.348 -0.96662039 0.50590074 0
2.3440001 -0.96823668 0.50569153 0
2.3400002 -0.96983844 0.50548226 0
2.3370001 -0.97190374 0.50532532 0
2.3330002 -0.97347856 0.50511611 0
2.3290002 -0.97503883 0.50490683 0
2.3260002 -0.97706813 0.50474989 0
2.322 -0.97860128 0.50454068 0
2.3190002 -0.98060721 0.50438374 0
2.3150001 -0.98211336 0.50417453 0
2.312 -0.98409575 0.50401759 0
2.3080001 -0.98557484 0.50380832 0
2.3040001 -0.98703945 0.50359911 0
2.3010001 -0.98898584 0.50344217 0
2.2970002 -0.9904235 0.5032329 0
2.2940001 -0.99234629 0.50307596 0
2.2900002 -0.99375695 0.50286674 0
2.2870002 -0.99565631 0.50270981 0
2.2830002 -0.99703991 0.50250059 0
2.2800002 -0.99891585 0.50234365 0
2.2770002 -1.0007809 0.50218672 0
2.2730002 -1.0021248 0.50197744 0
2.2700002 -1.0039665 0.50182056 0
2.266 -1.0052832 0.50161129 0
2.263 -1.0071014 0.50145435 0
2.2600002 -1.008909 0.50129741 0
2.256 -1.010186 0.5010882 0
2.253 -1.0119699 0.50093126 0
2.2500002 -1.0137432 0.50077432 0
2.2460001 -1.0149806 0.50056505 0
2.243 -1.0167302 0.50040817 0
2.24 -1.018469 0.50025123 0
2.2360001 -1.0196668 0.50004196 0
2.233 -1.0213822 0.49988505 0
2.23 -1.0230868 0.49972811 0
2.2270002 -1.0247806 0.4995712 0
2.223 -1.025926 0.49936193 0
2.22 -1.0275962 0.49920502 0
2.217 -1.0292559 0.49904808 0
2.2140002 -1.0309045 0.49889114 0
2.2110002 -1.0325425 0.49873424 0
2.207 -1.0336229 0.49852496 0
2.2040002 -1.0352372 0.49836805 0
2.2010002 -1.0368409 0.49821112 0
2.1980002 -1.0384337 0.49805418 0
2.1950002 -1.0400155 0.49789724 0
2.1920002 -1.0415866 0.49774033 0
2.1890001 -1.043147 0.49758339 0
2.1860001 -1.0446965 0.49742645 0
2.1830001 -1.0462352 0.49726954 0
2.1800001 -1.047763 0.4971126 0
2.177 -1.04928 0.49695566 0
2.174 -1.0507861 0.49679872 0
2.171 -1.0522814 0.49664181 0
2.1680002 -1.053766 0.49648488 0
2.1650002 -1.0552397 0.49632794 0
2.1620002 -1.0567026 0.496171 0
2.1590002 -1.0581547 0.49601406 0
2.4050002 -0.94654226 0.50526583 0
2.3950002 -0.94564939 0.50476074 0
2.3890002 -0.94653141 0.50445771 0
2.3840001 -0.94784641 0.50420517 0
2.3790002 -0.94914329 0.50395262 0
2.3750002 -0.95088041 0.50375062 0
2.3720002 -0.95306307 0.50359911 0
2.368 -0.95477301 0.50339705 0
2.3640001 -0.95646858 0.50319505 0
2.3600001 -0.95814973 0.50299299 0
2.3570001 -0.9602837 0.50284147 0
2.3530002 -0.96193779 0.50263947 0
2.3490002 -0.96357739 0.50243741 0
2.3460002 -0.96567523 0.5022859 0
2.3420002 -0.96728784 0.5020839 0
2.3380001 -0.96888602 0.50188184 0
2.335 -0.97094774 0.50173032 0
2.3310001 -0.97251892 0.50152832 0
2.3270001 -0.97407562 0.50132626 0
2.3240001 -0.97610122 0.50117481 0
2.3200002 -0.97763091 0.50097275 0
2.3170002 -0.97963309 0.50082123 0
2.3130002 -0.98113573 0.50061917 0
2.309 -0.98262376 0.50041717 0
2.3060002 -0.98458993 0.50026566 0
2.302 -0.98605102 0.5000636 0
2.299 -0.98799378 0.49991211 0
2.2950001 -0.9894278 0.49971008 0
2.2920001 -0.99134707 0.49955857 0
2.2880001 -0.99275398 0.49935654 0
2.2850001 -0.99464983 0.49920502 0
2.2820001 -0.99653476 0.49905348 0
2.2780001 -0.99790204 0.49885148 0
2.2750001 -0.99976367 0.49869996 0
2.2710001 -1.0011039 0.4984979 0
2.2680001 -1.0029418 0.49834639 0
2.2650001 -1.0047691 0.49819487 0
2.2610002 -1.0060697 0.49799284 0
2.2580001 -1.0078735 0.49784133 0
2.2550001 -1.0096666 0.49768981 0
2.2510002 -1.0109273 0.49748778 0
2.2480001 -1.0126969 0.49733627 0
2.2450001 -1.0144556 0.49718475 0
2.2420001 -1.0162035 0.49703324 0
2.2380002 -1.0174119 0.49683121 0
2.2350001 -1.0191364 0.49667966 0
2.2320001 -1.0208502 0.49652815 0
2.2290001 -1.0225528 0.49637663 0
2.2250001 -1.0237092 0.4961746 0
2.2220001 -1.0253885 0.49602309 0
2.2190001 -1.0270571 0.49587157 0
2.2160001 -1.0287148 0.49572006 0
2.2130001 -1.0303615 0.49556854 0
2.21 -1.0319976 0.495417 0
2.2060001 -1.0330763 0.495215 0
2.2030001 -1.0346888 0.49506348 0
2.2 -1.0362906 0.49491194 0
2.197 -1.0378816 0.49476042 0
2.194 -1.0394617 0.49460891 0
2.1910002 -1.0410311 0.49445739 0
2.1880002 -1.0425895 0.49430588 0
2.1850002 -1.0441372 0.49415433 0
2.1820002 -1.0456741 0.49400282 0
2.1790001 -1.0472002 0.4938513 0
2.1760001 -1.0487155 0.49369979 0
2.1730001 -1.0502198 0.49354827 0
2.1690001 -1.0511451 0.49334624 0
2.1660001 -1.052626 0.49319473 0
2.1630001 -1.0540961 0.49304321 0
2.1600001 -1.0555555 0.49289167 0
2.1580002 -1.0575793 0.49279067 0
2.3990002 -0.9438473 0.50135696 0
2.3920002 -0.94429654 0.50101602 0
2.3860002 -0.94517314 0.50072384 0
2.381 -0.94648266 0.50048029 0
2.3770001 -0.94823062 0.50028551 0
2.3730001 -0.94996405 0.50009066 0
2.3690002 -0.9516831 0.49989587 0
2.3660002 -0.95384949 0.49974975 0
2.3620002 -0.95554149 0.49955496 0
2.358 -0.95721895 0.49936014 0
2.355 -0.95934922 0.49921402 0
2.3510001 -0.96099973 0.49901921 0
2.3470001 -0.96263587 0.49882442 0
2.3440001 -0.96473008 0.4986783 0
2.3400002 -0.96633899 0.49848348 0
2.3360002 -0.96793365 0.49828869 0
2.3330002 -0.96999168 0.49814257 0
2.3290002 -0.97155923 0.49794775 0
2.3260002 -0.97359395 0.49780166 0
2.322 -0.97513437 0.49760684 0
2.3190002 -0.97714573 0.49746072 0
2.3150001 -0.97865909 0.49726593 0
2.312 -0.98064685 0.49711981 0
2.3080001 -0.98213315 0.496925 0
2.3050001 -0.98409748 0.49677891 0
2.3010001 -0.98555678 0.49658409 0
2.2980001 -0.98749769 0.49643797 0
2.2940001 -0.98892993 0.49624315 0
2.2910001 -0.99084735 0.49609703 0
2.2870002 -0.99225253 0.49590224 0
2.2840002 -0.99414659 0.49575612 0
2.2800002 -0.99552464 0.4955613 0
2.2770002 -0.99739516 0.49541521 0
2.2740002 -0.99925494 0.49526912 0
2.2700002 -1.0005933 0.49507427 0
2.2670002 -1.0024296 0.49492818 0
2.2640002 -1.0042551 0.49478209 0
2.2600002 -1.0055538 0.49458727 0
2.2570002 -1.0073558 0.49444115 0
2.2540002 -1.009147 0.49429506 0
2.2500002 -1.010406 0.49410024 0
2.2470002 -1.0121738 0.49395412 0
2.2440002 -1.0139307 0.49380803 0
2.24 -1.0151501 0.49361321 0
2.2370002 -1.0168835 0.49346709 0
2.2340002 -1.0186062 0.493321 0
2.2310002 -1.0203179 0.49317488 0
2.2280002 -1.0220189 0.49302876 0
2.2240002 -1.0231735 0.49283397 0
2.2210002 -1.024851 0.49268785 0
2.2180002 -1.0265176 0.49254173 0
2.2150002 -1.0281736 0.49239564 0
2.2120001 -1.0298185 0.49224952 0
2.2080002 -1.0309082 0.4920547 0
2.2050002 -1.0325298 0.49190861 0
2.2020001 -1.0341405 0.49176249 0
2.1990001 -1.0357406 0.4916164 0
2.1960001 -1.0373297 0.49147028 0
2.1930001 -1.038908 0.49132419 0
2.1900001 -1.0404755 0.49117807 0
2.187 -1.0420322 0.49103194 0
2.184 -1.0435781 0.49088585 0
2.1810002 -1.0451132 0.49073976 0
2.1780002 -1.0466374 0.49059364 0
2.1750002 -1.0481508 0.49044752 0
2.171 -1.0490869 0.4902527 0
2.1680002 -1.0505769 0.49010661 0
2.1660001 -1.052626 0.49000919 0
2.1630001 -1.0540961 0.4898631 0
2.1600001 -1.0555555 0.48971698 0
2.1570001 -1.0570039 0.48957086 0
2.4060001 -0.94337291 0.49807942 0
2.3960001 -0.94249988 0.49761045 0
2.3890002 -0.94294363 0.49728215 0
2.3840001 -0.94426763 0.49704766 0
2.3790002 -0.94557357 0.49681318 0
2.3760002 -0.94777423 0.49667245 0
2.3720002 -0.94950593 0.49648488 0
2.368 -0.95122313 0.49629727 0
2.3640001 -0.95292592 0.49610966 0
2.3610001 -0.95507789 0.495969 0
2.3570001 -0.95675361 0.49578139 0
2.3530002 -0.95841491 0.49559379 0
2.3500001 -0.96053076 0.49545309 0
2.3460002 -0.96216506 0.49526548 0
2.3420002 -0.96378487 0.49507791 0
2.3390002 -0.96586466 0.49493721 0
2.335 -0.96745741 0.49474961 0
2.332 -0.96951371 0.49460891 0
2.3280001 -0.97107947 0.4944213 0
2.3240001 -0.9726308 0.49423373 0
2.3210001 -0.97465098 0.49409303 0
2.3170002 -0.97617525 0.49390543 0
2.3140001 -0.978172 0.49376473 0
2.3100002 -0.97966921 0.49357712 0
2.3070002 -0.9816426 0.49343643 0
2.3030002 -0.98311269 0.49324885 0
2.3000002 -0.9850626 0.49310815 0
2.2960002 -0.98650563 0.49292055 0
2.2930002 -0.98843205 0.49277985 0
2.2900002 -0.99034774 0.49263915 0
2.286 -0.99175102 0.49245155 0
2.2830002 -0.99364334 0.49231085 0
2.279 -0.99501956 0.49212325 0
2.276 -0.99688828 0.49198258 0
2.2720001 -0.99823761 0.49179497 0
2.2690001 -1.0000829 0.49165428 0
2.266 -1.0019174 0.49151358 0
2.2620001 -1.0032269 0.49132597 0
2.2590001 -1.0050379 0.49118528 0
2.256 -1.0068381 0.49104458 0
2.2520001 -1.008108 0.49085701 0
2.2490001 -1.0098847 0.49071628 0
2.2460001 -1.0116507 0.49057561 0
2.243 -1.0134057 0.49043489 0
2.2390001 -1.0146234 0.49024731 0
2.2360001 -1.0163549 0.49010661 0
2.233 -1.0180758 0.48996592 0
2.23 -1.0197859 0.48982522 0
2.2270002 -1.0214851 0.48968452 0
2.223 -1.0226377 0.48949692 0
2.22 -1.0243133 0.48935622 0
2.217 -1.0259783 0.48921552 0
2.2140002 -1.0276324 0.48907483 0
2.2110002 -1.0292757 0.48893413 0
2.2080002 -1.0309082 0.48879343 0
2.2050002 -1.0325298 0.48865274 0
2.2020001 -1.0341405 0.48851204 0
2.1980002 -1.0351903 0.48832443 0
2.1950002 -1.0367777 0.48818374 0
2.1920002 -1.0383543 0.48804304 0
2.1890001 -1.03992 0.48790234 0
2.1860001 -1.0414748 0.48776165 0
2.1830001 -1.0430189 0.48762095 0
2.1800001 -1.0445521 0.48748025 0
2.177 -1.0460745 0.48733956 0
2.174 -1.0475862 0.48719886 0
2.171 -1.0490869 0.48705816 0
2.1680002 -1.0505769 0.48691747 0
2.1650002 -1.0520561 0.48677677 0
2.1620002 -1.0535243 0.48663607 0
2.1590002 -1.0549817 0.48649538 0
2.1560001 -1.0564284 0.48635468 0
2.4020002 -0.94158357 0.49428061 0
2.3930001 -0.94115251 0.49387476 0
2.3870001 -0.94204175 0.49360418 0
2.3820002 -0.94336212 0.4933787 0
2.378 -0.94511902 0.49319834 0
2.3740001 -0.94686151 0.49301794 0
2.3710001 -0.94904774 0.49288267 0
2.3670001 -0.95076317 0.49270228 0
2.3630002 -0.9524641 0.49252188 0
2.3600001 -0.95461422 0.49238661 0
2.3560002 -0.95628822 0.49220625 0
2.3520002 -0.95794773 0.49202585 0
2.348 -0.95959276 0.49184549 0
2.345 -0.96169424 0.49171019 0
2.3410001 -0.96331227 0.49152982 0
2.3380001 -0.96539026 0.49139452 0
2.3340001 -0.96698123 0.49121416 0
2.3300002 -0.96855772 0.49103376 0
2.3270001 -0.97059965 0.49089849 0
2.3230002 -0.97214913 0.4907181 0
2.3200002 -0.97416753 0.49058282 0
2.3160002 -0.97569001 0.49040243 0
2.3130002 -0.97768497 0.49026716 0
2.309 -0.97918028 0.49008676 0
2.3060002 -0.98115188 0.48995149 0
2.302 -0.98262024 0.4897711 0
2.299 -0.98456824 0.48963583 0
2.2950001 -0.98600954 0.48945543 0
2.2920001 -0.98793423 0.48932016 0
2.289 -0.98984802 0.48918486 0
2.2850001 -0.99124962 0.48900449 0
2.2820001 -0.99313998 0.48886919 0
2.2780001 -0.99451452 0.48868883 0
2.2750001 -0.99638152 0.48855352 0
2.2720001 -0.99823761 0.48841825 0
2.2680001 -0.99957234 0.48823786 0
2.2650001 -1.001405 0.48810259 0
2.2620001 -1.0032269 0.48796728 0
2.2590001 -1.0050379 0.48783201 0
2.2550001 -1.0063204 0.48765162 0
2.2520001 -1.008108 0.48751634 0
2.2490001 -1.0098847 0.48738104 0
2.2450001 -1.0111275 0.48720068 0
2.2420001 -1.0128809 0.48706537 0
2.2390001 -1.0146234 0.4869301 0
2.2360001 -1.0163549 0.48679483 0
2.233 -1.0180758 0.48665953 0
2.2290001 -1.0192537 0.48647916 0
2.2260001 -1.0209512 0.48634386 0
2.223 -1.0226377 0.48620856 0
2.22 -1.0243133 0.48607329 0
2.217 -1.0259783 0.48593801 0
2.2140002 -1.0276324 0.48580271 0
2.21 -1.0287327 0.48562235 0
2.207 -1.0303633 0.48548704 0
2.2040002 -1.0319833 0.48535177 0
2.2010002 -1.0335922 0.48521647 0
2.1980002 -1.0351903 0.4850812 0
2.1950002 -1.0367777 0.48494589 0
2.1920002 -1.0383543 0.48481062 0
2.1890001 -1.03992 0.48467535 0
2.1860001 -1.0414748 0.48454005 0
2.1830001 -1.0430189 0.48440477 0
2.1800001 -1.0445521 0.4842695 0
2.177 -1.0460745 0.4841342 0
2.174 -1.0475862 0.48399889 0
2.171 -1.0490869 0.48386362 0
2.1680002 -1.0505769 0.48372835 0
2.1650002 -1.0520561 0.48359305 0
2.1620002 -1.0535243 0.48345777 0
2.1590002 -1.0549817 0.48332247 0
2.1560001 -1.0564284 0.4831872 0
2.4150002 -0.94376439 0.49123219 0
2.3990002 -0.94024152 0.49053952 0
2.3920002 -0.94070333 0.49023646 0
2.3860002 -0.94159073 0.48997673 0
2.381 -0.94290936 0.48976028 0
2.3770001 -0.94466454 0.4895871 0
2.3730001 -0.94640511 0.48941395 0
2.3700001 -0.94858956 0.48928407 0
2.3660002 -0.9503032 0.48911089 0
2.3620002 -0.95200241 0.48893774 0
2.3590002 -0.95415074 0.48880786 0
2.355 -0.95582283 0.48863471 0
2.3510001 -0.95748055 0.48846152 0
2.348 -0.95959276 0.48833168 0
2.3440001 -0.96122348 0.48815849 0
2.3410001 -0.96331227 0.48802862 0
2.3370001 -0.96491581 0.48785543 0
2.3330002 -0.96650499 0.48768228 0
2.3300002 -0.96855772 0.4875524 0
2.3260002 -0.97011983 0.48737925 0
2.3230002 -0.97214913 0.48724937 0
2.3190002 -0.97368419 0.48707622 0
2.3160002 -0.97569001 0.48694634 0
2.312 -0.97719789 0.48677316 0
2.309 -0.97918028 0.48664328 0
2.3050001 -0.98066127 0.48647013 0
2.302 -0.98262024 0.48634025 0
2.2980001 -0.98407418 0.48616707 0
2.2950001 -0.98600954 0.48603722 0
2.2920001 -0.98793423 0.48590735 0
2.2880001 -0.98934841 0.48573416 0
2.2850001 -0.99124962 0.48560429 0
2.2810001 -0.99263674 0.48543113 0
2.2780001 -0.99451452 0.48530126 0
2.2750001 -0.99638152 0.48517138 0
2.2710001 -0.99772888 0.48499823 0
2.2680001 -0.99957234 0.48486835 0
2.2650001 -1.001405 0.48473847 0
2.2610002 -1.0027127 0.48456532 0
2.2580001 -1.004522 0.48443544 0
2.2550001 -1.0063204 0.48430556 0
2.2520001 -1.008108 0.48417568 0
2.2480001 -1.0093634 0.48400253 0
2.2450001 -1.0111275 0.48387265 0
2.2420001 -1.0128809 0.48374277 0
2.2390001 -1.0146234 0.4836129 0
2.2350001 -1.0158265 0.48343974 0
2.2320001 -1.0175456 0.48330986 0
2.2290001 -1.0192537 0.48317999 0
2.2260001 -1.0209512 0.48305011 0
2.223 -1.0226377 0.48292023 0
2.22 -1.0243133 0.48279035 0
2.2160001 -1.0254389 0.4826172 0
2.2130001 -1.0270913 0.48248732 0
2.21 -1.0287327 0.48235744 0
2.207 -1.0303633 0.48222756 0
2.2040002 -1.0319833 0.48209769 0
2.2010002 -1.0335922 0.48196781 0
2.1980002 -1.0351903 0.48183793 0
2.1950002 -1.0367777 0.48170808 0
2.1920002 -1.0383543 0.4815782 0
2.1890001 -1.03992 0.48144832 0
2.1860001 -1.0414748 0.48131844 0
2.1830001 -1.0430189 0.4811886 0
2.1790001 -1.0439912 0.48101541 0
2.1760001 -1.0455118 0.48088554 0
2.1730001 -1.0470216 0.48075566 0
2.1700001 -1.0485206 0.48062581 0
2.1680002 -1.0505769 0.4805392 0
2.1650002 -1.0520561 0.48040932 0
2.1620002 -1.0535243 0.48027945 0
2.1590002 -1.0549817 0.48014957 0
2.1560001 -1.0564284 0.48001969 0
2.4090002 -0.94109112 0.48734859 0
2.3980002 -0.93979418 0.48689222 0
2.391 -0.94025415 0.4866018 0
2.3850002 -0.94113988 0.48635289 0
2.381 -0.94290936 0.48618692 0
2.3760002 -0.94420993 0.4859795 0
2.3730001 -0.94640511 0.48585504 0
2.3690002 -0.94813144 0.48568907 0
2.3660002 -0.9503032 0.48556462 0
2.3620002 -0.95200241 0.48539865 0
2.358 -0.95368713 0.48523271 0
2.355 -0.95582283 0.48510826 0
2.3510001 -0.95748055 0.48494232 0
2.3470001 -0.95912385 0.48477635 0
2.3440001 -0.96122348 0.48465189 0
2.3400002 -0.96283966 0.48448592 0
2.3370001 -0.96491581 0.48436147 0
2.3330002 -0.96650499 0.48419553 0
2.3290002 -0.96807975 0.48402959 0
2.3260002 -0.97011983 0.48390511 0
2.322 -0.97166747 0.48373917 0
2.3190002 -0.97368419 0.48361471 0
2.3150001 -0.97520471 0.48344874 0
2.312 -0.97719789 0.48332429 0
2.3080001 -0.97869158 0.48315835 0
2.3050001 -0.98066127 0.48303387 0
2.302 -0.98262024 0.48290941 0
2.2980001 -0.98407418 0.48274344 0
2.2950001 -0.98600954 0.48261899 0
2.2910001 -0.98743635 0.48245305 0
2.2880001 -0.98934841 0.48232859 0
2.2840002 -0.99074817 0.48216262 0
2.2810001 -0.99263674 0.48203817 0
2.2780001 -0.99451452 0.48191372 0
2.2740002 -0.99587452 0.48174775 0
2.2710001 -0.99772888 0.48162329 0
2.2680001 -0.99957234 0.48149884 0
2.2640002 -1.0008928 0.4813329 0
2.2610002 -1.0027127 0.48120841 0
2.2580001 -1.004522 0.48108396 0
2.2550001 -1.0063204 0.4809595 0
2.2510002 -1.0075885 0.48079354 0
2.2480001 -1.0093634 0.48066908 0
2.2450001 -1.0111275 0.48054463 0
2.2420001 -1.0128809 0.48042014 0
2.2380002 -1.0140966 0.4802542 0
2.2350001 -1.0158265 0.48012975 0
2.2320001 -1.0175456 0.48000526 0
2.2290001 -1.0192537 0.47988081 0
2.2260001 -1.0209512 0.47975636 0
2.223 -1.0226377 0.4796319 0
2.2190001 -1.0237758 0.47946593 0
2.2160001 -1.0254389 0.47934148 0
2.2130001 -1.0270913 0.47921702 0
2.21 -1.0287327 0.47909254 0
2.207 -1.0303633 0.47896808 0
2.2040002 -1.0319833 0.47884363 0
2.2010002 -1.0335922 0.47871917 0
2.1980002 -1.0351903 0.47859472 0
2.1950002 -1.0367777 0.47847024 0
2.1920002 -1.0383543 0.47834575 0
2.1890001 -1.03992 0.4782213 0
2.1860001 -1.0414748 0.47809684 0
2.1830001 -1.0430189 0.47797239 0
2.1800001 -1.0445521 0.47784793 0
2.177 -1.0460745 0.47772348 0
2.174 -1.0475862 0.47759899 0
2.171 -1.0490869 0.47747454 0
2.1680002 -1.0505769 0.47735006 0
2.1650002 -1.0520561 0.4772256 0
2.1620002 -1.0535243 0.47710115 0
2.1590002 -1.0549817 0.47697669 0
2.1560001 -1.0564284 0.47685221 0
2.4080002 -0.94064564 0.48368505 0
2.3970001 -0.93934685 0.48324853 0
2.3900001 -0.93980503 0.48297074 0
2.3850002 -0.94113988 0.48277232 0
2.3800001 -0.94245666 0.4825739 0
2.3760002 -0.94420993 0.48241517 0
2.3730001 -0.94640511 0.48229611 0
2.3690002 -0.94813144 0.48213738 0
2.3650002 -0.94984323 0.48197865 0
2.3620002 -0.95200241 0.48185959 0
2.358 -0.95368713 0.48170084 0
2.3540001 -0.95535743 0.48154211 0
2.3510001 -0.95748055 0.48142308 0
2.3470001 -0.95912385 0.48126435 0
2.3430002 -0.96075261 0.4811056 0
2.3400002 -0.96283966 0.48098654 0
2.3360002 -0.96444142 0.48082781 0
2.3330002 -0.96650499 0.48070878 0
2.3290002 -0.96807975 0.48055002 0
2.3260002 -0.97011983 0.48043096 0
2.322 -0.97166747 0.48027223 0
2.3190002 -0.97368419 0.4801532 0
2.3150001 -0.97520471 0.47999445 0
2.312 -0.97719789 0.47987542 0
2.3080001 -0.97869158 0.47971666 0
2.3050001 -0.98066127 0.47959763 0
2.3010001 -0.98212779 0.4794389 0
2.2980001 -0.98407418 0.47931984 0
2.2950001 -0.98600954 0.47920078 0
2.2910001 -0.98743635 0.47904205 0
2.2880001 -0.98934841 0.47892299 0
2.2850001 -0.99124962 0.47880393 0
2.2810001 -0.99263674 0.47864521 0
