# .PCD v0.7 - Point Cloud Data file format
VERSION 0.7
FIELDS x y z intensity
SIZE 4 4 4 4
TYPE F F F F
COUNT 1 1 1 1
WIDTH 1455
HEIGHT 1
VIEWPOINT 0 0 0 1 0 0 0
POINTS 1455
DATA ascii
5.6130004 1.6277789 0.64848459 0
5.6140003 1.6186949 0.6485315 0
5.6150002 1.6096073 0.64857835 0
5.6150002 1.6002004 0.64857835 0
5.6160002 1.5911074 0.64862525 0
5.6170006 1.582011 0.64867216 0
5.6170006 1.5726005 0.64867216 0
5.6180005 1.5634985 0.64871907 0
5.6190004 1.5543928 0.64876598 0
5.6190004 1.5449787 0.64876598 0
5.6200004 1.5358676 0.64881289 0
5.6200004 1.5264518 0.64881289 0
5.6210003 1.5173353 0.64885974 0
5.6220002 1.5082152 0.64890665 0
5.5960002 1.8847529 0.63831472 0
5.5960002 1.8753804 0.63831472 0
5.5970001 1.8663757 0.63835979 0
5.5970001 1.8570013 0.63835979 0
5.5980005 1.8479915 0.63840491 0
5.5990005 1.8389777 0.63844997 0
5.5990005 1.8295997 0.63844997 0
5.6000004 1.8205807 0.63849509 0
5.6010003 1.8115582 0.63854015 0
5.6010003 1.8021765 0.63854015 0
5.6020002 1.7931484 0.63858527 0
5.6030002 1.7841167 0.63863039 0
5.6030002 1.7747315 0.63863039 0
5.6040006 1.7656945 0.63867545 0
5.6040006 1.7563075 0.63867545 0
5.6050005 1.7472651 0.63872057 0
5.6060004 1.7382189 0.63876569 0
5.6060004 1.7288283 0.63876569 0
5.6070004 1.7197767 0.63881075 0
5.6080003 1.7107216 0.63885587 0
5.6080003 1.7013274 0.63885587 0
5.6090002 1.6922668 0.63890094 0
5.6100001 1.6832026 0.63894606 0
5.6100001 1.6738048 0.63894606 0
5.6110005 1.6647354 0.63899112 0
5.6120005 1.6556622 0.63903624 0
5.6120005 1.6462609 0.63903624 0
5.6130004 1.6371822 0.63908136 0
5.6130004 1.6277789 0.63908136 0
5.6140003 1.6186949 0.63912642 0
5.6150002 1.6096073 0.63917148 0
5.6150002 1.6002004 0.63917148 0
5.6160002 1.5911074 0.6392166 0
5.6170006 1.582011 0.63926172 0
5.6170006 1.5726005 0.63926172 0
5.6180005 1.5634985 0.63930678 0
5.6190004 1.5543928 0.6393519 0
5.6190004 1.5449787 0.6393519 0
5.6200004 1.5358676 0.63939697 0
5.6200004 1.5264518 0.63939697 0
5.6210003 1.5173353 0.63944209 0
5.6220002 1.5082152 0.63948715 0
5.5960002 1.8847529 0.62894213 0
5.5960002 1.8753804 0.62894213 0
5.5970001 1.8663757 0.6289854 0
5.5970001 1.8570013 0.6289854 0
5.5980005 1.8479915 0.62902868 0
5.5990005 1.8389777 0.62907201 0
5.5990005 1.8295997 0.62907201 0
5.6000004 1.8205807 0.62911528 0
5.6010003 1.8115582 0.62915856 0
5.6010003 1.8021765 0.62915856 0
5.6020002 1.7931484 0.62920189 0
5.6030002 1.7841167 0.62924516 0
5.6030002 1.7747315 0.62924516 0
5.6040006 1.7656945 0.62928843 0
5.6040006 1.7563075 0.62928843 0
5.6050005 1.7472651 0.62933177 0
5.6060004 1.7382189 0.62937504 0
5.6060004 1.7288283 0.62937504 0
5.6070004 1.7197767 0.62941831 0
5.6080003 1.7107216 0.62946165 0
5.6080003 1.7013274 0.62946165 0
5.6090002 1.6922668 0.62950492 0
5.6100001 1.6832026 0.62954819 0
5.6100001 1.6738048 0.62954819 0
5.6110005 1.6647354 0.62959146 0
5.6120005 1.6556622 0.6296348 0
5.6120005 1.6462609 0.6296348 0
5.6130004 1.6371822 0.62967807 0
5.6130004 1.6277789 0.62967807 0
5.6140003 1.6186949 0.62972134 0
5.6150002 1.6096073 0.62976468 0
5.6150002 1.6002004 0.62976468 0
5.6160002 1.5911074 0.62980795 0
5.6170006 1.582011 0.62985122 0
5.6170006 1.5726005 0.62985122 0
5.6180005 1.5634985 0.62989455 0
5.6190004 1.5543928 0.62993783 0
5.6190004 1.5449787 0.62993783 0
5.6200004 1.5358676 0.6299811 0
5.6200004 1.5264518 0.6299811 0
5.6210003 1.5173353 0.63002437 0
5.6220002 1.5082152 0.63006771 0
5.5960002 1.8847529 0.61956954 0
5.5960002 1.8753804 0.61956954 0
5.5970001 1.8663757 0.61961102 0
5.5970001 1.8570013 0.61961102 0
5.5980005 1.8479915 0.61965251 0
5.5990005 1.8389777 0.61969399 0
5.5990005 1.8295997 0.61969399 0
5.6000004 1.8205807 0.61973548 0
5.6010003 1.8115582 0.61977696 0
5.6010003 1.8021765 0.61977696 0
5.6020002 1.7931484 0.61981845 0
5.6030002 1.7841167 0.61985993 0
5.6030002 1.7747315 0.61985993 0
5.6040006 1.7656945 0.61990142 0
5.6040006 1.7563075 0.61990142 0
5.6050005 1.7472651 0.6199429 0
5.6060004 1.7382189 0.61998439 0
5.6060004 1.7288283 0.61998439 0
5.6070004 1.7197767 0.62002587 0
5.6080003 1.7107216 0.62006736 0
5.6080003 1.7013274 0.62006736 0
5.6090002 1.6922668 0.62010884 0
5.6100001 1.6832026 0.62015033 0
5.6100001 1.6738048 0.62015033 0
5.6110005 1.6647354 0.62019187 0
5.6120005 1.6556622 0.6202333 0
5.6120005 1.6462609 0.6202333 0
5.6130004 1.6371822 0.62027484 0
5.6130004 1.6277789 0.62027484 0
5.6140003 1.6186949 0.62031627 0
5.6150002 1.6096073 0.62035781 0
5.6150002 1.6002004 0.62035781 0
5.6160002 1.5911074 0.6203993 0
5.6170006 1.582011 0.62044078 0
5.6170006 1.5726005 0.62044078 0
5.6180005 1.5634985 0.62048227 0
5.6190004 1.5543928 0.62052375 0
5.6190004 1.5449787 0.62052375 0
5.6200004 1.5358676 0.62056524 0
5.6200004 1.5264518 0.62056524 0
5.6210003 1.5173353 0.62060672 0
5.6220002 1.5082152 0.62064821 0
5.5960002 1.8847529 0.61019695 0
5.5960002 1.8753804 0.61019695 0
5.5970001 1.8663757 0.61023664 0
5.5970001 1.8570013 0.61023664 0
5.5980005 1.8479915 0.61027634 0
5.5990005 1.8389777 0.61031598 0
5.5990005 1.8295997 0.61031598 0
5.6000004 1.8205807 0.61035568 0
5.6010003 1.8115582 0.61039537 0
5.6010003 1.8021765 0.61039537 0
5.6020002 1.7931484 0.61043501 0
5.6030002 1.7841167 0.61047471 0
5.6030002 1.7747315 0.61047471 0
5.6040006 1.7656945 0.6105144 0
5.6040006 1.7563075 0.6105144 0
5.6050005 1.7472651 0.6105541 0
5.6060004 1.7382189 0.6105938 0
5.6060004 1.7288283 0.6105938 0
5.6070004 1.7197767 0.61063349 0
5.6080003 1.7107216 0.61067313 0
5.6080003 1.7013274 0.61067313 0
5.6090002 1.6922668 0.61071283 0
5.6100001 1.6832026 0.61075252 0
5.6100001 1.6738048 0.61075252 0
5.6110005 1.6647354 0.61079222 0
5.6120005 1.6556622 0.61083186 0
5.6120005 1.6462609 0.61083186 0
5.6130004 1.6371822 0.61087155 0
5.6130004 1.6277789 0.61087155 0
5.6140003 1.6186949 0.61091125 0
5.6150002 1.6096073 0.61095095 0
5.6150002 1.6002004 0.61095095 0
5.6160002 1.5911074 0.61099058 0
5.6170006 1.582011 0.61103034 0
5.6170006 1.5726005 0.61103034 0
5.6180005 1.5634985 0.61106998 0
5.6190004 1.5543928 0.61110967 0
5.6190004 1.5449787 0.61110967 0
5.6200004 1.5358676 0.61114937 0
5.6200004 1.5264518 0.61114937 0
5.6210003 1.5173353 0.61118901 0
5.6220002 1.5082152 0.6112287 0
5.5960002 1.8847529 0.60082436 0
5.5960002 1.8753804 0.60082436 0
5.5970001 1.8663757 0.60086221 0
5.5970001 1.8570013 0.60086221 0
5.5980005 1.8479915 0.60090011 0
5.5990005 1.8389777 0.60093796 0
5.5990005 1.8295997 0.60093796 0
5.6000004 1.8205807 0.60097587 0
5.6010003 1.8115582 0.60101378 0
5.6010003 1.8021765 0.60101378 0
5.6020002 1.7931484 0.60105163 0
5.6030002 1.7841167 0.60108948 0
5.6030002 1.7747315 0.60108948 0
5.6040006 1.7656945 0.60112739 0
5.6040006 1.7563075 0.60112739 0
5.6050005 1.7472651 0.60116529 0
5.6060004 1.7382189 0.60120314 0
5.6060004 1.7288283 0.60120314 0
5.6070004 1.7197767 0.60124105 0
5.6080003 1.7107216 0.6012789 0
5.6080003 1.7013274 0.6012789 0
5.6090002 1.6922668 0.60131681 0
5.6100001 1.6832026 0.60135466 0
5.6100001 1.6738048 0.60135466 0
5.6110005 1.6647354 0.60139257 0
5.6120005 1.6556622 0.60143042 0
5.6120005 1.6462609 0.60143042 0
5.6130004 1.6371822 0.60146832 0
5.6130004 1.6277789 0.60146832 0
5.6140003 1.6186949 0.60150617 0
5.6150002 1.6096073 0.60154408 0
5.6150002 1.6002004 0.60154408 0
5.6160002 1.5911074 0.60158193 0
5.6170006 1.582011 0.60161984 0
5.6170006 1.5726005 0.60161984 0
5.6180005 1.5634985 0.60165775 0
5.6190004 1.5543928 0.6016956 0
5.6190004 1.5449787 0.6016956 0
5.6200004 1.5358676 0.60173345 0
5.6200004 1.5264518 0.60173345 0
5.6210003 1.5173353 0.60177135 0
5.6220002 1.5082152 0.60180926 0
5.5960002 1.8847529 0.59145176 0
5.5960002 1.8753804 0.59145176 0
5.5970001 1.8663757 0.59148782 0
5.5970001 1.8570013 0.59148782 0
5.5980005 1.8479915 0.59152389 0
5.5990005 1.8389777 0.59156001 0
5.5990005 1.8295997 0.59156001 0
5.6000004 1.8205807 0.59159607 0
5.6010003 1.8115582 0.59163213 0
5.6010003 1.8021765 0.59163213 0
5.6020002 1.7931484 0.59166825 0
5.6030002 1.7841167 0.59170425 0
5.6030002 1.7747315 0.59170425 0
5.6040006 1.7656945 0.59174037 0
5.6040006 1.7563075 0.59174037 0
5.6050005 1.7472651 0.59177649 0
5.6060004 1.7382189 0.59181255 0
5.6060004 1.7288283 0.59181255 0
5.6070004 1.7197767 0.59184861 0
5.6080003 1.7107216 0.59188467 0
5.6080003 1.7013274 0.59188467 0
5.6090002 1.6922668 0.59192073 0
5.6100001 1.6832026 0.59195685 0
5.6100001 1.6738048 0.59195685 0
5.6110005 1.6647354 0.59199291 0
5.6120005 1.6556622 0.59202898 0
5.6120005 1.6462609 0.59202898 0
5.6130004 1.6371822 0.5920651 0
5.6130004 1.6277789 0.5920651 0
5.6140003 1.6186949 0.59210116 0
5.6150002 1.6096073 0.59213722 0
5.6150002 1.6002004 0.59213722 0
5.6160002 1.5911074 0.59217328 0
5.6170006 1.582011 0.5922094 0
5.6170006 1.5726005 0.5922094 0
5.6180005 1.5634985 0.59224546 0
5.6190004 1.5543928 0.59228152 0
5.6190004 1.5449787 0.59228152 0
5.6200004 1.5358676 0.59231758 0
5.6200004 1.5264518 0.59231758 0
5.6210003 1.5173353 0.5923537 0
5.6220002 1.5082152 0.59238976 0
5.5960002 1.8847529 0.58207917 0
5.5960002 1.8753804 0.58207917 0
5.5970001 1.8663757 0.58211344 0
5.5970001 1.8570013 0.58211344 0
5.5980005 1.8479915 0.58214772 0
5.5990005 1.8389777 0.58218199 0
5.5990005 1.8295997 0.58218199 0
5.6000004 1.8205807 0.58221626 0
5.6010003 1.8115582 0.58225054 0
5.6010003 1.8021765 0.58225054 0
5.6020002 1.7931484 0.58228481 0
5.6030002 1.7841167 0.58231908 0
5.6030002 1.7747315 0.58231908 0
5.6040006 1.7656945 0.58235335 0
5.6040006 1.7563075 0.58235335 0
5.6050005 1.7472651 0.58238763 0
5.6060004 1.7382189 0.5824219 0
5.6060004 1.7288283 0.5824219 0
5.6070004 1.7197767 0.58245617 0
5.6080003 1.7107216 0.58249044 0
5.6080003 1.7013274 0.58249044 0
5.6090002 1.6922668 0.58252472 0
5.6100001 1.6832026 0.58255899 0
5.6100001 1.6738048 0.58255899 0
5.6110005 1.6647354 0.58259326 0
5.6120005 1.6556622 0.58262753 0
5.6120005 1.6462609 0.58262753 0
5.6130004 1.6371822 0.58266181 0
5.6130004 1.6277789 0.58266181 0
5.6140003 1.6186949 0.58269608 0
5.6150002 1.6096073 0.58273035 0
5.6150002 1.6002004 0.58273035 0
5.6160002 1.5911074 0.58276463 0
5.6170006 1.582011 0.5827989 0
5.6170006 1.5726005 0.5827989 0
5.6180005 1.5634985 0.58283317 0
5.6190004 1.5543928 0.58286744 0
5.6190004 1.5449787 0.58286744 0
5.6200004 1.5358676 0.58290172 0
5.6200004 1.5264518 0.58290172 0
5.6210003 1.5173353 0.58293599 0
5.6220002 1.5082152 0.58297026 0
5.5960002 1.8847529 0.57270658 0
5.5960002 1.8753804 0.57270658 0
5.5970001 1.8663757 0.57273906 0
5.5970001 1.8570013 0.57273906 0
5.5980005 1.8479915 0.57277155 0
5.5990005 1.8389777 0.57280397 0
5.5990005 1.8295997 0.57280397 0
5.6000004 1.8205807 0.57283646 0
5.6010003 1.8115582 0.57286894 0
5.6010003 1.8021765 0.57286894 0
5.6020002 1.7931484 0.57290137 0
5.6030002 1.7841167 0.57293385 0
5.6030002 1.7747315 0.57293385 0
5.6040006 1.7656945 0.57296634 0
5.6040006 1.7563075 0.57296634 0
5.6050005 1.7472651 0.57299882 0
5.6060004 1.7382189 0.57303131 0
5.6060004 1.7288283 0.57303131 0
5.6070004 1.7197767 0.57306373 0
5.6080003 1.7107216 0.57309622 0
5.6080003 1.7013274 0.57309622 0
5.6090002 1.6922668 0.5731287 0
5.6100001 1.6832026 0.57316113 0
5.6100001 1.6738048 0.57316113 0
5.6110005 1.6647354 0.57319361 0
5.6120005 1.6556622 0.57322609 0
5.6120005 1.6462609 0.57322609 0
5.6130004 1.6371822 0.57325858 0
5.6130004 1.6277789 0.57325858 0
5.6140003 1.6186949 0.573291 0
5.6150002 1.6096073 0.57332349 0
5.6150002 1.6002004 0.57332349 0
5.6160002 1.5911074 0.57335597 0
5.6170006 1.582011 0.57338846 0
5.6170006 1.5726005 0.57338846 0
5.6180005 1.5634985 0.57342088 0
5.6190004 1.5543928 0.57345337 0
5.6190004 1.5449787 0.57345337 0
5.6200004 1.5358676 0.57348585 0
5.6200004 1.5264518 0.57348585 0
5.6210003 1.5173353 0.57351828 0
5.6220002 1.5082152 0.57355076 0
5.5960002 1.8847529 0.56333399 0
5.5960002 1.8753804 0.56333399 0
5.5970001 1.8663757 0.56336462 0
5.5970001 1.8570013 0.56336462 0
5.5980005 1.8479915 0.56339532 0
5.5990005 1.8389777 0.56342602 0
5.5990005 1.8295997 0.56342602 0
5.6000004 1.8205807 0.56345665 0
5.6010003 1.8115582 0.56348735 0
5.6010003 1.8021765 0.56348735 0
5.6020002 1.7931484 0.56351799 0
5.6030002 1.7841167 0.56354868 0
5.6030002 1.7747315 0.56354868 0
5.6040006 1.7656945 0.56357932 0
5.6040006 1.7563075 0.56357932 0
5.6050005 1.7472651 0.56360996 0
5.6060004 1.7382189 0.56364065 0
5.6060004 1.7288283 0.56364065 0
5.6070004 1.7197767 0.56367135 0
5.6080003 1.7107216 0.56370199 0
5.6080003 1.7013274 0.56370199 0
5.6090002 1.6922668 0.56373262 0
5.6100001 1.6832026 0.56376332 0
5.6100001 1.6738048 0.56376332 0
5.6110005 1.6647354 0.56379396 0
5.6120005 1.6556622 0.56382465 0
5.6120005 1.6462609 0.56382465 0
5.6130004 1.6371822 0.56385529 0
5.6130004 1.6277789 0.56385529 0
5.6140003 1.6186949 0.56388593 0
5.6150002 1.6096073 0.56391662 0
5.6150002 1.6002004 0.56391662 0
5.6160002 1.5911074 0.56394732 0
5.6170006 1.582011 0.56397796 0
5.6170006 1.5726005 0.56397796 0
5.6180005 1.5634985 0.56400865 0
5.6190004 1.5543928 0.56403929 0
5.6190004 1.5449787 0.56403929 0
5.6200004 1.5358676 0.56406999 0
5.6200004 1.5264518 0.56406999 0
5.6210003 1.5173353 0.56410062 0
5.6220002 1.5082152 0.56413126 0
5.5960002 1.8847529 0.5539614 0
5.5960002 1.8753804 0.5539614 0
5.5970001 1.8663757 0.55399024 0
5.5970001 1.8570013 0.55399024 0
5.5980005 1.8479915 0.55401915 0
5.5990005 1.8389777 0.554048 0
5.5990005 1.8295997 0.554048 0
5.6000004 1.8205807 0.55407685 0
5.6010003 1.8115582 0.5541057 0
5.6010003 1.8021765 0.5541057 0
5.6020002 1.7931484 0.55413461 0
5.6030002 1.7841167 0.55416346 0
5.6030002 1.7747315 0.55416346 0
5.6040006 1.7656945 0.5541923 0
5.6040006 1.7563075 0.5541923 0
5.6050005 1.7472651 0.55422115 0
5.6060004 1.7382189 0.55425 0
5.6060004 1.7288283 0.55425 0
5.6070004 1.7197767 0.55427885 0
5.6080003 1.7107216 0.55430776 0
5.6080003 1.7013274 0.55430776 0
5.6090002 1.6922668 0.55433661 0
5.6100001 1.6832026 0.55436546 0
5.6100001 1.6738048 0.55436546 0
5.6110005 1.6647354 0.55439436 0
5.6120005 1.6556622 0.55442321 0
5.6120005 1.6462609 0.55442321 0
5.6130004 1.6371822 0.55445206 0
5.6130004 1.6277789 0.55445206 0
5.6140003 1.6186949 0.55448091 0
5.6150002 1.6096073 0.55450976 0
5.6150002 1.6002004 0.55450976 0
5.6160002 1.5911074 0.55453861 0
5.6170006 1.582011 0.55456752 0
5.6170006 1.5726005 0.55456752 0
5.6180005 1.5634985 0.55459636 0
5.6190004 1.5543928 0.55462521 0
5.6190004 1.5449787 0.55462521 0
5.6200004 1.5358676 0.55465406 0
5.6200004 1.5264518 0.55465406 0
5.6210003 1.5173353 0.55468297 0
5.6220002 1.5082152 0.55471182 0
5.5960002 1.8847529 0.5445888 0
5.5960002 1.8753804 0.5445888 0
5.5970001 1.8663757 0.54461586 0
5.5970001 1.8570013 0.54461586 0
5.5980005 1.8479915 0.54464293 0
5.5990005 1.8389777 0.54466999 0
5.5990005 1.8295997 0.54466999 0
5.6000004 1.8205807 0.54469705 0
5.6010003 1.8115582 0.54472411 0
5.6010003 1.8021765 0.54472411 0
5.6020002 1.7931484 0.54475117 0
5.6030002 1.7841167 0.54477823 0
5.6030002 1.7747315 0.54477823 0
5.6040006 1.7656945 0.54480529 0
5.6040006 1.7563075 0.54480529 0
5.6050005 1.7472651 0.54483235 0
5.6060004 1.7382189 0.54485941 0
5.6060004 1.7288283 0.54485941 0
5.6070004 1.7197767 0.54488647 0
5.6080003 1.7107216 0.54491353 0
5.6080003 1.7013274 0.54491353 0
5.6090002 1.6922668 0.54494059 0
5.6100001 1.6832026 0.54496765 0
5.6100001 1.6738048 0.54496765 0
5.6110005 1.6647354 0.54499471 0
5.6120005 1.6556622 0.54502177 0
5.6120005 1.6462609 0.54502177 0
5.6130004 1.6371822 0.54504883 0
5.6130004 1.6277789 0.54504883 0
5.6140003 1.6186949 0.54507589 0
5.6150002 1.6096073 0.54510295 0
5.6150002 1.6002004 0.54510295 0
5.6160002 1.5911074 0.54512995 0
5.6170006 1.582011 0.54515702 0
5.6170006 1.5726005 0.54515702 0
5.6180005 1.5634985 0.54518408 0
5.6190004 1.5543928 0.54521114 0
5.6190004 1.5449787 0.54521114 0
5.6200004 1.5358676 0.5452382 0
5.6200004 1.5264518 0.5452382 0
5.6210003 1.5173353 0.54526526 0
5.6220002 1.5082152 0.54529232 0
5.5960002 1.8847529 0.53521621 0
5.5960002 1.8753804 0.53521621 0
5.5970001 1.8663757 0.53524148 0
5.5970001 1.8570013 0.53524148 0
5.5980005 1.8479915 0.53526676 0
5.5990005 1.8389777 0.53529203 0
5.5990005 1.8295997 0.53529203 0
5.6000004 1.8205807 0.53531724 0
5.6010003 1.8115582 0.53534251 0
5.6010003 1.8021765 0.53534251 0
5.6020002 1.7931484 0.53536773 0
5.6030002 1.7841167 0.535393 0
5.6030002 1.7747315 0.535393 0
5.6040006 1.7656945 0.53541827 0
5.6040006 1.7563075 0.53541827 0
5.6050005 1.7472651 0.53544354 0
5.6060004 1.7382189 0.53546876 0
5.6060004 1.7288283 0.53546876 0
5.6070004 1.7197767 0.53549403 0
5.6080003 1.7107216 0.53551924 0
5.6080003 1.7013274 0.53551924 0
5.6090002 1.6922668 0.53554451 0
5.6100001 1.6832026 0.53556979 0
5.6100001 1.6738048 0.53556979 0
5.6110005 1.6647354 0.53559506 0
5.6120005 1.6556622 0.53562027 0
5.6120005 1.6462609 0.53562027 0
5.6130004 1.6371822 0.53564554 0
5.6130004 1.6277789 0.53564554 0
5.6140003 1.6186949 0.53567082 0
5.6150002 1.6096073 0.53569603 0
5.6150002 1.6002004 0.53569603 0
5.6160002 1.5911074 0.5357213 0
5.6170006 1.582011 0.53574657 0
5.6170006 1.5726005 0.53574657 0
5.6180005 1.5634985 0.53577185 0
5.6190004 1.5543928 0.53579706 0
5.6190004 1.5449787 0.53579706 0
5.6200004 1.5358676 0.53582233 0
5.6200004 1.5264518 0.53582233 0
5.6210003 1.5173353 0.53584754 0
5.6220002 1.5082152 0.53587282 0
5.5960002 1.8847529 0.52584368 0
5.5960002 1.8753804 0.52584368 0
5.5970001 1.8663757 0.5258671 0
5.5970001 1.8570013 0.5258671 0
5.5980005 1.8479915 0.52589053 0
5.5990005 1.8389777 0.52591401 0
5.5990005 1.8295997 0.52591401 0
5.6000004 1.8205807 0.52593744 0
5.6010003 1.8115582 0.52596092 0
5.6010003 1.8021765 0.52596092 0
5.6020002 1.7931484 0.52598435 0
5.6030002 1.7841167 0.52600777 0
5.6030002 1.7747315 0.52600777 0
5.6040006 1.7656945 0.52603126 0
5.6040006 1.7563075 0.52603126 0
5.6050005 1.7472651 0.52605474 0
5.6060004 1.7382189 0.52607816 0
5.6060004 1.7288283 0.52607816 0
5.6070004 1.7197767 0.52610159 0
5.6080003 1.7107216 0.52612507 0
5.6080003 1.7013274 0.52612507 0
5.6090002 1.6922668 0.5261485 0
5.6100001 1.6832026 0.52617192 0
5.6100001 1.6738048 0.52617192 0
5.6110005 1.6647354 0.52619541 0
5.6120005 1.6556622 0.52621883 0
5.6120005 1.6462609 0.52621883 0
5.6130004 1.6371822 0.52624232 0
5.6130004 1.6277789 0.52624232 0
5.6140003 1.6186949 0.52626574 0
5.6150002 1.6096073 0.52628917 0
5.6150002 1.6002004 0.52628917 0
5.6160002 1.5911074 0.52631265 0
5.6170006 1.582011 0.52633607 0
5.6170006 1.5726005 0.52633607 0
5.6180005 1.5634985 0.52635956 0
5.6190004 1.5543928 0.52638298 0
5.6190004 1.5449787 0.52638298 0
5.6200004 1.5358676 0.52640641 0
5.6200004 1.5264518 0.52640641 0
5.6210003 1.5173353 0.52642989 0
5.6220002 1.5082152 0.52645332 0
5.5960002 1.8847529 0.51647103 0
5.5960002 1.8753804 0.51647103 0
5.5970001 1.8663757 0.51649272 0
5.5970001 1.8570013 0.51649272 0
5.5980005 1.8479915 0.51651436 0
5.5990005 1.8389777 0.516536 0
5.5990005 1.8295997 0.516536 0
5.6000004 1.8205807 0.51655763 0
5.6010003 1.8115582 0.51657927 0
5.6010003 1.8021765 0.51657927 0
5.6020002 1.7931484 0.51660097 0
5.6030002 1.7841167 0.5166226 0
5.6030002 1.7747315 0.5166226 0
5.6040006 1.7656945 0.51664424 0
5.6040006 1.7563075 0.51664424 0
5.6050005 1.7472651 0.51666588 0
5.6060004 1.7382189 0.51668751 0
5.6060004 1.7288283 0.51668751 0
5.6070004 1.7197767 0.51670915 0
5.6080003 1.7107216 0.51673079 0
5.6080003 1.7013274 0.51673079 0
5.6090002 1.6922668 0.51675248 0
5.6100001 1.6832026 0.51677412 0
5.6100001 1.6738048 0.51677412 0
5.6110005 1.6647354 0.51679575 0
5.6120005 1.6556622 0.51681739 0
5.6120005 1.6462609 0.51681739 0
5.6130004 1.6371822 0.51683903 0
5.6130004 1.6277789 0.51683903 0
5.6140003 1.6186949 0.51686066 0
5.6150002 1.6096073 0.5168823 0
5.6150002 1.6002004 0.5168823 0
5.6160002 1.5911074 0.516904 0
5.6170006 1.582011 0.51692563 0
5.6170006 1.5726005 0.51692563 0
5.6180005 1.5634985 0.51694727 0
5.6190004 1.5543928 0.51696891 0
5.6190004 1.5449787 0.51696891 0
5.6200004 1.5358676 0.51699054 0
5.6200004 1.5264518 0.51699054 0
5.6210003 1.5173353 0.51701218 0
5.6220002 1.5082152 0.51703387 0
5.5960002 1.8847529 0.5070985 0
5.5960002 1.8753804 0.5070985 0
5.5970001 1.8663757 0.50711834 0
5.5970001 1.8570013 0.50711834 0
5.5980005 1.8479915 0.50713813 0
5.5990005 1.8389777 0.50715798 0
5.5990005 1.8295997 0.50715798 0
5.6000004 1.8205807 0.50717783 0
5.6010003 1.8115582 0.50719768 0
5.6010003 1.8021765 0.50719768 0
5.6020002 1.7931484 0.50721753 0
5.6030002 1.7841167 0.50723737 0
5.6030002 1.7747315 0.50723737 0
5.6040006 1.7656945 0.50725722 0
5.6040006 1.7563075 0.50725722 0
5.6050005 1.7472651 0.50727707 0
5.6060004 1.7382189 0.50729692 0
5.6060004 1.7288283 0.50729692 0
5.6070004 1.7197767 0.50731671 0
5.6080003 1.7107216 0.50733656 0
5.6080003 1.7013274 0.50733656 0
5.6090002 1.6922668 0.50735641 0
5.6100001 1.6832026 0.50737625 0
5.6100001 1.6738048 0.50737625 0
5.6110005 1.6647354 0.5073961 0
5.6120005 1.6556622 0.50741595 0
5.6120005 1.6462609 0.50741595 0
5.6130004 1.6371822 0.5074358 0
5.6130004 1.6277789 0.5074358 0
5.6140003 1.6186949 0.50745565 0
5.6150002 1.6096073 0.5074755 0
5.6150002 1.6002004 0.5074755 0
5.6160002 1.5911074 0.50749528 0
5.6170006 1.582011 0.50751519 0
5.6170006 1.5726005 0.50751519 0
5.6180005 1.5634985 0.50753498 0
5.6190004 1.5543928 0.50755483 0
5.6190004 1.5449787 0.50755483 0
5.6200004 1.5358676 0.50757468 0
5.6210003 1.5267531 0.50759453 0
5.6210003 1.5173353 0.50759453 0
5.6220002 1.5082152 0.50761437 0
5.5960002 1.8847529 0.49772587 0
5.5960002 1.8753804 0.49772587 0
5.5970001 1.8663757 0.49774393 0
5.5970001 1.8570013 0.49774393 0
5.5980005 1.8479915 0.49776196 0
5.5990005 1.8389777 0.49778003 0
5.5990005 1.8295997 0.49778003 0
5.6000004 1.8205807 0.49779806 0
5.6010003 1.8115582 0.49781609 0
5.6010003 1.8021765 0.49781609 0
5.6020002 1.7931484 0.49783412 0
5.6030002 1.7841167 0.49785215 0
5.6030002 1.7747315 0.49785215 0
5.6040006 1.7656945 0.49787021 0
5.6040006 1.7563075 0.49787021 0
5.6050005 1.7472651 0.49788824 0
5.6060004 1.7382189 0.49790627 0
5.6060004 1.7288283 0.49790627 0
5.6070004 1.7197767 0.49792433 0
5.6080003 1.7107216 0.49794233 0
5.6080003 1.7013274 0.49794233 0
5.6090002 1.6922668 0.49796039 0
5.6100001 1.6832026 0.49797842 0
5.6100001 1.6738048 0.49797842 0
5.6110005 1.6647354 0.49799645 0
5.6120005 1.6556622 0.49801451 0
5.6120005 1.6462609 0.49801451 0
5.6130004 1.6371822 0.49803254 0
5.6130004 1.6277789 0.49803254 0
5.6140003 1.6186949 0.49805057 0
5.6150002 1.6096073 0.4980686 0
5.6150002 1.6002004 0.4980686 0
5.6160002 1.5911074 0.49808663 0
5.6170006 1.582011 0.49810469 0
5.6170006 1.5726005 0.49810469 0
5.6180005 1.5634985 0.49812272 0
5.6190004 1.5543928 0.49814075 0
5.6190004 1.5449787 0.49814075 0
5.6200004 1.5358676 0.49815881 0
5.6210003 1.5267531 0.49817684 0
5.6210003 1.5173353 0.49817684 0
5.6220002 1.5082152 0.49819487 0
5.5960002 1.8847529 0.48835331 0
5.5960002 1.8753804 0.48835331 0
5.5970001 1.8663757 0.48836952 0
5.5970001 1.8570013 0.48836952 0
5.5980005 1.8479915 0.48838577 0
5.5990005 1.8389777 0.48840201 0
5.5990005 1.8295997 0.48840201 0
5.6000004 1.8205807 0.48841825 0
5.6010003 1.8115582 0.48843446 0
5.6010003 1.8021765 0.48843446 0
5.6020002 1.7931484 0.48845071 0
5.6030002 1.7841167 0.48846695 0
5.6030002 1.7747315 0.48846695 0
5.6040006 1.7656945 0.48848319 0
5.6040006 1.7563075 0.48848319 0
5.6050005 1.7472651 0.4884994 0
5.6060004 1.7382189 0.48851565 0
5.6060004 1.7288283 0.48851565 0
5.6070004 1.7197767 0.48853189 0
5.6080003 1.7107216 0.4885481 0
5.6080003 1.7013274 0.4885481 0
5.6090002 1.6922668 0.48856434 0
5.6100001 1.6832026 0.48858058 0
5.6100001 1.6738048 0.48858058 0
5.6110005 1.6647354 0.48859683 0
5.6120005 1.6556622 0.48861307 0
5.6120005 1.6462609 0.48861307 0
5.6130004 1.6371822 0.48862928 0
5.6130004 1.6277789 0.48862928 0
5.6140003 1.6186949 0.48864552 0
5.6150002 1.6096073 0.48866177 0
5.6150002 1.6002004 0.48866177 0
5.6160002 1.5911074 0.48867798 0
5.6170006 1.582011 0.48869422 0
5.6170006 1.5726005 0.48869422 0
5.6180005 1.5634985 0.48871046 0
5.6190004 1.5543928 0.48872671 0
5.6190004 1.5449787 0.48872671 0
5.6200004 1.5358676 0.48874292 0
5.6210003 1.5267531 0.48875916 0
5.6210003 1.5173353 0.48875916 0
5.6220002 1.5082152 0.4887754 0
5.5960002 1.8847529 0.47898072 0
5.5960002 1.8753804 0.47898072 0
5.5970001 1.8663757 0.47899514 0
5.5970001 1.8570013 0.47899514 0
5.5980005 1.8479915 0.47900957 0
5.5990005 1.8389777 0.47902399 0
5.5990005 1.8295997 0.47902399 0
5.6000004 1.8205807 0.47903845 0
5.6010003 1.8115582 0.47905287 0
5.6010003 1.8021765 0.47905287 0
5.6020002 1.7931484 0.4790673 0
5.6030002 1.7841167 0.47908172 0
5.6030002 1.7747315 0.47908172 0
5.6040006 1.7656945 0.47909617 0
5.6040006 1.7563075 0.47909617 0
5.6050005 1.7472651 0.4791106 0
5.6060004 1.7382189 0.47912502 0
5.6060004 1.7288283 0.47912502 0
5.6070004 1.7197767 0.47913945 0
5.6080003 1.7107216 0.47915387 0
5.6080003 1.7013274 0.47915387 0
5.6090002 1.6922668 0.4791683 0
5.6100001 1.6832026 0.47918272 0
5.6100001 1.6738048 0.47918272 0
5.6110005 1.6647354 0.47919717 0
5.6120005 1.6556622 0.4792116 0
5.6120005 1.6462609 0.4792116 0
5.6130004 1.6371822 0.47922602 0
5.6130004 1.6277789 0.47922602 0
5.6140003 1.6186949 0.47924048 0
5.6150002 1.6096073 0.4792549 0
5.6150002 1.6002004 0.4792549 0
5.6160002 1.5911074 0.47926933 0
5.6170006 1.582011 0.47928375 0
5.6170006 1.5726005 0.47928375 0
5.6180005 1.5634985 0.47929817 0
5.6190004 1.5543928 0.4793126 0
5.6190004 1.5449787 0.4793126 0
5.6200004 1.5358676 0.47932705 0
5.6210003 1.5267531 0.47934148 0
5.6210003 1.5173353 0.47934148 0
5.6220002 1.5082152 0.4793559 0
5.5960002 1.8847529 0.46960813 0
5.5960002 1.8753804 0.46960813 0
5.5970001 1.8663757 0.46962076 0
5.5970001 1.8570013 0.46962076 0
5.5980005 1.8479915 0.46963337 0
5.5990005 1.8389777 0.46964601 0
5.5990005 1.8295997 0.46964601 0
5.6000004 1.8205807 0.46965864 0
5.6010003 1.8115582 0.46967125 0
5.6010003 1.8021765 0.46967125 0
5.6020002 1.7931484 0.46968389 0
5.6030002 1.7841167 0.46969652 0
5.6030002 1.7747315 0.46969652 0
5.6040006 1.7656945 0.46970916 0
5.6040006 1.7563075 0.46970916 0
5.6050005 1.7472651 0.46972176 0
5.6060004 1.7382189 0.4697344 0
5.6060004 1.7288283 0.4697344 0
5.6070004 1.7197767 0.46974701 0
5.6080003 1.7107216 0.46975964 0
5.6080003 1.7013274 0.46975964 0
5.6090002 1.6922668 0.46977228 0
5.6100001 1.6832026 0.46978492 0
5.6100001 1.6738048 0.46978492 0
5.6110005 1.6647354 0.46979752 0
5.6120005 1.6556622 0.46981016 0
5.6120005 1.6462609 0.46981016 0
5.6130004 1.6371822 0.46982276 0
5.6130004 1.6277789 0.46982276 0
5.6140003 1.6186949 0.4698354 0
5.6150002 1.6096073 0.46984804 0
5.6150002 1.6002004 0.46984804 0
5.6160002 1.5911074 0.46986067 0
5.6170006 1.582011 0.46987331 0
5.6170006 1.5726005 0.46987331 0
5.6180005 1.5634985 0.46988592 0
5.6190004 1.5543928 0.46989852 0
5.6190004 1.5449787 0.46989852 0
5.6200004 1.5358676 0.46991116 0
5.6210003 1.5267531 0.46992379 0
5.6210003 1.5173353 0.46992379 0
5.6220002 1.5082152 0.46993643 0
5.5960002 1.8847529 0.46023554 0
5.5960002 1.8753804 0.46023554 0
5.5970001 1.8663757 0.46024635 0
5.5970001 1.8570013 0.46024635 0
5.5980005 1.8479915 0.46025717 0
5.5990005 1.8389777 0.46026802 0
5.5990005 1.8295997 0.46026802 0
5.6000004 1.8205807 0.46027884 0
5.6010003 1.8115582 0.46028966 0
5.6010003 1.8021765 0.46028966 0
5.6020002 1.7931484 0.46030048 0
5.6030002 1.7841167 0.46031129 0
5.6030002 1.7747315 0.46031129 0
5.6040006 1.7656945 0.46032211 0
5.6040006 1.7563075 0.46032211 0
5.6050005 1.7472651 0.46033296 0
5.6060004 1.7382189 0.46034378 0
5.6060004 1.7288283 0.46034378 0
5.6070004 1.7197767 0.4603546 0
5.6080003 1.7107216 0.46036541 0
5.6080003 1.7013274 0.46036541 0
5.6090002 1.6922668 0.46037623 0
5.6100001 1.6832026 0.46038705 0
5.6100001 1.6738048 0.46038705 0
5.6110005 1.6647354 0.4603979 0
5.6120005 1.6556622 0.46040872 0
5.6120005 1.6462609 0.46040872 0
5.6130004 1.6371822 0.46041954 0
5.6130004 1.6277789 0.46041954 0
5.6140003 1.6186949 0.46043035 0
5.6150002 1.6096073 0.46044117 0
5.6150002 1.6002004 0.46044117 0
5.6160002 1.5911074 0.46045199 0
5.6170006 1.582011 0.46046281 0
5.6170006 1.5726005 0.46046281 0
5.6180005 1.5634985 0.46047366 0
5.6190004 1.5543928 0.46048447 0
5.6190004 1.5449787 0.46048447 0
5.6200004 1.5358676 0.46049529 0
5.6210003 1.5267531 0.46050611 0
5.6210003 1.5173353 0.46050611 0
5.6220002 1.5082152 0.46051693 0
5.5960002 1.8847529 0.45086294 0
5.5960002 1.8753804 0.45086294 0
5.5970001 1.8663757 0.45087197 0
5.5970001 1.8570013 0.45087197 0
5.5980005 1.8479915 0.450881 0
5.5990005 1.8389777 0.45089 0
5.5990005 1.8295997 0.45089 0
5.6000004 1.8205807 0.45089903 0
5.6010003 1.8115582 0.45090804 0
5.6010003 1.8021765 0.45090804 0
5.6020002 1.7931484 0.45091707 0
5.6030002 1.7841167 0.45092607 0
5.6030002 1.7747315 0.45092607 0
5.6040006 1.7656945 0.4509351 0
5.6040006 1.7563075 0.4509351 0
5.6050005 1.7472651 0.45094413 0
5.6060004 1.7382189 0.45095316 0
5.6060004 1.7288283 0.45095316 0
5.6070004 1.7197767 0.45096216 0
5.6080003 1.7107216 0.45097119 0
5.6080003 1.7013274 0.45097119 0
5.6090002 1.6922668 0.45098019 0
5.6100001 1.6832026 0.45098922 0
5.6100001 1.6738048 0.45098922 0
5.6110005 1.6647354 0.45099825 0
5.6120005 1.6556622 0.45100725 0
5.6120005 1.6462609 0.45100725 0
5.6130004 1.6371822 0.45101628 0
5.6130004 1.6277789 0.45101628 0
5.6140003 1.6186949 0.45102531 0
5.6150002 1.6096073 0.45103431 0
5.6150002 1.6002004 0.45103431 0
5.6160002 1.5911074 0.45104334 0
5.6170006 1.582011 0.45105237 0
5.6170006 1.5726005 0.45105237 0
5.6180005 1.5634985 0.45106137 0
5.6190004 1.5543928 0.4510704 0
5.6190004 1.5449787 0.4510704 0
5.6200004 1.5358676 0.4510794 0
5.6210003 1.5267531 0.45108843 0
5.6210003 1.5173353 0.45108843 0
5.6220002 1.5082152 0.45109746 0
5.5960002 1.8847529 0.44149035 0
5.5960002 1.8753804 0.44149035 0
5.5970001 1.8663757 0.44149756 0
5.5970001 1.8570013 0.44149756 0
5.5980005 1.8479915 0.44150481 0
5.5990005 1.8389777 0.44151202 0
5.5990005 1.8295997 0.44151202 0
5.6000004 1.8205807 0.44151923 0
5.6010003 1.8115582 0.44152644 0
5.6010003 1.8021765 0.44152644 0
5.6020002 1.7931484 0.44153365 0
5.6030002 1.7841167 0.44154087 0
5.6030002 1.7747315 0.44154087 0
5.6040006 1.7656945 0.44154808 0
5.6040006 1.7563075 0.44154808 0
5.6050005 1.7472651 0.44155529 0
5.6060004 1.7382189 0.44156253 0
5.6060004 1.7288283 0.44156253 0
5.6070004 1.7197767 0.44156975 0
5.6080003 1.7107216 0.44157696 0
5.6080003 1.7013274 0.44157696 0
5.6090002 1.6922668 0.44158417 0
5.6100001 1.6832026 0.44159138 0
5.6100001 1.6738048 0.44159138 0
5.6110005 1.6647354 0.44159859 0
5.6120005 1.6556622 0.44160581 0
5.6120005 1.6462609 0.44160581 0
5.6130004 1.6371822 0.44161302 0
5.6130004 1.6277789 0.44161302 0
5.6140003 1.6186949 0.44162023 0
5.6150002 1.6096073 0.44162744 0
5.6150002 1.6002004 0.44162744 0
5.6160002 1.5911074 0.44163465 0
5.6170006 1.582011 0.4416419 0
5.6170006 1.5726005 0.4416419 0
5.6180005 1.5634985 0.44164911 0
5.6190004 1.5543928 0.44165632 0
5.6190004 1.5449787 0.44165632 0
5.6200004 1.5358676 0.44166353 0
5.6210003 1.5267531 0.44167075 0
5.6210003 1.5173353 0.44167075 0
5.6220002 1.5082152 0.44167796 0
5.5960002 1.8847529 0.43211776 0
5.5960002 1.8753804 0.43211776 0
5.5970001 1.8663757 0.43212318 0
5.5970001 1.8570013 0.43212318 0
5.5980005 1.8479915 0.43212861 0
5.5990005 1.8389777 0.432134 0
5.5990005 1.8295997 0.432134 0
5.6000004 1.8205807 0.43213943 0
5.6010003 1.8115582 0.43214482 0
5.6010003 1.8021765 0.43214482 0
5.6020002 1.7931484 0.43215024 0
5.6030002 1.7841167 0.43215567 0
5.6030002 1.7747315 0.43215567 0
5.6040006 1.7656945 0.43216106 0
5.6040006 1.7563075 0.43216106 0
5.6050005 1.7472651 0.43216649 0
5.6060004 1.7382189 0.43217188 0
5.6060004 1.7288283 0.43217188 0
5.6070004 1.7197767 0.43217731 0
5.6080003 1.7107216 0.43218273 0
5.6080003 1.7013274 0.43218273 0
5.6090002 1.6922668 0.43218812 0
5.6100001 1.6832026 0.43219355 0
5.6100001 1.6738048 0.43219355 0
5.6110005 1.6647354 0.43219894 0
5.6120005 1.6556622 0.43220437 0
5.6120005 1.6462609 0.43220437 0
5.6130004 1.6371822 0.43220976 0
5.6130004 1.6277789 0.43220976 0
5.6140003 1.6186949 0.43221518 0
5.6150002 1.6096073 0.43222058 0
5.6150002 1.6002004 0.43222058 0
5.6160002 1.5911074 0.432226 0
5.6170006 1.582011 0.43223143 0
5.6170006 1.5726005 0.43223143 0
5.6180005 1.5634985 0.43223682 0
5.6190004 1.5543928 0.43224224 0
5.6190004 1.5449787 0.43224224 0
5.6200004 1.5358676 0.43224764 0
5.6210003 1.5267531 0.43225306 0
5.6210003 1.5173353 0.43225306 0
5.6220002 1.5082152 0.43225849 0
5.5960002 1.8847529 0.4227452 0
5.5960002 1.8753804 0.4227452 0
5.5970001 1.8663757 0.4227488 0
5.5970001 1.8570013 0.4227488 0
5.5980005 1.8479915 0.42275241 0
5.5990005 1.8389777 0.42275602 0
5.5990005 1.8295997 0.42275602 0
5.6000004 1.8205807 0.42275962 0
5.6010003 1.8115582 0.42276323 0
5.6010003 1.8021765 0.42276323 0
5.6020002 1.7931484 0.42276683 0
5.6030002 1.7841167 0.42277044 0
5.6030002 1.7747315 0.42277044 0
5.6040006 1.7656945 0.42277405 0
5.6040006 1.7563075 0.42277405 0
5.6050005 1.7472651 0.42277765 0
5.6060004 1.7382189 0.42278126 0
5.6060004 1.7288283 0.42278126 0
5.6070004 1.7197767 0.42278486 0
5.6080003 1.7107216 0.42278847 0
5.6080003 1.7013274 0.42278847 0
5.6090002 1.6922668 0.42279208 0
5.6100001 1.6832026 0.42279568 0
5.6100001 1.6738048 0.42279568 0
5.6110005 1.6647354 0.42279929 0
5.6120005 1.6556622 0.42280293 0
5.6120005 1.6462609 0.42280293 0
5.6130004 1.6371822 0.42280653 0
5.6130004 1.6277789 0.42280653 0
5.6140003 1.6186949 0.42281014 0
5.6150002 1.6096073 0.42281374 0
5.6150002 1.6002004 0.42281374 0
5.6160002 1.5911074 0.42281735 0
5.6170006 1.582011 0.42282096 0
5.6170006 1.5726005 0.42282096 0
5.6180005 1.5634985 0.42282456 0
5.6190004 1.5543928 0.42282817 0
5.6190004 1.5449787 0.42282817 0
5.6200004 1.5358676 0.42283177 0
5.6210003 1.5267531 0.42283538 0
5.6210003 1.5173353 0.42283538 0
5.6220002 1.5082152 0.42283899 0
5.5960002 1.8847529 0.41337261 0
5.5960002 1.8753804 0.41337261 0
5.5970001 1.8663757 0.41337439 0
5.5970001 1.8570013 0.41337439 0
5.5980005 1.8479915 0.41337621 0
5.5990005 1.8389777 0.413378 0
5.5990005 1.8295997 0.413378 0
5.6000004 1.8205807 0.41337982 0
5.6010003 1.8115582 0.41338161 0
5.6010003 1.8021765 0.41338161 0
5.6020002 1.7931484 0.41338342 0
5.6030002 1.7841167 0.41338524 0
5.6030002 1.7747315 0.41338524 0
5.6040006 1.7656945 0.41338703 0
5.6040006 1.7563075 0.41338703 0
5.6050005 1.7472651 0.41338885 0
5.6060004 1.7382189 0.41339064 0
5.6060004 1.7288283 0.41339064 0
5.6070004 1.7197767 0.41339245 0
5.6080003 1.7107216 0.41339424 0
5.6080003 1.7013274 0.41339424 0
5.6090002 1.6922668 0.41339606 0
5.6100001 1.6832026 0.41339785 0
5.6100001 1.6738048 0.41339785 0
5.6110005 1.6647354 0.41339967 0
5.6120005 1.6556622 0.41340145 0
5.6120005 1.6462609 0.41340145 0
5.6130004 1.6371822 0.41340327 0
5.6130004 1.6277789 0.41340327 0
5.6140003 1.6186949 0.41340506 0
5.6150002 1.6096073 0.41340688 0
5.6150002 1.6002004 0.41340688 0
5.6160002 1.5911074 0.41340867 0
5.6170006 1.582011 0.41341048 0
5.6170006 1.5726005 0.41341048 0
5.6180005 1.5634985 0.41341227 0
5.6190004 1.5543928 0.41341409 0
5.6190004 1.5449787 0.41341409 0
5.6200004 1.5358676 0.41341588 0
5.6210003 1.5267531 0.4134177 0
5.6210003 1.5173353 0.4134177 0
5.6220002 1.5082152 0.41341949 0
5.5960002 1.8847529 0.40400001 0
5.5960002 1.8753804 0.40400001 0
5.5970001 1.8663757 0.40400001 0
5.5970001 1.8570013 0.40400001 0
5.5980005 1.8479915 0.40400001 0
5.5990005 1.8389777 0.40400001 0
5.5990005 1.8295997 0.40400001 0
5.6000004 1.8205807 0.40400001 0
5.6010003 1.8115582 0.40400001 0
5.6010003 1.8021765 0.40400001 0
5.6020002 1.7931484 0.40400001 0
5.6030002 1.7841167 0.40400001 0
5.6030002 1.7747315 0.40400001 0
5.6040006 1.7656945 0.40400001 0
5.6040006 1.7563075 0.40400001 0
5.6050005 1.7472651 0.40400001 0
5.6060004 1.7382189 0.40400001 0
5.6060004 1.7288283 0.40400001 0
5.6070004 1.7197767 0.40400001 0
5.6080003 1.7107216 0.40400001 0
5.6080003 1.7013274 0.40400001 0
5.6090002 1.6922668 0.40400001 0
5.6100001 1.6832026 0.40400001 0
5.6100001 1.6738048 0.40400001 0
5.6110005 1.6647354 0.40400001 0
5.6120005 1.6556622 0.40400001 0
5.6120005 1.6462609 0.40400001 0
5.6130004 1.6371822 0.40400001 0
5.6130004 1.6277789 0.40400001 0
5.6140003 1.6186949 0.40400001 0
5.6150002 1.6096073 0.40400001 0
5.6150002 1.6002004 0.40400001 0
5.6160002 1.5911074 0.40400001 0
5.6170006 1.582011 0.40400001 0
5.6170006 1.5726005 0.40400001 0
5.6180005 1.5634985 0.40400001 0
5.6190004 1.5543928 0.40400001 0
5.6190004 1.5449787 0.40400001 0
5.6200004 1.5358676 0.40400001 0
5.6210003 1.5267531 0.40400001 0
5.6210003 1.5173353 0.40400001 0
5.6220002 1.5082152 0.40400001 0
5.5960002 1.8753804 0.39462742 0
5.5970001 1.8663757 0.39462563 0
5.5970001 1.8570013 0.39462563 0
5.5980005 1.8479915 0.39462382 0
5.5990005 1.8389777 0.39462203 0
5.5990005 1.8295997 0.39462203 0
5.6000004 1.8205807 0.39462021 0
5.6010003 1.8115582 0.39461842 0
5.6010003 1.8021765 0.39461842 0
5.6020002 1.7931484 0.3946166 0
5.6030002 1.7841167 0.39461479 0
5.6030002 1.7747315 0.39461479 0
5.6040006 1.7656945 0.394613 0
5.6050005 1.7566539 0.39461118 0
5.6050005 1.7472651 0.39461118 0
5.6060004 1.7382189 0.39460939 0
5.6060004 1.7288283 0.39460939 0
5.6070004 1.7197767 0.39460757 0
5.6080003 1.7107216 0.39460579 0
5.6080003 1.7013274 0.39460579 0
5.6090002 1.6922668 0.39460397 0
5.6100001 1.6832026 0.39460218 0
5.6100001 1.6738048 0.39460218 0
5.6110005 1.6647354 0.39460036 0
5.6120005 1.6556622 0.39459857 0
5.6120005 1.6462609 0.39459857 0
5.6130004 1.6371822 0.39459676 0
5.6130004 1.6277789 0.39459676 0
5.6140003 1.6186949 0.39459497 0
5.6150002 1.6096073 0.39459315 0
5.6150002 1.6002004 0.39459315 0
5.6160002 1.5911074 0.39459136 0
5.6170006 1.582011 0.39458954 0
5.6170006 1.5726005 0.39458954 0
5.6180005 1.5634985 0.39458776 0
5.6190004 1.5543928 0.39458594 0
5.6190004 1.5449787 0.39458594 0
5.6200004 1.5358676 0.39458415 0
5.6210003 1.5267531 0.39458233 0
5.6210003 1.5173353 0.39458233 0
5.6220002 1.5082152 0.39458054 0
5.5960002 1.8753804 0.38525483 0
5.5970001 1.8663757 0.38525122 0
5.5970001 1.8570013 0.38525122 0
5.5980005 1.8479915 0.38524762 0
5.5990005 1.8389777 0.38524401 0
5.5990005 1.8295997 0.38524401 0
5.6000004 1.8205807 0.38524041 0
5.6010003 1.8115582 0.3852368 0
5.6010003 1.8021765 0.3852368 0
5.6020002 1.7931484 0.38523319 0
5.6030002 1.7841167 0.38522959 0
5.6030002 1.7747315 0.38522959 0
5.6040006 1.7656945 0.38522598 0
5.6050005 1.7566539 0.38522238 0
5.6050005 1.7472651 0.38522238 0
5.6060004 1.7382189 0.38521877 0
5.6060004 1.7288283 0.38521877 0
5.6070004 1.7197767 0.38521516 0
5.6080003 1.7107216 0.38521156 0
5.6080003 1.7013274 0.38521156 0
5.6090002 1.6922668 0.38520795 0
5.6100001 1.6832026 0.38520434 0
5.6100001 1.6738048 0.38520434 0
5.6110005 1.6647354 0.38520074 0
5.6120005 1.6556622 0.3851971 0
5.6120005 1.6462609 0.3851971 0
5.6130004 1.6371822 0.3851935 0
5.6130004 1.6277789 0.3851935 0
5.6140003 1.6186949 0.38518989 0
5.6150002 1.6096073 0.38518628 0
5.6150002 1.6002004 0.38518628 0
5.6160002 1.5911074 0.38518268 0
5.6170006 1.582011 0.38517907 0
5.6170006 1.5726005 0.38517907 0
5.6180005 1.5634985 0.38517547 0
5.6190004 1.5543928 0.38517186 0
5.6190004 1.5449787 0.38517186 0
5.6200004 1.5358676 0.38516825 0
5.6210003 1.5267531 0.38516465 0
5.6210003 1.5173353 0.38516465 0
5.6220002 1.5082152 0.38516104 0
5.5960002 1.8753804 0.37588227 0
5.5970001 1.8663757 0.37587684 0
5.5970001 1.8570013 0.37587684 0
5.5980005 1.8479915 0.37587142 0
5.5990005 1.8389777 0.37586603 0
5.5990005 1.8295997 0.37586603 0
5.6000004 1.8205807 0.3758606 0
5.6010003 1.8115582 0.37585521 0
5.6010003 1.8021765 0.37585521 0
5.6020002 1.7931484 0.37584978 0
5.6030002 1.7841167 0.37584436 0
5.6030002 1.7747315 0.37584436 0
5.6040006 1.7656945 0.37583897 0
5.6050005 1.7566539 0.37583354 0
5.6050005 1.7472651 0.37583354 0
5.6060004 1.7382189 0.37582815 0
5.6060004 1.7288283 0.37582815 0
5.6070004 1.7197767 0.37582272 0
5.6080003 1.7107216 0.3758173 0
5.6080003 1.7013274 0.3758173 0
5.6090002 1.6922668 0.3758119 0
5.6100001 1.6832026 0.37580648 0
5.6100001 1.6738048 0.37580648 0
5.6110005 1.6647354 0.37580109 0
5.6120005 1.6556622 0.37579566 0
5.6120005 1.6462609 0.37579566 0
5.6130004 1.6371822 0.37579027 0
5.6130004 1.6277789 0.37579027 0
5.6140003 1.6186949 0.37578484 0
5.6150002 1.6096073 0.37577945 0
5.6150002 1.6002004 0.37577945 0
5.6160002 1.5911074 0.37577403 0
5.6170006 1.582011 0.3757686 0
5.6170006 1.5726005 0.3757686 0
5.6180005 1.5634985 0.37576321 0
5.6190004 1.5543928 0.37575778 0
5.6190004 1.5449787 0.37575778 0
5.6200004 1.5358676 0.37575239 0
5.6210003 1.5267531 0.37574697 0
5.6210003 1.5173353 0.37574697 0
5.5970001 1.8663757 0.36650246 0
5.5970001 1.8570013 0.36650246 0
5.5980005 1.8479915 0.36649522 0
5.5990005 1.8389777 0.36648801 0
5.5990005 1.8295997 0.36648801 0
5.6000004 1.8205807 0.3664808 0
5.6010003 1.8115582 0.36647359 0
5.6010003 1.8021765 0.36647359 0
5.6020002 1.7931484 0.36646637 0
5.6160002 1.5911074 0.36636537 0
5.6170006 1.582011 0.36635813 0
5.6170006 1.5726005 0.36635813 0
5.6180005 1.5634985 0.36635092 0
5.6190004 1.5543928 0.36634371 0
5.6190004 1.5449787 0.36634371 0
5.6200004 1.5358676 0.36633649 0
5.6210003 1.5267531 0.36632928 0
5.6210003 1.5173353 0.36632928 0
5.6190004 1.8556432 0.35692963 0
5.6190004 1.8462291 0.35692963 0
5.6210003 1.8375366 0.3569116 0
5.6260004 1.8299137 0.35686651 0
5.6410003 1.561139 0.35673121 0
5.6390004 1.5510756 0.35674927 0
5.6400003 1.5419285 0.35674024 0
5.6450005 1.5339826 0.35669515 0
5.6190004 1.8556432 0.34751555 0
5.6190004 1.8462291 0.34751555 0
5.6210003 1.8375366 0.34749392 0
5.6260004 1.8299137 0.3474398 0
5.6410003 1.561139 0.34727746 0
5.6390004 1.5510756 0.3472991 0
5.6400003 1.5419285 0.34728828 0
5.6450005 1.5339826 0.34723416 0
5.6190004 1.8556432 0.33810151 0
5.6190004 1.8462291 0.33810151 0
5.6210003 1.8375366 0.33807623 0
5.6410003 1.561139 0.33782369 0
5.6390004 1.5510756 0.33784896 0
5.6400003 1.5419285 0.33783633 0
5.6450005 1.5339826 0.3377732 0
5.6520004 1.5266178 0.33768481 0
5.6190004 1.8556432 0.32868743 0
5.6190004 1.8462291 0.32868743 0
5.6210003 1.8375366 0.32865855 0
5.6410003 1.561139 0.32836995 0
5.6390004 1.5510756 0.32839879 0
5.6400003 1.5419285 0.32838437 0
5.6450005 1.5339826 0.32831222 0
5.6520004 1.5266178 0.32821119 0
5.6190004 1.8462291 0.31927332 0
5.6210003 1.8375366 0.31924087 0
5.6410003 1.561139 0.3189162 0
5.6390004 1.5510756 0.31894866 0
5.6400003 1.5419285 0.31893241 0
5.6450005 1.5339826 0.31885123 0
5.6520004 1.5266178 0.31873763 0
5.6190004 1.8462291 0.30985928 0
5.6210003 1.8375366 0.30982319 0
5.6410003 1.561139 0.30946243 0
5.6390004 1.5510756 0.30949849 0
5.6400003 1.5419285 0.30948046 0
5.6450005 1.5339826 0.30939028 0
5.6520004 1.5266178 0.309264 0
5.6190004 1.8462291 0.3004452 0
5.6210003 1.8375366 0.3004055 0
5.6410003 1.561139 0.30000865 0
5.6390004 1.5510756 0.30004835 0
5.6400003 1.5419285 0.3000285 0
5.6450005 1.5339826 0.29992929 0
5.6520004 1.5266178 0.29979041 0
5.6190004 1.8462291 0.29103112 0
5.6210003 1.8375366 0.29098782 0
5.6410003 1.561139 0.29055491 0
5.6390004 1.5510756 0.29059821 0
5.6400003 1.5419285 0.29057655 0
5.6450005 1.5339826 0.29046834 0
5.6520004 1.5266178 0.29031682 0
5.6190004 1.8462291 0.28161705 0
5.6210003 1.8375366 0.28157014 0
5.6410003 1.561139 0.28110114 0
5.6390004 1.5510756 0.28114805 0
5.6400003 1.5419285 0.28112459 0
5.6450005 1.5339826 0.28100735 0
5.6520004 1.5266178 0.2808432 0
5.6190004 1.8462291 0.27220297 0
5.6210003 1.8375366 0.27215245 0
5.6410003 1.561139 0.27164739 0
5.6390004 1.5510756 0.27169788 0
5.6400003 1.5419285 0.27167267 0
5.6450005 1.5339826 0.27154636 0
5.6520004 1.5266178 0.27136958 0
5.6190004 1.8462291 0.26278889 0
5.6210003 1.8375366 0.26273477 0
5.6410003 1.561139 0.26219362 0
5.6390004 1.5510756 0.26224774 0
5.6400003 1.5419285 0.26222068 0
5.6450005 1.5339826 0.26208541 0
5.6520004 1.5266178 0.26189601 0
5.6190004 1.8462291 0.25337481 0
5.6210003 1.8375366 0.25331709 0
5.6410003 1.561139 0.25273988 0
5.6390004 1.5510756 0.2527976 0
5.6400003 1.5419285 0.25276873 0
5.6450005 1.5339826 0.25262442 0
5.6520004 1.5266178 0.25242239 0
5.6190004 1.8462291 0.24396074 0
5.6210003 1.8375366 0.24389941 0
5.6410003 1.561139 0.24328612 0
5.6390004 1.5510756 0.24334744 0
5.6400003 1.5419285 0.24331678 0
5.6450005 1.5339826 0.24316345 0
5.6520004 1.5266178 0.2429488 0
5.6190004 1.8462291 0.23454665 0
5.6210003 1.8375366 0.23448172 0
5.6410003 1.561139 0.23383236 0
5.6390004 1.5510756 0.2338973 0
5.6400003 1.5419285 0.23386481 0
5.6450005 1.5339826 0.23370248 0
5.6520004 1.5266178 0.23347521 0
5.6190004 1.8462291 0.22513258 0
5.6210003 1.8375366 0.22506404 0
5.6410003 1.561139 0.2243786 0
5.6390004 1.5510756 0.22444713 0
5.6400003 1.5419285 0.22441286 0
5.6450005 1.5339826 0.2242415 0
5.6520004 1.5266178 0.22400159 0
5.6190004 1.8462291 0.21571851 0
5.6210003 1.8375366 0.21564636 0
5.6410003 1.561139 0.21492483 0
5.6390004 1.5510756 0.21499698 0
5.6400003 1.5419285 0.21496092 0
5.6450005 1.5339826 0.21478052 0
5.6520004 1.5266178 0.21452799 0
5.6190004 1.8462291 0.20630443 0
5.6210003 1.8375366 0.20622867 0
5.6410003 1.561139 0.20547108 0
5.6390004 1.5510756 0.20554684 0
5.6400003 1.5419285 0.20550895 0
5.6450005 1.5339826 0.20531955 0
5.6520004 1.5266178 0.20505439 0
5.6190004 1.8462291 0.19689035 0
5.6210003 1.8375366 0.19681099 0
5.6410003 1.561139 0.19601732 0
5.6390004 1.5510756 0.19609667 0
5.6400003 1.5419285 0.19605701 0
5.6450005 1.5339826 0.19585858 0
5.6520004 1.5266178 0.1955808 0
5.6190004 1.8462291 0.18747628 0
5.6210003 1.8375366 0.18739331 0
5.6410003 1.561139 0.18656355 0
5.6390004 1.5510756 0.18664652 0
5.6400003 1.5419285 0.18660505 0
5.6450005 1.5339826 0.1863976 0
5.6520004 1.5266178 0.18610719 0
5.6190004 1.8462291 0.1780622 0
5.6210003 1.8375366 0.17797564 0
5.6410003 1.561139 0.17710981 0
5.6390004 1.5510756 0.17719638 0
5.6400003 1.5419285 0.17715308 0
5.6450005 1.5339826 0.17693664 0
5.6520004 1.5266178 0.1766336 0
5.6190004 1.8462291 0.16864814 0
5.6210003 1.8375366 0.16855794 0
5.6410003 1.561139 0.16765603 0
5.6390004 1.5510756 0.16774623 0
5.6400003 1.5419285 0.16770114 0
5.6450005 1.5339826 0.16747564 0
5.6520004 1.5266178 0.16716 0
5.6190004 1.8462291 0.15923405 0
5.6210003 1.8375366 0.15914027 0
5.6410003 1.561139 0.15820228 0
5.6390004 1.5510756 0.15829608 0
5.6400003 1.5419285 0.15824918 0
5.6450005 1.5339826 0.15801468 0
5.6520004 1.5266178 0.1576864 0
5.6190004 1.8462291 0.14981997 0
5.6210003 1.8375366 0.14972258 0
5.6410003 1.561139 0.14874852 0
5.6390004 1.5510756 0.14884594 0
5.6400003 1.5419285 0.14879721 0
5.6450005 1.5339826 0.1485537 0
5.6520004 1.5266178 0.14821276 0
5.6190004 1.8462291 0.14040592 0
5.6210003 1.8375366 0.14030489 0
5.6410003 1.561139 0.13929477 0
5.6390004 1.5510756 0.13939577 0
5.6400003 1.5419285 0.13934529 0
5.6450005 1.5339826 0.13909271 0
5.6520004 1.5266178 0.13873917 0
5.6190004 1.8462291 0.13099182 0
5.6210003 1.8375366 0.13088721 0
5.6410003 1.561139 0.12984103 0
5.6390004 1.5510756 0.12994561 0
5.6400003 1.5419285 0.1298933 0
5.6450005 1.5339826 0.12963176 0
5.6520004 1.5266178 0.12926558 0
5.6190004 1.8462291 0.12157777 0
5.6210003 1.8375366 0.12146953 0
5.6410003 1.561139 0.12038723 0
5.6390004 1.5510756 0.12049547 0
5.6400003 1.5419285 0.12044135 0
5.6450005 1.5339826 0.1201708 0
5.6520004 1.5266178 0.11979198 0
5.6190004 1.8462291 0.11216366 0
5.6210003 1.8375366 0.11205184 0
5.6410003 1.561139 0.11093348 0
5.6390004 1.5510756 0.1110453 0
5.6400003 1.5419285 0.11098942 0
5.6450005 1.5339826 0.11070979 0
5.6520004 1.5266178 0.11031839 0
5.6190004 1.8462291 0.10274962 0
5.6210003 1.8375366 0.10263416 0
5.6410003 1.561139 0.10147974 0
5.6390004 1.5510756 0.10159516 0
5.6400003 1.5419285 0.10153744 0
5.6450005 1.5339826 0.10124883 0
5.6520004 1.5266178 0.10084477 0
5.6190004 1.8462291 0.093335539 0
5.6210003 1.8375366 0.093216509 0
5.6410003 1.561139 0.092025965 0
5.6390004 1.5510756 0.092145026 0
5.6400003 1.5419285 0.092085481 0
5.6450005 1.5339826 0.091787875 0
5.6520004 1.5266178 0.091371179 0
5.6190004 1.8462291 0.083921462 0
5.6210003 1.8375366 0.083798796 0
