# .PCD v0.7 - Point Cloud Data file format
VERSION 0.7
FIELDS x y z intensity
SIZE 4 4 4 4
TYPE F F F F
COUNT 1 1 1 1
WIDTH 1413
HEIGHT 1
VIEWPOINT 0 0 0 1 0 0 0
POINTS 1413
DATA ascii
2.9180002 -1.2360011 0.18144254 0
2.9160001 -1.2395943 0.18161932 0
2.9130001 -1.242704 0.18188448 0
2.9100003 -1.2458031 0.18214963 0
2.9070003 -1.2488912 0.18241479 0
2.9040003 -1.2519685 0.18267995 0
2.9010003 -1.255035 0.1829451 0
2.8980002 -1.2580906 0.18321027 0
2.8950002 -1.2611355 0.18347543 0
2.8010001 -1.3626068 0.19178379 0
2.7980001 -1.3652873 0.19204895 0
2.7950003 -1.367957 0.19231409 0
2.7930002 -1.3711696 0.19249088 0
2.7900002 -1.3738194 0.19275603 0
2.7880001 -1.3770157 0.19293281 0
2.7850003 -1.3796457 0.19319795 0
2.7820003 -1.3822649 0.19346312 0
2.7800002 -1.3854359 0.1936399 0
2.7770002 -1.3880352 0.19390506 0
2.7740002 -1.3906236 0.19417022 0
2.7720003 -1.3937695 0.19434698 0
2.7690003 -1.3963381 0.19461215 0
2.7670002 -1.3994677 0.19478893 0
2.7640002 -1.4020164 0.19505408 0
2.7610002 -1.4045544 0.19531925 0
3.1320002 -1.0069609 0.15759981 0
3.1290002 -1.0108281 0.15787037 0
3.1250002 -1.0143293 0.15823115 0
3.1220002 -1.0181733 0.15850171 0
3.1180003 -1.0216473 0.15886247 0
3.1150002 -1.0254678 0.15913306 0
3.1120002 -1.0292774 0.15940362 0
3.1080003 -1.032712 0.15976438 0
3.1050003 -1.0364982 0.16003494 0
3.1010003 -1.0399055 0.1603957 0
3.0980003 -1.0436683 0.16066627 0
3.0950003 -1.0474203 0.16093683 0
3.0910003 -1.0507879 0.16129759 0
3.0880003 -1.0545164 0.16156818 0
3.0850003 -1.0582341 0.16183874 0
3.0810003 -1.0615622 0.1621995 0
3.0780003 -1.0652564 0.16247009 0
3.0750003 -1.0689397 0.16274065 0
3.0710003 -1.072228 0.1631014 0
3.0680003 -1.0758879 0.163372 0
3.0650003 -1.079537 0.16364256 0
3.0610001 -1.0827856 0.16400333 0
3.0580003 -1.0864115 0.16427389 0
3.0550003 -1.0900261 0.16454445 0
3.0520003 -1.0936302 0.16481504 0
3.0480003 -1.0968266 0.1651758 0
3.0450003 -1.1004071 0.16544636 0
3.0420003 -1.1039768 0.16571695 0
3.0390003 -1.1075357 0.16598751 0
3.0350003 -1.1106799 0.16634826 0
3.0320003 -1.1142154 0.16661885 0
3.0290003 -1.1177399 0.16688941 0
3.0260003 -1.1212537 0.16716 0
3.0230002 -1.1247567 0.16743056 0
3.0190003 -1.1278359 0.16779132 0
3.0160003 -1.1313154 0.1680619 0
3.0130002 -1.1347841 0.16833246 0
3.0100002 -1.138242 0.16860305 0
3.0070002 -1.1416891 0.16887361 0
3.0040002 -1.1451253 0.16914417 0
3.0000002 -1.1481268 0.16950496 0
2.9970002 -1.1515397 0.16977552 0
2.9940002 -1.1549416 0.17004608 0
2.9910002 -1.1583327 0.17031667 0
2.9880002 -1.1617131 0.17058723 0
2.9850001 -1.1650826 0.17085782 0
2.9820001 -1.1684413 0.17112838 0
2.9790003 -1.1717892 0.17139894 0
2.9760003 -1.1751263 0.1716695 0
2.9730003 -1.1784525 0.17194007 0
2.9690001 -1.1813259 0.17230086 0
2.9660003 -1.1846288 0.17257139 0
2.9630003 -1.1879207 0.17284198 0
2.9600003 -1.1912018 0.17311254 0
2.9570003 -1.1944721 0.17338313 0
2.9540002 -1.1977316 0.17365371 0
2.9510002 -1.2009802 0.17392428 0
2.9480002 -1.204218 0.17419486 0
2.9450002 -1.207445 0.17446543 0
2.9420002 -1.2106613 0.17473599 0
2.9390001 -1.2138666 0.17500657 0
2.9360001 -1.2170612 0.17527713 0
2.9330003 -1.220245 0.17554769 0
2.9300003 -1.2234179 0.17581826 0
2.9270003 -1.2265799 0.17608884 0
2.9240003 -1.2297312 0.1763594 0
2.9210002 -1.2328715 0.17662998 0
2.9180002 -1.2360011 0.17690055 0
2.9160001 -1.2395943 0.17708094 0
2.9130001 -1.242704 0.17735152 0
2.9100003 -1.2458031 0.17762206 0
2.9070003 -1.2488912 0.17789264 0
2.9040003 -1.2519685 0.17816322 0
2.9010003 -1.255035 0.17843379 0
2.8980002 -1.2580906 0.17870437 0
2.8950002 -1.2611355 0.17897494 0
2.8010001 -1.3626068 0.18745284 0
2.7980001 -1.3652873 0.18772341 0
2.7950003 -1.367957 0.18799397 0
2.7930002 -1.3711696 0.18817435 0
2.7900002 -1.3738194 0.18844493 0
2.7880001 -1.3770157 0.18862532 0
2.7850003 -1.3796457 0.18889587 0
2.7820003 -1.3822649 0.18916644 0
2.7800002 -1.3854359 0.18934684 0
2.7770002 -1.3880352 0.18961741 0
2.7740002 -1.3906236 0.18988799 0
2.7720003 -1.3937695 0.19006835 0
2.7690003 -1.3963381 0.19033891 0
2.7670002 -1.3994677 0.1905193 0
2.7640002 -1.4020164 0.19078988 0
2.7610002 -1.4045544 0.19106045 0
3.1320002 -1.0069609 0.15267181 0
3.1290002 -1.0108281 0.15294781 0
3.1250002 -1.0143293 0.15331575 0
3.1220002 -1.0181733 0.15359175 0
3.1180003 -1.0216473 0.15395972 0
3.1150002 -1.0254678 0.15423569 0
3.1120002 -1.0292774 0.15451168 0
3.1080003 -1.032712 0.15487967 0
3.1050003 -1.0364982 0.15515566 0
3.1010003 -1.0399055 0.15552363 0
3.0980003 -1.0436683 0.15579961 0
3.0950003 -1.0474203 0.1560756 0
3.0910003 -1.0507879 0.15644355 0
3.0880003 -1.0545164 0.15671954 0
3.0850003 -1.0582341 0.15699552 0
3.0810003 -1.0615622 0.15736349 0
3.0780003 -1.0652564 0.15763947 0
3.0750003 -1.0689397 0.15791549 0
3.0710003 -1.072228 0.15828344 0
3.0680003 -1.0758879 0.15855943 0
3.0650003 -1.079537 0.15883541 0
3.0610001 -1.0827856 0.15920341 0
3.0580003 -1.0864115 0.15947936 0
3.0550003 -1.0900261 0.15975535 0
3.0520003 -1.0936302 0.16003133 0
3.0480003 -1.0968266 0.1603993 0
3.0450003 -1.1004071 0.1606753 0
3.0420003 -1.1039768 0.16095129 0
3.0390003 -1.1075357 0.16122727 0
3.0350003 -1.1106799 0.16159524 0
3.0320003 -1.1142154 0.16187122 0
3.0290003 -1.1177399 0.16214721 0
3.0260003 -1.1212537 0.16242318 0
3.0230002 -1.1247567 0.16269916 0
3.0190003 -1.1278359 0.16306713 0
3.0160003 -1.1313154 0.16334312 0
3.0130002 -1.1347841 0.16361913 0
3.0100002 -1.138242 0.16389512 0
3.0070002 -1.1416891 0.1641711 0
3.0040002 -1.1451253 0.16444707 0
3.0000002 -1.1481268 0.16481504 0
2.9970002 -1.1515397 0.16509102 0
2.9940002 -1.1549416 0.16536701 0
2.9910002 -1.1583327 0.16564299 0
2.9880002 -1.1617131 0.16591898 0
2.9850001 -1.1650826 0.16619496 0
2.9820001 -1.1684413 0.16647093 0
2.9790003 -1.1717892 0.16674691 0
2.9760003 -1.1751263 0.1670229 0
2.9730003 -1.1784525 0.16729888 0
2.9690001 -1.1813259 0.16766688 0
2.9660003 -1.1846288 0.16794284 0
2.9630003 -1.1879207 0.16821882 0
2.9600003 -1.1912018 0.16849481 0
2.9570003 -1.1944721 0.16877078 0
2.9540002 -1.1977316 0.16904676 0
2.9510002 -1.2009802 0.16932274 0
2.9480002 -1.204218 0.16959876 0
2.9450002 -1.207445 0.16987474 0
2.9420002 -1.2106613 0.17015073 0
2.9390001 -1.2138666 0.1704267 0
2.9360001 -1.2170612 0.17070268 0
2.9330003 -1.220245 0.17097864 0
2.9300003 -1.2234179 0.17125462 0
2.9270003 -1.2265799 0.1715306 0
2.9240003 -1.2297312 0.17180659 0
2.9210002 -1.2328715 0.17208257 0
2.9180002 -1.2360011 0.17235859 0
2.9160001 -1.2395943 0.17254257 0
2.9130001 -1.242704 0.17281856 0
2.9100003 -1.2458031 0.17309451 0
2.9070003 -1.2488912 0.1733705 0
2.9040003 -1.2519685 0.17364648 0
2.9010003 -1.255035 0.17392246 0
2.8980002 -1.2580906 0.17419845 0
2.8950002 -1.2611355 0.17447445 0
2.8010001 -1.3626068 0.18312189 0
2.7980001 -1.3652873 0.18339789 0
2.7950003 -1.367957 0.18367384 0
2.7930002 -1.3711696 0.18385784 0
2.7900002 -1.3738194 0.18413383 0
2.7880001 -1.3770157 0.18431783 0
2.7850003 -1.3796457 0.1845938 0
2.7820003 -1.3822649 0.18486978 0
2.7800002 -1.3854359 0.18505377 0
2.7770002 -1.3880352 0.18532975 0
2.7740002 -1.3906236 0.18560573 0
2.7720003 -1.3937695 0.18578972 0
2.7690003 -1.3963381 0.1860657 0
2.7670002 -1.3994677 0.1862497 0
2.7640002 -1.4020164 0.18652569 0
2.7610002 -1.4045544 0.18680167 0
3.1320002 -1.0069609 0.14774379 0
3.1290002 -1.0108281 0.14802518 0
3.1250002 -1.0143293 0.14840037 0
3.1220002 -1.0181733 0.14868179 0
3.1180003 -1.0216473 0.14905697 0
3.1150002 -1.0254678 0.14933836 0
3.1110003 -1.0289149 0.14971355 0
3.1080003 -1.032712 0.14999494 0
3.1050003 -1.0364982 0.15027636 0
3.1010003 -1.0399055 0.15065154 0
3.0980003 -1.0436683 0.15093294 0
3.0950003 -1.0474203 0.1512143 0
3.0910003 -1.0507879 0.15158951 0
3.0880003 -1.0545164 0.15187091 0
3.0850003 -1.0582341 0.1521523 0
3.0810003 -1.0615622 0.15252748 0
3.0780003 -1.0652564 0.15280887 0
3.0750003 -1.0689397 0.1530903 0
3.0710003 -1.072228 0.15346548 0
3.0680003 -1.0758879 0.15374687 0
3.0650003 -1.079537 0.15402825 0
3.0610001 -1.0827856 0.15440348 0
3.0580003 -1.0864115 0.15468483 0
3.0550003 -1.0900261 0.15496624 0
3.0520003 -1.0936302 0.15524764 0
3.0480003 -1.0968266 0.15562283 0
3.0450003 -1.1004071 0.15590423 0
3.0420003 -1.1039768 0.15618563 0
3.0390003 -1.1075357 0.15646701 0
3.0350003 -1.1106799 0.15684219 0
3.0320003 -1.1142154 0.1571236 0
3.0290003 -1.1177399 0.15740499 0
3.0260003 -1.1212537 0.1576864 0
3.0230002 -1.1247567 0.15796778 0
3.0190003 -1.1278359 0.15834299 0
3.0160003 -1.1313154 0.15862437 0
3.0130002 -1.1347841 0.15890576 0
3.0100002 -1.138242 0.15918717 0
3.0070002 -1.1416891 0.15946855 0
3.0040002 -1.1451253 0.15974995 0
3.0000002 -1.1481268 0.16012514 0
2.9970002 -1.1515397 0.16040653 0
2.9940002 -1.1549416 0.16068794 0
2.9910002 -1.1583327 0.16096932 0
2.9880002 -1.1617131 0.16125073 0
2.9850001 -1.1650826 0.16153212 0
2.9820001 -1.1684413 0.1618135 0
2.9790003 -1.1717892 0.16209488 0
2.9760003 -1.1751263 0.16237628 0
2.9730003 -1.1784525 0.16265769 0
2.9690001 -1.1813259 0.16303289 0
2.9660003 -1.1846288 0.16331427 0
2.9630003 -1.1879207 0.16359565 0
2.9600003 -1.1912018 0.16387706 0
2.9570003 -1.1944721 0.16415846 0
2.9540002 -1.1977316 0.16443984 0
2.9510002 -1.2009802 0.16472124 0
2.9480002 -1.204218 0.16500264 0
2.9450002 -1.207445 0.16528405 0
2.9420002 -1.2106613 0.16556543 0
2.9390001 -1.2138666 0.16584684 0
2.9360001 -1.2170612 0.16612823 0
2.9330003 -1.220245 0.16640958 0
2.9300003 -1.2234179 0.16669099 0
2.9270003 -1.2265799 0.1669724 0
2.9240003 -1.2297312 0.16725378 0
2.9210002 -1.2328715 0.16753517 0
2.9180002 -1.2360011 0.16781658 0
2.9160001 -1.2395943 0.16800418 0
2.9130001 -1.242704 0.16828559 0
2.9100003 -1.2458031 0.16856694 0
2.9070003 -1.2488912 0.16884835 0
2.9040003 -1.2519685 0.16912974 0
2.9010003 -1.255035 0.16941115 0
2.8980002 -1.2580906 0.16969253 0
2.8950002 -1.2611355 0.16997394 0
2.8010001 -1.3626068 0.17879096 0
2.7980001 -1.3652873 0.17907235 0
2.7950003 -1.367957 0.17935373 0
2.7930002 -1.3711696 0.17954133 0
2.7900002 -1.3738194 0.17982273 0
2.7880001 -1.3770157 0.18001033 0
2.7850003 -1.3796457 0.18029171 0
2.7820003 -1.3822649 0.18057309 0
2.7800002 -1.3854359 0.1807607 0
2.7770002 -1.3880352 0.1810421 0
2.7740002 -1.3906236 0.1813235 0
2.7720003 -1.3937695 0.18151109 0
2.7690003 -1.3963381 0.18179248 0
2.7670002 -1.3994677 0.18198007 0
2.7640002 -1.4020164 0.18226148 0
2.7610002 -1.4045544 0.18254288 0
3.1320002 -1.0069609 0.1428158 0
3.1290002 -1.0108281 0.14310259 0
3.1250002 -1.0143293 0.14348501 0
3.1220002 -1.0181733 0.14377183 0
3.1180003 -1.0216473 0.14415422 0
3.1150002 -1.0254678 0.14444104 0
3.1110003 -1.0289149 0.14482343 0
3.1080003 -1.032712 0.14511022 0
3.1050003 -1.0364982 0.14539704 0
3.1010003 -1.0399055 0.14577943 0
3.0980003 -1.0436683 0.14606628 0
3.0950003 -1.0474203 0.14635307 0
3.0910003 -1.0507879 0.14673546 0
3.0880003 -1.0545164 0.14702228 0
3.0850003 -1.0582341 0.14730909 0
3.0810003 -1.0615622 0.14769146 0
3.0780003 -1.0652564 0.14797831 0
3.0750003 -1.0689397 0.14826509 0
3.0710003 -1.072228 0.14864749 0
3.0680003 -1.0758879 0.1489343 0
3.0650003 -1.079537 0.14922112 0
3.0610001 -1.0827856 0.14960355 0
3.0580003 -1.0864115 0.14989033 0
3.0550003 -1.0900261 0.15017712 0
3.0520003 -1.0936302 0.15046394 0
3.0480003 -1.0968266 0.15084633 0
3.0450003 -1.1004071 0.15113315 0
3.0420003 -1.1039768 0.15141994 0
3.0390003 -1.1075357 0.15170678 0
3.0350003 -1.1106799 0.15208915 0
3.0320003 -1.1142154 0.15237597 0
3.0290003 -1.1177399 0.15266278 0
3.0260003 -1.1212537 0.1529496 0
3.0230002 -1.1247567 0.15323639 0
3.0190003 -1.1278359 0.15361881 0
3.0160003 -1.1313154 0.1539056 0
3.0130002 -1.1347841 0.1541924 0
3.0100002 -1.138242 0.15447924 0
3.0070002 -1.1416891 0.15476602 0
3.0040002 -1.1451253 0.15505283 0
3.0000002 -1.1481268 0.15543525 0
2.9970002 -1.1515397 0.15572205 0
2.9940002 -1.1549416 0.15600884 0
2.9910002 -1.1583327 0.15629567 0
2.9880002 -1.1617131 0.15658247 0
2.9850001 -1.1650826 0.15686928 0
2.9820001 -1.1684413 0.15715607 0
2.9790003 -1.1717892 0.15744287 0
2.9760003 -1.1751263 0.15772967 0
2.9730003 -1.1784525 0.15801649 0
2.9690001 -1.1813259 0.15839891 0
2.9660003 -1.1846288 0.15868568 0
2.9630003 -1.1879207 0.15897252 0
2.9600003 -1.1912018 0.1592593 0
2.9570003 -1.1944721 0.15954611 0
2.9540002 -1.1977316 0.15983291 0
2.9510002 -1.2009802 0.16011974 0
2.9480002 -1.204218 0.16040653 0
2.9450002 -1.207445 0.16069333 0
2.9420002 -1.2106613 0.16098017 0
2.9390001 -1.2138666 0.16126697 0
2.9360001 -1.2170612 0.16155376 0
2.9330003 -1.220245 0.16184056 0
2.9300003 -1.2234179 0.16212736 0
2.9270003 -1.2265799 0.16241416 0
2.9240003 -1.2297312 0.16270098 0
2.9210002 -1.2328715 0.16298778 0
2.9180002 -1.2360011 0.16327459 0
2.9160001 -1.2395943 0.1634658 0
2.9130001 -1.242704 0.16375262 0
2.9100003 -1.2458031 0.16403939 0
2.9070003 -1.2488912 0.16432619 0
2.9040003 -1.2519685 0.16461302 0
2.9010003 -1.255035 0.16489981 0
2.8980002 -1.2580906 0.16518661 0
2.8950002 -1.2611355 0.16547345 0
2.8010001 -1.3626068 0.17446002 0
2.7980001 -1.3652873 0.17474681 0
2.7950003 -1.367957 0.1750336 0
2.7930002 -1.3711696 0.17522481 0
2.7900002 -1.3738194 0.17551163 0
2.7880001 -1.3770157 0.17570284 0
2.7850003 -1.3796457 0.17598961 0
2.7820003 -1.3822649 0.17627643 0
2.7800002 -1.3854359 0.17646764 0
2.7770002 -1.3880352 0.17675446 0
2.7740002 -1.3906236 0.17704125 0
2.7720003 -1.3937695 0.17723244 0
2.7690003 -1.3963381 0.17751926 0
2.7670002 -1.3994677 0.17771047 0
2.7640002 -1.4020164 0.17799728 0
2.7610002 -1.4045544 0.17828408 0
3.1320002 -1.0069609 0.13788781 0
3.1290002 -1.0108281 0.13818002 0
3.1250002 -1.0143293 0.13856962 0
3.1220002 -1.0181733 0.13886186 0
3.1180003 -1.0216473 0.13925147 0
3.1150002 -1.0254678 0.13954368 0
3.1110003 -1.0289149 0.13993329 0
3.1080003 -1.032712 0.14022553 0
3.1050003 -1.0364982 0.14051774 0
3.1010003 -1.0399055 0.14090738 0
3.0980003 -1.0436683 0.14119956 0
3.0950003 -1.0474203 0.1414918 0
3.0910003 -1.0507879 0.14188141 0
3.0880003 -1.0545164 0.14217365 0
3.0850003 -1.0582341 0.14246586 0
3.0810003 -1.0615622 0.14285547 0
3.0780003 -1.0652564 0.14314768 0
3.0750003 -1.0689397 0.14343992 0
3.0710003 -1.072228 0.14382952 0
3.0680003 -1.0758879 0.14412177 0
3.0650003 -1.079537 0.14441398 0
3.0610001 -1.0827856 0.14480361 0
3.0580003 -1.0864115 0.1450958 0
3.0550003 -1.0900261 0.14538801 0
3.0520003 -1.0936302 0.14568025 0
3.0480003 -1.0968266 0.14606985 0
3.0450003 -1.1004071 0.14636207 0
3.0420003 -1.1039768 0.14665428 0
3.0390003 -1.1075357 0.14694652 0
3.0350003 -1.1106799 0.14733613 0
3.0320003 -1.1142154 0.14762837 0
3.0290003 -1.1177399 0.14792058 0
3.0260003 -1.1212537 0.14821276 0
3.0230002 -1.1247567 0.148505 0
3.0190003 -1.1278359 0.14889464 0
3.0160003 -1.1313154 0.14918685 0
3.0130002 -1.1347841 0.14947906 0
3.0100002 -1.138242 0.1497713 0
3.0070002 -1.1416891 0.15006351 0
3.0040002 -1.1451253 0.15035573 0
3.0000002 -1.1481268 0.15074533 0
2.9970002 -1.1515397 0.15103754 0
2.9940002 -1.1549416 0.15132979 0
2.9910002 -1.1583327 0.151622 0
2.9880002 -1.1617131 0.15191421 0
2.9850001 -1.1650826 0.15220645 0
2.9820001 -1.1684413 0.15249866 0
2.9790003 -1.1717892 0.15279084 0
2.9760003 -1.1751263 0.15308309 0
2.9730003 -1.1784525 0.15337527 0
2.9690001 -1.1813259 0.15376493 0
2.9660003 -1.1846288 0.15405713 0
2.9630003 -1.1879207 0.15434934 0
2.9600003 -1.1912018 0.15464157 0
2.9570003 -1.1944721 0.15493378 0
2.9540002 -1.1977316 0.15522601 0
2.9510002 -1.2009802 0.1555182 0
2.9480002 -1.204218 0.15581043 0
2.9450002 -1.207445 0.15610264 0
2.9420002 -1.2106613 0.15639487 0
2.9390001 -1.2138666 0.1566871 0
2.9360001 -1.2170612 0.15697931 0
2.9330003 -1.220245 0.1572715 0
2.9300003 -1.2234179 0.15756373 0
2.9270003 -1.2265799 0.15785594 0
2.9240003 -1.2297312 0.15814817 0
2.9210002 -1.2328715 0.1584404 0
2.9180002 -1.2360011 0.15873261 0
2.9160001 -1.2395943 0.15892743 0
2.9130001 -1.242704 0.15921965 0
2.9100003 -1.2458031 0.15951185 0
2.9070003 -1.2488912 0.15980406 0
2.9040003 -1.2519685 0.16009629 0
2.9010003 -1.255035 0.16038848 0
2.8980002 -1.2580906 0.1606807 0
2.8950002 -1.2611355 0.16097292 0
2.8010001 -1.3626068 0.17012906 0
2.7980001 -1.3652873 0.17042129 0
2.7950003 -1.367957 0.17071347 0
2.7930002 -1.3711696 0.17090832 0
2.7900002 -1.3738194 0.17120051 0
2.7880001 -1.3770157 0.17139535 0
2.7850003 -1.3796457 0.17168754 0
2.7820003 -1.3822649 0.17197977 0
2.7800002 -1.3854359 0.17217459 0
2.7770002 -1.3880352 0.1724668 0
2.7740002 -1.3906236 0.17275903 0
2.7720003 -1.3937695 0.17295381 0
2.7690003 -1.3963381 0.17324604 0
2.7670002 -1.3994677 0.17344084 0
2.7640002 -1.4020164 0.17373307 0
2.7610002 -1.4045544 0.1740253 0
3.1320002 -1.0069609 0.13295978 0
3.1290002 -1.0108281 0.13325742 0
3.1250002 -1.0143293 0.13365424 0
3.1220002 -1.0181733 0.13395187 0
3.1180003 -1.0216473 0.13434872 0
3.1150002 -1.0254678 0.13464633 0
3.1110003 -1.0289149 0.13504317 0
3.1080003 -1.032712 0.13534081 0
3.1050003 -1.0364982 0.13563845 0
3.1010003 -1.0399055 0.13603529 0
3.0980003 -1.0436683 0.1363329 0
3.0950003 -1.0474203 0.13663054 0
3.0910003 -1.0507879 0.13702738 0
3.0880003 -1.0545164 0.13732499 0
3.0850003 -1.0582341 0.13762265 0
3.0810003 -1.0615622 0.13801944 0
3.0780003 -1.0652564 0.13831711 0
3.0750003 -1.0689397 0.13861471 0
3.0710003 -1.072228 0.13901156 0
3.0680003 -1.0758879 0.1393092 0
3.0650003 -1.079537 0.1396068 0
3.0610001 -1.0827856 0.14000368 0
3.0580003 -1.0864115 0.14030126 0
3.0550003 -1.0900261 0.14059892 0
3.0520003 -1.0936302 0.14089653 0
3.0480003 -1.0968266 0.14129338 0
3.0450003 -1.1004071 0.14159101 0
3.0420003 -1.1039768 0.14188862 0
3.0390003 -1.1075357 0.14218628 0
3.0350003 -1.1106799 0.14258307 0
3.0320003 -1.1142154 0.14288074 0
3.0290003 -1.1177399 0.14317834 0
3.0260003 -1.1212537 0.14347598 0
3.0230002 -1.1247567 0.14377362 0
3.0190003 -1.1278359 0.14417043 0
3.0160003 -1.1313154 0.1444681 0
3.0130002 -1.1347841 0.1447657 0
3.0100002 -1.138242 0.14506334 0
3.0070002 -1.1416891 0.14536098 0
3.0040002 -1.1451253 0.14565861 0
3.0000002 -1.1481268 0.14605543 0
2.9970002 -1.1515397 0.14635307 0
2.9940002 -1.1549416 0.1466507 0
2.9910002 -1.1583327 0.14694834 0
2.9880002 -1.1617131 0.14724597 0
2.9850001 -1.1650826 0.14754358 0
2.9820001 -1.1684413 0.14784122 0
2.9790003 -1.1717892 0.14813882 0
2.9760003 -1.1751263 0.14843646 0
2.9730003 -1.1784525 0.14873406 0
2.9690001 -1.1813259 0.14913094 0
2.9660003 -1.1846288 0.14942858 0
2.9630003 -1.1879207 0.14972618 0
2.9600003 -1.1912018 0.15002382 0
2.9570003 -1.1944721 0.15032142 0
2.9540002 -1.1977316 0.15061909 0
2.9510002 -1.2009802 0.1509167 0
2.9480002 -1.204218 0.15121433 0
2.9450002 -1.207445 0.15151197 0
2.9420002 -1.2106613 0.1518096 0
2.9390001 -1.2138666 0.15210721 0
2.9360001 -1.2170612 0.15240487 0
2.9330003 -1.220245 0.15270245 0
2.9300003 -1.2234179 0.15300009 0
2.9270003 -1.2265799 0.15329772 0
2.9240003 -1.2297312 0.15359536 0
2.9210002 -1.2328715 0.15389296 0
2.9180002 -1.2360011 0.15419061 0
2.9160001 -1.2395943 0.15438904 0
2.9130001 -1.242704 0.15468667 0
2.9100003 -1.2458031 0.15498427 0
2.9070003 -1.2488912 0.15528192 0
2.9040003 -1.2519685 0.15557952 0
2.9010003 -1.255035 0.15587717 0
2.8980002 -1.2580906 0.15617478 0
2.8950002 -1.2611355 0.15647243 0
2.8010001 -1.3626068 0.16579811 0
2.7980001 -1.3652873 0.16609576 0
2.7950003 -1.367957 0.16639337 0
2.7930002 -1.3711696 0.16659179 0
2.7900002 -1.3738194 0.16688941 0
2.7880001 -1.3770157 0.16708785 0
2.7850003 -1.3796457 0.16738544 0
2.7820003 -1.3822649 0.16768309 0
2.7800002 -1.3854359 0.1678815 0
2.7770002 -1.3880352 0.16817915 0
2.7740002 -1.3906236 0.16847678 0
2.7720003 -1.3937695 0.16867518 0
2.7690003 -1.3963381 0.16897281 0
2.7670002 -1.3994677 0.16917123 0
2.7640002 -1.4020164 0.16946886 0
2.7610002 -1.4045544 0.16976649 0
3.1320002 -1.0069609 0.12803179 0
3.1290002 -1.0108281 0.12833482 0
3.1250002 -1.0143293 0.12873888 0
3.1220002 -1.0181733 0.12904191 0
3.1180003 -1.0216473 0.12944597 0
3.1150002 -1.0254678 0.129749 0
3.1110003 -1.0289149 0.13015306 0
3.1080003 -1.032712 0.13045609 0
3.1050003 -1.0364982 0.13075915 0
3.1010003 -1.0399055 0.13116318 0
3.0980003 -1.0436683 0.13146624 0
3.0950003 -1.0474203 0.13176927 0
3.0910003 -1.0507879 0.13217333 0
3.0880003 -1.0545164 0.13247636 0
3.0850003 -1.0582341 0.13277939 0
3.0810003 -1.0615622 0.13318345 0
3.0780003 -1.0652564 0.13348648 0
3.0750003 -1.0689397 0.13378951 0
3.0710003 -1.072228 0.13419357 0
3.0680003 -1.0758879 0.1344966 0
3.0650003 -1.079537 0.13479969 0
3.0610001 -1.0827856 0.13520372 0
3.0580003 -1.0864115 0.13550678 0
3.0550003 -1.0900261 0.13580981 0
3.0520003 -1.0936302 0.13611284 0
3.0480003 -1.0968266 0.1365169 0
3.0450003 -1.1004071 0.13681993 0
3.0420003 -1.1039768 0.13712296 0
3.0390003 -1.1075357 0.13742602 0
3.0350003 -1.1106799 0.13783005 0
3.0320003 -1.1142154 0.13813311 0
3.0290003 -1.1177399 0.13843614 0
3.0260003 -1.1212537 0.13873917 0
3.0230002 -1.1247567 0.13904223 0
3.0190003 -1.1278359 0.13944626 0
3.0160003 -1.1313154 0.13974932 0
3.0130002 -1.1347841 0.14005238 0
3.0100002 -1.138242 0.14035541 0
3.0070002 -1.1416891 0.14065844 0
3.0040002 -1.1451253 0.1409615 0
3.0000002 -1.1481268 0.14136553 0
2.9970002 -1.1515397 0.14166859 0
2.9940002 -1.1549416 0.14197162 0
2.9910002 -1.1583327 0.14227465 0
2.9880002 -1.1617131 0.14257768 0
2.9850001 -1.1650826 0.14288074 0
2.9820001 -1.1684413 0.1431838 0
2.9790003 -1.1717892 0.1434868 0
2.9760003 -1.1751263 0.14378986 0
2.9730003 -1.1784525 0.14409289 0
2.9690001 -1.1813259 0.14449695 0
2.9660003 -1.1846288 0.14479998 0
2.9630003 -1.1879207 0.14510301 0
2.9600003 -1.1912018 0.14540604 0
2.9570003 -1.1944721 0.1457091 0
2.9540002 -1.1977316 0.14601216 0
2.9510002 -1.2009802 0.14631519 0
2.9480002 -1.204218 0.14661822 0
2.9450002 -1.207445 0.14692128 0
2.9420002 -1.2106613 0.14722431 0
2.9390001 -1.2138666 0.14752734 0
2.9360001 -1.2170612 0.1478304 0
2.9330003 -1.220245 0.14813343 0
2.9300003 -1.2234179 0.14843646 0
2.9270003 -1.2265799 0.14873949 0
2.9240003 -1.2297312 0.14904255 0
2.9210002 -1.2328715 0.14934558 0
2.9180002 -1.2360011 0.14964861 0
2.9160001 -1.2395943 0.14985067 0
2.9130001 -1.242704 0.1501537 0
2.9100003 -1.2458031 0.15045673 0
2.9070003 -1.2488912 0.15075976 0
2.9040003 -1.2519685 0.15106279 0
2.9010003 -1.255035 0.15136585 0
2.8980002 -1.2580906 0.15166891 0
2.8950002 -1.2611355 0.15197194 0
2.8010001 -1.3626068 0.16146719 0
2.7980001 -1.3652873 0.16177024 0
2.7950003 -1.367957 0.16207324 0
2.7930002 -1.3711696 0.16227527 0
2.7900002 -1.3738194 0.16257831 0
2.7880001 -1.3770157 0.16278036 0
2.7850003 -1.3796457 0.16308337 0
2.7820003 -1.3822649 0.16338642 0
2.7800002 -1.3854359 0.16358846 0
2.7770002 -1.3880352 0.16389151 0
2.7740002 -1.3906236 0.16419454 0
2.7720003 -1.3937695 0.16439654 0
2.7690003 -1.3963381 0.16469958 0
2.7670002 -1.3994677 0.16490163 0
2.7640002 -1.4020164 0.16520467 0
2.7610002 -1.4045544 0.1655077 0
3.1320002 -1.0069609 0.1231038 0
3.1290002 -1.0108281 0.12341222 0
3.1250002 -1.0143293 0.12382349 0
3.1220002 -1.0181733 0.12413195 0
3.1180003 -1.0216473 0.12454322 0
3.1150002 -1.0254678 0.12485167 0
3.1110003 -1.0289149 0.12526295 0
3.1080003 -1.032712 0.12557137 0
3.1050003 -1.0364982 0.12587982 0
3.1010003 -1.0399055 0.1262911 0
3.0980003 -1.0436683 0.12659955 0
3.0950003 -1.0474203 0.126908 0
3.0910003 -1.0507879 0.12731928 0
3.0880003 -1.0545164 0.1276277 0
3.0850003 -1.0582341 0.12793618 0
3.0810003 -1.0615622 0.12834743 0
3.0780003 -1.0652564 0.12865588 0
3.0750003 -1.0689397 0.12896436 0
3.0710003 -1.072228 0.12937561 0
3.0680003 -1.0758879 0.12968406 0
3.0650003 -1.079537 0.12999251 0
3.0610001 -1.0827856 0.13040382 0
3.0580003 -1.0864115 0.13071224 0
3.0550003 -1.0900261 0.13102069 0
3.0520003 -1.0936302 0.13132912 0
3.0480003 -1.0968266 0.13174039 0
3.0450003 -1.1004071 0.13204885 0
3.0420003 -1.1039768 0.1323573 0
3.0390003 -1.1075357 0.13266578 0
3.0350003 -1.1106799 0.13307703 0
3.0320003 -1.1142154 0.13338548 0
3.0290003 -1.1177399 0.13369393 0
3.0260003 -1.1212537 0.13400239 0
3.0230002 -1.1247567 0.13431084 0
3.0190003 -1.1278359 0.13472211 0
3.0160003 -1.1313154 0.13503054 0
3.0130002 -1.1347841 0.13533902 0
3.0100002 -1.138242 0.13564748 0
3.0070002 -1.1416891 0.13595593 0
3.0040002 -1.1451253 0.13626435 0
3.0000002 -1.1481268 0.13667563 0
2.9970002 -1.1515397 0.13698408 0
2.9940002 -1.1549416 0.13729253 0
2.9910002 -1.1583327 0.13760099 0
2.9880002 -1.1617131 0.13790944 0
2.9850001 -1.1650826 0.1382179 0
2.9820001 -1.1684413 0.13852635 0
2.9790003 -1.1717892 0.1388348 0
2.9760003 -1.1751263 0.13914323 0
2.9730003 -1.1784525 0.13945168 0
2.9690001 -1.1813259 0.13986298 0
2.9660003 -1.1846288 0.14017141 0
2.9630003 -1.1879207 0.14047983 0
2.9600003 -1.1912018 0.14078832 0
2.9570003 -1.1944721 0.14109677 0
2.9540002 -1.1977316 0.14140522 0
2.9510002 -1.2009802 0.14171365 0
2.9480002 -1.204218 0.14202213 0
2.9450002 -1.207445 0.14233059 0
2.9420002 -1.2106613 0.14263904 0
2.9390001 -1.2138666 0.14294747 0
2.9360001 -1.2170612 0.14325595 0
2.9330003 -1.220245 0.14356437 0
2.9300003 -1.2234179 0.14387283 0
2.9270003 -1.2265799 0.14418125 0
2.9240003 -1.2297312 0.14448974 0
2.9210002 -1.2328715 0.14479819 0
2.9180002 -1.2360011 0.14510664 0
2.9160001 -1.2395943 0.14531228 0
2.9130001 -1.242704 0.14562073 0
2.9100003 -1.2458031 0.14592916 0
2.9070003 -1.2488912 0.14623761 0
2.9040003 -1.2519685 0.14654607 0
2.9010003 -1.255035 0.14685452 0
2.8980002 -1.2580906 0.14716297 0
2.8950002 -1.2611355 0.14747143 0
2.8010001 -1.3626068 0.15713625 0
2.7980001 -1.3652873 0.15744469 0
2.7950003 -1.367957 0.15775312 0
2.7930002 -1.3711696 0.15795878 0
2.7900002 -1.3738194 0.15826721 0
2.7880001 -1.3770157 0.15847287 0
2.7850003 -1.3796457 0.1587813 0
2.7820003 -1.3822649 0.15908973 0
2.7800002 -1.3854359 0.1592954 0
2.7770002 -1.3880352 0.15960385 0
2.7740002 -1.3906236 0.15991229 0
2.7720003 -1.3937695 0.16011792 0
2.7690003 -1.3963381 0.16042638 0
2.7670002 -1.3994677 0.16063201 0
2.7640002 -1.4020164 0.16094047 0
2.7610002 -1.4045544 0.16124894 0
3.1320002 -1.0069609 0.11817577 0
3.1290002 -1.0108281 0.11848962 0
3.1250002 -1.0143293 0.11890814 0
3.1220002 -1.0181733 0.11922199 0
3.1180003 -1.0216473 0.11964047 0
3.1150002 -1.0254678 0.11995435 0
3.1110003 -1.0289149 0.1203728 0
3.1080003 -1.032712 0.12068668 0
3.1050003 -1.0364982 0.12100053 0
3.1010003 -1.0399055 0.12141901 0
3.0980003 -1.0436683 0.12173289 0
3.0950003 -1.0474203 0.12204674 0
3.0910003 -1.0507879 0.12246522 0
3.0880003 -1.0545164 0.1227791 0
3.0850003 -1.0582341 0.12309295 0
3.0810003 -1.0615622 0.12351143 0
3.0780003 -1.0652564 0.12382531 0
3.0750003 -1.0689397 0.12413916 0
3.0710003 -1.072228 0.12455764 0
3.0680003 -1.0758879 0.12487149 0
3.0650003 -1.079537 0.12518537 0
3.0610001 -1.0827856 0.12560388 0
3.0580003 -1.0864115 0.1259177 0
3.0550003 -1.0900261 0.12623158 0
3.0520003 -1.0936302 0.12654543 0
3.0480003 -1.0968266 0.12696391 0
3.0450003 -1.1004071 0.12727776 0
3.0420003 -1.1039768 0.12759167 0
3.0390003 -1.1075357 0.12790552 0
3.0350003 -1.1106799 0.12832397 0
3.0320003 -1.1142154 0.12863788 0
3.0290003 -1.1177399 0.12895173 0
3.0260003 -1.1212537 0.12926558 0
3.0230002 -1.1247567 0.12957945 0
3.0190003 -1.1278359 0.12999794 0
3.0160003 -1.1313154 0.13031179 0
3.0130002 -1.1347841 0.13062564 0
3.0100002 -1.138242 0.13093951 0
3.0070002 -1.1416891 0.13125339 0
3.0040002 -1.1451253 0.13156724 0
3.0000002 -1.1481268 0.13198575 0
2.9970002 -1.1515397 0.1322996 0
2.9940002 -1.1549416 0.13261345 0
2.9910002 -1.1583327 0.13292733 0
2.9880002 -1.1617131 0.13324118 0
2.9850001 -1.1650826 0.13355505 0
2.9820001 -1.1684413 0.13386893 0
2.9790003 -1.1717892 0.13418275 0
2.9760003 -1.1751263 0.1344966 0
2.9730003 -1.1784525 0.13481051 0
2.9690001 -1.1813259 0.13522899 0
2.9660003 -1.1846288 0.13554281 0
2.9630003 -1.1879207 0.13585672 0
2.9600003 -1.1912018 0.13617057 0
2.9570003 -1.1944721 0.13648441 0
2.9540002 -1.1977316 0.13679829 0
2.9510002 -1.2009802 0.13711214 0
2.9480002 -1.204218 0.13742602 0
2.9450002 -1.207445 0.1377399 0
2.9420002 -1.2106613 0.13805375 0
2.9390001 -1.2138666 0.13836759 0
2.9360001 -1.2170612 0.13868147 0
2.9330003 -1.220245 0.13899532 0
2.9300003 -1.2234179 0.1393092 0
2.9270003 -1.2265799 0.13962305 0
2.9240003 -1.2297312 0.13993689 0
2.9210002 -1.2328715 0.1402508 0
2.9180002 -1.2360011 0.14056465 0
2.9160001 -1.2395943 0.14077389 0
2.9130001 -1.242704 0.14108777 0
2.9100003 -1.2458031 0.14140159 0
2.9070003 -1.2488912 0.14171547 0
2.9040003 -1.2519685 0.14202935 0
2.9010003 -1.255035 0.14234319 0
2.8980002 -1.2580906 0.14265707 0
2.8950002 -1.2611355 0.14297092 0
2.8010001 -1.3626068 0.1528053 0
2.7980001 -1.3652873 0.15311918 0
2.7950003 -1.367957 0.153433 0
2.7930002 -1.3711696 0.15364227 0
2.7900002 -1.3738194 0.15395612 0
2.7880001 -1.3770157 0.15416537 0
2.7850003 -1.3796457 0.15447921 0
2.7820003 -1.3822649 0.15479308 0
2.7800002 -1.3854359 0.15500233 0
2.7770002 -1.3880352 0.15531617 0
2.7740002 -1.3906236 0.15563007 0
2.7720003 -1.3937695 0.15583926 0
2.7690003 -1.3963381 0.15615316 0
2.7670002 -1.3994677 0.15636238 0
2.7640002 -1.4020164 0.15667628 0
2.7610002 -1.4045544 0.15699013 0
3.1320002 -1.0069609 0.11324778 0
3.1290002 -1.0108281 0.11356705 0
3.1250002 -1.0143293 0.11399275 0
3.1220002 -1.0181733 0.11431202 0
3.1180003 -1.0216473 0.11473772 0
3.1150002 -1.0254678 0.11505699 0
3.1110003 -1.0289149 0.11548269 0
3.1080003 -1.032712 0.11580196 0
3.1050003 -1.0364982 0.11612123 0
3.1010003 -1.0399055 0.11654693 0
3.0980003 -1.0436683 0.1168662 0
3.0950003 -1.0474203 0.1171855 0
3.0910003 -1.0507879 0.11761117 0
3.0880003 -1.0545164 0.11793044 0
3.0850003 -1.0582341 0.11824974 0
3.0810003 -1.0615622 0.11867541 0
3.0780003 -1.0652564 0.11899468 0
3.0750003 -1.0689397 0.11931399 0
3.0710003 -1.072228 0.11973965 0
3.0680003 -1.0758879 0.12005892 0
3.0650003 -1.079537 0.12037823 0
3.0610001 -1.0827856 0.12080392 0
3.0580003 -1.0864115 0.12112319 0
3.0550003 -1.0900261 0.12144244 0
3.0520003 -1.0936302 0.12176174 0
3.0480003 -1.0968266 0.12218744 0
3.0450003 -1.1004071 0.12250671 0
3.0420003 -1.1039768 0.12282601 0
3.0390003 -1.1075357 0.12314528 0
3.0350003 -1.1106799 0.12357095 0
3.0320003 -1.1142154 0.12389025 0
3.0290003 -1.1177399 0.12420952 0
3.0260003 -1.1212537 0.1245288 0
3.0230002 -1.1247567 0.12484807 0
3.0190003 -1.1278359 0.12527376 0
3.0160003 -1.1313154 0.12559304 0
3.0130002 -1.1347841 0.12591231 0
3.0100002 -1.138242 0.12623158 0
3.0070002 -1.1416891 0.12655085 0
3.0040002 -1.1451253 0.12687016 0
3.0000002 -1.1481268 0.12729582 0
2.9970002 -1.1515397 0.12761509 0
2.9940002 -1.1549416 0.1279344 0
2.9910002 -1.1583327 0.12825367 0
2.9880002 -1.1617131 0.12857294 0
2.9850001 -1.1650826 0.12889221 0
2.9820001 -1.1684413 0.12921149 0
2.9790003 -1.1717892 0.12953076 0
2.9760003 -1.1751263 0.12985003 0
2.9730003 -1.1784525 0.1301693 0
2.9690001 -1.1813259 0.130595 0
2.9660003 -1.1846288 0.13091427 0
2.9630003 -1.1879207 0.13123354 0
2.9600003 -1.1912018 0.13155282 0
2.9570003 -1.1944721 0.13187209 0
2.9540002 -1.1977316 0.13219136 0
2.9510002 -1.2009802 0.13251066 0
2.9480002 -1.204218 0.13282993 0
2.9450002 -1.207445 0.13314921 0
2.9420002 -1.2106613 0.13346848 0
2.9390001 -1.2138666 0.13378775 0
2.9360001 -1.2170612 0.13410702 0
2.9330003 -1.220245 0.1344263 0
2.9300003 -1.2234179 0.13474554 0
2.9270003 -1.2265799 0.13506481 0
2.9240003 -1.2297312 0.13538408 0
2.9210002 -1.2328715 0.13570336 0
2.9180002 -1.2360011 0.13602266 0
2.9160001 -1.2395943 0.13623551 0
2.9130001 -1.242704 0.13655481 0
2.9100003 -1.2458031 0.13687405 0
2.9070003 -1.2488912 0.13719332 0
2.9040003 -1.2519685 0.13751259 0
2.9010003 -1.255035 0.13783187 0
2.8980002 -1.2580906 0.13815117 0
2.8950002 -1.2611355 0.13847044 0
2.8010001 -1.3626068 0.14847437 0
2.7980001 -1.3652873 0.14879364 0
2.7950003 -1.367957 0.14911288 0
2.7930002 -1.3711696 0.14932573 0
2.7900002 -1.3738194 0.149645 0
2.7880001 -1.3770157 0.14985788 0
2.7850003 -1.3796457 0.15017712 0
2.7820003 -1.3822649 0.15049639 0
2.7800002 -1.3854359 0.15070924 0
2.7770002 -1.3880352 0.15102851 0
2.7740002 -1.3906236 0.15134782 0
2.7720003 -1.3937695 0.15156063 0
2.7690003 -1.3963381 0.15187994 0
2.7670002 -1.3994677 0.15209278 0
2.7640002 -1.4020164 0.15241209 0
2.7610002 -1.4045544 0.15273133 0
3.1320002 -1.0069609 0.10831976 0
3.1290002 -1.0108281 0.10864446 0
3.1250002 -1.0143293 0.10907736 0
3.1220002 -1.0181733 0.10940206 0
3.1180003 -1.0216473 0.10983494 0
3.1150002 -1.0254678 0.11015964 0
3.1110003 -1.0289149 0.11059254 0
3.1080003 -1.032712 0.11091724 0
3.1050003 -1.0364982 0.11124194 0
3.1010003 -1.0399055 0.11167485 0
3.0980003 -1.0436683 0.11199954 0
3.0950003 -1.0474203 0.11232421 0
3.0910003 -1.0507879 0.11275715 0
3.0880003 -1.0545164 0.11308181 0
3.0850003 -1.0582341 0.11340651 0
3.0810003 -1.0615622 0.11383942 0
3.0780003 -1.0652564 0.11416411 0
3.0750003 -1.0689397 0.11448878 0
3.0710003 -1.072228 0.11492169 0
3.0680003 -1.0758879 0.11524639 0
3.0650003 -1.079537 0.11557108 0
3.0610001 -1.0827856 0.11600399 0
3.0580003 -1.0864115 0.11632866 0
3.0550003 -1.0900261 0.11665335 0
3.0520003 -1.0936302 0.11697805 0
3.0480003 -1.0968266 0.11741093 0
3.0450003 -1.1004071 0.11773562 0
3.0420003 -1.1039768 0.11806032 0
3.0390003 -1.1075357 0.11838502 0
3.0350003 -1.1106799 0.11881793 0
3.0320003 -1.1142154 0.11914262 0
3.0290003 -1.1177399 0.11946732 0
3.0260003 -1.1212537 0.11979198 0
3.0230002 -1.1247567 0.12011668 0
3.0190003 -1.1278359 0.12054959 0
3.0160003 -1.1313154 0.12087429 0
3.0130002 -1.1347841 0.12119895 0
3.0100002 -1.138242 0.12152365 0
3.0070002 -1.1416891 0.12184832 0
3.0040002 -1.1451253 0.12217301 0
3.0000002 -1.1481268 0.12260592 0
2.9970002 -1.1515397 0.12293062 0
2.9940002 -1.1549416 0.12325531 0
2.9910002 -1.1583327 0.12357998 0
2.9880002 -1.1617131 0.12390468 0
2.9850001 -1.1650826 0.12422937 0
2.9820001 -1.1684413 0.12455407 0
2.9790003 -1.1717892 0.1248787 0
2.9760003 -1.1751263 0.1252034 0
2.9730003 -1.1784525 0.1255281 0
2.9690001 -1.1813259 0.12596104 0
2.9660003 -1.1846288 0.1262857 0
2.9630003 -1.1879207 0.12661037 0
2.9600003 -1.1912018 0.12693506 0
2.9570003 -1.1944721 0.12725973 0
2.9540002 -1.1977316 0.12758446 0
2.9510002 -1.2009802 0.12790912 0
2.9480002 -1.204218 0.12823382 0
2.9450002 -1.207445 0.12855849 0
2.9420002 -1.2106613 0.12888318 0
2.9390001 -1.2138666 0.12920788 0
2.9360001 -1.2170612 0.12953255 0
2.9330003 -1.220245 0.12985724 0
2.9300003 -1.2234179 0.13018191 0
2.9270003 -1.2265799 0.1305066 0
2.9240003 -1.2297312 0.1308313 0
2.9210002 -1.2328715 0.13115597 0
2.9180002 -1.2360011 0.13148066 0
2.9160001 -1.2395943 0.13169712 0
2.9130001 -1.242704 0.13202181 0
2.9100003 -1.2458031 0.13234651 0
2.9070003 -1.2488912 0.13267118 0
2.9040003 -1.2519685 0.13299587 0
2.9010003 -1.255035 0.13332054 0
2.8980002 -1.2580906 0.13364524 0
2.8950002 -1.2611355 0.1339699 0
2.8010001 -1.3626068 0.1441434 0
2.7980001 -1.3652873 0.1444681 0
2.7950003 -1.367957 0.14479277 0
2.7930002 -1.3711696 0.14500925 0
2.7900002 -1.3738194 0.14533392 0
2.7880001 -1.3770157 0.14555037 0
2.7850003 -1.3796457 0.14587507 0
2.7820003 -1.3822649 0.14619973 0
2.7800002 -1.3854359 0.14641622 0
2.7770002 -1.3880352 0.14674088 0
2.7740002 -1.3906236 0.14706558 0
2.7720003 -1.3937695 0.14728203 0
2.7690003 -1.3963381 0.1476067 0
2.7670002 -1.3994677 0.14782318 0
2.7640002 -1.4020164 0.14814785 0
2.7610002 -1.4045544 0.14847255 0
3.1320002 -1.0069609 0.10339177 0
3.1290002 -1.0108281 0.10372186 0
3.1250002 -1.0143293 0.10416201 0
3.1220002 -1.0181733 0.1044921 0
3.1180003 -1.0216473 0.10493222 0
3.1150002 -1.0254678 0.10526231 0
3.1110003 -1.0289149 0.10570243 0
3.1080003 -1.032712 0.10603252 0
3.1050003 -1.0364982 0.10636264 0
3.1010003 -1.0399055 0.10680276 0
3.0980003 -1.0436683 0.10713285 0
3.0950003 -1.0474203 0.10746297 0
3.0910003 -1.0507879 0.10790306 0
3.0880003 -1.0545164 0.10823315 0
3.0850003 -1.0582341 0.1085633 0
3.0810003 -1.0615622 0.10900339 0
3.0780003 -1.0652564 0.10933349 0
3.0750003 -1.0689397 0.10966358 0
3.0710003 -1.072228 0.11010373 0
3.0680003 -1.0758879 0.11043382 0
3.0650003 -1.079537 0.11076391 0
3.0610001 -1.0827856 0.11120409 0
3.0580003 -1.0864115 0.11153415 0
3.0550003 -1.0900261 0.11186424 0
3.0520003 -1.0936302 0.11219433 0
3.0480003 -1.0968266 0.11263445 0
3.0450003 -1.1004071 0.11296457 0
3.0420003 -1.1039768 0.11329466 0
3.0390003 -1.1075357 0.11362478 0
3.0350003 -1.1106799 0.11406487 0
3.0320003 -1.1142154 0.11439496 0
3.0290003 -1.1177399 0.11472508 0
3.0260003 -1.1212537 0.1150552 0
3.0230002 -1.1247567 0.11538529 0
3.0190003 -1.1278359 0.11582538 0
3.0160003 -1.1313154 0.11615551 0
3.0130002 -1.1347841 0.11648563 0
3.0100002 -1.138242 0.11681572 0
3.0070002 -1.1416891 0.11714581 0
3.0040002 -1.1451253 0.1174759 0
3.0000002 -1.1481268 0.11791602 0
2.9970002 -1.1515397 0.11824614 0
2.9940002 -1.1549416 0.11857623 0
2.9910002 -1.1583327 0.11890632 0
2.9880002 -1.1617131 0.11923644 0
2.9850001 -1.1650826 0.11956653 0
2.9820001 -1.1684413 0.11989662 0
2.9790003 -1.1717892 0.12022668 0
2.9760003 -1.1751263 0.1205568 0
2.9730003 -1.1784525 0.12088689 0
2.9690001 -1.1813259 0.12132704 0
2.9660003 -1.1846288 0.1216571 0
2.9630003 -1.1879207 0.12198719 0
2.9600003 -1.1912018 0.12231731 0
2.9570003 -1.1944721 0.12264743 0
2.9540002 -1.1977316 0.12297752 0
2.9510002 -1.2009802 0.12330762 0
2.9480002 -1.204218 0.12363771 0
2.9450002 -1.207445 0.1239678 0
2.9420002 -1.2106613 0.12429792 0
2.9390001 -1.2138666 0.12462801 0
2.9360001 -1.2170612 0.1249581 0
2.9330003 -1.220245 0.12528819 0
2.9300003 -1.2234179 0.12561828 0
2.9270003 -1.2265799 0.12594837 0
2.9240003 -1.2297312 0.12627849 0
2.9210002 -1.2328715 0.12660858 0
2.9180002 -1.2360011 0.12693867 0
2.9160001 -1.2395943 0.12715876 0
2.9130001 -1.242704 0.12748885 0
2.9100003 -1.2458031 0.12781891 0
2.9070003 -1.2488912 0.128149 0
2.9040003 -1.2519685 0.12847912 0
2.9010003 -1.255035 0.12880924 0
2.8980002 -1.2580906 0.12913933 0
2.8950002 -1.2611355 0.12946942 0
2.8010001 -1.3626068 0.13981247 0
2.7980001 -1.3652873 0.14014256 0
2.7950003 -1.367957 0.14047262 0
2.7930002 -1.3711696 0.14069271 0
2.7900002 -1.3738194 0.1410228 0
2.7880001 -1.3770157 0.14124289 0
2.7850003 -1.3796457 0.14157295 0
2.7820003 -1.3822649 0.14190304 0
2.7800002 -1.3854359 0.14212313 0
2.7770002 -1.3880352 0.14245322 0
2.7740002 -1.3906236 0.14278331 0
2.7720003 -1.3937695 0.14300337 0
2.7690003 -1.3963381 0.14333346 0
2.7670002 -1.3994677 0.14355356 0
2.7640002 -1.4020164 0.14388365 0
2.7610002 -1.4045544 0.14421377 0
3.1320002 -1.0069609 0.098463774 0
3.1290002 -1.0108281 0.098799288 0
3.1250002 -1.0143293 0.099246591 0
3.1220002 -1.0181733 0.099582136 0
3.1180003 -1.0216473 0.10002947 0
3.1150002 -1.0254678 0.10036495 0
3.1110003 -1.0289149 0.10081232 0
3.1080003 -1.032712 0.10114783 0
3.1050003 -1.0364982 0.10148335 0
3.1010003 -1.0399055 0.10193068 0
3.0980003 -1.0436683 0.10226616 0
3.0950003 -1.0474203 0.10260168 0
3.0910003 -1.0507879 0.10304904 0
3.0880003 -1.0545164 0.10338455 0
3.0850003 -1.0582341 0.10372004 0
3.0810003 -1.0615622 0.1041674 0
3.0780003 -1.0652564 0.10450292 0
3.0750003 -1.0689397 0.10483843 0
3.0710003 -1.072228 0.10528573 0
3.0680003 -1.0758879 0.10562125 0
3.0650003 -1.079537 0.10595676 0
3.0610001 -1.0827856 0.10640416 0
3.0580003 -1.0864115 0.10673961 0
3.0550003 -1.0900261 0.10707512 0
3.0520003 -1.0936302 0.10741064 0
3.0480003 -1.0968266 0.107858 0
3.0450003 -1.1004071 0.10819349 0
3.0420003 -1.1039768 0.108529 0
3.0390003 -1.1075357 0.10886452 0
3.0350003 -1.1106799 0.10931185 0
3.0320003 -1.1142154 0.10964736 0
3.0290003 -1.1177399 0.10998288 0
3.0260003 -1.1212537 0.11031839 0
3.0230002 -1.1247567 0.11065391 0
3.0190003 -1.1278359 0.11110124 0
3.0160003 -1.1313154 0.11143672 0
3.0130002 -1.1347841 0.11177224 0
3.0100002 -1.138242 0.11210775 0
3.0070002 -1.1416891 0.11244327 0
3.0040002 -1.1451253 0.11277881 0
3.0000002 -1.1481268 0.11322612 0
2.9970002 -1.1515397 0.11356163 0
2.9940002 -1.1549416 0.11389714 0
2.9910002 -1.1583327 0.11423266 0
2.9880002 -1.1617131 0.11456814 0
2.9850001 -1.1650826 0.11490369 0
2.9820001 -1.1684413 0.1152392 0
2.9790003 -1.1717892 0.11557469 0
2.9760003 -1.1751263 0.1159102 0
2.9730003 -1.1784525 0.11624569 0
2.9690001 -1.1813259 0.11669305 0
2.9660003 -1.1846288 0.11702856 0
2.9630003 -1.1879207 0.11736408 0
2.9600003 -1.1912018 0.11769956 0
2.9570003 -1.1944721 0.11803508 0
2.9540002 -1.1977316 0.11837059 0
2.9510002 -1.2009802 0.11870611 0
2.9480002 -1.204218 0.11904159 0
2.9450002 -1.207445 0.11937711 0
2.9420002 -1.2106613 0.11971262 0
2.9390001 -1.2138666 0.12004814 0
2.9360001 -1.2170612 0.12038365 0
2.9330003 -1.220245 0.12071913 0
2.9300003 -1.2234179 0.12105465 0
2.9270003 -1.2265799 0.12139016 0
2.9240003 -1.2297312 0.12172568 0
2.9210002 -1.2328715 0.12206119 0
2.9180002 -1.2360011 0.12239668 0
2.9160001 -1.2395943 0.12262037 0
2.9130001 -1.242704 0.12295589 0
2.9100003 -1.2458031 0.12329137 0
2.9070003 -1.2488912 0.12362689 0
2.9040003 -1.2519685 0.12396237 0
2.9010003 -1.255035 0.12429789 0
2.8980002 -1.2580906 0.1246334 0
2.8950002 -1.2611355 0.12496892 0
2.8010001 -1.3626068 0.13548154 0
2.7980001 -1.3652873 0.13581705 0
2.7950003 -1.367957 0.13615251 0
2.7930002 -1.3711696 0.1363762 0
2.7900002 -1.3738194 0.13671172 0
2.7880001 -1.3770157 0.13693538 0
2.7850003 -1.3796457 0.1372709 0
2.7820003 -1.3822649 0.13760641 0
2.7800002 -1.3854359 0.13783005 0
2.7770002 -1.3880352 0.13816556 0
2.7740002 -1.3906236 0.13850111 0
2.7720003 -1.3937695 0.13872474 0
2.7690003 -1.3963381 0.13906026 0
2.7670002 -1.3994677 0.13928393 0
2.7640002 -1.4020164 0.13961944 0
2.7610002 -1.4045544 0.13995495 0
3.1320002 -1.0069609 0.093535751 0
3.1290002 -1.0108281 0.09387669 0
3.1250002 -1.0143293 0.094331235 0
3.1220002 -1.0181733 0.094672143 0
3.1180003 -1.0216473 0.095126718 0
3.1150002 -1.0254678 0.095467627 0
3.1110003 -1.0289149 0.095922172 0
3.1080003 -1.032712 0.096263111 0
3.1050003 -1.0364982 0.096604019 0
3.1010003 -1.0399055 0.097058594 0
3.0980003 -1.0436683 0.097399503 0
3.0950003 -1.0474203 0.097740442 0
3.0910003 -1.0507879 0.098194957 0
3.0880003 -1.0545164 0.098535925 0
3.0850003 -1.0582341 0.098876834 0
3.0810003 -1.0615622 0.099331379 0
3.0780003 -1.0652564 0.099672288 0
3.0750003 -1.0689397 0.10001323 0
3.0710003 -1.072228 0.1004678 0
3.0680003 -1.0758879 0.10080871 0
3.0650003 -1.079537 0.10114962 0
3.0610001 -1.0827856 0.10160419 0
3.0580003 -1.0864115 0.1019451 0
3.0550003 -1.0900261 0.10228601 0
3.0520003 -1.0936302 0.10262692 0
3.0480003 -1.0968266 0.10308149 0
3.0450003 -1.1004071 0.10342243 0
3.0420003 -1.1039768 0.10376334 0
3.0390003 -1.1075357 0.10410428 0
3.0350003 -1.1106799 0.1045588 0
3.0320003 -1.1142154 0.10489973 0
3.0290003 -1.1177399 0.10524064 0
3.0260003 -1.1212537 0.10558158 0
3.0230002 -1.1247567 0.10592252 0
3.0190003 -1.1278359 0.10637707 0
3.0160003 -1.1313154 0.10671797 0
3.0130002 -1.1347841 0.10705891 0
3.0100002 -1.138242 0.10739982 0
3.0070002 -1.1416891 0.10774073 0
3.0040002 -1.1451253 0.10808167 0
3.0000002 -1.1481268 0.10853624 0
2.9970002 -1.1515397 0.10887715 0
2.9940002 -1.1549416 0.10921806 0
2.9910002 -1.1583327 0.109559 0
2.9880002 -1.1617131 0.10989991 0
2.9850001 -1.1650826 0.11024085 0
2.9820001 -1.1684413 0.11058176 0
2.9790003 -1.1717892 0.11092263 0
2.9760003 -1.1751263 0.11126357 0
2.9730003 -1.1784525 0.11160448 0
2.9690001 -1.1813259 0.11205909 0
2.9660003 -1.1846288 0.11239997 0
2.9630003 -1.1879207 0.1127409 0
2.9600003 -1.1912018 0.11308181 0
2.9570003 -1.1944721 0.11342275 0
2.9540002 -1.1977316 0.11376366 0
2.9510002 -1.2009802 0.11410457 0
2.9480002 -1.204218 0.11444551 0
2.9450002 -1.207445 0.11478642 0
2.9420002 -1.2106613 0.11512735 0
2.9390001 -1.2138666 0.11546826 0
2.9360001 -1.2170612 0.11580917 0
2.9330003 -1.220245 0.11615008 0
2.9300003 -1.2234179 0.11649102 0
2.9270003 -1.2265799 0.11683193 0
2.9240003 -1.2297312 0.11717287 0
2.9210002 -1.2328715 0.11751378 0
2.9180002 -1.2360011 0.11785471 0
2.9160001 -1.2395943 0.11808199 0
2.9130001 -1.242704 0.11842293 0
2.9100003 -1.2458031 0.1187638 0
2.9070003 -1.2488912 0.11910474 0
2.9040003 -1.2519685 0.11944565 0
2.9010003 -1.255035 0.11978659 0
2.8980002 -1.2580906 0.1201275 0
2.8950002 -1.2611355 0.12046841 0
2.8010001 -1.3626068 0.13115057 0
2.7980001 -1.3652873 0.13149148 0
2.7950003 -1.367957 0.13183239 0
2.7930002 -1.3711696 0.13205969 0
2.7900002 -1.3738194 0.1324006 0
2.7880001 -1.3770157 0.1326279 0
2.7850003 -1.3796457 0.13296878 0
2.7820003 -1.3822649 0.13330972 0
2.7800002 -1.3854359 0.13353702 0
2.7770002 -1.3880352 0.13387793 0
2.7740002 -1.3906236 0.13421884 0
2.7720003 -1.3937695 0.13444611 0
2.7690003 -1.3963381 0.13478705 0
2.7670002 -1.3994677 0.13501433 0
2.7640002 -1.4020164 0.13535523 0
2.7610002 -1.4045544 0.13569617 0
3.1320002 -1.0069609 0.088607758 0
3.1290002 -1.0108281 0.088954091 0
3.1250002 -1.0143293 0.089415848 0
3.1220002 -1.0181733 0.089762181 0
3.1180003 -1.0216473 0.090223968 0
3.1150002 -1.0254678 0.090570301 0
3.1110003 -1.0289149 0.091032058 0
3.1080003 -1.032712 0.091378391 0
3.1050003 -1.0364982 0.091724724 0
3.1010003 -1.0399055 0.092186511 0
3.0980003 -1.0436683 0.092532843 0
3.0950003 -1.0474203 0.092879176 0
3.0910003 -1.0507879 0.093340933 0
3.0880003 -1.0545164 0.093687266 0
3.0850003 -1.0582341 0.094033599 0
3.0810003 -1.0615622 0.094495356 0
3.0780003 -1.0652564 0.094841689 0
3.0750003 -1.0689397 0.095188051 0
3.0710003 -1.072228 0.095649809 0
3.0680003 -1.0758879 0.095996141 0
3.0650003 -1.079537 0.096342474 0
3.0610001 -1.0827856 0.096804261 0
3.0580003 -1.0864115 0.097150564 0
3.0550003 -1.0900261 0.097496897 0
3.0520003 -1.0936302 0.09784323 0
3.0480003 -1.0968266 0.098305017 0
3.0450003 -1.1004071 0.09865135 0
3.0420003 -1.1039768 0.098997682 0
3.0390003 -1.1075357 0.099344015 0
3.0350003 -1.1106799 0.099805772 0
3.0320003 -1.1142154 0.10015211 0
3.0290003 -1.1177399 0.10049844 0
3.0260003 -1.1212537 0.10084477 0
3.0230002 -1.1247567 0.1011911 0
3.0190003 -1.1278359 0.10165289 0
3.0160003 -1.1313154 0.10199922 0
3.0130002 -1.1347841 0.10234556 0
3.0100002 -1.138242 0.10269189 0
3.0070002 -1.1416891 0.10303822 0
3.0040002 -1.1451253 0.10338455 0
3.0000002 -1.1481268 0.10384631 0
2.9970002 -1.1515397 0.10419264 0
2.9940002 -1.1549416 0.10453898 0
2.9910002 -1.1583327 0.10488531 0
2.9880002 -1.1617131 0.10523164 0
2.9850001 -1.1650826 0.10557798 0
2.9820001 -1.1684413 0.10592434 0
2.9790003 -1.1717892 0.10627064 0
2.9760003 -1.1751263 0.10661697 0
2.9730003 -1.1784525 0.10696331 0
2.9690001 -1.1813259 0.10742509 0
2.9660003 -1.1846288 0.1077714 0
2.9630003 -1.1879207 0.10811773 0
2.9600003 -1.1912018 0.10846406 0
2.9570003 -1.1944721 0.1088104 0
2.9540002 -1.1977316 0.10915673 0
2.9510002 -1.2009802 0.10950306 0
2.9480002 -1.204218 0.10984939 0
2.9450002 -1.207445 0.11019573 0
2.9420002 -1.2106613 0.11054206 0
2.9390001 -1.2138666 0.11088839 0
2.9360001 -1.2170612 0.11123472 0
2.9330003 -1.220245 0.11158103 0
2.9300003 -1.2234179 0.11192736 0
2.9270003 -1.2265799 0.11227372 0
2.9240003 -1.2297312 0.11262006 0
2.9210002 -1.2328715 0.11296639 0
2.9180002 -1.2360011 0.11331272 0
2.9160001 -1.2395943 0.1135436 0
2.9130001 -1.242704 0.11388993 0
2.9100003 -1.2458031 0.11423624 0
2.9070003 -1.2488912 0.11458257 0
2.9040003 -1.2519685 0.1149289 0
2.9010003 -1.255035 0.11527523 0
2.8980002 -1.2580906 0.11562157 0
2.8950002 -1.2611355 0.11596793 0
2.8010001 -1.3626068 0.12681964 0
2.7980001 -1.3652873 0.12716597 0
2.7950003 -1.367957 0.12751228 0
2.7930002 -1.3711696 0.12774318 0
2.7900002 -1.3738194 0.12808952 0
2.7880001 -1.3770157 0.1283204 0
2.7850003 -1.3796457 0.1286667 0
2.7820003 -1.3822649 0.12901303 0
2.7800002 -1.3854359 0.12924394 0
2.7770002 -1.3880352 0.12959027 0
2.7740002 -1.3906236 0.12993661 0
2.7720003 -1.3937695 0.13016748 0
2.7690003 -1.3963381 0.13051382 0
2.7670002 -1.3994677 0.13074473 0
2.7640002 -1.4020164 0.13109106 0
2.7610002 -1.4045544 0.13143739 0
3.1320002 -1.0069609 0.083679765 0
3.1290002 -1.0108281 0.084031492 0
3.1250002 -1.0143293 0.084500462 0
3.1220002 -1.0181733 0.084852219 0
3.1180003 -1.0216473 0.085321218 0
3.1150002 -1.0254678 0.085672975 0
3.1110003 -1.0289149 0.086141944 0
3.1080003 -1.032712 0.086493671 0
