# .PCD v0.7 - Point Cloud Data file format
VERSION 0.7
FIELDS x y z intensity
SIZE 4 4 4 4
TYPE F F F F
COUNT 1 1 1 1
WIDTH 1377
HEIGHT 1
VIEWPOINT 0 0 0 1 0 0 0
POINTS 1377
DATA ascii
3.8080003 -0.26115826 0.74825323 0
3.8080003 -0.26730564 0.74825323 0
3.8080003 -0.273453 0.74825323 0
3.8080003 -0.27960038 0.74825323 0
3.8070002 -0.2856774 0.7481522 0
3.8070002 -0.29182297 0.7481522 0
3.8070002 -0.29796854 0.7481522 0
3.8070002 -0.30411413 0.7481522 0
3.8060002 -0.31018215 0.74805117 0
3.8060002 -0.31632593 0.74805117 0
3.8060002 -0.32246968 0.74805117 0
3.8060002 -0.32861346 0.74805117 0
3.8050003 -0.33467245 0.7479502 0
3.8050003 -0.34081441 0.7479502 0
3.8050003 -0.3469564 0.7479502 0
3.8050003 -0.35309836 0.7479502 0
3.8040001 -0.35914832 0.74784917 0
3.8040001 -0.36528847 0.74784917 0
3.8040001 -0.37142864 0.74784917 0
3.8040001 -0.37756881 0.74784917 0
3.8030002 -0.38360977 0.74774814 0
3.8030002 -0.38974813 0.74774814 0
3.8030002 -0.39588648 0.74774814 0
3.8030002 -0.40202484 0.74774814 0
3.8020003 -0.4080568 0.74764717 0
3.8020003 -0.41419333 0.74764717 0
3.8020003 -0.4203299 0.74764717 0
3.8020003 -0.42646646 0.74764717 0
3.8010004 -0.43248937 0.74754608 0
3.8010004 -0.43862414 0.74754608 0
3.8010004 -0.44475889 0.74754608 0
3.8010004 -0.45089364 0.74754608 0
3.8000002 -0.45690751 0.74744511 0
3.8000002 -0.46304047 0.74744511 0
3.8000002 -0.4691734 0.74744511 0
3.8000002 -0.47530633 0.74744511 0
3.7990003 -0.48131123 0.74734408 0
3.7990003 -0.48744237 0.74734408 0
3.7990003 -0.49357355 0.74734408 0
3.7990003 -0.49970469 0.74734408 0
3.7980003 -0.50570053 0.74724305 0
3.7980003 -0.51182985 0.74724305 0
3.7980003 -0.51795924 0.74724305 0
3.7970002 -0.52394783 0.74714208 0
3.7970002 -0.53007537 0.74714208 0
3.7970002 -0.53620291 0.74714208 0
3.7970002 -0.54233044 0.74714208 0
3.7960002 -0.5483101 0.74704105 0
3.7960002 -0.55443579 0.74704105 0
3.7960002 -0.56056154 0.74704105 0
3.7960002 -0.56668729 0.74704105 0
3.7950003 -0.57265794 0.74694002 0
3.7950003 -0.57878184 0.74694002 0
3.7950003 -0.58490574 0.74694002 0
3.7950003 -0.5910297 0.74694002 0
3.7940001 -0.59699124 0.74683899 0
3.7940001 -0.60311335 0.74683899 0
3.7940001 -0.60923553 0.74683899 0
3.8100002 -0.21822761 0.74230421 0
3.8100002 -0.22437859 0.74230421 0
3.8100002 -0.23052958 0.74230421 0
3.8100002 -0.23668057 0.74230421 0
3.8090003 -0.24277383 0.74220502 0
3.8090003 -0.24892302 0.74220502 0
3.8090003 -0.25507221 0.74220502 0
3.8080003 -0.26115826 0.74210584 0
3.8080003 -0.26730564 0.74210584 0
3.8080003 -0.273453 0.74210584 0
3.8080003 -0.27960038 0.74210584 0
3.8070002 -0.2856774 0.74200666 0
3.8070002 -0.29182297 0.74200666 0
3.8070002 -0.29796854 0.74200666 0
3.8070002 -0.30411413 0.74200666 0
3.8060002 -0.31018215 0.74190736 0
3.8060002 -0.31632593 0.74190736 0
3.8060002 -0.32246968 0.74190736 0
3.8060002 -0.32861346 0.74190736 0
3.8050003 -0.33467245 0.74180818 0
3.8050003 -0.34081441 0.74180818 0
3.8050003 -0.3469564 0.74180818 0
3.8050003 -0.35309836 0.74180818 0
3.8040001 -0.35914832 0.74170899 0
3.8040001 -0.36528847 0.74170899 0
3.8040001 -0.37142864 0.74170899 0
3.8040001 -0.37756881 0.74170899 0
3.8030002 -0.38360977 0.74160981 0
3.8030002 -0.38974813 0.74160981 0
3.8030002 -0.39588648 0.74160981 0
3.8030002 -0.40202484 0.74160981 0
3.8020003 -0.4080568 0.74151063 0
3.8020003 -0.41419333 0.74151063 0
3.8020003 -0.4203299 0.74151063 0
3.8020003 -0.42646646 0.74151063 0
3.8010004 -0.43248937 0.74141133 0
3.8010004 -0.43862414 0.74141133 0
3.8010004 -0.44475889 0.74141133 0
3.8010004 -0.45089364 0.74141133 0
3.8000002 -0.45690751 0.74131215 0
3.8000002 -0.46304047 0.74131215 0
3.8000002 -0.4691734 0.74131215 0
3.8000002 -0.47530633 0.74131215 0
3.7990003 -0.48131123 0.74121296 0
3.7990003 -0.48744237 0.74121296 0
3.7990003 -0.49357355 0.74121296 0
3.7990003 -0.49970469 0.74121296 0
3.7980003 -0.50570053 0.74111378 0
3.7980003 -0.51182985 0.74111378 0
3.7980003 -0.51795924 0.74111378 0
3.7970002 -0.52394783 0.74101448 0
3.7970002 -0.53007537 0.74101448 0
3.7970002 -0.53620291 0.74101448 0
3.7970002 -0.54233044 0.74101448 0
3.7960002 -0.5483101 0.7409153 0
3.7960002 -0.55443579 0.7409153 0
3.7960002 -0.56056154 0.7409153 0
3.7960002 -0.56668729 0.7409153 0
3.7950003 -0.57265794 0.74081612 0
3.7950003 -0.57878184 0.74081612 0
3.7950003 -0.58490574 0.74081612 0
3.7950003 -0.5910297 0.74081612 0
3.7940001 -0.59699124 0.74071687 0
3.7940001 -0.60311335 0.74071687 0
3.7940001 -0.60923553 0.74071687 0
3.8100002 -0.21822761 0.73615324 0
3.8100002 -0.22437859 0.73615324 0
3.8100002 -0.23052958 0.73615324 0
3.8100002 -0.23668057 0.73615324 0
3.8090003 -0.24277383 0.73605585 0
3.8090003 -0.24892302 0.73605585 0
3.8090003 -0.25507221 0.73605585 0
3.8080003 -0.26115826 0.73595846 0
3.8080003 -0.26730564 0.73595846 0
3.8080003 -0.273453 0.73595846 0
3.8080003 -0.27960038 0.73595846 0
3.8070002 -0.2856774 0.73586106 0
3.8070002 -0.29182297 0.73586106 0
3.8070002 -0.29796854 0.73586106 0
3.8070002 -0.30411413 0.73586106 0
3.8060002 -0.31018215 0.73576367 0
3.8060002 -0.31632593 0.73576367 0
3.8060002 -0.32246968 0.73576367 0
3.8060002 -0.32861346 0.73576367 0
3.8050003 -0.33467245 0.73566628 0
3.8050003 -0.34081441 0.73566628 0
3.8050003 -0.3469564 0.73566628 0
3.8050003 -0.35309836 0.73566628 0
3.8040001 -0.35914832 0.73556882 0
3.8040001 -0.36528847 0.73556882 0
3.8040001 -0.37142864 0.73556882 0
3.8040001 -0.37756881 0.73556882 0
3.8030002 -0.38360977 0.73547143 0
3.8030002 -0.38974813 0.73547143 0
3.8030002 -0.39588648 0.73547143 0
3.8030002 -0.40202484 0.73547143 0
3.8020003 -0.4080568 0.73537397 0
3.8020003 -0.41419333 0.73537397 0
3.8020003 -0.4203299 0.73537397 0
3.8020003 -0.42646646 0.73537397 0
3.8010004 -0.43248937 0.73527658 0
3.8010004 -0.43862414 0.73527658 0
3.8010004 -0.44475889 0.73527658 0
3.8010004 -0.45089364 0.73527658 0
3.8000002 -0.45690751 0.73517919 0
3.8000002 -0.46304047 0.73517919 0
3.8000002 -0.4691734 0.73517919 0
3.8000002 -0.47530633 0.73517919 0
3.7990003 -0.48131123 0.73508179 0
3.7990003 -0.48744237 0.73508179 0
3.7990003 -0.49357355 0.73508179 0
3.7990003 -0.49970469 0.73508179 0
3.7980003 -0.50570053 0.7349844 0
3.7980003 -0.51182985 0.7349844 0
3.7980003 -0.51795924 0.7349844 0
3.7970002 -0.52394783 0.734887 0
3.7970002 -0.53007537 0.734887 0
3.7970002 -0.53620291 0.734887 0
3.7970002 -0.54233044 0.734887 0
3.7960002 -0.5483101 0.73478961 0
3.7960002 -0.55443579 0.73478961 0
3.7960002 -0.56056154 0.73478961 0
3.7960002 -0.56668729 0.73478961 0
3.7950003 -0.57265794 0.73469222 0
3.7950003 -0.57878184 0.73469222 0
3.7950003 -0.58490574 0.73469222 0
3.7950003 -0.5910297 0.73469222 0
3.7940001 -0.59699124 0.73459476 0
3.7940001 -0.60311335 0.73459476 0
3.7940001 -0.60923553 0.73459476 0
3.8100002 -0.21822761 0.73000228 0
3.8100002 -0.22437859 0.73000228 0
3.8100002 -0.23052958 0.73000228 0
3.8100002 -0.23668057 0.73000228 0
3.8090003 -0.24277383 0.72990668 0
3.8090003 -0.24892302 0.72990668 0
3.8090003 -0.25507221 0.72990668 0
3.8080003 -0.26115826 0.72981107 0
3.8080003 -0.26730564 0.72981107 0
3.8080003 -0.273453 0.72981107 0
3.8080003 -0.27960038 0.72981107 0
3.8070002 -0.2856774 0.72971547 0
3.8070002 -0.29182297 0.72971547 0
3.8070002 -0.29796854 0.72971547 0
3.8070002 -0.30411413 0.72971547 0
3.8060002 -0.31018215 0.72961986 0
3.8060002 -0.31632593 0.72961986 0
3.8060002 -0.32246968 0.72961986 0
3.8060002 -0.32861346 0.72961986 0
3.8050003 -0.33467245 0.72952425 0
3.8050003 -0.34081441 0.72952425 0
3.8050003 -0.3469564 0.72952425 0
3.8050003 -0.35309836 0.72952425 0
3.8040001 -0.35914832 0.72942865 0
3.8040001 -0.36528847 0.72942865 0
3.8040001 -0.37142864 0.72942865 0
3.8040001 -0.37756881 0.72942865 0
3.8030002 -0.38360977 0.72933304 0
3.8030002 -0.38974813 0.72933304 0
3.8030002 -0.39588648 0.72933304 0
3.8030002 -0.40202484 0.72933304 0
3.8020003 -0.4080568 0.72923744 0
3.8020003 -0.41419333 0.72923744 0
3.8020003 -0.4203299 0.72923744 0
3.8020003 -0.42646646 0.72923744 0
3.8010004 -0.43248937 0.72914189 0
3.8010004 -0.43862414 0.72914189 0
3.8010004 -0.44475889 0.72914189 0
3.8010004 -0.45089364 0.72914189 0
3.8000002 -0.45690751 0.72904623 0
3.8000002 -0.46304047 0.72904623 0
3.8000002 -0.4691734 0.72904623 0
3.8000002 -0.47530633 0.72904623 0
3.7990003 -0.48131123 0.72895062 0
3.7990003 -0.48744237 0.72895062 0
3.7990003 -0.49357355 0.72895062 0
3.7990003 -0.49970469 0.72895062 0
3.7980003 -0.50570053 0.72885501 0
3.7980003 -0.51182985 0.72885501 0
3.7980003 -0.51795924 0.72885501 0
3.7970002 -0.52394783 0.72875941 0
3.7970002 -0.53007537 0.72875941 0
3.7970002 -0.53620291 0.72875941 0
3.7970002 -0.54233044 0.72875941 0
3.7960002 -0.5483101 0.7286638 0
3.7960002 -0.55443579 0.7286638 0
3.7960002 -0.56056154 0.7286638 0
3.7960002 -0.56668729 0.7286638 0
3.7950003 -0.57265794 0.72856826 0
3.7950003 -0.57878184 0.72856826 0
3.7950003 -0.58490574 0.72856826 0
3.7950003 -0.5910297 0.72856826 0
3.7940001 -0.59699124 0.72847265 0
3.7940001 -0.60311335 0.72847265 0
3.7940001 -0.60923553 0.72847265 0
3.8100002 -0.21822761 0.72385132 0
3.8100002 -0.22437859 0.72385132 0
3.8100002 -0.23052958 0.72385132 0
3.8100002 -0.23668057 0.72385132 0
3.8090003 -0.24277383 0.72375751 0
3.8090003 -0.24892302 0.72375751 0
3.8090003 -0.25507221 0.72375751 0
3.8080003 -0.26115826 0.72366369 0
3.8080003 -0.26730564 0.72366369 0
3.8080003 -0.273453 0.72366369 0
3.8080003 -0.27960038 0.72366369 0
3.8070002 -0.2856774 0.72356987 0
3.8070002 -0.29182297 0.72356987 0
3.8070002 -0.29796854 0.72356987 0
3.8070002 -0.30411413 0.72356987 0
3.8060002 -0.31018215 0.72347605 0
3.8060002 -0.31632593 0.72347605 0
3.8060002 -0.32246968 0.72347605 0
3.8060002 -0.32861346 0.72347605 0
3.8050003 -0.33467245 0.72338229 0
3.8050003 -0.34081441 0.72338229 0
3.8050003 -0.3469564 0.72338229 0
3.8050003 -0.35309836 0.72338229 0
3.8040001 -0.35914832 0.72328848 0
3.8040001 -0.36528847 0.72328848 0
3.8040001 -0.37142864 0.72328848 0
3.8040001 -0.37756881 0.72328848 0
3.8030002 -0.38360977 0.72319472 0
3.8030002 -0.38974813 0.72319472 0
3.8030002 -0.39588648 0.72319472 0
3.8030002 -0.40202484 0.72319472 0
3.8020003 -0.4080568 0.7231009 0
3.8020003 -0.41419333 0.7231009 0
3.8020003 -0.4203299 0.7231009 0
3.8020003 -0.42646646 0.7231009 0
3.8010004 -0.43248937 0.72300714 0
3.8010004 -0.43862414 0.72300714 0
3.8010004 -0.44475889 0.72300714 0
3.8010004 -0.45089364 0.72300714 0
3.8000002 -0.45690751 0.72291327 0
3.8000002 -0.46304047 0.72291327 0
3.8000002 -0.4691734 0.72291327 0
3.8000002 -0.47530633 0.72291327 0
3.7990003 -0.48131123 0.72281957 0
3.7990003 -0.48744237 0.72281957 0
3.7990003 -0.49357355 0.72281957 0
3.7990003 -0.49970469 0.72281957 0
3.7980003 -0.50570053 0.72272575 0
3.7980003 -0.51182985 0.72272575 0
3.7980003 -0.51795924 0.72272575 0
3.7970002 -0.52394783 0.72263193 0
3.7970002 -0.53007537 0.72263193 0
3.7970002 -0.53620291 0.72263193 0
3.7970002 -0.54233044 0.72263193 0
3.7960002 -0.5483101 0.72253811 0
3.7960002 -0.55443579 0.72253811 0
3.7960002 -0.56056154 0.72253811 0
3.7960002 -0.56668729 0.72253811 0
3.7950003 -0.57265794 0.7224443 0
3.7950003 -0.57878184 0.7224443 0
3.7950003 -0.58490574 0.7224443 0
3.7950003 -0.5910297 0.7224443 0
3.7940001 -0.59699124 0.72235048 0
3.7940001 -0.60311335 0.72235048 0
3.7940001 -0.60923553 0.72235048 0
3.8100002 -0.21822761 0.7177003 0
3.8100002 -0.22437859 0.7177003 0
3.8100002 -0.23052958 0.7177003 0
3.8100002 -0.23668057 0.7177003 0
3.8090003 -0.24277383 0.71760833 0
3.8090003 -0.24892302 0.71760833 0
3.8090003 -0.25507221 0.71760833 0
3.8080003 -0.26115826 0.7175163 0
3.8080003 -0.26730564 0.7175163 0
3.8080003 -0.273453 0.7175163 0
3.8080003 -0.27960038 0.7175163 0
3.8070002 -0.2856774 0.71742427 0
3.8070002 -0.29182297 0.71742427 0
3.8070002 -0.29796854 0.71742427 0
3.8070002 -0.30411413 0.71742427 0
3.8060002 -0.31018215 0.71733236 0
3.8060002 -0.31632593 0.71733236 0
3.8060002 -0.32246968 0.71733236 0
3.8060002 -0.32861346 0.71733236 0
3.8050003 -0.33467245 0.71724033 0
3.8050003 -0.34081441 0.71724033 0
3.8050003 -0.3469564 0.71724033 0
3.8050003 -0.35309836 0.71724033 0
3.8040001 -0.35914832 0.7171483 0
3.8040001 -0.36528847 0.7171483 0
3.8040001 -0.37142864 0.7171483 0
3.8040001 -0.37756881 0.7171483 0
3.8030002 -0.38360977 0.71705633 0
3.8030002 -0.38974813 0.71705633 0
3.8030002 -0.39588648 0.71705633 0
3.8030002 -0.40202484 0.71705633 0
3.8020003 -0.4080568 0.71696436 0
3.8020003 -0.41419333 0.71696436 0
3.8020003 -0.4203299 0.71696436 0
3.8020003 -0.42646646 0.71696436 0
3.8010004 -0.43248937 0.71687233 0
3.8010004 -0.43862414 0.71687233 0
3.8010004 -0.44475889 0.71687233 0
3.8010004 -0.45089364 0.71687233 0
3.8000002 -0.45690751 0.71678036 0
3.8000002 -0.46304047 0.71678036 0
3.8000002 -0.4691734 0.71678036 0
3.8000002 -0.47530633 0.71678036 0
3.7990003 -0.48131123 0.71668839 0
3.7990003 -0.48744237 0.71668839 0
3.7990003 -0.49357355 0.71668839 0
3.7990003 -0.49970469 0.71668839 0
3.7980003 -0.50570053 0.71659636 0
3.7980003 -0.51182985 0.71659636 0
3.7980003 -0.51795924 0.71659636 0
3.7970002 -0.52394783 0.7165044 0
3.7970002 -0.53007537 0.7165044 0
3.7970002 -0.53620291 0.7165044 0
3.7970002 -0.54233044 0.7165044 0
3.7960002 -0.5483101 0.71641243 0
3.7960002 -0.55443579 0.71641243 0
3.7960002 -0.56056154 0.71641243 0
3.7960002 -0.56668729 0.71641243 0
3.7950003 -0.57265794 0.7163204 0
3.7950003 -0.57878184 0.7163204 0
3.7950003 -0.58490574 0.7163204 0
3.7950003 -0.5910297 0.7163204 0
3.7940001 -0.59699124 0.71622837 0
3.7940001 -0.60311335 0.71622837 0
3.7940001 -0.60923553 0.71622837 0
3.8100002 -0.21822761 0.71154928 0
3.8100002 -0.22437859 0.71154928 0
3.8100002 -0.23052958 0.71154928 0
3.8100002 -0.23668057 0.71154928 0
3.8090003 -0.24277383 0.71145916 0
3.8090003 -0.24892302 0.71145916 0
3.8090003 -0.25507221 0.71145916 0
3.8080003 -0.26115826 0.71136892 0
3.8080003 -0.26730564 0.71136892 0
3.8080003 -0.273453 0.71136892 0
3.8080003 -0.27960038 0.71136892 0
3.8070002 -0.2856774 0.71127874 0
3.8070002 -0.29182297 0.71127874 0
3.8070002 -0.29796854 0.71127874 0
3.8070002 -0.30411413 0.71127874 0
3.8060002 -0.31018215 0.71118855 0
3.8060002 -0.31632593 0.71118855 0
3.8060002 -0.32246968 0.71118855 0
3.8060002 -0.32861346 0.71118855 0
3.8050003 -0.33467245 0.71109837 0
3.8050003 -0.34081441 0.71109837 0
3.8050003 -0.3469564 0.71109837 0
3.8050003 -0.35309836 0.71109837 0
3.8040001 -0.35914832 0.71100819 0
3.8040001 -0.36528847 0.71100819 0
3.8040001 -0.37142864 0.71100819 0
3.8040001 -0.37756881 0.71100819 0
3.8030002 -0.38360977 0.71091795 0
3.8030002 -0.38974813 0.71091795 0
3.8030002 -0.39588648 0.71091795 0
3.8030002 -0.40202484 0.71091795 0
3.8020003 -0.4080568 0.71082783 0
3.8020003 -0.41419333 0.71082783 0
3.8020003 -0.4203299 0.71082783 0
3.8020003 -0.42646646 0.71082783 0
3.8010004 -0.43248937 0.71073759 0
3.8010004 -0.43862414 0.71073759 0
3.8010004 -0.44475889 0.71073759 0
3.8010004 -0.45089364 0.71073759 0
3.8000002 -0.45690751 0.7106474 0
3.8000002 -0.46304047 0.7106474 0
3.8000002 -0.4691734 0.7106474 0
3.8000002 -0.47530633 0.7106474 0
3.7990003 -0.48131123 0.71055722 0
3.7990003 -0.48744237 0.71055722 0
3.7990003 -0.49357355 0.71055722 0
3.7990003 -0.49970469 0.71055722 0
3.7980003 -0.50570053 0.71046704 0
3.7980003 -0.51182985 0.71046704 0
3.7980003 -0.51795924 0.71046704 0
3.7970002 -0.52394783 0.71037686 0
3.7970002 -0.53007537 0.71037686 0
3.7970002 -0.53620291 0.71037686 0
3.7970002 -0.54233044 0.71037686 0
3.7960002 -0.5483101 0.71028662 0
3.7960002 -0.55443579 0.71028662 0
3.7960002 -0.56056154 0.71028662 0
3.7960002 -0.56668729 0.71028662 0
3.7950003 -0.57265794 0.7101965 0
3.7950003 -0.57878184 0.7101965 0
3.7950003 -0.58490574 0.7101965 0
3.7950003 -0.5910297 0.7101965 0
3.7940001 -0.59699124 0.71010625 0
3.7940001 -0.60311335 0.71010625 0
3.7940001 -0.60923553 0.71010625 0
3.8100002 -0.21822761 0.70539832 0
3.8100002 -0.22437859 0.70539832 0
3.8100002 -0.23052958 0.70539832 0
3.8100002 -0.23668057 0.70539832 0
3.8090003 -0.24277383 0.70530993 0
3.8090003 -0.24892302 0.70530993 0
3.8090003 -0.25507221 0.70530993 0
3.8080003 -0.26115826 0.70522153 0
3.8080003 -0.26730564 0.70522153 0
3.8080003 -0.273453 0.70522153 0
3.8080003 -0.27960038 0.70522153 0
3.8070002 -0.2856774 0.7051332 0
3.8070002 -0.29182297 0.7051332 0
3.8070002 -0.29796854 0.7051332 0
3.8070002 -0.30411413 0.7051332 0
3.8060002 -0.31018215 0.70504481 0
3.8060002 -0.31632593 0.70504481 0
3.8060002 -0.32246968 0.70504481 0
3.8060002 -0.32861346 0.70504481 0
3.8050003 -0.33467245 0.70495641 0
3.8050003 -0.34081441 0.70495641 0
3.8050003 -0.3469564 0.70495641 0
3.8050003 -0.35309836 0.70495641 0
3.8040001 -0.35914832 0.70486802 0
3.8040001 -0.36528847 0.70486802 0
3.8040001 -0.37142864 0.70486802 0
3.8040001 -0.37756881 0.70486802 0
3.8030002 -0.38360977 0.70477962 0
3.8030002 -0.38974813 0.70477962 0
3.8030002 -0.39588648 0.70477962 0
3.8030002 -0.40202484 0.70477962 0
3.8020003 -0.4080568 0.70469129 0
3.8020003 -0.41419333 0.70469129 0
3.8020003 -0.4203299 0.70469129 0
3.8020003 -0.42646646 0.70469129 0
3.8010004 -0.43248937 0.70460284 0
3.8010004 -0.43862414 0.70460284 0
3.8010004 -0.44475889 0.70460284 0
3.8010004 -0.45089364 0.70460284 0
3.8000002 -0.45690751 0.7045145 0
3.8000002 -0.46304047 0.7045145 0
3.8000002 -0.4691734 0.7045145 0
3.8000002 -0.47530633 0.7045145 0
3.7990003 -0.48131123 0.70442605 0
3.7990003 -0.48744237 0.70442605 0
3.7990003 -0.49357355 0.70442605 0
3.7990003 -0.49970469 0.70442605 0
3.7980003 -0.50570053 0.70433772 0
3.7980003 -0.51182985 0.70433772 0
3.7980003 -0.51795924 0.70433772 0
3.7970002 -0.52394783 0.70424926 0
3.7970002 -0.53007537 0.70424926 0
3.7970002 -0.53620291 0.70424926 0
3.7970002 -0.54233044 0.70424926 0
3.7960002 -0.5483101 0.70416093 0
3.7960002 -0.55443579 0.70416093 0
3.7960002 -0.56056154 0.70416093 0
3.7960002 -0.56668729 0.70416093 0
3.7950003 -0.57265794 0.70407254 0
3.7950003 -0.57878184 0.70407254 0
3.7950003 -0.58490574 0.70407254 0
3.7950003 -0.5910297 0.70407254 0
3.7940001 -0.59699124 0.70398414 0
3.7940001 -0.60311335 0.70398414 0
3.7940001 -0.60923553 0.70398414 0
3.8100002 -0.21822761 0.69924736 0
3.8100002 -0.22437859 0.69924736 0
3.8100002 -0.23052958 0.69924736 0
3.8100002 -0.23668057 0.69924736 0
3.8090003 -0.24277383 0.69916075 0
3.8090003 -0.24892302 0.69916075 0
3.8090003 -0.25507221 0.69916075 0
3.8080003 -0.26115826 0.69907415 0
3.8080003 -0.26730564 0.69907415 0
3.8080003 -0.273453 0.69907415 0
3.8080003 -0.27960038 0.69907415 0
3.8070002 -0.2856774 0.6989876 0
3.8070002 -0.29182297 0.6989876 0
3.8070002 -0.29796854 0.6989876 0
3.8070002 -0.30411413 0.6989876 0
3.8060002 -0.31018215 0.698901 0
3.8060002 -0.31632593 0.698901 0
3.8060002 -0.32246968 0.698901 0
3.8060002 -0.32861346 0.698901 0
3.8050003 -0.33467245 0.69881439 0
3.8050003 -0.34081441 0.69881439 0
3.8050003 -0.3469564 0.69881439 0
3.8050003 -0.35309836 0.69881439 0
3.8040001 -0.35914832 0.69872785 0
3.8040001 -0.36528847 0.69872785 0
3.8040001 -0.37142864 0.69872785 0
3.8040001 -0.37756881 0.69872785 0
3.8030002 -0.38360977 0.6986413 0
3.8030002 -0.38974813 0.6986413 0
3.8030002 -0.39588648 0.6986413 0
3.8030002 -0.40202484 0.6986413 0
3.8020003 -0.4080568 0.69855464 0
3.8020003 -0.41419333 0.69855464 0
3.8020003 -0.4203299 0.69855464 0
3.8020003 -0.42646646 0.69855464 0
3.8010004 -0.43248937 0.69846809 0
3.8010004 -0.43862414 0.69846809 0
3.8010004 -0.44475889 0.69846809 0
3.8010004 -0.45089364 0.69846809 0
3.8000002 -0.45690751 0.69838154 0
3.8000002 -0.46304047 0.69838154 0
3.8000002 -0.4691734 0.69838154 0
3.8000002 -0.47530633 0.69838154 0
3.7990003 -0.48131123 0.69829494 0
3.7990003 -0.48744237 0.69829494 0
3.7990003 -0.49357355 0.69829494 0
3.7990003 -0.49970469 0.69829494 0
3.7980003 -0.50570053 0.69820833 0
3.7980003 -0.51182985 0.69820833 0
3.7980003 -0.51795924 0.69820833 0
3.7970002 -0.52394783 0.69812179 0
3.7970002 -0.53007537 0.69812179 0
3.7970002 -0.53620291 0.69812179 0
3.7970002 -0.54233044 0.69812179 0
3.7960002 -0.5483101 0.69803518 0
3.7960002 -0.55443579 0.69803518 0
3.7960002 -0.56056154 0.69803518 0
3.7960002 -0.56668729 0.69803518 0
3.7950003 -0.57265794 0.69794858 0
3.7950003 -0.57878184 0.69794858 0
3.7950003 -0.58490574 0.69794858 0
3.7950003 -0.5910297 0.69794858 0
3.7940001 -0.59699124 0.69786203 0
3.7940001 -0.60311335 0.69786203 0
3.7940001 -0.60923553 0.69786203 0
3.8100002 -0.21822761 0.69309634 0
3.8100002 -0.22437859 0.69309634 0
3.8100002 -0.23052958 0.69309634 0
3.8100002 -0.23668057 0.69309634 0
3.8090003 -0.24277383 0.69301158 0
3.8090003 -0.24892302 0.69301158 0
3.8090003 -0.25507221 0.69301158 0
3.8080003 -0.26115826 0.69292676 0
3.8080003 -0.26730564 0.69292676 0
3.8080003 -0.273453 0.69292676 0
3.8080003 -0.27960038 0.69292676 0
3.8070002 -0.2856774 0.69284201 0
3.8070002 -0.29182297 0.69284201 0
3.8070002 -0.29796854 0.69284201 0
3.8070002 -0.30411413 0.69284201 0
3.8060002 -0.31018215 0.69275725 0
3.8060002 -0.31632593 0.69275725 0
3.8060002 -0.32246968 0.69275725 0
3.8060002 -0.32861346 0.69275725 0
3.8050003 -0.33467245 0.69267249 0
3.8050003 -0.34081441 0.69267249 0
3.8050003 -0.3469564 0.69267249 0
3.8050003 -0.35309836 0.69267249 0
3.8040001 -0.35914832 0.69258767 0
3.8040001 -0.36528847 0.69258767 0
3.8040001 -0.37142864 0.69258767 0
3.8040001 -0.37756881 0.69258767 0
3.8030002 -0.38360977 0.69250292 0
3.8030002 -0.38974813 0.69250292 0
3.8030002 -0.39588648 0.69250292 0
3.8030002 -0.40202484 0.69250292 0
3.8020003 -0.4080568 0.6924181 0
3.8020003 -0.41419333 0.6924181 0
3.8020003 -0.4203299 0.6924181 0
3.8020003 -0.42646646 0.6924181 0
3.8010004 -0.43248937 0.69233334 0
3.8010004 -0.43862414 0.69233334 0
3.8010004 -0.44475889 0.69233334 0
3.8010004 -0.45089364 0.69233334 0
3.8000002 -0.45690751 0.69224858 0
3.8000002 -0.46304047 0.69224858 0
3.8000002 -0.4691734 0.69224858 0
3.8000002 -0.47530633 0.69224858 0
3.7990003 -0.48131123 0.69216383 0
3.7990003 -0.48744237 0.69216383 0
3.7990003 -0.49357355 0.69216383 0
3.7990003 -0.49970469 0.69216383 0
3.7980003 -0.50570053 0.69207901 0
3.7980003 -0.51182985 0.69207901 0
3.7980003 -0.51795924 0.69207901 0
3.7970002 -0.52394783 0.69199419 0
3.7970002 -0.53007537 0.69199419 0
3.7970002 -0.53620291 0.69199419 0
3.7970002 -0.54233044 0.69199419 0
3.7960002 -0.5483101 0.69190943 0
3.7960002 -0.55443579 0.69190943 0
3.7960002 -0.56056154 0.69190943 0
3.7960002 -0.56668729 0.69190943 0
3.7950003 -0.57265794 0.69182467 0
3.7950003 -0.57878184 0.69182467 0
3.7950003 -0.58490574 0.69182467 0
3.7950003 -0.5910297 0.69182467 0
3.7940001 -0.59699124 0.69173992 0
3.7940001 -0.60311335 0.69173992 0
3.7940001 -0.60923553 0.69173992 0
3.8100002 -0.21822761 0.68694532 0
3.8100002 -0.22437859 0.68694532 0
3.8100002 -0.23052958 0.68694532 0
3.8100002 -0.23668057 0.68694532 0
3.8090003 -0.24277383 0.68686241 0
3.8090003 -0.24892302 0.68686241 0
3.8090003 -0.25507221 0.68686241 0
3.8090003 -0.26122138 0.68686241 0
3.8080003 -0.26730564 0.68677938 0
3.8080003 -0.273453 0.68677938 0
3.8080003 -0.27960038 0.68677938 0
3.8070002 -0.2856774 0.68669641 0
3.8070002 -0.29182297 0.68669641 0
3.8070002 -0.29796854 0.68669641 0
3.8070002 -0.30411413 0.68669641 0
3.8060002 -0.31018215 0.68661344 0
3.8060002 -0.31632593 0.68661344 0
3.8060002 -0.32246968 0.68661344 0
3.8060002 -0.32861346 0.68661344 0
3.8050003 -0.33467245 0.68653047 0
3.8050003 -0.34081441 0.68653047 0
3.8050003 -0.3469564 0.68653047 0
3.8050003 -0.35309836 0.68653047 0
3.8040001 -0.35914832 0.6864475 0
3.8040001 -0.36528847 0.6864475 0
3.8040001 -0.37142864 0.6864475 0
3.8040001 -0.37756881 0.6864475 0
3.8030002 -0.38360977 0.68636453 0
3.8030002 -0.38974813 0.68636453 0
3.8030002 -0.39588648 0.68636453 0
3.8030002 -0.40202484 0.68636453 0
3.8020003 -0.4080568 0.68628156 0
3.8020003 -0.41419333 0.68628156 0
3.8020003 -0.4203299 0.68628156 0
3.8020003 -0.42646646 0.68628156 0
3.8010004 -0.43248937 0.68619859 0
3.8010004 -0.43862414 0.68619859 0
3.8010004 -0.44475889 0.68619859 0
3.8010004 -0.45089364 0.68619859 0
3.8000002 -0.45690751 0.68611562 0
3.8000002 -0.46304047 0.68611562 0
3.8000002 -0.4691734 0.68611562 0
3.8000002 -0.47530633 0.68611562 0
3.7990003 -0.48131123 0.68603265 0
3.7990003 -0.48744237 0.68603265 0
3.7990003 -0.49357355 0.68603265 0
3.7990003 -0.49970469 0.68603265 0
3.7980003 -0.50570053 0.68594968 0
3.7980003 -0.51182985 0.68594968 0
3.7980003 -0.51795924 0.68594968 0
3.7970002 -0.52394783 0.68586671 0
3.7970002 -0.53007537 0.68586671 0
3.7970002 -0.53620291 0.68586671 0
3.7970002 -0.54233044 0.68586671 0
3.7960002 -0.5483101 0.68578374 0
3.7960002 -0.55443579 0.68578374 0
3.7960002 -0.56056154 0.68578374 0
3.7960002 -0.56668729 0.68578374 0
3.7950003 -0.57265794 0.68570077 0
3.7950003 -0.57878184 0.68570077 0
3.7950003 -0.58490574 0.68570077 0
3.7950003 -0.5910297 0.68570077 0
3.7940001 -0.59699124 0.6856178 0
3.7940001 -0.60311335 0.6856178 0
3.7940001 -0.60923553 0.6856178 0
3.8100002 -0.21822761 0.68079436 0
3.8100002 -0.22437859 0.68079436 0
3.8100002 -0.23052958 0.68079436 0
3.8100002 -0.23668057 0.68079436 0
3.8090003 -0.24277383 0.68071324 0
3.8090003 -0.24892302 0.68071324 0
3.8090003 -0.25507221 0.68071324 0
3.8090003 -0.26122138 0.68071324 0
3.8080003 -0.26730564 0.68063205 0
3.8080003 -0.273453 0.68063205 0
3.8080003 -0.27960038 0.68063205 0
3.8070002 -0.2856774 0.68055087 0
3.8070002 -0.29182297 0.68055087 0
3.8070002 -0.29796854 0.68055087 0
3.8070002 -0.30411413 0.68055087 0
3.8060002 -0.31018215 0.68046969 0
3.8060002 -0.31632593 0.68046969 0
3.8060002 -0.32246968 0.68046969 0
3.8060002 -0.32861346 0.68046969 0
3.8050003 -0.33467245 0.68038857 0
3.8050003 -0.34081441 0.68038857 0
3.8050003 -0.3469564 0.68038857 0
3.8050003 -0.35309836 0.68038857 0
3.8040001 -0.35914832 0.68030739 0
3.8040001 -0.36528847 0.68030739 0
3.8040001 -0.37142864 0.68030739 0
3.8040001 -0.37756881 0.68030739 0
3.8030002 -0.38360977 0.68022621 0
3.8030002 -0.38974813 0.68022621 0
3.8030002 -0.39588648 0.68022621 0
3.8030002 -0.40202484 0.68022621 0
3.8020003 -0.4080568 0.68014503 0
3.8020003 -0.41419333 0.68014503 0
3.8020003 -0.4203299 0.68014503 0
3.8020003 -0.42646646 0.68014503 0
3.8010004 -0.43248937 0.68006384 0
3.8010004 -0.43862414 0.68006384 0
3.8010004 -0.44475889 0.68006384 0
3.8010004 -0.45089364 0.68006384 0
3.8000002 -0.45690751 0.67998266 0
3.8000002 -0.46304047 0.67998266 0
3.8000002 -0.4691734 0.67998266 0
3.8000002 -0.47530633 0.67998266 0
3.7990003 -0.48131123 0.67990148 0
3.7990003 -0.48744237 0.67990148 0
3.7990003 -0.49357355 0.67990148 0
3.7990003 -0.49970469 0.67990148 0
3.7980003 -0.50570053 0.6798203 0
3.7980003 -0.51182985 0.6798203 0
3.7980003 -0.51795924 0.6798203 0
3.7970002 -0.52394783 0.67973912 0
3.7970002 -0.53007537 0.67973912 0
3.7970002 -0.53620291 0.67973912 0
3.7970002 -0.54233044 0.67973912 0
3.7960002 -0.5483101 0.679658 0
3.7960002 -0.55443579 0.679658 0
3.7960002 -0.56056154 0.679658 0
3.7960002 -0.56668729 0.679658 0
3.7950003 -0.57265794 0.67957681 0
3.7950003 -0.57878184 0.67957681 0
3.7950003 -0.58490574 0.67957681 0
3.7950003 -0.5910297 0.67957681 0
3.7940001 -0.59699124 0.67949563 0
3.7940001 -0.60311335 0.67949563 0
3.7940001 -0.60923553 0.67949563 0
3.8100002 -0.21822761 0.6746434 0
3.8100002 -0.22437859 0.6746434 0
3.8100002 -0.23052958 0.6746434 0
3.8100002 -0.23668057 0.6746434 0
3.8090003 -0.24277383 0.674564 0
3.8090003 -0.24892302 0.674564 0
3.8090003 -0.25507221 0.674564 0
3.8090003 -0.26122138 0.674564 0
3.8080003 -0.26730564 0.67448467 0
3.8080003 -0.273453 0.67448467 0
3.8080003 -0.27960038 0.67448467 0
3.8070002 -0.2856774 0.67440534 0
3.8070002 -0.29182297 0.67440534 0
3.8070002 -0.29796854 0.67440534 0
3.8070002 -0.30411413 0.67440534 0
3.8060002 -0.31018215 0.67432594 0
3.8060002 -0.31632593 0.67432594 0
3.8060002 -0.32246968 0.67432594 0
3.8060002 -0.32861346 0.67432594 0
3.8050003 -0.33467245 0.67424655 0
3.8050003 -0.34081441 0.67424655 0
3.8050003 -0.3469564 0.67424655 0
3.8050003 -0.35309836 0.67424655 0
3.8040001 -0.35914832 0.67416716 0
3.8040001 -0.36528847 0.67416716 0
3.8040001 -0.37142864 0.67416716 0
3.8040001 -0.37756881 0.67416716 0
3.8030002 -0.38360977 0.67408782 0
3.8030002 -0.38974813 0.67408782 0
3.8030002 -0.39588648 0.67408782 0
3.8030002 -0.40202484 0.67408782 0
3.8020003 -0.4080568 0.67400849 0
3.8020003 -0.41419333 0.67400849 0
3.8020003 -0.4203299 0.67400849 0
3.8020003 -0.42646646 0.67400849 0
3.8010004 -0.43248937 0.6739291 0
3.8010004 -0.43862414 0.6739291 0
3.8010004 -0.44475889 0.6739291 0
3.8010004 -0.45089364 0.6739291 0
3.8000002 -0.45690751 0.6738497 0
3.8000002 -0.46304047 0.6738497 0
3.8000002 -0.4691734 0.6738497 0
3.8000002 -0.47530633 0.6738497 0
3.7990003 -0.48131123 0.67377031 0
3.7990003 -0.48744237 0.67377031 0
3.7990003 -0.49357355 0.67377031 0
3.7990003 -0.49970469 0.67377031 0
3.7980003 -0.50570053 0.67369103 0
3.7980003 -0.51182985 0.67369103 0
3.7980003 -0.51795924 0.67369103 0
3.7970002 -0.52394783 0.67361164 0
3.7970002 -0.53007537 0.67361164 0
3.7970002 -0.53620291 0.67361164 0
3.7970002 -0.54233044 0.67361164 0
3.7960002 -0.5483101 0.67353225 0
3.7960002 -0.55443579 0.67353225 0
3.7960002 -0.56056154 0.67353225 0
3.7960002 -0.56668729 0.67353225 0
3.7950003 -0.57265794 0.67345285 0
3.7950003 -0.57878184 0.67345285 0
3.7950003 -0.58490574 0.67345285 0
3.7950003 -0.5910297 0.67345285 0
3.7940001 -0.59699124 0.67337346 0
3.7940001 -0.60311335 0.67337346 0
3.7940001 -0.60923553 0.67337346 0
3.8100002 -0.21822761 0.66849244 0
3.8100002 -0.22437859 0.66849244 0
3.8100002 -0.23052958 0.66849244 0
3.8100002 -0.23668057 0.66849244 0
3.8090003 -0.24277383 0.66841483 0
3.8090003 -0.24892302 0.66841483 0
3.8090003 -0.25507221 0.66841483 0
3.8090003 -0.26122138 0.66841483 0
3.8080003 -0.26730564 0.66833729 0
3.8080003 -0.273453 0.66833729 0
3.8080003 -0.27960038 0.66833729 0
3.8070002 -0.2856774 0.66825974 0
3.8070002 -0.29182297 0.66825974 0
3.8070002 -0.29796854 0.66825974 0
3.8070002 -0.30411413 0.66825974 0
3.8060002 -0.31018215 0.66818213 0
3.8060002 -0.31632593 0.66818213 0
3.8060002 -0.32246968 0.66818213 0
3.8060002 -0.32861346 0.66818213 0
3.8050003 -0.33467245 0.66810459 0
3.8050003 -0.34081441 0.66810459 0
3.8050003 -0.3469564 0.66810459 0
3.8050003 -0.35309836 0.66810459 0
3.8040001 -0.35914832 0.66802704 0
3.8040001 -0.36528847 0.66802704 0
3.8040001 -0.37142864 0.66802704 0
3.8040001 -0.37756881 0.66802704 0
3.8030002 -0.38360977 0.66794944 0
3.8030002 -0.38974813 0.66794944 0
3.8030002 -0.39588648 0.66794944 0
3.8030002 -0.40202484 0.66794944 0
3.8020003 -0.4080568 0.66787195 0
3.8020003 -0.41419333 0.66787195 0
3.8020003 -0.4203299 0.66787195 0
3.8020003 -0.42646646 0.66787195 0
3.8010004 -0.43248937 0.66779435 0
3.8010004 -0.43862414 0.66779435 0
3.8010004 -0.44475889 0.66779435 0
3.8010004 -0.45089364 0.66779435 0
3.8000002 -0.45690751 0.66771674 0
3.8000002 -0.46304047 0.66771674 0
3.8000002 -0.4691734 0.66771674 0
3.8000002 -0.47530633 0.66771674 0
3.7990003 -0.48131123 0.66763926 0
3.7990003 -0.48744237 0.66763926 0
3.7990003 -0.49357355 0.66763926 0
3.7990003 -0.49970469 0.66763926 0
3.7980003 -0.50570053 0.66756165 0
3.7980003 -0.51182985 0.66756165 0
3.7980003 -0.51795924 0.66756165 0
3.7970002 -0.52394783 0.66748405 0
3.7970002 -0.53007537 0.66748405 0
3.7970002 -0.53620291 0.66748405 0
3.7970002 -0.54233044 0.66748405 0
3.7960002 -0.5483101 0.6674065 0
3.7960002 -0.55443579 0.6674065 0
3.7960002 -0.56056154 0.6674065 0
3.7960002 -0.56668729 0.6674065 0
3.7950003 -0.57265794 0.66732895 0
3.7950003 -0.57878184 0.66732895 0
3.7950003 -0.58490574 0.66732895 0
3.7950003 -0.5910297 0.66732895 0
3.7940001 -0.59699124 0.66725135 0
3.7940001 -0.60311335 0.66725135 0
3.7940001 -0.60923553 0.66725135 0
3.8100002 -0.21822761 0.66234142 0
3.8100002 -0.22437859 0.66234142 0
3.8100002 -0.23052958 0.66234142 0
3.8100002 -0.23668057 0.66234142 0
3.8090003 -0.24277383 0.66226566 0
3.8090003 -0.24892302 0.66226566 0
3.8090003 -0.25507221 0.66226566 0
3.8090003 -0.26122138 0.66226566 0
3.8080003 -0.26730564 0.66218996 0
3.8080003 -0.273453 0.66218996 0
3.8080003 -0.27960038 0.66218996 0
3.8070002 -0.2856774 0.66211414 0
3.8070002 -0.29182297 0.66211414 0
3.8070002 -0.29796854 0.66211414 0
3.8070002 -0.30411413 0.66211414 0
3.8060002 -0.31018215 0.66203839 0
3.8060002 -0.31632593 0.66203839 0
3.8060002 -0.32246968 0.66203839 0
3.8060002 -0.32861346 0.66203839 0
3.8050003 -0.33467245 0.66196263 0
3.8050003 -0.34081441 0.66196263 0
3.8050003 -0.3469564 0.66196263 0
3.8050003 -0.35309836 0.66196263 0
3.8040001 -0.35914832 0.66188687 0
3.8040001 -0.36528847 0.66188687 0
3.8040001 -0.37142864 0.66188687 0
3.8040001 -0.37756881 0.66188687 0
3.8030002 -0.38360977 0.66181111 0
3.8030002 -0.38974813 0.66181111 0
3.8030002 -0.39588648 0.66181111 0
3.8030002 -0.40202484 0.66181111 0
3.8020003 -0.4080568 0.66173536 0
3.8020003 -0.41419333 0.66173536 0
3.8020003 -0.4203299 0.66173536 0
3.8020003 -0.42646646 0.66173536 0
3.8010004 -0.43248937 0.6616596 0
3.8010004 -0.43862414 0.6616596 0
3.8010004 -0.44475889 0.6616596 0
3.8010004 -0.45089364 0.6616596 0
3.8000002 -0.45690751 0.66158378 0
3.8000002 -0.46304047 0.66158378 0
3.8000002 -0.4691734 0.66158378 0
3.8000002 -0.47530633 0.66158378 0
3.7990003 -0.48131123 0.66150808 0
3.7990003 -0.48744237 0.66150808 0
3.7990003 -0.49357355 0.66150808 0
3.7990003 -0.49970469 0.66150808 0
3.7980003 -0.50570053 0.66143227 0
3.7980003 -0.51182985 0.66143227 0
3.7980003 -0.51795924 0.66143227 0
3.7970002 -0.52394783 0.66135657 0
3.7970002 -0.53007537 0.66135657 0
3.7970002 -0.53620291 0.66135657 0
3.7970002 -0.54233044 0.66135657 0
3.7960002 -0.5483101 0.66128075 0
3.7960002 -0.55443579 0.66128075 0
3.7960002 -0.56056154 0.66128075 0
3.7960002 -0.56668729 0.66128075 0
3.7950003 -0.57265794 0.66120505 0
3.7950003 -0.57878184 0.66120505 0
3.7950003 -0.58490574 0.66120505 0
3.7950003 -0.5910297 0.66120505 0
3.7940001 -0.59699124 0.66112924 0
3.7940001 -0.60311335 0.66112924 0
3.7940001 -0.60923553 0.66112924 0
3.8100002 -0.21822761 0.6561904 0
3.8100002 -0.22437859 0.6561904 0
3.8100002 -0.23052958 0.6561904 0
3.8100002 -0.23668057 0.6561904 0
3.8090003 -0.24277383 0.65611649 0
3.8090003 -0.24892302 0.65611649 0
3.8090003 -0.25507221 0.65611649 0
3.8090003 -0.26122138 0.65611649 0
3.8080003 -0.26730564 0.65604258 0
3.8080003 -0.273453 0.65604258 0
3.8080003 -0.27960038 0.65604258 0
3.8070002 -0.2856774 0.65596855 0
3.8070002 -0.29182297 0.65596855 0
3.8070002 -0.29796854 0.65596855 0
3.8070002 -0.30411413 0.65596855 0
3.8060002 -0.31018215 0.65589464 0
3.8060002 -0.31632593 0.65589464 0
3.8060002 -0.32246968 0.65589464 0
3.8060002 -0.32861346 0.65589464 0
3.8050003 -0.33467245 0.65582067 0
3.8050003 -0.34081441 0.65582067 0
3.8050003 -0.3469564 0.65582067 0
3.8050003 -0.35309836 0.65582067 0
3.8040001 -0.35914832 0.6557467 0
3.8040001 -0.36528847 0.6557467 0
3.8040001 -0.37142864 0.6557467 0
3.8040001 -0.37756881 0.6557467 0
3.8030002 -0.38360977 0.65567279 0
3.8030002 -0.38974813 0.65567279 0
3.8030002 -0.39588648 0.65567279 0
3.8030002 -0.40202484 0.65567279 0
3.8020003 -0.4080568 0.65559876 0
3.8020003 -0.41419333 0.65559876 0
3.8020003 -0.4203299 0.65559876 0
3.8020003 -0.42646646 0.65559876 0
3.8010004 -0.43248937 0.65552485 0
3.8010004 -0.43862414 0.65552485 0
3.8010004 -0.44475889 0.65552485 0
3.8010004 -0.45089364 0.65552485 0
3.8000002 -0.45690751 0.65545088 0
3.8000002 -0.46304047 0.65545088 0
3.8000002 -0.4691734 0.65545088 0
3.8000002 -0.47530633 0.65545088 0
3.7990003 -0.48131123 0.65537691 0
3.7990003 -0.48744237 0.65537691 0
3.7990003 -0.49357355 0.65537691 0
3.7990003 -0.49970469 0.65537691 0
3.7980003 -0.50570053 0.655303 0
3.7980003 -0.51182985 0.655303 0
3.7980003 -0.51795924 0.655303 0
3.7970002 -0.52394783 0.65522897 0
3.7970002 -0.53007537 0.65522897 0
3.7970002 -0.53620291 0.65522897 0
3.7970002 -0.54233044 0.65522897 0
3.7960002 -0.5483101 0.65515506 0
3.7960002 -0.55443579 0.65515506 0
3.7960002 -0.56056154 0.65515506 0
3.7960002 -0.56668729 0.65515506 0
3.7950003 -0.57265794 0.65508109 0
3.7950003 -0.57878184 0.65508109 0
3.7950003 -0.58490574 0.65508109 0
3.7950003 -0.5910297 0.65508109 0
3.7940001 -0.59699124 0.65500712 0
3.7940001 -0.60311335 0.65500712 0
3.7940001 -0.60923553 0.65500712 0
3.8100002 -0.21822761 0.65003943 0
3.8100002 -0.22437859 0.65003943 0
3.8100002 -0.23052958 0.65003943 0
3.8100002 -0.23668057 0.65003943 0
3.8090003 -0.24277383 0.64996731 0
3.8090003 -0.24892302 0.64996731 0
3.8090003 -0.25507221 0.64996731 0
3.8090003 -0.26122138 0.64996731 0
3.8080003 -0.26730564 0.64989513 0
3.8080003 -0.273453 0.64989513 0
3.8080003 -0.27960038 0.64989513 0
3.8070002 -0.2856774 0.64982295 0
3.8070002 -0.29182297 0.64982295 0
3.8070002 -0.29796854 0.64982295 0
3.8070002 -0.30411413 0.64982295 0
3.8060002 -0.31018215 0.64975083 0
3.8060002 -0.31632593 0.64975083 0
3.8060002 -0.32246968 0.64975083 0
3.8060002 -0.32861346 0.64975083 0
3.8050003 -0.33467245 0.64967871 0
3.8050003 -0.34081441 0.64967871 0
3.8050003 -0.3469564 0.64967871 0
3.8050003 -0.35309836 0.64967871 0
3.8040001 -0.35914832 0.64960653 0
3.8040001 -0.36528847 0.64960653 0
3.8040001 -0.37142864 0.64960653 0
3.8040001 -0.37756881 0.64960653 0
3.8030002 -0.38360977 0.6495344 0
3.8030002 -0.38974813 0.6495344 0
3.8030002 -0.39588648 0.6495344 0
3.8030002 -0.40202484 0.6495344 0
3.8020003 -0.4080568 0.64946222 0
3.8020003 -0.41419333 0.64946222 0
3.8020003 -0.4203299 0.64946222 0
3.8020003 -0.42646646 0.64946222 0
3.8010004 -0.43248937 0.6493901 0
3.8010004 -0.43862414 0.6493901 0
3.8010004 -0.44475889 0.6493901 0
3.8010004 -0.45089364 0.6493901 0
3.8000002 -0.45690751 0.64931792 0
3.8000002 -0.46304047 0.64931792 0
3.8000002 -0.4691734 0.64931792 0
3.8000002 -0.47530633 0.64931792 0
3.7990003 -0.48131123 0.6492458 0
3.7990003 -0.48744237 0.6492458 0
3.7990003 -0.49357355 0.6492458 0
3.7990003 -0.49970469 0.6492458 0
3.7980003 -0.50570053 0.64917362 0
3.7980003 -0.51182985 0.64917362 0
3.7980003 -0.51795924 0.64917362 0
3.7970002 -0.52394783 0.6491015 0
3.7970002 -0.53007537 0.6491015 0
3.7970002 -0.53620291 0.6491015 0
3.7970002 -0.54233044 0.6491015 0
3.7960002 -0.5483101 0.64902931 0
3.7960002 -0.55443579 0.64902931 0
3.7960002 -0.56056154 0.64902931 0
3.7960002 -0.56668729 0.64902931 0
3.7950003 -0.57265794 0.64895713 0
3.7950003 -0.57878184 0.64895713 0
3.7950003 -0.58490574 0.64895713 0
3.7950003 -0.5910297 0.64895713 0
3.7940001 -0.59699124 0.64888501 0
3.7940001 -0.60311335 0.64888501 0
3.7940001 -0.60923553 0.64888501 0
3.8100002 -0.21822761 0.64388847 0
3.8100002 -0.22437859 0.64388847 0
3.8100002 -0.23052958 0.64388847 0
3.8100002 -0.23668057 0.64388847 0
3.8090003 -0.24277383 0.64381814 0
3.8090003 -0.24892302 0.64381814 0
3.8090003 -0.25507221 0.64381814 0
3.8090003 -0.26122138 0.64381814 0
3.8080003 -0.26730564 0.64374775 0
3.8080003 -0.273453 0.64374775 0
3.8080003 -0.27960038 0.64374775 0
3.8070002 -0.2856774 0.64367741 0
3.8070002 -0.29182297 0.64367741 0
3.8070002 -0.29796854 0.64367741 0
3.8070002 -0.30411413 0.64367741 0
3.8060002 -0.31018215 0.64360708 0
3.8060002 -0.31632593 0.64360708 0
3.8060002 -0.32246968 0.64360708 0
3.8060002 -0.32861346 0.64360708 0
3.8050003 -0.33467245 0.64353675 0
3.8050003 -0.34081441 0.64353675 0
3.8050003 -0.3469564 0.64353675 0
3.8050003 -0.35309836 0.64353675 0
3.8040001 -0.35914832 0.64346635 0
3.8040001 -0.36528847 0.64346635 0
3.8040001 -0.37142864 0.64346635 0
3.8040001 -0.37756881 0.64346635 0
3.8030002 -0.38360977 0.64339602 0
3.8030002 -0.38974813 0.64339602 0
3.8030002 -0.39588648 0.64339602 0
3.8030002 -0.40202484 0.64339602 0
3.8020003 -0.4080568 0.64332569 0
3.8020003 -0.41419333 0.64332569 0
3.8020003 -0.4203299 0.64332569 0
3.8020003 -0.42646646 0.64332569 0
3.8010004 -0.43248937 0.64325535 0
3.8010004 -0.43862414 0.64325535 0
3.8010004 -0.44475889 0.64325535 0
3.8010004 -0.45089364 0.64325535 0
3.8000002 -0.45690751 0.64318502 0
3.8000002 -0.46304047 0.64318502 0
3.8000002 -0.4691734 0.64318502 0
3.8000002 -0.47530633 0.64318502 0
3.7990003 -0.48131123 0.64311463 0
3.7990003 -0.48744237 0.64311463 0
3.7990003 -0.49357355 0.64311463 0
3.7990003 -0.49970469 0.64311463 0
3.7980003 -0.50570053 0.64304429 0
3.7980003 -0.51182985 0.64304429 0
3.7980003 -0.51795924 0.64304429 0
3.7970002 -0.52394783 0.6429739 0
3.7970002 -0.53007537 0.6429739 0
3.7970002 -0.53620291 0.6429739 0
3.7970002 -0.54233044 0.6429739 0
3.7960002 -0.5483101 0.64290357 0
3.7960002 -0.55443579 0.64290357 0
3.7960002 -0.56056154 0.64290357 0
3.7960002 -0.56668729 0.64290357 0
3.7950003 -0.57265794 0.64283323 0
3.7950003 -0.57878184 0.64283323 0
3.7950003 -0.58490574 0.64283323 0
3.7950003 -0.5910297 0.64283323 0
3.7940001 -0.59699124 0.6427629 0
3.7940001 -0.60311335 0.6427629 0
3.7940001 -0.60923553 0.6427629 0
3.8100002 -0.21822761 0.63773751 0
3.8100002 -0.22437859 0.63773751 0
3.8100002 -0.23052958 0.63773751 0
3.8100002 -0.23668057 0.63773751 0
3.8090003 -0.24277383 0.63766897 0
3.8090003 -0.24892302 0.63766897 0
3.8090003 -0.25507221 0.63766897 0
3.8090003 -0.26122138 0.63766897 0
3.8080003 -0.26730564 0.63760042 0
3.8080003 -0.273453 0.63760042 0
3.8080003 -0.27960038 0.63760042 0
3.8070002 -0.2856774 0.63753188 0
3.8070002 -0.29182297 0.63753188 0
3.8070002 -0.29796854 0.63753188 0
3.8070002 -0.30411413 0.63753188 0
3.8060002 -0.31018215 0.63746333 0
3.8060002 -0.31632593 0.63746333 0
3.8060002 -0.32246968 0.63746333 0
3.8060002 -0.32861346 0.63746333 0
3.8050003 -0.33467245 0.63739479 0
3.8050003 -0.34081441 0.63739479 0
3.8050003 -0.3469564 0.63739479 0
3.8050003 -0.35309836 0.63739479 0
3.8040001 -0.35914832 0.63732624 0
3.8040001 -0.36528847 0.63732624 0
3.8040001 -0.37142864 0.63732624 0
3.8040001 -0.37756881 0.63732624 0
3.8030002 -0.38360977 0.6372577 0
3.8030002 -0.38974813 0.6372577 0
3.8030002 -0.39588648 0.6372577 0
3.8030002 -0.40202484 0.6372577 0
3.8020003 -0.4080568 0.63718915 0
3.8020003 -0.41419333 0.63718915 0
3.8020003 -0.4203299 0.63718915 0
3.8020003 -0.42646646 0.63718915 0
3.8010004 -0.43248937 0.6371206 0
3.8010004 -0.43862414 0.6371206 0
3.8010004 -0.44475889 0.6371206 0
3.8010004 -0.45089364 0.6371206 0
3.8000002 -0.45690751 0.637052 0
3.8000002 -0.46304047 0.637052 0
3.8000002 -0.4691734 0.637052 0
3.8000002 -0.47530633 0.637052 0
3.7990003 -0.48131123 0.63698351 0
3.7990003 -0.48744237 0.63698351 0
3.7990003 -0.49357355 0.63698351 0
3.7990003 -0.49970469 0.63698351 0
3.7980003 -0.50570053 0.63691497 0
3.7980003 -0.51182985 0.63691497 0
3.7980003 -0.51795924 0.63691497 0
3.7970002 -0.52394783 0.63684642 0
3.7970002 -0.53007537 0.63684642 0
3.7970002 -0.53620291 0.63684642 0
3.7970002 -0.54233044 0.63684642 0
3.7960002 -0.5483101 0.63677788 0
3.7960002 -0.55443579 0.63677788 0
3.7960002 -0.56056154 0.63677788 0
3.7960002 -0.56668729 0.63677788 0
3.7950003 -0.57265794 0.63670933 0
3.7950003 -0.57878184 0.63670933 0
3.7950003 -0.58490574 0.63670933 0
3.7950003 -0.5910297 0.63670933 0
3.7940001 -0.59699124 0.63664079 0
3.7940001 -0.60311335 0.63664079 0
3.7940001 -0.60923553 0.63664079 0
3.8100002 -0.21822761 0.63158649 0
3.8100002 -0.22437859 0.63158649 0
3.8100002 -0.23052958 0.63158649 0
3.8100002 -0.23668057 0.63158649 0
3.8090003 -0.24277383 0.63151973 0
3.8090003 -0.24892302 0.63151973 0
3.8090003 -0.25507221 0.63151973 0
3.8090003 -0.26122138 0.63151973 0
3.8080003 -0.26730564 0.63145304 0
3.8080003 -0.273453 0.63145304 0
3.8080003 -0.27960038 0.63145304 0
3.8070002 -0.2856774 0.63138628 0
3.8070002 -0.29182297 0.63138628 0
3.8070002 -0.29796854 0.63138628 0
3.8070002 -0.30411413 0.63138628 0
3.8060002 -0.31018215 0.63131952 0
3.8060002 -0.31632593 0.63131952 0
3.8060002 -0.32246968 0.63131952 0
3.8060002 -0.32861346 0.63131952 0
3.8050003 -0.33467245 0.63125277 0
3.8050003 -0.34081441 0.63125277 0
3.8050003 -0.3469564 0.63125277 0
3.8050003 -0.35309836 0.63125277 0
3.8040001 -0.35914832 0.63118601 0
3.8040001 -0.36528847 0.63118601 0
3.8040001 -0.37142864 0.63118601 0
3.8040001 -0.37756881 0.63118601 0
3.8030002 -0.38360977 0.63111931 0
3.8030002 -0.38974813 0.63111931 0
3.8030002 -0.39588648 0.63111931 0
3.8030002 -0.40202484 0.63111931 0
3.8020003 -0.4080568 0.63105255 0
3.8020003 -0.41419333 0.63105255 0
3.8020003 -0.4203299 0.63105255 0
3.8020003 -0.42646646 0.63105255 0
3.8010004 -0.43248937 0.63098586 0
3.8010004 -0.43862414 0.63098586 0
3.8010004 -0.44475889 0.63098586 0
3.8010004 -0.45089364 0.63098586 0
3.8000002 -0.45690751 0.6309191 0
3.8000002 -0.46304047 0.6309191 0
3.8000002 -0.4691734 0.6309191 0
3.8000002 -0.47530633 0.6309191 0
3.7990003 -0.48131123 0.63085234 0
3.7990003 -0.48744237 0.63085234 0
3.7990003 -0.49357355 0.63085234 0
3.7990003 -0.49970469 0.63085234 0
3.7980003 -0.50570053 0.63078558 0
3.7980003 -0.51182985 0.63078558 0
3.7980003 -0.51795924 0.63078558 0
3.7970002 -0.52394783 0.63071883 0
3.7970002 -0.53007537 0.63071883 0
3.7970002 -0.53620291 0.63071883 0
3.7970002 -0.54233044 0.63071883 0
3.7960002 -0.5483101 0.63065213 0
3.7960002 -0.55443579 0.63065213 0
3.7960002 -0.56056154 0.63065213 0
3.7960002 -0.56668729 0.63065213 0
3.7950003 -0.57265794 0.63058537 0
3.7950003 -0.57878184 0.63058537 0
3.7950003 -0.58490574 0.63058537 0
3.7950003 -0.5910297 0.63058537 0
3.7940001 -0.59699124 0.63051867 0
3.7940001 -0.60311335 0.63051867 0
3.7940001 -0.60923553 0.63051867 0
3.8100002 -0.21822761 0.62543547 0
3.8100002 -0.22437859 0.62543547 0
3.8100002 -0.23052958 0.62543547 0
3.8100002 -0.23668057 0.62543547 0
3.8090003 -0.24277383 0.62537056 0
3.8090003 -0.24892302 0.62537056 0
3.8090003 -0.25507221 0.62537056 0
3.8090003 -0.26122138 0.62537056 0
3.8080003 -0.26730564 0.62530565 0
3.8080003 -0.273453 0.62530565 0
3.8080003 -0.27960038 0.62530565 0
3.8070002 -0.2856774 0.62524068 0
3.8070002 -0.29182297 0.62524068 0
3.8070002 -0.29796854 0.62524068 0
3.8070002 -0.30411413 0.62524068 0
3.8060002 -0.31018215 0.62517577 0
3.8060002 -0.31632593 0.62517577 0
3.8060002 -0.32246968 0.62517577 0
3.8060002 -0.32861346 0.62517577 0
3.8050003 -0.33467245 0.62511086 0
3.8050003 -0.34081441 0.62511086 0
3.8050003 -0.3469564 0.62511086 0
3.8050003 -0.35309836 0.62511086 0
3.8040001 -0.35914832 0.6250459 0
3.8040001 -0.36528847 0.6250459 0
3.8040001 -0.37142864 0.6250459 0
3.8040001 -0.37756881 0.6250459 0
3.8030002 -0.38360977 0.62498093 0
3.8030002 -0.38974813 0.62498093 0
3.8030002 -0.39588648 0.62498093 0
3.8030002 -0.40202484 0.62498093 0
3.8020003 -0.4080568 0.62491602 0
3.8020003 -0.41419333 0.62491602 0
3.8020003 -0.4203299 0.62491602 0
3.8020003 -0.42646646 0.62491602 0
3.8010004 -0.43248937 0.62485111 0
3.8010004 -0.43862414 0.62485111 0
3.8010004 -0.44475889 0.62485111 0
3.8010004 -0.45089364 0.62485111 0
3.8000002 -0.45690751 0.62478614 0
3.8000002 -0.46304047 0.62478614 0
3.8000002 -0.4691734 0.62478614 0
3.8000002 -0.47530633 0.62478614 0
3.7990003 -0.48131123 0.62472117 0
3.7990003 -0.48744237 0.62472117 0
3.7990003 -0.49357355 0.62472117 0
3.7990003 -0.49970469 0.62472117 0
3.7980003 -0.50570053 0.62465626 0
3.7980003 -0.51182985 0.62465626 0
3.7980003 -0.51795924 0.62465626 0
3.7970002 -0.52394783 0.62459135 0
3.7970002 -0.53007537 0.62459135 0
3.7970002 -0.53620291 0.62459135 0
3.7970002 -0.54233044 0.62459135 0
3.7960002 -0.5483101 0.62452638 0
3.7960002 -0.55443579 0.62452638 0
3.7960002 -0.56056154 0.62452638 0
3.7960002 -0.56668729 0.62452638 0
3.7950003 -0.57265794 0.62446147 0
3.7950003 -0.57878184 0.62446147 0
3.7950003 -0.58490574 0.62446147 0
3.7950003 -0.5910297 0.62446147 0
3.7940001 -0.59699124 0.6243965 0
3.7940001 -0.60311335 0.6243965 0
3.7940001 -0.60923553 0.6243965 0
3.8100002 -0.21822761 0.61928451 0
3.8100002 -0.22437859 0.61928451 0
3.8100002 -0.23052958 0.61928451 0
3.8100002 -0.23668057 0.61928451 0
3.8090003 -0.24277383 0.61922139 0
3.8090003 -0.24892302 0.61922139 0
3.8090003 -0.25507221 0.61922139 0
3.8090003 -0.26122138 0.61922139 0
3.8080003 -0.26730564 0.61915827 0
3.8080003 -0.273453 0.61915827 0
3.8080003 -0.27960038 0.61915827 0
3.8070002 -0.2856774 0.61909509 0
3.8070002 -0.29182297 0.61909509 0
3.8070002 -0.29796854 0.61909509 0
3.8070002 -0.30411413 0.61909509 0
3.8060002 -0.31018215 0.61903203 0
3.8060002 -0.31632593 0.61903203 0
3.8060002 -0.32246968 0.61903203 0
3.8060002 -0.32861346 0.61903203 0
