# .PCD v0.7 - Point Cloud Data file format
VERSION 0.7
FIELDS x y z intensity
SIZE 4 4 4 4
TYPE F F F F
COUNT 1 1 1 1
WIDTH 1411
HEIGHT 1
VIEWPOINT 0 0 0 1 0 0 0
POINTS 1411
DATA ascii
2.9210002 0.92259634 0.16753517 0
2.9170003 0.91651934 0.16791038 0
2.9140003 0.91083729 0.16819176 0
2.9110003 0.90516615 0.16847317 0
2.7020001 0.82184458 0.18807696 0
2.6950002 0.81506586 0.18873355 0
2.6900003 0.8090592 0.18920252 0
2.6880002 0.80418533 0.18939012 0
2.6850002 0.79894888 0.18967152 0
2.6840003 0.79445922 0.18976532 0
2.6830001 0.78997308 0.18985912 0
2.6830001 0.78585494 0.18985912 0
2.6830001 0.78173691 0.18985912 0
2.6830001 0.77761883 0.18985912 0
2.6840003 0.77385968 0.18976532 0
2.6840003 0.76973981 0.18976532 0
2.6860001 0.7663306 0.18957773 0
2.6870003 0.76256067 0.18948391 0
2.6890001 0.75913882 0.18929633 0
2.6910002 0.75570977 0.18910873 0
2.6930003 0.75227356 0.18892114 0
2.6960001 0.74917632 0.18863976 0
2.6990001 0.74606842 0.18835835 0
2.7020001 0.7429496 0.18807696 0
2.7060001 0.74016088 0.18770176 0
2.7110002 0.73769695 0.18723278 0
2.7160003 0.73521495 0.18676376 0
2.7240002 0.73372132 0.1860134 0
2.7340002 0.73286635 0.18507542 0
2.7560003 1.3096774 0.17876208 0
2.7590003 1.3071485 0.17847528 0
2.7620003 1.3046087 0.17818846 0
2.7660003 1.3026282 0.17780606 0
2.7700002 1.3006331 0.17742366 0
2.7760003 1.2997564 0.17685005 0
2.7840002 1.2999872 0.17608523 0
2.6170001 0.95376068 0.19205076 0
2.6110003 0.94706684 0.19262435 0
2.6080003 0.94173658 0.19291115 0
2.6060002 0.93686265 0.19310236 0
2.6050003 0.93243974 0.19319797 0
2.6050003 0.92846233 0.19319797 0
2.6060002 0.92492503 0.19310236 0
2.6070001 0.92138416 0.19300677 0
2.6080003 0.91783971 0.19291115 0
2.6100001 0.9147262 0.19271995 0
2.6120002 0.91160566 0.19252875 0
2.6140001 0.90847784 0.19233756 0
2.6170001 0.90577215 0.19205076 0
2.6210003 0.90348327 0.19166832 0
2.6260002 0.90160537 0.19119033 0
2.6320002 0.90013349 0.19061671 0
2.9310002 0.93100387 0.16203177 0
2.9210002 0.92259634 0.16298778 0
2.9170003 0.91651934 0.16337018 0
2.9140003 0.91083729 0.16365699 0
2.9110003 0.90516615 0.1639438 0
2.7020001 0.82184458 0.18392459 0
2.6950002 0.81506586 0.18459381 0
2.6900003 0.8090592 0.1850718 0
2.6880002 0.80418533 0.18526301 0
2.6850002 0.79894888 0.18554983 0
2.6840003 0.79445922 0.18564542 0
2.6830001 0.78997308 0.18574104 0
2.6830001 0.78585494 0.18574104 0
2.6830001 0.78173691 0.18574104 0
2.6830001 0.77761883 0.18574104 0
2.6840003 0.77385968 0.18564542 0
2.6840003 0.76973981 0.18564542 0
2.6860001 0.7663306 0.18545423 0
2.6870003 0.76256067 0.18535861 0
2.6890001 0.75913882 0.18516742 0
2.6910002 0.75570977 0.18497621 0
2.6930003 0.75227356 0.18478499 0
2.6960001 0.74917632 0.18449821 0
2.6990001 0.74606842 0.1842114 0
2.7020001 0.7429496 0.18392459 0
2.7060001 0.74016088 0.18354219 0
2.7110002 0.73769695 0.18306416 0
2.7160003 0.73521495 0.18258616 0
2.7240002 0.73372132 0.18182135 0
2.7340002 0.73286635 0.18086533 0
2.7560003 1.3096774 0.17451231 0
2.7590003 1.3071485 0.1742201 0
2.7620003 1.3046087 0.17392787 0
2.7660003 1.3026282 0.17353825 0
2.7700002 1.3006331 0.17314865 0
2.7760003 1.2997564 0.17256418 0
2.7840002 1.2999872 0.17178495 0
2.6170001 0.95376068 0.1880517 0
2.6110003 0.94706684 0.18863612 0
2.6080003 0.94173658 0.18892834 0
2.6060002 0.93686265 0.18912315 0
2.6050003 0.93243974 0.18922056 0
2.6050003 0.92846233 0.18922056 0
2.6060002 0.92492503 0.18912315 0
2.6070001 0.92138416 0.18902576 0
2.6080003 0.91783971 0.18892834 0
2.6100001 0.9147262 0.18873355 0
2.6120002 0.91160566 0.18853873 0
2.6140001 0.90847784 0.18834393 0
2.6170001 0.90577215 0.1880517 0
2.6210003 0.90348327 0.18766207 0
2.6260002 0.90160537 0.18717505 0
2.6320002 0.90013349 0.18659061 0
2.9310002 0.93100387 0.15746632 0
2.9210002 0.92259634 0.1584404 0
2.9170003 0.91651934 0.15882999 0
2.9140003 0.91083729 0.15912221 0
2.9110003 0.90516615 0.15941444 0
2.7020001 0.82184458 0.17977223 0
2.6950002 0.81506586 0.18045406 0
2.6900003 0.8090592 0.18094108 0
2.6880002 0.80418533 0.18113591 0
2.6850002 0.79894888 0.18142812 0
2.6840003 0.79445922 0.18152553 0
2.6830001 0.78997308 0.18162294 0
2.6830001 0.78585494 0.18162294 0
2.6830001 0.78173691 0.18162294 0
2.6830001 0.77761883 0.18162294 0
2.6840003 0.77385968 0.18152553 0
2.6840003 0.76973981 0.18152553 0
2.6860001 0.7663306 0.18133073 0
2.6870003 0.76256067 0.1812333 0
2.6890001 0.75913882 0.1810385 0
2.6910002 0.75570977 0.18084368 0
2.6930003 0.75227356 0.18064886 0
2.6960001 0.74917632 0.18035667 0
2.6990001 0.74606842 0.18006444 0
2.7020001 0.7429496 0.17977223 0
2.7060001 0.74016088 0.17938261 0
2.7110002 0.73769695 0.17889556 0
2.7160003 0.73521495 0.17840853 0
2.7240002 0.73372132 0.17762929 0
2.7340002 0.73286635 0.17665525 0
2.7560003 1.3096774 0.17026253 0
2.7590003 1.3071485 0.16996491 0
2.7620003 1.3046087 0.16966726 0
2.7660003 1.3026282 0.16927046 0
2.7700002 1.3006331 0.16887361 0
2.7760003 1.2997564 0.16827835 0
2.7840002 1.2999872 0.16748467 0
2.6170001 0.95376068 0.18405268 0
2.6110003 0.94706684 0.1846479 0
2.6080003 0.94173658 0.18494554 0
2.6060002 0.93686265 0.18514396 0
2.6050003 0.93243974 0.18524316 0
2.6050003 0.92846233 0.18524316 0
2.6060002 0.92492503 0.18514396 0
2.6070001 0.92138416 0.18504477 0
2.6080003 0.91783971 0.18494554 0
2.6100001 0.9147262 0.18474713 0
2.6120002 0.91160566 0.18454871 0
2.6140001 0.90847784 0.1843503 0
2.6170001 0.90577215 0.18405268 0
2.6210003 0.90348327 0.1836558 0
2.6260002 0.90160537 0.18315978 0
2.6320002 0.90013349 0.18256451 0
2.9310002 0.93100387 0.1529009 0
2.9210002 0.92259634 0.15389296 0
2.9170003 0.91651934 0.15428981 0
2.9140003 0.91083729 0.15458745 0
2.9110003 0.90516615 0.15488507 0
2.7020001 0.82184458 0.17561987 0
2.6950002 0.81506586 0.17631432 0
2.6900003 0.8090592 0.17681035 0
2.6880002 0.80418533 0.17700879 0
2.6850002 0.79894888 0.17730641 0
2.6840003 0.79445922 0.17740561 0
2.6830001 0.78997308 0.17750484 0
2.6830001 0.78585494 0.17750484 0
2.6830001 0.78173691 0.17750484 0
2.6830001 0.77761883 0.17750484 0
2.6840003 0.77385968 0.17740561 0
2.6840003 0.76973981 0.17740561 0
2.6860001 0.7663306 0.17720722 0
2.6870003 0.76256067 0.17710799 0
2.6890001 0.75913882 0.17690958 0
2.6910002 0.75570977 0.17671116 0
2.6930003 0.75227356 0.17651273 0
2.6960001 0.74917632 0.17621513 0
2.6990001 0.74606842 0.17591749 0
2.7020001 0.7429496 0.17561987 0
2.7060001 0.74016088 0.17522302 0
2.7110002 0.73769695 0.17472698 0
2.7160003 0.73521495 0.1742309 0
2.7240002 0.73372132 0.17343724 0
2.7340002 0.73286635 0.17244515 0
2.7560003 1.3096774 0.16601278 0
2.7590003 1.3071485 0.16570973 0
2.7620003 1.3046087 0.16540667 0
2.7660003 1.3026282 0.16500264 0
2.7700002 1.3006331 0.1645986 0
2.7760003 1.2997564 0.16399249 0
2.7840002 1.2999872 0.16318442 0
2.6170001 0.95376068 0.18005362 0
2.6110003 0.94706684 0.18065968 0
2.6080003 0.94173658 0.18096273 0
2.6060002 0.93686265 0.18116477 0
2.6050003 0.93243974 0.18126577 0
2.6050003 0.92846233 0.18126577 0
2.6060002 0.92492503 0.18116477 0
2.6070001 0.92138416 0.18106376 0
2.6080003 0.91783971 0.18096273 0
2.6100001 0.9147262 0.18076071 0
2.6120002 0.91160566 0.18055868 0
2.6140001 0.90847784 0.18035667 0
2.6170001 0.90577215 0.18005362 0
2.6210003 0.90348327 0.17964956 0
2.6260002 0.90160537 0.1791445 0
2.6320002 0.90013349 0.17853841 0
2.9310002 0.93100387 0.14833546 0
2.9210002 0.92259634 0.14934558 0
2.9170003 0.91651934 0.14974964 0
2.9140003 0.91083729 0.15005267 0
2.9110003 0.90516615 0.1503557 0
2.7020001 0.82184458 0.1714675 0
2.6950002 0.81506586 0.17217459 0
2.6900003 0.8090592 0.17267965 0
2.6880002 0.80418533 0.17288168 0
2.6850002 0.79894888 0.17318471 0
2.6840003 0.79445922 0.17328572 0
2.6830001 0.78997308 0.17338675 0
2.6830001 0.78585494 0.17338675 0
2.6830001 0.78173691 0.17338675 0
2.6830001 0.77761883 0.17338675 0
2.6840003 0.77385968 0.17328572 0
2.6840003 0.76973981 0.17328572 0
2.6860001 0.7663306 0.17308369 0
2.6870003 0.76256067 0.17298269 0
2.6890001 0.75913882 0.17278066 0
2.6910002 0.75570977 0.17257863 0
2.6930003 0.75227356 0.17237659 0
2.6960001 0.74917632 0.17207357 0
2.6990001 0.74606842 0.17177053 0
2.7020001 0.7429496 0.1714675 0
2.7060001 0.74016088 0.17106344 0
2.7110002 0.73769695 0.17055838 0
2.7160003 0.73521495 0.17005329 0
2.7240002 0.73372132 0.16924518 0
2.7340002 0.73286635 0.16823505 0
2.7560003 1.3096774 0.161763 0
2.7590003 1.3071485 0.16145454 0
2.7620003 1.3046087 0.16114607 0
2.7660003 1.3026282 0.16073482 0
2.7700002 1.3006331 0.16032355 0
2.7760003 1.2997564 0.15970665 0
2.7840002 1.2999872 0.15888414 0
2.6170001 0.95376068 0.17605458 0
2.6110003 0.94706684 0.17667148 0
2.6080003 0.94173658 0.17697991 0
2.6060002 0.93686265 0.17718557 0
2.6050003 0.93243974 0.17728837 0
2.6050003 0.92846233 0.17728837 0
2.6060002 0.92492503 0.17718557 0
2.6070001 0.92138416 0.17708275 0
2.6080003 0.91783971 0.17697991 0
2.6100001 0.9147262 0.17677429 0
2.6120002 0.91160566 0.17656866 0
2.6140001 0.90847784 0.17636304 0
2.6170001 0.90577215 0.17605458 0
2.6210003 0.90348327 0.1756433 0
2.6260002 0.90160537 0.17512922 0
2.6320002 0.90013349 0.17451231 0
2.9310002 0.93100387 0.14377001 0
2.9210002 0.92259634 0.14479819 0
2.9170003 0.91651934 0.14520943 0
2.9140003 0.91083729 0.14551792 0
2.9110003 0.90516615 0.14582634 0
2.7020001 0.82184458 0.16731513 0
2.6950002 0.81506586 0.16803485 0
2.6900003 0.8090592 0.16854891 0
2.6880002 0.80418533 0.16875456 0
2.6850002 0.79894888 0.169063 0
2.6840003 0.79445922 0.16916583 0
2.6830001 0.78997308 0.16926867 0
2.6830001 0.78585494 0.16926867 0
2.6830001 0.78173691 0.16926867 0
2.6830001 0.77761883 0.16926867 0
2.6840003 0.77385968 0.16916583 0
2.6840003 0.76973981 0.16916583 0
2.6860001 0.7663306 0.1689602 0
2.6870003 0.76256067 0.16885737 0
2.6890001 0.75913882 0.16865174 0
2.6910002 0.75570977 0.16844611 0
2.6930003 0.75227356 0.16824046 0
2.6960001 0.74917632 0.16793205 0
2.6990001 0.74606842 0.16762358 0
2.7020001 0.7429496 0.16731513 0
2.7060001 0.74016088 0.16690387 0
2.7110002 0.73769695 0.16638976 0
2.7160003 0.73521495 0.16587567 0
2.7240002 0.73372132 0.16505316 0
2.7340002 0.73286635 0.16402496 0
2.7560003 1.3096774 0.15751322 0
2.7590003 1.3071485 0.15719937 0
2.7620003 1.3046087 0.15688547 0
2.7660003 1.3026282 0.15646701 0
2.7700002 1.3006331 0.15604854 0
2.7760003 1.2997564 0.1554208 0
2.7840002 1.2999872 0.15458384 0
2.6170001 0.95376068 0.17205554 0
2.6110003 0.94706684 0.17268325 0
2.6080003 0.94173658 0.1729971 0
2.6060002 0.93686265 0.17320636 0
2.6050003 0.93243974 0.17331098 0
2.6050003 0.92846233 0.17331098 0
2.6060002 0.92492503 0.17320636 0
2.6070001 0.92138416 0.17310175 0
2.6080003 0.91783971 0.1729971 0
2.6100001 0.9147262 0.17278787 0
2.6120002 0.91160566 0.17257863 0
2.6140001 0.90847784 0.17236939 0
2.6170001 0.90577215 0.17205554 0
2.6210003 0.90348327 0.17163704 0
2.6260002 0.90160537 0.17111395 0
2.6320002 0.90013349 0.17048621 0
2.9310002 0.93100387 0.13920459 0
2.9210002 0.92259634 0.1402508 0
2.9170003 0.91651934 0.14066926 0
2.9140003 0.91083729 0.1409831 0
2.9110003 0.90516615 0.14129698 0
2.7020001 0.82184458 0.16316275 0
2.6950002 0.81506586 0.16389512 0
2.6900003 0.8090592 0.16441821 0
2.6880002 0.80418533 0.16462743 0
2.6850002 0.79894888 0.16494133 0
2.6840003 0.79445922 0.16504592 0
2.6830001 0.78997308 0.16515055 0
2.6830001 0.78585494 0.16515055 0
2.6830001 0.78173691 0.16515055 0
2.6830001 0.77761883 0.16515055 0
2.6840003 0.77385968 0.16504592 0
2.6840003 0.76973981 0.16504592 0
2.6860001 0.7663306 0.1648367 0
2.6870003 0.76256067 0.16473205 0
2.6890001 0.75913882 0.16452283 0
2.6910002 0.75570977 0.16431358 0
2.6930003 0.75227356 0.16410431 0
2.6960001 0.74917632 0.16379049 0
2.6990001 0.74606842 0.16347663 0
2.7020001 0.7429496 0.16316275 0
2.7060001 0.74016088 0.16274428 0
2.7110002 0.73769695 0.16222116 0
2.7160003 0.73521495 0.16169804 0
2.7240002 0.73372132 0.16086109 0
2.7340002 0.73286635 0.15981488 0
2.7560003 1.3096774 0.15326345 0
2.7590003 1.3071485 0.15294418 0
2.7620003 1.3046087 0.15262488 0
2.7660003 1.3026282 0.15219921 0
2.7700002 1.3006331 0.15177351 0
2.7760003 1.2997564 0.15113497 0
2.7840002 1.2999872 0.15028358 0
2.6170001 0.95376068 0.1680565 0
2.6110003 0.94706684 0.16869503 0
2.6080003 0.94173658 0.16901432 0
2.6060002 0.93686265 0.16922715 0
2.6050003 0.93243974 0.16933356 0
2.6050003 0.92846233 0.16933356 0
2.6060002 0.92492503 0.16922715 0
2.6070001 0.92138416 0.16912074 0
2.6080003 0.91783971 0.16901432 0
2.6100001 0.9147262 0.16880147 0
2.6120002 0.91160566 0.16858859 0
2.6140001 0.90847784 0.16837579 0
2.6170001 0.90577215 0.1680565 0
2.6210003 0.90348327 0.16763076 0
2.6260002 0.90160537 0.16709867 0
2.6320002 0.90013349 0.16646013 0
2.9310002 0.93100387 0.13463914 0
2.9210002 0.92259634 0.13570336 0
2.9170003 0.91651934 0.13612908 0
2.9140003 0.91083729 0.13644835 0
2.9110003 0.90516615 0.13676763 0
2.7020001 0.82184458 0.15901038 0
2.6950002 0.81506586 0.15975538 0
2.6900003 0.8090592 0.16028747 0
2.6880002 0.80418533 0.16050033 0
2.6850002 0.79894888 0.16081962 0
2.6840003 0.79445922 0.16092603 0
2.6830001 0.78997308 0.16103245 0
2.6830001 0.78585494 0.16103245 0
2.6830001 0.78173691 0.16103245 0
2.6830001 0.77761883 0.16103245 0
2.6840003 0.77385968 0.16092603 0
2.6840003 0.76973981 0.16092603 0
2.6860001 0.7663306 0.16071318 0
2.6870003 0.76256067 0.16060674 0
2.6890001 0.75913882 0.16039392 0
2.6910002 0.75570977 0.16018106 0
2.6930003 0.75227356 0.15996818 0
2.6960001 0.74917632 0.15964894 0
2.6990001 0.74606842 0.15932967 0
2.7020001 0.7429496 0.15901038 0
2.7060001 0.74016088 0.1585847 0
2.7110002 0.73769695 0.15805258 0
2.7160003 0.73521495 0.15752043 0
2.7240002 0.73372132 0.15666904 0
2.7340002 0.73286635 0.15560479 0
2.7560003 1.3096774 0.14901367 0
2.7590003 1.3071485 0.148689 0
2.7620003 1.3046087 0.14836431 0
2.7660003 1.3026282 0.1479314 0
2.7700002 1.3006331 0.14749849 0
2.7760003 1.2997564 0.1468491 0
2.7840002 1.2999872 0.14598328 0
2.6170001 0.95376068 0.16405745 0
2.6110003 0.94706684 0.1647068 0
2.6080003 0.94173658 0.16503149 0
2.6060002 0.93686265 0.16524796 0
2.6050003 0.93243974 0.16535619 0
2.6050003 0.92846233 0.16535619 0
2.6060002 0.92492503 0.16524796 0
2.6070001 0.92138416 0.16513975 0
2.6080003 0.91783971 0.16503149 0
2.6100001 0.9147262 0.16481504 0
2.6120002 0.91160566 0.1645986 0
2.6140001 0.90847784 0.16438214 0
2.6170001 0.90577215 0.16405745 0
2.6210003 0.90348327 0.16362453 0
2.6260002 0.90160537 0.1630834 0
2.6320002 0.90013349 0.162434 0
2.9310002 0.93100387 0.13007367 0
2.9210002 0.92259634 0.13115597 0
2.9170003 0.91651934 0.13158888 0
2.9140003 0.91083729 0.13191357 0
2.9110003 0.90516615 0.13223827 0
2.7020001 0.82184458 0.15485804 0
2.6950002 0.81506586 0.15561561 0
2.6900003 0.8090592 0.15615676 0
2.6880002 0.80418533 0.15637323 0
2.6850002 0.79894888 0.1566979 0
2.6840003 0.79445922 0.15680613 0
2.6830001 0.78997308 0.15691438 0
2.6830001 0.78585494 0.15691438 0
2.6830001 0.78173691 0.15691438 0
2.6830001 0.77761883 0.15691438 0
2.6840003 0.77385968 0.15680613 0
2.6840003 0.76973981 0.15680613 0
2.6860001 0.7663306 0.15658969 0
2.6870003 0.76256067 0.15648143 0
2.6890001 0.75913882 0.15626501 0
2.6910002 0.75570977 0.15604854 0
2.6930003 0.75227356 0.15583205 0
2.6960001 0.74917632 0.15550742 0
2.6990001 0.74606842 0.15518272 0
2.7020001 0.7429496 0.15485804 0
2.7060001 0.74016088 0.15442511 0
2.7110002 0.73769695 0.15388396 0
2.7160003 0.73521495 0.15334281 0
2.7240002 0.73372132 0.152477 0
2.7340002 0.73286635 0.1513947 0
2.7560003 1.3096774 0.14476389 0
2.7590003 1.3071485 0.1444338 0
2.7620003 1.3046087 0.14410371 0
2.7660003 1.3026282 0.14366359 0
2.7700002 1.3006331 0.14322346 0
2.7760003 1.2997564 0.14256325 0
2.7840002 1.2999872 0.14168301 0
2.6170001 0.95376068 0.16005841 0
2.6110003 0.94706684 0.16071858 0
2.6080003 0.94173658 0.16104867 0
2.6060002 0.93686265 0.16126876 0
2.6050003 0.93243974 0.16137879 0
2.6050003 0.92846233 0.16137879 0
2.6060002 0.92492503 0.16126876 0
2.6070001 0.92138416 0.16115874 0
2.6080003 0.91783971 0.16104867 0
2.6100001 0.9147262 0.16082864 0
2.6120002 0.91160566 0.16060856 0
2.6140001 0.90847784 0.16038851 0
2.6170001 0.90577215 0.16005841 0
2.6210003 0.90348327 0.15961824 0
2.6260002 0.90160537 0.15906811 0
2.6320002 0.90013349 0.15840791 0
2.9310002 0.93100387 0.12550825 0
2.9210002 0.92259634 0.12660858 0
2.9170003 0.91651934 0.1270487 0
2.9140003 0.91083729 0.12737882 0
2.9110003 0.90516615 0.12770891 0
2.7020001 0.82184458 0.15070567 0
2.6950002 0.81506586 0.15147588 0
2.6900003 0.8090592 0.15202603 0
2.6880002 0.80418533 0.15224612 0
2.6850002 0.79894888 0.15257621 0
2.6840003 0.79445922 0.15268624 0
2.6830001 0.78997308 0.15279627 0
2.6830001 0.78585494 0.15279627 0
2.6830001 0.78173691 0.15279627 0
2.6830001 0.77761883 0.15279627 0
2.6840003 0.77385968 0.15268624 0
2.6840003 0.76973981 0.15268624 0
2.6860001 0.7663306 0.15246618 0
2.6870003 0.76256067 0.15235615 0
2.6890001 0.75913882 0.15213609 0
2.6910002 0.75570977 0.151916 0
2.6930003 0.75227356 0.15169594 0
2.6960001 0.74917632 0.15136585 0
2.6990001 0.74606842 0.15103576 0
2.7020001 0.7429496 0.15070567 0
2.7060001 0.74016088 0.15026554 0
2.7110002 0.73769695 0.14971536 0
2.7160003 0.73521495 0.14916518 0
2.7240002 0.73372132 0.14828494 0
2.7340002 0.73286635 0.14718461 0
2.7560003 1.3096774 0.14051414 0
2.7590003 1.3071485 0.14017862 0
2.7620003 1.3046087 0.13984311 0
2.7660003 1.3026282 0.13939577 0
2.7700002 1.3006331 0.13894844 0
2.7760003 1.2997564 0.13827741 0
2.7840002 1.2999872 0.13738275 0
2.6170001 0.95376068 0.15605938 0
2.6110003 0.94706684 0.15673035 0
2.6080003 0.94173658 0.15706587 0
2.6060002 0.93686265 0.15728956 0
2.6050003 0.93243974 0.15740138 0
2.6050003 0.92846233 0.15740138 0
2.6060002 0.92492503 0.15728956 0
2.6070001 0.92138416 0.15717773 0
2.6080003 0.91783971 0.15706587 0
2.6100001 0.9147262 0.15684222 0
2.6120002 0.91160566 0.15661852 0
2.6140001 0.90847784 0.15639487 0
2.6170001 0.90577215 0.15605938 0
2.6210003 0.90348327 0.15561201 0
2.6260002 0.90160537 0.15505283 0
2.6320002 0.90013349 0.15438183 0
2.9310002 0.93100387 0.1209428 0
2.9210002 0.92259634 0.12206119 0
2.9170003 0.91651934 0.1225085 0
2.9140003 0.91083729 0.12284401 0
2.9110003 0.90516615 0.12317955 0
2.7020001 0.82184458 0.14655331 0
2.6950002 0.81506586 0.14733613 0
2.6900003 0.8090592 0.14789531 0
2.6880002 0.80418533 0.148119 0
2.6850002 0.79894888 0.14845452 0
2.6840003 0.79445922 0.14856631 0
2.6830001 0.78997308 0.14867818 0
2.6830001 0.78585494 0.14867818 0
2.6830001 0.78173691 0.14867818 0
2.6830001 0.77761883 0.14867818 0
2.6840003 0.77385968 0.14856631 0
2.6840003 0.76973981 0.14856631 0
2.6860001 0.7663306 0.1483427 0
2.6870003 0.76256067 0.14823082 0
2.6890001 0.75913882 0.14800718 0
2.6910002 0.75570977 0.14778349 0
2.6930003 0.75227356 0.14755979 0
2.6960001 0.74917632 0.14722431 0
2.6990001 0.74606842 0.14688882 0
2.7020001 0.7429496 0.14655331 0
2.7060001 0.74016088 0.14610595 0
2.7110002 0.73769695 0.14554676 0
2.7160003 0.73521495 0.14498758 0
2.7240002 0.73372132 0.14409289 0
2.7340002 0.73286635 0.14297453 0
2.7560003 1.3096774 0.13626435 0
2.7590003 1.3071485 0.13592342 0
2.7620003 1.3046087 0.13558251 0
2.7660003 1.3026282 0.13512796 0
2.7700002 1.3006331 0.13467339 0
2.7760003 1.2997564 0.13399157 0
2.7840002 1.2999872 0.13308245 0
2.6170001 0.95376068 0.15206033 0
2.6110003 0.94706684 0.15274215 0
2.6080003 0.94173658 0.15308309 0
2.6060002 0.93686265 0.15331033 0
2.6050003 0.93243974 0.15342399 0
2.6050003 0.92846233 0.15342399 0
2.6060002 0.92492503 0.15331033 0
2.6070001 0.92138416 0.15319672 0
2.6080003 0.91783971 0.15308309 0
2.6100001 0.9147262 0.15285581 0
2.6120002 0.91160566 0.15262851 0
2.6140001 0.90847784 0.15240127 0
2.6170001 0.90577215 0.15206033 0
2.6210003 0.90348327 0.15160573 0
2.6260002 0.90160537 0.15103754 0
2.6320002 0.90013349 0.1503557 0
2.9310002 0.93100387 0.11637738 0
2.9210002 0.92259634 0.11751378 0
2.9170003 0.91651934 0.11796832 0
2.9140003 0.91083729 0.11830926 0
2.9110003 0.90516615 0.11865017 0
2.7020001 0.82184458 0.14240092 0
2.6950002 0.81506586 0.1431964 0
2.6900003 0.8090592 0.14376459 0
2.6880002 0.80418533 0.14399186 0
2.6850002 0.79894888 0.1443328 0
2.6840003 0.79445922 0.14444643 0
2.6830001 0.78997308 0.1445601 0
2.6830001 0.78585494 0.1445601 0
2.6830001 0.78173691 0.1445601 0
2.6830001 0.77761883 0.1445601 0
2.6840003 0.77385968 0.14444643 0
2.6840003 0.76973981 0.14444643 0
2.6860001 0.7663306 0.14421916 0
2.6870003 0.76256067 0.14410552 0
2.6890001 0.75913882 0.14387825 0
2.6910002 0.75570977 0.14365095 0
2.6930003 0.75227356 0.14342368 0
2.6960001 0.74917632 0.14308277 0
2.6990001 0.74606842 0.14274183 0
2.7020001 0.7429496 0.14240092 0
2.7060001 0.74016088 0.14194638 0
2.7110002 0.73769695 0.14137816 0
2.7160003 0.73521495 0.14080995 0
2.7240002 0.73372132 0.13990086 0
2.7340002 0.73286635 0.13876444 0
2.7560003 1.3096774 0.13201457 0
2.7590003 1.3071485 0.13166824 0
2.7620003 1.3046087 0.13132191 0
2.7660003 1.3026282 0.13086015 0
2.7700002 1.3006331 0.13039839 0
2.7760003 1.2997564 0.12970573 0
2.7840002 1.2999872 0.12878218 0
2.6170001 0.95376068 0.14806128 0
2.6110003 0.94706684 0.14875391 0
2.6080003 0.94173658 0.14910024 0
2.6060002 0.93686265 0.14933115 0
2.6050003 0.93243974 0.14944658 0
2.6050003 0.92846233 0.14944658 0
2.6060002 0.92492503 0.14933115 0
2.6070001 0.92138416 0.14921573 0
2.6080003 0.91783971 0.14910024 0
2.6100001 0.9147262 0.1488694 0
2.6120002 0.91160566 0.14863849 0
2.6140001 0.90847784 0.14840761 0
2.6170001 0.90577215 0.14806128 0
2.6210003 0.90348327 0.14759949 0
2.6260002 0.90160537 0.14702228 0
2.6320002 0.90013349 0.14632961 0
2.9310002 0.93100387 0.11181194 0
2.9210002 0.92259634 0.11296639 0
2.9170003 0.91651934 0.11342815 0
2.9140003 0.91083729 0.11377448 0
2.9110003 0.90516615 0.11412081 0
2.7020001 0.82184458 0.13824856 0
2.6950002 0.81506586 0.13905665 0
2.6900003 0.8090592 0.13963386 0
2.6880002 0.80418533 0.13986477 0
2.6850002 0.79894888 0.14021111 0
2.6840003 0.79445922 0.14032653 0
2.6830001 0.78997308 0.14044201 0
2.6830001 0.78585494 0.14044201 0
2.6830001 0.78173691 0.14044201 0
2.6830001 0.77761883 0.14044201 0
2.6840003 0.77385968 0.14032653 0
2.6840003 0.76973981 0.14032653 0
2.6860001 0.7663306 0.14009565 0
2.6870003 0.76256067 0.1399802 0
2.6890001 0.75913882 0.13974932 0
2.6910002 0.75570977 0.13951844 0
2.6930003 0.75227356 0.13928753 0
2.6960001 0.74917632 0.13894123 0
2.6990001 0.74606842 0.1385949 0
2.7020001 0.7429496 0.13824856 0
2.7060001 0.74016088 0.13778681 0
2.7110002 0.73769695 0.13720956 0
2.7160003 0.73521495 0.13663232 0
2.7240002 0.73372132 0.13570878 0
2.7340002 0.73286635 0.13455436 0
2.7560003 1.3096774 0.12776482 0
2.7590003 1.3071485 0.12741309 0
2.7620003 1.3046087 0.12706134 0
2.7660003 1.3026282 0.12659234 0
2.7700002 1.3006331 0.12612337 0
2.7760003 1.2997564 0.12541986 0
2.7840002 1.2999872 0.12448189 0
2.6170001 0.95376068 0.14406225 0
2.6110003 0.94706684 0.1447657 0
2.6080003 0.94173658 0.14511743 0
2.6060002 0.93686265 0.14535198 0
2.6050003 0.93243974 0.14546919 0
2.6050003 0.92846233 0.14546919 0
2.6060002 0.92492503 0.14535198 0
2.6070001 0.92138416 0.1452347 0
2.6080003 0.91783971 0.14511743 0
2.6100001 0.9147262 0.14488295 0
2.6120002 0.91160566 0.14464846 0
2.6140001 0.90847784 0.14441398 0
2.6170001 0.90577215 0.14406225 0
2.6210003 0.90348327 0.14359325 0
2.6260002 0.90160537 0.14300701 0
2.6320002 0.90013349 0.14230353 0
2.9310002 0.93100387 0.10724649 0
2.9210002 0.92259634 0.10841897 0
2.9170003 0.91651934 0.10888797 0
2.9140003 0.91083729 0.1092397 0
2.9110003 0.90516615 0.10959145 0
2.7020001 0.82184458 0.13409621 0
2.6950002 0.81506586 0.13491693 0
2.6900003 0.8090592 0.13550317 0
2.6880002 0.80418533 0.13573766 0
2.6850002 0.79894888 0.13608938 0
2.6840003 0.79445922 0.13620666 0
2.6830001 0.78997308 0.1363239 0
2.6830001 0.78585494 0.1363239 0
2.6830001 0.78173691 0.1363239 0
2.6830001 0.77761883 0.1363239 0
2.6840003 0.77385968 0.13620666 0
2.6840003 0.76973981 0.13620666 0
2.6860001 0.7663306 0.13597217 0
2.6870003 0.76256067 0.1358549 0
2.6890001 0.75913882 0.13562042 0
2.6910002 0.75570977 0.1353859 0
2.6930003 0.75227356 0.13515142 0
2.6960001 0.74917632 0.13479969 0
2.6990001 0.74606842 0.13444796 0
2.7020001 0.7429496 0.13409621 0
2.7060001 0.74016088 0.13362721 0
2.7110002 0.73769695 0.13304096 0
2.7160003 0.73521495 0.13245472 0
2.7240002 0.73372132 0.13151672 0
2.7340002 0.73286635 0.13034427 0
2.7560003 1.3096774 0.12351504 0
2.7590003 1.3071485 0.12315789 0
2.7620003 1.3046087 0.12280074 0
2.7660003 1.3026282 0.12232453 0
2.7700002 1.3006331 0.12184832 0
2.7760003 1.2997564 0.12113401 0
2.7840002 1.2999872 0.12018162 0
2.6170001 0.95376068 0.1400632 0
2.6110003 0.94706684 0.1407775 0
2.6080003 0.94173658 0.14113465 0
2.6060002 0.93686265 0.14137274 0
2.6050003 0.93243974 0.1414918 0
2.6050003 0.92846233 0.1414918 0
2.6060002 0.92492503 0.14137274 0
2.6070001 0.92138416 0.14125371 0
2.6080003 0.91783971 0.14113465 0
2.6100001 0.9147262 0.14089656 0
2.6120002 0.91160566 0.14065844 0
2.6140001 0.90847784 0.14042038 0
2.6170001 0.90577215 0.1400632 0
2.6210003 0.90348327 0.13958696 0
2.6260002 0.90160537 0.13899174 0
2.6320002 0.90013349 0.13827741 0
2.9310002 0.93100387 0.10268107 0
2.9210002 0.92259634 0.10387155 0
2.9170003 0.91651934 0.10434777 0
2.9140003 0.91083729 0.10470492 0
2.9110003 0.90516615 0.10506207 0
2.7020001 0.82184458 0.12994382 0
2.6950002 0.81506586 0.13077718 0
2.6900003 0.8090592 0.13137242 0
2.6880002 0.80418533 0.13161054 0
2.6850002 0.79894888 0.13196769 0
2.6840003 0.79445922 0.13208675 0
2.6830001 0.78997308 0.13220581 0
2.6830001 0.78585494 0.13220581 0
2.6830001 0.78173691 0.13220581 0
2.6830001 0.77761883 0.13220581 0
2.6840003 0.77385968 0.13208675 0
2.6840003 0.76973981 0.13208675 0
2.6860001 0.7663306 0.13184863 0
2.6870003 0.76256067 0.13172957 0
2.6890001 0.75913882 0.13149148 0
2.6910002 0.75570977 0.13125339 0
2.6930003 0.75227356 0.13101527 0
2.6960001 0.74917632 0.13065815 0
2.6990001 0.74606842 0.13030097 0
2.7020001 0.7429496 0.12994382 0
2.7060001 0.74016088 0.12946764 0
2.7110002 0.73769695 0.12887236 0
2.7160003 0.73521495 0.12827709 0
2.7240002 0.73372132 0.1273247 0
2.7340002 0.73286635 0.12613419 0
2.7560003 1.3096774 0.11926529 0
2.7590003 1.3071485 0.11890271 0
2.7620003 1.3046087 0.11854014 0
2.7660003 1.3026282 0.11805671 0
2.7700002 1.3006331 0.11757329 0
2.7760003 1.2997564 0.11684817 0
2.7840002 1.2999872 0.11588135 0
2.6170001 0.95376068 0.13606414 0
2.6110003 0.94706684 0.13678926 0
2.6080003 0.94173658 0.13715184 0
2.6060002 0.93686265 0.13739356 0
2.6050003 0.93243974 0.13751438 0
2.6050003 0.92846233 0.13751438 0
2.6060002 0.92492503 0.13739356 0
2.6070001 0.92138416 0.13727272 0
2.6080003 0.91783971 0.13715184 0
2.6100001 0.9147262 0.13691014 0
2.6120002 0.91160566 0.13666841 0
2.6140001 0.90847784 0.13642672 0
2.6170001 0.90577215 0.13606414 0
2.6210003 0.90348327 0.13558072 0
2.6260002 0.90160537 0.13497648 0
2.6320002 0.90013349 0.13425133 0
2.9310002 0.93100387 0.098115623 0
2.9210002 0.92259634 0.099324167 0
2.9170003 0.91651934 0.09980759 0
2.9140003 0.91083729 0.10017014 0
2.9110003 0.90516615 0.10053271 0
2.7020001 0.82184458 0.12579146 0
2.6950002 0.81506586 0.12663746 0
2.6900003 0.8090592 0.1272417 0
2.6880002 0.80418533 0.12748343 0
2.6850002 0.79894888 0.127846 0
2.6840003 0.79445922 0.12796682 0
2.6830001 0.78997308 0.12808773 0
2.6830001 0.78585494 0.12808773 0
2.6830001 0.78173691 0.12808773 0
2.6830001 0.77761883 0.12808773 0
2.6840003 0.77385968 0.12796682 0
2.6840003 0.76973981 0.12796682 0
2.6860001 0.7663306 0.12772515 0
2.6870003 0.76256067 0.12760425 0
2.6890001 0.75913882 0.12736258 0
2.6910002 0.75570977 0.12712085 0
2.6930003 0.75227356 0.12687916 0
2.6960001 0.74917632 0.12651661 0
2.6990001 0.74606842 0.12615404 0
2.7020001 0.7429496 0.12579146 0
2.7060001 0.74016088 0.12530804 0
2.7110002 0.73769695 0.12470376 0
2.7160003 0.73521495 0.12409946 0
2.7240002 0.73372132 0.12313265 0
2.7340002 0.73286635 0.1219241 0
2.7560003 1.3096774 0.11501551 0
2.7590003 1.3071485 0.11464751 0
2.7620003 1.3046087 0.11427954 0
2.7660003 1.3026282 0.1137889 0
2.7700002 1.3006331 0.1132983 0
2.7760003 1.2997564 0.11256233 0
2.7840002 1.2999872 0.11158106 0
2.6170001 0.95376068 0.13206512 0
2.6110003 0.94706684 0.13280106 0
2.6080003 0.94173658 0.13316903 0
2.6060002 0.93686265 0.13341433 0
2.6050003 0.93243974 0.13353699 0
2.6050003 0.92846233 0.13353699 0
2.6060002 0.92492503 0.13341433 0
2.6070001 0.92138416 0.13329169 0
2.6080003 0.91783971 0.13316903 0
2.6100001 0.9147262 0.13292372 0
2.6120002 0.91160566 0.13267839 0
2.6140001 0.90847784 0.13243309 0
2.6170001 0.90577215 0.13206512 0
2.6210003 0.90348327 0.13157445 0
2.6260002 0.90160537 0.13096115 0
2.6320002 0.90013349 0.13022524 0
2.9310002 0.93100387 0.093550205 0
2.9210002 0.92259634 0.094776779 0
2.9170003 0.91651934 0.095267415 0
2.9140003 0.91083729 0.095635384 0
2.9110003 0.90516615 0.096003354 0
2.7020001 0.82184458 0.12163907 0
2.6950002 0.81506586 0.12249771 0
2.6900003 0.8090592 0.12311098 0
2.6880002 0.80418533 0.12335631 0
2.6850002 0.79894888 0.12372428 0
2.6840003 0.79445922 0.12384695 0
2.6830001 0.78997308 0.12396961 0
2.6830001 0.78585494 0.12396961 0
2.6830001 0.78173691 0.12396961 0
2.6830001 0.77761883 0.12396961 0
2.6840003 0.77385968 0.12384695 0
2.6840003 0.76973981 0.12384695 0
2.6860001 0.7663306 0.12360165 0
2.6870003 0.76256067 0.12347898 0
2.6890001 0.75913882 0.12323365 0
2.6910002 0.75570977 0.12298834 0
2.6930003 0.75227356 0.12274301 0
2.6960001 0.74917632 0.12237504 0
2.6990001 0.74606842 0.12200707 0
2.7020001 0.7429496 0.12163907 0
2.7060001 0.74016088 0.12114847 0
2.7110002 0.73769695 0.12053517 0
2.7160003 0.73521495 0.11992183 0
2.7240002 0.73372132 0.11894059 0
2.7340002 0.73286635 0.11771402 0
2.7560003 1.3096774 0.11076573 0
2.7590003 1.3071485 0.11039233 0
2.7620003 1.3046087 0.11001894 0
2.7660003 1.3026282 0.10952109 0
2.7700002 1.3006331 0.10902324 0
2.7760003 1.2997564 0.10827646 0
2.7840002 1.2999872 0.10728079 0
2.6170001 0.95376068 0.12806606 0
2.6110003 0.94706684 0.12881282 0
2.6080003 0.94173658 0.12918621 0
2.6060002 0.93686265 0.12943515 0
2.6050003 0.93243974 0.12955961 0
2.6050003 0.92846233 0.12955961 0
2.6060002 0.92492503 0.12943515 0
2.6070001 0.92138416 0.1293107 0
2.6080003 0.91783971 0.12918621 0
2.6100001 0.9147262 0.1289373 0
2.6120002 0.91160566 0.12868837 0
2.6140001 0.90847784 0.12843946 0
2.6170001 0.90577215 0.12806606 0
2.6210003 0.90348327 0.12756822 0
2.6260002 0.90160537 0.12694588 0
2.6320002 0.90013349 0.1261991 0
2.9210002 0.92259634 0.090229392 0
2.9170003 0.91651934 0.09072721 0
2.9140003 0.91083729 0.091100603 0
2.9110003 0.90516615 0.091473997 0
2.7020001 0.82184458 0.11748675 0
2.6950002 0.81506586 0.11835796 0
2.6900003 0.8090592 0.11898026 0
2.6880002 0.80418533 0.1192292 0
2.6850002 0.79894888 0.11960259 0
2.6840003 0.79445922 0.11972705 0
2.6830001 0.78997308 0.11985153 0
2.6830001 0.78585494 0.11985153 0
2.6830001 0.78173691 0.11985153 0
2.6830001 0.77761883 0.11985153 0
2.6840003 0.77385968 0.11972705 0
2.6840003 0.76973981 0.11972705 0
2.6860001 0.7663306 0.11947817 0
2.6870003 0.76256067 0.11935365 0
2.6890001 0.75913882 0.11910474 0
2.6910002 0.75570977 0.1188558 0
2.6930003 0.75227356 0.1186069 0
2.6960001 0.74917632 0.11823353 0
2.6990001 0.74606842 0.11786014 0
2.7020001 0.7429496 0.11748675 0
2.7060001 0.74016088 0.1169889 0
2.7110002 0.73769695 0.11636654 0
2.7160003 0.73521495 0.11574423 0
2.7240002 0.73372132 0.11474854 0
2.7340002 0.73286635 0.1135039 0
2.7560003 1.3096774 0.10651594 0
2.7590003 1.3071485 0.10613713 0
2.7620003 1.3046087 0.10575837 0
2.7660003 1.3026282 0.10525328 0
2.7700002 1.3006331 0.10474822 0
2.7760003 1.2997564 0.10399064 0
2.7840002 1.2999872 0.10298049 0
2.6170001 0.95376068 0.12406701 0
2.6110003 0.94706684 0.12482458 0
2.6080003 0.94173658 0.1252034 0
2.6060002 0.93686265 0.12545595 0
2.6050003 0.93243974 0.12558222 0
2.6050003 0.92846233 0.12558222 0
2.6060002 0.92492503 0.12545595 0
2.6070001 0.92138416 0.12532967 0
2.6080003 0.91783971 0.1252034 0
2.6100001 0.9147262 0.12495089 0
2.6120002 0.91160566 0.12469834 0
2.6140001 0.90847784 0.12444583 0
2.6170001 0.90577215 0.12406701 0
2.6210003 0.90348327 0.12356192 0
2.6260002 0.90160537 0.12293062 0
2.6320002 0.90013349 0.12217301 0
2.9210002 0.92259634 0.085681975 0
2.9170003 0.91651934 0.086187035 0
2.9140003 0.91083729 0.086565822 0
2.9110003 0.90516615 0.08694464 0
2.7020001 0.82184458 0.11333436 0
2.6950002 0.81506586 0.11421821 0
2.6900003 0.8090592 0.11484954 0
2.6880002 0.80418533 0.11510208 0
2.6850002 0.79894888 0.11548087 0
2.6840003 0.79445922 0.11560717 0
2.6830001 0.78997308 0.11573344 0
2.6830001 0.78585494 0.11573344 0
2.6830001 0.78173691 0.11573344 0
2.6830001 0.77761883 0.11573344 0
2.6840003 0.77385968 0.11560717 0
2.6840003 0.76973981 0.11560717 0
2.6860001 0.7663306 0.11535463 0
2.6870003 0.76256067 0.11522835 0
2.6890001 0.75913882 0.11497584 0
2.6910002 0.75570977 0.11472329 0
2.6930003 0.75227356 0.11447075 0
2.6960001 0.74917632 0.11409196 0
2.6990001 0.74606842 0.11371315 0
2.7020001 0.7429496 0.11333436 0
2.7060001 0.74016088 0.1128293 0
2.7110002 0.73769695 0.11219797 0
2.7160003 0.73521495 0.11156663 0
2.7240002 0.73372132 0.11055648 0
2.7340002 0.73286635 0.10929382 0
2.7560003 1.3096774 0.10226616 0
2.7590003 1.3071485 0.10188198 0
2.7620003 1.3046087 0.10149777 0
2.7660003 1.3026282 0.1009855 0
2.7700002 1.3006331 0.1004732 0
2.7760003 1.2997564 0.099704772 0
2.7840002 1.2999872 0.098680228 0
2.6170001 0.95376068 0.12006798 0
2.6110003 0.94706684 0.12083638 0
2.6080003 0.94173658 0.12122062 0
2.6060002 0.93686265 0.12147674 0
2.6050003 0.93243974 0.12160483 0
2.6050003 0.92846233 0.12160483 0
2.6060002 0.92492503 0.12147674 0
2.6070001 0.92138416 0.12134868 0
2.6080003 0.91783971 0.12122062 0
2.6100001 0.9147262 0.12096447 0
2.6120002 0.91160566 0.12070835 0
2.6140001 0.90847784 0.1204522 0
2.6170001 0.90577215 0.12006798 0
2.6210003 0.90348327 0.11955568 0
2.6260002 0.90160537 0.11891535 0
2.6320002 0.90013349 0.1181469 0
2.9210002 0.92259634 0.081134558 0
2.9170003 0.91651934 0.08164683 0
2.9140003 0.91083729 0.082031041 0
2.9110003 0.90516615 0.082415283 0
2.7020001 0.82184458 0.109182 0
2.6950002 0.81506586 0.11007848 0
2.6900003 0.8090592 0.11071882 0
2.6880002 0.80418533 0.11097497 0
2.6850002 0.79894888 0.11135921 0
2.6840003 0.79445922 0.11148724 0
2.6830001 0.78997308 0.11161533 0
2.6830001 0.78585494 0.11161533 0
2.6830001 0.78173691 0.11161533 0
2.6830001 0.77761883 0.11161533 0
2.6840003 0.77385968 0.11148724 0
2.6840003 0.76973981 0.11148724 0
2.6860001 0.7663306 0.11123112 0
2.6870003 0.76256067 0.11110303 0
2.6890001 0.75913882 0.11084694 0
2.6910002 0.75570977 0.11059076 0
2.6930003 0.75227356 0.11033463 0
2.6960001 0.74917632 0.10995042 0
2.6990001 0.74606842 0.10956621 0
2.7020001 0.7429496 0.109182 0
2.7060001 0.74016088 0.10866973 0
2.7110002 0.73769695 0.10802937 0
2.7160003 0.73521495 0.10738897 0
2.7240002 0.73372132 0.10636443 0
2.7340002 0.73286635 0.10508373 0
2.7560003 1.3096774 0.098016381 0
2.7590003 1.3071485 0.097626776 0
2.7620003 1.3046087 0.09723717 0
2.7660003 1.3026282 0.096717656 0
2.7700002 1.3006331 0.096198171 0
2.7760003 1.2997564 0.09541893 0
2.7840002 1.2999872 0.094379932 0
2.6170001 0.95376068 0.11606896 0
2.6110003 0.94706684 0.11684817 0
2.6080003 0.94173658 0.11723778 0
2.6060002 0.93686265 0.11749756 0
2.6050003 0.93243974 0.11762741 0
2.6050003 0.92846233 0.11762741 0
2.6060002 0.92492503 0.11749756 0
2.6070001 0.92138416 0.11736768 0
2.6080003 0.91783971 0.11723778 0
2.6100001 0.9147262 0.11697808 0
2.6120002 0.91160566 0.11671829 0
2.6140001 0.90847784 0.11645856 0
2.6170001 0.90577215 0.11606896 0
2.6210003 0.90348327 0.11554942 0
2.6260002 0.90160537 0.11490008 0
2.6320002 0.90013349 0.11412081 0
2.9210002 0.92259634 0.07658717 0
2.9170003 0.91651934 0.077106655 0
2.9140003 0.91083729 0.07749629 0
2.9110003 0.90516615 0.077885926 0
2.7020001 0.82184458 0.10502964 0
2.6950002 0.81506586 0.10593873 0
2.6900003 0.8090592 0.1065881 0
2.6880002 0.80418533 0.10684785 0
2.6850002 0.79894888 0.10723749 0
2.6840003 0.79445922 0.10736734 0
2.6830001 0.78997308 0.10749725 0
2.6830001 0.78585494 0.10749725 0
2.6830001 0.78173691 0.10749725 0
2.6830001 0.77761883 0.10749725 0
2.6840003 0.77385968 0.10736734 0
2.6840003 0.76973981 0.10736734 0
2.6860001 0.7663306 0.10710764 0
2.6870003 0.76256067 0.10697773 0
2.6890001 0.75913882 0.106718 0
2.6910002 0.75570977 0.10645825 0
2.6930003 0.75227356 0.10619849 0
2.6960001 0.74917632 0.10580888 0
2.6990001 0.74606842 0.10541925 0
2.7020001 0.7429496 0.10502964 0
2.7060001 0.74016088 0.10451016 0
2.7110002 0.73769695 0.10386074 0
2.7160003 0.73521495 0.10321137 0
2.7240002 0.73372132 0.1021724 0
2.7340002 0.73286635 0.10087365 0
2.9620001 0.79046553 0.07126233 0
2.9620001 0.78584415 0.07126233 0
2.9620001 0.78122276 0.07126233 0
2.9620001 0.77660149 0.07126233 0
2.9620001 0.77198011 0.07126233 0
2.9620001 0.76735878 0.07126233 0
2.9630003 0.76305312 0.071132451 0
2.9650002 0.75905758 0.070872724 0
2.9670002 0.75505501 0.070612967 0
2.9690001 0.75104511 0.07035321 0
2.9710002 0.74702805 0.070093483 0
2.7560003 1.3096774 0.093766659 0
2.7590003 1.3071485 0.0933716 0
2.7620003 1.3046087 0.09297657 0
2.7660003 1.3026282 0.092449844 0
2.7700002 1.3006331 0.091923147 0
2.7760003 1.2997564 0.091133088 0
2.7840002 1.2999872 0.090079665 0
2.6170001 0.95376068 0.1120699 0
2.6110003 0.94706684 0.11285993 0
2.6080003 0.94173658 0.11325496 0
2.6060002 0.93686265 0.11351833 0
2.6050003 0.93243974 0.11365002 0
2.6050003 0.92846233 0.11365002 0
2.6060002 0.92492503 0.11351833 0
2.6070001 0.92138416 0.11338666 0
2.6080003 0.91783971 0.11325496 0
2.6100001 0.9147262 0.11299163 0
2.6120002 0.91160566 0.11272827 0
2.6140001 0.90847784 0.11246493 0
2.6170001 0.90577215 0.1120699 0
2.6210003 0.90348327 0.11154318 0
2.6260002 0.90160537 0.11088479 0
2.6320002 0.90013349 0.11009473 0
2.9210002 0.92259634 0.072039783 0
2.9170003 0.91651934 0.072566479 0
2.9140003 0.91083729 0.072961509 0
2.9110003 0.90516615 0.073356539 0
2.7020001 0.82184458 0.10087726 0
2.6950002 0.81506586 0.10179901 0
2.6900003 0.8090592 0.10245737 0
2.6880002 0.80418533 0.10272077 0
2.6850002 0.79894888 0.10311577 0
2.6840003 0.79445922 0.10324746 0
2.6830001 0.78997308 0.10337916 0
2.6830001 0.78585494 0.10337916 0
2.6830001 0.78173691 0.10337916 0
2.6830001 0.77761883 0.10337916 0
2.6840003 0.77385968 0.10324746 0
2.6840003 0.76973981 0.10324746 0
2.6860001 0.7663306 0.1029841 0
2.6870003 0.76256067 0.1028524 0
2.6890001 0.75913882 0.10258907 0
2.6910002 0.75570977 0.10232571 0
2.6930003 0.75227356 0.10206234 0
2.6960001 0.74917632 0.10166734 0
2.6990001 0.74606842 0.10127231 0
2.7020001 0.7429496 0.10087726 0
2.7060001 0.74016088 0.10035056 0
2.7110002 0.73769695 0.099692166 0
2.7160003 0.73521495 0.099033743 0
2.7240002 0.73372132 0.09798035 0
2.7340002 0.73286635 0.096663564 0
2.9520001 0.78720063 0.067957759 0
2.9540002 0.78324676 0.067694396 0
2.9550002 0.77896261 0.067562729 0
2.9570003 0.7749961 0.067299366 0
2.9590001 0.77102226 0.067036003 0
2.9610002 0.76704133 0.06677267 0
2.9630003 0.76305312 0.066509277 0
2.9650002 0.75905758 0.066245943 0
2.9670002 0.75505501 0.06598258 0
2.9690001 0.75104511 0.065719247 0
2.9710002 0.74702805 0.065455854 0
2.9730003 0.74300379 0.065192521 0
2.7560003 1.3096774 0.089516878 0
2.7590003 1.3071485 0.089116424 0
2.7620003 1.3046087 0.088715971 0
2.7660003 1.3026282 0.088182032 0
2.7700002 1.3006331 0.087648124 0
2.7760003 1.2997564 0.086847246 0
2.7840002 1.2999872 0.085779399 0
2.6170001 0.95376068 0.10807085 0
2.6110003 0.94706684 0.10887173 0
2.6080003 0.94173658 0.10927218 0
2.6060002 0.93686265 0.10953915 0
2.6050003 0.93243974 0.10967261 0
2.6050003 0.92846233 0.10967261 0
2.6060002 0.92492503 0.10953915 0
2.6070001 0.92138416 0.10940567 0
2.6080003 0.91783971 0.10927218 0
2.6100001 0.9147262 0.10900521 0
2.6120002 0.91160566 0.10873827 0
2.6140001 0.90847784 0.1084713 0
2.6170001 0.90577215 0.10807085 0
2.6210003 0.90348327 0.10753688 0
2.6260002 0.90160537 0.10686952 0
2.6320002 0.90013349 0.10606861 0
2.9230001 0.92791569 0.067225426 0
2.8940003 0.91222262 0.071096361 0
2.8950002 0.90810627 0.070962906 0
2.8960001 0.90398639 0.070829421 0
2.8980002 0.90024173 0.070562452 0
2.7020001 0.82184458 0.096724898 0
2.6950002 0.81506586 0.09765926 0
2.6900003 0.8090592 0.098326653 0
2.6880002 0.80418533 0.098593622 0
2.6850002 0.79894888 0.098994076 0
2.6840003 0.79445922 0.099127561 0
2.6830001 0.78997308 0.099261045 0
2.6830001 0.78585494 0.099261045 0
2.6830001 0.78173691 0.099261045 0
2.6830001 0.77761883 0.099261045 0
2.6840003 0.77385968 0.099127561 0
2.6840003 0.76973981 0.099127561 0
2.6860001 0.7663306 0.098860621 0
2.6870003 0.76256067 0.098727107 0
2.6890001 0.75913882 0.098460168 0
2.6910002 0.75570977 0.098193169 0
2.6930003 0.75227356 0.097926199 0
2.6960001 0.74917632 0.097525775 0
2.6990001 0.74606842 0.097125322 0
2.7020001 0.7429496 0.096724898 0
2.7060001 0.74016088 0.096190989 0
2.7110002 0.73769695 0.095523566 0
2.7160003 0.73521495 0.094856113 0
2.7240002 0.73372132 0.093788266 0
2.7340002 0.73286635 0.09245348 0
2.9500003 0.79114741 0.063621402 0
2.9520001 0.78720063 0.063354433 0
2.9540002 0.78324676 0.063087463 0
2.9550002 0.77896261 0.062954009 0
2.9570003 0.7749961 0.06268701 0
2.9590001 0.77102226 0.0624201 0
2.9610002 0.76704133 0.062153101 0
2.9630003 0.76305312 0.061886132 0
2.9650002 0.75905758 0.061619192 0
2.9670002 0.75505501 0.061352223 0
2.9690001 0.75104511 0.061085254 0
2.9710002 0.74702805 0.060818285 0
2.9730003 0.74300379 0.060551316 0
2.7560003 1.3096774 0.085267097 0
2.7590003 1.3071485 0.084861219 0
2.7620003 1.3046087 0.084455371 0
2.7660003 1.3026282 0.08391425 0
2.7700002 1.3006331 0.0833731 0
2.7760003 1.2997564 0.082561374 0
2.7840002 1.2999872 0.081479102 0
2.6170001 0.95376068 0.10407183 0
2.6110003 0.94706684 0.10488349 0
2.6080003 0.94173658 0.10528937 0
2.6060002 0.93686265 0.10555995 0
2.6050003 0.93243974 0.10569522 0
2.6050003 0.92846233 0.10569522 0
2.6060002 0.92492503 0.10555995 0
2.6070001 0.92138416 0.10542467 0
2.6080003 0.91783971 0.10528937 0
2.6100001 0.9147262 0.10501882 0
2.6120002 0.91160566 0.10474822 0
2.6140001 0.90847784 0.10447767 0
2.6170001 0.90577215 0.10407183 0
2.6210003 0.90348327 0.10353065 0
2.6260002 0.90160537 0.10285422 0
2.6320002 0.90013349 0.10204253 0
2.8930001 0.91183841 0.066732973 0
2.8950002 0.90810627 0.066462398 0
2.8960001 0.90398639 0.066327125 0
2.8980002 0.90024173 0.06605655 0
2.7020001 0.82184458 0.09257251 0
2.6950002 0.81506586 0.093519539 0
2.6900003 0.8090592 0.094195932 0
2.6880002 0.80418533 0.094466537 0
2.6850002 0.79894888 0.094872385 0
2.6840003 0.79445922 0.095007658 0
2.6830001 0.78997308 0.095142961 0
2.6830001 0.78585494 0.095142961 0
2.6830001 0.78173691 0.095142961 0
2.6830001 0.77761883 0.095142961 0
2.6840003 0.77385968 0.095007658 0
2.6840003 0.76973981 0.095007658 0
2.6860001 0.7663306 0.094737113 0
2.6870003 0.76256067 0.09460181 0
2.6890001 0.75913882 0.094331235 0
2.6910002 0.75570977 0.094060659 0
2.6930003 0.75227356 0.093790084 0
2.6960001 0.74917632 0.093384266 0
2.6990001 0.74606842 0.092978388 0
2.7020001 0.7429496 0.09257251 0
2.7060001 0.74016088 0.092031389 0
2.7110002 0.73769695 0.091354936 0
2.7160003 0.73521495 0.090678513 0
2.7240002 0.73372132 0.089596242 0
2.7340002 0.73286635 0.088243395 0
2.9520001 0.78720063 0.058751106 0
2.9540002 0.78324676 0.058480561 0
2.9550002 0.77896261 0.058345288 0
2.9570003 0.7749961 0.058074683 0
2.9590001 0.77102226 0.057804137 0
2.9610002 0.76704133 0.057533532 0
2.9630003 0.76305312 0.057262957 0
2.9650002 0.75905758 0.056992412 0
2.9670002 0.75505501 0.056721836 0
2.9690001 0.75104511 0.056451261 0
2.9710002 0.74702805 0.056180686 0
2.7560003 1.3096774 0.081017315 0
2.7590003 1.3071485 0.080606043 0
2.7620003 1.3046087 0.080194771 0
2.7660003 1.3026282 0.079646438 0
2.7700002 1.3006331 0.079098076 0
2.7760003 1.2997564 0.078275532 0
2.7840002 1.2999872 0.077178836 0
2.6170001 0.95376068 0.10007277 0
2.6110003 0.94706684 0.10089529 0
2.6080003 0.94173658 0.10130656 0
2.6060002 0.93686265 0.10158074 0
2.6050003 0.93243974 0.1017178 0
2.6050003 0.92846233 0.1017178 0
2.6060002 0.92492503 0.10158074 0
2.6070001 0.92138416 0.10144368 0
2.6080003 0.91783971 0.10130656 0
2.6100001 0.9147262 0.10103238 0
2.6120002 0.91160566 0.10075819 0
2.6140001 0.90847784 0.10048404 0
2.6170001 0.90577215 0.10007277 0
2.6210003 0.90348327 0.099524379 0
2.6260002 0.90160537 0.098838955 0
2.6320002 0.90013349 0.098016411 0
2.8930001 0.91183841 0.0622361 0
2.8950002 0.90810627 0.061961889 0
2.8960001 0.90398639 0.061824828 0
2.8980002 0.90024173 0.061550617 0
2.7020001 0.82184458 0.088420182 0
2.6950002 0.81506586 0.089379787 0
2.6900003 0.8090592 0.090065241 0
2.6880002 0.80418533 0.090339422 0
2.6850002 0.79894888 0.090750694 0
2.6840003 0.79445922 0.090887755 0
2.6830001 0.78997308 0.091024876 0
2.6830001 0.78585494 0.091024876 0
2.6830001 0.78173691 0.091024876 0
2.6830001 0.77761883 0.091024876 0
2.6840003 0.77385968 0.090887755 0
2.6840003 0.76973981 0.090887755 0
2.6860001 0.7663306 0.090613574 0
2.6870003 0.76256067 0.090476483 0
2.6890001 0.75913882 0.090202332 0
2.6910002 0.75570977 0.08992812 0
2.6930003 0.75227356 0.089653939 0
2.6960001 0.74917632 0.089242697 0
2.6990001 0.74606842 0.088831455 0
2.7020001 0.7429496 0.088420182 0
2.7060001 0.74016088 0.08787182 0
2.7110002 0.73769695 0.087186366 0
2.7160003 0.73521495 0.086500883 0
2.7240002 0.73372132 0.085404187 0
2.7340002 0.73286635 0.08403331 0
2.9520001 0.78720063 0.05414781 0
2.9540002 0.78324676 0.053873628 0
2.9550002 0.77896261 0.053736538 0
2.9570003 0.7749961 0.053462327 0
2.9590001 0.77102226 0.053188175 0
2.9610002 0.76704133 0.052914023 0
2.9630003 0.76305312 0.052639812 0
2.9650002 0.75905758 0.052365661 0
2.9670002 0.75505501 0.052091449 0
2.9690001 0.75104511 0.051817298 0
2.9710002 0.74702805 0.051543087 0
2.7560003 1.3096774 0.076767534 0
2.7590003 1.3071485 0.076350868 0
2.7620003 1.3046087 0.075934172 0
2.7660003 1.3026282 0.075378627 0
2.7700002 1.3006331 0.074823052 0
2.7760003 1.2997564 0.073989689 0
2.7840002 1.2999872 0.07287854 0
2.6170001 0.95376068 0.096073717 0
2.6110003 0.94706684 0.096907079 0
2.6080003 0.94173658 0.097323716 0
2.6060002 0.93686265 0.097601563 0
2.6050003 0.93243974 0.097740412 0
2.6050003 0.92846233 0.097740412 0
2.6060002 0.92492503 0.097601563 0
2.6070001 0.92138416 0.097462684 0
2.6080003 0.91783971 0.097323716 0
2.6100001 0.9147262 0.097045988 0
2.6120002 0.91160566 0.0967682 0
2.6140001 0.90847784 0.096490413 0
2.6170001 0.90577215 0.096073717 0
2.6210003 0.90348327 0.095518142 0
2.6260002 0.90160537 0.094823688 0
2.6320002 0.90013349 0.093990296 0
2.8930001 0.91183841 0.057739198 0
2.8950002 0.90810627 0.057461411 0
2.8960001 0.90398639 0.057322502 0
2.8980002 0.90024173 0.057044715 0
2.7020001 0.82184458 0.084267795 0
2.6950002 0.81506586 0.085240036 0
2.6900003 0.8090592 0.08593449 0
2.6880002 0.80418533 0.086212277 0
2.6850002 0.79894888 0.086628973 0
2.6840003 0.79445922 0.086767852 0
2.6830001 0.78997308 0.086906761 0
2.6830001 0.78585494 0.086906761 0
2.6830001 0.78173691 0.086906761 0
2.6830001 0.77761883 0.086906761 0
2.6840003 0.77385968 0.086767852 0
2.6840003 0.76973981 0.086767852 0
2.6860001 0.7663306 0.086490095 0
2.6870003 0.76256067 0.086351186 0
2.6890001 0.75913882 0.086073399 0
2.6910002 0.75570977 0.085795611 0
2.6930003 0.75227356 0.085517794 0
2.6960001 0.74917632 0.085101157 0
2.6990001 0.74606842 0.084684491 0
2.7020001 0.7429496 0.084267795 0
2.7060001 0.74016088 0.08371225 0
2.7110002 0.73769695 0.083017766 0
2.7160003 0.73521495 0.082323283 0
2.7240002 0.73372132 0.081212133 0
2.7340002 0.73286635 0.079823226 0
2.7560003 1.3096774 0.072517753 0
2.7590003 1.3071485 0.072095692 0
2.7620003 1.3046087 0.071673572 0
2.7660003 1.3026282 0.071110785 0
2.7700002 1.3006331 0.070547998 0
2.7760003 1.2997564 0.069703817 0
2.7840002 1.2999872 0.068578273 0
