# .PCD v0.7 - Point Cloud Data file format
VERSION 0.7
FIELDS x y z intensity
SIZE 4 4 4 4
TYPE F F F F
COUNT 1 1 1 1
WIDTH 1423
HEIGHT 1
VIEWPOINT 0 0 0 1 0 0 0
POINTS 1423
DATA ascii
4.4860001 -1.1294429 1.037851 0
4.4820004 -1.1357455 1.0372305 0
4.4790001 -1.1423023 1.0367651 0
4.4770002 -1.149119 1.0364548 0
4.4740005 -1.155656 1.0359895 0
4.4730005 -1.1627306 1.0358344 0
4.4710002 -1.1695254 1.0355241 0
4.4700003 -1.1765909 1.0353689 0
4.4690003 -1.1836529 1.0352138 0
4.4690003 -1.1909926 1.0352138 0
4.4690003 -1.1983322 1.0352138 0
4.4700003 -1.2059568 1.0353689 0
4.4710002 -1.2135851 1.0355241 0
4.4720001 -1.2212172 1.0356792 0
4.4750004 -1.2294335 1.0361446 0
4.4780002 -1.2376605 1.03661 0
4.4810004 -1.2458987 1.0370754 0
4.4860001 -1.254739 1.037851 0
4.4920001 -1.2638952 1.0387818 0
4.4990001 -1.2733724 1.0398676 0
4.5090003 -1.2837787 1.0414189 0
4.5580001 -1.0735321 1.0415199 0
4.5450001 -1.0777963 1.0395267 0
4.5350003 -1.0827658 1.0379936 0
4.5260005 -1.0879519 1.0366136 0
4.5190001 -1.0936139 1.0355403 0
4.5120001 -1.0992508 1.034467 0
4.5060005 -1.1051205 1.0335472 0
4.5010004 -1.1112282 1.0327805 0
4.4960003 -1.1173178 1.0320139 0
4.4910002 -1.1233894 1.0312473 0
4.4870005 -1.1297082 1.0306339 0
4.4840002 -1.1362793 1.030174 0
4.4810004 -1.1428399 1.0297141 0
4.4780002 -1.1493895 1.0292541 0
4.4760003 -1.1562006 1.0289475 0
4.4740005 -1.1630046 1.0286409 0
4.4730005 -1.1700774 1.0284874 0
4.4720001 -1.1771464 1.028334 0
4.4710002 -1.184212 1.0281807 0
4.4710002 -1.1915553 1.0281807 0
4.4710002 -1.1988987 1.0281807 0
4.4710002 -1.2062418 1.0281807 0
4.4720001 -1.213872 1.028334 0
4.4740005 -1.2217945 1.0286409 0
4.4760003 -1.2297239 1.0289475 0
4.4790001 -1.2379528 1.0294074 0
4.4830003 -1.2464868 1.0300207 0
4.4880004 -1.2553308 1.0307872 0
4.4940004 -1.2644906 1.0317073 0
4.5020003 -1.2742708 1.0329338 0
4.5120001 -1.2846823 1.034467 0
4.5590005 -1.0737793 1.0341712 0
4.5470004 -1.0782943 1.032353 0
4.5370002 -1.0832673 1.0308378 0
4.5290003 -1.0887094 1.0296257 0
4.5210004 -1.0941226 1.0284135 0
4.5140004 -1.0997632 1.0273528 0
4.5080004 -1.1056364 1.0264437 0
4.5020003 -1.1114879 1.0255346 0
4.4970002 -1.1175793 1.0247771 0
4.4930005 -1.1239161 1.024171 0
4.4890003 -1.1302384 1.0235648 0
4.4860001 -1.1368133 1.0231103 0
4.4830003 -1.1433773 1.0226557 0
4.4800005 -1.1499307 1.0222012 0
4.4780002 -1.1567454 1.0218982 0
4.4760003 -1.163553 1.0215951 0
4.4740005 -1.1703534 1.0212921 0
4.4730005 -1.1774243 1.0211406 0
4.4730005 -1.1847713 1.0211406 0
4.4720001 -1.1918366 1.0209889 0
4.4730005 -1.199465 1.0211406 0
4.4730005 -1.206812 1.0211406 0
4.4750004 -1.2147325 1.0214436 0
4.4760003 -1.2223716 1.0215951 0
4.4790001 -1.2305951 1.0220495 0
4.4820004 -1.2388296 1.0225042 0
4.4860001 -1.2473687 1.0231103 0
4.4900002 -1.2559223 1.0237163 0
4.4960003 -1.2650857 1.0246255 0
4.5040002 -1.2748697 1.0258377 0
4.5160003 -1.2858872 1.0276558 0
4.5630002 -1.0747677 1.0272681 0
4.5510001 -1.0792899 1.0254714 0
4.5400004 -1.0840194 1.0238246 0
4.5310001 -1.0892144 1.0224771 0
4.5230002 -1.0946313 1.0212795 0
4.5160003 -1.1002754 1.0202314 0
4.5100002 -1.1061523 1.0193331 0
4.5050001 -1.112267 1.0185845 0
4.5000005 -1.1183641 1.017836 0
4.4950004 -1.1244429 1.0170873 0
4.4910002 -1.1307688 1.0164886 0
4.4880004 -1.1373473 1.0160394 0
4.4850001 -1.1439148 1.0155902 0
4.4820004 -1.1504718 1.0151411 0
4.4800005 -1.1572902 1.0148417 0
4.4780002 -1.1641014 1.0145422 0
4.4770002 -1.1711813 1.0143925 0
4.4760003 -1.1782577 1.0142428 0
4.4750004 -1.1853304 1.014093 0
4.4750004 -1.192681 1.014093 0
4.4750004 -1.2000314 1.014093 0
4.4760003 -1.207667 1.0142428 0
4.4770002 -1.215306 1.0143925 0
4.4790001 -1.2232374 1.0146919 0
4.4810004 -1.231176 1.0149914 0
4.4850001 -1.2397062 1.0155902 0
4.4880004 -1.2479569 1.0160394 0
4.4940004 -1.2571058 1.0169377 0
4.5000005 -1.2662764 1.017836 0
4.5090003 -1.2763668 1.0191834 0
4.5680003 -1.0760034 1.0204984 0
4.5540004 -1.0800366 1.0184276 0
4.5430002 -1.0847716 1.0168005 0
4.5340004 -1.0899721 1.0154694 0
4.5260005 -1.0953944 1.014286 0
4.5190001 -1.1010438 1.0132506 0
4.5130005 -1.1069261 1.0123632 0
4.5080004 -1.1130464 1.0116236 0
4.5020003 -1.1188871 1.0107361 0
4.4980001 -1.1252328 1.0101445 0
4.4940004 -1.1315643 1.009553 0
4.4910002 -1.1381482 1.0091091 0
4.4870005 -1.1444526 1.0085175 0
4.4850001 -1.1512835 1.0082216 0
4.4830003 -1.1581073 1.0079259 0
4.4810004 -1.164924 1.00763 0
4.4790001 -1.1717331 1.0073341 0
4.4790001 -1.179091 1.0073341 0
4.4780002 -1.1861691 1.0071863 0
4.4780002 -1.1935251 1.0071863 0
4.4780002 -1.200881 1.0071863 0
4.4790001 -1.2085218 1.0073341 0
4.4800005 -1.2161666 1.0074822 0
4.4820004 -1.2241033 1.0077779 0
4.4850001 -1.2323376 1.0082216 0
4.4880004 -1.2405828 1.0086654 0
4.4920001 -1.2491328 1.0092571 0
4.4980001 -1.258289 1.0101445 0
4.5040002 -1.2674668 1.011032 0
4.5140004 -1.277864 1.0125111 0
4.5720005 -1.0769918 1.0135646 0
4.5580001 -1.0810324 1.011519 0
4.5470004 -1.0857747 1.0099118 0
4.5380001 -1.0909822 1.0085968 0
4.5300002 -1.0964116 1.0074279 0
4.5230002 -1.1020683 1.0064052 0
4.5160003 -1.1076999 1.0053825 0
4.5100002 -1.1135659 1.0045058 0
4.5060005 -1.1199334 1.0039214 0
4.5010004 -1.1260229 1.0031909 0
4.4970002 -1.1323597 1.0026064 0
4.4940004 -1.138949 1.0021681 0
4.4910002 -1.1455275 1.0017297 0
4.4880004 -1.1520953 1.0012914 0
4.4860001 -1.1589245 1.0009992 0
4.4840002 -1.1657463 1.000707 0
4.4830003 -1.1728373 1.0005609 0
4.4820004 -1.1799244 1.0004148 0
4.4810004 -1.1870079 1.0002687 0
4.4810004 -1.1943693 1.0002687 0
4.4810004 -1.2017306 1.0002687 0
4.4820004 -1.2093769 1.0004148 0
4.4840002 -1.2173136 1.000707 0
4.4860001 -1.2252576 1.0009992 0
4.4880004 -1.2332089 1.0012914 0
4.4920001 -1.2417517 1.0018759 0
4.4960003 -1.2503089 1.0024602 0
4.5020003 -1.2594723 1.0033369 0
4.5100002 -1.2692525 1.0045058 0
4.5200005 -1.2796606 1.0059669 0
4.5650001 -1.0827749 1.005029 0
4.5530005 -1.087279 1.0032973 0
4.5430002 -1.0922449 1.0018542 0
4.5340004 -1.097429 1.0005555 0
4.5270004 -1.103093 0.99954534 0
4.5200005 -1.1087316 0.99853528 0
4.5150003 -1.1148647 0.9978137 0
4.5100002 -1.1209795 0.99709213 0
4.5050001 -1.1270764 0.99637055 0
4.5010004 -1.1334205 0.99579346 0
4.4980001 -1.1400169 0.99536049 0
4.4940004 -1.1463338 0.99478328 0
4.4920001 -1.1531774 0.99449468 0
4.4900002 -1.1600139 0.99420607 0
4.4880004 -1.1668432 0.99391747 0
4.4860001 -1.1736652 0.99362886 0
4.4850001 -1.1807578 0.9934845 0
4.4850001 -1.1881262 0.9934845 0
4.4850001 -1.1954948 0.9934845 0
4.4860001 -1.2031466 0.99362886 0
4.4870005 -1.210802 0.99377322 0
4.4880004 -1.218461 0.99391747 0
4.4900002 -1.2264121 0.99420607 0
4.4930005 -1.234661 0.99463904 0
4.4970002 -1.2432127 0.99521613 0
4.5020003 -1.252073 0.99593771 0
4.5080004 -1.2612473 0.99680352 0
4.5170002 -1.2713358 0.99810231 0
4.5720005 -1.0845175 0.99851358 0
4.5590005 -1.0887834 0.99666107 0
4.5480003 -1.0935075 0.99509358 0
4.5390005 -1.0987008 0.99381101 0
4.5320001 -1.1043737 0.99281347 0
4.5250001 -1.1100214 0.99181604 0
4.5190001 -1.1159035 0.99096096 0
4.5140004 -1.1220257 0.99024856 0
4.5090003 -1.1281297 0.98953605 0
4.5050001 -1.134481 0.98896599 0
4.5020003 -1.1410847 0.9885385 0
4.4980001 -1.1474088 0.98796844 0
4.4960003 -1.1542598 0.98768353 0
4.4940004 -1.1611035 0.98739851 0
4.4920001 -1.1679398 0.98711348 0
4.4910002 -1.1750451 0.9869709 0
4.4900002 -1.1821467 0.98682845 0
4.4890003 -1.1892446 0.98668599 0
4.4890003 -1.1966205 0.98668599 0
4.4900002 -1.2042793 0.98682845 0
4.4910002 -1.2119418 0.9869709 0
4.4930005 -1.219895 0.98725605 0
4.4950004 -1.2278552 0.98754108 0
4.4980001 -1.236113 0.98796844 0
4.5030003 -1.244966 0.98868108 0
4.5080004 -1.2538372 0.98939347 0
4.5150003 -1.2633181 0.99039102 0
4.5250001 -1.2737169 0.99181604 0
4.5650001 -1.0902877 0.99000311 0
4.5550003 -1.0952753 0.9885962 0
4.5460005 -1.1004812 0.98732996 0
4.5380001 -1.1059104 0.98620439 0
4.5310001 -1.111569 0.98521948 0
4.5240002 -1.1172023 0.98423457 0
4.5190001 -1.1233335 0.98353112 0
4.5140004 -1.1294466 0.98282766 0
4.5100002 -1.1358068 0.98226488 0
4.5060005 -1.1421527 0.98170209 0
4.5030003 -1.1487528 0.98127997 0
4.5010004 -1.1556126 0.98099864 0
4.4980001 -1.1621929 0.98057652 0
4.4970002 -1.1693107 0.98043573 0
4.4950004 -1.176149 0.9801544 0
4.4950004 -1.1835357 0.9801544 0
4.4940004 -1.1906427 0.98001373 0
4.4950004 -1.1983088 0.9801544 0
4.4950004 -1.2056954 0.9801544 0
4.4960003 -1.213367 0.98029506 0
4.4980001 -1.221329 0.98057652 0
4.5010004 -1.2295868 0.98099864 0
4.5050001 -1.2381458 0.9815613 0
4.5090003 -1.2467194 0.98212421 0
4.5160003 -1.2561893 0.983109 0
4.5230002 -1.2656846 0.9840939 0
4.5760002 -1.0930457 0.98401809 0
4.5630002 -1.0972955 0.98221254 0
4.5530005 -1.1022614 0.98082364 0
4.5440001 -1.1074473 0.97957361 0
4.5370002 -1.1131166 0.97860134 0
4.5310001 -1.1190206 0.97776794 0
4.5250001 -1.1249027 0.97693455 0
4.5200005 -1.1310269 0.97624016 0
4.5160003 -1.1373978 0.97568452 0
4.5120001 -1.1437544 0.97512901 0
4.5090003 -1.1503654 0.97471225 0
4.5060005 -1.1569656 0.97429562 0
4.5040002 -1.1638272 0.97401786 0
4.5020003 -1.1706816 0.97373998 0
4.5010004 -1.1778049 0.97360122 0
4.5000005 -1.1849246 0.97346234 0
4.5000005 -1.1923202 0.97346234 0
4.5000005 -1.1997157 0.97346234 0
4.5010004 -1.2073946 0.97360122 0
4.5030003 -1.2153621 0.97387898 0
4.5050001 -1.2233366 0.97415674 0
4.5080004 -1.2316071 0.97457337 0
4.5120001 -1.2401787 0.97512901 0
4.5170002 -1.2490572 0.9758234 0
4.5250001 -1.2588356 0.97693455 0
4.5340004 -1.2689388 0.9781847 0
4.5740004 -1.1000735 0.97621131 0
4.5620003 -1.1045505 0.97456622 0
4.5520005 -1.1094965 0.97319531 0
4.5440001 -1.1149223 0.97209859 0
4.5380001 -1.1208388 0.97127604 0
4.5320001 -1.1267337 0.9704535 0
4.5260005 -1.1326069 0.96963096 0
4.5220003 -1.1389887 0.96908259 0
4.5190001 -1.1456231 0.96867132 0
4.5150003 -1.1519779 0.96812296 0
4.5120001 -1.1585889 0.96771169 0
4.5100002 -1.1654614 0.96743751 0
4.5080004 -1.1723267 0.96716332 0
4.5070004 -1.1794608 0.96702623 0
4.5070004 -1.186869 0.96702623 0
4.5060005 -1.1939977 0.96688926 0
4.5070004 -1.2016855 0.96702623 0
4.5080004 -1.2093769 0.96716332 0
4.5100002 -1.2173569 0.96743751 0
4.5120001 -1.2253442 0.96771169 0
4.5160003 -1.233916 0.96826005 0
4.5210004 -1.2427925 0.9689455 0
4.5270004 -1.2519794 0.96976817 0
4.5370002 -1.2623638 0.97113895 0
4.5520005 -1.2742636 0.97319531 0
4.5860004 -1.1031038 0.97030556 0
4.5730004 -1.1073482 0.96854699 0
4.5620003 -1.1120579 0.96705878 0
4.5540004 -1.1175017 0.96597648 0
4.5460005 -1.1229168 0.96489418 0
4.5390005 -1.1285646 0.96394718 0
4.5340004 -1.1347138 0.96327078 0
4.5300002 -1.1411101 0.96272957 0
4.5260005 -1.1474919 0.96218848 0
4.5220003 -1.1538594 0.96164739 0
4.5200005 -1.1607536 0.96137679 0
4.5170002 -1.1673679 0.96097088 0
4.5150003 -1.174246 0.96070039 0
4.5150003 -1.1816686 0.96070039 0
4.5140004 -1.1888136 0.96056509 0
4.5140004 -1.1962345 0.96056509 0
4.5150003 -1.2039367 0.96070039 0
4.5160003 -1.2116425 0.96083558 0
4.5180001 -1.2196369 0.96110618 0
4.5210004 -1.2279255 0.96151209 0
4.5260005 -1.2368021 0.96218848 0
4.5320001 -1.2459871 0.96300018 0
4.5400004 -1.2557782 0.96408248 0
4.5560002 -1.2679502 0.96624708 0
4.5750003 -1.1153877 0.96128654 0
4.5640001 -1.1200812 0.95981824 0
4.5550003 -1.1252545 0.95861685 0
4.5490003 -1.13118 0.957816 0
4.5430002 -1.1370839 0.95701516 0
4.5390005 -1.1434965 0.95648122 0
4.5340004 -1.1496276 0.95581377 0
4.5310001 -1.1562781 0.95541334 0
4.5280004 -1.162918 0.95501292 0
4.5250001 -1.169547 0.95461249 0
4.5240002 -1.1767136 0.95447898 0
4.5230002 -1.1838765 0.95434546 0
4.5220003 -1.1910359 0.95421207 0
4.5230002 -1.1987506 0.95434546 0
4.5240002 -1.2064692 0.95447898 0
4.5250001 -1.2141912 0.95461249 0
4.5290003 -1.222772 0.95514643 0
4.5320001 -1.2310803 0.95554686 0
4.5380001 -1.2402654 0.9563477 0
4.5470004 -1.2503433 0.9575491 0
4.5610003 -1.2619146 0.95941782 0
4.5700002 -1.0614538 0.95309722 0
4.5690002 -1.0687304 0.95296562 0
4.5690002 -1.0762504 0.95296562 0
4.5700002 -1.0840194 0.95309722 0
4.5700002 -1.0915413 0.95309722 0
4.5700002 -1.0990632 0.95309722 0
4.5700002 -1.1065851 0.95309722 0
4.5700002 -1.114107 0.95309722 0
4.5700002 -1.1216289 0.95309722 0
4.5690002 -1.128891 0.95296562 0
4.5610003 -1.1343187 0.95191216 0
4.5540004 -1.1399809 0.95099044 0
4.5490003 -1.1461481 0.95033205 0
4.5440001 -1.1522973 0.94967365 0
4.5410004 -1.1589659 0.94927859 0
4.5380001 -1.1656238 0.94888353 0
4.5350003 -1.1722708 0.94848859 0
4.5340004 -1.1794554 0.94835687 0
4.5330005 -1.1866364 0.94822514 0
4.5320001 -1.1938137 0.94809341 0
4.5330005 -1.2015467 0.94822514 0
4.5350003 -1.2095646 0.94848859 0
4.5370002 -1.2175897 0.94875193 0
4.5420003 -1.226477 0.94941032 0
4.5460005 -1.2350956 0.94993699 0
4.5560002 -1.2454603 0.95125377 0
4.5720005 -1.2576036 0.95336068 0
4.5730004 -1.2654213 0.95349228 0
4.5730004 -1.2729486 0.95349228 0
4.5730004 -1.280476 0.95349228 0
4.5730004 -1.2880032 0.95349228 0
4.5730004 -1.2955306 0.95349228 0
4.5650001 -1.0452105 0.94492602 0
4.5600004 -1.051515 0.94427669 0
4.5570002 -1.0582881 0.943887 0
4.5560002 -1.0655413 0.94375718 0
4.5560002 -1.0730379 0.94375718 0
4.5560002 -1.0805345 0.94375718 0
4.5560002 -1.0880312 0.94375718 0
4.5560002 -1.0955278 0.94375718 0
4.5560002 -1.1030244 0.94375718 0
4.5560002 -1.1105211 0.94375718 0
4.5560002 -1.1180177 0.94375718 0
4.5570002 -1.125774 0.943887 0
4.5570002 -1.1332724 0.943887 0
4.5570002 -1.1407708 0.943887 0
4.5570002 -1.1482693 0.943887 0
4.5570002 -1.1557678 0.943887 0
4.5530005 -1.1621912 0.9433676 0
4.5490003 -1.1686001 0.94284809 0
4.5480003 -1.1758116 0.94271815 0
4.5460005 -1.1827456 0.94245839 0
4.5450001 -1.1899481 0.94232857 0
4.5450001 -1.1974249 0.94232857 0
4.5470004 -1.2054609 0.94258833 0
4.5490003 -1.2135041 0.94284809 0
4.5530005 -1.2221209 0.9433676 0
4.5580001 -1.231037 0.94401693 0
4.5580001 -1.2385373 0.94401693 0
4.5580001 -1.2460375 0.94401693 0
4.5580001 -1.2535377 0.94401693 0
4.5590005 -1.2613302 0.94414675 0
4.5590005 -1.2688323 0.94414675 0
4.5590005 -1.2763343 0.94414675 0
4.5590005 -1.2838364 0.94414675 0
4.5590005 -1.2913384 0.94414675 0
4.5590005 -1.2988404 0.94414675 0
4.5590005 -1.3063425 0.94414675 0
4.5590005 -1.3138446 0.94414675 0
4.5600004 -1.3216532 0.94427669 0
4.5630002 -1.0372214 0.93715703 0
4.5570002 -1.0432912 0.93638861 0
4.5530005 -1.0498229 0.93587637 0
4.5500002 -1.0565835 0.93549204 0
4.5490003 -1.0638241 0.93536401 0
4.5490003 -1.071308 0.93536401 0
4.5490003 -1.078792 0.93536401 0
4.5490003 -1.0862761 0.93536401 0
4.5490003 -1.0937601 0.93536401 0
4.5490003 -1.1012441 0.93536401 0
4.5490003 -1.1087281 0.93536401 0
4.5490003 -1.116212 0.93536401 0
4.5490003 -1.1236961 0.93536401 0
4.5490003 -1.13118 0.93536401 0
4.5500002 -1.1389275 0.93549204 0
4.5500002 -1.1464131 0.93549204 0
4.5500002 -1.153899 0.93549204 0
4.5500002 -1.1613848 0.93549204 0
4.5500002 -1.1688706 0.93549204 0
4.5500002 -1.1763564 0.93549204 0
4.5500002 -1.1838422 0.93549204 0
4.5500002 -1.191328 0.93549204 0
4.5500002 -1.1988139 0.93549204 0
4.5500002 -1.2062995 0.93549204 0
4.5510001 -1.2140669 0.93562019 0
4.5510001 -1.2215544 0.93562019 0
4.5510001 -1.2290421 0.93562019 0
4.5510001 -1.2365297 0.93562019 0
4.5510001 -1.2440172 0.93562019 0
4.5510001 -1.2515048 0.93562019 0
4.5510001 -1.2589924 0.93562019 0
4.5510001 -1.26648 0.93562019 0
4.5510001 -1.2739676 0.93562019 0
4.5520005 -1.2817531 0.93574822 0
4.5520005 -1.2892424 0.93574822 0
4.5520005 -1.2967318 0.93574822 0
4.5520005 -1.3042213 0.93574822 0
4.5520005 -1.3117106 0.93574822 0
4.5520005 -1.3192002 0.93574822 0
4.5540004 -1.3273064 0.9360044 0
4.5570002 -1.3357301 0.93638861 0
4.5650001 -1.0301847 0.92990029 0
4.5570002 -1.0357928 0.92889011 0
4.5520005 -1.0420918 0.9282589 0
4.5490003 -1.048856 0.92788005 0
4.5460005 -1.0556095 0.92750132 0
4.5450001 -1.0628427 0.92737496 0
4.5440001 -1.0700724 0.92724872 0
4.5440001 -1.0775474 0.92724872 0
4.5450001 -1.085273 0.92737496 0
4.5450001 -1.0927498 0.92737496 0
4.5450001 -1.1002266 0.92737496 0
4.5450001 -1.1077034 0.92737496 0
4.5450001 -1.1151803 0.92737496 0
4.5450001 -1.1226571 0.92737496 0
4.5450001 -1.1301339 0.92737496 0
4.5450001 -1.1376106 0.92737496 0
4.5450001 -1.1450874 0.92737496 0
4.5450001 -1.1525642 0.92737496 0
4.5460005 -1.1603098 0.92750132 0
4.5460005 -1.1677884 0.92750132 0
4.5460005 -1.175267 0.92750132 0
4.5460005 -1.1827456 0.92750132 0
4.5460005 -1.1902242 0.92750132 0
4.5460005 -1.1977028 0.92750132 0
4.5460005 -1.2051814 0.92750132 0
4.5460005 -1.21266 0.92750132 0
4.5460005 -1.2201385 0.92750132 0
4.5460005 -1.2276171 0.92750132 0
4.5470004 -1.2353824 0.92762744 0
4.5470004 -1.2428628 0.92762744 0
4.5470004 -1.2503433 0.92762744 0
4.5470004 -1.2578236 0.92762744 0
4.5470004 -1.2653041 0.92762744 0
4.5470004 -1.2727845 0.92762744 0
4.5470004 -1.2802649 0.92762744 0
4.5470004 -1.2877452 0.92762744 0
4.5470004 -1.2952256 0.92762744 0
4.5470004 -1.302706 0.92762744 0
4.5480003 -1.3104912 0.92775381 0
4.5480003 -1.3179734 0.92775381 0
4.5490003 -1.3257641 0.92788005 0
4.5510001 -1.3338685 0.92813253 0
4.5570002 -1.3432285 0.92889011 0
4.5700002 -1.0238445 0.92300975 0
4.5610003 -1.0292395 0.92188954 0
4.5540004 -1.0350786 0.92101836 0
4.5500002 -1.0416119 0.92052054 0
4.5460005 -1.0481309 0.92002273 0
4.5440001 -1.0551225 0.9197737 0
4.5420003 -1.0621068 0.91952479 0
4.5420003 -1.0695782 0.91952479 0
4.5420003 -1.0770495 0.91952479 0
4.5420003 -1.0845209 0.91952479 0
4.5420003 -1.0919923 0.91952479 0
4.5420003 -1.0994637 0.91952479 0
4.5420003 -1.106935 0.91952479 0
4.5430002 -1.1146644 0.91964924 0
4.5430002 -1.1221375 0.91964924 0
4.5430002 -1.1296108 0.91964924 0
4.5430002 -1.1370839 0.91964924 0
4.5430002 -1.144557 0.91964924 0
4.5430002 -1.1520302 0.91964924 0
4.5430002 -1.1595035 0.91964924 0
4.5430002 -1.1669766 0.91964924 0
4.5430002 -1.1744498 0.91964924 0
4.5430002 -1.181923 0.91964924 0
4.5430002 -1.1893961 0.91964924 0
4.5440001 -1.1971471 0.9197737 0
4.5440001 -1.204622 0.9197737 0
4.5440001 -1.212097 0.9197737 0
4.5440001 -1.2195721 0.9197737 0
4.5440001 -1.227047 0.9197737 0
4.5440001 -1.234522 0.9197737 0
4.5440001 -1.241997 0.9197737 0
4.5440001 -1.249472 0.9197737 0
4.5440001 -1.2569469 0.9197737 0
4.5440001 -1.2644218 0.9197737 0
4.5450001 -1.2721926 0.91989815 0
4.5450001 -1.2796695 0.91989815 0
4.5450001 -1.2871463 0.91989815 0
4.5450001 -1.2946231 0.91989815 0
4.5450001 -1.3020998 0.91989815 0
4.5450001 -1.3095766 0.91989815 0
4.5450001 -1.3170534 0.91989815 0
4.5460005 -1.3248388 0.92002273 0
4.5480003 -1.3329378 0.92027152 0
4.5520005 -1.3416684 0.92076945 0
4.5670004 -1.0231409 0.91511989 0
4.5590005 -1.028767 0.91413867 0
4.5530005 -1.0348405 0.91340268 0
4.5480003 -1.0411321 0.91278934 0
4.5450001 -1.0478891 0.91242135 0
4.5420003 -1.0546355 0.91205347 0
4.5410004 -1.0618615 0.9119308 0
4.5410004 -1.069331 0.9119308 0
4.5410004 -1.0768006 0.9119308 0
4.5410004 -1.0842702 0.9119308 0
4.5410004 -1.0917398 0.9119308 0
4.5410004 -1.0992094 0.9119308 0
4.5410004 -1.106679 0.9119308 0
4.5410004 -1.1141485 0.9119308 0
4.5410004 -1.121618 0.9119308 0
4.5420003 -1.1293492 0.91205347 0
4.5420003 -1.1368206 0.91205347 0
4.5420003 -1.1442919 0.91205347 0
4.5420003 -1.1517633 0.91205347 0
4.5420003 -1.1592346 0.91205347 0
4.5420003 -1.1667061 0.91205347 0
4.5420003 -1.1741774 0.91205347 0
4.5420003 -1.1816489 0.91205347 0
4.5420003 -1.1891202 0.91205347 0
4.5420003 -1.1965916 0.91205347 0
4.5420003 -1.2040629 0.91205347 0
4.5430002 -1.2118157 0.91217601 0
4.5430002 -1.2192889 0.91217601 0
4.5430002 -1.2267619 0.91217601 0
4.5430002 -1.2342352 0.91217601 0
4.5430002 -1.2417084 0.91217601 0
4.5430002 -1.2491815 0.91217601 0
4.5430002 -1.2566547 0.91217601 0
4.5430002 -1.264128 0.91217601 0
4.5430002 -1.2716011 0.91217601 0
4.5430002 -1.2790743 0.91217601 0
4.5440001 -1.2868469 0.91229868 0
4.5440001 -1.2943219 0.91229868 0
4.5440001 -1.3017968 0.91229868 0
4.5440001 -1.3092718 0.91229868 0
4.5440001 -1.3167467 0.91229868 0
4.5450001 -1.3245301 0.91242135 0
4.5460005 -1.3323174 0.91254413 0
4.5500002 -1.3410441 0.91303468 0
4.5670004 -1.0231409 0.9076035 0
4.5580001 -1.0285307 0.90651572 0
4.5520005 -1.0346024 0.90579057 0
4.5480003 -1.0411321 0.90530717 0
4.5440001 -1.0476475 0.90482378 0
4.5420003 -1.0546355 0.90458202 0
4.5410004 -1.0618615 0.90446126 0
4.5400004 -1.069084 0.90434039 0
4.5400004 -1.0765518 0.90434039 0
4.5410004 -1.0842702 0.90446126 0
4.5410004 -1.0917398 0.90446126 0
4.5410004 -1.0992094 0.90446126 0
4.5410004 -1.106679 0.90446126 0
4.5410004 -1.1141485 0.90446126 0
4.5410004 -1.121618 0.90446126 0
4.5410004 -1.1290877 0.90446126 0
4.5410004 -1.1365572 0.90446126 0
4.5410004 -1.1440269 0.90446126 0
4.5410004 -1.1514964 0.90446126 0
4.5420003 -1.1592346 0.90458202 0
4.5420003 -1.1667061 0.90458202 0
4.5420003 -1.1741774 0.90458202 0
4.5420003 -1.1816489 0.90458202 0
4.5420003 -1.1891202 0.90458202 0
4.5420003 -1.1965916 0.90458202 0
4.5420003 -1.2040629 0.90458202 0
4.5420003 -1.2115343 0.90458202 0
4.5420003 -1.2190056 0.90458202 0
4.5420003 -1.226477 0.90458202 0
4.5420003 -1.2339483 0.90458202 0
4.5430002 -1.2417084 0.9047029 0
4.5430002 -1.2491815 0.9047029 0
4.5430002 -1.2566547 0.9047029 0
4.5430002 -1.264128 0.9047029 0
4.5430002 -1.2716011 0.9047029 0
4.5430002 -1.2790743 0.9047029 0
4.5430002 -1.2865474 0.9047029 0
4.5430002 -1.2940207 0.9047029 0
4.5430002 -1.3014939 0.9047029 0
4.5430002 -1.3089669 0.9047029 0
4.5430002 -1.3164401 0.9047029 0
4.5440001 -1.3242218 0.90482378 0
4.5460005 -1.3323174 0.90506542 0
4.5500002 -1.3410441 0.90554893 0
4.5790005 -1.0184169 0.9015156 0
4.5670004 -1.0231409 0.900087 0
4.5590005 -1.028767 0.89913452 0
4.5520005 -1.0346024 0.89830124 0
4.5480003 -1.0411321 0.897825 0
4.5440001 -1.0476475 0.89734876 0
4.5420003 -1.0546355 0.8971107 0
4.5410004 -1.0618615 0.89699167 0
4.5400004 -1.069084 0.89687258 0
4.5400004 -1.0765518 0.89687258 0
4.5410004 -1.0842702 0.89699167 0
4.5410004 -1.0917398 0.89699167 0
4.5410004 -1.0992094 0.89699167 0
4.5410004 -1.106679 0.89699167 0
4.5410004 -1.1141485 0.89699167 0
4.5410004 -1.121618 0.89699167 0
4.5410004 -1.1290877 0.89699167 0
4.5410004 -1.1365572 0.89699167 0
4.5410004 -1.1440269 0.89699167 0
4.5410004 -1.1514964 0.89699167 0
4.5420003 -1.1592346 0.8971107 0
4.5420003 -1.1667061 0.8971107 0
4.5420003 -1.1741774 0.8971107 0
4.5420003 -1.1816489 0.8971107 0
4.5420003 -1.1891202 0.8971107 0
4.5420003 -1.1965916 0.8971107 0
4.5420003 -1.2040629 0.8971107 0
4.5420003 -1.2115343 0.8971107 0
4.5420003 -1.2190056 0.8971107 0
4.5420003 -1.226477 0.8971107 0
4.5420003 -1.2339483 0.8971107 0
4.5430002 -1.2417084 0.89722973 0
4.5430002 -1.2491815 0.89722973 0
4.5430002 -1.2566547 0.89722973 0
4.5430002 -1.264128 0.89722973 0
4.5430002 -1.2716011 0.89722973 0
4.5430002 -1.2790743 0.89722973 0
4.5430002 -1.2865474 0.89722973 0
4.5430002 -1.2940207 0.89722973 0
4.5430002 -1.3014939 0.89722973 0
4.5430002 -1.3089669 0.89722973 0
4.5430002 -1.3164401 0.89722973 0
4.5440001 -1.3242218 0.89734876 0
4.5460005 -1.3323174 0.89758688 0
4.5500002 -1.3410441 0.89806306 0
4.5790005 -1.0184169 0.89397746 0
4.5670004 -1.0231409 0.8925705 0
4.5590005 -1.028767 0.89163256 0
4.5520005 -1.0346024 0.8908118 0
4.5480003 -1.0411321 0.89034283 0
4.5440001 -1.0476475 0.8898738 0
4.5420003 -1.0546355 0.88963926 0
4.5410004 -1.0618615 0.88952208 0
4.5400004 -1.069084 0.88940489 0
4.5400004 -1.0765518 0.88940489 0
4.5410004 -1.0842702 0.88952208 0
4.5410004 -1.0917398 0.88952208 0
4.5410004 -1.0992094 0.88952208 0
4.5410004 -1.106679 0.88952208 0
4.5410004 -1.1141485 0.88952208 0
4.5410004 -1.121618 0.88952208 0
4.5410004 -1.1290877 0.88952208 0
4.5410004 -1.1365572 0.88952208 0
4.5410004 -1.1440269 0.88952208 0
4.5410004 -1.1514964 0.88952208 0
4.5420003 -1.1592346 0.88963926 0
4.5420003 -1.1667061 0.88963926 0
4.5420003 -1.1741774 0.88963926 0
4.5420003 -1.1816489 0.88963926 0
4.5420003 -1.1891202 0.88963926 0
4.5420003 -1.1965916 0.88963926 0
4.5420003 -1.2040629 0.88963926 0
4.5420003 -1.2115343 0.88963926 0
4.5420003 -1.2190056 0.88963926 0
4.5420003 -1.226477 0.88963926 0
4.5420003 -1.2339483 0.88963926 0
4.5430002 -1.2417084 0.88975656 0
4.5430002 -1.2491815 0.88975656 0
4.5430002 -1.2566547 0.88975656 0
4.5430002 -1.264128 0.88975656 0
4.5430002 -1.2716011 0.88975656 0
4.5430002 -1.2790743 0.88975656 0
4.5430002 -1.2865474 0.88975656 0
4.5430002 -1.2940207 0.88975656 0
4.5430002 -1.3014939 0.88975656 0
4.5430002 -1.3089669 0.88975656 0
4.5430002 -1.3164401 0.88975656 0
4.5440001 -1.3242218 0.8898738 0
4.5460005 -1.3323174 0.89010835 0
4.5500002 -1.3410441 0.89057726 0
4.5670004 -1.0231409 0.88505399 0
4.5590005 -1.028767 0.88413048 0
4.5520005 -1.0346024 0.88332236 0
4.5480003 -1.0411321 0.8828606 0
4.5440001 -1.0476475 0.88239884 0
4.5420003 -1.0546355 0.88216794 0
4.5410004 -1.0618615 0.88205248 0
4.5400004 -1.069084 0.88193703 0
4.5400004 -1.0765518 0.88193703 0
4.5410004 -1.0842702 0.88205248 0
4.5410004 -1.0917398 0.88205248 0
4.5410004 -1.0992094 0.88205248 0
4.5410004 -1.106679 0.88205248 0
4.5410004 -1.1141485 0.88205248 0
4.5410004 -1.121618 0.88205248 0
4.5410004 -1.1290877 0.88205248 0
4.5410004 -1.1365572 0.88205248 0
4.5410004 -1.1440269 0.88205248 0
4.5410004 -1.1514964 0.88205248 0
4.5420003 -1.1592346 0.88216794 0
4.5420003 -1.1667061 0.88216794 0
4.5420003 -1.1741774 0.88216794 0
4.5420003 -1.1816489 0.88216794 0
4.5420003 -1.1891202 0.88216794 0
4.5420003 -1.1965916 0.88216794 0
4.5420003 -1.2040629 0.88216794 0
4.5420003 -1.2115343 0.88216794 0
4.5420003 -1.2190056 0.88216794 0
4.5420003 -1.226477 0.88216794 0
4.5420003 -1.2339483 0.88216794 0
4.5430002 -1.2417084 0.88228333 0
4.5430002 -1.2491815 0.88228333 0
4.5430002 -1.2566547 0.88228333 0
4.5430002 -1.264128 0.88228333 0
4.5430002 -1.2716011 0.88228333 0
4.5430002 -1.2790743 0.88228333 0
4.5430002 -1.2865474 0.88228333 0
4.5430002 -1.2940207 0.88228333 0
4.5430002 -1.3014939 0.88228333 0
4.5430002 -1.3089669 0.88228333 0
4.5430002 -1.3164401 0.88228333 0
4.5440001 -1.3242218 0.88239884 0
4.5460005 -1.3323174 0.88262975 0
4.5670004 -1.0231409 0.87753761 0
4.5590005 -1.028767 0.87662846 0
4.3900003 -1.0032269 0.85742331 0
4.3900003 -1.0104241 0.85742331 0
4.3900003 -1.0176213 0.85742331 0
4.3900003 -1.0248184 0.85742331 0
4.3900003 -1.0320157 0.85742331 0
4.3900003 -1.0392129 0.85742331 0
4.3900003 -1.0464101 0.85742331 0
4.3900003 -1.0536073 0.85742331 0
4.3900003 -1.0608045 0.85742331 0
4.3900003 -1.0680016 0.85742331 0
4.3900003 -1.0751989 0.85742331 0
4.3910003 -1.0826558 0.85753691 0
4.3910003 -1.0898547 0.85753691 0
4.3910003 -1.0970538 0.85753691 0
4.3910003 -1.1042528 0.85753691 0
4.3910003 -1.1114519 0.85753691 0
4.3910003 -1.1186508 0.85753691 0
4.3910003 -1.1258498 0.85753691 0
4.3910003 -1.1330489 0.85753691 0
4.3910003 -1.1402478 0.85753691 0
4.3910003 -1.1474469 0.85753691 0
4.3910003 -1.1546458 0.85753691 0
4.3920002 -1.1621244 0.85765052 0
4.3920002 -1.1693251 0.85765052 0
4.3920002 -1.176526 0.85765052 0
4.3920002 -1.1837268 0.85765052 0
4.3920002 -1.1909276 0.85765052 0
4.3920002 -1.1981283 0.85765052 0
4.3920002 -1.2053292 0.85765052 0
4.3920002 -1.21253 0.85765052 0
4.3920002 -1.2197309 0.85765052 0
4.5430002 -1.2716011 0.87481022 0
4.5430002 -1.2790743 0.87481022 0
4.5430002 -1.2865474 0.87481022 0
4.5430002 -1.2940207 0.87481022 0
4.5430002 -1.3014939 0.87481022 0
4.5430002 -1.3089669 0.87481022 0
4.5430002 -1.3164401 0.87481022 0
4.5440001 -1.3242218 0.87492383 0
4.3889999 -0.99579161 0.85011423 0
4.3900003 -1.0032269 0.8502261 0
4.3900003 -1.0104241 0.8502261 0
4.3900003 -1.0176213 0.8502261 0
4.3900003 -1.0248184 0.8502261 0
4.3900003 -1.0320157 0.8502261 0
4.3900003 -1.0392129 0.8502261 0
4.3900003 -1.0464101 0.8502261 0
4.3900003 -1.0536073 0.8502261 0
4.3900003 -1.0608045 0.8502261 0
4.3900003 -1.0680016 0.8502261 0
4.3900003 -1.0751989 0.8502261 0
4.3910003 -1.0826558 0.85033798 0
4.3910003 -1.0898547 0.85033798 0
4.3910003 -1.0970538 0.85033798 0
4.3910003 -1.1042528 0.85033798 0
4.3910003 -1.1114519 0.85033798 0
4.3910003 -1.1186508 0.85033798 0
4.3910003 -1.1258498 0.85033798 0
4.3910003 -1.1330489 0.85033798 0
4.3910003 -1.1402478 0.85033798 0
4.3910003 -1.1474469 0.85033798 0
4.3910003 -1.1546458 0.85033798 0
4.3920002 -1.1621244 0.8504498 0
4.3920002 -1.1693251 0.8504498 0
4.3920002 -1.176526 0.8504498 0
4.3920002 -1.1837268 0.8504498 0
4.3920002 -1.1909276 0.8504498 0
4.3920002 -1.1981283 0.8504498 0
4.3920002 -1.2053292 0.8504498 0
4.3920002 -1.21253 0.8504498 0
4.3920002 -1.2197309 0.8504498 0
4.3920002 -1.2269316 0.8504498 0
4.3920002 -1.2341323 0.8504498 0
4.3930001 -1.2416327 0.85056162 0
4.3930001 -1.2488353 0.85056162 0
4.3930001 -1.2560378 0.85056162 0
4.3930001 -1.2632405 0.85056162 0
4.3930001 -1.2704431 0.85056162 0
4.3930001 -1.2776457 0.85056162 0
4.3930001 -1.2848482 0.85056162 0
4.3930001 -1.292051 0.85056162 0
4.3930001 -1.2992535 0.85056162 0
4.3930001 -1.3064561 0.85056162 0
4.3930001 -1.3136587 0.85056162 0
4.3930001 -1.3208613 0.85056162 0
4.3940001 -1.328385 0.85067344 0
4.3940001 -1.3355894 0.85067344 0
4.3940001 -1.3427938 0.85067344 0
4.3940001 -1.3499982 0.85067344 0
4.3940001 -1.3572026 0.85067344 0
4.3940001 -1.3644071 0.85067344 0
4.3940001 -1.3716115 0.85067344 0
4.3940001 -1.3788159 0.85067344 0
4.3889999 -0.99579161 0.84291887 0
4.3900003 -1.0032269 0.8430289 0
4.3900003 -1.0104241 0.8430289 0
4.3900003 -1.0176213 0.8430289 0
4.3900003 -1.0248184 0.8430289 0
4.3900003 -1.0320157 0.8430289 0
4.3900003 -1.0392129 0.8430289 0
4.3900003 -1.0464101 0.8430289 0
4.3900003 -1.0536073 0.8430289 0
4.3900003 -1.0608045 0.8430289 0
4.3900003 -1.0680016 0.8430289 0
4.3900003 -1.0751989 0.8430289 0
4.3910003 -1.0826558 0.84313893 0
4.3910003 -1.0898547 0.84313893 0
4.3910003 -1.0970538 0.84313893 0
4.3910003 -1.1042528 0.84313893 0
4.3910003 -1.1114519 0.84313893 0
4.3910003 -1.1186508 0.84313893 0
4.3910003 -1.1258498 0.84313893 0
4.3910003 -1.1330489 0.84313893 0
4.3910003 -1.1402478 0.84313893 0
4.3910003 -1.1474469 0.84313893 0
4.3910003 -1.1546458 0.84313893 0
4.3920002 -1.1621244 0.84324896 0
4.3920002 -1.1693251 0.84324896 0
4.3920002 -1.176526 0.84324896 0
4.3920002 -1.1837268 0.84324896 0
4.3920002 -1.1909276 0.84324896 0
4.3920002 -1.1981283 0.84324896 0
4.3920002 -1.2053292 0.84324896 0
4.3920002 -1.21253 0.84324896 0
4.3920002 -1.2197309 0.84324896 0
4.3920002 -1.2269316 0.84324896 0
4.3920002 -1.2341323 0.84324896 0
4.3930001 -1.2416327 0.84335899 0
4.3930001 -1.2488353 0.84335899 0
4.3930001 -1.2560378 0.84335899 0
4.3930001 -1.2632405 0.84335899 0
4.3930001 -1.2704431 0.84335899 0
4.3930001 -1.2776457 0.84335899 0
4.3930001 -1.2848482 0.84335899 0
4.3930001 -1.292051 0.84335899 0
4.3930001 -1.2992535 0.84335899 0
4.3930001 -1.3064561 0.84335899 0
4.3930001 -1.3136587 0.84335899 0
4.3930001 -1.3208613 0.84335899 0
4.3940001 -1.328385 0.84346902 0
4.3940001 -1.3355894 0.84346902 0
4.3940001 -1.3427938 0.84346902 0
4.3940001 -1.3499982 0.84346902 0
4.3940001 -1.3572026 0.84346902 0
4.3940001 -1.3644071 0.84346902 0
4.3940001 -1.3716115 0.84346902 0
4.3940001 -1.3788159 0.84346902 0
4.3940001 -1.3860203 0.84346902 0
4.4130001 -0.99426734 0.83832097 0
4.3889999 -0.99579161 0.83572352 0
4.3900003 -1.0032269 0.8358317 0
4.3900003 -1.0104241 0.8358317 0
4.3900003 -1.0176213 0.8358317 0
4.3900003 -1.0248184 0.8358317 0
4.3900003 -1.0320157 0.8358317 0
4.3900003 -1.0392129 0.8358317 0
4.3900003 -1.0464101 0.8358317 0
4.3900003 -1.0536073 0.8358317 0
4.3900003 -1.0608045 0.8358317 0
4.3900003 -1.0680016 0.8358317 0
4.3900003 -1.0751989 0.8358317 0
4.3910003 -1.0826558 0.83593988 0
4.3910003 -1.0898547 0.83593988 0
4.3910003 -1.0970538 0.83593988 0
4.3910003 -1.1042528 0.83593988 0
4.3910003 -1.1114519 0.83593988 0
4.3910003 -1.1186508 0.83593988 0
4.3910003 -1.1258498 0.83593988 0
4.3910003 -1.1330489 0.83593988 0
4.3910003 -1.1402478 0.83593988 0
4.3910003 -1.1474469 0.83593988 0
4.3910003 -1.1546458 0.83593988 0
4.3920002 -1.1621244 0.83604813 0
4.3920002 -1.1693251 0.83604813 0
4.3920002 -1.176526 0.83604813 0
4.3920002 -1.1837268 0.83604813 0
4.3920002 -1.1909276 0.83604813 0
4.3920002 -1.1981283 0.83604813 0
4.3920002 -1.2053292 0.83604813 0
4.3920002 -1.21253 0.83604813 0
4.3920002 -1.2197309 0.83604813 0
4.3920002 -1.2269316 0.83604813 0
4.3920002 -1.2341323 0.83604813 0
4.3930001 -1.2416327 0.83615637 0
4.3930001 -1.2488353 0.83615637 0
4.3930001 -1.2560378 0.83615637 0
4.3930001 -1.2632405 0.83615637 0
4.3930001 -1.2704431 0.83615637 0
4.3930001 -1.2776457 0.83615637 0
4.3930001 -1.2848482 0.83615637 0
4.3930001 -1.292051 0.83615637 0
4.3930001 -1.2992535 0.83615637 0
4.3930001 -1.3064561 0.83615637 0
4.3930001 -1.3136587 0.83615637 0
4.3930001 -1.3208613 0.83615637 0
4.3940001 -1.328385 0.83626461 0
4.3940001 -1.3355894 0.83626461 0
4.3940001 -1.3427938 0.83626461 0
4.3940001 -1.3499982 0.83626461 0
4.3940001 -1.3572026 0.83626461 0
4.3940001 -1.3644071 0.83626461 0
4.3940001 -1.3716115 0.83626461 0
4.3940001 -1.3788159 0.83626461 0
4.3940001 -1.3860203 0.83626461 0
4.3940001 -1.3932247 0.83626461 0
4.4130001 -0.99426734 0.83108222 0
4.3889999 -0.99579161 0.82852805 0
4.3900003 -1.0032269 0.8286345 0
4.3900003 -1.0104241 0.8286345 0
4.3900003 -1.0176213 0.8286345 0
4.3900003 -1.0248184 0.8286345 0
4.3900003 -1.0320157 0.8286345 0
4.3900003 -1.0392129 0.8286345 0
4.3900003 -1.0464101 0.8286345 0
4.3900003 -1.0536073 0.8286345 0
4.3900003 -1.0608045 0.8286345 0
4.3900003 -1.0680016 0.8286345 0
4.3900003 -1.0751989 0.8286345 0
4.3910003 -1.0826558 0.82874095 0
4.3910003 -1.0898547 0.82874095 0
4.3910003 -1.0970538 0.82874095 0
4.3910003 -1.1042528 0.82874095 0
4.3910003 -1.1114519 0.82874095 0
4.3910003 -1.1186508 0.82874095 0
4.3910003 -1.1258498 0.82874095 0
4.3910003 -1.1330489 0.82874095 0
4.3910003 -1.1402478 0.82874095 0
4.3910003 -1.1474469 0.82874095 0
4.3910003 -1.1546458 0.82874095 0
4.3920002 -1.1621244 0.82884735 0
4.3920002 -1.1693251 0.82884735 0
4.3920002 -1.176526 0.82884735 0
4.3920002 -1.1837268 0.82884735 0
4.3920002 -1.1909276 0.82884735 0
4.3920002 -1.1981283 0.82884735 0
4.3920002 -1.2053292 0.82884735 0
4.3920002 -1.21253 0.82884735 0
4.3920002 -1.2197309 0.82884735 0
4.3920002 -1.2269316 0.82884735 0
4.3920002 -1.2341323 0.82884735 0
4.3930001 -1.2416327 0.8289538 0
4.3930001 -1.2488353 0.8289538 0
4.3930001 -1.2560378 0.8289538 0
4.3930001 -1.2632405 0.8289538 0
4.3930001 -1.2704431 0.8289538 0
4.3930001 -1.2776457 0.8289538 0
4.3930001 -1.2848482 0.8289538 0
4.3930001 -1.292051 0.8289538 0
4.3930001 -1.2992535 0.8289538 0
4.3930001 -1.3064561 0.8289538 0
4.3930001 -1.3136587 0.8289538 0
4.3930001 -1.3208613 0.8289538 0
4.3940001 -1.328385 0.8290602 0
4.3940001 -1.3355894 0.8290602 0
4.3940001 -1.3427938 0.8290602 0
4.3940001 -1.3499982 0.8290602 0
4.3940001 -1.3572026 0.8290602 0
4.3940001 -1.3644071 0.8290602 0
4.3940001 -1.3716115 0.8290602 0
4.3940001 -1.3788159 0.8290602 0
4.3940001 -1.3860203 0.8290602 0
4.3940001 -1.3932247 0.8290602 0
4.4130001 -0.99426734 0.8238436 0
4.3889999 -0.99579161 0.82133269 0
4.3900003 -1.0032269 0.82143736 0
4.3900003 -1.0104241 0.82143736 0
4.3900003 -1.0176213 0.82143736 0
4.3900003 -1.0248184 0.82143736 0
4.3900003 -1.0320157 0.82143736 0
4.3900003 -1.0392129 0.82143736 0
4.3900003 -1.0464101 0.82143736 0
4.3900003 -1.0536073 0.82143736 0
4.3900003 -1.0608045 0.82143736 0
4.3900003 -1.0680016 0.82143736 0
4.3900003 -1.0751989 0.82143736 0
4.3910003 -1.0826558 0.82154191 0
4.3910003 -1.0898547 0.82154191 0
4.3910003 -1.0970538 0.82154191 0
4.3910003 -1.1042528 0.82154191 0
4.3910003 -1.1114519 0.82154191 0
4.3910003 -1.1186508 0.82154191 0
4.3910003 -1.1258498 0.82154191 0
4.3910003 -1.1330489 0.82154191 0
4.3910003 -1.1402478 0.82154191 0
4.3910003 -1.1474469 0.82154191 0
4.3910003 -1.1546458 0.82154191 0
4.3920002 -1.1621244 0.82164657 0
4.3920002 -1.1693251 0.82164657 0
4.3920002 -1.176526 0.82164657 0
4.3920002 -1.1837268 0.82164657 0
4.3920002 -1.1909276 0.82164657 0
4.3920002 -1.1981283 0.82164657 0
4.3920002 -1.2053292 0.82164657 0
4.3920002 -1.21253 0.82164657 0
4.3920002 -1.2197309 0.82164657 0
4.3920002 -1.2269316 0.82164657 0
4.3920002 -1.2341323 0.82164657 0
4.3930001 -1.2416327 0.82175118 0
4.3930001 -1.2488353 0.82175118 0
4.3930001 -1.2560378 0.82175118 0
4.3930001 -1.2632405 0.82175118 0
4.3930001 -1.2704431 0.82175118 0
4.3930001 -1.2776457 0.82175118 0
4.3930001 -1.2848482 0.82175118 0
4.3930001 -1.292051 0.82175118 0
4.3930001 -1.2992535 0.82175118 0
4.3930001 -1.3064561 0.82175118 0
4.3930001 -1.3136587 0.82175118 0
4.3930001 -1.3208613 0.82175118 0
4.3940001 -1.328385 0.82185578 0
4.3940001 -1.3355894 0.82185578 0
4.3940001 -1.3427938 0.82185578 0
4.3940001 -1.3499982 0.82185578 0
4.3940001 -1.3572026 0.82185578 0
4.3940001 -1.3644071 0.82185578 0
4.3940001 -1.3716115 0.82185578 0
4.3940001 -1.3788159 0.82185578 0
4.3940001 -1.3860203 0.82185578 0
4.3940001 -1.3932247 0.82185578 0
4.4130001 -0.99426734 0.81660485 0
4.3889999 -0.99579161 0.81413728 0
4.3900003 -1.0032269 0.8142401 0
4.3900003 -1.0104241 0.8142401 0
4.3900003 -1.0176213 0.8142401 0
4.3900003 -1.0248184 0.8142401 0
4.3900003 -1.0320157 0.8142401 0
4.3900003 -1.0392129 0.8142401 0
4.3900003 -1.0464101 0.8142401 0
4.3900003 -1.0536073 0.8142401 0
4.3900003 -1.0608045 0.8142401 0
4.3900003 -1.0680016 0.8142401 0
4.3900003 -1.0751989 0.8142401 0
4.3910003 -1.0826558 0.81434298 0
4.3910003 -1.0898547 0.81434298 0
4.3910003 -1.0970538 0.81434298 0
4.3910003 -1.1042528 0.81434298 0
4.3910003 -1.1114519 0.81434298 0
4.3910003 -1.1186508 0.81434298 0
4.3910003 -1.1258498 0.81434298 0
4.3910003 -1.1330489 0.81434298 0
4.3910003 -1.1402478 0.81434298 0
4.3910003 -1.1474469 0.81434298 0
4.3910003 -1.1546458 0.81434298 0
4.3920002 -1.1621244 0.81444573 0
4.3920002 -1.1693251 0.81444573 0
4.3920002 -1.176526 0.81444573 0
4.3920002 -1.1837268 0.81444573 0
4.3920002 -1.1909276 0.81444573 0
4.3920002 -1.1981283 0.81444573 0
4.3920002 -1.2053292 0.81444573 0
4.3920002 -1.21253 0.81444573 0
4.3920002 -1.2197309 0.81444573 0
4.3920002 -1.2269316 0.81444573 0
4.3920002 -1.2341323 0.81444573 0
4.3930001 -1.2416327 0.81454861 0
4.3930001 -1.2488353 0.81454861 0
4.3930001 -1.2560378 0.81454861 0
4.3930001 -1.2632405 0.81454861 0
4.3930001 -1.2704431 0.81454861 0
4.3930001 -1.2776457 0.81454861 0
4.3930001 -1.2848482 0.81454861 0
4.3930001 -1.292051 0.81454861 0
4.3930001 -1.2992535 0.81454861 0
4.3930001 -1.3064561 0.81454861 0
4.3930001 -1.3136587 0.81454861 0
4.3930001 -1.3208613 0.81454861 0
4.3940001 -1.328385 0.81465137 0
4.3940001 -1.3355894 0.81465137 0
4.3940001 -1.3427938 0.81465137 0
4.3940001 -1.3499982 0.81465137 0
4.3940001 -1.3572026 0.81465137 0
4.3940001 -1.3644071 0.81465137 0
4.3940001 -1.3716115 0.81465137 0
4.3940001 -1.3788159 0.81465137 0
4.3940001 -1.3860203 0.81465137 0
4.3940001 -1.3932247 0.81465137 0
4.4130001 -0.99426734 0.80936623 0
4.3889999 -0.99579161 0.80694187 0
4.3900003 -1.0032269 0.80704296 0
4.3900003 -1.0104241 0.80704296 0
4.3900003 -1.0176213 0.80704296 0
4.3900003 -1.0248184 0.80704296 0
4.3900003 -1.0320157 0.80704296 0
4.3900003 -1.0392129 0.80704296 0
4.3900003 -1.0464101 0.80704296 0
4.3900003 -1.0536073 0.80704296 0
4.3900003 -1.0608045 0.80704296 0
4.3900003 -1.0680016 0.80704296 0
4.3900003 -1.0751989 0.80704296 0
4.3910003 -1.0826558 0.80714393 0
4.3910003 -1.0898547 0.80714393 0
4.3910003 -1.0970538 0.80714393 0
4.3910003 -1.1042528 0.80714393 0
4.3910003 -1.1114519 0.80714393 0
4.3910003 -1.1186508 0.80714393 0
4.3910003 -1.1258498 0.80714393 0
4.3910003 -1.1330489 0.80714393 0
4.3910003 -1.1402478 0.80714393 0
4.3910003 -1.1474469 0.80714393 0
4.3910003 -1.1546458 0.80714393 0
4.3920002 -1.1621244 0.8072449 0
4.3920002 -1.1693251 0.8072449 0
4.3920002 -1.176526 0.8072449 0
4.3920002 -1.1837268 0.8072449 0
4.3920002 -1.1909276 0.8072449 0
4.3920002 -1.1981283 0.8072449 0
4.3920002 -1.2053292 0.8072449 0
4.3920002 -1.21253 0.8072449 0
4.3920002 -1.2197309 0.8072449 0
4.3920002 -1.2269316 0.8072449 0
4.3920002 -1.2341323 0.8072449 0
4.3930001 -1.2416327 0.80734599 0
4.3930001 -1.2488353 0.80734599 0
4.3930001 -1.2560378 0.80734599 0
4.3930001 -1.2632405 0.80734599 0
4.3930001 -1.2704431 0.80734599 0
4.3930001 -1.2776457 0.80734599 0
4.3930001 -1.2848482 0.80734599 0
4.3930001 -1.292051 0.80734599 0
4.3930001 -1.2992535 0.80734599 0
4.3930001 -1.3064561 0.80734599 0
4.3930001 -1.3136587 0.80734599 0
4.3930001 -1.3208613 0.80734599 0
4.3940001 -1.328385 0.80744696 0
4.3940001 -1.3355894 0.80744696 0
4.3940001 -1.3427938 0.80744696 0
4.3940001 -1.3499982 0.80744696 0
4.3940001 -1.3572026 0.80744696 0
4.3940001 -1.3644071 0.80744696 0
4.3940001 -1.3716115 0.80744696 0
4.3940001 -1.3788159 0.80744696 0
4.3940001 -1.3860203 0.80744696 0
4.3940001 -1.3932247 0.80744696 0
4.4130001 -0.99426734 0.80212748 0
4.3889999 -0.99579161 0.79974651 0
4.3900003 -1.0032269 0.7998457 0
4.3900003 -1.0104241 0.7998457 0
4.3900003 -1.0176213 0.7998457 0
4.3900003 -1.0248184 0.7998457 0
4.3900003 -1.0320157 0.7998457 0
4.3900003 -1.0392129 0.7998457 0
4.3900003 -1.0464101 0.7998457 0
4.3900003 -1.0536073 0.7998457 0
4.3900003 -1.0608045 0.7998457 0
4.3900003 -1.0680016 0.7998457 0
4.3900003 -1.0751989 0.7998457 0
4.3910003 -1.0826558 0.79994494 0
4.3910003 -1.0898547 0.79994494 0
4.3910003 -1.0970538 0.79994494 0
4.3910003 -1.1042528 0.79994494 0
4.3910003 -1.1114519 0.79994494 0
4.3910003 -1.1186508 0.79994494 0
4.3910003 -1.1258498 0.79994494 0
4.3910003 -1.1330489 0.79994494 0
4.3910003 -1.1402478 0.79994494 0
4.3910003 -1.1474469 0.79994494 0
4.3910003 -1.1546458 0.79994494 0
4.3920002 -1.1621244 0.80004418 0
4.3920002 -1.1693251 0.80004418 0
4.3920002 -1.176526 0.80004418 0
4.3920002 -1.1837268 0.80004418 0
4.3920002 -1.1909276 0.80004418 0
4.3920002 -1.1981283 0.80004418 0
4.3920002 -1.2053292 0.80004418 0
4.3920002 -1.21253 0.80004418 0
4.3920002 -1.2197309 0.80004418 0
4.3920002 -1.2269316 0.80004418 0
4.3920002 -1.2341323 0.80004418 0
4.3930001 -1.2416327 0.80014336 0
4.3930001 -1.2488353 0.80014336 0
4.3930001 -1.2560378 0.80014336 0
4.3930001 -1.2632405 0.80014336 0
4.3930001 -1.2704431 0.80014336 0
4.3930001 -1.2776457 0.80014336 0
4.3930001 -1.2848482 0.80014336 0
4.3930001 -1.292051 0.80014336 0
4.3930001 -1.2992535 0.80014336 0
4.3930001 -1.3064561 0.80014336 0
4.3930001 -1.3136587 0.80014336 0
4.3930001 -1.3208613 0.80014336 0
4.3940001 -1.328385 0.80024254 0
4.3940001 -1.3355894 0.80024254 0
4.3940001 -1.3427938 0.80024254 0
4.3940001 -1.3499982 0.80024254 0
4.3940001 -1.3572026 0.80024254 0
4.3940001 -1.3644071 0.80024254 0
4.3940001 -1.3716115 0.80024254 0
4.3940001 -1.3788159 0.80024254 0
4.3940001 -1.3860203 0.80024254 0
4.3940001 -1.3932247 0.80024254 0
4.4130001 -0.99426734 0.79488885 0
4.3889999 -0.99579161 0.79255116 0
4.3900003 -1.0032269 0.79264855 0
4.3900003 -1.0104241 0.79264855 0
4.3900003 -1.0176213 0.79264855 0
4.3900003 -1.0248184 0.79264855 0
4.3900003 -1.0320157 0.79264855 0
4.3900003 -1.0392129 0.79264855 0
4.3900003 -1.0464101 0.79264855 0
4.3900003 -1.0536073 0.79264855 0
4.3900003 -1.0608045 0.79264855 0
4.3900003 -1.0680016 0.79264855 0
4.3900003 -1.0751989 0.79264855 0
4.3910003 -1.0826558 0.79274595 0
4.3910003 -1.0898547 0.79274595 0
4.3910003 -1.0970538 0.79274595 0
4.3910003 -1.1042528 0.79274595 0
4.3910003 -1.1114519 0.79274595 0
4.3910003 -1.1186508 0.79274595 0
4.3910003 -1.1258498 0.79274595 0
4.3910003 -1.1330489 0.79274595 0
4.3910003 -1.1402478 0.79274595 0
4.3910003 -1.1474469 0.79274595 0
4.3910003 -1.1546458 0.79274595 0
4.3920002 -1.1621244 0.79284334 0
4.3920002 -1.1693251 0.79284334 0
4.3920002 -1.176526 0.79284334 0
4.3920002 -1.1837268 0.79284334 0
4.3920002 -1.1909276 0.79284334 0
4.3920002 -1.1981283 0.79284334 0
4.3920002 -1.2053292 0.79284334 0
4.3920002 -1.21253 0.79284334 0
4.3920002 -1.2197309 0.79284334 0
4.3920002 -1.2269316 0.79284334 0
4.3920002 -1.2341323 0.79284334 0
4.3930001 -1.2416327 0.79294074 0
4.3930001 -1.2488353 0.79294074 0
4.3930001 -1.2560378 0.79294074 0
4.3930001 -1.2632405 0.79294074 0
4.3930001 -1.2704431 0.79294074 0
4.3930001 -1.2776457 0.79294074 0
4.3930001 -1.2848482 0.79294074 0
4.3930001 -1.292051 0.79294074 0
4.3930001 -1.2992535 0.79294074 0
4.3930001 -1.3064561 0.79294074 0
4.3930001 -1.3136587 0.79294074 0
4.3930001 -1.3208613 0.79294074 0
4.3940001 -1.328385 0.79303813 0
4.3940001 -1.3355894 0.79303813 0
4.3940001 -1.3427938 0.79303813 0
4.3940001 -1.3499982 0.79303813 0
4.3940001 -1.3572026 0.79303813 0
4.3940001 -1.3644071 0.79303813 0
4.3940001 -1.3716115 0.79303813 0
4.3940001 -1.3788159 0.79303813 0
4.3940001 -1.3860203 0.79303813 0
4.3940001 -1.3932247 0.79303813 0
4.4130001 -0.99426734 0.78765017 0
4.3889999 -0.99579161 0.78535575 0
4.3900003 -1.0032269 0.78545135 0
4.3900003 -1.0104241 0.78545135 0
4.3900003 -1.0176213 0.78545135 0
4.3900003 -1.0248184 0.78545135 0
4.3900003 -1.0320157 0.78545135 0
4.3900003 -1.0392129 0.78545135 0
4.3900003 -1.0464101 0.78545135 0
4.3900003 -1.0536073 0.78545135 0
4.3900003 -1.0608045 0.78545135 0
4.3900003 -1.0680016 0.78545135 0
4.3900003 -1.0751989 0.78545135 0
4.3910003 -1.0826558 0.7855469 0
4.3910003 -1.0898547 0.7855469 0
4.3910003 -1.0970538 0.7855469 0
4.3910003 -1.1042528 0.7855469 0
4.3910003 -1.1114519 0.7855469 0
4.3910003 -1.1186508 0.7855469 0
4.3910003 -1.1258498 0.7855469 0
4.3910003 -1.1330489 0.7855469 0
4.3910003 -1.1402478 0.7855469 0
4.3910003 -1.1474469 0.7855469 0
4.3910003 -1.1546458 0.7855469 0
4.3920002 -1.1621244 0.7856425 0
4.3920002 -1.1693251 0.7856425 0
4.3920002 -1.176526 0.7856425 0
4.3920002 -1.1837268 0.7856425 0
4.3920002 -1.1909276 0.7856425 0
4.3920002 -1.1981283 0.7856425 0
4.3920002 -1.2053292 0.7856425 0
4.3920002 -1.21253 0.7856425 0
4.3920002 -1.2197309 0.7856425 0
4.3920002 -1.2269316 0.7856425 0
4.3920002 -1.2341323 0.7856425 0
4.3930001 -1.2416327 0.78573811 0
4.3930001 -1.2488353 0.78573811 0
4.3930001 -1.2560378 0.78573811 0
4.3930001 -1.2632405 0.78573811 0
4.3930001 -1.2704431 0.78573811 0
4.3930001 -1.2776457 0.78573811 0
4.3930001 -1.2848482 0.78573811 0
4.3930001 -1.292051 0.78573811 0
4.3930001 -1.2992535 0.78573811 0
4.3930001 -1.3064561 0.78573811 0
4.3930001 -1.3136587 0.78573811 0
4.3930001 -1.3208613 0.78573811 0
4.3940001 -1.328385 0.78583372 0
4.3940001 -1.3355894 0.78583372 0
4.3940001 -1.3427938 0.78583372 0
4.3940001 -1.3499982 0.78583372 0
4.3940001 -1.3572026 0.78583372 0
4.3940001 -1.3644071 0.78583372 0
4.3940001 -1.3716115 0.78583372 0
4.3940001 -1.3788159 0.78583372 0
4.3940001 -1.3860203 0.78583372 0
4.3940001 -1.3932247 0.78583372 0
4.4130001 -0.99426734 0.78041148 0
4.3889999 -0.99579161 0.77816033 0
4.3900003 -1.0032269 0.77825415 0
4.3900003 -1.0104241 0.77825415 0
4.3900003 -1.0176213 0.77825415 0
4.3900003 -1.0248184 0.77825415 0
4.3900003 -1.0320157 0.77825415 0
4.3900003 -1.0392129 0.77825415 0
4.3900003 -1.0464101 0.77825415 0
4.3900003 -1.0536073 0.77825415 0
4.3900003 -1.0608045 0.77825415 0
4.3900003 -1.0680016 0.77825415 0
4.3900003 -1.0751989 0.77825415 0
4.3910003 -1.0826558 0.77834797 0
4.3910003 -1.0898547 0.77834797 0
4.3910003 -1.0970538 0.77834797 0
4.3910003 -1.1042528 0.77834797 0
4.3910003 -1.1114519 0.77834797 0
4.3910003 -1.1186508 0.77834797 0
4.3910003 -1.1258498 0.77834797 0
4.3910003 -1.1330489 0.77834797 0
4.3910003 -1.1402478 0.77834797 0
4.3910003 -1.1474469 0.77834797 0
4.3910003 -1.1546458 0.77834797 0
4.3920002 -1.1621244 0.77844173 0
4.3920002 -1.1693251 0.77844173 0
4.3920002 -1.176526 0.77844173 0
4.3920002 -1.1837268 0.77844173 0
4.3920002 -1.1909276 0.77844173 0
4.3920002 -1.1981283 0.77844173 0
4.3920002 -1.2053292 0.77844173 0
4.3920002 -1.21253 0.77844173 0
4.3920002 -1.2197309 0.77844173 0
4.3920002 -1.2269316 0.77844173 0
4.3920002 -1.2341323 0.77844173 0
4.3930001 -1.2416327 0.77853554 0
4.3930001 -1.2488353 0.77853554 0
4.3930001 -1.2560378 0.77853554 0
4.3930001 -1.2632405 0.77853554 0
4.3930001 -1.2704431 0.77853554 0
4.3930001 -1.2776457 0.77853554 0
4.3930001 -1.2848482 0.77853554 0
4.3930001 -1.292051 0.77853554 0
4.3930001 -1.2992535 0.77853554 0
4.3930001 -1.3064561 0.77853554 0
4.3930001 -1.3136587 0.77853554 0
4.3930001 -1.3208613 0.77853554 0
