# .PCD v0.7 - Point Cloud Data file format
VERSION 0.7
FIELDS x y z intensity
SIZE 4 4 4 4
TYPE F F F F
COUNT 1 1 1 1
WIDTH 1394
HEIGHT 1
VIEWPOINT 0 0 0 1 0 0 0
POINTS 1394
DATA ascii
3.9710002 -0.52910495 0.84201515 0
3.9650002 -0.53472376 0.84127915 0
3.9590003 -0.54032105 0.84054327 0
3.9530003 -0.54589659 0.83980727 0
3.9470003 -0.55145049 0.83907139 0
3.9400003 -0.55683851 0.83821273 0
3.9340003 -0.56234729 0.83747679 0
3.9280002 -0.5678345 0.83674085 0
3.9220002 -0.57330006 0.83600485 0
3.9160004 -0.57874393 0.83526891 0
3.9100003 -0.58416617 0.83453298 0
3.9040003 -0.58956683 0.83379698 0
3.8980002 -0.59494573 0.8330611 0
3.8920002 -0.60030305 0.8323251 0
3.8900003 -0.60628086 0.83207977 0
3.8960001 -0.61355025 0.83281571 0
3.9030004 -0.62100536 0.83367431 0
4.052 -0.65863824 0.85195053 0
4.0450001 -0.66403884 0.85109192 0
4.04 -0.66975689 0.85047865 0
4.0350003 -0.67545694 0.84986532 0
4.0320001 -0.68148887 0.84949732 0
4.0300002 -0.68768674 0.84925205 0
4.0280004 -0.69387746 0.84900671 0
4.027 -0.70024127 0.84888405 0
4.027 -0.70678365 0.84888405 0
4.0280004 -0.7135101 0.84900671 0
4.0300002 -0.72042584 0.84925205 0
4.033 -0.72753644 0.84961998 0
4.039 -0.73522615 0.85035598 0
4.0480003 -0.74351102 0.85145986 0
4.0550003 -0.75144237 0.85231853 0
4.0599999 -0.7590093 0.8529318 0
4.0950003 -0.41924402 0.85055983 0
4.0880003 -0.42518938 0.8497138 0
4.0810003 -0.43110946 0.84886783 0
4.0750003 -0.43711072 0.84814268 0
4.0680003 -0.44298214 0.84729671 0
4.0610003 -0.44882828 0.84645075 0
4.0550003 -0.454761 0.8457256 0
4.0480003 -0.46055844 0.84487963 0
4.0420003 -0.46644607 0.84415448 0
4.0350003 -0.47219479 0.84330845 0
4.0290003 -0.47803733 0.84258336 0
4.0220003 -0.48373735 0.84173739 0
4.0160003 -0.4895348 0.84101224 0
4.0090003 -0.49518612 0.84016621 0
4.0030003 -0.50093848 0.83944112 0
3.9970002 -0.50666916 0.83871603 0
3.9900002 -0.51224834 0.83787 0
3.9840002 -0.51793396 0.83714485 0
3.9780002 -0.5235979 0.8364197 0
3.9710002 -0.52910495 0.83557373 0
3.9650002 -0.53472376 0.83484864 0
3.9590003 -0.54032105 0.83412349 0
3.9530003 -0.54589659 0.83339834 0
3.9470003 -0.55145049 0.83267325 0
3.9400003 -0.55683851 0.83182728 0
3.9340003 -0.56234729 0.83110213 0
3.9280002 -0.5678345 0.83037698 0
3.9220002 -0.57330006 0.82965183 0
3.9160004 -0.57874393 0.82892674 0
3.9100003 -0.58416617 0.82820159 0
3.9040003 -0.58956683 0.82747644 0
3.8980002 -0.59494573 0.82675135 0
3.8920002 -0.60030305 0.8260262 0
3.8900003 -0.60628086 0.8257845 0
3.8960001 -0.61355025 0.82650959 0
3.9030004 -0.62100536 0.82735562 0
3.9100003 -0.62848574 0.82820159 0
4.052 -0.65863824 0.84536302 0
4.0450001 -0.66403884 0.84451705 0
4.04 -0.66975689 0.84391272 0
4.0350003 -0.67545694 0.84330845 0
4.0320001 -0.68148887 0.84294593 0
4.0300002 -0.68768674 0.84270418 0
4.0280004 -0.69387746 0.84246254 0
4.027 -0.70024127 0.84234166 0
4.027 -0.70678365 0.84234166 0
4.0280004 -0.7135101 0.84246254 0
4.0300002 -0.72042584 0.84270418 0
4.033 -0.72753644 0.84306681 0
4.039 -0.73522615 0.84379196 0
4.0480003 -0.74351102 0.84487963 0
4.0560002 -0.75163537 0.84584641 0
4.0610003 -0.75920415 0.84645075 0
4.1420002 -0.37674266 0.84949011 0
4.1350002 -0.38286117 0.84865677 0
4.1280003 -0.38895446 0.84782338 0
4.1220002 -0.39511627 0.84710908 0
4.1150002 -0.40116081 0.84627575 0
4.1080003 -0.40718013 0.84544241 0
4.1010003 -0.41317418 0.84460902 0
4.0950003 -0.41924402 0.84389472 0
4.0880003 -0.42518938 0.84306139 0
4.0810003 -0.43110946 0.84222806 0
4.0750003 -0.43711072 0.84151375 0
4.0680003 -0.44298214 0.84068036 0
4.0610003 -0.44882828 0.83984697 0
4.0550003 -0.454761 0.83913267 0
4.0480003 -0.46055844 0.83829933 0
4.0420003 -0.46644607 0.83758497 0
4.0350003 -0.47219479 0.8367517 0
4.0290003 -0.47803733 0.83603734 0
4.0220003 -0.48373735 0.83520401 0
4.0160003 -0.4895348 0.8344897 0
4.0090003 -0.49518612 0.83365631 0
4.0030003 -0.50093848 0.83294201 0
3.9970002 -0.50666916 0.83222771 0
3.9900002 -0.51224834 0.83139431 0
3.9840002 -0.51793396 0.83068001 0
3.9780002 -0.5235979 0.82996571 0
3.9710002 -0.52910495 0.82913232 0
3.9650002 -0.53472376 0.82841802 0
3.9590003 -0.54032105 0.82770371 0
3.9530003 -0.54589659 0.82698941 0
3.9470003 -0.55145049 0.82627511 0
3.9400003 -0.55683851 0.82544178 0
3.9340003 -0.56234729 0.82472742 0
3.9280002 -0.5678345 0.82401311 0
3.9220002 -0.57330006 0.82329881 0
3.9160004 -0.57874393 0.82258451 0
3.9100003 -0.58416617 0.82187021 0
3.9040003 -0.58956683 0.82115591 0
3.8980002 -0.59494573 0.8204416 0
3.8920002 -0.60030305 0.8197273 0
3.8900003 -0.60628086 0.81948924 0
3.8960001 -0.61355025 0.82020354 0
3.9030004 -0.62100536 0.82103688 0
3.9100003 -0.62848574 0.82187021 0
4.052 -0.65863824 0.83877552 0
4.0450001 -0.66403884 0.83794212 0
4.04 -0.66975689 0.83734691 0
4.0350003 -0.67545694 0.8367517 0
4.0320001 -0.68148887 0.83639455 0
4.0300002 -0.68768674 0.83615637 0
4.0280004 -0.69387746 0.83591831 0
4.027 -0.70024127 0.83579922 0
4.027 -0.70678365 0.83579922 0
4.0280004 -0.7135101 0.83591831 0
4.0300002 -0.72042584 0.83615637 0
4.033 -0.72753644 0.83651352 0
4.039 -0.73522615 0.83722782 0
4.0480003 -0.74351102 0.83829933 0
4.0570002 -0.75182837 0.83937073 0
4.0610003 -0.75920415 0.83984697 0
4.0669999 -0.76698756 0.84056127 0
4.1560001 -0.36442989 0.84438175 0
4.1490002 -0.37059888 0.84356099 0
4.1420002 -0.37674266 0.8427403 0
4.1350002 -0.38286117 0.84191954 0
4.1280003 -0.38895446 0.84109879 0
4.1220002 -0.39511627 0.84039533 0
4.1150002 -0.40116081 0.83957458 0
4.1080003 -0.40718013 0.83875388 0
4.1010003 -0.41317418 0.83793318 0
4.0950003 -0.41924402 0.83722967 0
4.0880003 -0.42518938 0.83640897 0
4.0810003 -0.43110946 0.83558822 0
4.0750003 -0.43711072 0.8348847 0
4.0680003 -0.44298214 0.83406401 0
4.0610003 -0.44882828 0.83324325 0
4.0550003 -0.454761 0.8325398 0
4.0480003 -0.46055844 0.83171904 0
4.0420003 -0.46644607 0.83101553 0
4.0350003 -0.47219479 0.83019483 0
4.0290003 -0.47803733 0.82949132 0
4.0220003 -0.48373735 0.82867062 0
4.0160003 -0.4895348 0.82796711 0
4.0090003 -0.49518612 0.82714635 0
4.0030003 -0.50093848 0.82644284 0
3.9970002 -0.50666916 0.82573938 0
3.9900002 -0.51224834 0.82491863 0
3.9840002 -0.51793396 0.82421517 0
3.9780002 -0.5235979 0.82351172 0
3.9710002 -0.52910495 0.82269096 0
3.9650002 -0.53472376 0.82198751 0
3.9590003 -0.54032105 0.82128406 0
3.9530003 -0.54589659 0.82058048 0
3.9470003 -0.55145049 0.81987703 0
3.9400003 -0.55683851 0.81905627 0
3.9340003 -0.56234729 0.81835282 0
3.9280002 -0.5678345 0.8176493 0
3.9220002 -0.57330006 0.81694579 0
3.9160004 -0.57874393 0.81624234 0
3.9100003 -0.58416617 0.81553888 0
3.9040003 -0.58956683 0.81483537 0
3.8980002 -0.59494573 0.81413186 0
3.8920002 -0.60030305 0.8134284 0
3.8900003 -0.60628086 0.81319392 0
3.8960001 -0.61355025 0.81389737 0
3.9030004 -0.62100536 0.81471813 0
3.9100003 -0.62848574 0.81553888 0
4.052 -0.65863824 0.83218801 0
4.0450001 -0.66403884 0.83136725 0
4.04 -0.66975689 0.83078104 0
4.0350003 -0.67545694 0.83019483 0
4.0320001 -0.68148887 0.82984304 0
4.0300002 -0.68768674 0.82960856 0
4.0280004 -0.69387746 0.82937407 0
4.027 -0.70024127 0.82925677 0
4.027 -0.70678365 0.82925677 0
4.0280004 -0.7135101 0.82937407 0
4.0300002 -0.72042584 0.82960856 0
4.033 -0.72753644 0.82996029 0
4.039 -0.73522615 0.8306638 0
4.0480003 -0.74351102 0.83171904 0
4.0580001 -0.75202137 0.83289152 0
4.0620003 -0.759399 0.83336049 0
4.0669999 -0.76698756 0.8339467 0
4.1630001 -0.3582356 0.83841479 0
4.1560001 -0.36442989 0.83760667 0
4.1490002 -0.37059888 0.83679855 0
4.1420002 -0.37674266 0.83599043 0
4.1350002 -0.38286117 0.83518231 0
4.1280003 -0.38895446 0.83437419 0
4.1220002 -0.39511627 0.83368158 0
4.1150002 -0.40116081 0.83287346 0
4.1080003 -0.40718013 0.83206534 0
4.1010003 -0.41317418 0.83125722 0
4.0950003 -0.41924402 0.83056462 0
4.0880003 -0.42518938 0.8297565 0
4.0810003 -0.43110946 0.82894838 0
4.0750003 -0.43711072 0.82825571 0
4.0680003 -0.44298214 0.82744765 0
4.0610003 -0.44882828 0.82663953 0
4.0550003 -0.454761 0.82594681 0
4.0480003 -0.46055844 0.82513875 0
4.0420003 -0.46644607 0.82444608 0
4.0350003 -0.47219479 0.82363796 0
4.0290003 -0.47803733 0.8229453 0
4.0220003 -0.48373735 0.82213724 0
4.0160003 -0.4895348 0.82144451 0
4.0090003 -0.49518612 0.82063639 0
4.0030003 -0.50093848 0.81994379 0
3.9970002 -0.50666916 0.81925106 0
3.9900002 -0.51224834 0.818443 0
3.9840002 -0.51793396 0.81775033 0
3.9780002 -0.5235979 0.81705767 0
3.9710002 -0.52910495 0.81624955 0
3.9650002 -0.53472376 0.81555688 0
3.9590003 -0.54032105 0.81486428 0
3.9530003 -0.54589659 0.81417155 0
3.9470003 -0.55145049 0.81347895 0
3.9400003 -0.55683851 0.81267083 0
3.9340003 -0.56234729 0.8119781 0
3.9280002 -0.5678345 0.8112855 0
3.9220002 -0.57330006 0.81059277 0
3.9160004 -0.57874393 0.80990016 0
3.9100003 -0.58416617 0.8092075 0
3.9040003 -0.58956683 0.80851483 0
3.8980002 -0.59494573 0.80782217 0
3.8920002 -0.60030305 0.8071295 0
3.8900003 -0.60628086 0.80689859 0
3.8960001 -0.61355025 0.80759126 0
3.9030004 -0.62100536 0.80839944 0
3.9100003 -0.62848574 0.8092075 0
4.052 -0.65863824 0.8256005 0
4.0450001 -0.66403884 0.82479239 0
4.04 -0.66975689 0.82421517 0
4.0350003 -0.67545694 0.82363796 0
4.0320001 -0.68148887 0.82329166 0
4.0300002 -0.68768674 0.82306075 0
4.0280004 -0.69387746 0.82282984 0
4.027 -0.70024127 0.82271439 0
4.027 -0.70678365 0.82271439 0
4.0280004 -0.7135101 0.82282984 0
4.0300002 -0.72042584 0.82306075 0
4.033 -0.72753644 0.82340705 0
4.039 -0.73522615 0.82409978 0
4.0480003 -0.74351102 0.82513875 0
4.059 -0.75221437 0.82640862 0
4.0630002 -0.75959373 0.82687038 0
4.0680003 -0.76718414 0.82744765 0
4.0750003 -0.77518952 0.82825571 0
4.1700001 -0.35201606 0.83242249 0
4.1630001 -0.3582356 0.83162701 0
4.1560001 -0.36442989 0.83083153 0
4.1490002 -0.37059888 0.83003604 0
4.1420002 -0.37674266 0.82924056 0
4.1350002 -0.38286117 0.82844508 0
4.1280003 -0.38895446 0.82764959 0
4.1220002 -0.39511627 0.82696778 0
4.1150002 -0.40116081 0.82617235 0
4.1080003 -0.40718013 0.82537681 0
4.1010003 -0.41317418 0.82458138 0
4.0950003 -0.41924402 0.82389951 0
4.0880003 -0.42518938 0.82310402 0
4.0810003 -0.43110946 0.82230854 0
4.0750003 -0.43711072 0.82162672 0
4.0680003 -0.44298214 0.82083124 0
4.0610003 -0.44882828 0.82003582 0
4.0550003 -0.454761 0.81935394 0
4.0480003 -0.46055844 0.81855845 0
4.0420003 -0.46644607 0.81787658 0
4.0350003 -0.47219479 0.81708109 0
4.0290003 -0.47803733 0.81639928 0
4.0220003 -0.48373735 0.81560385 0
4.0160003 -0.4895348 0.81492198 0
4.0090003 -0.49518612 0.81412649 0
4.0030003 -0.50093848 0.81344461 0
3.9970002 -0.50666916 0.8127628 0
3.9900002 -0.51224834 0.81196731 0
3.9840002 -0.51793396 0.8112855 0
3.9780002 -0.5235979 0.81060362 0
3.9710002 -0.52910495 0.80980814 0
3.9650002 -0.53472376 0.80912632 0
3.9590003 -0.54032105 0.8084445 0
3.9530003 -0.54589659 0.80776262 0
3.9470003 -0.55145049 0.80708081 0
3.9400003 -0.55683851 0.80628538 0
3.9340003 -0.56234729 0.8056035 0
3.9280002 -0.5678345 0.80492163 0
3.9220002 -0.57330006 0.80423975 0
3.9160004 -0.57874393 0.80355799 0
3.9100003 -0.58416617 0.80287611 0
3.9040003 -0.58956683 0.8021943 0
3.8980002 -0.59494573 0.80151248 0
3.8920002 -0.60030305 0.8008306 0
3.8900003 -0.60628086 0.80060333 0
3.8960001 -0.61355025 0.80128515 0
3.9030004 -0.62100536 0.80208063 0
3.9100003 -0.62848574 0.80287611 0
4.052 -0.65863824 0.819013 0
4.0450001 -0.66403884 0.81821752 0
4.04 -0.66975689 0.8176493 0
4.0350003 -0.67545694 0.81708109 0
4.0320001 -0.68148887 0.81674016 0
4.0300002 -0.68768674 0.81651294 0
4.0280004 -0.69387746 0.81628561 0
4.027 -0.70024127 0.816172 0
4.027 -0.70678365 0.816172 0
4.0280004 -0.7135101 0.81628561 0
4.0300002 -0.72042584 0.81651294 0
4.033 -0.72753644 0.81685388 0
4.039 -0.73522615 0.81753564 0
4.0480003 -0.74351102 0.81855845 0
4.0610003 -0.75260037 0.82003582 0
4.0640001 -0.75978857 0.82037669 0
4.0680003 -0.76718414 0.82083124 0
4.0740004 -0.77499104 0.82151306 0
4.1700001 -0.35201606 0.8256222 0
4.1630001 -0.3582356 0.82483929 0
4.1560001 -0.36442989 0.82405651 0
4.1490002 -0.37059888 0.82327354 0
4.1420002 -0.37674266 0.82249075 0
4.1350002 -0.38286117 0.82170784 0
4.1280003 -0.38895446 0.82092506 0
4.1220002 -0.39511627 0.82025397 0
4.1150002 -0.40116081 0.81947118 0
4.1080003 -0.40718013 0.81868827 0
4.1010003 -0.41317418 0.81790543 0
4.0950003 -0.41924402 0.81723446 0
4.0880003 -0.42518938 0.81645155 0
4.0810003 -0.43110946 0.8156687 0
4.0750003 -0.43711072 0.81499767 0
4.0680003 -0.44298214 0.81421489 0
4.0610003 -0.44882828 0.81343198 0
4.0550003 -0.454761 0.81276101 0
4.0480003 -0.46055844 0.8119781 0
4.0420003 -0.46644607 0.81130713 0
4.0350003 -0.47219479 0.81052428 0
4.0290003 -0.47803733 0.80985326 0
4.0220003 -0.48373735 0.80907041 0
4.0160003 -0.4895348 0.80839944 0
4.0090003 -0.49518612 0.80761653 0
4.0030003 -0.50093848 0.80694556 0
3.9970002 -0.50666916 0.80627453 0
3.9900002 -0.51224834 0.80549169 0
3.9840002 -0.51793396 0.80482066 0
3.9780002 -0.5235979 0.80414963 0
3.9710002 -0.52910495 0.80336678 0
3.9650002 -0.53472376 0.80269575 0
3.9590003 -0.54032105 0.80202472 0
3.9530003 -0.54589659 0.80135369 0
3.9470003 -0.55145049 0.80068272 0
3.9400003 -0.55683851 0.79989982 0
3.9340003 -0.56234729 0.79922885 0
3.9280002 -0.5678345 0.79855782 0
3.9220002 -0.57330006 0.79788673 0
3.9160004 -0.57874393 0.79721582 0
3.9100003 -0.58416617 0.79654479 0
3.9040003 -0.58956683 0.79587376 0
3.8980002 -0.59494573 0.79520273 0
3.8920002 -0.60030305 0.7945317 0
3.8900003 -0.60628086 0.79430807 0
3.8960001 -0.61355025 0.79497904 0
3.9030004 -0.62100536 0.79576194 0
3.9100003 -0.62848574 0.79654479 0
4.052 -0.65863824 0.81242549 0
4.0450001 -0.66403884 0.81164265 0
4.04 -0.66975689 0.81108344 0
4.0350003 -0.67545694 0.81052428 0
4.0320001 -0.68148887 0.81018877 0
4.0300002 -0.68768674 0.80996513 0
4.0280004 -0.69387746 0.80974144 0
4.027 -0.70024127 0.80962956 0
4.027 -0.70678365 0.80962956 0
4.0280004 -0.7135101 0.80974144 0
4.0300002 -0.72042584 0.80996513 0
4.033 -0.72753644 0.81030059 0
4.039 -0.73522615 0.81097162 0
4.0480003 -0.74351102 0.8119781 0
4.0630002 -0.75298637 0.81365567 0
4.0650001 -0.75998336 0.81387937 0
4.0690002 -0.76738077 0.8143267 0
4.0740004 -0.77499104 0.81488585 0
4.177 -0.34577128 0.819592 0
4.1700001 -0.35201606 0.81882179 0
4.1630001 -0.3582356 0.81805158 0
4.1560001 -0.36442989 0.81728137 0
4.1490002 -0.37059888 0.81651115 0
4.1420002 -0.37674266 0.81574088 0
4.1350002 -0.38286117 0.81497061 0
4.1280003 -0.38895446 0.8142004 0
4.1220002 -0.39511627 0.81354022 0
4.1150002 -0.40116081 0.81277001 0
4.1080003 -0.40718013 0.8119998 0
4.1010003 -0.41317418 0.81122959 0
4.0950003 -0.41924402 0.81056935 0
4.0880003 -0.42518938 0.80979919 0
4.0810003 -0.43110946 0.80902892 0
4.0750003 -0.43711072 0.80836874 0
4.0680003 -0.44298214 0.80759847 0
4.0610003 -0.44882828 0.80682826 0
4.0550003 -0.454761 0.80616808 0
4.0480003 -0.46055844 0.80539787 0
4.0420003 -0.46644607 0.80473769 0
4.0350003 -0.47219479 0.80396748 0
4.0290003 -0.47803733 0.80330729 0
4.0220003 -0.48373735 0.80253702 0
4.0160003 -0.4895348 0.80187678 0
4.0090003 -0.49518612 0.80110657 0
4.0030003 -0.50093848 0.80044639 0
3.9970002 -0.50666916 0.79978621 0
3.9900002 -0.51224834 0.799016 0
3.9840002 -0.51793396 0.79835582 0
3.9780002 -0.5235979 0.79769564 0
3.9710002 -0.52910495 0.79692537 0
3.9650002 -0.53472376 0.79626513 0
3.9590003 -0.54032105 0.79560494 0
3.9530003 -0.54589659 0.79494476 0
3.9470003 -0.55145049 0.79428458 0
3.9400003 -0.55683851 0.79351437 0
3.9340003 -0.56234729 0.79285419 0
3.9280002 -0.5678345 0.79219401 0
3.9220002 -0.57330006 0.79153377 0
3.9160004 -0.57874393 0.79087359 0
3.9100003 -0.58416617 0.79021341 0
3.9040003 -0.58956683 0.78955323 0
3.8980002 -0.59494573 0.78889298 0
3.8920002 -0.60030305 0.7882328 0
3.8900003 -0.60628086 0.78801274 0
3.8960001 -0.61355025 0.78867292 0
3.9030004 -0.62100536 0.78944314 0
3.9100003 -0.62848574 0.79021341 0
4.052 -0.65863824 0.80583799 0
4.0450001 -0.66403884 0.80506778 0
4.04 -0.66975689 0.80451763 0
4.0350003 -0.67545694 0.80396748 0
4.0320001 -0.68148887 0.80363739 0
4.0300002 -0.68768674 0.80341727 0
4.0280004 -0.69387746 0.80319721 0
4.027 -0.70024127 0.80308717 0
4.027 -0.70678365 0.80308717 0
4.0280004 -0.7135101 0.80319721 0
4.0300002 -0.72042584 0.80341727 0
4.033 -0.72753644 0.80374736 0
4.039 -0.73522615 0.80440754 0
4.0480003 -0.74351102 0.80539787 0
4.0650001 -0.75337243 0.80726838 0
4.0669999 -0.760373 0.80748844 0
4.0700002 -0.76757735 0.80781853 0
4.0750003 -0.77518952 0.80836874 0
4.0820003 -0.78322005 0.80913895 0
4.177 -0.34577128 0.81277907 0
4.1700001 -0.35201606 0.81202143 0
4.1630001 -0.3582356 0.8112638 0
4.1560001 -0.36442989 0.81050622 0
4.1490002 -0.37059888 0.80974865 0
4.1420002 -0.37674266 0.80899101 0
4.1350002 -0.38286117 0.80823344 0
4.1280003 -0.38895446 0.80747581 0
4.1220002 -0.39511627 0.80682647 0
4.1150002 -0.40116081 0.8060689 0
4.1080003 -0.40718013 0.80531126 0
4.1010003 -0.41317418 0.80455369 0
4.0950003 -0.41924402 0.80390429 0
4.0880003 -0.42518938 0.80314672 0
4.0810003 -0.43110946 0.80238914 0
4.0750003 -0.43711072 0.80173975 0
4.0680003 -0.44298214 0.80098212 0
4.0610003 -0.44882828 0.80022454 0
4.0550003 -0.454761 0.79957521 0
4.0480003 -0.46055844 0.79881757 0
4.0420003 -0.46644607 0.79816818 0
4.0350003 -0.47219479 0.79741061 0
4.0290003 -0.47803733 0.79676121 0
4.0220003 -0.48373735 0.79600358 0
4.0160003 -0.4895348 0.79535425 0
4.0090003 -0.49518612 0.79459667 0
4.0030003 -0.50093848 0.79394728 0
3.9970002 -0.50666916 0.79329789 0
3.9900002 -0.51224834 0.79254031 0
3.9840002 -0.51793396 0.79189092 0
3.9780002 -0.5235979 0.79124153 0
3.9710002 -0.52910495 0.79048395 0
3.9650002 -0.53472376 0.78983462 0
3.9590003 -0.54032105 0.78918523 0
3.9530003 -0.54589659 0.78853583 0
3.9470003 -0.55145049 0.7878865 0
3.9400003 -0.55683851 0.78712893 0
3.9340003 -0.56234729 0.78647947 0
3.9280002 -0.5678345 0.78583014 0
3.9220002 -0.57330006 0.78518081 0
3.9160004 -0.57874393 0.78453141 0
3.9100003 -0.58416617 0.78388202 0
3.9040003 -0.58956683 0.78323269 0
3.8980002 -0.59494573 0.78258324 0
3.8920002 -0.60030305 0.7819339 0
3.8900003 -0.60628086 0.78171742 0
3.8960001 -0.61355025 0.78236687 0
3.9030004 -0.62100536 0.78312445 0
3.9100003 -0.62848574 0.78388202 0
4.052 -0.65863824 0.79925048 0
4.0450001 -0.66403884 0.79849291 0
4.04 -0.66975689 0.7979517 0
4.0350003 -0.67545694 0.79741061 0
4.0320001 -0.68148887 0.79708588 0
4.0300002 -0.68768674 0.7968694 0
4.0280004 -0.69387746 0.79665303 0
4.027 -0.70024127 0.79654479 0
4.027 -0.70678365 0.79654479 0
4.0280004 -0.7135101 0.79665303 0
4.0300002 -0.72042584 0.7968694 0
4.033 -0.72753644 0.79719412 0
4.039 -0.73522615 0.79784352 0
4.0480003 -0.74351102 0.79881757 0
4.066 -0.75356543 0.80076563 0
4.0680003 -0.76056778 0.80098212 0
4.0710001 -0.76777405 0.80130684 0
4.0750003 -0.77518952 0.80173975 0
4.0810003 -0.78301984 0.80238914 0
4.177 -0.34577128 0.80596608 0
4.1700001 -0.35201606 0.80522108 0
4.1630001 -0.3582356 0.80447614 0
4.1560001 -0.36442989 0.80373114 0
4.1490002 -0.37059888 0.80298615 0
4.1420002 -0.37674266 0.80224121 0
4.1350002 -0.38286117 0.80149621 0
4.1280003 -0.38895446 0.80075121 0
4.1220002 -0.39511627 0.80011272 0
4.1150002 -0.40116081 0.79936773 0
4.1080003 -0.40718013 0.79862273 0
4.1010003 -0.41317418 0.79787779 0
4.0950003 -0.41924402 0.79723918 0
4.0880003 -0.42518938 0.79649425 0
4.0810003 -0.43110946 0.79574931 0
4.0750003 -0.43711072 0.7951107 0
4.0680003 -0.44298214 0.79436576 0
4.0610003 -0.44882828 0.79362082 0
4.0550003 -0.454761 0.79298222 0
4.0480003 -0.46055844 0.79223728 0
4.0420003 -0.46644607 0.79159868 0
4.0350003 -0.47219479 0.79085374 0
4.0290003 -0.47803733 0.79021519 0
4.0220003 -0.48373735 0.7894702 0
4.0160003 -0.4895348 0.78883171 0
4.0090003 -0.49518612 0.78808671 0
4.0030003 -0.50093848 0.78744817 0
3.9970002 -0.50666916 0.78680956 0
3.9900002 -0.51224834 0.78606462 0
3.9840002 -0.51793396 0.78542608 0
3.9780002 -0.5235979 0.78478754 0
3.9710002 -0.52910495 0.7840426 0
3.9650002 -0.53472376 0.78340399 0
3.9590003 -0.54032105 0.78276551 0
3.9530003 -0.54589659 0.7821269 0
3.9470003 -0.55145049 0.78148842 0
3.9400003 -0.55683851 0.78074342 0
3.9340003 -0.56234729 0.78010488 0
3.9280002 -0.5678345 0.77946627 0
3.9220002 -0.57330006 0.77882779 0
3.9160004 -0.57874393 0.77818918 0
3.9100003 -0.58416617 0.7775507 0
3.9040003 -0.58956683 0.77691209 0
3.8980002 -0.59494573 0.77627355 0
3.8920002 -0.60030305 0.775635 0
3.8900003 -0.60628086 0.77542222 0
3.8960001 -0.61355025 0.7760607 0
3.9030004 -0.62100536 0.7768057 0
3.9100003 -0.62848574 0.7775507 0
4.052 -0.65863824 0.79266298 0
4.0450001 -0.66403884 0.79191798 0
4.04 -0.66975689 0.79138589 0
4.0350003 -0.67545694 0.79085374 0
4.0320001 -0.68148887 0.7905345 0
4.0300002 -0.68768674 0.79032159 0
4.0280004 -0.69387746 0.7901088 0
4.027 -0.70024127 0.79000235 0
4.027 -0.70678365 0.79000235 0
4.0280004 -0.7135101 0.7901088 0
4.0300002 -0.72042584 0.79032159 0
4.033 -0.72753644 0.79064095 0
4.039 -0.73522615 0.79127944 0
4.0480003 -0.74351102 0.79223728 0
4.0690002 -0.75414443 0.79447222 0
4.0700002 -0.76095742 0.79457855 0
4.073 -0.76816726 0.79489785 0
4.0760002 -0.77538788 0.79521716 0
4.0820003 -0.78322005 0.7958557 0
4.0900002 -0.79147786 0.79670709 0
4.177 -0.34577128 0.79915309 0
4.1700001 -0.35201606 0.79842073 0
4.1630001 -0.3582356 0.79768836 0
4.1560001 -0.36442989 0.79695606 0
4.1490002 -0.37059888 0.79622364 0
4.1420002 -0.37674266 0.79549134 0
4.1350002 -0.38286117 0.79475898 0
4.1280003 -0.38895446 0.79402661 0
4.1220002 -0.39511627 0.79339892 0
4.1150002 -0.40116081 0.79266655 0
4.1080003 -0.40718013 0.79193425 0
4.1010003 -0.41317418 0.79120189 0
4.0950003 -0.41924402 0.79057419 0
4.0880003 -0.42518938 0.78984177 0
4.0810003 -0.43110946 0.78910947 0
4.0750003 -0.43711072 0.78848171 0
4.0680003 -0.44298214 0.78774941 0
4.0610003 -0.44882828 0.78701705 0
4.0550003 -0.454761 0.78638935 0
4.0480003 -0.46055844 0.78565699 0
4.0420003 -0.46644607 0.78502923 0
4.0350003 -0.47219479 0.78429693 0
4.0290003 -0.47803733 0.78366917 0
4.0220003 -0.48373735 0.78293681 0
4.0160003 -0.4895348 0.78230911 0
4.0090003 -0.49518612 0.78157675 0
4.0030003 -0.50093848 0.78094906 0
3.9970002 -0.50666916 0.7803213 0
3.9900002 -0.51224834 0.77958894 0
3.9840002 -0.51793396 0.77896124 0
3.9780002 -0.5235979 0.77833349 0
3.9710002 -0.52910495 0.77760118 0
3.9650002 -0.53472376 0.77697343 0
3.9590003 -0.54032105 0.77634573 0
3.9530003 -0.54589659 0.77571797 0
3.9470003 -0.55145049 0.77509028 0
3.9400003 -0.55683851 0.77435791 0
3.9340003 -0.56234729 0.77373022 0
3.9280002 -0.5678345 0.77310246 0
3.9220002 -0.57330006 0.77247477 0
3.9160004 -0.57874393 0.77184701 0
3.9100003 -0.58416617 0.77121931 0
3.9040003 -0.58956683 0.77059156 0
3.8980002 -0.59494573 0.76996386 0
3.8920002 -0.60030305 0.7693361 0
3.8900003 -0.60628086 0.76912689 0
3.8960001 -0.61355025 0.76975459 0
3.9030004 -0.62100536 0.77048695 0
3.9100003 -0.62848574 0.77121931 0
4.052 -0.65863824 0.78607547 0
4.0450001 -0.66403884 0.78534317 0
4.04 -0.66975689 0.78482002 0
4.0350003 -0.67545694 0.78429693 0
4.0320001 -0.68148887 0.78398299 0
4.0300002 -0.68768674 0.78377378 0
4.0280004 -0.69387746 0.78356457 0
4.027 -0.70024127 0.7834599 0
4.027 -0.70678365 0.7834599 0
4.0280004 -0.7135101 0.78356457 0
4.0300002 -0.72042584 0.78377378 0
4.033 -0.72753644 0.78408766 0
4.039 -0.73522615 0.78471541 0
4.0480003 -0.74351102 0.78565699 0
4.0710001 -0.75453049 0.78806329 0
4.072 -0.76134706 0.78816789 0
4.0740004 -0.76836389 0.78837711 0
4.0770001 -0.77558637 0.78869104 0
4.0820003 -0.78322005 0.78921413 0
4.0890002 -0.79127586 0.78994644 0
4.177 -0.34577128 0.7923401 0
4.1700001 -0.35201606 0.79162037 0
4.1630001 -0.3582356 0.79090065 0
4.1560001 -0.36442989 0.79018092 0
4.1490002 -0.37059888 0.7894612 0
4.1420002 -0.37674266 0.78874147 0
4.1350002 -0.38286117 0.78802174 0
4.1280003 -0.38895446 0.78730202 0
4.1220002 -0.39511627 0.78668511 0
4.1150002 -0.40116081 0.78596544 0
4.1080003 -0.40718013 0.78524572 0
4.1010003 -0.41317418 0.78452599 0
4.0950003 -0.41924402 0.78390908 0
4.0880003 -0.42518938 0.78318942 0
4.0810003 -0.43110946 0.78246963 0
4.0750003 -0.43711072 0.78185272 0
4.0680003 -0.44298214 0.78113306 0
4.0610003 -0.44882828 0.78041333 0
4.0550003 -0.454761 0.77979636 0
4.0480003 -0.46055844 0.7790767 0
4.0420003 -0.46644607 0.77845979 0
4.0350003 -0.47219479 0.77774006 0
4.0290003 -0.47803733 0.77712315 0
4.0220003 -0.48373735 0.77640343 0
4.0160003 -0.4895348 0.77578652 0
4.0090003 -0.49518612 0.77506685 0
4.0030003 -0.50093848 0.77444994 0
3.9970002 -0.50666916 0.77383304 0
3.9900002 -0.51224834 0.77311325 0
3.9840002 -0.51793396 0.7724964 0
3.9780002 -0.5235979 0.77187943 0
3.9710002 -0.52910495 0.77115977 0
3.9650002 -0.53472376 0.77054286 0
3.9590003 -0.54032105 0.76992595 0
3.9530003 -0.54589659 0.76930904 0
3.9470003 -0.55145049 0.76869214 0
3.9400003 -0.55683851 0.76797247 0
3.9340003 -0.56234729 0.76735556 0
3.9280002 -0.5678345 0.76673865 0
3.9220002 -0.57330006 0.76612175 0
3.9160004 -0.57874393 0.76550484 0
3.9100003 -0.58416617 0.76488793 0
3.9040003 -0.58956683 0.76427102 0
3.8980002 -0.59494573 0.76365411 0
3.8920002 -0.60030305 0.7630372 0
3.8900003 -0.60628086 0.76283157 0
3.8960001 -0.61355025 0.76344848 0
3.9030004 -0.62100536 0.76416826 0
3.9100003 -0.62848574 0.76488793 0
4.052 -0.65863824 0.77948797 0
4.0450001 -0.66403884 0.77876824 0
4.04 -0.66975689 0.77825415 0
4.0350003 -0.67545694 0.77774006 0
4.0320001 -0.68148887 0.77743161 0
4.0300002 -0.68768674 0.77722597 0
4.0280004 -0.69387746 0.77702034 0
4.027 -0.70024127 0.77691752 0
4.027 -0.70678365 0.77691752 0
4.0280004 -0.7135101 0.77702034 0
4.0300002 -0.72042584 0.77722597 0
4.033 -0.72753644 0.77753443 0
4.039 -0.73522615 0.77815133 0
4.0480003 -0.74351102 0.7790767 0
4.073 -0.75491649 0.78164709 0
4.0740004 -0.76173669 0.78174996 0
4.0760002 -0.7687571 0.7819556 0
4.079 -0.77598315 0.78226399 0
4.0830002 -0.78342026 0.78267527 0
4.0890002 -0.79127586 0.78329217 0
4.177 -0.34577128 0.78552711 0
4.1700001 -0.35201606 0.78482002 0
4.1630001 -0.3582356 0.78411293 0
4.1560001 -0.36442989 0.78340584 0
4.1490002 -0.37059888 0.78269875 0
4.1420002 -0.37674266 0.7819916 0
4.1350002 -0.38286117 0.78128457 0
4.1280003 -0.38895446 0.78057742 0
4.1220002 -0.39511627 0.77997136 0
4.1150002 -0.40116081 0.77926427 0
4.1080003 -0.40718013 0.77855718 0
4.1010003 -0.41317418 0.77785009 0
4.0950003 -0.41924402 0.77724403 0
4.0880003 -0.42518938 0.77653694 0
4.0810003 -0.43110946 0.77582985 0
4.0750003 -0.43711072 0.77522373 0
4.0680003 -0.44298214 0.7745167 0
4.0610003 -0.44882828 0.77380955 0
4.0550003 -0.454761 0.77320349 0
4.0480003 -0.46055844 0.7724964 0
4.0420003 -0.46644607 0.77189028 0
4.0350003 -0.47219479 0.77118325 0
4.0290003 -0.47803733 0.77057713 0
4.0220003 -0.48373735 0.76987004 0
4.0160003 -0.4895348 0.76926398 0
4.0090003 -0.49518612 0.76855683 0
4.0030003 -0.50093848 0.76795077 0
3.9970002 -0.50666916 0.76734471 0
3.9900002 -0.51224834 0.76663762 0
3.9840002 -0.51793396 0.7660315 0
3.9780002 -0.5235979 0.76542544 0
3.9710002 -0.52910495 0.76471841 0
3.9650002 -0.53472376 0.76411223 0
3.9590003 -0.54032105 0.76350623 0
3.9530003 -0.54589659 0.76290011 0
3.9470003 -0.55145049 0.76229405 0
3.9400003 -0.55683851 0.76158696 0
3.9340003 -0.56234729 0.76098084 0
3.9280002 -0.5678345 0.76037478 0
3.9220002 -0.57330006 0.75976872 0
3.9160004 -0.57874393 0.75916266 0
3.9100003 -0.58416617 0.7585566 0
3.9040003 -0.58956683 0.75795048 0
3.8980002 -0.59494573 0.75734437 0
3.8920002 -0.60030305 0.75673831 0
3.8900003 -0.60628086 0.7565363 0
3.8960001 -0.61355025 0.75714236 0
3.9030004 -0.62100536 0.75784945 0
3.9100003 -0.62848574 0.7585566 0
4.052 -0.65863824 0.77290046 0
4.0450001 -0.66403884 0.77219331 0
4.04 -0.66975689 0.77168828 0
4.0350003 -0.67545694 0.77118325 0
4.0320001 -0.68148887 0.77088022 0
4.0300002 -0.68768674 0.77067816 0
4.0280004 -0.69387746 0.7704761 0
4.027 -0.70024127 0.77037513 0
4.027 -0.70678365 0.77037513 0
4.0280004 -0.7135101 0.7704761 0
4.0300002 -0.72042584 0.77067816 0
4.033 -0.72753644 0.77098119 0
4.039 -0.73522615 0.77158725 0
4.0480003 -0.74351102 0.7724964 0
4.0750003 -0.75530249 0.77522373 0
4.0760002 -0.76212633 0.77532476 0
4.0770001 -0.76895374 0.77542579 0
4.0799999 -0.77618158 0.77572882 0
4.0830002 -0.78342026 0.77603185 0
4.0890002 -0.79127586 0.77663791 0
4.0970001 -0.79956073 0.77744603 0
4.177 -0.34577128 0.77871412 0
4.1700001 -0.35201606 0.77801967 0
4.1630001 -0.3582356 0.77732515 0
4.1560001 -0.36442989 0.77663076 0
4.1490002 -0.37059888 0.77593625 0
4.1420002 -0.37674266 0.77524179 0
4.1350002 -0.38286117 0.77454734 0
4.1280003 -0.38895446 0.77385283 0
4.1220002 -0.39511627 0.77325761 0
4.1150002 -0.40116081 0.7725631 0
4.1080003 -0.40718013 0.77186865 0
4.1010003 -0.41317418 0.77117419 0
4.0950003 -0.41924402 0.77057898 0
4.0880003 -0.42518938 0.76988447 0
4.0810003 -0.43110946 0.76919001 0
4.0750003 -0.43711072 0.76859474 0
4.0680003 -0.44298214 0.76790029 0
4.0610003 -0.44882828 0.76720583 0
4.0550003 -0.454761 0.76661056 0
4.0480003 -0.46055844 0.76591611 0
4.0420003 -0.46644607 0.76532084 0
4.0350003 -0.47219479 0.76462638 0
4.0290003 -0.47803733 0.76403117 0
4.0220003 -0.48373735 0.76333666 0
4.0160003 -0.4895348 0.76274139 0
4.0090003 -0.49518612 0.76204693 0
4.0030003 -0.50093848 0.76145166 0
3.9970002 -0.50666916 0.76085639 0
3.9900002 -0.51224834 0.760162 0
3.9840002 -0.51793396 0.75956666 0
3.9780002 -0.5235979 0.75897145 0
3.9710002 -0.52910495 0.75827694 0
3.9650002 -0.53472376 0.75768173 0
3.9590003 -0.54032105 0.75708646 0
3.9530003 -0.54589659 0.75649118 0
3.9470003 -0.55145049 0.75589597 0
3.9400003 -0.55683851 0.75520146 0
3.9340003 -0.56234729 0.75460625 0
3.9280002 -0.5678345 0.75401098 0
3.9220002 -0.57330006 0.7534157 0
3.9160004 -0.57874393 0.75282049 0
3.9100003 -0.58416617 0.75222522 0
3.9040003 -0.58956683 0.75162995 0
3.8980002 -0.59494573 0.75103468 0
3.8920002 -0.60030305 0.75043941 0
3.8900003 -0.60628086 0.75024104 0
3.8960001 -0.61355025 0.75083625 0
3.9030004 -0.62100536 0.75153077 0
3.9100003 -0.62848574 0.75222522 0
4.052 -0.65863824 0.76631296 0
4.0450001 -0.66403884 0.76561844 0
4.04 -0.66975689 0.76512241 0
4.0350003 -0.67545694 0.76462638 0
4.0320001 -0.68148887 0.76432872 0
4.0300002 -0.68768674 0.76413035 0
4.0280004 -0.69387746 0.76393187 0
4.027 -0.70024127 0.76383269 0
4.027 -0.70678365 0.76383269 0
4.0280004 -0.7135101 0.76393187 0
4.0300002 -0.72042584 0.76413035 0
4.033 -0.72753644 0.7644279 0
4.039 -0.73522615 0.76502323 0
4.0480003 -0.74351102 0.76591611 0
4.0780001 -0.75588155 0.76889241 0
4.0780001 -0.76251596 0.76889241 0
4.079 -0.76934695 0.76899159 0
4.0810003 -0.77638 0.76919001 0
4.085 -0.78382075 0.7695868 0
4.0890002 -0.79127586 0.76998365 0
4.0960002 -0.79935688 0.77067816 0
4.177 -0.34577128 0.77190113 0
4.1700001 -0.35201606 0.77121931 0
4.1630001 -0.3582356 0.7705375 0
4.1560001 -0.36442989 0.76985562 0
4.1490002 -0.37059888 0.76917374 0
4.1420002 -0.37674266 0.76849192 0
4.1350002 -0.38286117 0.76781011 0
4.1280003 -0.38895446 0.76712823 0
4.1220002 -0.39511627 0.76654381 0
4.1150002 -0.40116081 0.76586199 0
4.1080003 -0.40718013 0.76518011 0
4.1010003 -0.41317418 0.76449829 0
4.0950003 -0.41924402 0.76391387 0
4.0880003 -0.42518938 0.76323199 0
4.0810003 -0.43110946 0.76255023 0
4.0750003 -0.43711072 0.76196575 0
4.0680003 -0.44298214 0.76128387 0
4.0610003 -0.44882828 0.76060212 0
4.0550003 -0.454761 0.76001763 0
4.0480003 -0.46055844 0.75933582 0
4.0420003 -0.46644607 0.75875139 0
4.0350003 -0.47219479 0.75806952 0
4.0290003 -0.47803733 0.75748509 0
4.0220003 -0.48373735 0.75680327 0
4.0160003 -0.4895348 0.75621879 0
4.0090003 -0.49518612 0.75553703 0
4.0030003 -0.50093848 0.75495255 0
3.9970002 -0.50666916 0.75436813 0
3.9900002 -0.51224834 0.75368631 0
3.9840002 -0.51793396 0.75310183 0
3.9780002 -0.5235979 0.7525174 0
3.9710002 -0.52910495 0.75183558 0
3.9650002 -0.53472376 0.7512511 0
3.9590003 -0.54032105 0.75066674 0
3.9530003 -0.54589659 0.75008225 0
3.9470003 -0.55145049 0.74949783 0
3.9400003 -0.55683851 0.74881601 0
3.9340003 -0.56234729 0.74823153 0
3.9280002 -0.5678345 0.74764717 0
3.9220002 -0.57330006 0.74706268 0
3.9160004 -0.57874393 0.74647826 0
3.9100003 -0.58416617 0.74589384 0
3.9040003 -0.58956683 0.74530935 0
3.8980002 -0.59494573 0.74472499 0
3.8920002 -0.60030305 0.74414051 0
3.8900003 -0.60628086 0.74394572 0
3.8960001 -0.61355025 0.74453008 0
3.9030004 -0.62100536 0.74521196 0
3.9100003 -0.62848574 0.74589384 0
4.052 -0.65863824 0.75972545 0
4.0450001 -0.66403884 0.75904357 0
4.04 -0.66975689 0.7585566 0
4.0350003 -0.67545694 0.75806952 0
4.0320001 -0.68148887 0.75777733 0
4.0300002 -0.68768674 0.75758249 0
4.0280004 -0.69387746 0.7573877 0
4.027 -0.70024127 0.75729024 0
4.027 -0.70678365 0.75729024 0
4.0280004 -0.7135101 0.7573877 0
4.0300002 -0.72042584 0.75758249 0
4.033 -0.72753644 0.75787473 0
4.039 -0.73522615 0.75845915 0
4.0480003 -0.74351102 0.75933582 0
4.0799999 -0.75626749 0.76245278 0
4.0799999 -0.76290554 0.76245278 0
4.0810003 -0.76974022 0.76255023 0
4.0830002 -0.77677679 0.76274502 0
4.086 -0.78402096 0.7630372 0
4.0900002 -0.79147786 0.76342684 0
4.0960002 -0.79935688 0.76401126 0
4.177 -0.34577128 0.7650882 0
4.1700001 -0.35201606 0.76441896 0
4.1630001 -0.3582356 0.76374972 0
4.1560001 -0.36442989 0.76308048 0
4.1490002 -0.37059888 0.7624113 0
4.1420002 -0.37674266 0.76174212 0
4.1350002 -0.38286117 0.76107287 0
4.1280003 -0.38895446 0.76040363 0
4.1220002 -0.39511627 0.75983006 0
4.1150002 -0.40116081 0.75916082 0
4.1080003 -0.40718013 0.75849164 0
4.1010003 -0.41317418 0.75782239 0
4.0950003 -0.41924402 0.75724876 0
4.0880003 -0.42518938 0.75657958 0
4.0810003 -0.43110946 0.7559104 0
4.0750003 -0.43711072 0.75533676 0
4.0680003 -0.44298214 0.75466752 0
4.0610003 -0.44882828 0.7539984 0
4.0550003 -0.454761 0.75342476 0
4.0480003 -0.46055844 0.75275552 0
4.0420003 -0.46644607 0.75218189 0
4.0350003 -0.47219479 0.75151271 0
4.0290003 -0.47803733 0.75093907 0
4.0220003 -0.48373735 0.75026989 0
4.0160003 -0.4895348 0.74969625 0
4.0090003 -0.49518612 0.74902701 0
4.0030003 -0.50093848 0.74845344 0
3.9970002 -0.50666916 0.7478798 0
3.9900002 -0.51224834 0.74721062 0
3.9840002 -0.51793396 0.74663699 0
3.9780002 -0.5235979 0.74606335 0
3.9710002 -0.52910495 0.74539417 0
3.9650002 -0.53472376 0.74482059 0
3.9590003 -0.54032105 0.74424696 0
3.9530003 -0.54589659 0.74367332 0
3.9470003 -0.55145049 0.74309969 0
3.9400003 -0.55683851 0.74243051 0
3.9340003 -0.56234729 0.74185693 0
3.9280002 -0.5678345 0.7412833 0
3.9220002 -0.57330006 0.74070966 0
3.9160004 -0.57874393 0.74013603 0
3.9100003 -0.58416617 0.73956251 0
3.9040003 -0.58956683 0.73898888 0
3.8980002 -0.59494573 0.73841524 0
3.8920002 -0.60030305 0.73784161 0
3.8900003 -0.60628086 0.73765039 0
3.8960001 -0.61355025 0.73822403 0
3.9030004 -0.62100536 0.73889327 0
3.9100003 -0.62848574 0.73956251 0
4.052 -0.65863824 0.75313795 0
4.0450001 -0.66403884 0.75246871 0
4.04 -0.66975689 0.75199068 0
4.0350003 -0.67545694 0.75151271 0
4.0320001 -0.68148887 0.75122589 0
4.0300002 -0.68768674 0.75103468 0
4.0280004 -0.69387746 0.75084352 0
4.027 -0.70024127 0.75074786 0
4.027 -0.70678365 0.75074786 0
4.0280004 -0.7135101 0.75084352 0
4.0300002 -0.72042584 0.75103468 0
4.033 -0.72753644 0.75132149 0
4.039 -0.73522615 0.75189507 0
4.0480003 -0.74351102 0.75275552 0
4.0830002 -0.75684655 0.75610161 0
4.0830002 -0.76348996 0.75610161 0
4.0830002 -0.77013344 0.75610161 0
4.085 -0.77717364 0.75629282 0
4.0870004 -0.78422117 0.75648403 0
4.0910001 -0.79167992 0.7568664 0
4.0960002 -0.79935688 0.75734437 0
4.1040001 -0.80766886 0.75810921 0
4.177 -0.34577128 0.75827515 0
4.1700001 -0.35201606 0.75761855 0
4.1630001 -0.3582356 0.756962 0
4.1560001 -0.36442989 0.75630546 0
4.1490002 -0.37059888 0.75564879 0
4.1420002 -0.37674266 0.75499225 0
4.1350002 -0.38286117 0.75433564 0
4.1280003 -0.38895446 0.75367904 0
4.1220002 -0.39511627 0.75311625 0
4.1150002 -0.40116081 0.75245965 0
4.1080003 -0.40718013 0.7518031 0
4.1010003 -0.41317418 0.75114655 0
4.0950003 -0.41924402 0.75058377 0
4.0880003 -0.42518938 0.74992716 0
4.0810003 -0.43110946 0.74927056 0
4.0750003 -0.43711072 0.74870777 0
4.0680003 -0.44298214 0.74805117 0
4.0610003 -0.44882828 0.74739456 0
4.0550003 -0.454761 0.74683177 0
4.0480003 -0.46055844 0.74617523 0
4.0420003 -0.46644607 0.74561238 0
4.0350003 -0.47219479 0.7449559 0
4.0290003 -0.47803733 0.74439305 0
4.0220003 -0.48373735 0.74373651 0
4.0160003 -0.4895348 0.74317372 0
4.0090003 -0.49518612 0.74251711 0
4.0030003 -0.50093848 0.74195433 0
3.9970002 -0.50666916 0.74139154 0
3.9900002 -0.51224834 0.74073493 0
3.9840002 -0.51793396 0.74017215 0
3.9780002 -0.5235979 0.73960936 0
3.9710002 -0.52910495 0.73895276 0
3.9650002 -0.53472376 0.73838997 0
3.9590003 -0.54032105 0.73782718 0
3.9530003 -0.54589659 0.73726439 0
3.9470003 -0.55145049 0.73670161 0
3.9400003 -0.55683851 0.73604506 0
3.9340003 -0.56234729 0.73548222 0
3.9280002 -0.5678345 0.73491943 0
3.9220002 -0.57330006 0.73435664 0
3.9160004 -0.57874393 0.73379385 0
3.9100003 -0.58416617 0.73323107 0
3.9040003 -0.58956683 0.73266828 0
3.8980002 -0.59494573 0.73210549 0
3.8920002 -0.60030305 0.73154271 0
3.8900003 -0.60628086 0.73135513 0
3.8960001 -0.61355025 0.73191792 0
3.9030004 -0.62100536 0.73257446 0
3.9100003 -0.62848574 0.73323107 0
4.052 -0.65863824 0.74655044 0
4.0450001 -0.66403884 0.74589384 0
4.04 -0.66975689 0.74542481 0
4.0350003 -0.67545694 0.7449559 0
4.0320001 -0.68148887 0.74467444 0
4.0300002 -0.68768674 0.74448687 0
4.0280004 -0.69387746 0.74429929 0
4.027 -0.70024127 0.74420547 0
4.027 -0.70678365 0.74420547 0
4.0280004 -0.7135101 0.74429929 0
4.0300002 -0.72042584 0.74448687 0
4.033 -0.72753644 0.74476826 0
4.039 -0.73522615 0.74533105 0
4.0480003 -0.74351102 0.74617523 0
4.086 -0.75742555 0.74973953 0
4.085 -0.7638796 0.74964571 0
4.085 -0.77052665 0.74964571 0
4.0870004 -0.77757055 0.74983335 0
4.0890002 -0.7846216 0.75002092 0
4.092 -0.79188192 0.75030231 0
4.0970001 -0.79956073 0.75077134 0
4.1040001 -0.80766886 0.75142789 0
4.177 -0.34577128 0.75146222 0
4.1700001 -0.35201606 0.75081825 0
4.1630001 -0.3582356 0.75017428 0
4.1560001 -0.36442989 0.74953032 0
4.1490002 -0.37059888 0.74888635 0
4.1420002 -0.37674266 0.74824238 0
4.1350002 -0.38286117 0.74759841 0
4.1280003 -0.38895446 0.74695444 0
4.1220002 -0.39511627 0.7464025 0
4.1150002 -0.40116081 0.74575853 0
4.1080003 -0.40718013 0.74511456 0
4.1010003 -0.41317418 0.7444706 0
4.0950003 -0.41924402 0.74391866 0
4.0880003 -0.42518938 0.74327469 0
4.0810003 -0.43110946 0.74263072 0
4.0750003 -0.43711072 0.74207878 0
4.0680003 -0.44298214 0.74143481 0
4.0610003 -0.44882828 0.74079084 0
4.0550003 -0.454761 0.7402389 0
4.0480003 -0.46055844 0.73959494 0
4.0420003 -0.46644607 0.739043 0
4.0350003 -0.47219479 0.73839903 0
4.0290003 -0.47803733 0.73784703 0
4.0220003 -0.48373735 0.73720312 0
4.0160003 -0.4895348 0.73665112 0
4.0090003 -0.49518612 0.73600715 0
4.0030003 -0.50093848 0.73545516 0
3.9970002 -0.50666916 0.73490322 0
3.9900002 -0.51224834 0.73425925 0
3.9840002 -0.51793396 0.73370731 0
3.9780002 -0.5235979 0.73315531 0
3.9710002 -0.52910495 0.7325114 0
3.9650002 -0.53472376 0.7319594 0
3.9590003 -0.54032105 0.73140746 0
3.9530003 -0.54589659 0.73085546 0
3.9470003 -0.55145049 0.73030353 0
3.9400003 -0.55683851 0.72965956 0
3.9340003 -0.56234729 0.72910762 0
3.9280002 -0.5678345 0.72855562 0
3.9220002 -0.57330006 0.72800362 0
3.9160004 -0.57874393 0.72745168 0
3.9100003 -0.58416617 0.72689974 0
3.9040003 -0.58956683 0.7263478 0
3.8980002 -0.59494573 0.72579581 0
3.8920002 -0.60030305 0.72524381 0
3.8900003 -0.60628086 0.72505987 0
3.8960001 -0.61355025 0.72561181 0
3.9030004 -0.62100536 0.72625577 0
3.9100003 -0.62848574 0.72689974 0
4.052 -0.65863824 0.73996294 0
4.0450001 -0.66403884 0.73931897 0
4.04 -0.66975689 0.73885894 0
4.0350003 -0.67545694 0.73839903 0
4.0320001 -0.68148887 0.73812306 0
4.0300002 -0.68768674 0.737939 0
4.0280004 -0.69387746 0.73775506 0
4.027 -0.70024127 0.73766303 0
4.027 -0.70678365 0.73766303 0
4.0280004 -0.7135101 0.73775506 0
4.0300002 -0.72042584 0.737939 0
4.033 -0.72753644 0.73821497 0
4.039 -0.73522615 0.73876697 0
4.0480003 -0.74351102 0.73959494 0
4.0880003 -0.75781161 0.74327469 0
4.0880003 -0.76446402 0.74327469 0
4.0880003 -0.7711165 0.74327469 0
4.0880003 -0.77776891 0.74327469 0
4.0900002 -0.78482175 0.74345869 0
4.0929999 -0.79208392 0.74373466 0
4.0970001 -0.79956073 0.74410266 0
4.1030002 -0.80746317 0.7446546 0
4.177 -0.34577128 0.74464917 0
4.1700001 -0.35201606 0.74401784 0
4.1630001 -0.3582356 0.74338651 0
4.1560001 -0.36442989 0.74275517 0
4.1490002 -0.37059888 0.74212384 0
4.1420002 -0.37674266 0.74149251 0
4.1350002 -0.38286117 0.74086118 0
4.1280003 -0.38895446 0.74022985 0
4.1220002 -0.39511627 0.73968875 0
4.1150002 -0.40116081 0.73905742 0
4.1080003 -0.40718013 0.73842609 0
4.1010003 -0.41317418 0.73779476 0
4.0950003 -0.41924402 0.73725361 0
4.0880003 -0.42518938 0.73662221 0
4.0810003 -0.43110946 0.73599094 0
4.0750003 -0.43711072 0.73544979 0
4.0680003 -0.44298214 0.73481846 0
4.0610003 -0.44882828 0.73418713 0
4.0550003 -0.454761 0.73364598 0
4.0480003 -0.46055844 0.73301464 0
4.0420003 -0.46644607 0.73247349 0
4.0350003 -0.47219479 0.73184216 0
4.0290003 -0.47803733 0.73130101 0
4.0220003 -0.48373735 0.73066968 0
4.0160003 -0.4895348 0.73012853 0
4.0090003 -0.49518612 0.72949719 0
4.0030003 -0.50093848 0.7289561 0
3.9970002 -0.50666916 0.72841489 0
3.9900002 -0.51224834 0.72778356 0
3.9840002 -0.51793396 0.72724247 0
3.9780002 -0.5235979 0.72670132 0
3.9710002 -0.52910495 0.72606993 0
3.9650002 -0.53472376 0.72552884 0
3.9590003 -0.54032105 0.72498769 0
3.9530003 -0.54589659 0.72444654 0
3.9470003 -0.55145049 0.72390544 0
3.9400003 -0.55683851 0.72327411 0
3.9340003 -0.56234729 0.7227329 0
3.9280002 -0.5678345 0.72219181 0
3.9220002 -0.57330006 0.7216506 0
3.9160004 -0.57874393 0.72110951 0
3.9100003 -0.58416617 0.72056836 0
3.9040003 -0.58956683 0.72002721 0
3.8980002 -0.59494573 0.71948612 0
3.8920002 -0.60030305 0.71894491 0
3.8900003 -0.60628086 0.71876454 0
3.8960001 -0.61355025 0.71930569 0
3.9030004 -0.62100536 0.71993703 0
3.9100003 -0.62848574 0.72056836 0
4.052 -0.65863824 0.73337543 0
4.0450001 -0.66403884 0.7327441 0
4.04 -0.66975689 0.73229313 0
4.0350003 -0.67545694 0.73184216 0
4.0320001 -0.68148887 0.73157156 0
4.0300002 -0.68768674 0.73139119 0
4.0280004 -0.69387746 0.73121083 0
4.027 -0.70024127 0.73112065 0
4.027 -0.70678365 0.73112065 0
4.0280004 -0.7135101 0.73121083 0
4.0300002 -0.72042584 0.73139119 0
4.033 -0.72753644 0.7316618 0
4.039 -0.73522615 0.73220289 0
4.0480003 -0.74351102 0.73301464 0
4.0910001 -0.75839061 0.73689282 0
4.0900002 -0.76485366 0.73680258 0
4.0900002 -0.77150965 0.73680258 0
4.0910001 -0.77836418 0.73689282 0
4.092 -0.78522223 0.736983 0
4.0940003 -0.79228598 0.73716342 0
4.098 -0.79976457 0.73752415 0
4.1040001 -0.80766886 0.7380653 0
4.112 -0.81600964 0.73878682 0
4.177 -0.34577128 0.73783624 0
4.1700001 -0.35201606 0.73721755 0
4.1630001 -0.3582356 0.73659879 0
4.1560001 -0.36442989 0.73598009 0
4.1490002 -0.37059888 0.73536134 0
4.1420002 -0.37674266 0.73474264 0
4.1350002 -0.38286117 0.73412395 0
4.1280003 -0.38895446 0.73350525 0
4.1220002 -0.39511627 0.73297495 0
4.1150002 -0.40116081 0.73235625 0
4.1080003 -0.40718013 0.73173755 0
4.1010003 -0.41317418 0.73111886 0
4.0950003 -0.41924402 0.73058856 0
4.0880003 -0.42518938 0.7299698 0
4.0810003 -0.43110946 0.72935116 0
4.0750003 -0.43711072 0.7288208 0
4.0680003 -0.44298214 0.7282021 0
4.0610003 -0.44882828 0.72758341 0
4.0550003 -0.454761 0.72705305 0
4.0480003 -0.46055844 0.72643435 0
4.0420003 -0.46644607 0.72590399 0
4.0350003 -0.47219479 0.72528529 0
4.0290003 -0.47803733 0.72475505 0
4.0220003 -0.48373735 0.72413629 0
4.0160003 -0.4895348 0.72360599 0
4.0090003 -0.49518612 0.72298729 0
4.0030003 -0.50093848 0.72245693 0
3.9970002 -0.50666916 0.72192663 0
3.9900002 -0.51224834 0.72130787 0
3.9840002 -0.51793396 0.72077763 0
3.9780002 -0.5235979 0.72024727 0
3.9710002 -0.52910495 0.71962857 0
3.9650002 -0.53472376 0.71909821 0
3.9590003 -0.54032105 0.71856797 0
3.9530003 -0.54589659 0.71803761 0
3.9470003 -0.55145049 0.7175073 0
3.9400003 -0.55683851 0.71688855 0
3.9340003 -0.56234729 0.71635824 0
3.9280002 -0.5678345 0.71582794 0
3.9220002 -0.57330006 0.71529758 0
3.9160004 -0.57874393 0.71476734 0
3.9100003 -0.58416617 0.71423697 0
3.9040003 -0.58956683 0.71370667 0
3.8980002 -0.59494573 0.71317637 0
3.8920002 -0.60030305 0.71264601 0
3.8900003 -0.60628086 0.71246922 0
3.8960001 -0.61355025 0.71299958 0
3.9030004 -0.62100536 0.71361828 0
3.9100003 -0.62848574 0.71423697 0
4.052 -0.65863824 0.72678792 0
4.0450001 -0.66403884 0.72616923 0
4.04 -0.66975689 0.7257272 0
4.0350003 -0.67545694 0.72528529 0
4.0320001 -0.68148887 0.72502017 0
4.0300002 -0.68768674 0.72484338 0
4.0280004 -0.69387746 0.7246666 0
4.027 -0.70024127 0.72457826 0
4.027 -0.70678365 0.72457826 0
4.0280004 -0.7135101 0.7246666 0
4.0300002 -0.72042584 0.72484338 0
4.033 -0.72753644 0.72510856 0
4.039 -0.73522615 0.72563887 0
4.0940003 -0.75896966 0.7305001 0
4.0929999 -0.76543802 0.73041177 0
4.092 -0.77190292 0.73032331 0
4.0929999 -0.77876103 0.73041177 0
4.0940003 -0.78562272 0.7305001 0
4.0960002 -0.79269004 0.73067689 0
4.099 -0.79996836 0.73094207 0
4.1040001 -0.80766886 0.73138404 0
4.1110001 -0.81580222 0.73200274 0
4.177 -0.34577128 0.73102319 0
4.1700001 -0.35201606 0.73041713 0
4.1630001 -0.3582356 0.72981107 0
4.1560001 -0.36442989 0.72920501 0
4.1490002 -0.37059888 0.72859889 0
4.1420002 -0.37674266 0.72799277 0
4.1350002 -0.38286117 0.72738671 0
4.1280003 -0.38895446 0.72678065 0
4.1220002 -0.39511627 0.72626114 0
4.1150002 -0.40116081 0.72565508 0
4.1080003 -0.40718013 0.72504902 0
4.1010003 -0.41317418 0.72444296 0
4.0950003 -0.41924402 0.72392344 0
4.0880003 -0.42518938 0.72331738 0
4.0810003 -0.43110946 0.72271132 0
4.0750003 -0.43711072 0.72219181 0
4.0680003 -0.44298214 0.72158575 0
4.0610003 -0.44882828 0.72097963 0
4.0550003 -0.454761 0.72046012 0
4.0480003 -0.46055844 0.71985406 0
4.0420003 -0.46644607 0.71933454 0
4.0350003 -0.47219479 0.71872848 0
4.0290003 -0.47803733 0.71820903 0
4.0220003 -0.48373735 0.71760291 0
4.0160003 -0.4895348 0.71708339 0
4.0090003 -0.49518612 0.71647733 0
4.0030003 -0.50093848 0.71595782 0
3.9970002 -0.50666916 0.71543837 0
3.9900002 -0.51224834 0.71483225 0
3.9840002 -0.51793396 0.71431279 0
3.9780002 -0.5235979 0.71379328 0
3.9710002 -0.52910495 0.71318716 0
3.9650002 -0.53472376 0.71266764 0
3.9590003 -0.54032105 0.71214819 0
3.9530003 -0.54589659 0.71162868 0
3.9470003 -0.55145049 0.71110916 0
3.9400003 -0.55683851 0.7105031 0
3.9340003 -0.56234729 0.70998359 0
3.9280002 -0.5678345 0.70946407 0
3.9220002 -0.57330006 0.70894456 0
3.9160004 -0.57874393 0.7084251 0
3.9100003 -0.58416617 0.70790565 0
3.9040003 -0.58956683 0.70738614 0
3.8980002 -0.59494573 0.70686662 0
3.8920002 -0.60030305 0.70634711 0
3.8900003 -0.60628086 0.70617402 0
3.8960001 -0.61355025 0.70669341 0
3.9030004 -0.62100536 0.70729959 0
3.9100003 -0.62848574 0.70790565 0
4.052 -0.65863824 0.72020042 0
4.0450001 -0.66403884 0.7195943 0
4.04 -0.66975689 0.71916139 0
4.0350003 -0.67545694 0.71872848 0
4.0320001 -0.68148887 0.71846873 0
4.0300002 -0.68768674 0.71829557 0
4.0280004 -0.69387746 0.71812236 0
4.027 -0.70024127 0.71803582 0
4.027 -0.70678365 0.71803582 0
4.0280004 -0.7135101 0.71812236 0
4.0300002 -0.72042584 0.71829557 0
4.033 -0.72753644 0.71855533 0
4.039 -0.73522615 0.71907485 0
4.0970001 -0.75954872 0.7240966 0
4.0960002 -0.7660225 0.72400999 0
4.0950003 -0.77249277 0.72392344 0
4.0950003 -0.77915788 0.72392344 0
4.0960002 -0.78602314 0.72400999 0
4.098 -0.7930941 0.7241832 0
4.1010003 -0.80037606 0.72444296 0
4.105 -0.8078745 0.72478926 0
4.1100001 -0.81559479 0.72522223 0
4.177 -0.34577128 0.72421026 0
4.1700001 -0.35201606 0.72361684 0
4.1630001 -0.3582356 0.72302336 0
4.1560001 -0.36442989 0.72242987 0
4.1490002 -0.37059888 0.72183645 0
4.1420002 -0.37674266 0.72124302 0
4.1350002 -0.38286117 0.72064954 0
