# .PCD v0.7 - Point Cloud Data file format
VERSION 0.7
FIELDS x y z intensity
SIZE 4 4 4 4
TYPE F F F F
COUNT 1 1 1 1
WIDTH 1444
HEIGHT 1
VIEWPOINT 0 0 0 1 0 0 0
POINTS 1444
DATA ascii
3.0220003 1.2215289 0.16752076 0
3.0270002 1.2192073 0.16706981 0
3.0320003 1.2168678 0.16661885 0
3.0370002 1.2145101 0.1661679 0
3.0410001 1.2116584 0.16580714 0
3.0460002 1.2092665 0.16535619 0
3.0510001 1.2068566 0.16490524 0
3.0550003 1.203958 0.16454445 0
3.0600002 1.2015138 0.16409352 0
3.0650003 1.1990516 0.16364256 0
3.0700002 1.1965714 0.16319163 0
3.0750003 1.1940731 0.16274065 0
3.0800002 1.1915567 0.16228972 0
3.0840001 1.1885624 0.16192897 0
3.0890002 1.1860119 0.16147798 0
3.0940003 1.1834432 0.16102703 0
3.0990002 1.1808565 0.16057608 0
2.8090003 1.335829 0.18238594 0
2.8130002 1.3337708 0.18201797 0
2.8170002 1.3316982 0.18164998 0
2.8210001 1.3296112 0.18128201 0
2.8250003 1.3275099 0.18091403 0
2.8290002 1.3253939 0.18054606 0
2.8330002 1.3232635 0.18017808 0
2.8370001 1.3211188 0.17981011 0
2.8410003 1.3189598 0.17944211 0
2.8450003 1.3167862 0.17907414 0
2.8490002 1.3145982 0.17870617 0
2.8530002 1.3123957 0.1783382 0
2.8570001 1.3101786 0.17797023 0
2.8610003 1.3079475 0.17760223 0
2.8650002 1.3057017 0.17723425 0
2.8690002 1.3034416 0.17686628 0
2.8730001 1.3011669 0.17649832 0
2.8770003 1.2988781 0.17613032 0
2.8820002 1.2971156 0.17567036 0
2.8860002 1.2947959 0.17530239 0
2.8900001 1.2924618 0.17493442 0
2.8940003 1.2901133 0.17456643 0
2.8980002 1.2877502 0.17419845 0
2.9030001 1.2859049 0.17373849 0
2.9070003 1.2835113 0.1733705 0
2.9110003 1.2811031 0.17300253 0
2.9150002 1.2786807 0.17263456 0
2.9200003 1.2767687 0.17217459 0
2.9240003 1.2743155 0.17180659 0
2.9280002 1.2718478 0.17143862 0
2.9330003 1.2698854 0.17097864 0
2.9370003 1.2673872 0.17061067 0
2.9410002 1.2648743 0.17024271 0
2.9460001 1.2628613 0.16978276 0
2.9500003 1.260318 0.16941476 0
2.9550002 1.2582705 0.16895477 0
2.9590001 1.2556965 0.16858681 0
2.9630003 1.2531081 0.16821882 0
2.9680002 1.2510103 0.16775887 0
2.9720001 1.2483912 0.1673909 0
2.9770002 1.2462591 0.16693091 0
2.9810002 1.2436092 0.16656291 0
2.9860003 1.2414429 0.16610295 0
2.9900002 1.2387625 0.16573498 0
2.9950001 1.2365618 0.16527502 0
2.9990003 1.2338506 0.16490702 0
3.0040002 1.2316157 0.16444707 0
3.0090003 1.2293628 0.1639871 0
3.0130002 1.2266048 0.16361913 0
3.0180001 1.2243174 0.16315915 0
3.0220003 1.2215289 0.16279115 0
3.0270002 1.2192073 0.16233119 0
3.0320003 1.2168678 0.16187122 0
3.0370002 1.2145101 0.16141127 0
3.0410001 1.2116584 0.1610433 0
3.0460002 1.2092665 0.16058329 0
3.0510001 1.2068566 0.16012335 0
3.0550003 1.203958 0.15975535 0
3.0600002 1.2015138 0.1592954 0
3.0650003 1.1990516 0.15883541 0
3.0700002 1.1965714 0.15837546 0
3.0750003 1.1940731 0.15791549 0
3.0800002 1.1915567 0.1574555 0
3.0840001 1.1885624 0.15708753 0
3.0890002 1.1860119 0.15662755 0
3.0940003 1.1834432 0.15616758 0
3.0990002 1.1808565 0.15570763 0
2.8090003 1.335829 0.17804056 0
2.8130002 1.3337708 0.17766537 0
2.8170002 1.3316982 0.17729019 0
2.8210001 1.3296112 0.176915 0
2.8250003 1.3275099 0.17653979 0
2.8290002 1.3253939 0.1761646 0
2.8330002 1.3232635 0.17578942 0
2.8370001 1.3211188 0.17541423 0
2.8410003 1.3189598 0.17503901 0
2.8450003 1.3167862 0.17466383 0
2.8490002 1.3145982 0.17428865 0
2.8530002 1.3123957 0.17391346 0
2.8570001 1.3101786 0.17353827 0
2.8610003 1.3079475 0.17316307 0
2.8650002 1.3057017 0.17278787 0
2.8690002 1.3034416 0.17241269 0
2.8730001 1.3011669 0.17203748 0
2.8770003 1.2988781 0.17166229 0
2.8820002 1.2971156 0.1711933 0
2.8860002 1.2947959 0.17081812 0
2.8900001 1.2924618 0.17044294 0
2.8940003 1.2901133 0.17006774 0
2.8980002 1.2877502 0.16969253 0
2.9030001 1.2859049 0.16922355 0
2.9070003 1.2835113 0.16884835 0
2.9110003 1.2811031 0.16847317 0
2.9150002 1.2786807 0.16809799 0
2.9200003 1.2767687 0.16762897 0
2.9240003 1.2743155 0.16725378 0
2.9280002 1.2718478 0.1668786 0
2.9330003 1.2698854 0.16640958 0
2.9370003 1.2673872 0.1660344 0
2.9410002 1.2648743 0.16565923 0
2.9460001 1.2628613 0.16519025 0
2.9500003 1.260318 0.16481504 0
2.9550002 1.2582705 0.16434607 0
2.9590001 1.2556965 0.16397089 0
2.9630003 1.2531081 0.16359565 0
2.9680002 1.2510103 0.16312668 0
2.9720001 1.2483912 0.1627515 0
2.9770002 1.2462591 0.16228248 0
2.9810002 1.2436092 0.1619073 0
2.9860003 1.2414429 0.1614383 0
2.9900002 1.2387625 0.16106312 0
2.9950001 1.2365618 0.16059414 0
2.9990003 1.2338506 0.16021894 0
3.0040002 1.2316157 0.15974995 0
3.0090003 1.2293628 0.15928094 0
3.0130002 1.2266048 0.15890576 0
3.0180001 1.2243174 0.15843679 0
3.0220003 1.2215289 0.15806158 0
3.0270002 1.2192073 0.15759259 0
3.0320003 1.2168678 0.1571236 0
3.0370002 1.2145101 0.15665461 0
3.0410001 1.2116584 0.15627943 0
3.0460002 1.2092665 0.15581043 0
3.0510001 1.2068566 0.15534145 0
3.0550003 1.203958 0.15496624 0
3.0600002 1.2015138 0.15449725 0
3.0650003 1.1990516 0.15402825 0
3.0700002 1.1965714 0.1535593 0
3.0750003 1.1940731 0.1530903 0
3.0800002 1.1915567 0.1526213 0
3.0840001 1.1885624 0.15224612 0
3.0890002 1.1860119 0.15177712 0
3.0940003 1.1834432 0.15130812 0
3.0990002 1.1808565 0.15083915 0
2.8090003 1.335829 0.17369518 0
2.8130002 1.3337708 0.17331278 0
2.8170002 1.3316982 0.17293039 0
2.8210001 1.3296112 0.17254797 0
2.8250003 1.3275099 0.17216556 0
2.8290002 1.3253939 0.17178313 0
2.8330002 1.3232635 0.17140074 0
2.8370001 1.3211188 0.17101836 0
2.8410003 1.3189598 0.17063591 0
2.8450003 1.3167862 0.17025353 0
2.8490002 1.3145982 0.16987111 0
2.8530002 1.3123957 0.16948871 0
2.8570001 1.3101786 0.1691063 0
2.8610003 1.3079475 0.16872388 0
2.8650002 1.3057017 0.16834149 0
2.8690002 1.3034416 0.16795908 0
2.8730001 1.3011669 0.16757669 0
2.8770003 1.2988781 0.16719426 0
2.8820002 1.2971156 0.16671626 0
2.8860002 1.2947959 0.16633387 0
2.8900001 1.2924618 0.16595145 0
2.8940003 1.2901133 0.16556904 0
2.8980002 1.2877502 0.16518661 0
2.9030001 1.2859049 0.16470863 0
2.9070003 1.2835113 0.16432619 0
2.9110003 1.2811031 0.1639438 0
2.9150002 1.2786807 0.1635614 0
2.9200003 1.2767687 0.16308337 0
2.9240003 1.2743155 0.16270098 0
2.9280002 1.2718478 0.16231857 0
2.9330003 1.2698854 0.16184056 0
2.9370003 1.2673872 0.16145813 0
2.9410002 1.2648743 0.16107576 0
2.9460001 1.2628613 0.16059774 0
2.9500003 1.260318 0.16021533 0
2.9550002 1.2582705 0.15973732 0
2.9590001 1.2556965 0.15935493 0
2.9630003 1.2531081 0.15897252 0
2.9680002 1.2510103 0.1584945 0
2.9720001 1.2483912 0.15811211 0
2.9770002 1.2462591 0.15763408 0
2.9810002 1.2436092 0.15725169 0
2.9860003 1.2414429 0.15677366 0
2.9900002 1.2387625 0.15639126 0
2.9950001 1.2365618 0.15591325 0
2.9990003 1.2338506 0.15553084 0
3.0040002 1.2316157 0.15505283 0
3.0090003 1.2293628 0.15457483 0
3.0130002 1.2266048 0.1541924 0
3.0180001 1.2243174 0.15371442 0
3.0220003 1.2215289 0.15333197 0
3.0270002 1.2192073 0.152854 0
3.0320003 1.2168678 0.15237597 0
3.0370002 1.2145101 0.15189797 0
3.0410001 1.2116584 0.15151557 0
3.0460002 1.2092665 0.15103754 0
3.0510001 1.2068566 0.15055954 0
3.0550003 1.203958 0.15017712 0
3.0600002 1.2015138 0.14969912 0
3.0650003 1.1990516 0.14922112 0
3.0700002 1.1965714 0.14874309 0
3.0750003 1.1940731 0.14826509 0
3.0800002 1.1915567 0.14778709 0
3.0840001 1.1885624 0.1474047 0
3.0890002 1.1860119 0.14692667 0
3.0940003 1.1834432 0.14644864 0
3.0990002 1.1808565 0.14597064 0
2.8090003 1.335829 0.1693498 0
2.8130002 1.3337708 0.1689602 0
2.8170002 1.3316982 0.16857058 0
2.8210001 1.3296112 0.16818097 0
2.8250003 1.3275099 0.16779132 0
2.8290002 1.3253939 0.16740172 0
2.8330002 1.3232635 0.16701208 0
2.8370001 1.3211188 0.16662246 0
2.8410003 1.3189598 0.16623282 0
2.8450003 1.3167862 0.1658432 0
2.8490002 1.3145982 0.1654536 0
2.8530002 1.3123957 0.16506396 0
2.8570001 1.3101786 0.16467437 0
2.8610003 1.3079475 0.16428471 0
2.8650002 1.3057017 0.16389509 0
2.8690002 1.3034416 0.16350548 0
2.8730001 1.3011669 0.16311586 0
2.8770003 1.2988781 0.16272622 0
2.8820002 1.2971156 0.16223921 0
2.8860002 1.2947959 0.16184959 0
2.8900001 1.2924618 0.16145995 0
2.8940003 1.2901133 0.16107033 0
2.8980002 1.2877502 0.1606807 0
2.9030001 1.2859049 0.1601937 0
2.9070003 1.2835113 0.15980406 0
2.9110003 1.2811031 0.15941444 0
2.9150002 1.2786807 0.1590248 0
2.9200003 1.2767687 0.15853778 0
2.9240003 1.2743155 0.15814817 0
2.9280002 1.2718478 0.15775853 0
2.9330003 1.2698854 0.1572715 0
2.9370003 1.2673872 0.15688187 0
2.9410002 1.2648743 0.15649228 0
2.9460001 1.2628613 0.15600526 0
2.9500003 1.260318 0.15561561 0
2.9550002 1.2582705 0.1551286 0
2.9590001 1.2556965 0.15473898 0
2.9630003 1.2531081 0.15434934 0
2.9680002 1.2510103 0.15386233 0
2.9720001 1.2483912 0.15347272 0
2.9770002 1.2462591 0.15298566 0
2.9810002 1.2436092 0.15259606 0
2.9860003 1.2414429 0.152109 0
2.9900002 1.2387625 0.15171939 0
2.9950001 1.2365618 0.15123236 0
2.9990003 1.2338506 0.15084273 0
3.0040002 1.2316157 0.15035573 0
3.0090003 1.2293628 0.14986867 0
3.0130002 1.2266048 0.14947906 0
3.0180001 1.2243174 0.14899203 0
3.0220003 1.2215289 0.1486024 0
3.0270002 1.2192073 0.1481154 0
3.0320003 1.2168678 0.14762837 0
3.0370002 1.2145101 0.14714134 0
3.0410001 1.2116584 0.14675173 0
3.0460002 1.2092665 0.14626467 0
3.0510001 1.2068566 0.14577764 0
3.0550003 1.203958 0.14538801 0
3.0600002 1.2015138 0.14490101 0
3.0650003 1.1990516 0.14441398 0
3.0700002 1.1965714 0.14392695 0
3.0750003 1.1940731 0.14343992 0
3.0800002 1.1915567 0.14295289 0
3.0840001 1.1885624 0.14256325 0
3.0890002 1.1860119 0.14207622 0
3.0940003 1.1834432 0.14158919 0
3.0990002 1.1808565 0.14110219 0
2.8090003 1.335829 0.16500443 0
2.8130002 1.3337708 0.1646076 0
2.8170002 1.3316982 0.16421078 0
2.8210001 1.3296112 0.16381395 0
2.8250003 1.3275099 0.16341707 0
2.8290002 1.3253939 0.16302027 0
2.8330002 1.3232635 0.16262342 0
2.8370001 1.3211188 0.16222659 0
2.8410003 1.3189598 0.16182974 0
2.8450003 1.3167862 0.16143291 0
2.8490002 1.3145982 0.16103606 0
2.8530002 1.3123957 0.16063923 0
2.8570001 1.3101786 0.16024241 0
2.8610003 1.3079475 0.15984555 0
2.8650002 1.3057017 0.1594487 0
2.8690002 1.3034416 0.1590519 0
2.8730001 1.3011669 0.15865505 0
2.8770003 1.2988781 0.15825818 0
2.8820002 1.2971156 0.15776214 0
2.8860002 1.2947959 0.15736531 0
2.8900001 1.2924618 0.15696849 0
2.8940003 1.2901133 0.15657163 0
2.8980002 1.2877502 0.15617478 0
2.9030001 1.2859049 0.15567875 0
2.9070003 1.2835113 0.15528192 0
2.9110003 1.2811031 0.15488507 0
2.9150002 1.2786807 0.15448824 0
2.9200003 1.2767687 0.15399221 0
2.9240003 1.2743155 0.15359536 0
2.9280002 1.2718478 0.15319851 0
2.9330003 1.2698854 0.15270245 0
2.9370003 1.2673872 0.15230563 0
2.9410002 1.2648743 0.15190879 0
2.9460001 1.2628613 0.15141276 0
2.9500003 1.260318 0.15101591 0
2.9550002 1.2582705 0.15051985 0
2.9590001 1.2556965 0.15012306 0
2.9630003 1.2531081 0.14972618 0
2.9680002 1.2510103 0.14923015 0
2.9720001 1.2483912 0.1488333 0
2.9770002 1.2462591 0.14833727 0
2.9810002 1.2436092 0.14794043 0
2.9860003 1.2414429 0.14744437 0
2.9900002 1.2387625 0.14704752 0
2.9950001 1.2365618 0.14655149 0
2.9990003 1.2338506 0.14615464 0
3.0040002 1.2316157 0.14565861 0
3.0090003 1.2293628 0.14516255 0
3.0130002 1.2266048 0.1447657 0
3.0180001 1.2243174 0.14426968 0
3.0220003 1.2215289 0.14387283 0
3.0270002 1.2192073 0.1433768 0
3.0320003 1.2168678 0.14288074 0
3.0370002 1.2145101 0.14238468 0
3.0410001 1.2116584 0.14198786 0
3.0460002 1.2092665 0.1414918 0
3.0510001 1.2068566 0.14099574 0
3.0550003 1.203958 0.14059892 0
3.0600002 1.2015138 0.14010286 0
3.0650003 1.1990516 0.1396068 0
3.0700002 1.1965714 0.13911077 0
3.0750003 1.1940731 0.13861471 0
3.0800002 1.1915567 0.13811868 0
3.0840001 1.1885624 0.13772187 0
3.0890002 1.1860119 0.13722581 0
3.0940003 1.1834432 0.13672975 0
3.0990002 1.1808565 0.13623369 0
2.8090003 1.335829 0.16065906 0
2.8130002 1.3337708 0.16025501 0
2.8170002 1.3316982 0.15985097 0
2.8210001 1.3296112 0.15944691 0
2.8250003 1.3275099 0.15904284 0
2.8290002 1.3253939 0.15863881 0
2.8330002 1.3232635 0.15823476 0
2.8370001 1.3211188 0.15783072 0
2.8410003 1.3189598 0.15742663 0
2.8450003 1.3167862 0.15702258 0
2.8490002 1.3145982 0.15661852 0
2.8530002 1.3123957 0.15621448 0
2.8570001 1.3101786 0.15581045 0
2.8610003 1.3079475 0.15540637 0
2.8650002 1.3057017 0.15500233 0
2.8690002 1.3034416 0.15459827 0
2.8730001 1.3011669 0.15419422 0
2.8770003 1.2988781 0.15379018 0
2.8820002 1.2971156 0.15328512 0
2.8860002 1.2947959 0.15288106 0
2.8900001 1.2924618 0.152477 0
2.8940003 1.2901133 0.15207294 0
2.8980002 1.2877502 0.15166891 0
2.9030001 1.2859049 0.15116385 0
2.9070003 1.2835113 0.15075976 0
2.9110003 1.2811031 0.1503557 0
2.9150002 1.2786807 0.14995167 0
2.9200003 1.2767687 0.14944658 0
2.9240003 1.2743155 0.14904255 0
2.9280002 1.2718478 0.14863849 0
2.9330003 1.2698854 0.14813343 0
2.9370003 1.2673872 0.14772937 0
2.9410002 1.2648743 0.14732531 0
2.9460001 1.2628613 0.14682025 0
2.9500003 1.260318 0.14641619 0
2.9550002 1.2582705 0.14591113 0
2.9590001 1.2556965 0.1455071 0
2.9630003 1.2531081 0.14510301 0
2.9680002 1.2510103 0.14459798 0
2.9720001 1.2483912 0.14419392 0
2.9770002 1.2462591 0.14368883 0
2.9810002 1.2436092 0.14328477 0
2.9860003 1.2414429 0.14277971 0
2.9900002 1.2387625 0.14237568 0
2.9950001 1.2365618 0.14187059 0
2.9990003 1.2338506 0.14146656 0
3.0040002 1.2316157 0.1409615 0
3.0090003 1.2293628 0.14045641 0
3.0130002 1.2266048 0.14005238 0
3.0180001 1.2243174 0.13954732 0
3.0220003 1.2215289 0.13914323 0
3.0270002 1.2192073 0.1386382 0
3.0320003 1.2168678 0.13813311 0
3.0370002 1.2145101 0.13762805 0
3.0410001 1.2116584 0.13722402 0
3.0460002 1.2092665 0.13671893 0
3.0510001 1.2068566 0.13621387 0
3.0550003 1.203958 0.13580981 0
3.0600002 1.2015138 0.13530475 0
3.0650003 1.1990516 0.13479969 0
3.0700002 1.1965714 0.1342946 0
3.0750003 1.1940731 0.13378951 0
3.0800002 1.1915567 0.13328448 0
3.0840001 1.1885624 0.13288042 0
3.0890002 1.1860119 0.13237533 0
3.0940003 1.1834432 0.13187027 0
3.0990002 1.1808565 0.13136521 0
2.8090003 1.335829 0.1563137 0
2.8130002 1.3337708 0.15590243 0
2.8170002 1.3316982 0.15549117 0
2.8210001 1.3296112 0.15507992 0
2.8250003 1.3275099 0.15466863 0
2.8290002 1.3253939 0.15425736 0
2.8330002 1.3232635 0.15384609 0
2.8370001 1.3211188 0.15343484 0
2.8410003 1.3189598 0.15302354 0
2.8450003 1.3167862 0.15261227 0
2.8490002 1.3145982 0.15220103 0
2.8530002 1.3123957 0.15178975 0
2.8570001 1.3101786 0.15137848 0
2.8610003 1.3079475 0.15096721 0
2.8650002 1.3057017 0.15055594 0
2.8690002 1.3034416 0.15014467 0
2.8730001 1.3011669 0.14973342 0
2.8770003 1.2988781 0.14932212 0
2.8820002 1.2971156 0.14880806 0
2.8860002 1.2947959 0.14839679 0
2.8900001 1.2924618 0.14798552 0
2.8940003 1.2901133 0.14757425 0
2.8980002 1.2877502 0.14716297 0
2.9030001 1.2859049 0.14664888 0
2.9070003 1.2835113 0.14623761 0
2.9110003 1.2811031 0.14582634 0
2.9150002 1.2786807 0.14541507 0
2.9200003 1.2767687 0.14490098 0
2.9240003 1.2743155 0.14448974 0
2.9280002 1.2718478 0.14407846 0
2.9330003 1.2698854 0.14356437 0
2.9370003 1.2673872 0.1431531 0
2.9410002 1.2648743 0.14274183 0
2.9460001 1.2628613 0.14222777 0
2.9500003 1.260318 0.1418165 0
2.9550002 1.2582705 0.14130241 0
2.9590001 1.2556965 0.14089113 0
2.9630003 1.2531081 0.14047983 0
2.9680002 1.2510103 0.13996577 0
2.9720001 1.2483912 0.13955453 0
2.9770002 1.2462591 0.13904044 0
2.9810002 1.2436092 0.13862917 0
2.9860003 1.2414429 0.13811508 0
2.9900002 1.2387625 0.13770381 0
2.9950001 1.2365618 0.13718972 0
2.9990003 1.2338506 0.13677844 0
3.0040002 1.2316157 0.13626435 0
3.0090003 1.2293628 0.13575026 0
3.0130002 1.2266048 0.13533902 0
3.0180001 1.2243174 0.13482493 0
3.0220003 1.2215289 0.13441366 0
3.0270002 1.2192073 0.1338996 0
3.0320003 1.2168678 0.13338548 0
3.0370002 1.2145101 0.13287142 0
3.0410001 1.2116584 0.13246015 0
3.0460002 1.2092665 0.13194606 0
3.0510001 1.2068566 0.131432 0
3.0550003 1.203958 0.13102069 0
3.0600002 1.2015138 0.1305066 0
3.0650003 1.1990516 0.12999251 0
3.0700002 1.1965714 0.12947845 0
3.0750003 1.1940731 0.12896436 0
3.0800002 1.1915567 0.12845027 0
3.0840001 1.1885624 0.128039 0
3.0890002 1.1860119 0.12752491 0
3.0940003 1.1834432 0.12701082 0
3.0990002 1.1808565 0.12649676 0
2.8090003 1.335829 0.1519683 0
2.8130002 1.3337708 0.15154982 0
2.8170002 1.3316982 0.15113136 0
2.8210001 1.3296112 0.15071288 0
2.8250003 1.3275099 0.15029439 0
2.8290002 1.3253939 0.14987591 0
2.8330002 1.3232635 0.14945742 0
2.8370001 1.3211188 0.14903894 0
2.8410003 1.3189598 0.14862043 0
2.8450003 1.3167862 0.14820197 0
2.8490002 1.3145982 0.14778349 0
2.8530002 1.3123957 0.147365 0
2.8570001 1.3101786 0.14694655 0
2.8610003 1.3079475 0.14652804 0
2.8650002 1.3057017 0.14610955 0
2.8690002 1.3034416 0.14569107 0
2.8730001 1.3011669 0.14527258 0
2.8770003 1.2988781 0.1448541 0
2.8820002 1.2971156 0.14433098 0
2.8860002 1.2947959 0.14391252 0
2.8900001 1.2924618 0.14349404 0
2.8940003 1.2901133 0.14307556 0
2.8980002 1.2877502 0.14265707 0
2.9030001 1.2859049 0.14213398 0
2.9070003 1.2835113 0.14171547 0
2.9110003 1.2811031 0.14129698 0
2.9150002 1.2786807 0.1408785 0
2.9200003 1.2767687 0.14035538 0
2.9240003 1.2743155 0.13993689 0
2.9280002 1.2718478 0.13951844 0
2.9330003 1.2698854 0.13899532 0
2.9370003 1.2673872 0.13857684 0
2.9410002 1.2648743 0.13815838 0
2.9460001 1.2628613 0.13763526 0
2.9500003 1.260318 0.13721678 0
2.9550002 1.2582705 0.13669369 0
2.9590001 1.2556965 0.1362752 0
2.9630003 1.2531081 0.13585672 0
2.9680002 1.2510103 0.13533363 0
2.9720001 1.2483912 0.13491514 0
2.9770002 1.2462591 0.13439202 0
2.9810002 1.2436092 0.13397354 0
2.9860003 1.2414429 0.13345042 0
2.9900002 1.2387625 0.13303196 0
2.9950001 1.2365618 0.13250887 0
2.9990003 1.2338506 0.13209033 0
3.0040002 1.2316157 0.13156724 0
3.0090003 1.2293628 0.13104415 0
3.0130002 1.2266048 0.13062564 0
3.0180001 1.2243174 0.13010257 0
3.0220003 1.2215289 0.12968406 0
3.0270002 1.2192073 0.12916097 0
3.0320003 1.2168678 0.12863788 0
3.0370002 1.2145101 0.12811476 0
3.0410001 1.2116584 0.12769628 0
3.0460002 1.2092665 0.12717319 0
3.0510001 1.2068566 0.12665009 0
3.0550003 1.203958 0.12623158 0
3.0600002 1.2015138 0.12570849 0
3.0650003 1.1990516 0.12518537 0
3.0700002 1.1965714 0.12466228 0
3.0750003 1.1940731 0.12413916 0
3.0800002 1.1915567 0.12361607 0
3.0840001 1.1885624 0.12319759 0
3.0890002 1.1860119 0.12267447 0
3.0940003 1.1834432 0.12215135 0
3.0990002 1.1808565 0.12162825 0
2.8090003 1.335829 0.14762294 0
2.8130002 1.3337708 0.14719725 0
2.8170002 1.3316982 0.14677158 0
2.8210001 1.3296112 0.14634585 0
2.8250003 1.3275099 0.14592013 0
2.8290002 1.3253939 0.14549446 0
2.8330002 1.3232635 0.14506873 0
2.8370001 1.3211188 0.14464307 0
2.8410003 1.3189598 0.14421734 0
2.8450003 1.3167862 0.14379168 0
2.8490002 1.3145982 0.14336595 0
2.8530002 1.3123957 0.14294025 0
2.8570001 1.3101786 0.14251459 0
2.8610003 1.3079475 0.14208886 0
2.8650002 1.3057017 0.14166316 0
2.8690002 1.3034416 0.14123747 0
2.8730001 1.3011669 0.14081177 0
2.8770003 1.2988781 0.14038604 0
2.8820002 1.2971156 0.13985395 0
2.8860002 1.2947959 0.13942823 0
2.8900001 1.2924618 0.13900256 0
2.8940003 1.2901133 0.13857684 0
2.8980002 1.2877502 0.13815117 0
2.9030001 1.2859049 0.13761905 0
2.9070003 1.2835113 0.13719332 0
2.9110003 1.2811031 0.13676763 0
2.9150002 1.2786807 0.13634193 0
2.9200003 1.2767687 0.13580981 0
2.9240003 1.2743155 0.13538408 0
2.9280002 1.2718478 0.13495842 0
2.9330003 1.2698854 0.1344263 0
2.9370003 1.2673872 0.13400057 0
2.9410002 1.2648743 0.1335749 0
2.9460001 1.2628613 0.13304278 0
2.9500003 1.260318 0.13261706 0
2.9550002 1.2582705 0.13208494 0
2.9590001 1.2556965 0.13165924 0
2.9630003 1.2531081 0.13123354 0
2.9680002 1.2510103 0.13070142 0
2.9720001 1.2483912 0.13027573 0
2.9770002 1.2462591 0.12974358 0
2.9810002 1.2436092 0.12931791 0
2.9860003 1.2414429 0.12878579 0
2.9900002 1.2387625 0.12836006 0
2.9950001 1.2365618 0.12782797 0
2.9990003 1.2338506 0.12740225 0
3.0040002 1.2316157 0.12687016 0
3.0090003 1.2293628 0.12633801 0
3.0130002 1.2266048 0.12591231 0
3.0180001 1.2243174 0.12538019 0
3.0220003 1.2215289 0.12495449 0
3.0270002 1.2192073 0.12442237 0
3.0320003 1.2168678 0.12389025 0
3.0370002 1.2145101 0.12335813 0
3.0410001 1.2116584 0.12293243 0
3.0460002 1.2092665 0.12240028 0
3.0510001 1.2068566 0.12186819 0
3.0550003 1.203958 0.12144244 0
3.0600002 1.2015138 0.12091035 0
3.0650003 1.1990516 0.12037823 0
3.0700002 1.1965714 0.11984611 0
3.0750003 1.1940731 0.11931399 0
3.0800002 1.1915567 0.11878186 0
3.0840001 1.1885624 0.11835617 0
3.0890002 1.1860119 0.11782405 0
3.0940003 1.1834432 0.1172919 0
3.0990002 1.1808565 0.11675978 0
2.8090003 1.335829 0.14327756 0
2.8130002 1.3337708 0.14284468 0
2.8170002 1.3316982 0.14241174 0
2.8210001 1.3296112 0.14197886 0
2.8250003 1.3275099 0.14154589 0
2.8290002 1.3253939 0.14111301 0
2.8330002 1.3232635 0.14068007 0
2.8370001 1.3211188 0.1402472 0
2.8410003 1.3189598 0.13981426 0
2.8450003 1.3167862 0.13938135 0
2.8490002 1.3145982 0.13894844 0
2.8530002 1.3123957 0.1385155 0
2.8570001 1.3101786 0.13808262 0
2.8610003 1.3079475 0.13764966 0
2.8650002 1.3057017 0.13721678 0
2.8690002 1.3034416 0.13678387 0
2.8730001 1.3011669 0.13635096 0
2.8770003 1.2988781 0.13591802 0
2.8820002 1.2971156 0.13537687 0
2.8860002 1.2947959 0.13494399 0
2.8900001 1.2924618 0.13451108 0
2.8940003 1.2901133 0.13407815 0
2.8980002 1.2877502 0.13364524 0
2.9030001 1.2859049 0.13310409 0
2.9070003 1.2835113 0.13267118 0
2.9110003 1.2811031 0.13223827 0
2.9150002 1.2786807 0.13180536 0
2.9200003 1.2767687 0.13126421 0
2.9240003 1.2743155 0.1308313 0
2.9280002 1.2718478 0.13039839 0
2.9330003 1.2698854 0.12985724 0
2.9370003 1.2673872 0.1294243 0
2.9410002 1.2648743 0.12899143 0
2.9460001 1.2628613 0.1284503 0
2.9500003 1.260318 0.12801734 0
2.9550002 1.2582705 0.12747622 0
2.9590001 1.2556965 0.12704331 0
2.9630003 1.2531081 0.12661037 0
2.9680002 1.2510103 0.12606925 0
2.9720001 1.2483912 0.12563634 0
2.9770002 1.2462591 0.12509519 0
2.9810002 1.2436092 0.12466228 0
2.9860003 1.2414429 0.1241211 0
2.9900002 1.2387625 0.12368822 0
2.9950001 1.2365618 0.1231471 0
2.9990003 1.2338506 0.12271413 0
3.0040002 1.2316157 0.12217301 0
3.0090003 1.2293628 0.12163186 0
3.0130002 1.2266048 0.12119895 0
3.0180001 1.2243174 0.12065783 0
3.0220003 1.2215289 0.12022489 0
3.0270002 1.2192073 0.11968374 0
3.0320003 1.2168678 0.11914262 0
3.0370002 1.2145101 0.1186015 0
3.0410001 1.2116584 0.11816856 0
3.0460002 1.2092665 0.11762741 0
3.0510001 1.2068566 0.11708629 0
3.0550003 1.203958 0.11665335 0
3.0600002 1.2015138 0.11611223 0
3.0650003 1.1990516 0.11557108 0
3.0700002 1.1965714 0.11502993 0
3.0750003 1.1940731 0.11448878 0
3.0800002 1.1915567 0.11394766 0
3.0840001 1.1885624 0.11351472 0
3.0890002 1.1860119 0.1129736 0
3.0940003 1.1834432 0.11243245 0
3.0990002 1.1808565 0.11189133 0
2.8090003 1.335829 0.1389322 0
2.8130002 1.3337708 0.13849208 0
2.8170002 1.3316982 0.13805196 0
2.8210001 1.3296112 0.13761184 0
2.8250003 1.3275099 0.13717166 0
2.8290002 1.3253939 0.13673156 0
2.8330002 1.3232635 0.13629141 0
2.8370001 1.3211188 0.13585132 0
2.8410003 1.3189598 0.13541114 0
2.8450003 1.3167862 0.13497105 0
2.8490002 1.3145982 0.1345309 0
2.8530002 1.3123957 0.13409078 0
2.8570001 1.3101786 0.13365066 0
2.8610003 1.3079475 0.13321051 0
2.8650002 1.3057017 0.13277039 0
2.8690002 1.3034416 0.13233027 0
2.8730001 1.3011669 0.13189015 0
2.8770003 1.2988781 0.13145 0
2.8820002 1.2971156 0.13089985 0
2.8860002 1.2947959 0.13045973 0
2.8900001 1.2924618 0.13001961 0
2.8940003 1.2901133 0.12957942 0
2.8980002 1.2877502 0.12913933 0
2.9030001 1.2859049 0.12858918 0
2.9070003 1.2835113 0.128149 0
2.9110003 1.2811031 0.12770891 0
2.9150002 1.2786807 0.12726876 0
2.9200003 1.2767687 0.12671861 0
2.9240003 1.2743155 0.12627849 0
2.9280002 1.2718478 0.12583834 0
2.9330003 1.2698854 0.12528819 0
2.9370003 1.2673872 0.12484807 0
2.9410002 1.2648743 0.12440795 0
2.9460001 1.2628613 0.1238578 0
2.9500003 1.260318 0.12341762 0
2.9550002 1.2582705 0.12286747 0
2.9590001 1.2556965 0.12242737 0
2.9630003 1.2531081 0.12198719 0
2.9680002 1.2510103 0.12143704 0
2.9720001 1.2483912 0.12099695 0
2.9770002 1.2462591 0.12044677 0
2.9810002 1.2436092 0.12000665 0
2.9860003 1.2414429 0.11945647 0
2.9900002 1.2387625 0.11901635 0
2.9950001 1.2365618 0.1184662 0
2.9990003 1.2338506 0.11802605 0
3.0040002 1.2316157 0.1174759 0
3.0090003 1.2293628 0.11692572 0
3.0130002 1.2266048 0.11648563 0
3.0180001 1.2243174 0.11593547 0
3.0220003 1.2215289 0.11549529 0
3.0270002 1.2192073 0.11494514 0
3.0320003 1.2168678 0.11439496 0
3.0370002 1.2145101 0.11384484 0
3.0410001 1.2116584 0.11340472 0
3.0460002 1.2092665 0.11285454 0
3.0510001 1.2068566 0.11230439 0
3.0550003 1.203958 0.11186424 0
3.0600002 1.2015138 0.11131409 0
3.0650003 1.1990516 0.11076391 0
3.0700002 1.1965714 0.11021376 0
3.0750003 1.1940731 0.10966358 0
3.0800002 1.1915567 0.10911343 0
3.0840001 1.1885624 0.10867333 0
3.0890002 1.1860119 0.10812315 0
3.0940003 1.1834432 0.10757297 0
3.0990002 1.1808565 0.10702282 0
2.8090003 1.335829 0.13458681 0
2.8130002 1.3337708 0.13413948 0
2.8170002 1.3316982 0.13369215 0
2.8210001 1.3296112 0.13324478 0
2.8250003 1.3275099 0.13279745 0
2.8290002 1.3253939 0.13235009 0
2.8330002 1.3232635 0.13190275 0
2.8370001 1.3211188 0.13145542 0
2.8410003 1.3189598 0.13100806 0
2.8450003 1.3167862 0.13056073 0
2.8490002 1.3145982 0.13011336 0
2.8530002 1.3123957 0.12966606 0
2.8570001 1.3101786 0.1292187 0
2.8610003 1.3079475 0.12877133 0
2.8650002 1.3057017 0.12832397 0
2.8690002 1.3034416 0.12787667 0
2.8730001 1.3011669 0.12742931 0
2.8770003 1.2988781 0.12698194 0
2.8820002 1.2971156 0.12642279 0
2.8860002 1.2947959 0.12597546 0
2.8900001 1.2924618 0.1255281 0
2.8940003 1.2901133 0.12508076 0
2.8980002 1.2877502 0.1246334 0
2.9030001 1.2859049 0.12407422 0
2.9070003 1.2835113 0.12362689 0
2.9110003 1.2811031 0.12317955 0
2.9150002 1.2786807 0.12273219 0
2.9200003 1.2767687 0.12217298 0
2.9240003 1.2743155 0.12172568 0
2.9280002 1.2718478 0.12127832 0
2.9330003 1.2698854 0.12071913 0
2.9370003 1.2673872 0.1202718 0
2.9410002 1.2648743 0.11982447 0
2.9460001 1.2628613 0.11926529 0
2.9500003 1.260318 0.11881793 0
2.9550002 1.2582705 0.11825874 0
2.9590001 1.2556965 0.11781141 0
2.9630003 1.2531081 0.11736408 0
2.9680002 1.2510103 0.1168049 0
2.9720001 1.2483912 0.11635754 0
2.9770002 1.2462591 0.11579835 0
2.9810002 1.2436092 0.11535102 0
2.9860003 1.2414429 0.11479181 0
2.9900002 1.2387625 0.11434448 0
2.9950001 1.2365618 0.11378533 0
2.9990003 1.2338506 0.11333793 0
3.0040002 1.2316157 0.11277881 0
3.0090003 1.2293628 0.1122196 0
3.0130002 1.2266048 0.11177224 0
3.0180001 1.2243174 0.11121309 0
3.0220003 1.2215289 0.11076573 0
3.0270002 1.2192073 0.11020654 0
3.0320003 1.2168678 0.10964736 0
3.0370002 1.2145101 0.10908821 0
3.0410001 1.2116584 0.10864085 0
3.0460002 1.2092665 0.10808167 0
3.0510001 1.2068566 0.10752249 0
3.0550003 1.203958 0.10707512 0
3.0600002 1.2015138 0.10651597 0
3.0650003 1.1990516 0.10595676 0
3.0700002 1.1965714 0.10539761 0
3.0750003 1.1940731 0.10483843 0
3.0800002 1.1915567 0.10427925 0
3.0840001 1.1885624 0.10383189 0
3.0890002 1.1860119 0.10327274 0
3.0940003 1.1834432 0.10271353 0
3.0990002 1.1808565 0.10215434 0
2.8090003 1.335829 0.13024142 0
2.8130002 1.3337708 0.12978688 0
2.8170002 1.3316982 0.12933236 0
2.8210001 1.3296112 0.12887779 0
2.8250003 1.3275099 0.12842321 0
2.8290002 1.3253939 0.12796864 0
2.8330002 1.3232635 0.12751409 0
2.8370001 1.3211188 0.12705955 0
2.8410003 1.3189598 0.12660494 0
2.8450003 1.3167862 0.12615043 0
2.8490002 1.3145982 0.12569585 0
2.8530002 1.3123957 0.12524131 0
2.8570001 1.3101786 0.12478673 0
2.8610003 1.3079475 0.12433216 0
2.8650002 1.3057017 0.12387761 0
2.8690002 1.3034416 0.12342304 0
2.8730001 1.3011669 0.12296852 0
2.8770003 1.2988781 0.12251392 0
2.8820002 1.2971156 0.12194574 0
2.8860002 1.2947959 0.12149116 0
2.8900001 1.2924618 0.12103665 0
2.8940003 1.2901133 0.12058204 0
2.8980002 1.2877502 0.1201275 0
2.9030001 1.2859049 0.11955932 0
2.9070003 1.2835113 0.11910474 0
2.9110003 1.2811031 0.11865017 0
2.9150002 1.2786807 0.11819562 0
2.9200003 1.2767687 0.11762741 0
2.9240003 1.2743155 0.11717287 0
2.9280002 1.2718478 0.11671829 0
2.9330003 1.2698854 0.11615008 0
2.9370003 1.2673872 0.11569554 0
2.9410002 1.2648743 0.11524099 0
2.9460001 1.2628613 0.11467281 0
2.9500003 1.260318 0.11421821 0
2.9550002 1.2582705 0.11365002 0
2.9590001 1.2556965 0.11319548 0
2.9630003 1.2531081 0.1127409 0
2.9680002 1.2510103 0.11217269 0
2.9720001 1.2483912 0.11171818 0
2.9770002 1.2462591 0.11114994 0
2.9810002 1.2436092 0.11069536 0
2.9860003 1.2414429 0.11012718 0
2.9900002 1.2387625 0.10967261 0
2.9950001 1.2365618 0.10910442 0
2.9990003 1.2338506 0.10864985 0
3.0040002 1.2316157 0.10808167 0
3.0090003 1.2293628 0.10751346 0
3.0130002 1.2266048 0.10705891 0
3.0180001 1.2243174 0.1064907 0
3.0220003 1.2215289 0.10603613 0
3.0270002 1.2192073 0.10546795 0
3.0320003 1.2168678 0.10489973 0
3.0370002 1.2145101 0.10433155 0
3.0410001 1.2116584 0.10387701 0
3.0460002 1.2092665 0.10330877 0
3.0510001 1.2068566 0.10274062 0
3.0550003 1.203958 0.10228601 0
3.0600002 1.2015138 0.10171783 0
3.0650003 1.1990516 0.10114962 0
3.0700002 1.1965714 0.10058144 0
3.0750003 1.1940731 0.10001323 0
3.0800002 1.1915567 0.099445015 0
3.0840001 1.1885624 0.0989905 0
3.0890002 1.1860119 0.098422259 0
3.0940003 1.1834432 0.097854048 0
3.0990002 1.1808565 0.097285897 0
2.8090003 1.335829 0.12589607 0
2.8130002 1.3337708 0.12543431 0
2.8170002 1.3316982 0.12497252 0
2.8210001 1.3296112 0.12451077 0
2.8250003 1.3275099 0.12404898 0
2.8290002 1.3253939 0.12358719 0
2.8330002 1.3232635 0.12312543 0
2.8370001 1.3211188 0.12266365 0
2.8410003 1.3189598 0.12220186 0
2.8450003 1.3167862 0.1217401 0
2.8490002 1.3145982 0.12127832 0
2.8530002 1.3123957 0.12081656 0
2.8570001 1.3101786 0.1203548 0
2.8610003 1.3079475 0.11989298 0
2.8650002 1.3057017 0.11943123 0
2.8690002 1.3034416 0.11896944 0
2.8730001 1.3011669 0.11850768 0
2.8770003 1.2988781 0.1180459 0
2.8820002 1.2971156 0.11746868 0
2.8860002 1.2947959 0.11700693 0
2.8900001 1.2924618 0.11654514 0
2.8940003 1.2901133 0.11608335 0
2.8980002 1.2877502 0.11562157 0
2.9030001 1.2859049 0.11504439 0
2.9070003 1.2835113 0.11458257 0
2.9110003 1.2811031 0.11412081 0
2.9150002 1.2786807 0.11365905 0
2.9200003 1.2767687 0.11308181 0
2.9240003 1.2743155 0.11262006 0
2.9280002 1.2718478 0.11215827 0
2.9330003 1.2698854 0.11158103 0
2.9370003 1.2673872 0.11111927 0
2.9410002 1.2648743 0.11065751 0
2.9460001 1.2628613 0.1100803 0
2.9500003 1.260318 0.10961851 0
2.9550002 1.2582705 0.1090413 0
2.9590001 1.2556965 0.10857952 0
2.9630003 1.2531081 0.10811773 0
2.9680002 1.2510103 0.10754052 0
2.9720001 1.2483912 0.10707876 0
2.9770002 1.2462591 0.10650152 0
2.9810002 1.2436092 0.10603976 0
2.9860003 1.2414429 0.10546252 0
2.9900002 1.2387625 0.10500076 0
2.9950001 1.2365618 0.10442355 0
2.9990003 1.2338506 0.10396177 0
3.0040002 1.2316157 0.10338455 0
3.0090003 1.2293628 0.10280731 0
3.0130002 1.2266048 0.10234556 0
3.0180001 1.2243174 0.10176834 0
3.0220003 1.2215289 0.10130656 0
3.0270002 1.2192073 0.10072935 0
3.0320003 1.2168678 0.10015211 0
3.0370002 1.2145101 0.099574924 0
3.0410001 1.2116584 0.099113137 0
3.0460002 1.2092665 0.098535925 0
3.0510001 1.2068566 0.097958714 0
3.0550003 1.203958 0.097496897 0
3.0600002 1.2015138 0.096919715 0
3.0650003 1.1990516 0.096342474 0
3.0700002 1.1965714 0.095765263 0
3.0750003 1.1940731 0.095188051 0
3.0800002 1.1915567 0.09461084 0
3.0840001 1.1885624 0.094149053 0
3.0890002 1.1860119 0.093571842 0
3.0940003 1.1834432 0.092994601 0
3.0990002 1.1808565 0.092417389 0
2.8090003 1.335829 0.12155071 0
2.8130002 1.3337708 0.12108171 0
2.8170002 1.3316982 0.12061271 0
2.8210001 1.3296112 0.12014374 0
2.8250003 1.3275099 0.11967474 0
2.8290002 1.3253939 0.11920574 0
2.8330002 1.3232635 0.11873677 0
2.8370001 1.3211188 0.11826777 0
2.8410003 1.3189598 0.11779878 0
2.8450003 1.3167862 0.11732978 0
2.8490002 1.3145982 0.11686078 0
2.8530002 1.3123957 0.11639181 0
2.8570001 1.3101786 0.11592284 0
2.8610003 1.3079475 0.11545381 0
2.8650002 1.3057017 0.11498484 0
2.8690002 1.3034416 0.11451587 0
2.8730001 1.3011669 0.11404684 0
2.8770003 1.2988781 0.11357784 0
2.8820002 1.2971156 0.11299163 0
2.8860002 1.2947959 0.11252266 0
2.8900001 1.2924618 0.11205366 0
2.8940003 1.2901133 0.11158463 0
2.8980002 1.2877502 0.11111566 0
2.9030001 1.2859049 0.11052942 0
2.9070003 1.2835113 0.11006042 0
2.9110003 1.2811031 0.10959145 0
2.9150002 1.2786807 0.10912246 0
2.9200003 1.2767687 0.10853621 0
2.9240003 1.2743155 0.10806721 0
2.9280002 1.2718478 0.10759825 0
2.9330003 1.2698854 0.10701197 0
2.9370003 1.2673872 0.106543 0
2.9410002 1.2648743 0.10607404 0
2.9460001 1.2628613 0.10548779 0
2.9500003 1.260318 0.10501879 0
2.9550002 1.2582705 0.10443258 0
2.9590001 1.2556965 0.10396358 0
2.9630003 1.2531081 0.10349455 0
2.9680002 1.2510103 0.10290837 0
2.9720001 1.2483912 0.10243934 0
2.9770002 1.2462591 0.10185313 0
2.9810002 1.2436092 0.10138413 0
2.9860003 1.2414429 0.10079789 0
2.9900002 1.2387625 0.10032889 0
2.9950001 1.2365618 0.099742681 0
2.9990003 1.2338506 0.099273652 0
3.0040002 1.2316157 0.09868744 0
3.0090003 1.2293628 0.098101199 0
3.0130002 1.2266048 0.0976322 0
3.0180001 1.2243174 0.097045988 0
3.0220003 1.2215289 0.096576989 0
3.0270002 1.2192073 0.095990747 0
3.0320003 1.2168678 0.095404476 0
3.0370002 1.2145101 0.094818294 0
3.0410001 1.2116584 0.094349265 0
3.0460002 1.2092665 0.093763053 0
3.0510001 1.2068566 0.093176812 0
3.0550003 1.203958 0.092707813 0
3.0600002 1.2015138 0.092121571 0
3.0650003 1.1990516 0.09153533 0
3.0700002 1.1965714 0.090949118 0
3.0750003 1.1940731 0.090362847 0
3.0800002 1.1915567 0.089776635 0
3.0840001 1.1885624 0.089307636 0
3.0890002 1.1860119 0.088721395 0
3.0940003 1.1834432 0.088135153 0
3.0990002 1.1808565 0.087548912 0
2.8090003 1.335829 0.11720532 0
2.8130002 1.3337708 0.11672911 0
2.8170002 1.3316982 0.11625293 0
2.8210001 1.3296112 0.11577675 0
2.8250003 1.3275099 0.11530048 0
2.8290002 1.3253939 0.1148243 0
2.8330002 1.3232635 0.11434811 0
2.8370001 1.3211188 0.1138719 0
2.8410003 1.3189598 0.11339566 0
2.8450003 1.3167862 0.11291948 0
2.8490002 1.3145982 0.11244327 0
2.8530002 1.3123957 0.11196706 0
2.8570001 1.3101786 0.11149088 0
2.8610003 1.3079475 0.11101466 0
2.8650002 1.3057017 0.11053845 0
2.8690002 1.3034416 0.11006224 0
2.8730001 1.3011669 0.10958606 0
2.8770003 1.2988781 0.10910982 0
2.8820002 1.2971156 0.10851458 0
2.8860002 1.2947959 0.1080384 0
2.8900001 1.2924618 0.10756218 0
2.8940003 1.2901133 0.10708594 0
2.8980002 1.2877502 0.10660976 0
2.9030001 1.2859049 0.10601452 0
2.9070003 1.2835113 0.10553828 0
2.9110003 1.2811031 0.10506207 0
2.9150002 1.2786807 0.10458589 0
2.9200003 1.2767687 0.10399064 0
2.9240003 1.2743155 0.1035144 0
2.9280002 1.2718478 0.10303822 0
2.9330003 1.2698854 0.10244295 0
2.9370003 1.2673872 0.10196674 0
2.9410002 1.2648743 0.10149056 0
2.9460001 1.2628613 0.10089532 0
2.9500003 1.260318 0.10041907 0
2.9550002 1.2582705 0.099823833 0
2.9590001 1.2556965 0.099347651 0
2.9630003 1.2531081 0.09887141 0
2.9680002 1.2510103 0.098276168 0
2.9720001 1.2483912 0.097799987 0
2.9770002 1.2462591 0.097204685 0
2.9810002 1.2436092 0.096728504 0
2.9860003 1.2414429 0.096133232 0
2.9900002 1.2387625 0.095657051 0
2.9950001 1.2365618 0.095061779 0
2.9990003 1.2338506 0.094585568 0
3.0040002 1.2316157 0.093990296 0
3.0090003 1.2293628 0.093395054 0
3.0130002 1.2266048 0.092918843 0
3.0180001 1.2243174 0.092323631 0
3.0220003 1.2215289 0.09184739 0
3.0270002 1.2192073 0.091252148 0
3.0320003 1.2168678 0.090656847 0
3.0370002 1.2145101 0.090061635 0
3.0410001 1.2116584 0.089585423 0
3.0460002 1.2092665 0.088990152 0
3.0510001 1.2068566 0.08839491 0
3.0550003 1.203958 0.087918699 0
3.0600002 1.2015138 0.087323427 0
3.0650003 1.1990516 0.086728185 0
3.0700002 1.1965714 0.086132944 0
3.0750003 1.1940731 0.085537642 0
3.0800002 1.1915567 0.08494243 0
3.0840001 1.1885624 0.084466219 0
3.0890002 1.1860119 0.083870947 0
3.0940003 1.1834432 0.083275676 0
3.0990002 1.1808565 0.082680434 0
2.8090003 1.335829 0.11285993 0
2.8130002 1.3337708 0.11237654 0
2.8170002 1.3316982 0.11189312 0
2.8210001 1.3296112 0.11140969 0
2.8250003 1.3275099 0.11092627 0
2.8290002 1.3253939 0.11044285 0
2.8330002 1.3232635 0.10995945 0
2.8370001 1.3211188 0.109476 0
2.8410003 1.3189598 0.10899258 0
2.8450003 1.3167862 0.10850915 0
2.8490002 1.3145982 0.10802576 0
2.8530002 1.3123957 0.10754234 0
2.8570001 1.3101786 0.10705891 0
2.8610003 1.3079475 0.10657549 0
2.8650002 1.3057017 0.10609207 0
2.8690002 1.3034416 0.10560864 0
2.8730001 1.3011669 0.10512522 0
2.8770003 1.2988781 0.1046418 0
2.8820002 1.2971156 0.10403752 0
2.8860002 1.2947959 0.1035541 0
2.8900001 1.2924618 0.10307071 0
2.8940003 1.2901133 0.10258725 0
2.8980002 1.2877502 0.10210383 0
2.9030001 1.2859049 0.10149959 0
2.9070003 1.2835113 0.10101613 0
2.9110003 1.2811031 0.10053271 0
2.9150002 1.2786807 0.10004932 0
2.9200003 1.2767687 0.099445015 0
2.9240003 1.2743155 0.098961592 0
2.9280002 1.2718478 0.098478198 0
2.9330003 1.2698854 0.097873896 0
2.9370003 1.2673872 0.097390473 0
2.9410002 1.2648743 0.096907079 0
2.9460001 1.2628613 0.096302807 0
2.9500003 1.260318 0.095819384 0
2.9550002 1.2582705 0.095215112 0
2.9590001 1.2556965 0.094731688 0
2.9630003 1.2531081 0.094248265 0
2.9680002 1.2510103 0.093643993 0
2.9720001 1.2483912 0.09316057 0
2.9770002 1.2462591 0.092556268 0
2.9810002 1.2436092 0.092072874 0
2.9860003 1.2414429 0.091468602 0
2.9900002 1.2387625 0.090985149 0
2.9950001 1.2365618 0.090380907 0
2.9990003 1.2338506 0.089897484 0
3.0040002 1.2316157 0.089293212 0
3.0090003 1.2293628 0.08868891 0
3.0130002 1.2266048 0.088205487 0
3.0180001 1.2243174 0.087601244 0
3.0220003 1.2215289 0.087117791 0
3.0270002 1.2192073 0.086513549 0
3.0320003 1.2168678 0.085909247 0
3.0370002 1.2145101 0.085305005 0
3.0410001 1.2116584 0.084821552 0
3.0460002 1.2092665 0.08421728 0
3.0510001 1.2068566 0.083613008 0
3.0550003 1.203958 0.083129585 0
3.0600002 1.2015138 0.082525313 0
3.0650003 1.1990516 0.081921041 0
3.0700002 1.1965714 0.081316769 0
3.0750003 1.1940731 0.080712497 0
3.0800002 1.1915567 0.080108225 0
3.0840001 1.1885624 0.079624802 0
3.0890002 1.1860119 0.0790205 0
3.0940003 1.1834432 0.078416228 0
3.0990002 1.1808565 0.077811956 0
2.8090003 1.335829 0.10851458 0
2.8130002 1.3337708 0.10802394 0
2.8170002 1.3316982 0.10753331 0
2.8210001 1.3296112 0.10704267 0
2.8250003 1.3275099 0.10655203 0
2.8290002 1.3253939 0.1060614 0
2.8330002 1.3232635 0.10557079 0
2.8370001 1.3211188 0.10508013 0
2.8410003 1.3189598 0.10458946 0
2.8450003 1.3167862 0.10409886 0
2.8490002 1.3145982 0.10360822 0
2.8530002 1.3123957 0.10311759 0
2.8570001 1.3101786 0.10262695 0
2.8610003 1.3079475 0.10213631 0
2.8650002 1.3057017 0.10164568 0
2.8690002 1.3034416 0.10115504 0
2.8730001 1.3011669 0.10066441 0
2.8770003 1.2988781 0.10017374 0
2.8820002 1.2971156 0.099560499 0
2.8860002 1.2947959 0.099069834 0
2.8900001 1.2924618 0.098579198 0
2.8940003 1.2901133 0.098088562 0
2.8980002 1.2877502 0.097597927 0
2.9030001 1.2859049 0.096984655 0
2.9070003 1.2835113 0.096493989 0
2.9110003 1.2811031 0.096003354 0
2.9150002 1.2786807 0.095512748 0
2.9200003 1.2767687 0.094899416 0
2.9240003 1.2743155 0.09440878 0
2.9280002 1.2718478 0.093918175 0
2.9330003 1.2698854 0.093304843 0
2.9370003 1.2673872 0.092814237 0
2.9410002 1.2648743 0.092323601 0
2.9460001 1.2628613 0.091710299 0
2.9500003 1.260318 0.091219664 0
2.9550002 1.2582705 0.090606391 0
2.9590001 1.2556965 0.090115756 0
2.9630003 1.2531081 0.08962509 0
2.9680002 1.2510103 0.089011818 0
2.9720001 1.2483912 0.088521183 0
2.9770002 1.2462591 0.087907881 0
2.9810002 1.2436092 0.087417245 0
2.9860003 1.2414429 0.086803943 0
2.9900002 1.2387625 0.086313307 0
2.9950001 1.2365618 0.085700005 0
2.9990003 1.2338506 0.08520937 0
3.0040002 1.2316157 0.084596097 0
3.0090003 1.2293628 0.083982766 0
3.0130002 1.2266048 0.08349216 0
3.0180001 1.2243174 0.082878858 0
3.0220003 1.2215289 0.082388192 0
3.0270002 1.2192073 0.08177495 0
3.0320003 1.2168678 0.081161618 0
3.0370002 1.2145101 0.080548346 0
3.0410001 1.2116584 0.08005771 0
3.0460002 1.2092665 0.079444408 0
3.0510001 1.2068566 0.078831106 0
3.0550003 1.203958 0.078340471 0
3.0600002 1.2015138 0.077727199 0
3.0650003 1.1990516 0.077113867 0
3.0700002 1.1965714 0.076500624 0
3.0750003 1.1940731 0.075887293 0
3.0800002 1.1915567 0.07527402 0
3.0840001 1.1885624 0.074783385 0
3.0890002 1.1860119 0.074170083 0
3.0940003 1.1834432 0.073556751 0
3.0990002 1.1808565 0.072943479 0
2.8090003 1.335829 0.10416922 0
2.8130002 1.3337708 0.10367134 0
2.8170002 1.3316982 0.10317349 0
2.8210001 1.3296112 0.10267568 0
2.8250003 1.3275099 0.1021778 0
2.8290002 1.3253939 0.10167995 0
2.8330002 1.3232635 0.1011821 0
2.8370001 1.3211188 0.10068426 0
2.8410003 1.3189598 0.10018638 0
2.8450003 1.3167862 0.09968853 0
2.8490002 1.3145982 0.099190712 0
2.8530002 1.3123957 0.098692864 0
2.8570001 1.3101786 0.098194987 0
2.8610003 1.3079475 0.097697109 0
2.8650002 1.3057017 0.097199291 0
2.8690002 1.3034416 0.096701443 0
2.8730001 1.3011669 0.096203595 0
2.8770003 1.2988781 0.095705748 0
2.8820002 1.2971156 0.095083416 0
2.8860002 1.2947959 0.094585598 0
2.8900001 1.2924618 0.09408775 0
2.8940003 1.2901133 0.093589872 0
2.8980002 1.2877502 0.093091995 0
2.9030001 1.2859049 0.092469722 0
2.9070003 1.2835113 0.091971844 0
2.9110003 1.2811031 0.091473997 0
2.9150002 1.2786807 0.090976149 0
2.9200003 1.2767687 0.090353817 0
2.9240003 1.2743155 0.089855999 0
2.9280002 1.2718478 0.089358151 0
2.9330003 1.2698854 0.088735789 0
2.9370003 1.2673872 0.088237971 0
2.9410002 1.2648743 0.087740123 0
2.9460001 1.2628613 0.087117821 0
2.9500003 1.260318 0.086619943 0
2.9550002 1.2582705 0.085997671 0
2.9590001 1.2556965 0.085499793 0
2.9630003 1.2531081 0.085001916 0
2.9680002 1.2510103 0.084379643 0
2.9720001 1.2483912 0.083881795 0
2.9770002 1.2462591 0.083259463 0
2.9810002 1.2436092 0.082761616 0
2.9860003 1.2414429 0.082139283 0
2.9900002 1.2387625 0.081641436 0
2.9950001 1.2365618 0.081019133 0
2.9990003 1.2338506 0.080521286 0
3.0040002 1.2316157 0.079898953 0
3.0090003 1.2293628 0.079276651 0
3.0130002 1.2266048 0.078778803 0
3.0180001 1.2243174 0.078156501 0
3.0220003 1.2215289 0.077658623 0
3.0270002 1.2192073 0.077036351 0
3.0320003 1.2168678 0.076413989 0
3.0370002 1.2145101 0.075791717 0
3.0410001 1.2116584 0.075293839 0
3.0460002 1.2092665 0.074671537 0
3.0510001 1.2068566 0.074049234 0
3.0550003 1.203958 0.073551357 0
3.0600002 1.2015138 0.072929054 0
3.0650003 1.1990516 0.072306722 0
3.0700002 1.1965714 0.07168442 0
3.0750003 1.1940731 0.071062118 0
3.0800002 1.1915567 0.070439816 0
3.0840001 1.1885624 0.069941968 0
3.0890002 1.1860119 0.069319606 0
3.0940003 1.1834432 0.068697304 0
3.0990002 1.1808565 0.068075001 0
2.8090003 1.335829 0.099823833 0
2.8130002 1.3337708 0.099318773 0
2.8170002 1.3316982 0.098813713 0
2.8210001 1.3296112 0.098308653 0
2.8250003 1.3275099 0.097803563 0
2.8290002 1.3253939 0.097298503 0
2.8330002 1.3232635 0.096793413 0
2.8370001 1.3211188 0.096288383 0
2.8410003 1.3189598 0.095783293 0
2.8450003 1.3167862 0.095278233 0
2.8490002 1.3145982 0.094773173 0
2.8530002 1.3123957 0.094268113 0
2.8570001 1.3101786 0.093763053 0
2.8610003 1.3079475 0.093257964 0
2.8650002 1.3057017 0.092752874 0
2.8690002 1.3034416 0.092247844 0
2.8730001 1.3011669 0.091742784 0
2.8770003 1.2988781 0.091237694 0
2.8820002 1.2971156 0.090606391 0
2.8860002 1.2947959 0.090101302 0
2.8900001 1.2924618 0.089596242 0
2.8940003 1.2901133 0.089091152 0
2.8980002 1.2877502 0.088586092 0
2.9030001 1.2859049 0.087954789 0
2.9070003 1.2835113 0.0874497 0
2.9110003 1.2811031 0.08694464 0
2.9150002 1.2786807 0.08643958 0
2.9200003 1.2767687 0.085808247 0
2.9240003 1.2743155 0.085303187 0
2.9280002 1.2718478 0.084798098 0
2.9330003 1.2698854 0.084166765 0
2.9370003 1.2673872 0.083661705 0
2.9410002 1.2648743 0.083156645 0
2.9460001 1.2628613 0.082525313 0
2.9500003 1.260318 0.082020223 0
2.9550002 1.2582705 0.081388921 0
2.9590001 1.2556965 0.080883861 0
2.9630003 1.2531081 0.080378771 0
2.9680002 1.2510103 0.079747438 0
2.9720001 1.2483912 0.079242378 0
2.9770002 1.2462591 0.078611046 0
2.9810002 1.2436092 0.078105986 0
2.9860003 1.2414429 0.077474624 0
2.9900002 1.2387625 0.076969564 0
2.9950001 1.2365618 0.076338261 0
2.9990003 1.2338506 0.075833172 0
3.0040002 1.2316157 0.075201869 0
3.0090003 1.2293628 0.074570507 0
3.0130002 1.2266048 0.074065447 0
3.0180001 1.2243174 0.073434114 0
3.0220003 1.2215289 0.072929054 0
3.0270002 1.2192073 0.072297722 0
3.0320003 1.2168678 0.07166636 0
3.0370002 1.2145101 0.071035057 0
3.0410001 1.2116584 0.070529997 0
3.0460002 1.2092665 0.069898635 0
3.0510001 1.2068566 0.069267333 0
3.0550003 1.203958 0.068762243 0
3.0600002 1.2015138 0.06813091 0
3.0650003 1.1990516 0.067499578 0
3.0700002 1.1965714 0.066868246 0
3.0750003 1.1940731 0.066236913 0
3.0800002 1.1915567 0.065605581 0
3.0840001 1.1885624 0.065100521 0
3.0890002 1.1860119 0.064469188 0
3.0940003 1.1834432 0.063837856 0
3.0990002 1.1808565 0.063206524 0
2.8090003 1.335829 0.095478445 0
2.8130002 1.3337708 0.094966173 0
2.8170002 1.3316982 0.094453901 0
2.8210001 1.3296112 0.093941629 0
2.8250003 1.3275099 0.093429327 0
2.8290002 1.3253939 0.092917025 0
2.8330002 1.3232635 0.092404753 0
2.8370001 1.3211188 0.091892481 0
2.8410003 1.3189598 0.091380179 0
2.8450003 1.3167862 0.090867907 0
2.8490002 1.3145982 0.090355635 0
2.8530002 1.3123957 0.089843363 0
2.8570001 1.3101786 0.08933109 0
2.8610003 1.3079475 0.088818789 0
2.8650002 1.3057017 0.088306516 0
2.8690002 1.3034416 0.087794244 0
2.8730001 1.3011669 0.087281942 0
2.8770003 1.2988781 0.08676964 0
2.8820002 1.2971156 0.086129308 0
2.8860002 1.2947959 0.085617036 0
2.8900001 1.2924618 0.085104793 0
2.8940003 1.2901133 0.084592462 0
2.8980002 1.2877502 0.084080189 0
2.9030001 1.2859049 0.083439857 0
2.9070003 1.2835113 0.082927555 0
2.9110003 1.2811031 0.082415283 0
2.9150002 1.2786807 0.081903011 0
2.9200003 1.2767687 0.081262648 0
2.9240003 1.2743155 0.080750346 0
2.9280002 1.2718478 0.080238074 0
2.9330003 1.2698854 0.079597712 0
2.9370003 1.2673872 0.079085439 0
2.9410002 1.2648743 0.078573167 0
2.9460001 1.2628613 0.077932805 0
2.9500003 1.260318 0.077420503 0
2.9550002 1.2582705 0.0767802 0
2.9590001 1.2556965 0.076267928 0
2.9630003 1.2531081 0.075755626 0
2.9680002 1.2510103 0.075115263 0
2.9720001 1.2483912 0.074602991 0
2.9770002 1.2462591 0.073962629 0
2.9810002 1.2436092 0.073450357 0
2.9860003 1.2414429 0.072809994 0
2.9900002 1.2387625 0.072297722 0
2.9950001 1.2365618 0.071657389 0
2.9990003 1.2338506 0.071145058 0
3.0040002 1.2316157 0.070504755 0
3.0090003 1.2293628 0.069864362 0
3.0130002 1.2266048 0.06935209 0
3.0180001 1.2243174 0.068711758 0
3.0220003 1.2215289 0.068199456 0
3.0270002 1.2192073 0.067559093 0
3.0320003 1.2168678 0.066918761 0
3.0370002 1.2145101 0.066278428 0
3.0410001 1.2116584 0.065766156 0
3.0460002 1.2092665 0.065125763 0
3.0510001 1.2068566 0.064485431 0
3.0550003 1.203958 0.063973129 0
3.0600002 1.2015138 0.063332796 0
3.0650003 1.1990516 0.062692434 0
3.0700002 1.1965714 0.062052101 0
3.0750003 1.1940731 0.061411709 0
3.0800002 1.1915567 0.060771406 0
3.0840001 1.1885624 0.060259134 0
3.0890002 1.1860119 0.059618741 0
3.0940003 1.1834432 0.058978379 0
3.0990002 1.1808565 0.058338046 0
2.8090003 1.335829 0.091133088 0
2.8130002 1.3337708 0.090613574 0
2.8170002 1.3316982 0.09009409 0
2.8210001 1.3296112 0.089574605 0
2.8250003 1.3275099 0.089055091 0
2.8290002 1.3253939 0.088535577 0
2.8330002 1.3232635 0.088016093 0
2.8370001 1.3211188 0.087496608 0
2.8410003 1.3189598 0.086977094 0
2.8450003 1.3167862 0.08645761 0
2.8490002 1.3145982 0.085938126 0
2.8530002 1.3123957 0.085418642 0
2.8570001 1.3101786 0.084899127 0
2.8610003 1.3079475 0.084379613 0
2.8650002 1.3057017 0.083860129 0
2.8690002 1.3034416 0.083340645 0
2.8730001 1.3011669 0.082821161 0
2.8770003 1.2988781 0.082301617 0
2.8820002 1.2971156 0.081652254 0
2.8860002 1.2947959 0.08113277 0
