# .PCD v0.7 - Point Cloud Data file format
VERSION 0.7
FIELDS x y z intensity
SIZE 4 4 4 4
TYPE F F F F
COUNT 1 1 1 1
WIDTH 1409
HEIGHT 1
VIEWPOINT 0 0 0 1 0 0 0
POINTS 1409
DATA ascii
2.5140002 -1.231921 0.66330105 0
2.5130002 -1.2351714 0.66317838 0
2.5130002 -1.2389828 0.66317838 0
2.5130002 -1.2427944 0.66317838 0
2.5130002 -1.2466058 0.66317838 0
2.5130002 -1.2504172 0.66317838 0
2.5130002 -1.2542287 0.66317838 0
2.5130002 -1.2580401 0.66317838 0
2.5140002 -1.262427 0.66330105 0
2.5950003 -0.83391249 0.66927707 0
2.5940001 -0.837511 0.66915619 0
2.5930002 -0.84110606 0.66903532 0
2.5920002 -0.84469742 0.66891456 0
2.5910003 -0.84828526 0.66879368 0
2.5900002 -0.85186934 0.6686728 0
2.5890002 -0.85544991 0.66855192 0
2.5880003 -0.85902691 0.66843104 0
2.5870001 -0.86260021 0.66831023 0
2.5860002 -0.86616993 0.66818941 0
2.5850003 -0.86973614 0.66806853 0
2.6260002 -0.99762064 0.67302358 0
2.6140001 -0.99648428 0.67157328 0
2.6060002 -0.99702901 0.67060649 0
2.6000001 -0.9984107 0.66988134 0
2.5950003 -1.0002055 0.66927707 0
2.5900002 -1.0019823 0.6686728 0
2.5870001 -1.0046176 0.66831023 0
2.5830002 -1.0068021 0.66782677 0
2.5800002 -1.009414 0.66746426 0
2.5770001 -1.012015 0.66710168 0
2.5750003 -1.0150509 0.66685998 0
2.5730002 -1.0180795 0.66661823 0
2.5710001 -1.0211008 0.66637653 0
2.5690002 -1.0241151 0.66613483 0
2.5680003 -1.0275747 0.66601396 0
2.5660002 -1.0305762 0.66577232 0
2.5650003 -1.034027 0.66565144 0
2.5650003 -1.0379322 0.66565144 0
2.5640001 -1.0413774 0.66553056 0
2.5640001 -1.0452808 0.66553056 0
2.5640001 -1.0491843 0.66553056 0
2.5640001 -1.0530877 0.66553056 0
2.5650003 -1.0574584 0.66565144 0
2.5670002 -1.0623016 0.66589314 0
2.5690002 -1.067152 0.66613483 0
2.5710001 -1.0720097 0.66637653 0
2.5750003 -1.0778234 0.66685998 0
2.5840001 -1.0860325 0.66794765 0
2.7920003 -1.1893981 0.69308555 0
2.7890003 -1.1922733 0.69272304 0
2.7860003 -1.1951376 0.6923604 0
2.7840002 -1.1984746 0.69211864 0
2.7820003 -1.2018046 0.69187701 0
2.7800002 -1.2051272 0.69163525 0
2.7780001 -1.2084424 0.69139355 0
2.7760003 -1.2117507 0.69115186 0
2.5880003 -1.1234579 0.66843104 0
2.5800002 -1.1234508 0.66746426 0
2.5730002 -1.1239107 0.66661823 0
2.5680003 -1.1253412 0.66601396 0
2.5640001 -1.1272532 0.66553056 0
2.5600002 -1.1291507 0.66504717 0
2.5570002 -1.1315372 0.66468453 0
2.5530002 -1.1334077 0.66420114 0
2.5510001 -1.1362777 0.66395944 0
2.5480001 -1.1386316 0.66359687 0
2.5460002 -1.1414852 0.66335517 0
2.5440001 -1.1443316 0.66311347 0
2.5420003 -1.1471708 0.66287172 0
2.5410001 -1.1505187 0.6627509 0
2.5400002 -1.153863 0.66263002 0
2.5380001 -1.156684 0.66238832 0
2.5380001 -1.1605406 0.66238832 0
2.5370002 -1.1638741 0.66226745 0
2.5370002 -1.1677288 0.66226745 0
2.5370002 -1.1715835 0.66226745 0
2.5360003 -1.1749097 0.66214663 0
2.5290003 -1.1750505 0.66130066 0
2.5270002 -1.1778265 0.6610589 0
2.5260003 -1.1811293 0.66093808 0
2.5250001 -1.1844285 0.66081721 0
2.5240002 -1.187724 0.66069633 0
2.5230002 -1.191016 0.66057551 0
2.5210001 -1.1937631 0.66033375 0
2.5200002 -1.1970462 0.66021293 0
2.5190003 -1.2003255 0.66009212 0
2.5180001 -1.2036011 0.65997124 0
2.5170002 -1.2068733 0.65985036 0
2.5170002 -1.2106919 0.65985036 0
2.5160003 -1.2139586 0.65972954 0
2.5150001 -1.2172216 0.65960866 0
2.5140002 -1.2204812 0.65948778 0
2.5140002 -1.2242944 0.65948778 0
2.5130002 -1.2275485 0.65936697 0
2.5130002 -1.2313601 0.65936697 0
2.5120001 -1.2346085 0.65924609 0
2.5120001 -1.2384181 0.65924609 0
2.5110002 -1.2416614 0.65912521 0
2.5110002 -1.2454693 0.65912521 0
2.5110002 -1.2492772 0.65912521 0
2.5110002 -1.253085 0.65912521 0
2.5110002 -1.2568929 0.65912521 0
2.5110002 -1.2607006 0.65912521 0
2.5950003 -0.83391249 0.66531771 0
2.5940001 -0.837511 0.66519868 0
2.5930002 -0.84110606 0.66507959 0
2.5920002 -0.84469742 0.66496056 0
2.5910003 -0.84828526 0.66484153 0
2.5900002 -0.85186934 0.66472244 0
2.5890002 -0.85544991 0.66460341 0
2.5880003 -0.85902691 0.66448438 0
2.5870001 -0.86260021 0.66436529 0
2.5860002 -0.86616993 0.6642462 0
2.5850003 -0.86973614 0.66412723 0
2.6260002 -0.99762064 0.66900826 0
2.6140001 -0.99648428 0.66757965 0
2.6060002 -0.99702901 0.66662729 0
2.6000001 -0.9984107 0.66591299 0
2.5950003 -1.0002055 0.66531771 0
2.5900002 -1.0019823 0.66472244 0
2.5870001 -1.0046176 0.66436529 0
2.5830002 -1.0068021 0.66388905 0
2.5800002 -1.009414 0.6635319 0
2.5770001 -1.012015 0.66317475 0
2.5750003 -1.0150509 0.66293669 0
2.5730002 -1.0180795 0.66269857 0
2.5710001 -1.0211008 0.66246045 0
2.5690002 -1.0241151 0.66222239 0
2.5680003 -1.0275747 0.6621033 0
2.5660002 -1.0305762 0.66186523 0
2.5650003 -1.034027 0.66174614 0
2.5650003 -1.0379322 0.66174614 0
2.5640001 -1.0413774 0.66162711 0
2.5640001 -1.0452808 0.66162711 0
2.5640001 -1.0491843 0.66162711 0
2.5640001 -1.0530877 0.66162711 0
2.5650003 -1.0574584 0.66174614 0
2.5670002 -1.0623016 0.66198426 0
2.5690002 -1.067152 0.66222239 0
2.5710001 -1.0720097 0.66246045 0
2.5750003 -1.0778234 0.66293669 0
2.5840001 -1.0860325 0.66400814 0
2.7930002 -1.189876 0.68888986 0
2.7900002 -1.1927531 0.68853271 0
2.7870002 -1.1956193 0.68817556 0
2.7850003 -1.1989582 0.6879375 0
2.7820003 -1.2018046 0.68758035 0
2.7800002 -1.2051272 0.68734217 0
2.7780001 -1.2084424 0.68710411 0
2.7760003 -1.2117507 0.68686604 0
2.5840001 -1.1254277 0.66400814 0
2.5770001 -1.1258948 0.66317475 0
2.5710001 -1.1268346 0.66246045 0
2.5660002 -1.1282525 0.66186523 0
2.5620003 -1.1301538 0.66138899 0
2.5590003 -1.1325437 0.66103184 0
2.5560002 -1.134923 0.66067469 0
2.5530002 -1.1372914 0.66031754 0
2.5500002 -1.1396489 0.65996039 0
2.5480001 -1.1425061 0.65972233 0
2.5460002 -1.1453562 0.65948421 0
2.5440001 -1.148199 0.65924609 0
2.5430002 -1.1515504 0.659127 0
2.5420003 -1.1548983 0.65900803 0
2.5410001 -1.1582426 0.65888894 0
2.5400002 -1.1615832 0.65876985 0
2.5390003 -1.1649203 0.65865088 0
2.5390003 -1.1687787 0.65865088 0
2.5390003 -1.1726371 0.65865088 0
2.5310001 -1.1722671 0.65769839 0
2.5300002 -1.1755807 0.65757936 0
2.5280001 -1.1783587 0.65734124 0
2.5270002 -1.1816633 0.65722221 0
2.5260003 -1.1849643 0.65710318 0
2.5240002 -1.187724 0.65686506 0
2.5230002 -1.191016 0.65674603 0
2.5220003 -1.1943043 0.65662694 0
2.5210001 -1.197589 0.65650791 0
2.5200002 -1.2008703 0.65638888 0
2.5190003 -1.2041478 0.65626979 0
2.5170002 -1.2068733 0.65603173 0
2.5160003 -1.2101418 0.65591264 0
2.5160003 -1.2139586 0.65591264 0
2.5150001 -1.2172216 0.65579355 0
2.5140002 -1.2204812 0.65567458 0
2.5130002 -1.2237371 0.65555549 0
2.5130002 -1.2275485 0.65555549 0
2.5120001 -1.2307988 0.6554364 0
2.5110002 -1.2340459 0.65531743 0
2.5110002 -1.2378536 0.65531743 0
2.5100002 -1.2410951 0.65519834 0
2.5100002 -1.2449012 0.65519834 0
2.5090003 -1.2481372 0.65507931 0
2.5090003 -1.2519414 0.65507931 0
2.5090003 -1.2557456 0.65507931 0
2.5090003 -1.25955 0.65507931 0
2.5950003 -0.83391249 0.66135836 0
2.5940001 -0.837511 0.66124105 0
2.5930002 -0.84110606 0.66112387 0
2.5920002 -0.84469742 0.66100663 0
2.5910003 -0.84828526 0.66088939 0
2.5900002 -0.85186934 0.66077209 0
2.5890002 -0.85544991 0.6606549 0
2.5880003 -0.85902691 0.6605376 0
2.5870001 -0.86260021 0.66042036 0
2.5860002 -0.86616993 0.66030312 0
2.5850003 -0.86973614 0.66018587 0
2.6260002 -0.99762064 0.66499305 0
2.6140001 -0.99648428 0.66358602 0
2.6060002 -0.99702901 0.66264808 0
2.6000001 -0.9984107 0.66194457 0
2.5950003 -1.0002055 0.66135836 0
2.5900002 -1.0019823 0.66077209 0
2.5870001 -1.0046176 0.66042036 0
2.5830002 -1.0068021 0.65995139 0
2.5800002 -1.009414 0.65959966 0
2.5770001 -1.012015 0.65924788 0
2.5750003 -1.0150509 0.65901339 0
2.5730002 -1.0180795 0.65877891 0
2.5710001 -1.0211008 0.65854442 0
2.5690002 -1.0241151 0.65830994 0
2.5680003 -1.0275747 0.65819269 0
2.5660002 -1.0305762 0.65795815 0
2.5650003 -1.034027 0.65784097 0
2.5650003 -1.0379322 0.65784097 0
2.5640001 -1.0413774 0.65772367 0
2.5640001 -1.0452808 0.65772367 0
2.5640001 -1.0491843 0.65772367 0
2.5640001 -1.0530877 0.65772367 0
2.5650003 -1.0574584 0.65784097 0
2.5670002 -1.0623016 0.65807545 0
2.5690002 -1.067152 0.65830994 0
2.5710001 -1.0720097 0.65854442 0
2.5750003 -1.0778234 0.65901339 0
2.5840001 -1.0860325 0.66006863 0
2.7950003 -1.190832 0.6848079 0
2.7910001 -1.1932328 0.68433887 0
2.7880001 -1.1961008 0.68398714 0
2.7860003 -1.1994417 0.68375266 0
2.7830002 -1.2022898 0.68340087 0
2.7810001 -1.2056141 0.68316638 0
2.7790003 -1.2089314 0.6829319 0
2.7770002 -1.2122413 0.68269742 0
2.7750001 -1.2155441 0.68246293 0
2.5900002 -1.1283932 0.66077209 0
2.5810001 -1.127879 0.65971684 0
2.5750003 -1.1288261 0.65901339 0
2.5690002 -1.1297514 0.65830994 0
2.5650003 -1.1316581 0.65784097 0
2.5620003 -1.1340536 0.65748918 0
2.5580001 -1.135933 0.65702021 0
2.5550003 -1.1383052 0.65666842 0
2.5530002 -1.141175 0.65643394 0
2.5500002 -1.1435272 0.65608221 0
2.5490003 -1.146893 0.65596497 0
2.5470002 -1.1497412 0.65573049 0
2.5450003 -1.1525824 0.655496 0
2.5440001 -1.1559336 0.6553787 0
2.5430002 -1.1592816 0.65526152 0
2.5420003 -1.1626259 0.65514421 0
2.5420003 -1.1664896 0.65514421 0
2.5420003 -1.1703534 0.65514421 0
2.5340002 -1.1700033 0.65420628 0
2.5320003 -1.1727958 0.65397179 0
2.5310001 -1.1761111 0.65385449 0
2.5290003 -1.1788908 0.65362 0
2.5280001 -1.1821971 0.65350276 0
2.5260003 -1.1849643 0.65326828 0
2.5250001 -1.1882615 0.65315104 0
2.5240002 -1.1915554 0.65303373 0
2.5220003 -1.1943043 0.65279931 0
2.5210001 -1.197589 0.65268207 0
2.5200002 -1.2008703 0.65256476 0
2.5190003 -1.2041478 0.65244758 0
2.5180001 -1.2074215 0.65233028 0
2.5170002 -1.2106919 0.65221304 0
2.5160003 -1.2139586 0.65209579 0
2.5150001 -1.2172216 0.65197855 0
2.5140002 -1.2204812 0.65186131 0
2.5130002 -1.2237371 0.65174407 0
2.5120001 -1.2269893 0.65162683 0
2.5110002 -1.230238 0.65150952 0
2.5110002 -1.2340459 0.65150952 0
2.5100002 -1.2372891 0.65139234 0
2.5090003 -1.2405288 0.65127504 0
2.5090003 -1.244333 0.65127504 0
2.5090003 -1.2481372 0.65127504 0
2.5080001 -1.2513696 0.6511578 0
2.5080001 -1.255172 0.6511578 0
2.5070002 -1.2583991 0.65104055 0
2.5950003 -0.83391249 0.657399 0
2.5940001 -0.837511 0.65728354 0
2.5930002 -0.84110606 0.65716809 0
2.5920002 -0.84469742 0.65705264 0
2.5910003 -0.84828526 0.65693724 0
2.5900002 -0.85186934 0.65682173 0
2.5890002 -0.85544991 0.65670633 0
2.5880003 -0.85902691 0.65659094 0
2.5870001 -0.86260021 0.65647542 0
2.5860002 -0.86616993 0.65636003 0
2.5850003 -0.86973614 0.65624458 0
2.6260002 -0.99762064 0.66097772 0
2.6140001 -0.99648428 0.65959239 0
2.6060002 -0.99702901 0.65866888 0
2.6000001 -0.9984107 0.65797621 0
2.5950003 -1.0002055 0.657399 0
2.5900002 -1.0019823 0.65682173 0
2.5870001 -1.0046176 0.65647542 0
2.5830002 -1.0068021 0.65601367 0
2.5800002 -1.009414 0.6556673 0
2.5770001 -1.012015 0.655321 0
2.5750003 -1.0150509 0.65509009 0
2.5730002 -1.0180795 0.65485924 0
2.5710001 -1.0211008 0.65462834 0
2.5690002 -1.0241151 0.65439749 0
2.5680003 -1.0275747 0.65428203 0
2.5660002 -1.0305762 0.65405113 0
2.5650003 -1.034027 0.65393567 0
2.5650003 -1.0379322 0.65393567 0
2.5640001 -1.0413774 0.65382022 0
2.5640001 -1.0452808 0.65382022 0
2.5640001 -1.0491843 0.65382022 0
2.5640001 -1.0530877 0.65382022 0
2.5650003 -1.0574584 0.65393567 0
2.5670002 -1.0623016 0.65416658 0
2.5690002 -1.067152 0.65439749 0
2.5710001 -1.0720097 0.65462834 0
2.5750003 -1.0778234 0.65509009 0
2.5840001 -1.0860325 0.65612912 0
2.7960002 -1.19131 0.68060315 0
2.7930002 -1.1941925 0.68025684 0
2.7900002 -1.1970642 0.67991054 0
2.7870002 -1.1999249 0.67956418 0
2.7840002 -1.202775 0.67921782 0
2.7820003 -1.2061013 0.67898703 0
2.7790003 -1.2089314 0.67864066 0
2.7770002 -1.2122413 0.67840976 0
2.7760003 -1.2160367 0.6782943 0
2.7740002 -1.2193339 0.67806339 0
2.5870001 -1.1308553 0.65647542 0
2.5790002 -1.1308175 0.65555191 0
2.5740001 -1.1322497 0.6549747 0
2.5690002 -1.1336639 0.65439749 0
2.5650003 -1.1355634 0.65393567 0
2.5610001 -1.1374483 0.65347391 0
2.5580001 -1.1398257 0.65312755 0
2.5560002 -1.142701 0.6528967 0
2.5530002 -1.1450585 0.65255034 0
2.5510001 -1.1479176 0.65231943 0
2.5500002 -1.1512835 0.65220404 0
2.5480001 -1.1541299 0.65197313 0
2.5470002 -1.1574868 0.65185767 0
2.5460002 -1.16084 0.65174222 0
2.5450003 -1.1641898 0.65162683 0
2.5450003 -1.168059 0.65162683 0
2.5400002 -1.1693035 0.65104961 0
2.5360003 -1.1710569 0.6505878 0
2.5340002 -1.1738527 0.65035689 0
2.5320003 -1.1766415 0.65012604 0
2.5310001 -1.179955 0.65001059 0
2.5290003 -1.1827312 0.64977974 0
2.5270002 -1.1855 0.64954883 0
2.5260003 -1.1887991 0.64943337 0
2.5250001 -1.1920946 0.64931792 0
2.5230002 -1.1948454 0.64908707 0
2.5220003 -1.198132 0.64897162 0
2.5210001 -1.2014148 0.64885616 0
2.5190003 -1.2041478 0.64862525 0
2.5180001 -1.2074215 0.6485098 0
2.5170002 -1.2106919 0.64839441 0
2.5160003 -1.2139586 0.64827895 0
2.5150001 -1.2172216 0.6481635 0
2.5140002 -1.2204812 0.64804804 0
2.5130002 -1.2237371 0.64793265 0
2.5120001 -1.2269893 0.64781713 0
2.5110002 -1.230238 0.64770174 0
2.5100002 -1.2334831 0.64758629 0
2.5100002 -1.2372891 0.64758629 0
2.5090003 -1.2405288 0.64747083 0
2.5080001 -1.2437648 0.64735538 0
2.5080001 -1.2475671 0.64735538 0
2.5070002 -1.2507977 0.64723992 0
2.5070002 -1.2545985 0.64723992 0
2.5060003 -1.2578237 0.64712453 0
2.5950003 -0.83391249 0.65343964 0
2.5940001 -0.837511 0.65332597 0
2.5930002 -0.84110606 0.65321237 0
2.5920002 -0.84469742 0.6530987 0
2.5910003 -0.84828526 0.6529851 0
2.5900002 -0.85186934 0.65287143 0
2.5890002 -0.85544991 0.65275782 0
2.5880003 -0.85902691 0.65264416 0
2.5870001 -0.86260021 0.65253055 0
2.5860002 -0.86616993 0.65241688 0
2.5850003 -0.86973614 0.65230322 0
2.6260002 -0.99762064 0.65696251 0
2.6140001 -0.99648428 0.65559876 0
2.6060002 -0.99702901 0.65468967 0
2.6000001 -0.9984107 0.65400779 0
2.5950003 -1.0002055 0.65343964 0
2.5900002 -1.0019823 0.65287143 0
2.5870001 -1.0046176 0.65253055 0
2.5830002 -1.0068021 0.65207595 0
2.5800002 -1.009414 0.65173507 0
2.5770001 -1.012015 0.65139413 0
2.5750003 -1.0150509 0.65116686 0
2.5730002 -1.0180795 0.65093958 0
2.5710001 -1.0211008 0.65071225 0
2.5690002 -1.0241151 0.65048498 0
2.5680003 -1.0275747 0.65037137 0
2.5660002 -1.0305762 0.6501441 0
2.5650003 -1.034027 0.65003049 0
2.5650003 -1.0379322 0.65003049 0
2.5640001 -1.0413774 0.64991677 0
2.5640001 -1.0452808 0.64991677 0
2.5640001 -1.0491843 0.64991677 0
2.5640001 -1.0530877 0.64991677 0
2.5650003 -1.0574584 0.65003049 0
2.5670002 -1.0623016 0.65025771 0
2.5690002 -1.067152 0.65048498 0
2.5710001 -1.0720097 0.65071225 0
2.5750003 -1.0778234 0.65116686 0
2.5840001 -1.0860325 0.65218961 0
2.7980001 -1.1922659 0.67650855 0
2.7940001 -1.1946722 0.676054 0
2.7910001 -1.1975458 0.67571306 0
2.7880001 -1.2004083 0.67537212 0
2.7850003 -1.2032603 0.67503124 0
2.7820003 -1.2061013 0.67469031 0
2.7800002 -1.2094202 0.67446303 0
2.7780001 -1.212732 0.6742357 0
2.7770002 -1.216529 0.6741221 0
2.7750001 -1.2198281 0.67389482 0
2.7740002 -1.2236162 0.67378116 0
2.5860002 -1.1343025 0.65241688 0
2.5790002 -1.1347481 0.6516214 0
2.5730002 -1.1356698 0.65093958 0
2.5690002 -1.1375765 0.65048498 0
2.5650003 -1.1394687 0.65003049 0
2.5620003 -1.1418532 0.64968956 0
2.5590003 -1.144227 0.64934862 0
2.5570002 -1.1471004 0.64912128 0
2.5550003 -1.1499668 0.64889407 0
2.5530002 -1.1528258 0.64866674 0
2.5520003 -1.1561935 0.64855313 0
2.5510001 -1.1595576 0.64843947 0
2.5500002 -1.162918 0.64832586 0
2.5490003 -1.1662749 0.64821219 0
2.5490003 -1.1701514 0.64821219 0
2.5390003 -1.1687787 0.64707577 0
2.5370002 -1.1715835 0.64684856 0
2.5350001 -1.1743811 0.64662123 0
2.5340002 -1.1777021 0.64650762 0
2.5320003 -1.1804872 0.64628035 0
2.5300002 -1.1832651 0.64605302 0
2.5290003 -1.1865715 0.64593941 0
2.5270002 -1.1893365 0.64571214 0
2.5250001 -1.1920946 0.64548481 0
2.5240002 -1.1953865 0.6453712 0
2.5230002 -1.198675 0.64525759 0
2.5210001 -1.2014148 0.64503026 0
2.5200002 -1.2046943 0.64491665 0
2.5190003 -1.20797 0.64480299 0
2.5170002 -1.2106919 0.64457572 0
2.5160003 -1.2139586 0.64446211 0
2.5150001 -1.2172216 0.64434844 0
2.5140002 -1.2204812 0.64423478 0
2.5130002 -1.2237371 0.64412117 0
2.5120001 -1.2269893 0.6440075 0
2.5110002 -1.230238 0.6438939 0
2.5100002 -1.2334831 0.64378023 0
2.5090003 -1.2367245 0.64366663 0
2.5090003 -1.2405288 0.64366663 0
2.5080001 -1.2437648 0.64355296 0
2.5070002 -1.2469971 0.64343935 0
2.5060003 -1.250226 0.64332569 0
2.5060003 -1.2540249 0.64332569 0
2.5050001 -1.2572482 0.64321202 0
2.5950003 -0.83391249 0.64948028 0
2.5940001 -0.837511 0.64936841 0
2.5930002 -0.84110606 0.64925659 0
2.5920002 -0.84469742 0.64914477 0
2.5910003 -0.84828526 0.64903295 0
2.5900002 -0.85186934 0.64892107 0
2.5890002 -0.85544991 0.64880925 0
2.5880003 -0.85902691 0.64869744 0
2.5870001 -0.86260021 0.64858556 0
2.5860002 -0.86616993 0.64847374 0
2.5850003 -0.86973614 0.64836192 0
2.6260002 -0.99762064 0.65294719 0
2.6140001 -0.99648428 0.65160513 0
2.6060002 -0.99702901 0.65071046 0
2.6000001 -0.9984107 0.65003943 0
2.5950003 -1.0002055 0.64948028 0
2.5900002 -1.0019823 0.64892107 0
2.5870001 -1.0046176 0.64858556 0
2.5830002 -1.0068021 0.64813823 0
2.5800002 -1.009414 0.64780271 0
2.5770001 -1.012015 0.6474672 0
2.5750003 -1.0150509 0.64724356 0
2.5730002 -1.0180795 0.64701986 0
2.5710001 -1.0211008 0.64679623 0
2.5690002 -1.0241151 0.64657253 0
2.5680003 -1.0275747 0.64646071 0
2.5660002 -1.0305762 0.64623702 0
2.5650003 -1.034027 0.6461252 0
2.5650003 -1.0379322 0.6461252 0
2.5640001 -1.0413774 0.64601338 0
2.5640001 -1.0452808 0.64601338 0
2.5640001 -1.0491843 0.64601338 0
2.5640001 -1.0530877 0.64601338 0
2.5650003 -1.0574584 0.6461252 0
2.5670002 -1.0623016 0.64634883 0
2.5690002 -1.067152 0.64657253 0
2.5710001 -1.0720097 0.64679623 0
2.5750003 -1.0778234 0.64724356 0
2.5840001 -1.0860325 0.6482501 0
2.8000002 -1.1932219 0.67240667 0
2.7960002 -1.195632 0.67195928 0
2.7920003 -1.1980275 0.67151201 0
2.7890003 -1.200892 0.67117649 0
2.7860003 -1.2037455 0.67084098 0
2.7840002 -1.2070752 0.67061728 0
2.7810001 -1.2099091 0.67028177 0
2.7800002 -1.2137133 0.67016995 0
2.7780001 -1.2170215 0.66994631 0
2.7770002 -1.2208167 0.66983449 0
2.7760003 -1.2246083 0.66972262 0
2.7750001 -1.2283963 0.66961074 0
2.5870001 -1.1387452 0.64858556 0
2.5800002 -1.1391799 0.64780271 0
2.5750003 -1.140596 0.64724356 0
2.5710001 -1.1424989 0.64679623 0
2.5670002 -1.1443875 0.64634883 0
2.5640001 -1.1467702 0.64601338 0
2.5610001 -1.1491423 0.6456778 0
2.5590003 -1.1520159 0.64545417 0
2.5580001 -1.1553961 0.64534235 0
2.5560002 -1.158257 0.64511871 0
2.5550003 -1.1616284 0.64500684 0
2.5540001 -1.164996 0.64489496 0
2.5540001 -1.1688814 0.64489496 0
2.5440001 -1.1675358 0.64377666 0
2.5420003 -1.1703534 0.64355296 0
2.5400002 -1.1731637 0.64332926 0
2.5380001 -1.1759667 0.64310563 0
2.5360003 -1.1787628 0.64288193 0
2.5340002 -1.1815515 0.64265823 0
2.5320003 -1.184333 0.6424346 0
2.5300002 -1.1871072 0.64221096 0
2.5290003 -1.1904118 0.64209914 0
2.5270002 -1.1931733 0.64187545 0
2.5250001 -1.1959277 0.64165175 0
2.5240002 -1.1992179 0.64153993 0
2.5220003 -1.2019597 0.64131624 0
2.5210001 -1.2052408 0.64120436 0
2.5200002 -1.2085184 0.64109254 0
2.5180001 -1.211242 0.6408689 0
2.5170002 -1.2145106 0.64075708 0
2.5160003 -1.2177756 0.64064527 0
2.5140002 -1.2204812 0.64042157 0
2.5130002 -1.2237371 0.64030969 0
2.5120001 -1.2269893 0.64019787 0
2.5110002 -1.230238 0.64008605 0
2.5100002 -1.2334831 0.63997424 0
2.5090003 -1.2367245 0.63986236 0
2.5080001 -1.2399622 0.63975054 0
2.5070002 -1.2431965 0.63963866 0
2.5070002 -1.2469971 0.63963866 0
2.5060003 -1.250226 0.63952684 0
2.5050001 -1.2534511 0.63941503 0
2.5040002 -1.2566727 0.63930321 0
2.5950003 -0.83391249 0.64552093 0
2.5940001 -0.837511 0.6454109 0
2.5930002 -0.84110606 0.64530087 0
2.5920002 -0.84469742 0.64519083 0
2.5910003 -0.84828526 0.6450808 0
2.5900002 -0.85186934 0.64497077 0
2.5890002 -0.85544991 0.64486074 0
2.5880003 -0.85902691 0.64475071 0
2.5870001 -0.86260021 0.64464062 0
2.5860002 -0.86616993 0.64453065 0
2.5850003 -0.86973614 0.64442062 0
2.6260002 -0.99762064 0.64893192 0
2.6140001 -0.99648428 0.6476115 0
2.6060002 -0.99702901 0.64673126 0
2.6000001 -0.9984107 0.64607108 0
2.5950003 -1.0002055 0.64552093 0
2.5900002 -1.0019823 0.64497077 0
2.5870001 -1.0046176 0.64464062 0
2.5830002 -1.0068021 0.64420056 0
2.5800002 -1.009414 0.64387047 0
2.5770001 -1.012015 0.64354032 0
2.5750003 -1.0150509 0.64332032 0
2.5730002 -1.0180795 0.6431002 0
2.5710001 -1.0211008 0.64288014 0
2.5690002 -1.0241151 0.64266008 0
2.5680003 -1.0275747 0.64255005 0
2.5660002 -1.0305762 0.64232999 0
2.5650003 -1.034027 0.64221996 0
2.5650003 -1.0379322 0.64221996 0
2.5640001 -1.0413774 0.64210987 0
2.5640001 -1.0452808 0.64210987 0
2.5640001 -1.0491843 0.64210987 0
2.5640001 -1.0530877 0.64210987 0
2.5650003 -1.0574584 0.64221996 0
2.5670002 -1.0623016 0.64243996 0
2.5690002 -1.067152 0.64266008 0
2.5710001 -1.0720097 0.64288014 0
2.5750003 -1.0778234 0.64332032 0
2.5840001 -1.0860325 0.64431053 0
2.8020003 -1.1941781 0.66829765 0
2.7980001 -1.1965915 0.66785747 0
2.7940001 -1.1989906 0.66741729 0
2.7910001 -1.2018586 0.6670872 0
2.7880001 -1.2047158 0.66675711 0
2.7850003 -1.2075624 0.66642708 0
2.7830002 -1.2108867 0.66620696 0
2.7810001 -1.214204 0.6659869 0
2.7800002 -1.2180064 0.66587687 0
2.7780001 -1.221311 0.66565681 0
2.7770002 -1.2251043 0.66554677 0
2.7770002 -1.2293919 0.66554677 0
2.7760003 -1.23318 0.66543674 0
2.7760003 -1.237466 0.66543674 0
2.5840001 -1.1451253 0.64431053 0
2.5770001 -1.1455293 0.64354032 0
2.5740001 -1.1479355 0.64321023 0
2.5700002 -1.1498224 0.64277011 0
2.5670002 -1.1522051 0.64243996 0
2.5650003 -1.1550896 0.64221996 0
2.5630002 -1.1579666 0.6419999 0
2.5620003 -1.1613524 0.64188981 0
2.5610001 -1.1647345 0.64177978 0
2.5600002 -1.168113 0.64166981 0
2.5490003 -1.1662749 0.64045942 0
2.5470002 -1.1691051 0.64023936 0
2.5440001 -1.1714031 0.63990927 0
2.5420003 -1.1742171 0.63968921 0
2.5400002 -1.1770238 0.63946915 0
2.5380001 -1.1798233 0.63924909 0
2.5360003 -1.1826156 0.63902903 0
2.5340002 -1.1854007 0.63880897 0
2.5320003 -1.1881787 0.63858891 0
2.5300002 -1.1909493 0.63836884 0
2.5280001 -1.1937127 0.63814873 0
2.5270002 -1.19701 0.63803875 0
2.5250001 -1.1997608 0.63781863 0
2.5230002 -1.2025045 0.63759857 0
2.5220003 -1.2057874 0.6374886 0
2.5200002 -1.2085184 0.63726848 0
2.5190003 -1.2117922 0.63715851 0
2.5180001 -1.2150625 0.63704842 0
2.5160003 -1.2177756 0.63682836 0
2.5150001 -1.2210367 0.63671833 0
2.5140002 -1.2242944 0.6366083 0
2.5130002 -1.2275485 0.63649827 0
2.5120001 -1.2307988 0.63638824 0
2.5100002 -1.2334831 0.63616818 0
2.5090003 -1.2367245 0.63605815 0
2.5080001 -1.2399622 0.63594806 0
2.5070002 -1.2431965 0.63583809 0
2.5060003 -1.2464272 0.63572806 0
2.5060003 -1.250226 0.63572806 0
2.5050001 -1.2534511 0.63561797 0
2.5040002 -1.2566727 0.635508 0
2.5950003 -0.83391249 0.64156157 0
2.5940001 -0.837511 0.64145333 0
2.5930002 -0.84110606 0.64134508 0
2.5920002 -0.84469742 0.6412369 0
2.5910003 -0.84828526 0.64112866 0
2.5900002 -0.85186934 0.64102042 0
2.5890002 -0.85544991 0.64091218 0
2.5880003 -0.85902691 0.64080399 0
2.5870001 -0.86260021 0.64069569 0
2.5860002 -0.86616993 0.64058751 0
2.5850003 -0.86973614 0.64047927 0
2.6260002 -0.99762064 0.64491665 0
2.6140001 -0.99648428 0.64361787 0
2.6060002 -0.99702901 0.64275205 0
2.6000001 -0.9984107 0.64210272 0
2.5950003 -1.0002055 0.64156157 0
2.5900002 -1.0019823 0.64102042 0
2.5870001 -1.0046176 0.64069569 0
2.5830002 -1.0068021 0.64026284 0
2.5800002 -1.009414 0.63993812 0
2.5770001 -1.012015 0.63961339 0
2.5750003 -1.0150509 0.63939703 0
2.5730002 -1.0180795 0.63918054 0
2.5710001 -1.0211008 0.63896406 0
2.5690002 -1.0241151 0.63874763 0
2.5680003 -1.0275747 0.63863939 0
2.5660002 -1.0305762 0.63842297 0
2.5650003 -1.034027 0.63831472 0
2.5650003 -1.0379322 0.63831472 0
2.5640001 -1.0413774 0.63820648 0
2.5640001 -1.0452808 0.63820648 0
2.5640001 -1.0491843 0.63820648 0
2.5640001 -1.0530877 0.63820648 0
2.5650003 -1.0574584 0.63831472 0
2.5670002 -1.0623016 0.63853115 0
2.5690002 -1.067152 0.63874763 0
2.5710001 -1.0720097 0.63896406 0
2.5750003 -1.0778234 0.63939703 0
2.5840001 -1.0860325 0.64037108 0
2.8040001 -1.195134 0.66418135 0
2.8000002 -1.1975511 0.66374838 0
2.7960002 -1.1999539 0.66331553 0
2.7930002 -1.2028255 0.66299081 0
2.7900002 -1.2056863 0.66266608 0
2.7870002 -1.2085364 0.66234142 0
2.7850003 -1.2118645 0.66212499 0
2.7830002 -1.2151852 0.66190851 0
2.7820003 -1.2189913 0.66180027 0
2.7800002 -1.2222995 0.66158378 0
2.7790003 -1.2260965 0.6614756 0
2.7790003 -1.2303878 0.6614756 0
2.7780001 -1.2341793 0.66136742 0
2.7780001 -1.2384686 0.66136742 0
2.7710001 -1.2392354 0.66060978 0
2.7690003 -1.2425021 0.66039336 0
2.5800002 -1.1549091 0.63993812 0
2.5760002 -1.1567996 0.63950521 0
2.5740001 -1.1597 0.63928878 0
2.5710001 -1.1620792 0.63896406 0
2.5700002 -1.1654794 0.63885587 0
2.5700002 -1.1693938 0.63885587 0
2.5550003 -1.1655157 0.63723242 0
2.5520003 -1.1678388 0.63690776 0
2.5500002 -1.1706743 0.63669127 0
2.5470002 -1.1729779 0.63636661 0
2.5450003 -1.1757973 0.63615012 0
2.5420003 -1.1780809 0.63582546 0
2.5400002 -1.180884 0.63560903 0
2.5380001 -1.1836799 0.63539255 0
2.5360003 -1.1864686 0.63517606 0
2.5340002 -1.1892501 0.63495964 0
2.5320003 -1.1920244 0.63474321 0
2.5300002 -1.1947914 0.63452673 0
2.5280001 -1.1975511 0.63431025 0
2.5260003 -1.2003038 0.63409382 0
2.5250001 -1.2035939 0.63398552 0
2.5230002 -1.206334 0.63376909 0
2.5220003 -1.2096151 0.63366091 0
2.5200002 -1.2123424 0.63344443 0
2.5190003 -1.2156146 0.63333619 0
2.5170002 -1.2183292 0.6331197 0
2.5160003 -1.2215923 0.63301152 0
2.5150001 -1.2248517 0.63290328 0
2.5130002 -1.2275485 0.63268685 0
2.5120001 -1.2307988 0.63257861 0
2.5110002 -1.2340459 0.63247037 0
2.5100002 -1.2372891 0.63236213 0
2.5090003 -1.2405288 0.63225389 0
2.5080001 -1.2437648 0.63214564 0
2.5070002 -1.2469971 0.63203746 0
2.5050001 -1.2496542 0.63182098 0
2.5050001 -1.2534511 0.63182098 0
2.5040002 -1.2566727 0.63171279 0
2.5950003 -0.83391249 0.63760221 0
2.5940001 -0.837511 0.63749576 0
2.5930002 -0.84110606 0.63738936 0
2.5920002 -0.84469742 0.63728291 0
2.5910003 -0.84828526 0.63717651 0
2.5900002 -0.85186934 0.63707006 0
2.5890002 -0.85544991 0.63696361 0
2.5880003 -0.85902691 0.63685727 0
2.5870001 -0.86260021 0.63675082 0
2.5860002 -0.86616993 0.63664436 0
2.5850003 -0.86973614 0.63653797 0
2.6260002 -0.99762064 0.64090133 0
2.6140001 -0.99648428 0.63962424 0
2.6060002 -0.99702901 0.63877285 0
2.6000001 -0.9984107 0.6381343 0
2.5950003 -1.0002055 0.63760221 0
2.5900002 -1.0019823 0.63707006 0
2.5870001 -1.0046176 0.63675082 0
2.5830002 -1.0068021 0.63632512 0
2.5800002 -1.009414 0.63600582 0
2.5770001 -1.012015 0.63568658 0
2.5750003 -1.0150509 0.63547373 0
2.5730002 -1.0180795 0.63526082 0
2.5710001 -1.0211008 0.63504803 0
2.5690002 -1.0241151 0.63483518 0
2.5680003 -1.0275747 0.63472873 0
2.5660002 -1.0305762 0.63451588 0
2.5650003 -1.034027 0.63440943 0
2.5650003 -1.0379322 0.63440943 0
2.5640001 -1.0413774 0.63430303 0
2.5640001 -1.0452808 0.63430303 0
2.5640001 -1.0491843 0.63430303 0
2.5640001 -1.0530877 0.63430303 0
2.5650003 -1.0574584 0.63440943 0
2.5670002 -1.0623016 0.63462234 0
2.5690002 -1.067152 0.63483518 0
2.5710001 -1.0720097 0.63504803 0
2.5750003 -1.0778234 0.63547373 0
2.5840001 -1.0860325 0.63643152 0
2.8070002 -1.1965681 0.66016424 0
2.8020003 -1.1985109 0.65963209 0
2.7990003 -1.2013987 0.65931284 0
2.7950003 -1.2037923 0.65888715 0
2.7920003 -1.2066568 0.65856791 0
2.7900002 -1.2099975 0.658355 0
2.7880001 -1.2133309 0.65814215 0
2.7860003 -1.2166572 0.6579293 0
2.7840002 -1.2199761 0.65771645 0
2.7830002 -1.2237822 0.65761006 0
2.7820003 -1.2275846 0.6575036 0
2.7810001 -1.2313833 0.65739715 0
2.7810001 -1.2356782 0.65739715 0
2.7790003 -1.2389703 0.65718436 0
2.7720003 -1.2397387 0.65643942 0
2.7700002 -1.2430072 0.65622652 0
2.7690003 -1.2467753 0.65612006 0
2.7670002 -1.2500311 0.65590727 0
2.7660003 -1.2537904 0.65580082 0
2.7640002 -1.2570336 0.65558791 0
2.7630002 -1.2607837 0.65548158 0
2.5630002 -1.1657698 0.63419664 0
2.5590003 -1.1675936 0.63377094 0
2.5560002 -1.1699241 0.63345164 0
2.5530002 -1.1722438 0.63313234 0
2.5500002 -1.1745526 0.6328131 0
2.5480001 -1.1773773 0.63260025 0
2.5450003 -1.1796664 0.63228095 0
2.5430002 -1.182475 0.6320681 0
2.5400002 -1.1847441 0.63174886 0
2.5380001 -1.1875365 0.63153601 0
2.5360003 -1.1903216 0.63132316 0
2.5340002 -1.1930994 0.63111031 0
2.5320003 -1.1958702 0.63089746 0
2.5300002 -1.1986336 0.63068461 0
2.5280001 -1.2013897 0.63047171 0
2.5260003 -1.2041388 0.63025892 0
2.5250001 -1.207427 0.63015246 0
2.5230002 -1.2101634 0.62993962 0
2.5210001 -1.2128925 0.62972677 0
2.5200002 -1.2161665 0.62962037 0
2.5180001 -1.218883 0.62940753 0
2.5170002 -1.2221478 0.62930107 0
2.5150001 -1.2248517 0.62908822 0
2.5140002 -1.2281077 0.62898183 0
2.5130002 -1.2313601 0.62887537 0
2.5110002 -1.2340459 0.62866253 0
2.5100002 -1.2372891 0.62855613 0
2.5090003 -1.2405288 0.62844968 0
2.5080001 -1.2437648 0.62834322 0
2.5070002 -1.2469971 0.62823683 0
2.5060003 -1.250226 0.62813044 0
2.5050001 -1.2534511 0.62802398 0
2.5040002 -1.2566727 0.62791753 0
2.5950003 -0.83391249 0.63364285 0
2.5940001 -0.837511 0.63353819 0
2.5930002 -0.84110606 0.63343358 0
2.5920002 -0.84469742 0.63332897 0
2.5910003 -0.84828526 0.63322437 0
2.5900002 -0.85186934 0.6331197 0
2.5890002 -0.85544991 0.6330151 0
2.5880003 -0.85902691 0.63291049 0
2.5870001 -0.86260021 0.63280588 0
2.5860002 -0.86616993 0.63270128 0
2.5850003 -0.86973614 0.63259661 0
2.6260002 -0.99762064 0.63688606 0
2.6140001 -0.99648428 0.63563061 0
2.6060002 -0.99702901 0.63479364 0
2.6000001 -0.9984107 0.63416594 0
2.5950003 -1.0002055 0.63364285 0
2.5900002 -1.0019823 0.6331197 0
2.5870001 -1.0046176 0.63280588 0
2.5830002 -1.0068021 0.6323874 0
2.5800002 -1.009414 0.63207352 0
2.5770001 -1.012015 0.63175964 0
2.5750003 -1.0150509 0.63155043 0
2.5730002 -1.0180795 0.63134116 0
2.5710001 -1.0211008 0.63113195 0
2.5690002 -1.0241151 0.63092268 0
2.5680003 -1.0275747 0.63081807 0
2.5660002 -1.0305762 0.63060886 0
2.5650003 -1.034027 0.63050425 0
2.5650003 -1.0379322 0.63050425 0
2.5640001 -1.0413774 0.63039958 0
2.5640001 -1.0452808 0.63039958 0
2.5640001 -1.0491843 0.63039958 0
2.5640001 -1.0530877 0.63039958 0
2.5650003 -1.0574584 0.63050425 0
2.5670002 -1.0623016 0.63071346 0
2.5690002 -1.067152 0.63092268 0
2.5710001 -1.0720097 0.63113195 0
2.5750003 -1.0778234 0.63155043 0
2.5840001 -1.0860325 0.63249201 0
2.8110001 -1.19848 0.65624094 0
2.8060002 -1.20043 0.65571785 0
2.8020003 -1.2028435 0.65529937 0
2.7990003 -1.2057261 0.65498555 0
2.7960002 -1.2085978 0.65467167 0
2.7930002 -1.2114586 0.65435779 0
2.7910001 -1.2147974 0.65414858 0
2.7890003 -1.218129 0.65393931 0
2.7870002 -1.2214534 0.65373003 0
2.7860003 -1.2252649 0.65362543 0
2.7850003 -1.2290728 0.65352082 0
2.7850003 -1.2333748 0.65352082 0
2.7850003 -1.237677 0.65352082 0
2.7760003 -1.237466 0.65257925 0
2.7740002 -1.2407452 0.65236998 0
2.7720003 -1.2440172 0.65216076 0
2.7700002 -1.2472821 0.65195149 0
2.7680001 -1.2505398 0.65174222 0
2.7670002 -1.2543008 0.65163767 0
2.7650001 -1.2575457 0.65142834 0
2.7640002 -1.2612978 0.65132374 0
2.5760002 -1.1685748 0.63165504 0
2.5690002 -1.1688761 0.63092268 0
2.5650003 -1.1707106 0.63050425 0
2.5610001 -1.1725305 0.63008571 0
2.5580001 -1.1748593 0.62977183 0
2.5550003 -1.1771772 0.62945801 0
2.5510001 -1.1789575 0.62903953 0
2.5480001 -1.1812519 0.62872565 0
2.5460002 -1.1840659 0.62851644 0
2.5430002 -1.1863406 0.62820256 0
2.5410001 -1.1891382 0.62799329 0
2.5390003 -1.1919287 0.62778407 0
2.5360003 -1.1941745 0.6274702 0
2.5340002 -1.1969488 0.62726098 0
2.5320003 -1.1997157 0.62705171 0
2.5300002 -1.2024755 0.6268425 0
2.5280001 -1.2052281 0.62663323 0
2.5260003 -1.2079736 0.62642401 0
2.5240002 -1.2107118 0.62621474 0
2.5230002 -1.2139928 0.62611014 0
2.5210001 -1.2167184 0.62590086 0
2.5200002 -1.2199905 0.62579626 0
2.5180001 -1.2227035 0.62558705 0
2.5160003 -1.2254093 0.62537777 0
2.5150001 -1.2286669 0.62527317 0
2.5140002 -1.231921 0.62516856 0
2.5120001 -1.2346085 0.62495929 0
2.5110002 -1.2378536 0.62485468 0
2.5100002 -1.2410951 0.62475008 0
2.5080001 -1.2437648 0.62454081 0
2.5070002 -1.2469971 0.6244362 0
2.5060003 -1.250226 0.62433159 0
2.5050001 -1.2534511 0.62422693 0
2.5040002 -1.2566727 0.62412232 0
2.5950003 -0.83391249 0.62968349 0
2.5940001 -0.837511 0.62958062 0
2.5930002 -0.84110606 0.62947786 0
2.5920002 -0.84469742 0.62937504 0
2.5910003 -0.84828526 0.62927222 0
2.5900002 -0.85186934 0.6291694 0
2.5890002 -0.85544991 0.62906659 0
2.5880003 -0.85902691 0.62896377 0
2.5870001 -0.86260021 0.62886095 0
2.5860002 -0.86616993 0.62875813 0
2.5850003 -0.86973614 0.62865531 0
2.6260002 -0.99762064 0.63287079 0
2.6140001 -0.99648428 0.63163698 0
2.6060002 -0.99702901 0.63081443 0
2.6000001 -0.9984107 0.63019753 0
2.5950003 -1.0002055 0.62968349 0
2.5900002 -1.0019823 0.6291694 0
2.5870001 -1.0046176 0.62886095 0
2.5830002 -1.0068021 0.62844968 0
2.5800002 -1.009414 0.62814122 0
2.5770001 -1.012015 0.62783277 0
2.5750003 -1.0150509 0.62762713 0
2.5730002 -1.0180795 0.6274215 0
2.5710001 -1.0211008 0.62721586 0
2.5690002 -1.0241151 0.62701023 0
2.5680003 -1.0275747 0.62690747 0
2.5660002 -1.0305762 0.62670177 0
2.5650003 -1.034027 0.62659895 0
2.5650003 -1.0379322 0.62659895 0
2.5640001 -1.0413774 0.62649614 0
2.5640001 -1.0452808 0.62649614 0
2.5640001 -1.0491843 0.62649614 0
2.5640001 -1.0530877 0.62649614 0
2.5650003 -1.0574584 0.62659895 0
2.5670002 -1.0623016 0.62680459 0
2.5690002 -1.067152 0.62701023 0
2.5710001 -1.0720097 0.62721586 0
2.5750003 -1.0778234 0.62762713 0
2.5840001 -1.0860325 0.6285525 0
2.8110001 -1.202829 0.65189195 0
2.8060002 -1.2047701 0.65137792 0
2.8030002 -1.2076597 0.6510694 0
2.7990003 -1.2100534 0.65065819 0
2.7970002 -1.2134066 0.65045249 0
2.7940001 -1.2162638 0.6501441 0
2.7920003 -1.2196009 0.64993846 0
2.7910001 -1.2234231 0.64983559 0
2.7900002 -1.2272419 0.64973283 0
2.7890003 -1.2310569 0.64963001 0
2.7890003 -1.2353663 0.64963001 0
2.7800002 -1.2351786 0.64870465 0
2.7770002 -1.2379673 0.64839619 0
2.7750001 -1.2412484 0.64819056 0
2.7740002 -1.2450274 0.64808774 0
2.7720003 -1.2482959 0.6478821 0
2.7700002 -1.2515572 0.64767647 0
2.7680001 -1.2548112 0.64747083 0
2.7660003 -1.2580581 0.6472652 0
2.7650001 -1.2618119 0.64716238 0
2.7630002 -1.2650461 0.64695674 0
2.5740001 -1.175386 0.62752432 0
2.5680003 -1.1761798 0.62690747 0
2.5630002 -1.1774747 0.62639332 0
2.5590003 -1.1792768 0.62598205 0
2.5560002 -1.1815912 0.62567365 0
2.5530002 -1.1838945 0.62536514 0
2.5500002 -1.1861871 0.62505674 0
2.5470002 -1.1884691 0.62474823 0
2.5440001 -1.19074 0.62443984 0
2.5420003 -1.1935359 0.6242342 0
2.5390003 -1.1957871 0.62392575 0
2.5370002 -1.1985667 0.62372011 0
2.5340002 -1.200798 0.62341166 0
2.5320003 -1.2035615 0.62320602 0
2.5300002 -1.2063177 0.62300038 0
2.5280001 -1.2090666 0.62279475 0
2.5260003 -1.2118086 0.62258911 0
2.5240002 -1.214543 0.62238348 0
2.5230002 -1.2178224 0.62228066 0
2.5210001 -1.2205443 0.62207502 0
2.5190003 -1.2232591 0.62186939 0
2.5180001 -1.226524 0.62176657 0
2.5160003 -1.2292261 0.62156093 0
2.5140002 -1.231921 0.6213553 0
2.5130002 -1.2351714 0.62125248 0
2.5120001 -1.2384181 0.62114966 0
2.5100002 -1.2410951 0.62094402 0
2.5090003 -1.244333 0.62084121 0
2.5080001 -1.2475671 0.62073839 0
2.5060003 -1.250226 0.62053275 0
2.5050001 -1.2534511 0.62042993 0
2.5040002 -1.2566727 0.62032712 0
2.5950003 -0.83391249 0.62572414 0
2.5940001 -0.837511 0.62562311 0
2.5930002 -0.84110606 0.62552208 0
2.5920002 -0.84469742 0.62542105 0
2.5910003 -0.84828526 0.62532008 0
2.5900002 -0.85186934 0.62521905 0
2.5890002 -0.85544991 0.62511802 0
2.5880003 -0.85902691 0.62501705 0
2.5870001 -0.86260021 0.62491602 0
2.5860002 -0.86616993 0.62481499 0
2.5850003 -0.86973614 0.62471402 0
2.6260002 -0.99762064 0.62885553 0
2.6140001 -0.99648428 0.62764335 0
2.6060002 -0.99702901 0.62683523 0
2.6000001 -0.9984107 0.62622917 0
2.5950003 -1.0002055 0.62572414 0
2.5900002 -1.0019823 0.62521905 0
2.5870001 -1.0046176 0.62491602 0
2.5830002 -1.0068021 0.62451196 0
2.5800002 -1.009414 0.62420893 0
2.5770001 -1.012015 0.6239059 0
2.5750003 -1.0150509 0.62370384 0
2.5730002 -1.0180795 0.62350184 0
2.5710001 -1.0211008 0.62329984 0
2.5690002 -1.0241151 0.62309778 0
2.5680003 -1.0275747 0.62299681 0
2.5660002 -1.0305762 0.62279475 0
2.5650003 -1.034027 0.62269372 0
2.5650003 -1.0379322 0.62269372 0
2.5640001 -1.0413774 0.62259269 0
2.5640001 -1.0452808 0.62259269 0
2.5640001 -1.0491843 0.62259269 0
2.5640001 -1.0530877 0.62259269 0
2.5650003 -1.0574584 0.62269372 0
2.5670002 -1.0623016 0.62289572 0
2.5690002 -1.067152 0.62309778 0
2.5710001 -1.0720097 0.62329984 0
2.5750003 -1.0778234 0.62370384 0
2.5840001 -1.0860325 0.62461299 0
2.8170002 -1.2057079 0.64814907 0
2.8120003 -1.2076597 0.64764398 0
2.8080003 -1.2100768 0.64723992 0
2.8040001 -1.2124795 0.64683592 0
2.8010001 -1.2153548 0.64653283 0
2.7990003 -1.218708 0.64633083 0
2.7970002 -1.2220541 0.64612877 0
2.7950003 -1.2253931 0.64592677 0
2.7950003 -1.2297131 0.64592677 0
2.7940001 -1.2335372 0.64582574 0
2.7840002 -1.2328769 0.64481562 0
2.7820003 -1.236178 0.64461362 0
2.7800002 -1.2394717 0.64441156 0
2.7780001 -1.2427583 0.6442095 0
2.7750001 -1.2455324 0.64390647 0
2.7730002 -1.2488028 0.64370447 0
2.7710001 -1.2520658 0.64350247 0
2.7700002 -1.2558322 0.64340144 0
2.7680001 -1.2590827 0.64319944 0
2.7660003 -1.262326 0.64299738 0
2.7640002 -1.2655619 0.64279532 0
2.7630002 -1.2693084 0.64269435 0
2.7610002 -1.2725319 0.64249229 0
2.5720003 -1.1821828 0.62340081 0
2.5660002 -1.1829512 0.62279475 0
2.5620003 -1.1847514 0.62239069 0
2.5580001 -1.186537 0.62198663 0
2.5540001 -1.1883084 0.62158257 0
2.5510001 -1.1905974 0.62127954 0
2.5480001 -1.1928756 0.62097651 0
2.5450003 -1.1951431 0.62067348 0
2.5420003 -1.1973997 0.62037045 0
2.5400002 -1.2001848 0.62016839 0
2.5370002 -1.2024214 0.61986536 0
2.5350001 -1.2051903 0.6196633 0
2.5320003 -1.2074072 0.61936033 0
2.5300002 -1.2101598 0.61915827 0
2.5280001 -1.2129052 0.61895621 0
2.5270002 -1.2161936 0.61885524 0
2.5250001 -1.2189263 0.61865318 0
2.5230002 -1.2216519 0.61845118 0
2.5210001 -1.2243701 0.61824912 0
2.5190003 -1.2270814 0.61804712 0
2.5180001 -1.2303444 0.61794609 0
2.5160003 -1.233043 0.61774409 0
2.5140002 -1.2357342 0.61754203 0
2.5130002 -1.2389828 0.61744106 0
2.5110002 -1.2416614 0.617239 0
2.5100002 -1.2449012 0.61713803 0
2.5090003 -1.2481372 0.617037 0
2.5070002 -1.2507977 0.61683494 0
2.5060003 -1.2540249 0.61673397 0
2.5050001 -1.2572482 0.61663294 0
2.5950003 -0.83391249 0.62176478 0
2.5940001 -0.837511 0.62166554 0
2.5930002 -0.84110606 0.62156636 0
2.5920002 -0.84469742 0.62146711 0
2.5910003 -0.84828526 0.62136793 0
2.5900002 -0.85186934 0.62126875 0
2.5890002 -0.85544991 0.62116951 0
2.5880003 -0.85902691 0.62107033 0
2.5870001 -0.86260021 0.62097108 0
2.5860002 -0.86616993 0.6208719 0
2.5850003 -0.86973614 0.62077266 0
2.6260002 -0.99762064 0.62484026 0
2.6140001 -0.99648428 0.62364972 0
2.6060002 -0.99702901 0.62285608 0
2.6000001 -0.9984107 0.62226081 0
2.5950003 -1.0002055 0.62176478 0
2.5900002 -1.0019823 0.62126875 0
2.5870001 -1.0046176 0.62097108 0
2.5830002 -1.0068021 0.62057424 0
2.5800002 -1.009414 0.62027663 0
2.5770001 -1.012015 0.61997896 0
2.5750003 -1.0150509 0.61978054 0
2.5730002 -1.0180795 0.61958218 0
2.5710001 -1.0211008 0.61938369 0
2.5690002 -1.0241151 0.61918533 0
2.5680003 -1.0275747 0.61908615 0
2.5660002 -1.0305762 0.61888766 0
2.5650003 -1.034027 0.61878848 0
2.5650003 -1.0379322 0.61878848 0
2.5640001 -1.0413774 0.6186893 0
2.5640001 -1.0452808 0.6186893 0
2.5640001 -1.0491843 0.6186893 0
2.5640001 -1.0530877 0.6186893 0
2.5650003 -1.0574584 0.61878848 0
2.5670002 -1.0623016 0.6189869 0
2.5690002 -1.067152 0.61918533 0
2.5710001 -1.0720097 0.61938369 0
2.5750003 -1.0778234 0.61978054 0
2.5840001 -1.0860325 0.62067342 0
2.8150003 -1.2134608 0.64359087 0
2.8110001 -1.2158761 0.64319396 0
2.8080003 -1.2187639 0.64289641 0
2.8050003 -1.2216411 0.64259875 0
2.8030002 -1.2249979 0.64240032 0
2.8020003 -1.22884 0.64230114 0
2.8010001 -1.2326785 0.6422019 0
2.7950003 -1.2340332 0.64160669 0
2.7880001 -1.2348683 0.64091218 0
2.7850003 -1.237677 0.64061457 0
2.7820003 -1.2404746 0.64031696 0
2.7800002 -1.2437648 0.64011854 0
2.7780001 -1.2470477 0.63992012 0
2.7750001 -1.2498164 0.63962245 0
2.7730002 -1.2530832 0.63942409 0
2.7710001 -1.2563428 0.6392256 0
2.7690003 -1.259595 0.63902724 0
2.7670002 -1.26284 0.63882881 0
2.7660003 -1.2665937 0.63872957 0
2.7640002 -1.2698262 0.63853115 0
2.7620003 -1.2730514 0.63833278 0
2.7610002 -1.2767907 0.63823354 0
2.7590003 -1.2800033 0.63803512 0
2.5700002 -1.1889651 0.61928451 0
2.5640001 -1.1897081 0.6186893 0
2.5600002 -1.1914904 0.61829245 0
2.5560002 -1.193258 0.6178956 0
2.5520003 -1.1950115 0.61749876 0
2.5490003 -1.197286 0.61720115 0
2.5460002 -1.1995498 0.61690348 0
2.5430002 -1.2018027 0.61660588 0
2.5400002 -1.2040449 0.61630821 0
2.5380001 -1.2068192 0.61610985 0
2.5350001 -1.2090415 0.61581218 0
2.5330002 -1.2117994 0.61561382 0
2.5310001 -1.2145503 0.61541533 0
2.5290003 -1.2172939 0.61521697 0
2.5270002 -1.2200302 0.61501855 0
2.5250001 -1.2227594 0.61482012 0
2.5230002 -1.2254814 0.6146217 0
2.5210001 -1.2281961 0.61442327 0
2.5190003 -1.2309036 0.61422485 0
2.5170002 -1.2336038 0.61402643 0
2.5160003 -1.2368598 0.61392725 0
2.5140002 -1.2395474 0.61372876 0
2.5120001 -1.2422278 0.6135304 0
2.5110002 -1.2454693 0.61343116 0
2.5090003 -1.2481372 0.61323273 0
2.5080001 -1.2513696 0.61313355 0
2.5070002 -1.2545985 0.61303437 0
2.5050001 -1.2572482 0.61283588 0
2.5950003 -0.83391249 0.61780542 0
2.5940001 -0.837511 0.61770797 0
2.5930002 -0.84110606 0.61761057 0
2.5920002 -0.84469742 0.61751318 0
2.5910003 -0.84828526 0.61741579 0
2.5900002 -0.85186934 0.61731839 0
2.5890002 -0.85544991 0.617221 0
2.5880003 -0.85902691 0.6171236 0
2.5870001 -0.86260021 0.61702615 0
2.5860002 -0.86616993 0.61692876 0
2.5850003 -0.86973614 0.61683136 0
2.6260002 -0.99762064 0.62082499 0
2.6140001 -0.99648428 0.61965609 0
2.6060002 -0.99702901 0.61887687 0
2.6000001 -0.9984107 0.61829245 0
2.5950003 -1.0002055 0.61780542 0
2.5900002 -1.0019823 0.61731839 0
2.5870001 -1.0046176 0.61702615 0
2.5830002 -1.0068021 0.61663651 0
2.5800002 -1.009414 0.61634433 0
2.5770001 -1.012015 0.61605209 0
2.5750003 -1.0150509 0.6158573 0
2.5730002 -1.0180795 0.61566246 0
2.5710001 -1.0211008 0.61546767 0
2.5690002 -1.0241151 0.61527288 0
2.5680003 -1.0275747 0.61517549 0
2.5660002 -1.0305762 0.61498064 0
2.5650003 -1.034027 0.61488324 0
2.5650003 -1.0379322 0.61488324 0
2.5640001 -1.0413774 0.61478579 0
2.5640001 -1.0452808 0.61478579 0
2.5640001 -1.0491843 0.61478579 0
2.5640001 -1.0530877 0.61478579 0
2.5650003 -1.0574584 0.61488324 0
2.5670002 -1.0623016 0.61507803 0
2.5690002 -1.067152 0.61527288 0
2.5710001 -1.0720097 0.61546767 0
2.5750003 -1.0778234 0.6158573 0
2.5840001 -1.0860325 0.61673391 0
2.8180003 -1.2236342 0.63952684 0
2.8160002 -1.2270181 0.63933206 0
2.8130002 -1.2299043 0.63903981 0
2.8120003 -1.2337645 0.63894248 0
2.8060002 -1.2351497 0.638358 0
2.7940001 -1.2335372 0.63718915 0
2.7910001 -1.2363619 0.63689691 0
2.7880001 -1.2391758 0.63660467 0
2.7860003 -1.2424805 0.63640988 0
2.7830002 -1.2452745 0.6361177 0
2.7800002 -1.2480578 0.63582546 0
2.7780001 -1.2513371 0.63563061 0
2.7760003 -1.2546092 0.63543582 0
2.7730002 -1.2573637 0.63514364 0
2.7710001 -1.2606195 0.63494879 0
2.7690003 -1.2638682 0.634754 0
2.7670002 -1.2671096 0.63455915 0
2.7650001 -1.2703438 0.63436437 0
2.7640002 -1.2740904 0.63426697 0
2.7620003 -1.277312 0.63407218 0
2.7600002 -1.2805264 0.63387734 0
2.7580001 -1.2837335 0.63368249 0
2.7570002 -1.2874602 0.6335851 0
2.5680003 -1.1957331 0.61517549 0
2.5620003 -1.1964508 0.614591 0
2.5580001 -1.1982149 0.61420137 0
2.5540001 -1.1999646 0.61381173 0
2.5500002 -1.2016999 0.61342216 0
2.5470002 -1.2039601 0.61312991 0
2.5440001 -1.2062094 0.61283767 0
2.5410001 -1.2084481 0.61254549 0
2.5380001 -1.2106757 0.61225331 0
2.5360003 -1.2134392 0.61205846 0
2.5340002 -1.2161953 0.61186361 0
2.5310001 -1.2183942 0.61157143 0
2.5290003 -1.2211342 0.61137664 0
2.5270002 -1.2238669 0.6111818 0
2.5250001 -1.2265924 0.61098701 0
2.5230002 -1.2293108 0.61079222 0
2.5210001 -1.2320219 0.61059737 0
2.5190003 -1.2347258 0.61040258 0
2.5170002 -1.2374226 0.6102078 0
2.5160003 -1.2406766 0.61011034 0
2.5140002 -1.2433606 0.60991555 0
2.5120001 -1.2460375 0.60972071 0
2.5110002 -1.2492772 0.60962331 0
2.5090003 -1.2519414 0.60942852 0
2.5080001 -1.255172 0.60933113 0
2.5060003 -1.2578237 0.60913628 0
2.5950003 -0.83391249 0.61384606 0
2.5940001 -0.837511 0.61375046 0
2.5930002 -0.84110606 0.61365485 0
2.5920002 -0.84469742 0.61355925 0
2.5910003 -0.84828526 0.61346364 0
2.5900002 -0.85186934 0.61336803 0
2.5890002 -0.85544991 0.61327243 0
2.5880003 -0.85902691 0.61317682 0
2.5870001 -0.86260021 0.61308122 0
2.5860002 -0.86616993 0.61298561 0
2.5850003 -0.86973614 0.61289001 0
2.6260002 -0.99762064 0.61680973 0
2.6140001 -0.99648428 0.61566246 0
2.6060002 -0.99702901 0.61489767 0
2.6000001 -0.9984107 0.61432403 0
2.5950003 -1.0002055 0.61384606 0
2.5900002 -1.0019823 0.61336803 0
2.5870001 -1.0046176 0.61308122 0
2.5830002 -1.0068021 0.61269879 0
2.5800002 -1.009414 0.61241198 0
2.5770001 -1.012015 0.61212522 0
2.5750003 -1.0150509 0.61193401 0
2.5730002 -1.0180795 0.61174279 0
2.5710001 -1.0211008 0.61155158 0
2.5690002 -1.0241151 0.61136043 0
2.5680003 -1.0275747 0.61126482 0
2.5660002 -1.0305762 0.61107361 0
2.5650003 -1.034027 0.61097801 0
2.5650003 -1.0379322 0.61097801 0
2.5640001 -1.0413774 0.6108824 0
2.5640001 -1.0452808 0.6108824 0
2.5640001 -1.0491843 0.6108824 0
2.5640001 -1.0530877 0.6108824 0
2.5650003 -1.0574584 0.61097801 0
2.5670002 -1.0623016 0.61116922 0
2.5690002 -1.067152 0.61136043 0
2.5710001 -1.0720097 0.61155158 0
2.5750003 -1.0778234 0.61193401 0
2.5840001 -1.0860325 0.6127944 0
2.8030002 -1.2336671 0.63373125 0
2.7990003 -1.2360173 0.63334882 0
2.7960002 -1.2388512 0.63306201 0
2.7920003 -1.2411745 0.63267958 0
2.7890003 -1.2439848 0.63239282 0
2.7860003 -1.2467843 0.63210601 0
2.7830002 -1.249573 0.63181919 0
2.7810001 -1.2528578 0.63162798 0
2.7780001 -1.2556266 0.63134116 0
2.7760003 -1.258895 0.63115001 0
2.7740002 -1.2621564 0.6309588 0
2.7710001 -1.2648963 0.63067198 0
2.7690003 -1.2681415 0.63048077 0
2.7670002 -1.2713792 0.63028955 0
2.7650001 -1.2746098 0.63009834 0
2.7630002 -1.2778333 0.62990713 0
2.7610002 -1.2810494 0.62971592 0
2.7600002 -1.2847834 0.62962037 0
2.7580001 -1.2879869 0.6294291 0
2.7560003 -1.2911832 0.62923795 0
2.7550001 -1.2949027 0.62914234 0
2.5660002 -1.2024864 0.61107361 0
2.5600002 -1.203179 0.61049998 0
2.5560002 -1.2049252 0.61011755 0
2.5520003 -1.2066568 0.60973519 0
2.5480001 -1.208374 0.60935277 0
2.5450003 -1.2106198 0.60906595 0
2.5420003 -1.2128547 0.60877913 0
2.5390003 -1.2150788 0.60849237 0
2.5370002 -1.2178404 0.60830116 0
2.5340002 -1.2200446 0.60801435 0
2.5320003 -1.2227901 0.60782313 0
2.5290003 -1.2249745 0.60753632 0
2.5270002 -1.2277037 0.6073451 0
2.5250001 -1.2304255 0.60715389 0
2.5230002 -1.2331403 0.60696268 0
2.5210001 -1.2358478 0.60677147 0
2.5190003 -1.2385482 0.60658032 0
2.5170002 -1.2412412 0.60638911 0
2.5150001 -1.243927 0.60619789 0
2.5140002 -1.2471739 0.60610229 0
2.5120001 -1.2498471 0.60591108 0
2.5100002 -1.2525133 0.60571992 0
2.5090003 -1.2557456 0.60562432 0
2.5070002 -1.2583991 0.60543311 0
2.5950003 -0.83391249 0.60988671 0
2.5940001 -0.837511 0.60979289 0
2.5930002 -0.84110606 0.60969907 0
2.5920002 -0.84469742 0.60960531 0
2.5910003 -0.84828526 0.60951149 0
2.5900002 -0.85186934 0.60941768 0
2.5890002 -0.85544991 0.60932386 0
2.5880003 -0.85902691 0.6092301 0
2.5870001 -0.86260021 0.60913628 0
2.5860002 -0.86616993 0.60904253 0
2.5850003 -0.86973614 0.60894871 0
2.6260002 -0.99762064 0.6127944 0
2.6140001 -0.99648428 0.61166883 0
2.6060002 -0.99702901 0.61091846 0
2.6000001 -0.9984107 0.61035568 0
2.5950003 -1.0002055 0.60988671 0
2.5900002 -1.0019823 0.60941768 0
