# .PCD v0.7 - Point Cloud Data file format
VERSION 0.7
FIELDS x y z intensity
SIZE 4 4 4 4
TYPE F F F F
COUNT 1 1 1 1
WIDTH 1455
HEIGHT 1
VIEWPOINT 0 0 0 1 0 0 0
POINTS 1455
DATA ascii
3.7840002 1.5349585 0.33685505 0
3.6490002 1.8293834 0.33367315 0
3.6510003 1.8246737 0.33362985 0
3.6530004 1.8199568 0.33358654 0
3.6550002 1.8152325 0.33354327 0
3.6580002 1.8110712 0.33347833 0
3.6600003 1.8063307 0.33343503 0
3.6620002 1.8015831 0.33339176 0
3.6640003 1.7968283 0.33334845 0
3.6660004 1.7920662 0.33330518 0
3.6680002 1.7872969 0.33326188 0
3.6700003 1.7825204 0.33321857 0
3.6730003 1.7782941 0.33315364 0
3.6750002 1.7735013 0.33311033 0
3.6770003 1.7687014 0.33306706 0
3.6790001 1.7638942 0.33302379 0
3.6810002 1.7590798 0.33298048 0
3.6830003 1.7542583 0.33293718 0
3.6860003 1.7499762 0.33287224 0
3.6880002 1.7451382 0.33282894 0
3.6900003 1.7402933 0.33278567 0
3.6920002 1.735441 0.33274236 0
3.6940002 1.7305816 0.33269909 0
3.6970003 1.7262524 0.33263415 0
3.6990004 1.7213768 0.33259085 0
3.7010002 1.7164937 0.33254758 0
3.7030003 1.7116038 0.33250427 0
3.7050002 1.7067063 0.332461 0
3.7070003 1.7018018 0.3324177 0
3.7100003 1.6974168 0.33235276 0
3.7120004 1.6924959 0.33230945 0
3.7140002 1.6875679 0.33226615 0
3.7160003 1.6826327 0.33222288 0
3.7190003 1.6782098 0.33215794 0
3.7210002 1.6732583 0.33211464 0
3.7230003 1.6682997 0.33207136 0
3.7250001 1.6633337 0.33202806 0
3.7270002 1.6583607 0.33198476 0
3.7300003 1.6538908 0.33191985 0
3.7320004 1.6489016 0.33187655 0
3.7340002 1.6439049 0.33183324 0
3.7360003 1.6389012 0.33178997 0
3.7390003 1.6343935 0.33172503 0
3.7410002 1.6293734 0.33168173 0
3.7430003 1.6243463 0.33163846 0
3.7450004 1.6193119 0.33159515 0
3.7480001 1.6147661 0.33153021 0
3.7500002 1.6097156 0.33148694 0
3.7520003 1.6046578 0.33144364 0
3.7540002 1.5995926 0.33140033 0
3.7570002 1.5950091 0.3313354 0
3.7590003 1.5899278 0.33129209 0
3.7610002 1.5848392 0.33124882 0
3.7630002 1.5797435 0.33120552 0
3.7660003 1.5751221 0.33114058 0
3.7680004 1.5700102 0.3310973 0
3.7700002 1.564891 0.331054 0
3.7730002 1.5602407 0.33098906 0
3.7750003 1.5551053 0.33094579 0
3.7770002 1.5499626 0.33090249 0
3.7790003 1.5448128 0.33085918 0
3.7820003 1.5401247 0.33079427 0
3.7840002 1.5349585 0.33075097 0
3.6490002 1.8293834 0.32781255 0
3.6510003 1.8246737 0.32776567 0
3.6530004 1.8199568 0.32771876 0
3.6550002 1.8152325 0.32767189 0
3.6580002 1.8110712 0.32760152 0
3.6600003 1.8063307 0.32755461 0
3.6620002 1.8015831 0.32750773 0
3.6640003 1.7968283 0.32746083 0
3.6660004 1.7920662 0.32741392 0
3.6680002 1.7872969 0.32736704 0
3.6700003 1.7825204 0.32732013 0
3.6730003 1.7782941 0.32724977 0
3.6750002 1.7735013 0.32720289 0
3.6770003 1.7687014 0.32715598 0
3.6790001 1.7638942 0.3271091 0
3.6810002 1.7590798 0.32706219 0
3.6830003 1.7542583 0.32701528 0
3.6860003 1.7499762 0.32694495 0
3.6880002 1.7451382 0.32689804 0
3.6900003 1.7402933 0.32685113 0
3.6920002 1.735441 0.32680422 0
3.6940002 1.7305816 0.32675734 0
3.6970003 1.7262524 0.32668698 0
3.6990004 1.7213768 0.32664007 0
3.7010002 1.7164937 0.32659319 0
3.7030003 1.7116038 0.32654628 0
3.7050002 1.7067063 0.3264994 0
3.7070003 1.7018018 0.32645249 0
3.7100003 1.6974168 0.32638216 0
3.7120004 1.6924959 0.32633525 0
3.7140002 1.6875679 0.32628834 0
3.7160003 1.6826327 0.32624143 0
3.7190003 1.6782098 0.3261711 0
3.7210002 1.6732583 0.32612419 0
3.7230003 1.6682997 0.32607731 0
3.7250001 1.6633337 0.3260304 0
3.7270002 1.6583607 0.32598349 0
3.7300003 1.6538908 0.32591316 0
3.7320004 1.6489016 0.32586625 0
3.7340002 1.6439049 0.32581937 0
3.7360003 1.6389012 0.32577246 0
3.7390003 1.6343935 0.3257021 0
3.7410002 1.6293734 0.32565522 0
3.7430003 1.6243463 0.32560831 0
3.7450004 1.6193119 0.3255614 0
3.7480001 1.6147661 0.32549107 0
3.7500002 1.6097156 0.32544416 0
3.7520003 1.6046578 0.32539725 0
3.7540002 1.5995926 0.32535037 0
3.7570002 1.5950091 0.32528001 0
3.7590003 1.5899278 0.3252331 0
3.7610002 1.5848392 0.32518622 0
3.7630002 1.5797435 0.32513931 0
3.7660003 1.5751221 0.32506898 0
3.7680004 1.5700102 0.32502207 0
3.7700002 1.564891 0.32497519 0
3.7730002 1.5602407 0.32490483 0
3.7750003 1.5551053 0.32485792 0
3.7770002 1.5499626 0.32481104 0
3.7790003 1.5448128 0.32476413 0
3.7820003 1.5401247 0.32469377 0
3.7840002 1.5349585 0.32464689 0
3.6490002 1.8293834 0.32195199 0
3.6510003 1.8246737 0.3219015 0
3.6530004 1.8199568 0.32185099 0
3.6550002 1.8152325 0.32180047 0
3.6580002 1.8110712 0.32172471 0
3.6600003 1.8063307 0.3216742 0
3.6620002 1.8015831 0.32162371 0
3.6640003 1.7968283 0.3215732 0
3.6660004 1.7920662 0.32152268 0
3.6680002 1.7872969 0.32147217 0
3.6700003 1.7825204 0.32142168 0
3.6730003 1.7782941 0.32134593 0
3.6750002 1.7735013 0.32129541 0
3.6770003 1.7687014 0.3212449 0
3.6790001 1.7638942 0.32119441 0
3.6810002 1.7590798 0.3211439 0
3.6830003 1.7542583 0.32109338 0
3.6860003 1.7499762 0.32101762 0
3.6880002 1.7451382 0.32096711 0
3.6900003 1.7402933 0.32091659 0
3.6920002 1.735441 0.32086611 0
3.6940002 1.7305816 0.32081559 0
3.6970003 1.7262524 0.32073984 0
3.6990004 1.7213768 0.32068932 0
3.7010002 1.7164937 0.32063884 0
3.7030003 1.7116038 0.32058832 0
3.7050002 1.7067063 0.32053781 0
3.7070003 1.7018018 0.32048729 0
3.7100003 1.6974168 0.32041153 0
3.7120004 1.6924959 0.32036102 0
3.7140002 1.6875679 0.32031053 0
3.7160003 1.6826327 0.32026002 0
3.7190003 1.6782098 0.32018426 0
3.7210002 1.6732583 0.32013375 0
3.7230003 1.6682997 0.32008326 0
3.7250001 1.6633337 0.32003275 0
3.7270002 1.6583607 0.31998223 0
3.7300003 1.6538908 0.31990647 0
3.7320004 1.6489016 0.31985596 0
3.7340002 1.6439049 0.31980544 0
3.7360003 1.6389012 0.31975496 0
3.7390003 1.6343935 0.3196792 0
3.7410002 1.6293734 0.31962869 0
3.7430003 1.6243463 0.31957817 0
3.7450004 1.6193119 0.31952769 0
3.7480001 1.6147661 0.31945193 0
3.7500002 1.6097156 0.31940141 0
3.7520003 1.6046578 0.3193509 0
3.7540002 1.5995926 0.31930041 0
3.7570002 1.5950091 0.31922463 0
3.7590003 1.5899278 0.31917414 0
3.7610002 1.5848392 0.31912363 0
3.7630002 1.5797435 0.31907311 0
3.7660003 1.5751221 0.31899735 0
3.7680004 1.5700102 0.31894684 0
3.7700002 1.564891 0.31889635 0
3.7730002 1.5602407 0.3188206 0
3.7750003 1.5551053 0.31877008 0
3.7770002 1.5499626 0.31871957 0
3.7790003 1.5448128 0.31866905 0
3.7820003 1.5401247 0.31859329 0
3.7840002 1.5349585 0.31854281 0
3.6490002 1.8293834 0.31609142 0
3.6510003 1.8246737 0.3160373 0
3.6530004 1.8199568 0.31598318 0
3.6550002 1.8152325 0.31592909 0
3.6580002 1.8110712 0.3158479 0
3.6600003 1.8063307 0.31579378 0
3.6620002 1.8015831 0.31573969 0
3.6640003 1.7968283 0.31568557 0
3.6660004 1.7920662 0.31563145 0
3.6680002 1.7872969 0.31557733 0
3.6700003 1.7825204 0.31552321 0
3.6730003 1.7782941 0.31544203 0
3.6750002 1.7735013 0.31538793 0
3.6770003 1.7687014 0.31533381 0
3.6790001 1.7638942 0.31527972 0
3.6810002 1.7590798 0.3152256 0
3.6830003 1.7542583 0.31517148 0
3.6860003 1.7499762 0.3150903 0
3.6880002 1.7451382 0.31503621 0
3.6900003 1.7402933 0.31498209 0
3.6920002 1.735441 0.31492797 0
3.6940002 1.7305816 0.31487384 0
3.6970003 1.7262524 0.31479269 0
3.6990004 1.7213768 0.31473857 0
3.7010002 1.7164937 0.31468445 0
3.7030003 1.7116038 0.31463033 0
3.7050002 1.7067063 0.31457621 0
3.7070003 1.7018018 0.31452209 0
3.7100003 1.6974168 0.31444094 0
3.7120004 1.6924959 0.31438681 0
3.7140002 1.6875679 0.31433272 0
3.7160003 1.6826327 0.3142786 0
3.7190003 1.6782098 0.31419742 0
3.7210002 1.6732583 0.3141433 0
3.7230003 1.6682997 0.31408918 0
3.7250001 1.6633337 0.31403509 0
3.7270002 1.6583607 0.31398097 0
3.7300003 1.6538908 0.31389979 0
3.7320004 1.6489016 0.31384569 0
3.7340002 1.6439049 0.31379157 0
3.7360003 1.6389012 0.31373745 0
3.7390003 1.6343935 0.31365627 0
3.7410002 1.6293734 0.31360215 0
3.7430003 1.6243463 0.31354803 0
3.7450004 1.6193119 0.31349394 0
3.7480001 1.6147661 0.31341276 0
3.7500002 1.6097156 0.31335866 0
3.7520003 1.6046578 0.31330454 0
3.7540002 1.5995926 0.31325042 0
3.7570002 1.5950091 0.31316924 0
3.7590003 1.5899278 0.31311512 0
3.7610002 1.5848392 0.31306103 0
3.7630002 1.5797435 0.31300691 0
3.7660003 1.5751221 0.31292576 0
3.7680004 1.5700102 0.31287163 0
3.7700002 1.564891 0.31281751 0
3.7730002 1.5602407 0.31273633 0
3.7750003 1.5551053 0.31268221 0
3.7770002 1.5499626 0.31262809 0
3.7790003 1.5448128 0.312574 0
3.7820003 1.5401247 0.31249282 0
3.7840002 1.5349585 0.31243873 0
3.6490002 1.8293834 0.31023085 0
3.6510003 1.8246737 0.31017312 0
3.6530004 1.8199568 0.3101154 0
3.6550002 1.8152325 0.3100577 0
3.6580002 1.8110712 0.30997109 0
3.6600003 1.8063307 0.30991337 0
3.6620002 1.8015831 0.30985564 0
3.6640003 1.7968283 0.30979794 0
3.6660004 1.7920662 0.30974022 0
3.6680002 1.7872969 0.30968249 0
3.6700003 1.7825204 0.30962476 0
3.6730003 1.7782941 0.30953819 0
3.6750002 1.7735013 0.30948046 0
3.6770003 1.7687014 0.30942273 0
3.6790001 1.7638942 0.30936503 0
3.6810002 1.7590798 0.30930731 0
3.6830003 1.7542583 0.30924958 0
3.6860003 1.7499762 0.30916297 0
3.6880002 1.7451382 0.30910528 0
3.6900003 1.7402933 0.30904755 0
3.6920002 1.735441 0.30898982 0
3.6940002 1.7305816 0.3089321 0
3.6970003 1.7262524 0.30884552 0
3.6990004 1.7213768 0.30878779 0
3.7010002 1.7164937 0.30873007 0
3.7030003 1.7116038 0.30867237 0
3.7050002 1.7067063 0.30861464 0
3.7070003 1.7018018 0.30855691 0
3.7100003 1.6974168 0.30847034 0
3.7120004 1.6924959 0.30841261 0
3.7140002 1.6875679 0.30835488 0
3.7160003 1.6826327 0.30829716 0
3.7190003 1.6782098 0.30821058 0
3.7210002 1.6732583 0.30815285 0
3.7230003 1.6682997 0.30809513 0
3.7250001 1.6633337 0.30803743 0
3.7270002 1.6583607 0.3079797 0
3.7300003 1.6538908 0.3078931 0
3.7320004 1.6489016 0.3078354 0
3.7340002 1.6439049 0.30777767 0
3.7360003 1.6389012 0.30771995 0
3.7390003 1.6343935 0.30763337 0
3.7410002 1.6293734 0.30757564 0
3.7430003 1.6243463 0.30751792 0
3.7450004 1.6193119 0.30746019 0
3.7480001 1.6147661 0.30737361 0
3.7500002 1.6097156 0.30731589 0
3.7520003 1.6046578 0.30725816 0
3.7540002 1.5995926 0.30720046 0
3.7570002 1.5950091 0.30711389 0
3.7590003 1.5899278 0.30705613 0
3.7610002 1.5848392 0.30699843 0
3.7630002 1.5797435 0.3069407 0
3.7660003 1.5751221 0.30685413 0
3.7680004 1.5700102 0.3067964 0
3.7700002 1.564891 0.30673867 0
3.7730002 1.5602407 0.3066521 0
3.7750003 1.5551053 0.30659437 0
3.7770002 1.5499626 0.30653664 0
3.7790003 1.5448128 0.30647892 0
3.7820003 1.5401247 0.30639234 0
3.7840002 1.5349585 0.30633461 0
3.6490002 1.8293834 0.30437028 0
3.6510003 1.8246737 0.30430895 0
3.6530004 1.8199568 0.30424762 0
3.6550002 1.8152325 0.30418628 0
3.6580002 1.8110712 0.30409428 0
3.6600003 1.8063307 0.30403295 0
3.6620002 1.8015831 0.30397165 0
3.6640003 1.7968283 0.30391032 0
3.6660004 1.7920662 0.30384898 0
3.6680002 1.7872969 0.30378765 0
3.6700003 1.7825204 0.30372632 0
3.6730003 1.7782941 0.30363432 0
3.6750002 1.7735013 0.30357298 0
3.6770003 1.7687014 0.30351165 0
3.6790001 1.7638942 0.30345035 0
3.6810002 1.7590798 0.30338901 0
3.6830003 1.7542583 0.30332768 0
3.6860003 1.7499762 0.30323568 0
3.6880002 1.7451382 0.30317435 0
3.6900003 1.7402933 0.30311301 0
3.6920002 1.735441 0.30305171 0
3.6940002 1.7305816 0.30299038 0
3.6970003 1.7262524 0.30289835 0
3.6990004 1.7213768 0.30283704 0
3.7010002 1.7164937 0.30277571 0
3.7030003 1.7116038 0.30271438 0
3.7050002 1.7067063 0.30265304 0
3.7070003 1.7018018 0.30259171 0
3.7100003 1.6974168 0.30249971 0
3.7120004 1.6924959 0.30243838 0
3.7140002 1.6875679 0.30237707 0
3.7160003 1.6826327 0.30231574 0
3.7190003 1.6782098 0.30222374 0
3.7210002 1.6732583 0.30216241 0
3.7230003 1.6682997 0.30210108 0
3.7250001 1.6633337 0.30203974 0
3.7270002 1.6583607 0.30197841 0
3.7300003 1.6538908 0.30188644 0
3.7320004 1.6489016 0.30182511 0
3.7340002 1.6439049 0.30176377 0
3.7360003 1.6389012 0.30170244 0
3.7390003 1.6343935 0.30161044 0
3.7410002 1.6293734 0.30154914 0
3.7430003 1.6243463 0.3014878 0
3.7450004 1.6193119 0.30142647 0
3.7480001 1.6147661 0.30133447 0
3.7500002 1.6097156 0.30127314 0
3.7520003 1.6046578 0.3012118 0
3.7540002 1.5995926 0.30115047 0
3.7570002 1.5950091 0.30105847 0
3.7590003 1.5899278 0.30099714 0
3.7610002 1.5848392 0.30093583 0
3.7630002 1.5797435 0.3008745 0
3.7660003 1.5751221 0.3007825 0
3.7680004 1.5700102 0.30072117 0
3.7700002 1.564891 0.30065984 0
3.7730002 1.5602407 0.30056784 0
3.7750003 1.5551053 0.30050653 0
3.7770002 1.5499626 0.3004452 0
3.7790003 1.5448128 0.30038387 0
3.7820003 1.5401247 0.30029187 0
3.7840002 1.5349585 0.30023053 0
3.6490002 1.8293834 0.29850972 0
3.6510003 1.8246737 0.29844475 0
3.6530004 1.8199568 0.29837984 0
3.6550002 1.8152325 0.29831487 0
3.6580002 1.8110712 0.29821748 0
3.6600003 1.8063307 0.29815254 0
3.6620002 1.8015831 0.2980876 0
3.6640003 1.7968283 0.29802269 0
3.6660004 1.7920662 0.29795772 0
3.6680002 1.7872969 0.29789281 0
3.6700003 1.7825204 0.29782787 0
3.6730003 1.7782941 0.29773045 0
3.6750002 1.7735013 0.29766554 0
3.6770003 1.7687014 0.29760057 0
3.6790001 1.7638942 0.29753566 0
3.6810002 1.7590798 0.29747072 0
3.6830003 1.7542583 0.29740578 0
3.6860003 1.7499762 0.29730836 0
3.6880002 1.7451382 0.29724342 0
3.6900003 1.7402933 0.29717848 0
3.6920002 1.735441 0.29711357 0
3.6940002 1.7305816 0.29704863 0
3.6970003 1.7262524 0.2969512 0
3.6990004 1.7213768 0.29688627 0
3.7010002 1.7164937 0.29682133 0
3.7030003 1.7116038 0.29675639 0
3.7050002 1.7067063 0.29669148 0
3.7070003 1.7018018 0.29662654 0
3.7100003 1.6974168 0.29652911 0
3.7120004 1.6924959 0.29646417 0
3.7140002 1.6875679 0.29639924 0
3.7160003 1.6826327 0.2963343 0
3.7190003 1.6782098 0.2962369 0
3.7210002 1.6732583 0.29617196 0
3.7230003 1.6682997 0.29610702 0
3.7250001 1.6633337 0.29604208 0
3.7270002 1.6583607 0.29597715 0
3.7300003 1.6538908 0.29587975 0
3.7320004 1.6489016 0.29581481 0
3.7340002 1.6439049 0.29574987 0
3.7360003 1.6389012 0.29568493 0
3.7390003 1.6343935 0.29558754 0
3.7410002 1.6293734 0.2955226 0
3.7430003 1.6243463 0.29545766 0
3.7450004 1.6193119 0.29539272 0
3.7480001 1.6147661 0.29529533 0
3.7500002 1.6097156 0.29523039 0
3.7520003 1.6046578 0.29516542 0
3.7540002 1.5995926 0.29510051 0
3.7570002 1.5950091 0.29500312 0
3.7590003 1.5899278 0.29493815 0
3.7610002 1.5848392 0.29487324 0
3.7630002 1.5797435 0.29480827 0
3.7660003 1.5751221 0.29471087 0
3.7680004 1.5700102 0.29464594 0
3.7700002 1.564891 0.294581 0
3.7730002 1.5602407 0.2944836 0
3.7750003 1.5551053 0.29441866 0
3.7770002 1.5499626 0.29435372 0
3.7790003 1.5448128 0.29428878 0
3.7820003 1.5401247 0.29419139 0
3.7840002 1.5349585 0.29412645 0
3.6490002 1.8293834 0.29264912 0
3.6510003 1.8246737 0.29258057 0
3.6530004 1.8199568 0.29251203 0
3.6550002 1.8152325 0.29244351 0
3.6580002 1.8110712 0.29234067 0
3.6600003 1.8063307 0.29227215 0
3.6620002 1.8015831 0.29220361 0
3.6640003 1.7968283 0.29213506 0
3.6660004 1.7920662 0.29206648 0
3.6680002 1.7872969 0.29199797 0
3.6700003 1.7825204 0.29192939 0
3.6730003 1.7782941 0.29182661 0
3.6750002 1.7735013 0.29175806 0
3.6770003 1.7687014 0.29168952 0
3.6790001 1.7638942 0.29162097 0
3.6810002 1.7590798 0.29155242 0
3.6830003 1.7542583 0.29148388 0
3.6860003 1.7499762 0.29138106 0
3.6880002 1.7451382 0.29131252 0
3.6900003 1.7402933 0.29124397 0
3.6920002 1.735441 0.29117543 0
3.6940002 1.7305816 0.29110688 0
3.6970003 1.7262524 0.29100406 0
3.6990004 1.7213768 0.29093552 0
3.7010002 1.7164937 0.29086697 0
3.7030003 1.7116038 0.29079843 0
3.7050002 1.7067063 0.29072988 0
3.7070003 1.7018018 0.29066133 0
3.7100003 1.6974168 0.29055852 0
3.7120004 1.6924959 0.29048997 0
3.7140002 1.6875679 0.29042143 0
3.7160003 1.6826327 0.29035288 0
3.7190003 1.6782098 0.29025006 0
3.7210002 1.6732583 0.29018152 0
3.7230003 1.6682997 0.29011297 0
3.7250001 1.6633337 0.29004443 0
3.7270002 1.6583607 0.28997588 0
3.7300003 1.6538908 0.28987306 0
3.7320004 1.6489016 0.28980452 0
3.7340002 1.6439049 0.28973597 0
3.7360003 1.6389012 0.28966743 0
3.7390003 1.6343935 0.28956461 0
3.7410002 1.6293734 0.28949606 0
3.7430003 1.6243463 0.28942752 0
3.7450004 1.6193119 0.28935897 0
3.7480001 1.6147661 0.28925616 0
3.7500002 1.6097156 0.28918761 0
3.7520003 1.6046578 0.28911906 0
3.7540002 1.5995926 0.28905052 0
3.7570002 1.5950091 0.2889477 0
3.7590003 1.5899278 0.28887916 0
3.7610002 1.5848392 0.28881061 0
3.7630002 1.5797435 0.28874207 0
3.7660003 1.5751221 0.28863925 0
3.7680004 1.5700102 0.2885707 0
3.7700002 1.564891 0.28850219 0
3.7730002 1.5602407 0.28839934 0
3.7750003 1.5551053 0.28833079 0
3.7770002 1.5499626 0.28826228 0
3.7790003 1.5448128 0.2881937 0
3.7820003 1.5401247 0.28809091 0
3.7840002 1.5349585 0.28802237 0
3.6490002 1.8293834 0.28678855 0
3.6510003 1.8246737 0.2867164 0
3.6530004 1.8199568 0.28664425 0
3.6550002 1.8152325 0.2865721 0
3.6580002 1.8110712 0.28646386 0
3.6600003 1.8063307 0.28639171 0
3.6620002 1.8015831 0.28631955 0
3.6640003 1.7968283 0.2862474 0
3.6660004 1.7920662 0.28617525 0
3.6680002 1.7872969 0.28610313 0
3.6700003 1.7825204 0.28603095 0
3.6730003 1.7782941 0.28592271 0
3.6750002 1.7735013 0.28585058 0
3.6770003 1.7687014 0.28577843 0
3.6790001 1.7638942 0.28570628 0
3.6810002 1.7590798 0.2856341 0
3.6830003 1.7542583 0.28556198 0
3.6860003 1.7499762 0.28545374 0
3.6880002 1.7451382 0.28538159 0
3.6900003 1.7402933 0.28530943 0
3.6920002 1.735441 0.28523728 0
3.6940002 1.7305816 0.28516513 0
3.6970003 1.7262524 0.28505689 0
3.6990004 1.7213768 0.28498474 0
3.7010002 1.7164937 0.28491259 0
3.7030003 1.7116038 0.28484043 0
3.7050002 1.7067063 0.28476828 0
3.7070003 1.7018018 0.28469616 0
3.7100003 1.6974168 0.28458792 0
3.7120004 1.6924959 0.28451574 0
3.7140002 1.6875679 0.28444362 0
3.7160003 1.6826327 0.28437144 0
3.7190003 1.6782098 0.28426322 0
3.7210002 1.6732583 0.28419107 0
3.7230003 1.6682997 0.28411892 0
3.7250001 1.6633337 0.28404677 0
3.7270002 1.6583607 0.28397462 0
3.7300003 1.6538908 0.28386638 0
3.7320004 1.6489016 0.28379422 0
3.7340002 1.6439049 0.2837221 0
3.7360003 1.6389012 0.28364992 0
3.7390003 1.6343935 0.28354168 0
3.7410002 1.6293734 0.28346956 0
3.7430003 1.6243463 0.28339741 0
3.7450004 1.6193119 0.28332523 0
3.7480001 1.6147661 0.28321701 0
3.7500002 1.6097156 0.28314486 0
3.7520003 1.6046578 0.28307271 0
3.7540002 1.5995926 0.28300056 0
3.7570002 1.5950091 0.28289235 0
3.7590003 1.5899278 0.28282017 0
3.7610002 1.5848392 0.28274804 0
3.7630002 1.5797435 0.28267586 0
3.7660003 1.5751221 0.28256762 0
3.7680004 1.5700102 0.2824955 0
3.7700002 1.564891 0.28242335 0
3.7730002 1.5602407 0.28231511 0
3.7750003 1.5551053 0.28224295 0
3.7770002 1.5499626 0.2821708 0
3.7790003 1.5448128 0.28209865 0
3.7820003 1.5401247 0.28199041 0
3.7840002 1.5349585 0.28191829 0
3.6490002 1.8293834 0.28092799 0
3.6510003 1.8246737 0.28085223 0
3.6530004 1.8199568 0.28077647 0
3.6550002 1.8152325 0.28070068 0
3.6580002 1.8110712 0.28058708 0
3.6600003 1.8063307 0.28051129 0
3.6620002 1.8015831 0.28043556 0
3.6640003 1.7968283 0.28035977 0
3.6660004 1.7920662 0.28028402 0
3.6680002 1.7872969 0.28020826 0
3.6700003 1.7825204 0.2801325 0
3.6730003 1.7782941 0.28001887 0
3.6750002 1.7735013 0.27994311 0
3.6770003 1.7687014 0.27986735 0
3.6790001 1.7638942 0.27979159 0
3.6810002 1.7590798 0.27971584 0
3.6830003 1.7542583 0.27964005 0
3.6860003 1.7499762 0.27952641 0
3.6880002 1.7451382 0.27945065 0
3.6900003 1.7402933 0.2793749 0
3.6920002 1.735441 0.27929914 0
3.6940002 1.7305816 0.27922338 0
3.6970003 1.7262524 0.27910975 0
3.6990004 1.7213768 0.27903396 0
3.7010002 1.7164937 0.27895823 0
3.7030003 1.7116038 0.27888244 0
3.7050002 1.7067063 0.27880672 0
3.7070003 1.7018018 0.27873093 0
3.7100003 1.6974168 0.27861732 0
3.7120004 1.6924959 0.27854156 0
3.7140002 1.6875679 0.27846581 0
3.7160003 1.6826327 0.27839002 0
3.7190003 1.6782098 0.27827638 0
3.7210002 1.6732583 0.27820063 0
3.7230003 1.6682997 0.27812487 0
3.7250001 1.6633337 0.27804911 0
3.7270002 1.6583607 0.27797335 0
3.7300003 1.6538908 0.27785969 0
3.7320004 1.6489016 0.27778393 0
3.7340002 1.6439049 0.27770817 0
3.7360003 1.6389012 0.27763242 0
3.7390003 1.6343935 0.27751878 0
3.7410002 1.6293734 0.27744302 0
3.7430003 1.6243463 0.27736726 0
3.7450004 1.6193119 0.27729151 0
3.7480001 1.6147661 0.27717787 0
3.7500002 1.6097156 0.27710211 0
3.7520003 1.6046578 0.27702636 0
3.7540002 1.5995926 0.2769506 0
3.7570002 1.5950091 0.27683693 0
3.7590003 1.5899278 0.27676117 0
3.7610002 1.5848392 0.27668542 0
3.7630002 1.5797435 0.27660966 0
3.7660003 1.5751221 0.27649602 0
3.7680004 1.5700102 0.27642027 0
3.7700002 1.564891 0.27634451 0
3.7730002 1.5602407 0.27623087 0
3.7750003 1.5551053 0.27615511 0
3.7770002 1.5499626 0.27607936 0
3.7790003 1.5448128 0.2760036 0
3.7820003 1.5401247 0.27588993 0
3.7840002 1.5349585 0.27581418 0
3.6490002 1.8293834 0.27506739 0
3.6510003 1.8246737 0.27498806 0
3.6530004 1.8199568 0.27490866 0
3.6550002 1.8152325 0.27482933 0
3.6580002 1.8110712 0.27471024 0
3.6600003 1.8063307 0.2746309 0
3.6620002 1.8015831 0.27455151 0
3.6640003 1.7968283 0.27447215 0
3.6660004 1.7920662 0.27439278 0
3.6680002 1.7872969 0.27431342 0
3.6700003 1.7825204 0.27423406 0
3.6730003 1.7782941 0.274115 0
3.6750002 1.7735013 0.27403563 0
3.6770003 1.7687014 0.27395627 0
3.6790001 1.7638942 0.27387691 0
3.6810002 1.7590798 0.27379751 0
3.6830003 1.7542583 0.27371818 0
3.6860003 1.7499762 0.27359909 0
3.6880002 1.7451382 0.27351975 0
3.6900003 1.7402933 0.27344036 0
3.6920002 1.735441 0.27336103 0
3.6940002 1.7305816 0.27328163 0
3.6970003 1.7262524 0.2731626 0
3.6990004 1.7213768 0.27308321 0
3.7010002 1.7164937 0.27300388 0
3.7030003 1.7116038 0.27292448 0
3.7050002 1.7067063 0.27284512 0
3.7070003 1.7018018 0.27276576 0
3.7100003 1.6974168 0.2726467 0
3.7120004 1.6924959 0.27256733 0
3.7140002 1.6875679 0.27248797 0
3.7160003 1.6826327 0.2724086 0
3.7190003 1.6782098 0.27228954 0
3.7210002 1.6732583 0.27221018 0
3.7230003 1.6682997 0.27213082 0
3.7250001 1.6633337 0.27205145 0
3.7270002 1.6583607 0.27197206 0
3.7300003 1.6538908 0.27185303 0
3.7320004 1.6489016 0.27177364 0
3.7340002 1.6439049 0.2716943 0
3.7360003 1.6389012 0.27161491 0
3.7390003 1.6343935 0.27149588 0
3.7410002 1.6293734 0.27141652 0
3.7430003 1.6243463 0.27133715 0
3.7450004 1.6193119 0.27125776 0
3.7480001 1.6147661 0.27113873 0
3.7500002 1.6097156 0.27105933 0
3.7520003 1.6046578 0.27098 0
3.7540002 1.5995926 0.27090061 0
3.7570002 1.5950091 0.27078158 0
3.7590003 1.5899278 0.27070218 0
3.7610002 1.5848392 0.27062285 0
3.7630002 1.5797435 0.27054346 0
3.7660003 1.5751221 0.27042443 0
3.7680004 1.5700102 0.27034503 0
3.7700002 1.564891 0.2702657 0
3.7730002 1.5602407 0.27014661 0
3.7750003 1.5551053 0.27006724 0
3.7770002 1.5499626 0.26998788 0
3.7790003 1.5448128 0.26990852 0
3.7820003 1.5401247 0.26978946 0
3.7840002 1.5349585 0.26971012 0
3.6490002 1.8293834 0.26920682 0
3.6510003 1.8246737 0.26912385 0
3.6530004 1.8199568 0.26904088 0
3.6550002 1.8152325 0.26895791 0
3.6580002 1.8110712 0.26883346 0
3.6600003 1.8063307 0.26875049 0
3.6620002 1.8015831 0.26866752 0
3.6640003 1.7968283 0.26858452 0
3.6660004 1.7920662 0.26850155 0
3.6680002 1.7872969 0.26841858 0
3.6700003 1.7825204 0.26833558 0
3.6730003 1.7782941 0.26821113 0
3.6750002 1.7735013 0.26812816 0
3.6770003 1.7687014 0.26804519 0
3.6790001 1.7638942 0.26796222 0
3.6810002 1.7590798 0.26787925 0
3.6830003 1.7542583 0.26779628 0
3.6860003 1.7499762 0.26767179 0
3.6880002 1.7451382 0.26758882 0
3.6900003 1.7402933 0.26750582 0
3.6920002 1.735441 0.26742285 0
3.6940002 1.7305816 0.26733989 0
3.6970003 1.7262524 0.26721543 0
3.6990004 1.7213768 0.26713246 0
3.7010002 1.7164937 0.26704949 0
3.7030003 1.7116038 0.26696652 0
3.7050002 1.7067063 0.26688355 0
3.7070003 1.7018018 0.26680055 0
3.7100003 1.6974168 0.2666761 0
3.7120004 1.6924959 0.2665931 0
3.7140002 1.6875679 0.26651013 0
3.7160003 1.6826327 0.26642716 0
3.7190003 1.6782098 0.2663027 0
3.7210002 1.6732583 0.26621974 0
3.7230003 1.6682997 0.26613677 0
3.7250001 1.6633337 0.2660538 0
3.7270002 1.6583607 0.26597083 0
3.7300003 1.6538908 0.26584634 0
3.7320004 1.6489016 0.26576334 0
3.7340002 1.6439049 0.2656804 0
3.7360003 1.6389012 0.2655974 0
3.7390003 1.6343935 0.26547295 0
3.7410002 1.6293734 0.26538998 0
3.7430003 1.6243463 0.26530701 0
3.7450004 1.6193119 0.26522404 0
3.7480001 1.6147661 0.26509959 0
3.7500002 1.6097156 0.26501659 0
3.7520003 1.6046578 0.26493359 0
3.7540002 1.5995926 0.26485065 0
3.7570002 1.5950091 0.26472616 0
3.7590003 1.5899278 0.26464319 0
3.7610002 1.5848392 0.26456022 0
3.7630002 1.5797435 0.26447725 0
3.7660003 1.5751221 0.2643528 0
3.7680004 1.5700102 0.26426983 0
3.7700002 1.564891 0.26418686 0
3.7730002 1.5602407 0.26406237 0
3.7750003 1.5551053 0.26397938 0
3.7770002 1.5499626 0.26389641 0
3.7790003 1.5448128 0.26381344 0
3.7820003 1.5401247 0.26368898 0
3.7840002 1.5349585 0.26360601 0
3.6490002 1.8293834 0.26334625 0
3.6510003 1.8246737 0.26325968 0
3.6530004 1.8199568 0.2631731 0
3.6550002 1.8152325 0.2630865 0
3.6580002 1.8110712 0.26295665 0
3.6600003 1.8063307 0.26287007 0
3.6620002 1.8015831 0.26278347 0
3.6640003 1.7968283 0.26269689 0
3.6660004 1.7920662 0.26261032 0
3.6680002 1.7872969 0.26252371 0
3.6700003 1.7825204 0.26243716 0
3.6730003 1.7782941 0.26230729 0
3.6750002 1.7735013 0.26222068 0
3.6770003 1.7687014 0.2621341 0
3.6790001 1.7638942 0.26204753 0
3.6810002 1.7590798 0.26196092 0
3.6830003 1.7542583 0.26187435 0
3.6860003 1.7499762 0.2617445 0
3.6880002 1.7451382 0.26165789 0
3.6900003 1.7402933 0.26157132 0
3.6920002 1.735441 0.26148474 0
3.6940002 1.7305816 0.26139814 0
3.6970003 1.7262524 0.26126826 0
3.6990004 1.7213768 0.26118168 0
3.7010002 1.7164937 0.26109511 0
3.7030003 1.7116038 0.26100853 0
3.7050002 1.7067063 0.26092196 0
3.7070003 1.7018018 0.26083535 0
3.7100003 1.6974168 0.26070547 0
3.7120004 1.6924959 0.2606189 0
3.7140002 1.6875679 0.26053232 0
3.7160003 1.6826327 0.26044571 0
3.7190003 1.6782098 0.26031587 0
3.7210002 1.6732583 0.26022929 0
3.7230003 1.6682997 0.26014268 0
3.7250001 1.6633337 0.26005614 0
3.7270002 1.6583607 0.25996953 0
3.7300003 1.6538908 0.25983965 0
3.7320004 1.6489016 0.25975308 0
3.7340002 1.6439049 0.2596665 0
3.7360003 1.6389012 0.2595799 0
3.7390003 1.6343935 0.25945005 0
3.7410002 1.6293734 0.25936347 0
3.7430003 1.6243463 0.25927687 0
3.7450004 1.6193119 0.25919029 0
3.7480001 1.6147661 0.25906041 0
3.7500002 1.6097156 0.25897384 0
3.7520003 1.6046578 0.25888723 0
3.7540002 1.5995926 0.25880069 0
3.7570002 1.5950091 0.25867081 0
3.7590003 1.5899278 0.2585842 0
3.7610002 1.5848392 0.25849763 0
3.7630002 1.5797435 0.25841105 0
3.7660003 1.5751221 0.25828117 0
3.7680004 1.5700102 0.25819457 0
3.7700002 1.564891 0.25810802 0
3.7730002 1.5602407 0.25797814 0
3.7750003 1.5551053 0.25789154 0
3.7770002 1.5499626 0.25780496 0
3.7790003 1.5448128 0.25771838 0
3.7820003 1.5401247 0.25758851 0
3.7840002 1.5349585 0.25750193 0
3.6490002 1.8293834 0.25748569 0
3.6510003 1.8246737 0.25739551 0
3.6530004 1.8199568 0.25730532 0
3.6550002 1.8152325 0.25721514 0
3.6580002 1.8110712 0.25707984 0
3.6600003 1.8063307 0.25698966 0
3.6620002 1.8015831 0.25689948 0
3.6640003 1.7968283 0.25680926 0
3.6660004 1.7920662 0.25671905 0
3.6680002 1.7872969 0.25662887 0
3.6700003 1.7825204 0.25653869 0
3.6730003 1.7782941 0.25640339 0
3.6750002 1.7735013 0.2563132 0
3.6770003 1.7687014 0.25622302 0
3.6790001 1.7638942 0.25613284 0
3.6810002 1.7590798 0.25604266 0
3.6830003 1.7542583 0.25595245 0
3.6860003 1.7499762 0.25581717 0
3.6880002 1.7451382 0.25572699 0
3.6900003 1.7402933 0.25563678 0
3.6920002 1.735441 0.2555466 0
3.6940002 1.7305816 0.25545639 0
3.6970003 1.7262524 0.25532112 0
3.6990004 1.7213768 0.25523093 0
3.7010002 1.7164937 0.25514072 0
3.7030003 1.7116038 0.25505054 0
3.7050002 1.7067063 0.25496036 0
3.7070003 1.7018018 0.25487018 0
3.7100003 1.6974168 0.25473487 0
3.7120004 1.6924959 0.25464469 0
3.7140002 1.6875679 0.25455451 0
3.7160003 1.6826327 0.2544643 0
3.7190003 1.6782098 0.25432903 0
3.7210002 1.6732583 0.25423884 0
3.7230003 1.6682997 0.25414866 0
3.7250001 1.6633337 0.25405848 0
3.7270002 1.6583607 0.25396827 0
3.7300003 1.6538908 0.25383297 0
3.7320004 1.6489016 0.25374278 0
3.7340002 1.6439049 0.25365257 0
3.7360003 1.6389012 0.25356239 0
3.7390003 1.6343935 0.25342712 0
3.7410002 1.6293734 0.25333694 0
3.7430003 1.6243463 0.25324672 0
3.7450004 1.6193119 0.25315654 0
3.7480001 1.6147661 0.25302127 0
3.7500002 1.6097156 0.25293109 0
3.7520003 1.6046578 0.25284088 0
3.7540002 1.5995926 0.25275069 0
3.7570002 1.5950091 0.25261539 0
3.7590003 1.5899278 0.25252521 0
3.7610002 1.5848392 0.25243503 0
3.7630002 1.5797435 0.25234485 0
3.7660003 1.5751221 0.25220954 0
3.7680004 1.5700102 0.25211936 0
3.7700002 1.564891 0.25202918 0
3.7730002 1.5602407 0.25189388 0
3.7750003 1.5551053 0.2518037 0
3.7770002 1.5499626 0.25171351 0
3.7790003 1.5448128 0.2516233 0
3.7820003 1.5401247 0.25148803 0
3.7840002 1.5349585 0.25139785 0
3.6490002 1.8293834 0.25162512 0
3.6510003 1.8246737 0.2515313 0
3.6530004 1.8199568 0.25143754 0
3.6550002 1.8152325 0.25134373 0
3.6580002 1.8110712 0.25120303 0
3.6600003 1.8063307 0.25110921 0
3.6620002 1.8015831 0.25101542 0
3.6640003 1.7968283 0.25092161 0
3.6660004 1.7920662 0.25082785 0
3.6680002 1.7872969 0.25073403 0
3.6700003 1.7825204 0.25064024 0
3.6730003 1.7782941 0.25049955 0
3.6750002 1.7735013 0.25040573 0
3.6770003 1.7687014 0.25031194 0
3.6790001 1.7638942 0.25021815 0
3.6810002 1.7590798 0.25012434 0
3.6830003 1.7542583 0.25003055 0
3.6860003 1.7499762 0.24988985 0
3.6880002 1.7451382 0.24979605 0
3.6900003 1.7402933 0.24970224 0
3.6920002 1.735441 0.24960846 0
3.6940002 1.7305816 0.24951465 0
3.6970003 1.7262524 0.24937396 0
3.6990004 1.7213768 0.24928015 0
3.7010002 1.7164937 0.24918637 0
3.7030003 1.7116038 0.24909256 0
3.7050002 1.7067063 0.24899878 0
3.7070003 1.7018018 0.24890497 0
3.7100003 1.6974168 0.24876428 0
3.7120004 1.6924959 0.24867047 0
3.7140002 1.6875679 0.24857669 0
3.7160003 1.6826327 0.24848288 0
3.7190003 1.6782098 0.24834219 0
3.7210002 1.6732583 0.2482484 0
3.7230003 1.6682997 0.2481546 0
3.7250001 1.6633337 0.24806079 0
3.7270002 1.6583607 0.24796699 0
3.7300003 1.6538908 0.24782631 0
3.7320004 1.6489016 0.24773251 0
3.7340002 1.6439049 0.2476387 0
3.7360003 1.6389012 0.2475449 0
3.7390003 1.6343935 0.2474042 0
3.7410002 1.6293734 0.2473104 0
3.7430003 1.6243463 0.24721661 0
3.7450004 1.6193119 0.24712281 0
3.7480001 1.6147661 0.24698211 0
3.7500002 1.6097156 0.24688831 0
3.7520003 1.6046578 0.24679451 0
3.7540002 1.5995926 0.24670072 0
3.7570002 1.5950091 0.24656002 0
3.7590003 1.5899278 0.24646622 0
3.7610002 1.5848392 0.24637243 0
3.7630002 1.5797435 0.24627863 0
3.7660003 1.5751221 0.24613793 0
3.7680004 1.5700102 0.24604413 0
3.7700002 1.564891 0.24595034 0
3.7730002 1.5602407 0.24580963 0
3.7750003 1.5551053 0.24571584 0
3.7770002 1.5499626 0.24562205 0
3.7790003 1.5448128 0.24552825 0
3.7820003 1.5401247 0.24538754 0
3.7840002 1.5349585 0.24529375 0
3.6490002 1.8293834 0.24576455 0
3.6510003 1.8246737 0.24566713 0
3.6530004 1.8199568 0.24556972 0
3.6550002 1.8152325 0.24547233 0
3.6580002 1.8110712 0.24532622 0
3.6600003 1.8063307 0.24522881 0
3.6620002 1.8015831 0.2451314 0
3.6640003 1.7968283 0.24503399 0
3.6660004 1.7920662 0.24493659 0
3.6680002 1.7872969 0.24483919 0
3.6700003 1.7825204 0.24474178 0
3.6730003 1.7782941 0.24459566 0
3.6750002 1.7735013 0.24449827 0
3.6770003 1.7687014 0.24440086 0
3.6790001 1.7638942 0.24430346 0
3.6810002 1.7590798 0.24420606 0
3.6830003 1.7542583 0.24410865 0
3.6860003 1.7499762 0.24396253 0
3.6880002 1.7451382 0.24386515 0
3.6900003 1.7402933 0.24376774 0
3.6920002 1.735441 0.24367033 0
3.6940002 1.7305816 0.24357292 0
3.6970003 1.7262524 0.24342681 0
3.6990004 1.7213768 0.24332941 0
3.7010002 1.7164937 0.243232 0
3.7030003 1.7116038 0.24313459 0
3.7050002 1.7067063 0.24303719 0
3.7070003 1.7018018 0.24293979 0
3.7100003 1.6974168 0.24279368 0
3.7120004 1.6924959 0.24269626 0
3.7140002 1.6875679 0.24259886 0
3.7160003 1.6826327 0.24250145 0
3.7190003 1.6782098 0.24235535 0
3.7210002 1.6732583 0.24225795 0
3.7230003 1.6682997 0.24216053 0
3.7250001 1.6633337 0.24206313 0
3.7270002 1.6583607 0.24196573 0
3.7300003 1.6538908 0.24181962 0
3.7320004 1.6489016 0.24172221 0
3.7340002 1.6439049 0.2416248 0
3.7360003 1.6389012 0.24152739 0
3.7390003 1.6343935 0.24138129 0
3.7410002 1.6293734 0.24128389 0
3.7430003 1.6243463 0.24118648 0
3.7450004 1.6193119 0.24108906 0
3.7480001 1.6147661 0.24094297 0
3.7500002 1.6097156 0.24084556 0
3.7520003 1.6046578 0.24074815 0
3.7540002 1.5995926 0.24065076 0
3.7570002 1.5950091 0.24050465 0
3.7590003 1.5899278 0.24040723 0
3.7610002 1.5848392 0.24030983 0
3.7630002 1.5797435 0.24021243 0
3.7660003 1.5751221 0.24006632 0
3.7680004 1.5700102 0.23996891 0
3.7700002 1.564891 0.2398715 0
3.7730002 1.5602407 0.2397254 0
3.7750003 1.5551053 0.23962799 0
3.7770002 1.5499626 0.23953059 0
3.7790003 1.5448128 0.23943318 0
3.7820003 1.5401247 0.23928708 0
3.7840002 1.5349585 0.23918967 0
3.6490002 1.8293834 0.23990399 0
3.6510003 1.8246737 0.23980296 0
3.6530004 1.8199568 0.23970194 0
3.6550002 1.8152325 0.23960094 0
3.6580002 1.8110712 0.23944941 0
3.6600003 1.8063307 0.2393484 0
3.6620002 1.8015831 0.2392474 0
3.6640003 1.7968283 0.23914637 0
3.6660004 1.7920662 0.23904535 0
3.6680002 1.7872969 0.23894434 0
3.6700003 1.7825204 0.23884334 0
3.6730003 1.7782941 0.23869181 0
3.6750002 1.7735013 0.23859079 0
3.6770003 1.7687014 0.23848979 0
3.6790001 1.7638942 0.23838878 0
3.6810002 1.7590798 0.23828776 0
3.6830003 1.7542583 0.23818675 0
3.6860003 1.7499762 0.23803522 0
3.6880002 1.7451382 0.23793422 0
3.6900003 1.7402933 0.2378332 0
3.6920002 1.735441 0.23773219 0
3.6940002 1.7305816 0.23763117 0
3.6970003 1.7262524 0.23747966 0
3.6990004 1.7213768 0.23737863 0
3.7010002 1.7164937 0.23727763 0
3.7030003 1.7116038 0.23717661 0
3.7050002 1.7067063 0.23707561 0
3.7070003 1.7018018 0.23697458 0
3.7100003 1.6974168 0.23682307 0
3.7120004 1.6924959 0.23672205 0
3.7140002 1.6875679 0.23662104 0
3.7160003 1.6826327 0.23652002 0
3.7190003 1.6782098 0.23636851 0
3.7210002 1.6732583 0.23626749 0
3.7230003 1.6682997 0.23616648 0
3.7250001 1.6633337 0.23606548 0
3.7270002 1.6583607 0.23596445 0
3.7300003 1.6538908 0.23581293 0
3.7320004 1.6489016 0.23571192 0
3.7340002 1.6439049 0.2356109 0
3.7360003 1.6389012 0.23550989 0
3.7390003 1.6343935 0.23535837 0
3.7410002 1.6293734 0.23525736 0
3.7430003 1.6243463 0.23515634 0
3.7450004 1.6193119 0.23505534 0
3.7480001 1.6147661 0.23490381 0
3.7500002 1.6097156 0.2348028 0
3.7520003 1.6046578 0.2347018 0
3.7540002 1.5995926 0.23460078 0
3.7570002 1.5950091 0.23444925 0
3.7590003 1.5899278 0.23434825 0
3.7610002 1.5848392 0.23424724 0
3.7630002 1.5797435 0.23414622 0
3.7660003 1.5751221 0.23399471 0
3.7680004 1.5700102 0.23389368 0
3.7700002 1.564891 0.23379268 0
3.7730002 1.5602407 0.23364116 0
3.7750003 1.5551053 0.23354013 0
3.7770002 1.5499626 0.23343913 0
3.7790003 1.5448128 0.2333381 0
3.7820003 1.5401247 0.23318659 0
3.7840002 1.5349585 0.23308559 0
3.6490002 1.8293834 0.2340434 0
3.6510003 1.8246737 0.23393877 0
3.6530004 1.8199568 0.23383415 0
3.6550002 1.8152325 0.23372954 0
3.6580002 1.8110712 0.2335726 0
3.6600003 1.8063307 0.23346798 0
3.6620002 1.8015831 0.23336338 0
3.6640003 1.7968283 0.23325874 0
3.6660004 1.7920662 0.23315412 0
3.6680002 1.7872969 0.2330495 0
3.6700003 1.7825204 0.23294488 0
3.6730003 1.7782941 0.23278794 0
3.6750002 1.7735013 0.23268333 0
3.6770003 1.7687014 0.23257871 0
3.6790001 1.7638942 0.23247409 0
3.6810002 1.7590798 0.23236947 0
3.6830003 1.7542583 0.23226483 0
3.6860003 1.7499762 0.23210791 0
3.6880002 1.7451382 0.23200329 0
3.6900003 1.7402933 0.23189867 0
3.6920002 1.735441 0.23179406 0
3.6940002 1.7305816 0.23168944 0
3.6970003 1.7262524 0.2315325 0
3.6990004 1.7213768 0.23142788 0
3.7010002 1.7164937 0.23132326 0
3.7030003 1.7116038 0.23121864 0
3.7050002 1.7067063 0.23111401 0
3.7070003 1.7018018 0.23100939 0
3.7100003 1.6974168 0.23085245 0
3.7120004 1.6924959 0.23074785 0
3.7140002 1.6875679 0.23064323 0
3.7160003 1.6826327 0.23053859 0
3.7190003 1.6782098 0.23038167 0
3.7210002 1.6732583 0.23027705 0
3.7230003 1.6682997 0.23017243 0
3.7250001 1.6633337 0.2300678 0
3.7270002 1.6583607 0.22996318 0
3.7300003 1.6538908 0.22980624 0
3.7320004 1.6489016 0.22970162 0
3.7340002 1.6439049 0.22959702 0
3.7360003 1.6389012 0.2294924 0
3.7390003 1.6343935 0.22933546 0
3.7410002 1.6293734 0.22923085 0
3.7430003 1.6243463 0.22912621 0
3.7450004 1.6193119 0.22902159 0
3.7480001 1.6147661 0.22886467 0
3.7500002 1.6097156 0.22876005 0
3.7520003 1.6046578 0.22865541 0
3.7540002 1.5995926 0.22855079 0
3.7570002 1.5950091 0.22839387 0
3.7590003 1.5899278 0.22828925 0
3.7610002 1.5848392 0.22818464 0
3.7630002 1.5797435 0.22808 0
3.7660003 1.5751221 0.22792308 0
3.7680004 1.5700102 0.22781846 0
3.7700002 1.564891 0.22771384 0
3.7730002 1.5602407 0.22755691 0
3.7750003 1.5551053 0.22745228 0
3.7770002 1.5499626 0.22734766 0
3.7790003 1.5448128 0.22724304 0
3.7820003 1.5401247 0.22708611 0
3.7840002 1.5349585 0.22698149 0
3.6490002 1.8293834 0.22818284 0
3.6510003 1.8246737 0.2280746 0
3.6530004 1.8199568 0.22796635 0
3.6550002 1.8152325 0.22785814 0
3.6580002 1.8110712 0.22769579 0
3.6600003 1.8063307 0.22758757 0
3.6620002 1.8015831 0.22747935 0
3.6640003 1.7968283 0.22737111 0
3.6660004 1.7920662 0.22726287 0
3.6680002 1.7872969 0.22715466 0
3.6700003 1.7825204 0.22704643 0
3.6730003 1.7782941 0.22688407 0
3.6750002 1.7735013 0.22677587 0
3.6770003 1.7687014 0.22666763 0
3.6790001 1.7638942 0.2265594 0
3.6810002 1.7590798 0.22645116 0
3.6830003 1.7542583 0.22634295 0
3.6860003 1.7499762 0.22618058 0
3.6880002 1.7451382 0.22607239 0
3.6900003 1.7402933 0.22596414 0
3.6920002 1.735441 0.22585592 0
3.6940002 1.7305816 0.22574767 0
3.6970003 1.7262524 0.22558534 0
3.6990004 1.7213768 0.2254771 0
3.7010002 1.7164937 0.22536889 0
3.7030003 1.7116038 0.22526066 0
3.7050002 1.7067063 0.22515243 0
3.7070003 1.7018018 0.22504419 0
3.7100003 1.6974168 0.22488186 0
3.7120004 1.6924959 0.22477362 0
3.7140002 1.6875679 0.2246654 0
3.7160003 1.6826327 0.22455718 0
3.7190003 1.6782098 0.22439483 0
3.7210002 1.6732583 0.2242866 0
3.7230003 1.6682997 0.22417837 0
3.7250001 1.6633337 0.22407015 0
3.7270002 1.6583607 0.22396192 0
3.7300003 1.6538908 0.22379957 0
3.7320004 1.6489016 0.22369134 0
3.7340002 1.6439049 0.22358312 0
3.7360003 1.6389012 0.22347488 0
3.7390003 1.6343935 0.22331254 0
3.7410002 1.6293734 0.22320431 0
3.7430003 1.6243463 0.22309607 0
3.7450004 1.6193119 0.22298786 0
3.7480001 1.6147661 0.22282551 0
3.7500002 1.6097156 0.22271729 0
3.7520003 1.6046578 0.22260906 0
3.7540002 1.5995926 0.22250083 0
3.7570002 1.5950091 0.22233848 0
3.7590003 1.5899278 0.22223026 0
3.7610002 1.5848392 0.22212203 0
3.7630002 1.5797435 0.2220138 0
3.7660003 1.5751221 0.22185147 0
3.7680004 1.5700102 0.22174323 0
3.7700002 1.564891 0.221635 0
3.7730002 1.5602407 0.22147267 0
3.7750003 1.5551053 0.22136442 0
3.7770002 1.5499626 0.2212562 0
3.7790003 1.5448128 0.22114798 0
3.7820003 1.5401247 0.22098562 0
3.7840002 1.5349585 0.22087741 0
3.6490002 1.8293834 0.22232226 0
3.6510003 1.8246737 0.22221041 0
3.6530004 1.8199568 0.22209857 0
3.6550002 1.8152325 0.22198674 0
3.6580002 1.8110712 0.221819 0
3.6600003 1.8063307 0.22170715 0
3.6620002 1.8015831 0.22159532 0
3.6640003 1.7968283 0.22148348 0
3.6660004 1.7920662 0.22137164 0
3.6680002 1.7872969 0.2212598 0
3.6700003 1.7825204 0.22114797 0
3.6730003 1.7782941 0.22098021 0
3.6750002 1.7735013 0.22086839 0
3.6770003 1.7687014 0.22075655 0
3.6790001 1.7638942 0.22064471 0
3.6810002 1.7590798 0.22053288 0
3.6830003 1.7542583 0.22042103 0
3.6860003 1.7499762 0.22025329 0
3.6880002 1.7451382 0.22014146 0
3.6900003 1.7402933 0.22002961 0
3.6920002 1.735441 0.21991777 0
3.6940002 1.7305816 0.21980594 0
3.6970003 1.7262524 0.21963818 0
3.6990004 1.7213768 0.21952635 0
3.7010002 1.7164937 0.21941452 0
3.7030003 1.7116038 0.21930268 0
3.7050002 1.7067063 0.21919085 0
3.7070003 1.7018018 0.219079 0
3.7100003 1.6974168 0.21891125 0
3.7120004 1.6924959 0.2187994 0
3.7140002 1.6875679 0.21868758 0
3.7160003 1.6826327 0.21857575 0
3.7190003 1.6782098 0.21840799 0
3.7210002 1.6732583 0.21829616 0
3.7230003 1.6682997 0.21818431 0
3.7250001 1.6633337 0.21807247 0
3.7270002 1.6583607 0.21796066 0
3.7300003 1.6538908 0.2177929 0
3.7320004 1.6489016 0.21768105 0
3.7340002 1.6439049 0.21756922 0
3.7360003 1.6389012 0.21745737 0
3.7390003 1.6343935 0.21728961 0
3.7410002 1.6293734 0.21717781 0
3.7430003 1.6243463 0.21706596 0
3.7450004 1.6193119 0.21695411 0
3.7480001 1.6147661 0.21678637 0
3.7500002 1.6097156 0.21667452 0
3.7520003 1.6046578 0.21656269 0
3.7540002 1.5995926 0.21645087 0
3.7570002 1.5950091 0.21628311 0
3.7590003 1.5899278 0.21617126 0
3.7610002 1.5848392 0.21605943 0
3.7630002 1.5797435 0.2159476 0
3.7660003 1.5751221 0.21577984 0
3.7680004 1.5700102 0.21566801 0
3.7700002 1.564891 0.21555617 0
3.7730002 1.5602407 0.21538842 0
3.7750003 1.5551053 0.21527657 0
3.7770002 1.5499626 0.21516474 0
3.7790003 1.5448128 0.2150529 0
3.7820003 1.5401247 0.21488516 0
3.7840002 1.5349585 0.21477333 0
3.6490002 1.8293834 0.21646169 0
3.6510003 1.8246737 0.21634623 0
3.6530004 1.8199568 0.21623078 0
3.6550002 1.8152325 0.21611536 0
3.6580002 1.8110712 0.21594219 0
3.6600003 1.8063307 0.21582673 0
3.6620002 1.8015831 0.2157113 0
3.6640003 1.7968283 0.21559586 0
3.6660004 1.7920662 0.2154804 0
3.6680002 1.7872969 0.21536496 0
3.6700003 1.7825204 0.21524952 0
3.6730003 1.7782941 0.21507636 0
3.6750002 1.7735013 0.21496092 0
3.6770003 1.7687014 0.21484546 0
3.6790001 1.7638942 0.21473002 0
3.6810002 1.7590798 0.21461459 0
3.6830003 1.7542583 0.21449913 0
3.6860003 1.7499762 0.21432596 0
3.6880002 1.7451382 0.21421053 0
3.6900003 1.7402933 0.21409509 0
3.6920002 1.735441 0.21397965 0
3.6940002 1.7305816 0.21386419 0
3.6970003 1.7262524 0.21369103 0
3.6990004 1.7213768 0.21357559 0
3.7010002 1.7164937 0.21346015 0
3.7030003 1.7116038 0.21334469 0
3.7050002 1.7067063 0.21322925 0
3.7070003 1.7018018 0.21311381 0
3.7100003 1.6974168 0.21294065 0
3.7120004 1.6924959 0.21282519 0
3.7140002 1.6875679 0.21270975 0
3.7160003 1.6826327 0.21259432 0
3.7190003 1.6782098 0.21242115 0
3.7210002 1.6732583 0.21230571 0
3.7230003 1.6682997 0.21219026 0
3.7250001 1.6633337 0.21207483 0
3.7270002 1.6583607 0.21195938 0
3.7300003 1.6538908 0.21178621 0
3.7320004 1.6489016 0.21167076 0
3.7340002 1.6439049 0.21155532 0
3.7360003 1.6389012 0.21143988 0
3.7390003 1.6343935 0.21126671 0
3.7410002 1.6293734 0.21115127 0
3.7430003 1.6243463 0.21103582 0
3.7450004 1.6193119 0.21092038 0
3.7480001 1.6147661 0.21074723 0
3.7500002 1.6097156 0.21063177 0
3.7520003 1.6046578 0.21051632 0
3.7540002 1.5995926 0.21040089 0
3.7570002 1.5950091 0.21022773 0
3.7590003 1.5899278 0.21011227 0
3.7610002 1.5848392 0.20999683 0
3.7630002 1.5797435 0.20988138 0
3.7660003 1.5751221 0.20970821 0
3.7680004 1.5700102 0.20959277 0
3.7700002 1.564891 0.20947734 0
3.7730002 1.5602407 0.20930417 0
3.7750003 1.5551053 0.20918871 0
3.7770002 1.5499626 0.20907329 0
3.7790003 1.5448128 0.20895784 0
3.7820003 1.5401247 0.20878467 0
3.7840002 1.5349585 0.20866923 0
3.6490002 1.8293834 0.21060111 0
3.6510003 1.8246737 0.21048206 0
3.6530004 1.8199568 0.210363 0
3.6550002 1.8152325 0.21024396 0
3.6580002 1.8110712 0.21006536 0
3.6600003 1.8063307 0.20994632 0
3.6620002 1.8015831 0.20982727 0
3.6640003 1.7968283 0.20970821 0
3.6660004 1.7920662 0.20958917 0
3.6680002 1.7872969 0.20947012 0
3.6700003 1.7825204 0.20935108 0
3.6730003 1.7782941 0.20917249 0
3.6750002 1.7735013 0.20905344 0
3.6770003 1.7687014 0.20893438 0
3.6790001 1.7638942 0.20881535 0
3.6810002 1.7590798 0.20869629 0
3.6830003 1.7542583 0.20857723 0
3.6860003 1.7499762 0.20839864 0
3.6880002 1.7451382 0.20827961 0
3.6900003 1.7402933 0.20816055 0
3.6920002 1.735441 0.2080415 0
3.6940002 1.7305816 0.20792246 0
3.6970003 1.7262524 0.20774388 0
3.6990004 1.7213768 0.20762481 0
3.7010002 1.7164937 0.20750576 0
3.7030003 1.7116038 0.20738672 0
3.7050002 1.7067063 0.20726767 0
3.7070003 1.7018018 0.20714863 0
3.7100003 1.6974168 0.20697005 0
3.7120004 1.6924959 0.20685099 0
3.7140002 1.6875679 0.20673193 0
3.7160003 1.6826327 0.20661288 0
3.7190003 1.6782098 0.20643431 0
3.7210002 1.6732583 0.20631526 0
3.7230003 1.6682997 0.2061962 0
3.7250001 1.6633337 0.20607717 0
3.7270002 1.6583607 0.2059581 0
3.7300003 1.6538908 0.20577952 0
3.7320004 1.6489016 0.20566046 0
3.7340002 1.6439049 0.20554143 0
3.7360003 1.6389012 0.20542237 0
3.7390003 1.6343935 0.2052438 0
3.7410002 1.6293734 0.20512475 0
3.7430003 1.6243463 0.20500569 0
3.7450004 1.6193119 0.20488663 0
3.7480001 1.6147661 0.20470807 0
3.7500002 1.6097156 0.20458902 0
3.7520003 1.6046578 0.20446996 0
3.7540002 1.5995926 0.2043509 0
3.7570002 1.5950091 0.20417233 0
3.7590003 1.5899278 0.20405328 0
3.7610002 1.5848392 0.20393424 0
3.7630002 1.5797435 0.20381518 0
3.7660003 1.5751221 0.2036366 0
3.7680004 1.5700102 0.20351754 0
3.7700002 1.564891 0.2033985 0
3.7730002 1.5602407 0.20321992 0
3.7750003 1.5551053 0.20310088 0
3.7770002 1.5499626 0.20298183 0
3.7790003 1.5448128 0.20286277 0
3.7820003 1.5401247 0.20268418 0
3.7840002 1.5349585 0.20256515 0
3.6490002 1.8293834 0.20474054 0
3.6510003 1.8246737 0.20461787 0
3.6530004 1.8199568 0.20449522 0
3.6550002 1.8152325 0.20437256 0
3.6580002 1.8110712 0.20418857 0
3.6600003 1.8063307 0.2040659 0
3.6620002 1.8015831 0.20394325 0
3.6640003 1.7968283 0.20382059 0
3.6660004 1.7920662 0.20369793 0
3.6680002 1.7872969 0.20357527 0
3.6700003 1.7825204 0.20345262 0
3.6730003 1.7782941 0.20326863 0
3.6750002 1.7735013 0.20314597 0
3.6770003 1.7687014 0.2030233 0
3.6790001 1.7638942 0.20290066 0
3.6810002 1.7590798 0.202778 0
3.6830003 1.7542583 0.20265533 0
3.6860003 1.7499762 0.20247135 0
3.6880002 1.7451382 0.20234868 0
3.6900003 1.7402933 0.20222601 0
3.6920002 1.735441 0.20210338 0
3.6940002 1.7305816 0.20198071 0
3.6970003 1.7262524 0.20179671 0
3.6990004 1.7213768 0.20167406 0
3.7010002 1.7164937 0.20155141 0
3.7030003 1.7116038 0.20142874 0
3.7050002 1.7067063 0.20130609 0
3.7070003 1.7018018 0.20118342 0
3.7100003 1.6974168 0.20099942 0
3.7120004 1.6924959 0.20087677 0
3.7140002 1.6875679 0.20075412 0
3.7160003 1.6826327 0.20063145 0
3.7190003 1.6782098 0.20044747 0
3.7210002 1.6732583 0.20032482 0
3.7230003 1.6682997 0.20020214 0
3.7250001 1.6633337 0.2000795 0
3.7270002 1.6583607 0.19995683 0
3.7300003 1.6538908 0.19977283 0
3.7320004 1.6489016 0.19965018 0
3.7340002 1.6439049 0.19952753 0
3.7360003 1.6389012 0.19940487 0
3.7390003 1.6343935 0.19922088 0
3.7410002 1.6293734 0.19909823 0
3.7430003 1.6243463 0.19897556 0
3.7450004 1.6193119 0.1988529 0
3.7480001 1.6147661 0.19866893 0
3.7500002 1.6097156 0.19854626 0
3.7520003 1.6046578 0.19842359 0
3.7540002 1.5995926 0.19830094 0
3.7570002 1.5950091 0.19811696 0
3.7590003 1.5899278 0.19799429 0
3.7610002 1.5848392 0.19787164 0
3.7630002 1.5797435 0.19774897 0
3.7660003 1.5751221 0.19756497 0
3.7680004 1.5700102 0.19744232 0
3.7700002 1.564891 0.19731967 0
3.7730002 1.5602407 0.19713567 0
3.7750003 1.5551053 0.19701302 0
3.7770002 1.5499626 0.19689037 0
3.7790003 1.5448128 0.19676769 0
3.7820003 1.5401247 0.19658372 0
3.7840002 1.5349585 0.19646107 0
3.6490002 1.8293834 0.19887996 0
3.6510003 1.8246737 0.1987537 0
3.6530004 1.8199568 0.19862741 0
3.6550002 1.8152325 0.19850117 0
3.6580002 1.8110712 0.19831176 0
3.6600003 1.8063307 0.19818549 0
3.6620002 1.8015831 0.19805923 0
3.6640003 1.7968283 0.19793296 0
3.6660004 1.7920662 0.19780669 0
3.6680002 1.7872969 0.19768043 0
3.6700003 1.7825204 0.19755416 0
3.6730003 1.7782941 0.19736476 0
3.6750002 1.7735013 0.1972385 0
3.6770003 1.7687014 0.19711223 0
3.6790001 1.7638942 0.19698597 0
3.6810002 1.7590798 0.19685969 0
3.6830003 1.7542583 0.19673343 0
3.6860003 1.7499762 0.19654402 0
3.6880002 1.7451382 0.19641776 0
3.6900003 1.7402933 0.19629149 0
3.6920002 1.735441 0.19616523 0
3.6940002 1.7305816 0.19603896 0
3.6970003 1.7262524 0.19584957 0
3.6990004 1.7213768 0.19572328 0
3.7010002 1.7164937 0.19559704 0
3.7030003 1.7116038 0.19547075 0
3.7050002 1.7067063 0.19534451 0
3.7070003 1.7018018 0.19521824 0
