# .PCD v0.7 - Point Cloud Data file format
VERSION 0.7
FIELDS x y z intensity
SIZE 4 4 4 4
TYPE F F F F
COUNT 1 1 1 1
WIDTH 1459
HEIGHT 1
VIEWPOINT 0 0 0 1 0 0 0
POINTS 1459
DATA ascii
4.6550002 1.9111769 0.87218744 0
4.6610003 1.9062508 0.87284768 0
4.6710005 1.9031285 0.87394798 0
4.6340003 2.0008028 0.86223948 0
4.6310005 1.9917209 0.86191481 0
4.6300001 1.983609 0.86180651 0
4.6300001 1.9759786 0.86180651 0
4.6310005 1.9688251 0.86191481 0
4.6330004 1.9621418 0.86213124 0
4.6330004 1.9545062 0.86213124 0
4.6340003 1.9473417 0.86223948 0
4.6350002 1.9401731 0.86234766 0
4.6370001 1.9334685 0.86256409 0
4.6390004 1.9267566 0.86278063 0
4.6430001 1.9209645 0.86321354 0
4.6460004 1.9146963 0.86353821 0
4.6520004 1.9097973 0.8641876 0
4.6580005 1.9048765 0.86483693 0
4.6660004 1.9008467 0.86570275 0
4.6760001 1.8976971 0.86678505 0
4.6340003 2.0008028 0.8546021 0
4.6310005 1.9917209 0.85428286 0
4.6300001 1.983609 0.8541764 0
4.6300001 1.9759786 0.8541764 0
4.6310005 1.9688251 0.85428286 0
4.6330004 1.9621418 0.8544957 0
4.6340003 1.9549789 0.8546021 0
4.6340003 1.9473417 0.8546021 0
4.6340003 1.9397043 0.8546021 0
4.6360002 1.9330013 0.85481501 0
4.6380005 1.9262911 0.85502785 0
4.6410003 1.9200373 0.8553471 0
4.6450005 1.9142345 0.85577285 0
4.6490002 1.9084171 0.85619849 0
4.6540003 1.9030435 0.85673058 0
4.6610003 1.8985648 0.85747558 0
4.6700001 1.8949698 0.85843337 0
4.5790005 2.1551294 0.84121066 0
4.5800004 2.1481164 0.84131527 0
4.5810003 2.1410995 0.84141994 0
4.5820003 2.134079 0.84152454 0
4.5830002 2.1270549 0.84162915 0
4.6030002 2.1298635 0.84372151 0
4.6340003 2.0008028 0.84696484 0
4.6310005 1.9917209 0.84665096 0
4.6300001 1.983609 0.84654629 0
4.6300001 1.9759786 0.84654629 0
4.6310005 1.9688251 0.84665096 0
4.6330004 1.9621418 0.84686017 0
4.6350002 1.9554515 0.84706938 0
4.6340003 1.9473417 0.84696484 0
4.6350002 1.9401731 0.84706938 0
4.6360002 1.9330013 0.84717405 0
4.6370001 1.9258256 0.84727865 0
4.6400003 1.9195738 0.84759253 0
4.6430001 1.9133109 0.84790635 0
4.6470003 1.9074974 0.84832489 0
4.6520004 1.9021274 0.84884799 0
4.6580005 1.8971957 0.84947574 0
4.6650004 1.892697 0.85020804 0
4.6750002 1.8895313 0.85125422 0
4.8990002 1.950372 0.87468934 0
4.9060001 1.9453501 0.87542164 0
4.5780001 2.1621389 0.83356971 0
4.5790005 2.1551294 0.83367252 0
4.5800004 2.1481164 0.8337754 0
4.5810003 2.1410995 0.83387816 0
4.5820003 2.134079 0.83398098 0
4.5830002 2.1270549 0.8340838 0
4.6030002 2.1298635 0.83614016 0
4.6340003 2.0008028 0.83932745 0
4.6310005 1.9917209 0.83901906 0
4.6300001 1.983609 0.83891618 0
4.6300001 1.9759786 0.83891618 0
4.6310005 1.9688251 0.83901906 0
4.6330004 1.9621418 0.8392247 0
4.6350002 1.9554515 0.83943033 0
4.6360002 1.9482832 0.83953309 0
4.6350002 1.9401731 0.83943033 0
4.6360002 1.9330013 0.83953309 0
4.6370001 1.9258256 0.83963591 0
4.6390004 1.9191103 0.8398416 0
4.6420002 1.9128491 0.84015 0
4.6450005 1.9065773 0.84045851 0
4.6490002 1.9007527 0.84086972 0
4.6550002 1.8958266 0.84148663 0
4.6610003 1.8908788 0.84210354 0
4.6690001 1.8868148 0.84292608 0
4.6810002 1.8845257 0.8441599 0
4.8960004 1.9490409 0.86626554 0
4.9020004 1.9435825 0.86688244 0
4.9090004 1.9385426 0.86760223 0
4.5780001 2.1621389 0.82603341 0
4.5790005 2.1551294 0.82613444 0
4.5800004 2.1481164 0.82623541 0
4.5810003 2.1410995 0.8263365 0
4.5820003 2.134079 0.82643747 0
4.5830002 2.1270549 0.82653844 0
4.6030002 2.1298635 0.82855874 0
4.6340003 2.0008028 0.83169019 0
4.6310005 1.9917209 0.83138716 0
4.6300001 1.983609 0.83128607 0
4.6300001 1.9759786 0.83128607 0
4.6310005 1.9688251 0.83138716 0
4.6330004 1.9621418 0.83158916 0
4.6350002 1.9554515 0.83179116 0
4.6370001 1.948754 0.83199322 0
4.6360002 1.9406421 0.83189213 0
4.6360002 1.9330013 0.83189213 0
4.6370001 1.9258256 0.83199322 0
4.6380005 1.9186467 0.83209419 0
4.6410003 1.9123874 0.83239722 0
4.6430001 1.9056572 0.83259928 0
4.6470003 1.8998364 0.83300334 0
4.6520004 1.8944576 0.83350837 0
4.6580005 1.8895152 0.83411455 0
4.6640005 1.8845512 0.83472061 0
4.6740003 1.881369 0.83573067 0
4.8940005 1.9481533 0.85795367 0
4.8990002 1.9422566 0.85845864 0
4.9060001 1.9372221 0.85916579 0
4.9140005 1.932601 0.85997391 0
4.5780001 2.1621389 0.81849706 0
4.5790005 2.1551294 0.81859636 0
4.5800004 2.1481164 0.81869555 0
4.5810003 2.1410995 0.81879473 0
4.5820003 2.134079 0.81889391 0
4.5830002 2.1270549 0.81899315 0
4.6030002 2.1298635 0.82097733 0
4.6230001 2.1325996 0.82296151 0
4.6340003 2.0008028 0.82405281 0
4.6310005 1.9917209 0.82375526 0
4.6300001 1.983609 0.82365596 0
4.6300001 1.9759786 0.82365596 0
4.6310005 1.9688251 0.82375526 0
4.6330004 1.9621418 0.82395363 0
4.6350002 1.9554515 0.82415199 0
4.6390004 1.9496955 0.8245489 0
4.6370001 1.9411111 0.82435048 0
4.6360002 1.9330013 0.82425129 0
4.6370001 1.9258256 0.82435048 0
4.6380005 1.9186467 0.82444972 0
4.6400003 1.9119257 0.82464808 0
4.6420002 1.9051975 0.82484651 0
4.6460004 1.8993784 0.82524335 0
4.6490002 1.8930885 0.82554096 0
4.6550002 1.8881513 0.82613623 0
4.6610003 1.8831927 0.8267315 0
4.6690001 1.8791143 0.82752514 0
4.6790004 1.8759054 0.82851726 0
4.8920002 1.9472657 0.84964889 0
4.8960004 1.9409307 0.85004568 0
4.9020004 1.9354616 0.85064101 0
4.9090004 1.9304094 0.85133541 0
4.9190001 1.926641 0.85232747 0
4.5780001 2.1621389 0.81096077 0
4.5790005 2.1551294 0.81105822 0
4.5800004 2.1481164 0.81115562 0
4.5810003 2.1410995 0.81125301 0
4.5820003 2.134079 0.81135041 0
4.5830002 2.1270549 0.8114478 0
4.6030002 2.1298635 0.81339592 0
4.6230001 2.1325996 0.81534404 0
4.6340003 2.0008028 0.81641555 0
4.6310005 1.9917209 0.81612337 0
4.6300001 1.983609 0.81602585 0
4.6300001 1.9759786 0.81602585 0
4.6310005 1.9688251 0.81612337 0
4.6330004 1.9621418 0.81631815 0
4.6350002 1.9554515 0.81651294 0
4.6390004 1.9496955 0.81690252 0
4.6380005 1.9415803 0.81680512 0
4.6370001 1.9334685 0.81670773 0
4.6370001 1.9258256 0.81670773 0
4.6380005 1.9186467 0.81680512 0
4.6390004 1.9114639 0.81690252 0
4.6410003 1.9047375 0.81709731 0
4.6440005 1.8984621 0.81738961 0
4.6480002 1.892632 0.81777918 0
4.6520004 1.8867877 0.81816882 0
4.6570001 1.8813815 0.81865585 0
4.6640005 1.8768597 0.81933773 0
4.6730003 1.8732104 0.82021439 0
4.8900003 1.9463784 0.84135139 0
4.8940005 1.9400471 0.84174097 0
4.8990002 1.9341412 0.842228 0
4.9050002 1.928656 0.84281242 0
4.9130001 1.9240218 0.84359169 0
4.5780001 2.1621389 0.80342448 0
4.5790005 2.1551294 0.80352008 0
4.5800004 2.1481164 0.80361569 0
4.5810003 2.1410995 0.8037113 0
4.5820003 2.134079 0.8038069 0
4.5830002 2.1270549 0.80390251 0
4.6030002 2.1298635 0.8058145 0
4.6230001 2.1325996 0.80772656 0
4.6350002 2.001286 0.80887377 0
4.6310005 1.9917209 0.80849141 0
4.6300001 1.983609 0.80839574 0
4.6300001 1.9759786 0.80839574 0
4.6310005 1.9688251 0.80849141 0
4.6330004 1.9621418 0.80868256 0
4.6350002 1.9554515 0.80887377 0
4.6390004 1.9496955 0.8092562 0
4.6410003 1.9429872 0.80944741 0
4.6380005 1.9339358 0.80916059 0
4.6380005 1.9262911 0.80916059 0
4.6380005 1.9186467 0.80916059 0
4.6390004 1.9114639 0.8092562 0
4.6400003 1.9042774 0.8093518 0
4.6430001 1.8980038 0.80963862 0
4.6460004 1.8917193 0.80992544 0
4.6500001 1.8858786 0.8103078 0
4.6550002 1.8804761 0.81078577 0
4.6610003 1.8755066 0.81135941 0
4.6680002 1.8709648 0.81202865 0
4.6780005 1.8677396 0.8129847 0
4.8920002 1.9391631 0.83344346 0
4.8970003 1.933261 0.83392149 0
4.9020004 1.927341 0.83439946 0
4.9090004 1.9222759 0.8350687 0
4.9180002 1.9180548 0.8359291 0
4.5780001 2.1621389 0.79588819 0
4.5790005 2.1551294 0.795982 0
4.5800004 2.1481164 0.79607582 0
4.5810003 2.1410995 0.79616958 0
4.5820003 2.134079 0.79626334 0
4.5830002 2.1270549 0.79635715 0
4.6030002 2.1298635 0.79823315 0
4.6230001 2.1325996 0.80010909 0
4.6350002 2.001286 0.8012346 0
4.6310005 1.9917209 0.80085945 0
4.6300001 1.983609 0.80076563 0
4.6300001 1.9759786 0.80076563 0
4.6310005 1.9688251 0.80085945 0
4.6330004 1.9621418 0.80104709 0
4.6350002 1.9554515 0.8012346 0
4.6390004 1.9496955 0.80160987 0
4.6430001 1.9439251 0.80198503 0
4.6400003 1.93487 0.80170369 0
4.6390004 1.9267566 0.80160987 0
4.6380005 1.9186467 0.80151606 0
4.6390004 1.9114639 0.80160987 0
4.6400003 1.9042774 0.80170369 0
4.6420002 1.8975456 0.80189121 0
4.6450005 1.8912631 0.80217266 0
4.6480002 1.8849696 0.80245399 0
4.6520004 1.879118 0.80282927 0
4.6580005 1.874154 0.80339205 0
4.6640005 1.8691682 0.80395484 0
4.6720004 1.8650554 0.8047052 0
4.6840005 1.8626961 0.80583078 0
4.8910003 1.9387212 0.82524693 0
4.8950005 1.9323808 0.8256222 0
4.8990002 1.9260257 0.82599735 0
4.9050002 1.9205298 0.82656014 0
4.9130001 1.9158814 0.82731044 0
4.9230003 1.9120698 0.8282485 0
4.5780001 2.1621389 0.78835189 0
4.5790005 2.1551294 0.78844386 0
4.5800004 2.1481164 0.78853583 0
4.5810003 2.1410995 0.78862786 0
4.5820003 2.134079 0.78871983 0
4.5830002 2.1270549 0.7888118 0
4.6030002 2.1298635 0.79065168 0
4.6230001 2.1325996 0.79249156 0
4.6350002 2.001286 0.79359555 0
4.6310005 1.9917209 0.79322755 0
4.6300001 1.983609 0.79313552 0
4.6300001 1.9759786 0.79313552 0
4.6310005 1.9688251 0.79322755 0
4.6330004 1.9621418 0.79341155 0
4.6350002 1.9554515 0.79359555 0
4.6390004 1.9496955 0.79396355 0
4.6440005 1.9443942 0.79442346 0
4.6420002 1.9358042 0.79423952 0
4.6400003 1.9272219 0.79405546 0
4.6390004 1.9191103 0.79396355 0
4.6390004 1.9114639 0.79396355 0
4.6400003 1.9042774 0.79405546 0
4.6410003 1.8970873 0.79414749 0
4.6440005 1.8908067 0.79442346 0
4.6460004 1.8840604 0.79460752 0
4.6500001 1.8782123 0.7949754 0
4.6550002 1.8728009 0.79543543 0
4.6610003 1.8678206 0.79598737 0
4.6670003 1.8628187 0.79653931 0
4.6770005 1.8595773 0.7974593 0
4.8930001 1.9315004 0.81733 0
4.8970003 1.9251492 0.817698 0
4.9020004 1.9192203 0.81815803 0
4.9090004 1.9141425 0.818802 0
4.9170003 1.9094725 0.81953788 0
4.5780001 2.1621389 0.78081548 0
4.5790005 2.1551294 0.78090572 0
4.5800004 2.1481164 0.78099597 0
4.5810003 2.1410995 0.78108615 0
4.5820003 2.134079 0.78117633 0
4.5830002 2.1270549 0.78126651 0
4.6030002 2.1298635 0.78307033 0
4.6230001 2.1325996 0.78487408 0
4.6350002 2.001286 0.78595638 0
4.6310005 1.9917209 0.78559566 0
4.6300001 1.983609 0.78550541 0
4.6300001 1.9759786 0.78550541 0
4.6310005 1.9688251 0.78559566 0
4.6330004 1.9621418 0.78577602 0
4.6350002 1.9554515 0.78595638 0
4.6390004 1.9496955 0.78631717 0
4.6440005 1.9443942 0.78676814 0
4.6450005 1.937206 0.78685832 0
4.6420002 1.9281527 0.78658772 0
4.6400003 1.9195738 0.78640735 0
4.6390004 1.9114639 0.78631717 0
4.6400003 1.9042774 0.78640735 0
4.6410003 1.8970873 0.78649753 0
4.6430001 1.8903502 0.7866779 0
4.6450005 1.883606 0.78685832 0
4.6490002 1.8777596 0.78721905 0
4.6530004 1.8718992 0.78757983 0
4.6580005 1.8664733 0.7880308 0
4.6640005 1.8614767 0.78857195 0
4.6720004 1.8573496 0.78929347 0
4.6820002 1.8540812 0.79019535 0
4.8910003 1.9306203 0.80904514 0
4.8950005 1.9242727 0.80940592 0
4.9000001 1.9183471 0.80985689 0
4.9050002 1.9124037 0.8103078 0
4.9120002 1.9073077 0.81093913 0
4.9220004 1.9034802 0.81184107 0
4.5780001 2.1621389 0.77327919 0
4.5790005 2.1551294 0.77336764 0
4.5800004 2.1481164 0.77345598 0
4.5810003 2.1410995 0.77354443 0
4.5820003 2.134079 0.77363276 0
4.5830002 2.1270549 0.77372122 0
4.6030002 2.1298635 0.77548891 0
4.6230001 2.1325996 0.77725661 0
4.6350002 2.001286 0.77831727 0
4.6310005 1.9917209 0.77796376 0
4.6300001 1.983609 0.7778753 0
4.6300001 1.9759786 0.7778753 0
4.6310005 1.9688251 0.77796376 0
4.6330004 1.9621418 0.77814054 0
4.6350002 1.9554515 0.77831727 0
4.6390004 1.9496955 0.77867085 0
4.6440005 1.9443942 0.77911282 0
4.6490002 1.9390745 0.77955472 0
4.6440005 1.9290836 0.77911282 0
4.6410003 1.9200373 0.77884758 0
4.6400003 1.9119257 0.77875924 0
4.6400003 1.9042774 0.77875924 0
4.6410003 1.8970873 0.77884758 0
4.6420002 1.8898939 0.77893597 0
4.6440005 1.8831514 0.77911282 0
4.6470003 1.8768542 0.77937794 0
4.6510005 1.8709973 0.77973151 0
4.6550002 1.8651257 0.78008503 0
4.6600003 1.8596874 0.78052694 0
4.6670003 1.855122 0.78114563 0
4.6760001 1.8514186 0.78194112 0
4.8930001 1.9233959 0.801121 0
4.8970003 1.9170376 0.80147457 0
4.9020004 1.9110994 0.80191648 0
4.9090004 1.9060091 0.80253518 0
4.9160004 1.9008936 0.80315393 0
4.5780001 2.1621389 0.7657429 0
4.5790005 2.1551294 0.7658295 0
4.5800004 2.1481164 0.76591611 0
4.5810003 2.1410995 0.76600266 0
4.5820003 2.134079 0.76608926 0
4.5830002 2.1270549 0.76617587 0
4.6030002 2.1298635 0.7679075 0
4.6230001 2.1325996 0.76963913 0
4.6350002 2.001286 0.77067816 0
4.6310005 1.9917209 0.77033186 0
4.6300001 1.983609 0.77024519 0
4.6300001 1.9759786 0.77024519 0
4.6310005 1.9688251 0.77033186 0
4.6330004 1.9621418 0.77050501 0
4.6350002 1.9554515 0.77067816 0
4.6390004 1.9496955 0.77102447 0
4.6440005 1.9443942 0.77145743 0
4.6490002 1.9390745 0.77189028 0
4.6470003 1.9304796 0.77171719 0
4.6440005 1.9214282 0.77145743 0
4.6420002 1.9128491 0.77128422 0
4.6410003 1.9047375 0.77119768 0
4.6410003 1.8970873 0.77119768 0
4.6420002 1.8898939 0.77128422 0
4.6430001 1.8826965 0.77137077 0
4.6460004 1.8764014 0.77163053 0
4.6490002 1.8700953 0.77189028 0
4.6530004 1.8642275 0.77223665 0
4.6580005 1.8587928 0.77266955 0
4.6640005 1.8537854 0.77318907 0
4.6710005 1.8492001 0.77379513 0
4.6810002 1.8459153 0.77466094 0
4.8920002 1.9229577 0.79292989 0
4.8960004 1.9166012 0.79327631 0
4.9000001 1.9102299 0.79362261 0
4.9050002 1.9042774 0.79405546 0
4.9120002 1.8991691 0.79466158 0
4.9210005 1.894894 0.79544085 0
4.5780001 2.1621389 0.75820661 0
4.5790005 2.1551294 0.75829142 0
4.5800004 2.1481164 0.75837624 0
4.5810003 2.1410995 0.75846094 0
4.5820003 2.134079 0.75854576 0
4.5830002 2.1270549 0.75863051 0
4.6030002 2.1298635 0.76032609 0
4.6230001 2.1325996 0.76202166 0
4.6350002 2.001286 0.76303899 0
4.6310005 1.9917209 0.76269996 0
4.6300001 1.983609 0.76261508 0
4.6300001 1.9759786 0.76261508 0
4.6310005 1.9688251 0.76269996 0
4.6330004 1.9621418 0.76286948 0
4.6350002 1.9554515 0.76303899 0
4.6390004 1.9496955 0.76337814 0
4.6440005 1.9443942 0.76380205 0
4.6490002 1.9390745 0.76422596 0
4.6520004 1.9328066 0.76448023 0
4.6460004 1.9223552 0.76397157 0
4.6430001 1.9133109 0.76371723 0
4.6420002 1.9051975 0.76363248 0
4.6410003 1.8970873 0.76354766 0
4.6420002 1.8898939 0.76363248 0
4.6430001 1.8826965 0.76371723 0
4.6450005 1.8759488 0.76388681 0
4.6480002 1.8696443 0.76414114 0
4.6510005 1.8633294 0.76439548 0
4.6550002 1.8574505 0.76473463 0
4.6610003 1.8524486 0.76524329 0
4.6670003 1.847425 0.76575196 0
4.6750002 1.8432635 0.76643014 0
4.6860003 1.8403938 0.76736277 0
4.8940005 1.9157281 0.78499681 0
4.8980002 1.9093606 0.7853359 0
4.9030004 1.9034117 0.78575981 0
4.9080005 1.8974447 0.78618371 0
4.9160004 1.8927476 0.7868619 0
4.9260001 1.8888764 0.78770971 0
4.5780001 2.1621389 0.75067031 0
4.5790005 2.1551294 0.75075328 0
4.5800004 2.1481164 0.75083625 0
4.5810003 2.1410995 0.75091922 0
4.5820003 2.134079 0.75100219 0
4.5830002 2.1270549 0.75108516 0
4.6030002 2.1298635 0.75274467 0
4.6230001 2.1325996 0.75440419 0
4.6350002 2.001286 0.75539994 0
4.6310005 1.9917209 0.755068 0
4.6300001 1.983609 0.75498497 0
4.6300001 1.9759786 0.75498497 0
4.6310005 1.9688251 0.755068 0
4.6330004 1.9621418 0.755234 0
4.6350002 1.9554515 0.75539994 0
4.6390004 1.9496955 0.75573182 0
4.6440005 1.9443942 0.75614667 0
4.6490002 1.9390745 0.75656152 0
4.6560001 1.9346678 0.75714236 0
4.6500001 1.9242095 0.75664449 0
4.6450005 1.9142345 0.75622964 0
4.6430001 1.9056572 0.7560637 0
4.6420002 1.8975456 0.75598073 0
4.6420002 1.8898939 0.75598073 0
4.6430001 1.8826965 0.7560637 0
4.6440005 1.875496 0.75614667 0
4.6470003 1.8691933 0.75639558 0
4.6490002 1.8624308 0.75656152 0
4.6530004 1.8565558 0.75689346 0
4.6580005 1.851112 0.75730836 0
4.6630001 1.84565 0.75772321 0
4.6700001 1.841054 0.758304 0
4.6800003 1.8377531 0.75913376 0
4.8960004 1.9084911 0.77705646 0
4.9000001 1.9021128 0.77738833 0
4.9050002 1.8961513 0.77780318 0
4.9120002 1.8910303 0.77838397 0
4.9200001 1.8863114 0.77904779 0
4.5780001 2.1621389 0.74313396 0
4.5790005 2.1551294 0.7432152 0
4.5800004 2.1481164 0.74329633 0
4.5810003 2.1410995 0.74337751 0
4.5820003 2.134079 0.74345869 0
4.5830002 2.1270549 0.74353981 0
4.6030002 2.1298635 0.74516332 0
4.6230001 2.1325996 0.74678671 0
4.6350002 2.001286 0.74776077 0
4.6310005 1.9917209 0.74743611 0
4.6300001 1.983609 0.74735487 0
4.6300001 1.9759786 0.74735487 0
4.6310005 1.9688251 0.74743611 0
4.6330004 1.9621418 0.74759841 0
4.6350002 1.9554515 0.74776077 0
4.6390004 1.9496955 0.7480855 0
4.6440005 1.9443942 0.74849135 0
4.6490002 1.9390745 0.74889719 0
4.6560001 1.9346678 0.74946535 0
4.6550002 1.9265274 0.74938416 0
4.6480002 1.9156197 0.74881601 0
4.6450005 1.9065773 0.74857247 0
4.6430001 1.8980038 0.74841011 0
4.6420002 1.8898939 0.74832892 0
4.6430001 1.8826965 0.74841011 0
4.6440005 1.875496 0.74849135 0
4.6460004 1.8687426 0.74865365 0
4.6480002 1.8619817 0.74881601 0
4.6520004 1.8561087 0.74914068 0
4.6560001 1.8502209 0.74946535 0
4.6610003 1.8447626 0.74987125 0
4.6670003 1.8397281 0.75035822 0
4.6750002 1.8355522 0.75100762 0
4.6850004 1.8322245 0.75181937 0
4.8980002 1.901247 0.76910883 0
4.9030004 1.8952891 0.76951468 0
4.9080005 1.8893131 0.76992059 0
4.9160004 1.8846016 0.77056992 0
4.9250002 1.8802868 0.77130044 0
4.5780001 2.1621389 0.73559767 0
4.5790005 2.1551294 0.73567712 0
4.5800004 2.1481164 0.7357564 0
4.5810003 2.1410995 0.73583579 0
4.5820003 2.134079 0.73591518 0
4.5830002 2.1270549 0.73599452 0
4.6030002 2.1298635 0.73758185 0
4.6230001 2.1325996 0.73916924 0
4.6350002 2.001286 0.7401216 0
4.6310005 1.9917209 0.73980415 0
4.6300001 1.983609 0.73972476 0
4.6300001 1.9759786 0.73972476 0
4.6310005 1.9688251 0.73980415 0
4.6330004 1.9621418 0.73996294 0
4.6350002 1.9554515 0.7401216 0
4.6390004 1.9496955 0.74043918 0
4.6440005 1.9443942 0.74083596 0
4.6490002 1.9390745 0.74123275 0
4.6560001 1.9346678 0.74178839 0
4.6630001 1.9302359 0.7423439 0
4.6520004 1.917467 0.74147093 0
4.6470003 1.9074974 0.74107409 0
4.6450005 1.8989203 0.7409153 0
4.6430001 1.8903502 0.74075657 0
4.6430001 1.8826965 0.74075657 0
4.6440005 1.875496 0.74083596 0
4.6450005 1.8682916 0.7409153 0
4.6470003 1.8615326 0.74107409 0
4.6500001 1.8552138 0.74131215 0
4.6540003 1.8493298 0.7416296 0
4.6580005 1.8434316 0.74194711 0
4.6630001 1.8379605 0.7423439 0
4.6700001 1.8333516 0.74289954 0
4.6790004 1.8295945 0.74361384 0
4.9010005 1.8944271 0.76123345 0
4.9060001 1.8884543 0.76163024 0
4.9120002 1.8828914 0.76210642 0
4.9200001 1.8781582 0.76274139 0
4.5780001 2.1621389 0.72806132 0
4.5790005 2.1551294 0.72813892 0
4.5800004 2.1481164 0.72821653 0
4.5810003 2.1410995 0.72829407 0
4.5820003 2.134079 0.72837162 0
4.5830002 2.1270549 0.72844923 0
4.6030002 2.1298635 0.7300005 0
4.6230001 2.1325996 0.73155177 0
4.6350002 2.001286 0.73248255 0
4.6310005 1.9917209 0.73217225 0
4.6300001 1.983609 0.73209465 0
4.6300001 1.9759786 0.73209465 0
4.6310005 1.9688251 0.73217225 0
4.6330004 1.9621418 0.7323274 0
4.6350002 1.9554515 0.73248255 0
4.6390004 1.9496955 0.73279274 0
4.6440005 1.9443942 0.73318064 0
4.6490002 1.9390745 0.73356843 0
4.6560001 1.9346678 0.73411131 0
4.6650004 1.9311633 0.73480946 0
4.6580005 1.9202377 0.73426652 0
4.6510005 1.9093373 0.73372352 0
4.6470003 1.8998364 0.73341328 0
4.6450005 1.8912631 0.73325813 0
4.6440005 1.8831514 0.73318064 0
4.6440005 1.875496 0.73318064 0
4.6450005 1.8682916 0.73325813 0
4.6460004 1.8610834 0.73333573 0
4.6490002 1.8547666 0.73356843 0
4.6520004 1.848439 0.73380113 0
4.6560001 1.8425437 0.73411131 0
4.6610003 1.8370767 0.73449916 0
4.6670003 1.8320314 0.73496455 0
4.6740003 1.8274027 0.73550749 0
4.6840005 1.8240587 0.73628318 0
4.9090004 1.881609 0.75373495 0
4.5780001 2.1621389 0.72052503 0
4.5790005 2.1551294 0.72060084 0
4.5800004 2.1481164 0.7206766 0
4.5810003 2.1410995 0.72075236 0
4.5820003 2.134079 0.72082812 0
4.5830002 2.1270549 0.72090387 0
4.6030002 2.1298635 0.72241902 0
4.6230001 2.1325996 0.72393423 0
4.6350002 2.001286 0.72484338 0
4.6310005 1.9917209 0.72454035 0
4.6300001 1.983609 0.72446454 0
4.6300001 1.9759786 0.72446454 0
4.6310005 1.9688251 0.72454035 0
4.6330004 1.9621418 0.72469187 0
4.6350002 1.9554515 0.72484338 0
4.6390004 1.9496955 0.72514641 0
4.6440005 1.9443942 0.72552526 0
4.6490002 1.9390745 0.72590399 0
4.6560001 1.9346678 0.72643435 0
4.6650004 1.9311633 0.72711623 0
4.6690001 1.925317 0.72741926 0
4.6550002 1.9111769 0.72635859 0
4.6490002 1.9007527 0.72590399 0
4.6460004 1.8917193 0.72567677 0
4.6450005 1.883606 0.72560096 0
4.6440005 1.875496 0.72552526 0
4.6450005 1.8682916 0.72560096 0
4.6460004 1.8610834 0.72567677 0
4.6480002 1.8543191 0.72582829 0
4.6510005 1.8479933 0.72605556 0
4.6540003 1.8416563 0.72628284 0
4.6580005 1.8357508 0.72658587 0
4.6640005 1.8307111 0.72704041 0
4.6700001 1.8256494 0.72749496 0
4.6780005 1.8214395 0.72810107 0
4.6890001 1.8185046 0.72893441 0
4.5780001 2.1621389 0.71298873 0
4.5790005 2.1551294 0.71306276 0
4.5800004 2.1481164 0.71313667 0
4.5810003 2.1410995 0.71321058 0
4.5820003 2.134079 0.71328461 0
4.5830002 2.1270549 0.71335852 0
4.6030002 2.1298635 0.71483767 0
4.6230001 2.1325996 0.71631682 0
4.6350002 2.001286 0.71720427 0
4.6310005 1.9917209 0.71690845 0
4.6300001 1.983609 0.71683449 0
4.6300001 1.9759786 0.71683449 0
4.6310005 1.9688251 0.71690845 0
4.6330004 1.9621418 0.71705633 0
4.6350002 1.9554515 0.71720427 0
4.6390004 1.9496955 0.71750009 0
4.6440005 1.9443942 0.71786988 0
4.6490002 1.9390745 0.71823967 0
4.6560001 1.9346678 0.71875733 0
4.6650004 1.9311633 0.71942294 0
4.6780005 1.9294732 0.72038436 0
4.6610003 1.9139369 0.71912712 0
4.6530004 1.9025855 0.71853548 0
4.6490002 1.8930885 0.71823967 0
4.6460004 1.8840604 0.71801782 0
4.6450005 1.8759488 0.71794379 0
4.6450005 1.8682916 0.71794379 0
4.6460004 1.8610834 0.71801782 0
4.6470003 1.8538719 0.71809173 0
4.6500001 1.8475477 0.71831357 0
4.6520004 1.8407691 0.71846151 0
4.6560001 1.8348668 0.71875733 0
4.6610003 1.8293906 0.71912712 0
4.6660004 1.8238962 0.71949691 0
4.6730003 1.8192568 0.72001457 0
4.6820002 1.8154615 0.72068018 0
4.5780001 2.1621389 0.70545244 0
4.5790005 2.1551294 0.70552462 0
4.5800004 2.1481164 0.70559675 0
4.5810003 2.1410995 0.70566893 0
4.5820003 2.134079 0.70574105 0
4.5830002 2.1270549 0.70581317 0
4.6030002 2.1298635 0.7072562 0
4.6230001 2.1325996 0.70869929 0
4.6350002 2.001286 0.70956516 0
4.6310005 1.9917209 0.70927656 0
4.6300001 1.983609 0.70920432 0
4.6300001 1.9759786 0.70920432 0
4.6310005 1.9688251 0.70927656 0
4.6330004 1.9621418 0.7094208 0
4.6350002 1.9554515 0.70956516 0
4.6390004 1.9496955 0.70985377 0
4.6440005 1.9443942 0.7102145 0
4.6490002 1.9390745 0.71057522 0
4.6560001 1.9346678 0.71108031 0
4.6650004 1.9311633 0.71172971 0
4.6780005 1.9294732 0.7126677 0
4.6580005 1.9048765 0.71122468 0
4.6520004 1.8944576 0.71079171 0
4.6480002 1.8849696 0.7105031 0
4.6460004 1.8764014 0.7103588 0
4.6460004 1.8687426 0.7103588 0
4.6460004 1.8610834 0.7103588 0
4.6470003 1.8538719 0.71043098 0
4.6490002 1.8471022 0.71057522 0
4.6510005 1.8403254 0.71071959 0
4.6550002 1.8344249 0.71100819 0
4.6590004 1.8285103 0.7112968 0
4.6640005 1.8230196 0.71165752 0
4.6700001 1.817947 0.71209049 0
4.6770005 1.813288 0.71259558 0
4.6880002 1.810335 0.71338916 0
4.6820002 1.8000137 0.71295631 0
4.6900005 1.7957244 0.71353352 0
4.5780001 2.1621389 0.69791615 0
4.5790005 2.1551294 0.69798648 0
4.5800004 2.1481164 0.69805682 0
4.5810003 2.1410995 0.69812715 0
4.5820003 2.134079 0.69819748 0
4.5830002 2.1270549 0.69826788 0
4.6030002 2.1298635 0.69967484 0
4.6230001 2.1325996 0.70108181 0
4.6350002 2.001286 0.70192599 0
4.6310005 1.9917209 0.70164466 0
4.6300001 1.983609 0.70157421 0
4.6300001 1.9759786 0.70157421 0
4.6310005 1.9688251 0.70164466 0
4.6330004 1.9621418 0.70178533 0
4.6350002 1.9554515 0.70192599 0
4.6390004 1.9496955 0.70220745 0
4.6440005 1.9443942 0.70255917 0
4.6490002 1.9390745 0.7029109 0
4.6560001 1.9346678 0.70340335 0
4.6650004 1.9311633 0.70403647 0
4.6780005 1.9294732 0.70495099 0
4.6670003 1.9089997 0.70417714 0
4.6550002 1.8958266 0.70333296 0
4.6500001 1.8858786 0.70298123 0
4.6480002 1.8773069 0.70284057 0
4.6470003 1.8691933 0.70277023 0
4.6460004 1.8610834 0.70269984 0
4.6470003 1.8538719 0.70277023 0
4.6480002 1.8466564 0.70284057 0
4.6500001 1.8398814 0.70298123 0
4.6530004 1.8335413 0.70319223 0
4.6570001 1.8276299 0.70347369 0
4.6610003 1.8217046 0.70375502 0
4.6670003 1.8166375 0.70417714 0
4.6740003 1.8119838 0.70466959 0
4.6680002 1.8016769 0.70424747 0
4.6730003 1.7961338 0.70459926 0
4.6780005 1.7905726 0.70495099 0
4.6850004 1.7858485 0.70544338 0
4.5780001 2.1621389 0.6903798 0
4.5790005 2.1551294 0.6904484 0
4.5800004 2.1481164 0.69051695 0
4.5810003 2.1410995 0.69058549 0
4.5820003 2.134079 0.69065398 0
4.5830002 2.1270549 0.69072258 0
4.6030002 2.1298635 0.69209343 0
4.6230001 2.1325996 0.69346428 0
4.6350002 2.001286 0.69428688 0
4.6310005 1.9917209 0.6940127 0
4.6300001 1.983609 0.69394416 0
4.6300001 1.9759786 0.69394416 0
4.6310005 1.9688251 0.6940127 0
4.6330004 1.9621418 0.69414973 0
4.6350002 1.9554515 0.69428688 0
4.6390004 1.9496955 0.69456106 0
4.6440005 1.9443942 0.69490379 0
4.6490002 1.9390745 0.69524646 0
4.6560001 1.9346678 0.69572628 0
4.6650004 1.9311633 0.69634318 0
4.6780005 1.9294732 0.69723427 0
4.6610003 1.8985648 0.696069 0
4.6540003 1.8876969 0.69558918 0
4.6500001 1.8782123 0.695315 0
4.6480002 1.8696443 0.69517797 0
4.6470003 1.8615326 0.69510937 0
4.6470003 1.8538719 0.69510937 0
4.6480002 1.8466564 0.69517797 0
4.6490002 1.8394377 0.69524646 0
4.6520004 1.8330992 0.69545215 0
4.6550002 1.8267497 0.69565773 0
4.6590004 1.8208281 0.69593191 0
4.6650004 1.8157648 0.69634318 0
4.6600003 1.8058977 0.69600046 0
4.6630001 1.7995121 0.69620609 0
4.6670003 1.793547 0.69648027 0
4.6710005 1.7875676 0.69675452 0
4.6760001 1.7820008 0.69709718 0
4.6810002 1.7764163 0.69743991 0
4.6880002 1.7716615 0.69791973 0
4.5780001 2.1621389 0.68284351 0
4.5790005 2.1551294 0.68291026 0
4.5800004 2.1481164 0.68297696 0
4.5810003 2.1410995 0.68304372 0
4.5820003 2.134079 0.68311048 0
4.5830002 2.1270549 0.68317723 0
4.6030002 2.1298635 0.68451202 0
4.6230001 2.1325996 0.68584687 0
4.6350002 2.001286 0.68664777 0
4.6310005 1.9917209 0.6863808 0
4.6300001 1.983609 0.68631399 0
4.6300001 1.9759786 0.68631399 0
4.6310005 1.9688251 0.6863808 0
4.6330004 1.9621418 0.68651426 0
4.6350002 1.9554515 0.68664777 0
4.6390004 1.9496955 0.68691468 0
4.6440005 1.9443942 0.68724847 0
4.6490002 1.9390745 0.68758214 0
4.6560001 1.9346678 0.68804932 0
4.6650004 1.9311633 0.68865001 0
4.6780005 1.9294732 0.68951762 0
4.6740003 1.9044975 0.68925059 0
4.6580005 1.8895152 0.68818283 0
4.6530004 1.8795707 0.68784904 0
4.6500001 1.8705461 0.68764883 0
4.6480002 1.8619817 0.68751538 0
4.6470003 1.8538719 0.68744862 0
4.6480002 1.8466564 0.68751538 0
4.6490002 1.8394377 0.68758214 0
4.6520004 1.8330992 0.68778235 0
4.6550002 1.8267497 0.68798256 0
4.6590004 1.8208281 0.68824953 0
4.6550002 1.8113995 0.68798256 0
4.6570001 1.8045936 0.68811607 0
4.6600003 1.7982135 0.68831629 0
4.6630001 1.7918226 0.6885165 0
4.6660004 1.7854209 0.68871671 0
4.6700001 1.7794358 0.68898368 0
4.6740003 1.7734364 0.68925059 0
4.6790004 1.7678465 0.68958437 0
4.6850004 1.7626605 0.6899848 0
4.6920004 1.7578732 0.69045198 0
4.5780001 2.1621389 0.67530715 0
4.5790005 2.1551294 0.67537212 0
4.5800004 2.1481164 0.67543709 0
4.5810003 2.1410995 0.675502 0
4.5820003 2.134079 0.67556691 0
4.5830002 2.1270549 0.67563188 0
4.6030002 2.1298635 0.67693061 0
4.6230001 2.1325996 0.67822933 0
4.6350002 2.001286 0.6790086 0
4.6310005 1.9917209 0.67874885 0
4.6300001 1.983609 0.67868388 0
4.6300001 1.9759786 0.67868388 0
4.6310005 1.9688251 0.67874885 0
4.6330004 1.9621418 0.67887878 0
4.6350002 1.9554515 0.6790086 0
4.6390004 1.9496955 0.67926836 0
4.6440005 1.9443942 0.67959309 0
4.6490002 1.9390745 0.67991769 0
4.6560001 1.9346678 0.6803723 0
4.6650004 1.9311633 0.68095672 0
4.6780005 1.9294732 0.68180096 0
4.6650004 1.892697 0.68095672 0
4.6560001 1.8809289 0.6803723 0
4.6520004 1.8714483 0.68011254 0
4.6490002 1.8624308 0.67991769 0
4.6480002 1.8543191 0.67985284 0
4.6490002 1.8471022 0.67991769 0
4.6500001 1.8398814 0.67998266 0
4.6520004 1.8330992 0.68011254 0
4.6560001 1.8271898 0.6803723 0
4.6520004 1.8177596 0.68011254 0
4.6540003 1.8109628 0.68024242 0
4.6550002 1.8037242 0.68030739 0
4.6580005 1.7973478 0.68050218 0
4.6600003 1.7905294 0.68063205 0
4.6620002 1.7837037 0.68076193 0
4.6650004 1.7772983 0.68095672 0
4.6690001 1.7713078 0.68121648 0
4.6730003 1.765303 0.68147624 0
4.6770005 1.7592839 0.68173599 0
4.6820002 1.7536702 0.68206066 0
4.6880002 1.7484573 0.68245029 0
4.5780001 2.1621389 0.66777086 0
4.5790005 2.1551294 0.66783404 0
4.5800004 2.1481164 0.66789716 0
4.5810003 2.1410995 0.66796029 0
4.5820003 2.134079 0.66802347 0
4.5830002 2.1270549 0.66808653 0
4.6030002 2.1298635 0.66934919 0
4.6230001 2.1325996 0.67061186 0
4.6350002 2.001286 0.67136949 0
4.6310005 1.9917209 0.67111695 0
4.6300001 1.983609 0.67105383 0
4.6300001 1.9759786 0.67105383 0
4.6310005 1.9688251 0.67111695 0
4.6330004 1.9621418 0.67124319 0
4.6350002 1.9554515 0.67136949 0
4.6390004 1.9496955 0.67162204 0
4.6440005 1.9443942 0.6719377 0
4.6490002 1.9390745 0.67225337 0
4.6560001 1.9346678 0.67269528 0
4.6650004 1.9311633 0.67326349 0
4.6780005 1.9294732 0.67408419 0
4.6610003 1.8831927 0.67301095 0
4.6550002 1.8728009 0.67263216 0
4.6520004 1.8637784 0.67244279 0
4.6500001 1.8552138 0.67231643 0
4.6510005 1.8479933 0.67237961 0
4.6520004 1.8407691 0.67244279 0
4.6540003 1.8339832 0.67256904 0
4.6580005 1.8280704 0.67282158 0
4.6520004 1.8177596 0.67244279 0
4.6530004 1.8105264 0.67250586 0
4.6540003 1.8032893 0.67256904 0
4.6560001 1.7964818 0.67269528 0
4.6580005 1.7896672 0.67282158 0
4.6600003 1.7828451 0.67294782 0
4.6620002 1.7760158 0.67307407 0
4.6650004 1.7696053 0.67326349 0
4.6680002 1.7631836 0.67345285 0
4.6710005 1.7567512 0.67364228 0
4.6750002 1.7507282 0.67389482 0
4.6800003 1.7451093 0.67421049 0
4.6850004 1.7394726 0.67452615 0
4.6910005 1.7342324 0.67490494 0
4.5780001 2.1621389 0.66023457 0
4.5790005 2.1551294 0.66029596 0
4.5800004 2.1481164 0.66035724 0
4.5810003 2.1410995 0.66041857 0
4.5820003 2.134079 0.6604799 0
4.5830002 2.1270549 0.66054118 0
4.6030002 2.1298635 0.66176784 0
4.6230001 2.1325996 0.66299438 0
4.6350002 2.001286 0.66373038 0
4.6310005 1.9917209 0.66348505 0
4.6300001 1.983609 0.66342372 0
4.6300001 1.9759786 0.66342372 0
4.6310005 1.9688251 0.66348505 0
4.6330004 1.9621418 0.66360772 0
4.6350002 1.9554515 0.66373038 0
4.6390004 1.9496955 0.66397572 0
4.6440005 1.9443942 0.66428232 0
4.6490002 1.9390745 0.66458893 0
4.6560001 1.9346678 0.66501826 0
4.6650004 1.9311633 0.66557026 0
4.6780005 1.9294732 0.66636753 0
4.6600003 1.8750557 0.66526359 0
4.6560001 1.8655748 0.66501826 0
4.6540003 1.8570033 0.66489565 0
4.6540003 1.8493298 0.66489565 0
4.6550002 1.8421 0.66495693 0
4.6570001 1.8353087 0.66507959 0
4.6520004 1.8254293 0.66477299 0
4.6530004 1.8181978 0.66483426 0
4.6530004 1.8105264 0.66483426 0
4.6540003 1.8032893 0.66489565 0
4.6550002 1.7960489 0.66495693 0
4.6570001 1.7892358 0.66507959 0
4.6580005 1.7819866 0.66514099 0
4.6600003 1.7751609 0.66526359 0
4.6620002 1.768328 0.66538626 0
4.6650004 1.761912 0.66557026 0
4.6670003 1.7550628 0.66569293 0
4.6700001 1.7486267 0.66587687 0
4.6740003 1.7425985 0.6661222 0
4.6780005 1.7365558 0.66636753 0
4.6830001 1.7309134 0.66667414 0
4.6880002 1.7252531 0.66698086 0
4.6950002 1.7203972 0.66741014 0
4.5780001 2.1621389 0.65269828 0
4.5790005 2.1551294 0.65275782 0
4.5800004 2.1481164 0.65281731 0
4.5810003 2.1410995 0.65287685 0
4.5820003 2.134079 0.6529364 0
4.5830002 2.1270549 0.65299588 0
4.6030002 2.1298635 0.65418637 0
4.6230001 2.1325996 0.65537691 0
4.6350002 2.001286 0.65609121 0
4.6310005 1.9917209 0.65585315 0
4.6300001 1.983609 0.65579355 0
4.6300001 1.9759786 0.65579355 0
4.6310005 1.9688251 0.65585315 0
4.6330004 1.9621418 0.65597218 0
4.6350002 1.9554515 0.65609121 0
4.6390004 1.9496955 0.65632933 0
4.6440005 1.9443942 0.65662694 0
4.6490002 1.9390745 0.65692461 0
4.6560001 1.9346678 0.65734124 0
4.6650004 1.9311633 0.65787697 0
4.6780005 1.9294732 0.65865088 0
4.6620002 1.8682698 0.65769839 0
4.6600003 1.8596874 0.65757936 0
4.6590004 1.8515575 0.65751982 0
4.6600003 1.844319 0.65757936 0
4.6620002 1.8375186 0.65769839 0
4.6540003 1.8263097 0.65722221 0
4.6540003 1.8186363 0.65722221 0
4.6540003 1.8109628 0.65722221 0
4.6550002 1.8037242 0.65728176 0
4.6550002 1.7960489 0.65728176 0
4.6560001 1.7888048 0.65734124 0
4.6570001 1.7815571 0.65740079 0
4.6590004 1.7747334 0.65751982 0
4.6600003 1.7674767 0.65757936 0
4.6620002 1.7606401 0.65769839 0
4.6640005 1.7537967 0.65781748 0
4.6670003 1.747366 0.65799606 0
4.6700001 1.7409245 0.65817463 0
4.6730003 1.7344724 0.65835321 0
4.6770005 1.7284243 0.65859133 0
4.6810002 1.7223616 0.65882945 0
4.6860003 1.7166959 0.659127 0
4.6910005 1.7110121 0.65942466 0
4.6980004 1.7061256 0.65984136 0
4.5780001 2.1621389 0.64516193 0
4.5790005 2.1551294 0.64521968 0
4.5800004 2.1481164 0.64527738 0
4.5810003 2.1410995 0.64533514 0
4.5820003 2.134079 0.64539284 0
4.5830002 2.1270549 0.64545059 0
4.6030002 2.1298635 0.64660501 0
4.6230001 2.1325996 0.64775944 0
4.6350002 2.001286 0.6484521 0
4.6310005 1.9917209 0.64822125 0
4.6300001 1.983609 0.6481635 0
4.6300001 1.9759786 0.6481635 0
4.6310005 1.9688251 0.64822125 0
4.6330004 1.9621418 0.64833665 0
4.6350002 1.9554515 0.6484521 0
4.6390004 1.9496955 0.64868301 0
4.6440005 1.9443942 0.64897162 0
4.6490002 1.9390745 0.64926022 0
4.6560001 1.9346678 0.64966428 0
4.6650004 1.9311633 0.6501838 0
4.6780005 1.9294732 0.65093416 0
4.6680002 1.863266 0.65035689 0
4.6670003 1.855122 0.65029919 0
4.6670003 1.847425 0.65029919 0
4.6600003 1.8366346 0.64989513 0
4.6580005 1.8280704 0.64977974 0
4.6570001 1.8199512 0.64972198 0
4.6560001 1.8118359 0.64966428 0
4.6560001 1.8041589 0.64966428 0
4.6560001 1.7964818 0.64966428 0
4.6570001 1.7892358 0.64972198 0
4.6570001 1.7815571 0.64972198 0
4.6580005 1.7743059 0.64977974 0
4.6590004 1.767051 0.64983743 0
4.6610003 1.7602162 0.64995289 0
4.6620002 1.7529523 0.65001059 0
4.6650004 1.7465254 0.6501838 0
4.6670003 1.7396691 0.65029919 0
4.6690001 1.7328056 0.65041465 0
4.6720004 1.7263498 0.6505878 0
4.6760001 1.7202961 0.65081871 0
4.6790004 1.713817 0.65099186 0
4.6830001 1.7077363 0.65122271 0
4.6880002 1.7020489 0.65151137 0
4.6940002 1.6967493 0.65185767 0
4.5780001 2.1621389 0.63762563 0
4.5790005 2.1551294 0.6376816 0
4.5800004 2.1481164 0.63773751 0
4.5810003 2.1410995 0.63779342 0
4.5820003 2.134079 0.63784933 0
4.5830002 2.1270549 0.63790524 0
4.6030002 2.1298635 0.6390236 0
4.6230001 2.1325996 0.64014196 0
4.6350002 2.001286 0.64081299 0
4.6310005 1.9917209 0.6405893 0
4.6300001 1.983609 0.64053339 0
4.6300001 1.9759786 0.64053339 0
4.6310005 1.9688251 0.6405893 0
4.6330004 1.9621418 0.64070117 0
4.6350002 1.9554515 0.64081299 0
4.6390004 1.9496955 0.64103663 0
4.6440005 1.9443942 0.64131624 0
4.6490002 1.9390745 0.64159584 0
4.6560001 1.9346678 0.64198726 0
4.6650004 1.9311633 0.64249051 0
4.6780005 1.9294732 0.64321744 0
4.6660004 1.8392862 0.64254642 0
4.6630001 1.8302708 0.64237869 0
4.6610003 1.8217046 0.64226687 0
4.6600003 1.8135819 0.64221096 0
4.6590004 1.8054631 0.64215499 0
4.6580005 1.7973478 0.64209914 0
4.6580005 1.7896672 0.64209914 0
4.6580005 1.7819866 0.64209914 0
4.6590004 1.7747334 0.64215499 0
4.6590004 1.767051 0.64215499 0
4.6600003 1.7597924 0.64221096 0
4.6620002 1.7529523 0.64232278 0
4.6630001 1.7456847 0.64237869 0
4.6650004 1.7388322 0.64249051 0
4.6670003 1.7319723 0.64260232 0
4.6690001 1.725105 0.6427142 0
4.6720004 1.718644 0.64288193 0
4.6750002 1.7121718 0.64304972 0
4.6780005 1.7056891 0.64321744 0
4.6820002 1.6996028 0.64344114 0
4.6860003 1.6935024 0.64366484 0
4.6910005 1.6877917 0.64394438 0
4.6980004 1.6828673 0.64433581 0
4.5780001 2.1621389 0.63008934 0
4.5790005 2.1551294 0.63014346 0
4.5800004 2.1481164 0.63019758 0
4.5810003 2.1410995 0.63025171 0
4.5820003 2.134079 0.63030577 0
4.5830002 2.1270549 0.63035989 0
4.6030002 2.1298635 0.63144219 0
4.6230001 2.1325996 0.63252449 0
4.6350002 2.001286 0.63317382 0
4.6310005 1.9917209 0.6329574 0
4.6300001 1.983609 0.63290328 0
4.6300001 1.9759786 0.63290328 0
4.6310005 1.9688251 0.6329574 0
4.6330004 1.9621418 0.63306564 0
4.6350002 1.9554515 0.63317382 0
4.6390004 1.9496955 0.63339031 0
4.6440005 1.9443942 0.63366091 0
4.6490002 1.9390745 0.63393146 0
4.6560001 1.9346678 0.63431025 0
4.6650004 1.9311633 0.63479728 0
4.6780005 1.9294732 0.63550079 0
4.6710005 1.833792 0.63512194 0
4.6670003 1.8243346 0.63490552 0
4.6650004 1.8157648 0.63479728 0
4.6620002 1.806767 0.63463491 0
4.6610003 1.7986463 0.63458079 0
4.6600003 1.7905294 0.63452673 0
4.6600003 1.7828451 0.63452673 0
4.6600003 1.7751609 0.63452673 0
4.6600003 1.7674767 0.63452673 0
4.6610003 1.7602162 0.63458079 0
4.6610003 1.7525302 0.63458079 0
4.6620002 1.7452645 0.63463491 0
4.6640005 1.7384138 0.63474321 0
4.6650004 1.7311389 0.63479728 0
4.6670003 1.7242755 0.63490552 0
4.6690001 1.7174047 0.6350137 0
4.6710005 1.7105268 0.63512194 0
4.6740003 1.7040511 0.6352843 0
4.6770005 1.6975647 0.63544667 0
4.6810002 1.6914731 0.63566309 0
4.6850004 1.6853673 0.63587958 0
4.6890001 1.6792469 0.636096 0
4.6940002 1.6735126 0.63636661 0
4.7010002 1.6685575 0.63674539 0
4.7010002 1.6607994 0.63674539 0
4.5780001 2.1621389 0.62255299 0
4.5790005 2.1551294 0.62260532 0
4.5800004 2.1481164 0.62265766 0
4.5810003 2.1410995 0.62270999 0
4.5820003 2.134079 0.62276226 0
4.5830002 2.1270549 0.62281454 0
4.6030002 2.1298635 0.62386078 0
4.6230001 2.1325996 0.62490702 0
4.6350002 2.001286 0.62553471 0
4.6310005 1.9917209 0.6253255 0
4.6300001 1.983609 0.62527317 0
4.6300001 1.9759786 0.62527317 0
4.6310005 1.9688251 0.6253255 0
4.6330004 1.9621418 0.62543011 0
4.6350002 1.9554515 0.62553471 0
4.6390004 1.9496955 0.62574399 0
4.6440005 1.9443942 0.62600553 0
4.6490002 1.9390745 0.62626708 0
4.6560001 1.9346678 0.62663323 0
4.6650004 1.9311633 0.62710404 0
4.6780005 1.9294732 0.62778407 0
4.6720004 1.8188204 0.6274702 0
4.6680002 1.8093754 0.62726098 0
4.6660004 1.8008111 0.62715638 0
4.6640005 1.7922537 0.62705171 0
4.6630001 1.784133 0.62699938 0
4.6620002 1.7760158 0.6269471 0
4.6620002 1.768328 0.6269471 0
4.6620002 1.7606401 0.6269471 0
4.6620002 1.7529523 0.6269471 0
4.6630001 1.7456847 0.62699938 0
4.6630001 1.7379951 0.62699938 0
4.6640005 1.7307223 0.62705171 0
4.6660004 1.7238606 0.62715638 0
4.6670003 1.7165786 0.62720865 0
4.6690001 1.7097043 0.62731326 0
4.6710005 1.7028228 0.62741792 0
4.6740003 1.6963416 0.6275748 0
4.6770005 1.6898499 0.6277318 0
4.6800003 1.683347 0.62788868 0
4.6830001 1.6768334 0.62804562 0
4.6870003 1.6707096 0.62825489 0
4.6860003 1.662578 0.62820256 0
4.6860003 1.6548469 0.62820256 0
4.6870003 1.6475108 0.62825489 0
4.6900005 1.6409576 0.62841177 0
4.6930003 1.6343935 0.62856877 0
4.6990004 1.6289874 0.62888259 0
4.5780001 2.1621389 0.6150167 0
4.5790005 2.1551294 0.61506724 0
4.5800004 2.1481164 0.61511773 0
4.5810003 2.1410995 0.61516821 0
4.5820003 2.134079 0.61521876 0
4.5830002 2.1270549 0.61526924 0
4.6030002 2.1298635 0.61627936 0
4.6230001 2.1325996 0.61728954 0
4.6350002 2.001286 0.6178956 0
4.6310005 1.9917209 0.61769354 0
4.6300001 1.983609 0.61764306 0
4.6300001 1.9759786 0.61764306 0
4.6310005 1.9688251 0.61769354 0
4.6330004 1.9621418 0.61779457 0
4.6350002 1.9554515 0.6178956 0
4.6390004 1.9496955 0.61809766 0
4.6440005 1.9443942 0.61835015 0
4.6490002 1.9390745 0.61860269 0
4.6560001 1.9346678 0.61895621 0
4.6650004 1.9311633 0.61941081 0
4.6780005 1.9294732 0.62006736 0
4.6730003 1.8038414 0.61981487 0
4.6690001 1.7944093 0.61961281 0
4.6670003 1.7858502 0.61951184 0
4.6660004 1.7777259 0.6194613 0
4.6650004 1.7696053 0.61941081 0
4.6640005 1.7614881 0.61936033 0
4.6640005 1.7537967 0.61936033 0
4.6630001 1.7456847 0.61930978 0
4.6640005 1.7384138 0.61936033 0
4.6650004 1.7311389 0.61941081 0
4.6650004 1.7234458 0.61941081 0
4.6670003 1.7165786 0.61951184 0
4.6680002 1.7092929 0.61956233 0
4.6700001 1.7024132 0.6196633 0
4.6720004 1.6955264 0.61976433 0
4.6740003 1.6886321 0.61986536 0
4.6760001 1.6817306 0.61996633 0
4.6790004 1.6752244 0.6201179 0
4.6780005 1.6671056 0.62006736 0
4.6770005 1.6589903 0.62001687 0
4.6770005 1.6512754 0.62001687 0
4.6790004 1.6443505 0.6201179 0
4.6810002 1.6374185 0.62021887 0
4.6850004 1.6312622 0.62042093 0
4.6890001 1.6250912 0.62062293 0
4.6960001 1.6200694 0.62097651 0
4.7030001 1.6150223 0.62133002 0
4.5780001 2.1621389 0.60748041 0
4.5790005 2.1551294 0.6075291 0
4.5800004 2.1481164 0.6075778 0
4.5810003 2.1410995 0.6076265 0
4.5820003 2.134079 0.60767519 0
4.5830002 2.1270549 0.60772389 0
4.6030002 2.1298635 0.60869795 0
4.6230001 2.1325996 0.60967201 0
4.6350002 2.001286 0.61025643 0
4.6310005 1.9917209 0.61006165 0
4.6300001 1.983609 0.61001295 0
4.6300001 1.9759786 0.61001295 0
4.6310005 1.9688251 0.61006165 0
4.6330004 1.9621418 0.61015904 0
4.6350002 1.9554515 0.61025643 0
4.6390004 1.9496955 0.61045128 0
4.6440005 1.9443942 0.61069483 0
4.6490002 1.9390745 0.61093831 0
4.6560001 1.9346678 0.61127925 0
4.6650004 1.9311633 0.61171758 0
4.6780005 1.9294732 0.6123507 0
4.6790004 1.7987205 0.6123994 0
4.6740003 1.7888553 0.61215585 0
4.6710005 1.7798635 0.61200976 0
4.6690001 1.7713078 0.61191237 0
4.6670003 1.7627597 0.61181498 0
4.6660004 1.7546408 0.61176628 0
4.6650004 1.7465254 0.61171758 0
4.6650004 1.7388322 0.61171758 0
4.6650004 1.7311389 0.61171758 0
4.6660004 1.7238606 0.61176628 0
4.6670003 1.7165786 0.61181498 0
4.6670003 1.7088817 0.61181498 0
4.6690001 1.7020037 0.61191237 0
4.6700001 1.694711 0.61196107 0
4.6720004 1.6878206 0.61205846 0
4.6740003 1.6809227 0.61215585 0
4.6730003 1.6728109 0.61210716 0
4.6710005 1.6643026 0.61200976 0
4.6710005 1.6565984 0.61200976 0
4.6710005 1.6488943 0.61200976 0
4.6730003 1.6419803 0.61210716 0
4.6750002 1.635059 0.61220455 0
4.6790004 1.6289136 0.6123994 0
4.6830001 1.6227534 0.61259419 0
4.6890001 1.6173546 0.61288643 0
4.6960001 1.6123202 0.61322731 0
4.7050004 1.6080291 0.6136657 0
4.5780001 2.1621389 0.59994411 0
4.5790005 2.1551294 0.59999096 0
4.5800004 2.1481164 0.60003793 0
4.5810003 2.1410995 0.60008478 0
4.5820003 2.134079 0.60013169 0
4.5830002 2.1270549 0.6001786 0
4.6030002 2.1298635 0.60111654 0
4.6230001 2.1325996 0.60205454 0
4.6350002 2.001286 0.60261732 0
4.6310005 1.9917209 0.60242975 0
4.6300001 1.983609 0.60238284 0
4.6300001 1.9759786 0.60238284 0
4.6310005 1.9688251 0.60242975 0
4.6330004 1.9621418 0.60252357 0
4.6350002 1.9554515 0.60261732 0
4.6390004 1.9496955 0.6028049 0
4.6440005 1.9443942 0.60303944 0
4.6490002 1.9390745 0.60327393 0
4.6560001 1.9346678 0.60360217 0
4.6650004 1.9311633 0.60402429 0
4.6780005 1.9294732 0.60463399 0
4.6790004 1.7832834 0.6046809 0
4.6750002 1.7738621 0.60449326 0
4.6720004 1.7648791 0.60435259 0
4.6700001 1.7563291 0.60425878 0
4.6690001 1.7482065 0.60421193 0
4.6680002 1.7400876 0.60416502 0
4.6670003 1.7319723 0.60411811 0
4.6670003 1.7242755 0.60411811 0
4.6670003 1.7165786 0.60411811 0
4.6680002 1.7092929 0.60416502 0
4.6680002 1.7015942 0.60416502 0
4.6690001 1.6943033 0.60421193 0
4.6710005 1.6874148 0.60430574 0
4.6710005 1.6797106 0.60430574 0
4.6680002 1.6707997 0.60416502 0
4.6660004 1.6623002 0.6040712 0
4.6660004 1.6546052 0.6040712 0
4.6670003 1.6473069 0.60411811 0
4.6690001 1.6404001 0.60421193 0
4.6710005 1.6334862 0.60430574 0
4.6750002 1.6273478 0.60449326 0
4.6790004 1.621195 0.6046809 0
4.6840005 1.6154157 0.60491538 0
4.6900005 1.6100043 0.60519677 0
4.6990004 1.6057237 0.60561889 0
4.7090001 1.6017932 0.60608786 0
4.5780001 2.1621389 0.59240776 0
4.5790005 2.1551294 0.59245288 0
4.5800004 2.1481164 0.59249794 0
4.5810003 2.1410995 0.59254307 0
4.5820003 2.134079 0.59258819 0
4.5830002 2.1270549 0.59263325 0
4.6030002 2.1298635 0.59353518 0
4.6230001 2.1325996 0.59443706 0
4.6350002 2.001286 0.59497821 0
4.6310005 1.9917209 0.59479785 0
4.6300001 1.983609 0.59475273 0
4.6300001 1.9759786 0.59475273 0
4.6310005 1.9688251 0.59479785 0
4.6330004 1.9621418 0.59488803 0
4.6350002 1.9554515 0.59497821 0
4.6390004 1.9496955 0.59515858 0
4.6440005 1.9443942 0.59538406 0
4.6490002 1.9390745 0.59560955 0
4.6560001 1.9346678 0.59592521 0
4.6650004 1.9311633 0.59633106 0
4.6780005 1.9294732 0.59691733 0
4.6800003 1.7682704 0.59700751 0
4.6760001 1.7588615 0.59682709 0
4.6740003 1.750308 0.59673691 0
4.6720004 1.7417616 0.59664673 0
4.6710005 1.733639 0.59660167 0
4.6700001 1.7255199 0.59655654 0
4.6690001 1.7174047 0.59651142 0
4.6690001 1.7097043 0.59651142 0
4.6690001 1.7020037 0.59651142 0
4.6700001 1.694711 0.59655654 0
4.6700001 1.6870086 0.59655654 0
4.6670003 1.6780944 0.59642124 0
4.6640005 1.6691908 0.596286 0
4.6630001 1.6610987 0.59624088 0
4.6630001 1.6534091 0.59624088 0
4.6640005 1.6461165 0.596286 0
4.6660004 1.6392151 0.59637618 0
4.6680002 1.6323065 0.59646636 0
4.6720004 1.6261735 0.59664673 0
4.6760001 1.6200261 0.59682709 0
4.6810002 1.6142521 0.59705257 0
4.6870003 1.6088461 0.59732318 0
4.6940002 1.6038027 0.59763885 0
4.7040005 1.5998813 0.59808981 0
4.5780001 2.1621389 0.58487147 0
4.5790005 2.1551294 0.58491474 0
4.5800004 2.1481164 0.58495808 0
4.5810003 2.1410995 0.58500135 0
4.5820003 2.134079 0.58504462 0
4.5830002 2.1270549 0.5850879 0
4.6030002 2.1298635 0.58595377 0
4.6230001 2.1325996 0.58681959 0
4.6350002 2.001286 0.58733904 0
4.6310005 1.9917209 0.58716595 0
4.6300001 1.983609 0.58712262 0
4.6300001 1.9759786 0.58712262 0
4.6310005 1.9688251 0.58716595 0
4.6330004 1.9621418 0.5872525 0
4.6350002 1.9554515 0.58733904 0
4.6390004 1.9496955 0.58751225 0
4.6440005 1.9443942 0.58772874 0
4.6490002 1.9390745 0.58794516 0
4.6560001 1.9346678 0.58824819 0
4.6650004 1.9311633 0.58863783 0
4.6780005 1.9294732 0.58920062 0
4.6810002 1.75325 0.58933049 0
4.6770005 1.743854 0.58915734 0
4.6750002 1.7353057 0.58907074 0
4.6730003 1.7267647 0.58898413 0
4.6720004 1.718644 0.58894086 0
4.6710005 1.7105268 0.58889759 0
4.6710005 1.7028228 0.58889759 0
4.6710005 1.6951188 0.58889759 0
4.6690001 1.6866028 0.58881098 0
4.6650004 1.6772864 0.58863783 0
4.6620002 1.6683862 0.58850795 0
4.6610003 1.6602979 0.58846468 0
4.6610003 1.6526119 0.58846468 0
4.6620002 1.6453227 0.58850795 0
4.6640005 1.6384251 0.58859456 0
4.6670003 1.6319133 0.58872437 0
4.6700001 1.6253905 0.58885425 0
4.6740003 1.6192468 0.58902746 0
4.6790004 1.6134765 0.58924389 0
4.6850004 1.6080741 0.58950365 0
4.6920004 1.6030343 0.58980668 0
4.7010002 1.5987339 0.59019631 0
4.7120004 1.5951624 0.59067249 0
4.5780001 2.1621389 0.57733518 0
4.5790005 2.1551294 0.57737666 0
4.5800004 2.1481164 0.57741815 0
4.5810003 2.1410995 0.57745963 0
4.5820003 2.134079 0.57750112 0
4.5830002 2.1270549 0.5775426 0
4.6030002 2.1298635 0.57837236 0
4.6230001 2.1325996 0.57920206 0
4.6350002 2.001286 0.57969999 0
4.6310005 1.9917209 0.57953399 0
4.6300001 1.983609 0.57949251 0
4.6300001 1.9759786 0.57949251 0
4.6310005 1.9688251 0.57953399 0
4.6330004 1.9621418 0.57961702 0
4.6350002 1.9554515 0.57969999 0
4.6390004 1.9496955 0.57986593 0
4.6440005 1.9443942 0.58007336 0
4.6490002 1.9390745 0.58028078 0
4.6560001 1.9346678 0.58057117 0
4.6650004 1.9311633 0.5809446 0
4.6780005 1.9294732 0.5814839 0
4.6820002 1.7382225 0.5816499 0
4.6790004 1.7292539 0.58152544 0
4.6770005 1.7207094 0.58144248 0
4.6750002 1.7121718 0.58135945 0
4.6740003 1.7040511 0.58131796 0
4.6730003 1.6959341 0.58127648 0
4.6670003 1.6857913 0.58102757 0
4.6630001 1.676478 0.58086157 0
4.6610003 1.667984 0.5807786 0
4.6600003 1.6598974 0.58073711 0
4.6600003 1.6522132 0.58073711 0
4.6610003 1.644926 0.5807786 0
4.6630001 1.6380298 0.58086157 0
4.6660004 1.63152 0.58098608 0
4.6690001 1.6249992 0.58111054 0
4.6730003 1.6188574 0.58127648 0
4.6780005 1.6130887 0.5814839 0
4.6840005 1.6076881 0.58173287 0
4.6900005 1.602266 0.58198178 0
4.6990004 1.5979692 0.58235514 0
4.7100005 1.5944014 0.58281153 0
4.9300003 1.6454489 0.59193879 0
4.9380002 1.6402503 0.59227067 0
4.5780001 2.1621389 0.56979883 0
