# .PCD v0.7 - Point Cloud Data file format
VERSION 0.7
FIELDS x y z intensity
SIZE 4 4 4 4
TYPE F F F F
COUNT 1 1 1 1
WIDTH 942
HEIGHT 1
VIEWPOINT 0 0 0 1 0 0 0
POINTS 942
DATA ascii
4.2850003 -0.76079512 0.29888308 0
4.277 -0.76631653 0.29909956 0
4.2690001 -0.7718091 0.29931599 0
4.2610002 -0.77727288 0.29953247 0
4.2520003 -0.78251654 0.29977596 0
4.244 -0.78792077 0.29999244 0
4.2360001 -0.7932961 0.30020887 0
4.2280002 -0.79864258 0.30042535 0
4.2210002 -0.80415863 0.30061474 0
4.2130003 -0.8094492 0.3008312 0
4.2049999 -0.81471092 0.30104765 0
4.197 -0.81994373 0.30126411 0
4.1890001 -0.82514781 0.30148059 0
4.1810002 -0.83032286 0.30169702 0
4.1740003 -0.8356784 0.30188644 0
4.1660004 -0.8407976 0.30210286 0
4.158 -0.84588796 0.30231935 0
4.1500001 -0.85094947 0.3025358 0
4.335 -0.72740656 0.29043224 0
4.3260002 -0.73292989 0.290692 0
4.3180003 -0.73859745 0.29092288 0
4.3099999 -0.74423611 0.29115379 0
4.3010001 -0.74966562 0.29141352 0
4.2930002 -0.75524479 0.29164439 0
4.2850003 -0.76079512 0.2918753 0
4.277 -0.76631653 0.29210618 0
4.2690001 -0.7718091 0.29233706 0
4.2610002 -0.77727288 0.29256797 0
4.2520003 -0.78251654 0.2928277 0
4.244 -0.78792077 0.2930586 0
4.2360001 -0.7932961 0.29328948 0
4.2280002 -0.79864258 0.29352036 0
4.2210002 -0.80415863 0.29372239 0
4.2130003 -0.8094492 0.29395327 0
4.2049999 -0.81471092 0.29418418 0
4.197 -0.81994373 0.29441506 0
4.1890001 -0.82514781 0.29464594 0
4.1810002 -0.83032286 0.29487681 0
4.1740003 -0.8356784 0.29507887 0
4.1660004 -0.8407976 0.29530975 0
4.158 -0.84588796 0.29554063 0
4.1500001 -0.85094947 0.29577151 0
4.3429999 -0.72167951 0.28308895 0
4.335 -0.72740656 0.28333426 0
4.3260002 -0.73292989 0.28361022 0
4.3180003 -0.73859745 0.28385556 0
4.3099999 -0.74423611 0.28410089 0
4.3010001 -0.74966562 0.28437686 0
4.2930002 -0.75524479 0.28462219 0
4.2850003 -0.76079512 0.2848675 0
4.277 -0.76631653 0.2851128 0
4.2690001 -0.7718091 0.28535813 0
4.2610002 -0.77727288 0.28560343 0
4.2520003 -0.78251654 0.28587943 0
4.244 -0.78792077 0.28612477 0
4.2360001 -0.7932961 0.28637007 0
4.2280002 -0.79864258 0.28661537 0
4.2210002 -0.80415863 0.28683004 0
4.2130003 -0.8094492 0.28707534 0
4.2049999 -0.81471092 0.28732067 0
4.197 -0.81994373 0.28756601 0
4.1890001 -0.82514781 0.28781131 0
4.1810002 -0.83032286 0.28805664 0
4.1740003 -0.8356784 0.28827128 0
4.1660004 -0.8407976 0.28851661 0
4.158 -0.84588796 0.28876191 0
4.1500001 -0.85094947 0.28900725 0
4.1430001 -0.85619855 0.28922188 0
4.3429999 -0.72167951 0.27597654 0
4.335 -0.72740656 0.2762363 0
4.3260002 -0.73292989 0.27652851 0
4.3180003 -0.73859745 0.27678823 0
4.3099999 -0.74423611 0.27704799 0
4.3010001 -0.74966562 0.2773402 0
4.2930002 -0.75524479 0.27759993 0
4.2850003 -0.76079512 0.27785969 0
4.277 -0.76631653 0.27811944 0
4.2690001 -0.7718091 0.2783792 0
4.2610002 -0.77727288 0.27863896 0
4.2520003 -0.78251654 0.27893114 0
4.244 -0.78792077 0.27919093 0
4.2360001 -0.7932961 0.27945065 0
4.2280002 -0.79864258 0.27971041 0
4.2210002 -0.80415863 0.27993768 0
4.2130003 -0.8094492 0.28019744 0
4.2049999 -0.81471092 0.2804572 0
4.197 -0.81994373 0.28071696 0
4.1890001 -0.82514781 0.28097668 0
4.1810002 -0.83032286 0.28123644 0
4.1740003 -0.8356784 0.28146371 0
4.1660004 -0.8407976 0.28172347 0
4.158 -0.84588796 0.2819832 0
4.1500001 -0.85094947 0.28224295 0
4.1430001 -0.85619855 0.28247023 0
4.3429999 -0.72167951 0.26886413 0
4.335 -0.72740656 0.26913828 0
4.3260002 -0.73292989 0.26944673 0
4.3180003 -0.73859745 0.26972091 0
4.3099999 -0.74423611 0.26999509 0
4.3010001 -0.74966562 0.27030355 0
4.2930002 -0.75524479 0.27057773 0
4.2850003 -0.76079512 0.27085191 0
4.277 -0.76631653 0.27112609 0
4.2690001 -0.7718091 0.27140027 0
4.2610002 -0.77727288 0.27167445 0
4.2520003 -0.78251654 0.27198291 0
4.244 -0.78792077 0.27225709 0
4.2360001 -0.7932961 0.27253127 0
4.2280002 -0.79864258 0.27280545 0
4.2210002 -0.80415863 0.27304536 0
4.2130003 -0.8094492 0.27331951 0
4.2049999 -0.81471092 0.27359372 0
4.197 -0.81994373 0.27386788 0
4.1890001 -0.82514781 0.27414206 0
4.1810002 -0.83032286 0.27441624 0
4.1740003 -0.8356784 0.27465615 0
4.1660004 -0.8407976 0.2749303 0
4.158 -0.84588796 0.27520451 0
4.1500001 -0.85094947 0.27547866 0
4.1430001 -0.85619855 0.27571857 0
4.3429999 -0.72167951 0.26175171 0
4.335 -0.72740656 0.26204032 0
4.3260002 -0.73292989 0.26236498 0
4.3180003 -0.73859745 0.26265359 0
4.3099999 -0.74423611 0.26294219 0
4.3010001 -0.74966562 0.26326689 0
4.2930002 -0.75524479 0.26355553 0
4.2850003 -0.76079512 0.26384413 0
4.277 -0.76631653 0.26413274 0
4.2690001 -0.7718091 0.26442134 0
4.2610002 -0.77727288 0.26470995 0
4.2520003 -0.78251654 0.26503462 0
4.244 -0.78792077 0.26532322 0
4.2360001 -0.7932961 0.26561186 0
4.2280002 -0.79864258 0.26590046 0
4.2210002 -0.80415863 0.26615298 0
4.2130003 -0.8094492 0.26644158 0
4.2049999 -0.81471092 0.26673022 0
4.197 -0.81994373 0.26701882 0
4.1890001 -0.82514781 0.2673074 0
4.1810002 -0.83032286 0.26759604 0
4.1740003 -0.8356784 0.26784855 0
4.1660004 -0.8407976 0.26813716 0
4.158 -0.84588796 0.26842579 0
4.1500001 -0.85094947 0.26871437 0
4.1430001 -0.85619855 0.26896691 0
4.3429999 -0.72167951 0.25463927 0
4.335 -0.72740656 0.25494233 0
4.3260002 -0.73292989 0.25528324 0
4.3180003 -0.73859745 0.25558627 0
4.3099999 -0.74423611 0.25588933 0
4.3010001 -0.74966562 0.25623024 0
4.2930002 -0.75524479 0.25653327 0
4.2850003 -0.76079512 0.2568363 0
4.277 -0.76631653 0.25713938 0
4.2690001 -0.7718091 0.25744241 0
4.2610002 -0.77727288 0.25774544 0
4.2520003 -0.78251654 0.25808635 0
4.244 -0.78792077 0.25838941 0
4.2360001 -0.7932961 0.25869244 0
4.2280002 -0.79864258 0.25899547 0
4.2210002 -0.80415863 0.25926065 0
4.2130003 -0.8094492 0.25956368 0
4.2049999 -0.81471092 0.25986671 0
4.197 -0.81994373 0.26016974 0
4.1890001 -0.82514781 0.26047277 0
4.1810002 -0.83032286 0.26077583 0
4.1740003 -0.8356784 0.26104099 0
4.1660004 -0.8407976 0.26134402 0
4.158 -0.84588796 0.26164711 0
4.1500001 -0.85094947 0.26195011 0
4.1430001 -0.85619855 0.26221526 0
4.3429999 -0.72167951 0.24752687 0
4.335 -0.72740656 0.24784432 0
4.3260002 -0.73292989 0.24820149 0
4.3180003 -0.73859745 0.24851896 0
4.3099999 -0.74423611 0.24883643 0
4.3010001 -0.74966562 0.24919358 0
4.2930002 -0.75524479 0.24951105 0
4.2850003 -0.76079512 0.24982853 0
4.277 -0.76631653 0.250146 0
4.2690001 -0.7718091 0.25046349 0
4.2610002 -0.77727288 0.25078094 0
4.2520003 -0.78251654 0.25113809 0
4.244 -0.78792077 0.25145555 0
4.2360001 -0.7932961 0.25177303 0
4.2280002 -0.79864258 0.25209051 0
4.2210002 -0.80415863 0.25236827 0
4.2130003 -0.8094492 0.25268576 0
4.2049999 -0.81471092 0.25300324 0
4.197 -0.81994373 0.25332069 0
4.1890001 -0.82514781 0.25363815 0
4.1810002 -0.83032286 0.25395563 0
4.1740003 -0.8356784 0.25423342 0
4.1660004 -0.8407976 0.25455087 0
4.158 -0.84588796 0.25486839 0
4.1500001 -0.85094947 0.25518584 0
4.1430001 -0.85619855 0.2554636 0
4.3429999 -0.72167951 0.24041446 0
4.335 -0.72740656 0.24074635 0
4.3260002 -0.73292989 0.24111974 0
4.3180003 -0.73859745 0.24145164 0
4.3099999 -0.74423611 0.24178354 0
4.3010001 -0.74966562 0.24215692 0
4.2930002 -0.75524479 0.24248883 0
4.2850003 -0.76079512 0.24282072 0
4.277 -0.76631653 0.24315263 0
4.2690001 -0.7718091 0.24348453 0
4.2610002 -0.77727288 0.24381642 0
4.2520003 -0.78251654 0.24418981 0
4.244 -0.78792077 0.24452172 0
4.2360001 -0.7932961 0.24485362 0
4.2280002 -0.79864258 0.24518554 0
4.2210002 -0.80415863 0.24547593 0
4.2130003 -0.8094492 0.24580784 0
4.2049999 -0.81471092 0.24613975 0
4.197 -0.81994373 0.24647164 0
4.1890001 -0.82514781 0.24680354 0
4.1810002 -0.83032286 0.24713543 0
4.1740003 -0.8356784 0.24742585 0
4.1660004 -0.8407976 0.24775775 0
4.158 -0.84588796 0.24808966 0
4.1500001 -0.85094947 0.24842155 0
4.1430001 -0.85619855 0.24871197 0
4.3429999 -0.72167951 0.23330204 0
4.335 -0.72740656 0.23364837 0
4.3260002 -0.73292989 0.234038 0
4.3180003 -0.73859745 0.23438431 0
4.3099999 -0.74423611 0.23473065 0
4.3010001 -0.74966562 0.23512027 0
4.2930002 -0.75524479 0.2354666 0
4.2850003 -0.76079512 0.23581293 0
4.277 -0.76631653 0.23615927 0
4.2690001 -0.7718091 0.2365056 0
4.2610002 -0.77727288 0.23685192 0
4.2520003 -0.78251654 0.23724155 0
4.244 -0.78792077 0.23758788 0
4.2360001 -0.7932961 0.23793422 0
4.2280002 -0.79864258 0.23828055 0
4.2210002 -0.80415863 0.23858359 0
4.2130003 -0.8094492 0.23892991 0
4.2049999 -0.81471092 0.23927626 0
4.197 -0.81994373 0.23962258 0
4.1890001 -0.82514781 0.23996891 0
4.1810002 -0.83032286 0.24031524 0
4.1740003 -0.8356784 0.24061827 0
4.1660004 -0.8407976 0.24096461 0
4.158 -0.84588796 0.24131095 0
4.1500001 -0.85094947 0.24165727 0
4.1430001 -0.85619855 0.2419603 0
4.3429999 -0.72167951 0.22618961 0
4.335 -0.72740656 0.22655037 0
4.3260002 -0.73292989 0.22695625 0
4.3180003 -0.73859745 0.22731699 0
4.3099999 -0.74423611 0.22767776 0
4.3010001 -0.74966562 0.22808361 0
4.2930002 -0.75524479 0.22844438 0
4.2850003 -0.76079512 0.22880514 0
4.277 -0.76631653 0.2291659 0
4.2690001 -0.7718091 0.22952665 0
4.2610002 -0.77727288 0.22988741 0
4.2520003 -0.78251654 0.23029329 0
4.244 -0.78792077 0.23065405 0
4.2360001 -0.7932961 0.2310148 0
4.2280002 -0.79864258 0.23137556 0
4.2210002 -0.80415863 0.23169124 0
4.2130003 -0.8094492 0.232052 0
4.2049999 -0.81471092 0.23241277 0
4.197 -0.81994373 0.23277353 0
4.1890001 -0.82514781 0.23313427 0
4.1810002 -0.83032286 0.23349504 0
4.1740003 -0.8356784 0.23381071 0
4.1660004 -0.8407976 0.23417147 0
4.158 -0.84588796 0.23453224 0
4.1500001 -0.85094947 0.23489298 0
4.1430001 -0.85619855 0.23520866 0
4.3429999 -0.72167951 0.2190772 0
4.335 -0.72740656 0.2194524 0
4.3260002 -0.73292989 0.21987449 0
4.3180003 -0.73859745 0.22024968 0
4.3099999 -0.74423611 0.22062486 0
4.3010001 -0.74966562 0.22104695 0
4.2930002 -0.75524479 0.22142215 0
4.2850003 -0.76079512 0.22179733 0
4.277 -0.76631653 0.22217254 0
4.2690001 -0.7718091 0.22254774 0
4.2610002 -0.77727288 0.22292291 0
4.2520003 -0.78251654 0.22334501 0
4.244 -0.78792077 0.22372021 0
4.2360001 -0.7932961 0.22409539 0
4.2280002 -0.79864258 0.2244706 0
4.2210002 -0.80415863 0.22479889 0
4.2130003 -0.8094492 0.22517407 0
4.2049999 -0.81471092 0.22554928 0
4.197 -0.81994373 0.22592445 0
4.1890001 -0.82514781 0.22629964 0
4.1810002 -0.83032286 0.22667485 0
4.1740003 -0.8356784 0.22700313 0
4.1660004 -0.8407976 0.22737832 0
4.158 -0.84588796 0.22775352 0
4.1500001 -0.85094947 0.2281287 0
4.1430001 -0.85619855 0.228457 0
4.3429999 -0.72167951 0.2119648 0
4.335 -0.72740656 0.21235441 0
4.3260002 -0.73292989 0.21279272 0
4.3180003 -0.73859745 0.21318236 0
4.3099999 -0.74423611 0.213572 0
4.3010001 -0.74966562 0.21401031 0
4.2930002 -0.75524479 0.21439993 0
4.2850003 -0.76079512 0.21478955 0
4.277 -0.76631653 0.21517918 0
4.2690001 -0.7718091 0.2155688 0
4.2610002 -0.77727288 0.21595842 0
4.2520003 -0.78251654 0.21639675 0
4.244 -0.78792077 0.21678637 0
4.2360001 -0.7932961 0.21717599 0
4.2280002 -0.79864258 0.21756561 0
4.2210002 -0.80415863 0.21790653 0
4.2130003 -0.8094492 0.21829616 0
4.2049999 -0.81471092 0.21868578 0
4.197 -0.81994373 0.2190754 0
4.1890001 -0.82514781 0.21946502 0
4.1810002 -0.83032286 0.21985464 0
4.1740003 -0.8356784 0.22019556 0
4.1660004 -0.8407976 0.22058518 0
4.158 -0.84588796 0.22097482 0
4.1500001 -0.85094947 0.22136442 0
4.1430001 -0.85619855 0.22170535 0
4.3429999 -0.72167951 0.20485239 0
4.335 -0.72740656 0.20525642 0
4.3260002 -0.73292989 0.20571099 0
4.3180003 -0.73859745 0.20611502 0
4.3099999 -0.74423611 0.2065191 0
4.3010001 -0.74966562 0.20697366 0
4.2930002 -0.75524479 0.2073777 0
4.2850003 -0.76079512 0.20778175 0
4.277 -0.76631653 0.20818582 0
4.2690001 -0.7718091 0.20858985 0
4.2610002 -0.77727288 0.20899391 0
4.2520003 -0.78251654 0.20944847 0
4.244 -0.78792077 0.20985253 0
4.2360001 -0.7932961 0.21025658 0
4.2280002 -0.79864258 0.21066064 0
4.2210002 -0.80415863 0.21101418 0
4.2130003 -0.8094492 0.21141823 0
4.2049999 -0.81471092 0.21182229 0
4.197 -0.81994373 0.21222635 0
4.1890001 -0.82514781 0.21263038 0
4.1810002 -0.83032286 0.21303445 0
4.1740003 -0.8356784 0.213388 0
4.1660004 -0.8407976 0.21379204 0
4.158 -0.84588796 0.2141961 0
4.1500001 -0.85094947 0.21460015 0
4.1430001 -0.85619855 0.21495369 0
4.3429999 -0.72167951 0.19773996 0
4.335 -0.72740656 0.19815844 0
4.3260002 -0.73292989 0.19862923 0
4.3180003 -0.73859745 0.19904771 0
4.3099999 -0.74423611 0.19946621 0
4.3010001 -0.74966562 0.19993699 0
4.2930002 -0.75524479 0.20035549 0
4.2850003 -0.76079512 0.20077395 0
4.277 -0.76631653 0.20119244 0
4.2690001 -0.7718091 0.20161092 0
4.2610002 -0.77727288 0.20202941 0
4.2520003 -0.78251654 0.20250019 0
4.244 -0.78792077 0.20291869 0
4.2360001 -0.7932961 0.20333718 0
4.2280002 -0.79864258 0.20375566 0
4.2210002 -0.80415863 0.20412183 0
4.2130003 -0.8094492 0.20454031 0
4.2049999 -0.81471092 0.2049588 0
4.197 -0.81994373 0.20537728 0
4.1890001 -0.82514781 0.20579576 0
4.1810002 -0.83032286 0.20621425 0
4.1740003 -0.8356784 0.20658042 0
4.1660004 -0.8407976 0.2069989 0
4.158 -0.84588796 0.20741738 0
4.1500001 -0.85094947 0.20783587 0
4.1430001 -0.85619855 0.20820205 0
4.3429999 -0.72167951 0.19062755 0
4.335 -0.72740656 0.19106045 0
4.3260002 -0.73292989 0.19154748 0
4.3180003 -0.73859745 0.19198039 0
4.3099999 -0.74423611 0.19241332 0
4.3010001 -0.74966562 0.19290033 0
4.2930002 -0.75524479 0.19333325 0
4.2850003 -0.76079512 0.19376616 0
4.277 -0.76631653 0.19419909 0
4.2690001 -0.7718091 0.19463199 0
4.2610002 -0.77727288 0.1950649 0
4.2520003 -0.78251654 0.19555193 0
4.244 -0.78792077 0.19598486 0
4.2360001 -0.7932961 0.19641775 0
4.2280002 -0.79864258 0.19685067 0
4.2210002 -0.80415863 0.19722947 0
4.2130003 -0.8094492 0.19766238 0
4.2049999 -0.81471092 0.19809531 0
4.197 -0.81994373 0.19852822 0
4.1890001 -0.82514781 0.19896114 0
4.1810002 -0.83032286 0.19939405 0
4.1740003 -0.8356784 0.19977285 0
4.1660004 -0.8407976 0.20020574 0
4.158 -0.84588796 0.20063867 0
4.1500001 -0.85094947 0.20107159 0
4.1430001 -0.85619855 0.20145038 0
4.3429999 -0.72167951 0.18351513 0
4.335 -0.72740656 0.18396246 0
4.3260002 -0.73292989 0.18446574 0
4.3180003 -0.73859745 0.18491307 0
4.3099999 -0.74423611 0.18536043 0
4.3010001 -0.74966562 0.18586367 0
4.2930002 -0.75524479 0.18631102 0
4.2850003 -0.76079512 0.18675837 0
4.277 -0.76631653 0.18720572 0
4.2690001 -0.7718091 0.18765306 0
4.2610002 -0.77727288 0.1881004 0
4.2520003 -0.78251654 0.18860365 0
4.244 -0.78792077 0.18905102 0
4.2360001 -0.7932961 0.18949835 0
4.2280002 -0.79864258 0.18994571 0
4.2210002 -0.80415863 0.19033712 0
4.2130003 -0.8094492 0.19078447 0
4.2049999 -0.81471092 0.19123182 0
4.197 -0.81994373 0.19167915 0
4.1890001 -0.82514781 0.1921265 0
4.1810002 -0.83032286 0.19257385 0
4.1740003 -0.8356784 0.19296528 0
4.1660004 -0.8407976 0.19341262 0
4.158 -0.84588796 0.19385996 0
4.1500001 -0.85094947 0.1943073 0
4.1430001 -0.85619855 0.19469874 0
4.3429999 -0.72167951 0.17640272 0
4.335 -0.72740656 0.17686448 0
4.3260002 -0.73292989 0.17738399 0
4.3180003 -0.73859745 0.17784575 0
4.3099999 -0.74423611 0.17830753 0
4.3010001 -0.74966562 0.17882702 0
4.2930002 -0.75524479 0.1792888 0
4.2850003 -0.76079512 0.17975058 0
4.277 -0.76631653 0.18021235 0
4.2690001 -0.7718091 0.18067412 0
4.2610002 -0.77727288 0.18113589 0
4.2520003 -0.78251654 0.18165539 0
4.244 -0.78792077 0.18211718 0
4.2360001 -0.7932961 0.18257895 0
4.2280002 -0.79864258 0.18304072 0
4.2210002 -0.80415863 0.18344478 0
4.2130003 -0.8094492 0.18390654 0
4.2049999 -0.81471092 0.18436833 0
4.197 -0.81994373 0.1848301 0
4.1890001 -0.82514781 0.18529187 0
4.1810002 -0.83032286 0.18575364 0
4.1740003 -0.8356784 0.1861577 0
4.1660004 -0.8407976 0.18661948 0
4.158 -0.84588796 0.18708125 0
4.1500001 -0.85094947 0.18754302 0
4.1430001 -0.85619855 0.18794708 0
4.3429999 -0.72167951 0.16929029 0
4.335 -0.72740656 0.16976649 0
4.3260002 -0.73292989 0.17030224 0
4.3180003 -0.73859745 0.17077844 0
4.3099999 -0.74423611 0.17125465 0
4.3010001 -0.74966562 0.17179038 0
4.2930002 -0.75524479 0.17226657 0
4.2850003 -0.76079512 0.17274278 0
4.277 -0.76631653 0.173219 0
4.2690001 -0.7718091 0.17369518 0
4.2610002 -0.77727288 0.17417139 0
4.2520003 -0.78251654 0.17470713 0
4.244 -0.78792077 0.17518334 0
4.2360001 -0.7932961 0.17565954 0
4.2280002 -0.79864258 0.17613575 0
4.2210002 -0.80415863 0.17655243 0
4.2130003 -0.8094492 0.17702863 0
4.2049999 -0.81471092 0.17750484 0
4.197 -0.81994373 0.17798105 0
4.1890001 -0.82514781 0.17845723 0
4.1810002 -0.83032286 0.17893346 0
4.1740003 -0.8356784 0.17935012 0
4.1660004 -0.8407976 0.17982633 0
4.158 -0.84588796 0.18030253 0
4.1500001 -0.85094947 0.18077874 0
4.1430001 -0.85619855 0.18119541 0
4.3429999 -0.72167951 0.16217789 0
4.335 -0.72740656 0.16266851 0
4.3260002 -0.73292989 0.16322047 0
4.3180003 -0.73859745 0.16371112 0
4.3099999 -0.74423611 0.16420175 0
4.3010001 -0.74966562 0.16475372 0
4.2930002 -0.75524479 0.16524436 0
4.2850003 -0.76079512 0.16573498 0
4.277 -0.76631653 0.16622561 0
4.2690001 -0.7718091 0.16671626 0
4.2610002 -0.77727288 0.16720687 0
4.2520003 -0.78251654 0.16775887 0
4.244 -0.78792077 0.1682495 0
4.2360001 -0.7932961 0.16874012 0
4.2280002 -0.79864258 0.16923076 0
4.2210002 -0.80415863 0.16966008 0
4.2130003 -0.8094492 0.1701507 0
4.2049999 -0.81471092 0.17064136 0
4.197 -0.81994373 0.17113198 0
4.1890001 -0.82514781 0.17162262 0
4.1810002 -0.83032286 0.17211325 0
4.1740003 -0.8356784 0.17254256 0
4.1660004 -0.8407976 0.17303319 0
4.158 -0.84588796 0.17352383 0
4.1500001 -0.85094947 0.17401446 0
4.1430001 -0.85619855 0.17444377 0
4.3429999 -0.72167951 0.15506546 0
4.335 -0.72740656 0.15557052 0
4.3260002 -0.73292989 0.15613873 0
4.3180003 -0.73859745 0.15664379 0
4.3099999 -0.74423611 0.15714885 0
4.3010001 -0.74966562 0.15771706 0
4.2930002 -0.75524479 0.15822212 0
4.2850003 -0.76079512 0.15872718 0
4.277 -0.76631653 0.15923226 0
4.2690001 -0.7718091 0.15973732 0
4.2610002 -0.77727288 0.16024238 0
4.2520003 -0.78251654 0.16081059 0
4.244 -0.78792077 0.16131565 0
4.2360001 -0.7932961 0.16182071 0
4.2280002 -0.79864258 0.1623258 0
4.2210002 -0.80415863 0.16276772 0
4.2130003 -0.8094492 0.1632728 0
4.2049999 -0.81471092 0.16377786 0
4.197 -0.81994373 0.16428292 0
4.1890001 -0.82514781 0.16478799 0
4.1810002 -0.83032286 0.16529305 0
4.1740003 -0.8356784 0.16573498 0
4.1660004 -0.8407976 0.16624004 0
4.158 -0.84588796 0.16674513 0
4.1500001 -0.85094947 0.16725017 0
4.1430001 -0.85619855 0.16769212 0
4.3429999 -0.72167951 0.14795306 0
4.335 -0.72740656 0.14847255 0
4.3260002 -0.73292989 0.149057 0
4.3180003 -0.73859745 0.14957649 0
4.3099999 -0.74423611 0.15009597 0
4.3010001 -0.74966562 0.15068039 0
4.2930002 -0.75524479 0.15119988 0
4.2850003 -0.76079512 0.15171939 0
4.277 -0.76631653 0.15223891 0
4.2690001 -0.7718091 0.15275839 0
4.2610002 -0.77727288 0.15327787 0
4.2520003 -0.78251654 0.1538623 0
4.244 -0.78792077 0.15438183 0
4.2360001 -0.7932961 0.15490131 0
4.2280002 -0.79864258 0.15542082 0
4.2210002 -0.80415863 0.15587538 0
4.2130003 -0.8094492 0.15639487 0
4.2049999 -0.81471092 0.15691438 0
4.197 -0.81994373 0.15743387 0
4.1890001 -0.82514781 0.15795335 0
4.1810002 -0.83032286 0.15847287 0
4.1740003 -0.8356784 0.1589274 0
4.1660004 -0.8407976 0.15944691 0
4.158 -0.84588796 0.15996639 0
4.1500001 -0.85094947 0.16048589 0
4.1430001 -0.85619855 0.16094044 0
4.3429999 -0.72167951 0.14084062 0
4.335 -0.72740656 0.14137456 0
4.3260002 -0.73292989 0.14197522 0
4.3180003 -0.73859745 0.14250916 0
4.3099999 -0.74423611 0.1430431 0
4.3010001 -0.74966562 0.14364374 0
4.2930002 -0.75524479 0.14417768 0
4.2850003 -0.76079512 0.14471158 0
4.277 -0.76631653 0.14524552 0
4.2690001 -0.7718091 0.14577946 0
4.2610002 -0.77727288 0.14631337 0
4.2520003 -0.78251654 0.14691406 0
4.244 -0.78792077 0.147448 0
4.2360001 -0.7932961 0.14798191 0
4.2280002 -0.79864258 0.14851585 0
4.2210002 -0.80415863 0.14898303 0
4.2130003 -0.8094492 0.14951694 0
4.2049999 -0.81471092 0.15005088 0
4.197 -0.81994373 0.15058479 0
4.1890001 -0.82514781 0.15111873 0
4.1810002 -0.83032286 0.15165266 0
4.1740003 -0.8356784 0.15211985 0
4.1660004 -0.8407976 0.15265375 0
4.158 -0.84588796 0.15318769 0
4.1500001 -0.85094947 0.1537216 0
4.1430001 -0.85619855 0.1541888 0
4.3429999 -0.72167951 0.13372824 0
4.335 -0.72740656 0.13427657 0
4.3260002 -0.73292989 0.13489348 0
4.3180003 -0.73859745 0.13544184 0
4.3099999 -0.74423611 0.1359902 0
4.3010001 -0.74966562 0.13660708 0
4.2930002 -0.75524479 0.13715544 0
4.2850003 -0.76079512 0.13770381 0
4.277 -0.76631653 0.13825217 0
4.2690001 -0.7718091 0.13880053 0
4.2610002 -0.77727288 0.13934886 0
4.2520003 -0.78251654 0.13996577 0
4.244 -0.78792077 0.14051414 0
4.2360001 -0.7932961 0.1410625 0
4.2280002 -0.79864258 0.14161086 0
4.2210002 -0.80415863 0.14209068 0
4.2130003 -0.8094492 0.14263901 0
4.2049999 -0.81471092 0.1431874 0
4.197 -0.81994373 0.14373574 0
4.1890001 -0.82514781 0.1442841 0
4.1810002 -0.83032286 0.14483246 0
4.1740003 -0.8356784 0.14531228 0
4.1660004 -0.8407976 0.14586061 0
4.158 -0.84588796 0.146409 0
4.1500001 -0.85094947 0.14695734 0
4.1430001 -0.85619855 0.14743716 0
4.3429999 -0.72167951 0.12661579 0
4.335 -0.72740656 0.12717858 0
4.3260002 -0.73292989 0.12781173 0
4.3180003 -0.73859745 0.12837452 0
4.3099999 -0.74423611 0.1289373 0
4.3010001 -0.74966562 0.12957042 0
4.2930002 -0.75524479 0.13013321 0
4.2850003 -0.76079512 0.130696 0
4.277 -0.76631653 0.13125882 0
4.2690001 -0.7718091 0.13182157 0
4.2610002 -0.77727288 0.13238436 0
4.2520003 -0.78251654 0.13301751 0
4.244 -0.78792077 0.1335803 0
4.2360001 -0.7932961 0.13414308 0
4.2280002 -0.79864258 0.13470587 0
4.2210002 -0.80415863 0.13519832 0
4.2130003 -0.8094492 0.13576111 0
4.2049999 -0.81471092 0.1363239 0
4.197 -0.81994373 0.13688669 0
4.1890001 -0.82514781 0.13744947 0
4.1810002 -0.83032286 0.13801226 0
4.1740003 -0.8356784 0.13850471 0
4.1660004 -0.8407976 0.13906747 0
4.158 -0.84588796 0.13963026 0
4.1500001 -0.85094947 0.14019305 0
4.1430001 -0.85619855 0.1406855 0
4.3429999 -0.72167951 0.11950338 0
4.335 -0.72740656 0.12008059 0
4.3260002 -0.73292989 0.12072995 0
4.3180003 -0.73859745 0.12130719 0
4.3099999 -0.74423611 0.12188441 0
4.3010001 -0.74966562 0.12253377 0
4.2930002 -0.75524479 0.12311101 0
4.2850003 -0.76079512 0.12368822 0
4.277 -0.76631653 0.12426543 0
4.2690001 -0.7718091 0.12484264 0
4.2610002 -0.77727288 0.12541986 0
4.2520003 -0.78251654 0.12606922 0
4.244 -0.78792077 0.12664646 0
4.2360001 -0.7932961 0.1272237 0
4.2280002 -0.79864258 0.12780091 0
4.2210002 -0.80415863 0.12830597 0
4.2130003 -0.8094492 0.12888318 0
4.2049999 -0.81471092 0.12946042 0
4.197 -0.81994373 0.13003764 0
4.1890001 -0.82514781 0.13061482 0
4.1810002 -0.83032286 0.13119206 0
4.1740003 -0.8356784 0.13169712 0
4.1660004 -0.8407976 0.13227433 0
4.158 -0.84588796 0.13285157 0
4.1500001 -0.85094947 0.13342875 0
4.1430001 -0.85619855 0.13393384 0
4.3429999 -0.72167951 0.11239097 0
4.335 -0.72740656 0.1129826 0
4.3260002 -0.73292989 0.11364824 0
4.3180003 -0.73859745 0.11423984 0
4.3099999 -0.74423611 0.11483154 0
4.3010001 -0.74966562 0.11549711 0
4.2930002 -0.75524479 0.11608878 0
4.2850003 -0.76079512 0.11668041 0
4.277 -0.76631653 0.11727208 0
4.2690001 -0.7718091 0.11786371 0
4.2610002 -0.77727288 0.11845535 0
4.2520003 -0.78251654 0.11912099 0
4.244 -0.78792077 0.11971262 0
4.2360001 -0.7932961 0.12030429 0
4.2280002 -0.79864258 0.12089592 0
4.2210002 -0.80415863 0.12141362 0
4.2130003 -0.8094492 0.12200525 0
4.2049999 -0.81471092 0.12259692 0
4.197 -0.81994373 0.12318856 0
4.1890001 -0.82514781 0.12378019 0
4.1810002 -0.83032286 0.12437186 0
4.1740003 -0.8356784 0.12488955 0
4.1660004 -0.8407976 0.12548119 0
4.158 -0.84588796 0.12607285 0
4.1500001 -0.85094947 0.12666449 0
4.1430001 -0.85619855 0.12718219 0
4.3429999 -0.72167951 0.10527855 0
4.335 -0.72740656 0.10588464 0
4.3260002 -0.73292989 0.10656649 0
4.3180003 -0.73859745 0.10717252 0
4.3099999 -0.74423611 0.10777864 0
4.3010001 -0.74966562 0.10846046 0
4.2930002 -0.75524479 0.10906655 0
4.2850003 -0.76079512 0.10967261 0
4.277 -0.76631653 0.11027873 0
4.2690001 -0.7718091 0.11088479 0
4.2610002 -0.77727288 0.11149085 0
4.2520003 -0.78251654 0.11217269 0
4.244 -0.78792077 0.11277881 0
4.2360001 -0.7932961 0.11338484 0
4.2280002 -0.79864258 0.11399096 0
4.2210002 -0.80415863 0.11452127 0
4.2130003 -0.8094492 0.11512733 0
4.2049999 -0.81471092 0.11573344 0
4.197 -0.81994373 0.11633947 0
4.1890001 -0.82514781 0.11694556 0
4.1810002 -0.83032286 0.11755165 0
4.1740003 -0.8356784 0.11808199 0
4.1660004 -0.8407976 0.11868805 0
4.158 -0.84588796 0.11929417 0
4.1500001 -0.85094947 0.1199002 0
4.1430001 -0.85619855 0.12043053 0
4.3429999 -0.72167951 0.098166168 0
4.335 -0.72740656 0.098786652 0
4.3260002 -0.73292989 0.099484712 0
4.3180003 -0.73859745 0.10010523 0
4.3099999 -0.74423611 0.10072574 0
4.3010001 -0.74966562 0.1014238 0
4.2930002 -0.75524479 0.10204434 0
4.2850003 -0.76079512 0.10266483 0
4.277 -0.76631653 0.10328534 0
4.2690001 -0.7718091 0.10390586 0
4.2610002 -0.77727288 0.10452634 0
4.2520003 -0.78251654 0.10522443 0
4.244 -0.78792077 0.10584494 0
4.2360001 -0.7932961 0.10646543 0
4.2280002 -0.79864258 0.10708597 0
4.2210002 -0.80415863 0.10762891 0
4.2130003 -0.8094492 0.1082494 0
4.2049999 -0.81471092 0.10886994 0
4.197 -0.81994373 0.10949042 0
4.1890001 -0.82514781 0.11011094 0
4.1810002 -0.83032286 0.11073145 0
4.1740003 -0.8356784 0.11127439 0
4.1660004 -0.8407976 0.11189491 0
4.158 -0.84588796 0.11251542 0
4.1500001 -0.85094947 0.11313593 0
4.1430001 -0.85619855 0.11367887 0
4.3429999 -0.72167951 0.091053724 0
4.335 -0.72740656 0.091688633 0
4.3260002 -0.73292989 0.092402965 0
4.3180003 -0.73859745 0.093037903 0
4.3099999 -0.74423611 0.093672842 0
4.3010001 -0.74966562 0.094387144 0
4.2930002 -0.75524479 0.095022082 0
4.2850003 -0.76079512 0.095657051 0
4.277 -0.76631653 0.096291989 0
4.2690001 -0.7718091 0.096926928 0
4.2610002 -0.77727288 0.097561836 0
4.2520003 -0.78251654 0.098276168 0
4.244 -0.78792077 0.098911107 0
4.2360001 -0.7932961 0.099546045 0
4.2280002 -0.79864258 0.10018098 0
4.2210002 -0.80415863 0.10073656 0
4.2130003 -0.8094492 0.1013715 0
4.2049999 -0.81471092 0.10200647 0
4.197 -0.81994373 0.10264137 0
4.1890001 -0.82514781 0.10327631 0
4.1810002 -0.83032286 0.10391125 0
4.1740003 -0.8356784 0.10446686 0
4.1660004 -0.8407976 0.10510176 0
4.158 -0.84588796 0.10573673 0
4.1500001 -0.85094947 0.10637164 0
4.1430001 -0.85619855 0.10692722 0
4.3429999 -0.72167951 0.083941311 0
4.335 -0.72740656 0.084590673 0
4.3260002 -0.73292989 0.085321218 0
4.3180003 -0.73859745 0.085970581 0
4.3099999 -0.74423611 0.086619973 0
4.3010001 -0.74966562 0.087350488 0
4.2930002 -0.75524479 0.087999851 0
4.2850003 -0.76079512 0.088649243 0
4.277 -0.76631653 0.089298606 0
4.2690001 -0.7718091 0.089947969 0
4.2610002 -0.77727288 0.090597361 0
4.2520003 -0.78251654 0.091327876 0
4.244 -0.78792077 0.091977268 0
4.2360001 -0.7932961 0.092626631 0
4.2280002 -0.79864258 0.093275994 0
4.2210002 -0.80415863 0.093844205 0
4.2130003 -0.8094492 0.094493568 0
4.2049999 -0.81471092 0.095142961 0
4.197 -0.81994373 0.095792323 0
4.1890001 -0.82514781 0.096441686 0
4.1810002 -0.83032286 0.097091079 0
4.1740003 -0.8356784 0.09765926 0
4.1660004 -0.8407976 0.098308623 0
4.158 -0.84588796 0.098958015 0
4.1500001 -0.85094947 0.099607348 0
4.1430001 -0.85619855 0.10017556 0
4.3429999 -0.72167951 0.076828897 0
4.335 -0.72740656 0.077492684 0
4.3260002 -0.73292989 0.078239471 0
4.3180003 -0.73859745 0.078903258 0
4.3099999 -0.74423611 0.079567075 0
4.3010001 -0.74966562 0.080313832 0
4.2930002 -0.75524479 0.080977648 0
4.2850003 -0.76079512 0.081641436 0
4.277 -0.76631653 0.082305253 0
4.2690001 -0.7718091 0.08296904 0
4.2610002 -0.77727288 0.083632827 0
4.2520003 -0.78251654 0.084379613 0
4.244 -0.78792077 0.08504343 0
4.2360001 -0.7932961 0.085707217 0
4.2280002 -0.79864258 0.086371064 0
4.2210002 -0.80415863 0.086951852 0
4.2130003 -0.8094492 0.087615669 0
4.2049999 -0.81471092 0.088279486 0
4.197 -0.81994373 0.088943273 0
4.1890001 -0.82514781 0.08960706 0
4.1810002 -0.83032286 0.090270847 0
4.1740003 -0.8356784 0.090851694 0
4.1660004 -0.8407976 0.091515481 0
4.158 -0.84588796 0.092179298 0
4.1500001 -0.85094947 0.092843086 0
4.1430001 -0.85619855 0.093423933 0
4.3429999 -0.72167951 0.069716483 0
4.335 -0.72740656 0.070394695 0
4.3260002 -0.73292989 0.071157724 0
4.3180003 -0.73859745 0.071835935 0
4.3099999 -0.74423611 0.072514176 0
4.3010001 -0.74966562 0.073277175 0
4.2930002 -0.75524479 0.073955417 0
4.2850003 -0.76079512 0.074633628 0
4.277 -0.76631653 0.075311869 0
4.2690001 -0.7718091 0.075990111 0
4.2610002 -0.77727288 0.076668352 0
4.2520003 -0.78251654 0.077431351 0
4.244 -0.78792077 0.078109592 0
4.2360001 -0.7932961 0.078787833 0
4.2280002 -0.79864258 0.079466075 0
4.2210002 -0.80415863 0.080059499 0
4.2130003 -0.8094492 0.08073774 0
4.2049999 -0.81471092 0.081415981 0
4.197 -0.81994373 0.082094193 0
4.1890001 -0.82514781 0.082772434 0
4.1810002 -0.83032286 0.083450675 0
4.1740003 -0.8356784 0.084044129 0
4.1660004 -0.8407976 0.08472234 0
4.158 -0.84588796 0.085400581 0
4.1500001 -0.85094947 0.086078793 0
4.1430001 -0.85619855 0.086672276 0
4.3429999 -0.72167951 0.06260407 0
4.335 -0.72740656 0.063296735 0
4.3260002 -0.73292989 0.064075977 0
4.3180003 -0.73859745 0.064768612 0
4.3099999 -0.74423611 0.065461278 0
4.3010001 -0.74966562 0.066240519 0
4.2930002 -0.75524479 0.066933185 0
4.2850003 -0.76079512 0.06762585 0
4.277 -0.76631653 0.068318516 0
4.2690001 -0.7718091 0.069011182 0
4.2610002 -0.77727288 0.069703817 0
4.2520003 -0.78251654 0.070483088 0
4.244 -0.78792077 0.071175754 0
4.2360001 -0.7932961 0.07186842 0
4.2280002 -0.79864258 0.072561085 0
4.2210002 -0.80415863 0.073167175 0
4.2130003 -0.8094492 0.073859811 0
4.2049999 -0.81471092 0.074552506 0
4.197 -0.81994373 0.075245142 0
4.1890001 -0.82514781 0.075937808 0
4.1810002 -0.83032286 0.076630473 0
4.1740003 -0.8356784 0.077236533 0
4.1660004 -0.8407976 0.077929199 0
4.158 -0.84588796 0.078621894 0
4.1500001 -0.85094947 0.07931453 0
4.1430001 -0.85619855 0.07992059 0
4.3429999 -0.72167951 0.055491656 0
4.335 -0.72740656 0.056198746 0
4.3260002 -0.73292989 0.0569942 0
4.3180003 -0.73859745 0.05770129 0
4.3099999 -0.74423611 0.05840838 0
4.3010001 -0.74966562 0.059203863 0
4.2930002 -0.75524479 0.059910983 0
4.2850003 -0.76079512 0.060618073 0
4.277 -0.76631653 0.061325163 0
4.2690001 -0.7718091 0.062032253 0
4.2610002 -0.77727288 0.062739342 0
4.2520003 -0.78251654 0.063534796 0
4.244 -0.78792077 0.064241916 0
4.2360001 -0.7932961 0.064949006 0
4.2280002 -0.79864258 0.065656096 0
4.2210002 -0.80415863 0.066274822 0
4.2130003 -0.8094492 0.066981912 0
4.2049999 -0.81471092 0.067689002 0
4.197 -0.81994373 0.068396091 0
4.1890001 -0.82514781 0.069103181 0
4.1810002 -0.83032286 0.069810271 0
4.1740003 -0.8356784 0.070428967 0
4.1660004 -0.8407976 0.071136057 0
4.158 -0.84588796 0.071843147 0
4.1500001 -0.85094947 0.072550237 0
4.1430001 -0.85619855 0.073168963 0
4.3180003 -0.73859745 0.050633967 0
4.3099999 -0.74423611 0.051355511 0
4.3010001 -0.74966562 0.052167207 0
4.2930002 -0.75524479 0.052888751 0
4.2850003 -0.76079512 0.053610265 0
4.277 -0.76631653 0.054331779 0
4.2690001 -0.7718091 0.055053294 0
4.2610002 -0.77727288 0.055774808 0
4.2520003 -0.78251654 0.056586564 0
4.244 -0.78792077 0.057308078 0
4.2360001 -0.7932961 0.058029592 0
4.2280002 -0.79864258 0.058751106 0
4.2210002 -0.80415863 0.059382468 0
4.2130003 -0.8094492 0.060103983 0
4.2049999 -0.81471092 0.060825527 0
4.197 -0.81994373 0.061547041 0
4.1890001 -0.82514781 0.062268525 0
4.1810002 -0.83032286 0.062990069 0
4.1740003 -0.8356784 0.063621402 0
4.1660004 -0.8407976 0.064342916 0
4.158 -0.84588796 0.06506446 0
4.1500001 -0.85094947 0.065785944 0
4.1430001 -0.85619855 0.066417307 0
4.244 -0.78792077 0.05037424 0
4.2360001 -0.7932961 0.051110178 0
4.2280002 -0.79864258 0.051846176 0
4.2210002 -0.80415863 0.052490115 0
4.2130003 -0.8094492 0.053226054 0
4.2049999 -0.81471092 0.053962022 0
4.197 -0.81994373 0.054697961 0
4.1890001 -0.82514781 0.055433899 0
4.1810002 -0.83032286 0.056169868 0
4.1740003 -0.8356784 0.056813806 0
4.1660004 -0.8407976 0.057549775 0
4.158 -0.84588796 0.058285743 0
4.1500001 -0.85094947 0.059021682 0
4.1430001 -0.85619855 0.05966562 0
4.1740003 -0.8356784 0.050006241 0
4.1660004 -0.8407976 0.050756633 0
4.158 -0.84588796 0.051507026 0
4.1500001 -0.85094947 0.052257389 0
4.1430001 -0.85619855 0.052913994 0
