# .PCD v0.7 - Point Cloud Data file format
VERSION 0.7
FIELDS x y z intensity
SIZE 4 4 4 4
TYPE F F F F
COUNT 1 1 1 1
WIDTH 1448
HEIGHT 1
VIEWPOINT 0 0 0 1 0 0 0
POINTS 1448
DATA ascii
4.006 -0.22812691 1.7439338 0
4.0110002 -0.23489299 1.7457917 0
4.0180001 -0.24178536 1.7483928 0
4.026 -0.24875887 1.7513654 0
4.0339999 -0.25576124 1.754338 0
4.0420003 -0.2627925 1.7573107 0
4.0490003 -0.26979128 1.7599119 0
4.0570002 -0.27687842 1.7628845 0
4.0650001 -0.28399444 1.7658572 0
4.073 -0.29113933 1.7688298 0
4.0810003 -0.29831308 1.7718027 0
4.0890002 -0.30551568 1.7747753 0
4.0970001 -0.31274715 1.7777479 0
4.6530004 0.4833402 1.9766773 0
4.6450005 0.47468734 1.9737191 0
4.6370001 0.46606326 1.9707608 0
4.6290002 0.45746815 1.9678025 0
4.6210003 0.44890186 1.9648443 0
4.6140003 0.44047987 1.9622558 0
4.6060004 0.43196952 1.9592977 0
4.5980005 0.42348802 1.9563395 0
4.5910001 0.41514537 1.9537507 0
4.5830002 0.40671977 1.9507927 0
4.5750003 0.39832306 1.9478345 0
4.5680003 0.39005983 1.945246 0
4.5600004 0.38171902 1.9422877 0
4.5530005 0.3735081 1.9396993 0
4.5450001 0.36522317 1.9367409 0
4.5380001 0.35706452 1.9341524 0
4.5310001 0.34893119 1.931564 0
4.5230002 0.34072927 1.9286058 0
4.5160003 0.33264822 1.9260173 0
4.5080004 0.3245022 1.9230592 0
4.5010004 0.31647348 1.9204707 0
4.4940004 0.30846998 1.9178822 0
4.4870005 0.30049172 1.9152938 0
4.4790001 0.29245573 1.9123354 0
4.4720001 0.28452981 1.909747 0
4.4650002 0.27662912 1.9071585 0
4.4580002 0.26875371 1.90457 0
4.4510002 0.26090351 1.9019816 0
4.4430003 0.25300467 1.8990234 0
4.4360003 0.24520677 1.8964349 0
4.4290004 0.23743421 1.8938465 0
4.4220004 0.22968686 1.891258 0
4.4150004 0.22196472 1.8886696 0
4.4080005 0.21426788 1.8860811 0
4.4010005 0.20659631 1.8834926 0
4.3940001 0.19894993 1.8809041 0
4.3870001 0.19132887 1.8783156 0
4.381 0.18379073 1.876097 0
4.3740001 0.17621835 1.8735085 0
4.3670001 0.16867122 1.8709201 0
4.3600001 0.16114934 1.8683316 0
4.3530002 0.15365271 1.865743 0
4.3460002 0.14618133 1.8631545 0
4.3400002 0.13878211 1.860936 0
4.3330002 0.13135944 1.8583474 0
4.3260002 0.12396201 1.855759 0
4.3200002 0.11663134 1.8535403 0
4.3130002 0.10928263 1.8509519 0
4.3060002 0.10195917 1.8483634 0
4.3000002 0.094697028 1.8461447 0
4.2930002 0.087422282 1.8435562 0
4.2860003 0.080172777 1.8409678 0
4.2800002 0.072979182 1.8387491 0
4.2730002 0.06577839 1.8361607 0
4.2670002 0.058629896 1.8339419 0
4.2600002 0.051477794 1.8313535 0
4.2540002 0.044374395 1.8291347 0
4.2480001 0.037292648 1.8269162 0
4.2410002 0.030212697 1.8243277 0
4.2350001 0.023176048 1.822109 0
4.2280002 0.016144797 1.8195205 0
4.2220001 0.0091532432 1.8173019 0
4.2160001 0.0021833256 1.8150831 0
4.2090001 -0.0047757663 1.8124946 0
4.2030001 -0.011700585 1.810276 0
4.197 -0.018603761 1.8080573 0
4.191 -0.02548529 1.8058386 0
4.184 -0.032348778 1.8032502 0
4.178 -0.039185211 1.8010315 0
4.1719999 -0.046 1.7988127 0
4.1660004 -0.052793141 1.7965941 0
4.1600003 -0.059564639 1.7943754 0
4.1530004 -0.06630908 1.791787 0
4.1470003 -0.073035479 1.7895683 0
4.1410003 -0.079740234 1.7873496 0
4.1350002 -0.086423337 1.785131 0
4.1290002 -0.093084805 1.7829121 0
4.1230001 -0.099724621 1.7806937 0
4.1170001 -0.1063428 1.7784749 0
4.1110001 -0.11293933 1.7762562 0
4.105 -0.1195142 1.7740375 0
4.099 -0.12606743 1.7718189 0
4.0929999 -0.13259903 1.7696 0
4.0870004 -0.13910897 1.7673815 0
4.0810003 -0.14559728 1.7651627 0
4.0760002 -0.15209278 1.7633138 0
4.0700002 -0.15853959 1.7610952 0
4.0640001 -0.16496477 1.7588766 0
4.0580001 -0.17136829 1.7566578 0
4.052 -0.17775016 1.7544391 0
4.046 -0.18411039 1.7522205 0
4.0410004 -0.19048865 1.7503716 0
4.0350003 -0.19680738 1.7481529 0
4.0290003 -0.2031045 1.7459342 0
4.0230002 -0.20937994 1.7437154 0
4.0180001 -0.21568064 1.7418666 0
4.0120001 -0.2219146 1.7396479 0
4.006 -0.22812691 1.7374293 0
4.0110002 -0.23489299 1.7392781 0
4.0180001 -0.24178536 1.7418666 0
4.026 -0.24875887 1.7448248 0
4.0339999 -0.25576124 1.7477831 0
4.0420003 -0.2627925 1.7507414 0
4.0490003 -0.26979128 1.7533298 0
4.0570002 -0.27687842 1.7562879 0
4.0650001 -0.28399444 1.7592462 0
4.073 -0.29113933 1.7622045 0
4.0810003 -0.29831308 1.7651627 0
4.0890002 -0.30551568 1.768121 0
4.0970001 -0.31274715 1.7710793 0
4.6530004 0.4833402 1.9690057 0
4.6450005 0.47468734 1.9660619 0
4.6370001 0.46606326 1.9631181 0
4.6290002 0.45746815 1.9601742 0
4.6210003 0.44890186 1.9572304 0
4.6140003 0.44047987 1.9546547 0
4.6060004 0.43196952 1.9517108 0
4.5980005 0.42348802 1.9487671 0
4.5910001 0.41514537 1.9461911 0
4.5830002 0.40671977 1.9432473 0
4.5750003 0.39832306 1.9403034 0
4.5680003 0.39005983 1.9377277 0
4.5600004 0.38171902 1.9347839 0
4.5530005 0.3735081 1.9322082 0
4.5450001 0.36522317 1.9292642 0
4.5380001 0.35706452 1.9266883 0
4.5310001 0.34893119 1.9241124 0
4.5230002 0.34072927 1.9211687 0
4.5160003 0.33264822 1.9185929 0
4.5080004 0.3245022 1.9156491 0
4.5010004 0.31647348 1.9130733 0
4.4940004 0.30846998 1.9104974 0
4.4870005 0.30049172 1.9079216 0
4.4790001 0.29245573 1.9049777 0
4.4720001 0.28452981 1.9024018 0
4.4650002 0.27662912 1.899826 0
4.4580002 0.26875371 1.8972502 0
4.4510002 0.26090351 1.8946744 0
4.4430003 0.25300467 1.8917305 0
4.4360003 0.24520677 1.8891548 0
4.4290004 0.23743421 1.8865789 0
4.4220004 0.22968686 1.884003 0
4.4150004 0.22196472 1.8814273 0
4.4080005 0.21426788 1.8788514 0
4.4010005 0.20659631 1.8762757 0
4.3940001 0.19894993 1.8736998 0
4.3870001 0.19132887 1.8711238 0
4.381 0.18379073 1.8689159 0
4.3740001 0.17621835 1.8663402 0
4.3670001 0.16867122 1.8637644 0
4.3600001 0.16114934 1.8611884 0
4.3530002 0.15365271 1.8586125 0
4.3460002 0.14618133 1.8560368 0
4.3400002 0.13878211 1.853829 0
4.3330002 0.13135944 1.8512532 0
4.3260002 0.12396201 1.8486773 0
4.3200002 0.11663134 1.8464693 0
4.3130002 0.10928263 1.8438935 0
4.3060002 0.10195917 1.8413178 0
4.3000002 0.094697028 1.8391099 0
4.2930002 0.087422282 1.8365339 0
4.2860003 0.080172777 1.8339581 0
4.2800002 0.072979182 1.8317503 0
4.2730002 0.06577839 1.8291745 0
4.2670002 0.058629896 1.8269666 0
4.2600002 0.051477794 1.8243908 0
4.2540002 0.044374395 1.8221829 0
4.2480001 0.037292648 1.8199751 0
4.2410002 0.030212697 1.8173993 0
4.2350001 0.023176048 1.8151914 0
4.2280002 0.016144797 1.8126154 0
4.2220001 0.0091532432 1.8104078 0
4.2160001 0.0021833256 1.8081999 0
4.2090001 -0.0047757663 1.805624 0
4.2030001 -0.011700585 1.8034161 0
4.197 -0.018603761 1.8012083 0
4.191 -0.02548529 1.7990004 0
4.184 -0.032348778 1.7964245 0
4.178 -0.039185211 1.7942168 0
4.1719999 -0.046 1.7920089 0
4.1660004 -0.052793141 1.789801 0
4.1600003 -0.059564639 1.7875931 0
4.1530004 -0.06630908 1.7850174 0
4.1470003 -0.073035479 1.7828095 0
4.1410003 -0.079740234 1.7806016 0
4.1350002 -0.086423337 1.7783936 0
4.1290002 -0.093084805 1.7761858 0
4.1230001 -0.099724621 1.773978 0
4.1170001 -0.1063428 1.7717701 0
4.1110001 -0.11293933 1.7695622 0
4.105 -0.1195142 1.7673544 0
4.099 -0.12606743 1.7651465 0
4.0929999 -0.13259903 1.7629386 0
4.0870004 -0.13910897 1.7607309 0
4.0810003 -0.14559728 1.758523 0
4.0760002 -0.15209278 1.7566831 0
4.0700002 -0.15853959 1.7544751 0
4.0640001 -0.16496477 1.7522674 0
4.0580001 -0.17136829 1.7500595 0
4.052 -0.17775016 1.7478516 0
4.046 -0.18411039 1.7456437 0
4.0410004 -0.19048865 1.7438039 0
4.0350003 -0.19680738 1.741596 0
4.0290003 -0.2031045 1.7393881 0
4.0230002 -0.20937994 1.7371802 0
4.0180001 -0.21568064 1.7353405 0
4.0120001 -0.2219146 1.7331325 0
4.006 -0.22812691 1.7309246 0
4.0110002 -0.23489299 1.7327646 0
4.0180001 -0.24178536 1.7353405 0
4.026 -0.24875887 1.7382842 0
4.0339999 -0.25576124 1.741228 0
4.0420003 -0.2627925 1.7441719 0
4.0490003 -0.26979128 1.7467477 0
4.0570002 -0.27687842 1.7496915 0
4.0650001 -0.28399444 1.7526354 0
4.073 -0.29113933 1.755579 0
4.0810003 -0.29831308 1.758523 0
4.0890002 -0.30551568 1.7614667 0
4.0970001 -0.31274715 1.7644106 0
4.6530004 0.4833402 1.9613341 0
4.6450005 0.47468734 1.9584048 0
4.6370001 0.46606326 1.9554753 0
4.6290002 0.45746815 1.9525459 0
4.6210003 0.44890186 1.9496166 0
4.6140003 0.44047987 1.9470533 0
4.6060004 0.43196952 1.944124 0
4.5980005 0.42348802 1.9411947 0
4.5910001 0.41514537 1.9386313 0
4.5830002 0.40671977 1.935702 0
4.5750003 0.39832306 1.9327726 0
4.5680003 0.39005983 1.9302094 0
4.5600004 0.38171902 1.9272801 0
4.5530005 0.3735081 1.9247168 0
4.5450001 0.36522317 1.9217874 0
4.5380001 0.35706452 1.9192241 0
4.5310001 0.34893119 1.9166609 0
4.5230002 0.34072927 1.9137317 0
4.5160003 0.33264822 1.9111683 0
4.5080004 0.3245022 1.9082391 0
4.5010004 0.31647348 1.9056759 0
4.4940004 0.30846998 1.9031126 0
4.4870005 0.30049172 1.9005494 0
4.4790001 0.29245573 1.89762 0
4.4720001 0.28452981 1.8950567 0
4.4650002 0.27662912 1.8924935 0
4.4580002 0.26875371 1.8899304 0
4.4510002 0.26090351 1.8873671 0
4.4430003 0.25300467 1.8844378 0
4.4360003 0.24520677 1.8818746 0
4.4290004 0.23743421 1.8793114 0
4.4220004 0.22968686 1.8767482 0
4.4150004 0.22196472 1.874185 0
4.4080005 0.21426788 1.8716218 0
4.4010005 0.20659631 1.8690585 0
4.3940001 0.19894993 1.8664953 0
4.3870001 0.19132887 1.863932 0
4.381 0.18379073 1.8617351 0
4.3740001 0.17621835 1.8591719 0
4.3670001 0.16867122 1.8566086 0
4.3600001 0.16114934 1.8540455 0
4.3530002 0.15365271 1.8514822 0
4.3460002 0.14618133 1.8489189 0
4.3400002 0.13878211 1.846722 0
4.3330002 0.13135944 1.8441588 0
4.3260002 0.12396201 1.8415955 0
4.3200002 0.11663134 1.8393984 0
4.3130002 0.10928263 1.8368353 0
4.3060002 0.10195917 1.834272 0
4.3000002 0.094697028 1.832075 0
4.2930002 0.087422282 1.8295119 0
4.2860003 0.080172777 1.8269486 0
4.2800002 0.072979182 1.8247515 0
4.2730002 0.06577839 1.8221884 0
4.2670002 0.058629896 1.8199914 0
4.2600002 0.051477794 1.8174281 0
4.2540002 0.044374395 1.815231 0
4.2480001 0.037292648 1.8130341 0
4.2410002 0.030212697 1.8104708 0
4.2350001 0.023176048 1.8082738 0
4.2280002 0.016144797 1.8057104 0
4.2220001 0.0091532432 1.8035135 0
4.2160001 0.0021833256 1.8013165 0
4.2090001 -0.0047757663 1.7987533 0
4.2030001 -0.011700585 1.7965562 0
4.197 -0.018603761 1.7943592 0
4.191 -0.02548529 1.7921621 0
4.184 -0.032348778 1.7895989 0
4.178 -0.039185211 1.7874019 0
4.1719999 -0.046 1.7852048 0
4.1660004 -0.052793141 1.7830079 0
4.1600003 -0.059564639 1.7808108 0
4.1530004 -0.06630908 1.7782476 0
4.1470003 -0.073035479 1.7760506 0
4.1410003 -0.079740234 1.7738535 0
4.1350002 -0.086423337 1.7716564 0
4.1290002 -0.093084805 1.7694594 0
4.1230001 -0.099724621 1.7672625 0
4.1170001 -0.1063428 1.7650653 0
4.1110001 -0.11293933 1.7628684 0
4.105 -0.1195142 1.7606713 0
4.099 -0.12606743 1.7584742 0
4.0929999 -0.13259903 1.7562772 0
4.0870004 -0.13910897 1.7540802 0
4.0810003 -0.14559728 1.7518831 0
4.0760002 -0.15209278 1.7500522 0
4.0700002 -0.15853959 1.7478552 0
4.0640001 -0.16496477 1.7456582 0
4.0580001 -0.17136829 1.7434611 0
4.052 -0.17775016 1.7412641 0
4.046 -0.18411039 1.739067 0
4.0410004 -0.19048865 1.7372363 0
4.0350003 -0.19680738 1.7350391 0
4.0290003 -0.2031045 1.7328421 0
4.0230002 -0.20937994 1.7306451 0
4.0180001 -0.21568064 1.7288142 0
4.0120001 -0.2219146 1.7266171 0
4.006 -0.22812691 1.7244202 0
4.0110002 -0.23489299 1.726251 0
4.0180001 -0.24178536 1.7288142 0
4.026 -0.24875887 1.7317437 0
4.0339999 -0.25576124 1.734673 0
4.0420003 -0.2627925 1.7376024 0
4.0490003 -0.26979128 1.7401656 0
4.0570002 -0.27687842 1.7430949 0
4.0650001 -0.28399444 1.7460244 0
4.073 -0.29113933 1.7489537 0
4.0810003 -0.29831308 1.7518831 0
4.0890002 -0.30551568 1.7548125 0
4.0970001 -0.31274715 1.7577419 0
4.6530004 0.4833402 1.9536626 0
4.6450005 0.47468734 1.9507476 0
4.6370001 0.46606326 1.9478326 0
4.6290002 0.45746815 1.9449176 0
4.6210003 0.44890186 1.9420027 0
4.6140003 0.44047987 1.9394521 0
4.6060004 0.43196952 1.9365371 0
4.5980005 0.42348802 1.9336224 0
4.5910001 0.41514537 1.9310715 0
4.5830002 0.40671977 1.9281566 0
4.5750003 0.39832306 1.9252417 0
4.5680003 0.39005983 1.9226911 0
4.5600004 0.38171902 1.9197762 0
4.5530005 0.3735081 1.9172256 0
4.5450001 0.36522317 1.9143106 0
4.5380001 0.35706452 1.91176 0
4.5310001 0.34893119 1.9092095 0
4.5230002 0.34072927 1.9062945 0
4.5160003 0.33264822 1.9037439 0
4.5080004 0.3245022 1.900829 0
4.5010004 0.31647348 1.8982784 0
4.4940004 0.30846998 1.8957279 0
4.4870005 0.30049172 1.8931773 0
4.4790001 0.29245573 1.8902622 0
4.4720001 0.28452981 1.8877116 0
4.4650002 0.27662912 1.885161 0
4.4580002 0.26875371 1.8826104 0
4.4510002 0.26090351 1.8800598 0
4.4430003 0.25300467 1.8771449 0
4.4360003 0.24520677 1.8745943 0
4.4290004 0.23743421 1.8720438 0
4.4220004 0.22968686 1.8694934 0
4.4150004 0.22196472 1.8669428 0
4.4080005 0.21426788 1.8643922 0
4.4010005 0.20659631 1.8618416 0
4.3940001 0.19894993 1.8592908 0
4.3870001 0.19132887 1.8567402 0
4.381 0.18379073 1.8545541 0
4.3740001 0.17621835 1.8520035 0
4.3670001 0.16867122 1.849453 0
4.3600001 0.16114934 1.8469024 0
4.3530002 0.15365271 1.8443518 0
4.3460002 0.14618133 1.8418012 0
4.3400002 0.13878211 1.839615 0
4.3330002 0.13135944 1.8370643 0
4.3260002 0.12396201 1.8345137 0
4.3200002 0.11663134 1.8323275 0
4.3130002 0.10928263 1.829777 0
4.3060002 0.10195917 1.8272264 0
4.3000002 0.094697028 1.8250402 0
4.2930002 0.087422282 1.8224896 0
4.2860003 0.080172777 1.819939 0
4.2800002 0.072979182 1.8177527 0
4.2730002 0.06577839 1.8152021 0
4.2670002 0.058629896 1.8130159 0
4.2600002 0.051477794 1.8104653 0
4.2540002 0.044374395 1.8082792 0
4.2480001 0.037292648 1.8060931 0
4.2410002 0.030212697 1.8035424 0
4.2350001 0.023176048 1.8013562 0
4.2280002 0.016144797 1.7988056 0
4.2220001 0.0091532432 1.7966194 0
4.2160001 0.0021833256 1.7944331 0
4.2090001 -0.0047757663 1.7918825 0
4.2030001 -0.011700585 1.7896963 0
4.197 -0.018603761 1.7875102 0
4.191 -0.02548529 1.785324 0
4.184 -0.032348778 1.7827734 0
4.178 -0.039185211 1.7805871 0
4.1719999 -0.046 1.7784009 0
4.1660004 -0.052793141 1.7762147 0
4.1600003 -0.059564639 1.7740284 0
4.1530004 -0.06630908 1.7714779 0
4.1470003 -0.073035479 1.7692916 0
4.1410003 -0.079740234 1.7671055 0
4.1350002 -0.086423337 1.7649193 0
4.1290002 -0.093084805 1.762733 0
4.1230001 -0.099724621 1.7605469 0
4.1170001 -0.1063428 1.7583606 0
4.1110001 -0.11293933 1.7561744 0
4.105 -0.1195142 1.7539881 0
4.099 -0.12606743 1.7518018 0
4.0929999 -0.13259903 1.7496157 0
4.0870004 -0.13910897 1.7474295 0
4.0810003 -0.14559728 1.7452433 0
4.0760002 -0.15209278 1.7434214 0
4.0700002 -0.15853959 1.7412353 0
4.0640001 -0.16496477 1.7390491 0
4.0580001 -0.17136829 1.7368629 0
4.052 -0.17775016 1.7346766 0
4.046 -0.18411039 1.7324903 0
4.0410004 -0.19048865 1.7306685 0
4.0350003 -0.19680738 1.7284822 0
4.0290003 -0.2031045 1.7262961 0
4.0230002 -0.20937994 1.7241099 0
4.0180001 -0.21568064 1.7222881 0
4.0120001 -0.2219146 1.7201018 0
4.006 -0.22812691 1.7179157 0
4.0110002 -0.23489299 1.7197374 0
4.0180001 -0.24178536 1.7222881 0
4.026 -0.24875887 1.7252029 0
4.0339999 -0.25576124 1.7281178 0
4.0420003 -0.2627925 1.7310328 0
4.0490003 -0.26979128 1.7335835 0
4.0570002 -0.27687842 1.7364984 0
4.0650001 -0.28399444 1.7394134 0
4.073 -0.29113933 1.7423284 0
4.0810003 -0.29831308 1.7452433 0
4.0890002 -0.30551568 1.7481582 0
4.0970001 -0.31274715 1.7510732 0
4.6530004 0.4833402 1.9459909 0
4.6450005 0.47468734 1.9430904 0
4.6370001 0.46606326 1.9401898 0
4.6290002 0.45746815 1.9372892 0
4.6210003 0.44890186 1.9343888 0
4.6140003 0.44047987 1.9318509 0
4.6060004 0.43196952 1.9289504 0
4.5980005 0.42348802 1.9260499 0
4.5910001 0.41514537 1.9235117 0
4.5830002 0.40671977 1.9206113 0
4.5750003 0.39832306 1.9177108 0
4.5680003 0.39005983 1.9151729 0
4.5600004 0.38171902 1.9122725 0
4.5530005 0.3735081 1.9097344 0
4.5450001 0.36522317 1.9068338 0
4.5380001 0.35706452 1.9042958 0
4.5310001 0.34893119 1.9017578 0
4.5230002 0.34072927 1.8988574 0
4.5160003 0.33264822 1.8963195 0
4.5080004 0.3245022 1.893419 0
4.5010004 0.31647348 1.8908811 0
4.4940004 0.30846998 1.888343 0
4.4870005 0.30049172 1.8858051 0
4.4790001 0.29245573 1.8829045 0
4.4720001 0.28452981 1.8803664 0
4.4650002 0.27662912 1.8778286 0
4.4580002 0.26875371 1.8752906 0
4.4510002 0.26090351 1.8727527 0
4.4430003 0.25300467 1.8698522 0
4.4360003 0.24520677 1.8673142 0
4.4290004 0.23743421 1.8647763 0
4.4220004 0.22968686 1.8622383 0
4.4150004 0.22196472 1.8597004 0
4.4080005 0.21426788 1.8571625 0
4.4010005 0.20659631 1.8546245 0
4.3940001 0.19894993 1.8520865 0
4.3870001 0.19132887 1.8495485 0
4.381 0.18379073 1.8473731 0
4.3740001 0.17621835 1.8448352 0
4.3670001 0.16867122 1.8422972 0
4.3600001 0.16114934 1.8397593 0
4.3530002 0.15365271 1.8372213 0
4.3460002 0.14618133 1.8346833 0
4.3400002 0.13878211 1.832508 0
4.3330002 0.13135944 1.82997 0
4.3260002 0.12396201 1.827432 0
4.3200002 0.11663134 1.8252566 0
4.3130002 0.10928263 1.8227186 0
4.3060002 0.10195917 1.8201807 0
4.3000002 0.094697028 1.8180053 0
4.2930002 0.087422282 1.8154674 0
4.2860003 0.080172777 1.8129294 0
4.2800002 0.072979182 1.8107539 0
4.2730002 0.06577839 1.808216 0
4.2670002 0.058629896 1.8060406 0
4.2600002 0.051477794 1.8035027 0
4.2540002 0.044374395 1.8013272 0
4.2480001 0.037292648 1.7991519 0
4.2410002 0.030212697 1.7966139 0
4.2350001 0.023176048 1.7944386 0
4.2280002 0.016144797 1.7919006 0
4.2220001 0.0091532432 1.7897252 0
4.2160001 0.0021833256 1.7875499 0
4.2090001 -0.0047757663 1.7850119 0
4.2030001 -0.011700585 1.7828364 0
4.197 -0.018603761 1.7806611 0
4.191 -0.02548529 1.7784857 0
4.184 -0.032348778 1.7759477 0
4.178 -0.039185211 1.7737724 0
4.1719999 -0.046 1.7715969 0
4.1660004 -0.052793141 1.7694216 0
4.1600003 -0.059564639 1.7672462 0
4.1530004 -0.06630908 1.7647082 0
4.1470003 -0.073035479 1.7625328 0
4.1410003 -0.079740234 1.7603574 0
4.1350002 -0.086423337 1.758182 0
4.1290002 -0.093084805 1.7560066 0
4.1230001 -0.099724621 1.7538313 0
4.1170001 -0.1063428 1.7516559 0
4.1110001 -0.11293933 1.7494804 0
4.105 -0.1195142 1.747305 0
4.099 -0.12606743 1.7451296 0
4.0929999 -0.13259903 1.7429543 0
4.0870004 -0.13910897 1.7407789 0
4.0810003 -0.14559728 1.7386035 0
4.0760002 -0.15209278 1.7367907 0
4.0700002 -0.15853959 1.7346153 0
4.0640001 -0.16496477 1.7324399 0
4.0580001 -0.17136829 1.7302645 0
4.052 -0.17775016 1.7280891 0
4.046 -0.18411039 1.7259136 0
4.0410004 -0.19048865 1.7241009 0
4.0350003 -0.19680738 1.7219255 0
4.0290003 -0.2031045 1.71975 0
4.0230002 -0.20937994 1.7175747 0
4.0180001 -0.21568064 1.7157619 0
4.0120001 -0.2219146 1.7135864 0
4.006 -0.22812691 1.7114111 0
4.0110002 -0.23489299 1.7132239 0
4.0180001 -0.24178536 1.7157619 0
4.026 -0.24875887 1.7186624 0
4.0339999 -0.25576124 1.7215629 0
4.0420003 -0.2627925 1.7244635 0
4.0490003 -0.26979128 1.7270014 0
4.0570002 -0.27687842 1.7299019 0
4.0650001 -0.28399444 1.7328024 0
4.073 -0.29113933 1.7357029 0
4.0810003 -0.29831308 1.7386035 0
4.0890002 -0.30551568 1.741504 0
4.0970001 -0.31274715 1.7444046 0
4.6530004 0.4833402 1.9383193 0
4.6450005 0.47468734 1.9354333 0
4.6370001 0.46606326 1.9325471 0
4.6290002 0.45746815 1.929661 0
4.6210003 0.44890186 1.9267749 0
4.6140003 0.44047987 1.9242496 0
4.6060004 0.43196952 1.9213636 0
4.5980005 0.42348802 1.9184775 0
4.5910001 0.41514537 1.9159521 0
4.5830002 0.40671977 1.913066 0
4.5750003 0.39832306 1.91018 0
4.5680003 0.39005983 1.9076545 0
4.5600004 0.38171902 1.9047686 0
4.5530005 0.3735081 1.9022433 0
4.5450001 0.36522317 1.899357 0
4.5380001 0.35706452 1.8968316 0
4.5310001 0.34893119 1.8943063 0
4.5230002 0.34072927 1.8914204 0
4.5160003 0.33264822 1.8888949 0
4.5080004 0.3245022 1.8860089 0
4.5010004 0.31647348 1.8834836 0
4.4940004 0.30846998 1.8809582 0
4.4870005 0.30049172 1.878433 0
4.4790001 0.29245573 1.8755467 0
4.4720001 0.28452981 1.8730215 0
4.4650002 0.27662912 1.870496 0
4.4580002 0.26875371 1.8679708 0
4.4510002 0.26090351 1.8654454 0
4.4430003 0.25300467 1.8625593 0
4.4360003 0.24520677 1.8600341 0
4.4290004 0.23743421 1.8575088 0
4.4220004 0.22968686 1.8549834 0
4.4150004 0.22196472 1.8524581 0
4.4080005 0.21426788 1.8499328 0
4.4010005 0.20659631 1.8474075 0
4.3940001 0.19894993 1.8448821 0
4.3870001 0.19132887 1.8423567 0
4.381 0.18379073 1.8401921 0
4.3740001 0.17621835 1.8376669 0
4.3670001 0.16867122 1.8351414 0
4.3600001 0.16114934 1.8326162 0
4.3530002 0.15365271 1.8300909 0
4.3460002 0.14618133 1.8275654 0
4.3400002 0.13878211 1.8254009 0
4.3330002 0.13135944 1.8228756 0
4.3260002 0.12396201 1.8203502 0
4.3200002 0.11663134 1.8181857 0
4.3130002 0.10928263 1.8156604 0
4.3060002 0.10195917 1.813135 0
4.3000002 0.094697028 1.8109704 0
4.2930002 0.087422282 1.8084451 0
4.2860003 0.080172777 1.8059198 0
4.2800002 0.072979182 1.8037552 0
4.2730002 0.06577839 1.80123 0
4.2670002 0.058629896 1.7990654 0
4.2600002 0.051477794 1.7965399 0
4.2540002 0.044374395 1.7943754 0
4.2480001 0.037292648 1.7922108 0
4.2410002 0.030212697 1.7896855 0
4.2350001 0.023176048 1.787521 0
4.2280002 0.016144797 1.7849957 0
4.2220001 0.0091532432 1.7828311 0
4.2160001 0.0021833256 1.7806666 0
4.2090001 -0.0047757663 1.7781411 0
4.2030001 -0.011700585 1.7759765 0
4.197 -0.018603761 1.7738119 0
4.191 -0.02548529 1.7716475 0
4.184 -0.032348778 1.7691221 0
4.178 -0.039185211 1.7669575 0
4.1719999 -0.046 1.7647929 0
4.1660004 -0.052793141 1.7626284 0
4.1600003 -0.059564639 1.7604638 0
4.1530004 -0.06630908 1.7579385 0
4.1470003 -0.073035479 1.7557739 0
4.1410003 -0.079740234 1.7536093 0
4.1350002 -0.086423337 1.7514447 0
4.1290002 -0.093084805 1.7492802 0
4.1230001 -0.099724621 1.7471156 0
4.1170001 -0.1063428 1.744951 0
4.1110001 -0.11293933 1.7427865 0
4.105 -0.1195142 1.740622 0
4.099 -0.12606743 1.7384574 0
4.0929999 -0.13259903 1.7362928 0
4.0870004 -0.13910897 1.7341282 0
4.0810003 -0.14559728 1.7319638 0
4.0760002 -0.15209278 1.7301598 0
4.0700002 -0.15853959 1.7279953 0
4.0640001 -0.16496477 1.7258308 0
4.0580001 -0.17136829 1.7236662 0
4.052 -0.17775016 1.7215016 0
4.046 -0.18411039 1.719337 0
4.0410004 -0.19048865 1.7175332 0
4.0350003 -0.19680738 1.7153686 0
4.0290003 -0.2031045 1.713204 0
4.0230002 -0.20937994 1.7110395 0
4.0180001 -0.21568064 1.7092357 0
4.0120001 -0.2219146 1.7070711 0
4.006 -0.22812691 1.7049065 0
4.0110002 -0.23489299 1.7067103 0
4.0180001 -0.24178536 1.7092357 0
4.026 -0.24875887 1.7121217 0
4.0339999 -0.25576124 1.7150078 0
4.0420003 -0.2627925 1.717894 0
4.0490003 -0.26979128 1.7204193 0
4.0570002 -0.27687842 1.7233053 0
4.0650001 -0.28399444 1.7261915 0
4.073 -0.29113933 1.7290776 0
4.0810003 -0.29831308 1.7319638 0
4.0890002 -0.30551568 1.7348498 0
4.0970001 -0.31274715 1.7377359 0
4.6530004 0.4833402 1.9306477 0
4.6450005 0.47468734 1.9277761 0
4.6370001 0.46606326 1.9249043 0
4.6290002 0.45746815 1.9220327 0
4.6210003 0.44890186 1.9191611 0
4.6140003 0.44047987 1.9166484 0
4.6060004 0.43196952 1.9137768 0
4.5980005 0.42348802 1.9109051 0
4.5910001 0.41514537 1.9083922 0
4.5830002 0.40671977 1.9055206 0
4.5750003 0.39832306 1.9026489 0
4.5680003 0.39005983 1.9001364 0
4.5600004 0.38171902 1.8972647 0
4.5530005 0.3735081 1.894752 0
4.5450001 0.36522317 1.8918802 0
4.5380001 0.35706452 1.8893675 0
4.5310001 0.34893119 1.8868549 0
4.5230002 0.34072927 1.8839833 0
4.5160003 0.33264822 1.8814706 0
4.5080004 0.3245022 1.8785989 0
4.5010004 0.31647348 1.8760862 0
4.4940004 0.30846998 1.8735734 0
4.4870005 0.30049172 1.8710607 0
4.4790001 0.29245573 1.868189 0
4.4720001 0.28452981 1.8656763 0
4.4650002 0.27662912 1.8631636 0
4.4580002 0.26875371 1.8606509 0
4.4510002 0.26090351 1.8581383 0
4.4430003 0.25300467 1.8552667 0
4.4360003 0.24520677 1.8527539 0
4.4290004 0.23743421 1.8502412 0
4.4220004 0.22968686 1.8477285 0
4.4150004 0.22196472 1.8452158 0
4.4080005 0.21426788 1.8427032 0
4.4010005 0.20659631 1.8401904 0
4.3940001 0.19894993 1.8376776 0
4.3870001 0.19132887 1.8351649 0
4.381 0.18379073 1.8330113 0
4.3740001 0.17621835 1.8304985 0
4.3670001 0.16867122 1.8279858 0
4.3600001 0.16114934 1.8254731 0
4.3530002 0.15365271 1.8229604 0
4.3460002 0.14618133 1.8204477 0
4.3400002 0.13878211 1.8182939 0
4.3330002 0.13135944 1.8157811 0
4.3260002 0.12396201 1.8132685 0
4.3200002 0.11663134 1.8111148 0
4.3130002 0.10928263 1.808602 0
4.3060002 0.10195917 1.8060893 0
4.3000002 0.094697028 1.8039356 0
4.2930002 0.087422282 1.801423 0
4.2860003 0.080172777 1.7989101 0
4.2800002 0.072979182 1.7967564 0
4.2730002 0.06577839 1.7942438 0
4.2670002 0.058629896 1.7920899 0
4.2600002 0.051477794 1.7895772 0
4.2540002 0.044374395 1.7874236 0
4.2480001 0.037292648 1.7852699 0
4.2410002 0.030212697 1.782757 0
4.2350001 0.023176048 1.7806034 0
4.2280002 0.016144797 1.7780906 0
4.2220001 0.0091532432 1.775937 0
4.2160001 0.0021833256 1.7737832 0
4.2090001 -0.0047757663 1.7712704 0
4.2030001 -0.011700585 1.7691168 0
4.197 -0.018603761 1.7669629 0
4.191 -0.02548529 1.7648091 0
4.184 -0.032348778 1.7622966 0
4.178 -0.039185211 1.7601427 0
4.1719999 -0.046 1.7579889 0
4.1660004 -0.052793141 1.7558353 0
4.1600003 -0.059564639 1.7536815 0
4.1530004 -0.06630908 1.7511688 0
4.1470003 -0.073035479 1.749015 0
4.1410003 -0.079740234 1.7468613 0
4.1350002 -0.086423337 1.7447076 0
4.1290002 -0.093084805 1.7425538 0
4.1230001 -0.099724621 1.7404002 0
4.1170001 -0.1063428 1.7382463 0
4.1110001 -0.11293933 1.7360926 0
4.105 -0.1195142 1.7339388 0
4.099 -0.12606743 1.7317851 0
4.0929999 -0.13259903 1.7296313 0
4.0870004 -0.13910897 1.7274777 0
4.0810003 -0.14559728 1.7253239 0
4.0760002 -0.15209278 1.7235291 0
4.0700002 -0.15853959 1.7213752 0
4.0640001 -0.16496477 1.7192216 0
4.0580001 -0.17136829 1.7170678 0
4.052 -0.17775016 1.7149141 0
4.046 -0.18411039 1.7127603 0
4.0410004 -0.19048865 1.7109656 0
4.0350003 -0.19680738 1.7088118 0
4.0290003 -0.2031045 1.706658 0
4.0230002 -0.20937994 1.7045044 0
4.0180001 -0.21568064 1.7027096 0
4.0120001 -0.2219146 1.7005557 0
4.006 -0.22812691 1.698402 0
4.0110002 -0.23489299 1.7001967 0
4.0180001 -0.24178536 1.7027096 0
4.026 -0.24875887 1.7055812 0
4.0339999 -0.25576124 1.7084528 0
4.0420003 -0.2627925 1.7113246 0
4.0490003 -0.26979128 1.7138373 0
4.0570002 -0.27687842 1.7167089 0
4.0650001 -0.28399444 1.7195805 0
4.073 -0.29113933 1.7224522 0
4.0810003 -0.29831308 1.7253239 0
4.0890002 -0.30551568 1.7281954 0
4.0970001 -0.31274715 1.7310672 0
4.6530004 0.4833402 1.9229761 0
4.6450005 0.47468734 1.9201189 0
4.6370001 0.46606326 1.9172616 0
4.6290002 0.45746815 1.9144044 0
4.6210003 0.44890186 1.9115472 0
4.6140003 0.44047987 1.9090471 0
4.6060004 0.43196952 1.9061899 0
4.5980005 0.42348802 1.9033328 0
4.5910001 0.41514537 1.9008325 0
4.5830002 0.40671977 1.8979753 0
4.5750003 0.39832306 1.8951181 0
4.5680003 0.39005983 1.8926181 0
4.5600004 0.38171902 1.8897609 0
4.5530005 0.3735081 1.8872608 0
4.5450001 0.36522317 1.8844035 0
4.5380001 0.35706452 1.8819033 0
4.5310001 0.34893119 1.8794032 0
4.5230002 0.34072927 1.876546 0
4.5160003 0.33264822 1.874046 0
4.5080004 0.3245022 1.8711888 0
4.5010004 0.31647348 1.8686887 0
4.4940004 0.30846998 1.8661886 0
4.4870005 0.30049172 1.8636886 0
4.4790001 0.29245573 1.8608313 0
4.4720001 0.28452981 1.8583312 0
4.4650002 0.27662912 1.8558311 0
4.4580002 0.26875371 1.8533311 0
4.4510002 0.26090351 1.850831 0
4.4430003 0.25300467 1.8479738 0
4.4360003 0.24520677 1.8454738 0
4.4290004 0.23743421 1.8429737 0
4.4220004 0.22968686 1.8404737 0
4.4150004 0.22196472 1.8379736 0
4.4080005 0.21426788 1.8354734 0
4.4010005 0.20659631 1.8329734 0
4.3940001 0.19894993 1.8304732 0
4.3870001 0.19132887 1.8279731 0
4.381 0.18379073 1.8258302 0
4.3740001 0.17621835 1.8233302 0
4.3670001 0.16867122 1.8208301 0
4.3600001 0.16114934 1.81833 0
4.3530002 0.15365271 1.8158299 0
4.3460002 0.14618133 1.8133298 0
4.3400002 0.13878211 1.8111869 0
4.3330002 0.13135944 1.8086869 0
4.3260002 0.12396201 1.8061868 0
4.3200002 0.11663134 1.8040439 0
4.3130002 0.10928263 1.8015438 0
4.3060002 0.10195917 1.7990437 0
4.3000002 0.094697028 1.7969007 0
4.2930002 0.087422282 1.7944007 0
4.2860003 0.080172777 1.7919006 0
4.2800002 0.072979182 1.7897577 0
4.2730002 0.06577839 1.7872576 0
4.2670002 0.058629896 1.7851146 0
4.2600002 0.051477794 1.7826146 0
4.2540002 0.044374395 1.7804717 0
4.2480001 0.037292648 1.7783288 0
4.2410002 0.030212697 1.7758286 0
4.2350001 0.023176048 1.7736858 0
4.2280002 0.016144797 1.7711856 0
4.2220001 0.0091532432 1.7690427 0
4.2160001 0.0021833256 1.7668998 0
4.2090001 -0.0047757663 1.7643998 0
4.2030001 -0.011700585 1.7622567 0
4.197 -0.018603761 1.7601138 0
4.191 -0.02548529 1.7579709 0
4.184 -0.032348778 1.7554709 0
4.178 -0.039185211 1.753328 0
4.1719999 -0.046 1.7511851 0
4.1660004 -0.052793141 1.7490422 0
4.1600003 -0.059564639 1.7468992 0
4.1530004 -0.06630908 1.7443992 0
4.1470003 -0.073035479 1.7422563 0
4.1410003 -0.079740234 1.7401133 0
4.1350002 -0.086423337 1.7379704 0
4.1290002 -0.093084805 1.7358274 0
4.1230001 -0.099724621 1.7336845 0
4.1170001 -0.1063428 1.7315416 0
4.1110001 -0.11293933 1.7293986 0
4.105 -0.1195142 1.7272557 0
4.099 -0.12606743 1.7251128 0
4.0929999 -0.13259903 1.7229698 0
4.0870004 -0.13910897 1.720827 0
4.0810003 -0.14559728 1.7186841 0
4.0760002 -0.15209278 1.7168982 0
4.0700002 -0.15853959 1.7147553 0
4.0640001 -0.16496477 1.7126124 0
4.0580001 -0.17136829 1.7104695 0
4.052 -0.17775016 1.7083265 0
4.046 -0.18411039 1.7061836 0
4.0410004 -0.19048865 1.7043979 0
4.0350003 -0.19680738 1.702255 0
4.0290003 -0.2031045 1.7001121 0
4.0230002 -0.20937994 1.6979691 0
4.0180001 -0.21568064 1.6961834 0
4.0120001 -0.2219146 1.6940404 0
4.006 -0.22812691 1.6918975 0
4.0110002 -0.23489299 1.6936833 0
4.0180001 -0.24178536 1.6961834 0
4.026 -0.24875887 1.6990407 0
4.0339999 -0.25576124 1.7018977 0
4.0420003 -0.2627925 1.7047551 0
4.0490003 -0.26979128 1.707255 0
4.0570002 -0.27687842 1.7101122 0
4.0650001 -0.28399444 1.7129695 0
4.073 -0.29113933 1.7158267 0
4.0810003 -0.29831308 1.7186841 0
4.0890002 -0.30551568 1.7215412 0
4.0970001 -0.31274715 1.7243985 0
4.6530004 0.4833402 1.9153045 0
4.6450005 0.47468734 1.9124618 0
4.6370001 0.46606326 1.9096189 0
4.6290002 0.45746815 1.9067761 0
4.6210003 0.44890186 1.9039333 0
4.6140003 0.44047987 1.9014459 0
4.6060004 0.43196952 1.8986032 0
4.5980005 0.42348802 1.8957604 0
4.5910001 0.41514537 1.8932728 0
4.5830002 0.40671977 1.89043 0
4.5750003 0.39832306 1.8875872 0
4.5680003 0.39005983 1.8850998 0
4.5600004 0.38171902 1.882257 0
4.5530005 0.3735081 1.8797696 0
4.5450001 0.36522317 1.8769267 0
4.5380001 0.35706452 1.8744391 0
4.5310001 0.34893119 1.8719517 0
4.5230002 0.34072927 1.8691089 0
4.5160003 0.33264822 1.8666216 0
4.5080004 0.3245022 1.8637788 0
4.5010004 0.31647348 1.8612913 0
4.4940004 0.30846998 1.8588039 0
4.4870005 0.30049172 1.8563166 0
4.4790001 0.29245573 1.8534735 0
4.4720001 0.28452981 1.8509861 0
4.4650002 0.27662912 1.8484986 0
4.4580002 0.26875371 1.8460113 0
4.4510002 0.26090351 1.8435237 0
4.4430003 0.25300467 1.8406811 0
4.4360003 0.24520677 1.8381935 0
4.4290004 0.23743421 1.8357061 0
4.4220004 0.22968686 1.8332187 0
4.4150004 0.22196472 1.8307313 0
4.4080005 0.21426788 1.8282437 0
4.4010005 0.20659631 1.8257563 0
4.3940001 0.19894993 1.8232689 0
4.3870001 0.19132887 1.8207814 0
4.381 0.18379073 1.8186493 0
4.3740001 0.17621835 1.8161619 0
4.3670001 0.16867122 1.8136743 0
4.3600001 0.16114934 1.8111869 0
4.3530002 0.15365271 1.8086995 0
4.3460002 0.14618133 1.8062119 0
4.3400002 0.13878211 1.8040799 0
4.3330002 0.13135944 1.8015925 0
4.3260002 0.12396201 1.7991049 0
4.3200002 0.11663134 1.7969729 0
4.3130002 0.10928263 1.7944854 0
4.3060002 0.10195917 1.791998 0
4.3000002 0.094697028 1.789866 0
4.2930002 0.087422282 1.7873784 0
4.2860003 0.080172777 1.784891 0
4.2800002 0.072979182 1.782759 0
4.2730002 0.06577839 1.7802714 0
4.2670002 0.058629896 1.7781394 0
4.2600002 0.051477794 1.7756519 0
4.2540002 0.044374395 1.7735198 0
4.2480001 0.037292648 1.7713877 0
4.2410002 0.030212697 1.7689002 0
4.2350001 0.023176048 1.7667682 0
4.2280002 0.016144797 1.7642807 0
4.2220001 0.0091532432 1.7621486 0
4.2160001 0.0021833256 1.7600164 0
4.2090001 -0.0047757663 1.757529 0
4.2030001 -0.011700585 1.755397 0
4.197 -0.018603761 1.7532648 0
4.191 -0.02548529 1.7511327 0
4.184 -0.032348778 1.7486453 0
4.178 -0.039185211 1.7465132 0
4.1719999 -0.046 1.744381 0
4.1660004 -0.052793141 1.742249 0
4.1600003 -0.059564639 1.7401168 0
4.1530004 -0.06630908 1.7376295 0
4.1470003 -0.073035479 1.7354974 0
4.1410003 -0.079740234 1.7333653 0
4.1350002 -0.086423337 1.7312331 0
4.1290002 -0.093084805 1.7291011 0
4.1230001 -0.099724621 1.7269689 0
4.1170001 -0.1063428 1.7248368 0
4.1110001 -0.11293933 1.7227046 0
4.105 -0.1195142 1.7205726 0
4.099 -0.12606743 1.7184404 0
4.0929999 -0.13259903 1.7163084 0
4.0870004 -0.13910897 1.7141763 0
4.0810003 -0.14559728 1.7120442 0
4.0760002 -0.15209278 1.7102674 0
4.0700002 -0.15853959 1.7081352 0
4.0640001 -0.16496477 1.7060033 0
4.0580001 -0.17136829 1.7038711 0
4.052 -0.17775016 1.7017391 0
4.046 -0.18411039 1.6996069 0
4.0410004 -0.19048865 1.6978302 0
4.0350003 -0.19680738 1.6956981 0
4.0290003 -0.2031045 1.693566 0
4.0230002 -0.20937994 1.6914339 0
4.0180001 -0.21568064 1.6896571 0
4.0120001 -0.2219146 1.687525 0
4.006 -0.22812691 1.685393 0
4.0110002 -0.23489299 1.6871697 0
4.0180001 -0.24178536 1.6896571 0
4.026 -0.24875887 1.6924999 0
4.0339999 -0.25576124 1.6953427 0
4.0420003 -0.2627925 1.6981856 0
4.0490003 -0.26979128 1.700673 0
4.0570002 -0.27687842 1.7035158 0
4.0650001 -0.28399444 1.7063587 0
4.073 -0.29113933 1.7092013 0
4.0810003 -0.29831308 1.7120442 0
4.0890002 -0.30551568 1.714887 0
4.0970001 -0.31274715 1.7177299 0
4.6530004 0.4833402 1.9076329 0
4.6450005 0.47468734 1.9048046 0
4.6370001 0.46606326 1.9019762 0
4.6290002 0.45746815 1.8991479 0
4.6210003 0.44890186 1.8963195 0
4.6140003 0.44047987 1.8938446 0
4.6060004 0.43196952 1.8910162 0
4.5980005 0.42348802 1.888188 0
4.5910001 0.41514537 1.885713 0
4.5830002 0.40671977 1.8828847 0
4.5750003 0.39832306 1.8800564 0
4.5680003 0.39005983 1.8775815 0
4.5600004 0.38171902 1.8747531 0
4.5530005 0.3735081 1.8722785 0
4.5450001 0.36522317 1.8694499 0
4.5380001 0.35706452 1.8669749 0
4.5310001 0.34893119 1.8645003 0
4.5230002 0.34072927 1.8616719 0
4.5160003 0.33264822 1.859197 0
4.5080004 0.3245022 1.8563687 0
4.5010004 0.31647348 1.853894 0
4.4940004 0.30846998 1.8514191 0
4.4870005 0.30049172 1.8489443 0
4.4790001 0.29245573 1.8461158 0
4.4720001 0.28452981 1.8436409 0
4.4650002 0.27662912 1.8411661 0
4.4580002 0.26875371 1.8386914 0
4.4510002 0.26090351 1.8362166 0
4.4430003 0.25300467 1.8333882 0
4.4360003 0.24520677 1.8309133 0
4.4290004 0.23743421 1.8284386 0
4.4220004 0.22968686 1.8259637 0
4.4150004 0.22196472 1.823489 0
4.4080005 0.21426788 1.821014 0
4.4010005 0.20659631 1.8185394 0
4.3940001 0.19894993 1.8160644 0
4.3870001 0.19132887 1.8135896 0
4.381 0.18379073 1.8114684 0
4.3740001 0.17621835 1.8089936 0
4.3670001 0.16867122 1.8065187 0
4.3600001 0.16114934 1.8040439 0
4.3530002 0.15365271 1.801569 0
4.3460002 0.14618133 1.7990942 0
4.3400002 0.13878211 1.796973 0
4.3330002 0.13135944 1.7944981 0
4.3260002 0.12396201 1.7920233 0
4.3200002 0.11663134 1.789902 0
4.3130002 0.10928263 1.7874271 0
4.3060002 0.10195917 1.7849524 0
4.3000002 0.094697028 1.7828311 0
4.2930002 0.087422282 1.7803562 0
4.2860003 0.080172777 1.7778814 0
4.2800002 0.072979182 1.7757602 0
4.2730002 0.06577839 1.7732853 0
4.2670002 0.058629896 1.7711639 0
4.2600002 0.051477794 1.7686892 0
4.2540002 0.044374395 1.7665679 0
4.2480001 0.037292648 1.7644467 0
4.2410002 0.030212697 1.7619717 0
4.2350001 0.023176048 1.7598505 0
4.2280002 0.016144797 1.7573757 0
4.2220001 0.0091532432 1.7552545 0
4.2160001 0.0021833256 1.7531332 0
4.2090001 -0.0047757663 1.7506583 0
4.2030001 -0.011700585 1.7485371 0
4.197 -0.018603761 1.7464157 0
4.191 -0.02548529 1.7442944 0
4.184 -0.032348778 1.7418196 0
4.178 -0.039185211 1.7396984 0
4.1719999 -0.046 1.7375771 0
4.1660004 -0.052793141 1.7354559 0
4.1600003 -0.059564639 1.7333345 0
4.1530004 -0.06630908 1.7308598 0
4.1470003 -0.073035479 1.7287384 0
4.1410003 -0.079740234 1.7266171 0
4.1350002 -0.086423337 1.7244959 0
4.1290002 -0.093084805 1.7223746 0
4.1230001 -0.099724621 1.7202533 0
4.1170001 -0.1063428 1.7181321 0
4.1110001 -0.11293933 1.7160108 0
4.105 -0.1195142 1.7138896 0
4.099 -0.12606743 1.7117683 0
4.0929999 -0.13259903 1.7096469 0
4.0870004 -0.13910897 1.7075257 0
4.0810003 -0.14559728 1.7054045 0
4.0760002 -0.15209278 1.7036366 0
4.0700002 -0.15853959 1.7015153 0
4.0640001 -0.16496477 1.6993941 0
4.0580001 -0.17136829 1.6972728 0
4.052 -0.17775016 1.6951516 0
4.046 -0.18411039 1.6930302 0
4.0410004 -0.19048865 1.6912626 0
4.0350003 -0.19680738 1.6891413 0
4.0290003 -0.2031045 1.6870201 0
4.0230002 -0.20937994 1.6848987 0
4.0180001 -0.21568064 1.683131 0
4.0120001 -0.2219146 1.6810097 0
4.006 -0.22812691 1.6788884 0
4.0110002 -0.23489299 1.6806561 0
4.0180001 -0.24178536 1.683131 0
4.026 -0.24875887 1.6859593 0
4.0339999 -0.25576124 1.6887877 0
4.0420003 -0.2627925 1.6916161 0
4.0490003 -0.26979128 1.694091 0
4.0570002 -0.27687842 1.6969193 0
4.0650001 -0.28399444 1.6997477 0
4.073 -0.29113933 1.702576 0
4.0810003 -0.29831308 1.7054045 0
4.0890002 -0.30551568 1.7082328 0
4.0970001 -0.31274715 1.7110612 0
4.6530004 0.4833402 1.8999614 0
4.6450005 0.47468734 1.8971475 0
4.6370001 0.46606326 1.8943335 0
4.6290002 0.45746815 1.8915195 0
4.6210003 0.44890186 1.8887056 0
4.6140003 0.44047987 1.8862433 0
4.6060004 0.43196952 1.8834294 0
4.5980005 0.42348802 1.8806156 0
4.5910001 0.41514537 1.8781532 0
4.5830002 0.40671977 1.8753393 0
4.5750003 0.39832306 1.8725255 0
4.5680003 0.39005983 1.8700633 0
4.5600004 0.38171902 1.8672494 0
4.5530005 0.3735081 1.8647872 0
4.5450001 0.36522317 1.8619732 0
4.5380001 0.35706452 1.8595108 0
4.5310001 0.34893119 1.8570486 0
4.5230002 0.34072927 1.8542348 0
4.5160003 0.33264822 1.8517727 0
4.5080004 0.3245022 1.8489587 0
4.5010004 0.31647348 1.8464966 0
4.4940004 0.30846998 1.8440343 0
4.4870005 0.30049172 1.8415722 0
4.4790001 0.29245573 1.8387581 0
4.4720001 0.28452981 1.8362958 0
4.4650002 0.27662912 1.8338337 0
4.4580002 0.26875371 1.8313714 0
4.4510002 0.26090351 1.8289093 0
4.4430003 0.25300467 1.8260955 0
4.4360003 0.24520677 1.8236332 0
4.4290004 0.23743421 1.821171 0
4.4220004 0.22968686 1.8187088 0
4.4150004 0.22196472 1.8162466 0
4.4080005 0.21426788 1.8137845 0
4.4010005 0.20659631 1.8113222 0
4.3940001 0.19894993 1.8088599 0
4.3870001 0.19132887 1.8063978 0
4.381 0.18379073 1.8042873 0
4.3740001 0.17621835 1.8018252 0
4.3670001 0.16867122 1.799363 0
4.3600001 0.16114934 1.7969009 0
4.3530002 0.15365271 1.7944385 0
4.3460002 0.14618133 1.7919763 0
4.3400002 0.13878211 1.789866 0
4.3330002 0.13135944 1.7874036 0
4.3260002 0.12396201 1.7849414 0
4.3200002 0.11663134 1.7828311 0
4.3130002 0.10928263 1.7803688 0
4.3060002 0.10195917 1.7779067 0
4.3000002 0.094697028 1.7757962 0
4.2930002 0.087422282 1.7733339 0
4.2860003 0.080172777 1.7708718 0
4.2800002 0.072979182 1.7687614 0
4.2730002 0.06577839 1.7662991 0
4.2670002 0.058629896 1.7641886 0
4.2600002 0.051477794 1.7617265 0
4.2540002 0.044374395 1.759616 0
4.2480001 0.037292648 1.7575057 0
4.2410002 0.030212697 1.7550433 0
4.2350001 0.023176048 1.752933 0
4.2280002 0.016144797 1.7504708 0
4.2220001 0.0091532432 1.7483603 0
4.2160001 0.0021833256 1.7462499 0
4.2090001 -0.0047757663 1.7437876 0
4.2030001 -0.011700585 1.7416772 0
4.197 -0.018603761 1.7395667 0
4.191 -0.02548529 1.7374562 0
4.184 -0.032348778 1.7349941 0
4.178 -0.039185211 1.7328836 0
4.1719999 -0.046 1.7307732 0
4.1660004 -0.052793141 1.7286627 0
4.1600003 -0.059564639 1.7265524 0
4.1530004 -0.06630908 1.72409 0
4.1470003 -0.073035479 1.7219796 0
4.1410003 -0.079740234 1.7198691 0
4.1350002 -0.086423337 1.7177587 0
4.1290002 -0.093084805 1.7156482 0
4.1230001 -0.099724621 1.7135378 0
4.1170001 -0.1063428 1.7114273 0
4.1110001 -0.11293933 1.7093168 0
4.105 -0.1195142 1.7072064 0
4.099 -0.12606743 1.705096 0
4.0929999 -0.13259903 1.7029854 0
4.0870004 -0.13910897 1.700875 0
4.0810003 -0.14559728 1.6987646 0
4.0760002 -0.15209278 1.6970059 0
4.0700002 -0.15853959 1.6948954 0
4.0640001 -0.16496477 1.6927849 0
4.0580001 -0.17136829 1.6906745 0
4.052 -0.17775016 1.6885641 0
4.046 -0.18411039 1.6864536 0
4.0410004 -0.19048865 1.6846949 0
4.0350003 -0.19680738 1.6825845 0
4.0290003 -0.2031045 1.6804739 0
4.0230002 -0.20937994 1.6783636 0
4.0180001 -0.21568064 1.6766049 0
4.0120001 -0.2219146 1.6744943 0
4.006 -0.22812691 1.6723839 0
4.0110002 -0.23489299 1.6741426 0
4.0180001 -0.24178536 1.6766049 0
4.026 -0.24875887 1.6794187 0
4.0339999 -0.25576124 1.6822326 0
4.0420003 -0.2627925 1.6850467 0
4.0490003 -0.26979128 1.6875088 0
4.0570002 -0.27687842 1.6903226 0
4.0650001 -0.28399444 1.6931367 0
4.073 -0.29113933 1.6959506 0
4.0810003 -0.29831308 1.6987646 0
4.0890002 -0.30551568 1.7015785 0
4.0970001 -0.31274715 1.7043924 0
4.6530004 0.4833402 1.8922898 0
4.6450005 0.47468734 1.8894904 0
4.6370001 0.46606326 1.8866907 0
4.6290002 0.45746815 1.8838912 0
4.6210003 0.44890186 1.8810917 0
4.6140003 0.44047987 1.8786422 0
4.6060004 0.43196952 1.8758427 0
4.5980005 0.42348802 1.8730433 0
4.5910001 0.41514537 1.8705935 0
4.5830002 0.40671977 1.867794 0
4.5750003 0.39832306 1.8649945 0
4.5680003 0.39005983 1.862545 0
4.5600004 0.38171902 1.8597454 0
4.5530005 0.3735081 1.8572959 0
4.5450001 0.36522317 1.8544962 0
4.5380001 0.35706452 1.8520466 0
4.5310001 0.34893119 1.8495971 0
4.5230002 0.34072927 1.8467976 0
4.5160003 0.33264822 1.8443481 0
4.5080004 0.3245022 1.8415486 0
4.5010004 0.31647348 1.839099 0
4.4940004 0.30846998 1.8366495 0
4.4870005 0.30049172 1.8341999 0
4.4790001 0.29245573 1.8314003 0
4.4720001 0.28452981 1.8289508 0
4.4650002 0.27662912 1.8265011 0
4.4580002 0.26875371 1.8240516 0
4.4510002 0.26090351 1.8216021 0
4.4430003 0.25300467 1.8188026 0
4.4360003 0.24520677 1.8163531 0
4.4290004 0.23743421 1.8139035 0
4.4220004 0.22968686 1.8114539 0
4.4150004 0.22196472 1.8090044 0
4.4080005 0.21426788 1.8065548 0
4.4010005 0.20659631 1.8041053 0
4.3940001 0.19894993 1.8016557 0
4.3870001 0.19132887 1.799206 0
4.381 0.18379073 1.7971064 0
4.3740001 0.17621835 1.7946569 0
4.3670001 0.16867122 1.7922072 0
4.3600001 0.16114934 1.7897577 0
4.3530002 0.15365271 1.7873081 0
4.3460002 0.14618133 1.7848586 0
4.3400002 0.13878211 1.782759 0
4.3330002 0.13135944 1.7803093 0
4.3260002 0.12396201 1.7778598 0
4.3200002 0.11663134 1.7757602 0
4.3130002 0.10928263 1.7733105 0
4.3060002 0.10195917 1.770861 0
4.3000002 0.094697028 1.7687614 0
4.2930002 0.087422282 1.7663118 0
4.2860003 0.080172777 1.7638623 0
4.2800002 0.072979182 1.7617626 0
4.2730002 0.06577839 1.759313 0
4.2670002 0.058629896 1.7572134 0
4.2600002 0.051477794 1.7547638 0
4.2540002 0.044374395 1.7526642 0
4.2480001 0.037292648 1.7505646 0
4.2410002 0.030212697 1.7481149 0
4.2350001 0.023176048 1.7460153 0
4.2280002 0.016144797 1.7435657 0
4.2220001 0.0091532432 1.7414662 0
4.2160001 0.0021833256 1.7393664 0
4.2090001 -0.0047757663 1.7369169 0
4.2030001 -0.011700585 1.7348173 0
4.197 -0.018603761 1.7327176 0
4.191 -0.02548529 1.730618 0
4.184 -0.032348778 1.7281684 0
4.178 -0.039185211 1.7260687 0
4.1719999 -0.046 1.7239691 0
4.1660004 -0.052793141 1.7218696 0
4.1600003 -0.059564639 1.71977 0
4.1530004 -0.06630908 1.7173203 0
4.1470003 -0.073035479 1.7152207 0
4.1410003 -0.079740234 1.7131211 0
4.1350002 -0.086423337 1.7110214 0
4.1290002 -0.093084805 1.7089218 0
4.1230001 -0.099724621 1.7068223 0
4.1170001 -0.1063428 1.7047225 0
4.1110001 -0.11293933 1.7026229 0
4.105 -0.1195142 1.7005233 0
4.099 -0.12606743 1.6984236 0
4.0929999 -0.13259903 1.696324 0
4.0870004 -0.13910897 1.6942245 0
4.0810003 -0.14559728 1.6921248 0
4.0760002 -0.15209278 1.6903751 0
4.0700002 -0.15853959 1.6882755 0
4.0640001 -0.16496477 1.6861758 0
4.0580001 -0.17136829 1.6840762 0
4.052 -0.17775016 1.6819766 0
4.046 -0.18411039 1.6798769 0
4.0410004 -0.19048865 1.6781273 0
4.0350003 -0.19680738 1.6760277 0
4.0290003 -0.2031045 1.673928 0
4.0230002 -0.20937994 1.6718283 0
4.0180001 -0.21568064 1.6700786 0
4.0120001 -0.2219146 1.667979 0
4.006 -0.22812691 1.6658794 0
4.0110002 -0.23489299 1.667629 0
4.0180001 -0.24178536 1.6700786 0
4.026 -0.24875887 1.6728781 0
4.0339999 -0.25576124 1.6756777 0
4.0420003 -0.2627925 1.6784772 0
4.0490003 -0.26979128 1.6809267 0
4.0570002 -0.27687842 1.6837262 0
4.0650001 -0.28399444 1.6865257 0
4.073 -0.29113933 1.6893252 0
4.0810003 -0.29831308 1.6921248 0
4.0890002 -0.30551568 1.6949242 0
4.0970001 -0.31274715 1.6977239 0
4.6530004 0.4833402 1.8846182 0
4.6450005 0.47468734 1.8818332 0
4.6370001 0.46606326 1.879048 0
4.6290002 0.45746815 1.8762629 0
4.6210003 0.44890186 1.8734778 0
4.6140003 0.44047987 1.8710409 0
4.6060004 0.43196952 1.8682559 0
4.5980005 0.42348802 1.8654709 0
4.5910001 0.41514537 1.8630337 0
4.5830002 0.40671977 1.8602487 0
4.5750003 0.39832306 1.8574636 0
4.5680003 0.39005983 1.8550267 0
4.5600004 0.38171902 1.8522416 0
4.5530005 0.3735081 1.8498046 0
4.5450001 0.36522317 1.8470194 0
4.5380001 0.35706452 1.8445826 0
4.5310001 0.34893119 1.8421457 0
4.5230002 0.34072927 1.8393606 0
4.5160003 0.33264822 1.8369237 0
4.5080004 0.3245022 1.8341386 0
4.5010004 0.31647348 1.8317016 0
4.4940004 0.30846998 1.8292648 0
4.4870005 0.30049172 1.8268278 0
4.4790001 0.29245573 1.8240426 0
4.4720001 0.28452981 1.8216057 0
4.4650002 0.27662912 1.8191687 0
4.4580002 0.26875371 1.8167318 0
4.4510002 0.26090351 1.8142948 0
4.4430003 0.25300467 1.8115098 0
4.4360003 0.24520677 1.8090729 0
4.4290004 0.23743421 1.806636 0
4.4220004 0.22968686 1.804199 0
4.4150004 0.22196472 1.8017621 0
4.4080005 0.21426788 1.7993251 0
4.4010005 0.20659631 1.7968881 0
4.3940001 0.19894993 1.7944512 0
4.3870001 0.19132887 1.7920142 0
4.381 0.18379073 1.7899253 0
4.3740001 0.17621835 1.7874886 0
4.3670001 0.16867122 1.7850516 0
4.3600001 0.16114934 1.7826146 0
4.3530002 0.15365271 1.7801776 0
4.3460002 0.14618133 1.7777406 0
4.3400002 0.13878211 1.7756519 0
4.3330002 0.13135944 1.7732149 0
4.3260002 0.12396201 1.7707779 0
4.3200002 0.11663134 1.7686892 0
4.3130002 0.10928263 1.7662523 0
4.3060002 0.10195917 1.7638153 0
4.3000002 0.094697028 1.7617265 0
4.2930002 0.087422282 1.7592895 0
4.2860003 0.080172777 1.7568526 0
4.2800002 0.072979182 1.7547638 0
4.2730002 0.06577839 1.7523268 0
4.2670002 0.058629896 1.7502379 0
4.2600002 0.051477794 1.7478011 0
4.2540002 0.044374395 1.7457123 0
4.2480001 0.037292648 1.7436235 0
4.2410002 0.030212697 1.7411865 0
4.2350001 0.023176048 1.7390977 0
4.2280002 0.016144797 1.7366607 0
4.2220001 0.0091532432 1.7345721 0
4.2160001 0.0021833256 1.7324831 0
4.2090001 -0.0047757663 1.7300462 0
4.2030001 -0.011700585 1.7279575 0
4.197 -0.018603761 1.7258686 0
4.191 -0.02548529 1.7237798 0
4.184 -0.032348778 1.7213428 0
4.178 -0.039185211 1.719254 0
4.1719999 -0.046 1.7171652 0
4.1660004 -0.052793141 1.7150764 0
4.1600003 -0.059564639 1.7129877 0
4.1530004 -0.06630908 1.7105507 0
4.1470003 -0.073035479 1.7084619 0
4.1410003 -0.079740234 1.7063731 0
4.1350002 -0.086423337 1.7042842 0
4.1290002 -0.093084805 1.7021954 0
4.1230001 -0.099724621 1.7001066 0
4.1170001 -0.1063428 1.6980178 0
4.1110001 -0.11293933 1.6959289 0
4.105 -0.1195142 1.6938401 0
4.099 -0.12606743 1.6917514 0
4.0929999 -0.13259903 1.6896626 0
4.0870004 -0.13910897 1.6875738 0
4.0810003 -0.14559728 1.685485 0
4.0760002 -0.15209278 1.6837442 0
4.0700002 -0.15853959 1.6816554 0
4.0640001 -0.16496477 1.6795666 0
4.0580001 -0.17136829 1.6774778 0
4.052 -0.17775016 1.6753891 0
4.046 -0.18411039 1.6733003 0
4.0410004 -0.19048865 1.6715596 0
4.0350003 -0.19680738 1.6694708 0
4.0290003 -0.2031045 1.6673819 0
4.0230002 -0.20937994 1.6652931 0
4.0180001 -0.21568064 1.6635524 0
4.0120001 -0.2219146 1.6614636 0
4.006 -0.22812691 1.6593747 0
4.0110002 -0.23489299 1.6611155 0
4.0180001 -0.24178536 1.6635524 0
4.026 -0.24875887 1.6663376 0
4.0339999 -0.25576124 1.6691226 0
4.0420003 -0.2627925 1.6719078 0
4.0490003 -0.26979128 1.6743445 0
4.0570002 -0.27687842 1.6771296 0
4.0650001 -0.28399444 1.6799148 0
4.073 -0.29113933 1.6826999 0
4.0810003 -0.29831308 1.685485 0
4.0890002 -0.30551568 1.6882701 0
4.0970001 -0.31274715 1.6910552 0
4.6530004 0.4833402 1.8769466 0
4.6450005 0.47468734 1.8741759 0
4.6370001 0.46606326 1.8714052 0
4.6290002 0.45746815 1.8686346 0
4.6210003 0.44890186 1.8658639 0
