# .PCD v0.7 - Point Cloud Data file format
VERSION 0.7
FIELDS x y z intensity
SIZE 4 4 4 4
TYPE F F F F
COUNT 1 1 1 1
WIDTH 1461
HEIGHT 1
VIEWPOINT 0 0 0 1 0 0 0
POINTS 1461
DATA ascii
6.6120005 1.8364832 0.97546816 0
6.6180005 1.8270854 0.9760201 0
6.6260004 1.8182646 0.97675598 0
6.6350002 1.8097128 0.977584 0
6.6100006 1.9030869 0.96408248 0
6.6090002 1.8915731 0.96399224 0
6.6090002 1.8803732 0.96399224 0
6.6100006 1.8694819 0.96408248 0
6.6130004 1.8592004 0.96435308 0
6.6170006 1.8492126 0.96471381 0
6.6220002 1.8395134 0.96516478 0
6.6290002 1.8303989 0.96579611 0
6.6380005 1.8218578 0.96660781 0
6.6230006 1.8959421 0.95402992 0
6.6230006 1.884717 0.95402992 0
6.6240005 1.8738004 0.95411825 0
6.6260004 1.8631867 0.95429504 0
6.6310005 1.8534805 0.95473695 0
6.6360002 1.843756 0.95517886 0
6.6380005 1.8218578 0.95535564 0
6.6310005 1.8085225 0.95473695 0
6.6240005 1.795212 0.95411825 0
6.6420002 1.8906118 0.94444978 0
6.6410003 1.8790441 0.94436324 0
6.6410003 1.8677863 0.94436324 0
6.6350002 1.8546996 0.94384372 0
6.6290002 1.8416348 0.94332421 0
6.6220002 1.8282901 0.94271815 0
6.6160002 1.8152702 0.94219863 0
6.6100006 1.8022721 0.94167912 0
6.6040006 1.7892956 0.94115973 0
6.6430006 1.8909222 0.93327522 0
6.6360002 1.8775016 0.9326818 0
6.6300006 1.8644134 0.93217313 0
6.6240005 1.8513466 0.93166447 0
6.6180005 1.8383013 0.9311558 0
6.6120005 1.8252779 0.93064713 0
6.6060004 1.812276 0.93013835 0
6.6000004 1.7992958 0.9296298 0
6.5950003 1.786633 0.92920578 0
6.6430006 1.9021833 0.922014 0
6.6370006 1.8890605 0.92151618 0
6.6310005 1.8759595 0.92101836 0
6.6250005 1.8628802 0.92052054 0
6.6190004 1.8498224 0.92002261 0
6.6130004 1.8367862 0.91952479 0
6.6070004 1.8237717 0.91902697 0
6.6020002 1.8110782 0.918612 0
6.5960002 1.7981052 0.91811419 0
6.5910006 1.7854499 0.91769934 0
6.5890002 1.7736943 0.9175334 0
6.5900002 1.7628227 0.91761637 0
6.5930004 1.7525285 0.91786528 0
6.6350002 1.88844 0.91010356 0
6.6290002 1.8753426 0.90961647 0
6.6230006 1.8622668 0.9091295 0
6.6180005 1.8495175 0.90872359 0
6.6120005 1.8364832 0.9082365 0
6.6060004 1.8234706 0.90774953 0
6.6010003 1.810779 0.90734363 0
6.5950003 1.7978077 0.90685666 0
6.5900002 1.785154 0.90645075 0
6.5880003 1.7734003 0.9062885 0
6.5890002 1.7625306 0.90636957 0
6.5920005 1.752238 0.90661311 0
6.5980005 1.7428006 0.9071002 0
6.6010003 1.810779 0.89615822 0
6.5950003 1.7978077 0.8956821 0
6.5900002 1.785154 0.89528525 0
6.5880003 1.7734003 0.89512646 0
6.5890002 1.7625306 0.89520586 0
6.5920005 1.752238 0.89544398 0
6.5980005 1.7428006 0.89592016 0
6.6060004 1.733915 0.89655513 0
6.5950003 1.7978077 0.88450748 0
6.5900002 1.785154 0.88411963 0
6.5880003 1.7734003 0.88396454 0
6.5890002 1.7625306 0.88404208 0
6.5920005 1.752238 0.88427478 0
6.5980005 1.7428006 0.88474011 0
6.6060004 1.733915 0.88536066 0
6.5950003 1.7978077 0.87333286 0
6.5900002 1.785154 0.87295407 0
6.5880003 1.7734003 0.8728025 0
6.5890002 1.7625306 0.87287831 0
6.5920005 1.752238 0.87310565 0
6.5980005 1.7428006 0.87356019 0
6.6060004 1.733915 0.87416625 0
6.6180005 1.7261406 0.87507534 0
6.5950003 1.7978077 0.8621583 0
6.5900002 1.785154 0.86178851 0
6.5880003 1.7734003 0.86164057 0
6.5890002 1.7625306 0.86171454 0
6.5920005 1.752238 0.86193645 0
6.5980005 1.7428006 0.86238015 0
6.6060004 1.733915 0.86297178 0
6.6180005 1.7261406 0.8638593 0
6.5900002 1.785154 0.85062289 0
6.5880003 1.7734003 0.85047865 0
6.5890002 1.7625306 0.85055077 0
6.5920005 1.752238 0.85076725 0
6.5980005 1.7428006 0.85120016 0
6.6060004 1.733915 0.85177737 0
6.6180005 1.7261406 0.85264319 0
6.4450002 1.8294915 0.82925677 0
6.4390006 1.8167368 0.82883477 0
6.5900002 1.785154 0.83945733 0
6.5880003 1.7734003 0.83931661 0
6.5890002 1.7625306 0.839387 0
6.5920005 1.752238 0.83959806 0
6.5980005 1.7428006 0.84002018 0
6.6060004 1.733915 0.84058297 0
6.6180005 1.7261406 0.84142709 0
6.5470004 2.0607216 0.82534432 0
6.5410004 2.0475881 0.82493311 0
6.5350003 2.0344763 0.82452178 0
6.5290003 2.0213861 0.82411057 0
6.5240002 2.0086529 0.82376778 0
6.5180006 1.9956043 0.82335663 0
6.5120006 1.9825771 0.8229453 0
6.5070004 1.9699018 0.82260257 0
6.5010004 1.9569163 0.8221913 0
6.4950004 1.9439522 0.82178009 0
6.4900002 1.9313346 0.82143736 0
6.4840002 1.918412 0.82102603 0
6.4790006 1.9058325 0.82068336 0
6.4730005 1.8929513 0.82027209 0
6.4670005 1.8800921 0.81986082 0
6.4620004 1.86757 0.81951809 0
6.4560003 1.8547521 0.81910682 0
6.4510002 1.8422679 0.81876409 0
6.4450002 1.8294915 0.81835282 0
6.4390006 1.8167368 0.81794155 0
6.4340005 1.8043103 0.81759882 0
6.4280005 1.7915971 0.81718755 0
6.5900002 1.785154 0.82829177 0
6.5880003 1.7734003 0.82815468 0
6.5890002 1.7625306 0.82822323 0
6.5920005 1.752238 0.82842886 0
6.5980005 1.7428006 0.82884014 0
6.6060004 1.733915 0.8293885 0
6.6180005 1.7261406 0.83021104 0
6.5580006 2.0867074 0.81499052 0
6.5520005 2.0735326 0.8145901 0
6.5470004 2.0607216 0.81425631 0
6.5410004 2.0475881 0.81385589 0
6.5350003 2.0344763 0.81345546 0
6.5290003 2.0213861 0.81305504 0
6.5240002 2.0086529 0.81272125 0
6.5180006 1.9956043 0.81232083 0
6.5120006 1.9825771 0.8119204 0
6.5070004 1.9699018 0.81158674 0
6.5010004 1.9569163 0.81118631 0
6.4950004 1.9439522 0.81078583 0
6.4900002 1.9313346 0.8104521 0
6.4840002 1.918412 0.81005168 0
6.4790006 1.9058325 0.80971801 0
6.4730005 1.8929513 0.80931753 0
6.4670005 1.8800921 0.80891711 0
6.4620004 1.86757 0.80858338 0
6.4560003 1.8547521 0.80818295 0
6.4510002 1.8422679 0.80784923 0
6.4450002 1.8294915 0.80744874 0
6.4390006 1.8167368 0.80704832 0
6.4340005 1.8043103 0.80671465 0
6.4280005 1.7915971 0.80631423 0
6.4300003 1.7813299 0.80644763 0
6.5900002 1.785154 0.81712615 0
6.5880003 1.7734003 0.81699276 0
6.5890002 1.7625306 0.81705952 0
6.5920005 1.752238 0.81725967 0
6.5980005 1.7428006 0.81766015 0
6.6060004 1.733915 0.81819403 0
6.6180005 1.7261406 0.818995 0
6.5640006 2.0999041 0.80427229 0
6.5580006 2.0867074 0.80388266 0
6.5520005 2.0735326 0.80349302 0
6.5470004 2.0607216 0.8031683 0
6.5410004 2.0475881 0.80277872 0
6.5350003 2.0344763 0.80238914 0
6.5290003 2.0213861 0.80199945 0
6.5240002 2.0086529 0.80167478 0
6.5180006 1.9956043 0.80128515 0
6.5120006 1.9825771 0.80089557 0
6.5070004 1.9699018 0.80057085 0
6.5010004 1.9569163 0.80018127 0
6.4950004 1.9439522 0.79979163 0
6.4900002 1.9313346 0.79946691 0
6.4840002 1.918412 0.79907727 0
6.4790006 1.9058325 0.79875267 0
6.4730005 1.8929513 0.79836303 0
6.4670005 1.8800921 0.79797339 0
6.4620004 1.86757 0.79764867 0
6.4560003 1.8547521 0.79725909 0
6.4510002 1.8422679 0.79693437 0
6.4450002 1.8294915 0.79654473 0
6.4390006 1.8167368 0.79615515 0
6.4340005 1.8043103 0.79583049 0
6.4280005 1.7915971 0.79544079 0
6.4300003 1.7813299 0.79557073 0
6.5900002 1.785154 0.80596066 0
6.5880003 1.7734003 0.80583072 0
6.5890002 1.7625306 0.80589569 0
6.5920005 1.752238 0.80609053 0
6.5980005 1.7428006 0.80648017 0
6.6060004 1.733915 0.80699968 0
6.6180005 1.7261406 0.80777889 0
6.5640006 2.0999041 0.79315364 0
6.5580006 2.0867074 0.7927748 0
6.5520005 2.0735326 0.79239601 0
6.5470004 2.0607216 0.79208028 0
6.5410004 2.0475881 0.79170156 0
6.5350003 2.0344763 0.79132271 0
6.5290003 2.0213861 0.79094392 0
6.5240002 2.0086529 0.79062825 0
6.5180006 1.9956043 0.79024947 0
6.5120006 1.9825771 0.78987068 0
6.5070004 1.9699018 0.78955501 0
6.5010004 1.9569163 0.78917623 0
6.4950004 1.9439522 0.78879738 0
6.4900002 1.9313346 0.78848171 0
6.4840002 1.918412 0.78810292 0
6.4790006 1.9058325 0.78778732 0
6.4730005 1.8929513 0.78740847 0
6.4670005 1.8800921 0.78702968 0
6.4620004 1.86757 0.78671402 0
6.4560003 1.8547521 0.78633523 0
6.4510002 1.8422679 0.78601956 0
6.4450002 1.8294915 0.78564072 0
6.4390006 1.8167368 0.78526199 0
6.4340005 1.8043103 0.78494632 0
6.4280005 1.7915971 0.78456748 0
6.4300003 1.7813299 0.78469372 0
6.4450002 1.7749714 0.78564072 0
6.5900002 1.785154 0.79479504 0
6.5880003 1.7734003 0.79466879 0
6.5890002 1.7625306 0.79473191 0
6.5920005 1.752238 0.79492134 0
6.5980005 1.7428006 0.79530013 0
6.6060004 1.733915 0.79580522 0
6.6180005 1.7261406 0.79656279 0
6.5640006 2.0999041 0.78203493 0
6.5580006 2.0867074 0.78166699 0
6.5520005 2.0735326 0.781299 0
6.5470004 2.0607216 0.78099233 0
6.5410004 2.0475881 0.78062433 0
6.5350003 2.0344763 0.78025639 0
6.5290003 2.0213861 0.77988839 0
6.5240002 2.0086529 0.77958173 0
6.5180006 1.9956043 0.77921379 0
6.5120006 1.9825771 0.77884579 0
6.5070004 1.9699018 0.77853918 0
6.5010004 1.9569163 0.77817118 0
6.4950004 1.9439522 0.77780318 0
6.4900002 1.9313346 0.77749652 0
6.4840002 1.918412 0.77712858 0
6.4790006 1.9058325 0.77682197 0
6.4730005 1.8929513 0.77645397 0
6.4670005 1.8800921 0.77608597 0
6.4620004 1.86757 0.77577931 0
6.4560003 1.8547521 0.77541137 0
6.4510002 1.8422679 0.7751047 0
6.4450002 1.8294915 0.7747367 0
6.4390006 1.8167368 0.77436876 0
6.4340005 1.8043103 0.7740621 0
6.4280005 1.7915971 0.77369416 0
6.4300003 1.7813299 0.77381676 0
6.4450002 1.7749714 0.7747367 0
6.5900002 1.785154 0.78362948 0
6.5880003 1.7734003 0.78350687 0
6.5890002 1.7625306 0.78356814 0
6.5920005 1.752238 0.7837522 0
6.5980005 1.7428006 0.78412014 0
6.6060004 1.733915 0.78461075 0
6.6180005 1.7261406 0.78534675 0
6.5640006 2.0999041 0.77091628 0
6.5580006 2.0867074 0.77055913 0
6.5520005 2.0735326 0.77020198 0
6.5470004 2.0607216 0.76990432 0
6.5410004 2.0475881 0.76954716 0
6.5350003 2.0344763 0.76918995 0
6.5290003 2.0213861 0.7688328 0
6.5240002 2.0086529 0.7685352 0
6.5180006 1.9956043 0.76817811 0
6.5120006 1.9825771 0.76782095 0
6.5070004 1.9699018 0.76752329 0
6.5010004 1.9569163 0.76716614 0
6.4950004 1.9439522 0.76680899 0
6.4900002 1.9313346 0.76651132 0
6.4840002 1.918412 0.76615417 0
6.4790006 1.9058325 0.76585656 0
6.4730005 1.8929513 0.76549941 0
6.4670005 1.8800921 0.76514226 0
6.4620004 1.86757 0.76484466 0
6.4560003 1.8547521 0.7644875 0
6.4510002 1.8422679 0.76418984 0
6.4450002 1.8294915 0.76383269 0
6.4390006 1.8167368 0.76347554 0
6.4340005 1.8043103 0.76317793 0
6.4280005 1.7915971 0.76282078 0
6.4300003 1.7813299 0.76293981 0
6.4450002 1.7749714 0.76383269 0
6.5900002 1.785154 0.77246392 0
6.5880003 1.7734003 0.77234483 0
6.5890002 1.7625306 0.77240437 0
6.5920005 1.752238 0.77258301 0
6.5980005 1.7428006 0.77294016 0
6.6060004 1.733915 0.77341628 0
6.6180005 1.7261406 0.77413064 0
6.5640006 2.0999041 0.75979757 0
6.5580006 2.0867074 0.75945127 0
6.5520005 2.0735326 0.75910497 0
6.5470004 2.0607216 0.7588163 0
6.5410004 2.0475881 0.75846994 0
6.5350003 2.0344763 0.75812364 0
6.5290003 2.0213861 0.75777733 0
6.5240002 2.0086529 0.75748873 0
6.5180006 1.9956043 0.75714242 0
6.5120006 1.9825771 0.75679606 0
6.5070004 1.9699018 0.7565074 0
6.5010004 1.9569163 0.75616109 0
6.4950004 1.9439522 0.75581479 0
6.4900002 1.9313346 0.75552619 0
6.4840002 1.918412 0.75517982 0
6.4790006 1.9058325 0.75489128 0
6.4730005 1.8929513 0.75454491 0
6.4670005 1.8800921 0.75419855 0
6.4620004 1.86757 0.75390995 0
6.4560003 1.8547521 0.75356364 0
6.4510002 1.8422679 0.75327504 0
6.4450002 1.8294915 0.75292867 0
6.4390006 1.8167368 0.75258237 0
6.4340005 1.8043103 0.75229371 0
6.4280005 1.7915971 0.7519474 0
6.4300003 1.7813299 0.75206286 0
6.4450002 1.7749714 0.75292867 0
6.5900002 1.785154 0.7612983 0
6.5880003 1.7734003 0.7611829 0
6.5890002 1.7625306 0.7612406 0
6.5920005 1.752238 0.76141381 0
6.5980005 1.7428006 0.76176012 0
6.6060004 1.733915 0.76222193 0
6.6180005 1.7261406 0.76291454 0
6.5640006 2.0999041 0.74867892 0
6.5580006 2.0867074 0.74834341 0
6.5520005 2.0735326 0.74800789 0
6.5470004 2.0607216 0.74772829 0
6.5410004 2.0475881 0.74739277 0
6.5350003 2.0344763 0.74705732 0
6.5290003 2.0213861 0.74672174 0
6.5240002 2.0086529 0.7464422 0
6.5180006 1.9956043 0.74610668 0
6.5120006 1.9825771 0.74577117 0
6.5070004 1.9699018 0.74549162 0
6.5010004 1.9569163 0.74515605 0
6.4950004 1.9439522 0.74482059 0
6.4900002 1.9313346 0.74454093 0
6.4840002 1.918412 0.74420547 0
6.4790006 1.9058325 0.74392593 0
6.4730005 1.8929513 0.74359035 0
6.4670005 1.8800921 0.7432549 0
6.4620004 1.86757 0.74297523 0
6.4560003 1.8547521 0.74263978 0
6.4510002 1.8422679 0.74236017 0
6.4450002 1.8294915 0.74202466 0
6.4390006 1.8167368 0.74168915 0
6.4340005 1.8043103 0.74140954 0
6.4280005 1.7915971 0.74107409 0
6.4300003 1.7813299 0.7411859 0
6.4450002 1.7749714 0.74202466 0
6.5900002 1.785154 0.7501328 0
6.5880003 1.7734003 0.75002092 0
6.5890002 1.7625306 0.75007689 0
6.5920005 1.752238 0.75024462 0
6.5980005 1.7428006 0.75058013 0
6.6060004 1.733915 0.75102746 0
6.6180005 1.7261406 0.75169849 0
6.5640006 2.0999041 0.73756027 0
6.5580006 2.0867074 0.73723555 0
6.5520005 2.0735326 0.73691088 0
6.5470004 2.0607216 0.73664027 0
6.5410004 2.0475881 0.73631561 0
6.5350003 2.0344763 0.73599088 0
6.5290003 2.0213861 0.73566628 0
6.5240002 2.0086529 0.73539567 0
6.5180006 1.9956043 0.73507094 0
6.5120006 1.9825771 0.73474634 0
6.5070004 1.9699018 0.73447573 0
6.5010004 1.9569163 0.73415101 0
6.4950004 1.9439522 0.73382634 0
6.4900002 1.9313346 0.73355579 0
6.4840002 1.918412 0.73323107 0
6.4790006 1.9058325 0.73296052 0
6.4730005 1.8929513 0.73263586 0
6.4670005 1.8800921 0.73231113 0
6.4620004 1.86757 0.73204058 0
6.4560003 1.8547521 0.73171592 0
6.4510002 1.8422679 0.73144531 0
6.4450002 1.8294915 0.73112065 0
6.4390006 1.8167368 0.73079598 0
6.4340005 1.8043103 0.73052537 0
6.4280005 1.7915971 0.73020071 0
6.4300003 1.7813299 0.73030889 0
6.4450002 1.7749714 0.73112065 0
6.5900002 1.785154 0.73896718 0
6.5880003 1.7734003 0.73885894 0
6.5890002 1.7625306 0.73891306 0
6.5920005 1.752238 0.73907542 0
6.5980005 1.7428006 0.73940015 0
6.6060004 1.733915 0.739833 0
6.6180005 1.7261406 0.74048239 0
6.5640006 2.0999041 0.72644156 0
6.5580006 2.0867074 0.72612774 0
6.5520005 2.0735326 0.72581387 0
6.5470004 2.0607216 0.72555232 0
6.5410004 2.0475881 0.72523844 0
6.5350003 2.0344763 0.72492456 0
6.5290003 2.0213861 0.72461069 0
6.5240002 2.0086529 0.72434914 0
6.5180006 1.9956043 0.72403526 0
6.5120006 1.9825771 0.72372144 0
6.5070004 1.9699018 0.72345984 0
6.5010004 1.9569163 0.72314602 0
6.4950004 1.9439522 0.72283214 0
6.4900002 1.9313346 0.72257054 0
6.4840002 1.918412 0.72225672 0
6.4790006 1.9058325 0.72199517 0
6.4730005 1.8929513 0.72168136 0
6.4670005 1.8800921 0.72136748 0
6.4620004 1.86757 0.72110587 0
6.4560003 1.8547521 0.72079206 0
6.4510002 1.8422679 0.72053051 0
6.4450002 1.8294915 0.72021663 0
6.4390006 1.8167368 0.71990275 0
6.4340005 1.8043103 0.71964121 0
6.4280005 1.7915971 0.71932733 0
6.4300003 1.7813299 0.719432 0
6.4450002 1.7749714 0.72021663 0
6.5900002 1.785154 0.72780156 0
6.5880003 1.7734003 0.72769701 0
6.5890002 1.7625306 0.72774935 0
6.5920005 1.752238 0.72790623 0
6.5980005 1.7428006 0.72822011 0
6.6060004 1.733915 0.72863865 0
6.5640006 2.0999041 0.71532285 0
6.5580006 2.0867074 0.71501982 0
6.5520005 2.0735326 0.71471679 0
6.5470004 2.0607216 0.71446431 0
6.5410004 2.0475881 0.71416128 0
6.5350003 2.0344763 0.71385819 0
6.5290003 2.0213861 0.7135551 0
6.5240002 2.0086529 0.71330261 0
6.5180006 1.9956043 0.71299958 0
6.5120006 1.9825771 0.71269655 0
6.5070004 1.9699018 0.71244401 0
6.5010004 1.9569163 0.71214092 0
6.4950004 1.9439522 0.71183789 0
6.4900002 1.9313346 0.7115854 0
6.4840002 1.918412 0.71128237 0
6.4790006 1.9058325 0.71102983 0
6.4730005 1.8929513 0.71072674 0
6.4670005 1.8800921 0.71042371 0
6.4620004 1.86757 0.71017122 0
6.4560003 1.8547521 0.70986819 0
6.4510002 1.8422679 0.70961565 0
6.4450002 1.8294915 0.70931256 0
6.4390006 1.8167368 0.70900953 0
6.4340005 1.8043103 0.70875704 0
6.4280005 1.7915971 0.70845401 0
6.4300003 1.7813299 0.70855498 0
6.4450002 1.7749714 0.70931256 0
6.5900002 1.785154 0.71663606 0
6.5880003 1.7734003 0.71653503 0
6.5890002 1.7625306 0.71658552 0
6.5920005 1.752238 0.71673703 0
6.5980005 1.7428006 0.71704006 0
6.6060004 1.733915 0.71744418 0
6.5640006 2.0999041 0.7042042 0
6.5580006 2.0867074 0.70391202 0
6.5520005 2.0735326 0.70361978 0
6.5470004 2.0607216 0.70337629 0
6.5410004 2.0475881 0.70308405 0
6.5350003 2.0344763 0.70279181 0
6.5290003 2.0213861 0.70249963 0
6.5240002 2.0086529 0.70225608 0
6.5180006 1.9956043 0.7019639 0
6.5120006 1.9825771 0.70167172 0
6.5070004 1.9699018 0.70142817 0
6.5010004 1.9569163 0.70113593 0
6.4950004 1.9439522 0.70084369 0
6.4900002 1.9313346 0.70060021 0
6.4840002 1.918412 0.70030797 0
6.4790006 1.9058325 0.70006448 0
6.4730005 1.8929513 0.69977224 0
6.4670005 1.8800921 0.69948006 0
6.4620004 1.86757 0.69923651 0
6.4560003 1.8547521 0.69894433 0
6.4510002 1.8422679 0.69870079 0
6.4450002 1.8294915 0.69840854 0
6.4390006 1.8167368 0.69811636 0
6.4340005 1.8043103 0.69787288 0
6.4280005 1.7915971 0.69758064 0
6.4300003 1.7813299 0.69767803 0
6.4450002 1.7749714 0.69840854 0
6.5900002 1.785154 0.70547044 0
6.5880003 1.7734003 0.70537305 0
6.5890002 1.7625306 0.70542181 0
6.5920005 1.752238 0.7055679 0
6.5980005 1.7428006 0.70586014 0
6.6060004 1.733915 0.70624971 0
6.5640006 2.0999041 0.69308555 0
6.5580006 2.0867074 0.69280416 0
6.5520005 2.0735326 0.69252276 0
6.5470004 2.0607216 0.69228828 0
6.5410004 2.0475881 0.69200683 0
6.5350003 2.0344763 0.69172549 0
6.5290003 2.0213861 0.69144404 0
6.5240002 2.0086529 0.69120955 0
6.5180006 1.9956043 0.69092822 0
6.5120006 1.9825771 0.69064677 0
6.5070004 1.9699018 0.69041228 0
6.5010004 1.9569163 0.69013089 0
6.4950004 1.9439522 0.6898495 0
6.4900002 1.9313346 0.68961501 0
6.4840002 1.918412 0.68933362 0
6.4790006 1.9058325 0.68909913 0
6.4730005 1.8929513 0.68881774 0
6.4670005 1.8800921 0.68853629 0
6.4620004 1.86757 0.6883018 0
6.4560003 1.8547521 0.68802047 0
6.4510002 1.8422679 0.68778598 0
6.4450002 1.8294915 0.68750453 0
6.4390006 1.8167368 0.6872232 0
6.4340005 1.8043103 0.68698865 0
6.4280005 1.7915971 0.68670726 0
6.4300003 1.7813299 0.68680108 0
6.4450002 1.7749714 0.68750453 0
6.5900002 1.785154 0.69430494 0
6.5880003 1.7734003 0.69421113 0
6.5890002 1.7625306 0.69425797 0
6.5920005 1.752238 0.6943987 0
6.5980005 1.7428006 0.69468009 0
6.6060004 1.733915 0.69505525 0
6.5640006 2.0999041 0.6819669 0
6.5580006 2.0867074 0.6816963 0
6.5520005 2.0735326 0.68142575 0
6.5470004 2.0607216 0.68120027 0
6.5410004 2.0475881 0.68092966 0
6.5350003 2.0344763 0.68065906 0
6.5290003 2.0213861 0.68038857 0
6.5240002 2.0086529 0.68016303 0
6.5180006 1.9956043 0.67989248 0
6.5120006 1.9825771 0.67962193 0
6.5070004 1.9699018 0.67939639 0
6.5010004 1.9569163 0.67912591 0
6.4950004 1.9439522 0.6788553 0
6.4900002 1.9313346 0.67862982 0
6.4840002 1.918412 0.67835927 0
6.4790006 1.9058325 0.67813373 0
6.4730005 1.8929513 0.67786324 0
6.4670005 1.8800921 0.67759264 0
6.4620004 1.86757 0.67736715 0
6.4560003 1.8547521 0.67709661 0
6.4510002 1.8422679 0.67687112 0
6.4450002 1.8294915 0.67660052 0
6.4390006 1.8167368 0.67632997 0
6.4340005 1.8043103 0.67610449 0
6.4280005 1.7915971 0.67583394 0
6.4300003 1.7813299 0.67592406 0
6.4450002 1.7749714 0.67660052 0
6.5900002 1.785154 0.68313932 0
6.5880003 1.7734003 0.68304914 0
6.5890002 1.7625306 0.68309426 0
6.5920005 1.752238 0.68322951 0
6.5980005 1.7428006 0.68350011 0
6.6060004 1.733915 0.6838609 0
6.5640006 2.0999041 0.67084819 0
6.5580006 2.0867074 0.67058843 0
6.5520005 2.0735326 0.67032874 0
6.5470004 2.0607216 0.67011225 0
6.5410004 2.0475881 0.6698525 0
6.5350003 2.0344763 0.66959274 0
6.5290003 2.0213861 0.66933298 0
6.5240002 2.0086529 0.6691165 0
6.5180006 1.9956043 0.6688568 0
6.5120006 1.9825771 0.66859704 0
6.5070004 1.9699018 0.66838062 0
6.5010004 1.9569163 0.66812086 0
6.4950004 1.9439522 0.6678611 0
6.4900002 1.9313346 0.66764462 0
6.4840002 1.918412 0.66738486 0
6.4790006 1.9058325 0.66716844 0
6.4730005 1.8929513 0.66690868 0
6.4670005 1.8800921 0.66664892 0
6.4620004 1.86757 0.6664325 0
6.4560003 1.8547521 0.66617274 0
6.4510002 1.8422679 0.66595626 0
6.4450002 1.8294915 0.6656965 0
6.4390006 1.8167368 0.66543674 0
6.4340005 1.8043103 0.66522032 0
6.4280005 1.7915971 0.66496056 0
6.4300003 1.7813299 0.66504717 0
6.4450002 1.7749714 0.6656965 0
6.5900002 1.785154 0.67197371 0
6.5880003 1.7734003 0.67188716 0
6.5890002 1.7625306 0.67193049 0
6.5920005 1.752238 0.67206037 0
6.5980005 1.7428006 0.67232013 0
6.6060004 1.733915 0.67266643 0
6.5640006 2.0999041 0.65972954 0
6.5580006 2.0867074 0.65948057 0
6.5520005 2.0735326 0.65923166 0
6.5470004 2.0607216 0.65902424 0
6.5410004 2.0475881 0.65877533 0
6.5350003 2.0344763 0.65852642 0
6.5290003 2.0213861 0.65827745 0
6.5240002 2.0086529 0.65806997 0
6.5180006 1.9956043 0.65782106 0
6.5120006 1.9825771 0.65757215 0
6.5070004 1.9699018 0.65736473 0
6.5010004 1.9569163 0.65711582 0
6.4950004 1.9439522 0.65686691 0
6.4900002 1.9313346 0.65665942 0
6.4840002 1.918412 0.65641052 0
6.4790006 1.9058325 0.65620309 0
6.4730005 1.8929513 0.65595412 0
6.4670005 1.8800921 0.65570521 0
6.4620004 1.86757 0.65549779 0
6.4560003 1.8547521 0.65524888 0
6.4510002 1.8422679 0.65504146 0
6.4450002 1.8294915 0.65479249 0
6.4390006 1.8167368 0.65454358 0
6.4340005 1.8043103 0.65433615 0
6.4280005 1.7915971 0.65408719 0
6.4300003 1.7813299 0.65417016 0
6.4450002 1.7749714 0.65479249 0
6.5900002 1.785154 0.66080821 0
6.5880003 1.7734003 0.66072524 0
6.5890002 1.7625306 0.66076672 0
6.5920005 1.752238 0.66089118 0
6.5980005 1.7428006 0.66114008 0
6.6060004 1.733915 0.66147196 0
6.5640006 2.0999041 0.64861083 0
6.5580006 2.0867074 0.64837277 0
6.5520005 2.0735326 0.64813465 0
6.5470004 2.0607216 0.64793622 0
6.5410004 2.0475881 0.6476981 0
6.5350003 2.0344763 0.64745998 0
6.5290003 2.0213861 0.64722192 0
6.5240002 2.0086529 0.64702344 0
6.5180006 1.9956043 0.64678538 0
6.5120006 1.9825771 0.64654732 0
6.5070004 1.9699018 0.64634883 0
6.5010004 1.9569163 0.64611077 0
6.4950004 1.9439522 0.64587265 0
6.4900002 1.9313346 0.64567423 0
6.4840002 1.918412 0.64543617 0
6.4790006 1.9058325 0.64523768 0
6.4730005 1.8929513 0.64499962 0
6.4670005 1.8800921 0.64476156 0
6.4620004 1.86757 0.64456308 0
6.4560003 1.8547521 0.64432502 0
6.4510002 1.8422679 0.64412659 0
6.4450002 1.8294915 0.64388847 0
6.4390006 1.8167368 0.64365041 0
6.4340005 1.8043103 0.64345199 0
6.4280005 1.7915971 0.64321387 0
6.4300003 1.7813299 0.6432932 0
6.4450002 1.7749714 0.64388847 0
6.5900002 1.785154 0.64964259 0
6.5880003 1.7734003 0.64956325 0
6.5890002 1.7625306 0.64960295 0
6.5920005 1.752238 0.64972198 0
6.5980005 1.7428006 0.6499601 0
6.6060004 1.733915 0.65027755 0
6.5640006 2.0999041 0.63749218 0
6.5580006 2.0867074 0.63726491 0
6.5520005 2.0735326 0.63703763 0
6.5470004 2.0607216 0.63684821 0
6.5410004 2.0475881 0.63662088 0
6.5350003 2.0344763 0.63639367 0
6.5290003 2.0213861 0.63616633 0
6.5240002 2.0086529 0.63597697 0
6.5180006 1.9956043 0.6357497 0
6.5120006 1.9825771 0.63552243 0
6.5070004 1.9699018 0.635333 0
6.5010004 1.9569163 0.63510573 0
6.4950004 1.9439522 0.63487846 0
6.4900002 1.9313346 0.63468903 0
6.4840002 1.918412 0.63446176 0
6.4790006 1.9058325 0.6342724 0
6.4730005 1.8929513 0.63404512 0
6.4670005 1.8800921 0.63381779 0
6.4620004 1.86757 0.63362837 0
6.4560003 1.8547521 0.63340116 0
6.4510002 1.8422679 0.63321173 0
6.4450002 1.8294915 0.63298446 0
6.4390006 1.8167368 0.63275719 0
6.4340005 1.8043103 0.63256776 0
6.4280005 1.7915971 0.63234049 0
6.4300003 1.7813299 0.63241625 0
6.4450002 1.7749714 0.63298446 0
6.5900002 1.785154 0.63847703 0
6.5880003 1.7734003 0.63840127 0
6.5890002 1.7625306 0.63843918 0
6.5920005 1.752238 0.63855278 0
6.5980005 1.7428006 0.63878012 0
6.6060004 1.733915 0.63908315 0
6.5640006 2.0999041 0.62637353 0
6.5580006 2.0867074 0.62615705 0
6.5520005 2.0735326 0.62594056 0
6.5470004 2.0607216 0.6257602 0
6.5410004 2.0475881 0.62554371 0
6.5350003 2.0344763 0.62532729 0
6.5290003 2.0213861 0.62511081 0
6.5240002 2.0086529 0.62493044 0
6.5180006 1.9956043 0.62471402 0
6.5120006 1.9825771 0.62449753 0
6.5070004 1.9699018 0.62431717 0
6.5010004 1.9569163 0.62410069 0
6.4950004 1.9439522 0.62388426 0
6.4900002 1.9313346 0.62370384 0
6.4840002 1.918412 0.62348735 0
6.4790006 1.9058325 0.62330699 0
6.4730005 1.8929513 0.62309057 0
6.4670005 1.8800921 0.62287414 0
6.4620004 1.86757 0.62269372 0
6.4560003 1.8547521 0.62247729 0
6.4510002 1.8422679 0.62229687 0
6.4450002 1.8294915 0.62208045 0
6.4390006 1.8167368 0.62186396 0
6.4340005 1.8043103 0.6216836 0
6.4280005 1.7915971 0.62146711 0
6.4300003 1.7813299 0.62153929 0
6.4450002 1.7749714 0.62208045 0
6.5900002 1.785154 0.62731147 0
6.5880003 1.7734003 0.62723935 0
6.5890002 1.7625306 0.62727535 0
6.5920005 1.752238 0.62738365 0
6.5980005 1.7428006 0.62760007 0
6.6060004 1.733915 0.62788868 0
6.5640006 2.0999041 0.61525482 0
6.5580006 2.0867074 0.61504918 0
6.5520005 2.0735326 0.61484355 0
6.5470004 2.0607216 0.61467218 0
6.5410004 2.0475881 0.61446655 0
6.5350003 2.0344763 0.61426091 0
6.5290003 2.0213861 0.61405528 0
6.5240002 2.0086529 0.61388391 0
6.5180006 1.9956043 0.61367834 0
6.5120006 1.9825771 0.61347264 0
6.5070004 1.9699018 0.61330128 0
6.5010004 1.9569163 0.61309564 0
6.4950004 1.9439522 0.61289001 0
6.4900002 1.9313346 0.6127187 0
6.4840002 1.918412 0.61251301 0
6.4790006 1.9058325 0.61234164 0
6.4730005 1.8929513 0.61213601 0
6.4670005 1.8800921 0.61193043 0
6.4620004 1.86757 0.61175907 0
6.4560003 1.8547521 0.61155343 0
6.4510002 1.8422679 0.61138201 0
6.4450002 1.8294915 0.61117637 0
6.4390006 1.8167368 0.6109708 0
6.4340005 1.8043103 0.61079943 0
6.4280005 1.7915971 0.6105938 0
6.4300003 1.7813299 0.61066234 0
6.4450002 1.7749714 0.61117637 0
6.5900002 1.785154 0.61614591 0
6.5880003 1.7734003 0.61607736 0
6.5890002 1.7625306 0.61611164 0
6.5920005 1.752238 0.61621445 0
6.5980005 1.7428006 0.61642009 0
6.6060004 1.733915 0.61669427 0
6.5640006 2.0999041 0.60413617 0
6.5580006 2.0867074 0.60394132 0
6.5520005 2.0735326 0.60374653 0
6.5470004 2.0607216 0.60358417 0
6.5410004 2.0475881 0.60338938 0
6.5350003 2.0344763 0.60319459 0
6.5290003 2.0213861 0.60299975 0
6.5240002 2.0086529 0.60283738 0
6.5180006 1.9956043 0.6026426 0
6.5120006 1.9825771 0.60244775 0
6.5070004 1.9699018 0.60228544 0
6.5010004 1.9569163 0.6020906 0
6.4950004 1.9439522 0.60189581 0
6.4900002 1.9313346 0.60173345 0
6.4840002 1.918412 0.60153866 0
6.4790006 1.9058325 0.6013763 0
6.4730005 1.8929513 0.60118151 0
6.4670005 1.8800921 0.60098672 0
6.4620004 1.86757 0.60082436 0
6.4560003 1.8547521 0.60062957 0
6.4510002 1.8422679 0.60046721 0
6.4450002 1.8294915 0.60027236 0
6.4390006 1.8167368 0.60007757 0
6.4340005 1.8043103 0.59991527 0
6.4280005 1.7915971 0.59972042 0
6.4300003 1.7813299 0.59978533 0
6.4450002 1.7749714 0.60027236 0
6.5900002 1.785154 0.60498035 0
6.5880003 1.7734003 0.60491538 0
6.5890002 1.7625306 0.60494787 0
6.5920005 1.752238 0.60504526 0
6.5980005 1.7428006 0.60524011 0
6.6060004 1.733915 0.60549986 0
6.5640006 2.0999041 0.59301746 0
6.5580006 2.0867074 0.59283352 0
6.5520005 2.0735326 0.59264952 0
6.5470004 2.0607216 0.59249616 0
6.5410004 2.0475881 0.59231216 0
6.5350003 2.0344763 0.59212822 0
6.5290003 2.0213861 0.59194422 0
6.5240002 2.0086529 0.59179085 0
6.5180006 1.9956043 0.59160691 0
6.5120006 1.9825771 0.59142292 0
6.5070004 1.9699018 0.59126961 0
6.5010004 1.9569163 0.59108555 0
6.4950004 1.9439522 0.59090161 0
6.4900002 1.9313346 0.59074825 0
6.4840002 1.918412 0.59056425 0
6.4790006 1.9058325 0.59041095 0
6.4730005 1.8929513 0.59022701 0
6.4670005 1.8800921 0.59004301 0
6.4620004 1.86757 0.58988965 0
6.4560003 1.8547521 0.58970571 0
6.4510002 1.8422679 0.58955234 0
6.4450002 1.8294915 0.58936834 0
6.4390006 1.8167368 0.5891844 0
6.4340005 1.8043103 0.58903104 0
6.4280005 1.7915971 0.58884704 0
6.4300003 1.7813299 0.58890837 0
6.4450002 1.7749714 0.58936834 0
6.5900002 1.785154 0.59381473 0
6.5880003 1.7734003 0.59375346 0
6.5890002 1.7625306 0.59378409 0
6.5920005 1.752238 0.59387612 0
6.5980005 1.7428006 0.59406006 0
6.6060004 1.733915 0.5943054 0
6.5640006 2.0999041 0.58189881 0
6.5580006 2.0867074 0.58172566 0
6.5520005 2.0735326 0.58155251 0
6.5470004 2.0607216 0.58140814 0
6.5410004 2.0475881 0.58123499 0
6.5350003 2.0344763 0.58106184 0
6.5290003 2.0213861 0.58088863 0
6.5240002 2.0086529 0.58074439 0
6.5180006 1.9956043 0.58057117 0
6.5120006 1.9825771 0.58039802 0
6.5070004 1.9699018 0.58025372 0
6.5010004 1.9569163 0.58008057 0
6.4950004 1.9439522 0.57990742 0
6.4900002 1.9313346 0.57976305 0
6.4840002 1.918412 0.5795899 0
6.4790006 1.9058325 0.5794456 0
6.4730005 1.8929513 0.57927245 0
6.4670005 1.8800921 0.5790993 0
6.4620004 1.86757 0.57895499 0
6.4560003 1.8547521 0.57878184 0
6.4510002 1.8422679 0.57863748 0
6.4450002 1.8294915 0.57846433 0
6.4390006 1.8167368 0.57829118 0
6.4340005 1.8043103 0.57814687 0
6.4280005 1.7915971 0.57797372 0
6.4300003 1.7813299 0.57803142 0
6.4450002 1.7749714 0.57846433 0
6.5900002 1.785154 0.58264917 0
6.5880003 1.7734003 0.58259147 0
6.5890002 1.7625306 0.58262032 0
6.5920005 1.752238 0.58270693 0
6.5980005 1.7428006 0.58288008 0
6.6060004 1.733915 0.58311093 0
6.8650002 1.6216116 0.59058595 0
6.5640006 2.0999041 0.57078016 0
6.5580006 2.0867074 0.57061779 0
6.5520005 2.0735326 0.57045543 0
6.5470004 2.0607216 0.57032013 0
6.5410004 2.0475881 0.57015783 0
6.5350003 2.0344763 0.56999546 0
6.5290003 2.0213861 0.56983316 0
6.5240002 2.0086529 0.56969786 0
6.5180006 1.9956043 0.56953549 0
6.5120006 1.9825771 0.56937313 0
6.5070004 1.9699018 0.56923783 0
6.5010004 1.9569163 0.56907552 0
6.4950004 1.9439522 0.56891316 0
6.4900002 1.9313346 0.56877792 0
6.4840002 1.918412 0.56861556 0
6.4790006 1.9058325 0.56848025 0
6.4730005 1.8929513 0.56831795 0
6.4670005 1.8800921 0.56815559 0
6.4620004 1.86757 0.56802028 0
6.4560003 1.8547521 0.56785798 0
6.4510002 1.8422679 0.56772268 0
6.4450002 1.8294915 0.56756032 0
6.4390006 1.8167368 0.56739795 0
6.4340005 1.8043103 0.56726271 0
6.4280005 1.7915971 0.56710035 0
6.4300003 1.7813299 0.56715447 0
6.4450002 1.7749714 0.56756032 0
6.5900002 1.785154 0.57148361 0
6.5880003 1.7734003 0.57142949 0
6.5890002 1.7625306 0.57145655 0
6.5920005 1.752238 0.57153773 0
6.5980005 1.7428006 0.5717001 0
6.6060004 1.733915 0.57191652 0
6.8540006 1.6420579 0.57862669 0
6.8620005 1.6324941 0.57884312 0
6.8710003 1.6231593 0.57908666 0
6.8780003 1.6132799 0.57927608 0
6.5640006 2.0999041 0.55966145 0
6.5580006 2.0867074 0.55950993 0
6.5520005 2.0735326 0.55935842 0
6.5470004 2.0607216 0.55923212 0
6.5410004 2.0475881 0.5590806 0
6.5350003 2.0344763 0.55892909 0
6.5290003 2.0213861 0.55877757 0
6.5240002 2.0086529 0.55865133 0
6.5180006 1.9956043 0.55849981 0
6.5120006 1.9825771 0.5583483 0
6.5070004 1.9699018 0.558222 0
6.5010004 1.9569163 0.55807048 0
6.4950004 1.9439522 0.55791897 0
6.4900002 1.9313346 0.55779266 0
6.4840002 1.918412 0.55764115 0
6.4790006 1.9058325 0.55751491 0
6.4730005 1.8929513 0.55736339 0
6.4670005 1.8800921 0.55721188 0
6.4620004 1.86757 0.55708563 0
6.4560003 1.8547521 0.55693412 0
6.4510002 1.8422679 0.55680782 0
6.4450002 1.8294915 0.5566563 0
6.4390006 1.8167368 0.55650479 0
6.4340005 1.8043103 0.55637854 0
6.4280005 1.7915971 0.55622697 0
6.4300003 1.7813299 0.55627751 0
6.4450002 1.7749714 0.5566563 0
6.5900002 1.785154 0.56031805 0
6.5880003 1.7734003 0.56026751 0
6.5890002 1.7625306 0.56029278 0
6.5920005 1.752238 0.56036854 0
6.5980005 1.7428006 0.56052005 0
6.6060004 1.733915 0.56072211 0
6.8650002 1.6449349 0.56726271 0
6.8710003 1.6348318 0.56741422 0
6.8750005 1.6241912 0.56751525 0
6.8790002 1.613536 0.56761622 0
6.5640006 2.0999041 0.5485428 0
6.5580006 2.0867074 0.54840207 0
6.5520005 2.0735326 0.5482614 0
6.5470004 2.0607216 0.5481441 0
6.5410004 2.0475881 0.54800344 0
6.5350003 2.0344763 0.54786277 0
6.5290003 2.0213861 0.54772204 0
6.5240002 2.0086529 0.5476048 0
6.5180006 1.9956043 0.54746413 0
6.5120006 1.9825771 0.54732341 0
6.5070004 1.9699018 0.54720616 0
6.5010004 1.9569163 0.54706544 0
6.4950004 1.9439522 0.54692477 0
6.4900002 1.9313346 0.54680753 0
6.4840002 1.918412 0.5466668 0
6.4790006 1.9058325 0.54654956 0
6.4730005 1.8929513 0.54640889 0
6.4670005 1.8800921 0.54626817 0
6.4620004 1.86757 0.54615092 0
6.4560003 1.8547521 0.54601026 0
6.4510002 1.8422679 0.54589295 0
6.4450002 1.8294915 0.54575229 0
6.4390006 1.8167368 0.54561162 0
6.4340005 1.8043103 0.54549432 0
6.4280005 1.7915971 0.54535365 0
6.4300003 1.7813299 0.5454005 0
6.4450002 1.7749714 0.54575229 0
6.5900002 1.785154 0.54915249 0
6.5880003 1.7734003 0.54910553 0
6.5890002 1.7625306 0.54912901 0
6.5920005 1.752238 0.54919934 0
6.5980005 1.7428006 0.54934007 0
6.6060004 1.733915 0.54952765 0
6.8760004 1.6361306 0.55585903 0
6.8780003 1.624965 0.55590594 0
6.8820004 1.6143044 0.55599976 0
6.5640006 2.0999041 0.53742409 0
6.5580006 2.0867074 0.53729421 0
6.5520005 2.0735326 0.53716433 0
6.5470004 2.0607216 0.53705615 0
6.5410004 2.0475881 0.53692627 0
6.5350003 2.0344763 0.53679639 0
6.5290003 2.0213861 0.53666651 0
6.5240002 2.0086529 0.53655827 0
6.5180006 1.9956043 0.53642839 0
6.5120006 1.9825771 0.53629851 0
6.5070004 1.9699018 0.53619027 0
6.5010004 1.9569163 0.53606045 0
6.4950004 1.9439522 0.53593051 0
6.4900002 1.9313346 0.53582233 0
6.4840002 1.918412 0.53569245 0
6.4790006 1.9058325 0.53558421 0
6.4730005 1.8929513 0.53545433 0
6.4670005 1.8800921 0.53532445 0
6.4620004 1.86757 0.53521621 0
6.4560003 1.8547521 0.53508639 0
6.4510002 1.8422679 0.53497815 0
6.4450002 1.8294915 0.53484827 0
6.4390006 1.8167368 0.53471839 0
6.4340005 1.8043103 0.53461015 0
6.4280005 1.7915971 0.53448027 0
6.4300003 1.7813299 0.53452361 0
6.4450002 1.7749714 0.53484827 0
6.5900002 1.785154 0.53798687 0
6.5880003 1.7734003 0.5379436 0
6.5890002 1.7625306 0.53796524 0
6.5920005 1.752238 0.53803015 0
6.5980005 1.7428006 0.53816009 0
6.6060004 1.733915 0.53833318 0
6.8830004 1.6262547 0.54432905 0
6.8880005 1.6158414 0.54443729 0
6.5640006 2.0999041 0.52630544 0
6.5580006 2.0867074 0.52618641 0
6.5520005 2.0735326 0.52606732 0
6.5470004 2.0607216 0.52596813 0
6.5410004 2.0475881 0.52584904 0
6.5350003 2.0344763 0.52573001 0
6.5290003 2.0213861 0.52561092 0
6.5240002 2.0086529 0.52551174 0
6.5180006 1.9956043 0.52539271 0
6.5120006 1.9825771 0.52527368 0
6.5070004 1.9699018 0.52517444 0
6.5010004 1.9569163 0.52505541 0
6.4950004 1.9439522 0.52493632 0
6.4900002 1.9313346 0.52483714 0
6.4840002 1.918412 0.52471805 0
6.4790006 1.9058325 0.52461886 0
6.4730005 1.8929513 0.52449983 0
6.4670005 1.8800921 0.5243808 0
6.4620004 1.86757 0.52428156 0
6.4560003 1.8547521 0.52416253 0
6.4510002 1.8422679 0.52406329 0
6.4450002 1.8294915 0.52394426 0
6.4390006 1.8167368 0.52382517 0
6.4340005 1.8043103 0.52372599 0
6.4280005 1.7915971 0.52360696 0
6.4300003 1.7813299 0.52364659 0
6.4450002 1.7749714 0.52394426 0
6.5900002 1.785154 0.52682132 0
6.5880003 1.7734003 0.52678162 0
6.5890002 1.7625306 0.52680147 0
6.5920005 1.752238 0.52686101 0
6.5980005 1.7428006 0.52698004 0
6.6060004 1.733915 0.52713877 0
6.5640006 2.0999041 0.51518679 0
6.5580006 2.0867074 0.51507854 0
6.5520005 2.0735326 0.5149703 0
6.5470004 2.0607216 0.51488012 0
6.5410004 2.0475881 0.51477188 0
6.5350003 2.0344763 0.51466364 0
6.5290003 2.0213861 0.51455539 0
6.5240002 2.0086529 0.51446521 0
6.5180006 1.9956043 0.51435697 0
6.5120006 1.9825771 0.51424879 0
6.5070004 1.9699018 0.51415861 0
6.5010004 1.9569163 0.51405036 0
6.4950004 1.9439522 0.51394212 0
6.4900002 1.9313346 0.51385194 0
6.4840002 1.918412 0.5137437 0
6.4790006 1.9058325 0.51365352 0
6.4730005 1.8929513 0.51354527 0
6.4670005 1.8800921 0.51343703 0
6.4620004 1.86757 0.51334685 0
6.4560003 1.8547521 0.51323867 0
6.4510002 1.8422679 0.51314843 0
6.4450002 1.8294915 0.51304018 0
6.4390006 1.8167368 0.512932 0
6.4340005 1.8043103 0.51284182 0
6.4280005 1.7915971 0.51273358 0
6.4300003 1.7813299 0.51276964 0
6.4450002 1.7749714 0.51304018 0
6.5900002 1.785154 0.51565576 0
6.5880003 1.7734003 0.51561964 0
6.5890002 1.7625306 0.5156377 0
6.5920005 1.752238 0.51569182 0
6.5980005 1.7428006 0.51580006 0
6.6060004 1.733915 0.51594436 0
6.5640006 2.0999041 0.50406808 0
6.5580006 2.0867074 0.50397068 0
6.5520005 2.0735326 0.50387329 0
6.5470004 2.0607216 0.50379211 0
6.5410004 2.0475881 0.50369471 0
6.5350003 2.0344763 0.50359726 0
6.5290003 2.0213861 0.50349987 0
6.5240002 2.0086529 0.50341868 0
6.5180006 1.9956043 0.50332129 0
6.5120006 1.9825771 0.5032239 0
6.5070004 1.9699018 0.50314271 0
6.5010004 1.9569163 0.50304532 0
6.4950004 1.9439522 0.50294793 0
6.4900002 1.9313346 0.50286674 0
6.4840002 1.918412 0.50276935 0
6.4790006 1.9058325 0.50268817 0
6.4730005 1.8929513 0.50259078 0
6.4670005 1.8800921 0.50249338 0
6.4620004 1.86757 0.5024122 0
6.4560003 1.8547521 0.50231481 0
6.4510002 1.8422679 0.50223362 0
6.4450002 1.8294915 0.50213617 0
6.4390006 1.8167368 0.50203878 0
6.4340005 1.8043103 0.50195765 0
6.4280005 1.7915971 0.5018602 0
6.4300003 1.7813299 0.50189269 0
6.4450002 1.7749714 0.50213617 0
6.5900002 1.785154 0.50449014 0
6.5880003 1.7734003 0.50445771 0
6.5890002 1.7625306 0.50447392 0
6.5920005 1.752238 0.50452262 0
6.5980005 1.7428006 0.50462008 0
6.6060004 1.733915 0.50474989 0
6.5640006 2.0999041 0.49294943 0
6.5580006 2.0867074 0.49286282 0
6.5520005 2.0735326 0.49277624 0
6.5470004 2.0607216 0.49270409 0
6.5410004 2.0475881 0.49261749 0
6.5350003 2.0344763 0.49253091 0
6.5290003 2.0213861 0.49244434 0
6.5240002 2.0086529 0.49237218 0
6.5180006 1.9956043 0.49228561 0
6.5120006 1.9825771 0.49219903 0
6.5070004 1.9699018 0.49212688 0
6.5010004 1.9569163 0.49204028 0
6.4950004 1.9439522 0.4919537 0
6.4900002 1.9313346 0.49188155 0
6.4840002 1.918412 0.49179497 0
6.4790006 1.9058325 0.49172282 0
6.4730005 1.8929513 0.49163625 0
6.4670005 1.8800921 0.49154964 0
6.4620004 1.86757 0.49147749 0
6.4560003 1.8547521 0.49139091 0
6.4510002 1.8422679 0.49131876 0
6.4450002 1.8294915 0.49123219 0
6.4390006 1.8167368 0.49114561 0
6.4340005 1.8043103 0.49107343 0
6.4280005 1.7915971 0.49098685 0
6.4300003 1.7813299 0.49101573 0
6.4450002 1.7749714 0.49123219 0
6.5880003 1.7734003 0.49329573 0
6.5890002 1.7625306 0.49331015 0
6.5920005 1.752238 0.49335346 0
6.5980005 1.7428006 0.49344003 0
6.6060004 1.733915 0.49355549 0
6.5640006 2.0999041 0.48183072 0
6.5580006 2.0867074 0.48175496 0
6.5520005 2.0735326 0.4816792 0
6.5470004 2.0607216 0.48161608 0
6.5410004 2.0475881 0.48154032 0
6.5350003 2.0344763 0.48146456 0
6.5290003 2.0213861 0.48138881 0
6.5240002 2.0086529 0.48132566 0
6.5180006 1.9956043 0.4812499 0
6.5120006 1.9825771 0.48117414 0
6.5070004 1.9699018 0.48111102 0
6.5010004 1.9569163 0.48103523 0
6.4950004 1.9439522 0.48095948 0
6.4900002 1.9313346 0.48089635 0
6.4840002 1.918412 0.4808206 0
6.4790006 1.9058325 0.48075747 0
6.4730005 1.8929513 0.48068172 0
6.4670005 1.8800921 0.48060596 0
6.4620004 1.86757 0.48054281 0
6.4560003 1.8547521 0.48046705 0
6.4510002 1.8422679 0.48040393 0
6.4450002 1.8294915 0.48032814 0
6.4390006 1.8167368 0.48025239 0
6.4340005 1.8043103 0.48018926 0
6.4280005 1.7915971 0.48011351 0
6.4300003 1.7813299 0.48013878 0
6.4450002 1.7749714 0.48032814 0
6.5880003 1.7734003 0.48213378 0
6.5890002 1.7625306 0.48214638 0
6.5920005 1.752238 0.48218429 0
6.5980005 1.7428006 0.48226005 0
6.6060004 1.733915 0.48236105 0
6.5640006 2.0999041 0.47071207 0
6.5580006 2.0867074 0.47064713 0
6.5520005 2.0735326 0.47058219 0
6.5470004 2.0607216 0.47052807 0
6.5410004 2.0475881 0.47046313 0
6.5350003 2.0344763 0.47039819 0
6.5300002 2.0217235 0.47034407 0
6.5240002 2.0086529 0.47027916 0
6.5180006 1.9956043 0.47021422 0
6.5120006 1.9825771 0.47014928 0
6.5070004 1.9699018 0.47009516 0
6.5010004 1.9569163 0.47003022 0
6.4950004 1.9439522 0.46996528 0
6.4900002 1.9313346 0.46991116 0
6.4840002 1.918412 0.46984622 0
6.4790006 1.9058325 0.46979213 0
6.4730005 1.8929513 0.46972719 0
6.4670005 1.8800921 0.46966225 0
6.4620004 1.86757 0.46960813 0
6.4560003 1.8547521 0.46954319 0
6.4510002 1.8422679 0.46948907 0
6.4450002 1.8294915 0.46942413 0
6.4390006 1.8167368 0.46935922 0
6.4340005 1.8043103 0.4693051 0
6.4280005 1.7915971 0.46924016 0
6.4300003 1.7813299 0.4692618 0
6.4450002 1.7749714 0.46942413 0
6.5880003 1.7734003 0.47097182 0
6.5890002 1.7625306 0.47098264 0
6.5920005 1.752238 0.4710151 0
6.5980005 1.7428006 0.47108003 0
6.6060004 1.733915 0.47116661 0
6.5640006 2.0999041 0.45959339 0
6.5580006 2.0867074 0.45953926 0
6.5520005 2.0735326 0.45948517 0
6.5470004 2.0607216 0.45944005 0
6.5410004 2.0475881 0.45938593 0
6.5350003 2.0344763 0.45933184 0
6.5300002 2.0217235 0.45928675 0
6.5240002 2.0086529 0.45923263 0
6.5180006 1.9956043 0.45917851 0
6.5120006 1.9825771 0.45912439 0
6.5070004 1.9699018 0.4590793 0
6.5010004 1.9569163 0.45902517 0
6.4950004 1.9439522 0.45897108 0
6.4900002 1.9313346 0.45892596 0
6.4840002 1.918412 0.45887184 0
6.4790006 1.9058325 0.45882678 0
6.4730005 1.8929513 0.45877266 0
6.4670005 1.8800921 0.45871854 0
6.4620004 1.86757 0.45867345 0
6.4560003 1.8547521 0.45861933 0
6.4510002 1.8422679 0.45857424 0
6.4450002 1.8294915 0.45852011 0
6.4390006 1.8167368 0.45846599 0
6.4340005 1.8043103 0.4584209 0
6.4280005 1.7915971 0.45836678 0
6.4300003 1.7813299 0.45838484 0
6.4450002 1.7749714 0.45852011 0
6.5890002 1.7625306 0.45981884 0
6.5920005 1.752238 0.45984593 0
6.5980005 1.7428006 0.45990002 0
6.6060004 1.733915 0.45997217 0
6.5640006 2.0999041 0.44847471 0
6.5580006 2.0867074 0.44843143 0
6.5520005 2.0735326 0.44838813 0
6.5470004 2.0607216 0.44835204 0
6.5410004 2.0475881 0.44830877 0
6.5350003 2.0344763 0.44826546 0
6.5300002 2.0217235 0.4482294 0
6.5240002 2.0086529 0.4481861 0
6.5180006 1.9956043 0.44814283 0
6.5120006 1.9825771 0.44809952 0
6.5070004 1.9699018 0.44806343 0
6.5010004 1.9569163 0.44802016 0
6.4950004 1.9439522 0.44797686 0
6.4900002 1.9313346 0.44794077 0
6.4840002 1.918412 0.44789749 0
6.4790006 1.9058325 0.44786143 0
6.4730005 1.8929513 0.44781813 0
6.4670005 1.8800921 0.44777483 0
6.4620004 1.86757 0.44773877 0
6.4560003 1.8547521 0.44769546 0
6.4510002 1.8422679 0.44765937 0
6.4450002 1.8294915 0.4476161 0
6.4390006 1.8167368 0.4475728 0
6.4340005 1.8043103 0.44753674 0
6.4280005 1.7915971 0.44749343 0
6.4300003 1.7813299 0.44750786 0
6.4450002 1.7749714 0.4476161 0
6.5980005 1.7428006 0.44872004 0
6.5640006 2.0999041 0.43735602 0
6.5580006 2.0867074 0.43732357 0
6.5520005 2.0735326 0.43729109 0
6.5470004 2.0607216 0.43726406 0
6.5410004 2.0475881 0.43723157 0
6.5350003 2.0344763 0.43719912 0
6.5300002 2.0217235 0.43717206 0
6.5240002 2.0086529 0.43713957 0
6.5180006 1.9956043 0.43710712 0
6.5120006 1.9825771 0.43707463 0
6.5070004 1.9699018 0.4370476 0
6.5010004 1.9569163 0.43701512 0
6.4950004 1.9439522 0.43698263 0
6.4900002 1.9313346 0.4369556 0
6.4840002 1.918412 0.43692312 0
6.4790006 1.9058325 0.43689606 0
6.4730005 1.8929513 0.4368636 0
6.4670005 1.8800921 0.43683112 0
6.4620004 1.86757 0.43680406 0
6.4560003 1.8547521 0.4367716 0
6.4510002 1.8422679 0.43674454 0
6.4450002 1.8294915 0.43671209 0
6.4390006 1.8167368 0.4366796 0
6.4340005 1.8043103 0.43665254 0
6.4280005 1.7915971 0.43662009 0
6.4300003 1.7813299 0.4366309 0
6.4450002 1.7749714 0.43671209 0
6.5640006 2.0999041 0.42623737 0
6.5580006 2.0867074 0.42621571 0
6.5520005 2.0735326 0.42619407 0
6.5470004 2.0607216 0.42617604 0
6.5410004 2.0475881 0.42615438 0
6.5350003 2.0344763 0.42613274 0
6.5300002 2.0217235 0.42611471 0
6.5240002 2.0086529 0.42609304 0
6.5180006 1.9956043 0.42607141 0
6.5120006 1.9825771 0.42604977 0
6.5070004 1.9699018 0.42603174 0
6.5010004 1.9569163 0.42601007 0
6.4950004 1.9439522 0.42598844 0
6.4900002 1.9313346 0.42597041 0
6.4840002 1.918412 0.42594874 0
6.4790006 1.9058325 0.42593071 0
6.4730005 1.8929513 0.42590907 0
6.4670005 1.8800921 0.42588744 0
6.4620004 1.86757 0.42586938 0
6.4560003 1.8547521 0.42584774 0
6.4510002 1.8422679 0.42582971 0
6.4450002 1.8294915 0.42580804 0
6.4390006 1.8167368 0.42578641 0
6.4340005 1.8043103 0.42576838 0
6.4280005 1.7915971 0.42574674 0
6.4300003 1.7813299 0.42575395 0
6.4450002 1.7749714 0.42580804 0
6.5640006 2.0999041 0.41511869 0
6.5580006 2.0867074 0.41510788 0
6.5520005 2.0735326 0.41509706 0
6.5470004 2.0607216 0.41508803 0
6.5410004 2.0475881 0.41507721 0
6.5350003 2.0344763 0.41506639 0
6.5300002 2.0217235 0.41505736 0
6.5240002 2.0086529 0.41504654 0
6.5180006 1.9956043 0.41503572 0
6.5120006 1.9825771 0.41502488 0
6.5070004 1.9699018 0.41501588 0
6.5010004 1.9569163 0.41500506 0
6.4950004 1.9439522 0.41499424 0
6.4900002 1.9313346 0.41498521 0
6.4840002 1.918412 0.41497439 0
6.4790006 1.9058325 0.41496536 0
6.4730005 1.8929513 0.41495454 0
6.4670005 1.8800921 0.41494372 0
6.4620004 1.86757 0.41493469 0
6.4560003 1.8547521 0.41492388 0
6.4510002 1.8422679 0.41491485 0
6.4450002 1.8294915 0.41490403 0
6.4390006 1.8167368 0.41489321 0
6.4340005 1.8043103 0.41488418 0
6.4280005 1.7915971 0.41487336 0
6.4300003 1.7813299 0.41487697 0
6.4450002 1.7749714 0.41490403 0
6.4600005 1.768559 0.41493109 0
6.5640006 2.0999041 0.40400001 0
6.5580006 2.0867074 0.40400001 0
6.5520005 2.0735326 0.40400001 0
6.5470004 2.0607216 0.40400001 0
6.5410004 2.0475881 0.40400001 0
6.5350003 2.0344763 0.40400001 0
6.5300002 2.0217235 0.40400001 0
6.5240002 2.0086529 0.40400001 0
6.5180006 1.9956043 0.40400001 0
6.5120006 1.9825771 0.40400001 0
6.5070004 1.9699018 0.40400001 0
6.5010004 1.9569163 0.40400001 0
6.4950004 1.9439522 0.40400001 0
6.4900002 1.9313346 0.40400001 0
6.4840002 1.918412 0.40400001 0
6.4790006 1.9058325 0.40400001 0
6.4730005 1.8929513 0.40400001 0
6.4670005 1.8800921 0.40400001 0
6.4620004 1.86757 0.40400001 0
6.4560003 1.8547521 0.40400001 0
6.4510002 1.8422679 0.40400001 0
6.4450002 1.8294915 0.40400001 0
6.4390006 1.8167368 0.40400001 0
6.4340005 1.8043103 0.40400001 0
6.4280005 1.7915971 0.40400001 0
6.4300003 1.7813299 0.40400001 0
6.4450002 1.7749714 0.40400001 0
6.5580006 2.0867074 0.39289215 0
6.5520005 2.0735326 0.39290297 0
6.5470004 2.0607216 0.392912 0
6.5410004 2.0475881 0.39292282 0
6.5350003 2.0344763 0.39293364 0
6.5300002 2.0217235 0.39294267 0
6.5240002 2.0086529 0.39295349 0
6.5180006 1.9956043 0.3929643 0
6.5120006 1.9825771 0.39297515 0
6.5070004 1.9699018 0.39298415 0
6.5010004 1.9569163 0.39299497 0
6.4950004 1.9439522 0.39300579 0
6.4900002 1.9313346 0.39301482 0
6.4840002 1.918412 0.39302564 0
6.4790006 1.9058325 0.39303467 0
6.4730005 1.8929513 0.39304549 0
6.4670005 1.8800921 0.3930563 0
6.4620004 1.86757 0.39306533 0
6.4560003 1.8547521 0.39307615 0
6.4510002 1.8422679 0.39308518 0
6.4450002 1.8294915 0.393096 0
6.4390006 1.8167368 0.39310682 0
6.4340005 1.8043103 0.39311585 0
6.4280005 1.7915971 0.39312667 0
6.4300003 1.7813299 0.39312306 0
6.4450002 1.7749714 0.393096 0
6.4560003 1.8547521 0.38215229 0
6.4510002 1.8422679 0.38217032 0
6.4450002 1.8294915 0.38219199 0
6.4390006 1.8167368 0.38221362 0
6.4340005 1.8043103 0.38223165 0
6.4280005 1.7915971 0.38225329 0
6.4450002 1.7749714 0.38219199 0
6.8880005 1.6275444 0.38059381 0
6.8920002 1.6168659 0.38057938 0
6.4510002 1.8422679 0.37125549 0
6.4450002 1.8294915 0.37128794 0
6.4390006 1.8167368 0.37132043 0
6.4340005 1.8043103 0.37134749 0
6.8860006 1.638728 0.36890152 0
6.8880005 1.6275444 0.3688907 0
6.8920002 1.6168659 0.36886904 0
6.4390006 1.8167368 0.36042723 0
6.8860006 1.638728 0.35720202 0
6.8880005 1.6275444 0.35718757 0
6.8920002 1.6168659 0.35715872 0
6.8990002 1.6069359 0.35710821 0
6.4610004 1.81259 0.34933561 0
6.4620004 1.8019618 0.34932658 0
6.8860006 1.638728 0.3455025 0
6.8880005 1.6275444 0.34548447 0
6.8920002 1.6168659 0.3454484 0
6.8990002 1.6069359 0.34538528 0
6.9870005 1.8669513 0.33270991 0
6.9890003 1.8556467 0.33268827 0
6.9930005 1.8449088 0.33264497 0
6.8870006 1.6506891 0.33379218 0
6.8860006 1.638728 0.333803 0
6.8880005 1.6275444 0.33378136 0
6.8920002 1.6168659 0.33373809 0
6.8990002 1.6069359 0.33366233 0
6.9870005 1.8788331 0.32082823 0
6.9870005 1.8669513 0.32082823 0
6.9890003 1.8556467 0.32080299 0
6.9930005 1.8449088 0.32075247 0
7.0010004 1.8352962 0.32065144 0
6.8870006 1.6506891 0.32209086 0
6.8860006 1.638728 0.3221035 0
6.8880005 1.6275444 0.32207826 0
6.8920002 1.6168659 0.32202774 0
6.8990002 1.6069359 0.32193938 0
6.9870005 1.8788331 0.30894655 0
6.9870005 1.8669513 0.30894655 0
6.9890003 1.8556467 0.30891767 0
6.9930005 1.8449088 0.30885994 0
7.0010004 1.8352962 0.30874452 0
6.8870006 1.6506891 0.31038958 0
6.8860006 1.638728 0.310404 0
6.8880005 1.6275444 0.31037515 0
