# .PCD v0.7 - Point Cloud Data file format
VERSION 0.7
FIELDS x y z intensity
SIZE 4 4 4 4
TYPE F F F F
COUNT 1 1 1 1
WIDTH 1373
HEIGHT 1
VIEWPOINT 0 0 0 1 0 0 0
POINTS 1373
DATA ascii
3.1070001 -0.47569597 0.29169312 0
3.1090002 -0.48089999 0.29161012 0
3.1120002 -0.48627353 0.29148567 0
3.3100002 -0.67588985 0.28327113 0
3.3050003 -0.68004763 0.28347856 0
3.3010001 -0.68440741 0.28364453 0
3.2990003 -0.68919653 0.2837275 0
3.2970002 -0.69397837 0.28381047 0
3.2960002 -0.6989786 0.28385195 0
3.2970002 -0.70442969 0.28381047 0
3.2980003 -0.70988441 0.28376898 0
2.8950002 -0.63106519 0.30048847 0
2.8880002 -0.63391161 0.3007789 0
2.8840003 -0.63744712 0.30094483 0
2.8800001 -0.64096808 0.3011108 0
2.8780003 -0.64495814 0.30119377 0
2.8760002 -0.64894092 0.30127674 0
2.8750002 -0.65316182 0.30131823 0
2.8740003 -0.65737915 0.30135971 0
2.8740003 -0.66184181 0.30135971 0
2.8750002 -0.66655517 0.30131823 0
2.8770003 -0.67152464 0.30123526 0
2.8800001 -0.67675561 0.3011108 0
2.8850002 -0.68250984 0.30090335 0
2.7770002 -0.74059963 0.30538401 0
2.7690003 -0.74253517 0.30571592 0
2.7630002 -0.74503338 0.30596483 0
2.7580001 -0.74780768 0.30617228 0
2.7530003 -0.75056392 0.30637971 0
2.7500002 -0.75390452 0.30650419 0
2.7470002 -0.75723439 0.30662864 0
2.7440002 -0.76055336 0.3067531 0
2.7420001 -0.7641682 0.30683607 0
2.7400002 -0.76777583 0.30691904 0
2.7380002 -0.77137625 0.30700204 0
2.7370002 -0.77528149 0.30704352 0
2.7360003 -0.77918315 0.30708501 0
2.7350001 -0.78308111 0.30712649 0
2.7350001 -0.78729302 0.30712649 0
2.7350001 -0.79150492 0.30712649 0
2.7350001 -0.79571682 0.30712649 0
2.7360003 -0.80025166 0.30708501 0
2.7370002 -0.80479002 0.30704352 0
2.7390003 -0.80965847 0.30696052 0
2.7410002 -0.81453413 0.30687755 0
2.7450001 -0.82007724 0.30671161 0
2.7510002 -0.82629859 0.30646271 0
2.9360001 -0.93344474 0.2987875 0
2.9280002 -0.93520528 0.29911938 0
2.9220002 -0.93764406 0.29936832 0
2.9170003 -0.94041651 0.29957575 0
2.9130001 -0.94352806 0.29974172 0
2.9090002 -0.94662523 0.29990765 0
2.9060001 -0.95006865 0.30003211 0
2.9030001 -0.95350128 0.30015659 0
2.9000001 -0.95692313 0.30028105 0
2.8980002 -0.96070033 0.30036402 0
2.8970003 -0.96483827 0.3004055 0
2.8950002 -0.96860284 0.30048847 0
2.8940003 -0.97273177 0.30052996 0
2.8940003 -0.97723049 0.30052996 0
2.8930001 -0.98135388 0.30057144 0
2.8930001 -0.98585075 0.30057144 0
2.8940003 -0.99072659 0.30052996 0
2.8950002 -0.99560583 0.30048847 0
2.8970003 -1.0008712 0.3004055 0
2.8990002 -1.0061436 0.30032253 0
2.9030001 -1.0121955 0.30015659 0
3.1200001 -0.44341502 0.28624743 0
3.1150002 -0.44758183 0.28646386 0
3.1110003 -0.45188031 0.28663704 0
3.1090002 -0.45646739 0.28672361 0
3.1070001 -0.46104723 0.28681022 0
3.1060002 -0.46577501 0.28685349 0
3.1060002 -0.47065616 0.28685349 0
3.1070001 -0.47569597 0.28681022 0
3.1090002 -0.48089999 0.28672361 0
3.1120002 -0.48627353 0.28659374 0
3.3100002 -0.67588985 0.27802205 0
3.3050003 -0.68004763 0.27823851 0
3.3010001 -0.68440741 0.27841169 0
3.2990003 -0.68919653 0.27849823 0
3.2970002 -0.69397837 0.27858484 0
3.2960002 -0.6989786 0.27862811 0
3.2970002 -0.70442969 0.27858484 0
3.2980003 -0.70988441 0.27854156 0
2.8950002 -0.63106519 0.29598796 0
2.8880002 -0.63391161 0.29629099 0
2.8840003 -0.63744712 0.29646417 0
2.8800001 -0.64096808 0.29663736 0
2.8780003 -0.64495814 0.29672393 0
2.8760002 -0.64894092 0.29681051 0
2.8750002 -0.65316182 0.29685381 0
2.8740003 -0.65737915 0.29689708 0
2.8740003 -0.66184181 0.29689708 0
2.8750002 -0.66655517 0.29685381 0
2.8770003 -0.67152464 0.29676723 0
2.8800001 -0.67675561 0.29663736 0
2.8850002 -0.68250984 0.29642087 0
2.7770002 -0.74059963 0.30109635 0
2.7690003 -0.74253517 0.30144268 0
2.7630002 -0.74503338 0.30170244 0
2.7580001 -0.74780768 0.30191889 0
2.7530003 -0.75056392 0.30213535 0
2.7500002 -0.75390452 0.30226523 0
2.7470002 -0.75723439 0.30239511 0
2.7440002 -0.76055336 0.30252498 0
2.7420001 -0.7641682 0.30261156 0
2.7400002 -0.76777583 0.30269814 0
2.7380002 -0.77137625 0.30278474 0
2.7370002 -0.77528149 0.30282801 0
2.7360003 -0.77918315 0.30287132 0
2.7350001 -0.78308111 0.30291462 0
2.7350001 -0.78729302 0.30291462 0
2.7350001 -0.79150492 0.30291462 0
2.7350001 -0.79571682 0.30291462 0
2.7360003 -0.80025166 0.30287132 0
2.7370002 -0.80479002 0.30282801 0
2.7390003 -0.80965847 0.30274144 0
2.7410002 -0.81453413 0.30265486 0
2.7450001 -0.82007724 0.30248171 0
2.7510002 -0.82629859 0.30222195 0
2.9360001 -0.93344474 0.29421303 0
2.9280002 -0.93520528 0.29455936 0
2.9220002 -0.93764406 0.29481912 0
2.9170003 -0.94041651 0.29503557 0
2.9130001 -0.94352806 0.29520875 0
2.9090002 -0.94662523 0.2953819 0
2.9060001 -0.95006865 0.29551178 0
2.9030001 -0.95350128 0.29564166 0
2.9000001 -0.95692313 0.29577154 0
2.8980002 -0.96070033 0.29585809 0
2.8970003 -0.96483827 0.29590139 0
2.8950002 -0.96860284 0.29598796 0
2.8940003 -0.97273177 0.29603127 0
2.8940003 -0.97723049 0.29603127 0
2.8930001 -0.98135388 0.29607457 0
2.8930001 -0.98585075 0.29607457 0
2.8940003 -0.99072659 0.29603127 0
2.8950002 -0.99560583 0.29598796 0
2.8970003 -1.0008712 0.29590139 0
2.8990002 -1.0061436 0.29581481 0
2.9030001 -1.0121955 0.29564166 0
3.1200001 -0.44341502 0.28134108 0
3.1150002 -0.44758183 0.28156653 0
3.1110003 -0.45188031 0.28174692 0
3.1090002 -0.45646739 0.28183711 0
3.1070001 -0.46104723 0.28192729 0
3.1060002 -0.46577501 0.28197241 0
3.1060002 -0.47065616 0.28197241 0
3.1070001 -0.47569597 0.28192729 0
3.1090002 -0.48089999 0.28183711 0
3.1120002 -0.48627353 0.2817018 0
3.3100002 -0.67588985 0.27277297 0
3.3050003 -0.68004763 0.27299845 0
3.3010001 -0.68440741 0.27317882 0
3.2990003 -0.68919653 0.273269 0
3.2970002 -0.69397837 0.27335921 0
3.2960002 -0.6989786 0.2734043 0
3.2970002 -0.70442969 0.27335921 0
3.2980003 -0.70988441 0.27331412 0
2.8950002 -0.63106519 0.29148749 0
2.8880002 -0.63391161 0.29180312 0
2.8840003 -0.63744712 0.29198352 0
2.8800001 -0.64096808 0.29216391 0
2.8780003 -0.64495814 0.29225409 0
2.8760002 -0.64894092 0.29234427 0
2.8750002 -0.65316182 0.29238939 0
2.8740003 -0.65737915 0.29243445 0
2.8740003 -0.66184181 0.29243445 0
2.8750002 -0.66655517 0.29238939 0
2.8770003 -0.67152464 0.29229918 0
2.8800001 -0.67675561 0.29216391 0
2.8850002 -0.68250984 0.29193842 0
2.7770002 -0.74059963 0.29680872 0
2.7690003 -0.74253517 0.29716945 0
2.7630002 -0.74503338 0.29744005 0
2.7580001 -0.74780768 0.29766554 0
2.7530003 -0.75056392 0.29789099 0
2.7500002 -0.75390452 0.29802626 0
2.7470002 -0.75723439 0.29816157 0
2.7440002 -0.76055336 0.29829687 0
2.7420001 -0.7641682 0.29838705 0
2.7400002 -0.76777583 0.29847723 0
2.7380002 -0.77137625 0.29856741 0
2.7370002 -0.77528149 0.29861253 0
2.7360003 -0.77918315 0.2986576 0
2.7350001 -0.78308111 0.29870272 0
2.7350001 -0.78729302 0.29870272 0
2.7350001 -0.79150492 0.29870272 0
2.7350001 -0.79571682 0.29870272 0
2.7360003 -0.80025166 0.2986576 0
2.7370002 -0.80479002 0.29861253 0
2.7390003 -0.80965847 0.29852232 0
2.7410002 -0.81453413 0.29843214 0
2.7450001 -0.82007724 0.29825175 0
2.7510002 -0.82629859 0.2979812 0
2.9360001 -0.93344474 0.28963858 0
2.9280002 -0.93520528 0.28999934 0
2.9220002 -0.93764406 0.29026991 0
2.9170003 -0.94041651 0.2904954 0
2.9130001 -0.94352806 0.29067576 0
2.9090002 -0.94662523 0.29085615 0
2.9060001 -0.95006865 0.29099143 0
2.9030001 -0.95350128 0.29112673 0
2.9000001 -0.95692313 0.291262 0
2.8980002 -0.96070033 0.29135218 0
2.8970003 -0.96483827 0.29139727 0
2.8950002 -0.96860284 0.29148749 0
2.8940003 -0.97273177 0.29153258 0
2.8940003 -0.97723049 0.29153258 0
2.8930001 -0.98135388 0.29157767 0
2.8930001 -0.98585075 0.29157767 0
2.8940003 -0.99072659 0.29153258 0
2.8950002 -0.99560583 0.29148749 0
2.8970003 -1.0008712 0.29139727 0
2.8990002 -1.0061436 0.29130709 0
2.9030001 -1.0121955 0.29112673 0
3.1200001 -0.44341502 0.27643472 0
3.1150002 -0.44758183 0.2766692 0
3.1110003 -0.45188031 0.27685678 0
3.1090002 -0.45646739 0.2769506 0
3.1070001 -0.46104723 0.27704439 0
3.1060002 -0.46577501 0.27709126 0
3.1060002 -0.47065616 0.27709126 0
3.1070001 -0.47569597 0.27704439 0
3.1090002 -0.48089999 0.2769506 0
3.1120002 -0.48627353 0.27680987 0
3.3100002 -0.67588985 0.26752388 0
3.3050003 -0.68004763 0.26775837 0
3.3010001 -0.68440741 0.26794598 0
3.2990003 -0.68919653 0.26803976 0
3.2970002 -0.69397837 0.26813358 0
3.2960002 -0.6989786 0.26818046 0
3.2970002 -0.70442969 0.26813358 0
3.2980003 -0.70988441 0.26808667 0
2.8950002 -0.63106519 0.28698698 0
2.8880002 -0.63391161 0.28731525 0
2.8840003 -0.63744712 0.28750286 0
2.8800001 -0.64096808 0.28769046 0
2.8780003 -0.64495814 0.28778428 0
2.8760002 -0.64894092 0.28787807 0
2.8750002 -0.65316182 0.28792495 0
2.8740003 -0.65737915 0.28797185 0
2.8740003 -0.66184181 0.28797185 0
2.8750002 -0.66655517 0.28792495 0
2.8770003 -0.67152464 0.28783116 0
2.8800001 -0.67675561 0.28769046 0
2.8850002 -0.68250984 0.28745598 0
2.7770002 -0.74059963 0.29252106 0
2.7690003 -0.74253517 0.29289624 0
2.7630002 -0.74503338 0.29317763 0
2.7580001 -0.74780768 0.29341215 0
2.7530003 -0.75056392 0.29364663 0
2.7500002 -0.75390452 0.29378733 0
2.7470002 -0.75723439 0.29392803 0
2.7440002 -0.76055336 0.29406872 0
2.7420001 -0.7641682 0.29416254 0
2.7400002 -0.76777583 0.29425633 0
2.7380002 -0.77137625 0.29435012 0
2.7370002 -0.77528149 0.294397 0
2.7360003 -0.77918315 0.29444391 0
2.7350001 -0.78308111 0.29449081 0
2.7350001 -0.78729302 0.29449081 0
2.7350001 -0.79150492 0.29449081 0
2.7350001 -0.79571682 0.29449081 0
2.7360003 -0.80025166 0.29444391 0
2.7370002 -0.80479002 0.294397 0
2.7390003 -0.80965847 0.29430321 0
2.7410002 -0.81453413 0.29420942 0
2.7450001 -0.82007724 0.29402184 0
2.7510002 -0.82629859 0.29374042 0
2.9360001 -0.93344474 0.28506413 0
2.9280002 -0.93520528 0.28543931 0
2.9220002 -0.93764406 0.28572071 0
2.9170003 -0.94041651 0.28595519 0
2.9130001 -0.94352806 0.2861428 0
2.9090002 -0.94662523 0.2863304 0
2.9060001 -0.95006865 0.2864711 0
2.9030001 -0.95350128 0.2866118 0
2.9000001 -0.95692313 0.28675249 0
2.8980002 -0.96070033 0.28684628 0
2.8970003 -0.96483827 0.28689319 0
2.8950002 -0.96860284 0.28698698 0
2.8940003 -0.97273177 0.28703389 0
2.8940003 -0.97723049 0.28703389 0
2.8930001 -0.98135388 0.28708076 0
2.8930001 -0.98585075 0.28708076 0
2.8940003 -0.99072659 0.28703389 0
2.8950002 -0.99560583 0.28698698 0
2.8970003 -1.0008712 0.28689319 0
2.8990002 -1.0061436 0.28679937 0
2.9030001 -1.0121955 0.2866118 0
3.1200001 -0.44341502 0.27152833 0
3.1150002 -0.44758183 0.27177185 0
3.1110003 -0.45188031 0.27196664 0
3.1090002 -0.45646739 0.27206406 0
3.1070001 -0.46104723 0.27216148 0
3.1060002 -0.46577501 0.27221018 0
3.1060002 -0.47065616 0.27221018 0
3.1070001 -0.47569597 0.27216148 0
3.1090002 -0.48089999 0.27206406 0
3.1120002 -0.48627353 0.27191794 0
3.3100002 -0.67588985 0.2622748 0
3.3050003 -0.68004763 0.26251832 0
3.3010001 -0.68440741 0.26271313 0
3.2990003 -0.68919653 0.26281053 0
3.2970002 -0.69397837 0.26290792 0
3.2960002 -0.6989786 0.26295665 0
3.2970002 -0.70442969 0.26290792 0
3.2980003 -0.70988441 0.26285923 0
2.8950002 -0.63106519 0.28248647 0
2.8880002 -0.63391161 0.28282738 0
2.8840003 -0.63744712 0.2830222 0
2.8800001 -0.64096808 0.28321701 0
2.8780003 -0.64495814 0.28331441 0
2.8760002 -0.64894092 0.28341183 0
2.8750002 -0.65316182 0.28346053 0
2.8740003 -0.65737915 0.28350922 0
2.8740003 -0.66184181 0.28350922 0
2.8750002 -0.66655517 0.28346053 0
2.8770003 -0.67152464 0.2833631 0
2.8800001 -0.67675561 0.28321701 0
2.8850002 -0.68250984 0.2829735 0
2.7770002 -0.74059963 0.2882334 0
2.7690003 -0.74253517 0.28862303 0
2.7630002 -0.74503338 0.28891525 0
2.7580001 -0.74780768 0.28915876 0
2.7530003 -0.75056392 0.28940228 0
2.7500002 -0.75390452 0.2895484 0
2.7470002 -0.75723439 0.28969449 0
2.7440002 -0.76055336 0.28984061 0
2.7420001 -0.7641682 0.289938 0
2.7400002 -0.76777583 0.2900354 0
2.7380002 -0.77137625 0.29013282 0
2.7370002 -0.77528149 0.29018152 0
2.7360003 -0.77918315 0.29023021 0
2.7350001 -0.78308111 0.29027891 0
2.7350001 -0.78729302 0.29027891 0
2.7350001 -0.79150492 0.29027891 0
2.7350001 -0.79571682 0.29027891 0
2.7360003 -0.80025166 0.29023021 0
2.7370002 -0.80479002 0.29018152 0
2.7390003 -0.80965847 0.29008409 0
2.7410002 -0.81453413 0.28998673 0
2.7450001 -0.82007724 0.28979188 0
2.7510002 -0.82629859 0.2894997 0
2.9360001 -0.93344474 0.28048965 0
2.9280002 -0.93520528 0.28087926 0
2.9220002 -0.93764406 0.2811715 0
2.9170003 -0.94041651 0.28141499 0
2.9130001 -0.94352806 0.28160983 0
2.9090002 -0.94662523 0.28180462 0
2.9060001 -0.95006865 0.28195074 0
2.9030001 -0.95350128 0.28209686 0
2.9000001 -0.95692313 0.28224295 0
2.8980002 -0.96070033 0.28234035 0
2.8970003 -0.96483827 0.28238904 0
2.8950002 -0.96860284 0.28248647 0
2.8940003 -0.97273177 0.28253517 0
2.8940003 -0.97723049 0.28253517 0
2.8930001 -0.98135388 0.28258389 0
2.8930001 -0.98585075 0.28258389 0
2.8940003 -0.99072659 0.28253517 0
2.8950002 -0.99560583 0.28248647 0
2.8970003 -1.0008712 0.28238904 0
2.8990002 -1.0061436 0.28229165 0
2.9030001 -1.0121955 0.28209686 0
3.1200001 -0.44341502 0.26662198 0
3.1150002 -0.44758183 0.26687449 0
3.1110003 -0.45188031 0.26707655 0
3.1090002 -0.45646739 0.26717755 0
3.1070001 -0.46104723 0.26727858 0
3.1060002 -0.46577501 0.26732907 0
3.1060002 -0.47065616 0.26732907 0
3.1070001 -0.47569597 0.26727858 0
3.1090002 -0.48089999 0.26717755 0
3.1120002 -0.48627353 0.26702604 0
3.3100002 -0.67588985 0.25702572 0
3.3050003 -0.68004763 0.25727826 0
3.3010001 -0.68440741 0.25748029 0
3.2990003 -0.68919653 0.25758129 0
3.2970002 -0.69397837 0.25768232 0
3.2960002 -0.6989786 0.25773281 0
3.2970002 -0.70442969 0.25768232 0
3.2980003 -0.70988441 0.25763178 0
2.8950002 -0.63106519 0.27798599 0
2.8880002 -0.63391161 0.27833951 0
2.8840003 -0.63744712 0.27854156 0
2.8800001 -0.64096808 0.27874357 0
2.8780003 -0.64495814 0.27884459 0
2.8760002 -0.64894092 0.2789456 0
2.8750002 -0.65316182 0.27899611 0
2.8740003 -0.65737915 0.2790466 0
2.8740003 -0.66184181 0.2790466 0
2.8750002 -0.66655517 0.27899611 0
2.8770003 -0.67152464 0.27889508 0
2.8800001 -0.67675561 0.27874357 0
2.8850002 -0.68250984 0.27849102 0
2.7770002 -0.74059963 0.28394577 0
2.7690003 -0.74253517 0.2843498 0
2.7630002 -0.74503338 0.28465286 0
2.7580001 -0.74780768 0.28490537 0
2.7530003 -0.75056392 0.28515792 0
2.7500002 -0.75390452 0.28530943 0
2.7470002 -0.75723439 0.28546095 0
2.7440002 -0.76055336 0.28561246 0
2.7420001 -0.7641682 0.28571349 0
2.7400002 -0.76777583 0.28581449 0
2.7380002 -0.77137625 0.28591549 0
2.7370002 -0.77528149 0.28596601 0
2.7360003 -0.77918315 0.28601652 0
2.7350001 -0.78308111 0.28606704 0
2.7350001 -0.78729302 0.28606704 0
2.7350001 -0.79150492 0.28606704 0
2.7350001 -0.79571682 0.28606704 0
2.7360003 -0.80025166 0.28601652 0
2.7370002 -0.80479002 0.28596601 0
2.7390003 -0.80965847 0.28586501 0
2.7410002 -0.81453413 0.28576398 0
2.7450001 -0.82007724 0.28556198 0
2.7510002 -0.82629859 0.28525892 0
2.9360001 -0.93344474 0.27591521 0
2.9280002 -0.93520528 0.27631927 0
2.9220002 -0.93764406 0.2766223 0
2.9170003 -0.94041651 0.27687484 0
2.9130001 -0.94352806 0.27707684 0
2.9090002 -0.94662523 0.2772789 0
2.9060001 -0.95006865 0.27743042 0
2.9030001 -0.95350128 0.27758193 0
2.9000001 -0.95692313 0.27773345 0
2.8980002 -0.96070033 0.27783448 0
2.8970003 -0.96483827 0.27788496 0
2.8950002 -0.96860284 0.27798599 0
2.8940003 -0.97273177 0.27803648 0
2.8940003 -0.97723049 0.27803648 0
2.8930001 -0.98135388 0.27808699 0
2.8930001 -0.98585075 0.27808699 0
2.8940003 -0.99072659 0.27803648 0
2.8950002 -0.99560583 0.27798599 0
2.8970003 -1.0008712 0.27788496 0
2.8990002 -1.0061436 0.27778393 0
2.9030001 -1.0121955 0.27758193 0
3.1200001 -0.44341502 0.26171565 0
3.1150002 -0.44758183 0.2619772 0
3.1110003 -0.45188031 0.26218641 0
3.1090002 -0.45646739 0.26229101 0
3.1070001 -0.46104723 0.26239568 0
3.1060002 -0.46577501 0.26244795 0
3.1060002 -0.47065616 0.26244795 0
3.1070001 -0.47569597 0.26239568 0
3.1090002 -0.48089999 0.26229101 0
3.1120002 -0.48627353 0.2621341 0
3.3100002 -0.67588985 0.25177664 0
3.3050003 -0.68004763 0.25203818 0
3.3010001 -0.68440741 0.25224745 0
3.2990003 -0.68919653 0.25235206 0
3.2970002 -0.69397837 0.25245667 0
3.2960002 -0.6989786 0.252509 0
3.2970002 -0.70442969 0.25245667 0
3.2980003 -0.70988441 0.25240436 0
2.8950002 -0.63106519 0.27348548 0
2.8880002 -0.63391161 0.27385163 0
2.8840003 -0.63744712 0.2740609 0
2.8800001 -0.64096808 0.27427012 0
2.8780003 -0.64495814 0.27437472 0
2.8760002 -0.64894092 0.27447939 0
2.8750002 -0.65316182 0.27453166 0
2.8740003 -0.65737915 0.274584 0
2.8740003 -0.66184181 0.274584 0
2.8750002 -0.66655517 0.27453166 0
2.8770003 -0.67152464 0.27442706 0
2.8800001 -0.67675561 0.27427012 0
2.8850002 -0.68250984 0.27400857 0
2.7770002 -0.74059963 0.27965808 0
2.7690003 -0.74253517 0.28007659 0
2.7630002 -0.74503338 0.28039044 0
2.7580001 -0.74780768 0.28065199 0
2.7530003 -0.75056392 0.28091353 0
2.7500002 -0.75390452 0.28107047 0
2.7470002 -0.75723439 0.28122741 0
2.7440002 -0.76055336 0.28138435 0
2.7420001 -0.7641682 0.28148898 0
2.7400002 -0.76777583 0.28159359 0
2.7380002 -0.77137625 0.28169823 0
2.7370002 -0.77528149 0.28175053 0
2.7360003 -0.77918315 0.28180283 0
2.7350001 -0.78308111 0.28185514 0
2.7350001 -0.78729302 0.28185514 0
2.7350001 -0.79150492 0.28185514 0
2.7350001 -0.79571682 0.28185514 0
2.7360003 -0.80025166 0.28180283 0
2.7370002 -0.80479002 0.28175053 0
2.7390003 -0.80965847 0.28164589 0
2.7410002 -0.81453413 0.28154129 0
2.7450001 -0.82007724 0.28133205 0
2.7510002 -0.82629859 0.28101817 0
2.9360001 -0.93344474 0.27134073 0
2.9280002 -0.93520528 0.27175921 0
2.9220002 -0.93764406 0.27207309 0
2.9170003 -0.94041651 0.27233464 0
2.9130001 -0.94352806 0.27254391 0
2.9090002 -0.94662523 0.27275312 0
2.9060001 -0.95006865 0.27291006 0
2.9030001 -0.95350128 0.273067 0
2.9000001 -0.95692313 0.27322394 0
2.8980002 -0.96070033 0.27332854 0
2.8970003 -0.96483827 0.27338082 0
2.8950002 -0.96860284 0.27348548 0
2.8940003 -0.97273177 0.27353778 0
2.8940003 -0.97723049 0.27353778 0
2.8930001 -0.98135388 0.27359009 0
2.8930001 -0.98585075 0.27359009 0
2.8940003 -0.99072659 0.27353778 0
2.8950002 -0.99560583 0.27348548 0
2.8970003 -1.0008712 0.27338082 0
2.8990002 -1.0061436 0.27327624 0
2.9030001 -1.0121955 0.273067 0
3.1200001 -0.44341502 0.25680929 0
3.1150002 -0.44758183 0.25707984 0
3.1110003 -0.45188031 0.25729626 0
3.1090002 -0.45646739 0.25740451 0
3.1070001 -0.46104723 0.25751275 0
3.1060002 -0.46577501 0.25756687 0
3.1060002 -0.47065616 0.25756687 0
3.1070001 -0.47569597 0.25751275 0
3.1090002 -0.48089999 0.25740451 0
3.1120002 -0.48627353 0.2572422 0
3.3100002 -0.67588985 0.24652755 0
3.3050003 -0.68004763 0.24679811 0
3.3010001 -0.68440741 0.2470146 0
3.2990003 -0.68919653 0.24712282 0
3.2970002 -0.69397837 0.24723104 0
3.2960002 -0.6989786 0.24728516 0
3.2970002 -0.70442969 0.24723104 0
3.2980003 -0.70988441 0.24717692 0
2.8950002 -0.63106519 0.26898497 0
2.8880002 -0.63391161 0.26936376 0
2.8840003 -0.63744712 0.26958025 0
2.8800001 -0.64096808 0.26979667 0
2.8780003 -0.64495814 0.26990491 0
2.8760002 -0.64894092 0.27001315 0
2.8750002 -0.65316182 0.27006724 0
2.8740003 -0.65737915 0.27012134 0
2.8740003 -0.66184181 0.27012134 0
2.8750002 -0.66655517 0.27006724 0
2.8770003 -0.67152464 0.26995903 0
2.8800001 -0.67675561 0.26979667 0
2.8850002 -0.68250984 0.26952612 0
2.7770002 -0.74059963 0.27537045 0
2.7690003 -0.74253517 0.27580336 0
2.7630002 -0.74503338 0.27612805 0
2.7580001 -0.74780768 0.27639863 0
2.7530003 -0.75056392 0.2766692 0
2.7500002 -0.75390452 0.27683151 0
2.7470002 -0.75723439 0.27699387 0
2.7440002 -0.76055336 0.27715623 0
2.7420001 -0.7641682 0.27726445 0
2.7400002 -0.76777583 0.27737266 0
2.7380002 -0.77137625 0.2774809 0
2.7370002 -0.77528149 0.27753502 0
2.7360003 -0.77918315 0.27758914 0
2.7350001 -0.78308111 0.27764326 0
2.7350001 -0.78729302 0.27764326 0
2.7350001 -0.79150492 0.27764326 0
2.7350001 -0.79571682 0.27764326 0
2.7360003 -0.80025166 0.27758914 0
2.7370002 -0.80479002 0.27753502 0
2.7390003 -0.80965847 0.27742678 0
2.7410002 -0.81453413 0.27731857 0
2.7450001 -0.82007724 0.27710211 0
2.7510002 -0.82629859 0.27677745 0
2.9360001 -0.93344474 0.26676628 0
2.9280002 -0.93520528 0.26719922 0
2.9220002 -0.93764406 0.26752388 0
2.9170003 -0.94041651 0.26779443 0
2.9130001 -0.94352806 0.26801091 0
2.9090002 -0.94662523 0.26822737 0
2.9060001 -0.95006865 0.2683897 0
2.9030001 -0.95350128 0.26855206 0
2.9000001 -0.95692313 0.2687144 0
2.8980002 -0.96070033 0.26882261 0
2.8970003 -0.96483827 0.26887673 0
2.8950002 -0.96860284 0.26898497 0
2.8940003 -0.97273177 0.26903909 0
2.8940003 -0.97723049 0.26903909 0
2.8930001 -0.98135388 0.26909322 0
2.8930001 -0.98585075 0.26909322 0
2.8940003 -0.99072659 0.26903909 0
2.8950002 -0.99560583 0.26898497 0
2.8970003 -1.0008712 0.26887673 0
2.8990002 -1.0061436 0.26876852 0
2.9030001 -1.0121955 0.26855206 0
3.1200001 -0.44341502 0.25190291 0
3.1150002 -0.44758183 0.25218248 0
3.1110003 -0.45188031 0.25240618 0
3.1090002 -0.45646739 0.252518 0
3.1070001 -0.46104723 0.25262985 0
3.1060002 -0.46577501 0.25268576 0
3.1060002 -0.47065616 0.25268576 0
3.1070001 -0.47569597 0.25262985 0
3.1090002 -0.48089999 0.252518 0
3.1120002 -0.48627353 0.25235024 0
3.3100002 -0.67588985 0.24127848 0
3.3050003 -0.68004763 0.24155806 0
3.3010001 -0.68440741 0.24178174 0
3.2990003 -0.68919653 0.24189357 0
3.2970002 -0.69397837 0.24200542 0
3.2960002 -0.6989786 0.24206133 0
3.2970002 -0.70442969 0.24200542 0
3.2980003 -0.70988441 0.24194948 0
2.8950002 -0.63106519 0.26448447 0
2.8880002 -0.63391161 0.26487589 0
2.8840003 -0.63744712 0.26509956 0
2.8800001 -0.64096808 0.26532325 0
2.8780003 -0.64495814 0.26543507 0
2.8760002 -0.64894092 0.26554692 0
2.8750002 -0.65316182 0.26560283 0
2.8740003 -0.65737915 0.26565874 0
2.8740003 -0.66184181 0.26565874 0
2.8750002 -0.66655517 0.26560283 0
2.8770003 -0.67152464 0.26549098 0
2.8800001 -0.67675561 0.26532325 0
2.8850002 -0.68250984 0.26504365 0
2.7770002 -0.74059963 0.27108279 0
2.7690003 -0.74253517 0.27153015 0
2.7630002 -0.74503338 0.27186567 0
2.7580001 -0.74780768 0.27214524 0
2.7530003 -0.75056392 0.27242482 0
2.7500002 -0.75390452 0.27259257 0
2.7470002 -0.75723439 0.27276033 0
2.7440002 -0.76055336 0.27292809 0
2.7420001 -0.7641682 0.27303994 0
2.7400002 -0.76777583 0.27315176 0
2.7380002 -0.77137625 0.2732636 0
2.7370002 -0.77528149 0.27331951 0
2.7360003 -0.77918315 0.27337542 0
2.7350001 -0.78308111 0.27343136 0
2.7350001 -0.78729302 0.27343136 0
2.7350001 -0.79150492 0.27343136 0
2.7350001 -0.79571682 0.27343136 0
2.7360003 -0.80025166 0.27337542 0
2.7370002 -0.80479002 0.27331951 0
2.7390003 -0.80965847 0.27320766 0
2.7410002 -0.81453413 0.27309585 0
2.7450001 -0.82007724 0.27287218 0
2.7510002 -0.82629859 0.27253667 0
2.9360001 -0.93344474 0.26219183 0
2.9280002 -0.93520528 0.26263916 0
2.9220002 -0.93764406 0.26297468 0
2.9170003 -0.94041651 0.26325426 0
2.9130001 -0.94352806 0.26347795 0
2.9090002 -0.94662523 0.26370162 0
2.9060001 -0.95006865 0.26386935 0
2.9030001 -0.95350128 0.26403713 0
2.9000001 -0.95692313 0.26420489 0
2.8980002 -0.96070033 0.26431671 0
2.8970003 -0.96483827 0.26437265 0
2.8950002 -0.96860284 0.26448447 0
2.8940003 -0.97273177 0.26454037 0
2.8940003 -0.97723049 0.26454037 0
2.8930001 -0.98135388 0.26459628 0
2.8930001 -0.98585075 0.26459628 0
2.8940003 -0.99072659 0.26454037 0
2.8950002 -0.99560583 0.26448447 0
2.8970003 -1.0008712 0.26437265 0
2.8990002 -1.0061436 0.2642608 0
2.9030001 -1.0121955 0.26403713 0
3.1200001 -0.44341502 0.24699655 0
3.1150002 -0.44758183 0.24728516 0
3.1110003 -0.45188031 0.24751604 0
3.1090002 -0.45646739 0.24763149 0
3.1070001 -0.46104723 0.24774693 0
3.1060002 -0.46577501 0.24780466 0
3.1060002 -0.47065616 0.24780466 0
3.1070001 -0.47569597 0.24774693 0
3.1090002 -0.48089999 0.24763149 0
3.1120002 -0.48627353 0.24745832 0
3.3100002 -0.67588985 0.2360294 0
3.3050003 -0.68004763 0.23631799 0
3.3010001 -0.68440741 0.2365489 0
3.2990003 -0.68919653 0.23666432 0
3.2970002 -0.69397837 0.23677978 0
3.2960002 -0.6989786 0.23683749 0
3.2970002 -0.70442969 0.23677978 0
3.2980003 -0.70988441 0.23672205 0
2.8950002 -0.63106519 0.25998396 0
2.8880002 -0.63391161 0.26038802 0
2.8840003 -0.63744712 0.2606189 0
2.8800001 -0.64096808 0.2608498 0
2.8780003 -0.64495814 0.26096523 0
2.8760002 -0.64894092 0.26108068 0
2.8750002 -0.65316182 0.26113838 0
2.8740003 -0.65737915 0.26119614 0
2.8740003 -0.66184181 0.26119614 0
2.8750002 -0.66655517 0.26113838 0
2.8770003 -0.67152464 0.26102296 0
2.8800001 -0.67675561 0.2608498 0
2.8850002 -0.68250984 0.26056117 0
2.7770002 -0.74059963 0.26679516 0
2.7690003 -0.74253517 0.26725692 0
2.7630002 -0.74503338 0.26760325 0
2.7580001 -0.74780768 0.26789188 0
2.7530003 -0.75056392 0.26818046 0
2.7500002 -0.75390452 0.26835364 0
2.7470002 -0.75723439 0.26852679 0
2.7440002 -0.76055336 0.26869997 0
2.7420001 -0.7641682 0.2688154 0
2.7400002 -0.76777583 0.26893085 0
2.7380002 -0.77137625 0.26904631 0
2.7370002 -0.77528149 0.269104 0
2.7360003 -0.77918315 0.26916173 0
2.7350001 -0.78308111 0.26921946 0
2.7350001 -0.78729302 0.26921946 0
2.7350001 -0.79150492 0.26921946 0
2.7350001 -0.79571682 0.26921946 0
2.7360003 -0.80025166 0.26916173 0
2.7370002 -0.80479002 0.269104 0
2.7390003 -0.80965847 0.26898855 0
2.7410002 -0.81453413 0.26887316 0
2.7450001 -0.82007724 0.26864225 0
2.7510002 -0.82629859 0.26829591 0
2.9360001 -0.93344474 0.25761735 0
2.9280002 -0.93520528 0.25807914 0
2.9220002 -0.93764406 0.25842547 0
2.9170003 -0.94041651 0.25871408 0
2.9130001 -0.94352806 0.25894499 0
2.9090002 -0.94662523 0.25917587 0
2.9060001 -0.95006865 0.25934905 0
2.9030001 -0.95350128 0.2595222 0
2.9000001 -0.95692313 0.25969535 0
2.8980002 -0.96070033 0.25981081 0
2.8970003 -0.96483827 0.2598685 0
2.8950002 -0.96860284 0.25998396 0
2.8940003 -0.97273177 0.26004168 0
2.8940003 -0.97723049 0.26004168 0
2.8930001 -0.98135388 0.26009941 0
2.8930001 -0.98585075 0.26009941 0
2.8940003 -0.99072659 0.26004168 0
2.8950002 -0.99560583 0.25998396 0
2.8970003 -1.0008712 0.2598685 0
2.8990002 -1.0061436 0.25975308 0
2.9030001 -1.0121955 0.2595222 0
3.1200001 -0.44341502 0.2420902 0
3.1150002 -0.44758183 0.24238782 0
3.1110003 -0.45188031 0.24262592 0
3.1090002 -0.45646739 0.24274497 0
3.1070001 -0.46104723 0.24286403 0
3.1060002 -0.46577501 0.24292354 0
3.1060002 -0.47065616 0.24292354 0
3.1070001 -0.47569597 0.24286403 0
3.1090002 -0.48089999 0.24274497 0
3.1120002 -0.48627353 0.24256639 0
3.3100002 -0.67588985 0.2307803 0
3.3050003 -0.68004763 0.23107794 0
3.3010001 -0.68440741 0.23131604 0
3.2990003 -0.68919653 0.23143509 0
3.2970002 -0.69397837 0.23155414 0
3.2960002 -0.6989786 0.23161367 0
3.2970002 -0.70442969 0.23155414 0
3.2980003 -0.70988441 0.23149461 0
2.8950002 -0.63106519 0.25548345 0
2.8880002 -0.63391161 0.25590014 0
2.8840003 -0.63744712 0.25613824 0
2.8800001 -0.64096808 0.25637633 0
2.8780003 -0.64495814 0.25649542 0
2.8760002 -0.64894092 0.25661445 0
2.8750002 -0.65316182 0.25667399 0
2.8740003 -0.65737915 0.25673348 0
2.8740003 -0.66184181 0.25673348 0
2.8750002 -0.66655517 0.25667399 0
2.8770003 -0.67152464 0.2565549 0
2.8800001 -0.67675561 0.25637633 0
2.8850002 -0.68250984 0.25607872 0
2.7770002 -0.74059963 0.2625075 0
2.7690003 -0.74253517 0.26298368 0
2.7630002 -0.74503338 0.26334083 0
2.7580001 -0.74780768 0.2636385 0
2.7530003 -0.75056392 0.2639361 0
2.7500002 -0.75390452 0.26411468 0
2.7470002 -0.75723439 0.26429325 0
2.7440002 -0.76055336 0.26447183 0
2.7420001 -0.7641682 0.26459089 0
2.7400002 -0.76777583 0.26470995 0
2.7380002 -0.77137625 0.26482898 0
2.7370002 -0.77528149 0.26488853 0
2.7360003 -0.77918315 0.26494804 0
2.7350001 -0.78308111 0.26500756 0
2.7350001 -0.78729302 0.26500756 0
2.7350001 -0.79150492 0.26500756 0
2.7350001 -0.79571682 0.26500756 0
2.7360003 -0.80025166 0.26494804 0
2.7370002 -0.80479002 0.26488853 0
2.7390003 -0.80965847 0.26476946 0
2.7410002 -0.81453413 0.2646504 0
2.7450001 -0.82007724 0.26441231 0
2.7510002 -0.82629859 0.26405516 0
2.9360001 -0.93344474 0.25304291 0
2.9280002 -0.93520528 0.25351912 0
2.9220002 -0.93764406 0.25387627 0
2.9170003 -0.94041651 0.25417387 0
2.9130001 -0.94352806 0.254412 0
2.9090002 -0.94662523 0.25465012 0
2.9060001 -0.95006865 0.25482869 0
2.9030001 -0.95350128 0.25500727 0
2.9000001 -0.95692313 0.25518584 0
2.8980002 -0.96070033 0.25530487 0
2.8970003 -0.96483827 0.25536442 0
2.8950002 -0.96860284 0.25548345 0
2.8940003 -0.97273177 0.25554299 0
2.8940003 -0.97723049 0.25554299 0
2.8930001 -0.98135388 0.25560254 0
2.8930001 -0.98585075 0.25560254 0
2.8940003 -0.99072659 0.25554299 0
2.8950002 -0.99560583 0.25548345 0
2.8970003 -1.0008712 0.25536442 0
2.8990002 -1.0061436 0.25524536 0
2.9030001 -1.0121955 0.25500727 0
3.1200001 -0.44341502 0.23718382 0
3.1150002 -0.44758183 0.23749048 0
3.1110003 -0.45188031 0.23773579 0
3.1090002 -0.45646739 0.23785846 0
3.1070001 -0.46104723 0.23798111 0
3.1060002 -0.46577501 0.23804244 0
3.1060002 -0.47065616 0.23804244 0
3.1070001 -0.47569597 0.23798111 0
3.1090002 -0.48089999 0.23785846 0
3.1120002 -0.48627353 0.23767446 0
3.3100002 -0.67588985 0.22553124 0
3.3050003 -0.68004763 0.22583787 0
3.3010001 -0.68440741 0.22608319 0
3.2990003 -0.68919653 0.22620584 0
3.2970002 -0.69397837 0.22632852 0
3.2960002 -0.6989786 0.22638984 0
3.2970002 -0.70442969 0.22632852 0
3.2980003 -0.70988441 0.22626717 0
2.8950002 -0.63106519 0.25098297 0
2.8880002 -0.63391161 0.25141227 0
2.8840003 -0.63744712 0.25165758 0
2.8800001 -0.64096808 0.25190291 0
2.8780003 -0.64495814 0.25202554 0
2.8760002 -0.64894092 0.25214821 0
2.8750002 -0.65316182 0.25220954 0
2.8740003 -0.65737915 0.25227088 0
2.8740003 -0.66184181 0.25227088 0
2.8750002 -0.66655517 0.25220954 0
2.8770003 -0.67152464 0.25208688 0
2.8800001 -0.67675561 0.25190291 0
2.8850002 -0.68250984 0.25159627 0
2.7770002 -0.74059963 0.25821984 0
2.7690003 -0.74253517 0.25871047 0
2.7630002 -0.74503338 0.25907844 0
2.7580001 -0.74780768 0.25938511 0
2.7530003 -0.75056392 0.25969175 0
2.7500002 -0.75390452 0.25987574 0
2.7470002 -0.75723439 0.26005971 0
2.7440002 -0.76055336 0.26024371 0
2.7420001 -0.7641682 0.26036638 0
2.7400002 -0.76777583 0.26048905 0
2.7380002 -0.77137625 0.26061168 0
2.7370002 -0.77528149 0.26067302 0
2.7360003 -0.77918315 0.26073435 0
2.7350001 -0.78308111 0.26079568 0
2.7350001 -0.78729302 0.26079568 0
2.7350001 -0.79150492 0.26079568 0
2.7350001 -0.79571682 0.26079568 0
2.7360003 -0.80025166 0.26073435 0
2.7370002 -0.80479002 0.26067302 0
2.7390003 -0.80965847 0.26055035 0
2.7410002 -0.81453413 0.26042771 0
2.7450001 -0.82007724 0.26018238 0
2.7510002 -0.82629859 0.25981438 0
2.9360001 -0.93344474 0.24846846 0
2.9280002 -0.93520528 0.24895909 0
2.9220002 -0.93764406 0.24932708 0
2.9170003 -0.94041651 0.24963371 0
2.9130001 -0.94352806 0.24987903 0
2.9090002 -0.94662523 0.25012434 0
2.9060001 -0.95006865 0.25030833 0
2.9030001 -0.95350128 0.25049233 0
2.9000001 -0.95692313 0.25067633 0
2.8980002 -0.96070033 0.25079897 0
2.8970003 -0.96483827 0.25086027 0
2.8950002 -0.96860284 0.25098297 0
2.8940003 -0.97273177 0.25104427 0
2.8940003 -0.97723049 0.25104427 0
2.8930001 -0.98135388 0.25110561 0
2.8930001 -0.98585075 0.25110561 0
2.8940003 -0.99072659 0.25104427 0
2.8950002 -0.99560583 0.25098297 0
2.8970003 -1.0008712 0.25086027 0
2.8990002 -1.0061436 0.25073767 0
2.9030001 -1.0121955 0.25049233 0
3.1200001 -0.44341502 0.23227747 0
3.1150002 -0.44758183 0.23259313 0
3.1110003 -0.45188031 0.23284566 0
3.1090002 -0.45646739 0.23297194 0
3.1070001 -0.46104723 0.23309821 0
3.1060002 -0.46577501 0.23316133 0
3.1060002 -0.47065616 0.23316133 0
3.1070001 -0.47569597 0.23309821 0
3.1090002 -0.48089999 0.23297194 0
3.1120002 -0.48627353 0.23278253 0
3.3100002 -0.67588985 0.22028214 0
3.3050003 -0.68004763 0.2205978 0
3.3010001 -0.68440741 0.22085035 0
3.2990003 -0.68919653 0.22097661 0
3.2970002 -0.69397837 0.22110288 0
3.2960002 -0.6989786 0.221166 0
3.2970002 -0.70442969 0.22110288 0
3.2980003 -0.70988441 0.22103974 0
2.8950002 -0.63106519 0.24648246 0
2.8880002 -0.63391161 0.2469244 0
2.8840003 -0.63744712 0.24717692 0
2.8800001 -0.64096808 0.24742946 0
2.8780003 -0.64495814 0.24755573 0
2.8760002 -0.64894092 0.24768199 0
2.8750002 -0.65316182 0.24774513 0
2.8740003 -0.65737915 0.24780826 0
2.8740003 -0.66184181 0.24780826 0
2.8750002 -0.66655517 0.24774513 0
2.8770003 -0.67152464 0.24761885 0
2.8800001 -0.67675561 0.24742946 0
2.8850002 -0.68250984 0.24711379 0
2.7770002 -0.74059963 0.25393218 0
2.7690003 -0.74253517 0.25443727 0
2.7630002 -0.74503338 0.25481606 0
2.7580001 -0.74780768 0.25513172 0
2.7530003 -0.75056392 0.25544739 0
2.7500002 -0.75390452 0.25563678 0
2.7470002 -0.75723439 0.25582618 0
2.7440002 -0.76055336 0.2560156 0
2.7420001 -0.7641682 0.25614184 0
2.7400002 -0.76777583 0.25626811 0
2.7380002 -0.77137625 0.25639439 0
2.7370002 -0.77528149 0.25645751 0
2.7360003 -0.77918315 0.25652063 0
2.7350001 -0.78308111 0.25658381 0
2.7350001 -0.78729302 0.25658381 0
2.7350001 -0.79150492 0.25658381 0
2.7350001 -0.79571682 0.25658381 0
2.7360003 -0.80025166 0.25652063 0
2.7370002 -0.80479002 0.25645751 0
2.7390003 -0.80965847 0.25633126 0
2.7410002 -0.81453413 0.25620496 0
2.7450001 -0.82007724 0.25595245 0
2.7510002 -0.82629859 0.25557366 0
2.9360001 -0.93344474 0.243894 0
2.9280002 -0.93520528 0.24439906 0
2.9220002 -0.93764406 0.24477786 0
2.9170003 -0.94041651 0.24509352 0
2.9130001 -0.94352806 0.24534607 0
2.9090002 -0.94662523 0.2455986 0
2.9060001 -0.95006865 0.24578801 0
2.9030001 -0.95350128 0.2459774 0
2.9000001 -0.95692313 0.2461668 0
2.8980002 -0.96070033 0.24629305 0
2.8970003 -0.96483827 0.24635619 0
2.8950002 -0.96860284 0.24648246 0
2.8940003 -0.97273177 0.24654558 0
2.8940003 -0.97723049 0.24654558 0
2.8930001 -0.98135388 0.24660872 0
2.8930001 -0.98585075 0.24660872 0
2.8940003 -0.99072659 0.24654558 0
2.8950002 -0.99560583 0.24648246 0
2.8970003 -1.0008712 0.24635619 0
2.8990002 -1.0061436 0.24622993 0
2.9030001 -1.0121955 0.2459774 0
3.1200001 -0.44341502 0.22737113 0
3.1150002 -0.44758183 0.22769579 0
3.1110003 -0.45188031 0.22795554 0
3.1090002 -0.45646739 0.22808543 0
3.1070001 -0.46104723 0.22821529 0
3.1060002 -0.46577501 0.22828025 0
3.1060002 -0.47065616 0.22828025 0
3.1070001 -0.47569597 0.22821529 0
3.1090002 -0.48089999 0.22808543 0
3.1120002 -0.48627353 0.22789061 0
3.3100002 -0.67588985 0.21503307 0
3.3050003 -0.68004763 0.21535774 0
3.3010001 -0.68440741 0.21561749 0
3.2990003 -0.68919653 0.21574737 0
3.2970002 -0.69397837 0.21587725 0
3.2960002 -0.6989786 0.21594219 0
3.2970002 -0.70442969 0.21587725 0
3.2980003 -0.70988441 0.2158123 0
2.8950002 -0.63106519 0.24198195 0
2.8880002 -0.63391161 0.24243651 0
2.8840003 -0.63744712 0.24269626 0
2.8800001 -0.64096808 0.24295603 0
2.8780003 -0.64495814 0.24308588 0
2.8760002 -0.64894092 0.24321577 0
2.8750002 -0.65316182 0.24328069 0
2.8740003 -0.65737915 0.24334563 0
2.8740003 -0.66184181 0.24334563 0
2.8750002 -0.66655517 0.24328069 0
2.8770003 -0.67152464 0.24315082 0
2.8800001 -0.67675561 0.24295603 0
2.8850002 -0.68250984 0.24263133 0
2.7770002 -0.74059963 0.24964453 0
2.7690003 -0.74253517 0.25016403 0
2.7630002 -0.74503338 0.25055367 0
2.7580001 -0.74780768 0.25087833 0
2.7530003 -0.75056392 0.251203 0
2.7500002 -0.75390452 0.25139785 0
2.7470002 -0.75723439 0.25159264 0
2.7440002 -0.76055336 0.25178748 0
2.7420001 -0.7641682 0.25191736 0
2.7400002 -0.76777583 0.25204721 0
2.7380002 -0.77137625 0.25217709 0
2.7370002 -0.77528149 0.25224203 0
2.7360003 -0.77918315 0.25230694 0
2.7350001 -0.78308111 0.25237191 0
2.7350001 -0.78729302 0.25237191 0
2.7350001 -0.79150492 0.25237191 0
2.7350001 -0.79571682 0.25237191 0
2.7360003 -0.80025166 0.25230694 0
2.7370002 -0.80479002 0.25224203 0
2.7390003 -0.80965847 0.25211215 0
2.7410002 -0.81453413 0.25198227 0
2.7450001 -0.82007724 0.25172251 0
2.7510002 -0.82629859 0.25133291 0
2.9360001 -0.93344474 0.23931955 0
2.9280002 -0.93520528 0.23983903 0
2.9220002 -0.93764406 0.24022867 0
2.9170003 -0.94041651 0.24055333 0
2.9130001 -0.94352806 0.24081309 0
2.9090002 -0.94662523 0.24107283 0
2.9060001 -0.95006865 0.24126765 0
2.9030001 -0.95350128 0.24146247 0
2.9000001 -0.95692313 0.24165729 0
2.8980002 -0.96070033 0.24178714 0
2.8970003 -0.96483827 0.24185207 0
2.8950002 -0.96860284 0.24198195 0
2.8940003 -0.97273177 0.24204689 0
2.8940003 -0.97723049 0.24204689 0
2.8930001 -0.98135388 0.24211183 0
2.8930001 -0.98585075 0.24211183 0
2.8940003 -0.99072659 0.24204689 0
2.8950002 -0.99560583 0.24198195 0
2.8970003 -1.0008712 0.24185207 0
2.8990002 -1.0061436 0.24172221 0
2.9030001 -1.0121955 0.24146247 0
3.1200001 -0.44341502 0.22246477 0
3.1150002 -0.44758183 0.22279847 0
3.1110003 -0.45188031 0.22306542 0
3.1090002 -0.45646739 0.22319891 0
3.1070001 -0.46104723 0.22333239 0
3.1060002 -0.46577501 0.22339913 0
3.1060002 -0.47065616 0.22339913 0
3.1070001 -0.47569597 0.22333239 0
3.1090002 -0.48089999 0.22319891 0
3.1120002 -0.48627353 0.22299869 0
3.3100002 -0.67588985 0.20978399 0
3.3050003 -0.68004763 0.21011768 0
3.3010001 -0.68440741 0.21038467 0
3.2990003 -0.68919653 0.21051812 0
3.2970002 -0.69397837 0.21065162 0
3.2960002 -0.6989786 0.21071835 0
3.2970002 -0.70442969 0.21065162 0
3.2980003 -0.70988441 0.21058488 0
2.8950002 -0.63106519 0.23748146 0
2.8880002 -0.63391161 0.23794864 0
2.8840003 -0.63744712 0.23821561 0
2.8800001 -0.64096808 0.23848258 0
2.8780003 -0.64495814 0.23861605 0
2.8760002 -0.64894092 0.23874955 0
2.8750002 -0.65316182 0.23881628 0
2.8740003 -0.65737915 0.238883 0
2.8740003 -0.66184181 0.238883 0
2.8750002 -0.66655517 0.23881628 0
2.8770003 -0.67152464 0.23868278 0
2.8800001 -0.67675561 0.23848258 0
2.8850002 -0.68250984 0.23814887 0
2.7770002 -0.74059963 0.24535689 0
2.7690003 -0.74253517 0.24589081 0
2.7630002 -0.74503338 0.24629125 0
2.7580001 -0.74780768 0.24662496 0
2.7530003 -0.75056392 0.24695866 0
2.7500002 -0.75390452 0.24715889 0
2.7470002 -0.75723439 0.24735911 0
2.7440002 -0.76055336 0.24755934 0
2.7420001 -0.7641682 0.24769282 0
2.7400002 -0.76777583 0.24782631 0
2.7380002 -0.77137625 0.24795978 0
2.7370002 -0.77528149 0.24802652 0
2.7360003 -0.77918315 0.24809326 0
2.7350001 -0.78308111 0.24816 0
2.7350001 -0.78729302 0.24816 0
2.7350001 -0.79150492 0.24816 0
2.7350001 -0.79571682 0.24816 0
2.7360003 -0.80025166 0.24809326 0
2.7370002 -0.80479002 0.24802652 0
2.7390003 -0.80965847 0.24789304 0
2.7410002 -0.81453413 0.24775955 0
2.7450001 -0.82007724 0.2474926 0
2.7510002 -0.82629859 0.24709216 0
2.9360001 -0.93344474 0.23474509 0
2.9280002 -0.93520528 0.23527901 0
2.9220002 -0.93764406 0.23567946 0
2.9170003 -0.94041651 0.23601316 0
2.9130001 -0.94352806 0.23628013 0
2.9090002 -0.94662523 0.2365471 0
2.9060001 -0.95006865 0.23674731 0
2.9030001 -0.95350128 0.23694754 0
2.9000001 -0.95692313 0.23714776 0
2.8980002 -0.96070033 0.23728123 0
2.8970003 -0.96483827 0.23734798 0
2.8950002 -0.96860284 0.23748146 0
2.8940003 -0.97273177 0.23754819 0
2.8940003 -0.97723049 0.23754819 0
2.8930001 -0.98135388 0.23761494 0
2.8930001 -0.98585075 0.23761494 0
2.8940003 -0.99072659 0.23754819 0
2.8950002 -0.99560583 0.23748146 0
2.8970003 -1.0008712 0.23734798 0
2.8990002 -1.0061436 0.23721449 0
2.9030001 -1.0121955 0.23694754 0
3.1200001 -0.44341502 0.2175584 0
3.1150002 -0.44758183 0.21790111 0
3.1110003 -0.45188031 0.21817529 0
3.1090002 -0.45646739 0.2183124 0
3.1070001 -0.46104723 0.21844949 0
3.1060002 -0.46577501 0.21851802 0
3.1060002 -0.47065616 0.21851802 0
3.1070001 -0.47569597 0.21844949 0
3.1090002 -0.48089999 0.2183124 0
3.1120002 -0.48627353 0.21810675 0
3.3100002 -0.67588985 0.2045349 0
3.3050003 -0.68004763 0.20487761 0
3.3010001 -0.68440741 0.20515181 0
3.2990003 -0.68919653 0.2052889 0
3.2970002 -0.69397837 0.20542598 0
3.2960002 -0.6989786 0.20549452 0
3.2970002 -0.70442969 0.20542598 0
3.2980003 -0.70988441 0.20535743 0
2.8950002 -0.63106519 0.23298095 0
2.8880002 -0.63391161 0.23346077 0
2.8840003 -0.63744712 0.23373495 0
2.8800001 -0.64096808 0.23400913 0
2.8780003 -0.64495814 0.23414621 0
2.8760002 -0.64894092 0.2342833 0
2.8750002 -0.65316182 0.23435186 0
2.8740003 -0.65737915 0.23442039 0
2.8740003 -0.66184181 0.23442039 0
2.8750002 -0.66655517 0.23435186 0
2.8770003 -0.67152464 0.23421475 0
2.8800001 -0.67675561 0.23400913 0
2.8850002 -0.68250984 0.23366639 0
2.7770002 -0.74059963 0.24106923 0
2.7690003 -0.74253517 0.24161758 0
2.7630002 -0.74503338 0.24202885 0
2.7580001 -0.74780768 0.24237159 0
2.7530003 -0.75056392 0.2427143 0
2.7500002 -0.75390452 0.24291994 0
2.7470002 -0.75723439 0.24312557 0
2.7440002 -0.76055336 0.24333121 0
2.7420001 -0.7641682 0.2434683 0
2.7400002 -0.76777583 0.24360539 0
2.7380002 -0.77137625 0.24374248 0
2.7370002 -0.77528149 0.24381101 0
2.7360003 -0.77918315 0.24387956 0
2.7350001 -0.78308111 0.24394812 0
2.7350001 -0.78729302 0.24394812 0
2.7350001 -0.79150492 0.24394812 0
2.7350001 -0.79571682 0.24394812 0
2.7360003 -0.80025166 0.24387956 0
2.7370002 -0.80479002 0.24381101 0
2.7390003 -0.80965847 0.24367392 0
2.7410002 -0.81453413 0.24353684 0
2.7450001 -0.82007724 0.24326266 0
2.7510002 -0.82629859 0.24285139 0
2.9360001 -0.93344474 0.23017062 0
2.9280002 -0.93520528 0.23071899 0
2.9220002 -0.93764406 0.23113024 0
2.9170003 -0.94041651 0.23147295 0
2.9130001 -0.94352806 0.23174715 0
2.9090002 -0.94662523 0.23202133 0
2.9060001 -0.95006865 0.23222697 0
2.9030001 -0.95350128 0.2324326 0
2.9000001 -0.95692313 0.23263824 0
2.8980002 -0.96070033 0.23277532 0
2.8970003 -0.96483827 0.23284386 0
2.8950002 -0.96860284 0.23298095 0
2.8940003 -0.97273177 0.23304948 0
2.8940003 -0.97723049 0.23304948 0
2.8930001 -0.98135388 0.23311806 0
2.8930001 -0.98585075 0.23311806 0
2.8940003 -0.99072659 0.23304948 0
2.8950002 -0.99560583 0.23298095 0
2.8970003 -1.0008712 0.23284386 0
2.8990002 -1.0061436 0.23270677 0
2.9030001 -1.0121955 0.2324326 0
3.1200001 -0.44341502 0.21265204 0
3.1150002 -0.44758183 0.21300377 0
3.1110003 -0.45188031 0.21328516 0
3.1090002 -0.45646739 0.21342587 0
3.1070001 -0.46104723 0.21356659 0
3.1060002 -0.46577501 0.21363692 0
3.1060002 -0.47065616 0.21363692 0
3.1070001 -0.47569597 0.21356659 0
3.1090002 -0.48089999 0.21342587 0
3.1120002 -0.48627353 0.21321483 0
3.3100002 -0.67588985 0.19928582 0
3.3050003 -0.68004763 0.19963756 0
3.3010001 -0.68440741 0.19991897 0
3.2990003 -0.68919653 0.20005965 0
3.2970002 -0.69397837 0.20020035 0
3.2960002 -0.6989786 0.2002707 0
3.2970002 -0.70442969 0.20020035 0
3.2980003 -0.70988441 0.20012999 0
2.8950002 -0.63106519 0.22848044 0
2.8880002 -0.63391161 0.2289729 0
2.8840003 -0.63744712 0.22925429 0
2.8800001 -0.64096808 0.22953568 0
2.8780003 -0.64495814 0.22967638 0
2.8760002 -0.64894092 0.22981708 0
2.8750002 -0.65316182 0.22988741 0
2.8740003 -0.65737915 0.22995777 0
2.8740003 -0.66184181 0.22995777 0
2.8750002 -0.66655517 0.22988741 0
2.8770003 -0.67152464 0.22974671 0
2.8800001 -0.67675561 0.22953568 0
2.8850002 -0.68250984 0.22918393 0
2.7770002 -0.74059963 0.23678158 0
2.7690003 -0.74253517 0.23734437 0
2.7630002 -0.74503338 0.23776646 0
2.7580001 -0.74780768 0.23811822 0
2.7530003 -0.75056392 0.23846994 0
2.7500002 -0.75390452 0.23868097 0
2.7470002 -0.75723439 0.23889203 0
2.7440002 -0.76055336 0.23910309 0
2.7420001 -0.7641682 0.23924379 0
2.7400002 -0.76777583 0.23938447 0
2.7380002 -0.77137625 0.23952518 0
2.7370002 -0.77528149 0.23959552 0
2.7360003 -0.77918315 0.23966585 0
2.7350001 -0.78308111 0.23973621 0
2.7350001 -0.78729302 0.23973621 0
2.7350001 -0.79150492 0.23973621 0
2.7350001 -0.79571682 0.23973621 0
2.7360003 -0.80025166 0.23966585 0
2.7370002 -0.80479002 0.23959552 0
2.7390003 -0.80965847 0.23945482 0
2.7410002 -0.81453413 0.23931412 0
2.7450001 -0.82007724 0.23903273 0
2.7510002 -0.82629859 0.23861064 0
2.9360001 -0.93344474 0.22559617 0
2.9280002 -0.93520528 0.22615896 0
2.9220002 -0.93764406 0.22658105 0
2.9170003 -0.94041651 0.22693278 0
2.9130001 -0.94352806 0.22721419 0
2.9090002 -0.94662523 0.22749557 0
2.9060001 -0.95006865 0.22770663 0
2.9030001 -0.95350128 0.22791767 0
2.9000001 -0.95692313 0.22812872 0
2.8980002 -0.96070033 0.22826941 0
2.8970003 -0.96483827 0.22833975 0
2.8950002 -0.96860284 0.22848044 0
2.8940003 -0.97273177 0.22855079 0
2.8940003 -0.97723049 0.22855079 0
2.8930001 -0.98135388 0.22862116 0
2.8930001 -0.98585075 0.22862116 0
2.8940003 -0.99072659 0.22855079 0
2.8950002 -0.99560583 0.22848044 0
2.8970003 -1.0008712 0.22833975 0
2.8990002 -1.0061436 0.22819905 0
2.9030001 -1.0121955 0.22791767 0
3.1200001 -0.44341502 0.20774569 0
3.1150002 -0.44758183 0.20810644 0
3.1110003 -0.45188031 0.20839503 0
3.1090002 -0.45646739 0.20853937 0
3.1070001 -0.46104723 0.20868367 0
3.1060002 -0.46577501 0.20875581 0
3.1060002 -0.47065616 0.20875581 0
3.1070001 -0.47569597 0.20868367 0
3.1090002 -0.48089999 0.20853937 0
3.1120002 -0.48627353 0.2083229 0
3.3100002 -0.67588985 0.19403674 0
3.3050003 -0.68004763 0.19439748 0
3.3010001 -0.68440741 0.19468611 0
3.2990003 -0.68919653 0.1948304 0
3.2970002 -0.69397837 0.19497472 0
3.2960002 -0.6989786 0.19504687 0
3.2970002 -0.70442969 0.19497472 0
3.2980003 -0.70988441 0.19490255 0
2.8950002 -0.63106519 0.22397995 0
2.8880002 -0.63391161 0.22448502 0
2.8840003 -0.63744712 0.22477362 0
2.8800001 -0.64096808 0.22506225 0
2.8780003 -0.64495814 0.22520654 0
2.8760002 -0.64894092 0.22535086 0
2.8750002 -0.65316182 0.22542299 0
2.8740003 -0.65737915 0.22549514 0
2.8740003 -0.66184181 0.22549514 0
2.8750002 -0.66655517 0.22542299 0
2.8770003 -0.67152464 0.22527869 0
2.8800001 -0.67675561 0.22506225 0
2.8850002 -0.68250984 0.22470146 0
2.7770002 -0.74059963 0.23249394 0
2.7690003 -0.74253517 0.23307113 0
2.7630002 -0.74503338 0.23350406 0
2.7580001 -0.74780768 0.23386483 0
2.7530003 -0.75056392 0.23422557 0
2.7500002 -0.75390452 0.23444204 0
2.7470002 -0.75723439 0.23465849 0
2.7440002 -0.76055336 0.23487496 0
2.7420001 -0.7641682 0.23501927 0
2.7400002 -0.76777583 0.23516355 0
2.7380002 -0.77137625 0.23530787 0
2.7370002 -0.77528149 0.23538002 0
2.7360003 -0.77918315 0.23545216 0
2.7350001 -0.78308111 0.23552433 0
2.7350001 -0.78729302 0.23552433 0
2.7350001 -0.79150492 0.23552433 0
2.7350001 -0.79571682 0.23552433 0
2.7360003 -0.80025166 0.23545216 0
2.7370002 -0.80479002 0.23538002 0
2.7390003 -0.80965847 0.23523571 0
2.7410002 -0.81453413 0.23509142 0
2.7450001 -0.82007724 0.2348028 0
2.7510002 -0.82629859 0.23436989 0
2.9360001 -0.93344474 0.22102171 0
2.9280002 -0.93520528 0.22159892 0
2.9220002 -0.93764406 0.22203185 0
2.9170003 -0.94041651 0.22239259 0
2.9130001 -0.94352806 0.22268121 0
2.9090002 -0.94662523 0.22296983 0
2.9060001 -0.95006865 0.22318627 0
2.9030001 -0.95350128 0.22340274 0
2.9000001 -0.95692313 0.22361919 0
2.8980002 -0.96070033 0.2237635 0
2.8970003 -0.96483827 0.22383565 0
2.8950002 -0.96860284 0.22397995 0
2.8940003 -0.97273177 0.2240521 0
2.8940003 -0.97723049 0.2240521 0
2.8930001 -0.98135388 0.22412427 0
2.8930001 -0.98585075 0.22412427 0
2.8940003 -0.99072659 0.2240521 0
2.8950002 -0.99560583 0.22397995 0
2.8970003 -1.0008712 0.22383565 0
2.8990002 -1.0061436 0.22369134 0
2.9030001 -1.0121955 0.22340274 0
3.1200001 -0.44341502 0.20283931 0
3.1150002 -0.44758183 0.2032091 0
3.1110003 -0.45188031 0.20350492 0
3.1090002 -0.45646739 0.20365283 0
3.1070001 -0.46104723 0.20380075 0
3.1060002 -0.46577501 0.20387471 0
3.1060002 -0.47065616 0.20387471 0
3.1070001 -0.47569597 0.20380075 0
3.1090002 -0.48089999 0.20365283 0
3.1120002 -0.48627353 0.20343097 0
3.3100002 -0.67588985 0.18878765 0
3.3050003 -0.68004763 0.18915743 0
3.3010001 -0.68440741 0.18945326 0
3.2990003 -0.68919653 0.18960117 0
3.2970002 -0.69397837 0.18974909 0
3.2960002 -0.6989786 0.18982303 0
3.2970002 -0.70442969 0.18974909 0
3.2980003 -0.70988441 0.18967512 0
2.8950002 -0.63106519 0.21947946 0
2.8880002 -0.63391161 0.21999715 0
2.8840003 -0.63744712 0.22029296 0
2.8800001 -0.64096808 0.2205888 0
2.8780003 -0.64495814 0.2207367 0
2.8760002 -0.64894092 0.22088462 0
2.8750002 -0.65316182 0.22095858 0
2.8740003 -0.65737915 0.22103253 0
2.8740003 -0.66184181 0.22103253 0
2.8750002 -0.66655517 0.22095858 0
2.8770003 -0.67152464 0.22081065 0
2.8800001 -0.67675561 0.2205888 0
