# .PCD v0.7 - Point Cloud Data file format
VERSION 0.7
FIELDS x y z intensity
SIZE 4 4 4 4
TYPE F F F F
COUNT 1 1 1 1
WIDTH 1412
HEIGHT 1
VIEWPOINT 0 0 0 1 0 0 0
POINTS 1412
DATA ascii
4.0490003 0.17779127 0.27235809 0
4.0490003 0.17120917 0.27235809 0
4.0510001 0.16474253 0.27228594 0
4.0550003 0.15838049 0.27214164 0
4.0620003 0.15216638 0.27188909 0
4.2930002 0.010177802 0.26355553 0
4.2850003 0.0030545667 0.26384413 0
4.2800002 -0.0040073469 0.2640245 0
4.2780004 -0.011024158 0.26409665 0
4.2780004 -0.018019326 0.26409665 0
4.2790003 -0.025009083 0.26406056 0
4.2820001 -0.031995233 0.26395231 0
4.289 -0.038984992 0.2636998 0
4.3720002 0.56300169 0.25354075 0
4.3640003 0.55462486 0.25384378 0
4.3590002 0.54672599 0.25403321 0
4.3559999 0.53914094 0.25414684 0
4.355 0.53185898 0.25418472 0
4.3540001 0.5245806 0.2542226 0
4.3540001 0.51744837 0.2542226 0
4.3559999 0.51059747 0.25414684 0
4.3580003 0.50373942 0.25407109 0
4.362 0.49714828 0.25391954 0
4.3670001 0.49067807 0.25373018 0
4.3740001 0.48445672 0.253465 0
4.3840003 0.47860515 0.25308621 0
4.2610002 0.43455076 0.25774544 0
4.2490001 0.42611435 0.25819999 0
4.244 0.41856718 0.25838941 0
4.2420001 0.41139528 0.25846517 0
4.2420001 0.40446502 0.25846517 0
4.243 0.39765024 0.25842726 0
4.2460003 0.39105913 0.25831366 0
4.2509999 0.38468087 0.25812423 0
4.2610002 0.37883472 0.25774544 0
4.5580001 0.39651382 0.2464951 0
4.5520005 0.38838589 0.24672236 0
4.5480003 0.38048521 0.24687389 0
4.5460005 0.37280101 0.24694964 0
4.5450001 0.36522317 0.24698754 0
4.5450001 0.35774636 0.24698754 0
4.5470004 0.35046083 0.24691176 0
4.5490003 0.34316802 0.24683601 0
4.5530005 0.33605203 0.24668449 0
4.5590005 0.32910192 0.2464572 0
4.5670004 0.32230699 0.24615417 0
4.0690002 0.20549056 0.2650184 0
4.0570002 0.19807148 0.26547295 0
4.052 0.19115026 0.26566237 0
4.0490003 0.18437336 0.26577598 0
4.0490003 0.17779127 0.26577598 0
4.0490003 0.17120917 0.26577598 0
4.0510001 0.16474253 0.26570022 0
4.0550003 0.15838049 0.26554871 0
4.0620003 0.15216638 0.26528355 0
4.2930002 0.010177802 0.25653327 0
4.2850003 0.0030545667 0.2568363 0
4.2800002 -0.0040073469 0.25702572 0
4.2780004 -0.011024158 0.25710148 0
4.2780004 -0.018019326 0.25710148 0
4.2790003 -0.025009083 0.2570636 0
4.2820001 -0.031995233 0.25694996 0
4.289 -0.038984992 0.25668478 0
4.3720002 0.56300169 0.24637604 0
4.3640003 0.55462486 0.24669349 0
4.3590002 0.54672599 0.24689193 0
4.3559999 0.53914094 0.24701098 0
4.355 0.53185898 0.24705066 0
4.3540001 0.5245806 0.24709034 0
4.3540001 0.51744837 0.24709034 0
4.3559999 0.51059747 0.24701098 0
4.3580003 0.50373942 0.24693161 0
4.362 0.49714828 0.24677289 0
4.3670001 0.49067807 0.24657446 0
4.3740001 0.48445672 0.24629667 0
4.3840003 0.47860515 0.24589983 0
4.2610002 0.43455076 0.25078094 0
4.2490001 0.42611435 0.25125715 0
4.244 0.41856718 0.25145555 0
4.2420001 0.41139528 0.25153494 0
4.2420001 0.40446502 0.25153494 0
4.243 0.39765024 0.25149524 0
4.2460003 0.39105913 0.25137618 0
4.2509999 0.38468087 0.25117779 0
4.2610002 0.37883472 0.25078094 0
4.5580001 0.39651382 0.23899487 0
4.5520005 0.38838589 0.23923294 0
4.5480003 0.38048521 0.23939168 0
4.5460005 0.37280101 0.23947105 0
4.5450001 0.36522317 0.23951074 0
4.5450001 0.35774636 0.23951074 0
4.5470004 0.35046083 0.23943137 0
4.5490003 0.34316802 0.23935202 0
4.5530005 0.33605203 0.23919328 0
4.5590005 0.32910192 0.23895516 0
4.5670004 0.32230699 0.2386377 0
4.0690002 0.20549056 0.2584002 0
4.0570002 0.19807148 0.25887644 0
4.052 0.19115026 0.25907487 0
4.0490003 0.18437336 0.2591939 0
4.0490003 0.17779127 0.2591939 0
4.0490003 0.17120917 0.2591939 0
4.0510001 0.16474253 0.2591145 0
4.0550003 0.15838049 0.25895578 0
4.0620003 0.15216638 0.25867802 0
4.2930002 0.010177802 0.24951105 0
4.2850003 0.0030545667 0.24982853 0
4.2800002 -0.0040073469 0.25002694 0
4.2780004 -0.011024158 0.2501063 0
4.2780004 -0.018019326 0.2501063 0
4.2790003 -0.025009083 0.25006664 0
4.2820001 -0.031995233 0.24994758 0
4.289 -0.038984992 0.24966979 0
4.3720002 0.56300169 0.23921131 0
4.3640003 0.55462486 0.23954321 0
4.3590002 0.54672599 0.23975065 0
4.3559999 0.53914094 0.23987512 0
4.355 0.53185898 0.23991659 0
4.3540001 0.5245806 0.23995808 0
4.3540001 0.51744837 0.23995808 0
4.3559999 0.51059747 0.23987512 0
4.3580003 0.50373942 0.23979214 0
4.362 0.49714828 0.2396262 0
4.3670001 0.49067807 0.23941875 0
4.3740001 0.48445672 0.23912832 0
4.3840003 0.47860515 0.23871346 0
4.2610002 0.43455076 0.24381642 0
4.2490001 0.42611435 0.24431428 0
4.244 0.41856718 0.24452172 0
4.2420001 0.41139528 0.24460469 0
4.2420001 0.40446502 0.24460469 0
4.243 0.39765024 0.24456321 0
4.2460003 0.39105913 0.24443874 0
4.2509999 0.38468087 0.24423131 0
4.2610002 0.37883472 0.24381642 0
4.5580001 0.39651382 0.23149462 0
4.5520005 0.38838589 0.23174353 0
4.5480003 0.38048521 0.23190948 0
4.5460005 0.37280101 0.23199245 0
4.5450001 0.36522317 0.23203397 0
4.5450001 0.35774636 0.23203397 0
4.5470004 0.35046083 0.23195098 0
4.5490003 0.34316802 0.23186801 0
4.5530005 0.33605203 0.23170206 0
4.5590005 0.32910192 0.23145312 0
4.5670004 0.32230699 0.23112123 0
4.0690002 0.20549056 0.25178206 0
4.0570002 0.19807148 0.25227991 0
4.052 0.19115026 0.25248736 0
4.0490003 0.18437336 0.25261182 0
4.0490003 0.17779127 0.25261182 0
4.0490003 0.17120917 0.25261182 0
4.0510001 0.16474253 0.25252882 0
4.0550003 0.15838049 0.25236288 0
4.0620003 0.15216638 0.25207245 0
4.2930002 0.010177802 0.24248883 0
4.2850003 0.0030545667 0.24282072 0
4.2800002 -0.0040073469 0.24302816 0
4.2780004 -0.011024158 0.24311113 0
4.2780004 -0.018019326 0.24311113 0
4.2790003 -0.025009083 0.24306966 0
4.2820001 -0.031995233 0.24294519 0
4.289 -0.038984992 0.24265477 0
4.3720002 0.56300169 0.23204659 0
4.3640003 0.55462486 0.23239292 0
4.3590002 0.54672599 0.23260936 0
4.3559999 0.53914094 0.23273925 0
4.355 0.53185898 0.23278253 0
4.3540001 0.5245806 0.23282583 0
4.3540001 0.51744837 0.23282583 0
4.3559999 0.51059747 0.23273925 0
4.3580003 0.50373942 0.23265266 0
4.362 0.49714828 0.2324795 0
4.3670001 0.49067807 0.23226303 0
4.3740001 0.48445672 0.23196 0
4.3840003 0.47860515 0.23152709 0
4.2610002 0.43455076 0.23685192 0
4.2490001 0.42611435 0.23737141 0
4.244 0.41856718 0.23758788 0
4.2420001 0.41139528 0.23767446 0
4.2420001 0.40446502 0.23767446 0
4.243 0.39765024 0.23763117 0
4.2460003 0.39105913 0.23750131 0
4.2509999 0.38468087 0.23728484 0
4.2610002 0.37883472 0.23685192 0
4.5580001 0.39651382 0.22399439 0
4.5520005 0.38838589 0.22425412 0
4.5480003 0.38048521 0.2244273 0
4.5460005 0.37280101 0.22451386 0
4.5450001 0.36522317 0.22455719 0
4.5450001 0.35774636 0.22455719 0
4.5470004 0.35046083 0.22447059 0
4.5490003 0.34316802 0.22438401 0
4.5530005 0.33605203 0.22421083 0
4.5590005 0.32910192 0.22395109 0
4.5670004 0.32230699 0.22360475 0
4.0690002 0.20549056 0.24516389 0
4.0570002 0.19807148 0.24568337 0
4.052 0.19115026 0.24589983 0
4.0490003 0.18437336 0.2460297 0
4.0490003 0.17779127 0.2460297 0
4.0490003 0.17120917 0.2460297 0
4.0510001 0.16474253 0.24594311 0
4.0550003 0.15838049 0.24576996 0
4.0620003 0.15216638 0.24546692 0
4.2930002 0.010177802 0.2354666 0
4.2850003 0.0030545667 0.23581293 0
4.2800002 -0.0040073469 0.2360294 0
4.2780004 -0.011024158 0.23611598 0
4.2780004 -0.018019326 0.23611598 0
4.2790003 -0.025009083 0.23607267 0
4.2820001 -0.031995233 0.23594281 0
4.289 -0.038984992 0.23563977 0
4.3720002 0.56300169 0.22488186 0
4.3640003 0.55462486 0.22524261 0
4.3590002 0.54672599 0.2254681 0
4.3559999 0.53914094 0.22560339 0
4.355 0.53185898 0.22564846 0
4.3540001 0.5245806 0.22569357 0
4.3540001 0.51744837 0.22569357 0
4.3559999 0.51059747 0.22560339 0
4.3580003 0.50373942 0.22551319 0
4.362 0.49714828 0.22533281 0
4.3670001 0.49067807 0.22510734 0
4.3740001 0.48445672 0.22479166 0
4.3840003 0.47860515 0.22434071 0
4.2610002 0.43455076 0.22988741 0
4.2490001 0.42611435 0.23042856 0
4.244 0.41856718 0.23065405 0
4.2420001 0.41139528 0.23074424 0
4.2420001 0.40446502 0.23074424 0
4.243 0.39765024 0.23069914 0
4.2460003 0.39105913 0.23056386 0
4.2509999 0.38468087 0.23033838 0
4.2610002 0.37883472 0.22988741 0
4.5580001 0.39651382 0.21649416 0
4.5520005 0.38838589 0.2167647 0
4.5480003 0.38048521 0.2169451 0
4.5460005 0.37280101 0.21703528 0
4.5450001 0.36522317 0.2170804 0
4.5450001 0.35774636 0.2170804 0
4.5470004 0.35046083 0.21699019 0
4.5490003 0.34316802 0.21690001 0
4.5530005 0.33605203 0.21671961 0
4.5590005 0.32910192 0.21644905 0
4.5670004 0.32230699 0.21608828 0
4.0690002 0.20549056 0.2385457 0
4.0570002 0.19807148 0.23908685 0
4.052 0.19115026 0.23931232 0
4.0490003 0.18437336 0.23944761 0
4.0490003 0.17779127 0.23944761 0
4.0490003 0.17120917 0.23944761 0
4.0510001 0.16474253 0.23935741 0
4.0550003 0.15838049 0.23917703 0
4.0620003 0.15216638 0.23886137 0
4.2930002 0.010177802 0.22844438 0
4.2850003 0.0030545667 0.22880514 0
4.2800002 -0.0040073469 0.22903062 0
4.2780004 -0.011024158 0.22912081 0
4.2780004 -0.018019326 0.22912081 0
4.2790003 -0.025009083 0.22907571 0
4.2820001 -0.031995233 0.22894043 0
4.289 -0.038984992 0.22862476 0
4.3720002 0.56300169 0.21771713 0
4.3640003 0.55462486 0.21809232 0
4.3590002 0.54672599 0.21832682 0
4.3559999 0.53914094 0.21846752 0
4.355 0.53185898 0.21851441 0
4.3540001 0.5245806 0.21856131 0
4.3540001 0.51744837 0.21856131 0
4.3559999 0.51059747 0.21846752 0
4.3580003 0.50373942 0.21837372 0
4.362 0.49714828 0.21818613 0
4.3670001 0.49067807 0.21795163 0
4.3740001 0.48445672 0.21762334 0
4.3840003 0.47860515 0.21715434 0
4.2610002 0.43455076 0.22292291 0
4.2490001 0.42611435 0.22348571 0
4.244 0.41856718 0.22372021 0
4.2420001 0.41139528 0.223814 0
4.2420001 0.40446502 0.223814 0
4.243 0.39765024 0.2237671 0
4.2460003 0.39105913 0.22362641 0
4.2509999 0.38468087 0.22339192 0
4.2610002 0.37883472 0.22292291 0
4.5580001 0.39651382 0.20899393 0
4.5520005 0.38838589 0.20927529 0
4.5480003 0.38048521 0.2094629 0
4.5460005 0.37280101 0.20955668 0
4.5450001 0.36522317 0.20960362 0
4.5450001 0.35774636 0.20960362 0
4.5470004 0.35046083 0.2095098 0
4.5490003 0.34316802 0.209416 0
4.5530005 0.33605203 0.2092284 0
4.5590005 0.32910192 0.208947 0
4.5670004 0.32230699 0.20857181 0
4.0690002 0.20549056 0.23192753 0
4.0570002 0.19807148 0.23249033 0
4.052 0.19115026 0.23272482 0
4.0490003 0.18437336 0.23286551 0
4.0490003 0.17779127 0.23286551 0
4.0490003 0.17120917 0.23286551 0
4.0510001 0.16474253 0.23277171 0
4.0550003 0.15838049 0.23258412 0
4.0620003 0.15216638 0.23225582 0
4.2930002 0.010177802 0.22142215 0
4.2850003 0.0030545667 0.22179733 0
4.2800002 -0.0040073469 0.22203185 0
4.2780004 -0.011024158 0.22212563 0
4.2780004 -0.018019326 0.22212563 0
4.2790003 -0.025009083 0.22207874 0
4.2820001 -0.031995233 0.22193804 0
4.289 -0.038984992 0.22160974 0
4.3720002 0.56300169 0.21055241 0
4.3640003 0.55462486 0.21094202 0
4.3590002 0.54672599 0.21118554 0
4.3559999 0.53914094 0.21133165 0
4.355 0.53185898 0.21138035 0
4.3540001 0.5245806 0.21142906 0
4.3540001 0.51744837 0.21142906 0
4.3559999 0.51059747 0.21133165 0
4.3580003 0.50373942 0.21123424 0
4.362 0.49714828 0.21103942 0
4.3670001 0.49067807 0.21079591 0
4.3740001 0.48445672 0.210455 0
4.3840003 0.47860515 0.20996797 0
4.2610002 0.43455076 0.21595842 0
4.2490001 0.42611435 0.21654285 0
4.244 0.41856718 0.21678637 0
4.2420001 0.41139528 0.21688376 0
4.2420001 0.40446502 0.21688376 0
4.243 0.39765024 0.21683507 0
4.2460003 0.39105913 0.21668896 0
4.2509999 0.38468087 0.21644545 0
4.2610002 0.37883472 0.21595842 0
4.5580001 0.39651382 0.2014937 0
4.5520005 0.38838589 0.20178588 0
4.5480003 0.38048521 0.2019807 0
4.5460005 0.37280101 0.2020781 0
4.5450001 0.36522317 0.20212683 0
4.5450001 0.35774636 0.20212683 0
4.5470004 0.35046083 0.20202941 0
4.5490003 0.34316802 0.20193201 0
4.5530005 0.33605203 0.20173718 0
4.5590005 0.32910192 0.20144495 0
4.5670004 0.32230699 0.20105535 0
4.0690002 0.20549056 0.22530936 0
4.0570002 0.19807148 0.22589381 0
4.052 0.19115026 0.22613731 0
4.0490003 0.18437336 0.22628342 0
4.0490003 0.17779127 0.22628342 0
4.0490003 0.17120917 0.22628342 0
4.0510001 0.16474253 0.22618601 0
4.0550003 0.15838049 0.2259912 0
4.0620003 0.15216638 0.22565027 0
4.2930002 0.010177802 0.21439993 0
4.2850003 0.0030545667 0.21478955 0
4.2800002 -0.0040073469 0.21503307 0
4.2780004 -0.011024158 0.21513046 0
4.2780004 -0.018019326 0.21513046 0
4.2790003 -0.025009083 0.21508177 0
4.2820001 -0.031995233 0.21493566 0
4.289 -0.038984992 0.21459474 0
4.3720002 0.56300169 0.20338768 0
4.3640003 0.55462486 0.20379174 0
4.3590002 0.54672599 0.20404427 0
4.3559999 0.53914094 0.20419578 0
4.355 0.53185898 0.20424628 0
4.3540001 0.5245806 0.2042968 0
4.3540001 0.51744837 0.2042968 0
4.3559999 0.51059747 0.20419578 0
4.3580003 0.50373942 0.20409477 0
4.362 0.49714828 0.20389275 0
4.3670001 0.49067807 0.20364021 0
4.3740001 0.48445672 0.20328666 0
4.3840003 0.47860515 0.2027816 0
4.2610002 0.43455076 0.20899391 0
4.2490001 0.42611435 0.2096 0
4.244 0.41856718 0.20985253 0
4.2420001 0.41139528 0.20995355 0
4.2420001 0.40446502 0.20995355 0
4.243 0.39765024 0.20990303 0
4.2460003 0.39105913 0.20975152 0
4.2509999 0.38468087 0.20949899 0
4.2610002 0.37883472 0.20899391 0
4.5580001 0.39651382 0.19399346 0
4.5520005 0.38838589 0.19429648 0
4.5480003 0.38048521 0.19449851 0
4.5460005 0.37280101 0.19459951 0
4.5450001 0.36522317 0.19465004 0
4.5450001 0.35774636 0.19465004 0
4.5470004 0.35046083 0.19454901 0
4.5490003 0.34316802 0.19444801 0
4.5530005 0.33605203 0.19424596 0
4.5590005 0.32910192 0.19394293 0
4.5670004 0.32230699 0.19353887 0
4.0690002 0.20549056 0.21869119 0
4.0570002 0.19807148 0.21929727 0
4.052 0.19115026 0.2195498 0
4.0490003 0.18437336 0.21970132 0
4.0490003 0.17779127 0.21970132 0
4.0490003 0.17120917 0.21970132 0
4.0510001 0.16474253 0.2196003 0
4.0550003 0.15838049 0.21939828 0
4.0620003 0.15216638 0.21904473 0
4.2930002 0.010177802 0.2073777 0
4.2850003 0.0030545667 0.20778175 0
4.2800002 -0.0040073469 0.20803429 0
4.2780004 -0.011024158 0.20813529 0
4.2780004 -0.018019326 0.20813529 0
4.2790003 -0.025009083 0.20808479 0
4.2820001 -0.031995233 0.20793328 0
4.289 -0.038984992 0.20757973 0
4.3720002 0.56300169 0.19622296 0
4.3640003 0.55462486 0.19664143 0
4.3590002 0.54672599 0.19690299 0
4.3559999 0.53914094 0.19705993 0
4.355 0.53185898 0.19711223 0
4.3540001 0.5245806 0.19716454 0
4.3540001 0.51744837 0.19716454 0
4.3559999 0.51059747 0.19705993 0
4.3580003 0.50373942 0.19695529 0
4.362 0.49714828 0.19674607 0
4.3670001 0.49067807 0.19648451 0
4.3740001 0.48445672 0.19611832 0
4.3840003 0.47860515 0.19559523 0
4.2610002 0.43455076 0.20202941 0
4.2490001 0.42611435 0.20265713 0
4.244 0.41856718 0.20291869 0
4.2420001 0.41139528 0.2030233 0
4.2420001 0.40446502 0.2030233 0
4.243 0.39765024 0.202971 0
4.2460003 0.39105913 0.20281407 0
4.2509999 0.38468087 0.20255253 0
4.2610002 0.37883472 0.20202941 0
4.5580001 0.39651382 0.18649322 0
4.5520005 0.38838589 0.18680707 0
4.5480003 0.38048521 0.18701631 0
4.5460005 0.37280101 0.18712093 0
4.5450001 0.36522317 0.18717325 0
4.5450001 0.35774636 0.18717325 0
4.5470004 0.35046083 0.18706863 0
4.5490003 0.34316802 0.18696401 0
4.5530005 0.33605203 0.18675475 0
4.5590005 0.32910192 0.1864409 0
4.5670004 0.32230699 0.1860224 0
4.0690002 0.20549056 0.21207303 0
4.0570002 0.19807148 0.21270074 0
4.052 0.19115026 0.2129623 0
4.0490003 0.18437336 0.21311922 0
4.0490003 0.17779127 0.21311922 0
4.0490003 0.17120917 0.21311922 0
4.0510001 0.16474253 0.2130146 0
4.0550003 0.15838049 0.21280536 0
4.0620003 0.15216638 0.21243918 0
4.2930002 0.010177802 0.20035549 0
4.2850003 0.0030545667 0.20077395 0
4.2800002 -0.0040073469 0.20103551 0
4.2780004 -0.011024158 0.20114014 0
4.2780004 -0.018019326 0.20114014 0
4.2790003 -0.025009083 0.20108782 0
4.2820001 -0.031995233 0.20093089 0
4.289 -0.038984992 0.20056471 0
4.3720002 0.56300169 0.18905823 0
4.3640003 0.55462486 0.18949114 0
4.3590002 0.54672599 0.18976171 0
4.3559999 0.53914094 0.18992406 0
4.355 0.53185898 0.18997817 0
4.3540001 0.5245806 0.19003227 0
4.3540001 0.51744837 0.19003227 0
4.3559999 0.51059747 0.18992406 0
4.3580003 0.50373942 0.18981582 0
4.362 0.49714828 0.18959938 0
4.3670001 0.49067807 0.18932879 0
4.3740001 0.48445672 0.18894999 0
4.3840003 0.47860515 0.18840885 0
4.2610002 0.43455076 0.1950649 0
4.2490001 0.42611435 0.19571427 0
4.244 0.41856718 0.19598486 0
4.2420001 0.41139528 0.19609307 0
4.2420001 0.40446502 0.19609307 0
4.243 0.39765024 0.19603896 0
4.2460003 0.39105913 0.19587663 0
4.2509999 0.38468087 0.19560607 0
4.2610002 0.37883472 0.1950649 0
4.5580001 0.39651382 0.17899299 0
4.5520005 0.38838589 0.17931765 0
4.5480003 0.38048521 0.17953411 0
4.5460005 0.37280101 0.17964233 0
4.5450001 0.36522317 0.17969647 0
4.5450001 0.35774636 0.17969647 0
4.5470004 0.35046083 0.17958823 0
4.5490003 0.34316802 0.17948002 0
4.5530005 0.33605203 0.17926353 0
4.5590005 0.32910192 0.17893885 0
4.5670004 0.32230699 0.17850594 0
4.0690002 0.20549056 0.20545484 0
4.0570002 0.19807148 0.20610422 0
4.052 0.19115026 0.20637478 0
4.0490003 0.18437336 0.20653713 0
4.0490003 0.17779127 0.20653713 0
4.0490003 0.17120917 0.20653713 0
4.0510001 0.16474253 0.2064289 0
4.0550003 0.15838049 0.20621243 0
4.0620003 0.15216638 0.20583363 0
4.2930002 0.010177802 0.19333325 0
4.2850003 0.0030545667 0.19376616 0
4.2800002 -0.0040073469 0.19403674 0
4.2780004 -0.011024158 0.19414495 0
4.2780004 -0.018019326 0.19414495 0
4.2790003 -0.025009083 0.19409086 0
4.2820001 -0.031995233 0.19392851 0
4.289 -0.038984992 0.19354971 0
4.3720002 0.56300169 0.1818935 0
4.3640003 0.55462486 0.18234083 0
4.3590002 0.54672599 0.18262044 0
4.3559999 0.53914094 0.18278819 0
4.355 0.53185898 0.18284412 0
4.3540001 0.5245806 0.18290003 0
4.3540001 0.51744837 0.18290003 0
4.3559999 0.51059747 0.18278819 0
4.3580003 0.50373942 0.18267635 0
4.362 0.49714828 0.18245268 0
4.3670001 0.49067807 0.18217309 0
4.3740001 0.48445672 0.18178166 0
4.3840003 0.47860515 0.18122248 0
4.2610002 0.43455076 0.1881004 0
4.2490001 0.42611435 0.18877141 0
4.244 0.41856718 0.18905102 0
4.2420001 0.41139528 0.18916285 0
4.2420001 0.40446502 0.18916285 0
4.243 0.39765024 0.18910693 0
4.2460003 0.39105913 0.18893917 0
4.2509999 0.38468087 0.18865958 0
4.2610002 0.37883472 0.1881004 0
4.5580001 0.39651382 0.17149276 0
4.5520005 0.38838589 0.17182826 0
4.5480003 0.38048521 0.17205191 0
4.5460005 0.37280101 0.17216374 0
4.5450001 0.36522317 0.17221969 0
4.5450001 0.35774636 0.17221969 0
4.5470004 0.35046083 0.17210783 0
4.5490003 0.34316802 0.17199601 0
4.5530005 0.33605203 0.17177232 0
4.5590005 0.32910192 0.1714368 0
4.5670004 0.32230699 0.17098948 0
4.0690002 0.20549056 0.19883667 0
4.0570002 0.19807148 0.19950768 0
4.052 0.19115026 0.19978727 0
4.0490003 0.18437336 0.19995503 0
4.0490003 0.17779127 0.19995503 0
4.0490003 0.17120917 0.19995503 0
4.0510001 0.16474253 0.1998432 0
4.0550003 0.15838049 0.19961952 0
4.0620003 0.15216638 0.19922809 0
4.2930002 0.010177802 0.18631102 0
4.2850003 0.0030545667 0.18675837 0
4.2800002 -0.0040073469 0.18703796 0
4.2780004 -0.011024158 0.18714979 0
4.2780004 -0.018019326 0.18714979 0
4.2790003 -0.025009083 0.18709387 0
4.2820001 -0.031995233 0.18692613 0
4.289 -0.038984992 0.1865347 0
4.3720002 0.56300169 0.17472878 0
4.3640003 0.55462486 0.17519054 0
4.3590002 0.54672599 0.17547916 0
4.3559999 0.53914094 0.17565233 0
4.355 0.53185898 0.17571005 0
4.3540001 0.5245806 0.17576776 0
4.3540001 0.51744837 0.17576776 0
4.3559999 0.51059747 0.17565233 0
4.3580003 0.50373942 0.17553689 0
4.362 0.49714828 0.17530599 0
4.3670001 0.49067807 0.17501737 0
4.3740001 0.48445672 0.17461333 0
4.3840003 0.47860515 0.17403612 0
4.2610002 0.43455076 0.18113589 0
4.2490001 0.42611435 0.18182856 0
4.244 0.41856718 0.18211718 0
4.2420001 0.41139528 0.18223262 0
4.2420001 0.40446502 0.18223262 0
4.243 0.39765024 0.18217489 0
4.2460003 0.39105913 0.18200172 0
4.2509999 0.38468087 0.18171312 0
4.2610002 0.37883472 0.18113589 0
4.5580001 0.39651382 0.16399252 0
4.5520005 0.38838589 0.16433883 0
4.5480003 0.38048521 0.16456972 0
4.5460005 0.37280101 0.16468516 0
4.5450001 0.36522317 0.1647429 0
4.5450001 0.35774636 0.1647429 0
4.5470004 0.35046083 0.16462743 0
4.5490003 0.34316802 0.16451201 0
4.5530005 0.33605203 0.1642811 0
4.5590005 0.32910192 0.16393477 0
4.5670004 0.32230699 0.16347301 0
4.0690002 0.20549056 0.1922185 0
4.0570002 0.19807148 0.19291116 0
4.052 0.19115026 0.19319977 0
4.0490003 0.18437336 0.19337294 0
4.0490003 0.17779127 0.19337294 0
4.0490003 0.17120917 0.19337294 0
4.0510001 0.16474253 0.19325748 0
4.0550003 0.15838049 0.1930266 0
4.0620003 0.15216638 0.19262254 0
4.2930002 0.010177802 0.1792888 0
4.2850003 0.0030545667 0.17975058 0
4.2800002 -0.0040073469 0.18003918 0
4.2780004 -0.011024158 0.18015462 0
4.2780004 -0.018019326 0.18015462 0
4.2790003 -0.025009083 0.18009691 0
4.2820001 -0.031995233 0.17992374 0
4.289 -0.038984992 0.17951968 0
4.3720002 0.56300169 0.16756405 0
4.3640003 0.55462486 0.16804025 0
4.3590002 0.54672599 0.16833788 0
4.3559999 0.53914094 0.16851646 0
4.355 0.53185898 0.168576 0
4.3540001 0.5245806 0.1686355 0
4.3540001 0.51744837 0.1686355 0
4.3559999 0.51059747 0.16851646 0
4.3580003 0.50373942 0.1683974 0
4.362 0.49714828 0.16815931 0
4.3670001 0.49067807 0.16786167 0
4.3740001 0.48445672 0.16744497 0
4.3840003 0.47860515 0.16684975 0
4.2610002 0.43455076 0.17417139 0
4.2490001 0.42611435 0.17488571 0
4.244 0.41856718 0.17518334 0
4.2420001 0.41139528 0.17530237 0
4.2420001 0.40446502 0.17530237 0
4.243 0.39765024 0.17524286 0
4.2460003 0.39105913 0.17506428 0
4.2509999 0.38468087 0.17476666 0
4.2610002 0.37883472 0.17417139 0
4.5580001 0.39651382 0.15649228 0
4.5520005 0.38838589 0.1568494 0
4.5480003 0.38048521 0.15708753 0
4.5460005 0.37280101 0.15720658 0
4.5450001 0.36522317 0.15726611 0
4.5450001 0.35774636 0.15726611 0
4.5470004 0.35046083 0.15714704 0
4.5490003 0.34316802 0.157028 0
4.5530005 0.33605203 0.15678988 0
4.5590005 0.32910192 0.15643275 0
4.5670004 0.32230699 0.15595652 0
4.0690002 0.20549056 0.18560033 0
4.0570002 0.19807148 0.18631464 0
4.052 0.19115026 0.18661226 0
4.0490003 0.18437336 0.18679084 0
4.0490003 0.17779127 0.18679084 0
4.0490003 0.17120917 0.18679084 0
4.0510001 0.16474253 0.18667178 0
4.0550003 0.15838049 0.18643369 0
4.0620003 0.15216638 0.18601701 0
4.2930002 0.010177802 0.17226657 0
4.2850003 0.0030545667 0.17274278 0
4.2800002 -0.0040073469 0.1730404 0
4.2780004 -0.011024158 0.17315947 0
4.2780004 -0.018019326 0.17315947 0
4.2790003 -0.025009083 0.17309994 0
4.2820001 -0.031995233 0.17292136 0
4.289 -0.038984992 0.17250468 0
4.3720002 0.56300169 0.16039932 0
4.3640003 0.55462486 0.16088997 0
4.3590002 0.54672599 0.1611966 0
4.3559999 0.53914094 0.1613806 0
4.355 0.53185898 0.16144194 0
4.3540001 0.5245806 0.16150326 0
4.3540001 0.51744837 0.16150326 0
4.3559999 0.51059747 0.1613806 0
4.3580003 0.50373942 0.16125794 0
4.362 0.49714828 0.1610126 0
4.3670001 0.49067807 0.16070597 0
4.3740001 0.48445672 0.16027665 0
4.3840003 0.47860515 0.15966336 0
4.2610002 0.43455076 0.16720687 0
4.2490001 0.42611435 0.16794284 0
4.244 0.41856718 0.1682495 0
4.2420001 0.41139528 0.16837215 0
4.2420001 0.40446502 0.16837215 0
4.243 0.39765024 0.16831084 0
4.2460003 0.39105913 0.16812684 0
4.2509999 0.38468087 0.16782019 0
4.2610002 0.37883472 0.16720687 0
4.5580001 0.39651382 0.14899206 0
4.5520005 0.38838589 0.14936 0
4.5480003 0.38048521 0.14960533 0
4.5460005 0.37280101 0.14972797 0
4.5450001 0.36522317 0.14978933 0
4.5450001 0.35774636 0.14978933 0
4.5470004 0.35046083 0.14966664 0
4.5490003 0.34316802 0.149544 0
4.5530005 0.33605203 0.14929867 0
4.5590005 0.32910192 0.1489307 0
4.5670004 0.32230699 0.14844006 0
4.0690002 0.20549056 0.17898215 0
4.0570002 0.19807148 0.17971811 0
4.052 0.19115026 0.18002476 0
4.0490003 0.18437336 0.18020874 0
4.0490003 0.17779127 0.18020874 0
4.0490003 0.17120917 0.18020874 0
4.0510001 0.16474253 0.18008608 0
4.0550003 0.15838049 0.17984077 0
4.0620003 0.15216638 0.17941147 0
4.2930002 0.010177802 0.16524436 0
4.2850003 0.0030545667 0.16573498 0
4.2800002 -0.0040073469 0.16604164 0
4.2780004 -0.011024158 0.16616429 0
4.2780004 -0.018019326 0.16616429 0
4.2790003 -0.025009083 0.16610298 0
4.2820001 -0.031995233 0.16591898 0
4.289 -0.038984992 0.16548966 0
4.3720002 0.56300169 0.1532346 0
4.3640003 0.55462486 0.15373966 0
4.3590002 0.54672599 0.15405533 0
4.3559999 0.53914094 0.15424472 0
4.355 0.53185898 0.15430787 0
4.3540001 0.5245806 0.15437098 0
4.3540001 0.51744837 0.15437098 0
4.3559999 0.51059747 0.15424472 0
4.3580003 0.50373942 0.15411848 0
4.362 0.49714828 0.15386593 0
4.3670001 0.49067807 0.15355027 0
4.3740001 0.48445672 0.15310833 0
4.3840003 0.47860515 0.152477 0
4.2610002 0.43455076 0.16024238 0
4.2490001 0.42611435 0.16099998 0
4.244 0.41856718 0.16131565 0
4.2420001 0.41139528 0.16144194 0
4.2420001 0.40446502 0.16144194 0
4.243 0.39765024 0.16137879 0
4.2460003 0.39105913 0.16118939 0
4.2509999 0.38468087 0.16087373 0
4.2610002 0.37883472 0.16024238 0
4.5580001 0.39651382 0.14149183 0
4.5520005 0.38838589 0.14187059 0
4.5480003 0.38048521 0.14212313 0
4.5460005 0.37280101 0.14224938 0
4.5450001 0.36522317 0.14231256 0
4.5450001 0.35774636 0.14231256 0
4.5470004 0.35046083 0.14218628 0
4.5490003 0.34316802 0.14205998 0
4.5530005 0.33605203 0.14180747 0
4.5590005 0.32910192 0.14142865 0
4.5670004 0.32230699 0.14092359 0
4.0690002 0.20549056 0.17236398 0
4.0570002 0.19807148 0.17312159 0
4.052 0.19115026 0.17343724 0
4.0490003 0.18437336 0.17362665 0
4.0490003 0.17779127 0.17362665 0
4.0490003 0.17120917 0.17362665 0
4.0510001 0.16474253 0.17350037 0
4.0550003 0.15838049 0.17324784 0
4.0620003 0.15216638 0.17280591 0
4.2930002 0.010177802 0.15822212 0
4.2850003 0.0030545667 0.15872718 0
4.2800002 -0.0040073469 0.15904287 0
4.2780004 -0.011024158 0.15916911 0
4.2780004 -0.018019326 0.15916911 0
4.2790003 -0.025009083 0.159106 0
4.2820001 -0.031995233 0.15891658 0
4.289 -0.038984992 0.15847465 0
4.3720002 0.56300169 0.14606988 0
4.3640003 0.55462486 0.14658937 0
4.3590002 0.54672599 0.14691406 0
4.3559999 0.53914094 0.14710888 0
4.355 0.53185898 0.14717379 0
4.3540001 0.5245806 0.14723873 0
4.3540001 0.51744837 0.14723873 0
4.3559999 0.51059747 0.14710888 0
4.3580003 0.50373942 0.14697897 0
4.362 0.49714828 0.14671925 0
4.3670001 0.49067807 0.14639455 0
4.3740001 0.48445672 0.14593998 0
4.3840003 0.47860515 0.14529061 0
4.2610002 0.43455076 0.15327787 0
4.2490001 0.42611435 0.15405713 0
4.244 0.41856718 0.15438183 0
4.2420001 0.41139528 0.15451168 0
4.2420001 0.40446502 0.15451168 0
4.243 0.39765024 0.15444675 0
4.2460003 0.39105913 0.15425193 0
4.2509999 0.38468087 0.15392727 0
4.2610002 0.37883472 0.15327787 0
4.5580001 0.39651382 0.13399157 0
4.5520005 0.38838589 0.13438118 0
4.5480003 0.38048521 0.13464093 0
4.5460005 0.37280101 0.13477081 0
4.5450001 0.36522317 0.13483575 0
4.5450001 0.35774636 0.13483575 0
4.5470004 0.35046083 0.13470587 0
4.5490003 0.34316802 0.13457599 0
4.5530005 0.33605203 0.13431624 0
4.5590005 0.32910192 0.13392663 0
4.5670004 0.32230699 0.13340712 0
4.0690002 0.20549056 0.16574582 0
4.0570002 0.19807148 0.16652505 0
4.052 0.19115026 0.16684975 0
4.0490003 0.18437336 0.16704454 0
4.0490003 0.17779127 0.16704454 0
4.0490003 0.17120917 0.16704454 0
4.0510001 0.16474253 0.16691467 0
4.0550003 0.15838049 0.16665493 0
4.0620003 0.15216638 0.16620038 0
4.2930002 0.010177802 0.15119988 0
4.2850003 0.0030545667 0.15171939 0
4.2800002 -0.0040073469 0.15204409 0
4.2780004 -0.011024158 0.15217397 0
4.2780004 -0.018019326 0.15217397 0
4.2790003 -0.025009083 0.152109 0
4.2820001 -0.031995233 0.15191418 0
4.289 -0.038984992 0.15145963 0
4.3720002 0.56300169 0.13890514 0
4.3640003 0.55462486 0.13943905 0
4.3590002 0.54672599 0.13977277 0
4.3559999 0.53914094 0.13997298 0
4.355 0.53185898 0.14003974 0
4.3540001 0.5245806 0.14010647 0
4.3540001 0.51744837 0.14010647 0
4.3559999 0.51059747 0.13997298 0
4.3580003 0.50373942 0.1398395 0
4.362 0.49714828 0.13957253 0
4.3670001 0.49067807 0.13923883 0
4.3740001 0.48445672 0.13877165 0
4.3840003 0.47860515 0.13810426 0
4.2610002 0.43455076 0.14631337 0
4.2490001 0.42611435 0.14711428 0
4.244 0.41856718 0.147448 0
4.2420001 0.41139528 0.14758146 0
4.2420001 0.40446502 0.14758146 0
4.243 0.39765024 0.1475147 0
4.2460003 0.39105913 0.14731449 0
4.2509999 0.38468087 0.14698079 0
4.2610002 0.37883472 0.14631337 0
4.5580001 0.39651382 0.12649137 0
4.5520005 0.38838589 0.12689176 0
4.5480003 0.38048521 0.12715873 0
4.5460005 0.37280101 0.12729222 0
4.5450001 0.36522317 0.12735897 0
4.5450001 0.35774636 0.12735897 0
4.5470004 0.35046083 0.12722549 0
4.5490003 0.34316802 0.127092 0
4.5530005 0.33605203 0.12682503 0
4.5590005 0.32910192 0.12642458 0
4.5670004 0.32230699 0.12589064 0
4.0690002 0.20549056 0.15912764 0
4.0570002 0.19807148 0.15992853 0
4.052 0.19115026 0.16026223 0
4.0490003 0.18437336 0.16046247 0
4.0490003 0.17779127 0.16046247 0
4.0490003 0.17120917 0.16046247 0
4.0510001 0.16474253 0.16032897 0
4.0550003 0.15838049 0.16006202 0
4.0620003 0.15216638 0.15959483 0
4.2930002 0.010177802 0.14417768 0
4.2850003 0.0030545667 0.14471158 0
4.2800002 -0.0040073469 0.14504531 0
4.2780004 -0.011024158 0.14517879 0
4.2780004 -0.018019326 0.14517879 0
4.2790003 -0.025009083 0.14511204 0
4.2820001 -0.031995233 0.14491183 0
4.289 -0.038984992 0.14444464 0
4.3720002 0.56300169 0.13174042 0
4.3640003 0.55462486 0.13228878 0
4.3590002 0.54672599 0.13263151 0
4.3559999 0.53914094 0.13283715 0
4.355 0.53185898 0.13290566 0
4.3540001 0.5245806 0.13297421 0
4.3540001 0.51744837 0.13297421 0
4.3559999 0.51059747 0.13283715 0
4.3580003 0.50373942 0.13270006 0
4.362 0.49714828 0.13242587 0
4.3670001 0.49067807 0.13208315 0
4.3740001 0.48445672 0.13160333 0
4.3840003 0.47860515 0.13091788 0
4.2610002 0.43455076 0.13934886 0
4.2490001 0.42611435 0.14017141 0
4.244 0.41856718 0.14051414 0
4.2420001 0.41139528 0.14065123 0
4.2420001 0.40446502 0.14065123 0
4.243 0.39765024 0.14058268 0
4.2460003 0.39105913 0.14037704 0
4.2509999 0.38468087 0.14003435 0
4.2610002 0.37883472 0.13934886 0
4.5580001 0.39651382 0.11899111 0
4.5520005 0.38838589 0.11940235 0
4.5480003 0.38048521 0.11967653 0
4.5460005 0.37280101 0.11981362 0
4.5450001 0.36522317 0.1198822 0
4.5450001 0.35774636 0.1198822 0
4.5470004 0.35046083 0.11974508 0
4.5490003 0.34316802 0.11960801 0
4.5530005 0.33605203 0.1193338 0
4.5590005 0.32910192 0.11892253 0
4.5670004 0.32230699 0.1183742 0
4.0690002 0.20549056 0.15250945 0
4.0570002 0.19807148 0.153332 0
4.052 0.19115026 0.15367472 0
4.0490003 0.18437336 0.15388036 0
4.0490003 0.17779127 0.15388036 0
4.0490003 0.17120917 0.15388036 0
4.0510001 0.16474253 0.15374327 0
4.0550003 0.15838049 0.15346909 0
4.0620003 0.15216638 0.15298927 0
4.2930002 0.010177802 0.13715544 0
4.2850003 0.0030545667 0.13770381 0
4.2800002 -0.0040073469 0.13804653 0
4.2780004 -0.011024158 0.13818359 0
4.2780004 -0.018019326 0.13818359 0
4.2790003 -0.025009083 0.13811508 0
4.2820001 -0.031995233 0.13790944 0
4.289 -0.038984992 0.13742962 0
4.3720002 0.56300169 0.1245757 0
4.3640003 0.55462486 0.12513846 0
4.3590002 0.54672599 0.12549022 0
4.3559999 0.53914094 0.12570128 0
4.355 0.53185898 0.12577161 0
4.3540001 0.5245806 0.12584195 0
4.3540001 0.51744837 0.12584195 0
4.3559999 0.51059747 0.12570128 0
4.3580003 0.50373942 0.12556058 0
4.362 0.49714828 0.12527919 0
4.3670001 0.49067807 0.12492743 0
4.3740001 0.48445672 0.12443498 0
4.3840003 0.47860515 0.12373149 0
4.2610002 0.43455076 0.13238436 0
4.2490001 0.42611435 0.13322857 0
4.244 0.41856718 0.1335803 0
4.2420001 0.41139528 0.13372099 0
4.2420001 0.40446502 0.13372099 0
4.243 0.39765024 0.13365063 0
4.2460003 0.39105913 0.1334396 0
4.2509999 0.38468087 0.13308787 0
4.2610002 0.37883472 0.13238436 0
4.5580001 0.39651382 0.11149088 0
4.5520005 0.38838589 0.11191297 0
4.5480003 0.38048521 0.11219436 0
4.5460005 0.37280101 0.11233503 0
4.5450001 0.36522317 0.11240542 0
4.5450001 0.35774636 0.11240542 0
4.5470004 0.35046083 0.11226469 0
4.5490003 0.34316802 0.112124 0
4.5530005 0.33605203 0.1118426 0
4.5590005 0.32910192 0.11142048 0
4.5670004 0.32230699 0.11085773 0
4.0690002 0.20549056 0.14589131 0
4.0570002 0.19807148 0.14673549 0
4.052 0.19115026 0.14708722 0
4.0490003 0.18437336 0.14729828 0
4.0490003 0.17779127 0.14729828 0
4.0490003 0.17120917 0.14729828 0
4.0510001 0.16474253 0.14715755 0
4.0550003 0.15838049 0.14687616 0
4.0620003 0.15216638 0.14638373 0
4.2930002 0.010177802 0.13013321 0
4.2850003 0.0030545667 0.130696 0
4.2800002 -0.0040073469 0.13104776 0
4.2780004 -0.011024158 0.13118845 0
4.2780004 -0.018019326 0.13118845 0
4.2790003 -0.025009083 0.13111809 0
4.2820001 -0.031995233 0.13090706 0
4.289 -0.038984992 0.13041461 0
4.3720002 0.56300169 0.11741096 0
4.3640003 0.55462486 0.11798817 0
4.3590002 0.54672599 0.11834896 0
4.3559999 0.53914094 0.11856541 0
4.355 0.53185898 0.11863753 0
4.3540001 0.5245806 0.11870971 0
4.3540001 0.51744837 0.11870971 0
4.3559999 0.51059747 0.11856541 0
4.3580003 0.50373942 0.11842111 0
4.362 0.49714828 0.11813247 0
4.3670001 0.49067807 0.11777171 0
4.3740001 0.48445672 0.11726665 0
4.3840003 0.47860515 0.11654511 0
4.2610002 0.43455076 0.12541986 0
4.2490001 0.42611435 0.1262857 0
4.244 0.41856718 0.12664646 0
4.2420001 0.41139528 0.12679076 0
4.2420001 0.40446502 0.12679076 0
4.243 0.39765024 0.12671861 0
4.2460003 0.39105913 0.12650216 0
4.2509999 0.38468087 0.1261414 0
4.2610002 0.37883472 0.12541986 0
4.5580001 0.39651382 0.10399064 0
4.5520005 0.38838589 0.10442352 0
4.5480003 0.38048521 0.10471213 0
4.5460005 0.37280101 0.10485646 0
4.5450001 0.36522317 0.10492861 0
4.5450001 0.35774636 0.10492861 0
4.5470004 0.35046083 0.10478431 0
4.5490003 0.34316802 0.10464001 0
4.5530005 0.33605203 0.10435137 0
4.5590005 0.32910192 0.10391846 0
4.5670004 0.32230699 0.10334125 0
4.0690002 0.20549056 0.13927311 0
4.0570002 0.19807148 0.14013895 0
4.052 0.19115026 0.14049971 0
4.0490003 0.18437336 0.14071617 0
4.0490003 0.17779127 0.14071617 0
4.0490003 0.17120917 0.14071617 0
4.0510001 0.16474253 0.14057186 0
4.0550003 0.15838049 0.14028323 0
4.0620003 0.15216638 0.13977817 0
4.2930002 0.010177802 0.12311101 0
4.2850003 0.0030545667 0.12368822 0
4.2800002 -0.0040073469 0.12404898 0
4.2780004 -0.011024158 0.12419328 0
4.2780004 -0.018019326 0.12419328 0
4.2790003 -0.025009083 0.12412113 0
4.2820001 -0.031995233 0.12390465 0
4.289 -0.038984992 0.12339959 0
4.3720002 0.56300169 0.11024624 0
4.3640003 0.55462486 0.11083791 0
4.3590002 0.54672599 0.11120769 0
4.3559999 0.53914094 0.11142954 0
4.355 0.53185898 0.11150348 0
4.3540001 0.5245806 0.11157742 0
4.3540001 0.51744837 0.11157742 0
4.3559999 0.51059747 0.11142954 0
4.3580003 0.50373942 0.1112816 0
4.362 0.49714828 0.11098582 0
4.3670001 0.49067807 0.11061603 0
4.3740001 0.48445672 0.11009833 0
4.3840003 0.47860515 0.10935876 0
4.2610002 0.43455076 0.11845535 0
4.2490001 0.42611435 0.11934283 0
4.244 0.41856718 0.11971262 0
4.2420001 0.41139528 0.11986053 0
4.2420001 0.40446502 0.11986053 0
4.243 0.39765024 0.11978659 0
4.2460003 0.39105913 0.11956471 0
4.2509999 0.38468087 0.11919492 0
4.2610002 0.37883472 0.11845535 0
4.5580001 0.39651382 0.096490413 0
4.5520005 0.38838589 0.09693411 0
4.5480003 0.38048521 0.097229958 0
4.5460005 0.37280101 0.097377837 0
4.5450001 0.36522317 0.097451866 0
4.5450001 0.35774636 0.097451866 0
4.5470004 0.35046083 0.097303897 0
4.5490003 0.34316802 0.097155988 0
4.5530005 0.33605203 0.09686017 0
4.5590005 0.32910192 0.096416444 0
4.5670004 0.32230699 0.095824778 0
4.5790005 0.31582949 0.094937295 0
4.0690002 0.20549056 0.13265496 0
4.0570002 0.19807148 0.13354245 0
4.052 0.19115026 0.13391221 0
4.0490003 0.18437336 0.13413405 0
4.0490003 0.17779127 0.13413405 0
4.0490003 0.17120917 0.13413405 0
4.0510001 0.16474253 0.13398615 0
4.0550003 0.15838049 0.13369033 0
4.0620003 0.15216638 0.13317263 0
4.2930002 0.010177802 0.11608878 0
4.2850003 0.0030545667 0.11668041 0
4.2800002 -0.0040073469 0.1170502 0
4.2780004 -0.011024158 0.11719811 0
4.2780004 -0.018019326 0.11719811 0
4.2790003 -0.025009083 0.11712417 0
4.2820001 -0.031995233 0.11690229 0
4.289 -0.038984992 0.1163846 0
4.3720002 0.56300169 0.10308152 0
4.3640003 0.55462486 0.10368758 0
4.3590002 0.54672599 0.1040664 0
4.3559999 0.53914094 0.10429367 0
4.355 0.53185898 0.10436943 0
4.3540001 0.5245806 0.10444519 0
4.3540001 0.51744837 0.10444519 0
4.3559999 0.51059747 0.10429367 0
4.3580003 0.50373942 0.10414216 0
4.362 0.49714828 0.1038391 0
4.3670001 0.49067807 0.10346031 0
4.3740001 0.48445672 0.10293001 0
4.3840003 0.47860515 0.1021724 0
4.2610002 0.43455076 0.11149085 0
4.2490001 0.42611435 0.1124 0
4.244 0.41856718 0.11277881 0
4.2420001 0.41139528 0.1129303 0
4.2420001 0.40446502 0.1129303 0
4.243 0.39765024 0.11285454 0
4.2460003 0.39105913 0.11262727 0
4.2509999 0.38468087 0.11224848 0
4.2610002 0.37883472 0.11149085 0
4.5580001 0.39651382 0.088990182 0
4.5520005 0.38838589 0.089444697 0
4.5480003 0.38048521 0.089747757 0
4.5460005 0.37280101 0.089899272 0
4.5450001 0.36522317 0.089975059 0
4.5450001 0.35774636 0.089975059 0
4.5470004 0.35046083 0.089823514 0
4.5490003 0.34316802 0.089671999 0
4.5530005 0.33605203 0.089368969 0
4.5590005 0.32910192 0.088914394 0
4.5670004 0.32230699 0.088308334 0
4.5790005 0.31582949 0.087399185 0
4.0690002 0.20549056 0.12603676 0
4.0570002 0.19807148 0.12694588 0
4.052 0.19115026 0.1273247 0
4.0490003 0.18437336 0.12755197 0
4.0490003 0.17779127 0.12755197 0
4.0490003 0.17120917 0.12755197 0
4.0510001 0.16474253 0.12740046 0
4.0550003 0.15838049 0.1270974 0
4.0620003 0.15216638 0.1265671 0
4.2930002 0.010177802 0.10906655 0
4.2850003 0.0030545667 0.10967261 0
4.2800002 -0.0040073469 0.11005142 0
4.2780004 -0.011024158 0.11020294 0
4.2780004 -0.018019326 0.11020294 0
4.2790003 -0.025009083 0.11012718 0
4.2820001 -0.031995233 0.10989991 0
4.289 -0.038984992 0.10936958 0
4.3720002 0.56300169 0.095916778 0
4.3640003 0.55462486 0.096537292 0
4.3590002 0.54672599 0.096925139 0
4.3559999 0.53914094 0.097157806 0
4.355 0.53185898 0.097235382 0
4.3540001 0.5245806 0.097312927 0
4.3540001 0.51744837 0.097312927 0
4.3559999 0.51059747 0.097157806 0
4.3580003 0.50373942 0.097002685 0
4.362 0.49714828 0.096692413 0
4.3670001 0.49067807 0.096304595 0
4.3740001 0.48445672 0.095761657 0
4.3840003 0.47860515 0.094986022 0
4.2610002 0.43455076 0.10452634 0
4.2490001 0.42611435 0.10545713 0
4.244 0.41856718 0.10584494 0
4.2420001 0.41139528 0.10600007 0
4.2420001 0.40446502 0.10600007 0
4.243 0.39765024 0.10592252 0
4.2460003 0.39105913 0.10568982 0
4.2509999 0.38468087 0.10530201 0
4.2610002 0.37883472 0.10452634 0
4.5580001 0.39651382 0.081489921 0
4.5520005 0.38838589 0.081955314 0
4.5480003 0.38048521 0.082265556 0
4.5460005 0.37280101 0.082420677 0
4.5450001 0.36522317 0.082498282 0
4.5450001 0.35774636 0.082498282 0
4.5470004 0.35046083 0.082343102 0
4.5490003 0.34316802 0.08218798 0
4.5530005 0.33605203 0.081877738 0
4.5590005 0.32910192 0.081412345 0
4.5670004 0.32230699 0.080791831 0
4.5790005 0.31582949 0.079861075 0
4.0690002 0.20549056 0.11941859 0
4.0570002 0.19807148 0.12034938 0
4.052 0.19115026 0.12073717 0
4.0490003 0.18437336 0.12096986 0
4.0490003 0.17779127 0.12096986 0
4.0490003 0.17120917 0.12096986 0
4.0510001 0.16474253 0.12081474 0
4.0550003 0.15838049 0.1205045 0
4.0620003 0.15216638 0.11996156 0
4.2930002 0.010177802 0.10204434 0
4.2850003 0.0030545667 0.10266483 0
4.2800002 -0.0040073469 0.10305265 0
4.2780004 -0.011024158 0.10320777 0
4.2780004 -0.018019326 0.10320777 0
4.2790003 -0.025009083 0.10313019 0
4.2820001 -0.031995233 0.10289752 0
4.289 -0.038984992 0.10235459 0
4.3720002 0.56300169 0.088752061 0
4.3640003 0.55462486 0.08938697 0
4.3590002 0.54672599 0.089783847 0
4.3559999 0.53914094 0.090021938 0
4.355 0.53185898 0.090101302 0
4.3540001 0.5245806 0.090180665 0
4.3540001 0.51744837 0.090180665 0
4.3559999 0.51059747 0.090021938 0
4.3580003 0.50373942 0.089863211 0
4.362 0.49714828 0.089545757 0
4.3670001 0.49067807 0.089148909 0
4.3740001 0.48445672 0.088593334 0
4.3840003 0.47860515 0.087799639 0
4.2610002 0.43455076 0.097561836 0
4.2490001 0.42611435 0.098514289 0
4.244 0.41856718 0.098911107 0
4.2420001 0.41139528 0.099069834 0
4.2420001 0.40446502 0.099069834 0
4.243 0.39765024 0.09899047 0
4.2460003 0.39105913 0.09875235 0
4.2509999 0.38468087 0.098355532 0
4.2610002 0.37883472 0.097561836 0
4.5580001 0.39651382 0.073989719 0
4.5520005 0.38838589 0.074465871 0
4.5480003 0.38048521 0.074783355 0
4.5460005 0.37280101 0.074942082 0
4.5450001 0.36522317 0.075021476 0
4.5450001 0.35774636 0.075021476 0
4.5470004 0.35046083 0.074862719 0
4.5490003 0.34316802 0.074704021 0
4.5530005 0.33605203 0.074386537 0
4.5590005 0.32910192 0.073910296 0
4.5670004 0.32230699 0.073275387 0
4.5740004 0.31539661 0.072719812 0
4.5820003 0.30854571 0.072084874 0
4.0690002 0.20549056 0.11280042 0
4.0570002 0.19807148 0.11375284 0
4.052 0.19115026 0.11414969 0
4.0490003 0.18437336 0.11438778 0
4.0490003 0.17779127 0.11438778 0
4.0490003 0.17120917 0.11438778 0
4.0510001 0.16474253 0.11422902 0
4.0550003 0.15838049 0.11391157 0
4.0620003 0.15216638 0.11335599 0
4.2930002 0.010177802 0.095022082 0
4.2850003 0.0030545667 0.095657051 0
4.2800002 -0.0040073469 0.096053898 0
4.2780004 -0.011024158 0.096212596 0
4.2780004 -0.018019326 0.096212596 0
4.2790003 -0.025009083 0.096133232 0
4.2820001 -0.031995233 0.095895141 0
4.289 -0.038984992 0.095339566 0
4.3720002 0.56300169 0.081587344 0
4.3640003 0.55462486 0.082236707 0
4.3590002 0.54672599 0.082642585 0
4.3559999 0.53914094 0.08288607 0
4.355 0.53185898 0.082967252 0
4.3540001 0.5245806 0.083048403 0
4.3540001 0.51744837 0.083048403 0
4.3559999 0.51059747 0.08288607 0
4.3580003 0.50373942 0.082723707 0
4.362 0.49714828 0.08239904 0
4.3670001 0.49067807 0.081993163 0
4.3740001 0.48445672 0.081424981 0
4.3840003 0.47860515 0.080613256 0
4.2610002 0.43455076 0.090597361 0
4.2490001 0.42611435 0.091571391 0
4.244 0.41856718 0.091977268 0
4.2420001 0.41139528 0.092139602 0
4.2420001 0.40446502 0.092139602 0
4.243 0.39765024 0.09205842 0
4.2460003 0.39105913 0.091814935 0
4.2509999 0.38468087 0.091409087 0
4.2610002 0.37883472 0.090597361 0
4.5570002 0.3964074 0.06657064 0
4.5500002 0.38817665 0.067138851 0
4.5440001 0.38007393 0.06762588 0
4.5370002 0.37189183 0.068194062 0
4.5300002 0.36373502 0.068762273 0
4.5260005 0.3558957 0.069086939 0
4.5340004 0.34921801 0.068437546 0
4.5420003 0.34251142 0.067788184 0
4.5500002 0.335776 0.067138851 0
4.5580001 0.32901171 0.066489458 0
4.5660005 0.3222186 0.065840065 0
4.5740004 0.31539661 0.065190703 0
4.5820003 0.30854571 0.06454134 0
4.0690002 0.20549056 0.10618225 0
4.0570002 0.19807148 0.10715634 0
4.052 0.19115026 0.10756215 0
4.0490003 0.18437336 0.1078057 0
4.0490003 0.17779127 0.1078057 0
4.0490003 0.17120917 0.1078057 0
4.0510001 0.16474253 0.10764334 0
4.0550003 0.15838049 0.10731867 0
4.0620003 0.15216638 0.10675046 0
4.2930002 0.010177802 0.087999851 0
4.2850003 0.0030545667 0.088649243 0
4.2800002 -0.0040073469 0.089055091 0
4.2780004 -0.011024158 0.089217424 0
4.2780004 -0.018019326 0.089217424 0
4.2790003 -0.025009083 0.089136273 0
4.2820001 -0.031995233 0.088892758 0
4.289 -0.038984992 0.088324547 0
4.3720002 0.56300169 0.074422598 0
4.3640003 0.55462486 0.075086415 0
4.3590002 0.54672599 0.075501293 0
4.3559999 0.53914094 0.075750232 0
4.355 0.53185898 0.075833172 0
4.3540001 0.5245806 0.075916141 0
4.3540001 0.51744837 0.075916141 0
4.3559999 0.51059747 0.075750232 0
4.3580003 0.50373942 0.075584263 0
4.362 0.49714828 0.075252384 0
4.3670001 0.49067807 0.074837476 0
4.3740001 0.48445672 0.074256629 0
4.3840003 0.47860515 0.073426902 0
4.3940001 0.47271752 0.072597146 0
4.2610002 0.43455076 0.083632827 0
4.2490001 0.42611435 0.084628552 0
4.244 0.41856718 0.08504343 0
4.2420001 0.41139528 0.08520937 0
4.2420001 0.40446502 0.08520937 0
4.243 0.39765024 0.0851264 0
4.2460003 0.39105913 0.084877461 0
4.2509999 0.38468087 0.084462613 0
4.2610002 0.37883472 0.083632827 0
4.5570002 0.3964074 0.059072226 0
4.5500002 0.38817665 0.059653014 0
4.5440001 0.38007393 0.060150862 0
4.5370002 0.37189183 0.060731709 0
4.5300002 0.36373502 0.061312526 0
4.5260005 0.3558957 0.061644405 0
4.5340004 0.34921801 0.060980618 0
4.5420003 0.34251142 0.060316831 0
4.5500002 0.335776 0.059653014 0
4.5580001 0.32901171 0.058989227 0
4.5660005 0.3222186 0.05832541 0
4.5740004 0.31539661 0.057661623 0
4.5820003 0.30854571 0.056997806 0
4.0690002 0.20549056 0.099564105 0
4.0570002 0.19807148 0.1005598 0
4.052 0.19115026 0.10097468 0
4.0490003 0.18437336 0.10122359 0
4.0490003 0.17779127 0.10122359 0
4.0490003 0.17120917 0.10122359 0
4.0510001 0.16474253 0.10105762 0
4.0550003 0.15838049 0.10072574 0
4.0620003 0.15216638 0.10014489 0
4.2930002 0.010177802 0.080977648 0
4.2850003 0.0030545667 0.081641436 0
4.2800002 -0.0040073469 0.082056314 0
4.2780004 -0.011024158 0.082222253 0
4.2780004 -0.018019326 0.082222253 0
4.2790003 -0.025009083 0.082139313 0
4.2820001 -0.031995233 0.081890374 0
4.289 -0.038984992 0.081309527 0
4.4060001 0.60434502 0.064375401 0
4.3990002 0.59599519 0.064968854 0
4.3920002 0.58767062 0.065562308 0
4.3850002 0.57937127 0.066155732 0
4.3780003 0.5710972 0.066749215 0
4.3710003 0.56284839 0.067342669 0
4.3640003 0.55462486 0.067936093 0
4.3570004 0.54642653 0.068529546 0
4.3500004 0.53825349 0.06912303 0
4.3429999 0.53010565 0.069716483 0
4.336 0.52198309 0.070309937 0
4.3370004 0.51502585 0.07022512 0
4.3440003 0.50890917 0.069631696 0
4.3520002 0.50290608 0.068953454 0
4.3590002 0.496737 0.068360031 0
4.3660002 0.49054277 0.067766547 0
4.3740001 0.48445672 0.067088306 0
4.381 0.47821009 0.066494852 0
4.388 0.47193831 0.065901428 0
4.2610002 0.43455076 0.076668352 0
4.2490001 0.42611435 0.077685684 0
4.244 0.41856718 0.078109592 0
4.2420001 0.41139528 0.078279138 0
4.2420001 0.40446502 0.078279138 0
4.243 0.39765024 0.07819438 0
4.2460003 0.39105913 0.077940017 0
4.2509999 0.38468087 0.077516139 0
4.2610002 0.37883472 0.076668352 0
4.5570002 0.3964074 0.051573783 0
4.5500002 0.38817665 0.052167237 0
4.5440001 0.38007393 0.052675903 0
4.5370002 0.37189183 0.053269356 0
4.5300002 0.36373502 0.05386281 0
4.5260005 0.3558957 0.054201901 0
4.5340004 0.34921801 0.05352366 0
4.5420003 0.34251142 0.052845448 0
4.5500002 0.335776 0.052167237 0
4.5580001 0.32901171 0.051489025 0
4.5660005 0.3222186 0.050810754 0
4.5740004 0.31539661 0.050132513 0
4.0690002 0.20549056 0.092945904 0
4.0570002 0.19807148 0.093963265 0
4.052 0.19115026 0.094387144 0
4.0490003 0.18437336 0.094641507 0
4.0490003 0.17779127 0.094641507 0
4.0490003 0.17120917 0.094641507 0
4.0510001 0.16474253 0.094471931 0
4.0550003 0.15838049 0.094132811 0
4.0620003 0.15216638 0.093539357 0
4.2930002 0.010177802 0.073955417 0
4.2850003 0.0030545667 0.074633628 0
4.2800002 -0.0040073469 0.075057566 0
4.2780004 -0.011024158 0.075227112 0
4.2780004 -0.018019326 0.075227112 0
4.2790003 -0.025009083 0.075142324 0
4.2820001 -0.031995233 0.074887991 0
4.289 -0.038984992 0.074294537 0
4.4340005 0.63799691 0.054724991 0
4.4270005 0.62954605 0.055331081 0
4.4200001 0.62112039 0.055937201 0
4.4130001 0.61272007 0.056543291 0
4.4060001 0.60434502 0.057149351 0
4.3990002 0.59599519 0.05775544 0
4.3920002 0.58767062 0.05836153 0
4.3850002 0.57937127 0.05896759 0
4.3780003 0.5710972 0.05957368 0
4.3710003 0.56284839 0.06017974 0
4.3640003 0.55462486 0.06078583 0
4.3570004 0.54642653 0.06139189 0
4.3500004 0.53825349 0.06199798 0
4.3429999 0.53010565 0.06260407 0
4.336 0.52198309 0.06321013 0
4.3370004 0.51502585 0.063123554 0
4.3440003 0.50890917 0.062517464 0
4.3520002 0.50290608 0.061824799 0
4.3590002 0.496737 0.061218709 0
4.3660002 0.49054277 0.060612649 0
4.3740001 0.48445672 0.059919983 0
4.381 0.47821009 0.059313893 0
4.388 0.47193831 0.058707833 0
4.3960004 0.46576929 0.058015168 0
4.2610002 0.43455076 0.069703817 0
4.2490001 0.42611435 0.070742816 0
4.244 0.41856718 0.071175754 0
4.2420001 0.41139528 0.071348906 0
4.2420001 0.40446502 0.071348906 0
4.243 0.39765024 0.07126233 0
4.2460003 0.39105913 0.071002603 0
4.2509999 0.38468087 0.070569664 0
