# .PCD v0.7 - Point Cloud Data file format
VERSION 0.7
FIELDS x y z intensity
SIZE 4 4 4 4
TYPE F F F F
COUNT 1 1 1 1
WIDTH 1427
HEIGHT 1
VIEWPOINT 0 0 0 1 0 0 0
POINTS 1427
DATA ascii
4.7260003 -1.1618682 1.3481963 0
4.7160001 -1.1670741 1.3460137 0
4.7050004 -1.1719822 1.3436128 0
4.6940002 -1.1768507 1.3412119 0
4.6830001 -1.1816795 1.3388109 0
4.6730003 -1.1867356 1.3366284 0
4.6620002 -1.1914867 1.3342276 0
4.8850002 -1.0896202 1.318179 0
4.8970003 -1.0843009 1.3125134 0
4.8850002 -1.0896202 1.310089 0
4.8750005 -1.1034375 1.3080688 0
4.8970003 -1.0843009 1.3044015 0
4.8850002 -1.0896202 1.3019989 0
4.8860002 -1.0979449 1.3021991 0
4.8900003 -1.1069819 1.303 0
4.8940005 -1.1160336 1.3038009 0
4.9080005 -1.0787091 1.2984724 0
4.8970003 -1.0843009 1.2962898 0
4.8850002 -1.0896202 1.2939087 0
4.8860002 -1.0979449 1.2941072 0
4.8900003 -1.1069819 1.2949009 0
4.8940005 -1.1160336 1.2956946 0
4.8980002 -1.1250994 1.2964883 0
4.9080005 -1.0787091 1.2903409 0
4.8970003 -1.0843009 1.2881781 0
4.8850002 -1.0896202 1.2858187 0
4.8860002 -1.0979449 1.2860153 0
4.8900003 -1.1069819 1.2868018 0
4.8940005 -1.1160336 1.2875882 0
4.8980002 -1.1250994 1.2883747 0
4.9030004 -1.1344215 1.2893578 0
4.9080005 -1.0787091 1.2822094 0
4.8970003 -1.0843009 1.2800664 0
4.8850002 -1.0896202 1.2777286 0
4.8860002 -1.0979449 1.2779235 0
4.8900003 -1.1069819 1.2787027 0
4.8940005 -1.1160336 1.279482 0
4.8980002 -1.1250994 1.2802612 0
4.9030004 -1.1344215 1.2812352 0
4.9070005 -1.1435182 1.2820145 0
4.9110003 -1.1526291 1.2827938 0
4.9150004 -1.1617546 1.283573 0
4.9190001 -1.1708945 1.2843522 0
4.9230003 -1.1800488 1.2851315 0
4.9280005 -1.1894702 1.2861056 0
4.9080005 -1.0787091 1.2740778 0
4.8970003 -1.0843009 1.2719547 0
4.8850002 -1.0896202 1.2696385 0
4.8860002 -1.0979449 1.2698315 0
4.8900003 -1.1069819 1.2706037 0
4.8940005 -1.1160336 1.2713757 0
4.8980002 -1.1250994 1.2721477 0
4.9030004 -1.1344215 1.2731127 0
4.9070005 -1.1435182 1.2738848 0
4.9110003 -1.1526291 1.2746568 0
4.9150004 -1.1617546 1.2754288 0
4.9190001 -1.1708945 1.2762008 0
4.9230003 -1.1800488 1.2769729 0
4.9280005 -1.1894702 1.2779379 0
4.9320002 -1.1986551 1.2787099 0
4.9080005 -1.0787091 1.2659463 0
4.8970003 -1.0843009 1.2638429 0
4.8850002 -1.0896202 1.2615484 0
4.8860002 -1.0979449 1.2617396 0
4.8900003 -1.1069819 1.2625046 0
4.8940005 -1.1160336 1.2632693 0
4.8980002 -1.1250994 1.2640342 0
4.9030004 -1.1344215 1.2649902 0
4.9070005 -1.1435182 1.2657549 0
4.9110003 -1.1526291 1.2665198 0
4.9150004 -1.1617546 1.2672846 0
4.9190001 -1.1708945 1.2680494 0
4.9230003 -1.1800488 1.2688142 0
4.9280005 -1.1894702 1.2697703 0
4.9320002 -1.1986551 1.270535 0
4.9080005 -1.0787091 1.2578146 0
4.8970003 -1.0843009 1.2557312 0
4.8850002 -1.0896202 1.2534584 0
4.8860002 -1.0979449 1.2536478 0
4.8900003 -1.1069819 1.2544054 0
4.8940005 -1.1160336 1.2551631 0
4.8980002 -1.1250994 1.2559205 0
4.9030004 -1.1344215 1.2568676 0
4.9070005 -1.1435182 1.2576252 0
4.9110003 -1.1526291 1.2583828 0
4.9150004 -1.1617546 1.2591405 0
4.9190001 -1.1708945 1.2598979 0
4.9230003 -1.1800488 1.2606556 0
4.9280005 -1.1894702 1.2616026 0
4.9320002 -1.1986551 1.2623602 0
4.9080005 -1.0787091 1.249683 0
4.8970003 -1.0843009 1.2476195 0
4.8850002 -1.0896202 1.2453682 0
4.8860002 -1.0979449 1.2455559 0
4.8900003 -1.1069819 1.2463063 0
4.8940005 -1.1160336 1.2470567 0
4.8980002 -1.1250994 1.247807 0
4.9030004 -1.1344215 1.2487451 0
4.9070005 -1.1435182 1.2494955 0
4.9110003 -1.1526291 1.2502458 0
4.9150004 -1.1617546 1.2509962 0
4.9190001 -1.1708945 1.2517465 0
4.9230003 -1.1800488 1.252497 0
4.9280005 -1.1894702 1.253435 0
4.9320002 -1.1986551 1.2541853 0
4.9080005 -1.0787091 1.2415515 0
4.8970003 -1.0843009 1.2395077 0
4.8850002 -1.0896202 1.2372782 0
4.8860002 -1.0979449 1.2374641 0
4.8900003 -1.1069819 1.2382072 0
4.8940005 -1.1160336 1.2389504 0
4.8980002 -1.1250994 1.2396935 0
4.9030004 -1.1344215 1.2406225 0
4.9070005 -1.1435182 1.2413657 0
4.9110003 -1.1526291 1.2421088 0
4.9150004 -1.1617546 1.2428521 0
4.9190001 -1.1708945 1.2435951 0
4.9230003 -1.1800488 1.2443384 0
4.9280005 -1.1894702 1.2452674 0
4.9320002 -1.1986551 1.2460104 0
4.9080005 -1.0787091 1.2334199 0
4.8970003 -1.0843009 1.2313961 0
4.8850002 -1.0896202 1.2291881 0
4.8860002 -1.0979449 1.2293721 0
4.8900003 -1.1069819 1.2301081 0
4.8940005 -1.1160336 1.230844 0
4.8980002 -1.1250994 1.23158 0
4.9030004 -1.1344215 1.2325 0
4.9070005 -1.1435182 1.233236 0
4.9110003 -1.1526291 1.2339718 0
4.9150004 -1.1617546 1.2347078 0
4.9190001 -1.1708945 1.2354437 0
4.9230003 -1.1800488 1.2361797 0
4.9280005 -1.1894702 1.2370998 0
4.9320002 -1.1986551 1.2378356 0
4.9080005 -1.0787091 1.2252884 0
4.8970003 -1.0843009 1.2232842 0
4.8850002 -1.0896202 1.2210981 0
4.8860002 -1.0979449 1.2212802 0
4.8900003 -1.1069819 1.2220091 0
4.8940005 -1.1160336 1.2227378 0
4.8980002 -1.1250994 1.2234664 0
4.9030004 -1.1344215 1.2243774 0
4.9070005 -1.1435182 1.2251061 0
4.9110003 -1.1526291 1.2258348 0
4.9150004 -1.1617546 1.2265637 0
4.9190001 -1.1708945 1.2272923 0
4.9230003 -1.1800488 1.2280211 0
4.9280005 -1.1894702 1.228932 0
4.9320002 -1.1986551 1.2296607 0
4.9080005 -1.0787091 1.2171568 0
4.8970003 -1.0843009 1.2151725 0
4.8850002 -1.0896202 1.2130079 0
4.8860002 -1.0979449 1.2131884 0
4.8900003 -1.1069819 1.21391 0
4.8940005 -1.1160336 1.2146314 0
4.8980002 -1.1250994 1.2153529 0
4.9030004 -1.1344215 1.2162548 0
4.9070005 -1.1435182 1.2169764 0
4.9110003 -1.1526291 1.2176979 0
4.9150004 -1.1617546 1.2184194 0
4.9190001 -1.1708945 1.2191409 0
4.9230003 -1.1800488 1.2198625 0
4.9280005 -1.1894702 1.2207644 0
4.9320002 -1.1986551 1.2214859 0
4.9080005 -1.0787091 1.2090251 0
4.8970003 -1.0843009 1.2070608 0
4.8850002 -1.0896202 1.2049179 0
4.8860002 -1.0979449 1.2050965 0
4.8900003 -1.1069819 1.2058108 0
4.8940005 -1.1160336 1.2065252 0
4.8980002 -1.1250994 1.2072394 0
4.9030004 -1.1344215 1.2081323 0
4.9070005 -1.1435182 1.2088467 0
4.9110003 -1.1526291 1.2095609 0
4.9150004 -1.1617546 1.2102753 0
4.9190001 -1.1708945 1.2109895 0
4.9230003 -1.1800488 1.2117039 0
4.9280005 -1.1894702 1.2125968 0
4.9320002 -1.1986551 1.213311 0
4.9080005 -1.0787091 1.2008936 0
4.8970003 -1.0843009 1.1989491 0
4.8850002 -1.0896202 1.1968278 0
4.8860002 -1.0979449 1.1970046 0
4.8900003 -1.1069819 1.1977117 0
4.8940005 -1.1160336 1.1984189 0
4.8980002 -1.1250994 1.1991259 0
4.9030004 -1.1344215 1.2000098 0
4.9070005 -1.1435182 1.2007169 0
4.9110003 -1.1526291 1.2014239 0
4.9150004 -1.1617546 1.202131 0
4.9190001 -1.1708945 1.2028381 0
4.9230003 -1.1800488 1.2035452 0
4.9280005 -1.1894702 1.2044291 0
4.9320002 -1.1986551 1.2051362 0
4.9080005 -1.0787091 1.1927621 0
4.8970003 -1.0843009 1.1908374 0
4.8850002 -1.0896202 1.1887378 0
4.8860002 -1.0979449 1.1889127 0
4.8900003 -1.1069819 1.1896126 0
4.8940005 -1.1160336 1.1903125 0
4.8980002 -1.1250994 1.1910124 0
4.9030004 -1.1344215 1.1918873 0
4.9070005 -1.1435182 1.1925871 0
4.9110003 -1.1526291 1.193287 0
4.9150004 -1.1617546 1.1939869 0
4.9190001 -1.1708945 1.1946868 0
4.9230003 -1.1800488 1.1953866 0
4.9280005 -1.1894702 1.1962615 0
4.9320002 -1.1986551 1.1969613 0
4.9080005 -1.0787091 1.1846305 0
4.8970003 -1.0843009 1.1827257 0
4.8850002 -1.0896202 1.1806476 0
4.8860002 -1.0979449 1.1808208 0
4.8900003 -1.1069819 1.1815135 0
4.8940005 -1.1160336 1.1822063 0
4.8980002 -1.1250994 1.1828989 0
4.9030004 -1.1344215 1.1837647 0
4.9070005 -1.1435182 1.1844574 0
4.9110003 -1.1526291 1.18515 0
4.9150004 -1.1617546 1.1858426 0
4.9190001 -1.1708945 1.1865352 0
4.9230003 -1.1800488 1.187228 0
4.9280005 -1.1894702 1.1880939 0
4.9320002 -1.1986551 1.1887865 0
4.9080005 -1.0787091 1.176499 0
4.8970003 -1.0843009 1.174614 0
4.8850002 -1.0896202 1.1725576 0
4.8860002 -1.0979449 1.172729 0
4.8900003 -1.1069819 1.1734145 0
4.8940005 -1.1160336 1.1740999 0
4.8980002 -1.1250994 1.1747854 0
4.9030004 -1.1344215 1.1756421 0
4.9070005 -1.1435182 1.1763276 0
4.9110003 -1.1526291 1.177013 0
4.9150004 -1.1617546 1.1776985 0
4.9190001 -1.1708945 1.1783838 0
4.9230003 -1.1800488 1.1790694 0
4.9280005 -1.1894702 1.1799262 0
4.9320002 -1.1986551 1.1806116 0
4.9080005 -1.0787091 1.1683674 0
4.8970003 -1.0843009 1.1665022 0
4.8850002 -1.0896202 1.1644676 0
4.8860002 -1.0979449 1.1646371 0
4.8900003 -1.1069819 1.1653154 0
4.8940005 -1.1160336 1.1659936 0
4.8980002 -1.1250994 1.1666718 0
4.9030004 -1.1344215 1.1675196 0
4.9070005 -1.1435182 1.1681979 0
4.9110003 -1.1526291 1.1688761 0
4.9150004 -1.1617546 1.1695542 0
4.9190001 -1.1708945 1.1702325 0
4.9230003 -1.1800488 1.1709107 0
4.9280005 -1.1894702 1.1717585 0
4.9320002 -1.1986551 1.1724367 0
4.9080005 -1.0787091 1.1602359 0
4.8970003 -1.0843009 1.1583905 0
4.8850002 -1.0896202 1.1563774 0
4.8860002 -1.0979449 1.1565452 0
4.8900003 -1.1069819 1.1572162 0
4.8940005 -1.1160336 1.1578873 0
4.8980002 -1.1250994 1.1585582 0
4.9030004 -1.1344215 1.159397 0
4.9070005 -1.1435182 1.160068 0
4.9110003 -1.1526291 1.1607391 0
4.9150004 -1.1617546 1.1614101 0
4.9190001 -1.1708945 1.162081 0
4.9230003 -1.1800488 1.162752 0
4.9280005 -1.1894702 1.1635909 0
4.9320002 -1.1986551 1.1642619 0
4.9080005 -1.0787091 1.1521043 0
4.8970003 -1.0843009 1.1502788 0
4.8850002 -1.0896202 1.1482874 0
4.8860002 -1.0979449 1.1484532 0
4.8900003 -1.1069819 1.1491171 0
4.8940005 -1.1160336 1.149781 0
4.8980002 -1.1250994 1.1504447 0
4.9030004 -1.1344215 1.1512744 0
4.9070005 -1.1435182 1.1519383 0
4.9110003 -1.1526291 1.1526021 0
4.9150004 -1.1617546 1.153266 0
4.9190001 -1.1708945 1.1539297 0
4.9230003 -1.1800488 1.1545935 0
4.9280005 -1.1894702 1.1554233 0
4.9320002 -1.1986551 1.156087 0
4.9080005 -1.0787091 1.1439726 0
4.8970003 -1.0843009 1.1421671 0
4.8850002 -1.0896202 1.1401973 0
4.8860002 -1.0979449 1.1403614 0
4.8900003 -1.1069819 1.141018 0
4.8940005 -1.1160336 1.1416746 0
4.8980002 -1.1250994 1.1423312 0
4.9030004 -1.1344215 1.1431519 0
4.9070005 -1.1435182 1.1438086 0
4.9110003 -1.1526291 1.1444651 0
4.9150004 -1.1617546 1.1451217 0
4.9190001 -1.1708945 1.1457783 0
4.9230003 -1.1800488 1.1464349 0
4.9280005 -1.1894702 1.1472557 0
4.9320002 -1.1986551 1.1479121 0
4.9080005 -1.0787091 1.1358411 0
4.8970003 -1.0843009 1.1340553 0
4.8850002 -1.0896202 1.1321073 0
4.8860002 -1.0979449 1.1322695 0
4.8900003 -1.1069819 1.132919 0
4.8940005 -1.1160336 1.1335684 0
4.8980002 -1.1250994 1.1342176 0
4.9030004 -1.1344215 1.1350294 0
4.9070005 -1.1435182 1.1356788 0
4.9110003 -1.1526291 1.1363281 0
4.9150004 -1.1617546 1.1369776 0
4.9190001 -1.1708945 1.1376268 0
4.9230003 -1.1800488 1.1382762 0
4.9280005 -1.1894702 1.1390879 0
4.9320002 -1.1986551 1.1397372 0
4.9080005 -1.0787091 1.1277095 0
4.8970003 -1.0843009 1.1259437 0
4.8850002 -1.0896202 1.1240171 0
4.8860002 -1.0979449 1.1241776 0
4.8900003 -1.1069819 1.1248199 0
4.8940005 -1.1160336 1.1254621 0
4.8980002 -1.1250994 1.1261041 0
4.9030004 -1.1344215 1.1269069 0
4.9070005 -1.1435182 1.1275491 0
4.9110003 -1.1526291 1.1281911 0
4.9150004 -1.1617546 1.1288333 0
4.9190001 -1.1708945 1.1294755 0
4.9230003 -1.1800488 1.1301177 0
4.9280005 -1.1894702 1.1309203 0
4.9320002 -1.1986551 1.1315624 0
4.9080005 -1.0787091 1.119578 0
4.8970003 -1.0843009 1.1178318 0
4.8850002 -1.0896202 1.1159271 0
4.8860002 -1.0979449 1.1160858 0
4.8900003 -1.1069819 1.1167207 0
4.8940005 -1.1160336 1.1173557 0
4.8980002 -1.1250994 1.1179906 0
4.9030004 -1.1344215 1.1187843 0
4.9070005 -1.1435182 1.1194192 0
4.9110003 -1.1526291 1.1200541 0
4.9150004 -1.1617546 1.1206892 0
4.9190001 -1.1708945 1.1213239 0
4.9230003 -1.1800488 1.121959 0
4.9280005 -1.1894702 1.1227527 0
4.9320002 -1.1986551 1.1233876 0
4.9080005 -1.0787091 1.1114464 0
4.8970003 -1.0843009 1.1097201 0
4.8850002 -1.0896202 1.107837 0
4.8860002 -1.0979449 1.1079938 0
4.8900003 -1.1069819 1.1086216 0
4.8940005 -1.1160336 1.1092494 0
4.8980002 -1.1250994 1.1098771 0
4.9030004 -1.1344215 1.1106617 0
4.9070005 -1.1435182 1.1112895 0
4.9110003 -1.1526291 1.1119171 0
4.9150004 -1.1617546 1.1125449 0
4.9190001 -1.1708945 1.1131727 0
4.9230003 -1.1800488 1.1138003 0
4.9280005 -1.1894702 1.114585 0
4.9320002 -1.1986551 1.1152127 0
4.9080005 -1.0787091 1.1033149 0
4.8970003 -1.0843009 1.1016084 0
4.8850002 -1.0896202 1.0997469 0
4.8860002 -1.0979449 1.099902 0
4.8900003 -1.1069819 1.1005225 0
4.8940005 -1.1160336 1.1011431 0
4.8980002 -1.1250994 1.1017635 0
4.9030004 -1.1344215 1.1025392 0
4.9070005 -1.1435182 1.1031598 0
4.9110003 -1.1526291 1.1037802 0
4.9150004 -1.1617546 1.1044008 0
4.9190001 -1.1708945 1.1050212 0
4.9230003 -1.1800488 1.1056417 0
4.9280005 -1.1894702 1.1064174 0
4.9320002 -1.1986551 1.1070379 0
4.9080005 -1.0787091 1.0951833 0
4.8970003 -1.0843009 1.0934967 0
4.8850002 -1.0896202 1.0916568 0
4.8860002 -1.0979449 1.0918101 0
4.8900003 -1.1069819 1.0924234 0
4.8940005 -1.1160336 1.0930368 0
4.8980002 -1.1250994 1.09365 0
4.9030004 -1.1344215 1.0944166 0
4.9070005 -1.1435182 1.09503 0
4.9110003 -1.1526291 1.0956433 0
4.9150004 -1.1617546 1.0962565 0
4.9190001 -1.1708945 1.0968697 0
4.9230003 -1.1800488 1.0974832 0
4.9280005 -1.1894702 1.0982498 0
4.9320002 -1.1986551 1.098863 0
4.9080005 -1.0787091 1.0870517 0
4.8970003 -1.0843009 1.085385 0
4.8850002 -1.0896202 1.0835668 0
4.8860002 -1.0979449 1.0837182 0
4.8900003 -1.1069819 1.0843244 0
4.8940005 -1.1160336 1.0849304 0
4.8980002 -1.1250994 1.0855365 0
4.9030004 -1.1344215 1.0862941 0
4.9070005 -1.1435182 1.0869002 0
4.9110003 -1.1526291 1.0875062 0
4.9150004 -1.1617546 1.0881124 0
4.9190001 -1.1708945 1.0887184 0
4.9230003 -1.1800488 1.0893245 0
4.9280005 -1.1894702 1.090082 0
4.9320002 -1.1986551 1.0906881 0
4.9080005 -1.0787091 1.0789201 0
4.8970003 -1.0843009 1.0772732 0
4.8850002 -1.0896202 1.0754766 0
4.8860002 -1.0979449 1.0756264 0
4.8900003 -1.1069819 1.0762252 0
4.8940005 -1.1160336 1.0768242 0
4.8980002 -1.1250994 1.077423 0
4.9030004 -1.1344215 1.0781715 0
4.9070005 -1.1435182 1.0787704 0
4.9110003 -1.1526291 1.0793693 0
4.9150004 -1.1617546 1.0799681 0
4.9190001 -1.1708945 1.080567 0
4.9230003 -1.1800488 1.0811659 0
4.9280005 -1.1894702 1.0819144 0
4.9320002 -1.1986551 1.0825133 0
4.9080005 -1.0787091 1.0707886 0
4.8970003 -1.0843009 1.0691615 0
4.8850002 -1.0896202 1.0673866 0
4.8860002 -1.0979449 1.0675344 0
4.8900003 -1.1069819 1.0681261 0
4.8940005 -1.1160336 1.0687178 0
4.8980002 -1.1250994 1.0693094 0
4.9030004 -1.1344215 1.070049 0
4.9070005 -1.1435182 1.0706407 0
4.9110003 -1.1526291 1.0712323 0
4.9150004 -1.1617546 1.071824 0
4.9190001 -1.1708945 1.0724156 0
4.9230003 -1.1800488 1.0730072 0
4.9280005 -1.1894702 1.0737468 0
4.9320002 -1.1986551 1.0743384 0
4.9080005 -1.0787091 1.062657 0
4.8970003 -1.0843009 1.0610498 0
4.8850002 -1.0896202 1.0592965 0
4.8860002 -1.0979449 1.0594425 0
4.8900003 -1.1069819 1.060027 0
4.8940005 -1.1160336 1.0606115 0
4.8980002 -1.1250994 1.0611959 0
4.9030004 -1.1344215 1.0619265 0
4.9070005 -1.1435182 1.062511 0
4.9110003 -1.1526291 1.0630953 0
4.9150004 -1.1617546 1.0636798 0
4.9190001 -1.1708945 1.0642642 0
4.9230003 -1.1800488 1.0648485 0
4.9280005 -1.1894702 1.0655792 0
4.9320002 -1.1986551 1.0661635 0
4.9080005 -1.0787091 1.0545254 0
4.8970003 -1.0843009 1.0529381 0
4.8850002 -1.0896202 1.0512065 0
4.8860002 -1.0979449 1.0513507 0
4.8900003 -1.1069819 1.0519279 0
4.8940005 -1.1160336 1.0525051 0
4.8980002 -1.1250994 1.0530823 0
4.9030004 -1.1344215 1.0538039 0
4.9070005 -1.1435182 1.0543811 0
4.9110003 -1.1526291 1.0549583 0
4.9150004 -1.1617546 1.0555356 0
4.9190001 -1.1708945 1.0561128 0
4.9230003 -1.1800488 1.05669 0
4.9280005 -1.1894702 1.0574116 0
4.9320002 -1.1986551 1.0579886 0
4.9080005 -1.0787091 1.0463939 0
4.8970003 -1.0843009 1.0448264 0
4.8850002 -1.0896202 1.0431163 0
4.8860002 -1.0979449 1.0432588 0
4.8900003 -1.1069819 1.0438288 0
4.8940005 -1.1160336 1.0443989 0
4.8980002 -1.1250994 1.0449688 0
4.9030004 -1.1344215 1.0456814 0
4.9070005 -1.1435182 1.0462514 0
4.9110003 -1.1526291 1.0468214 0
4.9150004 -1.1617546 1.0473914 0
4.9190001 -1.1708945 1.0479614 0
4.9230003 -1.1800488 1.0485314 0
4.9280005 -1.1894702 1.0492439 0
4.9320002 -1.1986551 1.0498139 0
4.9080005 -1.0787091 1.0382622 0
4.8970003 -1.0843009 1.0367147 0
4.8850002 -1.0896202 1.0350262 0
4.8860002 -1.0979449 1.035167 0
4.8900003 -1.1069819 1.0357298 0
4.8940005 -1.1160336 1.0362926 0
4.8980002 -1.1250994 1.0368553 0
4.9030004 -1.1344215 1.0375588 0
4.9070005 -1.1435182 1.0381216 0
4.9110003 -1.1526291 1.0386844 0
4.9150004 -1.1617546 1.0392472 0
4.9190001 -1.1708945 1.0398099 0
4.9230003 -1.1800488 1.0403727 0
4.9280005 -1.1894702 1.0410762 0
4.9320002 -1.1986551 1.041639 0
4.9080005 -1.0787091 1.0301307 0
4.8970003 -1.0843009 1.0286028 0
4.8850002 -1.0896202 1.0269362 0
4.8860002 -1.0979449 1.0270751 0
4.8900003 -1.1069819 1.0276306 0
4.8940005 -1.1160336 1.0281862 0
4.8980002 -1.1250994 1.0287417 0
4.9030004 -1.1344215 1.0294362 0
4.9070005 -1.1435182 1.0299919 0
4.9110003 -1.1526291 1.0305474 0
4.9150004 -1.1617546 1.031103 0
4.9190001 -1.1708945 1.0316585 0
4.9230003 -1.1800488 1.0322142 0
4.9280005 -1.1894702 1.0329086 0
4.9320002 -1.1986551 1.0334642 0
4.9080005 -1.0787091 1.0219991 0
4.8970003 -1.0843009 1.0204911 0
4.8850002 -1.0896202 1.018846 0
4.8860002 -1.0979449 1.0189831 0
4.8900003 -1.1069819 1.0195315 0
4.8940005 -1.1160336 1.02008 0
4.8980002 -1.1250994 1.0206282 0
4.9030004 -1.1344215 1.0213137 0
4.9070005 -1.1435182 1.0218621 0
4.9110003 -1.1526291 1.0224104 0
4.9150004 -1.1617546 1.0229588 0
4.9190001 -1.1708945 1.0235071 0
4.9230003 -1.1800488 1.0240555 0
4.9280005 -1.1894702 1.0247409 0
4.9320002 -1.1986551 1.0252893 0
4.9080005 -1.0787091 1.0138676 0
4.8970003 -1.0843009 1.0123794 0
4.8850002 -1.0896202 1.010756 0
4.8860002 -1.0979449 1.0108913 0
4.8900003 -1.1069819 1.0114324 0
4.8940005 -1.1160336 1.0119736 0
4.8980002 -1.1250994 1.0125147 0
4.9030004 -1.1344215 1.0131911 0
4.9070005 -1.1435182 1.0137323 0
4.9110003 -1.1526291 1.0142734 0
4.9150004 -1.1617546 1.0148146 0
4.9190001 -1.1708945 1.0153557 0
4.9230003 -1.1800488 1.0158968 0
4.9280005 -1.1894702 1.0165733 0
4.9320002 -1.1986551 1.0171144 0
4.9080005 -1.0787091 1.0057361 0
4.8970003 -1.0843009 1.0042677 0
4.8850002 -1.0896202 1.0026659 0
4.8860002 -1.0979449 1.0027994 0
4.8900003 -1.1069819 1.0033333 0
4.8940005 -1.1160336 1.0038673 0
4.8980002 -1.1250994 1.0044012 0
4.9030004 -1.1344215 1.0050687 0
4.9070005 -1.1435182 1.0056026 0
4.9110003 -1.1526291 1.0061364 0
4.9150004 -1.1617546 1.0066704 0
4.9190001 -1.1708945 1.0072043 0
4.9230003 -1.1800488 1.0077382 0
4.9280005 -1.1894702 1.0084057 0
4.9320002 -1.1986551 1.0089396 0
4.9080005 -1.0787091 0.99760449 0
4.8970003 -1.0843009 0.99615598 0
4.8850002 -1.0896202 0.99457586 0
4.8860002 -1.0979449 0.99470747 0
4.8900003 -1.1069819 0.99523425 0
4.8940005 -1.1160336 0.99576104 0
4.8980002 -1.1250994 0.99628758 0
4.9030004 -1.1344215 0.9969461 0
4.9070005 -1.1435182 0.99747276 0
4.9110003 -1.1526291 0.99799943 0
4.9150004 -1.1617546 0.99852622 0
4.9190001 -1.1708945 0.99905288 0
4.9230003 -1.1800488 0.99957967 0
4.9280005 -1.1894702 1.0002381 0
4.9320002 -1.1986551 1.0007647 0
4.9080005 -1.0787091 0.98947287 0
4.8970003 -1.0843009 0.98804426 0
4.8850002 -1.0896202 0.98648572 0
4.8860002 -1.0979449 0.98661566 0
4.8900003 -1.1069819 0.98713517 0
4.8940005 -1.1160336 0.98765469 0
4.8980002 -1.1250994 0.98817408 0
4.9030004 -1.1344215 0.98882353 0
4.9070005 -1.1435182 0.98934305 0
4.9110003 -1.1526291 0.98986256 0
4.9150004 -1.1617546 0.99038196 0
4.9190001 -1.1708945 0.99090147 0
4.9230003 -1.1800488 0.99142098 0
4.9280005 -1.1894702 0.99207032 0
4.9320002 -1.1986551 0.99258983 0
4.9080005 -1.0787091 0.98134136 0
4.8970003 -1.0843009 0.97993255 0
4.8850002 -1.0896202 0.9783957 0
4.8860002 -1.0979449 0.97852373 0
4.8900003 -1.1069819 0.97903597 0
4.8940005 -1.1160336 0.97954834 0
4.8980002 -1.1250994 0.98006058 0
4.9030004 -1.1344215 0.98070097 0
4.9070005 -1.1435182 0.98121333 0
4.9110003 -1.1526291 0.98172545 0
4.9150004 -1.1617546 0.98223782 0
4.9190001 -1.1708945 0.98275006 0
4.9230003 -1.1800488 0.98326242 0
4.9280005 -1.1894702 0.98390281 0
4.9320002 -1.1986551 0.98441494 0
4.9080005 -1.0787091 0.97320974 0
4.8970003 -1.0843009 0.97182083 0
4.8850002 -1.0896202 0.97030556 0
4.8860002 -1.0979449 0.97043192 0
4.8900003 -1.1069819 0.97093689 0
4.8940005 -1.1160336 0.97144198 0
4.8980002 -1.1250994 0.97194707 0
4.9030004 -1.1344215 0.97257841 0
4.9070005 -1.1435182 0.9730835 0
4.9110003 -1.1526291 0.97358859 0
4.9150004 -1.1617546 0.97409356 0
4.9190001 -1.1708945 0.97459865 0
4.9230003 -1.1800488 0.97510374 0
4.9280005 -1.1894702 0.97573507 0
4.9320002 -1.1986551 0.97624004 0
4.9080005 -1.0787091 0.96507823 0
4.8970003 -1.0843009 0.96370912 0
4.8850002 -1.0896202 0.96221554 0
4.8860002 -1.0979449 0.96234 0
4.8900003 -1.1069819 0.96283782 0
4.8940005 -1.1160336 0.96333575 0
4.8980002 -1.1250994 0.96383357 0
4.9030004 -1.1344215 0.96445584 0
4.9070005 -1.1435182 0.96495378 0
4.9110003 -1.1526291 0.9654516 0
4.9150004 -1.1617546 0.96594942 0
4.9190001 -1.1708945 0.96644723 0
4.9230003 -1.1800488 0.96694505 0
4.9280005 -1.1894702 0.96756744 0
4.9320002 -1.1986551 0.96806526 0
4.9080005 -1.0787091 0.95694661 0
4.8970003 -1.0843009 0.9555974 0
4.8850002 -1.0896202 0.9541254 0
4.8860002 -1.0979449 0.95424807 0
4.8900003 -1.1069819 0.95473874 0
4.8940005 -1.1160336 0.9552294 0
4.8980002 -1.1250994 0.95572007 0
4.9030004 -1.1344215 0.95633328 0
4.9070005 -1.1435182 0.95682395 0
4.9110003 -1.1526291 0.95731461 0
4.9150004 -1.1617546 0.95780528 0
4.9190001 -1.1708945 0.95829582 0
4.9230003 -1.1800488 0.95878649 0
4.9280005 -1.1894702 0.95939982 0
4.9320002 -1.1986551 0.95989037 0
4.9080005 -1.0787091 0.94881499 0
4.8970003 -1.0843009 0.94748557 0
4.8850002 -1.0896202 0.94603539 0
4.8860002 -1.0979449 0.94615626 0
4.8900003 -1.1069819 0.94663966 0
4.8940005 -1.1160336 0.94712305 0
4.8980002 -1.1250994 0.94760644 0
4.9030004 -1.1344215 0.94821072 0
4.9070005 -1.1435182 0.94869423 0
4.9110003 -1.1526291 0.94917762 0
4.9150004 -1.1617546 0.94966102 0
4.9190001 -1.1708945 0.95014441 0
4.9230003 -1.1800488 0.95062792 0
4.9280005 -1.1894702 0.95123219 0
4.9320002 -1.1986551 0.95171559 0
4.9080005 -1.0787091 0.94068348 0
4.8970003 -1.0843009 0.93937385 0
4.8850002 -1.0896202 0.93794525 0
4.8860002 -1.0979449 0.93806434 0
4.8900003 -1.1069819 0.93854058 0
4.8940005 -1.1160336 0.93901682 0
4.8980002 -1.1250994 0.93949294 0
4.9030004 -1.1344215 0.94008827 0
4.9070005 -1.1435182 0.94056451 0
4.9110003 -1.1526291 0.94104064 0
4.9150004 -1.1617546 0.94151688 0
4.9190001 -1.1708945 0.941993 0
4.9230003 -1.1800488 0.94246924 0
4.9280005 -1.1894702 0.94306457 0
4.9320002 -1.1986551 0.94354069 0
4.9080005 -1.0787091 0.93255186 0
4.8970003 -1.0843009 0.93126225 0
4.8850002 -1.0896202 0.92985523 0
4.8860002 -1.0979449 0.92997241 0
4.8900003 -1.1069819 0.93044138 0
4.8940005 -1.1160336 0.93091047 0
4.8980002 -1.1250994 0.93137944 0
4.9030004 -1.1344215 0.93196571 0
4.9070005 -1.1435182 0.93243468 0
4.9110003 -1.1526291 0.93290365 0
4.9150004 -1.1617546 0.93337262 0
4.9190001 -1.1708945 0.93384159 0
4.9230003 -1.1800488 0.93431067 0
4.9280005 -1.1894702 0.93489695 0
4.9320002 -1.1986551 0.9353658 0
4.9080005 -1.0787091 0.92442036 0
4.8970003 -1.0843009 0.92315042 0
4.8850002 -1.0896202 0.92176509 0
4.8860002 -1.0979449 0.9218806 0
4.8900003 -1.1069819 0.9223423 0
4.8940005 -1.1160336 0.92280412 0
4.8980002 -1.1250994 0.92326593 0
4.9030004 -1.1344215 0.92384315 0
4.9070005 -1.1435182 0.92430496 0
4.9110003 -1.1526291 0.92476666 0
4.9150004 -1.1617546 0.92522848 0
4.9190001 -1.1708945 0.92569017 0
4.9230003 -1.1800488 0.92615199 0
4.9280005 -1.1894702 0.9267292 0
4.9320002 -1.1986551 0.92719102 0
4.9080005 -1.0787091 0.91628885 0
4.8970003 -1.0843009 0.9150387 0
4.8850002 -1.0896202 0.91367507 0
4.8860002 -1.0979449 0.91378868 0
4.8900003 -1.1069819 0.91424322 0
4.8940005 -1.1160336 0.91469789 0
4.8980002 -1.1250994 0.91515243 0
4.9030004 -1.1344215 0.91572058 0
4.9070005 -1.1435182 0.91617513 0
4.9110003 -1.1526291 0.91662967 0
4.9150004 -1.1617546 0.91708422 0
4.9190001 -1.1708945 0.91753876 0
4.9230003 -1.1800488 0.91799331 0
4.9280005 -1.1894702 0.91856158 0
4.9320002 -1.1986551 0.91901612 0
4.9080005 -1.0787091 0.90815723 0
4.8970003 -1.0843009 0.90692699 0
4.8850002 -1.0896202 0.90558493 0
4.8860002 -1.0979449 0.90569687 0
4.8900003 -1.1069819 0.90614414 0
4.8940005 -1.1160336 0.90659153 0
4.8980002 -1.1250994 0.90703881 0
4.9030004 -1.1344215 0.90759802 0
4.9070005 -1.1435182 0.90804541 0
4.9110003 -1.1526291 0.90849268 0
4.9150004 -1.1617546 0.90894008 0
4.9190001 -1.1708945 0.90938735 0
4.9230003 -1.1800488 0.90983474 0
4.9280005 -1.1894702 0.91039395 0
4.9320002 -1.1986551 0.91084123 0
4.9080005 -1.0787091 0.90002567 0
4.8970003 -1.0843009 0.89881527 0
4.8850002 -1.0896202 0.89749491 0
4.8860002 -1.0979449 0.89760488 0
4.8900003 -1.1069819 0.89804506 0
4.8940005 -1.1160336 0.89848518 0
4.8980002 -1.1250994 0.8989253 0
4.9030004 -1.1344215 0.89947546 0
4.9070005 -1.1435182 0.89991564 0
4.9110003 -1.1526291 0.90035576 0
4.9150004 -1.1617546 0.90079582 0
4.9190001 -1.1708945 0.90123594 0
4.9230003 -1.1800488 0.90167612 0
4.9280005 -1.1894702 0.90222627 0
4.9320002 -1.1986551 0.90266639 0
4.9080005 -1.0787091 0.8918941 0
4.8970003 -1.0843009 0.89070356 0
4.8850002 -1.0896202 0.88940477 0
4.8860002 -1.0979449 0.88951302 0
4.8900003 -1.1069819 0.88994598 0
4.8940005 -1.1160336 0.89037883 0
4.8980002 -1.1250994 0.8908118 0
4.9030004 -1.1344215 0.89135295 0
4.9070005 -1.1435182 0.89178586 0
4.9110003 -1.1526291 0.89221871 0
4.9150004 -1.1617546 0.89265168 0
4.9190001 -1.1708945 0.89308459 0
4.9230003 -1.1800488 0.89351749 0
4.9280005 -1.1894702 0.89405864 0
4.9320002 -1.1986551 0.89449155 0
4.9080005 -1.0787091 0.88376248 0
4.8970003 -1.0843009 0.88259184 0
4.8850002 -1.0896202 0.88131475 0
4.8860002 -1.0979449 0.88142115 0
4.8900003 -1.1069819 0.88184685 0
4.8940005 -1.1160336 0.8822726 0
4.8980002 -1.1250994 0.8826983 0
4.9030004 -1.1344215 0.88323033 0
4.9070005 -1.1435182 0.88365608 0
4.9110003 -1.1526291 0.88408178 0
4.9150004 -1.1617546 0.88450748 0
4.9190001 -1.1708945 0.88493311 0
4.9230003 -1.1800488 0.88535893 0
4.9280005 -1.1894702 0.88589096 0
4.9320002 -1.1986551 0.88631666 0
4.9080005 -1.0787091 0.87563097 0
4.8970003 -1.0843009 0.87448013 0
4.8850002 -1.0896202 0.87322462 0
4.8860002 -1.0979449 0.87332922 0
4.8900003 -1.1069819 0.87374777 0
4.8940005 -1.1160336 0.87416625 0
4.8980002 -1.1250994 0.87458467 0
4.9030004 -1.1344215 0.87510782 0
4.9070005 -1.1435182 0.87552631 0
4.9110003 -1.1526291 0.87594473 0
4.9150004 -1.1617546 0.87636328 0
4.9190001 -1.1708945 0.8767817 0
4.9230003 -1.1800488 0.87720025 0
4.9280005 -1.1894702 0.87772334 0
4.9320002 -1.1986551 0.87814188 0
4.9080005 -1.0787091 0.86749935 0
4.8970003 -1.0843009 0.86636841 0
4.8850002 -1.0896202 0.8651346 0
4.8860002 -1.0979449 0.86523736 0
4.8900003 -1.1069819 0.86564863 0
4.8940005 -1.1160336 0.8660599 0
4.8980002 -1.1250994 0.86647117 0
4.9030004 -1.1344215 0.86698532 0
4.9070005 -1.1435182 0.86739659 0
4.9110003 -1.1526291 0.86780781 0
4.9150004 -1.1617546 0.86821908 0
4.9190001 -1.1708945 0.86863035 0
4.9230003 -1.1800488 0.86904156 0
4.9280005 -1.1894702 0.86955571 0
4.9320002 -1.1986551 0.86996698 0
4.9080005 -1.0787091 0.85936785 0
4.8970003 -1.0843009 0.8582567 0
4.8850002 -1.0896202 0.85704446 0
4.8860002 -1.0979449 0.85714549 0
4.8900003 -1.1069819 0.85754955 0
4.8940005 -1.1160336 0.85795367 0
4.8980002 -1.1250994 0.85835767 0
4.9030004 -1.1344215 0.85886276 0
4.9070005 -1.1435182 0.85926682 0
4.9110003 -1.1526291 0.85967088 0
4.9150004 -1.1617546 0.86007488 0
4.9190001 -1.1708945 0.86047888 0
4.9230003 -1.1800488 0.860883 0
4.9280005 -1.1894702 0.86138809 0
4.9320002 -1.1986551 0.86179209 0
4.9080005 -1.0787091 0.85123622 0
4.8970003 -1.0843009 0.85014492 0
4.8850002 -1.0896202 0.84895438 0
4.8860002 -1.0979449 0.84905362 0
4.8900003 -1.1069819 0.84945047 0
4.8940005 -1.1160336 0.84984732 0
4.8980002 -1.1250994 0.85024416 0
4.9030004 -1.1344215 0.85074019 0
4.9070005 -1.1435182 0.85113704 0
4.9110003 -1.1526291 0.85153389 0
4.9150004 -1.1617546 0.85193074 0
4.9190001 -1.1708945 0.85232747 0
4.9230003 -1.1800488 0.85272437 0
4.9280005 -1.1894702 0.85322046 0
4.9320002 -1.1986551 0.85361725 0
4.9080005 -1.0787091 0.84310472 0
4.8970003 -1.0843009 0.84203321 0
4.8850002 -1.0896202 0.8408643 0
4.8860002 -1.0979449 0.84096169 0
4.8900003 -1.1069819 0.84135139 0
4.8940005 -1.1160336 0.84174097 0
4.8980002 -1.1250994 0.8421306 0
4.9030004 -1.1344215 0.84261763 0
4.9070005 -1.1435182 0.84300727 0
4.9110003 -1.1526291 0.8433969 0
4.9150004 -1.1617546 0.84378648 0
4.9190001 -1.1708945 0.84417611 0
4.9230003 -1.1800488 0.84456575 0
4.9280005 -1.1894702 0.84505284 0
4.9320002 -1.1986551 0.84544235 0
4.9080005 -1.0787091 0.8349731 0
4.8970003 -1.0843009 0.83392149 0
4.8850002 -1.0896202 0.83277422 0
4.8860002 -1.0979449 0.83286983 0
4.8900003 -1.1069819 0.83325231 0
4.8940005 -1.1160336 0.83363467 0
4.8980002 -1.1250994 0.83401704 0
4.9030004 -1.1344215 0.83449507 0
4.9070005 -1.1435182 0.83487749 0
4.9110003 -1.1526291 0.83525991 0
4.9150004 -1.1617546 0.83564234 0
4.9190001 -1.1708945 0.8360247 0
4.9230003 -1.1800488 0.83640712 0
4.9280005 -1.1894702 0.83688515 0
4.9320002 -1.1986551 0.83726752 0
4.9080005 -1.0787091 0.82684153 0
4.8970003 -1.0843009 0.82580972 0
4.8850002 -1.0896202 0.82468414 0
4.8860002 -1.0979449 0.82477796 0
4.8900003 -1.1069819 0.82515317 0
4.8940005 -1.1160336 0.82552838 0
4.8980002 -1.1250994 0.82590353 0
4.9030004 -1.1344215 0.8263725 0
4.9070005 -1.1435182 0.82674778 0
4.9110003 -1.1526291 0.82712293 0
4.9150004 -1.1617546 0.82749808 0
4.9190001 -1.1708945 0.82787329 0
4.9230003 -1.1800488 0.8282485 0
4.9280005 -1.1894702 0.82871747 0
4.9320002 -1.1986551 0.82909262 0
4.9080005 -1.0787091 0.81870997 0
4.8970003 -1.0843009 0.817698 0
4.8850002 -1.0896202 0.81659406 0
4.8860002 -1.0979449 0.81668609 0
4.8900003 -1.1069819 0.81705403 0
4.8940005 -1.1160336 0.81742203 0
4.8980002 -1.1250994 0.81779003 0
4.9030004 -1.1344215 0.81825 0
4.9070005 -1.1435182 0.818618 0
4.9110003 -1.1526291 0.81898594 0
4.9150004 -1.1617546 0.81935394 0
4.9190001 -1.1708945 0.81972188 0
4.9230003 -1.1800488 0.82008988 0
4.9280005 -1.1894702 0.82054985 0
4.9320002 -1.1986551 0.82091784 0
4.9080005 -1.0787091 0.81057841 0
4.8970003 -1.0843009 0.80958629 0
4.8850002 -1.0896202 0.80850399 0
4.8860002 -1.0979449 0.80859423 0
4.8900003 -1.1069819 0.80895495 0
4.8940005 -1.1160336 0.80931574 0
4.8980002 -1.1250994 0.80967647 0
4.9030004 -1.1344215 0.81012744 0
4.9070005 -1.1435182 0.81048822 0
4.9110003 -1.1526291 0.81084895 0
4.9150004 -1.1617546 0.81120974 0
4.9190001 -1.1708945 0.81157047 0
4.9230003 -1.1800488 0.81193125 0
4.9280005 -1.1894702 0.81238222 0
4.9320002 -1.1986551 0.81274295 0
4.9080005 -1.0787091 0.80244684 0
4.8970003 -1.0843009 0.80147457 0
4.8850002 -1.0896202 0.80041391 0
4.8860002 -1.0979449 0.8005023 0
4.8900003 -1.1069819 0.80085588 0
4.8940005 -1.1160336 0.80120945 0
4.8980002 -1.1250994 0.80156296 0
4.9030004 -1.1344215 0.80200493 0
4.9070005 -1.1435182 0.80235845 0
4.9110003 -1.1526291 0.80271196 0
4.9150004 -1.1617546 0.80306554 0
4.9190001 -1.1708945 0.80341905 0
4.9230003 -1.1800488 0.80377263 0
4.9280005 -1.1894702 0.8042146 0
4.9320002 -1.1986551 0.80456805 0
4.9080005 -1.0787091 0.79431528 0
4.8970003 -1.0843009 0.79336286 0
4.8850002 -1.0896202 0.79232383 0
4.8860002 -1.0979449 0.79241043 0
4.8900003 -1.1069819 0.7927568 0
4.8940005 -1.1160336 0.7931031 0
4.8980002 -1.1250994 0.7934494 0
4.9030004 -1.1344215 0.79388237 0
4.9070005 -1.1435182 0.79422867 0
4.9110003 -1.1526291 0.79457498 0
4.9150004 -1.1617546 0.79492134 0
4.9190001 -1.1708945 0.79526764 0
4.9230003 -1.1800488 0.795614 0
4.9280005 -1.1894702 0.79604697 0
4.9320002 -1.1986551 0.79639328 0
4.9080005 -1.0787091 0.78618371 0
4.8970003 -1.0843009 0.78525114 0
4.8850002 -1.0896202 0.78423381 0
4.8860002 -1.0979449 0.78431857 0
4.8900003 -1.1069819 0.78465772 0
4.8940005 -1.1160336 0.78499681 0
4.8980002 -1.1250994 0.7853359 0
4.9030004 -1.1344215 0.78575981 0
4.9070005 -1.1435182 0.78609896 0
4.9110003 -1.1526291 0.78643799 0
4.9150004 -1.1617546 0.78677714 0
4.9190001 -1.1708945 0.78711629 0
4.9230003 -1.1800488 0.78745538 0
4.9280005 -1.1894702 0.78787923 0
4.9320002 -1.1986551 0.78821838 0
4.9080005 -1.0787091 0.77805209 0
4.8970003 -1.0843009 0.77713943 0
4.8850002 -1.0896202 0.77614367 0
4.8860002 -1.0979449 0.77622664 0
4.8900003 -1.1069819 0.77655858 0
4.8940005 -1.1160336 0.77689052 0
4.8980002 -1.1250994 0.77722239 0
4.9030004 -1.1344215 0.77763724 0
4.9070005 -1.1435182 0.77796912 0
4.9110003 -1.1526291 0.77830106 0
4.9150004 -1.1617546 0.778633 0
4.9190001 -1.1708945 0.77896488 0
4.9230003 -1.1800488 0.77929676 0
4.9280005 -1.1894702 0.7797116 0
4.9320002 -1.1986551 0.78004348 0
4.9080005 -1.0787091 0.76992059 0
4.8970003 -1.0843009 0.76902765 0
4.8850002 -1.0896202 0.76805365 0
4.8860002 -1.0979449 0.76813471 0
4.8900003 -1.1069819 0.76845944 0
4.8940005 -1.1160336 0.76878417 0
4.8980002 -1.1250994 0.76910883 0
4.9030004 -1.1344215 0.76951468 0
4.9070005 -1.1435182 0.76983941 0
4.9110003 -1.1526291 0.77016407 0
4.9150004 -1.1617546 0.77048874 0
4.9190001 -1.1708945 0.77081341 0
4.9230003 -1.1800488 0.77113807 0
4.9280005 -1.1894702 0.77154398 0
4.9320002 -1.1986551 0.77186865 0
4.9080005 -1.0787091 0.76178896 0
4.8970003 -1.0843009 0.76091594 0
4.8850002 -1.0896202 0.75996351 0
4.8860002 -1.0979449 0.76004291 0
4.8900003 -1.1069819 0.76036036 0
4.8940005 -1.1160336 0.76067787 0
4.8980002 -1.1250994 0.76099527 0
4.9030004 -1.1344215 0.76139218 0
4.9070005 -1.1435182 0.76170963 0
4.9110003 -1.1526291 0.76202708 0
4.9150004 -1.1617546 0.7623446 0
4.9190001 -1.1708945 0.76266199 0
4.9230003 -1.1800488 0.76297951 0
4.9280005 -1.1894702 0.76337636 0
4.9320002 -1.1986551 0.76369381 0
4.9080005 -1.0787091 0.75365746 0
4.8970003 -1.0843009 0.75280416 0
4.8850002 -1.0896202 0.75187349 0
4.8860002 -1.0979449 0.75195098 0
4.8900003 -1.1069819 0.75226128 0
4.8940005 -1.1160336 0.75257158 0
4.8980002 -1.1250994 0.75288177 0
4.9030004 -1.1344215 0.75326961 0
4.9070005 -1.1435182 0.75357985 0
4.9110003 -1.1526291 0.7538901 0
4.9150004 -1.1617546 0.75420034 0
4.9190001 -1.1708945 0.75451064 0
4.9230003 -1.1800488 0.75482088 0
4.9280005 -1.1894702 0.75520873 0
4.9320002 -1.1986551 0.75551891 0
4.9080005 -1.0787091 0.74552584 0
4.8970003 -1.0843009 0.74469244 0
4.8850002 -1.0896202 0.74378335 0
4.8860002 -1.0979449 0.74385911 0
4.8900003 -1.1069819 0.7441622 0
4.8940005 -1.1160336 0.74446523 0
4.8980002 -1.1250994 0.74476826 0
4.9030004 -1.1344215 0.74514705 0
4.9070005 -1.1435182 0.74545014 0
4.9110003 -1.1526291 0.74575311 0
4.9150004 -1.1617546 0.7460562 0
4.9190001 -1.1708945 0.74635923 0
4.9230003 -1.1800488 0.74666226 0
4.9280005 -1.1894702 0.74704105 0
4.9320002 -1.1986551 0.74734408 0
4.9080005 -1.0787091 0.73739433 0
4.8970003 -1.0843009 0.73658079 0
4.8850002 -1.0896202 0.73569334 0
4.8860002 -1.0979449 0.73576725 0
4.8900003 -1.1069819 0.73606306 0
4.8940005 -1.1160336 0.73635888 0
4.8980002 -1.1250994 0.7366547 0
4.9030004 -1.1344215 0.73702455 0
4.9070005 -1.1435182 0.7373203 0
4.9110003 -1.1526291 0.73761618 0
4.9150004 -1.1617546 0.737912 0
4.9190001 -1.1708945 0.73820782 0
4.9230003 -1.1800488 0.73850363 0
4.9280005 -1.1894702 0.73887342 0
4.9320002 -1.1986551 0.73916924 0
4.9080005 -1.0787091 0.72926271 0
4.8970003 -1.0843009 0.72846901 0
4.8850002 -1.0896202 0.7276032 0
4.8860002 -1.0979449 0.72767532 0
4.8900003 -1.1069819 0.72796392 0
4.8940005 -1.1160336 0.72825259 0
4.8980002 -1.1250994 0.7285412 0
4.9030004 -1.1344215 0.72890198 0
4.9070005 -1.1435182 0.72919059 0
4.9110003 -1.1526291 0.72947919 0
4.9150004 -1.1617546 0.7297678 0
4.9190001 -1.1708945 0.73005641 0
4.9230003 -1.1800488 0.73034501 0
4.9280005 -1.1894702 0.73070574 0
4.9320002 -1.1986551 0.73099434 0
4.9080005 -1.0787091 0.72113115 0
4.8970003 -1.0843009 0.7203573 0
4.8850002 -1.0896202 0.71951312 0
4.8860002 -1.0979449 0.71958351 0
4.8900003 -1.1069819 0.71986485 0
4.8940005 -1.1160336 0.7201463 0
4.8980002 -1.1250994 0.72042763 0
4.9030004 -1.1344215 0.72077942 0
4.9070005 -1.1435182 0.72106081 0
4.9110003 -1.1526291 0.72134221 0
4.9150004 -1.1617546 0.72162354 0
4.9190001 -1.1708945 0.72190499 0
4.9230003 -1.1800488 0.72218633 0
4.9280005 -1.1894702 0.72253811 0
4.9320002 -1.1986551 0.72281951 0
4.9080005 -1.0787091 0.71299958 0
4.8970003 -1.0843009 0.71224558 0
4.8850002 -1.0896202 0.71142304 0
4.8860002 -1.0979449 0.71149158 0
4.8900003 -1.1069819 0.71176577 0
4.8940005 -1.1160336 0.71203995 0
4.8980002 -1.1250994 0.71231413 0
4.9030004 -1.1344215 0.71265686 0
4.9070005 -1.1435182 0.71293104 0
4.9110003 -1.1526291 0.71320522 0
4.9150004 -1.1617546 0.7134794 0
4.9190001 -1.1708945 0.71375358 0
4.9230003 -1.1800488 0.71402776 0
4.9280005 -1.1894702 0.71437049 0
4.9320002 -1.1986551 0.71464467 0
4.9080005 -1.0787091 0.70486808 0
4.8970003 -1.0843009 0.70413387 0
4.8850002 -1.0896202 0.70333296 0
4.8860002 -1.0979449 0.70339966 0
4.8900003 -1.1069819 0.70366669 0
4.8940005 -1.1160336 0.70393366 0
4.8980002 -1.1250994 0.70420063 0
4.9030004 -1.1344215 0.70453429 0
4.9070005 -1.1435182 0.70480132 0
4.9110003 -1.1526291 0.70506823 0
4.9150004 -1.1617546 0.7053352 0
4.9190001 -1.1708945 0.70560217 0
4.9230003 -1.1800488 0.70586914 0
4.9280005 -1.1894702 0.70620286 0
4.9320002 -1.1986551 0.70646977 0
4.9080005 -1.0787091 0.69673645 0
4.8970003 -1.0843009 0.69602215 0
4.8850002 -1.0896202 0.69524288 0
4.8860002 -1.0979449 0.69530785 0
4.8900003 -1.1069819 0.69556761 0
4.8940005 -1.1160336 0.69582736 0
4.8980002 -1.1250994 0.69608706 0
4.9030004 -1.1344215 0.69641173 0
4.9070005 -1.1435182 0.69667149 0
4.9110003 -1.1526291 0.69693124 0
4.9150004 -1.1617546 0.697191 0
4.9190001 -1.1708945 0.69745076 0
4.9230003 -1.1800488 0.69771051 0
4.9280005 -1.1894702 0.69803518 0
4.9320002 -1.1986551 0.69829494 0
4.9080005 -1.0787091 0.68860489 0
4.8970003 -1.0843009 0.68791044 0
4.8850002 -1.0896202 0.6871528 0
4.8860002 -1.0979449 0.68721592 0
4.8900003 -1.1069819 0.68746847 0
4.8940005 -1.1160336 0.68772101 0
4.8980002 -1.1250994 0.68797356 0
4.9030004 -1.1344215 0.68828923 0
4.9070005 -1.1435182 0.68854177 0
4.9110003 -1.1526291 0.68879426 0
4.9150004 -1.1617546 0.6890468 0
4.9190001 -1.1708945 0.68929935 0
4.9230003 -1.1800488 0.68955189 0
4.9280005 -1.1894702 0.68986756 0
4.9320002 -1.1986551 0.69012004 0
4.9080005 -1.0787091 0.68047333 0
4.8970003 -1.0843009 0.67979872 0
4.8850002 -1.0896202 0.67906272 0
4.8860002 -1.0979449 0.67912406 0
4.8900003 -1.1069819 0.67936933 0
4.8940005 -1.1160336 0.67961472 0
4.8980002 -1.1250994 0.67986 0
4.9030004 -1.1344215 0.68016666 0
4.9070005 -1.1435182 0.68041199 0
4.9110003 -1.1526291 0.68065727 0
4.9150004 -1.1617546 0.6809026 0
4.9190001 -1.1708945 0.68114793 0
4.9230003 -1.1800488 0.68139327 0
4.9280005 -1.1894702 0.68169987 0
4.9320002 -1.1986551 0.6819452 0
4.9080005 -1.0787091 0.6723417 0
4.8970003 -1.0843009 0.67168695 0
4.8850002 -1.0896202 0.67097265 0
4.8860002 -1.0979449 0.67103219 0
4.8900003 -1.1069819 0.67127025 0
4.8940005 -1.1160336 0.67150843 0
4.8980002 -1.1250994 0.67174649 0
4.9030004 -1.1344215 0.67204416 0
4.9070005 -1.1435182 0.67228222 0
4.9110003 -1.1526291 0.67252028 0
4.9150004 -1.1617546 0.67275846 0
4.9190001 -1.1708945 0.67299652 0
4.9230003 -1.1800488 0.67323458 0
4.9280005 -1.1894702 0.67353225 0
4.9320002 -1.1986551 0.67377031 0
4.9080005 -1.0787091 0.6642102 0
4.8970003 -1.0843009 0.66357523 0
4.8850002 -1.0896202 0.66288257 0
4.8860002 -1.0979449 0.66294026 0
4.8900003 -1.1069819 0.66317117 0
4.8940005 -1.1160336 0.66340208 0
4.8980002 -1.1250994 0.66363299 0
4.9030004 -1.1344215 0.66392159 0
4.9070005 -1.1435182 0.6641525 0
4.9110003 -1.1526291 0.66438329 0
4.9150004 -1.1617546 0.6646142 0
4.9190001 -1.1708945 0.66484511 0
4.9230003 -1.1800488 0.66507602 0
4.9280005 -1.1894702 0.66536462 0
4.9320002 -1.1986551 0.66559553 0
4.9080005 -1.0787091 0.65607864 0
4.8970003 -1.0843009 0.65546352 0
4.8850002 -1.0896202 0.65479249 0
4.8860002 -1.0979449 0.65484846 0
4.8900003 -1.1069819 0.65507209 0
4.8940005 -1.1160336 0.65529573 0
4.8980002 -1.1250994 0.65551943 0
4.9030004 -1.1344215 0.65579903 0
4.9070005 -1.1435182 0.65602267 0
4.9110003 -1.1526291 0.65624636 0
4.9150004 -1.1617546 0.65647006 0
4.9190001 -1.1708945 0.6566937 0
4.9230003 -1.1800488 0.65691739 0
4.9280005 -1.1894702 0.657197 0
4.9320002 -1.1986551 0.65742064 0
4.9080005 -1.0787091 0.64794707 0
4.8970003 -1.0843009 0.64735174 0
4.8850002 -1.0896202 0.64670241 0
4.8860002 -1.0979449 0.64675653 0
4.8900003 -1.1069819 0.64697301 0
4.8940005 -1.1160336 0.64718944 0
4.8980002 -1.1250994 0.64740586 0
4.9030004 -1.1344215 0.64767647 0
4.9070005 -1.1435182 0.64789295 0
4.9110003 -1.1526291 0.64810938 0
4.9150004 -1.1617546 0.64832586 0
4.9190001 -1.1708945 0.64854228 0
4.9230003 -1.1800488 0.64875877 0
4.9280005 -1.1894702 0.64902931 0
4.9320002 -1.1986551 0.6492458 0
4.9080005 -1.0787091 0.63981545 0
4.8970003 -1.0843009 0.63924003 0
4.8850002 -1.0896202 0.63861233 0
4.8860002 -1.0979449 0.6386646 0
4.8900003 -1.1069819 0.63887388 0
4.8940005 -1.1160336 0.63908315 0
4.8980002 -1.1250994 0.63929236 0
4.9030004 -1.1344215 0.6395539 0
4.9070005 -1.1435182 0.63976318 0
4.9110003 -1.1526291 0.63997239 0
4.9150004 -1.1617546 0.64018166 0
4.9190001 -1.1708945 0.64039087 0
4.9230003 -1.1800488 0.64060014 0
4.9280005 -1.1894702 0.64086169 0
4.9320002 -1.1986551 0.64107096 0
4.9080005 -1.0787091 0.63168395 0
4.8970003 -1.0843009 0.63112831 0
4.8850002 -1.0896202 0.63052225 0
4.8860002 -1.0979449 0.63057274 0
4.8900003 -1.1069819 0.6307748 0
4.8940005 -1.1160336 0.6309768 0
4.8980002 -1.1250994 0.63117886 0
4.9030004 -1.1344215 0.63143134 0
4.9070005 -1.1435182 0.6316334 0
4.9110003 -1.1526291 0.63183546 0
4.9150004 -1.1617546 0.63203746 0
4.9190001 -1.1708945 0.63223946 0
4.9230003 -1.1800488 0.63244152 0
4.9280005 -1.1894702 0.63269407 0
4.9320002 -1.1986551 0.63289607 0
4.9080005 -1.0787091 0.62355232 0
4.8970003 -1.0843009 0.6230166 0
4.8850002 -1.0896202 0.62243217 0
4.8860002 -1.0979449 0.62248087 0
4.8900003 -1.1069819 0.62267566 0
4.8940005 -1.1160336 0.6228705 0
4.8980002 -1.1250994 0.62306529 0
4.9030004 -1.1344215 0.62330884 0
4.9070005 -1.1435182 0.62350363 0
4.9110003 -1.1526291 0.62369847 0
4.9150004 -1.1617546 0.62389326 0
4.9190001 -1.1708945 0.62408805 0
4.9230003 -1.1800488 0.6242829 0
4.9280005 -1.1894702 0.62452638 0
4.9320002 -1.1986551 0.62472117 0
4.9080005 -1.0787091 0.61542076 0
4.8970003 -1.0843009 0.61490488 0
4.8850002 -1.0896202 0.61434209 0
4.8860002 -1.0979449 0.614389 0
4.8900003 -1.1069819 0.61457658 0
4.8940005 -1.1160336 0.61476421 0
4.8980002 -1.1250994 0.61495179 0
4.9030004 -1.1344215 0.61518627 0
4.9070005 -1.1435182 0.61537385 0
4.9110003 -1.1526291 0.61556149 0
4.9150004 -1.1617546 0.61574906 0
4.9190001 -1.1708945 0.61593664 0
4.9230003 -1.1800488 0.61612427 0
4.9280005 -1.1894702 0.61635876 0
4.9320002 -1.1986551 0.61654633 0
4.9080005 -1.0787091 0.6072892 0
4.8970003 -1.0843009 0.60679317 0
4.8850002 -1.0896202 0.60625201 0
4.8860002 -1.0979449 0.60629714 0
4.8900003 -1.1069819 0.6064775 0
4.8940005 -1.1160336 0.60665786 0
4.8980002 -1.1250994 0.60683823 0
4.9030004 -1.1344215 0.60706371 0
4.9070005 -1.1435182 0.60724413 0
4.9110003 -1.1526291 0.6074245 0
4.9150004 -1.1617546 0.60760486 0
4.9190001 -1.1708945 0.60778522 0
4.9230003 -1.1800488 0.60796565 0
4.9280005 -1.1894702 0.60819113 0
4.9320002 -1.1986551 0.6083715 0
4.9080005 -1.0787091 0.59915763 0
4.8970003 -1.0843009 0.59868145 0
4.8850002 -1.0896202 0.59816194 0
4.8860002 -1.0979449 0.59820521 0
4.8900003 -1.1069819 0.59837842 0
4.8940005 -1.1160336 0.59855157 0
4.8980002 -1.1250994 0.59872472 0
4.9030004 -1.1344215 0.59894121 0
4.9070005 -1.1435182 0.59911436 0
4.9110003 -1.1526291 0.59928751 0
4.9150004 -1.1617546 0.59946066 0
4.9190001 -1.1708945 0.59963381 0
4.9230003 -1.1800488 0.59980702 0
4.9280005 -1.1894702 0.60002351 0
4.9320002 -1.1986551 0.6001966 0
4.9080005 -1.0787091 0.59102607 0
4.8970003 -1.0843009 0.59056973 0
4.8850002 -1.0896202 0.59007186 0
4.8860002 -1.0979449 0.59011334 0
4.8900003 -1.1069819 0.59027928 0
4.8940005 -1.1160336 0.59044528 0
4.8980002 -1.1250994 0.59061122 0
4.9030004 -1.1344215 0.59081864 0
4.9070005 -1.1435182 0.59098458 0
4.9110003 -1.1526291 0.59115052 0
4.9150004 -1.1617546 0.59131646 0
4.9190001 -1.1708945 0.5914824 0
4.9230003 -1.1800488 0.5916484 0
4.9280005 -1.1894702 0.59185582 0
4.9320002 -1.1986551 0.59202176 0
4.9080005 -1.0787091 0.5828945 0
4.8970003 -1.0843009 0.58245796 0
4.8850002 -1.0896202 0.58198178 0
4.8860002 -1.0979449 0.58202147 0
4.8900003 -1.1069819 0.5821802 0
4.8940005 -1.1160336 0.58233893 0
4.8980002 -1.1250994 0.58249766 0
4.9030004 -1.1344215 0.58269608 0
4.9070005 -1.1435182 0.58285481 0
4.9110003 -1.1526291 0.58301353 0
4.9150004 -1.1617546 0.58317232 0
4.9190001 -1.1708945 0.58333099 0
4.9230003 -1.1800488 0.58348978 0
4.9280005 -1.1894702 0.58368814 0
4.9320002 -1.1986551 0.58384693 0
4.9080005 -1.0787091 0.57476294 0
4.8970003 -1.0843009 0.57434624 0
4.8850002 -1.0896202 0.5738917 0
4.8860002 -1.0979449 0.57392955 0
4.8900003 -1.1069819 0.57408106 0
4.8940005 -1.1160336 0.57423264 0
4.8980002 -1.1250994 0.57438409 0
4.9030004 -1.1344215 0.57457352 0
4.9070005 -1.1435182 0.57472503 0
4.9110003 -1.1526291 0.57487655 0
4.9150004 -1.1617546 0.57502812 0
4.9190001 -1.1708945 0.57517958 0
4.9230003 -1.1800488 0.57533109 0
4.9280005 -1.1894702 0.57552052 0
4.9320002 -1.1986551 0.57567203 0
4.9080005 -1.0787091 0.56663138 0
4.8970003 -1.0843009 0.56623453 0
4.8850002 -1.0896202 0.56580162 0
4.8860002 -1.0979449 0.56583768 0
4.8900003 -1.1069819 0.56598198 0
4.8940005 -1.1160336 0.56612629 0
4.8980002 -1.1250994 0.56627059 0
4.9030004 -1.1344215 0.56645095 0
4.9070005 -1.1435182 0.56659532 0
4.9110003 -1.1526291 0.56673956 0
4.9150004 -1.1617546 0.56688392 0
4.9190001 -1.1708945 0.56702822 0
4.9230003 -1.1800488 0.56717253 0
4.9280005 -1.1894702 0.56735289 0
4.9320002 -1.1986551 0.56749719 0
4.9080005 -1.0787091 0.55849981 0
4.8970003 -1.0843009 0.55812281 0
4.8850002 -1.0896202 0.55771154 0
4.8860002 -1.0979449 0.55774581 0
4.8900003 -1.1069819 0.55788291 0
4.8940005 -1.1160336 0.55802 0
4.8980002 -1.1250994 0.55815709 0
4.9030004 -1.1344215 0.55832845 0
4.9070005 -1.1435182 0.55846554 0
4.9110003 -1.1526291 0.55860257 0
4.9150004 -1.1617546 0.55873972 0
4.9190001 -1.1708945 0.55887675 0
4.9230003 -1.1800488 0.5590139 0
4.9280005 -1.1894702 0.55918527 0
4.9320002 -1.1986551 0.55932236 0
4.9080005 -1.0787091 0.55036825 0
4.8970003 -1.0843009 0.5500111 0
4.8850002 -1.0896202 0.54962146 0
4.8860002 -1.0979449 0.54965389 0
4.8900003 -1.1069819 0.54978383 0
4.8940005 -1.1160336 0.54991364 0
4.8980002 -1.1250994 0.55004352 0
4.9030004 -1.1344215 0.55020589 0
4.9070005 -1.1435182 0.55033576 0
4.9110003 -1.1526291 0.55046564 0
4.9150004 -1.1617546 0.55059552 0
4.9190001 -1.1708945 0.5507254 0
4.9230003 -1.1800488 0.55085528 0
4.9280005 -1.1894702 0.55101758 0
4.9320002 -1.1986551 0.55114746 0
4.9080005 -1.0787091 0.54223669 0
4.8970003 -1.0843009 0.54189932 0
4.8850002 -1.0896202 0.54153138 0
4.8860002 -1.0979449 0.54156202 0
4.8900003 -1.1069819 0.54168469 0
4.8940005 -1.1160336 0.54180735 0
4.8980002 -1.1250994 0.54193002 0
4.9030004 -1.1344215 0.54208332 0
4.9070005 -1.1435182 0.54220599 0
4.9110003 -1.1526291 0.54232866 0
4.9150004 -1.1617546 0.54245132 0
4.9190001 -1.1708945 0.54257393 0
4.9230003 -1.1800488 0.54269665 0
4.9080005 -1.0787091 0.53410506 0
4.8970003 -1.0843009 0.53378761 0
4.8850002 -1.0896202 0.53344131 0
4.8860002 -1.0979449 0.53347015 0
4.8900003 -1.1069819 0.53358561 0
4.8940005 -1.1160336 0.53370106 0
4.8980002 -1.1250994 0.53381646 0
4.9080005 -1.0787091 0.52597356 0
4.8970003 -1.0843009 0.52567589 0
4.8850002 -1.0896202 0.52535123 0
4.8860002 -1.0979449 0.52537829 0
4.8900003 -1.1069819 0.52548653 0
4.8940005 -1.1160336 0.52559471 0
4.9080005 -1.0787091 0.51784194 0
4.8970003 -1.0843009 0.51756418 0
4.8850002 -1.0896202 0.51726115 0
4.8860002 -1.0979449 0.51728636 0
4.8900003 -1.1069819 0.51738739 0
4.8970003 -1.0843009 0.50945246 0
