# .PCD v0.7 - Point Cloud Data file format
VERSION 0.7
FIELDS x y z intensity
SIZE 4 4 4 4
TYPE F F F F
COUNT 1 1 1 1
WIDTH 125
HEIGHT 1
VIEWPOINT 0 0 0 1 0 0 0
POINTS 125
DATA ascii
6.2740002 -1.6565266 0.31923544 0
6.2710004 -1.6662942 0.31927875 0
6.2690005 -1.6763288 0.31930763 0
6.2660003 -1.6860765 0.3193509 0
6.2640004 -1.696095 0.31937975 0
6.2740002 -1.6565266 0.30863988 0
6.2710004 -1.6662942 0.30868858 0
6.2690005 -1.6763288 0.30872107 0
6.2660003 -1.6860765 0.30876976 0
6.2640004 -1.696095 0.30880225 0
6.2740002 -1.6565266 0.29804432 0
6.2710004 -1.6662942 0.29809844 0
6.2690005 -1.6763288 0.29813451 0
6.2660003 -1.6860765 0.29818863 0
6.2640004 -1.696095 0.29822469 0
6.2740002 -1.6565266 0.28744876 0
6.2710004 -1.6662942 0.28750828 0
6.2690005 -1.6763288 0.28754795 0
6.2660003 -1.6860765 0.28760749 0
6.2640004 -1.696095 0.28764716 0
6.2740002 -1.6565266 0.2768532 0
6.2710004 -1.6662942 0.27691811 0
6.2690005 -1.6763288 0.27696139 0
6.2660003 -1.6860765 0.27702636 0
6.2640004 -1.696095 0.27706963 0
6.2740002 -1.6565266 0.26625761 0
6.2710004 -1.6662942 0.26632795 0
6.2690005 -1.6763288 0.26637486 0
6.2660003 -1.6860765 0.26644522 0
6.2640004 -1.696095 0.26649213 0
6.2740002 -1.6565266 0.25566205 0
6.2710004 -1.6662942 0.25573781 0
6.2690005 -1.6763288 0.2557883 0
6.2660003 -1.6860765 0.25586408 0
6.2640004 -1.696095 0.25591457 0
6.2740002 -1.6565266 0.24506648 0
6.2710004 -1.6662942 0.24514765 0
6.2690005 -1.6763288 0.24520175 0
6.2660003 -1.6860765 0.24528292 0
6.2640004 -1.696095 0.24533704 0
6.2740002 -1.6565266 0.2344709 0
6.2710004 -1.6662942 0.23455748 0
6.2690005 -1.6763288 0.23461521 0
6.2660003 -1.6860765 0.2347018 0
6.2640004 -1.696095 0.23475951 0
6.2740002 -1.6565266 0.22387534 0
6.2710004 -1.6662942 0.22396733 0
6.2690005 -1.6763288 0.22402865 0
6.2660003 -1.6860765 0.22412066 0
6.2640004 -1.696095 0.22418198 0
6.2740002 -1.6565266 0.21327977 0
6.2710004 -1.6662942 0.21337716 0
6.2690005 -1.6763288 0.2134421 0
6.2660003 -1.6860765 0.21353951 0
6.2640004 -1.696095 0.21360445 0
6.2740002 -1.6565266 0.20268419 0
6.2710004 -1.6662942 0.20278701 0
6.2690005 -1.6763288 0.20285554 0
6.2660003 -1.6860765 0.20295838 0
6.2640004 -1.696095 0.20302691 0
6.2740002 -1.6565266 0.19208863 0
6.2710004 -1.6662942 0.19219685 0
6.2690005 -1.6763288 0.19226901 0
6.2660003 -1.6860765 0.19237722 0
6.2640004 -1.696095 0.19244938 0
6.2740002 -1.6565266 0.18149306 0
6.2710004 -1.6662942 0.1816067 0
6.2690005 -1.6763288 0.18168245 0
6.2660003 -1.6860765 0.18179609 0
6.2640004 -1.696095 0.18187186 0
6.2740002 -1.6565266 0.1708975 0
6.2710004 -1.6662942 0.17101654 0
6.2690005 -1.6763288 0.17109589 0
6.2660003 -1.6860765 0.17121497 0
6.2640004 -1.696095 0.17129432 0
6.2740002 -1.6565266 0.16030192 0
6.2710004 -1.6662942 0.16042638 0
6.2690005 -1.6763288 0.16050933 0
6.2660003 -1.6860765 0.16063383 0
6.2640004 -1.696095 0.16071679 0
6.2740002 -1.6565266 0.14970636 0
6.2710004 -1.6662942 0.14983621 0
6.2690005 -1.6763288 0.14992279 0
6.2660003 -1.6860765 0.1500527 0
6.2640004 -1.696095 0.15013924 0
6.2740002 -1.6565266 0.13911077 0
6.2710004 -1.6662942 0.13924605 0
6.2690005 -1.6763288 0.13933626 0
6.2660003 -1.6860765 0.13947153 0
6.2640004 -1.696095 0.13956174 0
6.2740002 -1.6565266 0.12851521 0
6.2720003 -1.6665702 0.128609 0
6.2690005 -1.6763288 0.1287497 0
6.2660003 -1.6860765 0.1288904 0
6.2640004 -1.696095 0.12898421 0
6.2740002 -1.6565266 0.11791962 0
6.2720003 -1.6665702 0.11801705 0
6.2690005 -1.6763288 0.11816314 0
6.2660003 -1.6860765 0.11830926 0
6.2640004 -1.696095 0.11840668 0
6.2740002 -1.6565266 0.10732409 0
6.2720003 -1.6665702 0.10742509 0
6.2690005 -1.6763288 0.10757658 0
6.2660003 -1.6860765 0.10772812 0
6.2640004 -1.696095 0.10782912 0
6.2740002 -1.6565266 0.096728504 0
6.2720003 -1.6665702 0.09683311 0
6.2690005 -1.6763288 0.096990019 0
6.2660003 -1.6860765 0.097146988 0
6.2640004 -1.696095 0.097251594 0
6.2740002 -1.6565266 0.086132944 0
6.2720003 -1.6665702 0.086241156 0
6.2690005 -1.6763288 0.086403489 0
6.2660003 -1.6860765 0.086565822 0
6.2640004 -1.696095 0.086674064 0
6.2740002 -1.6565266 0.075537354 0
6.2720003 -1.6665702 0.075649172 0
6.2690005 -1.6763288 0.075816959 0
6.2660003 -1.6860765 0.075984716 0
6.2640004 -1.696095 0.076096535 0
6.2740002 -1.6565266 0.064941794 0
6.2720003 -1.6665702 0.065057248 0
6.2690005 -1.6763288 0.065230399 0
6.2660003 -1.6860765 0.065403581 0
6.2640004 -1.696095 0.065519005 0
