# .PCD v0.7 - Point Cloud Data file format
VERSION 0.7
FIELDS x y z intensity
SIZE 4 4 4 4
TYPE F F F F
COUNT 1 1 1 1
WIDTH 1452
HEIGHT 1
VIEWPOINT 0 0 0 1 0 0 0
POINTS 1452
DATA ascii
2.9840002 -1.4489732 1.2383262 0
2.9820001 -1.4525446 1.2376804 0
2.9790003 -1.4555626 1.2367119 0
2.9770002 -1.4591178 1.2360661 0
2.9750001 -1.4626658 1.2354203 0
2.9720001 -1.4656547 1.2344517 0
2.9700003 -1.4691867 1.2338059 0
2.9670002 -1.4721557 1.2328373 0
2.9650002 -1.4756713 1.2321914 0
2.9630003 -1.4791799 1.2315458 0
2.9600003 -1.4821199 1.2305771 0
2.9580002 -1.485612 1.2299314 0
2.9560003 -1.4890971 1.2292856 0
2.9530003 -1.4920086 1.2283169 0
2.9510002 -1.4954772 1.2276711 0
2.9490001 -1.4989387 1.2270254 0
2.9460001 -1.5018212 1.2260567 0
2.9440002 -1.5052664 1.2254111 0
2.9420002 -1.5087044 1.2247652 0
3.0040002 -1.4222552 1.2400868 0
3.0010002 -1.4253613 1.2391236 0
2.9990003 -1.4289888 1.2384814 0
2.9960003 -1.4320751 1.2375182 0
2.9940002 -1.4356863 1.236876 0
2.9910002 -1.4387528 1.2359128 0
2.9890003 -1.4423479 1.2352706 0
2.9870002 -1.4459356 1.2346284 0
2.9840002 -1.4489732 1.2336652 0
2.9820001 -1.4525446 1.233023 0
2.9790003 -1.4555626 1.2320598 0
2.9770002 -1.4591178 1.2314177 0
2.9750001 -1.4626658 1.2307755 0
2.9720001 -1.4656547 1.2298123 0
2.9700003 -1.4691867 1.2291701 0
2.9670002 -1.4721557 1.2282069 0
2.9650002 -1.4756713 1.2275647 0
2.9630003 -1.4791799 1.2269226 0
2.9600003 -1.4821199 1.2259593 0
2.9580002 -1.485612 1.2253171 0
2.9560003 -1.4890971 1.2246751 0
2.9530003 -1.4920086 1.2237118 0
2.9510002 -1.4954772 1.2230697 0
2.9490001 -1.4989387 1.2224275 0
2.9460001 -1.5018212 1.2214642 0
2.9440002 -1.5052664 1.2208221 0
2.9420002 -1.5087044 1.2201799 0
3.0040002 -1.4222552 1.2353897 0
3.0010002 -1.4253613 1.2344319 0
2.9990003 -1.4289888 1.2337934 0
2.9960003 -1.4320751 1.2328355 0
2.9940002 -1.4356863 1.2321969 0
2.9910002 -1.4387528 1.2312391 0
2.9890003 -1.4423479 1.2306006 0
2.9870002 -1.4459356 1.229962 0
2.9840002 -1.4489732 1.2290041 0
2.9820001 -1.4525446 1.2283657 0
2.9790003 -1.4555626 1.2274078 0
2.9770002 -1.4591178 1.2267693 0
2.9750001 -1.4626658 1.2261306 0
2.9720001 -1.4656547 1.2251729 0
2.9700003 -1.4691867 1.2245344 0
2.9670002 -1.4721557 1.2235765 0
2.9650002 -1.4756713 1.2229379 0
2.9630003 -1.4791799 1.2222995 0
2.9600003 -1.4821199 1.2213416 0
2.9580002 -1.485612 1.220703 0
2.9560003 -1.4890971 1.2200645 0
2.9530003 -1.4920086 1.2191067 0
2.9510002 -1.4954772 1.2184681 0
2.9490001 -1.4989387 1.2178296 0
2.9460001 -1.5018212 1.2168717 0
2.9440002 -1.5052664 1.2162333 0
2.9420002 -1.5087044 1.2155946 0
3.0040002 -1.4222552 1.2306925 0
3.0010002 -1.4253613 1.2297401 0
2.9990003 -1.4289888 1.2291052 0
2.9960003 -1.4320751 1.2281528 0
2.9940002 -1.4356863 1.2275178 0
2.9910002 -1.4387528 1.2265655 0
2.9890003 -1.4423479 1.2259305 0
2.9870002 -1.4459356 1.2252955 0
2.9840002 -1.4489732 1.2243432 0
2.9820001 -1.4525446 1.2237082 0
2.9790003 -1.4555626 1.2227558 0
2.9770002 -1.4591178 1.2221209 0
2.9750001 -1.4626658 1.2214859 0
2.9720001 -1.4656547 1.2205335 0
2.9700003 -1.4691867 1.2198986 0
2.9670002 -1.4721557 1.2189461 0
2.9650002 -1.4756713 1.2183112 0
2.9630003 -1.4791799 1.2176763 0
2.9600003 -1.4821199 1.2167239 0
2.9580002 -1.485612 1.2160889 0
2.9560003 -1.4890971 1.215454 0
2.9530003 -1.4920086 1.2145016 0
2.9510002 -1.4954772 1.2138666 0
2.9490001 -1.4989387 1.2132317 0
2.9460001 -1.5018212 1.2122792 0
2.9440002 -1.5052664 1.2116443 0
2.9420002 -1.5087044 1.2110094 0
3.0040002 -1.4222552 1.2259954 0
3.0010002 -1.4253613 1.2250484 0
2.9990003 -1.4289888 1.2244171 0
2.9960003 -1.4320751 1.2234701 0
2.9940002 -1.4356863 1.2228388 0
2.9910002 -1.4387528 1.2218918 0
2.9890003 -1.4423479 1.2212604 0
2.9870002 -1.4459356 1.2206291 0
2.9840002 -1.4489732 1.2196821 0
2.9820001 -1.4525446 1.2190508 0
2.9790003 -1.4555626 1.2181038 0
2.9770002 -1.4591178 1.2174724 0
2.9750001 -1.4626658 1.2168411 0
2.9720001 -1.4656547 1.2158941 0
2.9700003 -1.4691867 1.2152628 0
2.9670002 -1.4721557 1.2143158 0
2.9650002 -1.4756713 1.2136844 0
2.9630003 -1.4791799 1.2130531 0
2.9600003 -1.4821199 1.2121061 0
2.9580002 -1.485612 1.2114748 0
2.9560003 -1.4890971 1.2108434 0
2.9530003 -1.4920086 1.2098964 0
2.9510002 -1.4954772 1.2092651 0
2.9490001 -1.4989387 1.2086338 0
2.9460001 -1.5018212 1.2076867 0
2.9440002 -1.5052664 1.2070554 0
2.9420002 -1.5087044 1.2064241 0
3.0040002 -1.4222552 1.2212983 0
3.0010002 -1.4253613 1.2203567 0
2.9990003 -1.4289888 1.2197291 0
2.9960003 -1.4320751 1.2187874 0
2.9940002 -1.4356863 1.2181597 0
2.9910002 -1.4387528 1.217218 0
2.9890003 -1.4423479 1.2165904 0
2.9870002 -1.4459356 1.2159626 0
2.9840002 -1.4489732 1.215021 0
2.9820001 -1.4525446 1.2143933 0
2.9790003 -1.4555626 1.2134517 0
2.9770002 -1.4591178 1.212824 0
2.9750001 -1.4626658 1.2121962 0
2.9720001 -1.4656547 1.2112547 0
2.9700003 -1.4691867 1.210627 0
2.9670002 -1.4721557 1.2096854 0
2.9650002 -1.4756713 1.2090576 0
2.9630003 -1.4791799 1.2084299 0
2.9600003 -1.4821199 1.2074884 0
2.9580002 -1.485612 1.2068607 0
2.9560003 -1.4890971 1.2062329 0
2.9530003 -1.4920086 1.2052914 0
2.9510002 -1.4954772 1.2046636 0
2.9490001 -1.4989387 1.2040359 0
2.9460001 -1.5018212 1.2030942 0
2.9440002 -1.5052664 1.2024666 0
2.9420002 -1.5087044 1.2018389 0
3.0040002 -1.4222552 1.2166011 0
3.0010002 -1.4253613 1.215665 0
2.9990003 -1.4289888 1.2150409 0
2.9960003 -1.4320751 1.2141048 0
2.9940002 -1.4356863 1.2134806 0
2.9910002 -1.4387528 1.2125444 0
2.9890003 -1.4423479 1.2119204 0
2.9870002 -1.4459356 1.2112962 0
2.9840002 -1.4489732 1.2103601 0
2.9820001 -1.4525446 1.2097359 0
2.9790003 -1.4555626 1.2087998 0
2.9770002 -1.4591178 1.2081755 0
2.9750001 -1.4626658 1.2075515 0
2.9720001 -1.4656547 1.2066152 0
2.9700003 -1.4691867 1.2059911 0
2.9670002 -1.4721557 1.205055 0
2.9650002 -1.4756713 1.2044308 0
2.9630003 -1.4791799 1.2038069 0
2.9600003 -1.4821199 1.2028706 0
2.9580002 -1.485612 1.2022465 0
2.9560003 -1.4890971 1.2016224 0
2.9530003 -1.4920086 1.2006862 0
2.9510002 -1.4954772 1.200062 0
2.9490001 -1.4989387 1.1994379 0
2.9460001 -1.5018212 1.1985017 0
2.9440002 -1.5052664 1.1978776 0
2.9420002 -1.5087044 1.1972536 0
3.0040002 -1.4222552 1.211904 0
3.0010002 -1.4253613 1.2109733 0
2.9990003 -1.4289888 1.2103529 0
2.9960003 -1.4320751 1.209422 0
2.9940002 -1.4356863 1.2088015 0
2.9910002 -1.4387528 1.2078707 0
2.9890003 -1.4423479 1.2072502 0
2.9870002 -1.4459356 1.2066298 0
2.9840002 -1.4489732 1.205699 0
2.9820001 -1.4525446 1.2050785 0
2.9790003 -1.4555626 1.2041477 0
2.9770002 -1.4591178 1.2035272 0
2.9750001 -1.4626658 1.2029066 0
2.9720001 -1.4656547 1.2019759 0
2.9700003 -1.4691867 1.2013555 0
2.9670002 -1.4721557 1.2004247 0
2.9650002 -1.4756713 1.1998042 0
2.9630003 -1.4791799 1.1991836 0
2.9600003 -1.4821199 1.1982529 0
2.9580002 -1.485612 1.1976323 0
2.9560003 -1.4890971 1.1970118 0
2.9530003 -1.4920086 1.196081 0
2.9510002 -1.4954772 1.1954606 0
2.9490001 -1.4989387 1.1948401 0
2.9460001 -1.5018212 1.1939092 0
2.9440002 -1.5052664 1.1932888 0
2.9420002 -1.5087044 1.1926682 0
3.0040002 -1.4222552 1.207207 0
3.0010002 -1.4253613 1.2062817 0
2.9990003 -1.4289888 1.2056648 0
2.9960003 -1.4320751 1.2047395 0
2.9940002 -1.4356863 1.2041224 0
2.9910002 -1.4387528 1.2031971 0
2.9890003 -1.4423479 1.2025802 0
2.9870002 -1.4459356 1.2019633 0
2.9840002 -1.4489732 1.2010379 0
2.9820001 -1.4525446 1.200421 0
2.9790003 -1.4555626 1.1994957 0
2.9770002 -1.4591178 1.1988788 0
2.9750001 -1.4626658 1.1982619 0
2.9720001 -1.4656547 1.1973366 0
2.9700003 -1.4691867 1.1967196 0
2.9670002 -1.4721557 1.1957942 0
2.9650002 -1.4756713 1.1951773 0
2.9630003 -1.4791799 1.1945605 0
2.9600003 -1.4821199 1.1936351 0
2.9580002 -1.485612 1.1930182 0
2.9560003 -1.4890971 1.1924014 0
2.9530003 -1.4920086 1.191476 0
2.9510002 -1.4954772 1.1908591 0
2.9490001 -1.4989387 1.1902421 0
2.9460001 -1.5018212 1.1893167 0
2.9440002 -1.5052664 1.1886998 0
2.9420002 -1.5087044 1.1880829 0
3.0040002 -1.4222552 1.2025099 0
3.0010002 -1.4253613 1.2015899 0
2.9990003 -1.4289888 1.2009766 0
2.9960003 -1.4320751 1.2000567 0
2.9940002 -1.4356863 1.1994433 0
2.9910002 -1.4387528 1.1985234 0
2.9890003 -1.4423479 1.1979102 0
2.9870002 -1.4459356 1.1972969 0
2.9840002 -1.4489732 1.1963769 0
2.9820001 -1.4525446 1.1957636 0
2.9790003 -1.4555626 1.1948438 0
2.9770002 -1.4591178 1.1942303 0
2.9750001 -1.4626658 1.193617 0
2.9720001 -1.4656547 1.192697 0
2.9700003 -1.4691867 1.1920838 0
2.9670002 -1.4721557 1.1911639 0
2.9650002 -1.4756713 1.1905506 0
2.9630003 -1.4791799 1.1899374 0
2.9600003 -1.4821199 1.1890174 0
2.9580002 -1.485612 1.1884041 0
2.9560003 -1.4890971 1.1877909 0
2.9530003 -1.4920086 1.1868708 0
2.9510002 -1.4954772 1.1862575 0
2.9490001 -1.4989387 1.1856443 0
2.9460001 -1.5018212 1.1847242 0
2.9440002 -1.5052664 1.184111 0
2.9420002 -1.5087044 1.1834977 0
3.0040002 -1.4222552 1.1978127 0
3.0010002 -1.4253613 1.1968981 0
2.9990003 -1.4289888 1.1962886 0
2.9960003 -1.4320751 1.195374 0
2.9940002 -1.4356863 1.1947643 0
2.9910002 -1.4387528 1.1938498 0
2.9890003 -1.4423479 1.1932402 0
2.9870002 -1.4459356 1.1926304 0
2.9840002 -1.4489732 1.1917158 0
2.9820001 -1.4525446 1.1911061 0
2.9790003 -1.4555626 1.1901916 0
2.9770002 -1.4591178 1.189582 0
2.9750001 -1.4626658 1.1889722 0
2.9720001 -1.4656547 1.1880577 0
2.9700003 -1.4691867 1.187448 0
2.9670002 -1.4721557 1.1865336 0
2.9650002 -1.4756713 1.1859238 0
2.9630003 -1.4791799 1.1853142 0
2.9600003 -1.4821199 1.1843996 0
2.9580002 -1.485612 1.1837898 0
2.9560003 -1.4890971 1.1831803 0
2.9530003 -1.4920086 1.1822658 0
2.9510002 -1.4954772 1.181656 0
2.9490001 -1.4989387 1.1810462 0
2.9460001 -1.5018212 1.1801318 0
2.9440002 -1.5052664 1.1795222 0
2.9420002 -1.5087044 1.1789124 0
3.0040002 -1.4222552 1.1931156 0
3.0010002 -1.4253613 1.1922065 0
2.9990003 -1.4289888 1.1916004 0
2.9960003 -1.4320751 1.1906912 0
2.9940002 -1.4356863 1.1900852 0
2.9910002 -1.4387528 1.1891761 0
2.9890003 -1.4423479 1.18857 0
2.9870002 -1.4459356 1.187964 0
2.9840002 -1.4489732 1.1870549 0
2.9820001 -1.4525446 1.1864487 0
2.9790003 -1.4555626 1.1855396 0
2.9770002 -1.4591178 1.1849335 0
2.9750001 -1.4626658 1.1843275 0
2.9720001 -1.4656547 1.1834183 0
2.9700003 -1.4691867 1.1828123 0
2.9670002 -1.4721557 1.1819031 0
2.9650002 -1.4756713 1.1812971 0
2.9630003 -1.4791799 1.180691 0
2.9600003 -1.4821199 1.1797818 0
2.9580002 -1.485612 1.1791757 0
2.9560003 -1.4890971 1.1785698 0
2.9530003 -1.4920086 1.1776606 0
2.9510002 -1.4954772 1.1770545 0
2.9490001 -1.4989387 1.1764483 0
2.9460001 -1.5018212 1.1755393 0
2.9440002 -1.5052664 1.1749332 0
2.9420002 -1.5087044 1.1743271 0
3.0040002 -1.4222552 1.1884185 0
3.0010002 -1.4253613 1.1875148 0
2.9990003 -1.4289888 1.1869124 0
2.9960003 -1.4320751 1.1860087 0
2.9940002 -1.4356863 1.1854061 0
2.9910002 -1.4387528 1.1845025 0
2.9890003 -1.4423479 1.1839 0
2.9870002 -1.4459356 1.1832975 0
2.9840002 -1.4489732 1.1823938 0
2.9820001 -1.4525446 1.1817913 0
2.9790003 -1.4555626 1.1808877 0
2.9770002 -1.4591178 1.1802851 0
2.9750001 -1.4626658 1.1796826 0
2.9720001 -1.4656547 1.1787789 0
2.9700003 -1.4691867 1.1781765 0
2.9670002 -1.4721557 1.1772728 0
2.9650002 -1.4756713 1.1766703 0
2.9630003 -1.4791799 1.1760678 0
2.9600003 -1.4821199 1.1751641 0
2.9580002 -1.485612 1.1745616 0
2.9560003 -1.4890971 1.1739593 0
2.9530003 -1.4920086 1.1730555 0
2.9510002 -1.4954772 1.172453 0
2.9490001 -1.4989387 1.1718506 0
2.9460001 -1.5018212 1.1709468 0
2.9440002 -1.5052664 1.1703444 0
2.9420002 -1.5087044 1.1697419 0
3.0040002 -1.4222552 1.1837213 0
3.0010002 -1.4253613 1.1828231 0
2.9990003 -1.4289888 1.1822243 0
2.9960003 -1.4320751 1.1813259 0
2.9940002 -1.4356863 1.180727 0
2.9910002 -1.4387528 1.1798288 0
2.9890003 -1.4423479 1.17923 0
2.9870002 -1.4459356 1.1786311 0
2.9840002 -1.4489732 1.1777327 0
2.9820001 -1.4525446 1.1771338 0
2.9790003 -1.4555626 1.1762356 0
2.9770002 -1.4591178 1.1756366 0
2.9750001 -1.4626658 1.1750379 0
2.9720001 -1.4656547 1.1741395 0
2.9700003 -1.4691867 1.1735407 0
2.9670002 -1.4721557 1.1726425 0
2.9650002 -1.4756713 1.1720434 0
2.9630003 -1.4791799 1.1714447 0
2.9600003 -1.4821199 1.1705464 0
2.9580002 -1.485612 1.1699475 0
2.9560003 -1.4890971 1.1693487 0
2.9530003 -1.4920086 1.1684504 0
2.9510002 -1.4954772 1.1678514 0
2.9490001 -1.4989387 1.1672525 0
2.9460001 -1.5018212 1.1663543 0
2.9440002 -1.5052664 1.1657554 0
2.9420002 -1.5087044 1.1651566 0
3.0040002 -1.4222552 1.1790242 0
3.0010002 -1.4253613 1.1781313 0
2.9990003 -1.4289888 1.1775361 0
2.9960003 -1.4320751 1.1766433 0
2.9940002 -1.4356863 1.1760479 0
2.9910002 -1.4387528 1.175155 0
2.9890003 -1.4423479 1.1745598 0
2.9870002 -1.4459356 1.1739646 0
2.9840002 -1.4489732 1.1730717 0
2.9820001 -1.4525446 1.1724764 0
2.9790003 -1.4555626 1.1715835 0
2.9770002 -1.4591178 1.1709883 0
2.9750001 -1.4626658 1.170393 0
2.9720001 -1.4656547 1.1695001 0
2.9700003 -1.4691867 1.1689049 0
2.9670002 -1.4721557 1.168012 0
2.9650002 -1.4756713 1.1674167 0
2.9630003 -1.4791799 1.1668215 0
2.9600003 -1.4821199 1.1659286 0
2.9580002 -1.485612 1.1653334 0
2.9560003 -1.4890971 1.1647382 0
2.9530003 -1.4920086 1.1638452 0
2.9510002 -1.4954772 1.16325 0
2.9490001 -1.4989387 1.1626546 0
2.9460001 -1.5018212 1.1617618 0
2.9440002 -1.5052664 1.1611665 0
2.9420002 -1.5087044 1.1605713 0
3.0040002 -1.4222552 1.1743271 0
3.0010002 -1.4253613 1.1734396 0
2.9990003 -1.4289888 1.172848 0
2.9960003 -1.4320751 1.1719606 0
2.9940002 -1.4356863 1.1713688 0
2.9910002 -1.4387528 1.1704814 0
2.9890003 -1.4423479 1.1698898 0
2.9870002 -1.4459356 1.1692982 0
2.9840002 -1.4489732 1.1684107 0
2.9820001 -1.4525446 1.1678189 0
2.9790003 -1.4555626 1.1669315 0
2.9770002 -1.4591178 1.1663399 0
2.9750001 -1.4626658 1.1657482 0
2.9720001 -1.4656547 1.1648607 0
2.9700003 -1.4691867 1.1642691 0
2.9670002 -1.4721557 1.1633817 0
2.9650002 -1.4756713 1.1627899 0
2.9630003 -1.4791799 1.1621983 0
2.9600003 -1.4821199 1.1613109 0
2.9580002 -1.485612 1.1607193 0
2.9560003 -1.4890971 1.1601276 0
2.9530003 -1.4920086 1.1592401 0
2.9510002 -1.4954772 1.1586484 0
2.9490001 -1.4989387 1.1580567 0
2.9460001 -1.5018212 1.1571693 0
2.9440002 -1.5052664 1.1565777 0
2.9420002 -1.5087044 1.155986 0
3.0040002 -1.4222552 1.1696301 0
3.0010002 -1.4253613 1.1687479 0
2.9990003 -1.4289888 1.16816 0
2.9960003 -1.4320751 1.1672779 0
2.9940002 -1.4356863 1.1666899 0
2.9910002 -1.4387528 1.1658077 0
2.9890003 -1.4423479 1.1652198 0
2.9870002 -1.4459356 1.1646317 0
2.9840002 -1.4489732 1.1637496 0
2.9820001 -1.4525446 1.1631615 0
2.9790003 -1.4555626 1.1622796 0
2.9770002 -1.4591178 1.1616914 0
2.9750001 -1.4626658 1.1611034 0
2.9720001 -1.4656547 1.1602213 0
2.9700003 -1.4691867 1.1596334 0
2.9670002 -1.4721557 1.1587512 0
2.9650002 -1.4756713 1.1581632 0
2.9630003 -1.4791799 1.1575752 0
2.9600003 -1.4821199 1.1566931 0
2.9580002 -1.485612 1.156105 0
2.9560003 -1.4890971 1.1555171 0
2.9530003 -1.4920086 1.154635 0
2.9510002 -1.4954772 1.1540469 0
2.9490001 -1.4989387 1.1534588 0
2.9460001 -1.5018212 1.1525768 0
2.9440002 -1.5052664 1.1519887 0
2.9420002 -1.5087044 1.1514007 0
3.0040002 -1.4222552 1.164933 0
3.0010002 -1.4253613 1.1640562 0
2.9990003 -1.4289888 1.1634718 0
2.9960003 -1.4320751 1.1625952 0
2.9940002 -1.4356863 1.1620108 0
2.9910002 -1.4387528 1.161134 0
2.9890003 -1.4423479 1.1605496 0
2.9870002 -1.4459356 1.1599653 0
2.9840002 -1.4489732 1.1590886 0
2.9820001 -1.4525446 1.1585041 0
2.9790003 -1.4555626 1.1576275 0
2.9770002 -1.4591178 1.1570431 0
2.9750001 -1.4626658 1.1564586 0
2.9720001 -1.4656547 1.155582 0
2.9700003 -1.4691867 1.1549976 0
2.9670002 -1.4721557 1.1541209 0
2.9650002 -1.4756713 1.1535364 0
2.9630003 -1.4791799 1.1529521 0
2.9600003 -1.4821199 1.1520754 0
2.9580002 -1.485612 1.1514909 0
2.9560003 -1.4890971 1.1509066 0
2.9530003 -1.4920086 1.1500299 0
2.9510002 -1.4954772 1.1494454 0
2.9490001 -1.4989387 1.1488609 0
2.9460001 -1.5018212 1.1479843 0
2.9440002 -1.5052664 1.1473999 0
2.9420002 -1.5087044 1.1468154 0
3.0040002 -1.4222552 1.1602358 0
3.0010002 -1.4253613 1.1593646 0
2.9990003 -1.4289888 1.1587838 0
2.9960003 -1.4320751 1.1579125 0
2.9940002 -1.4356863 1.1573316 0
2.9910002 -1.4387528 1.1564604 0
2.9890003 -1.4423479 1.1558796 0
2.9870002 -1.4459356 1.1552987 0
2.9840002 -1.4489732 1.1544275 0
2.9820001 -1.4525446 1.1538466 0
2.9790003 -1.4555626 1.1529754 0
2.9770002 -1.4591178 1.1523947 0
2.9750001 -1.4626658 1.1518137 0
2.9720001 -1.4656547 1.1509426 0
2.9700003 -1.4691867 1.1503618 0
2.9670002 -1.4721557 1.1494905 0
2.9650002 -1.4756713 1.1489097 0
2.9630003 -1.4791799 1.1483289 0
2.9600003 -1.4821199 1.1474576 0
2.9580002 -1.485612 1.1468768 0
2.9560003 -1.4890971 1.146296 0
2.9530003 -1.4920086 1.1454247 0
2.9510002 -1.4954772 1.1448439 0
2.9490001 -1.4989387 1.144263 0
2.9460001 -1.5018212 1.1433918 0
2.9440002 -1.5052664 1.1428109 0
2.9420002 -1.5087044 1.1422302 0
3.0040002 -1.4222552 1.1555387 0
3.0010002 -1.4253613 1.1546729 0
2.9990003 -1.4289888 1.1540956 0
2.9960003 -1.4320751 1.1532298 0
2.9940002 -1.4356863 1.1526526 0
2.9910002 -1.4387528 1.1517867 0
2.9890003 -1.4423479 1.1512096 0
2.9870002 -1.4459356 1.1506323 0
2.9840002 -1.4489732 1.1497664 0
2.9820001 -1.4525446 1.1491892 0
2.9790003 -1.4555626 1.1483235 0
2.9770002 -1.4591178 1.1477462 0
2.9750001 -1.4626658 1.147169 0
2.9720001 -1.4656547 1.1463032 0
2.9700003 -1.4691867 1.145726 0
2.9670002 -1.4721557 1.1448601 0
2.9650002 -1.4756713 1.1442829 0
2.9630003 -1.4791799 1.1437057 0
2.9600003 -1.4821199 1.1428399 0
2.9580002 -1.485612 1.1422627 0
2.9560003 -1.4890971 1.1416855 0
2.9530003 -1.4920086 1.1408197 0
2.9510002 -1.4954772 1.1402425 0
2.9490001 -1.4989387 1.1396651 0
2.9460001 -1.5018212 1.1387993 0
2.9440002 -1.5052664 1.1382221 0
2.9420002 -1.5087044 1.1376449 0
3.0040002 -1.4222552 1.1508416 0
3.0010002 -1.4253613 1.1499811 0
2.9990003 -1.4289888 1.1494075 0
2.9960003 -1.4320751 1.1485472 0
2.9940002 -1.4356863 1.1479735 0
2.9910002 -1.4387528 1.1471131 0
2.9890003 -1.4423479 1.1465394 0
2.9870002 -1.4459356 1.1459658 0
2.9840002 -1.4489732 1.1451055 0
2.9820001 -1.4525446 1.1445318 0
2.9790003 -1.4555626 1.1436714 0
2.9770002 -1.4591178 1.1430978 0
2.9750001 -1.4626658 1.1425242 0
2.9720001 -1.4656547 1.1416638 0
2.9700003 -1.4691867 1.1410902 0
2.9670002 -1.4721557 1.1402297 0
2.9650002 -1.4756713 1.1396562 0
2.9630003 -1.4791799 1.1390826 0
2.9600003 -1.4821199 1.1382221 0
2.9580002 -1.485612 1.1376485 0
2.9560003 -1.4890971 1.1370749 0
2.9530003 -1.4920086 1.1362145 0
2.9510002 -1.4954772 1.1356409 0
2.9490001 -1.4989387 1.1350672 0
2.9460001 -1.5018212 1.1342068 0
2.9440002 -1.5052664 1.1336333 0
2.9420002 -1.5087044 1.1330596 0
3.0040002 -1.4222552 1.1461444 0
3.0010002 -1.4253613 1.1452894 0
2.9990003 -1.4289888 1.1447195 0
2.9960003 -1.4320751 1.1438644 0
2.9940002 -1.4356863 1.1432945 0
2.9910002 -1.4387528 1.1424394 0
2.9890003 -1.4423479 1.1418694 0
2.9870002 -1.4459356 1.1412995 0
2.9840002 -1.4489732 1.1404444 0
2.9820001 -1.4525446 1.1398743 0
2.9790003 -1.4555626 1.1390194 0
2.9770002 -1.4591178 1.1384494 0
2.9750001 -1.4626658 1.1378794 0
2.9720001 -1.4656547 1.1370244 0
2.9700003 -1.4691867 1.1364543 0
2.9670002 -1.4721557 1.1355994 0
2.9650002 -1.4756713 1.1350294 0
2.9630003 -1.4791799 1.1344594 0
2.9600003 -1.4821199 1.1336044 0
2.9580002 -1.485612 1.1330343 0
2.9560003 -1.4890971 1.1324644 0
2.9530003 -1.4920086 1.1316093 0
2.9510002 -1.4954772 1.1310394 0
2.9490001 -1.4989387 1.1304693 0
2.9460001 -1.5018212 1.1296144 0
2.9440002 -1.5052664 1.1290444 0
2.9420002 -1.5087044 1.1284744 0
3.0040002 -1.4222552 1.1414473 0
3.0010002 -1.4253613 1.1405977 0
2.9990003 -1.4289888 1.1400313 0
2.9960003 -1.4320751 1.1391817 0
2.9940002 -1.4356863 1.1386154 0
2.9910002 -1.4387528 1.1377658 0
2.9890003 -1.4423479 1.1371994 0
2.9870002 -1.4459356 1.1366329 0
2.9840002 -1.4489732 1.1357833 0
2.9820001 -1.4525446 1.135217 0
2.9790003 -1.4555626 1.1343675 0
2.9770002 -1.4591178 1.133801 0
2.9750001 -1.4626658 1.1332345 0
2.9720001 -1.4656547 1.132385 0
2.9700003 -1.4691867 1.1318187 0
2.9670002 -1.4721557 1.130969 0
2.9650002 -1.4756713 1.1304026 0
2.9630003 -1.4791799 1.1298362 0
2.9600003 -1.4821199 1.1289866 0
2.9580002 -1.485612 1.1284202 0
2.9560003 -1.4890971 1.1278539 0
2.9530003 -1.4920086 1.1270043 0
2.9510002 -1.4954772 1.1264378 0
2.9490001 -1.4989387 1.1258714 0
2.9460001 -1.5018212 1.1250218 0
2.9440002 -1.5052664 1.1244555 0
2.9420002 -1.5087044 1.123889 0
3.0040002 -1.4222552 1.1367502 0
3.0010002 -1.4253613 1.135906 0
2.9990003 -1.4289888 1.1353433 0
2.9960003 -1.4320751 1.1344991 0
2.9940002 -1.4356863 1.1339363 0
2.9910002 -1.4387528 1.133092 0
2.9890003 -1.4423479 1.1325294 0
2.9870002 -1.4459356 1.1319665 0
2.9840002 -1.4489732 1.1311224 0
2.9820001 -1.4525446 1.1305594 0
2.9790003 -1.4555626 1.1297154 0
2.9770002 -1.4591178 1.1291525 0
2.9750001 -1.4626658 1.1285897 0
2.9720001 -1.4656547 1.1277455 0
2.9700003 -1.4691867 1.1271828 0
2.9670002 -1.4721557 1.1263386 0
2.9650002 -1.4756713 1.1257758 0
2.9630003 -1.4791799 1.125213 0
2.9600003 -1.4821199 1.1243689 0
2.9580002 -1.485612 1.123806 0
2.9560003 -1.4890971 1.1232433 0
2.9530003 -1.4920086 1.1223991 0
2.9510002 -1.4954772 1.1218363 0
2.9490001 -1.4989387 1.1212735 0
2.9460001 -1.5018212 1.1204293 0
2.9440002 -1.5052664 1.1198666 0
2.9420002 -1.5087044 1.1193037 0
3.0040002 -1.4222552 1.1320531 0
3.0010002 -1.4253613 1.1312143 0
2.9990003 -1.4289888 1.1306552 0
2.9960003 -1.4320751 1.1298164 0
2.9940002 -1.4356863 1.1292572 0
2.9910002 -1.4387528 1.1284184 0
2.9890003 -1.4423479 1.1278592 0
2.9870002 -1.4459356 1.1273 0
2.9840002 -1.4489732 1.1264613 0
2.9820001 -1.4525446 1.1259021 0
2.9790003 -1.4555626 1.1250633 0
2.9770002 -1.4591178 1.1245042 0
2.9750001 -1.4626658 1.123945 0
2.9720001 -1.4656547 1.1231061 0
2.9700003 -1.4691867 1.122547 0
2.9670002 -1.4721557 1.1217083 0
2.9650002 -1.4756713 1.1211491 0
2.9630003 -1.4791799 1.12059 0
2.9600003 -1.4821199 1.1197511 0
2.9580002 -1.485612 1.1191919 0
2.9560003 -1.4890971 1.1186328 0
2.9530003 -1.4920086 1.117794 0
2.9510002 -1.4954772 1.1172348 0
2.9490001 -1.4989387 1.1166756 0
2.9460001 -1.5018212 1.1158369 0
2.9440002 -1.5052664 1.1152778 0
2.9420002 -1.5087044 1.1147184 0
3.0040002 -1.4222552 1.1273559 0
3.0010002 -1.4253613 1.1265227 0
2.9990003 -1.4289888 1.125967 0
2.9960003 -1.4320751 1.1251338 0
2.9940002 -1.4356863 1.1245781 0
2.9910002 -1.4387528 1.1237447 0
2.9890003 -1.4423479 1.1231892 0
2.9870002 -1.4459356 1.1226336 0
2.9840002 -1.4489732 1.1218002 0
2.9820001 -1.4525446 1.1212447 0
2.9790003 -1.4555626 1.1204114 0
2.9770002 -1.4591178 1.1198558 0
2.9750001 -1.4626658 1.1193001 0
2.9720001 -1.4656547 1.1184669 0
2.9700003 -1.4691867 1.1179112 0
2.9670002 -1.4721557 1.1170778 0
2.9650002 -1.4756713 1.1165223 0
2.9630003 -1.4791799 1.1159668 0
2.9600003 -1.4821199 1.1151334 0
2.9580002 -1.485612 1.1145778 0
2.9560003 -1.4890971 1.1140223 0
2.9530003 -1.4920086 1.1131889 0
2.9510002 -1.4954772 1.1126332 0
2.9490001 -1.4989387 1.1120777 0
2.9460001 -1.5018212 1.1112443 0
2.9440002 -1.5052664 1.1106888 0
2.9420002 -1.5087044 1.1101332 0
3.0040002 -1.4222552 1.1226588 0
3.0010002 -1.4253613 1.1218309 0
2.9990003 -1.4289888 1.121279 0
2.9960003 -1.4320751 1.120451 0
2.9940002 -1.4356863 1.119899 0
2.9910002 -1.4387528 1.119071 0
2.9890003 -1.4423479 1.1185192 0
2.9870002 -1.4459356 1.1179671 0
2.9840002 -1.4489732 1.1171392 0
2.9820001 -1.4525446 1.1165872 0
2.9790003 -1.4555626 1.1157594 0
2.9770002 -1.4591178 1.1152073 0
2.9750001 -1.4626658 1.1146554 0
2.9720001 -1.4656547 1.1138273 0
2.9700003 -1.4691867 1.1132754 0
2.9670002 -1.4721557 1.1124475 0
2.9650002 -1.4756713 1.1118956 0
2.9630003 -1.4791799 1.1113436 0
2.9600003 -1.4821199 1.1105156 0
2.9580002 -1.485612 1.1099637 0
2.9560003 -1.4890971 1.1094117 0
2.9530003 -1.4920086 1.1085838 0
2.9510002 -1.4954772 1.1080317 0
2.9490001 -1.4989387 1.1074798 0
2.9460001 -1.5018212 1.1066518 0
2.9440002 -1.5052664 1.1061 0
2.9420002 -1.5087044 1.1055479 0
3.0040002 -1.4222552 1.1179618 0
3.0010002 -1.4253613 1.1171392 0
2.9990003 -1.4289888 1.1165909 0
2.9960003 -1.4320751 1.1157683 0
2.9940002 -1.4356863 1.11522 0
2.9910002 -1.4387528 1.1143974 0
2.9890003 -1.4423479 1.1138492 0
2.9870002 -1.4459356 1.1133007 0
2.9840002 -1.4489732 1.1124781 0
2.9820001 -1.4525446 1.1119298 0
2.9790003 -1.4555626 1.1111072 0
2.9770002 -1.4591178 1.1105589 0
2.9750001 -1.4626658 1.1100105 0
2.9720001 -1.4656547 1.109188 0
2.9700003 -1.4691867 1.1086396 0
2.9670002 -1.4721557 1.1078172 0
2.9650002 -1.4756713 1.1072687 0
2.9630003 -1.4791799 1.1067204 0
2.9600003 -1.4821199 1.1058979 0
2.9580002 -1.485612 1.1053495 0
2.9560003 -1.4890971 1.1048012 0
2.9530003 -1.4920086 1.1039786 0
2.9510002 -1.4954772 1.1034303 0
2.9490001 -1.4989387 1.1028819 0
2.9460001 -1.5018212 1.1020594 0
2.9440002 -1.5052664 1.101511 0
2.9420002 -1.5087044 1.1009626 0
3.0040002 -1.4222552 1.1132646 0
3.0010002 -1.4253613 1.1124475 0
2.9990003 -1.4289888 1.1119028 0
2.9960003 -1.4320751 1.1110857 0
2.9940002 -1.4356863 1.1105409 0
2.9910002 -1.4387528 1.1097237 0
2.9890003 -1.4423479 1.109179 0
2.9870002 -1.4459356 1.1086342 0
2.9840002 -1.4489732 1.1078172 0
2.9820001 -1.4525446 1.1072723 0
2.9790003 -1.4555626 1.1064553 0
2.9770002 -1.4591178 1.1059105 0
2.9750001 -1.4626658 1.1053658 0
2.9720001 -1.4656547 1.1045486 0
2.9700003 -1.4691867 1.1040039 0
2.9670002 -1.4721557 1.1031867 0
2.9650002 -1.4756713 1.1026419 0
2.9630003 -1.4791799 1.1020973 0
2.9600003 -1.4821199 1.1012801 0
2.9580002 -1.485612 1.1007354 0
2.9560003 -1.4890971 1.1001906 0
2.9530003 -1.4920086 1.0993735 0
2.9510002 -1.4954772 1.0988288 0
2.9490001 -1.4989387 1.098284 0
2.9460001 -1.5018212 1.0974668 0
2.9440002 -1.5052664 1.0969222 0
2.9420002 -1.5087044 1.0963774 0
3.0040002 -1.4222552 1.1085675 0
3.0010002 -1.4253613 1.1077558 0
2.9990003 -1.4289888 1.1072147 0
2.9960003 -1.4320751 1.106403 0
2.9940002 -1.4356863 1.1058618 0
2.9910002 -1.4387528 1.1050501 0
2.9890003 -1.4423479 1.104509 0
2.9870002 -1.4459356 1.1039678 0
2.9840002 -1.4489732 1.1031561 0
2.9820001 -1.4525446 1.1026149 0
2.9790003 -1.4555626 1.1018033 0
2.9770002 -1.4591178 1.1012621 0
2.9750001 -1.4626658 1.1007209 0
2.9720001 -1.4656547 1.0999092 0
2.9700003 -1.4691867 1.0993681 0
2.9670002 -1.4721557 1.0985564 0
2.9650002 -1.4756713 1.0980152 0
2.9630003 -1.4791799 1.0974741 0
2.9600003 -1.4821199 1.0966624 0
2.9580002 -1.485612 1.0961212 0
2.9560003 -1.4890971 1.0955801 0
2.9530003 -1.4920086 1.0947684 0
2.9510002 -1.4954772 1.0942272 0
2.9490001 -1.4989387 1.0936861 0
2.9460001 -1.5018212 1.0928743 0
2.9440002 -1.5052664 1.0923333 0
2.9420002 -1.5087044 1.0917921 0
3.0040002 -1.4222552 1.1038704 0
3.0010002 -1.4253613 1.1030641 0
2.9990003 -1.4289888 1.1025265 0
2.9960003 -1.4320751 1.1017202 0
2.9940002 -1.4356863 1.1011827 0
2.9910002 -1.4387528 1.1003764 0
2.9890003 -1.4423479 1.099839 0
2.9870002 -1.4459356 1.0993013 0
2.9840002 -1.4489732 1.098495 0
2.9820001 -1.4525446 1.0979575 0
2.9790003 -1.4555626 1.0971513 0
2.9770002 -1.4591178 1.0966136 0
2.9750001 -1.4626658 1.0960761 0
2.9720001 -1.4656547 1.0952698 0
2.9700003 -1.4691867 1.0947323 0
2.9670002 -1.4721557 1.0939261 0
2.9650002 -1.4756713 1.0933884 0
2.9630003 -1.4791799 1.0928509 0
2.9600003 -1.4821199 1.0920447 0
2.9580002 -1.485612 1.0915071 0
2.9560003 -1.4890971 1.0909696 0
2.9530003 -1.4920086 1.0901632 0
2.9510002 -1.4954772 1.0896257 0
2.9490001 -1.4989387 1.0890882 0
2.9460001 -1.5018212 1.0882819 0
2.9440002 -1.5052664 1.0877444 0
2.9420002 -1.5087044 1.0872067 0
3.0040002 -1.4222552 1.0991733 0
3.0010002 -1.4253613 1.0983723 0
2.9990003 -1.4289888 1.0978385 0
2.9960003 -1.4320751 1.0970376 0
2.9940002 -1.4356863 1.0965036 0
2.9910002 -1.4387528 1.0957028 0
2.9890003 -1.4423479 1.0951688 0
2.9870002 -1.4459356 1.0946349 0
2.9840002 -1.4489732 1.093834 0
2.9820001 -1.4525446 1.0933001 0
2.9790003 -1.4555626 1.0924993 0
2.9770002 -1.4591178 1.0919653 0
2.9750001 -1.4626658 1.0914313 0
2.9720001 -1.4656547 1.0906304 0
2.9700003 -1.4691867 1.0900965 0
2.9670002 -1.4721557 1.0892956 0
2.9650002 -1.4756713 1.0887617 0
2.9630003 -1.4791799 1.0882277 0
2.9600003 -1.4821199 1.0874269 0
2.9580002 -1.485612 1.086893 0
2.9560003 -1.4890971 1.086359 0
2.9530003 -1.4920086 1.0855582 0
2.9510002 -1.4954772 1.0850242 0
2.9490001 -1.4989387 1.0844903 0
2.9460001 -1.5018212 1.0836893 0
2.9440002 -1.5052664 1.0831555 0
2.9420002 -1.5087044 1.0826215 0
3.0040002 -1.4222552 1.0944762 0
3.0010002 -1.4253613 1.0936806 0
2.9990003 -1.4289888 1.0931504 0
2.9960003 -1.4320751 1.0923549 0
2.9940002 -1.4356863 1.0918245 0
2.9910002 -1.4387528 1.091029 0
2.9890003 -1.4423479 1.0904988 0
2.9870002 -1.4459356 1.0899684 0
2.9840002 -1.4489732 1.089173 0
2.9820001 -1.4525446 1.0886426 0
2.9790003 -1.4555626 1.0878472 0
2.9770002 -1.4591178 1.0873169 0
2.9750001 -1.4626658 1.0867865 0
2.9720001 -1.4656547 1.085991 0
2.9700003 -1.4691867 1.0854608 0
2.9670002 -1.4721557 1.0846653 0
2.9650002 -1.4756713 1.0841349 0
2.9630003 -1.4791799 1.0836046 0
2.9600003 -1.4821199 1.0828092 0
2.9580002 -1.485612 1.0822787 0
2.9560003 -1.4890971 1.0817485 0
2.9530003 -1.4920086 1.080953 0
2.9510002 -1.4954772 1.0804226 0
2.9490001 -1.4989387 1.0798924 0
2.9460001 -1.5018212 1.0790968 0
2.9440002 -1.5052664 1.0785666 0
2.9420002 -1.5087044 1.0780362 0
3.0040002 -1.4222552 1.089779 0
3.0010002 -1.4253613 1.0889889 0
2.9990003 -1.4289888 1.0884624 0
2.9960003 -1.4320751 1.0876722 0
2.9940002 -1.4356863 1.0871454 0
2.9910002 -1.4387528 1.0863554 0
2.9890003 -1.4423479 1.0858287 0
2.9870002 -1.4459356 1.085302 0
2.9840002 -1.4489732 1.0845119 0
2.9820001 -1.4525446 1.0839852 0
2.9790003 -1.4555626 1.0831952 0
2.9770002 -1.4591178 1.0826684 0
2.9750001 -1.4626658 1.0821418 0
2.9720001 -1.4656547 1.0813516 0
2.9700003 -1.4691867 1.080825 0
2.9670002 -1.4721557 1.0800349 0
2.9650002 -1.4756713 1.0795082 0
2.9630003 -1.4791799 1.0789815 0
2.9600003 -1.4821199 1.0781914 0
2.9580002 -1.485612 1.0776646 0
2.9560003 -1.4890971 1.0771379 0
2.9530003 -1.4920086 1.0763479 0
2.9510002 -1.4954772 1.0758212 0
2.9490001 -1.4989387 1.0752944 0
2.9460001 -1.5018212 1.0745044 0
2.9440002 -1.5052664 1.0739777 0
2.9420002 -1.5087044 1.0734509 0
3.0040002 -1.4222552 1.0850819 0
3.0010002 -1.4253613 1.0842973 0
2.9990003 -1.4289888 1.0837742 0
2.9960003 -1.4320751 1.0829895 0
2.9940002 -1.4356863 1.0824664 0
2.9910002 -1.4387528 1.0816817 0
2.9890003 -1.4423479 1.0811586 0
2.9870002 -1.4459356 1.0806355 0
2.9840002 -1.4489732 1.0798509 0
2.9820001 -1.4525446 1.0793278 0
2.9790003 -1.4555626 1.0785432 0
2.9770002 -1.4591178 1.07802 0
2.9750001 -1.4626658 1.0774969 0
2.9720001 -1.4656547 1.0767123 0
2.9700003 -1.4691867 1.0761892 0
2.9670002 -1.4721557 1.0754045 0
2.9650002 -1.4756713 1.0748814 0
2.9630003 -1.4791799 1.0743583 0
2.9600003 -1.4821199 1.0735736 0
2.9580002 -1.485612 1.0730505 0
2.9560003 -1.4890971 1.0725274 0
2.9530003 -1.4920086 1.0717428 0
2.9510002 -1.4954772 1.0712197 0
2.9490001 -1.4989387 1.0706966 0
2.9460001 -1.5018212 1.0699118 0
2.9440002 -1.5052664 1.0693889 0
2.9420002 -1.5087044 1.0688657 0
3.0040002 -1.4222552 1.0803849 0
3.0010002 -1.4253613 1.0796056 0
2.9990003 -1.4289888 1.0790861 0
2.9960003 -1.4320751 1.0783069 0
2.9940002 -1.4356863 1.0777873 0
2.9910002 -1.4387528 1.077008 0
2.9890003 -1.4423479 1.0764886 0
2.9870002 -1.4459356 1.0759691 0
2.9840002 -1.4489732 1.0751898 0
2.9820001 -1.4525446 1.0746703 0
2.9790003 -1.4555626 1.0738912 0
2.9770002 -1.4591178 1.0733716 0
2.9750001 -1.4626658 1.0728521 0
2.9720001 -1.4656547 1.0720729 0
2.9700003 -1.4691867 1.0715533 0
2.9670002 -1.4721557 1.0707741 0
2.9650002 -1.4756713 1.0702546 0
2.9630003 -1.4791799 1.0697352 0
2.9600003 -1.4821199 1.0689559 0
2.9580002 -1.485612 1.0684364 0
2.9560003 -1.4890971 1.0679169 0
2.9530003 -1.4920086 1.0671376 0
2.9510002 -1.4954772 1.0666182 0
2.9490001 -1.4989387 1.0660986 0
2.9460001 -1.5018212 1.0653194 0
2.9440002 -1.5052664 1.0647999 0
2.9420002 -1.5087044 1.0642804 0
3.0040002 -1.4222552 1.0756876 0
3.0010002 -1.4253613 1.0749139 0
2.9990003 -1.4289888 1.074398 0
2.9960003 -1.4320751 1.0736241 0
2.9940002 -1.4356863 1.0731082 0
2.9910002 -1.4387528 1.0723344 0
2.9890003 -1.4423479 1.0718185 0
2.9870002 -1.4459356 1.0713027 0
2.9840002 -1.4489732 1.0705289 0
2.9820001 -1.4525446 1.0700129 0
2.9790003 -1.4555626 1.0692391 0
2.9770002 -1.4591178 1.0687232 0
2.9750001 -1.4626658 1.0682073 0
2.9720001 -1.4656547 1.0674335 0
2.9700003 -1.4691867 1.0669175 0
2.9670002 -1.4721557 1.0661438 0
2.9650002 -1.4756713 1.0656278 0
2.9630003 -1.4791799 1.065112 0
2.9600003 -1.4821199 1.0643381 0
2.9580002 -1.485612 1.0638223 0
2.9560003 -1.4890971 1.0633063 0
2.9530003 -1.4920086 1.0625325 0
2.9510002 -1.4954772 1.0620166 0
2.9490001 -1.4989387 1.0615007 0
2.9460001 -1.5018212 1.0607269 0
2.9440002 -1.5052664 1.0602111 0
2.9420002 -1.5087044 1.0596951 0
3.0040002 -1.4222552 1.0709906 0
3.0010002 -1.4253613 1.0702221 0
2.9990003 -1.4289888 1.0697099 0
2.9960003 -1.4320751 1.0689415 0
2.9940002 -1.4356863 1.0684292 0
2.9910002 -1.4387528 1.0676607 0
2.9890003 -1.4423479 1.0671484 0
2.9870002 -1.4459356 1.0666362 0
2.9840002 -1.4489732 1.0658678 0
2.9820001 -1.4525446 1.0653554 0
2.9790003 -1.4555626 1.0645871 0
2.9770002 -1.4591178 1.0640748 0
2.9750001 -1.4626658 1.0635624 0
2.9720001 -1.4656547 1.0627941 0
2.9700003 -1.4691867 1.0622818 0
2.9670002 -1.4721557 1.0615133 0
2.9650002 -1.4756713 1.0610011 0
2.9630003 -1.4791799 1.0604888 0
2.9600003 -1.4821199 1.0597204 0
2.9580002 -1.485612 1.0592082 0
2.9560003 -1.4890971 1.0586958 0
2.9530003 -1.4920086 1.0579274 0
2.9510002 -1.4954772 1.0574151 0
2.9490001 -1.4989387 1.0569028 0
2.9460001 -1.5018212 1.0561345 0
2.9440002 -1.5052664 1.0556221 0
2.9420002 -1.5087044 1.0551099 0
3.0040002 -1.4222552 1.0662935 0
3.0010002 -1.4253613 1.0655304 0
2.9990003 -1.4289888 1.0650219 0
2.9960003 -1.4320751 1.0642588 0
2.9940002 -1.4356863 1.0637501 0
2.9910002 -1.4387528 1.0629871 0
2.9890003 -1.4423479 1.0624784 0
2.9870002 -1.4459356 1.0619698 0
2.9840002 -1.4489732 1.0612067 0
2.9820001 -1.4525446 1.060698 0
2.9790003 -1.4555626 1.0599351 0
2.9770002 -1.4591178 1.0594264 0
2.9750001 -1.4626658 1.0589176 0
2.9720001 -1.4656547 1.0581547 0
2.9700003 -1.4691867 1.057646 0
2.9670002 -1.4721557 1.056883 0
2.9650002 -1.4756713 1.0563743 0
2.9630003 -1.4791799 1.0558656 0
2.9600003 -1.4821199 1.0551026 0
2.9580002 -1.485612 1.0545939 0
2.9560003 -1.4890971 1.0540853 0
2.9530003 -1.4920086 1.0533223 0
2.9510002 -1.4954772 1.0528135 0
2.9490001 -1.4989387 1.0523049 0
2.9460001 -1.5018212 1.0515419 0
2.9440002 -1.5052664 1.0510333 0
2.9420002 -1.5087044 1.0505245 0
3.0040002 -1.4222552 1.0615963 0
3.0010002 -1.4253613 1.0608387 0
2.9990003 -1.4289888 1.0603337 0
2.9960003 -1.4320751 1.0595762 0
2.9940002 -1.4356863 1.0590709 0
2.9910002 -1.4387528 1.0583134 0
2.9890003 -1.4423479 1.0578084 0
2.9870002 -1.4459356 1.0573033 0
2.9840002 -1.4489732 1.0565456 0
2.9820001 -1.4525446 1.0560406 0
2.9790003 -1.4555626 1.0552831 0
2.9770002 -1.4591178 1.054778 0
2.9750001 -1.4626658 1.0542729 0
2.9720001 -1.4656547 1.0535153 0
2.9700003 -1.4691867 1.0530102 0
2.9670002 -1.4721557 1.0522527 0
2.9650002 -1.4756713 1.0517476 0
2.9630003 -1.4791799 1.0512425 0
2.9600003 -1.4821199 1.0504849 0
2.9580002 -1.485612 1.0499798 0
2.9560003 -1.4890971 1.0494747 0
2.9530003 -1.4920086 1.0487173 0
2.9510002 -1.4954772 1.0482121 0
2.9490001 -1.4989387 1.047707 0
2.9460001 -1.5018212 1.0469494 0
2.9440002 -1.5052664 1.0464444 0
2.9420002 -1.5087044 1.0459392 0
3.0040002 -1.4222552 1.0568992 0
3.0010002 -1.4253613 1.056147 0
2.9990003 -1.4289888 1.0556456 0
2.9960003 -1.4320751 1.0548934 0
2.9940002 -1.4356863 1.0543919 0
2.9910002 -1.4387528 1.0536398 0
2.9890003 -1.4423479 1.0531383 0
2.9870002 -1.4459356 1.0526369 0
2.9840002 -1.4489732 1.0518847 0
2.9820001 -1.4525446 1.0513831 0
2.9790003 -1.4555626 1.050631 0
2.9770002 -1.4591178 1.0501295 0
2.9750001 -1.4626658 1.049628 0
2.9720001 -1.4656547 1.0488758 0
2.9700003 -1.4691867 1.0483744 0
2.9670002 -1.4721557 1.0476222 0
2.9650002 -1.4756713 1.0471208 0
2.9630003 -1.4791799 1.0466193 0
2.9600003 -1.4821199 1.0458672 0
2.9580002 -1.485612 1.0453657 0
2.9560003 -1.4890971 1.0448642 0
2.9530003 -1.4920086 1.0441121 0
2.9510002 -1.4954772 1.0436106 0
2.9490001 -1.4989387 1.0431091 0
2.9460001 -1.5018212 1.042357 0
2.9440002 -1.5052664 1.0418555 0
2.9420002 -1.5087044 1.0413539 0
3.0040002 -1.4222552 1.0522021 0
3.0010002 -1.4253613 1.0514554 0
2.9990003 -1.4289888 1.0509574 0
2.9960003 -1.4320751 1.0502107 0
2.9940002 -1.4356863 1.0497129 0
2.9910002 -1.4387528 1.0489661 0
2.9890003 -1.4423479 1.0484682 0
2.9870002 -1.4459356 1.0479704 0
2.9840002 -1.4489732 1.0472236 0
2.9820001 -1.4525446 1.0467257 0
2.9790003 -1.4555626 1.045979 0
2.9770002 -1.4591178 1.0454811 0
2.9750001 -1.4626658 1.0449833 0
2.9720001 -1.4656547 1.0442364 0
2.9700003 -1.4691867 1.0437387 0
2.9670002 -1.4721557 1.0429919 0
2.9650002 -1.4756713 1.0424939 0
2.9630003 -1.4791799 1.0419962 0
2.9600003 -1.4821199 1.0412494 0
2.9580002 -1.485612 1.0407515 0
2.9560003 -1.4890971 1.0402538 0
2.9530003 -1.4920086 1.0395069 0
2.9510002 -1.4954772 1.0390091 0
2.9490001 -1.4989387 1.0385112 0
2.9460001 -1.5018212 1.0377644 0
2.9440002 -1.5052664 1.0372666 0
2.9420002 -1.5087044 1.0367687 0
3.0040002 -1.4222552 1.047505 0
3.0010002 -1.4253613 1.0467637 0
2.9990003 -1.4289888 1.0462694 0
2.9960003 -1.4320751 1.0455281 0
2.9940002 -1.4356863 1.0450338 0
2.9910002 -1.4387528 1.0442924 0
2.9890003 -1.4423479 1.0437982 0
2.9870002 -1.4459356 1.0433038 0
2.9840002 -1.4489732 1.0425626 0
2.9820001 -1.4525446 1.0420682 0
2.9790003 -1.4555626 1.041327 0
2.9770002 -1.4591178 1.0408326 0
2.9750001 -1.4626658 1.0403384 0
2.9720001 -1.4656547 1.039597 0
2.9700003 -1.4691867 1.0391029 0
2.9670002 -1.4721557 1.0383614 0
2.9650002 -1.4756713 1.0378672 0
2.9630003 -1.4791799 1.0373731 0
2.9600003 -1.4821199 1.0366317 0
2.9580002 -1.485612 1.0361373 0
2.9560003 -1.4890971 1.0356432 0
2.9530003 -1.4920086 1.0349017 0
2.9510002 -1.4954772 1.0344076 0
2.9490001 -1.4989387 1.0339133 0
2.9460001 -1.5018212 1.0331719 0
2.9440002 -1.5052664 1.0326777 0
2.9420002 -1.5087044 1.0321834 0
3.0040002 -1.4222552 1.0428078 0
3.0010002 -1.4253613 1.0420719 0
2.9990003 -1.4289888 1.0415813 0
2.9960003 -1.4320751 1.0408454 0
2.9940002 -1.4356863 1.0403547 0
2.9910002 -1.4387528 1.0396187 0
2.9890003 -1.4423479 1.0391282 0
2.9870002 -1.4459356 1.0386375 0
2.9840002 -1.4489732 1.0379015 0
2.9820001 -1.4525446 1.0374109 0
2.9790003 -1.4555626 1.036675 0
2.9770002 -1.4591178 1.0361843 0
2.9750001 -1.4626658 1.0356936 0
2.9720001 -1.4656547 1.0349576 0
2.9700003 -1.4691867 1.0344671 0
2.9670002 -1.4721557 1.0337311 0
2.9650002 -1.4756713 1.0332404 0
2.9630003 -1.4791799 1.0327499 0
2.9600003 -1.4821199 1.0320139 0
2.9580002 -1.485612 1.0315232 0
2.9560003 -1.4890971 1.0310327 0
2.9530003 -1.4920086 1.0302967 0
2.9510002 -1.4954772 1.029806 0
2.9490001 -1.4989387 1.0293154 0
2.9460001 -1.5018212 1.0285795 0
2.9440002 -1.5052664 1.0280888 0
2.9420002 -1.5087044 1.0275981 0
3.0040002 -1.4222552 1.0381107 0
3.0010002 -1.4253613 1.0373802 0
2.9990003 -1.4289888 1.0368932 0
2.9960003 -1.4320751 1.0361626 0
2.9940002 -1.4356863 1.0356756 0
2.9910002 -1.4387528 1.034945 0
2.9890003 -1.4423479 1.034458 0
2.9870002 -1.4459356 1.0339711 0
2.9840002 -1.4489732 1.0332404 0
2.9820001 -1.4525446 1.0327535 0
2.9790003 -1.4555626 1.032023 0
2.9770002 -1.4591178 1.0315359 0
2.9750001 -1.4626658 1.0310488 0
2.9720001 -1.4656547 1.0303183 0
2.9700003 -1.4691867 1.0298313 0
2.9670002 -1.4721557 1.0291008 0
2.9650002 -1.4756713 1.0286137 0
2.9630003 -1.4791799 1.0281267 0
2.9600003 -1.4821199 1.0273962 0
2.9580002 -1.485612 1.0269091 0
2.9560003 -1.4890971 1.0264221 0
2.9530003 -1.4920086 1.0256915 0
2.9510002 -1.4954772 1.0252045 0
2.9490001 -1.4989387 1.0247175 0
2.9460001 -1.5018212 1.0239869 0
2.9440002 -1.5052664 1.0235 0
2.9420002 -1.5087044 1.0230129 0
3.0040002 -1.4222552 1.0334136 0
3.0010002 -1.4253613 1.0326885 0
2.9990003 -1.4289888 1.0322051 0
2.9960003 -1.4320751 1.03148 0
2.9940002 -1.4356863 1.0309966 0
2.9910002 -1.4387528 1.0302714 0
2.9890003 -1.4423479 1.029788 0
2.9870002 -1.4459356 1.0293046 0
2.9840002 -1.4489732 1.0285795 0
2.9820001 -1.4525446 1.028096 0
2.9790003 -1.4555626 1.0273709 0
2.9770002 -1.4591178 1.0268875 0
2.9750001 -1.4626658 1.026404 0
2.9720001 -1.4656547 1.0256789 0
2.9700003 -1.4691867 1.0251955 0
2.9670002 -1.4721557 1.0244703 0
2.9650002 -1.4756713 1.0239869 0
2.9630003 -1.4791799 1.0235035 0
2.9600003 -1.4821199 1.0227784 0
2.9580002 -1.485612 1.022295 0
2.9560003 -1.4890971 1.0218116 0
2.9530003 -1.4920086 1.0210865 0
2.9510002 -1.4954772 1.0206029 0
2.9490001 -1.4989387 1.0201195 0
2.9460001 -1.5018212 1.0193944 0
2.9440002 -1.5052664 1.018911 0
2.9420002 -1.5087044 1.0184276 0
3.0040002 -1.4222552 1.0287164 0
3.0010002 -1.4253613 1.0279968 0
2.9990003 -1.4289888 1.027517 0
2.9960003 -1.4320751 1.0267973 0
2.9940002 -1.4356863 1.0263175 0
2.9910002 -1.4387528 1.0255977 0
2.9890003 -1.4423479 1.025118 0
2.9870002 -1.4459356 1.0246381 0
2.9840002 -1.4489732 1.0239184 0
2.9820001 -1.4525446 1.0234386 0
2.9790003 -1.4555626 1.0227189 0
2.9770002 -1.4591178 1.0222391 0
2.9750001 -1.4626658 1.0217593 0
2.9720001 -1.4656547 1.0210395 0
2.9700003 -1.4691867 1.0205597 0
2.9670002 -1.4721557 1.01984 0
2.9650002 -1.4756713 1.0193602 0
2.9630003 -1.4791799 1.0188804 0
2.9600003 -1.4821199 1.0181606 0
2.9580002 -1.485612 1.0176809 0
2.9560003 -1.4890971 1.0172011 0
2.9530003 -1.4920086 1.0164814 0
2.9510002 -1.4954772 1.0160015 0
2.9490001 -1.4989387 1.0155216 0
2.9460001 -1.5018212 1.014802 0
2.9440002 -1.5052664 1.0143222 0
2.9420002 -1.5087044 1.0138423 0
3.0040002 -1.4222552 1.0240195 0
3.0010002 -1.4253613 1.0233051 0
2.9990003 -1.4289888 1.0228289 0
2.9960003 -1.4320751 1.0221146 0
2.9940002 -1.4356863 1.0216384 0
2.9910002 -1.4387528 1.0209241 0
2.9890003 -1.4423479 1.0204479 0
2.9870002 -1.4459356 1.0199716 0
2.9840002 -1.4489732 1.0192573 0
2.9820001 -1.4525446 1.0187812 0
2.9790003 -1.4555626 1.0180669 0
2.9770002 -1.4591178 1.0175906 0
2.9750001 -1.4626658 1.0171144 0
2.9720001 -1.4656547 1.0164001 0
2.9700003 -1.4691867 1.015924 0
2.9670002 -1.4721557 1.0152097 0
2.9650002 -1.4756713 1.0147334 0
2.9630003 -1.4791799 1.0142572 0
2.9600003 -1.4821199 1.0135429 0
2.9580002 -1.485612 1.0130666 0
2.9560003 -1.4890971 1.0125905 0
2.9530003 -1.4920086 1.0118762 0
2.9510002 -1.4954772 1.0114 0
2.9490001 -1.4989387 1.0109237 0
2.9460001 -1.5018212 1.0102094 0
2.9440002 -1.5052664 1.0097332 0
2.9420002 -1.5087044 1.0092571 0
3.0040002 -1.4222552 1.0193223 0
3.0010002 -1.4253613 1.0186135 0
2.9990003 -1.4289888 1.0181408 0
2.9960003 -1.4320751 1.0174319 0
2.9940002 -1.4356863 1.0169593 0
2.9910002 -1.4387528 1.0162504 0
2.9890003 -1.4423479 1.0157778 0
2.9870002 -1.4459356 1.0153052 0
2.9840002 -1.4489732 1.0145963 0
2.9820001 -1.4525446 1.0141237 0
2.9790003 -1.4555626 1.0134149 0
2.9770002 -1.4591178 1.0129422 0
2.9750001 -1.4626658 1.0124696 0
2.9720001 -1.4656547 1.0117607 0
2.9700003 -1.4691867 1.0112882 0
2.9670002 -1.4721557 1.0105792 0
2.9650002 -1.4756713 1.0101067 0
2.9630003 -1.4791799 1.009634 0
2.9600003 -1.4821199 1.0089252 0
2.9580002 -1.485612 1.0084525 0
2.9560003 -1.4890971 1.00798 0
2.9530003 -1.4920086 1.0072711 0
2.9510002 -1.4954772 1.0067985 0
2.9490001 -1.4989387 1.0063258 0
2.9460001 -1.5018212 1.0056169 0
2.9440002 -1.5052664 1.0051444 0
2.9420002 -1.5087044 1.0046718 0
3.0040002 -1.4222552 1.0146252 0
3.0010002 -1.4253613 1.0139216 0
2.9990003 -1.4289888 1.0134528 0
2.9960003 -1.4320751 1.0127492 0
2.9940002 -1.4356863 1.0122802 0
2.9910002 -1.4387528 1.0115768 0
2.9890003 -1.4423479 1.0111078 0
2.9870002 -1.4459356 1.0106388 0
2.9840002 -1.4489732 1.0099353 0
2.9820001 -1.4525446 1.0094663 0
2.9790003 -1.4555626 1.0087628 0
2.9770002 -1.4591178 1.0082937 0
2.9750001 -1.4626658 1.0078248 0
2.9720001 -1.4656547 1.0071213 0
2.9700003 -1.4691867 1.0066524 0
2.9670002 -1.4721557 1.0059489 0
2.9650002 -1.4756713 1.0054798 0
2.9630003 -1.4791799 1.005011 0
2.9600003 -1.4821199 1.0043074 0
2.9580002 -1.485612 1.0038384 0
2.9560003 -1.4890971 1.0033695 0
2.9530003 -1.4920086 1.0026659 0
2.9510002 -1.4954772 1.0021969 0
2.9490001 -1.4989387 1.0017279 0
2.9460001 -1.5018212 1.0010245 0
2.9440002 -1.5052664 1.0005555 0
2.9420002 -1.5087044 1.0000865 0
3.0040002 -1.4222552 1.0099281 0
3.0010002 -1.4253613 1.00923 0
2.9990003 -1.4289888 1.0087646 0
2.9960003 -1.4320751 1.0080665 0
2.9940002 -1.4356863 1.0076011 0
2.9910002 -1.4387528 1.0069031 0
2.9890003 -1.4423479 1.0064377 0
2.9870002 -1.4459356 1.0059723 0
2.9840002 -1.4489732 1.0052743 0
2.9820001 -1.4525446 1.0048088 0
2.9790003 -1.4555626 1.0041108 0
2.9770002 -1.4591178 1.0036454 0
2.9750001 -1.4626658 1.00318 0
2.9720001 -1.4656547 1.0024819 0
2.9700003 -1.4691867 1.0020165 0
2.9670002 -1.4721557 1.0013185 0
2.9650002 -1.4756713 1.0008531 0
2.9630003 -1.4791799 1.0003877 0
2.9600003 -1.4821199 0.9996897 0
2.9580002 -1.485612 0.99922431 0
2.9560003 -1.4890971 0.99875891 0
2.9530003 -1.4920086 0.99806082 0
2.9510002 -1.4954772 0.99759543 0
2.9490001 -1.4989387 0.99713004 0
2.9460001 -1.5018212 0.99643195 0
2.9440002 -1.5052664 0.99596655 0
2.9420002 -1.5087044 0.99550116 0
3.0040002 -1.4222552 1.0052309 0
3.0010002 -1.4253613 1.0045383 0
2.9990003 -1.4289888 1.0040765 0
2.9960003 -1.4320751 1.0033839 0
2.9940002 -1.4356863 1.0029221 0
2.9910002 -1.4387528 1.0022295 0
2.9890003 -1.4423479 1.0017676 0
2.9870002 -1.4459356 1.0013058 0
2.9840002 -1.4489732 1.0006132 0
2.9820001 -1.4525446 1.0001514 0
2.9790003 -1.4555626 0.99945879 0
2.9770002 -1.4591178 0.99899697 0
2.9750001 -1.4626658 0.99853516 0
2.9720001 -1.4656547 0.99784255 0
2.9700003 -1.4691867 0.99738073 0
2.9670002 -1.4721557 0.99668813 0
2.9650002 -1.4756713 0.99622631 0
2.9630003 -1.4791799 0.99576461 0
2.9600003 -1.4821199 0.99507189 0
2.9580002 -1.485612 0.99461007 0
2.9560003 -1.4890971 0.99414837 0
2.9530003 -1.4920086 0.99345565 0
2.9510002 -1.4954772 0.99299395 0
2.9490001 -1.4989387 0.99253213 0
2.9460001 -1.5018212 0.99183941 0
2.9440002 -1.5052664 0.99137771 0
2.9420002 -1.5087044 0.99091589 0
3.0040002 -1.4222552 1.0005338 0
3.0010002 -1.4253613 0.99984658 0
2.9990003 -1.4289888 0.99938846 0
2.9960003 -1.4320751 0.99870121 0
2.9940002 -1.4356863 0.99824297 0
2.9910002 -1.4387528 0.99755573 0
2.9890003 -1.4423479 0.99709761 0
2.9870002 -1.4459356 0.99663937 0
2.9840002 -1.4489732 0.99595213 0
2.9820001 -1.4525446 0.99549401 0
2.9790003 -1.4555626 0.99480677 0
2.9770002 -1.4591178 0.99434853 0
2.9750001 -1.4626658 0.9938904 0
2.9720001 -1.4656547 0.99320316 0
2.9700003 -1.4691867 0.99274492 0
2.9670002 -1.4721557 0.9920578 0
2.9650002 -1.4756713 0.99159956 0
2.9630003 -1.4791799 0.99114144 0
2.9600003 -1.4821199 0.9904542 0
2.9580002 -1.485612 0.98999596 0
2.9560003 -1.4890971 0.98953784 0
2.9530003 -1.4920086 0.98885059 0
2.9510002 -1.4954772 0.98839235 0
2.9490001 -1.4989387 0.98793423 0
2.9460001 -1.5018212 0.98724699 0
2.9440002 -1.5052664 0.98678875 0
2.9420002 -1.5087044 0.98633063 0
3.0040002 -1.4222552 0.99583673 0
3.0010002 -1.4253613 0.99515486 0
2.9990003 -1.4289888 0.99470031 0
2.9960003 -1.4320751 0.99401855 0
2.9940002 -1.4356863 0.99356389 0
2.9910002 -1.4387528 0.99288201 0
2.9890003 -1.4423479 0.99242747 0
2.9870002 -1.4459356 0.99197292 0
2.9840002 -1.4489732 0.99129117 0
2.9820001 -1.4525446 0.9908365 0
2.9790003 -1.4555626 0.99015474 0
2.9770002 -1.4591178 0.9897002 0
2.9750001 -1.4626658 0.98924553 0
2.9720001 -1.4656547 0.98856366 0
2.9700003 -1.4691867 0.98810923 0
2.9670002 -1.4721557 0.98742735 0
2.9650002 -1.4756713 0.98697281 0
2.9630003 -1.4791799 0.98651826 0
2.9600003 -1.4821199 0.98583639 0
2.9580002 -1.485612 0.98538184 0
2.9560003 -1.4890971 0.9849273 0
2.9530003 -1.4920086 0.98424554 0
2.9510002 -1.4954772 0.98379087 0
2.9490001 -1.4989387 0.98333633 0
2.9460001 -1.5018212 0.98265445 0
2.9440002 -1.5052664 0.98219991 0
2.9420002 -1.5087044 0.98174536 0
3.0040002 -1.4222552 0.99113953 0
3.0010002 -1.4253613 0.99046314 0
