# .PCD v0.7 - Point Cloud Data file format
VERSION 0.7
FIELDS x y z intensity
SIZE 4 4 4 4
TYPE F F F F
COUNT 1 1 1 1
WIDTH 1082
HEIGHT 1
VIEWPOINT 0 0 0 1 0 0 0
POINTS 1082
DATA ascii
4.9270005 2.5262396 2.3229725 0
4.9340005 2.5220387 2.3259397 0
4.9410005 2.5178123 2.328907 0
4.9200001 2.5304151 2.311852 0
4.9270005 2.5262396 2.3148067 0
4.9340005 2.5220387 2.3177612 0
4.9410005 2.5178123 2.3207159 0
4.9200001 2.5304151 2.3036985 0
4.9270005 2.5262396 2.3066409 0
4.9340005 2.5220387 2.3095827 0
4.9410005 2.5178123 2.3125248 0
4.9200001 2.5304151 2.2955453 0
4.9270005 2.5262396 2.298475 0
4.9340005 2.5220387 2.3014042 0
4.9410005 2.5178123 2.3043337 0
4.9200001 2.5304151 2.2873921 0
4.9270005 2.5262396 2.290309 0
4.9340005 2.5220387 2.293226 0
4.9410005 2.5178123 2.2961426 0
4.9200001 2.5304151 2.2792389 0
4.9270005 2.5262396 2.2821431 0
4.9340005 2.5220387 2.2850473 0
4.9410005 2.5178123 2.2879515 0
4.9200001 2.5304151 2.2710857 0
4.9270005 2.5262396 2.2739775 0
4.9340005 2.5220387 2.2768691 0
4.9410005 2.5178123 2.2797604 0
4.9200001 2.5304151 2.2629323 0
4.9270005 2.5262396 2.2658117 0
4.9340005 2.5220387 2.2686903 0
4.9410005 2.5178123 2.2715695 0
4.9200001 2.5304151 2.2547793 0
4.9270005 2.5262396 2.2576458 0
4.9340005 2.5220387 2.2605121 0
4.9410005 2.5178123 2.2633784 0
4.9200001 2.5304151 2.2466261 0
4.9270005 2.5262396 2.24948 0
4.9340005 2.5220387 2.2523334 0
4.9410005 2.5178123 2.2551873 0
4.9200001 2.5304151 2.2384729 0
4.9270005 2.5262396 2.2413139 0
4.9340005 2.5220387 2.2441549 0
4.9410005 2.5178123 2.2469959 0
4.9200001 2.5304151 2.2303197 0
4.9270005 2.5262396 2.2331481 0
4.9340005 2.5220387 2.2359765 0
4.9410005 2.5178123 2.2388048 0
4.9200001 2.5304151 2.2221665 0
4.9270005 2.5262396 2.2249825 0
4.9340005 2.5220387 2.227798 0
4.9410005 2.5178123 2.2306137 0
4.9200001 2.5304151 2.2140133 0
4.9270005 2.5262396 2.2168164 0
4.9340005 2.5220387 2.2196198 0
4.9410005 2.5178123 2.2224226 0
4.9200001 2.5304151 2.2058599 0
4.9270005 2.5262396 2.2086506 0
4.9340005 2.5220387 2.2114413 0
4.9410005 2.5178123 2.2142317 0
4.9200001 2.5304151 2.1977069 0
4.9270005 2.5262396 2.2004848 0
4.9340005 2.5220387 2.2032628 0
4.9410005 2.5178123 2.2060406 0
4.9200001 2.5304151 2.1895535 0
4.9270005 2.5262396 2.1923189 0
4.9340005 2.5220387 2.1950843 0
4.9410005 2.5178123 2.1978495 0
4.9200001 2.5304151 2.1814003 0
4.9270005 2.5262396 2.1841531 0
4.9340005 2.5220387 2.1869059 0
4.9410005 2.5178123 2.1896584 0
4.9200001 2.5304151 2.1732471 0
4.9270005 2.5262396 2.1759872 0
4.9340005 2.5220387 2.1787274 0
4.9410005 2.5178123 2.1814673 0
4.9200001 2.5304151 2.1650939 0
4.9270005 2.5262396 2.1678214 0
4.9340005 2.5220387 2.1705489 0
4.9410005 2.5178123 2.1732762 0
4.9200001 2.5304151 2.1569407 0
4.9270005 2.5262396 2.1596556 0
4.9340005 2.5220387 2.1623702 0
4.9410005 2.5178123 2.1650851 0
4.9200001 2.5304151 2.1487875 0
4.9270005 2.5262396 2.1514897 0
4.9340005 2.5220387 2.1541917 0
4.9410005 2.5178123 2.156894 0
4.9200001 2.5304151 2.1406343 0
4.9270005 2.5262396 2.1433239 0
4.9340005 2.5220387 2.1460135 0
4.9410005 2.5178123 2.1487029 0
4.9200001 2.5304151 2.1324811 0
4.9270005 2.5262396 2.1351581 0
4.9340005 2.5220387 2.137835 0
4.9410005 2.5178123 2.1405118 0
4.9200001 2.5304151 2.1243279 0
4.9270005 2.5262396 2.1269922 0
4.9340005 2.5220387 2.1296566 0
4.9410005 2.5178123 2.1323206 0
4.9200001 2.5304151 2.1161747 0
4.9270005 2.5262396 2.1188264 0
4.9340005 2.5220387 2.1214781 0
4.9410005 2.5178123 2.1241298 0
4.9200001 2.5304151 2.1080215 0
4.9270005 2.5262396 2.1106606 0
4.9340005 2.5220387 2.1132996 0
4.9410005 2.5178123 2.1159384 0
4.9200001 2.5304151 2.0998683 0
4.9270005 2.5262396 2.1024947 0
4.9340005 2.5220387 2.1051211 0
4.9410005 2.5178123 2.1077473 0
4.9200001 2.5304151 2.0917151 0
4.9270005 2.5262396 2.0943289 0
4.9340005 2.5220387 2.0969427 0
4.9410005 2.5178123 2.0995562 0
4.9200001 2.5304151 2.0835619 0
4.9270005 2.5262396 2.086163 0
4.9340005 2.5220387 2.0887642 0
4.9410005 2.5178123 2.0913651 0
4.9200001 2.5304151 2.0754085 0
4.9270005 2.5262396 2.0779972 0
4.9340005 2.5220387 2.0805857 0
4.9410005 2.5178123 2.0831742 0
4.9200001 2.5304151 2.0672555 0
4.9270005 2.5262396 2.0698314 0
4.9340005 2.5220387 2.0724072 0
4.9410005 2.5178123 2.0749831 0
4.9200001 2.5304151 2.0591023 0
4.9270005 2.5262396 2.0616655 0
4.9340005 2.5220387 2.0642288 0
4.9410005 2.5178123 2.066792 0
4.9200001 2.5304151 2.0509489 0
4.9270005 2.5262396 2.0534997 0
4.9340005 2.5220387 2.0560503 0
4.9410005 2.5178123 2.0586009 0
4.9200001 2.5304151 2.0427959 0
4.9270005 2.5262396 2.0453339 0
4.9340005 2.5220387 2.0478718 0
4.9410005 2.5178123 2.0504098 0
4.9200001 2.5304151 2.0346425 0
4.9270005 2.5262396 2.037168 0
4.9340005 2.5220387 2.0396934 0
4.9410005 2.5178123 2.0422187 0
4.9200001 2.5304151 2.0264893 0
4.9270005 2.5262396 2.0290022 0
4.9340005 2.5220387 2.0315149 0
4.9410005 2.5178123 2.0340276 0
4.9200001 2.5304151 2.0183361 0
4.9270005 2.5262396 2.0208364 0
4.9340005 2.5220387 2.0233364 0
4.9410005 2.5178123 2.0258365 0
4.9200001 2.5304151 2.0101829 0
4.9270005 2.5262396 2.0126705 0
4.9340005 2.5220387 2.0151579 0
4.9410005 2.5178123 2.0176454 0
4.9200001 2.5304151 2.0020297 0
4.9270005 2.5262396 2.0045047 0
4.9340005 2.5220387 2.0069795 0
4.9410005 2.5178123 2.0094543 0
4.9200001 2.5304151 1.9938766 0
4.9270005 2.5262396 1.9963388 0
4.9340005 2.5220387 1.9988011 0
4.9410005 2.5178123 2.0012631 0
4.9200001 2.5304151 1.9857234 0
4.9270005 2.5262396 1.9881731 0
4.9340005 2.5220387 1.9906226 0
4.9410005 2.5178123 1.9930723 0
4.9200001 2.5304151 1.9775701 0
4.9270005 2.5262396 1.9800072 0
4.9340005 2.5220387 1.9824442 0
4.9410005 2.5178123 1.9848812 0
4.9200001 2.5304151 1.9694169 0
4.9270005 2.5262396 1.9718413 0
4.9340005 2.5220387 1.9742657 0
4.9410005 2.5178123 1.9766899 0
4.9200001 2.5304151 1.9612637 0
4.9270005 2.5262396 1.9636756 0
4.9340005 2.5220387 1.9660872 0
4.9410005 2.5178123 1.9684988 0
4.9200001 2.5304151 1.9531105 0
4.9270005 2.5262396 1.9555097 0
4.9340005 2.5220387 1.9579087 0
4.9410005 2.5178123 1.9603077 0
4.9200001 2.5304151 1.9449573 0
4.9270005 2.5262396 1.9473438 0
4.9340005 2.5220387 1.9497303 0
4.9410005 2.5178123 1.9521167 0
4.9200001 2.5304151 1.9368041 0
4.9270005 2.5262396 1.939178 0
4.9340005 2.5220387 1.9415518 0
4.9410005 2.5178123 1.9439256 0
4.9200001 2.5304151 1.9286509 0
4.9270005 2.5262396 1.9310122 0
4.9340005 2.5220387 1.9333733 0
4.9410005 2.5178123 1.9357345 0
4.9200001 2.5304151 1.9204975 0
4.9270005 2.5262396 1.9228463 0
4.9340005 2.5220387 1.925195 0
4.9410005 2.5178123 1.9275435 0
4.9200001 2.5304151 1.9123445 0
4.9270005 2.5262396 1.9146805 0
4.9340005 2.5220387 1.9170165 0
4.9410005 2.5178123 1.9193524 0
4.9200001 2.5304151 1.9041911 0
4.9270005 2.5262396 1.9065146 0
4.9340005 2.5220387 1.908838 0
4.9410005 2.5178123 1.9111612 0
4.9200001 2.5304151 1.8960379 0
4.9270005 2.5262396 1.8983488 0
4.9340005 2.5220387 1.9006594 0
4.9410005 2.5178123 1.9029701 0
4.9200001 2.5304151 1.8878849 0
4.9270005 2.5262396 1.890183 0
4.9340005 2.5220387 1.892481 0
4.9410005 2.5178123 1.894779 0
4.9200001 2.5304151 1.8797315 0
4.9270005 2.5262396 1.8820171 0
4.9340005 2.5220387 1.8843025 0
4.9410005 2.5178123 1.886588 0
4.9200001 2.5304151 1.8715783 0
4.9270005 2.5262396 1.8738513 0
4.9340005 2.5220387 1.876124 0
4.9410005 2.5178123 1.8783969 0
4.9200001 2.5304151 1.8634251 0
4.9270005 2.5262396 1.8656855 0
4.9340005 2.5220387 1.8679456 0
4.9410005 2.5178123 1.8702058 0
4.9200001 2.5304151 1.8552719 0
4.9270005 2.5262396 1.8575196 0
4.9340005 2.5220387 1.8597671 0
4.9410005 2.5178123 1.8620148 0
4.9200001 2.5304151 1.8471186 0
4.9270005 2.5262396 1.8493537 0
4.9340005 2.5220387 1.8515887 0
4.9410005 2.5178123 1.8538237 0
4.9200001 2.5304151 1.8389655 0
4.9270005 2.5262396 1.841188 0
4.9340005 2.5220387 1.8434103 0
4.9410005 2.5178123 1.8456324 0
4.9200001 2.5304151 1.8308123 0
4.9270005 2.5262396 1.8330221 0
4.9340005 2.5220387 1.8352318 0
4.9410005 2.5178123 1.8374413 0
4.9200001 2.5304151 1.822659 0
4.9270005 2.5262396 1.8248562 0
4.9340005 2.5220387 1.8270533 0
4.9410005 2.5178123 1.8292502 0
4.9200001 2.5304151 1.8145059 0
4.9270005 2.5262396 1.8166904 0
4.9340005 2.5220387 1.8188748 0
4.9410005 2.5178123 1.8210592 0
4.9200001 2.5304151 1.8063526 0
4.9270005 2.5262396 1.8085245 0
4.9340005 2.5220387 1.8106964 0
4.9410005 2.5178123 1.8128681 0
4.9200001 2.5304151 1.7981994 0
4.9270005 2.5262396 1.8003588 0
4.9340005 2.5220387 1.8025179 0
4.9410005 2.5178123 1.804677 0
4.9200001 2.5304151 1.7900462 0
4.9270005 2.5262396 1.7921929 0
4.9340005 2.5220387 1.7943394 0
4.9410005 2.5178123 1.796486 0
4.9200001 2.5304151 1.781893 0
4.9270005 2.5262396 1.784027 0
4.9340005 2.5220387 1.7861609 0
4.9410005 2.5178123 1.7882949 0
4.9200001 2.5304151 1.7737398 0
4.9270005 2.5262396 1.7758613 0
4.9340005 2.5220387 1.7779825 0
4.9410005 2.5178123 1.7801038 0
4.9200001 2.5304151 1.7655866 0
4.9270005 2.5262396 1.7676954 0
4.9340005 2.5220387 1.769804 0
4.9410005 2.5178123 1.7719126 0
4.9200001 2.5304151 1.7574334 0
4.9270005 2.5262396 1.7595295 0
4.9340005 2.5220387 1.7616255 0
4.9410005 2.5178123 1.7637215 0
4.9200001 2.5304151 1.7492801 0
4.9270005 2.5262396 1.7513638 0
4.9340005 2.5220387 1.7534471 0
4.9410005 2.5178123 1.7555305 0
4.9200001 2.5304151 1.7411269 0
4.9270005 2.5262396 1.7431979 0
4.9340005 2.5220387 1.7452686 0
4.9410005 2.5178123 1.7473394 0
4.9200001 2.5304151 1.7329737 0
4.9270005 2.5262396 1.735032 0
4.9340005 2.5220387 1.7370901 0
4.9410005 2.5178123 1.7391483 0
4.9200001 2.5304151 1.7248205 0
4.9270005 2.5262396 1.7268662 0
4.9340005 2.5220387 1.7289116 0
4.9410005 2.5178123 1.7309573 0
4.9200001 2.5304151 1.7166673 0
4.9270005 2.5262396 1.7187003 0
4.9340005 2.5220387 1.7207332 0
4.9410005 2.5178123 1.7227662 0
4.9200001 2.5304151 1.7085141 0
4.9270005 2.5262396 1.7105345 0
4.9340005 2.5220387 1.7125547 0
4.9410005 2.5178123 1.7145751 0
4.9200001 2.5304151 1.7003609 0
4.9270005 2.5262396 1.7023687 0
4.9340005 2.5220387 1.7043763 0
4.9410005 2.5178123 1.7063838 0
4.9200001 2.5304151 1.6922076 0
4.9270005 2.5262396 1.6942028 0
4.9340005 2.5220387 1.6961979 0
4.9410005 2.5178123 1.6981927 0
4.9200001 2.5304151 1.6840545 0
4.9270005 2.5262396 1.6860369 0
4.9340005 2.5220387 1.6880194 0
4.9410005 2.5178123 1.6900017 0
4.9200001 2.5304151 1.6759013 0
4.9270005 2.5262396 1.6778711 0
4.9340005 2.5220387 1.6798409 0
4.9410005 2.5178123 1.6818106 0
4.9200001 2.5304151 1.667748 0
4.9270005 2.5262396 1.6697053 0
4.9340005 2.5220387 1.6716624 0
4.9410005 2.5178123 1.6736195 0
4.9200001 2.5304151 1.6595949 0
4.9270005 2.5262396 1.6615394 0
4.9340005 2.5220387 1.663484 0
4.9410005 2.5178123 1.6654285 0
4.9200001 2.5304151 1.6514416 0
4.9270005 2.5262396 1.6533736 0
4.9340005 2.5220387 1.6553055 0
4.9410005 2.5178123 1.6572374 0
4.9200001 2.5304151 1.6432884 0
4.9270005 2.5262396 1.6452078 0
4.9340005 2.5220387 1.647127 0
4.9410005 2.5178123 1.6490463 0
4.9200001 2.5304151 1.6351352 0
4.9270005 2.5262396 1.6370419 0
4.9340005 2.5220387 1.6389484 0
4.9410005 2.5178123 1.6408551 0
4.9200001 2.5304151 1.626982 0
4.9270005 2.5262396 1.6288761 0
4.9340005 2.5220387 1.6307701 0
4.9410005 2.5178123 1.632664 0
4.9200001 2.5304151 1.6188288 0
4.9270005 2.5262396 1.6207103 0
4.9340005 2.5220387 1.6225916 0
4.9410005 2.5178123 1.624473 0
4.9200001 2.5304151 1.6106756 0
4.9270005 2.5262396 1.6125444 0
4.9340005 2.5220387 1.6144131 0
4.9410005 2.5178123 1.6162819 0
4.9200001 2.5304151 1.6025224 0
4.9270005 2.5262396 1.6043786 0
4.9340005 2.5220387 1.6062347 0
4.9410005 2.5178123 1.6080908 0
4.9200001 2.5304151 1.5943691 0
4.9270005 2.5262396 1.5962127 0
4.9340005 2.5220387 1.5980562 0
4.9410005 2.5178123 1.5998998 0
4.9200001 2.5304151 1.586216 0
4.9270005 2.5262396 1.5880468 0
4.9340005 2.5220387 1.5898777 0
4.9410005 2.5178123 1.5917087 0
4.9200001 2.5304151 1.5780627 0
4.9270005 2.5262396 1.5798811 0
4.9340005 2.5220387 1.5816993 0
4.9410005 2.5178123 1.5835176 0
4.9200001 2.5304151 1.5699095 0
4.9270005 2.5262396 1.5717152 0
4.9340005 2.5220387 1.5735208 0
4.9410005 2.5178123 1.5753263 0
4.9200001 2.5304151 1.5617564 0
4.9270005 2.5262396 1.5635493 0
4.9340005 2.5220387 1.5653423 0
4.9410005 2.5178123 1.5671352 0
4.9200001 2.5304151 1.5536031 0
4.9270005 2.5262396 1.5553836 0
4.9340005 2.5220387 1.5571638 0
4.9410005 2.5178123 1.5589442 0
4.9200001 2.5304151 1.5454499 0
4.9270005 2.5262396 1.5472176 0
4.9340005 2.5220387 1.5489855 0
4.9410005 2.5178123 1.5507531 0
4.9200001 2.5304151 1.5372965 0
4.9270005 2.5262396 1.5390518 0
4.9340005 2.5220387 1.540807 0
4.9410005 2.5178123 1.542562 0
4.9200001 2.5304151 1.5291435 0
4.9270005 2.5262396 1.5308861 0
4.9340005 2.5220387 1.5326285 0
4.9410005 2.5178123 1.534371 0
4.9200001 2.5304151 1.5209901 0
4.9270005 2.5262396 1.5227201 0
4.9340005 2.5220387 1.5244501 0
4.9410005 2.5178123 1.5261799 0
4.9200001 2.5304151 1.5128369 0
4.9270005 2.5262396 1.5145543 0
4.9340005 2.5220387 1.5162715 0
4.9410005 2.5178123 1.5179888 0
4.9200001 2.5304151 1.5046839 0
4.9270005 2.5262396 1.5063885 0
4.9340005 2.5220387 1.508093 0
4.9410005 2.5178123 1.5097977 0
4.9200001 2.5304151 1.4965305 0
4.9270005 2.5262396 1.4982226 0
4.9340005 2.5220387 1.4999145 0
4.9410005 2.5178123 1.5016065 0
4.9200001 2.5304151 1.4883773 0
4.9270005 2.5262396 1.4900568 0
4.9340005 2.5220387 1.4917361 0
4.9410005 2.5178123 1.4934155 0
4.9200001 2.5304151 1.4802241 0
4.9270005 2.5262396 1.481891 0
4.9340005 2.5220387 1.4835576 0
4.9410005 2.5178123 1.4852244 0
4.9200001 2.5304151 1.4720709 0
4.9270005 2.5262396 1.4737251 0
4.9340005 2.5220387 1.4753792 0
4.9410005 2.5178123 1.4770333 0
4.9200001 2.5304151 1.4639176 0
4.9270005 2.5262396 1.4655594 0
4.9340005 2.5220387 1.4672008 0
4.9410005 2.5178123 1.4688423 0
4.9200001 2.5304151 1.4557645 0
4.9270005 2.5262396 1.4573934 0
4.9340005 2.5220387 1.4590223 0
4.9410005 2.5178123 1.4606512 0
4.9200001 2.5304151 1.4476113 0
4.9270005 2.5262396 1.4492276 0
4.9340005 2.5220387 1.4508438 0
4.9410005 2.5178123 1.4524601 0
4.9200001 2.5304151 1.439458 0
4.9270005 2.5262396 1.4410619 0
4.9340005 2.5220387 1.4426653 0
4.9410005 2.5178123 1.4442689 0
4.9200001 2.5304151 1.4313049 0
4.9270005 2.5262396 1.4328959 0
4.9340005 2.5220387 1.4344869 0
4.9410005 2.5178123 1.4360777 0
4.9200001 2.5304151 1.4231516 0
4.9270005 2.5262396 1.4247301 0
4.9340005 2.5220387 1.4263084 0
4.9410005 2.5178123 1.4278867 0
4.9200001 2.5304151 1.4149984 0
4.9270005 2.5262396 1.4165642 0
4.9340005 2.5220387 1.4181299 0
4.9410005 2.5178123 1.4196956 0
4.9200001 2.5304151 1.4068452 0
4.9270005 2.5262396 1.4083984 0
4.9340005 2.5220387 1.4099514 0
4.9410005 2.5178123 1.4115045 0
4.9200001 2.5304151 1.398692 0
4.9270005 2.5262396 1.4002326 0
4.9340005 2.5220387 1.401773 0
4.9410005 2.5178123 1.4033135 0
4.9200001 2.5304151 1.3905387 0
4.9270005 2.5262396 1.3920666 0
4.9340005 2.5220387 1.3935945 0
4.9410005 2.5178123 1.3951224 0
4.9200001 2.5304151 1.3823856 0
4.9270005 2.5262396 1.3839009 0
4.9340005 2.5220387 1.3854162 0
4.9410005 2.5178123 1.3869312 0
4.9200001 2.5304151 1.3742323 0
4.9270005 2.5262396 1.375735 0
4.9340005 2.5220387 1.3772376 0
4.9410005 2.5178123 1.3787401 0
4.9200001 2.5304151 1.3660791 0
4.9270005 2.5262396 1.3675691 0
4.9340005 2.5220387 1.3690591 0
4.9410005 2.5178123 1.370549 0
4.9200001 2.5304151 1.357926 0
4.9270005 2.5262396 1.3594034 0
4.9340005 2.5220387 1.3608806 0
4.9410005 2.5178123 1.362358 0
4.9200001 2.5304151 1.3497727 0
4.9270005 2.5262396 1.3512375 0
4.9340005 2.5220387 1.3527021 0
4.9410005 2.5178123 1.3541669 0
4.9200001 2.5304151 1.3416195 0
4.9270005 2.5262396 1.3430716 0
4.9340005 2.5220387 1.3445237 0
4.9410005 2.5178123 1.3459758 0
4.9200001 2.5304151 1.3334662 0
4.9270005 2.5262396 1.3349059 0
4.9340005 2.5220387 1.3363452 0
4.9410005 2.5178123 1.3377848 0
4.9200001 2.5304151 1.3253131 0
4.9270005 2.5262396 1.32674 0
4.9340005 2.5220387 1.3281667 0
4.9410005 2.5178123 1.3295937 0
4.9200001 2.5304151 1.3171599 0
4.9270005 2.5262396 1.3185741 0
4.9340005 2.5220387 1.3199883 0
4.9410005 2.5178123 1.3214024 0
4.9200001 2.5304151 1.3090067 0
4.9270005 2.5262396 1.3104082 0
4.9340005 2.5220387 1.3118099 0
4.9410005 2.5178123 1.3132113 0
4.9200001 2.5304151 1.3008535 0
4.9270005 2.5262396 1.3022424 0
4.9340005 2.5220387 1.3036314 0
4.9410005 2.5178123 1.3050203 0
4.9200001 2.5304151 1.2927002 0
4.9270005 2.5262396 1.2940766 0
4.9340005 2.5220387 1.295453 0
4.9410005 2.5178123 1.2968292 0
4.9200001 2.5304151 1.284547 0
4.9270005 2.5262396 1.2859107 0
4.9340005 2.5220387 1.2872745 0
4.9410005 2.5178123 1.2886381 0
4.9270005 2.5262396 1.2777449 0
4.9340005 2.5220387 1.2790959 0
4.9410005 2.5178123 1.280447 0
4.9270005 2.5262396 1.2695791 0
4.9340005 2.5220387 1.2709175 0
4.9410005 2.5178123 1.2722559 0
4.9480004 2.5135605 1.2735944 0
4.9270005 2.5262396 1.2614132 0
4.9340005 2.5220387 1.2627391 0
4.9410005 2.5178123 1.2640649 0
4.9480004 2.5135605 1.2653906 0
4.9270005 2.5262396 1.2532474 0
4.9340005 2.5220387 1.2545606 0
4.9410005 2.5178123 1.2558737 0
4.9480004 2.5135605 1.2571869 0
4.9270005 2.5262396 1.2450815 0
4.9340005 2.5220387 1.2463821 0
4.9410005 2.5178123 1.2476826 0
4.9480004 2.5135605 1.2489831 0
4.9270005 2.5262396 1.2369157 0
4.9340005 2.5220387 1.2382036 0
4.9410005 2.5178123 1.2394916 0
4.9480004 2.5135605 1.2407794 0
4.9270005 2.5262396 1.2287499 0
4.9340005 2.5220387 1.2300252 0
4.9410005 2.5178123 1.2313005 0
4.9480004 2.5135605 1.2325758 0
4.9270005 2.5262396 1.220584 0
4.9340005 2.5220387 1.2218467 0
4.9410005 2.5178123 1.2231094 0
4.9480004 2.5135605 1.224372 0
4.9270005 2.5262396 1.2124182 0
4.9340005 2.5220387 1.2136682 0
4.9410005 2.5178123 1.2149183 0
4.9480004 2.5135605 1.2161683 0
4.9270005 2.5262396 1.2042524 0
4.9340005 2.5220387 1.2054898 0
4.9410005 2.5178123 1.2067271 0
4.9480004 2.5135605 1.2079645 0
4.9270005 2.5262396 1.1960865 0
4.9340005 2.5220387 1.1973113 0
4.9410005 2.5178123 1.1985362 0
4.9480004 2.5135605 1.1997609 0
4.9270005 2.5262396 1.1879207 0
4.9340005 2.5220387 1.1891328 0
4.9410005 2.5178123 1.1903449 0
4.9480004 2.5135605 1.1915572 0
4.9270005 2.5262396 1.1797549 0
4.9340005 2.5220387 1.1809543 0
4.9410005 2.5178123 1.1821538 0
4.9480004 2.5135605 1.1833534 0
4.9270005 2.5262396 1.171589 0
4.9340005 2.5220387 1.1727759 0
4.9410005 2.5178123 1.1739628 0
4.9480004 2.5135605 1.1751497 0
4.9270005 2.5262396 1.1634232 0
4.9340005 2.5220387 1.1645975 0
4.9410005 2.5178123 1.1657717 0
4.9480004 2.5135605 1.1669459 0
4.9270005 2.5262396 1.1552573 0
4.9340005 2.5220387 1.156419 0
4.9410005 2.5178123 1.1575806 0
4.9480004 2.5135605 1.1587422 0
4.9270005 2.5262396 1.1470915 0
4.9340005 2.5220387 1.1482404 0
4.9410005 2.5178123 1.1493895 0
4.9480004 2.5135605 1.1505386 0
4.9270005 2.5262396 1.1389257 0
4.9340005 2.5220387 1.140062 0
4.9410005 2.5178123 1.1411984 0
4.9480004 2.5135605 1.1423348 0
4.9270005 2.5262396 1.1307598 0
4.9340005 2.5220387 1.1318835 0
4.9410005 2.5178123 1.1330074 0
4.9480004 2.5135605 1.1341311 0
4.9270005 2.5262396 1.122594 0
4.9340005 2.5220387 1.1237051 0
4.9410005 2.5178123 1.1248162 0
4.9480004 2.5135605 1.1259273 0
4.9270005 2.5262396 1.114428 0
4.9340005 2.5220387 1.1155267 0
4.9410005 2.5178123 1.1166251 0
4.9480004 2.5135605 1.1177237 0
4.9270005 2.5262396 1.1062622 0
4.9340005 2.5220387 1.1073482 0
4.9410005 2.5178123 1.1084341 0
4.9480004 2.5135605 1.10952 0
4.9270005 2.5262396 1.0980965 0
4.9340005 2.5220387 1.0991697 0
4.9410005 2.5178123 1.100243 0
4.9480004 2.5135605 1.1013162 0
4.9270005 2.5262396 1.0899307 0
4.9340005 2.5220387 1.0909913 0
4.9410005 2.5178123 1.0920519 0
4.9480004 2.5135605 1.0931125 0
4.9270005 2.5262396 1.0817647 0
4.9340005 2.5220387 1.0828128 0
4.9410005 2.5178123 1.0838608 0
4.9480004 2.5135605 1.0849088 0
4.9270005 2.5262396 1.073599 0
4.9340005 2.5220387 1.0746343 0
4.9410005 2.5178123 1.0756696 0
4.9480004 2.5135605 1.0767051 0
4.9270005 2.5262396 1.0654331 0
4.9340005 2.5220387 1.0664558 0
4.9410005 2.5178123 1.0674787 0
4.9480004 2.5135605 1.0685014 0
4.9270005 2.5262396 1.0572672 0
4.9340005 2.5220387 1.0582774 0
4.9410005 2.5178123 1.0592875 0
4.9480004 2.5135605 1.0602976 0
4.9270005 2.5262396 1.0491014 0
4.9340005 2.5220387 1.0500989 0
4.9410005 2.5178123 1.0510963 0
4.9480004 2.5135605 1.0520939 0
4.9270005 2.5262396 1.0409355 0
4.9340005 2.5220387 1.0419204 0
4.9410005 2.5178123 1.0429053 0
4.9480004 2.5135605 1.0438901 0
4.9270005 2.5262396 1.0327697 0
4.9340005 2.5220387 1.033742 0
4.9410005 2.5178123 1.0347142 0
4.9480004 2.5135605 1.0356865 0
4.9270005 2.5262396 1.0246038 0
4.9340005 2.5220387 1.0255635 0
4.9410005 2.5178123 1.0265231 0
4.9480004 2.5135605 1.0274827 0
4.9270005 2.5262396 1.016438 0
4.9340005 2.5220387 1.017385 0
4.9410005 2.5178123 1.018332 0
4.9480004 2.5135605 1.019279 0
4.9270005 2.5262396 1.0082722 0
4.9340005 2.5220387 1.0092065 0
4.9410005 2.5178123 1.0101409 0
4.9480004 2.5135605 1.0110753 0
4.9270005 2.5262396 1.0001063 0
4.9340005 2.5220387 1.0010281 0
4.9410005 2.5178123 1.0019499 0
4.9480004 2.5135605 1.0028716 0
4.9270005 2.5262396 0.9919405 0
4.9340005 2.5220387 0.99284959 0
4.9410005 2.5178123 0.9937588 0
4.9480004 2.5135605 0.99466789 0
4.9270005 2.5262396 0.98377466 0
4.9340005 2.5220387 0.98467112 0
4.9410005 2.5178123 0.98556757 0
4.9480004 2.5135605 0.98646414 0
4.9270005 2.5262396 0.97560883 0
4.9340005 2.5220387 0.97649276 0
4.9410005 2.5178123 0.97737658 0
4.9480004 2.5135605 0.9782604 0
4.9270005 2.5262396 0.96744299 0
4.9340005 2.5220387 0.96831429 0
4.9410005 2.5178123 0.96918547 0
4.9480004 2.5135605 0.97005665 0
4.9270005 2.5262396 0.95927715 0
4.9340005 2.5220387 0.9601357 0
4.9410005 2.5178123 0.96099436 0
4.9480004 2.5135605 0.96185303 0
4.9270005 2.5262396 0.95111132 0
4.9340005 2.5220387 0.95195723 0
4.9410005 2.5178123 0.95280325 0
4.9480004 2.5135605 0.95364928 0
4.9270005 2.5262396 0.94294548 0
4.9340005 2.5220387 0.94377875 0
4.9410005 2.5178123 0.94461215 0
4.9480004 2.5135605 0.94544554 0
4.9270005 2.5262396 0.93477964 0
4.9340005 2.5220387 0.9356004 0
4.9410005 2.5178123 0.93642116 0
4.9480004 2.5135605 0.93724179 0
4.9270005 2.5262396 0.92661381 0
4.9340005 2.5220387 0.92742193 0
4.9410005 2.5178123 0.92823005 0
4.9480004 2.5135605 0.92903805 0
4.9270005 2.5262396 0.91844797 0
4.9340005 2.5220387 0.91924345 0
4.9410005 2.5178123 0.92003882 0
4.9480004 2.5135605 0.92083442 0
4.9270005 2.5262396 0.91028214 0
4.9340005 2.5220387 0.91106498 0
4.9410005 2.5178123 0.91184783 0
4.9480004 2.5135605 0.91263068 0
4.9270005 2.5262396 0.9021163 0
4.9340005 2.5220387 0.90288651 0
4.9410005 2.5178123 0.90365672 0
4.9480004 2.5135605 0.90442693 0
4.9270005 2.5262396 0.89395046 0
4.9340005 2.5220387 0.89470804 0
4.9410005 2.5178123 0.89546561 0
4.9480004 2.5135605 0.89622319 0
4.9270005 2.5262396 0.88578457 0
4.9340005 2.5220387 0.88652956 0
4.9410005 2.5178123 0.8872745 0
4.9480004 2.5135605 0.88801956 0
4.9270005 2.5262396 0.87761879 0
4.9340005 2.5220387 0.87835109 0
4.9410005 2.5178123 0.8790834 0
4.9480004 2.5135605 0.87981582 0
4.9270005 2.5262396 0.86945295 0
4.9340005 2.5220387 0.87017262 0
4.9410005 2.5178123 0.87089241 0
4.9480004 2.5135605 0.87161207 0
4.9270005 2.5262396 0.86128706 0
4.9340005 2.5220387 0.86199415 0
4.9410005 2.5178123 0.86270124 0
4.9480004 2.5135605 0.86340833 0
4.9270005 2.5262396 0.85312122 0
4.9340005 2.5220387 0.85381567 0
4.9410005 2.5178123 0.85451019 0
4.9480004 2.5135605 0.85520458 0
4.9270005 2.5262396 0.84495538 0
4.9340005 2.5220387 0.8456372 0
4.9410005 2.5178123 0.84631908 0
4.9480004 2.5135605 0.8470009 0
4.9270005 2.5262396 0.83678955 0
4.9340005 2.5220387 0.83745873 0
4.9410005 2.5178123 0.83812797 0
4.9480004 2.5135605 0.83879721 0
4.9270005 2.5262396 0.82862371 0
4.9340005 2.5220387 0.82928026 0
4.9410005 2.5178123 0.82993686 0
4.9480004 2.5135605 0.83059347 0
4.9270005 2.5262396 0.82045782 0
4.9340005 2.5220387 0.82110184 0
4.9410005 2.5178123 0.82174575 0
4.9480004 2.5135605 0.82238972 0
4.9270005 2.5262396 0.81229204 0
4.9340005 2.5220387 0.81292331 0
4.9410005 2.5178123 0.81355464 0
4.9480004 2.5135605 0.81418604 0
4.9270005 2.5262396 0.8041262 0
4.9340005 2.5220387 0.80474484 0
4.9410005 2.5178123 0.8053636 0
4.9480004 2.5135605 0.80598229 0
4.9270005 2.5262396 0.79596031 0
4.9340005 2.5220387 0.79656643 0
4.9410005 2.5178123 0.79717249 0
4.9480004 2.5135605 0.79777861 0
4.9270005 2.5262396 0.78779447 0
4.9340005 2.5220387 0.78838795 0
4.9410005 2.5178123 0.78898144 0
4.9480004 2.5135605 0.78957486 0
4.9270005 2.5262396 0.77962863 0
4.9340005 2.5220387 0.78020954 0
4.9410005 2.5178123 0.78079033 0
4.9480004 2.5135605 0.78137112 0
4.9270005 2.5262396 0.7714628 0
4.9340005 2.5220387 0.77203101 0
4.9410005 2.5178123 0.77259922 0
4.9480004 2.5135605 0.77316743 0
4.9270005 2.5262396 0.76329696 0
4.9340005 2.5220387 0.7638526 0
4.9410005 2.5178123 0.76440811 0
4.9480004 2.5135605 0.76496369 0
4.9270005 2.5262396 0.75513113 0
4.9340005 2.5220387 0.75567412 0
4.9410005 2.5178123 0.756217 0
4.9270005 2.5262396 0.74696529 0
4.9340005 2.5220387 0.74749565 0
4.9410005 2.5178123 0.74802595 0
4.9270005 2.5262396 0.73879945 0
4.9340005 2.5220387 0.73931718 0
4.9410005 2.5178123 0.73983485 0
4.9270005 2.5262396 0.73063362 0
4.9340005 2.5220387 0.73113871 0
4.9410005 2.5178123 0.7316438 0
4.9270005 2.5262396 0.72246778 0
4.9340005 2.5220387 0.72296023 0
4.9410005 2.5178123 0.72345269 0
4.9270005 2.5262396 0.71430194 0
4.9340005 2.5220387 0.71478176 0
4.9410005 2.5178123 0.71526158 0
4.9270005 2.5262396 0.70613611 0
4.9340005 2.5220387 0.70660329 0
4.9410005 2.5178123 0.70707047 0
4.9270005 2.5262396 0.69797027 0
4.9340005 2.5220387 0.69842482 0
4.9410005 2.5178123 0.69887936 0
4.9270005 2.5262396 0.68980443 0
4.9340005 2.5220387 0.69024634 0
4.9410005 2.5178123 0.69068825 0
4.9270005 2.5262396 0.6816386 0
4.9340005 2.5220387 0.68206787 0
4.9410005 2.5178123 0.6824972 0
4.9270005 2.5262396 0.67347276 0
4.9340005 2.5220387 0.6738894 0
4.9410005 2.5178123 0.67430609 0
4.9270005 2.5262396 0.66530693 0
4.9340005 2.5220387 0.66571093 0
4.9410005 2.5178123 0.66611505 0
4.9270005 2.5262396 0.65714109 0
4.9340005 2.5220387 0.65753245 0
4.9410005 2.5178123 0.65792394 0
4.9270005 2.5262396 0.64897525 0
4.9340005 2.5220387 0.64935404 0
4.9410005 2.5178123 0.64973283 0
4.9270005 2.5262396 0.64080942 0
4.9340005 2.5220387 0.64117557 0
4.9410005 2.5178123 0.64154172 0
4.9270005 2.5262396 0.63264352 0
4.9340005 2.5220387 0.6329971 0
4.9410005 2.5178123 0.63335061 0
4.9200001 2.5304151 0.62413675 0
4.9270005 2.5262396 0.62447768 0
4.9340005 2.5220387 0.62481862 0
4.9410005 2.5178123 0.6251595 0
4.9200001 2.5304151 0.61598355 0
4.9270005 2.5262396 0.61631185 0
4.9340005 2.5220387 0.61664015 0
4.9410005 2.5178123 0.61696845 0
4.9200001 2.5304151 0.60783035 0
4.9270005 2.5262396 0.60814601 0
4.9340005 2.5220387 0.60846168 0
4.9410005 2.5178123 0.60877734 0
4.9200001 2.5304151 0.59967709 0
4.9270005 2.5262396 0.59998018 0
4.9340005 2.5220387 0.60028321 0
4.9410005 2.5178123 0.60058624 0
4.9200001 2.5304151 0.59152389 0
4.9270005 2.5262396 0.59181434 0
4.9340005 2.5220387 0.59210479 0
4.9410005 2.5178123 0.59239519 0
4.9200001 2.5304151 0.58337069 0
4.9270005 2.5262396 0.5836485 0
4.9340005 2.5220387 0.58392632 0
4.9410005 2.5178123 0.58420408 0
4.9200001 2.5304151 0.57521749 0
4.9270005 2.5262396 0.57548267 0
4.9340005 2.5220387 0.57574785 0
4.9410005 2.5178123 0.57601297 0
4.9200001 2.5304151 0.56706429 0
4.9270005 2.5262396 0.56731683 0
4.9340005 2.5220387 0.56756938 0
4.9410005 2.5178123 0.56782186 0
4.9200001 2.5304151 0.55891109 0
4.9270005 2.5262396 0.55915099 0
4.9340005 2.5220387 0.5593909 0
4.9410005 2.5178123 0.55963081 0
4.9200001 2.5304151 0.55075783 0
4.9270005 2.5262396 0.55098516 0
4.9340005 2.5220387 0.55121243 0
4.9410005 2.5178123 0.5514397 0
4.9200001 2.5304151 0.54260463 0
4.9270005 2.5262396 0.54281926 0
4.9340005 2.5220387 0.54303396 0
4.9410005 2.5178123 0.54324859 0
4.9200001 2.5304151 0.53445143 0
4.9270005 2.5262396 0.53465343 0
4.9340005 2.5220387 0.53485548 0
4.9410005 2.5178123 0.53505754 0
4.9200001 2.5304151 0.52629822 0
4.9270005 2.5262396 0.52648759 0
4.9340005 2.5220387 0.52667701 0
4.9410005 2.5178123 0.52686644 0
4.9200001 2.5304151 0.51814497 0
4.9270005 2.5262396 0.51832175 0
4.9340005 2.5220387 0.51849854 0
4.9410005 2.5178123 0.51867533 0
4.9200001 2.5304151 0.50999177 0
4.9270005 2.5262396 0.51015592 0
4.9340005 2.5220387 0.51032007 0
4.9410005 2.5178123 0.51048422 0
4.9200001 2.5304151 0.50183856 0
4.9270005 2.5262396 0.50199008 0
4.9340005 2.5220387 0.50214159 0
4.9410005 2.5178123 0.50229311 0
4.9200001 2.5304151 0.49368536 0
4.9270005 2.5262396 0.49382424 0
4.9340005 2.5220387 0.49396315 0
4.9410005 2.5178123 0.49410203 0
4.9200001 2.5304151 0.48553213 0
4.9270005 2.5262396 0.48565841 0
4.9340005 2.5220387 0.48578468 0
4.9410005 2.5178123 0.48591095 0
4.9200001 2.5304151 0.47737893 0
4.9270005 2.5262396 0.47749257 0
4.9340005 2.5220387 0.47760621 0
4.9410005 2.5178123 0.47771984 0
4.9200001 2.5304151 0.4692257 0
4.9270005 2.5262396 0.46932673 0
4.9340005 2.5220387 0.46942776 0
4.9410005 2.5178123 0.46952876 0
4.9200001 2.5304151 0.4610725 0
4.9270005 2.5262396 0.4611609 0
4.9340005 2.5220387 0.46124929 0
4.9410005 2.5178123 0.46133766 0
4.9200001 2.5304151 0.4529193 0
4.9270005 2.5262396 0.45299506 0
4.9340005 2.5220387 0.45307082 0
4.9410005 2.5178123 0.45314658 0
4.9200001 2.5304151 0.44476607 0
4.9270005 2.5262396 0.44482923 0
4.9340005 2.5220387 0.44489235 0
4.9410005 2.5178123 0.44495547 0
4.9200001 2.5304151 0.43661287 0
4.9270005 2.5262396 0.43666339 0
4.9340005 2.5220387 0.43671387 0
4.9410005 2.5178123 0.43676439 0
4.9200001 2.5304151 0.42845964 0
4.9270005 2.5262396 0.42849752 0
4.9340005 2.5220387 0.4285354 0
4.9410005 2.5178123 0.42857328 0
4.9200001 2.5304151 0.42030644 0
4.9270005 2.5262396 0.42033169 0
4.9340005 2.5220387 0.42035696 0
4.9410005 2.5178123 0.4203822 0
4.9200001 2.5304151 0.41215321 0
4.9270005 2.5262396 0.41216585 0
4.9340005 2.5220387 0.41217849 0
4.9410005 2.5178123 0.41219109 0
4.9200001 2.5304151 0.40400001 0
4.9270005 2.5262396 0.40400001 0
4.9340005 2.5220387 0.40400001 0
4.9410005 2.5178123 0.40400001 0
4.9200001 2.5304151 0.39584681 0
4.9270005 2.5262396 0.39583418 0
4.9340005 2.5220387 0.39582154 0
4.9410005 2.5178123 0.39580894 0
4.9200001 2.5304151 0.38769358 0
4.9270005 2.5262396 0.38766834 0
4.9340005 2.5220387 0.38764307 0
4.9410005 2.5178123 0.38761783 0
4.9200001 2.5304151 0.37954038 0
4.9270005 2.5262396 0.37950251 0
4.9340005 2.5220387 0.37946463 0
4.9410005 2.5178123 0.37942675 0
4.9200001 2.5304151 0.37138715 0
4.9270005 2.5262396 0.37133664 0
4.9340005 2.5220387 0.37128615 0
4.9410005 2.5178123 0.37123564 0
4.9200001 2.5304151 0.36323395 0
4.9270005 2.5262396 0.3631708 0
4.9340005 2.5220387 0.36310768 0
4.9410005 2.5178123 0.36304456 0
4.9200001 2.5304151 0.35508072 0
4.9270005 2.5262396 0.35500497 0
4.9340005 2.5220387 0.35492921 0
4.9410005 2.5178123 0.35485345 0
4.9200001 2.5304151 0.34692752 0
4.9270005 2.5262396 0.34683913 0
4.9340005 2.5220387 0.34675074 0
4.9410005 2.5178123 0.34666237 0
4.9200001 2.5304151 0.33877432 0
4.9270005 2.5262396 0.33867329 0
4.9340005 2.5220387 0.33857226 0
4.9410005 2.5178123 0.33847126 0
4.9200001 2.5304151 0.33062109 0
4.9270005 2.5262396 0.33050746 0
4.9340005 2.5220387 0.33039382 0
4.9410005 2.5178123 0.33028018 0
4.9200001 2.5304151 0.32246789 0
4.9270005 2.5262396 0.32234162 0
4.9340005 2.5220387 0.32221535 0
4.9410005 2.5178123 0.32208908 0
4.9200001 2.5304151 0.31431466 0
4.9270005 2.5262396 0.31417578 0
4.9340005 2.5220387 0.31403688 0
4.9410005 2.5178123 0.313898 0
4.9200001 2.5304151 0.30616146 0
4.9270005 2.5262396 0.30600995 0
4.9340005 2.5220387 0.3058584 0
4.9410005 2.5178123 0.30570689 0
4.9200001 2.5304151 0.29800826 0
4.9270005 2.5262396 0.29784408 0
4.9340005 2.5220387 0.29767996 0
4.9410005 2.5178123 0.29751581 0
4.9200001 2.5304151 0.28985503 0
4.9270005 2.5262396 0.28967825 0
4.9340005 2.5220387 0.28950149 0
4.9410005 2.5178123 0.2893247 0
4.9200001 2.5304151 0.2817018 0
4.9270005 2.5262396 0.28151241 0
4.9340005 2.5220387 0.28132302 0
4.9410005 2.5178123 0.28113362 0
4.9200001 2.5304151 0.2735486 0
4.9270005 2.5262396 0.27334657 0
4.9340005 2.5220387 0.27314454 0
4.9410005 2.5178123 0.27294251 0
4.9200001 2.5304151 0.2653954 0
4.9270005 2.5262396 0.26518074 0
4.9340005 2.5220387 0.26496607 0
4.9410005 2.5178123 0.26475143 0
4.9200001 2.5304151 0.2572422 0
4.9270005 2.5262396 0.25701487 0
4.9340005 2.5220387 0.2567876 0
4.9410005 2.5178123 0.25656033 0
4.9200001 2.5304151 0.24908897 0
4.9270005 2.5262396 0.24884905 0
4.9340005 2.5220387 0.24860914 0
4.9410005 2.5178123 0.24836923 0
4.9200001 2.5304151 0.24093576 0
4.9270005 2.5262396 0.24068321 0
4.9340005 2.5220387 0.24043068 0
4.9410005 2.5178123 0.24017814 0
4.9200001 2.5304151 0.23278254 0
4.9270005 2.5262396 0.23251736 0
4.9340005 2.5220387 0.23225221 0
4.9410005 2.5178123 0.23198704 0
4.9200001 2.5304151 0.22462933 0
4.9270005 2.5262396 0.22435153 0
4.9340005 2.5220387 0.22407374 0
4.9410005 2.5178123 0.22379597 0
4.9200001 2.5304151 0.21647613 0
4.9270005 2.5262396 0.21618569 0
4.9340005 2.5220387 0.21589527 0
4.9410005 2.5178123 0.21560487 0
4.9200001 2.5304151 0.20832291 0
4.9270005 2.5262396 0.20801985 0
4.9340005 2.5220387 0.20771681 0
4.9410005 2.5178123 0.20741378 0
4.9200001 2.5304151 0.2001697 0
4.9270005 2.5262396 0.199854 0
4.9340005 2.5220387 0.19953835 0
4.9410005 2.5178123 0.19922268 0
4.9200001 2.5304151 0.19201648 0
4.9270005 2.5262396 0.19168817 0
4.9340005 2.5220387 0.19135988 0
4.9410005 2.5178123 0.19103159 0
4.9200001 2.5304151 0.18386327 0
4.9270005 2.5262396 0.18352233 0
4.9340005 2.5220387 0.18318141 0
4.9410005 2.5178123 0.1828405 0
4.9270005 2.5262396 0.17535649 0
4.9340005 2.5220387 0.17500295 0
4.9410005 2.5178123 0.1746494 0
4.9270005 2.5262396 0.16719063 0
4.9340005 2.5220387 0.16682447 0
4.9410005 2.5178123 0.16645831 0
4.9270005 2.5262396 0.1590248 0
4.9340005 2.5220387 0.15864599 0
4.9410005 2.5178123 0.15826721 0
4.9270005 2.5262396 0.15085897 0
4.9340005 2.5220387 0.15046754 0
4.9410005 2.5178123 0.15007612 0
4.9270005 2.5262396 0.14269313 0
4.9340005 2.5220387 0.14228907 0
4.9410005 2.5178123 0.14188501 0
4.9270005 2.5262396 0.13452727 0
4.9340005 2.5220387 0.13411063 0
4.9410005 2.5178123 0.13369393 0
4.9270005 2.5262396 0.12636146 0
4.9340005 2.5220387 0.12593216 0
4.9410005 2.5178123 0.12550282 0
4.9270005 2.5262396 0.11819562 0
4.9340005 2.5220387 0.11775365 0
4.9410005 2.5178123 0.11731175 0
4.9270005 2.5262396 0.11002976 0
4.9340005 2.5220387 0.10957521 0
4.9410005 2.5178123 0.10912064 0
4.9270005 2.5262396 0.10186392 0
4.9340005 2.5220387 0.10139674 0
4.9410005 2.5178123 0.10092956 0
4.9270005 2.5262396 0.093698084 0
4.9340005 2.5220387 0.093218267 0
4.9410005 2.5178123 0.09273845 0
4.9270005 2.5262396 0.085532248 0
4.9340005 2.5220387 0.085039794 0
4.9410005 2.5178123 0.084547371 0
4.9270005 2.5262396 0.077366412 0
4.9340005 2.5220387 0.076861352 0
4.9410005 2.5178123 0.076356262 0
4.9270005 2.5262396 0.069200546 0
4.9340005 2.5220387 0.068682879 0
4.9410005 2.5178123 0.068165183 0
4.9270005 2.5262396 0.061034709 0
4.9340005 2.5220387 0.060504407 0
4.9410005 2.5178123 0.059974074 0
4.9270005 2.5262396 0.052868903 0
4.9340005 2.5220387 0.052325934 0
4.9410005 2.5178123 0.051782995 0
