# .PCD v0.7 - Point Cloud Data file format
VERSION 0.7
FIELDS x y z intensity
SIZE 4 4 4 4
TYPE F F F F
COUNT 1 1 1 1
WIDTH 173
HEIGHT 1
VIEWPOINT 0 0 0 1 0 0 0
POINTS 173
DATA ascii
4.7380004 -2.0413547 0.3179259 0
4.7440004 -2.0519502 0.31780684 0
4.7500005 -2.0625675 0.31768778 0
4.7560005 -2.0732064 0.31756872 0
4.7380004 -2.0413547 0.31010097 0
4.7440004 -2.0519502 0.30997109 0
4.7500005 -2.0625675 0.30984122 0
4.7560005 -2.0732064 0.30971134 0
4.7620001 -2.0838668 0.30958149 0
4.7380004 -2.0413547 0.30227605 0
4.7440004 -2.0519502 0.30213535 0
4.7500005 -2.0625675 0.30199465 0
4.7560005 -2.0732064 0.30185395 0
4.7620001 -2.0838668 0.30171326 0
4.7380004 -2.0413547 0.29445112 0
4.7440004 -2.0519502 0.2942996 0
4.7500005 -2.0625675 0.29414809 0
4.7560005 -2.0732064 0.29399657 0
4.7620001 -2.0838668 0.29384506 0
4.7380004 -2.0413547 0.28662622 0
4.7440004 -2.0519502 0.28646386 0
4.7500005 -2.0625675 0.28630152 0
4.7560005 -2.0732064 0.28613919 0
4.7620001 -2.0838668 0.28597686 0
4.7380004 -2.0413547 0.27880129 0
4.7440004 -2.0519502 0.27862811 0
4.7500005 -2.0625675 0.27845496 0
4.7560005 -2.0732064 0.27828181 0
4.7620001 -2.0838668 0.27810866 0
4.7380004 -2.0413547 0.27097636 0
4.7440004 -2.0519502 0.27079237 0
4.7500005 -2.0625675 0.2706084 0
4.7560005 -2.0732064 0.2704244 0
4.7620001 -2.0838668 0.27024043 0
4.7380004 -2.0413547 0.26315147 0
4.7440004 -2.0519502 0.26295662 0
4.7500005 -2.0625675 0.26276183 0
4.7560005 -2.0732064 0.26256701 0
4.7620001 -2.0838668 0.2623722 0
4.7380004 -2.0413547 0.25532651 0
4.7440004 -2.0519502 0.2551209 0
4.7500005 -2.0625675 0.25491524 0
4.7560005 -2.0732064 0.2547096 0
4.7620001 -2.0838668 0.25450402 0
4.7380004 -2.0413547 0.2475016 0
4.7440004 -2.0519502 0.24728516 0
4.7500005 -2.0625675 0.24706869 0
4.7560005 -2.0732064 0.24685223 0
4.7620001 -2.0838668 0.24663579 0
4.7380004 -2.0413547 0.23967668 0
4.7440004 -2.0519502 0.23944941 0
4.7500005 -2.0625675 0.23922212 0
4.7560005 -2.0732064 0.23899485 0
4.7620001 -2.0838668 0.23876758 0
4.7380004 -2.0413547 0.23185177 0
4.7440004 -2.0519502 0.23161367 0
4.7500005 -2.0625675 0.23137555 0
4.7560005 -2.0732064 0.23113745 0
4.7620001 -2.0838668 0.23089938 0
4.7380004 -2.0413547 0.22402684 0
4.7440004 -2.0519502 0.22377792 0
4.7500005 -2.0625675 0.223529 0
4.7560005 -2.0732064 0.22328006 0
4.7620001 -2.0838668 0.22303116 0
4.7380004 -2.0413547 0.21620193 0
4.7440004 -2.0519502 0.21594217 0
4.7500005 -2.0625675 0.21568243 0
4.7560005 -2.0732064 0.21542269 0
4.7620001 -2.0838668 0.21516295 0
4.7380004 -2.0413547 0.20837702 0
4.7440004 -2.0519502 0.20810644 0
4.7500005 -2.0625675 0.20783587 0
4.7560005 -2.0732064 0.20756529 0
4.7620001 -2.0838668 0.20729473 0
4.7380004 -2.0413547 0.20055208 0
4.7440004 -2.0519502 0.2002707 0
4.7500005 -2.0625675 0.1999893 0
4.7560005 -2.0732064 0.1997079 0
4.7620001 -2.0838668 0.19942652 0
4.7380004 -2.0413547 0.19272716 0
4.7440004 -2.0519502 0.19243495 0
4.7500005 -2.0625675 0.19214272 0
4.7560005 -2.0732064 0.1918505 0
4.7620001 -2.0838668 0.19155832 0
4.7380004 -2.0413547 0.18490225 0
4.7440004 -2.0519502 0.18459921 0
4.7500005 -2.0625675 0.18429616 0
4.7560005 -2.0732064 0.18399313 0
4.7620001 -2.0838668 0.1836901 0
4.7380004 -2.0413547 0.17707732 0
4.7440004 -2.0519502 0.17676346 0
4.7500005 -2.0625675 0.1764496 0
4.7560005 -2.0732064 0.17613573 0
4.7620001 -2.0838668 0.17582189 0
4.7380004 -2.0413547 0.1692524 0
4.7440004 -2.0519502 0.16892773 0
4.7500005 -2.0625675 0.16860302 0
4.7560005 -2.0732064 0.16827835 0
4.7620001 -2.0838668 0.16795368 0
4.7380004 -2.0413547 0.16142748 0
4.7440004 -2.0519502 0.16109197 0
4.7500005 -2.0625675 0.16075647 0
4.7560005 -2.0732064 0.16042095 0
4.7620001 -2.0838668 0.16008547 0
4.7380004 -2.0413547 0.15360257 0
4.7440004 -2.0519502 0.15325624 0
4.7500005 -2.0625675 0.1529099 0
4.7560005 -2.0732064 0.15256357 0
4.7620001 -2.0838668 0.15221727 0
4.7380004 -2.0413547 0.14577764 0
4.7440004 -2.0519502 0.14542049 0
4.7500005 -2.0625675 0.14506331 0
4.7560005 -2.0732064 0.14470616 0
4.7620001 -2.0838668 0.14434904 0
4.7380004 -2.0413547 0.13795274 0
4.7440004 -2.0519502 0.13758475 0
4.7500005 -2.0625675 0.13721678 0
4.7560005 -2.0732064 0.13684878 0
4.7620001 -2.0838668 0.13648084 0
4.7380004 -2.0413547 0.13012779 0
4.7440004 -2.0519502 0.129749 0
4.7500005 -2.0625675 0.12937018 0
4.7560005 -2.0732064 0.1289914 0
4.7620001 -2.0838668 0.12861264 0
4.7380004 -2.0413547 0.12230289 0
4.7440004 -2.0519502 0.12191325 0
4.7500005 -2.0625675 0.12152365 0
4.7560005 -2.0732064 0.12113401 0
4.7620001 -2.0838668 0.12074441 0
4.7380004 -2.0413547 0.11447796 0
4.7440004 -2.0519502 0.11407751 0
4.7500005 -2.0625675 0.11367708 0
4.7560005 -2.0732064 0.11327663 0
4.7620001 -2.0838668 0.11287621 0
4.7380004 -2.0413547 0.10665303 0
4.7440004 -2.0519502 0.10624179 0
4.7500005 -2.0625675 0.10583049 0
4.7560005 -2.0732064 0.10541922 0
4.7620001 -2.0838668 0.10500801 0
4.7380004 -2.0413547 0.098828137 0
4.7440004 -2.0519502 0.098406017 0
4.7500005 -2.0625675 0.097983956 0
4.7560005 -2.0732064 0.097561836 0
4.7620001 -2.0838668 0.097139776 0
4.7380004 -2.0413547 0.09100318 0
4.7440004 -2.0519502 0.090570301 0
4.7500005 -2.0625675 0.090137362 0
4.7560005 -2.0732064 0.089704454 0
4.7620001 -2.0838668 0.089271575 0
4.7380004 -2.0413547 0.083178282 0
4.7440004 -2.0519502 0.082734525 0
4.7500005 -2.0625675 0.082290798 0
4.7560005 -2.0732064 0.081847042 0
4.7620001 -2.0838668 0.081403375 0
4.7380004 -2.0413547 0.075353354 0
4.7440004 -2.0519502 0.074898809 0
4.7500005 -2.0625675 0.074444234 0
4.7560005 -2.0732064 0.073989689 0
4.7620001 -2.0838668 0.073535144 0
4.7380004 -2.0413547 0.067528456 0
4.7440004 -2.0519502 0.067063063 0
4.7500005 -2.0625675 0.06659767 0
4.7560005 -2.0732064 0.066132307 0
4.7620001 -2.0838668 0.065666944 0
4.7380004 -2.0413547 0.059703529 0
4.7440004 -2.0519502 0.059227318 0
4.7500005 -2.0625675 0.058751076 0
4.7560005 -2.0732064 0.058274895 0
4.7620001 -2.0838668 0.057798743 0
4.7380004 -2.0413547 0.051878601 0
4.7440004 -2.0519502 0.051391572 0
4.7500005 -2.0625675 0.050904542 0
4.7560005 -2.0732064 0.050417513 0
