# .PCD v0.7 - Point Cloud Data file format
VERSION 0.7
FIELDS x y z intensity
SIZE 4 4 4 4
TYPE F F F F
COUNT 1 1 1 1
WIDTH 1419
HEIGHT 1
VIEWPOINT 0 0 0 1 0 0 0
POINTS 1419
DATA ascii
3.6920002 -1.3761426 0.23773219 0
3.6860003 -1.3796456 0.23803522 0
3.6800003 -1.383127 0.23833826 0
3.6740003 -1.3865867 0.23864131 0
3.6680002 -1.3900247 0.23894434 0
3.6620002 -1.3934412 0.2392474 0
3.6560001 -1.3968358 0.23955044 0
3.6500003 -1.4002091 0.23985346 0
3.6440003 -1.4035605 0.2401565 0
3.6380002 -1.4068904 0.24045955 0
3.6320002 -1.4101985 0.24076259 0
3.6260002 -1.4134851 0.24106562 0
3.6200004 -1.41675 0.24136867 0
3.6150002 -1.4204206 0.2416212 0
3.6090002 -1.4236441 0.24192424 0
3.6030002 -1.4268459 0.24222727 0
4.5660005 -0.88012785 0.18607472 0
4.5560002 -0.8856222 0.18659784 0
4.5470004 -0.89128441 0.18706863 0
4.5370002 -0.89670843 0.18759175 0
4.5270004 -0.90209645 0.18811484 0
4.5180001 -0.9076575 0.18858564 0
4.5080004 -0.91297519 0.18910871 0
4.4990001 -0.91846955 0.18957953 0
4.4890003 -0.9237169 0.19010262 0
4.4800005 -0.92914456 0.19057341 0
4.4700003 -0.93432146 0.19109653 0
4.4610004 -0.93968242 0.19156732 0
4.4520001 -0.94501078 0.19203812 0
4.4430003 -0.95030683 0.19250891 0
4.25 -1.0599207 0.20260483 0
4.2410002 -1.0644788 0.20307563 0
4.2330003 -1.0692716 0.2034941 0
4.2250004 -1.0740354 0.20391257 0
4.2160001 -1.0784998 0.20438337 0
4.2080002 -1.0832042 0.20480187 0
4.2000003 -1.0878797 0.20522034 0
4.1920004 -1.0925262 0.20563883 0
4.184 -1.097144 0.20605731 0
4.1760001 -1.1017329 0.20647579 0
4.1680002 -1.106293 0.20689428 0
4.1600003 -1.110824 0.20731276 0
4.152 -1.1153264 0.20773125 0
4.1440001 -1.1197999 0.20814973 0
4.1360002 -1.1242443 0.20856822 0
4.1280003 -1.1286601 0.2089867 0
4.1200004 -1.133047 0.20940518 0
4.1129999 -1.137699 0.20977136 0
4.105 -1.14203 0.21018983 0
4.0970001 -1.1463321 0.21060832 0
4.0890002 -1.1506052 0.2110268 0
4.0820003 -1.1551509 0.21139297 0
4.0740004 -1.1593682 0.21181147 0
4.066 -1.1635566 0.21222995 0
4.059 -1.1680229 0.21259612 0
4.0510001 -1.1721554 0.2130146 0
4.0440001 -1.1765693 0.21338077 0
4.0360003 -1.1806458 0.21379925 0
3.9000003 -1.2581592 0.22091347 0
3.7540002 -1.3406942 0.22855079 0
3.7480001 -1.3444172 0.22886467 0
3.7420003 -1.3481188 0.22917852 0
3.7350004 -1.3514071 0.22954468 0
3.7290003 -1.3550633 0.22985856 0
3.7230003 -1.358698 0.23017243 0
3.7170002 -1.362311 0.23048629 0
3.7110002 -1.3659024 0.23080015 0
3.7040002 -1.3690717 0.23116633 0
3.6980002 -1.372618 0.23148018 0
3.6920002 -1.3761426 0.23179406 0
3.6860003 -1.3796456 0.23210791 0
3.6800003 -1.383127 0.23242179 0
3.6740003 -1.3865867 0.23273563 0
3.6680002 -1.3900247 0.2330495 0
3.6620002 -1.3934412 0.23336338 0
3.6560001 -1.3968358 0.23367722 0
3.6500003 -1.4002091 0.23399109 0
3.6440003 -1.4035605 0.23430495 0
3.6380002 -1.4068904 0.23461881 0
3.6320002 -1.4101985 0.23493268 0
3.6260002 -1.4134851 0.23524654 0
3.6200004 -1.41675 0.2355604 0
3.6150002 -1.4204206 0.23582196 0
3.6090002 -1.4236441 0.23613581 0
3.6030002 -1.4268459 0.23644969 0
4.5660005 -0.88012785 0.17856005 0
4.5560002 -0.8856222 0.1791012 0
4.5470004 -0.89128441 0.17958823 0
4.5370002 -0.89670843 0.18012938 0
4.5270004 -0.90209645 0.1806705 0
4.5180001 -0.9076575 0.18115756 0
4.5080004 -0.91297519 0.18169869 0
4.4990001 -0.91846955 0.18218572 0
4.4890003 -0.9237169 0.18272686 0
4.4800005 -0.92914456 0.18321387 0
4.4700003 -0.93432146 0.18375503 0
4.4610004 -0.93968242 0.18424205 0
4.4520001 -0.94501078 0.1847291 0
4.4430003 -0.95030683 0.18521611 0
4.25 -1.0599207 0.19566016 0
4.2410002 -1.0644788 0.19614719 0
4.2330003 -1.0692716 0.19658011 0
4.2250004 -1.0740354 0.19701302 0
4.2160001 -1.0784998 0.19750005 0
4.2080002 -1.0832042 0.19793296 0
4.2000003 -1.0878797 0.19836587 0
4.1920004 -1.0925262 0.19879878 0
4.184 -1.097144 0.1992317 0
4.1760001 -1.1017329 0.19966462 0
4.1680002 -1.106293 0.20009755 0
4.1600003 -1.110824 0.20053045 0
4.152 -1.1153264 0.20096336 0
4.1440001 -1.1197999 0.20139627 0
4.1360002 -1.1242443 0.2018292 0
4.1280003 -1.1286601 0.2022621 0
4.1200004 -1.133047 0.20269501 0
4.1129999 -1.137699 0.20307383 0
4.105 -1.14203 0.20350674 0
4.0970001 -1.1463321 0.20393963 0
4.0890002 -1.1506052 0.20437256 0
4.0820003 -1.1551509 0.20475136 0
4.0740004 -1.1593682 0.20518427 0
4.066 -1.1635566 0.20561719 0
4.059 -1.1680229 0.20599599 0
4.0510001 -1.1721554 0.2064289 0
4.0440001 -1.1765693 0.20680769 0
4.0360003 -1.1806458 0.20724061 0
3.9000003 -1.2581592 0.21460015 0
3.7540002 -1.3406942 0.22250083 0
3.7480001 -1.3444172 0.22282551 0
3.7420003 -1.3481188 0.22315019 0
3.7350004 -1.3514071 0.223529 0
3.7290003 -1.3550633 0.22385368 0
3.7230003 -1.358698 0.22417837 0
3.7170002 -1.362311 0.22450306 0
3.7110002 -1.3659024 0.22482775 0
3.7040002 -1.3690717 0.22520654 0
3.6980002 -1.372618 0.22553124 0
3.6920002 -1.3761426 0.22585592 0
3.6860003 -1.3796456 0.22618058 0
3.6800003 -1.383127 0.22650528 0
3.6740003 -1.3865867 0.22682998 0
3.6680002 -1.3900247 0.22715466 0
3.6620002 -1.3934412 0.22747935 0
3.6560001 -1.3968358 0.22780403 0
3.6500003 -1.4002091 0.2281287 0
3.6440003 -1.4035605 0.2284534 0
3.6380002 -1.4068904 0.22877808 0
3.6320002 -1.4101985 0.22910276 0
3.6260002 -1.4134851 0.22942746 0
3.6200004 -1.41675 0.22975214 0
3.6150002 -1.4204206 0.23002271 0
3.6090002 -1.4236441 0.23034739 0
3.6030002 -1.4268459 0.23067208 0
4.5660005 -0.88012785 0.17104539 0
4.5560002 -0.8856222 0.17160459 0
4.5470004 -0.89128441 0.17210783 0
4.5370002 -0.89670843 0.17266701 0
4.5270004 -0.90209645 0.17322619 0
4.5180001 -0.9076575 0.17372946 0
4.5080004 -0.91297519 0.17428865 0
4.4990001 -0.91846955 0.17479192 0
4.4890003 -0.9237169 0.17535108 0
4.4800005 -0.92914456 0.17585434 0
4.4700003 -0.93432146 0.17641354 0
4.4610004 -0.93968242 0.17691678 0
4.4520001 -0.94501078 0.17742006 0
4.4430003 -0.95030683 0.17792331 0
4.25 -1.0599207 0.1887155 0
4.2410002 -1.0644788 0.18921877 0
4.2330003 -1.0692716 0.18966611 0
4.2250004 -1.0740354 0.19011344 0
4.2160001 -1.0784998 0.19061671 0
4.2080002 -1.0832042 0.19106406 0
4.2000003 -1.0878797 0.19151141 0
4.1920004 -1.0925262 0.19195874 0
4.184 -1.097144 0.19240609 0
4.1760001 -1.1017329 0.19285344 0
4.1680002 -1.106293 0.19330078 0
4.1600003 -1.110824 0.19374813 0
4.152 -1.1153264 0.19419548 0
4.1440001 -1.1197999 0.19464283 0
4.1360002 -1.1242443 0.19509016 0
4.1280003 -1.1286601 0.19553749 0
4.1200004 -1.133047 0.19598484 0
4.1129999 -1.137699 0.19637628 0
4.105 -1.14203 0.19682363 0
4.0970001 -1.1463321 0.19727096 0
4.0890002 -1.1506052 0.19771832 0
4.0820003 -1.1551509 0.19810973 0
4.0740004 -1.1593682 0.19855708 0
4.066 -1.1635566 0.19900443 0
4.059 -1.1680229 0.19939585 0
4.0510001 -1.1721554 0.1998432 0
4.0440001 -1.1765693 0.20023461 0
4.0360003 -1.1806458 0.20068197 0
3.9000003 -1.2581592 0.20828682 0
3.7540002 -1.3406942 0.21645087 0
3.7480001 -1.3444172 0.21678637 0
3.7420003 -1.3481188 0.21712187 0
3.7350004 -1.3514071 0.21751329 0
3.7290003 -1.3550633 0.21784881 0
3.7230003 -1.358698 0.21818431 0
3.7170002 -1.362311 0.21851982 0
3.7110002 -1.3659024 0.21885534 0
3.7040002 -1.3690717 0.21924676 0
3.6980002 -1.372618 0.21958226 0
3.6920002 -1.3761426 0.21991777 0
3.6860003 -1.3796456 0.22025329 0
3.6800003 -1.383127 0.22058879 0
3.6740003 -1.3865867 0.2209243 0
3.6680002 -1.3900247 0.2212598 0
3.6620002 -1.3934412 0.22159532 0
3.6560001 -1.3968358 0.22193083 0
3.6500003 -1.4002091 0.22226633 0
3.6440003 -1.4035605 0.22260185 0
3.6380002 -1.4068904 0.22293735 0
3.6320002 -1.4101985 0.22327286 0
3.6260002 -1.4134851 0.22360837 0
3.6200004 -1.41675 0.22394387 0
3.6150002 -1.4204206 0.22422346 0
3.6090002 -1.4236441 0.22455898 0
3.6030002 -1.4268459 0.22489449 0
4.5660005 -0.88012785 0.16353072 0
4.5560002 -0.8856222 0.16410795 0
4.5470004 -0.89128441 0.16462743 0
4.5370002 -0.89670843 0.16520467 0
4.5270004 -0.90209645 0.16578187 0
4.5180001 -0.9076575 0.16630138 0
4.5080004 -0.91297519 0.1668786 0
4.4990001 -0.91846955 0.16739811 0
4.4890003 -0.9237169 0.16797531 0
4.4800005 -0.92914456 0.16849481 0
4.4700003 -0.93432146 0.16907203 0
4.4610004 -0.93968242 0.16959152 0
4.4520001 -0.94501078 0.17011103 0
4.4430003 -0.95030683 0.17063051 0
4.25 -1.0599207 0.18177085 0
4.2410002 -1.0644788 0.18229035 0
4.2330003 -1.0692716 0.18275212 0
4.2250004 -1.0740354 0.18321387 0
4.2160001 -1.0784998 0.18373337 0
4.2080002 -1.0832042 0.18419516 0
4.2000003 -1.0878797 0.18465693 0
4.1920004 -1.0925262 0.18511871 0
4.184 -1.097144 0.18558048 0
4.1760001 -1.1017329 0.18604225 0
4.1680002 -1.106293 0.18650404 0
4.1600003 -1.110824 0.18696581 0
4.152 -1.1153264 0.18742758 0
4.1440001 -1.1197999 0.18788935 0
4.1360002 -1.1242443 0.18835114 0
4.1280003 -1.1286601 0.18881291 0
4.1200004 -1.133047 0.18927468 0
4.1129999 -1.137699 0.18967874 0
4.105 -1.14203 0.19014052 0
4.0970001 -1.1463321 0.19060227 0
4.0890002 -1.1506052 0.19106406 0
4.0820003 -1.1551509 0.19146812 0
4.0740004 -1.1593682 0.19192988 0
4.066 -1.1635566 0.19239166 0
4.059 -1.1680229 0.19279572 0
4.0510001 -1.1721554 0.19325748 0
4.0440001 -1.1765693 0.19366154 0
4.0360003 -1.1806458 0.19412331 0
3.9000003 -1.2581592 0.20197348 0
3.7540002 -1.3406942 0.21040089 0
3.7480001 -1.3444172 0.21074723 0
3.7420003 -1.3481188 0.21109354 0
3.7350004 -1.3514071 0.21149759 0
3.7290003 -1.3550633 0.21184392 0
3.7230003 -1.358698 0.21219026 0
3.7170002 -1.362311 0.21253659 0
3.7110002 -1.3659024 0.21288292 0
3.7040002 -1.3690717 0.21328698 0
3.6980002 -1.372618 0.21363331 0
3.6920002 -1.3761426 0.21397965 0
3.6860003 -1.3796456 0.21432596 0
3.6800003 -1.383127 0.2146723 0
3.6740003 -1.3865867 0.21501863 0
3.6680002 -1.3900247 0.21536496 0
3.6620002 -1.3934412 0.2157113 0
3.6560001 -1.3968358 0.21605763 0
3.6500003 -1.4002091 0.21640395 0
3.6440003 -1.4035605 0.21675029 0
3.6380002 -1.4068904 0.21709663 0
3.6320002 -1.4101985 0.21744296 0
3.6260002 -1.4134851 0.21778929 0
3.6200004 -1.41675 0.21813561 0
3.6150002 -1.4204206 0.21842422 0
3.6090002 -1.4236441 0.21877056 0
3.6030002 -1.4268459 0.2191169 0
4.5660005 -0.88012785 0.15601605 0
4.5560002 -0.8856222 0.15661131 0
4.5470004 -0.89128441 0.15714704 0
4.5370002 -0.89670843 0.15774234 0
4.5270004 -0.90209645 0.15833756 0
4.5180001 -0.9076575 0.15887332 0
4.5080004 -0.91297519 0.15946855 0
4.4990001 -0.91846955 0.1600043 0
4.4890003 -0.9237169 0.16059953 0
4.4800005 -0.92914456 0.16113526 0
4.4700003 -0.93432146 0.16173051 0
4.4610004 -0.93968242 0.16226624 0
4.4520001 -0.94501078 0.162802 0
4.4430003 -0.95030683 0.16333772 0
4.25 -1.0599207 0.17482619 0
4.2410002 -1.0644788 0.17536192 0
4.2330003 -1.0692716 0.17583811 0
4.2250004 -1.0740354 0.17631432 0
4.2160001 -1.0784998 0.17685005 0
4.2080002 -1.0832042 0.17732626 0
4.2000003 -1.0878797 0.17780246 0
4.1920004 -1.0925262 0.17827865 0
4.184 -1.097144 0.17875488 0
4.1760001 -1.1017329 0.17923108 0
4.1680002 -1.106293 0.17970729 0
4.1600003 -1.110824 0.18018349 0
4.152 -1.1153264 0.1806597 0
4.1440001 -1.1197999 0.18113589 0
4.1360002 -1.1242443 0.1816121 0
4.1280003 -1.1286601 0.18208832 0
4.1200004 -1.133047 0.18256451 0
4.1129999 -1.137699 0.18298121 0
4.105 -1.14203 0.1834574 0
4.0970001 -1.1463321 0.1839336 0
4.0890002 -1.1506052 0.18440981 0
4.0820003 -1.1551509 0.18482649 0
4.0740004 -1.1593682 0.18530269 0
4.066 -1.1635566 0.1857789 0
4.059 -1.1680229 0.18619558 0
4.0510001 -1.1721554 0.18667178 0
4.0440001 -1.1765693 0.18708846 0
4.0360003 -1.1806458 0.18756467 0
3.9000003 -1.2581592 0.19566016 0
3.7540002 -1.3406942 0.2043509 0
3.7480001 -1.3444172 0.20470807 0
3.7420003 -1.3481188 0.20506521 0
3.7350004 -1.3514071 0.20548189 0
3.7290003 -1.3550633 0.20583904 0
3.7230003 -1.358698 0.2061962 0
3.7170002 -1.362311 0.20655335 0
3.7110002 -1.3659024 0.20691052 0
3.7040002 -1.3690717 0.2073272 0
3.6980002 -1.372618 0.20768435 0
3.6920002 -1.3761426 0.2080415 0
3.6860003 -1.3796456 0.20839864 0
3.6800003 -1.383127 0.20875581 0
3.6740003 -1.3865867 0.20911296 0
3.6680002 -1.3900247 0.20947012 0
3.6620002 -1.3934412 0.20982727 0
3.6560001 -1.3968358 0.21018444 0
3.6500003 -1.4002091 0.21054158 0
3.6440003 -1.4035605 0.21089873 0
3.6380002 -1.4068904 0.21125589 0
3.6320002 -1.4101985 0.21161304 0
3.6260002 -1.4134851 0.21197021 0
3.6200004 -1.41675 0.21232735 0
3.6150002 -1.4204206 0.21262498 0
3.6090002 -1.4236441 0.21298213 0
3.6030002 -1.4268459 0.21333928 0
4.5660005 -0.88012785 0.1485014 0
4.5560002 -0.8856222 0.1491147 0
4.5470004 -0.89128441 0.14966664 0
4.5370002 -0.89670843 0.15027997 0
4.5270004 -0.90209645 0.15089324 0
4.5180001 -0.9076575 0.15144524 0
4.5080004 -0.91297519 0.15205851 0
4.4990001 -0.91846955 0.15261048 0
4.4890003 -0.9237169 0.15322378 0
4.4800005 -0.92914456 0.15377572 0
4.4700003 -0.93432146 0.15438904 0
4.4610004 -0.93968242 0.15494099 0
4.4520001 -0.94501078 0.15549296 0
4.4430003 -0.95030683 0.15604493 0
4.25 -1.0599207 0.1678815 0
4.2410002 -1.0644788 0.16843347 0
4.2330003 -1.0692716 0.16892412 0
4.2250004 -1.0740354 0.16941476 0
4.2160001 -1.0784998 0.16996673 0
4.2080002 -1.0832042 0.17045736 0
4.2000003 -1.0878797 0.17094798 0
4.1920004 -1.0925262 0.17143862 0
4.184 -1.097144 0.17192926 0
4.1760001 -1.1017329 0.17241991 0
4.1680002 -1.106293 0.17291054 0
4.1600003 -1.110824 0.17340116 0
4.152 -1.1153264 0.17389181 0
4.1440001 -1.1197999 0.17438245 0
4.1360002 -1.1242443 0.17487308 0
4.1280003 -1.1286601 0.17536372 0
4.1200004 -1.133047 0.17585434 0
4.1129999 -1.137699 0.17628366 0
4.105 -1.14203 0.17677429 0
4.0970001 -1.1463321 0.17726493 0
4.0890002 -1.1506052 0.17775556 0
4.0820003 -1.1551509 0.17818487 0
4.0740004 -1.1593682 0.1786755 0
4.0669999 -1.1638614 0.17910482 0
4.059 -1.1680229 0.17959544 0
4.0510001 -1.1721554 0.18008608 0
4.0440001 -1.1765693 0.18051538 0
4.0360003 -1.1806458 0.18100601 0
3.9000003 -1.2581592 0.18934684 0
3.7540002 -1.3406942 0.19830094 0
3.7480001 -1.3444172 0.19866893 0
3.7420003 -1.3481188 0.1990369 0
3.7350004 -1.3514071 0.1994662 0
3.7290003 -1.3550633 0.19983418 0
3.7230003 -1.358698 0.20020214 0
3.7170002 -1.362311 0.20057012 0
3.7110002 -1.3659024 0.20093811 0
3.7040002 -1.3690717 0.20136741 0
3.6980002 -1.372618 0.20173539 0
3.6920002 -1.3761426 0.20210338 0
3.6860003 -1.3796456 0.20247135 0
3.6800003 -1.383127 0.20283931 0
3.6740003 -1.3865867 0.20320728 0
3.6680002 -1.3900247 0.20357527 0
3.6620002 -1.3934412 0.20394325 0
3.6560001 -1.3968358 0.20431124 0
3.6500003 -1.4002091 0.20467921 0
3.6440003 -1.4035605 0.20504718 0
3.6380002 -1.4068904 0.20541516 0
3.6320002 -1.4101985 0.20578314 0
3.6260002 -1.4134851 0.20615111 0
3.6200004 -1.41675 0.20651908 0
3.6150002 -1.4204206 0.20682573 0
3.6090002 -1.4236441 0.20719372 0
3.6030002 -1.4268459 0.2075617 0
4.5660005 -0.88012785 0.14098671 0
4.5560002 -0.8856222 0.14161807 0
4.5470004 -0.89128441 0.14218628 0
4.5370002 -0.89670843 0.14281762 0
4.5270004 -0.90209645 0.14344892 0
4.5180001 -0.9076575 0.14401713 0
4.5080004 -0.91297519 0.14464846 0
4.4990001 -0.91846955 0.14521667 0
4.4890003 -0.9237169 0.14584801 0
4.4800005 -0.92914456 0.14641619 0
4.4700003 -0.93432146 0.14704752 0
4.4610004 -0.93968242 0.14761573 0
4.4520001 -0.94501078 0.14818394 0
4.4430003 -0.95030683 0.14875212 0
4.25 -1.0599207 0.16093686 0
4.2410002 -1.0644788 0.16150507 0
4.2330003 -1.0692716 0.16201013 0
4.2250004 -1.0740354 0.16251516 0
4.2160001 -1.0784998 0.16308337 0
4.2080002 -1.0832042 0.16358846 0
4.2000003 -1.0878797 0.16409352 0
4.1920004 -1.0925262 0.16459857 0
4.184 -1.097144 0.16510366 0
4.1760001 -1.1017329 0.16560872 0
4.1680002 -1.106293 0.16611379 0
4.1600003 -1.110824 0.16661885 0
4.152 -1.1153264 0.16712391 0
4.1440001 -1.1197999 0.16762897 0
4.1360002 -1.1242443 0.16813405 0
4.1280003 -1.1286601 0.16863911 0
4.1200004 -1.133047 0.16914417 0
4.1129999 -1.137699 0.16958612 0
4.105 -1.14203 0.17009118 0
4.0970001 -1.1463321 0.17059626 0
4.0890002 -1.1506052 0.17110132 0
4.0820003 -1.1551509 0.17154324 0
4.0740004 -1.1593682 0.1720483 0
4.0669999 -1.1638614 0.17249025 0
4.059 -1.1680229 0.17299531 0
4.0510001 -1.1721554 0.17350037 0
4.0440001 -1.1765693 0.17394231 0
4.0360003 -1.1806458 0.17444739 0
3.9000003 -1.2581592 0.1830335 0
3.7540002 -1.3406942 0.19225098 0
3.7480001 -1.3444172 0.19262977 0
3.7420003 -1.3481188 0.19300856 0
3.7350004 -1.3514071 0.1934505 0
3.7290003 -1.3550633 0.1938293 0
3.7230003 -1.358698 0.1942081 0
3.7170002 -1.362311 0.19458689 0
3.7110002 -1.3659024 0.19496571 0
3.7040002 -1.3690717 0.19540763 0
3.6980002 -1.372618 0.19578645 0
3.6920002 -1.3761426 0.19616523 0
3.6860003 -1.3796456 0.19654402 0
3.6800003 -1.383127 0.19692282 0
3.6740003 -1.3865867 0.19730163 0
3.6680002 -1.3900247 0.19768043 0
3.6620002 -1.3934412 0.19805923 0
3.6560001 -1.3968358 0.19843803 0
3.6500003 -1.4002091 0.19881682 0
3.6440003 -1.4035605 0.19919562 0
3.6380002 -1.4068904 0.19957444 0
3.6320002 -1.4101985 0.19995323 0
3.6260002 -1.4134851 0.20033203 0
3.6200004 -1.41675 0.20071082 0
3.6150002 -1.4204206 0.20102648 0
3.6090002 -1.4236441 0.2014053 0
3.6030002 -1.4268459 0.20178409 0
4.5660005 -0.88012785 0.13347206 0
4.5560002 -0.8856222 0.13412145 0
4.5470004 -0.89128441 0.13470587 0
4.5370002 -0.89670843 0.13535523 0
4.5270004 -0.90209645 0.13600463 0
4.5180001 -0.9076575 0.13658905 0
4.5080004 -0.91297519 0.13723841 0
4.4990001 -0.91846955 0.13782287 0
4.4890003 -0.9237169 0.13847223 0
4.4800005 -0.92914456 0.13905662 0
4.4700003 -0.93432146 0.13970605 0
4.4610004 -0.93968242 0.14029044 0
4.4520001 -0.94501078 0.14087489 0
4.4430003 -0.95030683 0.14145935 0
4.25 -1.0599207 0.15399221 0
4.2410002 -1.0644788 0.15457664 0
4.2330003 -1.0692716 0.15509613 0
4.2250004 -1.0740354 0.15561561 0
4.2160001 -1.0784998 0.15620005 0
4.2080002 -1.0832042 0.15671957 0
4.2000003 -1.0878797 0.15723905 0
4.1920004 -1.0925262 0.15775853 0
4.184 -1.097144 0.15827805 0
4.1760001 -1.1017329 0.15879755 0
4.1680002 -1.106293 0.15931703 0
4.1600003 -1.110824 0.15983652 0
4.152 -1.1153264 0.16035603 0
4.1440001 -1.1197999 0.16087551 0
4.1360002 -1.1242443 0.16139503 0
4.1280003 -1.1286601 0.16191451 0
4.1200004 -1.133047 0.162434 0
4.1129999 -1.137699 0.16288859 0
4.105 -1.14203 0.16340807 0
4.0970001 -1.1463321 0.16392756 0
4.0890002 -1.1506052 0.16444707 0
4.0820003 -1.1551509 0.16490163 0
4.0740004 -1.1593682 0.16542111 0
4.0669999 -1.1638614 0.16587567 0
4.059 -1.1680229 0.16639519 0
4.0510001 -1.1721554 0.16691467 0
4.0440001 -1.1765693 0.16736923 0
4.0360003 -1.1806458 0.16788872 0
3.9000003 -1.2581592 0.17672017 0
3.7540002 -1.3406942 0.18620099 0
3.7480001 -1.3444172 0.18659063 0
3.7420003 -1.3481188 0.18698023 0
3.7350004 -1.3514071 0.18743478 0
3.7290003 -1.3550633 0.18782441 0
3.7230003 -1.358698 0.18821405 0
3.7170002 -1.362311 0.18860367 0
3.7110002 -1.3659024 0.18899329 0
3.7040002 -1.3690717 0.18944785 0
3.6980002 -1.372618 0.18983747 0
3.6920002 -1.3761426 0.19022711 0
3.6860003 -1.3796456 0.19061671 0
3.6800003 -1.383127 0.19100633 0
3.6740003 -1.3865867 0.19139595 0
3.6680002 -1.3900247 0.19178559 0
3.6620002 -1.3934412 0.19217521 0
3.6560001 -1.3968358 0.19256483 0
3.6500003 -1.4002091 0.19295445 0
3.6440003 -1.4035605 0.19334407 0
3.6380002 -1.4068904 0.19373369 0
3.6320002 -1.4101985 0.19412331 0
3.6260002 -1.4134851 0.19451295 0
3.6200004 -1.41675 0.19490255 0
3.6150002 -1.4204206 0.19522725 0
3.6090002 -1.4236441 0.19561687 0
3.6030002 -1.4268459 0.19600651 0
4.5660005 -0.88012785 0.1259574 0
4.5560002 -0.8856222 0.12662482 0
4.5470004 -0.89128441 0.12722549 0
4.5370002 -0.89670843 0.12789291 0
4.5270004 -0.90209645 0.1285603 0
4.5180001 -0.9076575 0.129161 0
4.5080004 -0.91297519 0.12982836 0
4.4990001 -0.91846955 0.13042906 0
4.4890003 -0.9237169 0.13109645 0
4.4800005 -0.92914456 0.13169709 0
4.4700003 -0.93432146 0.13236451 0
4.4610004 -0.93968242 0.13296518 0
4.4520001 -0.94501078 0.1335659 0
4.4430003 -0.95030683 0.13416654 0
4.25 -1.0599207 0.14704752 0
4.2410002 -1.0644788 0.14764822 0
4.2330003 -1.0692716 0.14818212 0
4.2250004 -1.0740354 0.14871606 0
4.2160001 -1.0784998 0.14931673 0
4.2080002 -1.0832042 0.14985067 0
4.2000003 -1.0878797 0.15038458 0
4.1920004 -1.0925262 0.15091848 0
4.184 -1.097144 0.15145242 0
4.1760001 -1.1017329 0.15198636 0
4.1680002 -1.106293 0.1525203 0
4.1600003 -1.110824 0.15305421 0
4.152 -1.1153264 0.15358815 0
4.1440001 -1.1197999 0.15412208 0
4.1360002 -1.1242443 0.15465602 0
4.1280003 -1.1286601 0.15518993 0
4.1200004 -1.133047 0.15572384 0
4.1129999 -1.137699 0.15619105 0
4.105 -1.14203 0.15672496 0
4.0970001 -1.1463321 0.15725887 0
4.0890002 -1.1506052 0.15779281 0
4.0820003 -1.1551509 0.15826 0
4.0740004 -1.1593682 0.15879394 0
4.0669999 -1.1638614 0.15926112 0
4.059 -1.1680229 0.15979503 0
4.0510001 -1.1721554 0.16032897 0
4.0440001 -1.1765693 0.16079614 0
4.0360003 -1.1806458 0.16133007 0
3.9000003 -1.2581592 0.17040683 0
3.7540002 -1.3406942 0.18015102 0
3.7480001 -1.3444172 0.18055148 0
3.7420003 -1.3481188 0.18095191 0
3.7350004 -1.3514071 0.18141909 0
3.7290003 -1.3550633 0.18181953 0
3.7230003 -1.358698 0.18222 0
3.7170002 -1.362311 0.18262044 0
3.7110002 -1.3659024 0.18302089 0
3.7040002 -1.3690717 0.18348806 0
3.6980002 -1.372618 0.18388852 0
3.6920002 -1.3761426 0.18428896 0
3.6860003 -1.3796456 0.1846894 0
3.6800003 -1.383127 0.18508984 0
3.6740003 -1.3865867 0.1854903 0
3.6680002 -1.3900247 0.18589073 0
3.6620002 -1.3934412 0.18629119 0
3.6560001 -1.3968358 0.18669164 0
3.6500003 -1.4002091 0.18709207 0
3.6440003 -1.4035605 0.18749252 0
3.6380002 -1.4068904 0.18789296 0
3.6320002 -1.4101985 0.18829341 0
3.6260002 -1.4134851 0.18869387 0
3.6200004 -1.41675 0.18909431 0
3.6150002 -1.4204206 0.18942802 0
3.6090002 -1.4236441 0.18982846 0
3.6030002 -1.4268459 0.19022891 0
4.5660005 -0.88012785 0.11844271 0
4.5560002 -0.8856222 0.1191282 0
4.5470004 -0.89128441 0.11974508 0
4.5370002 -0.89670843 0.12043053 0
4.5270004 -0.90209645 0.12111595 0
4.5180001 -0.9076575 0.12173289 0
4.5080004 -0.91297519 0.12241834 0
4.4990001 -0.91846955 0.12303525 0
4.4890003 -0.9237169 0.12372068 0
4.4800005 -0.92914456 0.12433758 0
4.4700003 -0.93432146 0.12502304 0
4.4610004 -0.93968242 0.12563995 0
4.4520001 -0.94501078 0.12625685 0
4.4430003 -0.95030683 0.12687376 0
4.25 -1.0599207 0.14010286 0
4.2410002 -1.0644788 0.14071977 0
4.2330003 -1.0692716 0.14126813 0
4.2250004 -1.0740354 0.1418165 0
4.2160001 -1.0784998 0.14243338 0
4.2080002 -1.0832042 0.14298174 0
4.2000003 -1.0878797 0.1435301 0
4.1920004 -1.0925262 0.14407846 0
4.184 -1.097144 0.14462683 0
4.1760001 -1.1017329 0.14517519 0
4.1680002 -1.106293 0.14572355 0
4.1600003 -1.110824 0.14627188 0
4.152 -1.1153264 0.14682025 0
4.1440001 -1.1197999 0.14736861 0
4.1360002 -1.1242443 0.14791697 0
4.1280003 -1.1286601 0.14846534 0
4.1200004 -1.133047 0.14901367 0
4.1129999 -1.137699 0.14949349 0
4.105 -1.14203 0.15004185 0
4.0970001 -1.1463321 0.15059021 0
4.0890002 -1.1506052 0.15113857 0
4.0820003 -1.1551509 0.15161839 0
4.0740004 -1.1593682 0.15216672 0
4.0669999 -1.1638614 0.15264654 0
4.059 -1.1680229 0.1531949 0
4.0510001 -1.1721554 0.15374327 0
4.0440001 -1.1765693 0.15422307 0
4.0360003 -1.1806458 0.15477145 0
3.9000003 -1.2581592 0.16409351 0
3.7540002 -1.3406942 0.17410105 0
3.7480001 -1.3444172 0.17451233 0
3.7420003 -1.3481188 0.17492358 0
3.7350004 -1.3514071 0.17540339 0
3.7290003 -1.3550633 0.17581466 0
3.7230003 -1.358698 0.17622593 0
3.7170002 -1.362311 0.1766372 0
3.7110002 -1.3659024 0.17704847 0
3.7040002 -1.3690717 0.17752829 0
3.6980002 -1.372618 0.17793955 0
3.6920002 -1.3761426 0.17835084 0
3.6860003 -1.3796456 0.17876208 0
3.6800003 -1.383127 0.17917335 0
3.6740003 -1.3865867 0.17958464 0
3.6680002 -1.3900247 0.17999589 0
3.6620002 -1.3934412 0.18040717 0
3.6560001 -1.3968358 0.18081844 0
3.6500003 -1.4002091 0.1812297 0
3.6440003 -1.4035605 0.18164095 0
3.6380002 -1.4068904 0.18205224 0
3.6320002 -1.4101985 0.18246351 0
3.6260002 -1.4134851 0.18287477 0
3.6200004 -1.41675 0.18328604 0
3.6150002 -1.4204206 0.18362877 0
3.6090002 -1.4236441 0.18404004 0
3.6030002 -1.4268459 0.1844513 0
4.5660005 -0.88012785 0.11092806 0
4.5560002 -0.8856222 0.11163157 0
4.5470004 -0.89128441 0.11226469 0
4.5370002 -0.89670843 0.11296821 0
4.5270004 -0.90209645 0.11367166 0
4.5180001 -0.9076575 0.11430481 0
4.5080004 -0.91297519 0.11500829 0
4.4990001 -0.91846955 0.11564144 0
4.4890003 -0.9237169 0.1163449 0
4.4800005 -0.92914456 0.11697805 0
4.4700003 -0.93432146 0.11768153 0
4.4610004 -0.93968242 0.11831465 0
4.4520001 -0.94501078 0.11894783 0
4.4430003 -0.95030683 0.11958095 0
4.25 -1.0599207 0.13315821 0
4.2410002 -1.0644788 0.13379136 0
4.2330003 -1.0692716 0.13435414 0
4.2250004 -1.0740354 0.1349169 0
4.2160001 -1.0784998 0.13555005 0
4.2080002 -1.0832042 0.13611284 0
4.2000003 -1.0878797 0.13667563 0
4.1920004 -1.0925262 0.13723841 0
4.184 -1.097144 0.13780123 0
4.1760001 -1.1017329 0.13836399 0
4.1680002 -1.106293 0.13892677 0
4.1600003 -1.110824 0.13948956 0
4.152 -1.1153264 0.14005238 0
4.1440001 -1.1197999 0.14061517 0
4.1360002 -1.1242443 0.14117792 0
4.1280003 -1.1286601 0.14174071 0
4.1200004 -1.133047 0.1423035 0
4.1129999 -1.137699 0.14279595 0
4.105 -1.14203 0.14335874 0
4.0970001 -1.1463321 0.14392152 0
4.0890002 -1.1506052 0.14448434 0
4.0820003 -1.1551509 0.14497676 0
4.0740004 -1.1593682 0.14553955 0
4.0669999 -1.1638614 0.14603201 0
4.059 -1.1680229 0.14659479 0
4.0510001 -1.1721554 0.14715755 0
4.0440001 -1.1765693 0.14765 0
4.0360003 -1.1806458 0.14821279 0
3.9000003 -1.2581592 0.15778017 0
3.7540002 -1.3406942 0.16805108 0
3.7480001 -1.3444172 0.16847317 0
3.7420003 -1.3481188 0.16889524 0
3.7350004 -1.3514071 0.16938767 0
3.7290003 -1.3550633 0.16980979 0
3.7230003 -1.358698 0.17023189 0
3.7170002 -1.362311 0.17065397 0
3.7110002 -1.3659024 0.17107607 0
3.7040002 -1.3690717 0.17156851 0
3.6980002 -1.372618 0.17199059 0
3.6920002 -1.3761426 0.17241269 0
3.6860003 -1.3796456 0.17283477 0
3.6800003 -1.383127 0.17325686 0
3.6740003 -1.3865867 0.17367896 0
3.6680002 -1.3900247 0.17410105 0
3.6620002 -1.3934412 0.17452314 0
3.6560001 -1.3968358 0.17494524 0
3.6500003 -1.4002091 0.17536731 0
3.6440003 -1.4035605 0.17578942 0
3.6380002 -1.4068904 0.17621151 0
3.6320002 -1.4101985 0.1766336 0
3.6260002 -1.4134851 0.17705569 0
3.6200004 -1.41675 0.17747778 0
3.6150002 -1.4204206 0.17782952 0
3.6090002 -1.4236441 0.17825162 0
3.6030002 -1.4268459 0.17867371 0
4.5660005 -0.88012785 0.1034134 0
4.5560002 -0.8856222 0.10413495 0
4.5470004 -0.89128441 0.10478431 0
4.5370002 -0.89670843 0.10550582 0
4.5270004 -0.90209645 0.10622734 0
4.5180001 -0.9076575 0.10687673 0
4.5080004 -0.91297519 0.10759825 0
4.4990001 -0.91846955 0.10824764 0
4.4890003 -0.9237169 0.10896912 0
4.4800005 -0.92914456 0.10961851 0
4.4700003 -0.93432146 0.11034003 0
4.4610004 -0.93968242 0.11098939 0
4.4520001 -0.94501078 0.11163878 0
4.4430003 -0.95030683 0.11228815 0
4.25 -1.0599207 0.12621355 0
4.2410002 -1.0644788 0.12686294 0
4.2330003 -1.0692716 0.12744012 0
4.2250004 -1.0740354 0.12801734 0
4.2160001 -1.0784998 0.1286667 0
4.2080002 -1.0832042 0.12924394 0
4.2000003 -1.0878797 0.12982118 0
4.1920004 -1.0925262 0.13039839 0
4.184 -1.097144 0.1309756 0
4.1760001 -1.1017329 0.13155282 0
4.1680002 -1.106293 0.13213006 0
4.1600003 -1.110824 0.13270724 0
4.152 -1.1153264 0.13328448 0
4.1440001 -1.1197999 0.13386169 0
4.1360002 -1.1242443 0.13443893 0
4.1280003 -1.1286601 0.13501611 0
4.1200004 -1.133047 0.13559332 0
4.1129999 -1.137699 0.13609841 0
4.105 -1.14203 0.13667563 0
4.0970001 -1.1463321 0.13725287 0
4.0890002 -1.1506052 0.13783008 0
4.0820003 -1.1551509 0.13833514 0
4.0740004 -1.1593682 0.13891235 0
4.0669999 -1.1638614 0.13941741 0
4.059 -1.1680229 0.13999465 0
4.0510001 -1.1721554 0.14057186 0
4.0440001 -1.1765693 0.14107692 0
4.0360003 -1.1806458 0.14165416 0
3.9000003 -1.2581592 0.15146685 0
3.7540002 -1.3406942 0.1620011 0
3.7480001 -1.3444172 0.16243403 0
3.7420003 -1.3481188 0.16286692 0
3.7350004 -1.3514071 0.163372 0
3.7290003 -1.3550633 0.16380492 0
3.7230003 -1.358698 0.16423781 0
3.7170002 -1.362311 0.16467074 0
3.7110002 -1.3659024 0.16510366 0
3.7040002 -1.3690717 0.16560872 0
3.6980002 -1.372618 0.16604164 0
3.6920002 -1.3761426 0.16647454 0
3.6860003 -1.3796456 0.16690746 0
3.6800003 -1.383127 0.16734037 0
3.6740003 -1.3865867 0.16777329 0
3.6680002 -1.3900247 0.16820621 0
3.6620002 -1.3934412 0.16863911 0
3.6560001 -1.3968358 0.16907203 0
3.6500003 -1.4002091 0.16950493 0
3.6440003 -1.4035605 0.16993785 0
3.6380002 -1.4068904 0.17037077 0
3.6320002 -1.4101985 0.1708037 0
3.6260002 -1.4134851 0.17123659 0
3.6200004 -1.41675 0.1716695 0
3.6150002 -1.4204206 0.17203027 0
3.6090002 -1.4236441 0.17246319 0
3.6030002 -1.4268459 0.17289612 0
4.5660005 -0.88012785 0.095898747 0
4.5560002 -0.8856222 0.096638292 0
4.5470004 -0.89128441 0.097303897 0
4.5370002 -0.89670843 0.098043472 0
4.5270004 -0.90209645 0.098783016 0
4.5180001 -0.9076575 0.099448651 0
4.5080004 -0.91297519 0.1001882 0
4.4990001 -0.91846955 0.1008538 0
4.4890003 -0.9237169 0.10159338 0
4.4800005 -0.92914456 0.10225895 0
4.4700003 -0.93432146 0.10299852 0
4.4610004 -0.93968242 0.10366413 0
4.4520001 -0.94501078 0.10432976 0
4.4430003 -0.95030683 0.10499534 0
4.25 -1.0599207 0.11926889 0
4.2410002 -1.0644788 0.1199345 0
4.2330003 -1.0692716 0.12052613 0
4.2250004 -1.0740354 0.12111777 0
4.2160001 -1.0784998 0.12178338 0
4.2080002 -1.0832042 0.12237504 0
4.2000003 -1.0878797 0.12296671 0
4.1920004 -1.0925262 0.12355831 0
4.184 -1.097144 0.12414998 0
4.1760001 -1.1017329 0.12474164 0
4.1680002 -1.106293 0.12533328 0
4.1600003 -1.110824 0.12592494 0
4.152 -1.1153264 0.12651661 0
4.1440001 -1.1197999 0.12710822 0
4.1360002 -1.1242443 0.12769991 0
4.1280003 -1.1286601 0.12829155 0
4.1200004 -1.133047 0.12888318 0
4.1129999 -1.137699 0.12940088 0
4.105 -1.14203 0.12999251 0
4.0970001 -1.1463321 0.13058418 0
4.0890002 -1.1506052 0.13117582 0
4.0820003 -1.1551509 0.13169351 0
4.0740004 -1.1593682 0.13228515 0
4.0669999 -1.1638614 0.13280287 0
4.059 -1.1680229 0.13339451 0
4.0510001 -1.1721554 0.13398615 0
4.0440001 -1.1765693 0.13450384 0
4.0360003 -1.1806458 0.13509551 0
3.9000003 -1.2581592 0.14515352 0
3.7540002 -1.3406942 0.15595113 0
3.7480001 -1.3444172 0.15639487 0
3.7420003 -1.3481188 0.15683861 0
3.7350004 -1.3514071 0.15735628 0
3.7290003 -1.3550633 0.15780002 0
3.7230003 -1.358698 0.15824376 0
3.7170002 -1.362311 0.1586875 0
3.7110002 -1.3659024 0.15913124 0
3.7040002 -1.3690717 0.15964894 0
3.6980002 -1.372618 0.16009268 0
3.6920002 -1.3761426 0.16053642 0
3.6860003 -1.3796456 0.16098014 0
3.6800003 -1.383127 0.16142388 0
3.6740003 -1.3865867 0.16186762 0
3.6680002 -1.3900247 0.16231136 0
3.6620002 -1.3934412 0.1627551 0
3.6560001 -1.3968358 0.16319884 0
3.6500003 -1.4002091 0.16364256 0
3.6440003 -1.4035605 0.1640863 0
3.6380002 -1.4068904 0.16453004 0
3.6320002 -1.4101985 0.16497378 0
3.6260002 -1.4134851 0.16541751 0
3.6200004 -1.41675 0.16586125 0
3.6150002 -1.4204206 0.16623104 0
3.6090002 -1.4236441 0.16667478 0
3.6030002 -1.4268459 0.16711852 0
4.5660005 -0.88012785 0.088384062 0
4.5560002 -0.8856222 0.089141697 0
4.5470004 -0.89128441 0.089823514 0
4.5370002 -0.89670843 0.090581149 0
4.5270004 -0.90209645 0.091338694 0
4.5180001 -0.9076575 0.092020571 0
4.5080004 -0.91297519 0.092778146 0
4.4990001 -0.91846955 0.093459994 0
4.4890003 -0.9237169 0.094217598 0
4.4800005 -0.92914456 0.094899416 0
4.4700003 -0.93432146 0.095657051 0
4.4610004 -0.93968242 0.096338868 0
4.4520001 -0.94501078 0.097020715 0
4.4430003 -0.95030683 0.097702533 0
4.25 -1.0599207 0.11232421 0
4.2410002 -1.0644788 0.11300606 0
4.2330003 -1.0692716 0.11361215 0
4.2250004 -1.0740354 0.11421821 0
4.2160001 -1.0784998 0.11490008 0
4.2080002 -1.0832042 0.11550614 0
4.2000003 -1.0878797 0.11611223 0
4.1920004 -1.0925262 0.11671829 0
4.184 -1.097144 0.11732438 0
4.1760001 -1.1017329 0.11793044 0
4.1680002 -1.106293 0.11853653 0
4.1600003 -1.110824 0.11914262 0
4.152 -1.1153264 0.11974871 0
4.1440001 -1.1197999 0.1203548 0
4.1360002 -1.1242443 0.12096086 0
4.1280003 -1.1286601 0.12156695 0
4.1200004 -1.133047 0.12217301 0
4.1129999 -1.137699 0.12270334 0
4.105 -1.14203 0.12330943 0
4.0970001 -1.1463321 0.12391546 0
4.0890002 -1.1506052 0.12452158 0
4.0820003 -1.1551509 0.12505189 0
4.0740004 -1.1593682 0.12565798 0
4.0669999 -1.1638614 0.12618828 0
4.059 -1.1680229 0.12679437 0
4.0510001 -1.1721554 0.12740046 0
4.0440001 -1.1765693 0.12793076 0
4.0360003 -1.1806458 0.12853685 0
3.9000003 -1.2581592 0.1388402 0
3.7540002 -1.3406942 0.14990115 0
3.7480001 -1.3444172 0.15035573 0
3.7420003 -1.3481188 0.15081027 0
3.7350004 -1.3514071 0.1513406 0
3.7290003 -1.3550633 0.15179515 0
3.7230003 -1.358698 0.15224972 0
3.7170002 -1.362311 0.15270427 0
3.7110002 -1.3659024 0.15315881 0
3.7040002 -1.3690717 0.15368915 0
3.6980002 -1.372618 0.15414371 0
3.6920002 -1.3761426 0.15459827 0
3.6860003 -1.3796456 0.15505283 0
3.6800003 -1.383127 0.15550739 0
3.6740003 -1.3865867 0.15596195 0
3.6680002 -1.3900247 0.15641651 0
3.6620002 -1.3934412 0.15687108 0
3.6560001 -1.3968358 0.15732564 0
3.6500003 -1.4002091 0.15778017 0
3.6440003 -1.4035605 0.15823476 0
3.6380002 -1.4068904 0.15868932 0
3.6320002 -1.4101985 0.15914388 0
3.6260002 -1.4134851 0.15959844 0
3.6200004 -1.41675 0.16005298 0
3.6150002 -1.4204206 0.1604318 0
3.6090002 -1.4236441 0.16088636 0
3.6030002 -1.4268459 0.16134092 0
4.5660005 -0.88012785 0.080869406 0
4.5560002 -0.8856222 0.081645042 0
4.5470004 -0.89128441 0.082343102 0
4.5370002 -0.89670843 0.083118767 0
4.5270004 -0.90209645 0.083894402 0
4.5180001 -0.9076575 0.084592491 0
4.5080004 -0.91297519 0.085368097 0
4.4990001 -0.91846955 0.086066186 0
4.4890003 -0.9237169 0.086841822 0
4.4800005 -0.92914456 0.087539881 0
4.4700003 -0.93432146 0.088315547 0
4.4610004 -0.93968242 0.089013606 0
4.4520001 -0.94501078 0.089711696 0
4.4430003 -0.95030683 0.090409756 0
4.25 -1.0599207 0.10537958 0
4.2410002 -1.0644788 0.10607764 0
4.2330003 -1.0692716 0.10669816 0
4.2250004 -1.0740354 0.10731867 0
4.2160001 -1.0784998 0.10801673 0
4.2080002 -1.0832042 0.10863724 0
4.2000003 -1.0878797 0.10925776 0
4.1920004 -1.0925262 0.10987824 0
4.184 -1.097144 0.11049879 0
4.1760001 -1.1017329 0.11111927 0
4.1680002 -1.106293 0.11173978 0
4.1600003 -1.110824 0.1123603 0
4.152 -1.1153264 0.11298081 0
4.1440001 -1.1197999 0.11360133 0
4.1360002 -1.1242443 0.11422181 0
4.1280003 -1.1286601 0.11484236 0
4.1200004 -1.133047 0.11546284 0
4.1129999 -1.137699 0.11600581 0
4.105 -1.14203 0.11662632 0
4.0970001 -1.1463321 0.11724681 0
4.0890002 -1.1506052 0.11786735 0
4.0820003 -1.1551509 0.11841029 0
4.0740004 -1.1593682 0.11903077 0
4.0669999 -1.1638614 0.11957374 0
4.059 -1.1680229 0.12019426 0
4.0510001 -1.1721554 0.12081474 0
4.0440001 -1.1765693 0.12135768 0
4.0360003 -1.1806458 0.12197819 0
3.9000003 -1.2581592 0.13252687 0
3.7540002 -1.3406942 0.14385119 0
3.7480001 -1.3444172 0.14431658 0
3.7420003 -1.3481188 0.14478195 0
3.7350004 -1.3514071 0.14532489 0
3.7290003 -1.3550633 0.14579028 0
3.7230003 -1.358698 0.14625567 0
3.7170002 -1.362311 0.14672104 0
3.7110002 -1.3659024 0.14718643 0
3.7040002 -1.3690717 0.14772937 0
3.6980002 -1.372618 0.14819476 0
3.6920002 -1.3761426 0.14866015 0
3.6860003 -1.3796456 0.14912552 0
3.6800003 -1.383127 0.14959091 0
3.6740003 -1.3865867 0.15005627 0
3.6680002 -1.3900247 0.15052167 0
3.6620002 -1.3934412 0.15098706 0
3.6560001 -1.3968358 0.15145245 0
3.6500003 -1.4002091 0.15191779 0
3.6440003 -1.4035605 0.15238321 0
3.6380002 -1.4068904 0.15284857 0
3.6320002 -1.4101985 0.15331396 0
3.6260002 -1.4134851 0.15377936 0
3.6200004 -1.41675 0.15424472 0
3.6150002 -1.4204206 0.15463254 0
3.6090002 -1.4236441 0.15509795 0
3.6030002 -1.4268459 0.15556331 0
4.5660005 -0.88012785 0.073354751 0
4.5560002 -0.8856222 0.074148417 0
4.5470004 -0.89128441 0.074862719 0
4.5370002 -0.89670843 0.075656414 0
4.5270004 -0.90209645 0.07645008 0
4.5180001 -0.9076575 0.077164412 0
4.5080004 -0.91297519 0.077958047 0
4.4990001 -0.91846955 0.078672379 0
4.4890003 -0.9237169 0.079466045 0
4.4800005 -0.92914456 0.080180347 0
4.4700003 -0.93432146 0.080974042 0
4.4610004 -0.93968242 0.081688315 0
4.4520001 -0.94501078 0.082402676 0
4.4430003 -0.95030683 0.083116949 0
4.25 -1.0599207 0.098434895 0
4.2410002 -1.0644788 0.099149227 0
4.2330003 -1.0692716 0.099784136 0
4.2250004 -1.0740354 0.10041907 0
4.2160001 -1.0784998 0.10113341 0
4.2080002 -1.0832042 0.10176834 0
4.2000003 -1.0878797 0.10240328 0
4.1920004 -1.0925262 0.10303822 0
4.184 -1.097144 0.10367316 0
4.1760001 -1.1017329 0.1043081 0
4.1680002 -1.106293 0.10494304 0
4.1600003 -1.110824 0.10557798 0
4.152 -1.1153264 0.10621294 0
4.1440001 -1.1197999 0.10684785 0
4.1360002 -1.1242443 0.10748282 0
4.1280003 -1.1286601 0.10811773 0
4.1200004 -1.133047 0.10875267 0
4.1129999 -1.137699 0.10930824 0
4.105 -1.14203 0.10994321 0
4.0970001 -1.1463321 0.11057812 0
4.0890002 -1.1506052 0.11121309 0
4.0820003 -1.1551509 0.11176863 0
4.0740004 -1.1593682 0.1124036 0
4.0669999 -1.1638614 0.11295918 0
4.059 -1.1680229 0.11359411 0
4.0510001 -1.1721554 0.11422902 0
4.0440001 -1.1765693 0.1147846 0
4.0360003 -1.1806458 0.11541957 0
3.9000003 -1.2581592 0.12621352 0
3.7540002 -1.3406942 0.13780123 0
3.7480001 -1.3444172 0.13827744 0
3.7420003 -1.3481188 0.13875362 0
3.7350004 -1.3514071 0.1393092 0
3.7290003 -1.3550633 0.13978538 0
3.7230003 -1.358698 0.14026162 0
3.7170002 -1.362311 0.1407378 0
3.7110002 -1.3659024 0.14121401 0
3.7040002 -1.3690717 0.14176959 0
3.6980002 -1.372618 0.1422458 0
3.6920002 -1.3761426 0.14272201 0
3.6860003 -1.3796456 0.14319819 0
3.6800003 -1.383127 0.1436744 0
3.6740003 -1.3865867 0.14415061 0
3.6680002 -1.3900247 0.14462683 0
3.6620002 -1.3934412 0.14510304 0
3.6560001 -1.3968358 0.14557922 0
3.6500003 -1.4002091 0.14605543 0
3.6440003 -1.4035605 0.14653164 0
3.6380002 -1.4068904 0.14700785 0
3.6320002 -1.4101985 0.14748406 0
3.6260002 -1.4134851 0.14796028 0
3.6200004 -1.41675 0.14843646 0
3.6150002 -1.4204206 0.1488333 0
3.6090002 -1.4236441 0.14930952 0
3.6030002 -1.4268459 0.1497857 0
4.5660005 -0.88012785 0.065840065 0
4.5560002 -0.8856222 0.066651821 0
4.5470004 -0.89128441 0.067382306 0
4.5370002 -0.89670843 0.068194062 0
4.5270004 -0.90209645 0.069005758 0
4.5180001 -0.9076575 0.069736332 0
4.5080004 -0.91297519 0.070547998 0
4.4990001 -0.91846955 0.071278572 0
4.4890003 -0.9237169 0.072090298 0
4.4800005 -0.92914456 0.072820812 0
4.4700003 -0.93432146 0.073632538 0
4.4610004 -0.93968242 0.074363083 0
4.4520001 -0.94501078 0.075093657 0
4.4430003 -0.95030683 0.075824142 0
4.25 -1.0599207 0.091490239 0
4.2410002 -1.0644788 0.092220783 0
4.2330003 -1.0692716 0.092870146 0
4.2250004 -1.0740354 0.093519509 0
4.2160001 -1.0784998 0.094250053 0
4.2080002 -1.0832042 0.094899446 0
4.2000003 -1.0878797 0.095548779 0
4.1920004 -1.0925262 0.096198171 0
4.184 -1.097144 0.096847534 0
4.1760001 -1.1017329 0.097496897 0
4.1680002 -1.106293 0.09814629 0
4.1600003 -1.110824 0.098795652 0
4.152 -1.1153264 0.099445015 0
4.1440001 -1.1197999 0.10009441 0
4.1360002 -1.1242443 0.1007438 0
4.1280003 -1.1286601 0.10139313 0
4.1200004 -1.133047 0.10204253 0
4.1129999 -1.137699 0.10261071 0
4.105 -1.14203 0.1032601 0
4.0970001 -1.1463321 0.10390946 0
4.0890002 -1.1506052 0.10455883 0
4.0820003 -1.1551509 0.10512704 0
4.0740004 -1.1593682 0.10577637 0
4.0669999 -1.1638614 0.10634461 0
4.059 -1.1680229 0.10699394 0
4.0510001 -1.1721554 0.10764334 0
4.0440001 -1.1765693 0.10821155 0
4.0360003 -1.1806458 0.10886091 0
3.9000003 -1.2581592 0.1199002 0
3.7540002 -1.3406942 0.13175124 0
3.7480001 -1.3444172 0.13223827 0
3.7420003 -1.3481188 0.13272527 0
3.7350004 -1.3514071 0.13329348 0
3.7290003 -1.3550633 0.13378051 0
3.7230003 -1.358698 0.13426757 0
3.7170002 -1.362311 0.1347546 0
3.7110002 -1.3659024 0.1352416 0
3.7040002 -1.3690717 0.13580981 0
3.6980002 -1.372618 0.13629684 0
3.6920002 -1.3761426 0.13678387 0
3.6860003 -1.3796456 0.1372709 0
3.6800003 -1.383127 0.13775793 0
3.6740003 -1.3865867 0.13824496 0
3.6680002 -1.3900247 0.13873196 0
3.6620002 -1.3934412 0.13921899 0
3.6560001 -1.3968358 0.13970605 0
3.6500003 -1.4002091 0.14019305 0
3.6440003 -1.4035605 0.14068007 0
3.6380002 -1.4068904 0.1411671 0
3.6320002 -1.4101985 0.14165416 0
3.6260002 -1.4134851 0.14214119 0
3.6200004 -1.41675 0.14262819 0
3.6150002 -1.4204206 0.14303407 0
3.6090002 -1.4236441 0.1435211 0
3.6030002 -1.4268459 0.1440081 0
4.5660005 -0.88012785 0.05832541 0
4.5560002 -0.8856222 0.059155166 0
4.5470004 -0.89128441 0.059901953 0
4.5370002 -0.89670843 0.060731709 0
4.5270004 -0.90209645 0.061561435 0
4.5180001 -0.9076575 0.062308222 0
4.5080004 -0.91297519 0.063137978 0
4.4990001 -0.91846955 0.063884765 0
4.4890003 -0.9237169 0.064714521 0
4.4800005 -0.92914456 0.065461248 0
4.4700003 -0.93432146 0.066291064 0
4.4610004 -0.93968242 0.067037791 0
4.4520001 -0.94501078 0.067784607 0
4.4430003 -0.95030683 0.068531364 0
4.25 -1.0599207 0.084545583 0
4.2410002 -1.0644788 0.085292369 0
4.2330003 -1.0692716 0.085956156 0
4.2250004 -1.0740354 0.086619943 0
4.2160001 -1.0784998 0.08736673 0
4.2080002 -1.0832042 0.088030547 0
4.2000003 -1.0878797 0.088694334 0
4.1920004 -1.0925262 0.089358151 0
4.184 -1.097144 0.090021938 0
4.1760001 -1.1017329 0.090685725 0
4.1680002 -1.106293 0.091349542 0
4.1600003 -1.110824 0.092013359 0
4.152 -1.1153264 0.092677146 0
4.1440001 -1.1197999 0.093340933 0
4.1360002 -1.1242443 0.09400475 0
4.1280003 -1.1286601 0.094668537 0
4.1200004 -1.133047 0.095332354 0
4.1129999 -1.137699 0.095913172 0
4.105 -1.14203 0.096576989 0
4.0970001 -1.1463321 0.097240776 0
4.0890002 -1.1506052 0.097904593 0
4.0820003 -1.1551509 0.09848541 0
4.0740004 -1.1593682 0.099149197 0
4.0669999 -1.1638614 0.099730045 0
4.059 -1.1680229 0.10039383 0
4.0510001 -1.1721554 0.10105762 0
4.0440001 -1.1765693 0.10163847 0
4.0360003 -1.1806458 0.10230225 0
3.9000003 -1.2581592 0.11358687 0
3.7540002 -1.3406942 0.12570128 0
3.7480001 -1.3444172 0.12619913 0
3.7420003 -1.3481188 0.12669697 0
3.7350004 -1.3514071 0.12727776 0
3.7290003 -1.3550633 0.12777564 0
3.7230003 -1.358698 0.12827352 0
3.7170002 -1.362311 0.12877136 0
3.7110002 -1.3659024 0.12926921 0
3.7040002 -1.3690717 0.12985003 0
3.6980002 -1.372618 0.13034788 0
3.6920002 -1.3761426 0.13084573 0
3.6860003 -1.3796456 0.13134357 0
3.6800003 -1.383127 0.13184142 0
3.6740003 -1.3865867 0.1323393 0
3.6680002 -1.3900247 0.13283715 0
3.6620002 -1.3934412 0.13333499 0
3.6560001 -1.3968358 0.13383284 0
3.6500003 -1.4002091 0.13433066 0
3.6440003 -1.4035605 0.13482851 0
3.6380002 -1.4068904 0.13532639 0
3.6320002 -1.4101985 0.13582423 0
3.6260002 -1.4134851 0.13632211 0
3.6200004 -1.41675 0.13681993 0
3.6150002 -1.4204206 0.13723481 0
3.6090002 -1.4236441 0.13773268 0
3.6030002 -1.4268459 0.13823053 0
4.5560002 -0.8856222 0.051658571 0
4.5470004 -0.89128441 0.05242154 0
4.5370002 -0.89670843 0.053269356 0
4.5270004 -0.90209645 0.054117143 0
4.5180001 -0.9076575 0.054880142 0
4.5080004 -0.91297519 0.055727929 0
4.4990001 -0.91846955 0.056490958 0
4.4890003 -0.9237169 0.057338715 0
4.4800005 -0.92914456 0.058101714 0
4.4700003 -0.93432146 0.05894953 0
4.4610004 -0.93968242 0.059712529 0
4.4520001 -0.94501078 0.060475588 0
4.4430003 -0.95030683 0.061238557 0
4.25 -1.0599207 0.077600896 0
4.2410002 -1.0644788 0.078363925 0
4.2330003 -1.0692716 0.079042166 0
4.2250004 -1.0740354 0.079720378 0
4.2160001 -1.0784998 0.080483407 0
4.2080002 -1.0832042 0.081161648 0
4.2000003 -1.0878797 0.081839859 0
4.1920004 -1.0925262 0.082518071 0
4.184 -1.097144 0.083196342 0
4.1760001 -1.1017329 0.083874553 0
4.1680002 -1.106293 0.084552795 0
4.1600003 -1.110824 0.085231006 0
4.152 -1.1153264 0.085909247 0
4.1440001 -1.1197999 0.086587489 0
4.1360002 -1.1242443 0.0872657 0
4.1280003 -1.1286601 0.087943971 0
4.1200004 -1.133047 0.088622183 0
4.1129999 -1.137699 0.089215636 0
4.105 -1.14203 0.089893878 0
4.0970001 -1.1463321 0.090572089 0
4.0890002 -1.1506052 0.09125033 0
4.0820003 -1.1551509 0.091843784 0
4.0740004 -1.1593682 0.092522025 0
4.0669999 -1.1638614 0.093115479 0
4.059 -1.1680229 0.09379369 0
4.0510001 -1.1721554 0.094471931 0
4.0440001 -1.1765693 0.095065355 0
4.0360003 -1.1806458 0.095743597 0
3.9000003 -1.2581592 0.10727355 0
3.7540002 -1.3406942 0.11965132 0
3.7480001 -1.3444172 0.12015998 0
3.7420003 -1.3481188 0.12066865 0
3.7350004 -1.3514071 0.12126207 0
3.7290003 -1.3550633 0.12177077 0
3.7230003 -1.358698 0.12227944 0
3.7170002 -1.362311 0.12278813 0
3.7110002 -1.3659024 0.1232968 0
3.7040002 -1.3690717 0.12389025 0
3.6980002 -1.372618 0.12439892 0
3.6920002 -1.3761426 0.12490761 0
3.6860003 -1.3796456 0.12541625 0
3.6800003 -1.383127 0.12592494 0
3.6740003 -1.3865867 0.12643361 0
3.6680002 -1.3900247 0.12694228 0
3.6620002 -1.3934412 0.12745094 0
3.6560001 -1.3968358 0.12795964 0
3.6500003 -1.4002091 0.1284683 0
3.6440003 -1.4035605 0.128977 0
3.6380002 -1.4068904 0.12948567 0
3.6320002 -1.4101985 0.12999433 0
3.6260002 -1.4134851 0.130503 0
3.6200004 -1.41675 0.13101166 0
3.6150002 -1.4204206 0.13143557 0
3.6090002 -1.4236441 0.13194427 0
3.6030002 -1.4268459 0.13245293 0
4.4800005 -0.92914456 0.050742179 0
4.4700003 -0.93432146 0.051608026 0
4.4610004 -0.93968242 0.052387297 0
4.4520001 -0.94501078 0.053166538 0
4.4430003 -0.95030683 0.05394578 0
4.25 -1.0599207 0.07065627 0
4.2410002 -1.0644788 0.071435481 0
4.2330003 -1.0692716 0.072128147 0
4.2250004 -1.0740354 0.072820812 0
4.2160001 -1.0784998 0.073600054 0
4.2080002 -1.0832042 0.074292749 0
4.2000003 -1.0878797 0.074985385 0
4.1920004 -1.0925262 0.075678021 0
4.184 -1.097144 0.076370716 0
4.1760001 -1.1017329 0.077063352 0
4.1680002 -1.106293 0.077756047 0
4.1600003 -1.110824 0.078448713 0
4.152 -1.1153264 0.079141378 0
4.1440001 -1.1197999 0.079834044 0
4.1360002 -1.1242443 0.08052671 0
4.1280003 -1.1286601 0.081219375 0
4.1200004 -1.133047 0.081912011 0
4.1129999 -1.137699 0.082518101 0
4.105 -1.14203 0.083210766 0
4.0970001 -1.1463321 0.083903432 0
4.0890002 -1.1506052 0.084596097 0
4.0820003 -1.1551509 0.085202157 0
4.0740004 -1.1593682 0.085894793 0
4.0669999 -1.1638614 0.086500913 0
4.059 -1.1680229 0.087193578 0
4.0510001 -1.1721554 0.087886214 0
4.0440001 -1.1765693 0.088492304 0
4.0360003 -1.1806458 0.08918497 0
3.9000003 -1.2581592 0.10096022 0
3.7540002 -1.3406942 0.11360133 0
3.7480001 -1.3444172 0.11412081 0
3.7420003 -1.3481188 0.1146403 0
3.7350004 -1.3514071 0.11524639 0
3.7290003 -1.3550633 0.1157659 0
3.7230003 -1.358698 0.11628538 0
3.7170002 -1.362311 0.1168049 0
3.7110002 -1.3659024 0.11732438 0
3.7040002 -1.3690717 0.11793044 0
3.6980002 -1.372618 0.11844996 0
3.6920002 -1.3761426 0.11896944 0
3.6860003 -1.3796456 0.11948895 0
3.6800003 -1.383127 0.12000847 0
3.6740003 -1.3865867 0.12052795 0
3.6680002 -1.3900247 0.12104744 0
3.6620002 -1.3934412 0.12156695 0
3.6560001 -1.3968358 0.12208647 0
3.6500003 -1.4002091 0.12260592 0
3.6440003 -1.4035605 0.12312543 0
3.6380002 -1.4068904 0.12364492 0
3.6320002 -1.4101985 0.12416443 0
3.6260002 -1.4134851 0.12468392 0
3.6200004 -1.41675 0.1252034 0
3.6150002 -1.4204206 0.12563634 0
3.6090002 -1.4236441 0.12615582 0
3.6030002 -1.4268459 0.12667534 0
4.25 -1.0599207 0.063711584 0
4.2410002 -1.0644788 0.064507097 0
4.2330003 -1.0692716 0.065214157 0
4.2250004 -1.0740354 0.065921247 0
4.2160001 -1.0784998 0.066716731 0
4.2080002 -1.0832042 0.06742382 0
4.2000003 -1.0878797 0.06813091 0
4.1920004 -1.0925262 0.068838 0
4.184 -1.097144 0.06954512 0
4.1760001 -1.1017329 0.07025218 0
4.1680002 -1.106293 0.0709593 0
4.1600003 -1.110824 0.07166639 0
4.152 -1.1153264 0.07237348 0
4.1440001 -1.1197999 0.07308057 0
4.1360002 -1.1242443 0.073787689 0
4.1280003 -1.1286601 0.074494749 0
4.1200004 -1.133047 0.075201839 0
4.1129999 -1.137699 0.075820565 0
4.105 -1.14203 0.076527625 0
4.0970001 -1.1463321 0.077234715 0
4.0890002 -1.1506052 0.077941835 0
4.0820003 -1.1551509 0.078560531 0
4.0740004 -1.1593682 0.079267621 0
4.0669999 -1.1638614 0.079886347 0
4.059 -1.1680229 0.080593437 0
4.0510001 -1.1721554 0.081300497 0
4.0440001 -1.1765693 0.081919223 0
4.0360003 -1.1806458 0.082626343 0
3.9000003 -1.2581592 0.094646901 0
3.7540002 -1.3406942 0.10755134 0
3.7480001 -1.3444172 0.10808167 0
3.7420003 -1.3481188 0.10861197 0
3.7350004 -1.3514071 0.1092307 0
