# .PCD v0.7 - Point Cloud Data file format
VERSION 0.7
FIELDS x y z intensity
SIZE 4 4 4 4
TYPE F F F F
COUNT 1 1 1 1
WIDTH 1506
HEIGHT 1
VIEWPOINT 0 0 0 1 0 0 0
POINTS 1506
DATA ascii
3.6610003 1.806899 1.6745592 0
3.6650002 1.8032823 1.6761178 0
3.6680002 1.7990866 1.6772866 0
3.6710002 1.7948802 1.6784555 0
3.6740003 1.7906628 1.6796243 0
3.6770003 1.7864347 1.6807933 0
3.6810002 1.7827531 1.6823517 0
3.6840003 1.7785015 1.6835207 0
3.6870003 1.7742392 1.6846895 0
3.6900003 1.7699659 1.6858582 0
3.6930003 1.7656819 1.6870272 0
3.6970003 1.7619354 1.6885856 0
3.7000003 1.757628 1.6897546 0
3.7030003 1.7533095 1.6909235 0
3.7060003 1.7489804 1.6920923 0
3.7100003 1.7451816 1.6936507 0
3.7130003 1.740829 1.6948197 0
3.7160003 1.7364657 1.6959885 0
3.7190003 1.7320913 1.6971574 0
3.7230003 1.7282401 1.6987159 0
3.7260003 1.7238425 1.6998847 0
3.7290003 1.719434 1.7010536 0
3.7330003 1.7155432 1.7026122 0
3.7360003 1.7111113 1.703781 0
3.7390003 1.7066685 1.7049499 0
3.7430003 1.7027379 1.7065083 0
3.6460001 1.8276515 1.6628598 0
3.6490002 1.8235227 1.6640233 0
3.6520002 1.8193829 1.6651866 0
3.6550002 1.8152325 1.6663501 0
3.6580002 1.8110712 1.6675136 0
3.6610003 1.806899 1.6686771 0
3.6650002 1.8032823 1.6702284 0
3.6680002 1.7990866 1.6713918 0
3.6710002 1.7948802 1.6725552 0
3.6740003 1.7906628 1.6737187 0
3.6770003 1.7864347 1.6748822 0
3.6810002 1.7827531 1.6764334 0
3.6840003 1.7785015 1.6775969 0
3.6870003 1.7742392 1.6787603 0
3.6900003 1.7699659 1.6799238 0
3.6930003 1.7656819 1.6810873 0
3.6970003 1.7619354 1.6826385 0
3.7000003 1.757628 1.683802 0
3.7030003 1.7533095 1.6849654 0
3.7060003 1.7489804 1.6861289 0
3.7100003 1.7451816 1.6876801 0
3.7130003 1.740829 1.6888436 0
3.7160003 1.7364657 1.6900071 0
3.7190003 1.7320913 1.6911706 0
3.7230003 1.7282401 1.6927218 0
3.7260003 1.7238425 1.6938852 0
3.7290003 1.719434 1.6950488 0
3.7330003 1.7155432 1.6966 0
3.7360003 1.7111113 1.6977634 0
3.7390003 1.7066685 1.6989269 0
3.7430003 1.7027379 1.7004782 0
3.6460001 1.8276515 1.6570045 0
3.6490002 1.8235227 1.6581626 0
3.6520002 1.8193829 1.6593207 0
3.6550002 1.8152325 1.6604787 0
3.6580002 1.8110712 1.6616368 0
3.6610003 1.806899 1.6627948 0
3.6650002 1.8032823 1.6643388 0
3.6680002 1.7990866 1.6654969 0
3.6710002 1.7948802 1.6666549 0
3.6740003 1.7906628 1.6678131 0
3.6770003 1.7864347 1.6689711 0
3.6810002 1.7827531 1.6705152 0
3.6840003 1.7785015 1.6716732 0
3.6870003 1.7742392 1.6728312 0
3.6900003 1.7699659 1.6739893 0
3.6930003 1.7656819 1.6751473 0
3.6970003 1.7619354 1.6766914 0
3.7000003 1.757628 1.6778494 0
3.7030003 1.7533095 1.6790075 0
3.7060003 1.7489804 1.6801655 0
3.7100003 1.7451816 1.6817095 0
3.7130003 1.740829 1.6828676 0
3.7160003 1.7364657 1.6840256 0
3.7190003 1.7320913 1.6851838 0
3.7230003 1.7282401 1.6867279 0
3.7260003 1.7238425 1.6878858 0
3.7290003 1.719434 1.6890439 0
3.7330003 1.7155432 1.6905879 0
3.7360003 1.7111113 1.691746 0
3.7390003 1.7066685 1.692904 0
3.7430003 1.7027379 1.6944481 0
3.6460001 1.8276515 1.6511494 0
3.6490002 1.8235227 1.652302 0
3.6520002 1.8193829 1.6534547 0
3.6550002 1.8152325 1.6546073 0
3.6580002 1.8110712 1.65576 0
3.6610003 1.806899 1.6569126 0
3.6650002 1.8032823 1.6584494 0
3.6680002 1.7990866 1.6596022 0
3.6710002 1.7948802 1.6607547 0
3.6740003 1.7906628 1.6619074 0
3.6770003 1.7864347 1.6630599 0
3.6810002 1.7827531 1.6645968 0
3.6840003 1.7785015 1.6657494 0
3.6870003 1.7742392 1.6669021 0
3.6900003 1.7699659 1.6680547 0
3.6930003 1.7656819 1.6692075 0
3.6970003 1.7619354 1.6707443 0
3.7000003 1.757628 1.6718968 0
3.7030003 1.7533095 1.6730496 0
3.7060003 1.7489804 1.6742021 0
3.7100003 1.7451816 1.6757389 0
3.7130003 1.740829 1.6768917 0
3.7160003 1.7364657 1.6780442 0
3.7190003 1.7320913 1.6791968 0
3.7230003 1.7282401 1.6807337 0
3.7260003 1.7238425 1.6818863 0
3.7290003 1.719434 1.6830389 0
3.7330003 1.7155432 1.6845758 0
3.7360003 1.7111113 1.6857284 0
3.7390003 1.7066685 1.6868811 0
3.7430003 1.7027379 1.6884179 0
3.6460001 1.8276515 1.6452943 0
3.6490002 1.8235227 1.6464415 0
3.6520002 1.8193829 1.6475887 0
3.6550002 1.8152325 1.6487359 0
3.6580002 1.8110712 1.6498832 0
3.6610003 1.806899 1.6510304 0
3.6650002 1.8032823 1.65256 0
3.6680002 1.7990866 1.6537073 0
3.6710002 1.7948802 1.6548544 0
3.6740003 1.7906628 1.6560017 0
3.6770003 1.7864347 1.657149 0
3.6810002 1.7827531 1.6586785 0
3.6840003 1.7785015 1.6598257 0
3.6870003 1.7742392 1.6609731 0
3.6900003 1.7699659 1.6621202 0
3.6930003 1.7656819 1.6632674 0
3.6970003 1.7619354 1.6647971 0
3.7000003 1.757628 1.6659443 0
3.7030003 1.7533095 1.6670915 0
3.7060003 1.7489804 1.6682388 0
3.7100003 1.7451816 1.6697683 0
3.7130003 1.740829 1.6709156 0
3.7160003 1.7364657 1.6720629 0
3.7190003 1.7320913 1.67321 0
3.7230003 1.7282401 1.6747396 0
3.7260003 1.7238425 1.6758869 0
3.7290003 1.719434 1.6770341 0
3.7330003 1.7155432 1.6785638 0
3.7360003 1.7111113 1.679711 0
3.7390003 1.7066685 1.6808581 0
3.7430003 1.7027379 1.6823878 0
3.6460001 1.8276515 1.6394391 0
3.6490002 1.8235227 1.6405809 0
3.6520002 1.8193829 1.6417227 0
3.6550002 1.8152325 1.6428646 0
3.6580002 1.8110712 1.6440064 0
3.6610003 1.806899 1.6451482 0
3.6650002 1.8032823 1.6466706 0
3.6680002 1.7990866 1.6478124 0
3.6710002 1.7948802 1.6489542 0
3.6740003 1.7906628 1.6500961 0
3.6770003 1.7864347 1.6512378 0
3.6810002 1.7827531 1.6527603 0
3.6840003 1.7785015 1.6539021 0
3.6870003 1.7742392 1.655044 0
3.6900003 1.7699659 1.6561857 0
3.6930003 1.7656819 1.6573275 0
3.6970003 1.7619354 1.65885 0
3.7000003 1.757628 1.6599917 0
3.7030003 1.7533095 1.6611335 0
3.7060003 1.7489804 1.6622753 0
3.7100003 1.7451816 1.6637977 0
3.7130003 1.740829 1.6649395 0
3.7160003 1.7364657 1.6660813 0
3.7190003 1.7320913 1.6672232 0
3.7230003 1.7282401 1.6687455 0
3.7260003 1.7238425 1.6698874 0
3.7290003 1.719434 1.6710293 0
3.7330003 1.7155432 1.6725516 0
3.7360003 1.7111113 1.6736935 0
3.7390003 1.7066685 1.6748353 0
3.7430003 1.7027379 1.6763577 0
3.6460001 1.8276515 1.633584 0
3.6490002 1.8235227 1.6347203 0
3.6520002 1.8193829 1.6358567 0
3.6550002 1.8152325 1.6369932 0
3.6580002 1.8110712 1.6381296 0
3.6610003 1.806899 1.639266 0
3.6650002 1.8032823 1.6407812 0
3.6680002 1.7990866 1.6419176 0
3.6710002 1.7948802 1.643054 0
3.6740003 1.7906628 1.6441903 0
3.6770003 1.7864347 1.6453267 0
3.6810002 1.7827531 1.6468419 0
3.6840003 1.7785015 1.6479783 0
3.6870003 1.7742392 1.6491147 0
3.6900003 1.7699659 1.6502512 0
3.6930003 1.7656819 1.6513876 0
3.6970003 1.7619354 1.6529028 0
3.7000003 1.757628 1.6540391 0
3.7030003 1.7533095 1.6551756 0
3.7060003 1.7489804 1.656312 0
3.7100003 1.7451816 1.6578271 0
3.7130003 1.740829 1.6589636 0
3.7160003 1.7364657 1.6601 0
3.7190003 1.7320913 1.6612364 0
3.7230003 1.7282401 1.6627516 0
3.7260003 1.7238425 1.663888 0
3.7290003 1.719434 1.6650243 0
3.7330003 1.7155432 1.6665395 0
3.7360003 1.7111113 1.667676 0
3.7390003 1.7066685 1.6688124 0
3.7430003 1.7027379 1.6703275 0
3.6460001 1.8276515 1.6277287 0
3.6490002 1.8235227 1.6288598 0
3.6520002 1.8193829 1.6299908 0
3.6550002 1.8152325 1.6311218 0
3.6580002 1.8110712 1.6322528 0
3.6610003 1.806899 1.6333838 0
3.6650002 1.8032823 1.6348916 0
3.6680002 1.7990866 1.6360227 0
3.6710002 1.7948802 1.6371537 0
3.6740003 1.7906628 1.6382847 0
3.6770003 1.7864347 1.6394157 0
3.6810002 1.7827531 1.6409236 0
3.6840003 1.7785015 1.6420547 0
3.6870003 1.7742392 1.6431856 0
3.6900003 1.7699659 1.6443167 0
3.6930003 1.7656819 1.6454476 0
3.6970003 1.7619354 1.6469556 0
3.7000003 1.757628 1.6480865 0
3.7030003 1.7533095 1.6492176 0
3.7060003 1.7489804 1.6503485 0
3.7100003 1.7451816 1.6518565 0
3.7130003 1.740829 1.6529876 0
3.7160003 1.7364657 1.6541185 0
3.7190003 1.7320913 1.6552495 0
3.7230003 1.7282401 1.6567575 0
3.7260003 1.7238425 1.6578885 0
3.7290003 1.719434 1.6590195 0
3.7330003 1.7155432 1.6605275 0
3.7360003 1.7111113 1.6616585 0
3.7390003 1.7066685 1.6627895 0
3.7430003 1.7027379 1.6642973 0
3.6460001 1.8276515 1.6218736 0
3.6490002 1.8235227 1.6229992 0
3.6520002 1.8193829 1.6241248 0
3.6550002 1.8152325 1.6252503 0
3.6580002 1.8110712 1.6263759 0
3.6610003 1.806899 1.6275015 0
3.6650002 1.8032823 1.6290022 0
3.6680002 1.7990866 1.6301278 0
3.6710002 1.7948802 1.6312535 0
3.6740003 1.7906628 1.6323791 0
3.6770003 1.7864347 1.6335046 0
3.6810002 1.7827531 1.6350054 0
3.6840003 1.7785015 1.6361309 0
3.6870003 1.7742392 1.6372565 0
3.6900003 1.7699659 1.6383822 0
3.6930003 1.7656819 1.6395077 0
3.6970003 1.7619354 1.6410085 0
3.7000003 1.757628 1.642134 0
3.7030003 1.7533095 1.6432596 0
3.7060003 1.7489804 1.6443852 0
3.7100003 1.7451816 1.6458859 0
3.7130003 1.740829 1.6470115 0
3.7160003 1.7364657 1.6481371 0
3.7190003 1.7320913 1.6492627 0
3.7230003 1.7282401 1.6507634 0
3.7260003 1.7238425 1.6518891 0
3.7290003 1.719434 1.6530147 0
3.7330003 1.7155432 1.6545154 0
3.7360003 1.7111113 1.655641 0
3.7390003 1.7066685 1.6567665 0
3.7430003 1.7027379 1.6582673 0
3.6460001 1.8276515 1.6160184 0
3.6490002 1.8235227 1.6171386 0
3.6520002 1.8193829 1.6182587 0
3.6550002 1.8152325 1.6193789 0
3.6580002 1.8110712 1.6204991 0
3.6610003 1.806899 1.6216193 0
3.6650002 1.8032823 1.6231129 0
3.6680002 1.7990866 1.624233 0
3.6710002 1.7948802 1.6253532 0
3.6740003 1.7906628 1.6264733 0
3.6770003 1.7864347 1.6275935 0
3.6810002 1.7827531 1.6290871 0
3.6840003 1.7785015 1.6302072 0
3.6870003 1.7742392 1.6313274 0
3.6900003 1.7699659 1.6324476 0
3.6930003 1.7656819 1.6335678 0
3.6970003 1.7619354 1.6350614 0
3.7000003 1.757628 1.6361815 0
3.7030003 1.7533095 1.6373017 0
3.7060003 1.7489804 1.6384218 0
3.7100003 1.7451816 1.6399153 0
3.7130003 1.740829 1.6410354 0
3.7160003 1.7364657 1.6421556 0
3.7190003 1.7320913 1.6432759 0
3.7230003 1.7282401 1.6447693 0
3.7260003 1.7238425 1.6458896 0
3.7290003 1.719434 1.6470097 0
3.7330003 1.7155432 1.6485033 0
3.7360003 1.7111113 1.6496235 0
3.7390003 1.7066685 1.6507436 0
3.7430003 1.7027379 1.6522372 0
3.6460001 1.8276515 1.6101633 0
3.6490002 1.8235227 1.6112781 0
3.6520002 1.8193829 1.6123929 0
3.6550002 1.8152325 1.6135076 0
3.6580002 1.8110712 1.6146222 0
3.6610003 1.806899 1.6157371 0
3.6650002 1.8032823 1.6172234 0
3.6680002 1.7990866 1.6183381 0
3.6710002 1.7948802 1.619453 0
3.6740003 1.7906628 1.6205677 0
3.6770003 1.7864347 1.6216824 0
3.6810002 1.7827531 1.6231688 0
3.6840003 1.7785015 1.6242836 0
3.6870003 1.7742392 1.6253983 0
3.6900003 1.7699659 1.6265131 0
3.6930003 1.7656819 1.6276277 0
3.6970003 1.7619354 1.629114 0
3.7000003 1.757628 1.6302289 0
3.7030003 1.7533095 1.6313436 0
3.7060003 1.7489804 1.6324584 0
3.7100003 1.7451816 1.6339447 0
3.7130003 1.740829 1.6350595 0
3.7160003 1.7364657 1.6361743 0
3.7190003 1.7320913 1.637289 0
3.7230003 1.7282401 1.6387753 0
3.7260003 1.7238425 1.6398902 0
3.7290003 1.719434 1.6410048 0
3.7330003 1.7155432 1.6424911 0
3.7360003 1.7111113 1.6436059 0
3.7390003 1.7066685 1.6447207 0
3.7430003 1.7027379 1.646207 0
3.6460001 1.8276515 1.6043081 0
3.6490002 1.8235227 1.6054175 0
3.6520002 1.8193829 1.6065269 0
3.6550002 1.8152325 1.6076362 0
3.6580002 1.8110712 1.6087455 0
3.6610003 1.806899 1.6098548 0
3.6650002 1.8032823 1.611334 0
3.6680002 1.7990866 1.6124433 0
3.6710002 1.7948802 1.6135527 0
3.6740003 1.7906628 1.6146621 0
3.6770003 1.7864347 1.6157714 0
3.6810002 1.7827531 1.6172504 0
3.6840003 1.7785015 1.6183598 0
3.6870003 1.7742392 1.6194692 0
3.6900003 1.7699659 1.6205785 0
3.6930003 1.7656819 1.6216879 0
3.6970003 1.7619354 1.6231669 0
3.7000003 1.757628 1.6242764 0
3.7030003 1.7533095 1.6253856 0
3.7060003 1.7489804 1.626495 0
3.7100003 1.7451816 1.6279742 0
3.7130003 1.740829 1.6290835 0
3.7160003 1.7364657 1.6301928 0
3.7190003 1.7320913 1.6313021 0
3.7230003 1.7282401 1.6327813 0
3.7260003 1.7238425 1.6338906 0
3.7290003 1.719434 1.635 0
3.7330003 1.7155432 1.636479 0
3.7360003 1.7111113 1.6375885 0
3.7390003 1.7066685 1.6386977 0
3.7430003 1.7027379 1.6401769 0
3.6460001 1.8276515 1.5984529 0
3.6490002 1.8235227 1.5995569 0
3.6520002 1.8193829 1.6006608 0
3.6550002 1.8152325 1.6017648 0
3.6580002 1.8110712 1.6028687 0
3.6610003 1.806899 1.6039727 0
3.6650002 1.8032823 1.6054446 0
3.6680002 1.7990866 1.6065484 0
3.6710002 1.7948802 1.6076524 0
3.6740003 1.7906628 1.6087564 0
3.6770003 1.7864347 1.6098603 0
3.6810002 1.7827531 1.6113322 0
3.6840003 1.7785015 1.6124362 0
3.6870003 1.7742392 1.6135401 0
3.6900003 1.7699659 1.6146439 0
3.6930003 1.7656819 1.6157479 0
3.6970003 1.7619354 1.6172198 0
3.7000003 1.757628 1.6183237 0
3.7030003 1.7533095 1.6194278 0
3.7060003 1.7489804 1.6205317 0
3.7100003 1.7451816 1.6220036 0
3.7130003 1.740829 1.6231074 0
3.7160003 1.7364657 1.6242114 0
3.7190003 1.7320913 1.6253153 0
3.7230003 1.7282401 1.6267872 0
3.7260003 1.7238425 1.6278912 0
3.7290003 1.719434 1.6289951 0
3.7330003 1.7155432 1.6304669 0
3.7360003 1.7111113 1.6315709 0
3.7390003 1.7066685 1.6326749 0
3.7430003 1.7027379 1.6341468 0
3.6460001 1.8276515 1.5925977 0
3.6490002 1.8235227 1.5936962 0
3.6520002 1.8193829 1.5947949 0
3.6550002 1.8152325 1.5958934 0
3.6580002 1.8110712 1.5969919 0
3.6610003 1.806899 1.5980904 0
3.6650002 1.8032823 1.5995551 0
3.6680002 1.7990866 1.6006536 0
3.6710002 1.7948802 1.6017522 0
3.6740003 1.7906628 1.6028507 0
3.6770003 1.7864347 1.6039492 0
3.6810002 1.7827531 1.6054139 0
3.6840003 1.7785015 1.6065124 0
3.6870003 1.7742392 1.6076109 0
3.6900003 1.7699659 1.6087095 0
3.6930003 1.7656819 1.609808 0
3.6970003 1.7619354 1.6112726 0
3.7000003 1.757628 1.6123712 0
3.7030003 1.7533095 1.6134697 0
3.7060003 1.7489804 1.6145682 0
3.7100003 1.7451816 1.616033 0
3.7130003 1.740829 1.6171315 0
3.7160003 1.7364657 1.61823 0
3.7190003 1.7320913 1.6193285 0
3.7230003 1.7282401 1.6207931 0
3.7260003 1.7238425 1.6218917 0
3.7290003 1.719434 1.6229903 0
3.7330003 1.7155432 1.624455 0
3.7360003 1.7111113 1.6255535 0
3.7390003 1.7066685 1.6266519 0
3.7430003 1.7027379 1.6281166 0
3.6460001 1.8276515 1.5867426 0
3.6490002 1.8235227 1.5878358 0
3.6520002 1.8193829 1.5889288 0
3.6550002 1.8152325 1.590022 0
3.6580002 1.8110712 1.5911151 0
3.6610003 1.806899 1.5922083 0
3.6650002 1.8032823 1.5936657 0
3.6680002 1.7990866 1.5947589 0
3.6710002 1.7948802 1.5958519 0
3.6740003 1.7906628 1.596945 0
3.6770003 1.7864347 1.5980381 0
3.6810002 1.7827531 1.5994955 0
3.6840003 1.7785015 1.6005887 0
3.6870003 1.7742392 1.6016818 0
3.6900003 1.7699659 1.6027749 0
3.6930003 1.7656819 1.603868 0
3.6970003 1.7619354 1.6053255 0
3.7000003 1.757628 1.6064186 0
3.7030003 1.7533095 1.6075118 0
3.7060003 1.7489804 1.6086049 0
3.7100003 1.7451816 1.6100624 0
3.7130003 1.740829 1.6111554 0
3.7160003 1.7364657 1.6122485 0
3.7190003 1.7320913 1.6133417 0
3.7230003 1.7282401 1.6147991 0
3.7260003 1.7238425 1.6158923 0
3.7290003 1.719434 1.6169854 0
3.7330003 1.7155432 1.6184429 0
3.7360003 1.7111113 1.6195359 0
3.7390003 1.7066685 1.620629 0
3.7430003 1.7027379 1.6220864 0
3.6460001 1.8276515 1.5808874 0
3.6490002 1.8235227 1.5819752 0
3.6520002 1.8193829 1.5830629 0
3.6550002 1.8152325 1.5841506 0
3.6580002 1.8110712 1.5852383 0
3.6610003 1.806899 1.586326 0
3.6650002 1.8032823 1.5877762 0
3.6680002 1.7990866 1.588864 0
3.6710002 1.7948802 1.5899516 0
3.6740003 1.7906628 1.5910393 0
3.6770003 1.7864347 1.5921271 0
3.6810002 1.7827531 1.5935773 0
3.6840003 1.7785015 1.5946651 0
3.6870003 1.7742392 1.5957527 0
3.6900003 1.7699659 1.5968404 0
3.6930003 1.7656819 1.5979282 0
3.6970003 1.7619354 1.5993783 0
3.7000003 1.757628 1.6004661 0
3.7030003 1.7533095 1.6015537 0
3.7060003 1.7489804 1.6026415 0
3.7100003 1.7451816 1.6040918 0
3.7130003 1.740829 1.6051794 0
3.7160003 1.7364657 1.6062671 0
3.7190003 1.7320913 1.6073548 0
3.7230003 1.7282401 1.6088051 0
3.7260003 1.7238425 1.6098928 0
3.7290003 1.719434 1.6109804 0
3.7330003 1.7155432 1.6124307 0
3.7360003 1.7111113 1.6135184 0
3.7390003 1.7066685 1.6146061 0
3.7430003 1.7027379 1.6160564 0
3.6460001 1.8276515 1.5750324 0
3.6490002 1.8235227 1.5761145 0
3.6520002 1.8193829 1.577197 0
3.6550002 1.8152325 1.5782791 0
3.6580002 1.8110712 1.5793616 0
3.6610003 1.806899 1.5804437 0
3.6650002 1.8032823 1.5818868 0
3.6680002 1.7990866 1.5829691 0
3.6710002 1.7948802 1.5840514 0
3.6740003 1.7906628 1.5851337 0
3.6770003 1.7864347 1.586216 0
3.6810002 1.7827531 1.587659 0
3.6840003 1.7785015 1.5887413 0
3.6870003 1.7742392 1.5898236 0
3.6900003 1.7699659 1.5909059 0
3.6930003 1.7656819 1.5919882 0
3.6970003 1.7619354 1.5934312 0
3.7000003 1.757628 1.5945135 0
3.7030003 1.7533095 1.5955957 0
3.7060003 1.7489804 1.5966781 0
3.7100003 1.7451816 1.5981212 0
3.7130003 1.740829 1.5992033 0
3.7160003 1.7364657 1.6002858 0
3.7190003 1.7320913 1.601368 0
3.7230003 1.7282401 1.602811 0
3.7260003 1.7238425 1.6038934 0
3.7290003 1.719434 1.6049756 0
3.7330003 1.7155432 1.6064186 0
3.7360003 1.7111113 1.6075009 0
3.7390003 1.7066685 1.6085832 0
3.7430003 1.7027379 1.6100262 0
3.6460001 1.8276515 1.5691772 0
3.6490002 1.8235227 1.5702541 0
3.6520002 1.8193829 1.5713309 0
3.6550002 1.8152325 1.5724077 0
3.6580002 1.8110712 1.5734847 0
3.6610003 1.806899 1.5745616 0
3.6650002 1.8032823 1.5759975 0
3.6680002 1.7990866 1.5770743 0
3.6710002 1.7948802 1.5781511 0
3.6740003 1.7906628 1.579228 0
3.6770003 1.7864347 1.5803049 0
3.6810002 1.7827531 1.5817406 0
3.6840003 1.7785015 1.5828177 0
3.6870003 1.7742392 1.5838945 0
3.6900003 1.7699659 1.5849713 0
3.6930003 1.7656819 1.5860482 0
3.6970003 1.7619354 1.587484 0
3.7000003 1.757628 1.5885608 0
3.7030003 1.7533095 1.5896379 0
3.7060003 1.7489804 1.5907147 0
3.7100003 1.7451816 1.5921506 0
3.7130003 1.740829 1.5932274 0
3.7160003 1.7364657 1.5943042 0
3.7190003 1.7320913 1.5953811 0
3.7230003 1.7282401 1.5968169 0
3.7260003 1.7238425 1.5978938 0
3.7290003 1.719434 1.5989708 0
3.7330003 1.7155432 1.6004065 0
3.7360003 1.7111113 1.6014833 0
3.7390003 1.7066685 1.6025603 0
3.7430003 1.7027379 1.603996 0
3.6460001 1.8276515 1.5633219 0
3.6490002 1.8235227 1.5643934 0
3.6520002 1.8193829 1.5654649 0
3.6550002 1.8152325 1.5665364 0
3.6580002 1.8110712 1.5676079 0
3.6610003 1.806899 1.5686793 0
3.6650002 1.8032823 1.5701079 0
3.6680002 1.7990866 1.5711794 0
3.6710002 1.7948802 1.5722508 0
3.6740003 1.7906628 1.5733223 0
3.6770003 1.7864347 1.5743937 0
3.6810002 1.7827531 1.5758224 0
3.6840003 1.7785015 1.5768939 0
3.6870003 1.7742392 1.5779654 0
3.6900003 1.7699659 1.5790368 0
3.6930003 1.7656819 1.5801083 0
3.6970003 1.7619354 1.5815369 0
3.7000003 1.757628 1.5826083 0
3.7030003 1.7533095 1.5836798 0
3.7060003 1.7489804 1.5847514 0
3.7100003 1.7451816 1.58618 0
3.7130003 1.740829 1.5872514 0
3.7160003 1.7364657 1.5883229 0
3.7190003 1.7320913 1.5893943 0
3.7230003 1.7282401 1.5908229 0
3.7260003 1.7238425 1.5918944 0
3.7290003 1.719434 1.5929658 0
3.7330003 1.7155432 1.5943944 0
3.7360003 1.7111113 1.5954659 0
3.7390003 1.7066685 1.5965375 0
3.7430003 1.7027379 1.5979661 0
3.6460001 1.8276515 1.5574669 0
3.6490002 1.8235227 1.558533 0
3.6520002 1.8193829 1.559599 0
3.6550002 1.8152325 1.560665 0
3.6580002 1.8110712 1.5617311 0
3.6610003 1.806899 1.5627972 0
3.6650002 1.8032823 1.5642185 0
3.6680002 1.7990866 1.5652846 0
3.6710002 1.7948802 1.5663506 0
3.6740003 1.7906628 1.5674167 0
3.6770003 1.7864347 1.5684828 0
3.6810002 1.7827531 1.5699042 0
3.6840003 1.7785015 1.5709702 0
3.6870003 1.7742392 1.5720363 0
3.6900003 1.7699659 1.5731024 0
3.6930003 1.7656819 1.5741684 0
3.6970003 1.7619354 1.5755898 0
3.7000003 1.757628 1.5766557 0
3.7030003 1.7533095 1.5777218 0
3.7060003 1.7489804 1.5787879 0
3.7100003 1.7451816 1.5802093 0
3.7130003 1.740829 1.5812753 0
3.7160003 1.7364657 1.5823413 0
3.7190003 1.7320913 1.5834074 0
3.7230003 1.7282401 1.5848289 0
3.7260003 1.7238425 1.5858949 0
3.7290003 1.719434 1.5869609 0
3.7330003 1.7155432 1.5883822 0
3.7360003 1.7111113 1.5894483 0
3.7390003 1.7066685 1.5905144 0
3.7430003 1.7027379 1.5919359 0
3.6460001 1.8276515 1.5516117 0
3.6490002 1.8235227 1.5526723 0
3.6520002 1.8193829 1.553733 0
3.6550002 1.8152325 1.5547936 0
3.6580002 1.8110712 1.5558543 0
3.6610003 1.806899 1.5569148 0
3.6650002 1.8032823 1.558329 0
3.6680002 1.7990866 1.5593897 0
3.6710002 1.7948802 1.5604503 0
3.6740003 1.7906628 1.561511 0
3.6770003 1.7864347 1.5625716 0
3.6810002 1.7827531 1.5639858 0
3.6840003 1.7785015 1.5650464 0
3.6870003 1.7742392 1.566107 0
3.6900003 1.7699659 1.5671678 0
3.6930003 1.7656819 1.5682284 0
3.6970003 1.7619354 1.5696425 0
3.7000003 1.757628 1.5707033 0
3.7030003 1.7533095 1.5717639 0
3.7060003 1.7489804 1.5728246 0
3.7100003 1.7451816 1.5742387 0
3.7130003 1.740829 1.5752993 0
3.7160003 1.7364657 1.57636 0
3.7190003 1.7320913 1.5774206 0
3.7230003 1.7282401 1.5788348 0
3.7260003 1.7238425 1.5798955 0
3.7290003 1.719434 1.5809561 0
3.7330003 1.7155432 1.5823703 0
3.7360003 1.7111113 1.5834309 0
3.7390003 1.7066685 1.5844915 0
3.7430003 1.7027379 1.5859057 0
3.6460001 1.8276515 1.5457566 0
3.6490002 1.8235227 1.5468117 0
3.6520002 1.8193829 1.5478669 0
3.6550002 1.8152325 1.5489222 0
3.6580002 1.8110712 1.5499774 0
3.6610003 1.806899 1.5510327 0
3.6650002 1.8032823 1.5524397 0
3.6680002 1.7990866 1.5534948 0
3.6710002 1.7948802 1.5545501 0
3.6740003 1.7906628 1.5556054 0
3.6770003 1.7864347 1.5566605 0
3.6810002 1.7827531 1.5580676 0
3.6840003 1.7785015 1.5591227 0
3.6870003 1.7742392 1.5601779 0
3.6900003 1.7699659 1.5612333 0
3.6930003 1.7656819 1.5622885 0
3.6970003 1.7619354 1.5636954 0
3.7000003 1.757628 1.5647507 0
3.7030003 1.7533095 1.5658059 0
3.7060003 1.7489804 1.5668612 0
3.7100003 1.7451816 1.5682681 0
3.7130003 1.740829 1.5693233 0
3.7160003 1.7364657 1.5703785 0
3.7190003 1.7320913 1.5714338 0
3.7230003 1.7282401 1.5728407 0
3.7260003 1.7238425 1.5738961 0
3.7290003 1.719434 1.5749512 0
3.7330003 1.7155432 1.5763582 0
3.7360003 1.7111113 1.5774133 0
3.7390003 1.7066685 1.5784687 0
3.7430003 1.7027379 1.5798756 0
3.6460001 1.8276515 1.5399014 0
3.6490002 1.8235227 1.5409513 0
3.6520002 1.8193829 1.542001 0
3.6550002 1.8152325 1.5430509 0
3.6580002 1.8110712 1.5441006 0
3.6610003 1.806899 1.5451505 0
3.6650002 1.8032823 1.5465503 0
3.6680002 1.7990866 1.5476 0
3.6710002 1.7948802 1.5486499 0
3.6740003 1.7906628 1.5496997 0
3.6770003 1.7864347 1.5507495 0
3.6810002 1.7827531 1.5521493 0
3.6840003 1.7785015 1.5531991 0
3.6870003 1.7742392 1.5542489 0
3.6900003 1.7699659 1.5552987 0
3.6930003 1.7656819 1.5563486 0
3.6970003 1.7619354 1.5577483 0
3.7000003 1.757628 1.5587981 0
3.7030003 1.7533095 1.559848 0
3.7060003 1.7489804 1.5608978 0
3.7100003 1.7451816 1.5622975 0
3.7130003 1.740829 1.5633473 0
3.7160003 1.7364657 1.5643971 0
3.7190003 1.7320913 1.565447 0
3.7230003 1.7282401 1.5668467 0
3.7260003 1.7238425 1.5678965 0
3.7290003 1.719434 1.5689464 0
3.7330003 1.7155432 1.5703461 0
3.7360003 1.7111113 1.5713959 0
3.7390003 1.7066685 1.5724458 0
3.7430003 1.7027379 1.5738455 0
3.6460001 1.8276515 1.5340462 0
3.6490002 1.8235227 1.5350906 0
3.6520002 1.8193829 1.5361351 0
3.6550002 1.8152325 1.5371795 0
3.6580002 1.8110712 1.5382237 0
3.6610003 1.806899 1.5392683 0
3.6650002 1.8032823 1.5406607 0
3.6680002 1.7990866 1.5417051 0
3.6710002 1.7948802 1.5427496 0
3.6740003 1.7906628 1.543794 0
3.6770003 1.7864347 1.5448384 0
3.6810002 1.7827531 1.5462309 0
3.6840003 1.7785015 1.5472753 0
3.6870003 1.7742392 1.5483198 0
3.6900003 1.7699659 1.5493642 0
3.6930003 1.7656819 1.5504086 0
3.6970003 1.7619354 1.5518011 0
3.7000003 1.757628 1.5528455 0
3.7030003 1.7533095 1.55389 0
3.7060003 1.7489804 1.5549344 0
3.7100003 1.7451816 1.5563269 0
3.7130003 1.740829 1.5573713 0
3.7160003 1.7364657 1.5584157 0
3.7190003 1.7320913 1.55946 0
3.7230003 1.7282401 1.5608526 0
3.7260003 1.7238425 1.561897 0
3.7290003 1.719434 1.5629416 0
3.7330003 1.7155432 1.564334 0
3.7360003 1.7111113 1.5653783 0
3.7390003 1.7066685 1.5664228 0
3.7430003 1.7027379 1.5678153 0
3.6460001 1.8276515 1.528191 0
3.6490002 1.8235227 1.52923 0
3.6520002 1.8193829 1.530269 0
3.6550002 1.8152325 1.5313081 0
3.6580002 1.8110712 1.532347 0
3.6610003 1.806899 1.5333861 0
3.6650002 1.8032823 1.5347713 0
3.6680002 1.7990866 1.5358104 0
3.6710002 1.7948802 1.5368494 0
3.6740003 1.7906628 1.5378883 0
3.6770003 1.7864347 1.5389273 0
3.6810002 1.7827531 1.5403126 0
3.6840003 1.7785015 1.5413516 0
3.6870003 1.7742392 1.5423906 0
3.6900003 1.7699659 1.5434296 0
3.6930003 1.7656819 1.5444686 0
3.6970003 1.7619354 1.545854 0
3.7000003 1.757628 1.546893 0
3.7030003 1.7533095 1.5479319 0
3.7060003 1.7489804 1.5489711 0
3.7100003 1.7451816 1.5503563 0
3.7130003 1.740829 1.5513953 0
3.7160003 1.7364657 1.5524343 0
3.7190003 1.7320913 1.5534732 0
3.7230003 1.7282401 1.5548586 0
3.7260003 1.7238425 1.5558976 0
3.7290003 1.719434 1.5569365 0
3.7330003 1.7155432 1.5583218 0
3.7360003 1.7111113 1.5593609 0
3.7390003 1.7066685 1.5603998 0
3.7430003 1.7027379 1.5617851 0
3.6460001 1.8276515 1.5223359 0
3.6490002 1.8235227 1.5233694 0
3.6520002 1.8193829 1.5244031 0
3.6550002 1.8152325 1.5254366 0
3.6580002 1.8110712 1.5264702 0
3.6610003 1.806899 1.5275037 0
3.6650002 1.8032823 1.5288818 0
3.6680002 1.7990866 1.5299156 0
3.6710002 1.7948802 1.5309491 0
3.6740003 1.7906628 1.5319827 0
3.6770003 1.7864347 1.5330163 0
3.6810002 1.7827531 1.5343944 0
3.6840003 1.7785015 1.5354279 0
3.6870003 1.7742392 1.5364615 0
3.6900003 1.7699659 1.537495 0
3.6930003 1.7656819 1.5385287 0
3.6970003 1.7619354 1.5399069 0
3.7000003 1.757628 1.5409404 0
3.7030003 1.7533095 1.5419739 0
3.7060003 1.7489804 1.5430076 0
3.7100003 1.7451816 1.5443857 0
3.7130003 1.740829 1.5454192 0
3.7160003 1.7364657 1.5464528 0
3.7190003 1.7320913 1.5474864 0
3.7230003 1.7282401 1.5488646 0
3.7260003 1.7238425 1.5498981 0
3.7290003 1.719434 1.5509317 0
3.7330003 1.7155432 1.5523098 0
3.7360003 1.7111113 1.5533433 0
3.7390003 1.7066685 1.554377 0
3.7430003 1.7027379 1.5557551 0
3.6460001 1.8276515 1.5164807 0
3.6490002 1.8235227 1.5175089 0
3.6520002 1.8193829 1.518537 0
3.6550002 1.8152325 1.5195652 0
3.6580002 1.8110712 1.5205934 0
3.6610003 1.806899 1.5216216 0
3.6650002 1.8032823 1.5229925 0
3.6680002 1.7990866 1.5240207 0
3.6710002 1.7948802 1.5250489 0
3.6740003 1.7906628 1.526077 0
3.6770003 1.7864347 1.5271052 0
3.6810002 1.7827531 1.528476 0
3.6840003 1.7785015 1.5295042 0
3.6870003 1.7742392 1.5305324 0
3.6900003 1.7699659 1.5315605 0
3.6930003 1.7656819 1.5325887 0
3.6970003 1.7619354 1.5339596 0
3.7000003 1.757628 1.5349878 0
3.7030003 1.7533095 1.536016 0
3.7060003 1.7489804 1.5370442 0
3.7100003 1.7451816 1.5384151 0
3.7130003 1.740829 1.5394433 0
3.7160003 1.7364657 1.5404714 0
3.7190003 1.7320913 1.5414996 0
3.7230003 1.7282401 1.5428705 0
3.7260003 1.7238425 1.5438987 0
3.7290003 1.719434 1.5449269 0
3.7330003 1.7155432 1.5462977 0
3.7360003 1.7111113 1.5473258 0
3.7390003 1.7066685 1.548354 0
3.7430003 1.7027379 1.5497249 0
3.6460001 1.8276515 1.5106256 0
3.6490002 1.8235227 1.5116483 0
3.6520002 1.8193829 1.512671 0
3.6550002 1.8152325 1.5136938 0
3.6580002 1.8110712 1.5147166 0
3.6610003 1.806899 1.5157394 0
3.6650002 1.8032823 1.5171031 0
3.6680002 1.7990866 1.5181258 0
3.6710002 1.7948802 1.5191486 0
3.6740003 1.7906628 1.5201713 0
3.6770003 1.7864347 1.5211941 0
3.6810002 1.7827531 1.5225577 0
3.6840003 1.7785015 1.5235806 0
3.6870003 1.7742392 1.5246032 0
3.6900003 1.7699659 1.5256261 0
3.6930003 1.7656819 1.5266488 0
3.6970003 1.7619354 1.5280125 0
3.7000003 1.757628 1.5290352 0
3.7030003 1.7533095 1.530058 0
3.7060003 1.7489804 1.5310808 0
3.7100003 1.7451816 1.5324445 0
3.7130003 1.740829 1.5334672 0
3.7160003 1.7364657 1.53449 0
3.7190003 1.7320913 1.5355127 0
3.7230003 1.7282401 1.5368764 0
3.7260003 1.7238425 1.5378991 0
3.7290003 1.719434 1.538922 0
3.7330003 1.7155432 1.5402856 0
3.7360003 1.7111113 1.5413084 0
3.7390003 1.7066685 1.5423311 0
3.7430003 1.7027379 1.5436947 0
3.6460001 1.8276515 1.5047703 0
3.6490002 1.8235227 1.5057877 0
3.6520002 1.8193829 1.5068051 0
3.6550002 1.8152325 1.5078224 0
3.6580002 1.8110712 1.5088398 0
3.6610003 1.806899 1.5098572 0
3.6650002 1.8032823 1.5112135 0
3.6680002 1.7990866 1.512231 0
3.6710002 1.7948802 1.5132482 0
3.6740003 1.7906628 1.5142657 0
3.6770003 1.7864347 1.515283 0
3.6810002 1.7827531 1.5166395 0
3.6840003 1.7785015 1.5176568 0
3.6870003 1.7742392 1.5186743 0
3.6900003 1.7699659 1.5196915 0
3.6930003 1.7656819 1.5207089 0
3.6970003 1.7619354 1.5220654 0
3.7000003 1.757628 1.5230826 0
3.7030003 1.7533095 1.5241001 0
3.7060003 1.7489804 1.5251174 0
3.7100003 1.7451816 1.5264739 0
3.7130003 1.740829 1.5274912 0
3.7160003 1.7364657 1.5285085 0
3.7190003 1.7320913 1.5295259 0
3.7230003 1.7282401 1.5308824 0
3.7260003 1.7238425 1.5318997 0
3.7290003 1.719434 1.532917 0
3.7330003 1.7155432 1.5342735 0
3.7360003 1.7111113 1.5352908 0
3.7390003 1.7066685 1.5363083 0
3.7430003 1.7027379 1.5376647 0
3.6460001 1.8276515 1.4989152 0
3.6490002 1.8235227 1.4999272 0
3.6520002 1.8193829 1.5009391 0
3.6550002 1.8152325 1.501951 0
3.6580002 1.8110712 1.5029629 0
3.6610003 1.806899 1.5039749 0
3.6650002 1.8032823 1.5053241 0
3.6680002 1.7990866 1.5063361 0
3.6710002 1.7948802 1.5073481 0
3.6740003 1.7906628 1.50836 0
3.6770003 1.7864347 1.5093719 0
3.6810002 1.7827531 1.5107211 0
3.6840003 1.7785015 1.5117332 0
3.6870003 1.7742392 1.512745 0
3.6900003 1.7699659 1.513757 0
3.6930003 1.7656819 1.5147688 0
3.6970003 1.7619354 1.5161182 0
3.7000003 1.757628 1.5171301 0
3.7030003 1.7533095 1.518142 0
3.7060003 1.7489804 1.519154 0
3.7100003 1.7451816 1.5205033 0
3.7130003 1.740829 1.5215153 0
3.7160003 1.7364657 1.5225271 0
3.7190003 1.7320913 1.5235391 0
3.7230003 1.7282401 1.5248884 0
3.7260003 1.7238425 1.5259002 0
3.7290003 1.719434 1.5269122 0
3.7330003 1.7155432 1.5282614 0
3.7360003 1.7111113 1.5292734 0
3.7390003 1.7066685 1.5302854 0
3.7430003 1.7027379 1.5316346 0
3.6460001 1.8276515 1.49306 0
3.6490002 1.8235227 1.4940666 0
3.6520002 1.8193829 1.4950731 0
3.6550002 1.8152325 1.4960796 0
3.6580002 1.8110712 1.4970862 0
3.6610003 1.806899 1.4980927 0
3.6650002 1.8032823 1.4994347 0
3.6680002 1.7990866 1.5004413 0
3.6710002 1.7948802 1.5014478 0
3.6740003 1.7906628 1.5024544 0
3.6770003 1.7864347 1.5034609 0
3.6810002 1.7827531 1.5048029 0
3.6840003 1.7785015 1.5058094 0
3.6870003 1.7742392 1.5068159 0
3.6900003 1.7699659 1.5078225 0
3.6930003 1.7656819 1.508829 0
3.6970003 1.7619354 1.5101709 0
3.7000003 1.757628 1.5111775 0
3.7030003 1.7533095 1.512184 0
3.7060003 1.7489804 1.5131905 0
3.7100003 1.7451816 1.5145327 0
3.7130003 1.740829 1.5155392 0
3.7160003 1.7364657 1.5165458 0
3.7190003 1.7320913 1.5175523 0
3.7230003 1.7282401 1.5188943 0
3.7260003 1.7238425 1.5199008 0
3.7290003 1.719434 1.5209073 0
3.7330003 1.7155432 1.5222493 0
3.7360003 1.7111113 1.5232558 0
3.7390003 1.7066685 1.5242623 0
3.7430003 1.7027379 1.5256044 0
3.6460001 1.8276515 1.4872049 0
3.6490002 1.8235227 1.488206 0
3.6520002 1.8193829 1.4892071 0
3.6550002 1.8152325 1.4902083 0
3.6580002 1.8110712 1.4912094 0
3.6610003 1.806899 1.4922105 0
3.6650002 1.8032823 1.4935453 0
3.6680002 1.7990866 1.4945464 0
3.6710002 1.7948802 1.4955475 0
3.6740003 1.7906628 1.4965487 0
3.6770003 1.7864347 1.4975498 0
3.6810002 1.7827531 1.4988846 0
3.6840003 1.7785015 1.4998857 0
3.6870003 1.7742392 1.5008868 0
3.6900003 1.7699659 1.5018879 0
3.6930003 1.7656819 1.502889 0
3.6970003 1.7619354 1.5042238 0
3.7000003 1.757628 1.5052251 0
3.7030003 1.7533095 1.5062262 0
3.7060003 1.7489804 1.5072272 0
3.7100003 1.7451816 1.5085621 0
3.7130003 1.740829 1.5095631 0
3.7160003 1.7364657 1.5105642 0
3.7190003 1.7320913 1.5115653 0
3.7230003 1.7282401 1.5129002 0
3.7260003 1.7238425 1.5139014 0
3.7290003 1.719434 1.5149025 0
3.7330003 1.7155432 1.5162373 0
3.7360003 1.7111113 1.5172384 0
3.7390003 1.7066685 1.5182395 0
3.7430003 1.7027379 1.5195743 0
3.6460001 1.8276515 1.4813498 0
3.6490002 1.8235227 1.4823455 0
3.6520002 1.8193829 1.4833412 0
3.6550002 1.8152325 1.4843369 0
3.6580002 1.8110712 1.4853326 0
3.6610003 1.806899 1.4863284 0
3.6650002 1.8032823 1.4876559 0
3.6680002 1.7990866 1.4886515 0
3.6710002 1.7948802 1.4896473 0
3.6740003 1.7906628 1.4906429 0
3.6770003 1.7864347 1.4916387 0
3.6810002 1.7827531 1.4929663 0
3.6840003 1.7785015 1.493962 0
3.6870003 1.7742392 1.4949577 0
3.6900003 1.7699659 1.4959534 0
3.6930003 1.7656819 1.4969491 0
3.6970003 1.7619354 1.4982767 0
3.7000003 1.757628 1.4992723 0
3.7030003 1.7533095 1.5002681 0
3.7060003 1.7489804 1.5012637 0
3.7100003 1.7451816 1.5025914 0
3.7130003 1.740829 1.5035871 0
3.7160003 1.7364657 1.5045829 0
3.7190003 1.7320913 1.5055785 0
3.7230003 1.7282401 1.506906 0
3.7260003 1.7238425 1.5079018 0
3.7290003 1.719434 1.5088975 0
3.7330003 1.7155432 1.5102252 0
3.7360003 1.7111113 1.5112208 0
3.7390003 1.7066685 1.5122166 0
3.7430003 1.7027379 1.5135442 0
3.6460001 1.8276515 1.4754945 0
3.6490002 1.8235227 1.4764849 0
3.6520002 1.8193829 1.4774752 0
3.6550002 1.8152325 1.4784654 0
3.6580002 1.8110712 1.4794558 0
3.6610003 1.806899 1.480446 0
3.6650002 1.8032823 1.4817663 0
3.6680002 1.7990866 1.4827567 0
3.6710002 1.7948802 1.483747 0
3.6740003 1.7906628 1.4847373 0
3.6770003 1.7864347 1.4857277 0
3.6810002 1.7827531 1.487048 0
3.6840003 1.7785015 1.4880383 0
3.6870003 1.7742392 1.4890286 0
3.6900003 1.7699659 1.4900188 0
3.6930003 1.7656819 1.4910091 0
3.6970003 1.7619354 1.4923295 0
3.7000003 1.757628 1.4933199 0
3.7030003 1.7533095 1.4943101 0
3.7060003 1.7489804 1.4953004 0
3.7100003 1.7451816 1.4966208 0
3.7130003 1.740829 1.4976112 0
3.7160003 1.7364657 1.4986014 0
3.7190003 1.7320913 1.4995917 0
3.7230003 1.7282401 1.5009121 0
3.7260003 1.7238425 1.5019023 0
3.7290003 1.719434 1.5028926 0
3.7330003 1.7155432 1.504213 0
3.7360003 1.7111113 1.5052034 0
3.7390003 1.7066685 1.5061936 0
3.7430003 1.7027379 1.507514 0
3.6460001 1.8276515 1.4696394 0
3.6490002 1.8235227 1.4706242 0
3.6520002 1.8193829 1.4716091 0
3.6550002 1.8152325 1.4725941 0
3.6580002 1.8110712 1.473579 0
3.6610003 1.806899 1.4745638 0
3.6650002 1.8032823 1.475877 0
3.6680002 1.7990866 1.4768618 0
3.6710002 1.7948802 1.4778467 0
3.6740003 1.7906628 1.4788316 0
3.6770003 1.7864347 1.4798166 0
3.6810002 1.7827531 1.4811296 0
3.6840003 1.7785015 1.4821147 0
3.6870003 1.7742392 1.4830995 0
3.6900003 1.7699659 1.4840844 0
3.6930003 1.7656819 1.4850693 0
3.6970003 1.7619354 1.4863824 0
3.7000003 1.757628 1.4873673 0
3.7030003 1.7533095 1.4883522 0
3.7060003 1.7489804 1.489337 0
3.7100003 1.7451816 1.4906502 0
3.7130003 1.740829 1.4916351 0
3.7160003 1.7364657 1.49262 0
3.7190003 1.7320913 1.4936049 0
3.7230003 1.7282401 1.494918 0
3.7260003 1.7238425 1.4959029 0
3.7290003 1.719434 1.4968878 0
3.7330003 1.7155432 1.4982009 0
3.7360003 1.7111113 1.4991858 0
3.7390003 1.7066685 1.5001707 0
3.7430003 1.7027379 1.5014839 0
3.6460001 1.8276515 1.4637842 0
3.6490002 1.8235227 1.4647638 0
3.6520002 1.8193829 1.4657432 0
3.6550002 1.8152325 1.4667227 0
3.6580002 1.8110712 1.4677022 0
3.6610003 1.806899 1.4686816 0
3.6650002 1.8032823 1.4699876 0
3.6680002 1.7990866 1.4709669 0
3.6710002 1.7948802 1.4719465 0
3.6740003 1.7906628 1.472926 0
3.6770003 1.7864347 1.4739054 0
3.6810002 1.7827531 1.4752114 0
3.6840003 1.7785015 1.4761909 0
3.6870003 1.7742392 1.4771703 0
3.6900003 1.7699659 1.4781499 0
3.6930003 1.7656819 1.4791293 0
3.6970003 1.7619354 1.4804353 0
3.7000003 1.757628 1.4814148 0
3.7030003 1.7533095 1.4823941 0
3.7060003 1.7489804 1.4833736 0
3.7100003 1.7451816 1.4846796 0
3.7130003 1.740829 1.485659 0
3.7160003 1.7364657 1.4866385 0
3.7190003 1.7320913 1.487618 0
3.7230003 1.7282401 1.4889239 0
3.7260003 1.7238425 1.4899035 0
3.7290003 1.719434 1.490883 0
3.7330003 1.7155432 1.4921888 0
3.7360003 1.7111113 1.4931684 0
3.7390003 1.7066685 1.4941479 0
3.7430003 1.7027379 1.4954537 0
3.6460001 1.8276515 1.4579291 0
3.6490002 1.8235227 1.4589032 0
3.6520002 1.8193829 1.4598773 0
3.6550002 1.8152325 1.4608513 0
3.6580002 1.8110712 1.4618253 0
3.6610003 1.806899 1.4627994 0
3.6650002 1.8032823 1.4640981 0
3.6680002 1.7990866 1.4650723 0
3.6710002 1.7948802 1.4660462 0
3.6740003 1.7906628 1.4670203 0
3.6770003 1.7864347 1.4679945 0
3.6810002 1.7827531 1.4692931 0
3.6840003 1.7785015 1.4702672 0
3.6870003 1.7742392 1.4712412 0
3.6900003 1.7699659 1.4722153 0
3.6930003 1.7656819 1.4731894 0
3.6970003 1.7619354 1.474488 0
3.7000003 1.757628 1.4754622 0
3.7030003 1.7533095 1.4764363 0
3.7060003 1.7489804 1.4774102 0
3.7100003 1.7451816 1.478709 0
3.7130003 1.740829 1.479683 0
3.7160003 1.7364657 1.4806572 0
3.7190003 1.7320913 1.4816312 0
3.7230003 1.7282401 1.4829298 0
3.7260003 1.7238425 1.483904 0
3.7290003 1.719434 1.4848781 0
3.7330003 1.7155432 1.4861768 0
3.7360003 1.7111113 1.4871508 0
3.7390003 1.7066685 1.4881248 0
3.7430003 1.7027379 1.4894236 0
3.6460001 1.8276515 1.4520739 0
3.6490002 1.8235227 1.4530425 0
3.6520002 1.8193829 1.4540112 0
3.6550002 1.8152325 1.4549799 0
3.6580002 1.8110712 1.4559485 0
3.6610003 1.806899 1.4569173 0
3.6650002 1.8032823 1.4582087 0
3.6680002 1.7990866 1.4591774 0
3.6710002 1.7948802 1.460146 0
3.6740003 1.7906628 1.4611146 0
3.6770003 1.7864347 1.4620832 0
3.6810002 1.7827531 1.4633747 0
3.6840003 1.7785015 1.4643434 0
3.6870003 1.7742392 1.4653121 0
3.6900003 1.7699659 1.4662808 0
3.6930003 1.7656819 1.4672494 0
3.6970003 1.7619354 1.4685409 0
3.7000003 1.757628 1.4695095 0
3.7030003 1.7533095 1.4704783 0
3.7060003 1.7489804 1.4714469 0
3.7100003 1.7451816 1.4727384 0
3.7130003 1.740829 1.4737071 0
3.7160003 1.7364657 1.4746757 0
3.7190003 1.7320913 1.4756444 0
3.7230003 1.7282401 1.4769359 0
3.7260003 1.7238425 1.4779046 0
3.7290003 1.719434 1.4788731 0
3.7330003 1.7155432 1.4801648 0
3.7360003 1.7111113 1.4811333 0
3.7390003 1.7066685 1.4821019 0
3.7430003 1.7027379 1.4833934 0
3.6460001 1.8276515 1.4462188 0
3.6490002 1.8235227 1.4471821 0
3.6520002 1.8193829 1.4481453 0
3.6550002 1.8152325 1.4491085 0
3.6580002 1.8110712 1.4500717 0
3.6610003 1.806899 1.4510349 0
3.6650002 1.8032823 1.4523193 0
3.6680002 1.7990866 1.4532825 0
3.6710002 1.7948802 1.4542458 0
3.6740003 1.7906628 1.455209 0
3.6770003 1.7864347 1.4561722 0
3.6810002 1.7827531 1.4574565 0
3.6840003 1.7785015 1.4584197 0
3.6870003 1.7742392 1.459383 0
3.6900003 1.7699659 1.4603462 0
3.6930003 1.7656819 1.4613096 0
3.6970003 1.7619354 1.4625938 0
3.7000003 1.757628 1.463557 0
3.7030003 1.7533095 1.4645202 0
3.7060003 1.7489804 1.4654834 0
3.7100003 1.7451816 1.4667678 0
3.7130003 1.740829 1.467731 0
3.7160003 1.7364657 1.4686943 0
3.7190003 1.7320913 1.4696575 0
3.7230003 1.7282401 1.4709418 0
3.7260003 1.7238425 1.471905 0
3.7290003 1.719434 1.4728682 0
3.7330003 1.7155432 1.4741526 0
3.7360003 1.7111113 1.4751158 0
3.7390003 1.7066685 1.4760791 0
3.7430003 1.7027379 1.4773633 0
3.6460001 1.8276515 1.4403635 0
3.6490002 1.8235227 1.4413214 0
3.6520002 1.8193829 1.4422792 0
3.6550002 1.8152325 1.4432371 0
3.6580002 1.8110712 1.4441949 0
3.6610003 1.806899 1.4451528 0
3.6650002 1.8032823 1.4464298 0
3.6680002 1.7990866 1.4473877 0
3.6710002 1.7948802 1.4483455 0
3.6740003 1.7906628 1.4493034 0
3.6770003 1.7864347 1.4502611 0
3.6810002 1.7827531 1.4515382 0
3.6840003 1.7785015 1.4524961 0
3.6870003 1.7742392 1.4534539 0
3.6900003 1.7699659 1.4544116 0
3.6930003 1.7656819 1.4553695 0
3.6970003 1.7619354 1.4566466 0
3.7000003 1.757628 1.4576044 0
3.7030003 1.7533095 1.4585623 0
3.7060003 1.7489804 1.4595201 0
3.7100003 1.7451816 1.4607972 0
3.7130003 1.740829 1.461755 0
3.7160003 1.7364657 1.4627129 0
3.7190003 1.7320913 1.4636706 0
3.7230003 1.7282401 1.4649477 0
3.7260003 1.7238425 1.4659055 0
3.7290003 1.719434 1.4668634 0
3.7330003 1.7155432 1.4681405 0
3.7360003 1.7111113 1.4690983 0
3.7390003 1.7066685 1.4700562 0
3.7430003 1.7027379 1.4713333 0
3.6460001 1.8276515 1.4345084 0
3.6490002 1.8235227 1.4354609 0
3.6520002 1.8193829 1.4364132 0
3.6550002 1.8152325 1.4373657 0
3.6580002 1.8110712 1.4383181 0
3.6610003 1.806899 1.4392705 0
3.6650002 1.8032823 1.4405404 0
3.6680002 1.7990866 1.4414928 0
3.6710002 1.7948802 1.4424453 0
3.6740003 1.7906628 1.4433976 0
3.6770003 1.7864347 1.44435 0
3.6810002 1.7827531 1.4456199 0
3.6840003 1.7785015 1.4465723 0
3.6870003 1.7742392 1.4475248 0
3.6900003 1.7699659 1.4484771 0
3.6930003 1.7656819 1.4494296 0
3.6970003 1.7619354 1.4506994 0
3.7000003 1.757628 1.4516519 0
3.7030003 1.7533095 1.4526043 0
3.7060003 1.7489804 1.4535567 0
3.7100003 1.7451816 1.4548266 0
3.7130003 1.740829 1.455779 0
3.7160003 1.7364657 1.4567314 0
3.7190003 1.7320913 1.4576838 0
3.7230003 1.7282401 1.4589536 0
3.7260003 1.7238425 1.4599061 0
3.7290003 1.719434 1.4608586 0
3.7330003 1.7155432 1.4621284 0
3.7360003 1.7111113 1.4630809 0
3.7390003 1.7066685 1.4640332 0
3.7430003 1.7027379 1.4653031 0
3.6460001 1.8276515 1.4286532 0
3.6490002 1.8235227 1.4296002 0
3.6520002 1.8193829 1.4305474 0
3.6550002 1.8152325 1.4314942 0
3.6580002 1.8110712 1.4324414 0
3.6610003 1.806899 1.4333884 0
3.6650002 1.8032823 1.4346509 0
3.6680002 1.7990866 1.435598 0
3.6710002 1.7948802 1.436545 0
3.6740003 1.7906628 1.4374919 0
3.6770003 1.7864347 1.438439 0
3.6810002 1.7827531 1.4397017 0
3.6840003 1.7785015 1.4406486 0
3.6870003 1.7742392 1.4415957 0
3.6900003 1.7699659 1.4425427 0
3.6930003 1.7656819 1.4434897 0
3.6970003 1.7619354 1.4447523 0
3.7000003 1.757628 1.4456993 0
3.7030003 1.7533095 1.4466463 0
3.7060003 1.7489804 1.4475933 0
3.7100003 1.7451816 1.448856 0
3.7130003 1.740829 1.449803 0
3.7160003 1.7364657 1.45075 0
3.7190003 1.7320913 1.451697 0
3.7230003 1.7282401 1.4529597 0
3.7260003 1.7238425 1.4539067 0
3.7290003 1.719434 1.4548537 0
3.7330003 1.7155432 1.4561163 0
3.7360003 1.7111113 1.4570633 0
3.7390003 1.7066685 1.4580103 0
3.7430003 1.7027379 1.459273 0
3.6460001 1.8276515 1.4227982 0
3.6490002 1.8235227 1.4237397 0
3.6520002 1.8193829 1.4246813 0
3.6550002 1.8152325 1.4256228 0
3.6580002 1.8110712 1.4265645 0
3.6610003 1.806899 1.4275061 0
3.6650002 1.8032823 1.4287616 0
3.6680002 1.7990866 1.4297031 0
3.6710002 1.7948802 1.4306448 0
3.6740003 1.7906628 1.4315863 0
3.6770003 1.7864347 1.4325279 0
3.6810002 1.7827531 1.4337834 0
3.6840003 1.7785015 1.4347249 0
3.6870003 1.7742392 1.4356666 0
3.6900003 1.7699659 1.4366081 0
3.6930003 1.7656819 1.4375497 0
3.6970003 1.7619354 1.4388052 0
3.7000003 1.757628 1.4397467 0
3.7030003 1.7533095 1.4406884 0
3.7060003 1.7489804 1.4416299 0
3.7100003 1.7451816 1.4428853 0
3.7130003 1.740829 1.4438269 0
3.7160003 1.7364657 1.4447685 0
3.7190003 1.7320913 1.4457102 0
3.7230003 1.7282401 1.4469656 0
3.7260003 1.7238425 1.4479072 0
3.7290003 1.719434 1.4488487 0
3.7330003 1.7155432 1.4501042 0
3.7360003 1.7111113 1.4510459 0
3.7390003 1.7066685 1.4519874 0
3.7430003 1.7027379 1.4532428 0
3.6460001 1.8276515 1.416943 0
3.6490002 1.8235227 1.4178791 0
3.6520002 1.8193829 1.4188153 0
3.6550002 1.8152325 1.4197514 0
3.6580002 1.8110712 1.4206877 0
3.6610003 1.806899 1.4216238 0
3.6650002 1.8032823 1.4228721 0
3.6680002 1.7990866 1.4238082 0
3.6710002 1.7948802 1.4247444 0
3.6740003 1.7906628 1.4256806 0
3.6770003 1.7864347 1.4266168 0
3.6810002 1.7827531 1.427865 0
3.6840003 1.7785015 1.4288012 0
3.6870003 1.7742392 1.4297373 0
3.6900003 1.7699659 1.4306736 0
3.6930003 1.7656819 1.4316097 0
3.6970003 1.7619354 1.432858 0
3.7000003 1.757628 1.4337941 0
3.7030003 1.7533095 1.4347303 0
3.7060003 1.7489804 1.4356666 0
3.7100003 1.7451816 1.4369147 0
3.7130003 1.740829 1.437851 0
3.7160003 1.7364657 1.4387871 0
3.7190003 1.7320913 1.4397233 0
3.7230003 1.7282401 1.4409715 0
3.7260003 1.7238425 1.4419076 0
3.7290003 1.719434 1.4428439 0
3.7330003 1.7155432 1.444092 0
3.7360003 1.7111113 1.4450283 0
3.7390003 1.7066685 1.4459645 0
3.7430003 1.7027379 1.4472127 0
3.6460001 1.8276515 1.4110878 0
3.6490002 1.8235227 1.4120185 0
3.6520002 1.8193829 1.4129493 0
3.6550002 1.8152325 1.4138801 0
3.6580002 1.8110712 1.4148109 0
3.6610003 1.806899 1.4157417 0
3.6650002 1.8032823 1.4169827 0
3.6680002 1.7990866 1.4179134 0
3.6710002 1.7948802 1.4188441 0
3.6740003 1.7906628 1.419775 0
3.6770003 1.7864347 1.4207058 0
3.6810002 1.7827531 1.4219468 0
3.6840003 1.7785015 1.4228776 0
3.6870003 1.7742392 1.4238082 0
3.6900003 1.7699659 1.424739 0
3.6930003 1.7656819 1.4256699 0
3.6970003 1.7619354 1.4269109 0
3.7000003 1.757628 1.4278417 0
3.7030003 1.7533095 1.4287723 0
3.7060003 1.7489804 1.4297031 0
3.7100003 1.7451816 1.4309441 0
3.7130003 1.740829 1.431875 0
3.7160003 1.7364657 1.4328058 0
3.7190003 1.7320913 1.4337364 0
3.7230003 1.7282401 1.4349774 0
3.7260003 1.7238425 1.4359082 0
3.7290003 1.719434 1.436839 0
3.7330003 1.7155432 1.43808 0
3.7360003 1.7111113 1.4390109 0
3.7390003 1.7066685 1.4399415 0
3.7430003 1.7027379 1.4411826 0
3.6460001 1.8276515 1.4052325 0
3.6490002 1.8235227 1.4061581 0
3.6520002 1.8193829 1.4070834 0
3.6550002 1.8152325 1.4080087 0
3.6580002 1.8110712 1.4089341 0
3.6610003 1.806899 1.4098594 0
3.6650002 1.8032823 1.4110932 0
3.6680002 1.7990866 1.4120185 0
3.6710002 1.7948802 1.412944 0
3.6740003 1.7906628 1.4138693 0
3.6770003 1.7864347 1.4147946 0
3.6810002 1.7827531 1.4160285 0
3.6840003 1.7785015 1.4169538 0
3.6870003 1.7742392 1.4178791 0
3.6900003 1.7699659 1.4188045 0
3.6930003 1.7656819 1.4197298 0
3.6970003 1.7619354 1.4209638 0
3.7000003 1.757628 1.4218891 0
3.7030003 1.7533095 1.4228144 0
3.7060003 1.7489804 1.4237398 0
3.7100003 1.7451816 1.4249735 0
3.7130003 1.740829 1.4258989 0
3.7160003 1.7364657 1.4268242 0
3.7190003 1.7320913 1.4277496 0
3.7230003 1.7282401 1.4289834 0
3.7260003 1.7238425 1.4299088 0
3.7290003 1.719434 1.4308342 0
3.7330003 1.7155432 1.432068 0
3.7360003 1.7111113 1.4329933 0
3.7390003 1.7066685 1.4339187 0
3.7430003 1.7027379 1.4351524 0
3.6460001 1.8276515 1.3993775 0
3.6490002 1.8235227 1.4002974 0
3.6520002 1.8193829 1.4012173 0
3.6550002 1.8152325 1.4021373 0
3.6580002 1.8110712 1.4030573 0
3.6610003 1.806899 1.4039773 0
3.6650002 1.8032823 1.4052037 0
3.6680002 1.7990866 1.4061236 0
3.6710002 1.7948802 1.4070437 0
3.6740003 1.7906628 1.4079636 0
3.6770003 1.7864347 1.4088836 0
3.6810002 1.7827531 1.4101101 0
3.6840003 1.7785015 1.4110301 0
3.6870003 1.7742392 1.4119501 0
3.6900003 1.7699659 1.41287 0
3.6930003 1.7656819 1.41379 0
3.6970003 1.7619354 1.4150165 0
3.7000003 1.757628 1.4159365 0
3.7030003 1.7533095 1.4168564 0
3.7060003 1.7489804 1.4177763 0
3.7100003 1.7451816 1.4190029 0
3.7130003 1.740829 1.4199228 0
3.7160003 1.7364657 1.4208429 0
3.7190003 1.7320913 1.4217628 0
3.7230003 1.7282401 1.4229894 0
3.7260003 1.7238425 1.4239093 0
3.7290003 1.719434 1.4248292 0
3.7330003 1.7155432 1.4260559 0
3.7360003 1.7111113 1.4269758 0
3.7390003 1.7066685 1.4278958 0
3.7430003 1.7027379 1.4291223 0
3.6460001 1.8276515 1.3935224 0
3.6490002 1.8235227 1.3944368 0
3.6520002 1.8193829 1.3953513 0
3.6550002 1.8152325 1.3962659 0
3.6580002 1.8110712 1.3971804 0
3.6610003 1.806899 1.3980949 0
3.6650002 1.8032823 1.3993144 0
3.6680002 1.7990866 1.4002289 0
3.6710002 1.7948802 1.4011434 0
3.6740003 1.7906628 1.4020579 0
3.6770003 1.7864347 1.4029725 0
3.6810002 1.7827531 1.4041919 0
3.6840003 1.7785015 1.4051064 0
3.6870003 1.7742392 1.406021 0
3.6900003 1.7699659 1.4069355 0
3.6930003 1.7656819 1.40785 0
3.6970003 1.7619354 1.4090694 0
3.7000003 1.757628 1.4099839 0
3.7030003 1.7533095 1.4108984 0
3.7060003 1.7489804 1.411813 0
3.7100003 1.7451816 1.4130323 0
3.7130003 1.740829 1.4139469 0
3.7160003 1.7364657 1.4148614 0
3.7190003 1.7320913 1.4157759 0
3.7230003 1.7282401 1.4169953 0
3.7260003 1.7238425 1.4179099 0
3.7290003 1.719434 1.4188243 0
3.7330003 1.7155432 1.4200437 0
3.7360003 1.7111113 1.4209583 0
3.7390003 1.7066685 1.4218727 0
3.7430003 1.7027379 1.4230922 0
3.6460001 1.8276515 1.3876671 0
3.6490002 1.8235227 1.3885763 0
3.6520002 1.8193829 1.3894854 0
3.6550002 1.8152325 1.3903946 0
3.6580002 1.8110712 1.3913035 0
3.6610003 1.806899 1.3922127 0
3.6650002 1.8032823 1.3934249 0
3.6680002 1.7990866 1.3943341 0
3.6710002 1.7948802 1.3952432 0
3.6740003 1.7906628 1.3961523 0
3.6770003 1.7864347 1.3970613 0
3.6810002 1.7827531 1.3982735 0
3.6840003 1.7785015 1.3991827 0
3.6870003 1.7742392 1.4000918 0
3.6900003 1.7699659 1.4010009 0
3.6930003 1.7656819 1.4019101 0
3.6970003 1.7619354 1.4031222 0
3.7000003 1.757628 1.4040313 0
3.7030003 1.7533095 1.4049405 0
3.7060003 1.7489804 1.4058496 0
3.7100003 1.7451816 1.4070617 0
3.7130003 1.740829 1.4079709 0
3.7160003 1.7364657 1.40888 0
