# .PCD v0.7 - Point Cloud Data file format
VERSION 0.7
FIELDS x y z intensity
SIZE 4 4 4 4
TYPE F F F F
COUNT 1 1 1 1
WIDTH 1482
HEIGHT 1
VIEWPOINT 0 0 0 1 0 0 0
POINTS 1482
DATA ascii
4.5040002 2.1156261 0.48543113 0
4.5170002 2.115047 0.48568907 0
4.5290003 2.113898 0.48592716 0
4.5420003 2.1132271 0.48618513 0
4.5550003 2.112509 0.48644307 0
4.5680003 2.1117442 0.48670101 0
4.5810003 2.1109326 0.48695895 0
4.5940003 2.1100738 0.48721689 0
4.6070004 2.1091685 0.48747486 0
4.6200004 2.108216 0.4877328 0
4.6340003 2.1077254 0.48801059 0
4.6470003 2.1066775 0.48826852 0
4.6610003 2.1060874 0.48854631 0
4.2190003 2.1583979 0.47288746 0
4.2190003 2.1515093 0.47288746 0
4.2179999 2.1440468 0.4728694 0
4.2179999 2.1371598 0.4728694 0
4.2220001 2.1325531 0.47294158 0
4.2330003 2.1319089 0.47314 0
4.244 2.1312253 0.4733384 0
4.2550001 2.1305022 0.47353682 0
4.2660003 2.129739 0.47373524 0
4.2780004 2.1294975 0.4739517 0
4.289 2.1286533 0.47415012 0
4.3000002 2.1277692 0.47434855 0
4.3120003 2.1274011 0.474565 0
4.323 2.1264362 0.47476339 0
4.335 2.1259837 0.47497988 0
4.3460002 2.1249373 0.47517827 0
4.3580003 2.1243997 0.47539473 0
4.3700004 2.1238189 0.47561121 0
4.382 2.1231949 0.47582766 0
4.3940001 2.1225276 0.47604412 0
4.4060001 2.1218166 0.47626057 0
4.4180002 2.1210628 0.47647703 0
4.4300003 2.1202655 0.47669348 0
4.4420004 2.1194251 0.47690994 0
4.4540005 2.1185412 0.47712642 0
4.4660001 2.1176138 0.47734284 0
4.4790001 2.1171734 0.47757736 0
4.4910002 2.116158 0.47779381 0
4.5040002 2.1156261 0.4780283 0
4.5170002 2.115047 0.47826278 0
4.5290003 2.113898 0.47847927 0
4.5420003 2.1132271 0.47871375 0
4.5550003 2.112509 0.47894824 0
4.5680003 2.1117442 0.47918272 0
4.5810003 2.1109326 0.47941723 0
4.5940003 2.1100738 0.47965175 0
4.6070004 2.1091685 0.47988623 0
4.6200004 2.108216 0.48012072 0
4.6340003 2.1077254 0.48037326 0
4.6470003 2.1066775 0.48060775 0
4.6610003 2.1060874 0.48086029 0
4.2190003 2.1583979 0.46599871 0
4.2190003 2.1515093 0.46599871 0
4.2179999 2.1440468 0.46598247 0
4.2179999 2.1371598 0.46598247 0
4.2220001 2.1325531 0.46604741 0
4.2330003 2.1319089 0.46622598 0
4.244 2.1312253 0.46640456 0
4.2550001 2.1305022 0.46658313 0
4.2660003 2.129739 0.46676171 0
4.2780004 2.1294975 0.46695653 0
4.289 2.1286533 0.4671351 0
4.3000002 2.1277692 0.46731368 0
4.3120003 2.1274011 0.46750849 0
4.323 2.1264362 0.46768707 0
4.335 2.1259837 0.46788189 0
4.3460002 2.1249373 0.46806046 0
4.3580003 2.1243997 0.46825528 0
4.3700004 2.1238189 0.46845007 0
4.382 2.1231949 0.46864489 0
4.3940001 2.1225276 0.4688397 0
4.4060001 2.1218166 0.46903452 0
4.4180002 2.1210628 0.46922934 0
4.4300003 2.1202655 0.46942413 0
4.4420004 2.1194251 0.46961895 0
4.4540005 2.1185412 0.46981376 0
4.4660001 2.1176138 0.47000858 0
4.4790001 2.1171734 0.47021961 0
4.4910002 2.116158 0.47041443 0
4.5040002 2.1156261 0.47062546 0
4.5170002 2.115047 0.47083652 0
4.5290003 2.113898 0.47103134 0
4.5420003 2.1132271 0.47124237 0
4.5550003 2.112509 0.47145343 0
4.5680003 2.1117442 0.47166446 0
4.5810003 2.1109326 0.47187552 0
4.5940003 2.1100738 0.47208655 0
4.6070004 2.1091685 0.47229761 0
4.6200004 2.108216 0.47250867 0
4.6340003 2.1077254 0.47273594 0
4.6470003 2.1066775 0.47294697 0
4.6610003 2.1060874 0.47317427 0
4.2190003 2.1583979 0.45910996 0
4.2190003 2.1515093 0.45910996 0
4.2179999 2.1440468 0.45909554 0
4.2179999 2.1371598 0.45909554 0
4.2220001 2.1325531 0.45915326 0
4.2330003 2.1319089 0.45931199 0
4.244 2.1312253 0.45947072 0
4.2550001 2.1305022 0.45962948 0
4.2660003 2.129739 0.4597882 0
4.2780004 2.1294975 0.45996135 0
4.289 2.1286533 0.46012008 0
4.3000002 2.1277692 0.46027884 0
4.3120003 2.1274011 0.46045199 0
4.323 2.1264362 0.46061072 0
4.335 2.1259837 0.4607839 0
4.3460002 2.1249373 0.46094263 0
4.3580003 2.1243997 0.46111581 0
4.3700004 2.1238189 0.46128896 0
4.382 2.1231949 0.46146214 0
4.3940001 2.1225276 0.46163529 0
4.4060001 2.1218166 0.46180844 0
4.4180002 2.1210628 0.46198162 0
4.4300003 2.1202655 0.46215481 0
4.4420004 2.1194251 0.46232796 0
4.4540005 2.1185412 0.46250111 0
4.4660001 2.1176138 0.46267429 0
4.4790001 2.1171734 0.4628619 0
4.4910002 2.116158 0.46303505 0
4.5040002 2.1156261 0.46322265 0
4.5170002 2.115047 0.46341023 0
4.5290003 2.113898 0.46358341 0
4.5420003 2.1132271 0.46377102 0
4.5550003 2.112509 0.46395859 0
4.5680003 2.1117442 0.4641462 0
4.5810003 2.1109326 0.4643338 0
4.5940003 2.1100738 0.46452138 0
4.6070004 2.1091685 0.46470898 0
4.6200004 2.108216 0.46489659 0
4.6340003 2.1077254 0.46509862 0
4.6470003 2.1066775 0.4652862 0
4.6610003 2.1060874 0.46548823 0
4.2190003 2.1583979 0.45222121 0
4.2190003 2.1515093 0.45222121 0
4.2179999 2.1440468 0.45220858 0
4.2179999 2.1371598 0.45220858 0
4.2220001 2.1325531 0.45225909 0
4.2330003 2.1319089 0.452398 0
4.244 2.1312253 0.45253688 0
4.2550001 2.1305022 0.45267579 0
4.2660003 2.129739 0.45281467 0
4.2780004 2.1294975 0.45296618 0
4.289 2.1286533 0.45310509 0
4.3000002 2.1277692 0.45324397 0
4.3120003 2.1274011 0.45339549 0
4.323 2.1264362 0.45353439 0
4.335 2.1259837 0.45368591 0
4.3460002 2.1249373 0.45382482 0
4.3580003 2.1243997 0.45397633 0
4.3700004 2.1238189 0.45412785 0
4.382 2.1231949 0.45427936 0
4.3940001 2.1225276 0.45443088 0
4.4060001 2.1218166 0.45458239 0
4.4180002 2.1210628 0.45473391 0
4.4300003 2.1202655 0.45488545 0
4.4420004 2.1194251 0.45503697 0
4.4540005 2.1185412 0.45518848 0
4.4660001 2.1176138 0.45534 0
4.4790001 2.1171734 0.45550415 0
4.4910002 2.116158 0.45565566 0
4.5040002 2.1156261 0.45581982 0
4.5170002 2.115047 0.45598397 0
4.5290003 2.113898 0.45613548 0
4.5420003 2.1132271 0.45629963 0
4.5550003 2.112509 0.45646378 0
4.5680003 2.1117442 0.45662794 0
4.5810003 2.1109326 0.45679206 0
4.5940003 2.1100738 0.45695621 0
4.6070004 2.1091685 0.45712036 0
4.6200004 2.108216 0.45728451 0
4.6340003 2.1077254 0.4574613 0
4.6470003 2.1066775 0.45762542 0
4.6610003 2.1060874 0.45780221 0
4.2190003 2.1583979 0.44533247 0
4.2190003 2.1515093 0.44533247 0
4.2179999 2.1440468 0.44532165 0
4.2179999 2.1371598 0.44532165 0
4.2220001 2.1325531 0.44536495 0
4.2330003 2.1319089 0.44548398 0
4.244 2.1312253 0.44560304 0
4.2550001 2.1305022 0.4457221 0
4.2660003 2.129739 0.44584113 0
4.2780004 2.1294975 0.44597101 0
4.289 2.1286533 0.44609007 0
4.3000002 2.1277692 0.44620913 0
4.3120003 2.1274011 0.44633901 0
4.323 2.1264362 0.44645804 0
4.335 2.1259837 0.44658792 0
4.3460002 2.1249373 0.44670698 0
4.3580003 2.1243997 0.44683686 0
4.3700004 2.1238189 0.44696674 0
4.382 2.1231949 0.44709659 0
4.3940001 2.1225276 0.44722646 0
4.4060001 2.1218166 0.44735634 0
4.4180002 2.1210628 0.44748622 0
4.4300003 2.1202655 0.4476161 0
4.4420004 2.1194251 0.44774598 0
4.4540005 2.1185412 0.44787586 0
4.4660001 2.1176138 0.44800571 0
4.4790001 2.1171734 0.4481464 0
4.4910002 2.116158 0.44827628 0
4.5040002 2.1156261 0.44841698 0
4.5170002 2.115047 0.44855767 0
4.5290003 2.113898 0.44868755 0
4.5420003 2.1132271 0.44882825 0
4.5550003 2.112509 0.44896895 0
4.5680003 2.1117442 0.44910964 0
4.5810003 2.1109326 0.44925034 0
4.5940003 2.1100738 0.44939104 0
4.6070004 2.1091685 0.44953173 0
4.6200004 2.108216 0.44967243 0
4.6340003 2.1077254 0.44982395 0
4.6470003 2.1066775 0.44996464 0
4.6610003 2.1060874 0.45011619 0
4.2190003 2.1583979 0.43844372 0
4.2190003 2.1515093 0.43844372 0
4.2179999 2.1440468 0.43843472 0
4.2179999 2.1371598 0.43843472 0
4.2220001 2.1325531 0.43847078 0
4.2330003 2.1319089 0.43856999 0
4.244 2.1312253 0.4386692 0
4.2550001 2.1305022 0.43876842 0
4.2660003 2.129739 0.43886763 0
4.2780004 2.1294975 0.43897587 0
4.289 2.1286533 0.43907505 0
4.3000002 2.1277692 0.43917426 0
4.3120003 2.1274011 0.43928251 0
4.323 2.1264362 0.43938172 0
4.335 2.1259837 0.43948993 0
4.3460002 2.1249373 0.43958914 0
4.3580003 2.1243997 0.43969738 0
4.3700004 2.1238189 0.4398056 0
4.382 2.1231949 0.43991384 0
4.3940001 2.1225276 0.44002205 0
4.4060001 2.1218166 0.44013029 0
4.4180002 2.1210628 0.44023854 0
4.4300003 2.1202655 0.44034675 0
4.4420004 2.1194251 0.44045499 0
4.4540005 2.1185412 0.4405632 0
4.4660001 2.1176138 0.44067144 0
4.4790001 2.1171734 0.44078869 0
4.4910002 2.116158 0.4408969 0
4.5040002 2.1156261 0.44101417 0
4.5170002 2.115047 0.44113141 0
4.5290003 2.113898 0.44123963 0
4.5420003 2.1132271 0.4413569 0
4.5550003 2.112509 0.44147414 0
4.5680003 2.1117442 0.44159138 0
4.5810003 2.1109326 0.44170862 0
4.5940003 2.1100738 0.44182587 0
4.6070004 2.1091685 0.44194311 0
4.6200004 2.108216 0.44206038 0
4.6340003 2.1077254 0.44218662 0
4.6470003 2.1066775 0.4423039 0
4.6610003 2.1060874 0.44243014 0
4.2190003 2.1583979 0.431555 0
4.2190003 2.1515093 0.431555 0
4.2179999 2.1440468 0.43154776 0
4.2179999 2.1371598 0.43154776 0
4.2220001 2.1325531 0.43157664 0
4.2330003 2.1319089 0.431656 0
4.244 2.1312253 0.43173537 0
4.2550001 2.1305022 0.43181473 0
4.2660003 2.129739 0.43189409 0
4.2780004 2.1294975 0.4319807 0
4.289 2.1286533 0.43206006 0
4.3000002 2.1277692 0.43213943 0
4.3120003 2.1274011 0.432226 0
4.323 2.1264362 0.43230537 0
4.335 2.1259837 0.43239194 0
4.3460002 2.1249373 0.43247133 0
4.3580003 2.1243997 0.43255791 0
4.3700004 2.1238189 0.43264449 0
4.382 2.1231949 0.43273106 0
4.3940001 2.1225276 0.43281767 0
4.4060001 2.1218166 0.43290424 0
4.4180002 2.1210628 0.43299082 0
4.4300003 2.1202655 0.43307739 0
4.4420004 2.1194251 0.433164 0
4.4540005 2.1185412 0.43325058 0
4.4660001 2.1176138 0.43333715 0
4.4790001 2.1171734 0.43343094 0
4.4910002 2.116158 0.43351752 0
4.5040002 2.1156261 0.43361133 0
4.5170002 2.115047 0.43370512 0
4.5290003 2.113898 0.4337917 0
4.5420003 2.1132271 0.43388551 0
4.5550003 2.112509 0.4339793 0
4.5680003 2.1117442 0.43407309 0
4.5810003 2.1109326 0.43416691 0
4.5940003 2.1100738 0.4342607 0
4.6070004 2.1091685 0.43435448 0
4.6200004 2.108216 0.4344483 0
4.6340003 2.1077254 0.4345493 0
4.6470003 2.1066775 0.43464312 0
4.6610003 2.1060874 0.43474412 0
4.2190003 2.1583979 0.42466626 0
4.2190003 2.1515093 0.42466626 0
4.2179999 2.1440468 0.42466083 0
4.2179999 2.1371598 0.42466083 0
4.2220001 2.1325531 0.42468247 0
4.2330003 2.1319089 0.42474201 0
4.244 2.1312253 0.42480153 0
4.2550001 2.1305022 0.42486104 0
4.2660003 2.129739 0.42492059 0
4.2780004 2.1294975 0.42498553 0
4.289 2.1286533 0.42504504 0
4.3000002 2.1277692 0.42510456 0
4.3120003 2.1274011 0.4251695 0
4.323 2.1264362 0.42522904 0
4.335 2.1259837 0.42529398 0
4.3460002 2.1249373 0.4253535 0
4.3580003 2.1243997 0.42541844 0
4.3700004 2.1238189 0.42548338 0
4.382 2.1231949 0.42554832 0
4.3940001 2.1225276 0.42561325 0
4.4060001 2.1218166 0.42567819 0
4.4180002 2.1210628 0.42574313 0
4.4300003 2.1202655 0.42580804 0
4.4420004 2.1194251 0.42587298 0
4.4540005 2.1185412 0.42593792 0
4.4660001 2.1176138 0.42600286 0
4.4790001 2.1171734 0.42607322 0
4.4910002 2.116158 0.42613816 0
4.5040002 2.1156261 0.4262085 0
4.5170002 2.115047 0.42627886 0
4.5290003 2.113898 0.4263438 0
4.5420003 2.1132271 0.42641413 0
4.5550003 2.112509 0.4264845 0
4.5680003 2.1117442 0.42655483 0
4.5810003 2.1109326 0.42662519 0
4.5940003 2.1100738 0.42669553 0
4.6070004 2.1091685 0.42676589 0
4.6200004 2.108216 0.42683622 0
4.6340003 2.1077254 0.42691198 0
4.6470003 2.1066775 0.42698234 0
4.6610003 2.1060874 0.4270581 0
4.2190003 2.1583979 0.41777751 0
4.2190003 2.1515093 0.41777751 0
4.2179999 2.1440468 0.4177739 0
4.2179999 2.1371598 0.4177739 0
4.2220001 2.1325531 0.41778833 0
4.2330003 2.1319089 0.41782799 0
4.244 2.1312253 0.41786769 0
4.2550001 2.1305022 0.41790739 0
4.2660003 2.129739 0.41794705 0
4.2780004 2.1294975 0.41799036 0
4.289 2.1286533 0.41803002 0
4.3000002 2.1277692 0.41806972 0
4.3120003 2.1274011 0.41811302 0
4.323 2.1264362 0.41815269 0
4.335 2.1259837 0.41819599 0
4.3460002 2.1249373 0.41823566 0
4.3580003 2.1243997 0.41827896 0
4.3700004 2.1238189 0.41832227 0
4.382 2.1231949 0.41836554 0
4.3940001 2.1225276 0.41840884 0
4.4060001 2.1218166 0.41845211 0
4.4180002 2.1210628 0.41849542 0
4.4300003 2.1202655 0.41853872 0
4.4420004 2.1194251 0.41858199 0
4.4540005 2.1185412 0.4186253 0
4.4660001 2.1176138 0.41866857 0
4.4790001 2.1171734 0.41871548 0
4.4910002 2.116158 0.41875878 0
4.5040002 2.1156261 0.41880566 0
4.5170002 2.115047 0.41885257 0
4.5290003 2.113898 0.41889587 0
4.5420003 2.1132271 0.41894275 0
4.5550003 2.112509 0.41898966 0
4.5680003 2.1117442 0.41903657 0
4.5810003 2.1109326 0.41908345 0
4.5940003 2.1100738 0.41913036 0
4.6070004 2.1091685 0.41917726 0
4.6200004 2.108216 0.41922414 0
4.6340003 2.1077254 0.41927466 0
4.6470003 2.1066775 0.41932157 0
4.6610003 2.1060874 0.41937208 0
4.2190003 2.1583979 0.41088876 0
4.2190003 2.1515093 0.41088876 0
4.2179999 2.1440468 0.41088694 0
4.2179999 2.1371598 0.41088694 0
4.2220001 2.1325531 0.41089416 0
4.2330003 2.1319089 0.410914 0
4.244 2.1312253 0.41093385 0
4.2550001 2.1305022 0.4109537 0
4.2660003 2.129739 0.41097355 0
4.2780004 2.1294975 0.41099519 0
4.289 2.1286533 0.41101503 0
4.3000002 2.1277692 0.41103485 0
4.3120003 2.1274011 0.41105652 0
4.323 2.1264362 0.41107637 0
4.335 2.1259837 0.411098 0
4.3460002 2.1249373 0.41111785 0
4.3580003 2.1243997 0.41113949 0
4.3700004 2.1238189 0.41116112 0
4.382 2.1231949 0.41118279 0
4.3940001 2.1225276 0.41120443 0
4.4060001 2.1218166 0.41122606 0
4.4180002 2.1210628 0.41124773 0
4.4300003 2.1202655 0.41126937 0
4.4420004 2.1194251 0.411291 0
4.4540005 2.1185412 0.41131264 0
4.4660001 2.1176138 0.41133431 0
4.4790001 2.1171734 0.41135776 0
4.4910002 2.116158 0.4113794 0
4.5040002 2.1156261 0.41140285 0
4.5170002 2.115047 0.41142631 0
4.5290003 2.113898 0.41144794 0
4.5420003 2.1132271 0.4114714 0
4.5550003 2.112509 0.41149485 0
4.5680003 2.1117442 0.41151828 0
4.5810003 2.1109326 0.41154173 0
4.5940003 2.1100738 0.41156518 0
4.6070004 2.1091685 0.41158864 0
4.6200004 2.108216 0.41161209 0
4.6340003 2.1077254 0.41163734 0
4.6470003 2.1066775 0.41166079 0
4.6610003 2.1060874 0.41168603 0
4.2190003 2.1583979 0.40400001 0
4.2190003 2.1515093 0.40400001 0
4.2179999 2.1440468 0.40400001 0
4.2179999 2.1371598 0.40400001 0
4.2220001 2.1325531 0.40400001 0
4.2330003 2.1319089 0.40400001 0
4.244 2.1312253 0.40400001 0
4.2550001 2.1305022 0.40400001 0
4.2660003 2.129739 0.40400001 0
4.2780004 2.1294975 0.40400001 0
4.289 2.1286533 0.40400001 0
4.3000002 2.1277692 0.40400001 0
4.3120003 2.1274011 0.40400001 0
4.323 2.1264362 0.40400001 0
4.335 2.1259837 0.40400001 0
4.3460002 2.1249373 0.40400001 0
4.3580003 2.1243997 0.40400001 0
4.3700004 2.1238189 0.40400001 0
4.382 2.1231949 0.40400001 0
4.3940001 2.1225276 0.40400001 0
4.4060001 2.1218166 0.40400001 0
4.4180002 2.1210628 0.40400001 0
4.4300003 2.1202655 0.40400001 0
4.4420004 2.1194251 0.40400001 0
4.4540005 2.1185412 0.40400001 0
4.4660001 2.1176138 0.40400001 0
4.4790001 2.1171734 0.40400001 0
4.4910002 2.116158 0.40400001 0
4.5040002 2.1156261 0.40400001 0
4.5170002 2.115047 0.40400001 0
4.5290003 2.113898 0.40400001 0
4.5420003 2.1132271 0.40400001 0
4.5550003 2.112509 0.40400001 0
4.5680003 2.1117442 0.40400001 0
4.5810003 2.1109326 0.40400001 0
4.5940003 2.1100738 0.40400001 0
4.6070004 2.1091685 0.40400001 0
4.6200004 2.108216 0.40400001 0
4.6340003 2.1077254 0.40400001 0
4.6470003 2.1066775 0.40400001 0
4.6610003 2.1060874 0.40400001 0
4.2190003 2.1583979 0.39711127 0
4.2190003 2.1515093 0.39711127 0
4.2179999 2.1440468 0.39711308 0
4.2179999 2.1371598 0.39711308 0
4.2220001 2.1325531 0.39710587 0
4.2330003 2.1319089 0.39708602 0
4.244 2.1312253 0.39706618 0
4.2550001 2.1305022 0.39704633 0
4.2660003 2.129739 0.39702648 0
4.2780004 2.1294975 0.39700484 0
4.289 2.1286533 0.39698499 0
4.3000002 2.1277692 0.39696518 0
4.3120003 2.1274011 0.39694351 0
4.323 2.1264362 0.39692366 0
4.335 2.1259837 0.39690202 0
4.3460002 2.1249373 0.39688218 0
4.3580003 2.1243997 0.39686054 0
4.3700004 2.1238189 0.3968389 0
4.382 2.1231949 0.39681724 0
4.3940001 2.1225276 0.3967956 0
4.4060001 2.1218166 0.39677396 0
4.4180002 2.1210628 0.3967523 0
4.4300003 2.1202655 0.39673066 0
4.4420004 2.1194251 0.39670902 0
4.4540005 2.1185412 0.39668739 0
4.4660001 2.1176138 0.39666572 0
4.4790001 2.1171734 0.39664227 0
4.4910002 2.116158 0.39662063 0
4.5040002 2.1156261 0.39659718 0
4.5170002 2.115047 0.39657372 0
4.5290003 2.113898 0.39655209 0
4.5420003 2.1132271 0.39652863 0
4.5550003 2.112509 0.39650518 0
4.5680003 2.1117442 0.39648175 0
4.5810003 2.1109326 0.3964583 0
4.5940003 2.1100738 0.39643484 0
4.6070004 2.1091685 0.39641139 0
4.6200004 2.108216 0.39638793 0
4.6340003 2.1077254 0.39636269 0
4.6470003 2.1066775 0.39633924 0
4.6610003 2.1060874 0.396314 0
4.2190003 2.1583979 0.39022252 0
4.2190003 2.1515093 0.39022252 0
4.2179999 2.1440468 0.39022613 0
4.2179999 2.1371598 0.39022613 0
4.2220001 2.1325531 0.3902117 0
4.2330003 2.1319089 0.39017203 0
4.244 2.1312253 0.39013234 0
4.2550001 2.1305022 0.39009264 0
4.2660003 2.129739 0.39005297 0
4.2780004 2.1294975 0.39000967 0
4.289 2.1286533 0.38997 0
4.3000002 2.1277692 0.38993031 0
4.3120003 2.1274011 0.38988701 0
4.323 2.1264362 0.38984734 0
4.335 2.1259837 0.38980404 0
4.3460002 2.1249373 0.38976437 0
4.3580003 2.1243997 0.38972107 0
4.3700004 2.1238189 0.38967776 0
4.382 2.1231949 0.38963449 0
4.3940001 2.1225276 0.38959119 0
4.4060001 2.1218166 0.38954791 0
4.4180002 2.1210628 0.38950461 0
4.4300003 2.1202655 0.38946131 0
4.4420004 2.1194251 0.38941804 0
4.4540005 2.1185412 0.38937473 0
4.4660001 2.1176138 0.38933146 0
4.4790001 2.1171734 0.38928455 0
4.4910002 2.116158 0.38924125 0
4.5040002 2.1156261 0.38919437 0
4.5170002 2.115047 0.38914746 0
4.5290003 2.113898 0.38910416 0
4.5420003 2.1132271 0.38905728 0
4.5550003 2.112509 0.38901037 0
4.5680003 2.1117442 0.38896346 0
4.5810003 2.1109326 0.38891658 0
4.5940003 2.1100738 0.38886967 0
4.6070004 2.1091685 0.38882276 0
4.6200004 2.108216 0.38877589 0
4.6340003 2.1077254 0.38872537 0
4.6470003 2.1066775 0.38867846 0
4.6610003 2.1060874 0.38862795 0
4.2190003 2.1583979 0.38333377 0
4.2190003 2.1515093 0.38333377 0
4.2179999 2.1440468 0.3833392 0
4.2179999 2.1371598 0.3833392 0
4.2220001 2.1325531 0.38331756 0
4.2330003 2.1319089 0.38325801 0
4.244 2.1312253 0.3831985 0
4.2550001 2.1305022 0.38313898 0
4.2660003 2.129739 0.38307944 0
4.2780004 2.1294975 0.3830145 0
4.289 2.1286533 0.38295498 0
4.3000002 2.1277692 0.38289547 0
4.3120003 2.1274011 0.38283053 0
4.323 2.1264362 0.38277099 0
4.335 2.1259837 0.38270605 0
4.3460002 2.1249373 0.38264653 0
4.3580003 2.1243997 0.38258159 0
4.3700004 2.1238189 0.38251665 0
4.382 2.1231949 0.38245171 0
4.3940001 2.1225276 0.38238677 0
4.4060001 2.1218166 0.38232183 0
4.4180002 2.1210628 0.3822569 0
4.4300003 2.1202655 0.38219199 0
4.4420004 2.1194251 0.38212705 0
4.4540005 2.1185412 0.38206211 0
4.4660001 2.1176138 0.38199717 0
4.4790001 2.1171734 0.3819268 0
4.4910002 2.116158 0.38186187 0
4.5040002 2.1156261 0.38179153 0
4.5170002 2.115047 0.38172117 0
4.5290003 2.113898 0.38165623 0
4.5420003 2.1132271 0.3815859 0
4.5550003 2.112509 0.38151553 0
4.5680003 2.1117442 0.3814452 0
4.5810003 2.1109326 0.38137484 0
4.5940003 2.1100738 0.3813045 0
4.6070004 2.1091685 0.38123414 0
4.6200004 2.108216 0.38116381 0
4.6340003 2.1077254 0.38108805 0
4.6470003 2.1066775 0.38101768 0
4.6610003 2.1060874 0.38094193 0
4.2190003 2.1583979 0.37644503 0
4.2190003 2.1515093 0.37644503 0
4.2179999 2.1440468 0.37645227 0
4.2179999 2.1371598 0.37645227 0
4.2220001 2.1325531 0.37642339 0
4.2330003 2.1319089 0.37634403 0
4.244 2.1312253 0.37626466 0
4.2550001 2.1305022 0.3761853 0
4.2660003 2.129739 0.37610593 0
4.2780004 2.1294975 0.37601933 0
4.289 2.1286533 0.37593997 0
4.3000002 2.1277692 0.3758606 0
4.3120003 2.1274011 0.37577403 0
4.323 2.1264362 0.37569466 0
4.335 2.1259837 0.37560809 0
4.3460002 2.1249373 0.37552869 0
4.3580003 2.1243997 0.37544212 0
4.3700004 2.1238189 0.37535554 0
4.382 2.1231949 0.37526897 0
4.3940001 2.1225276 0.37518236 0
4.4060001 2.1218166 0.37509578 0
4.4180002 2.1210628 0.37500921 0
4.4300003 2.1202655 0.37492263 0
4.4420004 2.1194251 0.37483603 0
4.4540005 2.1185412 0.37474945 0
4.4660001 2.1176138 0.37466288 0
4.4790001 2.1171734 0.37456909 0
4.4910002 2.116158 0.37448251 0
4.5040002 2.1156261 0.37438869 0
4.5170002 2.115047 0.37429491 0
4.5290003 2.113898 0.37420833 0
4.5420003 2.1132271 0.37411451 0
4.5550003 2.112509 0.37402073 0
4.5680003 2.1117442 0.37392694 0
4.5810003 2.1109326 0.37383312 0
4.5940003 2.1100738 0.37373933 0
4.6070004 2.1091685 0.37364554 0
4.6200004 2.108216 0.37355173 0
4.6340003 2.1077254 0.37345073 0
4.6470003 2.1066775 0.37335691 0
4.6610003 2.1060874 0.37325591 0
4.2190003 2.1583979 0.36955631 0
4.2190003 2.1515093 0.36955631 0
4.2179999 2.1440468 0.36956531 0
4.2179999 2.1371598 0.36956531 0
4.2220001 2.1325531 0.36952925 0
4.2330003 2.1319089 0.36943004 0
4.244 2.1312253 0.36933082 0
4.2550001 2.1305022 0.36923161 0
4.2660003 2.129739 0.3691324 0
4.2780004 2.1294975 0.36902416 0
4.289 2.1286533 0.36892498 0
4.3000002 2.1277692 0.36882576 0
4.3120003 2.1274011 0.36871752 0
4.323 2.1264362 0.36861831 0
4.335 2.1259837 0.3685101 0
4.3460002 2.1249373 0.36841089 0
4.3580003 2.1243997 0.36830264 0
4.3700004 2.1238189 0.36819443 0
4.382 2.1231949 0.36808619 0
4.3940001 2.1225276 0.36797798 0
4.4060001 2.1218166 0.36786973 0
4.4180002 2.1210628 0.36776149 0
4.4300003 2.1202655 0.36765328 0
4.4420004 2.1194251 0.36754504 0
4.4540005 2.1185412 0.36743683 0
4.4660001 2.1176138 0.36732858 0
4.4790001 2.1171734 0.36721134 0
4.4910002 2.116158 0.36710313 0
4.5040002 2.1156261 0.36698586 0
4.5170002 2.115047 0.36686862 0
4.5290003 2.113898 0.3667604 0
4.5420003 2.1132271 0.36664313 0
4.5550003 2.112509 0.36652589 0
4.5680003 2.1117442 0.36640865 0
4.5810003 2.1109326 0.3662914 0
4.5940003 2.1100738 0.36617416 0
4.6070004 2.1091685 0.36605692 0
4.6200004 2.108216 0.36593965 0
4.6340003 2.1077254 0.3658134 0
4.6470003 2.1066775 0.36569613 0
4.6610003 2.1060874 0.36556989 0
4.2190003 2.1583979 0.36266756 0
4.2190003 2.1515093 0.36266756 0
4.2179999 2.1440468 0.36267838 0
4.2179999 2.1371598 0.36267838 0
4.2220001 2.1325531 0.36263508 0
4.2330003 2.1319089 0.36251605 0
4.244 2.1312253 0.36239699 0
4.2550001 2.1305022 0.36227793 0
4.2660003 2.129739 0.36215889 0
4.2780004 2.1294975 0.36202902 0
4.289 2.1286533 0.36190996 0
4.3000002 2.1277692 0.3617909 0
4.3120003 2.1274011 0.36166102 0
4.323 2.1264362 0.36154199 0
4.335 2.1259837 0.36141211 0
4.3460002 2.1249373 0.36129305 0
4.3580003 2.1243997 0.36116317 0
4.3700004 2.1238189 0.36103329 0
4.382 2.1231949 0.36090344 0
4.3940001 2.1225276 0.36077356 0
4.4060001 2.1218166 0.36064368 0
4.4180002 2.1210628 0.36051381 0
4.4300003 2.1202655 0.36038393 0
4.4420004 2.1194251 0.36025405 0
4.4540005 2.1185412 0.36012417 0
4.4660001 2.1176138 0.35999432 0
4.4790001 2.1171734 0.35985363 0
4.4910002 2.116158 0.35972375 0
4.5040002 2.1156261 0.35958305 0
4.5170002 2.115047 0.35944235 0
4.5290003 2.113898 0.35931247 0
4.5420003 2.1132271 0.35917178 0
4.5550003 2.112509 0.35903108 0
4.5680003 2.1117442 0.35889038 0
4.5810003 2.1109326 0.35874969 0
4.5940003 2.1100738 0.35860899 0
4.6070004 2.1091685 0.35846829 0
4.6200004 2.108216 0.3583276 0
4.6340003 2.1077254 0.35817608 0
4.6470003 2.1066775 0.35803539 0
4.6610003 2.1060874 0.35788384 0
4.2190003 2.1583979 0.35577881 0
4.2190003 2.1515093 0.35577881 0
4.2179999 2.1440468 0.35579145 0
4.2179999 2.1371598 0.35579145 0
4.2220001 2.1325531 0.35574093 0
4.2330003 2.1319089 0.35560203 0
4.244 2.1312253 0.35546315 0
4.2550001 2.1305022 0.35532424 0
4.2660003 2.129739 0.35518536 0
4.2780004 2.1294975 0.35503384 0
4.289 2.1286533 0.35489494 0
4.3000002 2.1277692 0.35475606 0
4.3120003 2.1274011 0.35460454 0
4.323 2.1264362 0.35446563 0
4.335 2.1259837 0.35431412 0
4.3460002 2.1249373 0.35417521 0
4.3580003 2.1243997 0.35402369 0
4.3700004 2.1238189 0.35387218 0
4.382 2.1231949 0.35372066 0
4.3940001 2.1225276 0.35356915 0
4.4060001 2.1218166 0.35341763 0
4.4180002 2.1210628 0.35326612 0
4.4300003 2.1202655 0.35311458 0
4.4420004 2.1194251 0.35296306 0
4.4540005 2.1185412 0.35281155 0
4.4660001 2.1176138 0.35266003 0
4.4790001 2.1171734 0.35249588 0
4.4910002 2.116158 0.35234436 0
4.5040002 2.1156261 0.35218021 0
4.5170002 2.115047 0.35201606 0
4.5290003 2.113898 0.35186455 0
4.5420003 2.1132271 0.3517004 0
4.5550003 2.112509 0.35153624 0
4.5680003 2.1117442 0.35137209 0
4.5810003 2.1109326 0.35120797 0
4.5940003 2.1100738 0.35104382 0
4.6070004 2.1091685 0.35087967 0
4.6200004 2.108216 0.35071552 0
4.6340003 2.1077254 0.35053873 0
4.6470003 2.1066775 0.35037461 0
4.6610003 2.1060874 0.35019782 0
4.2190003 2.1583979 0.34889007 0
4.2190003 2.1515093 0.34889007 0
4.2179999 2.1440468 0.34890449 0
4.2179999 2.1371598 0.34890449 0
4.2220001 2.1325531 0.34884676 0
4.2330003 2.1319089 0.34868804 0
4.244 2.1312253 0.34852931 0
4.2550001 2.1305022 0.34837055 0
4.2660003 2.129739 0.34821182 0
4.2780004 2.1294975 0.34803867 0
4.289 2.1286533 0.34787995 0
4.3000002 2.1277692 0.34772119 0
4.3120003 2.1274011 0.34754804 0
4.323 2.1264362 0.34738931 0
4.335 2.1259837 0.34721613 0
4.3460002 2.1249373 0.3470574 0
4.3580003 2.1243997 0.34688422 0
4.3700004 2.1238189 0.34671107 0
4.382 2.1231949 0.34653789 0
4.3940001 2.1225276 0.34636474 0
4.4060001 2.1218166 0.34619159 0
4.4180002 2.1210628 0.3460184 0
4.4300003 2.1202655 0.34584522 0
4.4420004 2.1194251 0.34567207 0
4.4540005 2.1185412 0.34549892 0
4.4660001 2.1176138 0.34532574 0
4.4790001 2.1171734 0.34513813 0
4.4910002 2.116158 0.34496498 0
4.5040002 2.1156261 0.34477738 0
4.5170002 2.115047 0.3445898 0
4.5290003 2.113898 0.34441662 0
4.5420003 2.1132271 0.34422901 0
4.5550003 2.112509 0.34404144 0
4.5680003 2.1117442 0.34385383 0
4.5810003 2.1109326 0.34366623 0
4.5940003 2.1100738 0.34347865 0
4.6070004 2.1091685 0.34329104 0
4.6200004 2.108216 0.34310344 0
4.6340003 2.1077254 0.34290141 0
4.6470003 2.1066775 0.34271383 0
4.6610003 2.1060874 0.3425118 0
4.2190003 2.1583979 0.34200132 0
4.2190003 2.1515093 0.34200132 0
4.2179999 2.1440468 0.34201756 0
4.2179999 2.1371598 0.34201756 0
4.2220001 2.1325531 0.34195262 0
4.2330003 2.1319089 0.34177405 0
4.244 2.1312253 0.34159547 0
4.2550001 2.1305022 0.3414169 0
4.2660003 2.129739 0.34123832 0
4.2780004 2.1294975 0.3410435 0
4.289 2.1286533 0.34086493 0
4.3000002 2.1277692 0.34068635 0
4.3120003 2.1274011 0.34049153 0
4.323 2.1264362 0.34031296 0
4.335 2.1259837 0.34011814 0
4.3460002 2.1249373 0.33993956 0
4.3580003 2.1243997 0.33974475 0
4.3700004 2.1238189 0.33954996 0
4.382 2.1231949 0.33935514 0
4.3940001 2.1225276 0.33916032 0
4.4060001 2.1218166 0.33896551 0
4.4180002 2.1210628 0.33877069 0
4.4300003 2.1202655 0.3385759 0
4.4420004 2.1194251 0.33838108 0
4.4540005 2.1185412 0.33818626 0
4.4660001 2.1176138 0.33799145 0
4.4790001 2.1171734 0.33778042 0
4.4910002 2.116158 0.3375856 0
4.5040002 2.1156261 0.33737457 0
4.5170002 2.115047 0.33716351 0
4.5290003 2.113898 0.33696869 0
4.5420003 2.1132271 0.33675766 0
4.5550003 2.112509 0.3365466 0
4.5680003 2.1117442 0.33633557 0
4.5810003 2.1109326 0.33612451 0
4.5940003 2.1100738 0.33591348 0
4.6070004 2.1091685 0.33570242 0
4.6200004 2.108216 0.33549136 0
4.6340003 2.1077254 0.33526409 0
4.6470003 2.1066775 0.33505306 0
4.6610003 2.1060874 0.33482575 0
4.2190003 2.1583979 0.33511257 0
4.2190003 2.1515093 0.33511257 0
4.2179999 2.1440468 0.33513063 0
4.2179999 2.1371598 0.33513063 0
4.2220001 2.1325531 0.33505845 0
4.2330003 2.1319089 0.33486003 0
4.244 2.1312253 0.33466163 0
4.2550001 2.1305022 0.33446321 0
4.2660003 2.129739 0.33426479 0
4.2780004 2.1294975 0.33404833 0
4.289 2.1286533 0.33384991 0
4.3000002 2.1277692 0.33365148 0
4.3120003 2.1274011 0.33343503 0
4.323 2.1264362 0.33323663 0
4.335 2.1259837 0.33302015 0
4.3460002 2.1249373 0.33282176 0
4.3580003 2.1243997 0.3326053 0
4.3700004 2.1238189 0.33238882 0
4.382 2.1231949 0.33217236 0
4.3940001 2.1225276 0.33195591 0
4.4060001 2.1218166 0.33173946 0
4.4180002 2.1210628 0.331523 0
4.4300003 2.1202655 0.33130655 0
4.4420004 2.1194251 0.33109009 0
4.4540005 2.1185412 0.33087361 0
4.4660001 2.1176138 0.33065718 0
4.4790001 2.1171734 0.33042267 0
4.4910002 2.116158 0.33020622 0
4.5040002 2.1156261 0.32997173 0
4.5170002 2.115047 0.32973725 0
4.5290003 2.113898 0.32952076 0
4.5420003 2.1132271 0.32928628 0
4.5550003 2.112509 0.32905179 0
4.5680003 2.1117442 0.32881731 0
4.5810003 2.1109326 0.32858279 0
4.5940003 2.1100738 0.32834828 0
4.6070004 2.1091685 0.32811379 0
4.6200004 2.108216 0.32787931 0
4.6340003 2.1077254 0.32762676 0
4.6470003 2.1066775 0.32739228 0
4.6610003 2.1060874 0.32713974 0
4.2190003 2.1583979 0.32822382 0
4.2190003 2.1515093 0.32822382 0
4.2179999 2.1440468 0.32824367 0
4.2179999 2.1371598 0.32824367 0
4.2220001 2.1325531 0.32816431 0
4.2330003 2.1319089 0.32794604 0
4.244 2.1312253 0.32772779 0
4.2550001 2.1305022 0.32750952 0
4.2660003 2.129739 0.32729125 0
4.2780004 2.1294975 0.32705316 0
4.289 2.1286533 0.32683492 0
4.3000002 2.1277692 0.32661664 0
4.3120003 2.1274011 0.32637852 0
4.323 2.1264362 0.32616028 0
4.335 2.1259837 0.32592216 0
4.3460002 2.1249373 0.32570392 0
4.3580003 2.1243997 0.3254658 0
4.3700004 2.1238189 0.32522771 0
4.382 2.1231949 0.32498962 0
4.3940001 2.1225276 0.3247515 0
4.4060001 2.1218166 0.32451341 0
4.4180002 2.1210628 0.32427531 0
4.4300003 2.1202655 0.32403719 0
4.4420004 2.1194251 0.3237991 0
4.4540005 2.1185412 0.32356098 0
4.4660001 2.1176138 0.32332289 0
4.4790001 2.1171734 0.32306495 0
4.4910002 2.116158 0.32282686 0
4.5040002 2.1156261 0.32256889 0
4.5170002 2.115047 0.32231095 0
4.5290003 2.113898 0.32207286 0
4.5420003 2.1132271 0.32181489 0
4.5550003 2.112509 0.32155696 0
4.5680003 2.1117442 0.32129902 0
4.5810003 2.1109326 0.32104108 0
4.5940003 2.1100738 0.32078314 0
4.6070004 2.1091685 0.32052517 0
4.6200004 2.108216 0.32026723 0
4.6340003 2.1077254 0.31998944 0
4.6470003 2.1066775 0.3197315 0
4.6610003 2.1060874 0.31945372 0
4.2190003 2.1583979 0.32133508 0
4.2190003 2.1515093 0.32133508 0
4.2179999 2.1440468 0.32135674 0
4.2179999 2.1371598 0.32135674 0
4.2220001 2.1325531 0.32127017 0
4.2330003 2.1319089 0.32103205 0
4.244 2.1312253 0.32079396 0
4.2550001 2.1305022 0.32055584 0
4.2660003 2.129739 0.32031775 0
4.2780004 2.1294975 0.32005799 0
4.289 2.1286533 0.3198199 0
4.3000002 2.1277692 0.31958178 0
4.3120003 2.1274011 0.31932205 0
4.323 2.1264362 0.31908393 0
4.335 2.1259837 0.3188242 0
4.3460002 2.1249373 0.31858608 0
4.3580003 2.1243997 0.31832635 0
4.3700004 2.1238189 0.3180666 0
4.382 2.1231949 0.31780684 0
4.3940001 2.1225276 0.31754708 0
4.4060001 2.1218166 0.31728736 0
4.4180002 2.1210628 0.3170276 0
4.4300003 2.1202655 0.31676784 0
4.4420004 2.1194251 0.31650808 0
4.4540005 2.1185412 0.31624836 0
4.4660001 2.1176138 0.3159886 0
4.4790001 2.1171734 0.31570721 0
4.4910002 2.116158 0.31544745 0
4.5040002 2.1156261 0.31516606 0
4.5170002 2.115047 0.31488466 0
4.5290003 2.113898 0.31462491 0
4.5420003 2.1132271 0.31434351 0
4.5550003 2.112509 0.31406215 0
4.5680003 2.1117442 0.31378073 0
4.5810003 2.1109326 0.31349933 0
4.5940003 2.1100738 0.31321794 0
4.6070004 2.1091685 0.31293654 0
4.6200004 2.108216 0.31265515 0
4.6340003 2.1077254 0.31235212 0
4.6470003 2.1066775 0.31207073 0
4.6610003 2.1060874 0.3117677 0
4.2190003 2.1583979 0.31444633 0
4.2190003 2.1515093 0.31444633 0
4.2179999 2.1440468 0.31446978 0
4.2179999 2.1371598 0.31446978 0
4.2220001 2.1325531 0.314376 0
4.2330003 2.1319089 0.31411806 0
4.244 2.1312253 0.31386012 0
4.2550001 2.1305022 0.31360215 0
4.2660003 2.129739 0.31334421 0
4.2780004 2.1294975 0.31306282 0
4.289 2.1286533 0.31280488 0
4.3000002 2.1277692 0.31254694 0
4.3120003 2.1274011 0.31226555 0
4.323 2.1264362 0.31200761 0
4.335 2.1259837 0.31172621 0
4.3460002 2.1249373 0.31146827 0
4.3580003 2.1243997 0.31118685 0
4.3700004 2.1238189 0.31090546 0
4.382 2.1231949 0.31062406 0
4.3940001 2.1225276 0.31034267 0
4.4060001 2.1218166 0.31006131 0
4.4180002 2.1210628 0.30977988 0
4.4300003 2.1202655 0.30949849 0
4.4420004 2.1194251 0.3092171 0
4.4540005 2.1185412 0.3089357 0
4.4660001 2.1176138 0.30865431 0
4.4790001 2.1171734 0.30834949 0
4.4910002 2.116158 0.3080681 0
4.5040002 2.1156261 0.30776325 0
4.5170002 2.115047 0.3074584 0
4.5290003 2.113898 0.30717701 0
4.5420003 2.1132271 0.30687216 0
4.5550003 2.112509 0.30656731 0
4.5680003 2.1117442 0.30626246 0
4.5810003 2.1109326 0.30595762 0
4.5940003 2.1100738 0.3056528 0
4.6070004 2.1091685 0.30534795 0
4.6200004 2.108216 0.3050431 0
4.6340003 2.1077254 0.3047148 0
4.6470003 2.1066775 0.30440995 0
4.6610003 2.1060874 0.30408168 0
4.2190003 2.1583979 0.30755761 0
4.2190003 2.1515093 0.30755761 0
4.2179999 2.1440468 0.30758286 0
4.2179999 2.1371598 0.30758286 0
4.2220001 2.1325531 0.30748183 0
4.2330003 2.1319089 0.30720407 0
4.244 2.1312253 0.30692628 0
4.2550001 2.1305022 0.30664849 0
4.2660003 2.129739 0.30637071 0
4.2780004 2.1294975 0.30606765 0
4.289 2.1286533 0.30578989 0
4.3000002 2.1277692 0.30551207 0
4.3120003 2.1274011 0.30520904 0
4.323 2.1264362 0.30493125 0
4.335 2.1259837 0.30462822 0
4.3460002 2.1249373 0.30435044 0
4.3580003 2.1243997 0.30404741 0
4.3700004 2.1238189 0.30374435 0
4.382 2.1231949 0.30344132 0
4.3940001 2.1225276 0.30313826 0
4.4060001 2.1218166 0.30283523 0
4.4180002 2.1210628 0.3025322 0
4.4300003 2.1202655 0.30222917 0
4.4420004 2.1194251 0.30192611 0
4.4540005 2.1185412 0.30162308 0
4.4660001 2.1176138 0.30132005 0
4.4790001 2.1171734 0.30099174 0
4.4910002 2.116158 0.30068868 0
4.5040002 2.1156261 0.30036041 0
4.5170002 2.115047 0.30003211 0
4.5290003 2.113898 0.29972908 0
4.5420003 2.1132271 0.29940078 0
4.5550003 2.112509 0.2990725 0
4.5680003 2.1117442 0.2987442 0
4.5810003 2.1109326 0.2984159 0
4.5940003 2.1100738 0.2980876 0
4.6070004 2.1091685 0.29775932 0
4.6200004 2.108216 0.29743102 0
4.6340003 2.1077254 0.29707748 0
4.6470003 2.1066775 0.29674917 0
4.6610003 2.1060874 0.29639563 0
4.2190003 2.1583979 0.30066887 0
4.2190003 2.1515093 0.30066887 0
4.2179999 2.1440468 0.30069593 0
4.2179999 2.1371598 0.30069593 0
4.2220001 2.1325531 0.30058768 0
4.2330003 2.1319089 0.30029005 0
4.244 2.1312253 0.29999244 0
4.2550001 2.1305022 0.29969481 0
4.2660003 2.129739 0.29939717 0
4.2780004 2.1294975 0.29907247 0
4.289 2.1286533 0.29877487 0
4.3000002 2.1277692 0.29847723 0
4.3120003 2.1274011 0.29815254 0
4.323 2.1264362 0.29785493 0
4.335 2.1259837 0.29753023 0
4.3460002 2.1249373 0.2972326 0
4.3580003 2.1243997 0.2969079 0
4.3700004 2.1238189 0.29658324 0
4.382 2.1231949 0.29625854 0
4.3940001 2.1225276 0.29593387 0
4.4060001 2.1218166 0.29560918 0
4.4180002 2.1210628 0.29528451 0
4.4300003 2.1202655 0.29495981 0
4.4420004 2.1194251 0.29463512 0
4.4540005 2.1185412 0.29431042 0
4.4660001 2.1176138 0.29398575 0
4.4790001 2.1171734 0.293634 0
4.4910002 2.116158 0.29330933 0
4.5040002 2.1156261 0.29295757 0
4.5170002 2.115047 0.29260585 0
4.5290003 2.113898 0.29228115 0
4.5420003 2.1132271 0.29192939 0
4.5550003 2.112509 0.29157767 0
4.5680003 2.1117442 0.29122591 0
4.5810003 2.1109326 0.29087418 0
4.5940003 2.1100738 0.29052243 0
4.6070004 2.1091685 0.2901707 0
4.6200004 2.108216 0.28981894 0
4.6340003 2.1077254 0.28944016 0
4.6470003 2.1066775 0.28908843 0
4.6610003 2.1060874 0.28870961 0
4.2190003 2.1583979 0.29378012 0
4.2190003 2.1515093 0.29378012 0
4.2179999 2.1440468 0.293809 0
4.2179999 2.1371598 0.293809 0
4.2220001 2.1325531 0.29369354 0
4.2330003 2.1319089 0.29337606 0
4.244 2.1312253 0.2930586 0
4.2550001 2.1305022 0.29274112 0
4.2660003 2.129739 0.29242367 0
4.2780004 2.1294975 0.2920773 0
4.289 2.1286533 0.29175985 0
4.3000002 2.1277692 0.29144239 0
4.3120003 2.1274011 0.29109603 0
4.323 2.1264362 0.29077858 0
4.335 2.1259837 0.29043224 0
4.3460002 2.1249373 0.29011479 0
4.3580003 2.1243997 0.28976846 0
4.3700004 2.1238189 0.28942209 0
4.382 2.1231949 0.28907579 0
4.3940001 2.1225276 0.28872946 0
4.4060001 2.1218166 0.28838313 0
4.4180002 2.1210628 0.28803679 0
4.4300003 2.1202655 0.28769046 0
4.4420004 2.1194251 0.28734413 0
4.4540005 2.1185412 0.2869978 0
4.4660001 2.1176138 0.28665146 0
4.4790001 2.1171734 0.28627628 0
4.4910002 2.116158 0.28592995 0
4.5040002 2.1156261 0.28555477 0
4.5170002 2.115047 0.28517956 0
4.5290003 2.113898 0.28483322 0
4.5420003 2.1132271 0.28445804 0
4.5550003 2.112509 0.28408283 0
4.5680003 2.1117442 0.28370765 0
4.5810003 2.1109326 0.28333247 0
4.5940003 2.1100738 0.28295726 0
4.6070004 2.1091685 0.28258207 0
4.6200004 2.108216 0.28220689 0
4.6340003 2.1077254 0.28180283 0
4.6470003 2.1066775 0.28142762 0
4.6610003 2.1060874 0.28102359 0
4.2190003 2.1583979 0.28689137 0
4.2190003 2.1515093 0.28689137 0
4.2179999 2.1440468 0.28692204 0
4.2179999 2.1371598 0.28692204 0
4.2220001 2.1325531 0.28679937 0
4.2330003 2.1319089 0.28646207 0
4.244 2.1312253 0.28612477 0
4.2550001 2.1305022 0.28578743 0
4.2660003 2.129739 0.28545013 0
4.2780004 2.1294975 0.28508216 0
4.289 2.1286533 0.28474483 0
4.3000002 2.1277692 0.28440753 0
4.3120003 2.1274011 0.28403956 0
4.323 2.1264362 0.28370225 0
4.335 2.1259837 0.28333426 0
4.3460002 2.1249373 0.28299695 0
4.3580003 2.1243997 0.28262898 0
4.3700004 2.1238189 0.28226098 0
4.382 2.1231949 0.28189301 0
4.3940001 2.1225276 0.28152505 0
4.4060001 2.1218166 0.28115708 0
4.4180002 2.1210628 0.28078908 0
4.4300003 2.1202655 0.28042111 0
4.4420004 2.1194251 0.28005314 0
4.4540005 2.1185412 0.27968514 0
4.4660001 2.1176138 0.2793172 0
4.4790001 2.1171734 0.27891853 0
4.4910002 2.116158 0.27855057 0
4.5040002 2.1156261 0.27815193 0
4.5170002 2.115047 0.27775329 0
4.5290003 2.113898 0.27738529 0
4.5420003 2.1132271 0.27698666 0
4.5550003 2.112509 0.27658802 0
4.5680003 2.1117442 0.27618939 0
4.5810003 2.1109326 0.27579075 0
4.5940003 2.1100738 0.27539212 0
4.6070004 2.1091685 0.27499345 0
4.6200004 2.108216 0.27459481 0
4.6340003 2.1077254 0.27416551 0
4.6470003 2.1066775 0.27376688 0
4.6610003 2.1060874 0.27333754 0
4.2190003 2.1583979 0.28000262 0
4.2190003 2.1515093 0.28000262 0
4.2179999 2.1440468 0.28003511 0
4.2179999 2.1371598 0.28003511 0
4.2220001 2.1325531 0.27990523 0
4.2330003 2.1319089 0.27954808 0
4.244 2.1312253 0.27919093 0
4.2550001 2.1305022 0.27883375 0
4.2660003 2.129739 0.2784766 0
4.2780004 2.1294975 0.27808699 0
4.289 2.1286533 0.27772981 0
4.3000002 2.1277692 0.27737266 0
4.3120003 2.1274011 0.27698305 0
4.323 2.1264362 0.2766259 0
4.335 2.1259837 0.2762363 0
4.3460002 2.1249373 0.27587914 0
4.3580003 2.1243997 0.27548951 0
4.3700004 2.1238189 0.27509987 0
4.382 2.1231949 0.27471024 0
4.3940001 2.1225276 0.27432063 0
4.4060001 2.1218166 0.27393103 0
4.4180002 2.1210628 0.27354139 0
4.4300003 2.1202655 0.27315176 0
4.4420004 2.1194251 0.27276212 0
4.4540005 2.1185412 0.27237251 0
4.4660001 2.1176138 0.27198291 0
4.4790001 2.1171734 0.27156082 0
4.4910002 2.116158 0.27117118 0
4.5040002 2.1156261 0.27074909 0
4.5170002 2.115047 0.270327 0
4.5290003 2.113898 0.2699374 0
4.5420003 2.1132271 0.26951528 0
4.5550003 2.112509 0.26909322 0
4.5680003 2.1117442 0.2686711 0
4.5810003 2.1109326 0.26824903 0
4.5940003 2.1100738 0.26782691 0
4.6070004 2.1091685 0.26740482 0
4.6200004 2.108216 0.26698273 0
4.6340003 2.1077254 0.26652819 0
4.6470003 2.1066775 0.26610607 0
4.6610003 2.1060874 0.26565152 0
4.2190003 2.1583979 0.27311388 0
4.2190003 2.1515093 0.27311388 0
4.2179999 2.1440468 0.27314818 0
4.2179999 2.1371598 0.27314818 0
4.2220001 2.1325531 0.27301109 0
4.2330003 2.1319089 0.27263409 0
4.244 2.1312253 0.27225709 0
4.2550001 2.1305022 0.27188009 0
4.2660003 2.129739 0.27150309 0
4.2780004 2.1294975 0.27109182 0
4.289 2.1286533 0.27071482 0
4.3000002 2.1277692 0.27033782 0
4.3120003 2.1274011 0.26992655 0
4.323 2.1264362 0.26954955 0
4.335 2.1259837 0.26913828 0
4.3460002 2.1249373 0.26876131 0
4.3580003 2.1243997 0.26835003 0
4.3700004 2.1238189 0.26793873 0
4.382 2.1231949 0.26752749 0
4.3940001 2.1225276 0.26711622 0
4.4060001 2.1218166 0.26670498 0
4.4180002 2.1210628 0.2662937 0
4.4300003 2.1202655 0.26588243 0
4.4420004 2.1194251 0.26547116 0
4.4540005 2.1185412 0.26505989 0
4.4660001 2.1176138 0.26464862 0
4.4790001 2.1171734 0.26420307 0
4.4910002 2.116158 0.2637918 0
4.5040002 2.1156261 0.26334625 0
4.5170002 2.115047 0.26290071 0
4.5290003 2.113898 0.26248944 0
4.5420003 2.1132271 0.26204389 0
4.5550003 2.112509 0.26159835 0
4.5680003 2.1117442 0.26115283 0
4.5810003 2.1109326 0.26070729 0
4.5940003 2.1100738 0.26026174 0
4.6070004 2.1091685 0.2598162 0
4.6200004 2.108216 0.25937068 0
4.6340003 2.1077254 0.25889087 0
4.6470003 2.1066775 0.25844532 0
4.6610003 2.1060874 0.25796551 0
4.2190003 2.1583979 0.26622516 0
4.2190003 2.1515093 0.26622516 0
4.2179999 2.1440468 0.26626122 0
4.2179999 2.1371598 0.26626122 0
4.2220001 2.1325531 0.26611692 0
4.2330003 2.1319089 0.26572007 0
4.244 2.1312253 0.26532322 0
4.2550001 2.1305022 0.26492637 0
4.2660003 2.129739 0.26452956 0
4.2780004 2.1294975 0.26409665 0
4.289 2.1286533 0.2636998 0
4.3000002 2.1277692 0.26330298 0
4.3120003 2.1274011 0.26287007 0
4.323 2.1264362 0.26247323 0
4.335 2.1259837 0.26204032 0
4.3460002 2.1249373 0.26164347 0
4.3580003 2.1243997 0.26121056 0
4.3700004 2.1238189 0.26077765 0
4.382 2.1231949 0.26034474 0
4.3940001 2.1225276 0.25991181 0
4.4060001 2.1218166 0.2594789 0
4.4180002 2.1210628 0.25904599 0
4.4300003 2.1202655 0.25861305 0
4.4420004 2.1194251 0.25818014 0
4.4540005 2.1185412 0.25774723 0
4.4660001 2.1176138 0.25731432 0
4.4790001 2.1171734 0.25684536 0
4.4910002 2.116158 0.25641245 0
4.5040002 2.1156261 0.25594342 0
4.5170002 2.115047 0.25547445 0
4.5290003 2.113898 0.25504154 0
4.5420003 2.1132271 0.25457254 0
4.5550003 2.112509 0.25410354 0
4.5680003 2.1117442 0.25363457 0
4.5810003 2.1109326 0.25316557 0
4.5940003 2.1100738 0.25269657 0
4.6070004 2.1091685 0.2522276 0
4.6200004 2.108216 0.25175858 0
4.6340003 2.1077254 0.25125355 0
4.6470003 2.1066775 0.25078455 0
4.6610003 2.1060874 0.25027949 0
4.2190003 2.1583979 0.25933641 0
4.2190003 2.1515093 0.25933641 0
4.2179999 2.1440468 0.25937426 0
4.2179999 2.1371598 0.25937426 0
4.2220001 2.1325531 0.25922275 0
4.2330003 2.1319089 0.25880608 0
4.244 2.1312253 0.25838941 0
4.2550001 2.1305022 0.25797272 0
4.2660003 2.129739 0.25755602 0
4.2780004 2.1294975 0.25710148 0
4.289 2.1286533 0.25668478 0
4.3000002 2.1277692 0.25626814 0
4.3120003 2.1274011 0.25581357 0
4.323 2.1264362 0.2553969 0
4.335 2.1259837 0.25494233 0
4.3460002 2.1249373 0.25452566 0
4.3580003 2.1243997 0.25407109 0
4.3700004 2.1238189 0.25361651 0
4.382 2.1231949 0.25316197 0
4.3940001 2.1225276 0.25270742 0
4.4060001 2.1218166 0.25225285 0
4.4180002 2.1210628 0.25179827 0
4.4300003 2.1202655 0.25134373 0
4.4420004 2.1194251 0.25088918 0
4.4540005 2.1185412 0.25043458 0
4.4660001 2.1176138 0.24998005 0
4.4790001 2.1171734 0.24948762 0
4.4910002 2.116158 0.24903305 0
4.5040002 2.1156261 0.2485406 0
4.5170002 2.115047 0.24804817 0
4.5290003 2.113898 0.2475936 0
4.5420003 2.1132271 0.24710117 0
4.5550003 2.112509 0.24660872 0
4.5680003 2.1117442 0.24611628 0
4.5810003 2.1109326 0.24562386 0
4.5940003 2.1100738 0.2451314 0
4.6070004 2.1091685 0.24463896 0
4.6200004 2.108216 0.24414653 0
4.6340003 2.1077254 0.24361621 0
4.6470003 2.1066775 0.24312377 0
4.6610003 2.1060874 0.24259345 0
4.2190003 2.1583979 0.25244766 0
4.2190003 2.1515093 0.25244766 0
4.2179999 2.1440468 0.25248736 0
4.2179999 2.1371598 0.25248736 0
4.2220001 2.1325531 0.25232857 0
4.2330003 2.1319089 0.25189209 0
4.244 2.1312253 0.25145555 0
4.2550001 2.1305022 0.25101903 0
4.2660003 2.129739 0.25058252 0
4.2780004 2.1294975 0.2501063 0
4.289 2.1286533 0.24966979 0
4.3000002 2.1277692 0.24923328 0
4.3120003 2.1274011 0.24875706 0
4.323 2.1264362 0.24832055 0
4.335 2.1259837 0.24784432 0
4.3460002 2.1249373 0.24740781 0
4.3580003 2.1243997 0.24693161 0
4.3700004 2.1238189 0.2464554 0
4.382 2.1231949 0.2459792 0
4.3940001 2.1225276 0.24550299 0
4.4060001 2.1218166 0.24502678 0
4.4180002 2.1210628 0.24455059 0
4.4300003 2.1202655 0.24407437 0
4.4420004 2.1194251 0.24359818 0
4.4540005 2.1185412 0.24312195 0
4.4660001 2.1176138 0.24264577 0
4.4790001 2.1171734 0.24212988 0
4.4910002 2.116158 0.24165368 0
4.5040002 2.1156261 0.24113779 0
4.5170002 2.115047 0.24062188 0
4.5290003 2.113898 0.24014568 0
4.5420003 2.1132271 0.23962979 0
4.5550003 2.112509 0.23911391 0
4.5680003 2.1117442 0.238598 0
4.5810003 2.1109326 0.23808213 0
4.5940003 2.1100738 0.23756623 0
4.6070004 2.1091685 0.23705034 0
4.6200004 2.108216 0.23653446 0
4.6340003 2.1077254 0.23597889 0
4.6470003 2.1066775 0.23546299 0
4.6610003 2.1060874 0.23490742 0
4.2190003 2.1583979 0.2455589 0
4.2190003 2.1515093 0.2455589 0
4.2179999 2.1440468 0.2456004 0
4.2179999 2.1371598 0.2456004 0
4.2220001 2.1325531 0.24543445 0
4.2330003 2.1319089 0.24497809 0
4.244 2.1312253 0.24452172 0
4.2550001 2.1305022 0.24406534 0
4.2660003 2.129739 0.24360898 0
4.2780004 2.1294975 0.24311113 0
4.289 2.1286533 0.24265477 0
4.3000002 2.1277692 0.24219841 0
4.3120003 2.1274011 0.24170056 0
4.323 2.1264362 0.2412442 0
4.335 2.1259837 0.24074635 0
4.3460002 2.1249373 0.24028999 0
4.3580003 2.1243997 0.23979214 0
4.3700004 2.1238189 0.23929428 0
4.382 2.1231949 0.23879643 0
4.3940001 2.1225276 0.23829858 0
4.4060001 2.1218166 0.23780073 0
4.4180002 2.1210628 0.23730288 0
4.4300003 2.1202655 0.23680504 0
4.4420004 2.1194251 0.23630717 0
4.4540005 2.1185412 0.23580931 0
4.4660001 2.1176138 0.23531149 0
4.4790001 2.1171734 0.23477215 0
4.4910002 2.116158 0.23427428 0
4.5040002 2.1156261 0.23373497 0
4.5170002 2.115047 0.23319562 0
4.5290003 2.113898 0.23269776 0
4.5420003 2.1132271 0.23215842 0
4.5550003 2.112509 0.23161909 0
4.5680003 2.1117442 0.23107974 0
4.5810003 2.1109326 0.23054041 0
4.5940003 2.1100738 0.23000106 0
4.6070004 2.1091685 0.22946171 0
4.6200004 2.108216 0.22892238 0
4.6340003 2.1077254 0.22834156 0
4.6470003 2.1066775 0.22780222 0
4.6610003 2.1060874 0.2272214 0
4.2190003 2.1583979 0.23867017 0
4.2190003 2.1515093 0.23867017 0
4.2179999 2.1440468 0.23871346 0
4.2179999 2.1371598 0.23871346 0
4.2220001 2.1325531 0.23854029 0
4.2330003 2.1319089 0.23806408 0
4.244 2.1312253 0.23758788 0
4.2550001 2.1305022 0.23711167 0
4.2660003 2.129739 0.23663548 0
4.2780004 2.1294975 0.23611598 0
4.289 2.1286533 0.23563977 0
4.3000002 2.1277692 0.23516355 0
4.3120003 2.1274011 0.23464407 0
4.323 2.1264362 0.23416787 0
4.335 2.1259837 0.23364837 0
4.3460002 2.1249373 0.23317216 0
4.3580003 2.1243997 0.23265266 0
4.3700004 2.1238189 0.23213317 0
4.382 2.1231949 0.23161368 0
4.3940001 2.1225276 0.23109418 0
4.4060001 2.1218166 0.23057468 0
4.4180002 2.1210628 0.23005517 0
4.4300003 2.1202655 0.22953568 0
4.4420004 2.1194251 0.22901617 0
4.4540005 2.1185412 0.22849669 0
4.4660001 2.1176138 0.2279772 0
4.4790001 2.1171734 0.22741441 0
4.4910002 2.116158 0.2268949 0
4.5040002 2.1156261 0.22633213 0
4.5170002 2.115047 0.22576934 0
4.5290003 2.113898 0.22524983 0
4.5420003 2.1132271 0.22468704 0
4.5550003 2.112509 0.22412427 0
4.5680003 2.1117442 0.22356147 0
4.5810003 2.1109326 0.22299868 0
4.5940003 2.1100738 0.22243589 0
4.6070004 2.1091685 0.2218731 0
4.6200004 2.108216 0.22131032 0
4.6340003 2.1077254 0.22070424 0
4.6470003 2.1066775 0.22014144 0
4.6610003 2.1060874 0.21953537 0
4.2190003 2.1583979 0.23178142 0
4.2190003 2.1515093 0.23178142 0
4.2179999 2.1440468 0.23182651 0
4.2179999 2.1371598 0.23182651 0
4.2220001 2.1325531 0.23164614 0
4.2330003 2.1319089 0.23115009 0
4.244 2.1312253 0.23065405 0
4.2550001 2.1305022 0.23015799 0
4.2660003 2.129739 0.22966196 0
4.2780004 2.1294975 0.22912081 0
4.289 2.1286533 0.22862476 0
4.3000002 2.1277692 0.22812872 0
4.3120003 2.1274011 0.22758757 0
4.323 2.1264362 0.22709152 0
4.335 2.1259837 0.22655037 0
4.3460002 2.1249373 0.22605434 0
4.3580003 2.1243997 0.22551319 0
4.3700004 2.1238189 0.22497204 0
4.382 2.1231949 0.2244309 0
4.3940001 2.1225276 0.22388975 0
4.4060001 2.1218166 0.22334863 0
4.4180002 2.1210628 0.22280748 0
4.4300003 2.1202655 0.22226633 0
4.4420004 2.1194251 0.22172518 0
4.4540005 2.1185412 0.22118405 0
4.4660001 2.1176138 0.22064291 0
4.4790001 2.1171734 0.22005668 0
4.4910002 2.116158 0.21951553 0
4.5040002 2.1156261 0.21892929 0
4.5170002 2.115047 0.21834305 0
4.5290003 2.113898 0.21780191 0
4.5420003 2.1132271 0.21721567 0
4.5550003 2.112509 0.21662943 0
4.5680003 2.1117442 0.2160432 0
