# .PCD v0.7 - Point Cloud Data file format
VERSION 0.7
FIELDS x y z intensity
SIZE 4 4 4 4
TYPE F F F F
COUNT 1 1 1 1
WIDTH 1460
HEIGHT 1
VIEWPOINT 0 0 0 1 0 0 0
POINTS 1460
DATA ascii
6.0420003 3.0173028 0.35311458 0
6.0470004 3.0098317 0.35306948 0
6.0510006 3.0018029 0.35303342 0
6.0550003 2.9937596 0.35299733 0
6.0600004 2.9862378 0.35295224 0
6.0640001 2.978164 0.35291618 0
6.0680003 2.9700756 0.35288009 0
6.0730004 2.9625032 0.352835 0
6.0770001 2.9543841 0.35279891 0
6.0810003 2.9462509 0.35276285 0
6.0860004 2.938628 0.35271776 0
6.0900002 2.9304638 0.35268167 0
6.0940003 2.9222853 0.35264561 0
6.0990005 2.9146123 0.35260049 0
6.1030002 2.9064028 0.35256442 0
6.1080003 2.8986952 0.35251933 0
6.1120005 2.8904557 0.35248324 0
6.1170006 2.8827138 0.35243815 0
6.1210003 2.8744431 0.35240209 0
6.1250005 2.8661582 0.352366 0
6.1300006 2.8583658 0.35232091 0
6.1340003 2.85005 0.35228482 0
6.1390004 2.8422234 0.35223973 0
6.1430006 2.8338776 0.35220367 0
6.1480002 2.8260162 0.35215858 0
6.1520004 2.8176394 0.35212249 0
6.1570005 2.8097444 0.35207739 0
6.1610003 2.8013365 0.3520413 0
6.1660004 2.793407 0.35199621 0
6.1700006 2.7849691 0.35196015 0
6.1750002 2.777005 0.35191506 0
6.1790004 2.7685361 0.35187897 0
6.1840005 2.7605381 0.35183388 0
6.1880002 2.7520385 0.35179782 0
6.1930003 2.7440062 0.3517527 0
6.1970005 2.735476 0.35171664 0
6.2020001 2.7274091 0.35167155 0
6.2060003 2.7188485 0.35163546 0
6.2110004 2.7107475 0.35159037 0
6.2160006 2.7026286 0.35154527 0
6.2200003 2.6940207 0.35150918 0
6.2250004 2.6858675 0.35146409 0
6.2290006 2.6772294 0.35142803 0
6.2340002 2.6690414 0.35138294 0
6.2390003 2.660836 0.35133782 0
6.2430005 2.6521509 0.35130176 0
6.2480001 2.6439109 0.35125667 0
6.2520003 2.635195 0.35122058 0
6.2570004 2.6269209 0.35117549 0
6.2620006 2.618629 0.3511304 0
6.2660003 2.6098659 0.35109431 0
6.2710004 2.6015396 0.35104921 0
6.2760005 2.5931952 0.35100412 0
5.9740005 3.1412535 0.34367347 0
5.9780002 3.1334789 0.34363016 0
5.9830003 3.1262581 0.34357604 0
5.9870005 3.1184533 0.34353274 0
5.9910002 3.1106336 0.34348947 0
5.9950004 3.1027999 0.34344617 0
5.9990005 3.0949516 0.34340289 0
6.0040002 3.0876477 0.34334877 0
6.0080004 3.0797687 0.34330547 0
6.0120006 3.0718753 0.34326217 0
6.0170002 3.0645211 0.34320807 0
6.0210004 3.0565972 0.34316477 0
6.0250006 3.0486586 0.34312147 0
6.0290003 3.0407054 0.3430782 0
6.0340004 3.0332847 0.34302408 0
6.0380006 3.0253012 0.3429808 0
6.0420003 3.0173028 0.3429375 0
6.0470004 3.0098317 0.34288338 0
6.0510006 3.0018029 0.34284008 0
6.0550003 2.9937596 0.3427968 0
6.0600004 2.9862378 0.34274268 0
6.0640001 2.978164 0.34269941 0
6.0680003 2.9700756 0.34265611 0
6.0730004 2.9625032 0.34260198 0
6.0770001 2.9543841 0.34255871 0
6.0810003 2.9462509 0.34251541 0
6.0860004 2.938628 0.34246129 0
6.0900002 2.9304638 0.34241802 0
6.0940003 2.9222853 0.34237471 0
6.0990005 2.9146123 0.34232059 0
6.1030002 2.9064028 0.34227729 0
6.1080003 2.8986952 0.3422232 0
6.1120005 2.8904557 0.34217989 0
6.1170006 2.8827138 0.34212577 0
6.1210003 2.8744431 0.3420825 0
6.1250005 2.8661582 0.3420392 0
6.1300006 2.8583658 0.34198508 0
6.1340003 2.85005 0.3419418 0
6.1390004 2.8422234 0.34188768 0
6.1430006 2.8338776 0.34184438 0
6.1480002 2.8260162 0.34179029 0
6.1520004 2.8176394 0.34174699 0
6.1570005 2.8097444 0.34169286 0
6.1610003 2.8013365 0.34164959 0
6.1660004 2.793407 0.34159547 0
6.1700006 2.7849691 0.34155217 0
6.1750002 2.777005 0.34149808 0
6.1790004 2.7685361 0.34145477 0
6.1840005 2.7605381 0.34140065 0
6.1880002 2.7520385 0.34135735 0
6.1930003 2.7440062 0.34130323 0
6.1970005 2.735476 0.34125996 0
6.2020001 2.7274091 0.34120584 0
6.2060003 2.7188485 0.34116256 0
6.2110004 2.7107475 0.34110844 0
6.2160006 2.7026286 0.34105432 0
6.2200003 2.6940207 0.34101105 0
6.2250004 2.6858675 0.34095693 0
6.2290006 2.6772294 0.34091362 0
6.2340002 2.6690414 0.3408595 0
6.2390003 2.660836 0.34080541 0
6.2430005 2.6521509 0.34076211 0
6.2480001 2.6439109 0.34070799 0
6.2520003 2.635195 0.34066468 0
6.2570004 2.6269209 0.34061059 0
6.2620006 2.618629 0.34055647 0
6.2660003 2.6098659 0.34051317 0
6.2710004 2.6015396 0.34045905 0
6.2760005 2.5931952 0.34040493 0
5.9740005 3.1412535 0.33361903 0
5.9780002 3.1334789 0.33356851 0
5.9830003 3.1262581 0.33350539 0
5.9870005 3.1184533 0.33345488 0
5.9910002 3.1106336 0.33340436 0
5.9950004 3.1027999 0.33335388 0
5.9990005 3.0949516 0.33330336 0
6.0040002 3.0876477 0.33324021 0
6.0080004 3.0797687 0.33318973 0
6.0120006 3.0718753 0.33313921 0
6.0170002 3.0645211 0.33307609 0
6.0210004 3.0565972 0.33302557 0
6.0250006 3.0486586 0.33297506 0
6.0290003 3.0407054 0.33292454 0
6.0340004 3.0332847 0.33286142 0
6.0380006 3.0253012 0.33281091 0
6.0420003 3.0173028 0.33276039 0
6.0470004 3.0098317 0.33269727 0
6.0510006 3.0018029 0.33264679 0
6.0550003 2.9937596 0.33259627 0
6.0600004 2.9862378 0.33253312 0
6.0640001 2.978164 0.33248264 0
6.0680003 2.9700756 0.33243212 0
6.0730004 2.9625032 0.33236897 0
6.0770001 2.9543841 0.33231848 0
6.0810003 2.9462509 0.33226797 0
6.0860004 2.938628 0.33220485 0
6.0900002 2.9304638 0.33215433 0
6.0940003 2.9222853 0.33210382 0
6.0990005 2.9146123 0.3320407 0
6.1030002 2.9064028 0.33199018 0
6.1080003 2.8986952 0.33192706 0
6.1120005 2.8904557 0.33187655 0
6.1170006 2.8827138 0.3318134 0
6.1210003 2.8744431 0.33176291 0
6.1250005 2.8661582 0.33171239 0
6.1300006 2.8583658 0.33164924 0
6.1340003 2.85005 0.33159876 0
6.1390004 2.8422234 0.33153564 0
6.1430006 2.8338776 0.33148512 0
6.1480002 2.8260162 0.33142197 0
6.1520004 2.8176394 0.33137149 0
6.1570005 2.8097444 0.33130834 0
6.1610003 2.8013365 0.33125785 0
6.1660004 2.793407 0.3311947 0
6.1700006 2.7849691 0.33114421 0
6.1750002 2.777005 0.33108106 0
6.1790004 2.7685361 0.33103055 0
6.1840005 2.7605381 0.33096743 0
6.1880002 2.7520385 0.33091694 0
6.1930003 2.7440062 0.33085379 0
6.1970005 2.735476 0.33080328 0
6.2020001 2.7274091 0.33074015 0
6.2060003 2.7188485 0.33068964 0
6.2110004 2.7107475 0.33062652 0
6.2160006 2.7026286 0.33056337 0
6.2200003 2.6940207 0.33051288 0
6.2250004 2.6858675 0.33044973 0
6.2290006 2.6772294 0.33039922 0
6.2340002 2.6690414 0.33033609 0
6.2390003 2.660836 0.33027297 0
6.2430005 2.6521509 0.33022246 0
6.2480001 2.6439109 0.33015931 0
6.2520003 2.635195 0.33010882 0
6.2570004 2.6269209 0.3300457 0
6.2620006 2.618629 0.32998255 0
6.2660003 2.6098659 0.32993203 0
6.2710004 2.6015396 0.32986891 0
6.2760005 2.5931952 0.32980576 0
5.9740005 3.1412535 0.32356459 0
5.9780002 3.1334789 0.32350689 0
5.9830003 3.1262581 0.32343471 0
5.9870005 3.1184533 0.32337701 0
5.9910002 3.1106336 0.32331929 0
5.9950004 3.1027999 0.32326156 0
5.9990005 3.0949516 0.32320383 0
6.0040002 3.0876477 0.32313168 0
6.0080004 3.0797687 0.32307395 0
6.0120006 3.0718753 0.32301623 0
6.0170002 3.0645211 0.3229441 0
6.0210004 3.0565972 0.32288635 0
6.0250006 3.0486586 0.32282865 0
6.0290003 3.0407054 0.32277092 0
6.0340004 3.0332847 0.32269877 0
6.0380006 3.0253012 0.32264104 0
6.0420003 3.0173028 0.32258332 0
6.0470004 3.0098317 0.32251117 0
6.0510006 3.0018029 0.32245344 0
6.0550003 2.9937596 0.32239574 0
6.0600004 2.9862378 0.32232356 0
6.0640001 2.978164 0.32226586 0
6.0680003 2.9700756 0.32220814 0
6.0730004 2.9625032 0.32213598 0
6.0770001 2.9543841 0.32207826 0
6.0810003 2.9462509 0.32202053 0
6.0860004 2.938628 0.32194838 0
6.0900002 2.9304638 0.32189065 0
6.0940003 2.9222853 0.32183295 0
6.0990005 2.9146123 0.32176077 0
6.1030002 2.9064028 0.32170308 0
6.1080003 2.8986952 0.32163092 0
6.1120005 2.8904557 0.3215732 0
6.1170006 2.8827138 0.32150105 0
6.1210003 2.8744431 0.32144332 0
6.1250005 2.8661582 0.32138559 0
6.1300006 2.8583658 0.32131344 0
6.1340003 2.85005 0.32125571 0
6.1390004 2.8422234 0.32118356 0
6.1430006 2.8338776 0.32112584 0
6.1480002 2.8260162 0.32105368 0
6.1520004 2.8176394 0.32099599 0
6.1570005 2.8097444 0.32092381 0
6.1610003 2.8013365 0.32086611 0
6.1660004 2.793407 0.32079396 0
6.1700006 2.7849691 0.32073623 0
6.1750002 2.777005 0.32066408 0
6.1790004 2.7685361 0.32060635 0
6.1840005 2.7605381 0.3205342 0
6.1880002 2.7520385 0.32047647 0
6.1930003 2.7440062 0.32040432 0
6.1970005 2.735476 0.32034659 0
6.2020001 2.7274091 0.32027447 0
6.2060003 2.7188485 0.32021672 0
6.2110004 2.7107475 0.32014459 0
6.2160006 2.7026286 0.32007241 0
6.2200003 2.6940207 0.32001472 0
6.2250004 2.6858675 0.31994253 0
6.2290006 2.6772294 0.31988484 0
6.2340002 2.6690414 0.31981269 0
6.2390003 2.660836 0.31974053 0
6.2430005 2.6521509 0.31968281 0
6.2480001 2.6439109 0.31961066 0
6.2520003 2.635195 0.31955293 0
6.2570004 2.6269209 0.31948078 0
6.2620006 2.618629 0.31940863 0
6.2660003 2.6098659 0.3193509 0
6.2710004 2.6015396 0.31927875 0
6.2760005 2.5931952 0.3192066 0
5.9740005 3.1412535 0.31351018 0
5.9780002 3.1334789 0.31344524 0
5.9830003 3.1262581 0.31336406 0
5.9870005 3.1184533 0.31329912 0
5.9910002 3.1106336 0.31323421 0
5.9950004 3.1027999 0.31316924 0
5.9990005 3.0949516 0.31310433 0
6.0040002 3.0876477 0.31302315 0
6.0080004 3.0797687 0.31295821 0
6.0120006 3.0718753 0.31289327 0
6.0170002 3.0645211 0.31281209 0
6.0210004 3.0565972 0.31274715 0
6.0250006 3.0486586 0.31268221 0
6.0290003 3.0407054 0.3126173 0
6.0340004 3.0332847 0.31253612 0
6.0380006 3.0253012 0.31247118 0
6.0420003 3.0173028 0.31240624 0
6.0470004 3.0098317 0.31232506 0
6.0510006 3.0018029 0.31226012 0
6.0550003 2.9937596 0.31219518 0
6.0600004 2.9862378 0.31211403 0
6.0640001 2.978164 0.31204909 0
6.0680003 2.9700756 0.31198415 0
6.0730004 2.9625032 0.31190297 0
6.0770001 2.9543841 0.31183803 0
6.0810003 2.9462509 0.31177312 0
6.0860004 2.938628 0.31169194 0
6.0900002 2.9304638 0.311627 0
6.0940003 2.9222853 0.31156206 0
6.0990005 2.9146123 0.31148088 0
6.1030002 2.9064028 0.31141597 0
6.1080003 2.8986952 0.31133479 0
6.1120005 2.8904557 0.31126982 0
6.1170006 2.8827138 0.31118867 0
6.1210003 2.8744431 0.31112373 0
6.1250005 2.8661582 0.31105879 0
6.1300006 2.8583658 0.31097764 0
6.1340003 2.85005 0.31091267 0
6.1390004 2.8422234 0.31083152 0
6.1430006 2.8338776 0.31076658 0
6.1480002 2.8260162 0.3106854 0
6.1520004 2.8176394 0.31062049 0
6.1570005 2.8097444 0.31053931 0
6.1610003 2.8013365 0.31047437 0
6.1660004 2.793407 0.31039318 0
6.1700006 2.7849691 0.31032825 0
6.1750002 2.777005 0.31024706 0
6.1790004 2.7685361 0.31018215 0
6.1840005 2.7605381 0.31010097 0
6.1880002 2.7520385 0.31003603 0
6.1930003 2.7440062 0.30995488 0
6.1970005 2.735476 0.30988991 0
6.2020001 2.7274091 0.30980876 0
6.2060003 2.7188485 0.30974382 0
6.2110004 2.7107475 0.30966264 0
6.2160006 2.7026286 0.30958146 0
6.2200003 2.6940207 0.30951655 0
6.2250004 2.6858675 0.30943537 0
6.2290006 2.6772294 0.30937043 0
6.2340002 2.6690414 0.30928928 0
6.2390003 2.660836 0.3092081 0
6.2430005 2.6521509 0.30914316 0
6.2480001 2.6439109 0.30906197 0
6.2520003 2.635195 0.30899704 0
6.2570004 2.6269209 0.30891585 0
6.2620006 2.618629 0.3088347 0
6.2660003 2.6098659 0.30876976 0
6.2710004 2.6015396 0.30868858 0
6.2760005 2.5931952 0.30860743 0
5.9740005 3.1412535 0.30345574 0
5.9780002 3.1334789 0.30338359 0
5.9830003 3.1262581 0.30329341 0
5.9870005 3.1184533 0.30322126 0
5.9910002 3.1106336 0.3031491 0
5.9950004 3.1027999 0.30307692 0
5.9990005 3.0949516 0.3030048 0
6.0040002 3.0876477 0.30291462 0
6.0080004 3.0797687 0.30284244 0
6.0120006 3.0718753 0.30277029 0
6.0170002 3.0645211 0.3026801 0
6.0210004 3.0565972 0.30260795 0
6.0250006 3.0486586 0.3025358 0
6.0290003 3.0407054 0.30246365 0
6.0340004 3.0332847 0.30237347 0
6.0380006 3.0253012 0.30230129 0
6.0420003 3.0173028 0.30222917 0
6.0470004 3.0098317 0.30213898 0
6.0510006 3.0018029 0.3020668 0
6.0550003 2.9937596 0.30199465 0
6.0600004 2.9862378 0.30190447 0
6.0640001 2.978164 0.30183232 0
6.0680003 2.9700756 0.30176017 0
6.0730004 2.9625032 0.30166996 0
6.0770001 2.9543841 0.30159783 0
6.0810003 2.9462509 0.30152565 0
6.0860004 2.938628 0.30143547 0
6.0900002 2.9304638 0.30136332 0
6.0940003 2.9222853 0.30129117 0
6.0990005 2.9146123 0.30120099 0
6.1030002 2.9064028 0.30112883 0
6.1080003 2.8986952 0.30103865 0
6.1120005 2.8904557 0.3009665 0
6.1170006 2.8827138 0.30087629 0
6.1210003 2.8744431 0.30080414 0
6.1250005 2.8661582 0.30073199 0
6.1300006 2.8583658 0.3006418 0
6.1340003 2.85005 0.30056965 0
6.1390004 2.8422234 0.30047947 0
6.1430006 2.8338776 0.30040729 0
6.1480002 2.8260162 0.30031711 0
6.1520004 2.8176394 0.30024496 0
6.1570005 2.8097444 0.30015478 0
6.1610003 2.8013365 0.30008262 0
6.1660004 2.793407 0.29999244 0
6.1700006 2.7849691 0.29992026 0
6.1750002 2.777005 0.29983008 0
6.1790004 2.7685361 0.29975796 0
6.1840005 2.7605381 0.29966775 0
6.1880002 2.7520385 0.29959559 0
6.1930003 2.7440062 0.29950541 0
6.1970005 2.735476 0.29943323 0
6.2020001 2.7274091 0.29934305 0
6.2060003 2.7188485 0.29927093 0
6.2110004 2.7107475 0.29918072 0
6.2160006 2.7026286 0.29909053 0
6.2200003 2.6940207 0.29901838 0
6.2250004 2.6858675 0.2989282 0
6.2290006 2.6772294 0.29885602 0
6.2340002 2.6690414 0.29876584 0
6.2390003 2.660836 0.29867566 0
6.2430005 2.6521509 0.2986035 0
6.2480001 2.6439109 0.29851332 0
6.2520003 2.635195 0.29844117 0
6.2570004 2.6269209 0.29835096 0
6.2620006 2.618629 0.29826078 0
6.2660003 2.6098659 0.29818863 0
6.2710004 2.6015396 0.29809844 0
6.2760005 2.5931952 0.29800823 0
5.9740005 3.1412535 0.2934013 0
5.9780002 3.1334789 0.29332197 0
5.9830003 3.1262581 0.29322273 0
5.9870005 3.1184533 0.29314336 0
5.9910002 3.1106336 0.293064 0
5.9950004 3.1027999 0.29298463 0
5.9990005 3.0949516 0.29290527 0
6.0040002 3.0876477 0.29280606 0
6.0080004 3.0797687 0.2927267 0
6.0120006 3.0718753 0.2926473 0
6.0170002 3.0645211 0.29254812 0
6.0210004 3.0565972 0.29246876 0
6.0250006 3.0486586 0.29238939 0
6.0290003 3.0407054 0.29231 0
6.0340004 3.0332847 0.29221082 0
6.0380006 3.0253012 0.29213142 0
6.0420003 3.0173028 0.29205206 0
6.0470004 3.0098317 0.29195285 0
6.0510006 3.0018029 0.29187348 0
6.0550003 2.9937596 0.29179412 0
6.0600004 2.9862378 0.29169491 0
6.0640001 2.978164 0.29161555 0
6.0680003 2.9700756 0.29153618 0
6.0730004 2.9625032 0.29143697 0
6.0770001 2.9543841 0.29135761 0
6.0810003 2.9462509 0.29127824 0
6.0860004 2.938628 0.29117903 0
6.0900002 2.9304638 0.29109967 0
6.0940003 2.9222853 0.29102027 0
6.0990005 2.9146123 0.29092109 0
6.1030002 2.9064028 0.2908417 0
6.1080003 2.8986952 0.29074252 0
6.1120005 2.8904557 0.29066312 0
6.1160002 2.8822012 0.29058379 0
6.1210003 2.8744431 0.29048455 0
6.1250005 2.8661582 0.29040518 0
6.1300006 2.8583658 0.29030597 0
6.1340003 2.85005 0.29022661 0
6.1390004 2.8422234 0.2901274 0
6.1430006 2.8338776 0.29004803 0
6.1480002 2.8260162 0.28994882 0
6.1520004 2.8176394 0.28986946 0
6.1570005 2.8097444 0.28977025 0
6.1610003 2.8013365 0.28969088 0
6.1660004 2.793407 0.28959167 0
6.1700006 2.7849691 0.28951231 0
6.1750002 2.777005 0.28941309 0
6.1790004 2.7685361 0.28933373 0
6.1840005 2.7605381 0.28923452 0
6.1880002 2.7520385 0.28915516 0
6.1930003 2.7440062 0.28905594 0
6.1970005 2.735476 0.28897658 0
6.2020001 2.7274091 0.28887737 0
6.2060003 2.7188485 0.288798 0
6.2110004 2.7107475 0.28869879 0
6.2160006 2.7026286 0.28859958 0
6.2200003 2.6940207 0.28852022 0
6.2250004 2.6858675 0.28842101 0
6.2290006 2.6772294 0.28834164 0
6.2340002 2.6690414 0.28824243 0
6.2390003 2.660836 0.28814322 0
6.2430005 2.6521509 0.28806385 0
6.2480001 2.6439109 0.28796464 0
6.2520003 2.635195 0.28788528 0
6.2570004 2.6269209 0.28778607 0
6.2620006 2.618629 0.28768685 0
6.2660003 2.6098659 0.28760749 0
6.2710004 2.6015396 0.28750828 0
6.2760005 2.5931952 0.28740907 0
5.9740005 3.1412535 0.28334689 0
5.9780002 3.1334789 0.28326029 0
5.9830003 3.1262581 0.28315207 0
5.9870005 3.1184533 0.2830655 0
5.9910002 3.1106336 0.28297892 0
5.9950004 3.1027999 0.28289235 0
5.9990005 3.0949516 0.28280574 0
6.0040002 3.0876477 0.28269753 0
6.0080004 3.0797687 0.28261092 0
6.0120006 3.0718753 0.28252435 0
6.0170002 3.0645211 0.28241614 0
6.0210004 3.0565972 0.28232953 0
6.0250006 3.0486586 0.28224295 0
6.0290003 3.0407054 0.28215638 0
6.0340004 3.0332847 0.28204817 0
6.0380006 3.0253012 0.28196156 0
6.0420003 3.0173028 0.28187498 0
6.0470004 3.0098317 0.28176674 0
6.0510006 3.0018029 0.28168017 0
6.0550003 2.9937596 0.28159359 0
6.0600004 2.9862378 0.28148535 0
6.0640001 2.978164 0.28139877 0
6.0680003 2.9700756 0.2813122 0
6.0730004 2.9625032 0.28120396 0
6.0770001 2.9543841 0.28111738 0
6.0810003 2.9462509 0.2810308 0
6.0860004 2.938628 0.28092256 0
6.0900002 2.9304638 0.28083599 0
6.0940003 2.9222853 0.28074941 0
6.0990005 2.9146123 0.2806412 0
6.1030002 2.9064028 0.28055459 0
6.1080003 2.8986952 0.28044635 0
6.1120005 2.8904557 0.28035977 0
6.1160002 2.8822012 0.2802732 0
6.1210003 2.8744431 0.28016499 0
6.1250005 2.8661582 0.28007838 0
6.1300006 2.8583658 0.27997014 0
6.1340003 2.85005 0.27988359 0
6.1390004 2.8422234 0.27977535 0
6.1430006 2.8338776 0.27968878 0
6.1480002 2.8260162 0.27958053 0
6.1520004 2.8176394 0.27949396 0
6.1570005 2.8097444 0.27938572 0
6.1610003 2.8013365 0.27929914 0
6.1660004 2.793407 0.27919093 0
6.1700006 2.7849691 0.27910432 0
6.1750002 2.777005 0.27899611 0
6.1790004 2.7685361 0.2789095 0
6.1840005 2.7605381 0.27880129 0
6.1880002 2.7520385 0.27871472 0
6.1930003 2.7440062 0.27860647 0
6.1970005 2.735476 0.2785199 0
6.2020001 2.7274091 0.27841169 0
6.2060003 2.7188485 0.27832508 0
6.2110004 2.7107475 0.27821684 0
6.2160006 2.7026286 0.27810863 0
6.2200003 2.6940207 0.27802205 0
6.2250004 2.6858675 0.27791381 0
6.2290006 2.6772294 0.27782723 0
6.2340002 2.6690414 0.27771902 0
6.2390003 2.660836 0.27761078 0
6.2430005 2.6521509 0.27752417 0
6.2480001 2.6439109 0.27741599 0
6.2520003 2.635195 0.27732939 0
6.2570004 2.6269209 0.27722114 0
6.2620006 2.618629 0.2771129 0
6.2660003 2.6098659 0.27702636 0
6.2710004 2.6015396 0.27691811 0
6.2760005 2.5931952 0.27680987 0
5.9740005 3.1412535 0.27329245 0
5.9780002 3.1334789 0.27319866 0
5.9830003 3.1262581 0.27308142 0
5.9870005 3.1184533 0.2729876 0
5.9910002 3.1106336 0.27289385 0
5.9950004 3.1027999 0.27280003 0
5.9990005 3.0949516 0.27270621 0
6.0040002 3.0876477 0.27258897 0
6.0080004 3.0797687 0.27249515 0
6.0120006 3.0718753 0.27240139 0
6.0170002 3.0645211 0.27228415 0
6.0210004 3.0565972 0.27219033 0
6.0250006 3.0486586 0.27209651 0
6.0290003 3.0407054 0.27200276 0
6.0340004 3.0332847 0.27188548 0
6.0380006 3.0253012 0.2717917 0
6.0420003 3.0173028 0.27169788 0
6.0470004 3.0098317 0.27158064 0
6.0510006 3.0018029 0.27148685 0
6.0550003 2.9937596 0.27139306 0
6.0600004 2.9862378 0.27127582 0
6.0640001 2.978164 0.271182 0
6.0680003 2.9700756 0.27108818 0
6.0730004 2.9625032 0.27097094 0
6.0770001 2.9543841 0.27087718 0
6.0810003 2.9462509 0.27078336 0
6.0860004 2.938628 0.27066612 0
6.0900002 2.9304638 0.2705723 0
6.0940003 2.9222853 0.27047852 0
6.0990005 2.9146123 0.27036127 0
6.1030002 2.9064028 0.27026749 0
6.1080003 2.8986952 0.27015024 0
6.1120005 2.8904557 0.27005643 0
6.1160002 2.8822012 0.26996264 0
6.1210003 2.8744431 0.26984537 0
6.1250005 2.8661582 0.26975161 0
6.1300006 2.8583658 0.26963434 0
6.1340003 2.85005 0.26954055 0
6.1390004 2.8422234 0.26942331 0
6.1430006 2.8338776 0.26932949 0
6.1480002 2.8260162 0.26921225 0
6.1520004 2.8176394 0.26911846 0
6.1570005 2.8097444 0.26900119 0
6.1610003 2.8013365 0.2689074 0
6.1660004 2.793407 0.26879016 0
6.1700006 2.7849691 0.26869637 0
6.1750002 2.777005 0.26857913 0
6.1790004 2.7685361 0.26848531 0
6.1840005 2.7605381 0.26836807 0
6.1880002 2.7520385 0.26827425 0
6.1930003 2.7440062 0.26815701 0
6.1970005 2.735476 0.26806322 0
6.2020001 2.7274091 0.26794598 0
6.2060003 2.7188485 0.26785219 0
6.2110004 2.7107475 0.26773494 0
6.2160006 2.7026286 0.26761767 0
6.2200003 2.6940207 0.26752388 0
6.2250004 2.6858675 0.26740664 0
6.2290006 2.6772294 0.26731282 0
6.2340002 2.6690414 0.26719558 0
6.2390003 2.660836 0.26707834 0
6.2430005 2.6521509 0.26698452 0
6.2480001 2.6439109 0.26686728 0
6.2520003 2.635195 0.26677349 0
6.2570004 2.6269209 0.26665625 0
6.2620006 2.618629 0.26653898 0
6.2660003 2.6098659 0.26644522 0
6.2710004 2.6015396 0.26632795 0
6.2760005 2.5931952 0.26621071 0
5.9740005 3.1412535 0.26323804 0
5.9780002 3.1334789 0.26313704 0
5.9830003 3.1262581 0.26301074 0
5.9870005 3.1184533 0.26290974 0
5.9910002 3.1106336 0.26280874 0
5.9950004 3.1027999 0.26270771 0
5.9990005 3.0949516 0.26260668 0
6.0040002 3.0876477 0.26248044 0
6.0080004 3.0797687 0.26237941 0
6.0120006 3.0718753 0.26227841 0
6.0170002 3.0645211 0.26215214 0
6.0210004 3.0565972 0.26205114 0
6.0250006 3.0486586 0.26195011 0
6.0290003 3.0407054 0.26184911 0
6.0340004 3.0332847 0.26172283 0
6.0380006 3.0253012 0.26162183 0
6.0420003 3.0173028 0.2615208 0
6.0470004 3.0098317 0.26139456 0
6.0510006 3.0018029 0.26129353 0
6.0550003 2.9937596 0.2611925 0
6.0600004 2.9862378 0.26106626 0
6.0640001 2.978164 0.26096523 0
6.0680003 2.9700756 0.26086423 0
6.0730004 2.9625032 0.26073796 0
6.0770001 2.9543841 0.26063696 0
6.0810003 2.9462509 0.26053593 0
6.0860004 2.938628 0.26040965 0
6.0900002 2.9304638 0.26030865 0
6.0940003 2.9222853 0.26020765 0
6.0990005 2.9146123 0.26008135 0
6.1030002 2.9064028 0.25998038 0
6.1080003 2.8986952 0.25985408 0
6.1120005 2.8904557 0.25975308 0
6.1160002 2.8822012 0.25965208 0
6.1210003 2.8744431 0.25952581 0
6.1250005 2.8661582 0.25942478 0
6.1300006 2.8583658 0.2592985 0
6.1340003 2.85005 0.2591975 0
6.1390004 2.8422234 0.25907123 0
6.1430006 2.8338776 0.2589702 0
6.1480002 2.8260162 0.25884396 0
6.1520004 2.8176394 0.25874293 0
6.1570005 2.8097444 0.25861669 0
6.1610003 2.8013365 0.25851566 0
6.1660004 2.793407 0.25838941 0
6.1700006 2.7849691 0.25828838 0
6.1750002 2.777005 0.25816214 0
6.1790004 2.7685361 0.25806111 0
6.1840005 2.7605381 0.25793484 0
6.1880002 2.7520385 0.25783384 0
6.1930003 2.7440062 0.25770754 0
6.1970005 2.735476 0.25760657 0
6.2020001 2.7274091 0.25748029 0
6.2060003 2.7188485 0.25737926 0
6.2110004 2.7107475 0.25725299 0
6.2160006 2.7026286 0.25712675 0
6.2200003 2.6940207 0.25702572 0
6.2250004 2.6858675 0.25689948 0
6.2290006 2.6772294 0.25679845 0
6.2340002 2.6690414 0.25667217 0
6.2390003 2.660836 0.2565459 0
6.2430005 2.6521509 0.2564449 0
6.2480001 2.6439109 0.25631863 0
6.2520003 2.635195 0.2562176 0
6.2570004 2.6269209 0.25609136 0
6.2620006 2.618629 0.25596505 0
6.2660003 2.6098659 0.25586408 0
6.2710004 2.6015396 0.25573781 0
6.2760005 2.5931952 0.25561154 0
5.9740005 3.1412535 0.2531836 0
5.9780002 3.1334789 0.25307539 0
5.9830003 3.1262581 0.25294009 0
5.9870005 3.1184533 0.25283188 0
5.9910002 3.1106336 0.25272363 0
5.9950004 3.1027999 0.25261539 0
5.9990005 3.0949516 0.25250715 0
6.0040002 3.0876477 0.25237191 0
6.0080004 3.0797687 0.25226367 0
6.0120006 3.0718753 0.25215542 0
6.0170002 3.0645211 0.25202015 0
6.0210004 3.0565972 0.25191194 0
6.0250006 3.0486586 0.2518037 0
6.0290003 3.0407054 0.25169545 0
6.0340004 3.0332847 0.25156018 0
6.0380006 3.0253012 0.25145194 0
6.0420003 3.0173028 0.25134373 0
6.0470004 3.0098317 0.25120842 0
6.0510006 3.0018029 0.25110018 0
6.0550003 2.9937596 0.250992 0
6.0600004 2.9862378 0.2508567 0
6.0640001 2.978164 0.25074846 0
6.0680003 2.9700756 0.25064024 0
6.0730004 2.9625032 0.25050497 0
6.0770001 2.9543841 0.25039673 0
6.0810003 2.9462509 0.25028849 0
6.0860004 2.938628 0.25015318 0
6.0900002 2.9304638 0.250045 0
6.0940003 2.9222853 0.24993676 0
6.0990005 2.9146123 0.24980146 0
6.1030002 2.9064028 0.24969324 0
6.1080003 2.8986952 0.24955796 0
6.1120005 2.8904557 0.24944972 0
6.1160002 2.8822012 0.2493415 0
6.1210003 2.8744431 0.24920622 0
6.1250005 2.8661582 0.24909797 0
6.1300006 2.8583658 0.2489627 0
6.1340003 2.85005 0.24885447 0
6.1390004 2.8422234 0.24871917 0
6.1430006 2.8338776 0.24861096 0
6.1480002 2.8260162 0.24847567 0
6.1520004 2.8176394 0.24836743 0
6.1570005 2.8097444 0.24823216 0
6.1610003 2.8013365 0.24812393 0
6.1660004 2.793407 0.24798864 0
6.1700006 2.7849691 0.24788041 0
6.1750002 2.777005 0.24774513 0
6.1790004 2.7685361 0.2476369 0
6.1840005 2.7605381 0.2475016 0
6.1880002 2.7520385 0.24739338 0
6.1930003 2.7440062 0.2472581 0
6.1970005 2.735476 0.24714985 0
6.2020001 2.7274091 0.2470146 0
6.2060003 2.7188485 0.24690636 0
6.2110004 2.7107475 0.24677107 0
6.2160006 2.7026286 0.24663578 0
6.2200003 2.6940207 0.24652755 0
6.2250004 2.6858675 0.24639226 0
6.2290006 2.6772294 0.24628404 0
6.2340002 2.6690414 0.24614877 0
6.2390003 2.660836 0.24601346 0
6.2430005 2.6521509 0.24590524 0
6.2480001 2.6439109 0.24576996 0
6.2520003 2.635195 0.24566172 0
6.2570004 2.6269209 0.24552645 0
6.2620006 2.618629 0.24539115 0
6.2660003 2.6098659 0.24528292 0
6.2710004 2.6015396 0.24514765 0
6.2760005 2.5931952 0.24501236 0
5.9740005 3.1412535 0.24312918 0
5.9780002 3.1334789 0.24301374 0
5.9830003 3.1262581 0.24286944 0
5.9870005 3.1184533 0.24275398 0
5.9910002 3.1106336 0.24263854 0
5.9950004 3.1027999 0.2425231 0
5.9990005 3.0949516 0.24240765 0
6.0040002 3.0876477 0.24226336 0
6.0080004 3.0797687 0.24214791 0
6.0120006 3.0718753 0.24203245 0
6.0170002 3.0645211 0.24188817 0
6.0210004 3.0565972 0.24177271 0
6.0250006 3.0486586 0.24165727 0
6.0290003 3.0407054 0.24154183 0
6.0340004 3.0332847 0.24139753 0
6.0380006 3.0253012 0.24128208 0
6.0420003 3.0173028 0.24116664 0
6.0470004 3.0098317 0.24102233 0
6.0510006 3.0018029 0.24090688 0
6.0550003 2.9937596 0.24079144 0
6.0600004 2.9862378 0.24064714 0
6.0640001 2.978164 0.2405317 0
6.0680003 2.9700756 0.24041626 0
6.0730004 2.9625032 0.24027194 0
6.0770001 2.9543841 0.24015652 0
6.0810003 2.9462509 0.24004106 0
6.0860004 2.938628 0.23989676 0
6.0900002 2.9304638 0.23978132 0
6.0940003 2.9222853 0.23966587 0
6.0990005 2.9146123 0.23952156 0
6.1030002 2.9064028 0.23940612 0
6.1080003 2.8986952 0.23926182 0
6.1120005 2.8904557 0.23914637 0
6.1160002 2.8822012 0.23903093 0
6.1210003 2.8744431 0.23888662 0
6.1250005 2.8661582 0.23877117 0
6.1300006 2.8583658 0.23862687 0
6.1340003 2.85005 0.23851143 0
6.1390004 2.8422234 0.23836713 0
6.1430006 2.8338776 0.23825167 0
6.1480002 2.8260162 0.23810738 0
6.1520004 2.8176394 0.23799193 0
6.1570005 2.8097444 0.23784763 0
6.1610003 2.8013365 0.23773219 0
6.1660004 2.793407 0.23758788 0
6.1700006 2.7849691 0.23747243 0
6.1750002 2.777005 0.23732814 0
6.1790004 2.7685361 0.23721269 0
6.1840005 2.7605381 0.23706838 0
6.1880002 2.7520385 0.23695295 0
6.1930003 2.7440062 0.23680864 0
6.1970005 2.735476 0.23669319 0
6.2020001 2.7274091 0.2365489 0
6.2060003 2.7188485 0.23643345 0
6.2110004 2.7107475 0.23628914 0
6.2160006 2.7026286 0.23614483 0
6.2200003 2.6940207 0.2360294 0
6.2250004 2.6858675 0.23588508 0
6.2290006 2.6772294 0.23576964 0
6.2340002 2.6690414 0.23562534 0
6.2390003 2.660836 0.23548104 0
6.2430005 2.6521509 0.23536558 0
6.2480001 2.6439109 0.2352213 0
6.2520003 2.635195 0.23510584 0
6.2570004 2.6269209 0.23496154 0
6.2620006 2.618629 0.23481722 0
6.2660003 2.6098659 0.2347018 0
6.2710004 2.6015396 0.23455748 0
6.2760005 2.5931952 0.23441318 0
5.9740005 3.1412535 0.23307475 0
5.9780002 3.1334789 0.23295209 0
5.9830003 3.1262581 0.23279877 0
5.9870005 3.1184533 0.23267612 0
5.9910002 3.1106336 0.23255345 0
5.9950004 3.1027999 0.23243079 0
5.9990005 3.0949516 0.23230813 0
6.0040002 3.0876477 0.23215482 0
6.0080004 3.0797687 0.23203215 0
6.0120006 3.0718753 0.23190948 0
6.0170002 3.0645211 0.23175618 0
6.0210004 3.0565972 0.2316335 0
6.0250006 3.0486586 0.23151085 0
6.0290003 3.0407054 0.2313882 0
6.0340004 3.0332847 0.23123486 0
6.0380006 3.0253012 0.2311122 0
6.0420003 3.0173028 0.23098956 0
6.0470004 3.0098317 0.23083623 0
6.0510006 3.0018029 0.23071356 0
6.0550003 2.9937596 0.23059091 0
6.0600004 2.9862378 0.23043758 0
6.0640001 2.978164 0.23031493 0
6.0680003 2.9700756 0.23019227 0
6.0730004 2.9625032 0.23003894 0
6.0770001 2.9543841 0.22991629 0
6.0810003 2.9462509 0.22979362 0
6.0860004 2.938628 0.22964031 0
6.0900002 2.9304638 0.22951764 0
6.0940003 2.9222853 0.22939499 0
6.0990005 2.9146123 0.22924167 0
6.1030002 2.9064028 0.229119 0
6.1080003 2.8986952 0.22896568 0
6.1120005 2.8904557 0.22884302 0
6.1160002 2.8822012 0.22872037 0
6.1210003 2.8744431 0.22856703 0
6.1250005 2.8661582 0.22844438 0
6.1300006 2.8583658 0.22829103 0
6.1340003 2.85005 0.2281684 0
6.1390004 2.8422234 0.22801508 0
6.1430006 2.8338776 0.2278924 0
6.1480002 2.8260162 0.2277391 0
6.1520004 2.8176394 0.22761643 0
6.1570005 2.8097444 0.2274631 0
6.1610003 2.8013365 0.22734044 0
6.1660004 2.793407 0.22718713 0
6.1700006 2.7849691 0.22706445 0
6.1750002 2.777005 0.22691114 0
6.1790004 2.7685361 0.22678848 0
6.1840005 2.7605381 0.22663516 0
6.1880002 2.7520385 0.22651251 0
6.1930003 2.7440062 0.22635917 0
6.1970005 2.735476 0.22623652 0
6.2020001 2.7274091 0.22608319 0
6.2060003 2.7188485 0.22596054 0
6.2110004 2.7107475 0.22580722 0
6.2160006 2.7026286 0.22565387 0
6.2200003 2.6940207 0.22553124 0
6.2250004 2.6858675 0.2253779 0
6.2290006 2.6772294 0.22525524 0
6.2340002 2.6690414 0.22510193 0
6.2390003 2.660836 0.2249486 0
6.2430005 2.6521509 0.22482593 0
6.2480001 2.6439109 0.22467262 0
6.2520003 2.635195 0.22454996 0
6.2570004 2.6269209 0.22439663 0
6.2620006 2.618629 0.2242433 0
6.2660003 2.6098659 0.22412066 0
6.2710004 2.6015396 0.22396733 0
6.2760005 2.5931952 0.223814 0
5.9740005 3.1412535 0.22302032 0
5.9780002 3.1334789 0.22289047 0
5.9830003 3.1262581 0.22272812 0
5.9870005 3.1184533 0.22259822 0
5.9910002 3.1106336 0.22246838 0
5.9950004 3.1027999 0.22233848 0
5.9990005 3.0949516 0.22220862 0
6.0040002 3.0876477 0.22204627 0
6.0080004 3.0797687 0.22191639 0
6.0120006 3.0718753 0.22178651 0
6.0170002 3.0645211 0.22162418 0
6.0210004 3.0565972 0.2214943 0
6.0250006 3.0486586 0.22136442 0
6.0290003 3.0407054 0.22123456 0
6.0340004 3.0332847 0.22107221 0
6.0380006 3.0253012 0.22094233 0
6.0420003 3.0173028 0.22081247 0
6.0470004 3.0098317 0.22065012 0
6.0510006 3.0018029 0.22052024 0
6.0550003 2.9937596 0.22039038 0
6.0600004 2.9862378 0.22022803 0
6.0640001 2.978164 0.22009815 0
6.0680003 2.9700756 0.21996829 0
6.0730004 2.9625032 0.21980594 0
6.0770001 2.9543841 0.21967606 0
6.0810003 2.9462509 0.2195462 0
6.0860004 2.938628 0.21938385 0
6.0900002 2.9304638 0.21925399 0
6.0940003 2.9222853 0.21912411 0
6.0990005 2.9146123 0.21896175 0
6.1030002 2.9064028 0.2188319 0
6.1080003 2.8986952 0.21866955 0
6.1120005 2.8904557 0.21853966 0
6.1160002 2.8822012 0.21840981 0
6.1210003 2.8744431 0.21824744 0
6.1250005 2.8661582 0.21811758 0
6.1300006 2.8583658 0.21795523 0
6.1340003 2.85005 0.21782535 0
6.1390004 2.8422234 0.21766302 0
6.1430006 2.8338776 0.21753314 0
6.1480002 2.8260162 0.21737079 0
6.1520004 2.8176394 0.21724093 0
6.1570005 2.8097444 0.21707858 0
6.1610003 2.8013365 0.2169487 0
6.1660004 2.793407 0.21678637 0
6.1700006 2.7849691 0.21665649 0
6.1750002 2.777005 0.21649414 0
6.1790004 2.7685361 0.21636428 0
6.1840005 2.7605381 0.21620193 0
6.1880002 2.7520385 0.21607205 0
6.1930003 2.7440062 0.21590972 0
6.1970005 2.735476 0.21577984 0
6.2020001 2.7274091 0.21561749 0
6.2060003 2.7188485 0.21548763 0
6.2110004 2.7107475 0.21532528 0
6.2160006 2.7026286 0.21516293 0
6.2200003 2.6940207 0.21503307 0
6.2250004 2.6858675 0.21487072 0
6.2290006 2.6772294 0.21474083 0
6.2340002 2.6690414 0.21457851 0
6.2390003 2.660836 0.21441616 0
6.2430005 2.6521509 0.21428628 0
6.2480001 2.6439109 0.21412395 0
6.2520003 2.635195 0.21399407 0
6.2570004 2.6269209 0.21383172 0
6.2620006 2.618629 0.21366937 0
6.2660003 2.6098659 0.21353951 0
6.2710004 2.6015396 0.21337716 0
6.2760005 2.5931952 0.21321483 0
5.9740005 3.1412535 0.21296589 0
5.9780002 3.1334789 0.21282881 0
5.9830003 3.1262581 0.21265745 0
5.9870005 3.1184533 0.21252036 0
5.9910002 3.1106336 0.21238327 0
5.9950004 3.1027999 0.21224618 0
5.9990005 3.0949516 0.21210907 0
6.0040002 3.0876477 0.21193774 0
6.0080004 3.0797687 0.21180065 0
6.0120006 3.0718753 0.21166354 0
6.0170002 3.0645211 0.2114922 0
6.0210004 3.0565972 0.21135511 0
6.0250006 3.0486586 0.211218 0
6.0290003 3.0407054 0.21108092 0
6.0340004 3.0332847 0.21090956 0
6.0380006 3.0253012 0.21077245 0
6.0420003 3.0173028 0.21063538 0
6.0470004 3.0098317 0.21046402 0
6.0510006 3.0018029 0.21032691 0
6.0550003 2.9937596 0.21018983 0
6.0600004 2.9862378 0.21001847 0
6.0640001 2.978164 0.2098814 0
6.0680003 2.9700756 0.2097443 0
6.0730004 2.9625032 0.20957294 0
6.0770001 2.9543841 0.20943585 0
6.0810003 2.9462509 0.20929876 0
6.0860004 2.938628 0.2091274 0
6.0900002 2.9304638 0.20899032 0
6.0940003 2.9222853 0.20885321 0
6.0990005 2.9146123 0.20868185 0
6.1030002 2.9064028 0.20854478 0
6.1080003 2.8986952 0.20837341 0
6.1120005 2.8904557 0.20823631 0
6.1160002 2.8822012 0.20809923 0
6.1210003 2.8744431 0.20792787 0
6.1250005 2.8661582 0.20779076 0
6.1300006 2.8583658 0.2076194 0
6.1340003 2.85005 0.20748232 0
6.1390004 2.8422234 0.20731096 0
6.1430006 2.8338776 0.20717385 0
6.1480002 2.8260162 0.20700251 0
6.1520004 2.8176394 0.20686541 0
6.1570005 2.8097444 0.20669405 0
6.1610003 2.8013365 0.20655698 0
6.1660004 2.793407 0.2063856 0
6.1700006 2.7849691 0.20624852 0
6.1750002 2.777005 0.20607717 0
6.1790004 2.7685361 0.20594007 0
6.1840005 2.7605381 0.20576869 0
6.1880002 2.7520385 0.20563163 0
6.1930003 2.7440062 0.20546027 0
6.1970005 2.735476 0.20532316 0
6.2020001 2.7274091 0.20515181 0
6.2060003 2.7188485 0.20501472 0
6.2110004 2.7107475 0.20484336 0
6.2160006 2.7026286 0.20467199 0
6.2200003 2.6940207 0.2045349 0
6.2250004 2.6858675 0.20436354 0
6.2290006 2.6772294 0.20422645 0
6.2340002 2.6690414 0.2040551 0
6.2390003 2.660836 0.20388374 0
6.2430005 2.6521509 0.20374663 0
6.2480001 2.6439109 0.20357528 0
6.2520003 2.635195 0.20343819 0
6.2570004 2.6269209 0.20326683 0
6.2620006 2.618629 0.20309547 0
6.2660003 2.6098659 0.20295838 0
6.2710004 2.6015396 0.20278701 0
6.2760005 2.5931952 0.20261565 0
5.9740005 3.1412535 0.20291147 0
5.9780002 3.1334789 0.20276718 0
5.9830003 3.1262581 0.20258678 0
5.9870005 3.1184533 0.20244248 0
5.9910002 3.1106336 0.20229819 0
5.9950004 3.1027999 0.20215386 0
5.9990005 3.0949516 0.20200956 0
6.0040002 3.0876477 0.2018292 0
6.0080004 3.0797687 0.20168489 0
6.0120006 3.0718753 0.20154057 0
6.0170002 3.0645211 0.2013602 0
6.0210004 3.0565972 0.20121589 0
6.0250006 3.0486586 0.20107159 0
6.0290003 3.0407054 0.20092729 0
6.0340004 3.0332847 0.20074689 0
6.0380006 3.0253012 0.20060259 0
6.0420003 3.0173028 0.20045829 0
6.0470004 3.0098317 0.20027792 0
6.0510006 3.0018029 0.20013359 0
6.0550003 2.9937596 0.1999893 0
6.0600004 2.9862378 0.19980893 0
6.0640001 2.978164 0.19966462 0
6.0680003 2.9700756 0.19952032 0
6.0730004 2.9625032 0.19933993 0
6.0770001 2.9543841 0.19919564 0
6.0810003 2.9462509 0.19905132 0
6.0860004 2.938628 0.19887094 0
6.0900002 2.9304638 0.19872664 0
6.0940003 2.9222853 0.19858234 0
6.0990005 2.9146123 0.19840194 0
6.1030002 2.9064028 0.19825765 0
6.1080003 2.8986952 0.19807728 0
6.1120005 2.8904557 0.19793296 0
6.1160002 2.8822012 0.19778867 0
6.1210003 2.8744431 0.19760828 0
6.1250005 2.8661582 0.19746397 0
6.1300006 2.8583658 0.1972836 0
6.1340003 2.85005 0.19713928 0
6.1390004 2.8422234 0.1969589 0
6.1430006 2.8338776 0.1968146 0
6.1480002 2.8260162 0.19663422 0
6.1520004 2.8176394 0.19648992 0
6.1570005 2.8097444 0.19630954 0
6.1610003 2.8013365 0.19616523 0
6.1660004 2.793407 0.19598484 0
6.1700006 2.7849691 0.19584054 0
6.1750002 2.777005 0.19566017 0
6.1790004 2.7685361 0.19551587 0
6.1840005 2.7605381 0.19533548 0
6.1880002 2.7520385 0.19519117 0
6.1930003 2.7440062 0.1950108 0
6.1970005 2.735476 0.19486648 0
6.2020001 2.7274091 0.19468611 0
6.2060003 2.7188485 0.19454181 0
6.2110004 2.7107475 0.19436142 0
6.2160006 2.7026286 0.19418104 0
6.2200003 2.6940207 0.19403674 0
6.2250004 2.6858675 0.19385636 0
6.2290006 2.6772294 0.19371204 0
6.2340002 2.6690414 0.19353168 0
6.2390003 2.660836 0.19335128 0
6.2430005 2.6521509 0.19320698 0
6.2480001 2.6439109 0.19302662 0
6.2520003 2.635195 0.1928823 0
6.2570004 2.6269209 0.19270192 0
6.2620006 2.618629 0.19252154 0
6.2660003 2.6098659 0.19237722 0
6.2710004 2.6015396 0.19219685 0
6.2760005 2.5931952 0.19201647 0
5.9740005 3.1412535 0.19285704 0
5.9780002 3.1334789 0.19270554 0
5.9830003 3.1262581 0.19251613 0
5.9870005 3.1184533 0.19236459 0
5.9910002 3.1106336 0.19221309 0
5.9950004 3.1027999 0.19206157 0
5.9990005 3.0949516 0.19191004 0
6.0040002 3.0876477 0.19172065 0
6.0080004 3.0797687 0.19156912 0
6.0120006 3.0718753 0.19141759 0
6.0170002 3.0645211 0.19122821 0
6.0210004 3.0565972 0.19107668 0
6.0250006 3.0486586 0.19092517 0
6.0290003 3.0407054 0.19077365 0
6.0340004 3.0332847 0.19058426 0
6.0380006 3.0253012 0.19043271 0
6.0420003 3.0173028 0.19028121 0
6.0470004 3.0098317 0.1900918 0
6.0510006 3.0018029 0.18994027 0
6.0550003 2.9937596 0.18978877 0
6.0600004 2.9862378 0.18959936 0
6.0640001 2.978164 0.18944785 0
6.0680003 2.9700756 0.18929632 0
6.0730004 2.9625032 0.18910691 0
6.0770001 2.9543841 0.18895541 0
6.0810003 2.9462509 0.1888039 0
6.0860004 2.938628 0.18861449 0
6.0900002 2.9304638 0.18846299 0
6.0940003 2.9222853 0.18831144 0
6.0990005 2.9146123 0.18812205 0
6.1030002 2.9064028 0.18797053 0
6.1080003 2.8986952 0.18778113 0
6.1120005 2.8904557 0.1876296 0
6.1160002 2.8822012 0.1874781 0
6.1210003 2.8744431 0.18728869 0
6.1250005 2.8661582 0.18713717 0
6.1300006 2.8583658 0.18694776 0
6.1340003 2.85005 0.18679626 0
6.1390004 2.8422234 0.18660685 0
6.1430006 2.8338776 0.18645532 0
6.1480002 2.8260162 0.18626595 0
6.1520004 2.8176394 0.1861144 0
6.1570005 2.8097444 0.18592501 0
6.1610003 2.8013365 0.18577349 0
6.1660004 2.793407 0.18558408 0
6.1700006 2.7849691 0.18543255 0
6.1750002 2.777005 0.18524317 0
6.1790004 2.7685361 0.18509164 0
6.1840005 2.7605381 0.18490225 0
6.1880002 2.7520385 0.18475074 0
6.1930003 2.7440062 0.18456133 0
6.1970005 2.735476 0.18440981 0
6.2020001 2.7274091 0.18422042 0
6.2060003 2.7188485 0.1840689 0
6.2110004 2.7107475 0.18387949 0
6.2160006 2.7026286 0.18369009 0
6.2200003 2.6940207 0.18353859 0
6.2250004 2.6858675 0.18334918 0
6.2290006 2.6772294 0.18319765 0
6.2340002 2.6690414 0.18300827 0
6.2380004 2.6603725 0.18285672 0
6.2430005 2.6521509 0.18266733 0
6.2480001 2.6439109 0.18247795 0
6.2520003 2.635195 0.18232641 0
6.2570004 2.6269209 0.18213701 0
6.2620006 2.618629 0.1819476 0
6.2660003 2.6098659 0.18179609 0
6.2710004 2.6015396 0.1816067 0
6.2760005 2.5931952 0.18141729 0
5.9740005 3.1412535 0.18280262 0
5.9780002 3.1334789 0.18264389 0
5.9830003 3.1262581 0.18244547 0
5.9870005 3.1184533 0.18228672 0
5.9910002 3.1106336 0.18212801 0
5.9950004 3.1027999 0.18196926 0
5.9990005 3.0949516 0.18181051 0
6.0040002 3.0876477 0.1816121 0
6.0080004 3.0797687 0.18145336 0
6.0120006 3.0718753 0.18129462 0
6.0170002 3.0645211 0.18109621 0
6.0210004 3.0565972 0.18093748 0
6.0250006 3.0486586 0.18077874 0
6.0290003 3.0407054 0.18062001 0
6.0340004 3.0332847 0.18042159 0
6.0380006 3.0253012 0.18026285 0
6.0420003 3.0173028 0.18010412 0
6.0470004 3.0098317 0.1799057 0
6.0510006 3.0018029 0.17974696 0
6.0550003 2.9937596 0.17958823 0
6.0600004 2.9862378 0.17938982 0
6.0640001 2.978164 0.17923109 0
6.0680003 2.9700756 0.17907234 0
6.0730004 2.9625032 0.17887393 0
6.0770001 2.9543841 0.1787152 0
6.0810003 2.9462509 0.17855646 0
6.0860004 2.938628 0.17835803 0
6.0900002 2.9304638 0.17819931 0
6.0940003 2.9222853 0.17804056 0
6.0990005 2.9146123 0.17784214 0
6.1030002 2.9064028 0.17768341 0
6.1080003 2.8986952 0.17748499 0
6.1120005 2.8904557 0.17732625 0
6.1160002 2.8822012 0.17716753 0
6.1210003 2.8744431 0.1769691 0
6.1250005 2.8661582 0.17681035 0
6.1300006 2.8583658 0.17661193 0
6.1340003 2.85005 0.17645322 0
6.1390004 2.8422234 0.17625478 0
6.1430006 2.8338776 0.17609605 0
6.1480002 2.8260162 0.17589764 0
6.1520004 2.8176394 0.1757389 0
6.1570005 2.8097444 0.17554048 0
6.1610003 2.8013365 0.17538175 0
6.1660004 2.793407 0.17518334 0
6.1700006 2.7849691 0.17502458 0
6.1750002 2.777005 0.17482619 0
6.1790004 2.7685361 0.17466743 0
6.1840005 2.7605381 0.17446902 0
6.1880002 2.7520385 0.1743103 0
6.1930003 2.7440062 0.17411187 0
6.1970005 2.735476 0.17395313 0
6.2020001 2.7274091 0.17375474 0
6.2060003 2.7188485 0.17359599 0
6.2110004 2.7107475 0.17339756 0
6.2160006 2.7026286 0.17319913 0
6.2200003 2.6940207 0.1730404 0
6.2250004 2.6858675 0.17284198 0
6.2290006 2.6772294 0.17268325 0
6.2340002 2.6690414 0.17248483 0
6.2380004 2.6603725 0.1723261 0
6.2430005 2.6521509 0.17212768 0
6.2480001 2.6439109 0.17192926 0
6.2520003 2.635195 0.17177053 0
6.2570004 2.6269209 0.17157212 0
6.2620006 2.618629 0.1713737 0
6.2660003 2.6098659 0.17121497 0
6.2710004 2.6015396 0.17101654 0
6.2760005 2.5931952 0.17081812 0
5.9740005 3.1412535 0.17274818 0
5.9780002 3.1334789 0.17258224 0
5.9830003 3.1262581 0.17237481 0
5.9870005 3.1184533 0.17220885 0
5.9910002 3.1106336 0.17204291 0
5.9950004 3.1027999 0.17187694 0
5.9990005 3.0949516 0.171711 0
6.0040002 3.0876477 0.17150357 0
6.0080004 3.0797687 0.1713376 0
6.0120006 3.0718753 0.17117167 0
6.0170002 3.0645211 0.17096421 0
6.0210004 3.0565972 0.17079827 0
6.0250006 3.0486586 0.1706323 0
6.0290003 3.0407054 0.17046636 0
6.0340004 3.0332847 0.17025894 0
6.0380006 3.0253012 0.17009297 0
6.0420003 3.0173028 0.16992703 0
6.0470004 3.0098317 0.16971959 0
6.0510006 3.0018029 0.16955364 0
6.0550003 2.9937596 0.1693877 0
6.0600004 2.9862378 0.16918026 0
6.0640001 2.978164 0.16901432 0
6.0680003 2.9700756 0.16884837 0
6.0730004 2.9625032 0.16864093 0
6.0770001 2.9543841 0.16847499 0
6.0810003 2.9462509 0.16830902 0
6.0860004 2.938628 0.16810156 0
6.0900002 2.9304638 0.16793565 0
6.0940003 2.9222853 0.16776969 0
6.0990005 2.9146123 0.16756223 0
6.1030002 2.9064028 0.16739629 0
6.1080003 2.8986952 0.16718887 0
6.1120005 2.8904557 0.1670229 0
6.1160002 2.8822012 0.16685696 0
6.1210003 2.8744431 0.16664951 0
6.1250005 2.8661582 0.16648357 0
6.1300006 2.8583658 0.16627613 0
6.1340003 2.85005 0.16611019 0
6.1390004 2.8422234 0.16590273 0
6.1430006 2.8338776 0.16573679 0
6.1480002 2.8260162 0.16552934 0
6.1520004 2.8176394 0.1653634 0
6.1570005 2.8097444 0.16515595 0
6.1610003 2.8013365 0.16499001 0
6.1660004 2.793407 0.16478257 0
6.1700006 2.7849691 0.16461663 0
6.1750002 2.777005 0.16440921 0
6.1790004 2.7685361 0.16424324 0
6.1840005 2.7605381 0.16403578 0
6.1880002 2.7520385 0.16386984 0
6.1930003 2.7440062 0.16366242 0
6.1970005 2.735476 0.16349645 0
6.2020001 2.7274091 0.16328904 0
6.2060003 2.7188485 0.16312307 0
6.2110004 2.7107475 0.16291562 0
6.2160006 2.7026286 0.16270819 0
6.2200003 2.6940207 0.16254225 0
6.2250004 2.6858675 0.1623348 0
6.2290006 2.6772294 0.16216883 0
6.2340002 2.6690414 0.16196142 0
6.2380004 2.6603725 0.16179548 0
6.2430005 2.6521509 0.16158803 0
6.2480001 2.6439109 0.1613806 0
6.2520003 2.635195 0.16121463 0
6.2570004 2.6269209 0.1610072 0
6.2620006 2.618629 0.16079977 0
6.2660003 2.6098659 0.16063383 0
6.2710004 2.6015396 0.16042638 0
6.2760005 2.5931952 0.16021894 0
5.9740005 3.1412535 0.16269377 0
5.9780002 3.1334789 0.16252059 0
5.9830003 3.1262581 0.16230415 0
5.9870005 3.1184533 0.16213097 0
5.9910002 3.1106336 0.16195782 0
5.9950004 3.1027999 0.16178466 0
5.9990005 3.0949516 0.16161148 0
6.0040002 3.0876477 0.16139503 0
6.0080004 3.0797687 0.16122185 0
6.0120006 3.0718753 0.16104867 0
6.0170002 3.0645211 0.16083224 0
6.0210004 3.0565972 0.16065906 0
6.0250006 3.0486586 0.16048589 0
6.0290003 3.0407054 0.16031273 0
6.0340004 3.0332847 0.16009629 0
6.0380006 3.0253012 0.15992311 0
6.0420003 3.0173028 0.15974995 0
6.0470004 3.0098317 0.15953347 0
6.0510006 3.0018029 0.15936032 0
6.0550003 2.9937596 0.15918717 0
6.0600004 2.9862378 0.1589707 0
6.0640001 2.978164 0.15879755 0
6.0680003 2.9700756 0.15862437 0
6.0730004 2.9625032 0.15840791 0
6.0770001 2.9543841 0.15823476 0
6.0810003 2.9462509 0.15806158 0
6.0860004 2.938628 0.15784512 0
6.0900002 2.9304638 0.15767197 0
6.0940003 2.9222853 0.15749879 0
6.0990005 2.9146123 0.15728235 0
6.1030002 2.9064028 0.15710917 0
6.1080003 2.8986952 0.15689272 0
6.1120005 2.8904557 0.15671954 0
6.1160002 2.8822012 0.15654638 0
6.1210003 2.8744431 0.15632994 0
6.1250005 2.8661582 0.15615676 0
6.1300006 2.8583658 0.15594028 0
6.1340003 2.85005 0.15576716 0
6.1390004 2.8422234 0.15555069 0
6.1430006 2.8338776 0.15537751 0
6.1480002 2.8260162 0.15516108 0
6.1520004 2.8176394 0.1549879 0
6.1570005 2.8097444 0.15477142 0
6.1610003 2.8013365 0.15459827 0
6.1660004 2.793407 0.15438183 0
6.1700006 2.7849691 0.15420865 0
6.1750002 2.777005 0.15399221 0
6.1790004 2.7685361 0.15381902 0
6.1840005 2.7605381 0.15360257 0
6.1880002 2.7520385 0.15342942 0
6.1930003 2.7440062 0.15321293 0
6.1970005 2.735476 0.15303978 0
6.2020001 2.7274091 0.15282333 0
6.2060003 2.7188485 0.15265015 0
6.2110004 2.7107475 0.15243369 0
6.2160006 2.7026286 0.15221724 0
6.2200003 2.6940207 0.15204409 0
6.2250004 2.6858675 0.15182763 0
6.2290006 2.6772294 0.15165445 0
6.2340002 2.6690414 0.151438 0
6.2380004 2.6603725 0.15126485 0
6.2430005 2.6521509 0.15104836 0
6.2480001 2.6439109 0.15083194 0
6.2520003 2.635195 0.15065876 0
6.2570004 2.6269209 0.1504423 0
6.2620006 2.618629 0.15022582 0
6.2660003 2.6098659 0.1500527 0
6.2710004 2.6015396 0.14983621 0
6.2760005 2.5931952 0.14961973 0
5.9740005 3.1412535 0.15263933 0
5.9780002 3.1334789 0.15245897 0
5.9830003 3.1262581 0.15223348 0
5.9870005 3.1184533 0.15205312 0
5.9910002 3.1106336 0.15187272 0
5.9950004 3.1027999 0.15169236 0
5.9990005 3.0949516 0.15151197 0
6.0040002 3.0876477 0.15128648 0
6.0080004 3.0797687 0.15110609 0
6.0120006 3.0718753 0.1509257 0
6.0170002 3.0645211 0.15070024 0
6.0210004 3.0565972 0.15051985 0
6.0250006 3.0486586 0.15033945 0
6.0290003 3.0407054 0.15015909 0
6.0340004 3.0332847 0.14993364 0
6.0380006 3.0253012 0.14975324 0
6.0420003 3.0173028 0.14957288 0
6.0470004 3.0098317 0.14934739 0
6.0510006 3.0018029 0.149167 0
6.0550003 2.9937596 0.14898664 0
6.0600004 2.9862378 0.14876112 0
6.0640001 2.978164 0.14858076 0
6.0680003 2.9700756 0.14840037 0
6.0730004 2.9625032 0.14817491 0
6.0770001 2.9543841 0.14799455 0
6.0810003 2.9462509 0.14781415 0
6.0860004 2.938628 0.14758867 0
6.0900002 2.9304638 0.14740831 0
6.0940003 2.9222853 0.14722791 0
6.0990005 2.9146123 0.14700243 0
6.1030002 2.9064028 0.14682207 0
6.1080003 2.8986952 0.14659658 0
6.1120005 2.8904557 0.14641622 0
6.1160002 2.8822012 0.14623582 0
6.1210003 2.8744431 0.14601034 0
6.1250005 2.8661582 0.14582995 0
6.1300006 2.8583658 0.14560446 0
6.1340003 2.85005 0.1454241 0
6.1390004 2.8422234 0.14519864 0
6.1430006 2.8338776 0.14501825 0
6.1480002 2.8260162 0.1447928 0
6.1520004 2.8176394 0.1446124 0
6.1570005 2.8097444 0.14438689 0
6.1610003 2.8013365 0.14420652 0
6.1660004 2.793407 0.14398104 0
6.1700006 2.7849691 0.14380068 0
6.1750002 2.777005 0.14357522 0
6.1790004 2.7685361 0.14339483 0
6.1840005 2.7605381 0.14316934 0
6.1880002 2.7520385 0.14298898 0
6.1930003 2.7440062 0.14276347 0
6.1970005 2.735476 0.1425831 0
6.2020001 2.7274091 0.14235765 0
6.2060003 2.7188485 0.14217725 0
6.2110004 2.7107475 0.14195177 0
6.2160006 2.7026286 0.14172629 0
6.2200003 2.6940207 0.14154592 0
6.2250004 2.6858675 0.14132047 0
6.2290006 2.6772294 0.14114007 0
6.2340002 2.6690414 0.14091459 0
6.2380004 2.6603725 0.1407342 0
6.2430005 2.6521509 0.14050871 0
6.2480001 2.6439109 0.14028326 0
6.2520003 2.635195 0.14010286 0
6.2570004 2.6269209 0.13987741 0
6.2620006 2.618629 0.13965189 0
6.2660003 2.6098659 0.13947153 0
6.2710004 2.6015396 0.13924605 0
6.2760005 2.5931952 0.13902059 0
5.9740005 3.1412535 0.14258489 0
5.9780002 3.1334789 0.14239731 0
5.9830003 3.1262581 0.14216283 0
5.9870005 3.1184533 0.14197522 0
5.9910002 3.1106336 0.14178765 0
5.9950004 3.1027999 0.14160004 0
5.9990005 3.0949516 0.14141244 0
6.0040002 3.0876477 0.14117792 0
6.0080004 3.0797687 0.14099032 0
6.0120006 3.0718753 0.14080274 0
6.0170002 3.0645211 0.14056826 0
6.0210004 3.0565972 0.14038065 0
6.0250006 3.0486586 0.14019305 0
6.0290003 3.0407054 0.14000547 0
6.0340004 3.0332847 0.13977095 0
6.0380006 3.0253012 0.13958335 0
6.0420003 3.0173028 0.13939577 0
6.0470004 3.0098317 0.13916129 0
6.0510006 3.0018029 0.13897368 0
6.0550003 2.9937596 0.13878611 0
6.0600004 2.9862378 0.13855159 0
6.0640001 2.978164 0.13836399 0
6.0680003 2.9700756 0.13817638 0
6.0730004 2.9625032 0.1379419 0
6.0770001 2.9543841 0.13775432 0
6.0810003 2.9462509 0.13756672 0
6.0860004 2.938628 0.1373322 0
