# .PCD v0.7 - Point Cloud Data file format
VERSION 0.7
FIELDS x y z intensity
SIZE 4 4 4 4
TYPE F F F F
COUNT 1 1 1 1
WIDTH 1413
HEIGHT 1
VIEWPOINT 0 0 0 1 0 0 0
POINTS 1413
DATA ascii
3.6550002 -1.5549487 0.69169843 0
3.6460001 -1.5566317 0.69090295 0
3.6360002 -1.557815 0.69001901 0
3.6270003 -1.5594313 0.68922359 0
3.6180003 -1.561015 0.6884281 0
3.6080003 -1.5620936 0.68754423 0
3.5990002 -1.5636106 0.68674874 0
3.5900002 -1.5650952 0.68595326 0
3.5810003 -1.5665473 0.68515778 0
3.5710003 -1.5674871 0.68427396 0
3.5620003 -1.5688723 0.68347847 0
3.5530002 -1.5702251 0.68268299 0
3.5440001 -1.5715455 0.68188751 0
3.5360003 -1.5733205 0.68118036 0
3.5270002 -1.5745778 0.68038493 0
3.5180001 -1.5758024 0.67958939 0
3.5090003 -1.5769949 0.67879397 0
3.5000002 -1.5781547 0.67799848 0
3.4920003 -1.5797782 0.67729139 0
3.4830003 -1.5808749 0.67649591 0
3.4750001 -1.5824387 0.67578882 0
3.4660003 -1.5834724 0.67499334 0
3.4580002 -1.5849767 0.67428625 0
3.4490004 -1.5859473 0.67349076 0
3.4410002 -1.5873921 0.67278367 0
3.4320002 -1.5882994 0.67198819 0
3.4240003 -1.5896847 0.6712811 0
3.4160001 -1.5910411 0.67057395 0
3.4080002 -1.5923687 0.66986692 0
3.4000003 -1.5936675 0.66915983 0
3.3920002 -1.5949373 0.66845274 0
3.3830001 -1.5956588 0.66765726 0
3.3750002 -1.5968692 0.66695017 0
3.3670003 -1.5980507 0.66624308 0
3.3600001 -1.5997281 0.66562438 0
3.3520002 -1.6008539 0.66491723 0
3.3440003 -1.6019505 0.6642102 0
3.3360002 -1.6030184 0.66350305 0
3.3280003 -1.6040574 0.66279602 0
3.3200002 -1.6050675 0.66208887 0
3.3130002 -1.6065844 0.66147017 0
3.3050003 -1.6075388 0.66076314 0
3.2980003 -1.6090035 0.66014445 0
3.2900002 -1.6099018 0.6594373 0
3.2820003 -1.6107712 0.65873027 0
3.2750003 -1.6121565 0.65811151 0
3.2680001 -1.6135166 0.65749276 0
3.2600002 -1.6143031 0.65678573 0
3.2530003 -1.6156108 0.65616703 0
3.2450001 -1.6163412 0.65545988 0
3.2380002 -1.6175967 0.65484118 0
3.2310002 -1.6188269 0.65422249 0
3.2240002 -1.620032 0.65360379 0
3.2160003 -1.6206526 0.6528967 0
3.2090001 -1.621805 0.65227795 0
3.2020001 -1.6229324 0.65165925 0
3.1950002 -1.6240345 0.65104055 0
3.1880002 -1.6251113 0.65042186 0
3.1810002 -1.626163 0.64980316 0
3.1740003 -1.6271894 0.64918447 0
3.1670003 -1.6281905 0.64856577 0
3.1600003 -1.6291665 0.64794707 0
3.7040002 -1.5478652 0.69006956 0
3.6940002 -1.5492613 0.68920374 0
3.6840003 -1.5506214 0.68833792 0
3.6750002 -1.5524052 0.68755865 0
3.6650002 -1.5536951 0.68669283 0
3.6550002 -1.5549487 0.68582702 0
3.6460001 -1.5566317 0.68504775 0
3.6360002 -1.557815 0.68418193 0
3.6270003 -1.5594313 0.68340266 0
3.6180003 -1.561015 0.68262345 0
3.6080003 -1.5620936 0.68175763 0
3.5990002 -1.5636106 0.68097836 0
3.5900002 -1.5650952 0.68019915 0
3.5810003 -1.5665473 0.67941988 0
3.5710003 -1.5674871 0.67855406 0
3.5620003 -1.5688723 0.67777479 0
3.5530002 -1.5702251 0.67699558 0
3.5440001 -1.5715455 0.6762163 0
3.5360003 -1.5733205 0.67552364 0
3.5270002 -1.5745778 0.67474443 0
3.5180001 -1.5758024 0.67396516 0
3.5090003 -1.5769949 0.67318594 0
3.5000002 -1.5781547 0.67240667 0
3.4920003 -1.5797782 0.67171407 0
3.4830003 -1.5808749 0.6709348 0
3.4750001 -1.5824387 0.67024207 0
3.4660003 -1.5834724 0.66946292 0
3.4580002 -1.5849767 0.66877019 0
3.4490004 -1.5859473 0.66799098 0
3.4410002 -1.5873921 0.66729832 0
3.4320002 -1.5882994 0.66651905 0
3.4240003 -1.5896847 0.66582638 0
3.4160001 -1.5910411 0.66513371 0
3.4080002 -1.5923687 0.66444105 0
3.4000003 -1.5936675 0.66374838 0
3.3920002 -1.5949373 0.66305572 0
3.3830001 -1.5956588 0.66227651 0
3.3750002 -1.5968692 0.66158378 0
3.3670003 -1.5980507 0.66089118 0
3.3600001 -1.5997281 0.66028512 0
3.3520002 -1.6008539 0.65959245 0
3.3440003 -1.6019505 0.65889978 0
3.3360002 -1.6030184 0.65820712 0
3.3280003 -1.6040574 0.65751445 0
3.3200002 -1.6050675 0.65682173 0
3.3130002 -1.6065844 0.65621567 0
3.3050003 -1.6075388 0.65552306 0
3.2980003 -1.6090035 0.65491694 0
3.2900002 -1.6099018 0.65422428 0
3.2820003 -1.6107712 0.65353167 0
3.2750003 -1.6121565 0.65292555 0
3.2680001 -1.6135166 0.65231943 0
3.2600002 -1.6143031 0.65162683 0
3.2530003 -1.6156108 0.65102071 0
3.2450001 -1.6163412 0.65032804 0
3.2380002 -1.6175967 0.64972198 0
3.2310002 -1.6188269 0.64911592 0
3.2240002 -1.620032 0.6485098 0
3.2160003 -1.6206526 0.64781719 0
3.2090001 -1.621805 0.64721107 0
3.2020001 -1.6229324 0.64660501 0
3.1950002 -1.6240345 0.64599895 0
3.1880002 -1.6251113 0.64539284 0
3.1810002 -1.626163 0.64478678 0
3.1740003 -1.6271894 0.64418066 0
3.1670003 -1.6281905 0.6435746 0
3.1600003 -1.6291665 0.64296854 0
3.7040002 -1.5478652 0.68410981 0
3.6940002 -1.5492613 0.68326199 0
3.6840003 -1.5506214 0.68241417 0
3.6750002 -1.5524052 0.68165118 0
3.6650002 -1.5536951 0.68080342 0
3.6550002 -1.5549487 0.6799556 0
3.6460001 -1.5566317 0.67919254 0
3.6360002 -1.557815 0.67834485 0
3.6270003 -1.5594313 0.67758179 0
3.6180003 -1.561015 0.67681879 0
3.6080003 -1.5620936 0.67597103 0
3.5990002 -1.5636106 0.67520797 0
3.5900002 -1.5650952 0.67444497 0
3.5810003 -1.5665473 0.67368197 0
3.5710003 -1.5674871 0.67283416 0
3.5620003 -1.5688723 0.67207122 0
3.5530002 -1.5702251 0.67130816 0
3.5440001 -1.5715455 0.67054516 0
3.5360003 -1.5733205 0.66986692 0
3.5270002 -1.5745778 0.66910392 0
3.5180001 -1.5758024 0.66834092 0
3.5090003 -1.5769949 0.66757786 0
3.5000002 -1.5781547 0.66681492 0
3.4920003 -1.5797782 0.66613662 0
3.4830003 -1.5808749 0.66537362 0
3.4750001 -1.5824387 0.66469538 0
3.4660003 -1.5834724 0.66393238 0
3.4580002 -1.5849767 0.66325414 0
3.4490004 -1.5859473 0.66249114 0
3.4410002 -1.5873921 0.6618129 0
3.4320002 -1.5882994 0.66104984 0
3.4240003 -1.5896847 0.66037166 0
3.4160001 -1.5910411 0.65969342 0
3.4080002 -1.5923687 0.65901518 0
3.4000003 -1.5936675 0.658337 0
3.3920002 -1.5949373 0.65765876 0
3.3830001 -1.5956588 0.65689576 0
3.3750002 -1.5968692 0.65621752 0
3.3670003 -1.5980507 0.65553927 0
3.3600001 -1.5997281 0.65494579 0
3.3520002 -1.6008539 0.65426755 0
3.3440003 -1.6019505 0.65358937 0
3.3360002 -1.6030184 0.65291113 0
3.3280003 -1.6040574 0.65223289 0
3.3200002 -1.6050675 0.65155464 0
3.3130002 -1.6065844 0.65096122 0
3.3050003 -1.6075388 0.65028298 0
3.2980003 -1.6090035 0.64968956 0
3.2900002 -1.6099018 0.64901125 0
3.2820003 -1.6107712 0.64833307 0
3.2750003 -1.6121565 0.64773965 0
3.2680001 -1.6135166 0.64714617 0
3.2600002 -1.6143031 0.64646792 0
3.2530003 -1.6156108 0.64587444 0
3.2450001 -1.6163412 0.6451962 0
3.2380002 -1.6175967 0.64460278 0
3.2310002 -1.6188269 0.64400935 0
3.2240002 -1.620032 0.64341587 0
3.2160003 -1.6206526 0.64273763 0
3.2090001 -1.621805 0.6421442 0
3.2020001 -1.6229324 0.64155072 0
3.1950002 -1.6240345 0.6409573 0
3.1880002 -1.6251113 0.64036381 0
3.1810002 -1.626163 0.63977039 0
3.1740003 -1.6271894 0.63917691 0
3.1670003 -1.6281905 0.63858348 0
3.1600003 -1.6291665 0.63799006 0
3.7040002 -1.5478652 0.67815 0
3.6940002 -1.5492613 0.67732024 0
3.6840003 -1.5506214 0.67649055 0
3.6750002 -1.5524052 0.6757437 0
3.6650002 -1.5536951 0.674914 0
3.6550002 -1.5549487 0.67408419 0
3.6460001 -1.5566317 0.67333746 0
3.6360002 -1.557815 0.67250764 0
3.6270003 -1.5594313 0.67176092 0
3.6180003 -1.561015 0.67101419 0
3.6080003 -1.5620936 0.67018437 0
3.5990002 -1.5636106 0.66943765 0
3.5900002 -1.5650952 0.6686908 0
3.5810003 -1.5665473 0.66794407 0
3.5710003 -1.5674871 0.66711432 0
3.5620003 -1.5688723 0.66636753 0
3.5530002 -1.5702251 0.66562074 0
3.5440001 -1.5715455 0.66487396 0
3.5360003 -1.5733205 0.6642102 0
3.5270002 -1.5745778 0.66346341 0
3.5180001 -1.5758024 0.66271663 0
3.5090003 -1.5769949 0.66196984 0
3.5000002 -1.5781547 0.66122305 0
3.4920003 -1.5797782 0.6605593 0
3.4830003 -1.5808749 0.65981245 0
3.4750001 -1.5824387 0.65914869 0
3.4660003 -1.5834724 0.65840191 0
3.4580002 -1.5849767 0.65773809 0
3.4490004 -1.5859473 0.65699136 0
3.4410002 -1.5873921 0.65632749 0
3.4320002 -1.5882994 0.65558076 0
3.4240003 -1.5896847 0.65491694 0
3.4160001 -1.5910411 0.65425313 0
3.4080002 -1.5923687 0.65358937 0
3.4000003 -1.5936675 0.65292555 0
3.3920002 -1.5949373 0.65226173 0
3.3830001 -1.5956588 0.65151495 0
3.3750002 -1.5968692 0.65085119 0
3.3670003 -1.5980507 0.65018737 0
3.3600001 -1.5997281 0.64960653 0
3.3520002 -1.6008539 0.64894271 0
3.3440003 -1.6019505 0.64827895 0
3.3360002 -1.6030184 0.64761513 0
3.3280003 -1.6040574 0.64695132 0
3.3200002 -1.6050675 0.64628756 0
3.3130002 -1.6065844 0.64570671 0
3.3050003 -1.6075388 0.6450429 0
3.2980003 -1.6090035 0.64446211 0
3.2900002 -1.6099018 0.64379829 0
3.2820003 -1.6107712 0.64313447 0
3.2750003 -1.6121565 0.64255369 0
3.2680001 -1.6135166 0.64197284 0
3.2600002 -1.6143031 0.64130902 0
3.2530003 -1.6156108 0.64072824 0
3.2450001 -1.6163412 0.64006436 0
3.2380002 -1.6175967 0.63948357 0
3.2310002 -1.6188269 0.63890272 0
3.2240002 -1.620032 0.63832194 0
3.2160003 -1.6206526 0.63765812 0
3.2090001 -1.621805 0.63707727 0
3.2020001 -1.6229324 0.63649642 0
3.1950002 -1.6240345 0.63591564 0
3.1880002 -1.6251113 0.63533479 0
3.1810002 -1.626163 0.634754 0
3.1740003 -1.6271894 0.63417315 0
3.1670003 -1.6281905 0.63359237 0
3.1600003 -1.6291665 0.63301152 0
3.7040002 -1.5478652 0.67219019 0
3.6940002 -1.5492613 0.67137849 0
3.6840003 -1.5506214 0.6705668 0
3.6750002 -1.5524052 0.66983628 0
3.6650002 -1.5536951 0.66902453 0
3.6550002 -1.5549487 0.66821283 0
3.6460001 -1.5566317 0.66748226 0
3.6360002 -1.557815 0.66667056 0
3.6270003 -1.5594313 0.66594005 0
3.6180003 -1.561015 0.66520953 0
3.6080003 -1.5620936 0.66439778 0
3.5990002 -1.5636106 0.6636672 0
3.5900002 -1.5650952 0.66293669 0
3.5810003 -1.5665473 0.66220617 0
3.5710003 -1.5674871 0.66139442 0
3.5620003 -1.5688723 0.6606639 0
3.5530002 -1.5702251 0.65993333 0
3.5440001 -1.5715455 0.65920281 0
3.5360003 -1.5733205 0.65855348 0
3.5270002 -1.5745778 0.65782291 0
3.5180001 -1.5758024 0.65709233 0
3.5090003 -1.5769949 0.65636182 0
3.5000002 -1.5781547 0.65563124 0
3.4920003 -1.5797782 0.65498191 0
3.4830003 -1.5808749 0.65425134 0
3.4750001 -1.5824387 0.65360194 0
3.4660003 -1.5834724 0.65287149 0
3.4580002 -1.5849767 0.65222204 0
3.4490004 -1.5859473 0.65149152 0
3.4410002 -1.5873921 0.65084213 0
3.4320002 -1.5882994 0.65011162 0
3.4240003 -1.5896847 0.64946222 0
3.4160001 -1.5910411 0.64881289 0
3.4080002 -1.5923687 0.6481635 0
3.4000003 -1.5936675 0.6475141 0
3.3920002 -1.5949373 0.64686477 0
3.3830001 -1.5956588 0.6461342 0
3.3750002 -1.5968692 0.64548481 0
3.3670003 -1.5980507 0.64483547 0
3.3600001 -1.5997281 0.64426726 0
3.3520002 -1.6008539 0.64361793 0
3.3440003 -1.6019505 0.64296854 0
3.3360002 -1.6030184 0.6423192 0
3.3280003 -1.6040574 0.64166981 0
3.3200002 -1.6050675 0.64102042 0
3.3130002 -1.6065844 0.64045221 0
3.3050003 -1.6075388 0.63980281 0
3.2980003 -1.6090035 0.63923466 0
3.2900002 -1.6099018 0.63858527 0
3.2820003 -1.6107712 0.63793588 0
3.2750003 -1.6121565 0.63736773 0
3.2680001 -1.6135166 0.63679945 0
3.2600002 -1.6143031 0.63615012 0
3.2530003 -1.6156108 0.63558197 0
3.2450001 -1.6163412 0.63493252 0
3.2380002 -1.6175967 0.63436437 0
3.2310002 -1.6188269 0.63379616 0
3.2240002 -1.620032 0.63322794 0
3.2160003 -1.6206526 0.63257861 0
3.2090001 -1.621805 0.6320104 0
3.2020001 -1.6229324 0.63144219 0
3.1950002 -1.6240345 0.63087398 0
3.1880002 -1.6251113 0.63030577 0
3.1810002 -1.626163 0.62973762 0
3.1740003 -1.6271894 0.6291694 0
3.1670003 -1.6281905 0.62860119 0
3.1600003 -1.6291665 0.62803304 0
3.7040002 -1.5478652 0.66623044 0
3.6940002 -1.5492613 0.66543674 0
3.6840003 -1.5506214 0.66464305 0
3.6750002 -1.5524052 0.66392875 0
3.6650002 -1.5536951 0.66313511 0
3.6550002 -1.5549487 0.66234142 0
3.6460001 -1.5566317 0.66162711 0
3.6360002 -1.557815 0.66083348 0
3.6270003 -1.5594313 0.66011918 0
3.6180003 -1.561015 0.65940487 0
3.6080003 -1.5620936 0.65861118 0
3.5990002 -1.5636106 0.65789688 0
3.5900002 -1.5650952 0.65718251 0
3.5810003 -1.5665473 0.65646821 0
3.5710003 -1.5674871 0.65567458 0
3.5620003 -1.5688723 0.65496027 0
3.5530002 -1.5702251 0.65424597 0
3.5440001 -1.5715455 0.65353161 0
3.5360003 -1.5733205 0.6528967 0
3.5270002 -1.5745778 0.65218234 0
3.5180001 -1.5758024 0.65146804 0
3.5090003 -1.5769949 0.65075374 0
3.5000002 -1.5781547 0.65003943 0
3.4920003 -1.5797782 0.64940453 0
3.4830003 -1.5808749 0.64869022 0
3.4750001 -1.5824387 0.64805526 0
3.4660003 -1.5834724 0.64734095 0
3.4580002 -1.5849767 0.64670599 0
3.4490004 -1.5859473 0.64599168 0
3.4410002 -1.5873921 0.64535677 0
3.4320002 -1.5882994 0.64464247 0
3.4240003 -1.5896847 0.6440075 0
3.4160001 -1.5910411 0.64337254 0
3.4080002 -1.5923687 0.64273763 0
3.4000003 -1.5936675 0.64210272 0
3.3920002 -1.5949373 0.64146775 0
3.3830001 -1.5956588 0.64075345 0
3.3750002 -1.5968692 0.64011854 0
3.3670003 -1.5980507 0.63948357 0
3.3600001 -1.5997281 0.638928 0
3.3520002 -1.6008539 0.63829303 0
3.3440003 -1.6019505 0.63765812 0
3.3360002 -1.6030184 0.63702321 0
3.3280003 -1.6040574 0.63638824 0
3.3200002 -1.6050675 0.63575327 0
3.3130002 -1.6065844 0.6351977 0
3.3050003 -1.6075388 0.63456279 0
3.2980003 -1.6090035 0.63400722 0
3.2900002 -1.6099018 0.63337225 0
3.2820003 -1.6107712 0.63273734 0
3.2750003 -1.6121565 0.63218176 0
3.2680001 -1.6135166 0.63162619 0
3.2600002 -1.6143031 0.63099122 0
3.2530003 -1.6156108 0.63043571 0
3.2450001 -1.6163412 0.62980074 0
3.2380002 -1.6175967 0.62924516 0
3.2310002 -1.6188269 0.62868959 0
3.2240002 -1.620032 0.62813401 0
3.2160003 -1.6206526 0.6274991 0
3.2090001 -1.621805 0.62694347 0
3.2020001 -1.6229324 0.62638795 0
3.1950002 -1.6240345 0.62583232 0
3.1880002 -1.6251113 0.6252768 0
3.1810002 -1.626163 0.62472117 0
3.1740003 -1.6271894 0.62416565 0
3.1670003 -1.6281905 0.62361008 0
3.1600003 -1.6291665 0.6230545 0
3.7040002 -1.5478652 0.66027069 0
3.6940002 -1.5492613 0.659495 0
3.6840003 -1.5506214 0.65871942 0
3.6750002 -1.5524052 0.65802133 0
3.6650002 -1.5536951 0.65724564 0
3.6550002 -1.5549487 0.65647006 0
3.6460001 -1.5566317 0.65577197 0
3.6360002 -1.557815 0.65499634 0
3.6270003 -1.5594313 0.65429831 0
3.6180003 -1.561015 0.65360016 0
3.6080003 -1.5620936 0.65282452 0
3.5990002 -1.5636106 0.65212643 0
3.5900002 -1.5650952 0.65142834 0
3.5810003 -1.5665473 0.65073031 0
3.5710003 -1.5674871 0.64995468 0
3.5620003 -1.5688723 0.64925659 0
3.5530002 -1.5702251 0.64855856 0
3.5440001 -1.5715455 0.64786047 0
3.5360003 -1.5733205 0.64723992 0
3.5270002 -1.5745778 0.64654183 0
3.5180001 -1.5758024 0.6458438 0
3.5090003 -1.5769949 0.64514571 0
3.5000002 -1.5781547 0.64444762 0
3.4920003 -1.5797782 0.64382714 0
3.4830003 -1.5808749 0.64312905 0
3.4750001 -1.5824387 0.64250857 0
3.4660003 -1.5834724 0.64181048 0
3.4580002 -1.5849767 0.64118993 0
3.4490004 -1.5859473 0.6404919 0
3.4410002 -1.5873921 0.63987136 0
3.4320002 -1.5882994 0.63917333 0
3.4240003 -1.5896847 0.63855278 0
3.4160001 -1.5910411 0.6379323 0
3.4080002 -1.5923687 0.63731182 0
3.4000003 -1.5936675 0.63669127 0
3.3920002 -1.5949373 0.63607079 0
3.3830001 -1.5956588 0.6353727 0
3.3750002 -1.5968692 0.63475215 0
3.3670003 -1.5980507 0.63413167 0
3.3600001 -1.5997281 0.63358873 0
3.3520002 -1.6008539 0.63296819 0
3.3440003 -1.6019505 0.6323477 0
3.3360002 -1.6030184 0.63172722 0
3.3280003 -1.6040574 0.63110667 0
3.3200002 -1.6050675 0.63048619 0
3.3130002 -1.6065844 0.62994325 0
3.3050003 -1.6075388 0.62932271 0
3.2980003 -1.6090035 0.62877977 0
3.2900002 -1.6099018 0.62815928 0
3.2820003 -1.6107712 0.62753874 0
3.2750003 -1.6121565 0.6269958 0
3.2680001 -1.6135166 0.62645286 0
3.2600002 -1.6143031 0.62583232 0
3.2530003 -1.6156108 0.62528944 0
3.2450001 -1.6163412 0.6246689 0
3.2380002 -1.6175967 0.62412596 0
3.2310002 -1.6188269 0.62358296 0
3.2240002 -1.620032 0.62304008 0
3.2160003 -1.6206526 0.62241954 0
3.2090001 -1.621805 0.6218766 0
3.2020001 -1.6229324 0.62133366 0
3.1950002 -1.6240345 0.62079072 0
3.1880002 -1.6251113 0.62024772 0
3.1810002 -1.626163 0.61970484 0
3.1740003 -1.6271894 0.61916184 0
3.1670003 -1.6281905 0.61861897 0
3.1600003 -1.6291665 0.61807597 0
3.7040002 -1.5478652 0.65431088 0
3.6940002 -1.5492613 0.65355325 0
3.6840003 -1.5506214 0.65279567 0
3.6750002 -1.5524052 0.6521138 0
3.6650002 -1.5536951 0.65135622 0
3.6550002 -1.5549487 0.65059865 0
3.6460001 -1.5566317 0.64991677 0
3.6360002 -1.557815 0.64915919 0
3.6270003 -1.5594313 0.64847738 0
3.6180003 -1.561015 0.6477955 0
3.6080003 -1.5620936 0.64703792 0
3.5990002 -1.5636106 0.64635611 0
3.5900002 -1.5650952 0.64567423 0
3.5810003 -1.5665473 0.64499241 0
3.5710003 -1.5674871 0.64423478 0
3.5620003 -1.5688723 0.64355296 0
3.5530002 -1.5702251 0.64287114 0
3.5440001 -1.5715455 0.64218926 0
3.5360003 -1.5733205 0.6415832 0
3.5270002 -1.5745778 0.64090133 0
3.5180001 -1.5758024 0.64021951 0
3.5090003 -1.5769949 0.63953769 0
3.5000002 -1.5781547 0.63885587 0
3.4920003 -1.5797782 0.63824975 0
3.4830003 -1.5808749 0.63756794 0
3.4750001 -1.5824387 0.63696182 0
3.4660003 -1.5834724 0.63628 0
3.4580002 -1.5849767 0.63567394 0
3.4490004 -1.5859473 0.63499212 0
3.4410002 -1.5873921 0.634386 0
3.4320002 -1.5882994 0.63370419 0
3.4240003 -1.5896847 0.63309813 0
3.4160001 -1.5910411 0.63249201 0
3.4080002 -1.5923687 0.63188595 0
3.4000003 -1.5936675 0.63127983 0
3.3920002 -1.5949373 0.63067377 0
3.3830001 -1.5956588 0.62999195 0
3.3750002 -1.5968692 0.62938583 0
3.3670003 -1.5980507 0.62877977 0
3.3600001 -1.5997281 0.62824941 0
3.3520002 -1.6008539 0.62764335 0
3.3440003 -1.6019505 0.62703729 0
3.3360002 -1.6030184 0.62643123 0
3.3280003 -1.6040574 0.62582517 0
3.3200002 -1.6050675 0.62521905 0
3.3130002 -1.6065844 0.62468874 0
3.3050003 -1.6075388 0.62408268 0
3.2980003 -1.6090035 0.62355232 0
3.2900002 -1.6099018 0.62294626 0
3.2820003 -1.6107712 0.6223402 0
3.2750003 -1.6121565 0.62180984 0
3.2680001 -1.6135166 0.62127954 0
3.2600002 -1.6143031 0.62067342 0
3.2530003 -1.6156108 0.62014312 0
3.2450001 -1.6163412 0.61953706 0
3.2380002 -1.6175967 0.61900675 0
3.2310002 -1.6188269 0.61847639 0
3.2240002 -1.620032 0.61794609 0
3.2160003 -1.6206526 0.61734003 0
3.2090001 -1.621805 0.61680967 0
3.2020001 -1.6229324 0.61627936 0
3.1950002 -1.6240345 0.61574906 0
3.1880002 -1.6251113 0.61521876 0
3.1810002 -1.626163 0.6146884 0
3.1740003 -1.6271894 0.61415809 0
3.1670003 -1.6281905 0.61362779 0
3.1600003 -1.6291665 0.61309749 0
3.7040002 -1.5478652 0.64835107 0
3.6940002 -1.5492613 0.6476115 0
3.6840003 -1.5506214 0.64687198 0
3.6750002 -1.5524052 0.64620638 0
3.6650002 -1.5536951 0.6454668 0
3.6550002 -1.5549487 0.64472723 0
3.6460001 -1.5566317 0.64406163 0
3.6360002 -1.557815 0.64332205 0
3.6270003 -1.5594313 0.64265645 0
3.6180003 -1.561015 0.64199084 0
3.6080003 -1.5620936 0.64125133 0
3.5990002 -1.5636106 0.64058572 0
3.5900002 -1.5650952 0.63992012 0
3.5810003 -1.5665473 0.63925445 0
3.5710003 -1.5674871 0.63851494 0
3.5620003 -1.5688723 0.63784933 0
3.5530002 -1.5702251 0.63718373 0
3.5440001 -1.5715455 0.63651812 0
3.5360003 -1.5733205 0.63592649 0
3.5270002 -1.5745778 0.63526082 0
3.5180001 -1.5758024 0.63459522 0
3.5090003 -1.5769949 0.63392967 0
3.5000002 -1.5781547 0.63326406 0
3.4920003 -1.5797782 0.63267243 0
3.4830003 -1.5808749 0.63200676 0
3.4750001 -1.5824387 0.63141513 0
3.4660003 -1.5834724 0.63074952 0
3.4580002 -1.5849767 0.63015789 0
3.4490004 -1.5859473 0.62949228 0
3.4410002 -1.5873921 0.62890065 0
3.4320002 -1.5882994 0.62823504 0
3.4240003 -1.5896847 0.62764335 0
3.4160001 -1.5910411 0.62705171 0
3.4080002 -1.5923687 0.62646008 0
3.4000003 -1.5936675 0.62586844 0
3.3920002 -1.5949373 0.6252768 0
3.3830001 -1.5956588 0.62461114 0
3.3750002 -1.5968692 0.6240195 0
3.3670003 -1.5980507 0.62342787 0
3.3600001 -1.5997281 0.62291014 0
3.3520002 -1.6008539 0.62231851 0
3.3440003 -1.6019505 0.62172687 0
3.3360002 -1.6030184 0.62113523 0
3.3280003 -1.6040574 0.6205436 0
3.3200002 -1.6050675 0.61995196 0
3.3130002 -1.6065844 0.61943424 0
3.3050003 -1.6075388 0.6188426 0
3.2980003 -1.6090035 0.61832488 0
3.2900002 -1.6099018 0.61773324 0
3.2820003 -1.6107712 0.6171416 0
3.2750003 -1.6121565 0.61662388 0
3.2680001 -1.6135166 0.61610621 0
3.2600002 -1.6143031 0.61551458 0
3.2530003 -1.6156108 0.61499691 0
3.2450001 -1.6163412 0.61440521 0
3.2380002 -1.6175967 0.61388755 0
3.2310002 -1.6188269 0.61336982 0
3.2240002 -1.620032 0.61285216 0
3.2160003 -1.6206526 0.61226052 0
3.2090001 -1.621805 0.61174279 0
3.2020001 -1.6229324 0.61122513 0
3.1950002 -1.6240345 0.6107074 0
3.1880002 -1.6251113 0.61018974 0
3.1810002 -1.626163 0.60967201 0
3.1740003 -1.6271894 0.60915434 0
3.1670003 -1.6281905 0.60863662 0
3.1600003 -1.6291665 0.60811895 0
3.7040002 -1.5478652 0.64239132 0
3.6940002 -1.5492613 0.64166981 0
3.6840003 -1.5506214 0.64094824 0
3.6750002 -1.5524052 0.6402989 0
3.6650002 -1.5536951 0.63957739 0
3.6550002 -1.5549487 0.63885587 0
3.6460001 -1.5566317 0.63820648 0
3.6360002 -1.557815 0.63748491 0
3.6270003 -1.5594313 0.63683558 0
3.6180003 -1.561015 0.63618618 0
3.6080003 -1.5620936 0.63546467 0
3.5990002 -1.5636106 0.63481534 0
3.5900002 -1.5650952 0.63416594 0
3.5810003 -1.5665473 0.63351655 0
3.5710003 -1.5674871 0.6327951 0
3.5620003 -1.5688723 0.6321457 0
3.5530002 -1.5702251 0.63149631 0
3.5440001 -1.5715455 0.63084692 0
3.5360003 -1.5733205 0.63026971 0
3.5270002 -1.5745778 0.62962031 0
3.5180001 -1.5758024 0.62897098 0
3.5090003 -1.5769949 0.62832159 0
3.5000002 -1.5781547 0.62767226 0
3.4920003 -1.5797782 0.62709498 0
3.4830003 -1.5808749 0.62644565 0
3.4750001 -1.5824387 0.62586844 0
3.4660003 -1.5834724 0.62521905 0
3.4580002 -1.5849767 0.62464184 0
3.4490004 -1.5859473 0.62399244 0
3.4410002 -1.5873921 0.62341523 0
3.4320002 -1.5882994 0.6227659 0
3.4240003 -1.5896847 0.62218869 0
3.4160001 -1.5910411 0.62161142 0
3.4080002 -1.5923687 0.6210342 0
3.4000003 -1.5936675 0.62045699 0
3.3920002 -1.5949373 0.61987978 0
3.3830001 -1.5956588 0.61923039 0
3.3750002 -1.5968692 0.61865318 0
3.3670003 -1.5980507 0.61807597 0
3.3600001 -1.5997281 0.61757088 0
3.3520002 -1.6008539 0.61699367 0
3.3440003 -1.6019505 0.61641645 0
3.3360002 -1.6030184 0.61583924 0
3.3280003 -1.6040574 0.61526203 0
3.3200002 -1.6050675 0.61468482 0
3.3130002 -1.6065844 0.61417973 0
3.3050003 -1.6075388 0.61360252 0
3.2980003 -1.6090035 0.61309749 0
3.2900002 -1.6099018 0.61252022 0
3.2820003 -1.6107712 0.61194301 0
3.2750003 -1.6121565 0.61143798 0
3.2680001 -1.6135166 0.61093289 0
3.2600002 -1.6143031 0.61035568 0
3.2530003 -1.6156108 0.60985065 0
3.2450001 -1.6163412 0.60927337 0
3.2380002 -1.6175967 0.60876834 0
3.2310002 -1.6188269 0.60826325 0
3.2240002 -1.620032 0.60775816 0
3.2160003 -1.6206526 0.60718095 0
3.2090001 -1.621805 0.60667586 0
3.2020001 -1.6229324 0.60617083 0
3.1950002 -1.6240345 0.6056658 0
3.1880002 -1.6251113 0.60516071 0
3.1810002 -1.626163 0.60465562 0
3.1740003 -1.6271894 0.60415059 0
3.1670003 -1.6281905 0.6036455 0
3.1600003 -1.6291665 0.60314047 0
3.7040002 -1.5478652 0.63643152 0
3.6940002 -1.5492613 0.635728 0
3.6840003 -1.5506214 0.63502455 0
3.6750002 -1.5524052 0.63439143 0
3.6650002 -1.5536951 0.63368797 0
3.6550002 -1.5549487 0.63298446 0
3.6460001 -1.5566317 0.63235128 0
3.6360002 -1.557815 0.63164783 0
3.6270003 -1.5594313 0.6310147 0
3.6180003 -1.561015 0.63038158 0
3.6080003 -1.5620936 0.62967807 0
3.5990002 -1.5636106 0.62904489 0
3.5900002 -1.5650952 0.62841177 0
3.5810003 -1.5665473 0.62777865 0
3.5710003 -1.5674871 0.6270752 0
3.5620003 -1.5688723 0.62644207 0
3.5530002 -1.5702251 0.62580889 0
3.5440001 -1.5715455 0.62517577 0
3.5360003 -1.5733205 0.62461299 0
3.5270002 -1.5745778 0.62397981 0
3.5180001 -1.5758024 0.62334669 0
3.5090003 -1.5769949 0.62271357 0
3.5000002 -1.5781547 0.62208045 0
3.4920003 -1.5797782 0.62151766 0
3.4830003 -1.5808749 0.62088454 0
3.4750001 -1.5824387 0.62032169 0
3.4660003 -1.5834724 0.61968857 0
3.4580002 -1.5849767 0.61912578 0
3.4490004 -1.5859473 0.61849266 0
3.4410002 -1.5873921 0.61792988 0
3.4320002 -1.5882994 0.6172967 0
3.4240003 -1.5896847 0.61673391 0
3.4160001 -1.5910411 0.61617112 0
3.4080002 -1.5923687 0.61560833 0
3.4000003 -1.5936675 0.61504555 0
3.3920002 -1.5949373 0.61448276 0
3.3830001 -1.5956588 0.61384964 0
3.3750002 -1.5968692 0.61328685 0
3.3670003 -1.5980507 0.61272407 0
3.3600001 -1.5997281 0.61223161 0
3.3520002 -1.6008539 0.61166883 0
3.3440003 -1.6019505 0.61110604 0
3.3360002 -1.6030184 0.61054325 0
3.3280003 -1.6040574 0.60998046 0
3.3200002 -1.6050675 0.60941768 0
3.3130002 -1.6065844 0.60892522 0
3.3050003 -1.6075388 0.60836244 0
3.2980003 -1.6090035 0.60787004 0
3.2900002 -1.6099018 0.60730726 0
3.2820003 -1.6107712 0.60674447 0
3.2750003 -1.6121565 0.60625201 0
3.2680001 -1.6135166 0.60575956 0
3.2600002 -1.6143031 0.60519677 0
3.2530003 -1.6156108 0.60470438 0
3.2450001 -1.6163412 0.60414153 0
3.2380002 -1.6175967 0.60364914 0
3.2310002 -1.6188269 0.60315669 0
3.2240002 -1.620032 0.60266423 0
3.2160003 -1.6206526 0.60210145 0
3.2090001 -1.621805 0.60160899 0
3.2020001 -1.6229324 0.60111654 0
3.1950002 -1.6240345 0.60062414 0
3.1880002 -1.6251113 0.60013169 0
3.1810002 -1.626163 0.59963924 0
3.1740003 -1.6271894 0.59914684 0
3.1670003 -1.6281905 0.59865439 0
3.1600003 -1.6291665 0.59816194 0
3.7040002 -1.5478652 0.63047171 0
3.6940002 -1.5492613 0.62978631 0
3.6840003 -1.5506214 0.62910086 0
3.6750002 -1.5524052 0.62848395 0
3.6650002 -1.5536951 0.6277985 0
3.6550002 -1.5549487 0.62711304 0
3.6460001 -1.5566317 0.62649614 0
3.6360002 -1.557815 0.62581068 0
3.6270003 -1.5594313 0.62519383 0
3.6180003 -1.561015 0.62457693 0
3.6080003 -1.5620936 0.62389147 0
3.5990002 -1.5636106 0.62327456 0
3.5900002 -1.5650952 0.62265766 0
3.5810003 -1.5665473 0.62204075 0
3.5710003 -1.5674871 0.6213553 0
3.5620003 -1.5688723 0.62073839 0
3.5530002 -1.5702251 0.62012148 0
3.5440001 -1.5715455 0.61950457 0
3.5360003 -1.5733205 0.61895621 0
3.5270002 -1.5745778 0.6183393 0
3.5180001 -1.5758024 0.61772239 0
3.5090003 -1.5769949 0.61710554 0
3.5000002 -1.5781547 0.61648864 0
3.4920003 -1.5797782 0.61594027 0
3.4830003 -1.5808749 0.61532336 0
3.4750001 -1.5824387 0.614775 0
3.4660003 -1.5834724 0.61415809 0
3.4580002 -1.5849767 0.61360973 0
3.4490004 -1.5859473 0.61299288 0
3.4410002 -1.5873921 0.61244452 0
3.4320002 -1.5882994 0.61182761 0
3.4240003 -1.5896847 0.61127925 0
3.4160001 -1.5910411 0.61073089 0
3.4080002 -1.5923687 0.61018252 0
3.4000003 -1.5936675 0.60963416 0
3.3920002 -1.5949373 0.6090858 0
3.3830001 -1.5956588 0.60846889 0
3.3750002 -1.5968692 0.60792053 0
3.3670003 -1.5980507 0.60737216 0
3.3600001 -1.5997281 0.60689235 0
3.3520002 -1.6008539 0.60634398 0
3.3440003 -1.6019505 0.60579562 0
3.3360002 -1.6030184 0.60524726 0
3.3280003 -1.6040574 0.60469896 0
3.3200002 -1.6050675 0.60415059 0
3.3130002 -1.6065844 0.60367078 0
3.3050003 -1.6075388 0.60312241 0
3.2980003 -1.6090035 0.6026426 0
3.2900002 -1.6099018 0.60209423 0
3.2820003 -1.6107712 0.60154587 0
3.2750003 -1.6121565 0.60106605 0
3.2680001 -1.6135166 0.60058624 0
3.2600002 -1.6143031 0.60003793 0
3.2530003 -1.6156108 0.59955812 0
3.2450001 -1.6163412 0.59900969 0
3.2380002 -1.6175967 0.59852993 0
3.2310002 -1.6188269 0.59805012 0
3.2240002 -1.620032 0.5975703 0
3.2160003 -1.6206526 0.59702194 0
3.2090001 -1.621805 0.59654212 0
3.2020001 -1.6229324 0.5960623 0
3.1950002 -1.6240345 0.59558249 0
3.1880002 -1.6251113 0.59510267 0
3.1810002 -1.626163 0.59462285 0
3.1740003 -1.6271894 0.59414303 0
3.1670003 -1.6281905 0.59366322 0
3.1600003 -1.6291665 0.5931834 0
3.7040002 -1.5478652 0.62451196 0
3.6940002 -1.5492613 0.62384456 0
3.6840003 -1.5506214 0.62317717 0
3.6750002 -1.5524052 0.62257648 0
3.6650002 -1.5536951 0.62190902 0
3.6550002 -1.5549487 0.62124169 0
3.6460001 -1.5566317 0.62064099 0
3.6360002 -1.557815 0.61997354 0
3.6270003 -1.5594313 0.6193729 0
3.6180003 -1.561015 0.61877227 0
3.6080003 -1.5620936 0.61810482 0
3.5990002 -1.5636106 0.61750418 0
3.5900002 -1.5650952 0.61690348 0
3.5810003 -1.5665473 0.61630285 0
3.5710003 -1.5674871 0.61563545 0
3.5620003 -1.5688723 0.61503476 0
3.5530002 -1.5702251 0.61443406 0
3.5440001 -1.5715455 0.61383343 0
3.5360003 -1.5733205 0.61329949 0
3.5270002 -1.5745778 0.61269879 0
3.5180001 -1.5758024 0.61209816 0
3.5090003 -1.5769949 0.61149752 0
3.5000002 -1.5781547 0.61089683 0
3.4920003 -1.5797782 0.61036289 0
3.4830003 -1.5808749 0.60976219 0
3.4750001 -1.5824387 0.60922825 0
3.4660003 -1.5834724 0.60862762 0
3.4580002 -1.5849767 0.60809368 0
3.4490004 -1.5859473 0.60749304 0
3.4410002 -1.5873921 0.6069591 0
3.4320002 -1.5882994 0.60635841 0
3.4240003 -1.5896847 0.60582453 0
3.4160001 -1.5910411 0.60529059 0
3.4080002 -1.5923687 0.60475665 0
3.4000003 -1.5936675 0.60422271 0
3.3920002 -1.5949373 0.60368878 0
3.3830001 -1.5956588 0.60308814 0
3.3750002 -1.5968692 0.6025542 0
3.3670003 -1.5980507 0.60202026 0
3.3600001 -1.5997281 0.60155308 0
3.3520002 -1.6008539 0.60101914 0
3.3440003 -1.6019505 0.60048527 0
3.3360002 -1.6030184 0.59995133 0
3.3280003 -1.6040574 0.59941739 0
3.3200002 -1.6050675 0.59888345 0
3.3130002 -1.6065844 0.59841627 0
3.3050003 -1.6075388 0.59788233 0
3.2980003 -1.6090035 0.59741515 0
3.2900002 -1.6099018 0.59688121 0
3.2820003 -1.6107712 0.59634733 0
3.2750003 -1.6121565 0.59588015 0
3.2680001 -1.6135166 0.59541291 0
3.2600002 -1.6143031 0.59487903 0
3.2530003 -1.6156108 0.59441185 0
3.2450001 -1.6163412 0.59387791 0
3.2380002 -1.6175967 0.59341073 0
3.2310002 -1.6188269 0.59294349 0
3.2240002 -1.620032 0.59247637 0
3.2160003 -1.6206526 0.59194243 0
3.2090001 -1.621805 0.59147519 0
3.2020001 -1.6229324 0.59100801 0
3.1950002 -1.6240345 0.59054083 0
3.1880002 -1.6251113 0.59007365 0
3.1810002 -1.626163 0.58960646 0
3.1740003 -1.6271894 0.58913928 0
3.1670003 -1.6281905 0.5886721 0
3.1600003 -1.6291665 0.58820492 0
3.7040002 -1.5478652 0.61855221 0
3.6940002 -1.5492613 0.61790282 0
3.6840003 -1.5506214 0.61725342 0
3.6750002 -1.5524052 0.616669 0
3.6650002 -1.5536951 0.61601961 0
3.6550002 -1.5549487 0.61537027 0
3.6460001 -1.5566317 0.61478579 0
3.6360002 -1.557815 0.61413646 0
3.6270003 -1.5594313 0.61355203 0
3.6180003 -1.561015 0.61296761 0
3.6080003 -1.5620936 0.61231822 0
3.5990002 -1.5636106 0.61173379 0
3.5900002 -1.5650952 0.61114937 0
3.5810003 -1.5665473 0.61056495 0
3.5710003 -1.5674871 0.60991555 0
3.5620003 -1.5688723 0.60933113 0
3.5530002 -1.5702251 0.60874665 0
3.5440001 -1.5715455 0.60816222 0
3.5360003 -1.5733205 0.60764277 0
3.5270002 -1.5745778 0.60705829 0
3.5180001 -1.5758024 0.60647386 0
3.5090003 -1.5769949 0.60588944 0
3.5000002 -1.5781547 0.60530502 0
3.4920003 -1.5797782 0.60478556 0
3.4830003 -1.5808749 0.60420108 0
3.4750001 -1.5824387 0.60368156 0
3.4660003 -1.5834724 0.60309714 0
3.4580002 -1.5849767 0.60257769 0
3.4490004 -1.5859473 0.6019932 0
3.4410002 -1.5873921 0.60147369 0
3.4320002 -1.5882994 0.60088927 0
3.4240003 -1.5896847 0.60036981 0
3.4160001 -1.5910411 0.5998503 0
3.4080002 -1.5923687 0.59933078 0
3.4000003 -1.5936675 0.59881133 0
3.3920002 -1.5949373 0.59829181 0
3.3830001 -1.5956588 0.59770739 0
3.3750002 -1.5968692 0.59718788 0
3.3670003 -1.5980507 0.59666836 0
3.3600001 -1.5997281 0.59621382 0
3.3520002 -1.6008539 0.5956943 0
3.3440003 -1.6019505 0.59517485 0
3.3360002 -1.6030184 0.59465533 0
3.3280003 -1.6040574 0.59413582 0
3.3200002 -1.6050675 0.59361637 0
3.3130002 -1.6065844 0.59316176 0
3.3050003 -1.6075388 0.59264231 0
3.2980003 -1.6090035 0.59218776 0
3.2900002 -1.6099018 0.59166825 0
3.2820003 -1.6107712 0.59114873 0
3.2750003 -1.6121565 0.59069419 0
3.2680001 -1.6135166 0.59023958 0
3.2600002 -1.6143031 0.58972013 0
3.2530003 -1.6156108 0.58926558 0
3.2450001 -1.6163412 0.58874607 0
3.2380002 -1.6175967 0.58829147 0
3.2310002 -1.6188269 0.58783692 0
3.2240002 -1.620032 0.58738238 0
3.2160003 -1.6206526 0.58686286 0
3.2090001 -1.621805 0.58640832 0
3.2020001 -1.6229324 0.58595377 0
3.1950002 -1.6240345 0.58549917 0
3.1880002 -1.6251113 0.58504462 0
3.1810002 -1.626163 0.58459008 0
3.1740003 -1.6271894 0.58413553 0
3.1670003 -1.6281905 0.58368099 0
3.1600003 -1.6291665 0.58322644 0
3.7040002 -1.5478652 0.6125924 0
3.6940002 -1.5492613 0.61196107 0
3.6840003 -1.5506214 0.61132973 0
3.6750002 -1.5524052 0.61076152 0
3.6650002 -1.5536951 0.61013019 0
3.6550002 -1.5549487 0.60949886 0
3.6460001 -1.5566317 0.60893065 0
3.6360002 -1.557815 0.60829931 0
3.6270003 -1.5594313 0.6077311 0
3.6180003 -1.561015 0.60716295 0
3.6080003 -1.5620936 0.60653162 0
3.5990002 -1.5636106 0.60596341 0
3.5900002 -1.5650952 0.6053952 0
3.5810003 -1.5665473 0.60482699 0
3.5710003 -1.5674871 0.60419565 0
3.5620003 -1.5688723 0.60362744 0
3.5530002 -1.5702251 0.60305929 0
3.5440001 -1.5715455 0.60249108 0
3.5360003 -1.5733205 0.60198599 0
3.5270002 -1.5745778 0.60141778 0
3.5180001 -1.5758024 0.60084963 0
3.5090003 -1.5769949 0.60028142 0
3.5000002 -1.5781547 0.59971321 0
3.4920003 -1.5797782 0.59920812 0
3.4830003 -1.5808749 0.59863997 0
3.4750001 -1.5824387 0.59813488 0
3.4660003 -1.5834724 0.59756666 0
3.4580002 -1.5849767 0.59706163 0
3.4490004 -1.5859473 0.59649342 0
3.4410002 -1.5873921 0.59598833 0
3.4320002 -1.5882994 0.59542012 0
3.4240003 -1.5896847 0.59491509 0
3.4160001 -1.5910411 0.59441 0
3.4080002 -1.5923687 0.59390497 0
3.4000003 -1.5936675 0.59339988 0
3.3920002 -1.5949373 0.59289479 0
3.3830001 -1.5956588 0.59232658 0
3.3750002 -1.5968692 0.59182155 0
3.3670003 -1.5980507 0.59131646 0
3.3600001 -1.5997281 0.59087455 0
3.3520002 -1.6008539 0.59036946 0
3.3440003 -1.6019505 0.58986443 0
3.3360002 -1.6030184 0.58935934 0
3.3280003 -1.6040574 0.58885431 0
3.3200002 -1.6050675 0.58834922 0
3.3130002 -1.6065844 0.58790725 0
3.3050003 -1.6075388 0.58740222 0
3.2980003 -1.6090035 0.58696032 0
3.2900002 -1.6099018 0.58645523 0
3.2820003 -1.6107712 0.58595014 0
3.2750003 -1.6121565 0.58550823 0
3.2680001 -1.6135166 0.58506632 0
3.2600002 -1.6143031 0.58456123 0
3.2530003 -1.6156108 0.58411926 0
3.2450001 -1.6163412 0.58361423 0
3.2380002 -1.6175967 0.58317226 0
3.2310002 -1.6188269 0.58273035 0
3.2240002 -1.620032 0.58228838 0
3.2160003 -1.6206526 0.58178335 0
3.2090001 -1.621805 0.58134139 0
3.2020001 -1.6229324 0.58089948 0
3.1950002 -1.6240345 0.58045757 0
3.1880002 -1.6251113 0.5800156 0
3.1810002 -1.626163 0.57957369 0
3.1740003 -1.6271894 0.57913172 0
3.1670003 -1.6281905 0.57868981 0
3.1600003 -1.6291665 0.5782479 0
3.7040002 -1.5478652 0.60663259 0
3.6940002 -1.5492613 0.60601932 0
3.6840003 -1.5506214 0.60540605 0
3.6750002 -1.5524052 0.60485405 0
3.6650002 -1.5536951 0.60424078 0
3.6550002 -1.5549487 0.60362744 0
3.6460001 -1.5566317 0.6030755 0
3.6360002 -1.557815 0.60246217 0
3.6270003 -1.5594313 0.60191023 0
3.6180003 -1.561015 0.60135829 0
3.6080003 -1.5620936 0.60074496 0
3.5990002 -1.5636106 0.60019302 0
3.5900002 -1.5650952 0.59964103 0
3.5810003 -1.5665473 0.59908909 0
3.5710003 -1.5674871 0.59847581 0
3.5620003 -1.5688723 0.59792382 0
3.5530002 -1.5702251 0.59737188 0
3.5440001 -1.5715455 0.59681988 0
3.5360003 -1.5733205 0.59632927 0
3.5270002 -1.5745778 0.59577727 0
3.5180001 -1.5758024 0.59522533 0
3.5090003 -1.5769949 0.5946734 0
3.5000002 -1.5781547 0.5941214 0
3.4920003 -1.5797782 0.59363079 0
3.4830003 -1.5808749 0.59307879 0
3.4750001 -1.5824387 0.59258819 0
3.4660003 -1.5834724 0.59203625 0
3.4580002 -1.5849767 0.59154558 0
3.4490004 -1.5859473 0.59099358 0
3.4410002 -1.5873921 0.59050298 0
3.4320002 -1.5882994 0.58995098 0
3.4240003 -1.5896847 0.58946037 0
3.4160001 -1.5910411 0.58896971 0
3.4080002 -1.5923687 0.5884791 0
3.4000003 -1.5936675 0.5879885 0
3.3920002 -1.5949373 0.58749783 0
3.3830001 -1.5956588 0.58694583 0
3.3750002 -1.5968692 0.58645523 0
3.3670003 -1.5980507 0.58596456 0
3.3600001 -1.5997281 0.58553529 0
3.3520002 -1.6008539 0.58504462 0
3.3440003 -1.6019505 0.58455402 0
3.3360002 -1.6030184 0.58406335 0
3.3280003 -1.6040574 0.58357275 0
3.3200002 -1.6050675 0.58308208 0
3.3130002 -1.6065844 0.58265281 0
3.3050003 -1.6075388 0.58216214 0
3.2980003 -1.6090035 0.58173287 0
3.2900002 -1.6099018 0.5812422 0
3.2820003 -1.6107712 0.5807516 0
3.2750003 -1.6121565 0.58032227 0
3.2680001 -1.6135166 0.57989299 0
3.2600002 -1.6143031 0.57940233 0
3.2530003 -1.6156108 0.57897305 0
3.2450001 -1.6163412 0.57848239 0
3.2380002 -1.6175967 0.57805306 0
3.2310002 -1.6188269 0.57762378 0
3.2240002 -1.620032 0.57719445 0
3.2160003 -1.6206526 0.57670385 0
3.2090001 -1.621805 0.57627451 0
3.2020001 -1.6229324 0.57584524 0
3.1950002 -1.6240345 0.57541591 0
3.1880002 -1.6251113 0.57498658 0
3.1810002 -1.626163 0.5745573 0
3.1740003 -1.6271894 0.57412803 0
3.1670003 -1.6281905 0.5736987 0
3.1600003 -1.6291665 0.57326937 0
3.7040002 -1.5478652 0.60067284 0
3.6940002 -1.5492613 0.60007757 0
3.6840003 -1.5506214 0.5994823 0
3.6750002 -1.5524052 0.59894657 0
3.6650002 -1.5536951 0.59835136 0
3.6550002 -1.5549487 0.59775609 0
3.6460001 -1.5566317 0.59722036 0
3.6360002 -1.557815 0.59662509 0
3.6270003 -1.5594313 0.59608936 0
3.6180003 -1.561015 0.59555364 0
3.6080003 -1.5620936 0.59495836 0
3.5990002 -1.5636106 0.59442264 0
3.5900002 -1.5650952 0.59388691 0
3.5810003 -1.5665473 0.59335119 0
3.5710003 -1.5674871 0.59275591 0
3.5620003 -1.5688723 0.59222019 0
3.5530002 -1.5702251 0.59168446 0
3.5440001 -1.5715455 0.59114873 0
3.5360003 -1.5733205 0.59067249 0
3.5270002 -1.5745778 0.59013677 0
3.5180001 -1.5758024 0.58960104 0
3.5090003 -1.5769949 0.58906531 0
3.5000002 -1.5781547 0.58852959 0
3.4920003 -1.5797782 0.58805341 0
3.4830003 -1.5808749 0.58751768 0
3.4750001 -1.5824387 0.58704144 0
3.4660003 -1.5834724 0.58650571 0
3.4580002 -1.5849767 0.58602953 0
3.4490004 -1.5859473 0.5854938 0
3.4410002 -1.5873921 0.58501756 0
3.4320002 -1.5882994 0.58448184 0
3.4240003 -1.5896847 0.58400565 0
3.4160001 -1.5910411 0.58352941 0
3.4080002 -1.5923687 0.58305323 0
3.4000003 -1.5936675 0.58257705 0
3.3920002 -1.5949373 0.58210081 0
3.3830001 -1.5956588 0.58156508 0
3.3750002 -1.5968692 0.5810889 0
3.3670003 -1.5980507 0.58061266 0
3.3600001 -1.5997281 0.58019602 0
3.3520002 -1.6008539 0.57971978 0
3.3440003 -1.6019505 0.5792436 0
3.3360002 -1.6030184 0.57876736 0
3.3280003 -1.6040574 0.57829118 0
3.3200002 -1.6050675 0.57781494 0
3.3130002 -1.6065844 0.5773983 0
3.3050003 -1.6075388 0.57692206 0
3.2980003 -1.6090035 0.57650542 0
3.2900002 -1.6099018 0.57602918 0
3.2820003 -1.6107712 0.575553 0
3.2750003 -1.6121565 0.5751363 0
3.2680001 -1.6135166 0.57471961 0
3.2600002 -1.6143031 0.57424343 0
3.2530003 -1.6156108 0.57382673 0
3.2450001 -1.6163412 0.57335055 0
3.2380002 -1.6175967 0.57293385 0
3.2310002 -1.6188269 0.57251716 0
3.2240002 -1.620032 0.57210052 0
3.2160003 -1.6206526 0.57162428 0
3.2090001 -1.621805 0.57120764 0
3.2020001 -1.6229324 0.57079095 0
3.1950002 -1.6240345 0.57037425 0
3.1880002 -1.6251113 0.56995761 0
3.1810002 -1.626163 0.56954092 0
3.1740003 -1.6271894 0.56912422 0
3.1670003 -1.6281905 0.56870759 0
3.1600003 -1.6291665 0.56829089 0
3.7040002 -1.5478652 0.59471303 0
3.6940002 -1.5492613 0.59413582 0
3.6840003 -1.5506214 0.59355861 0
3.6750002 -1.5524052 0.5930391 0
3.6650002 -1.5536951 0.59246188 0
3.6550002 -1.5549487 0.59188467 0
3.6460001 -1.5566317 0.59136516 0
3.6360002 -1.557815 0.59078795 0
3.6270003 -1.5594313 0.59026849 0
3.6180003 -1.561015 0.58974898 0
3.6080003 -1.5620936 0.58917177 0
3.5990002 -1.5636106 0.58865225 0
3.5900002 -1.5650952 0.58813274 0
3.5810003 -1.5665473 0.58761328 0
3.5710003 -1.5674871 0.58703601 0
3.5620003 -1.5688723 0.58651656 0
3.5530002 -1.5702251 0.58599705 0
3.5440001 -1.5715455 0.58547753 0
3.5360003 -1.5733205 0.58501577 0
3.5270002 -1.5745778 0.58449626 0
3.5180001 -1.5758024 0.58397675 0
3.5090003 -1.5769949 0.58345729 0
3.5000002 -1.5781547 0.58293778 0
3.4920003 -1.5797782 0.58247602 0
3.4830003 -1.5808749 0.58195651 0
3.4750001 -1.5824387 0.58149475 0
3.4660003 -1.5834724 0.58097523 0
3.4580002 -1.5849767 0.58051348 0
3.4490004 -1.5859473 0.57999396 0
3.4410002 -1.5873921 0.57953221 0
3.4320002 -1.5882994 0.57901269 0
3.4240003 -1.5896847 0.57855093 0
3.4160001 -1.5910411 0.57808912 0
3.4080002 -1.5923687 0.57762736 0
3.4000003 -1.5936675 0.5771656 0
3.3920002 -1.5949373 0.57670385 0
3.3830001 -1.5956588 0.57618433 0
3.3750002 -1.5968692 0.57572258 0
3.3670003 -1.5980507 0.57526076 0
3.3600001 -1.5997281 0.57485676 0
3.3520002 -1.6008539 0.57439494 0
3.3440003 -1.6019505 0.57393318 0
3.3360002 -1.6030184 0.57347143 0
3.3280003 -1.6040574 0.57300961 0
3.3200002 -1.6050675 0.57254785 0
3.3130002 -1.6065844 0.57214379 0
3.3050003 -1.6075388 0.57168204 0
3.2980003 -1.6090035 0.57127798 0
3.2900002 -1.6099018 0.57081622 0
3.2820003 -1.6107712 0.57035446 0
3.2750003 -1.6121565 0.56995034 0
3.2680001 -1.6135166 0.56954634 0
3.2600002 -1.6143031 0.56908453 0
3.2530003 -1.6156108 0.56868052 0
3.2450001 -1.6163412 0.56821871 0
3.2380002 -1.6175967 0.56781465 0
3.2310002 -1.6188269 0.56741059 0
3.2240002 -1.620032 0.56700659 0
3.2160003 -1.6206526 0.56654477 0
3.2090001 -1.621805 0.56614071 0
3.2020001 -1.6229324 0.56573665 0
3.1950002 -1.6240345 0.56533265 0
3.1880002 -1.6251113 0.56492853 0
3.1810002 -1.626163 0.56452453 0
3.1740003 -1.6271894 0.56412047 0
3.1670003 -1.6281905 0.56371641 0
3.1600003 -1.6291665 0.56331235 0
3.7040002 -1.5478652 0.58875328 0
3.6940002 -1.5492613 0.58819407 0
3.6840003 -1.5506214 0.58763492 0
3.6750002 -1.5524052 0.58713162 0
3.6650002 -1.5536951 0.58657247 0
3.6550002 -1.5549487 0.58601332 0
3.6460001 -1.5566317 0.58551002 0
3.6360002 -1.557815 0.5849508 0
3.6270003 -1.5594313 0.58444762 0
3.6180003 -1.561015 0.58394432 0
3.6080003 -1.5620936 0.58338511 0
3.5990002 -1.5636106 0.58288187 0
3.5900002 -1.5650952 0.58237863 0
3.5810003 -1.5665473 0.58187532 0
3.5710003 -1.5674871 0.58131617 0
3.5620003 -1.5688723 0.58081293 0
3.5530002 -1.5702251 0.58030963 0
3.5440001 -1.5715455 0.57980639 0
3.5360003 -1.5733205 0.57935905 0
3.5270002 -1.5745778 0.57885575 0
3.5180001 -1.5758024 0.57835251 0
3.5090003 -1.5769949 0.57784927 0
3.5000002 -1.5781547 0.57734597 0
3.4920003 -1.5797782 0.57689863 0
3.4830003 -1.5808749 0.57639539 0
3.4750001 -1.5824387 0.575948 0
3.4660003 -1.5834724 0.57544476 0
3.4580002 -1.5849767 0.57499743 0
3.4490004 -1.5859473 0.57449418 0
3.4410002 -1.5873921 0.57404685 0
3.4320002 -1.5882994 0.57354355 0
3.4240003 -1.5896847 0.57309622 0
3.4160001 -1.5910411 0.57264888 0
3.4080002 -1.5923687 0.57220149 0
3.4000003 -1.5936675 0.57175422 0
3.3920002 -1.5949373 0.57130682 0
3.3830001 -1.5956588 0.57080358 0
3.3750002 -1.5968692 0.57035625 0
3.3670003 -1.5980507 0.56990886 0
3.3600001 -1.5997281 0.56951743 0
3.3520002 -1.6008539 0.5690701 0
3.3440003 -1.6019505 0.56862277 0
3.3360002 -1.6030184 0.56817544 0
3.3280003 -1.6040574 0.5677281 0
3.3200002 -1.6050675 0.56728077 0
3.3130002 -1.6065844 0.56688929 0
3.3050003 -1.6075388 0.56644195 0
3.2980003 -1.6090035 0.56605053 0
3.2900002 -1.6099018 0.5656032 0
3.2820003 -1.6107712 0.56515586 0
3.2750003 -1.6121565 0.56476444 0
3.2680001 -1.6135166 0.56437302 0
3.2600002 -1.6143031 0.56392562 0
3.2530003 -1.6156108 0.56353426 0
3.2450001 -1.6163412 0.56308687 0
3.2380002 -1.6175967 0.56269544 0
3.2310002 -1.6188269 0.56230402 0
3.2240002 -1.620032 0.5619126 0
3.2160003 -1.6206526 0.56146526 0
3.2090001 -1.621805 0.56107384 0
3.2020001 -1.6229324 0.56068242 0
3.1950002 -1.6240345 0.56029099 0
3.1880002 -1.6251113 0.55989957 0
3.1810002 -1.626163 0.55950814 0
3.1740003 -1.6271894 0.55911672 0
3.1670003 -1.6281905 0.5587253 0
3.1600003 -1.6291665 0.55833387 0
3.7040002 -1.5478652 0.58279347 0
3.6940002 -1.5492613 0.58225238 0
3.6840003 -1.5506214 0.58171117 0
3.6750002 -1.5524052 0.58122414 0
3.6650002 -1.5536951 0.58068305 0
3.6550002 -1.5549487 0.5801419 0
3.6460001 -1.5566317 0.57965487 0
3.6360002 -1.557815 0.57911372 0
3.6270003 -1.5594313 0.57862669 0
3.6180003 -1.561015 0.57813966 0
3.6080003 -1.5620936 0.57759851 0
3.5990002 -1.5636106 0.57711148 0
3.5900002 -1.5650952 0.57662445 0
3.5810003 -1.5665473 0.57613742 0
3.5710003 -1.5674871 0.57559627 0
3.5620003 -1.5688723 0.57510924 0
3.5530002 -1.5702251 0.57462221 0
3.5440001 -1.5715455 0.57413518 0
3.5360003 -1.5733205 0.57370228 0
3.5270002 -1.5745778 0.57321525 0
3.5180001 -1.5758024 0.57272822 0
3.5090003 -1.5769949 0.57224119 0
3.5000002 -1.5781547 0.57175422 0
3.4920003 -1.5797782 0.57132125 0
3.4830003 -1.5808749 0.57083422 0
3.4750001 -1.5824387 0.57040131 0
3.4660003 -1.5834724 0.56991428 0
3.4580002 -1.5849767 0.56948137 0
3.4490004 -1.5859473 0.56899434 0
3.4410002 -1.5873921 0.56856143 0
3.4320002 -1.5882994 0.56807441 0
3.4240003 -1.5896847 0.5676415 0
3.4160001 -1.5910411 0.56720859 0
3.4080002 -1.5923687 0.56677568 0
3.4000003 -1.5936675 0.56634277 0
3.3920002 -1.5949373 0.56590986 0
3.3830001 -1.5956588 0.56542277 0
3.3750002 -1.5968692 0.56498992 0
3.3670003 -1.5980507 0.56455702 0
3.3600001 -1.5997281 0.56417817 0
3.3520002 -1.6008539 0.56374526 0
3.3440003 -1.6019505 0.56331235 0
3.3360002 -1.6030184 0.56287944 0
3.3280003 -1.6040574 0.56244653 0
3.3200002 -1.6050675 0.56201363 0
3.3130002 -1.6065844 0.56163478 0
3.3050003 -1.6075388 0.56120193 0
3.2980003 -1.6090035 0.56082308 0
3.2900002 -1.6099018 0.56039017 0
3.2820003 -1.6107712 0.55995727 0
3.2750003 -1.6121565 0.55957848 0
3.2680001 -1.6135166 0.55919969 0
3.2600002 -1.6143031 0.55876672 0
3.2530003 -1.6156108 0.55838799 0
3.2450001 -1.6163412 0.55795503 0
3.2380002 -1.6175967 0.55757624 0
3.2310002 -1.6188269 0.55719745 0
3.2240002 -1.620032 0.55681866 0
3.2160003 -1.6206526 0.55638576 0
3.2090001 -1.621805 0.55600691 0
3.2020001 -1.6229324 0.55562812 0
3.1950002 -1.6240345 0.55524933 0
3.1880002 -1.6251113 0.55487055 0
3.1810002 -1.626163 0.55449176 0
3.1740003 -1.6271894 0.55411291 0
3.1670003 -1.6281905 0.55373412 0
3.1600003 -1.6291665 0.55335534 0
3.7040002 -1.5478652 0.57683372 0
3.6940002 -1.5492613 0.57631058 0
3.6840003 -1.5506214 0.57578748 0
3.6750002 -1.5524052 0.57531667 0
3.6650002 -1.5536951 0.57479358 0
3.6550002 -1.5549487 0.57427049 0
3.6460001 -1.5566317 0.57379973 0
3.6360002 -1.557815 0.57327658 0
3.6270003 -1.5594313 0.57280582 0
3.6180003 -1.561015 0.572335 0
3.6080003 -1.5620936 0.57181191 0
3.5990002 -1.5636106 0.5713411 0
3.5900002 -1.5650952 0.57087028 0
3.5810003 -1.5665473 0.57039952 0
3.5710003 -1.5674871 0.56987643 0
3.5620003 -1.5688723 0.56940562 0
3.5530002 -1.5702251 0.5689348 0
3.5440001 -1.5715455 0.56846404 0
3.5360003 -1.5733205 0.56804556 0
3.5270002 -1.5745778 0.56757474 0
3.5180001 -1.5758024 0.56710398 0
3.5090003 -1.5769949 0.56663316 0
3.5000002 -1.5781547 0.56616235 0
3.4920003 -1.5797782 0.56574392 0
3.4830003 -1.5808749 0.56527311 0
3.4750001 -1.5824387 0.56485462 0
3.4660003 -1.5834724 0.56438386 0
3.4580002 -1.5849767 0.56396532 0
3.4490004 -1.5859473 0.56349456 0
3.4410002 -1.5873921 0.56307602 0
3.4320002 -1.5882994 0.56260526 0
3.4240003 -1.5896847 0.56218678 0
3.4160001 -1.5910411 0.56176829 0
3.4080002 -1.5923687 0.56134981 0
3.4000003 -1.5936675 0.56093132 0
3.3920002 -1.5949373 0.56051284 0
3.3830001 -1.5956588 0.56004202 0
3.3750002 -1.5968692 0.5596236 0
3.3670003 -1.5980507 0.55920506 0
3.3600001 -1.5997281 0.5588389 0
3.3520002 -1.6008539 0.55842042 0
3.3440003 -1.6019505 0.55800194 0
3.3360002 -1.6030184 0.55758345 0
3.3280003 -1.6040574 0.55716497 0
3.3200002 -1.6050675 0.55674648 0
3.3130002 -1.6065844 0.55638033 0
3.3050003 -1.6075388 0.55596185 0
3.2980003 -1.6090035 0.55559564 0
3.2900002 -1.6099018 0.55517721 0
3.2820003 -1.6107712 0.55475867 0
3.2750003 -1.6121565 0.55439252 0
3.2680001 -1.6135166 0.55402637 0
3.2600002 -1.6143031 0.55360788 0
3.2530003 -1.6156108 0.55324173 0
3.2450001 -1.6163412 0.55282319 0
3.2380002 -1.6175967 0.55245703 0
3.2310002 -1.6188269 0.55209088 0
3.2240002 -1.620032 0.55172467 0
3.2160003 -1.6206526 0.55130625 0
3.2090001 -1.621805 0.55094004 0
3.2020001 -1.6229324 0.55057383 0
3.1950002 -1.6240345 0.55020767 0
3.1880002 -1.6251113 0.54984152 0
3.1810002 -1.626163 0.54947531 0
3.1740003 -1.6271894 0.54910916 0
3.1670003 -1.6281905 0.54874301 0
3.1600003 -1.6291665 0.5483768 0
3.7040002 -1.5478652 0.57087392 0
3.6940002 -1.5492613 0.57036889 0
3.6840003 -1.5506214 0.5698638 0
3.6750002 -1.5524052 0.56940925 0
3.6650002 -1.5536951 0.56890416 0
3.6550002 -1.5549487 0.56839907 0
3.6460001 -1.5566317 0.56794453 0
3.6360002 -1.557815 0.56743944 0
3.6270003 -1.5594313 0.56698489 0
3.6180003 -1.561015 0.56653035 0
3.6080003 -1.5620936 0.56602526 0
