# .PCD v0.7 - Point Cloud Data file format
VERSION 0.7
FIELDS x y z intensity
SIZE 4 4 4 4
TYPE F F F F
COUNT 1 1 1 1
WIDTH 1456
HEIGHT 1
VIEWPOINT 0 0 0 1 0 0 0
POINTS 1456
DATA ascii
3.7500002 1.8816396 0.78469372 0
3.7580004 1.880186 0.78560287 0
3.7650003 1.8781313 0.78639835 0
3.7720003 1.8760515 0.78719383 0
3.7800002 1.8745147 0.78810292 0
3.7870002 1.8723825 0.78889841 0
3.7940001 1.8702251 0.78969389 0
3.8020003 1.8686054 0.79060304 0
3.8090003 1.8663957 0.79139853 0
3.8170002 1.8647199 0.79230762 0
3.8250003 1.8630154 0.79321671 0
3.8320003 1.8607262 0.79401219 0
3.8400002 1.8589659 0.79492128 0
3.8470004 1.8566246 0.79571682 0
3.8550003 1.854808 0.79662597 0
3.8630002 1.8529627 0.79753506 0
3.8710003 1.8510885 0.79844415 0
3.7430003 1.8836418 0.77786815 0
3.7500002 1.8816396 0.778651 0
3.7580004 1.880186 0.77954566 0
3.7650003 1.8781313 0.78032851 0
3.7720003 1.8760515 0.78111136 0
3.7800002 1.8745147 0.78200608 0
3.7870002 1.8723825 0.78278887 0
3.7940001 1.8702251 0.78357178 0
3.8020003 1.8686054 0.78446651 0
3.8090003 1.8663957 0.78524935 0
3.8170002 1.8647199 0.78614402 0
3.8250003 1.8630154 0.78703868 0
3.8320003 1.8607262 0.78782153 0
3.8400002 1.8589659 0.7887162 0
3.8470004 1.8566246 0.7894991 0
3.8550003 1.854808 0.79039377 0
3.8630002 1.8529627 0.7912885 0
3.8710003 1.8510885 0.79218316 0
3.7430003 1.8836418 0.77183795 0
3.7500002 1.8816396 0.77260822 0
3.7580004 1.880186 0.77348852 0
3.7650003 1.8781313 0.77425873 0
3.7720003 1.8760515 0.77502894 0
3.7800002 1.8745147 0.77590919 0
3.7870002 1.8723825 0.7766794 0
3.7940001 1.8702251 0.77744961 0
3.8020003 1.8686054 0.77832991 0
3.8090003 1.8663957 0.77910012 0
3.8170002 1.8647199 0.77998036 0
3.8250003 1.8630154 0.78086066 0
3.8320003 1.8607262 0.78163087 0
3.8400002 1.8589659 0.78251112 0
3.8470004 1.8566246 0.78328133 0
3.8550003 1.854808 0.78416157 0
3.8630002 1.8529627 0.78504181 0
3.8710003 1.8510885 0.78592217 0
3.7430003 1.8836418 0.76580787 0
3.7500002 1.8816396 0.76656544 0
3.7580004 1.880186 0.76743126 0
3.7650003 1.8781313 0.76818889 0
3.7720003 1.8760515 0.76894653 0
3.7800002 1.8745147 0.76981235 0
3.7870002 1.8723825 0.77056992 0
3.7940001 1.8702251 0.7713275 0
3.8020003 1.8686054 0.77219331 0
3.8090003 1.8663957 0.77295095 0
3.8170002 1.8647199 0.77381676 0
3.8250003 1.8630154 0.77468264 0
3.8320003 1.8607262 0.77544022 0
3.8400002 1.8589659 0.77630603 0
3.8470004 1.8566246 0.77706367 0
3.8550003 1.854808 0.77792943 0
3.8630002 1.8529627 0.77879524 0
3.8710003 1.8510885 0.77966112 0
3.7430003 1.8836418 0.75977778 0
3.7500002 1.8816396 0.76052272 0
3.7580004 1.880186 0.76137412 0
3.7650003 1.8781313 0.76211905 0
3.7720003 1.8760515 0.76286405 0
3.7800002 1.8745147 0.76371545 0
3.7870002 1.8723825 0.76446044 0
3.7940001 1.8702251 0.76520538 0
3.8020003 1.8686054 0.76605678 0
3.8090003 1.8663957 0.76680177 0
3.8170002 1.8647199 0.76765311 0
3.8250003 1.8630154 0.76850456 0
3.8320003 1.8607262 0.76924956 0
3.8400002 1.8589659 0.77010095 0
3.8470004 1.8566246 0.77084589 0
3.8550003 1.854808 0.77169728 0
3.8630002 1.8529627 0.77254868 0
3.8710003 1.8510885 0.77340007 0
3.7430003 1.8836418 0.75374758 0
3.7500002 1.8816396 0.75447994 0
3.7580004 1.880186 0.75531697 0
3.7650003 1.8781313 0.75604928 0
3.7720003 1.8760515 0.75678164 0
3.7800002 1.8745147 0.75761855 0
3.7870002 1.8723825 0.75835091 0
3.7940001 1.8702251 0.75908327 0
3.8020003 1.8686054 0.75992024 0
3.8090003 1.8663957 0.7606526 0
3.8170002 1.8647199 0.76148951 0
3.8240004 1.8624581 0.76222193 0
3.8320003 1.8607262 0.7630589 0
3.8400002 1.8589659 0.76389581 0
3.8470004 1.8566246 0.76462817 0
3.8550003 1.854808 0.76546514 0
3.8630002 1.8529627 0.76630211 0
3.8710003 1.8510885 0.76713908 0
3.7430003 1.8836418 0.7477175 0
3.7500002 1.8816396 0.74843717 0
3.7580004 1.880186 0.74925971 0
3.7650003 1.8781313 0.74997944 0
3.7720003 1.8760515 0.75069916 0
3.7800002 1.8745147 0.75152171 0
3.7870002 1.8723825 0.75224143 0
3.7940001 1.8702251 0.75296116 0
3.8020003 1.8686054 0.7537837 0
3.8090003 1.8663957 0.75450337 0
3.8170002 1.8647199 0.75532591 0
3.8240004 1.8624581 0.7560457 0
3.8320003 1.8607262 0.75686818 0
3.8400002 1.8589659 0.75769073 0
3.8470004 1.8566246 0.75841045 0
3.8550003 1.854808 0.759233 0
3.8630002 1.8529627 0.76005554 0
3.8710003 1.8510885 0.76087809 0
3.7430003 1.8836418 0.74168736 0
3.7500002 1.8816396 0.74239445 0
3.7580004 1.880186 0.74320257 0
3.7650003 1.8781313 0.74390966 0
3.7720003 1.8760515 0.74461675 0
3.7800002 1.8745147 0.74542481 0
3.7870002 1.8723825 0.7461319 0
3.7940001 1.8702251 0.74683899 0
3.8020003 1.8686054 0.74764717 0
3.8090003 1.8663957 0.7483542 0
3.8170002 1.8647199 0.74916232 0
3.8240004 1.8624581 0.74986947 0
3.8320003 1.8607262 0.75067753 0
3.8400002 1.8589659 0.75148559 0
3.8470004 1.8566246 0.75219274 0
3.8550003 1.854808 0.75300086 0
3.8630002 1.8529627 0.75380898 0
3.8710003 1.8510885 0.75461704 0
3.7430003 1.8836418 0.73565722 0
3.7500002 1.8816396 0.73635173 0
3.7580004 1.880186 0.73714536 0
3.7650003 1.8781313 0.73783982 0
3.7720003 1.8760515 0.73853427 0
3.7800002 1.8745147 0.73932797 0
3.7870002 1.8723825 0.74002242 0
3.7940001 1.8702251 0.74071687 0
3.8020003 1.8686054 0.74151063 0
3.8090003 1.8663957 0.74220502 0
3.8170002 1.8647199 0.74299872 0
3.8240004 1.8624581 0.74369317 0
3.8320003 1.8607262 0.74448687 0
3.8400002 1.8589659 0.7452805 0
3.8470004 1.8566246 0.74597502 0
3.8550003 1.854808 0.74676871 0
3.8630002 1.8529627 0.74756229 0
3.8710003 1.8510885 0.74835604 0
3.7430003 1.8836418 0.72962707 0
3.7500002 1.8816396 0.73030889 0
3.7580004 1.880186 0.73108816 0
3.7650003 1.8781313 0.73177004 0
3.7720003 1.8760515 0.73245186 0
3.7800002 1.8745147 0.73323107 0
3.7870002 1.8723825 0.73391294 0
3.7940001 1.8702251 0.73459476 0
3.8020003 1.8686054 0.73537397 0
3.8090003 1.8663957 0.73605585 0
3.8170002 1.8647199 0.73683512 0
3.8240004 1.8624581 0.73751694 0
3.8320003 1.8607262 0.73829615 0
3.8400002 1.8589659 0.73907542 0
3.8470004 1.8566246 0.7397573 0
3.8550003 1.854808 0.74053651 0
3.8630002 1.8529627 0.74131572 0
3.8710003 1.8510885 0.74209499 0
3.7430003 1.8836418 0.72359693 0
3.7500002 1.8816396 0.72426617 0
3.7580004 1.880186 0.72503102 0
3.7650003 1.8781313 0.7257002 0
3.7720003 1.8760515 0.72636938 0
3.7800002 1.8745147 0.72713423 0
3.7870002 1.8723825 0.72780341 0
3.7940001 1.8702251 0.72847265 0
3.8020003 1.8686054 0.72923744 0
3.8090003 1.8663957 0.72990668 0
3.8170002 1.8647199 0.73067147 0
3.8240004 1.8624581 0.73134071 0
3.8320003 1.8607262 0.73210549 0
3.8400002 1.8589659 0.73287034 0
3.8470004 1.8566246 0.73353958 0
3.8550003 1.854808 0.73430431 0
3.8630002 1.8529627 0.73506916 0
3.8710003 1.8510885 0.735834 0
3.7430003 1.8836418 0.71756685 0
3.7500002 1.8816396 0.71822345 0
3.7580004 1.880186 0.71897376 0
3.7650003 1.8781313 0.71963036 0
3.7720003 1.8760515 0.72028697 0
3.7800002 1.8745147 0.72103739 0
3.7870002 1.8723825 0.72169393 0
3.7940001 1.8702251 0.72235048 0
3.8020003 1.8686054 0.7231009 0
3.8090003 1.8663957 0.72375751 0
3.8170002 1.8647199 0.72450787 0
3.8240004 1.8624581 0.72516447 0
3.8320003 1.8607262 0.72591484 0
3.8400002 1.8589659 0.72666526 0
3.8470004 1.8566246 0.72732186 0
3.8550003 1.854808 0.72807217 0
3.8630002 1.8529627 0.72882259 0
3.8710003 1.8510885 0.72957295 0
3.7430003 1.8836418 0.71153671 0
3.7500002 1.8816396 0.71218061 0
3.7580004 1.880186 0.71291661 0
3.7650003 1.8781313 0.71356058 0
3.7720003 1.8760515 0.71420455 0
3.7800002 1.8745147 0.71494043 0
3.7870002 1.8723825 0.7155844 0
3.7940001 1.8702251 0.71622837 0
3.8020003 1.8686054 0.71696436 0
3.8090003 1.8663957 0.71760833 0
3.8170002 1.8647199 0.71834421 0
3.8240004 1.8624581 0.71898818 0
3.8320003 1.8607262 0.71972418 0
3.8400002 1.8589659 0.72046012 0
3.8470004 1.8566246 0.72110409 0
3.8550003 1.854808 0.72184002 0
3.8630002 1.8529627 0.72257602 0
3.8710003 1.8510885 0.72331196 0
3.7430003 1.8836418 0.70550656 0
3.7500002 1.8816396 0.7061379 0
3.7580004 1.880186 0.70685941 0
3.7650003 1.8781313 0.7074908 0
3.7720003 1.8760515 0.70812207 0
3.7800002 1.8745147 0.70884359 0
3.7870002 1.8723825 0.70947492 0
3.7940001 1.8702251 0.71010625 0
3.8020003 1.8686054 0.71082783 0
3.8090003 1.8663957 0.71145916 0
3.8170002 1.8647199 0.71218061 0
3.8240004 1.8624581 0.71281195 0
3.8320003 1.8607262 0.71353352 0
3.8400002 1.8589659 0.71425498 0
3.8470004 1.8566246 0.71488637 0
3.8550003 1.854808 0.71560788 0
3.8630002 1.8529627 0.71632946 0
3.8710003 1.8510885 0.71705091 0
3.7430003 1.8836418 0.69947642 0
3.7500002 1.8816396 0.70009518 0
3.7580004 1.880186 0.70080221 0
3.7650003 1.8781313 0.7014209 0
3.7720003 1.8760515 0.70203966 0
3.7800002 1.8745147 0.70274675 0
3.7870002 1.8723825 0.70336545 0
3.7940001 1.8702251 0.70398414 0
3.8020003 1.8686054 0.70469129 0
3.8090003 1.8663957 0.70530993 0
3.8170002 1.8647199 0.70601702 0
3.8240004 1.8624581 0.70663577 0
3.8320003 1.8607262 0.70734286 0
3.8400002 1.8589659 0.70804989 0
3.8470004 1.8566246 0.70866865 0
3.8550003 1.854808 0.70937574 0
3.8630002 1.8529627 0.71008277 0
3.8710003 1.8510885 0.71078992 0
3.7430003 1.8836418 0.69344628 0
3.7500002 1.8816396 0.69405234 0
3.7580004 1.880186 0.69474506 0
3.7650003 1.8781313 0.69535112 0
3.7720003 1.8760515 0.69595718 0
3.7800002 1.8745147 0.69664985 0
3.7870002 1.8723825 0.69725597 0
3.7940001 1.8702251 0.69786203 0
3.8020003 1.8686054 0.69855464 0
3.8090003 1.8663957 0.69916075 0
3.8170002 1.8647199 0.69985342 0
3.8240004 1.8624581 0.70045954 0
3.8320003 1.8607262 0.70115221 0
3.8400002 1.8589659 0.70184481 0
3.8470004 1.8566246 0.70245087 0
3.8550003 1.854808 0.7031436 0
3.8630002 1.8529627 0.7038362 0
3.8710003 1.8510885 0.70452893 0
3.7430003 1.8836418 0.6874162 0
3.7500002 1.8816396 0.68800962 0
3.7580004 1.880186 0.68868786 0
3.7650003 1.8781313 0.68928134 0
3.7720003 1.8760515 0.68987477 0
3.7800002 1.8745147 0.69055295 0
3.7870002 1.8723825 0.69114649 0
3.7940001 1.8702251 0.69173992 0
3.8020003 1.8686054 0.6924181 0
3.8090003 1.8663957 0.69301158 0
3.8170002 1.8647199 0.69368982 0
3.8240004 1.8624581 0.69428325 0
3.8320003 1.8607262 0.69496149 0
3.8400002 1.8589659 0.69563973 0
3.8470004 1.8566246 0.69623321 0
3.8550003 1.854808 0.69691145 0
3.8630002 1.8529627 0.69758964 0
3.8710003 1.8510885 0.69826788 0
3.7430003 1.8836418 0.68138605 0
3.7500002 1.8816396 0.6819669 0
3.7580004 1.880186 0.68263066 0
3.7650003 1.8781313 0.68321151 0
3.7720003 1.8760515 0.68379235 0
3.7800002 1.8745147 0.68445611 0
3.7870002 1.8723825 0.6850369 0
3.7940001 1.8702251 0.6856178 0
3.8020003 1.8686054 0.68628156 0
3.8090003 1.8663957 0.68686241 0
3.8170002 1.8647199 0.68752623 0
3.8240004 1.8624581 0.68810701 0
3.8320003 1.8607262 0.68877083 0
3.8400002 1.8589659 0.68943465 0
3.8470004 1.8566246 0.69001544 0
3.8550003 1.854808 0.69067925 0
3.8630002 1.8529627 0.69134307 0
3.8710003 1.8510885 0.69200689 0
3.7430003 1.8836418 0.67535591 0
3.7500002 1.8816396 0.67592406 0
3.7580004 1.880186 0.67657351 0
3.7650003 1.8781313 0.67714167 0
3.7720003 1.8760515 0.67770988 0
3.7800002 1.8745147 0.67835927 0
3.7870002 1.8723825 0.67892742 0
3.7940001 1.8702251 0.67949563 0
3.8020003 1.8686054 0.68014503 0
3.8090003 1.8663957 0.68071324 0
3.8170002 1.8647199 0.68136257 0
3.8240004 1.8624581 0.68193078 0
3.8320003 1.8607262 0.68258011 0
3.8400002 1.8589659 0.68322951 0
3.8470004 1.8566246 0.68379772 0
3.8550003 1.854808 0.68444711 0
3.8630002 1.8529627 0.6850965 0
3.8710003 1.8510885 0.68574584 0
3.7430003 1.8836418 0.66932577 0
3.7500002 1.8816396 0.66988134 0
3.7580004 1.880186 0.67051631 0
3.7650003 1.8781313 0.67107189 0
3.7720003 1.8760515 0.6716274 0
3.7800002 1.8745147 0.67226237 0
3.7870002 1.8723825 0.67281795 0
3.7940001 1.8702251 0.67337346 0
3.8020003 1.8686054 0.67400849 0
3.8090003 1.8663957 0.674564 0
3.8170002 1.8647199 0.67519897 0
3.8240004 1.8624581 0.67575455 0
3.8320003 1.8607262 0.67638946 0
3.8400002 1.8589659 0.67702442 0
3.8470004 1.8566246 0.67758 0
3.8550003 1.854808 0.67821491 0
3.8630002 1.8529627 0.67884988 0
3.8710003 1.8510885 0.67948484 0
3.7430003 1.8836418 0.66329563 0
3.7500002 1.8816396 0.66383862 0
3.7580004 1.880186 0.66445911 0
3.7650003 1.8781313 0.66500205 0
3.7720003 1.8760515 0.66554499 0
3.7800002 1.8745147 0.66616547 0
3.7870002 1.8723825 0.66670847 0
3.7940001 1.8702251 0.66725135 0
3.8020003 1.8686054 0.66787195 0
3.8090003 1.8663957 0.66841483 0
3.8170002 1.8647199 0.66903532 0
3.8240004 1.8624581 0.66957831 0
3.8320003 1.8607262 0.6701988 0
3.8400002 1.8589659 0.67081928 0
3.8470004 1.8566246 0.67136228 0
3.8550003 1.854808 0.67198277 0
3.8630002 1.8529627 0.67260325 0
3.8710003 1.8510885 0.67322379 0
3.7430003 1.8836418 0.65726554 0
3.7500002 1.8816396 0.65779585 0
3.7580004 1.880186 0.65840191 0
3.7650003 1.8781313 0.65893221 0
3.7720003 1.8760515 0.65946257 0
3.7800002 1.8745147 0.66006863 0
3.7870002 1.8723825 0.66059893 0
3.7940001 1.8702251 0.66112924 0
3.8020003 1.8686054 0.66173536 0
3.8090003 1.8663957 0.66226566 0
3.8170002 1.8647199 0.66287172 0
3.8240004 1.8624581 0.66340208 0
3.8320003 1.8607262 0.66400814 0
3.8400002 1.8589659 0.6646142 0
3.8470004 1.8566246 0.66514456 0
3.8550003 1.854808 0.66575062 0
3.8630002 1.8529627 0.66635668 0
3.8710003 1.8510885 0.6669628 0
3.7430003 1.8836418 0.65123534 0
3.7500002 1.8816396 0.65175307 0
3.7580004 1.880186 0.6523447 0
3.7650003 1.8781313 0.65286243 0
3.7720003 1.8760515 0.65338016 0
3.7800002 1.8745147 0.65397173 0
3.7870002 1.8723825 0.65448946 0
3.7940001 1.8702251 0.65500712 0
3.8020003 1.8686054 0.65559876 0
3.8090003 1.8663957 0.65611649 0
3.8170002 1.8647199 0.65670812 0
3.8240004 1.8624581 0.65722585 0
3.8320003 1.8607262 0.65781748 0
3.8400002 1.8589659 0.65840912 0
3.8470004 1.8566246 0.65892684 0
3.8550003 1.854808 0.65951848 0
3.8630002 1.8529627 0.66011012 0
3.8710003 1.8510885 0.66070175 0
3.7430003 1.8836418 0.64520526 0
3.7500002 1.8816396 0.64571029 0
3.7580004 1.880186 0.64628756 0
3.7650003 1.8781313 0.64679259 0
3.7720003 1.8760515 0.64729768 0
3.7800002 1.8745147 0.64787489 0
3.7870002 1.8723825 0.64837998 0
3.7940001 1.8702251 0.64888501 0
3.8020003 1.8686054 0.64946222 0
3.8090003 1.8663957 0.64996731 0
3.8170002 1.8647199 0.65054452 0
3.8240004 1.8624581 0.65104961 0
3.8320003 1.8607262 0.65162683 0
3.8400002 1.8589659 0.65220404 0
3.8470004 1.8566246 0.65270913 0
3.8550003 1.854808 0.65328634 0
3.8630002 1.8529627 0.65386355 0
3.8710003 1.8510885 0.65444076 0
3.7430003 1.8836418 0.63917512 0
3.7500002 1.8816396 0.63966757 0
3.7580004 1.880186 0.64023036 0
3.7650003 1.8781313 0.64072281 0
3.7720003 1.8760515 0.64121521 0
3.7800002 1.8745147 0.64177799 0
3.7870002 1.8723825 0.64227045 0
3.7940001 1.8702251 0.6427629 0
3.8020003 1.8686054 0.64332569 0
3.8090003 1.8663957 0.64381814 0
3.8170002 1.8647199 0.64438093 0
3.8240004 1.8624581 0.64487338 0
3.8320003 1.8607262 0.64543617 0
3.8400002 1.8589659 0.64599895 0
3.8470004 1.8566246 0.64649141 0
3.8550003 1.854808 0.6470542 0
3.8630002 1.8529627 0.64761692 0
3.8710003 1.8510885 0.64817971 0
3.7430003 1.8836418 0.63314497 0
3.7500002 1.8816396 0.63362479 0
3.7580004 1.880186 0.63417315 0
3.7650003 1.8781313 0.63465297 0
3.7720003 1.8760515 0.63513279 0
3.7800002 1.8745147 0.63568115 0
3.7870002 1.8723825 0.63616097 0
3.7940001 1.8702251 0.63664079 0
3.8020003 1.8686054 0.63718915 0
3.8090003 1.8663957 0.63766897 0
3.8170002 1.8647199 0.63821733 0
3.8240004 1.8624581 0.63869715 0
3.8320003 1.8607262 0.63924545 0
3.8400002 1.8589659 0.63979381 0
3.8470004 1.8566246 0.64027363 0
3.8550003 1.854808 0.64082199 0
3.8630002 1.8529627 0.64137036 0
3.8710003 1.8510885 0.64191872 0
3.7430003 1.8836418 0.62711489 0
3.7500002 1.8816396 0.62758207 0
3.7570002 1.8796121 0.62804925 0
3.7650003 1.8781313 0.62858319 0
3.7720003 1.8760515 0.62905037 0
3.7800002 1.8745147 0.62958425 0
3.7870002 1.8723825 0.63005143 0
3.7940001 1.8702251 0.63051867 0
3.8020003 1.8686054 0.63105255 0
3.8090003 1.8663957 0.63151973 0
3.8170002 1.8647199 0.63205367 0
3.8240004 1.8624581 0.63252091 0
3.8320003 1.8607262 0.63305479 0
3.8400002 1.8589659 0.63358873 0
3.8470004 1.8566246 0.63405591 0
3.8550003 1.854808 0.63458985 0
3.8630002 1.8529627 0.63512373 0
3.8710003 1.8510885 0.63565767 0
3.7430003 1.8836418 0.62108475 0
3.7500002 1.8816396 0.62153929 0
3.7570002 1.8796121 0.62199384 0
3.7650003 1.8781313 0.62251335 0
3.7720003 1.8760515 0.6229679 0
3.7800002 1.8745147 0.62348741 0
3.7870002 1.8723825 0.62394196 0
3.7940001 1.8702251 0.6243965 0
3.8020003 1.8686054 0.62491602 0
3.8090003 1.8663957 0.62537056 0
3.8170002 1.8647199 0.62589008 0
3.8240004 1.8624581 0.62634462 0
3.8320003 1.8607262 0.62686414 0
3.8400002 1.8589659 0.62738359 0
3.8470004 1.8566246 0.62783819 0
3.8550003 1.854808 0.62835765 0
3.8630002 1.8529627 0.62887716 0
3.8710003 1.8510885 0.62939668 0
3.7430003 1.8836418 0.61505461 0
3.7500002 1.8816396 0.61549652 0
3.7570002 1.8796121 0.61593843 0
3.7650003 1.8781313 0.61644351 0
3.7720003 1.8760515 0.61688542 0
3.7800002 1.8745147 0.61739051 0
3.7870002 1.8723825 0.61783248 0
3.7940001 1.8702251 0.61827439 0
3.8020003 1.8686054 0.61877948 0
3.8090003 1.8663957 0.61922139 0
3.8170002 1.8647199 0.61972642 0
3.8240004 1.8624581 0.62016839 0
3.8320003 1.8607262 0.62067342 0
3.8400002 1.8589659 0.62117851 0
3.8470004 1.8566246 0.62162048 0
3.8550003 1.854808 0.62212551 0
3.8630002 1.8529627 0.6226306 0
3.8710003 1.8510885 0.62313569 0
3.7430003 1.8836418 0.60902447 0
3.7500002 1.8816396 0.6094538 0
3.7570002 1.8796121 0.60988307 0
3.7650003 1.8781313 0.61037374 0
3.7720003 1.8760515 0.61080301 0
3.7800002 1.8745147 0.61129367 0
3.7870002 1.8723825 0.61172295 0
3.7940001 1.8702251 0.61215228 0
3.8020003 1.8686054 0.61264288 0
3.8090003 1.8663957 0.61307222 0
3.8170002 1.8647199 0.61356282 0
3.8240004 1.8624581 0.61399215 0
3.8320003 1.8607262 0.61448276 0
3.8400002 1.8589659 0.61497343 0
3.8470004 1.8566246 0.6154027 0
3.8550003 1.854808 0.61589336 0
3.8630002 1.8529627 0.61638403 0
3.8710003 1.8510885 0.61687464 0
3.7430003 1.8836418 0.60299432 0
3.7500002 1.8816396 0.60341102 0
3.7570002 1.8796121 0.60382771 0
3.7650003 1.8781313 0.6043039 0
3.7720003 1.8760515 0.60472059 0
3.7800002 1.8745147 0.60519677 0
3.7870002 1.8723825 0.60561347 0
3.7940001 1.8702251 0.60603011 0
3.8020003 1.8686054 0.60650635 0
3.8090003 1.8663957 0.60692304 0
3.8170002 1.8647199 0.60739923 0
3.8240004 1.8624581 0.60781592 0
3.8320003 1.8607262 0.6082921 0
3.8400002 1.8589659 0.60876834 0
3.8470004 1.8566246 0.60918498 0
3.8550003 1.854808 0.60966122 0
3.8630002 1.8529627 0.6101374 0
3.8710003 1.8510885 0.61061364 0
3.7430003 1.8836418 0.59696424 0
3.7500002 1.8816396 0.59736824 0
3.7570002 1.8796121 0.5977723 0
3.7650003 1.8781313 0.59823406 0
3.7720003 1.8760515 0.59863818 0
3.7800002 1.8745147 0.59909987 0
3.7870002 1.8723825 0.59950399 0
3.7940001 1.8702251 0.59990799 0
3.8020003 1.8686054 0.60036981 0
3.8090003 1.8663957 0.60077381 0
3.8170002 1.8647199 0.60123563 0
3.8240004 1.8624581 0.60163969 0
3.8320003 1.8607262 0.60210145 0
3.8400002 1.8589659 0.6025632 0
3.8470004 1.8566246 0.60296726 0
3.8550003 1.854808 0.60342908 0
3.8630002 1.8529627 0.60389084 0
3.8710003 1.8510885 0.60435259 0
3.7430003 1.8836418 0.59093404 0
3.7500002 1.8816396 0.59132552 0
3.7570002 1.8796121 0.59171689 0
3.7650003 1.8781313 0.59216428 0
3.7720003 1.8760515 0.5925557 0
3.7800002 1.8745147 0.59300303 0
3.7870002 1.8723825 0.59339446 0
3.7940001 1.8702251 0.59378588 0
3.8020003 1.8686054 0.59423327 0
3.8090003 1.8663957 0.59462464 0
3.8170002 1.8647199 0.59507203 0
3.8240004 1.8624581 0.59546345 0
3.8320003 1.8607262 0.59591079 0
3.8400002 1.8589659 0.59635812 0
3.8470004 1.8566246 0.59674954 0
3.8550003 1.854808 0.59719688 0
3.8630002 1.8529627 0.59764421 0
3.8710003 1.8510885 0.5980916 0
3.7430003 1.8836418 0.58490396 0
3.7500002 1.8816396 0.58528274 0
3.7570002 1.8796121 0.58566153 0
3.7650003 1.8781313 0.58609444 0
3.7720003 1.8760515 0.58647323 0
3.7800002 1.8745147 0.58690619 0
3.7870002 1.8723825 0.58728498 0
3.7940001 1.8702251 0.58766377 0
3.8020003 1.8686054 0.58809668 0
3.8090003 1.8663957 0.58847547 0
3.8170002 1.8647199 0.58890837 0
3.8240004 1.8624581 0.58928722 0
3.8320003 1.8607262 0.58972013 0
3.8400002 1.8589659 0.59015304 0
3.8470004 1.8566246 0.59053183 0
3.8550003 1.854808 0.59096473 0
3.8630002 1.8529627 0.59139764 0
3.8710003 1.8510885 0.59183055 0
3.7430003 1.8836418 0.57887381 0
3.7500002 1.8816396 0.57923996 0
3.7570002 1.8796121 0.57960618 0
3.7650003 1.8781313 0.58002466 0
3.7720003 1.8760515 0.58039081 0
3.7800002 1.8745147 0.5808093 0
3.7870002 1.8723825 0.58117545 0
3.7940001 1.8702251 0.58154166 0
3.8020003 1.8686054 0.58196014 0
3.8090003 1.8663957 0.58232629 0
3.8170002 1.8647199 0.58274478 0
3.8240004 1.8624581 0.58311093 0
3.8320003 1.8607262 0.58352947 0
3.8400002 1.8589659 0.5839479 0
3.8470004 1.8566246 0.58431411 0
3.8550003 1.854808 0.58473259 0
3.8630002 1.8529627 0.58515108 0
3.8710003 1.8510885 0.58556956 0
3.7430003 1.8836418 0.57284367 0
3.7500002 1.8816396 0.57319725 0
3.7570002 1.8796121 0.57355076 0
3.7650003 1.8781313 0.57395482 0
3.7720003 1.8760515 0.5743084 0
3.7800002 1.8745147 0.5747124 0
3.7870002 1.8723825 0.57506597 0
3.7940001 1.8702251 0.57541949 0
3.8020003 1.8686054 0.57582355 0
3.8090003 1.8663957 0.57617712 0
3.8170002 1.8647199 0.57658118 0
3.8240004 1.8624581 0.5769347 0
3.8320003 1.8607262 0.57733876 0
3.8400002 1.8589659 0.57774282 0
3.8470004 1.8566246 0.57809639 0
3.8550003 1.854808 0.57850039 0
3.8630002 1.8529627 0.57890451 0
3.8710003 1.8510885 0.57930851 0
3.7430003 1.8836418 0.56681353 0
3.7500002 1.8816396 0.56715447 0
3.7570002 1.8796121 0.56749535 0
3.7650003 1.8781313 0.56788504 0
3.7720003 1.8760515 0.56822592 0
3.7800002 1.8745147 0.56861556 0
3.7870002 1.8723825 0.56895649 0
3.7940001 1.8702251 0.56929737 0
3.8020003 1.8686054 0.56968701 0
3.8090003 1.8663957 0.57002795 0
3.8170002 1.8647199 0.57041752 0
3.8240004 1.8624581 0.57075846 0
3.8320003 1.8607262 0.5711481 0
3.8400002 1.8589659 0.57153773 0
3.8470004 1.8566246 0.57187867 0
3.8550003 1.854808 0.57226825 0
3.8630002 1.8529627 0.57265788 0
3.8710003 1.8510885 0.57304752 0
3.7430003 1.8836418 0.56078339 0
3.7500002 1.8816396 0.56111169 0
3.7570002 1.8796121 0.56143999 0
3.7650003 1.8781313 0.5618152 0
3.7720003 1.8760515 0.5621435 0
3.7800002 1.8745147 0.56251872 0
3.7870002 1.8723825 0.56284696 0
3.7940001 1.8702251 0.56317526 0
3.8020003 1.8686054 0.56355047 0
3.8090003 1.8663957 0.56387877 0
3.8170002 1.8647199 0.56425393 0
3.8240004 1.8624581 0.56458223 0
3.8320003 1.8607262 0.56495744 0
3.8400002 1.8589659 0.56533265 0
3.8470004 1.8566246 0.56566095 0
3.8550003 1.854808 0.56603611 0
3.8630002 1.8529627 0.56641132 0
3.8710003 1.8510885 0.56678647 0
3.7430003 1.8836418 0.5547533 0
3.7500002 1.8816396 0.55506897 0
3.7570002 1.8796121 0.55538464 0
3.7650003 1.8781313 0.55574536 0
3.7720003 1.8760515 0.55606103 0
3.7800002 1.8745147 0.55642182 0
3.7870002 1.8723825 0.55673748 0
3.7940001 1.8702251 0.55705315 0
3.8020003 1.8686054 0.55741394 0
3.8090003 1.8663957 0.5577296 0
3.8170002 1.8647199 0.55809033 0
3.8240004 1.8624581 0.558406 0
3.8320003 1.8607262 0.55876672 0
3.8400002 1.8589659 0.55912751 0
3.8470004 1.8566246 0.55944318 0
3.8550003 1.854808 0.55980396 0
3.8630002 1.8529627 0.56016469 0
3.8710003 1.8510885 0.56052548 0
3.7430003 1.8836418 0.54872316 0
3.7500002 1.8816396 0.54902619 0
3.7570002 1.8796121 0.54932922 0
3.7650003 1.8781313 0.54967558 0
3.7720003 1.8760515 0.54997861 0
3.7800002 1.8745147 0.55032492 0
3.7870002 1.8723825 0.55062795 0
3.7940001 1.8702251 0.55093098 0
3.8020003 1.8686054 0.55127734 0
3.8090003 1.8663957 0.55158037 0
3.8170002 1.8647199 0.55192673 0
3.8240004 1.8624581 0.55222976 0
3.8320003 1.8607262 0.55257607 0
3.8400002 1.8589659 0.55292243 0
3.8470004 1.8566246 0.55322546 0
3.8550003 1.854808 0.55357182 0
3.8630002 1.8529627 0.55391812 0
3.8710003 1.8510885 0.55426443 0
3.7430003 1.8836418 0.54269302 0
3.7500002 1.8816396 0.54298341 0
3.7570002 1.8796121 0.54327387 0
3.7650003 1.8781313 0.54360574 0
3.7720003 1.8760515 0.5438962 0
3.7800002 1.8745147 0.54422808 0
3.7870002 1.8723825 0.54451847 0
3.7940001 1.8702251 0.54480886 0
3.8020003 1.8686054 0.5451408 0
3.8090003 1.8663957 0.5454312 0
3.8170002 1.8647199 0.54576313 0
3.8240004 1.8624581 0.54605353 0
3.8320003 1.8607262 0.54638541 0
3.8400002 1.8589659 0.54671729 0
3.8470004 1.8566246 0.54700774 0
3.8550003 1.854808 0.54733962 0
3.8630002 1.8529627 0.54767156 0
3.8710003 1.8510885 0.54800344 0
3.7430003 1.8836418 0.53666288 0
3.7500002 1.8816396 0.53694069 0
3.7570002 1.8796121 0.53721845 0
3.7650003 1.8781313 0.53753591 0
3.7720003 1.8760515 0.53781372 0
3.7800002 1.8745147 0.53813118 0
3.7870002 1.8723825 0.53840899 0
3.7940001 1.8702251 0.53868675 0
3.8020003 1.8686054 0.53900421 0
3.8090003 1.8663957 0.53928202 0
3.8170002 1.8647199 0.53959948 0
3.8240004 1.8624581 0.5398773 0
3.8320003 1.8607262 0.54019475 0
3.8400002 1.8589659 0.5405122 0
3.8470004 1.8566246 0.54079002 0
3.8550003 1.854808 0.54110748 0
3.8630002 1.8529627 0.54142493 0
3.8710003 1.8510885 0.54174244 0
3.7430003 1.8836418 0.53063273 0
3.7500002 1.8816396 0.53089792 0
3.7570002 1.8796121 0.5311631 0
3.7650003 1.8781313 0.53146613 0
3.7720003 1.8760515 0.53173125 0
3.7800002 1.8745147 0.53203434 0
3.7870002 1.8723825 0.53229946 0
3.7940001 1.8702251 0.53256464 0
3.8020003 1.8686054 0.53286767 0
3.8090003 1.8663957 0.53313285 0
3.8170002 1.8647199 0.53343588 0
3.8240004 1.8624581 0.53370106 0
3.8320003 1.8607262 0.53400409 0
3.8400002 1.8589659 0.53430712 0
3.8470004 1.8566246 0.5345723 0
3.8550003 1.854808 0.53487533 0
3.8630002 1.8529627 0.53517836 0
3.8710003 1.8510885 0.53548139 0
3.7430003 1.8836418 0.52460265 0
3.7500002 1.8816396 0.52485514 0
3.7570002 1.8796121 0.52510768 0
3.7650003 1.8781313 0.52539629 0
3.7720003 1.8760515 0.52564883 0
3.7800002 1.8745147 0.52593744 0
3.7870002 1.8723825 0.52618998 0
3.7940001 1.8702251 0.52644253 0
3.8020003 1.8686054 0.52673113 0
3.8090003 1.8663957 0.52698368 0
3.8170002 1.8647199 0.52727228 0
3.8240004 1.8624581 0.52752483 0
3.8320003 1.8607262 0.52781343 0
3.8400002 1.8589659 0.52810204 0
3.8470004 1.8566246 0.52835453 0
3.8550003 1.854808 0.52864319 0
3.8630002 1.8529627 0.52893174 0
3.8710003 1.8510885 0.5292204 0
3.7430003 1.8836418 0.51857251 0
3.7500002 1.8816396 0.51881242 0
3.7570002 1.8796121 0.51905233 0
3.7650003 1.8781313 0.51932651 0
3.7720003 1.8760515 0.51956642 0
3.7800002 1.8745147 0.5198406 0
3.7870002 1.8723825 0.52008051 0
3.7940001 1.8702251 0.52032042 0
3.8020003 1.8686054 0.5205946 0
3.8090003 1.8663957 0.52083445 0
3.8170002 1.8647199 0.52110863 0
3.8240004 1.8624581 0.5213486 0
3.8320003 1.8607262 0.52162272 0
3.8400002 1.8589659 0.5218969 0
3.8470004 1.8566246 0.52213681 0
3.8550003 1.854808 0.52241099 0
3.8630002 1.8529627 0.52268517 0
3.8710003 1.8510885 0.52295935 0
3.7430003 1.8836418 0.51254237 0
3.7500002 1.8816396 0.51276964 0
3.7570002 1.8796121 0.51299691 0
3.7650003 1.8781313 0.51325667 0
3.7720003 1.8760515 0.51348394 0
3.7800002 1.8745147 0.5137437 0
3.7870002 1.8723825 0.51397097 0
3.7940001 1.8702251 0.51419824 0
3.8020003 1.8686054 0.514458 0
3.8090003 1.8663957 0.51468527 0
3.8170002 1.8647199 0.51494503 0
3.8240004 1.8624581 0.5151723 0
3.8320003 1.8607262 0.51543206 0
3.8400002 1.8589659 0.51569182 0
3.8470004 1.8566246 0.51591909 0
3.8550003 1.854808 0.51617885 0
3.8630002 1.8529627 0.5164386 0
3.8710003 1.8510885 0.51669836 0
3.7430003 1.8836418 0.50651222 0
3.7500002 1.8816396 0.50672686 0
3.7570002 1.8796121 0.50694156 0
3.7650003 1.8781313 0.50718689 0
3.7720003 1.8760515 0.50740153 0
3.7800002 1.8745147 0.50764686 0
3.7870002 1.8723825 0.5078615 0
3.7940001 1.8702251 0.50807613 0
3.8020003 1.8686054 0.50832146 0
3.8090003 1.8663957 0.5085361 0
3.8170002 1.8647199 0.50878143 0
3.8240004 1.8624581 0.50899607 0
3.8320003 1.8607262 0.5092414 0
3.8400002 1.8589659 0.50948673 0
3.8470004 1.8566246 0.50970137 0
3.8550003 1.854808 0.5099467 0
3.8630002 1.8529627 0.51019204 0
3.8710003 1.8510885 0.51043731 0
3.7430003 1.8836418 0.50048208 0
3.7500002 1.8816396 0.50068414 0
3.7570002 1.8796121 0.50088614 0
3.7650003 1.8781313 0.50111705 0
3.7720003 1.8760515 0.50131905 0
3.7800002 1.8745147 0.50154996 0
3.7870002 1.8723825 0.50175202 0
3.7940001 1.8702251 0.50195402 0
3.8020003 1.8686054 0.50218493 0
3.8090003 1.8663957 0.50238693 0
3.8170002 1.8647199 0.50261784 0
3.8240004 1.8624581 0.50281984 0
3.8320003 1.8607262 0.50305074 0
3.8400002 1.8589659 0.50328159 0
3.8470004 1.8566246 0.50348365 0
3.8550003 1.854808 0.50371456 0
3.8630002 1.8529627 0.50394541 0
3.8710003 1.8510885 0.50417632 0
3.7430003 1.8836418 0.494452 0
3.7500002 1.8816396 0.49464136 0
3.7570002 1.8796121 0.49483079 0
3.7650003 1.8781313 0.49504724 0
3.7720003 1.8760515 0.49523664 0
3.7800002 1.8745147 0.49545309 0
3.7870002 1.8723825 0.49564248 0
3.7940001 1.8702251 0.49583188 0
3.8020003 1.8686054 0.49604833 0
3.8090003 1.8663957 0.49623775 0
3.8170002 1.8647199 0.49645421 0
3.8240004 1.8624581 0.4966436 0
3.8320003 1.8607262 0.49686006 0
3.8400002 1.8589659 0.49707651 0
3.8470004 1.8566246 0.49726593 0
3.8550003 1.854808 0.49748236 0
3.8630002 1.8529627 0.49769884 0
3.8710003 1.8510885 0.4979153 0
3.7430003 1.8836418 0.48842186 0
3.7500002 1.8816396 0.48859861 0
3.7570002 1.8796121 0.4887754 0
3.7650003 1.8781313 0.48897743 0
3.7720003 1.8760515 0.48915419 0
3.7800002 1.8745147 0.48935622 0
3.7870002 1.8723825 0.48953298 0
3.7940001 1.8702251 0.48970976 0
3.8020003 1.8686054 0.48991179 0
3.8090003 1.8663957 0.49008858 0
3.8170002 1.8647199 0.49029058 0
3.8240004 1.8624581 0.49046737 0
3.8320003 1.8607262 0.4906694 0
3.8400002 1.8589659 0.49087143 0
3.8470004 1.8566246 0.49104819 0
3.8550003 1.854808 0.49125022 0
3.8630002 1.8529627 0.49145225 0
3.8710003 1.8510885 0.49165428 0
3.7430003 1.8836418 0.48239172 0
3.7500002 1.8816396 0.48255587 0
3.7570002 1.8796121 0.48272002 0
3.7650003 1.8781313 0.48290759 0
3.7720003 1.8760515 0.48307174 0
3.7800002 1.8745147 0.48325935 0
3.7870002 1.8723825 0.4834235 0
3.7940001 1.8702251 0.48358762 0
3.8020003 1.8686054 0.48377523 0
3.8090003 1.8663957 0.48393938 0
3.8170002 1.8647199 0.48412699 0
3.8240004 1.8624581 0.48429114 0
3.8320003 1.8607262 0.48447871 0
3.8400002 1.8589659 0.48466632 0
3.8470004 1.8566246 0.48483047 0
3.8550003 1.854808 0.48501807 0
3.8630002 1.8529627 0.48520565 0
3.8710003 1.8510885 0.48539326 0
3.7430003 1.8836418 0.47636157 0
3.7500002 1.8816396 0.47651309 0
3.7570002 1.8796121 0.47666463 0
3.7650003 1.8781313 0.47683781 0
3.7720003 1.8760515 0.47698933 0
3.7800002 1.8745147 0.47716248 0
3.7870002 1.8723825 0.477314 0
3.7940001 1.8702251 0.47746551 0
3.8020003 1.8686054 0.47763866 0
3.8090003 1.8663957 0.47779021 0
3.8170002 1.8647199 0.47796336 0
3.8240004 1.8624581 0.4781149 0
3.8320003 1.8607262 0.47828805 0
3.8400002 1.8589659 0.47846121 0
3.8470004 1.8566246 0.47861272 0
3.8550003 1.854808 0.4787859 0
3.8630002 1.8529627 0.47895908 0
3.8710003 1.8510885 0.47913224 0
3.7430003 1.8836418 0.47033146 0
3.7500002 1.8816396 0.47047034 0
3.7570002 1.8796121 0.47060925 0
3.7650003 1.8781313 0.47076797 0
3.7720003 1.8760515 0.47090685 0
3.7800002 1.8745147 0.47106561 0
3.7870002 1.8723825 0.47120449 0
3.7940001 1.8702251 0.4713434 0
3.8020003 1.8686054 0.47150213 0
3.8090003 1.8663957 0.471641 0
3.8170002 1.8647199 0.47179976 0
3.8240004 1.8624581 0.47193864 0
3.8320003 1.8607262 0.4720974 0
3.8400002 1.8589659 0.47225612 0
3.8470004 1.8566246 0.472395 0
3.8550003 1.854808 0.47255373 0
3.8630002 1.8529627 0.47271249 0
3.8710003 1.8510885 0.47287121 0
3.7430003 1.8836418 0.46430132 0
3.7500002 1.8816396 0.46442759 0
3.7570002 1.8796121 0.46455386 0
3.7650003 1.8781313 0.46469817 0
3.7720003 1.8760515 0.46482444 0
3.7800002 1.8745147 0.46496874 0
3.7870002 1.8723825 0.46509501 0
3.7940001 1.8702251 0.46522126 0
3.8020003 1.8686054 0.46536556 0
3.8090003 1.8663957 0.46549183 0
3.8170002 1.8647199 0.46563613 0
3.8240004 1.8624581 0.46576241 0
3.8320003 1.8607262 0.46590671 0
3.8400002 1.8589659 0.46605101 0
3.8470004 1.8566246 0.46617728 0
3.8550003 1.854808 0.46632159 0
3.8630002 1.8529627 0.46646589 0
3.8710003 1.8510885 0.46661019 0
3.7430003 1.8836418 0.45827121 0
3.7500002 1.8816396 0.45838484 0
3.7570002 1.8796121 0.45849848 0
3.7650003 1.8781313 0.45862836 0
3.7720003 1.8760515 0.45874199 0
3.7800002 1.8745147 0.45887187 0
3.7870002 1.8723825 0.45898551 0
3.7940001 1.8702251 0.45909914 0
3.8020003 1.8686054 0.45922902 0
3.8090003 1.8663957 0.45934266 0
3.8170002 1.8647199 0.45947254 0
3.8240004 1.8624581 0.45958617 0
3.8320003 1.8607262 0.45971605 0
3.8400002 1.8589659 0.4598459 0
3.8470004 1.8566246 0.45995957 0
3.8550003 1.854808 0.46008945 0
3.8630002 1.8529627 0.46021929 0
3.8710003 1.8510885 0.46034917 0
3.7430003 1.8836418 0.45224106 0
3.7500002 1.8816396 0.45234206 0
3.7570002 1.8796121 0.45244309 0
3.7650003 1.8781313 0.45255852 0
3.7720003 1.8760515 0.45265955 0
3.7800002 1.8745147 0.452775 0
3.7870002 1.8723825 0.452876 0
3.7940001 1.8702251 0.452977 0
3.8020003 1.8686054 0.45309246 0
3.8090003 1.8663957 0.45319349 0
3.8170002 1.8647199 0.45330891 0
3.8240004 1.8624581 0.45340994 0
3.8320003 1.8607262 0.45352536 0
3.8400002 1.8589659 0.45364082 0
3.8470004 1.8566246 0.45374182 0
3.8550003 1.854808 0.45385727 0
3.8630002 1.8529627 0.45397273 0
3.8710003 1.8510885 0.45408815 0
3.7430003 1.8836418 0.44621092 0
3.7500002 1.8816396 0.44629931 0
3.7570002 1.8796121 0.44638771 0
3.7650003 1.8781313 0.44648871 0
3.7720003 1.8760515 0.4465771 0
3.7800002 1.8745147 0.4466781 0
3.7870002 1.8723825 0.4467665 0
3.7940001 1.8702251 0.44685489 0
3.8020003 1.8686054 0.44695592 0
3.8090003 1.8663957 0.44704428 0
3.8170002 1.8647199 0.44714531 0
3.8240004 1.8624581 0.44723368 0
3.8320003 1.8607262 0.44733471 0
3.8400002 1.8589659 0.44743571 0
3.8470004 1.8566246 0.4475241 0
3.8550003 1.854808 0.4476251 0
3.8630002 1.8529627 0.44772613 0
3.8710003 1.8510885 0.44782713 0
3.7430003 1.8836418 0.44018081 0
3.7500002 1.8816396 0.44025657 0
3.7570002 1.8796121 0.44033232 0
3.7650003 1.8781313 0.4404189 0
3.7720003 1.8760515 0.44049466 0
3.7800002 1.8745147 0.44058123 0
3.7870002 1.8723825 0.44065702 0
3.7940001 1.8702251 0.44073278 0
3.8020003 1.8686054 0.44081935 0
3.8090003 1.8663957 0.44089511 0
3.8170002 1.8647199 0.44098169 0
3.8240004 1.8624581 0.44105744 0
3.8320003 1.8607262 0.44114405 0
3.8400002 1.8589659 0.44123062 0
3.8470004 1.8566246 0.44130638 0
3.8550003 1.854808 0.44139296 0
3.8630002 1.8529627 0.44147953 0
3.8710003 1.8510885 0.44156611 0
3.7430003 1.8836418 0.43415067 0
3.7500002 1.8816396 0.43421379 0
3.7570002 1.8796121 0.43427694 0
3.7650003 1.8781313 0.43434909 0
3.7720003 1.8760515 0.43441221 0
3.7800002 1.8745147 0.43448436 0
3.7870002 1.8723825 0.43454751 0
3.7940001 1.8702251 0.43461064 0
3.8020003 1.8686054 0.43468279 0
3.8090003 1.8663957 0.43474594 0
3.8170002 1.8647199 0.43481809 0
3.8240004 1.8624581 0.43488121 0
3.8320003 1.8607262 0.43495336 0
3.8400002 1.8589659 0.43502551 0
3.8470004 1.8566246 0.43508863 0
3.8550003 1.854808 0.43516082 0
3.8630002 1.8529627 0.43523294 0
3.8710003 1.8510885 0.43530512 0
3.7430003 1.8836418 0.42812055 0
3.7500002 1.8816396 0.42817104 0
3.7570002 1.8796121 0.42822155 0
3.7650003 1.8781313 0.42827928 0
3.7720003 1.8760515 0.42832977 0
3.7800002 1.8745147 0.42838749 0
3.7870002 1.8723825 0.42843801 0
3.7940001 1.8702251 0.42848852 0
3.8020003 1.8686054 0.42854625 0
3.8090003 1.8663957 0.42859674 0
3.8170002 1.8647199 0.42865446 0
3.8240004 1.8624581 0.42870498 0
3.8320003 1.8607262 0.4287627 0
3.8400002 1.8589659 0.4288204 0
3.8470004 1.8566246 0.42887092 0
3.8550003 1.854808 0.42892864 0
3.8630002 1.8529627 0.42898637 0
3.8710003 1.8510885 0.4290441 0
3.7430003 1.8836418 0.42209041 0
3.7500002 1.8816396 0.42212829 0
3.7570002 1.8796121 0.42216617 0
3.7650003 1.8781313 0.42220947 0
3.7720003 1.8760515 0.42224735 0
3.7800002 1.8745147 0.42229062 0
3.7870002 1.8723825 0.4223285 0
3.7940001 1.8702251 0.42236638 0
3.8020003 1.8686054 0.42240968 0
3.8090003 1.8663957 0.42244756 0
3.8170002 1.8647199 0.42249086 0
3.8240004 1.8624581 0.42252874 0
3.8320003 1.8607262 0.42257202 0
3.8400002 1.8589659 0.42261532 0
3.8470004 1.8566246 0.4226532 0
3.8550003 1.854808 0.42269647 0
3.8630002 1.8529627 0.42273977 0
3.8710003 1.8510885 0.42278308 0
3.7430003 1.8836418 0.41606027 0
3.7500002 1.8816396 0.41608554 0
3.7570002 1.8796121 0.41611078 0
3.7650003 1.8781313 0.41613963 0
3.7720003 1.8760515 0.4161649 0
3.7790003 1.8739463 0.41619015 0
3.7870002 1.8723825 0.416219 0
3.7940001 1.8702251 0.41624427 0
3.8020003 1.8686054 0.41627312 0
3.8090003 1.8663957 0.41629839 0
3.8170002 1.8647199 0.41632724 0
3.8240004 1.8624581 0.41635248 0
3.8320003 1.8607262 0.41638136 0
3.8400002 1.8589659 0.41641021 0
3.8470004 1.8566246 0.41643548 0
3.8550003 1.854808 0.41646433 0
3.8630002 1.8529627 0.41649318 0
3.8710003 1.8510885 0.41652206 0
3.7430003 1.8836418 0.41003016 0
3.7500002 1.8816396 0.41004276 0
3.7570002 1.8796121 0.4100554 0
3.7650003 1.8781313 0.41006982 0
3.7720003 1.8760515 0.41008246 0
3.7790003 1.8739463 0.4100951 0
3.7870002 1.8723825 0.41010952 0
3.7940001 1.8702251 0.41012213 0
3.8020003 1.8686054 0.41013658 0
3.8090003 1.8663957 0.41014919 0
3.8170002 1.8647199 0.41016364 0
3.8240004 1.8624581 0.41017625 0
3.8320003 1.8607262 0.41019067 0
3.8400002 1.8589659 0.41020513 0
3.8470004 1.8566246 0.41021773 0
3.8550003 1.854808 0.41023219 0
3.8630002 1.8529627 0.41024661 0
3.8710003 1.8510885 0.41026103 0
3.7430003 1.8836418 0.40400001 0
3.7500002 1.8816396 0.40400001 0
3.7570002 1.8796121 0.40400001 0
3.7650003 1.8781313 0.40400001 0
3.7720003 1.8760515 0.40400001 0
3.7790003 1.8739463 0.40400001 0
3.7870002 1.8723825 0.40400001 0
3.7940001 1.8702251 0.40400001 0
3.8020003 1.8686054 0.40400001 0
3.8090003 1.8663957 0.40400001 0
3.8170002 1.8647199 0.40400001 0
3.8240004 1.8624581 0.40400001 0
3.8320003 1.8607262 0.40400001 0
3.8400002 1.8589659 0.40400001 0
3.8470004 1.8566246 0.40400001 0
3.8550003 1.854808 0.40400001 0
3.8630002 1.8529627 0.40400001 0
3.8710003 1.8510885 0.40400001 0
3.7430003 1.8836418 0.39796987 0
3.7500002 1.8816396 0.39795727 0
3.7570002 1.8796121 0.39794463 0
3.7650003 1.8781313 0.3979302 0
3.7720003 1.8760515 0.39791757 0
3.7790003 1.8739463 0.39790493 0
3.7870002 1.8723825 0.39789051 0
3.7940001 1.8702251 0.3978779 0
3.8020003 1.8686054 0.39786345 0
3.8090003 1.8663957 0.39785084 0
3.8170002 1.8647199 0.39783639 0
3.8240004 1.8624581 0.39782378 0
3.8320003 1.8607262 0.39780936 0
3.8400002 1.8589659 0.3977949 0
3.8470004 1.8566246 0.3977823 0
3.8550003 1.854808 0.39776784 0
3.8630002 1.8529627 0.39775342 0
3.8710003 1.8510885 0.39773899 0
3.7430003 1.8836418 0.39193976 0
3.7500002 1.8816396 0.39191449 0
3.7570002 1.8796121 0.39188924 0
3.7650003 1.8781313 0.3918604 0
3.7720003 1.8760515 0.39183512 0
3.7790003 1.8739463 0.39180988 0
3.7870002 1.8723825 0.39178103 0
3.7940001 1.8702251 0.39175576 0
3.8020003 1.8686054 0.39172691 0
3.8090003 1.8663957 0.39170164 0
3.8170002 1.8647199 0.39167279 0
3.8240004 1.8624581 0.39164755 0
3.8320003 1.8607262 0.39161867 0
3.8400002 1.8589659 0.39158982 0
3.8470004 1.8566246 0.39156455 0
3.8550003 1.854808 0.3915357 0
3.8630002 1.8529627 0.39150685 0
3.8710003 1.8510885 0.39147797 0
3.7430003 1.8836418 0.38590962 0
3.7500002 1.8816396 0.38587174 0
3.7570002 1.8796121 0.38583386 0
3.7650003 1.8781313 0.38579056 0
3.7720003 1.8760515 0.38575268 0
3.7790003 1.8739463 0.3857148 0
3.7870002 1.8723825 0.38567153 0
3.7940001 1.8702251 0.38563365 0
3.8020003 1.8686054 0.38559034 0
3.8090003 1.8663957 0.38555247 0
3.8170002 1.8647199 0.38550916 0
3.8240004 1.8624581 0.38547128 0
3.8320003 1.8607262 0.38542801 0
3.8400002 1.8589659 0.38538471 0
3.8470004 1.8566246 0.38534683 0
3.8550003 1.854808 0.38530356 0
3.8630002 1.8529627 0.38526025 0
3.8710003 1.8510885 0.38521695 0
3.7430003 1.8836418 0.37987947 0
3.7500002 1.8816396 0.37982899 0
3.7570002 1.8796121 0.37977847 0
3.7650003 1.8781313 0.37972075 0
3.7720003 1.8760515 0.37967026 0
3.7790003 1.8739463 0.37961975 0
3.7870002 1.8723825 0.37956202 0
3.7940001 1.8702251 0.37951151 0
3.8020003 1.8686054 0.37945378 0
3.8090003 1.8663957 0.37940329 0
3.8170002 1.8647199 0.37934557 0
3.8240004 1.8624581 0.37929505 0
3.8320003 1.8607262 0.37923732 0
3.8400002 1.8589659 0.37917963 0
3.8470004 1.8566246 0.37912911 0
3.8550003 1.854808 0.37907138 0
3.8630002 1.8529627 0.37901366 0
3.7500002 1.8816396 0.37378624 0
3.7570002 1.8796121 0.37372309 0
3.7650003 1.8781313 0.37365094 0
3.7720003 1.8760515 0.37358782 0
3.7790003 1.8739463 0.37352467 0
3.7870002 1.8723825 0.37345251 0
3.7940001 1.8702251 0.37338939 0
3.8020003 1.8686054 0.37331724 0
3.8090003 1.8663957 0.37325409 0
3.8170002 1.8647199 0.37318194 0
3.8240004 1.8624581 0.37311882 0
3.8320003 1.8607262 0.37304667 0
3.8400002 1.8589659 0.37297451 0
3.8470004 1.8566246 0.37291139 0
3.8550003 1.854808 0.37283921 0
3.8630002 1.8529627 0.37276709 0
3.7500002 1.8816396 0.36774346 0
3.7570002 1.8796121 0.3676677 0
3.7650003 1.8781313 0.36758113 0
3.7720003 1.8760515 0.36750537 0
3.7790003 1.8739463 0.36742961 0
3.7870002 1.8723825 0.36734301 0
3.7940001 1.8702251 0.36726725 0
3.8020003 1.8686054 0.36718068 0
3.8090003 1.8663957 0.36710492 0
3.8170002 1.8647199 0.36701834 0
3.8240004 1.8624581 0.36694258 0
3.8320003 1.8607262 0.36685598 0
3.8400002 1.8589659 0.3667694 0
3.8470004 1.8566246 0.36669365 0
3.8550003 1.854808 0.36660707 0
3.8630002 1.8529627 0.36652049 0
3.7650003 1.8781313 0.36151132 0
3.7720003 1.8760515 0.36142293 0
3.7790003 1.8739463 0.36133453 0
3.7870002 1.8723825 0.36123353 0
3.7940001 1.8702251 0.36114514 0
3.8020003 1.8686054 0.36104411 0
3.8090003 1.8663957 0.36095574 0
3.8170002 1.8647199 0.36085472 0
3.8240004 1.8624581 0.36076635 0
3.8320003 1.8607262 0.36066532 0
3.8400002 1.8589659 0.36056432 0
3.8470004 1.8566246 0.36047593 0
3.8550003 1.854808 0.36037493 0
3.8090003 1.9155892 0.35480654 0
3.8080003 1.9088663 0.354821 0
3.8090003 1.9032909 0.35480654 0
3.8110003 1.8982817 0.35477769 0
3.8140004 1.8938334 0.35473439 0
3.8170002 1.8893743 0.35469112 0
3.8220003 1.8860338 0.35461897 0
3.8270001 1.8826749 0.35454682 0
3.8350003 1.8809812 0.35443136 0
3.8110003 1.9228927 0.34862491 0
3.8090003 1.9155892 0.34865737 0
3.8080003 1.9088663 0.34867361 0
3.8090003 1.9032909 0.34865737 0
3.8110003 1.8982817 0.34862491 0
3.8140004 1.8938334 0.34857619 0
3.8170002 1.8893743 0.34852749 0
3.8220003 1.8860338 0.34844634 0
3.8270001 1.8826749 0.34836516 0
3.8350003 1.8809812 0.34823528 0
3.8110003 1.9228927 0.34247211 0
3.8090003 1.9155892 0.3425082 0
3.8080003 1.9088663 0.34252623 0
3.8090003 1.9032909 0.3425082 0
3.8110003 1.8982817 0.34247211 0
3.8140004 1.8938334 0.34241799 0
3.8170002 1.8893743 0.34236389 0
3.8220003 1.8860338 0.34227371 0
3.8270001 1.8826749 0.3421835 0
3.8350003 1.8809812 0.3420392 0
3.8110003 1.9228927 0.33631933 0
3.8090003 1.9155892 0.33635902 0
3.8080003 1.9088663 0.33637884 0
3.8090003 1.9032909 0.33635902 0
3.8110003 1.8982817 0.33631933 0
3.8140004 1.8938334 0.33625978 0
3.8170002 1.8893743 0.33620027 0
3.8220003 1.8860338 0.33610106 0
3.8270001 1.8826749 0.33600187 0
3.8350003 1.8809812 0.33584312 0
3.8110003 1.9228927 0.33016652 0
3.8090003 1.9155892 0.33020982 0
3.8080003 1.9088663 0.33023149 0
3.8090003 1.9032909 0.33020982 0
3.8110003 1.8982817 0.33016652 0
3.8140004 1.8938334 0.33010161 0
3.8170002 1.8893743 0.33003667 0
3.8220003 1.8860338 0.32992843 0
3.8270001 1.8826749 0.32982022 0
3.8350003 1.8809812 0.32964703 0
3.8110003 1.9228927 0.32401374 0
3.8090003 1.9155892 0.32406065 0
3.8080003 1.9088663 0.3240841 0
3.8090003 1.9032909 0.32406065 0
3.8110003 1.8982817 0.32401374 0
3.8140004 1.8938334 0.32394338 0
3.8170002 1.8893743 0.32387304 0
3.8220003 1.8860338 0.3237558 0
3.8270001 1.8826749 0.32363856 0
3.8350003 1.8809812 0.32345095 0
3.8110003 1.9228927 0.31786096 0
3.8090003 1.9155892 0.31791145 0
3.8080003 1.9088663 0.31793672 0
3.8090003 1.9032909 0.31791145 0
3.8110003 1.8982817 0.31786096 0
3.8140004 1.8938334 0.3177852 0
3.8170002 1.8893743 0.31770945 0
3.8220003 1.8860338 0.31758317 0
3.8270001 1.8826749 0.3174569 0
3.8350003 1.8809812 0.31725487 0
3.8110003 1.9228927 0.31170815 0
3.8090003 1.9155892 0.31176227 0
3.8080003 1.9088663 0.31178933 0
3.8090003 1.9032909 0.31176227 0
3.8110003 1.8982817 0.31170815 0
3.8140004 1.8938334 0.311627 0
3.8170002 1.8893743 0.31154582 0
3.8220003 1.8860338 0.31141055 0
3.8270001 1.8826749 0.31127524 0
3.8350003 1.8809812 0.31105879 0
3.8110003 1.9228927 0.30555537 0
3.8090003 1.9155892 0.3056131 0
3.8080003 1.9088663 0.30564195 0
3.8090003 1.9032909 0.3056131 0
3.8110003 1.8982817 0.30555537 0
3.8140004 1.8938334 0.3054688 0
3.8170002 1.8893743 0.30538222 0
3.8220003 1.8860338 0.30523789 0
3.8270001 1.8826749 0.30509359 0
3.8350003 1.8809812 0.30486271 0
3.8110003 1.9228927 0.29940259 0
3.8090003 1.9155892 0.29946393 0
3.8080003 1.9088663 0.29949456 0
3.8090003 1.9032909 0.29946393 0
3.8110003 1.8982817 0.29940259 0
3.8140004 1.8938334 0.29931059 0
3.8170002 1.8893743 0.2992186 0
3.8220003 1.8860338 0.29906526 0
3.8270001 1.8826749 0.29891196 0
3.8350003 1.8809812 0.29866663 0
3.8110003 1.9228927 0.29324979 0
3.8090003 1.9155892 0.29331473 0
3.8080003 1.9088663 0.29334718 0
3.8090003 1.9032909 0.29331473 0
3.8110003 1.8982817 0.29324979 0
3.8140004 1.8938334 0.29315239 0
3.8170002 1.8893743 0.293055 0
3.8220003 1.8860338 0.29289263 0
3.8270001 1.8826749 0.2927303 0
3.8350003 1.8809812 0.29247054 0
3.8110003 1.9228927 0.28709701 0
3.8090003 1.9155892 0.28716555 0
3.8080003 1.9088663 0.28719983 0
3.8090003 1.9032909 0.28716555 0
3.8110003 1.8982817 0.28709701 0
3.8140004 1.8938334 0.28699419 0
3.8170002 1.8893743 0.28689137 0
3.8220003 1.8860338 0.28672001 0
3.8270001 1.8826749 0.28654867 0
3.8350003 1.8809812 0.28627446 0
3.8110003 1.9228927 0.28094423 0
3.8090003 1.9155892 0.28101638 0
3.8080003 1.9088663 0.28105244 0
3.8090003 1.9032909 0.28101638 0
3.8110003 1.8982817 0.28094423 0
3.8140004 1.8938334 0.28083599 0
3.8170002 1.8893743 0.28072774 0
3.8220003 1.8860338 0.28054738 0
3.8270001 1.8826749 0.28036702 0
3.8350003 1.8809812 0.28007838 0
3.8110003 1.9228927 0.27479142 0
3.8090003 1.9155892 0.27486718 0
3.8080003 1.9088663 0.27490506 0
3.8090003 1.9032909 0.27486718 0
3.8110003 1.8982817 0.27479142 0
3.8140004 1.8938334 0.27467778 0
3.8170002 1.8893743 0.27456415 0
3.8220003 1.8860338 0.27437472 0
3.8270001 1.8826749 0.27418536 0
3.8350003 1.8809812 0.27388233 0
3.8110003 1.9228927 0.26863861 0
3.8090003 1.9155892 0.268718 0
3.8080003 1.9088663 0.2687577 0
3.8090003 1.9032909 0.268718 0
3.8110003 1.8982817 0.26863861 0
3.8140004 1.8938334 0.26851958 0
3.8170002 1.8893743 0.26840055 0
3.8220003 1.8860338 0.26820213 0
3.8270001 1.8826749 0.2680037 0
3.8350003 1.8809812 0.26768622 0
3.8110003 1.9228927 0.26248586 0
3.8090003 1.9155892 0.26256883 0
3.8080003 1.9088663 0.26261032 0
3.8090003 1.9032909 0.26256883 0
3.8110003 1.8982817 0.26248586 0
3.8140004 1.8938334 0.26236141 0
3.8170002 1.8893743 0.26223692 0
3.8220003 1.8860338 0.26202947 0
3.8270001 1.8826749 0.26182204 0
3.8350003 1.8809812 0.26149014 0
3.8110003 1.9228927 0.25633305 0
3.8090003 1.9155892 0.25641966 0
3.8080003 1.9088663 0.25646293 0
3.8090003 1.9032909 0.25641966 0
3.8110003 1.8982817 0.25633305 0
3.8140004 1.8938334 0.25620317 0
3.8170002 1.8893743 0.2560733 0
3.8220003 1.8860338 0.25585684 0
3.8270001 1.8826749 0.25564039 0
3.8350003 1.8809812 0.25529408 0
3.8110003 1.9228927 0.25018024 0
3.8090003 1.9155892 0.25027046 0
3.8080003 1.9088663 0.25031555 0
3.8090003 1.9032909 0.25027046 0
3.8110003 1.8982817 0.25018024 0
3.8140004 1.8938334 0.25004497 0
3.8170002 1.8893743 0.2499097 0
3.8220003 1.8860338 0.24968421 0
3.8270001 1.8826749 0.24945875 0
3.8350003 1.8809812 0.24909797 0
3.8110003 1.9228927 0.24402748 0
3.8090003 1.9155892 0.24412128 0
3.8080003 1.9088663 0.24416816 0
3.8090003 1.9032909 0.24412128 0
3.8110003 1.8982817 0.24402748 0
3.8140004 1.8938334 0.24388677 0
3.8170002 1.8893743 0.24374609 0
3.8220003 1.8860338 0.24351159 0
3.8270001 1.8826749 0.24327709 0
3.8350003 1.8809812 0.24290191 0
