# .PCD v0.7 - Point Cloud Data file format
VERSION 0.7
FIELDS x y z intensity
SIZE 4 4 4 4
TYPE F F F F
COUNT 1 1 1 1
WIDTH 574
HEIGHT 1
VIEWPOINT 0 0 0 1 0 0 0
POINTS 574
DATA ascii
4.9670005 -2.6080158 2.3399284 0
4.9580002 -2.6111884 2.336113 0
4.9490004 -2.6143289 2.332298 0
4.9400005 -2.6174371 2.3284831 0
4.9310002 -2.6205122 2.3246679 0
4.9760003 -2.6048102 2.335489 0
4.9670005 -2.6080158 2.3316903 0
4.9580002 -2.6111884 2.3278913 0
4.9490004 -2.6143289 2.3240926 0
4.9400005 -2.6174371 2.3202939 0
4.9310002 -2.6205122 2.3164949 0
4.9760003 -2.6048102 2.3272347 0
4.9670005 -2.6080158 2.3234522 0
4.9580002 -2.6111884 2.3196695 0
4.9490004 -2.6143289 2.3158872 0
4.9400005 -2.6174371 2.3121045 0
4.9310002 -2.6205122 2.3083217 0
4.9760003 -2.6048102 2.3189807 0
4.9670005 -2.6080158 2.3152142 0
4.9580002 -2.6111884 2.3114479 0
4.9490004 -2.6143289 2.3076816 0
4.9400005 -2.6174371 2.3039153 0
4.9310002 -2.6205122 2.3001487 0
4.9760003 -2.6048102 2.3107262 0
4.9670005 -2.6080158 2.3069761 0
4.9580002 -2.6111884 2.303226 0
4.9490004 -2.6143289 2.2994759 0
4.9400005 -2.6174371 2.2957261 0
4.9310002 -2.6205122 2.2919757 0
4.9760003 -2.6048102 2.3024721 0
4.9670005 -2.6080158 2.2987382 0
4.9580002 -2.6111884 2.2950041 0
4.9490004 -2.6143289 2.2912703 0
4.9400005 -2.6174371 2.2875366 0
4.9310002 -2.6205122 2.2838025 0
4.9760003 -2.6048102 2.2942178 0
4.9670005 -2.6080158 2.2905004 0
4.9580002 -2.6111884 2.2867825 0
4.9490004 -2.6143289 2.2830648 0
4.9400005 -2.6174371 2.2793474 0
4.9310002 -2.6205122 2.2756295 0
4.9760003 -2.6048102 2.2859635 0
4.9670005 -2.6080158 2.2822623 0
4.9580002 -2.6111884 2.2785606 0
4.9490004 -2.6143289 2.2748594 0
4.9400005 -2.6174371 2.271158 0
4.9310002 -2.6205122 2.2674565 0
4.9760003 -2.6048102 2.2777095 0
4.9670005 -2.6080158 2.2740242 0
4.9580002 -2.6111884 2.270339 0
4.9490004 -2.6143289 2.2666538 0
4.9400005 -2.6174371 2.2629688 0
4.9310002 -2.6205122 2.2592833 0
4.9760003 -2.6048102 2.2694552 0
4.9670005 -2.6080158 2.2657864 0
4.9580002 -2.6111884 2.2621171 0
4.9490004 -2.6143289 2.2584484 0
4.9400005 -2.6174371 2.2547793 0
4.9310002 -2.6205122 2.2511103 0
4.9760003 -2.6048102 2.2612011 0
4.9670005 -2.6080158 2.2575483 0
4.9580002 -2.6111884 2.2538955 0
4.9490004 -2.6143289 2.2502429 0
4.9400005 -2.6174371 2.2465901 0
4.9310002 -2.6205122 2.2429373 0
4.9760003 -2.6048102 2.2529466 0
4.9670005 -2.6080158 2.2493103 0
4.9580002 -2.6111884 2.2456737 0
4.9490004 -2.6143289 2.2420373 0
4.9400005 -2.6174371 2.2384009 0
4.9310002 -2.6205122 2.2347643 0
4.9760003 -2.6048102 2.2446926 0
4.9670005 -2.6080158 2.2410724 0
4.9580002 -2.6111884 2.237452 0
4.9490004 -2.6143289 2.2338319 0
4.9400005 -2.6174371 2.2302117 0
4.9310002 -2.6205122 2.2265913 0
4.9760003 -2.6048102 2.2364383 0
4.9670005 -2.6080158 2.2328343 0
4.9580002 -2.6111884 2.2292302 0
4.9490004 -2.6143289 2.2256262 0
4.9400005 -2.6174371 2.2220223 0
4.9310002 -2.6205122 2.2184181 0
4.9760003 -2.6048102 2.228184 0
4.9670005 -2.6080158 2.2245963 0
4.9580002 -2.6111884 2.2210083 0
4.9490004 -2.6143289 2.2174208 0
4.9400005 -2.6174371 2.2138331 0
4.9310002 -2.6205122 2.2102451 0
4.9760003 -2.6048102 2.2199297 0
4.9670005 -2.6080158 2.2163584 0
4.9580002 -2.6111884 2.2127867 0
4.9490004 -2.6143289 2.2092152 0
4.9400005 -2.6174371 2.2056437 0
4.9310002 -2.6205122 2.2020721 0
4.9760003 -2.6048102 2.2116756 0
4.9670005 -2.6080158 2.2081203 0
4.9580002 -2.6111884 2.204565 0
4.9490004 -2.6143289 2.2010098 0
4.9400005 -2.6174371 2.1974545 0
4.9310002 -2.6205122 2.1938989 0
4.9760003 -2.6048102 2.2034214 0
4.9670005 -2.6080158 2.1998823 0
4.9580002 -2.6111884 2.1963432 0
4.9490004 -2.6143289 2.1928041 0
4.9400005 -2.6174371 2.1892653 0
4.9310002 -2.6205122 2.1857259 0
4.9760003 -2.6048102 2.1951671 0
4.9670005 -2.6080158 2.1916444 0
4.9580002 -2.6111884 2.1881213 0
4.9490004 -2.6143289 2.1845987 0
4.9400005 -2.6174371 2.1810758 0
4.9310002 -2.6205122 2.1775529 0
4.9760003 -2.6048102 2.1869128 0
4.9670005 -2.6080158 2.1834064 0
4.9580002 -2.6111884 2.1798997 0
4.9490004 -2.6143289 2.176393 0
4.9400005 -2.6174371 2.1728866 0
4.9310002 -2.6205122 2.1693799 0
4.9760003 -2.6048102 2.1786587 0
4.9670005 -2.6080158 2.1751683 0
4.9580002 -2.6111884 2.1716778 0
4.9490004 -2.6143289 2.1681876 0
4.9400005 -2.6174371 2.1646974 0
4.9310002 -2.6205122 2.1612067 0
4.9760003 -2.6048102 2.1704044 0
4.9670005 -2.6080158 2.1669304 0
4.9580002 -2.6111884 2.1634562 0
4.9490004 -2.6143289 2.1599822 0
4.9400005 -2.6174371 2.156508 0
4.9310002 -2.6205122 2.1530337 0
4.9760003 -2.6048102 2.1621501 0
4.9670005 -2.6080158 2.1586924 0
4.9580002 -2.6111884 2.1552343 0
4.9490004 -2.6143289 2.1517766 0
4.9400005 -2.6174371 2.1483188 0
4.9310002 -2.6205122 2.1448607 0
4.9760003 -2.6048102 2.1538961 0
4.9670005 -2.6080158 2.1504545 0
4.9580002 -2.6111884 2.1470127 0
4.9490004 -2.6143289 2.1435711 0
4.9400005 -2.6174371 2.1401293 0
4.9310002 -2.6205122 2.1366875 0
4.9760003 -2.6048102 2.1456418 0
4.9670005 -2.6080158 2.1422164 0
4.9580002 -2.6111884 2.1387908 0
4.9490004 -2.6143289 2.1353655 0
4.9400005 -2.6174371 2.1319401 0
4.9310002 -2.6205122 2.1285145 0
4.9760003 -2.6048102 2.1373875 0
4.9670005 -2.6080158 2.1339784 0
4.9580002 -2.6111884 2.130569 0
4.9490004 -2.6143289 2.1271598 0
4.9400005 -2.6174371 2.1237509 0
4.9310002 -2.6205122 2.1203415 0
4.9760003 -2.6048102 2.1291332 0
4.9670005 -2.6080158 2.1257403 0
4.9580002 -2.6111884 2.1223474 0
4.9490004 -2.6143289 2.1189544 0
4.9400005 -2.6174371 2.1155615 0
4.9310002 -2.6205122 2.1121683 0
4.9760003 -2.6048102 2.1208792 0
4.9670005 -2.6080158 2.1175025 0
4.9580002 -2.6111884 2.1141255 0
4.9490004 -2.6143289 2.110749 0
4.9400005 -2.6174371 2.1073723 0
4.9310002 -2.6205122 2.1039953 0
4.9760003 -2.6048102 2.1126249 0
4.9670005 -2.6080158 2.1092644 0
4.9580002 -2.6111884 2.1059039 0
4.9490004 -2.6143289 2.1025434 0
4.9400005 -2.6174371 2.0991831 0
4.9310002 -2.6205122 2.0958223 0
4.9760003 -2.6048102 2.1043706 0
4.9670005 -2.6080158 2.1010263 0
4.9580002 -2.6111884 2.097682 0
4.9490004 -2.6143289 2.0943379 0
4.9400005 -2.6174371 2.0909936 0
4.9310002 -2.6205122 2.0876493 0
4.9760003 -2.6048102 2.0961163 0
4.9670005 -2.6080158 2.0927885 0
4.9580002 -2.6111884 2.0894604 0
4.9490004 -2.6143289 2.0861323 0
4.9400005 -2.6174371 2.0828044 0
4.9310002 -2.6205122 2.0794764 0
4.9760003 -2.6048102 2.0878623 0
4.9670005 -2.6080158 2.0845504 0
4.9580002 -2.6111884 2.0812385 0
4.9490004 -2.6143289 2.0779269 0
4.9400005 -2.6174371 2.074615 0
4.9310002 -2.6205122 2.0713031 0
4.9760003 -2.6048102 2.079608 0
4.9670005 -2.6080158 2.0763125 0
4.9580002 -2.6111884 2.0730169 0
4.9490004 -2.6143289 2.0697215 0
4.9400005 -2.6174371 2.0664258 0
4.9310002 -2.6205122 2.0631301 0
4.9760003 -2.6048102 2.0713537 0
4.9670005 -2.6080158 2.0680745 0
4.9580002 -2.6111884 2.064795 0
4.9490004 -2.6143289 2.0615158 0
4.9400005 -2.6174371 2.0582366 0
4.9310002 -2.6205122 2.0549572 0
4.9760003 -2.6048102 2.0630996 0
4.9670005 -2.6080158 2.0598366 0
4.9580002 -2.6111884 2.0565734 0
4.9490004 -2.6143289 2.0533102 0
4.9400005 -2.6174371 2.0500472 0
4.9310002 -2.6205122 2.0467839 0
4.9760003 -2.6048102 2.0548453 0
4.9670005 -2.6080158 2.0515985 0
4.9580002 -2.6111884 2.0483515 0
4.9490004 -2.6143289 2.0451047 0
4.9400005 -2.6174371 2.041858 0
4.9310002 -2.6205122 2.0386109 0
4.9760003 -2.6048102 2.046591 0
4.9670005 -2.6080158 2.0433605 0
4.9580002 -2.6111884 2.0401297 0
4.9490004 -2.6143289 2.0368991 0
4.9400005 -2.6174371 2.0336688 0
4.9310002 -2.6205122 2.0304379 0
4.9760003 -2.6048102 2.0383368 0
4.9670005 -2.6080158 2.0351224 0
4.9580002 -2.6111884 2.031908 0
4.9490004 -2.6143289 2.0286937 0
4.9400005 -2.6174371 2.0254793 0
4.9310002 -2.6205122 2.0222647 0
4.9760003 -2.6048102 2.0300827 0
4.9670005 -2.6080158 2.0268846 0
4.9580002 -2.6111884 2.0236862 0
4.9490004 -2.6143289 2.0204883 0
4.9400005 -2.6174371 2.0172901 0
4.9310002 -2.6205122 2.014092 0
4.9760003 -2.6048102 2.0218284 0
4.9670005 -2.6080158 2.0186465 0
4.9580002 -2.6111884 2.0154645 0
4.9490004 -2.6143289 2.0122826 0
4.9400005 -2.6174371 2.0091007 0
4.9310002 -2.6205122 2.0059187 0
4.9760003 -2.6048102 2.0135741 0
4.9670005 -2.6080158 2.0104084 0
4.9580002 -2.6111884 2.0072427 0
4.9490004 -2.6143289 2.0040772 0
4.9400005 -2.6174371 2.0009115 0
4.9310002 -2.6205122 1.9977458 0
4.9760003 -2.6048102 2.0053198 0
4.9670005 -2.6080158 2.0021706 0
4.9580002 -2.6111884 1.9990211 0
4.9490004 -2.6143289 1.9958717 0
4.9400005 -2.6174371 1.9927223 0
4.9310002 -2.6205122 1.9895728 0
4.9760003 -2.6048102 1.9970658 0
4.9670005 -2.6080158 1.9939326 0
4.9580002 -2.6111884 1.9907993 0
4.9490004 -2.6143289 1.9876661 0
4.9400005 -2.6174371 1.984533 0
4.9310002 -2.6205122 1.9813997 0
4.9760003 -2.6048102 1.9888115 0
4.9670005 -2.6080158 1.9856946 0
4.9580002 -2.6111884 1.9825774 0
4.9490004 -2.6143289 1.9794606 0
4.9400005 -2.6174371 1.9763436 0
4.9310002 -2.6205122 1.9732265 0
4.9760003 -2.6048102 1.9805573 0
4.9670005 -2.6080158 1.9774566 0
4.9580002 -2.6111884 1.9743557 0
4.9490004 -2.6143289 1.9712551 0
4.9400005 -2.6174371 1.9681544 0
4.9310002 -2.6205122 1.9650536 0
4.9760003 -2.6048102 1.9723032 0
4.9670005 -2.6080158 1.9692187 0
4.9580002 -2.6111884 1.966134 0
4.9490004 -2.6143289 1.9630495 0
4.9400005 -2.6174371 1.9599651 0
4.9310002 -2.6205122 1.9568805 0
4.9760003 -2.6048102 1.9640487 0
4.9670005 -2.6080158 1.9609807 0
4.9580002 -2.6111884 1.9579123 0
4.9490004 -2.6143289 1.954844 0
4.9400005 -2.6174371 1.9517758 0
4.9310002 -2.6205122 1.9487073 0
4.9760003 -2.6048102 1.9557946 0
4.9670005 -2.6080158 1.9527426 0
4.9580002 -2.6111884 1.9496905 0
4.9490004 -2.6143289 1.9466385 0
4.9400005 -2.6174371 1.9435865 0
4.9310002 -2.6205122 1.9405344 0
4.9760003 -2.6048102 1.9475404 0
4.9670005 -2.6080158 1.9445046 0
4.9580002 -2.6111884 1.9414687 0
4.9490004 -2.6143289 1.9384329 0
4.9400005 -2.6174371 1.9353973 0
4.9310002 -2.6205122 1.9323612 0
4.9760003 -2.6048102 1.9392862 0
4.9670005 -2.6080158 1.9362667 0
4.9580002 -2.6111884 1.933247 0
4.9490004 -2.6143289 1.9302275 0
4.9400005 -2.6174371 1.9272079 0
4.9310002 -2.6205122 1.9241883 0
4.9760003 -2.6048102 1.9310319 0
4.9670005 -2.6080158 1.9280287 0
4.9580002 -2.6111884 1.9250252 0
4.9490004 -2.6143289 1.922022 0
4.9400005 -2.6174371 1.9190186 0
4.9310002 -2.6205122 1.9160153 0
4.9760003 -2.6048102 1.9227777 0
4.9670005 -2.6080158 1.9197906 0
4.9580002 -2.6111884 1.9168035 0
4.9490004 -2.6143289 1.9138165 0
4.9400005 -2.6174371 1.9108294 0
4.9310002 -2.6205122 1.9078422 0
4.9760003 -2.6048102 1.9145235 0
4.9670005 -2.6080158 1.9115527 0
4.9580002 -2.6111884 1.9085817 0
4.9490004 -2.6143289 1.9056109 0
4.9400005 -2.6174371 1.9026401 0
4.9310002 -2.6205122 1.8996692 0
4.9760003 -2.6048102 1.9062692 0
4.9670005 -2.6080158 1.9033147 0
4.9580002 -2.6111884 1.90036 0
4.9490004 -2.6143289 1.8974054 0
4.9400005 -2.6174371 1.8944508 0
4.9310002 -2.6205122 1.8914961 0
4.9760003 -2.6048102 1.898015 0
4.9670005 -2.6080158 1.8950768 0
4.9580002 -2.6111884 1.8921381 0
4.9490004 -2.6143289 1.8891997 0
4.9400005 -2.6174371 1.8862615 0
4.9310002 -2.6205122 1.883323 0
4.9760003 -2.6048102 1.8897609 0
4.9670005 -2.6080158 1.8868387 0
4.9580002 -2.6111884 1.8839164 0
4.9490004 -2.6143289 1.8809943 0
4.9400005 -2.6174371 1.8780721 0
4.9310002 -2.6205122 1.87515 0
4.9760003 -2.6048102 1.8815067 0
4.9670005 -2.6080158 1.8786006 0
4.9580002 -2.6111884 1.8756946 0
4.9490004 -2.6143289 1.8727888 0
4.9400005 -2.6174371 1.8698829 0
4.9310002 -2.6205122 1.8669769 0
4.9760003 -2.6048102 1.8732523 0
4.9670005 -2.6080158 1.8703628 0
4.9580002 -2.6111884 1.867473 0
4.9490004 -2.6143289 1.8645833 0
4.9400005 -2.6174371 1.8616936 0
4.9310002 -2.6205122 1.8588037 0
4.9760003 -2.6048102 1.8649981 0
4.9670005 -2.6080158 1.8621247 0
4.9580002 -2.6111884 1.8592511 0
4.9490004 -2.6143289 1.8563777 0
4.9400005 -2.6174371 1.8535043 0
4.9310002 -2.6205122 1.8506308 0
4.9760003 -2.6048102 1.8567439 0
4.9670005 -2.6080158 1.8538867 0
4.9580002 -2.6111884 1.8510294 0
4.9490004 -2.6143289 1.8481722 0
4.9400005 -2.6174371 1.8453151 0
4.9310002 -2.6205122 1.8424578 0
4.9760003 -2.6048102 1.8484896 0
4.9670005 -2.6080158 1.8456488 0
4.9580002 -2.6111884 1.8428077 0
4.9490004 -2.6143289 1.8399668 0
4.9400005 -2.6174371 1.8371258 0
4.9310002 -2.6205122 1.8342847 0
4.9760003 -2.6048102 1.8402355 0
4.9670005 -2.6080158 1.8374108 0
4.9580002 -2.6111884 1.8345859 0
4.9490004 -2.6143289 1.8317612 0
4.9400005 -2.6174371 1.8289365 0
4.9310002 -2.6205122 1.8261117 0
4.9760003 -2.6048102 1.8319812 0
4.9670005 -2.6080158 1.8291727 0
4.9580002 -2.6111884 1.826364 0
4.9490004 -2.6143289 1.8235557 0
4.9400005 -2.6174371 1.8207473 0
4.9310002 -2.6205122 1.8179386 0
4.9760003 -2.6048102 1.823727 0
4.9670005 -2.6080158 1.8209348 0
4.9580002 -2.6111884 1.8181424 0
4.9490004 -2.6143289 1.8153502 0
4.9400005 -2.6174371 1.8125578 0
4.9310002 -2.6205122 1.8097655 0
4.9760003 -2.6048102 1.8154727 0
4.9670005 -2.6080158 1.8126968 0
4.9580002 -2.6111884 1.8099207 0
4.9490004 -2.6143289 1.8071445 0
4.9400005 -2.6174371 1.8043686 0
4.9310002 -2.6205122 1.8015925 0
4.9760003 -2.6048102 1.8072186 0
4.9670005 -2.6080158 1.8044587 0
4.9580002 -2.6111884 1.8016988 0
4.9490004 -2.6143289 1.798939 0
4.9400005 -2.6174371 1.7961793 0
4.9310002 -2.6205122 1.7934194 0
4.9760003 -2.6048102 1.7989644 0
4.9670005 -2.6080158 1.7962208 0
4.9580002 -2.6111884 1.7934771 0
4.9490004 -2.6143289 1.7907336 0
4.9400005 -2.6174371 1.78799 0
4.9310002 -2.6205122 1.7852464 0
4.9760003 -2.6048102 1.7907101 0
4.9670005 -2.6080158 1.7879827 0
4.9580002 -2.6111884 1.7852553 0
4.9490004 -2.6143289 1.782528 0
4.9400005 -2.6174371 1.7798008 0
4.9310002 -2.6205122 1.7770733 0
4.9670005 -2.6080158 1.7797449 0
4.9580002 -2.6111884 1.7770336 0
4.9490004 -2.6143289 1.7743225 0
4.9400005 -2.6174371 1.7716115 0
4.9310002 -2.6205122 1.7689002 0
4.9670005 -2.6080158 1.7715068 0
4.9580002 -2.6111884 1.7688118 0
4.9490004 -2.6143289 1.766117 0
4.9400005 -2.6174371 1.7634221 0
4.9310002 -2.6205122 1.7607272 0
4.9670005 -2.6080158 1.7632688 0
4.9580002 -2.6111884 1.7605901 0
4.9490004 -2.6143289 1.7579114 0
4.9400005 -2.6174371 1.7552329 0
4.9310002 -2.6205122 1.7525542 0
4.9670005 -2.6080158 1.7550308 0
4.9580002 -2.6111884 1.7523683 0
4.9490004 -2.6143289 1.749706 0
4.9400005 -2.6174371 1.7470435 0
4.9310002 -2.6205122 1.7443811 0
4.9670005 -2.6080158 1.7467929 0
4.9580002 -2.6111884 1.7441466 0
4.9490004 -2.6143289 1.7415005 0
4.9400005 -2.6174371 1.7388543 0
4.9310002 -2.6205122 1.7362081 0
4.9670005 -2.6080158 1.7385548 0
4.9580002 -2.6111884 1.7359247 0
4.9490004 -2.6143289 1.7332948 0
4.9400005 -2.6174371 1.730665 0
4.9310002 -2.6205122 1.728035 0
4.9670005 -2.6080158 1.7303168 0
4.9580002 -2.6111884 1.727703 0
4.9490004 -2.6143289 1.7250893 0
4.9400005 -2.6174371 1.7224756 0
4.9310002 -2.6205122 1.7198619 0
4.9670005 -2.6080158 1.7220789 0
4.9580002 -2.6111884 1.7194813 0
4.9490004 -2.6143289 1.7168838 0
4.9400005 -2.6174371 1.7142864 0
4.9310002 -2.6205122 1.7116889 0
4.9670005 -2.6080158 1.7138408 0
4.9580002 -2.6111884 1.7112595 0
4.9490004 -2.6143289 1.7086782 0
4.9400005 -2.6174371 1.7060971 0
4.9310002 -2.6205122 1.7035158 0
4.9670005 -2.6080158 1.7056029 0
4.9580002 -2.6111884 1.7030377 0
4.9490004 -2.6143289 1.7004728 0
4.9400005 -2.6174371 1.6979078 0
4.9310002 -2.6205122 1.6953427 0
4.9670005 -2.6080158 1.6973648 0
4.9580002 -2.6111884 1.694816 0
4.9490004 -2.6143289 1.6922673 0
4.9400005 -2.6174371 1.6897186 0
4.9310002 -2.6205122 1.6871697 0
4.9670005 -2.6080158 1.689127 0
4.9580002 -2.6111884 1.6865942 0
4.9490004 -2.6143289 1.6840618 0
4.9400005 -2.6174371 1.6815292 0
4.9310002 -2.6205122 1.6789966 0
4.9670005 -2.6080158 1.6808889 0
4.9580002 -2.6111884 1.6783725 0
4.9490004 -2.6143289 1.6758562 0
4.9400005 -2.6174371 1.67334 0
4.9310002 -2.6205122 1.6708235 0
4.9670005 -2.6080158 1.6726509 0
4.9580002 -2.6111884 1.6701508 0
4.9490004 -2.6143289 1.6676507 0
4.9400005 -2.6174371 1.6651508 0
4.9310002 -2.6205122 1.6626506 0
4.9670005 -2.6080158 1.6644129 0
4.9580002 -2.6111884 1.661929 0
4.9490004 -2.6143289 1.6594453 0
4.9400005 -2.6174371 1.6569613 0
4.9310002 -2.6205122 1.6544775 0
4.9670005 -2.6080158 1.6561749 0
4.9580002 -2.6111884 1.6537073 0
4.9490004 -2.6143289 1.6512396 0
4.9400005 -2.6174371 1.6487721 0
4.9310002 -2.6205122 1.6463044 0
4.9670005 -2.6080158 1.6479369 0
4.9580002 -2.6111884 1.6454854 0
4.9490004 -2.6143289 1.6430341 0
4.9400005 -2.6174371 1.6405828 0
4.9310002 -2.6205122 1.6381314 0
4.9670005 -2.6080158 1.6396989 0
4.9580002 -2.6111884 1.6372637 0
4.9490004 -2.6143289 1.6348286 0
4.9400005 -2.6174371 1.6323935 0
4.9310002 -2.6205122 1.6299583 0
4.9670005 -2.6080158 1.6314609 0
4.9580002 -2.6111884 1.6290419 0
4.9490004 -2.6143289 1.626623 0
4.9400005 -2.6174371 1.6242043 0
4.9310002 -2.6205122 1.6217853 0
4.9670005 -2.6080158 1.6232229 0
4.9580002 -2.6111884 1.6208202 0
4.9490004 -2.6143289 1.6184175 0
4.9400005 -2.6174371 1.6160148 0
4.9310002 -2.6205122 1.6136122 0
4.9670005 -2.6080158 1.614985 0
4.9580002 -2.6111884 1.6125984 0
4.9490004 -2.6143289 1.6102121 0
4.9400005 -2.6174371 1.6078256 0
4.9310002 -2.6205122 1.6054391 0
4.9670005 -2.6080158 1.6067469 0
4.9580002 -2.6111884 1.6043767 0
4.9490004 -2.6143289 1.6020066 0
4.9400005 -2.6174371 1.5996364 0
4.9310002 -2.6205122 1.5972661 0
4.9670005 -2.6080158 1.598509 0
4.9580002 -2.6111884 1.5961549 0
4.9490004 -2.6143289 1.593801 0
4.9400005 -2.6174371 1.591447 0
4.9310002 -2.6205122 1.589093 0
4.9670005 -2.6080158 1.590271 0
4.9580002 -2.6111884 1.5879331 0
4.9490004 -2.6143289 1.5855955 0
4.9400005 -2.6174371 1.5832578 0
4.9310002 -2.6205122 1.5809199 0
4.9670005 -2.6080158 1.5820329 0
4.9580002 -2.6111884 1.5797114 0
4.9490004 -2.6143289 1.57739 0
4.9400005 -2.6174371 1.5750686 0
4.9310002 -2.6205122 1.572747 0
4.9670005 -2.6080158 1.573795 0
4.9580002 -2.6111884 1.5714897 0
4.9490004 -2.6143289 1.5691843 0
4.9400005 -2.6174371 1.5668792 0
4.9310002 -2.6205122 1.5645739 0
4.9670005 -2.6080158 1.565557 0
4.9580002 -2.6111884 1.5632679 0
4.9490004 -2.6143289 1.5609789 0
4.9400005 -2.6174371 1.55869 0
4.9310002 -2.6205122 1.5564008 0
4.9670005 -2.6080158 1.557319 0
4.9580002 -2.6111884 1.5550461 0
4.9490004 -2.6143289 1.5527734 0
4.9400005 -2.6174371 1.5505005 0
4.9310002 -2.6205122 1.5482278 0
4.9670005 -2.6080158 1.549081 0
4.9580002 -2.6111884 1.5468243 0
4.9490004 -2.6143289 1.5445678 0
4.9400005 -2.6174371 1.5423113 0
4.9310002 -2.6205122 1.5400547 0
4.9670005 -2.6080158 1.540843 0
4.9580002 -2.6111884 1.5386026 0
4.9490004 -2.6143289 1.5363623 0
4.9400005 -2.6174371 1.5341221 0
4.9310002 -2.6205122 1.5318816 0
4.9670005 -2.6080158 1.5326051 0
4.9580002 -2.6111884 1.5303808 0
4.9490004 -2.6143289 1.5281568 0
4.9400005 -2.6174371 1.5259327 0
4.9310002 -2.6205122 1.5237086 0
4.9670005 -2.6080158 1.5243671 0
4.9580002 -2.6111884 1.5221591 0
4.9490004 -2.6143289 1.5199513 0
4.9400005 -2.6174371 1.5177435 0
4.9310002 -2.6205122 1.5155355 0
4.9670005 -2.6080158 1.516129 0
4.9580002 -2.6111884 1.5139374 0
4.9490004 -2.6143289 1.5117458 0
4.9400005 -2.6174371 1.5095543 0
4.9310002 -2.6205122 1.5073625 0
4.9400005 -2.6174371 1.5013648 0
4.9310002 -2.6205122 1.4991894 0
