# .PCD v0.7 - Point Cloud Data file format
VERSION 0.7
FIELDS x y z intensity
SIZE 4 4 4 4
TYPE F F F F
COUNT 1 1 1 1
WIDTH 1474
HEIGHT 1
VIEWPOINT 0 0 0 1 0 0 0
POINTS 1474
DATA ascii
4.348 -2.0827303 0.97371483 0
4.348 -2.0898519 0.97371483 0
4.348 -2.0969732 0.97371483 0
4.348 -2.1040947 0.97371483 0
4.348 -2.1112161 0.97371483 0
4.349 -2.1188624 0.97385907 0
4.349 -2.1259856 0.97385907 0
4.349 -2.1331089 0.97385907 0
4.349 -2.1402321 0.97385907 0
4.349 -2.1473556 0.97385907 0
4.349 -2.1544785 0.97385907 0
4.349 -2.1616018 0.97385907 0
4.349 -2.168725 0.97385907 0
4.349 -2.1758482 0.97385907 0
4.349 -2.1829717 0.97385907 0
4.349 -2.1900949 0.97385907 0
4.349 -2.1972179 0.97385907 0
4.349 -2.2043412 0.97385907 0
4.3500004 -2.212013 0.97400343 0
4.3500004 -2.2191381 0.97400343 0
4.3500004 -2.226263 0.97400343 0
4.3500004 -2.2333882 0.97400343 0
4.3500004 -2.2405131 0.97400343 0
4.3500004 -2.2476382 0.97400343 0
4.3500004 -2.2547634 0.97400343 0
4.3500004 -2.2618883 0.97400343 0
4.3500004 -2.2690134 0.97400343 0
4.3500004 -2.2761383 0.97400343 0
4.3500004 -2.2832634 0.97400343 0
4.3500004 -2.2903886 0.97400343 0
4.3500004 -2.2975135 0.97400343 0
4.3500004 -2.3046386 0.97400343 0
4.3510003 -2.3123372 0.97414768 0
4.3510003 -2.319464 0.97414768 0
4.7420001 -2.0588589 1.0227387 0
4.7260003 -2.0592449 1.0204587 0
4.7100005 -2.0595732 1.0181787 0
4.6930003 -2.0593746 1.0157561 0
4.6770005 -2.0595858 1.0134761 0
4.6610003 -2.0597391 1.0111961 0
4.6460004 -2.0603092 1.0090586 0
4.6300001 -2.0603485 1.0067786 0
4.6140003 -2.0603309 1.0044986 0
4.5990005 -2.0607347 1.0023612 0
4.5830002 -2.0606031 1.0000811 0
4.5680003 -2.0608971 0.99794352 0
4.5530005 -2.0611372 0.9958061 0
4.5380001 -2.0613227 0.99366856 0
4.5230002 -2.0614543 0.99153101 0
4.5080004 -2.061532 0.98939347 0
4.4940004 -2.062048 0.98739851 0
4.4790001 -2.0620189 0.98526096 0
4.4650002 -2.0624321 0.983266 0
4.4500003 -2.0622969 0.98112845 0
4.4360003 -2.062607 0.97913349 0
4.4220004 -2.0628669 0.97713852 0
4.4080005 -2.063076 0.97514343 0
4.3940001 -2.0632348 0.97314835 0
4.3800001 -2.0633433 0.97115338 0
4.3660002 -2.0634007 0.96915841 0
4.3520002 -2.0634079 0.96716332 0
4.348 -2.0684874 0.96659338 0
4.348 -2.075609 0.96659338 0
4.348 -2.0827303 0.96659338 0
4.348 -2.0898519 0.96659338 0
4.348 -2.0969732 0.96659338 0
4.348 -2.1040947 0.96659338 0
4.348 -2.1112161 0.96659338 0
4.349 -2.1188624 0.96673584 0
4.349 -2.1259856 0.96673584 0
4.349 -2.1331089 0.96673584 0
4.349 -2.1402321 0.96673584 0
4.349 -2.1473556 0.96673584 0
4.349 -2.1544785 0.96673584 0
4.349 -2.1616018 0.96673584 0
4.349 -2.168725 0.96673584 0
4.349 -2.1758482 0.96673584 0
4.349 -2.1829717 0.96673584 0
4.349 -2.1900949 0.96673584 0
4.349 -2.1972179 0.96673584 0
4.349 -2.2043412 0.96673584 0
4.3500004 -2.212013 0.96687841 0
4.3500004 -2.2191381 0.96687841 0
4.3500004 -2.226263 0.96687841 0
4.3500004 -2.2333882 0.96687841 0
4.3500004 -2.2405131 0.96687841 0
4.3500004 -2.2476382 0.96687841 0
4.3500004 -2.2547634 0.96687841 0
4.3500004 -2.2618883 0.96687841 0
4.3500004 -2.2690134 0.96687841 0
4.3500004 -2.2761383 0.96687841 0
4.3500004 -2.2832634 0.96687841 0
4.3500004 -2.2903886 0.96687841 0
4.3500004 -2.2975135 0.96687841 0
4.3500004 -2.3046386 0.96687841 0
4.3510003 -2.3123372 0.96702087 0
4.3510003 -2.319464 0.96702087 0
4.7420001 -2.0588589 1.0149065 0
4.7260003 -2.0592449 1.0126554 0
4.7100005 -2.0595732 1.0104042 0
4.6930003 -2.0593746 1.0080124 0
4.6770005 -2.0595858 1.0057613 0
4.6610003 -2.0597391 1.0035101 0
4.6460004 -2.0603092 1.0013996 0
4.6300001 -2.0603485 0.99914849 0
4.6140003 -2.0603309 0.99689734 0
4.5990005 -2.0607347 0.99478698 0
4.5830002 -2.0606031 0.99253571 0
4.5680003 -2.0608971 0.99042523 0
4.5530005 -2.0611372 0.98831487 0
4.5380001 -2.0613227 0.98620439 0
4.5230002 -2.0614543 0.9840939 0
4.5080004 -2.061532 0.98198342 0
4.4940004 -2.062048 0.98001373 0
4.4790001 -2.0620189 0.97790325 0
4.4650002 -2.0624321 0.97593343 0
4.4500003 -2.0622969 0.97382307 0
4.4360003 -2.062607 0.97185326 0
4.4220004 -2.0628669 0.96988356 0
4.4080005 -2.063076 0.96791375 0
4.3940001 -2.0632348 0.96594405 0
4.3800001 -2.0633433 0.96397424 0
4.3660002 -2.0634007 0.96200442 0
4.3520002 -2.0634079 0.96003473 0
4.348 -2.0684874 0.95947194 0
4.348 -2.075609 0.95947194 0
4.348 -2.0827303 0.95947194 0
4.348 -2.0898519 0.95947194 0
4.348 -2.0969732 0.95947194 0
4.348 -2.1040947 0.95947194 0
4.348 -2.1112161 0.95947194 0
4.349 -2.1188624 0.95961261 0
4.349 -2.1259856 0.95961261 0
4.349 -2.1331089 0.95961261 0
4.349 -2.1402321 0.95961261 0
4.349 -2.1473556 0.95961261 0
4.349 -2.1544785 0.95961261 0
4.349 -2.1616018 0.95961261 0
4.349 -2.168725 0.95961261 0
4.349 -2.1758482 0.95961261 0
4.349 -2.1829717 0.95961261 0
4.349 -2.1900949 0.95961261 0
4.349 -2.1972179 0.95961261 0
4.349 -2.2043412 0.95961261 0
4.3500004 -2.212013 0.95975339 0
4.3500004 -2.2191381 0.95975339 0
4.3500004 -2.226263 0.95975339 0
4.3500004 -2.2333882 0.95975339 0
4.3500004 -2.2405131 0.95975339 0
4.3500004 -2.2476382 0.95975339 0
4.3500004 -2.2547634 0.95975339 0
4.3500004 -2.2618883 0.95975339 0
4.3500004 -2.2690134 0.95975339 0
4.3500004 -2.2761383 0.95975339 0
4.3500004 -2.2832634 0.95975339 0
4.3500004 -2.2903886 0.95975339 0
4.3500004 -2.2975135 0.95975339 0
4.3500004 -2.3046386 0.95975339 0
4.3510003 -2.3123372 0.95989406 0
4.3510003 -2.319464 0.95989406 0
4.7420001 -2.0588589 1.0070745 0
4.7260003 -2.0592449 1.0048522 0
4.7100005 -2.0595732 1.0026299 0
4.6930003 -2.0593746 1.0002687 0
4.6770005 -2.0595858 0.9980464 0
4.6610003 -2.0597391 0.9958241 0
4.6460004 -2.0603092 0.99374068 0
4.6300001 -2.0603485 0.99151838 0
4.6140003 -2.0603309 0.98929608 0
4.5990005 -2.0607347 0.98721278 0
4.5830002 -2.0606031 0.98499036 0
4.5680003 -2.0608971 0.98290694 0
4.5530005 -2.0611372 0.98082364 0
4.5380001 -2.0613227 0.97874022 0
4.5230002 -2.0614543 0.97665679 0
4.5080004 -2.061532 0.97457337 0
4.4940004 -2.062048 0.97262895 0
4.4790001 -2.0620189 0.97054553 0
4.4650002 -2.0624321 0.96860099 0
4.4500003 -2.0622969 0.96651757 0
4.4360003 -2.062607 0.96457314 0
4.4220004 -2.0628669 0.9626286 0
4.4080005 -2.063076 0.96068406 0
4.3940001 -2.0632348 0.95873964 0
4.3800001 -2.0633433 0.9567951 0
4.3660002 -2.0634007 0.95485055 0
4.3520002 -2.0634079 0.95290613 0
4.348 -2.0684874 0.9523505 0
4.348 -2.075609 0.9523505 0
4.348 -2.0827303 0.9523505 0
4.348 -2.0898519 0.9523505 0
4.348 -2.0969732 0.9523505 0
4.348 -2.1040947 0.9523505 0
4.348 -2.1112161 0.9523505 0
4.349 -2.1188624 0.95248938 0
4.349 -2.1259856 0.95248938 0
4.349 -2.1331089 0.95248938 0
4.349 -2.1402321 0.95248938 0
4.349 -2.1473556 0.95248938 0
4.349 -2.1544785 0.95248938 0
4.349 -2.1616018 0.95248938 0
4.349 -2.168725 0.95248938 0
4.349 -2.1758482 0.95248938 0
4.349 -2.1829717 0.95248938 0
4.349 -2.1900949 0.95248938 0
4.349 -2.1972179 0.95248938 0
4.349 -2.2043412 0.95248938 0
4.3500004 -2.212013 0.95262825 0
4.3500004 -2.2191381 0.95262825 0
4.3500004 -2.226263 0.95262825 0
4.3500004 -2.2333882 0.95262825 0
4.3500004 -2.2405131 0.95262825 0
4.3500004 -2.2476382 0.95262825 0
4.3500004 -2.2547634 0.95262825 0
4.3500004 -2.2618883 0.95262825 0
4.3500004 -2.2690134 0.95262825 0
4.3500004 -2.2761383 0.95262825 0
4.3500004 -2.2832634 0.95262825 0
4.3500004 -2.2903886 0.95262825 0
4.3500004 -2.2975135 0.95262825 0
4.3500004 -2.3046386 0.95262825 0
4.3510003 -2.3123372 0.95276713 0
4.3510003 -2.319464 0.95276713 0
4.7260003 -2.0592449 0.99704885 0
4.7100005 -2.0595732 0.9948554 0
4.6930003 -2.0593746 0.99252486 0
4.6770005 -2.0595858 0.99033153 0
4.6610003 -2.0597391 0.98813808 0
4.6460004 -2.0603092 0.98608172 0
4.6300001 -2.0603485 0.98388827 0
4.6140003 -2.0603309 0.98169482 0
4.5990005 -2.0607347 0.97963858 0
4.5830002 -2.0606031 0.97744513 0
4.5680003 -2.0608971 0.97538877 0
4.5530005 -2.0611372 0.97333241 0
4.5380001 -2.0613227 0.97127604 0
4.5230002 -2.0614543 0.96921968 0
4.5080004 -2.061532 0.96716332 0
4.4940004 -2.062048 0.96524417 0
4.4790001 -2.0620189 0.96318769 0
4.4650002 -2.0624321 0.96126854 0
4.4500003 -2.0622969 0.95921218 0
4.4360003 -2.062607 0.95729291 0
4.4220004 -2.0628669 0.95537376 0
4.4080005 -2.063076 0.95345449 0
4.3940001 -2.0632348 0.95153522 0
4.3800001 -2.0633433 0.94961596 0
4.3660002 -2.0634007 0.94769669 0
4.3520002 -2.0634079 0.94577742 0
4.348 -2.0684874 0.94522905 0
4.348 -2.075609 0.94522905 0
4.348 -2.0827303 0.94522905 0
4.348 -2.0898519 0.94522905 0
4.348 -2.0969732 0.94522905 0
4.348 -2.1040947 0.94522905 0
4.348 -2.1112161 0.94522905 0
4.349 -2.1188624 0.94536614 0
4.349 -2.1259856 0.94536614 0
4.349 -2.1331089 0.94536614 0
4.349 -2.1402321 0.94536614 0
4.349 -2.1473556 0.94536614 0
4.349 -2.1544785 0.94536614 0
4.349 -2.1616018 0.94536614 0
4.349 -2.168725 0.94536614 0
4.349 -2.1758482 0.94536614 0
4.349 -2.1829717 0.94536614 0
4.349 -2.1900949 0.94536614 0
4.349 -2.1972179 0.94536614 0
4.349 -2.2043412 0.94536614 0
4.3500004 -2.212013 0.94550323 0
4.3500004 -2.2191381 0.94550323 0
4.3500004 -2.226263 0.94550323 0
4.3500004 -2.2333882 0.94550323 0
4.3500004 -2.2405131 0.94550323 0
4.3500004 -2.2476382 0.94550323 0
4.3500004 -2.2547634 0.94550323 0
4.3500004 -2.2618883 0.94550323 0
4.3500004 -2.2690134 0.94550323 0
4.3500004 -2.2761383 0.94550323 0
4.3500004 -2.2832634 0.94550323 0
4.3500004 -2.2903886 0.94550323 0
4.3500004 -2.2975135 0.94550323 0
4.3500004 -2.3046386 0.94550323 0
4.3510003 -2.3123372 0.94564033 0
4.3510003 -2.319464 0.94564033 0
4.7260003 -2.0592449 0.98924553 0
4.7100005 -2.0595732 0.98708105 0
4.6930003 -2.0593746 0.98478115 0
4.6770005 -2.0595858 0.98261666 0
4.6610003 -2.0597391 0.98045206 0
4.6460004 -2.0603092 0.97842276 0
4.6300001 -2.0603485 0.97625816 0
4.6140003 -2.0603309 0.97409356 0
4.5990005 -2.0607347 0.97206438 0
4.5840001 -2.0610847 0.97003496 0
4.5680003 -2.0608971 0.96787047 0
4.5530005 -2.0611372 0.96584117 0
4.5380001 -2.0613227 0.96381187 0
4.5230002 -2.0614543 0.96178257 0
4.5080004 -2.061532 0.95975327 0
4.4940004 -2.062048 0.9578594 0
4.4790001 -2.0620189 0.95582998 0
4.4650002 -2.0624321 0.95393598 0
4.4500003 -2.0622969 0.95190668 0
4.4360003 -2.062607 0.9500128 0
4.4220004 -2.0628669 0.94811881 0
4.4080005 -2.063076 0.94622481 0
4.3940001 -2.0632348 0.94433081 0
4.3800001 -2.0633433 0.94243681 0
4.3660002 -2.0634007 0.94054282 0
4.3520002 -2.0634079 0.93864882 0
4.348 -2.0684874 0.93810761 0
4.348 -2.075609 0.93810761 0
4.348 -2.0827303 0.93810761 0
4.348 -2.0898519 0.93810761 0
4.348 -2.0969732 0.93810761 0
4.348 -2.1040947 0.93810761 0
4.348 -2.1112161 0.93810761 0
4.349 -2.1188624 0.93824291 0
4.349 -2.1259856 0.93824291 0
4.349 -2.1331089 0.93824291 0
4.349 -2.1402321 0.93824291 0
4.349 -2.1473556 0.93824291 0
4.349 -2.1544785 0.93824291 0
4.349 -2.1616018 0.93824291 0
4.349 -2.168725 0.93824291 0
4.349 -2.1758482 0.93824291 0
4.349 -2.1829717 0.93824291 0
4.349 -2.1900949 0.93824291 0
4.349 -2.1972179 0.93824291 0
4.349 -2.2043412 0.93824291 0
4.3500004 -2.212013 0.93837821 0
4.3500004 -2.2191381 0.93837821 0
4.3500004 -2.226263 0.93837821 0
4.3500004 -2.2333882 0.93837821 0
4.3500004 -2.2405131 0.93837821 0
4.3500004 -2.2476382 0.93837821 0
4.3500004 -2.2547634 0.93837821 0
4.3500004 -2.2618883 0.93837821 0
4.3500004 -2.2690134 0.93837821 0
4.3500004 -2.2761383 0.93837821 0
4.3500004 -2.2832634 0.93837821 0
4.3500004 -2.2903886 0.93837821 0
4.3500004 -2.2975135 0.93837821 0
4.3500004 -2.3046386 0.93837821 0
4.3510003 -2.3123372 0.93851352 0
4.3510003 -2.319464 0.93851352 0
4.7260003 -2.0592449 0.98144233 0
4.7100005 -2.0595732 0.9793067 0
4.6930003 -2.0593746 0.97703743 0
4.6770005 -2.0595858 0.9749018 0
4.6610003 -2.0597391 0.97276604 0
4.6460004 -2.0603092 0.9707638 0
4.6300001 -2.0603485 0.96862805 0
4.6140003 -2.0603309 0.96649241 0
4.5990005 -2.0607347 0.96449018 0
4.5840001 -2.0610847 0.96248782 0
4.5680003 -2.0608971 0.96035218 0
4.5530005 -2.0611372 0.95834994 0
4.5380001 -2.0613227 0.9563477 0
4.5230002 -2.0614543 0.95434546 0
4.5080004 -2.061532 0.95234334 0
4.4940004 -2.062048 0.9504745 0
4.4790001 -2.0620189 0.94847226 0
4.4650002 -2.0624321 0.94660354 0
4.4500003 -2.0622969 0.9446013 0
4.4360003 -2.062607 0.94273257 0
4.4220004 -2.0628669 0.94086385 0
4.4080005 -2.063076 0.93899512 0
4.3940001 -2.0632348 0.93712628 0
4.3800001 -2.0633433 0.93525767 0
4.3660002 -2.0634007 0.93338883 0
4.3520002 -2.0634079 0.9315201 0
4.348 -2.0684874 0.93098617 0
4.348 -2.075609 0.93098617 0
4.348 -2.0827303 0.93098617 0
4.348 -2.0898519 0.93098617 0
4.348 -2.0969732 0.93098617 0
4.348 -2.1040947 0.93098617 0
4.348 -2.1112161 0.93098617 0
4.349 -2.1188624 0.93111968 0
4.349 -2.1259856 0.93111968 0
4.349 -2.1331089 0.93111968 0
4.349 -2.1402321 0.93111968 0
4.349 -2.1473556 0.93111968 0
4.349 -2.1544785 0.93111968 0
4.349 -2.1616018 0.93111968 0
4.349 -2.168725 0.93111968 0
4.349 -2.1758482 0.93111968 0
4.349 -2.1829717 0.93111968 0
4.349 -2.1900949 0.93111968 0
4.349 -2.1972179 0.93111968 0
4.349 -2.2043412 0.93111968 0
4.3500004 -2.212013 0.93125319 0
4.3500004 -2.2191381 0.93125319 0
4.3500004 -2.226263 0.93125319 0
4.3500004 -2.2333882 0.93125319 0
4.3500004 -2.2405131 0.93125319 0
4.3500004 -2.2476382 0.93125319 0
4.3500004 -2.2547634 0.93125319 0
4.3500004 -2.2618883 0.93125319 0
4.3500004 -2.2690134 0.93125319 0
4.3500004 -2.2761383 0.93125319 0
4.3500004 -2.2832634 0.93125319 0
4.3500004 -2.2903886 0.93125319 0
4.3500004 -2.2975135 0.93125319 0
4.3500004 -2.3046386 0.93125319 0
4.3510003 -2.3123372 0.93138671 0
4.3510003 -2.319464 0.93138671 0
4.7260003 -2.0592449 0.97363901 0
4.7100005 -2.0595732 0.97153223 0
4.6930003 -2.0593746 0.96929371 0
4.6770005 -2.0595858 0.96718681 0
4.6610003 -2.0597391 0.96508002 0
4.6460004 -2.0603092 0.96310484 0
4.6300001 -2.0603485 0.96099794 0
4.6140003 -2.0603309 0.95889115 0
4.5990005 -2.0607347 0.95691597 0
4.5840001 -2.0610847 0.9549408 0
4.5680003 -2.0608971 0.95283389 0
4.5530005 -2.0611372 0.95085883 0
4.5380001 -2.0613227 0.94888353 0
4.5230002 -2.0614543 0.94690835 0
4.5080004 -2.061532 0.9449333 0
4.4940004 -2.062048 0.94308972 0
4.4790001 -2.0620189 0.94111454 0
4.4650002 -2.0624321 0.93927109 0
4.4500003 -2.0622969 0.93729591 0
4.4360003 -2.062607 0.93545246 0
4.4220004 -2.0628669 0.93360889 0
4.4080005 -2.063076 0.93176544 0
4.3940001 -2.0632348 0.92992198 0
4.3800001 -2.0633433 0.92807841 0
4.3660002 -2.0634007 0.92623496 0
4.3520002 -2.0634079 0.92439151 0
4.348 -2.0684874 0.92386472 0
4.348 -2.075609 0.92386472 0
4.348 -2.0827303 0.92386472 0
4.348 -2.0898519 0.92386472 0
4.348 -2.0969732 0.92386472 0
4.348 -2.1040947 0.92386472 0
4.348 -2.1112161 0.92386472 0
4.349 -2.1188624 0.92399645 0
4.349 -2.1259856 0.92399645 0
4.349 -2.1331089 0.92399645 0
4.349 -2.1402321 0.92399645 0
4.349 -2.1473556 0.92399645 0
4.349 -2.1544785 0.92399645 0
4.349 -2.1616018 0.92399645 0
4.349 -2.168725 0.92399645 0
4.349 -2.1758482 0.92399645 0
4.349 -2.1829717 0.92399645 0
4.349 -2.1900949 0.92399645 0
4.349 -2.1972179 0.92399645 0
4.349 -2.2043412 0.92399645 0
4.3500004 -2.212013 0.92412806 0
4.3500004 -2.2191381 0.92412806 0
4.3500004 -2.226263 0.92412806 0
4.3500004 -2.2333882 0.92412806 0
4.3500004 -2.2405131 0.92412806 0
4.3500004 -2.2476382 0.92412806 0
4.3500004 -2.2547634 0.92412806 0
4.3500004 -2.2618883 0.92412806 0
4.3500004 -2.2690134 0.92412806 0
4.3500004 -2.2761383 0.92412806 0
4.3500004 -2.2832634 0.92412806 0
4.3500004 -2.2903886 0.92412806 0
4.3500004 -2.2975135 0.92412806 0
4.3500004 -2.3046386 0.92412806 0
4.3510003 -2.3123372 0.92425978 0
4.3510003 -2.319464 0.92425978 0
4.7260003 -2.0592449 0.96583581 0
4.7100005 -2.0595732 0.96375787 0
4.6930003 -2.0593746 0.96154988 0
4.6770005 -2.0595858 0.95947194 0
4.6610003 -2.0597391 0.957394 0
4.6460004 -2.0603092 0.95544589 0
4.6300001 -2.0603485 0.95336783 0
4.6140003 -2.0603309 0.95128989 0
4.5990005 -2.0607347 0.94934177 0
4.5840001 -2.0610847 0.94739354 0
4.5680003 -2.0608971 0.9453156 0
4.5530005 -2.0611372 0.9433676 0
4.5380001 -2.0613227 0.94141936 0
4.5230002 -2.0614543 0.93947136 0
4.5080004 -2.061532 0.93752325 0
4.4940004 -2.062048 0.93570495 0
4.4790001 -2.0620189 0.93375683 0
4.4650002 -2.0624321 0.93193853 0
4.4500003 -2.0622969 0.92999053 0
4.4360003 -2.062607 0.92817223 0
4.4220004 -2.0628669 0.92635405 0
4.4080005 -2.063076 0.92453575 0
4.3940001 -2.0632348 0.92271757 0
4.3800001 -2.0633433 0.92089927 0
4.3660002 -2.0634007 0.91908109 0
4.3520002 -2.0634079 0.91726279 0
4.348 -2.0684874 0.91674328 0
4.348 -2.075609 0.91674328 0
4.348 -2.0827303 0.91674328 0
4.348 -2.0898519 0.91674328 0
4.348 -2.0969732 0.91674328 0
4.348 -2.1040947 0.91674328 0
4.348 -2.1112161 0.91674328 0
4.349 -2.1188624 0.91687322 0
4.349 -2.1259856 0.91687322 0
4.349 -2.1331089 0.91687322 0
4.349 -2.1402321 0.91687322 0
4.349 -2.1473556 0.91687322 0
4.349 -2.1544785 0.91687322 0
4.349 -2.1616018 0.91687322 0
4.349 -2.168725 0.91687322 0
4.349 -2.1758482 0.91687322 0
4.349 -2.1829717 0.91687322 0
4.349 -2.1900949 0.91687322 0
4.349 -2.1972179 0.91687322 0
4.349 -2.2043412 0.91687322 0
4.3500004 -2.212013 0.91700304 0
4.3500004 -2.2191381 0.91700304 0
4.3500004 -2.226263 0.91700304 0
4.3500004 -2.2333882 0.91700304 0
4.3500004 -2.2405131 0.91700304 0
4.3500004 -2.2476382 0.91700304 0
4.3500004 -2.2547634 0.91700304 0
4.3500004 -2.2618883 0.91700304 0
4.3500004 -2.2690134 0.91700304 0
4.3500004 -2.2761383 0.91700304 0
4.3500004 -2.2832634 0.91700304 0
4.3500004 -2.2903886 0.91700304 0
4.3500004 -2.2975135 0.91700304 0
4.3500004 -2.3046386 0.91700304 0
4.3510003 -2.3123372 0.91713297 0
4.3510003 -2.319464 0.91713297 0
4.7260003 -2.0592449 0.95803249 0
4.7100005 -2.0595732 0.9559834 0
4.6930003 -2.0593746 0.95380616 0
4.6770005 -2.0595858 0.95175707 0
4.6610003 -2.0597391 0.94970787 0
4.6460004 -2.0603092 0.94778693 0
4.6300001 -2.0603485 0.94573772 0
4.6140003 -2.0603309 0.94368863 0
4.5990005 -2.0607347 0.94176757 0
4.5840001 -2.0610847 0.93984652 0
4.5680003 -2.0608971 0.93779743 0
4.5530005 -2.0611372 0.93587637 0
4.5380001 -2.0613227 0.93395519 0
4.5230002 -2.0614543 0.93203413 0
4.5080004 -2.061532 0.9301132 0
4.4940004 -2.062048 0.92832017 0
4.4790001 -2.0620189 0.92639911 0
4.4650002 -2.0624321 0.92460608 0
4.4500003 -2.0622969 0.92268503 0
4.4360003 -2.062607 0.92089212 0
4.4220004 -2.0628669 0.91909909 0
4.4080005 -2.063076 0.91730618 0
4.3940001 -2.0632348 0.91551316 0
4.3800001 -2.0633433 0.91372013 0
4.3660002 -2.0634007 0.9119271 0
4.3520002 -2.0634079 0.9101342 0
4.348 -2.0684874 0.90962183 0
4.348 -2.075609 0.90962183 0
4.348 -2.0827303 0.90962183 0
4.348 -2.0898519 0.90962183 0
4.348 -2.0969732 0.90962183 0
4.348 -2.1040947 0.90962183 0
4.348 -2.1112161 0.90962183 0
4.349 -2.1188624 0.90974998 0
4.349 -2.1259856 0.90974998 0
4.349 -2.1331089 0.90974998 0
4.349 -2.1402321 0.90974998 0
4.349 -2.1473556 0.90974998 0
4.349 -2.1544785 0.90974998 0
4.349 -2.1616018 0.90974998 0
4.349 -2.168725 0.90974998 0
4.349 -2.1758482 0.90974998 0
4.349 -2.1829717 0.90974998 0
4.349 -2.1900949 0.90974998 0
4.349 -2.1972179 0.90974998 0
4.349 -2.2043412 0.90974998 0
4.3500004 -2.212013 0.90987802 0
4.3500004 -2.2191381 0.90987802 0
4.3500004 -2.226263 0.90987802 0
4.3500004 -2.2333882 0.90987802 0
4.3500004 -2.2405131 0.90987802 0
4.3500004 -2.2476382 0.90987802 0
4.3500004 -2.2547634 0.90987802 0
4.3500004 -2.2618883 0.90987802 0
4.3500004 -2.2690134 0.90987802 0
4.3500004 -2.2761383 0.90987802 0
4.3500004 -2.2832634 0.90987802 0
4.3500004 -2.2903886 0.90987802 0
4.3500004 -2.2975135 0.90987802 0
4.3500004 -2.3046386 0.90987802 0
4.3510003 -2.3123372 0.91000617 0
4.3510003 -2.319464 0.91000617 0
4.7260003 -2.0592449 0.95022917 0
4.7100005 -2.0595732 0.94820905 0
4.6930003 -2.0593746 0.94606245 0
4.6770005 -2.0595858 0.94404221 0
4.6610003 -2.0597391 0.94202185 0
4.6460004 -2.0603092 0.94012797 0
4.6300001 -2.0603485 0.93810761 0
4.6140003 -2.0603309 0.93608737 0
4.5990005 -2.0607347 0.93419337 0
4.5840001 -2.0610847 0.93229938 0
4.5680003 -2.0608971 0.93027914 0
4.5530005 -2.0611372 0.92838514 0
4.5380001 -2.0613227 0.92649114 0
4.5230002 -2.0614543 0.92459714 0
4.5080004 -2.061532 0.92270315 0
4.4940004 -2.062048 0.92093539 0
4.4790001 -2.0620189 0.9190414 0
4.4650002 -2.0624321 0.91727364 0
4.4500003 -2.0622969 0.91537964 0
4.4360003 -2.062607 0.91361189 0
4.4220004 -2.0628669 0.91184413 0
4.4080005 -2.063076 0.9100765 0
4.3940001 -2.0632348 0.90830874 0
4.3800001 -2.0633433 0.90654099 0
4.3660002 -2.0634007 0.90477324 0
4.3520002 -2.0634079 0.90300554 0
4.348 -2.0684874 0.90250045 0
4.348 -2.075609 0.90250045 0
4.348 -2.0827303 0.90250045 0
4.348 -2.0898519 0.90250045 0
4.348 -2.0969732 0.90250045 0
4.348 -2.1040947 0.90250045 0
4.348 -2.1112161 0.90250045 0
4.349 -2.1188624 0.90262675 0
4.349 -2.1259856 0.90262675 0
4.349 -2.1331089 0.90262675 0
4.349 -2.1402321 0.90262675 0
4.349 -2.1473556 0.90262675 0
4.349 -2.1544785 0.90262675 0
4.349 -2.1616018 0.90262675 0
4.349 -2.168725 0.90262675 0
4.349 -2.1758482 0.90262675 0
4.349 -2.1829717 0.90262675 0
4.349 -2.1900949 0.90262675 0
4.349 -2.1972179 0.90262675 0
4.349 -2.2043412 0.90262675 0
4.3500004 -2.212013 0.902753 0
4.3500004 -2.2191381 0.902753 0
4.3500004 -2.226263 0.902753 0
4.3500004 -2.2333882 0.902753 0
4.3500004 -2.2405131 0.902753 0
4.3500004 -2.2476382 0.902753 0
4.3500004 -2.2547634 0.902753 0
4.3500004 -2.2618883 0.902753 0
4.3500004 -2.2690134 0.902753 0
4.3500004 -2.2761383 0.902753 0
4.3500004 -2.2832634 0.902753 0
4.3500004 -2.2903886 0.902753 0
4.3500004 -2.2975135 0.902753 0
4.3500004 -2.3046386 0.902753 0
4.3510003 -2.3123372 0.90287924 0
4.3510003 -2.319464 0.90287924 0
4.7260003 -2.0592449 0.94242597 0
4.7100005 -2.0595732 0.94043458 0
4.6930003 -2.0593746 0.93831873 0
4.6770005 -2.0595858 0.93632734 0
4.6610003 -2.0597391 0.93433583 0
4.6460004 -2.0603092 0.93246901 0
4.6300001 -2.0603485 0.9304775 0
4.6140003 -2.0603309 0.92848611 0
4.5990005 -2.0607347 0.92661917 0
4.5840001 -2.0610847 0.92475224 0
4.5680003 -2.0608971 0.92276084 0
4.5530005 -2.0611372 0.92089391 0
4.5380001 -2.0613227 0.91902697 0
4.5230002 -2.0614543 0.91716003 0
4.5080004 -2.061532 0.9152931 0
4.4940004 -2.062048 0.91355062 0
4.4790001 -2.0620189 0.91168356 0
4.4650002 -2.0624321 0.9099412 0
4.4500003 -2.0622969 0.90807426 0
4.4360003 -2.062607 0.90633178 0
4.4220004 -2.0628669 0.9045893 0
4.4080005 -2.063076 0.90284681 0
4.3940001 -2.0632348 0.90110427 0
4.3800001 -2.0633433 0.89936185 0
4.3660002 -2.0634007 0.89761931 0
4.3520002 -2.0634079 0.89587688 0
4.348 -2.0684874 0.89537907 0
4.348 -2.075609 0.89537907 0
4.348 -2.0827303 0.89537907 0
4.348 -2.0898519 0.89537907 0
4.348 -2.0969732 0.89537907 0
4.348 -2.1040947 0.89537907 0
4.348 -2.1112161 0.89537907 0
4.349 -2.1188624 0.89550352 0
4.349 -2.1259856 0.89550352 0
4.349 -2.1331089 0.89550352 0
4.349 -2.1402321 0.89550352 0
4.349 -2.1473556 0.89550352 0
4.349 -2.1544785 0.89550352 0
4.349 -2.1616018 0.89550352 0
4.349 -2.168725 0.89550352 0
4.349 -2.1758482 0.89550352 0
4.349 -2.1829717 0.89550352 0
4.349 -2.1900949 0.89550352 0
4.349 -2.1972179 0.89550352 0
4.349 -2.2043412 0.89550352 0
4.3500004 -2.212013 0.89562798 0
4.3500004 -2.2191381 0.89562798 0
4.3500004 -2.226263 0.89562798 0
4.3500004 -2.2333882 0.89562798 0
4.3500004 -2.2405131 0.89562798 0
4.3500004 -2.2476382 0.89562798 0
4.3500004 -2.2547634 0.89562798 0
4.3500004 -2.2618883 0.89562798 0
4.3500004 -2.2690134 0.89562798 0
4.3500004 -2.2761383 0.89562798 0
4.3500004 -2.2832634 0.89562798 0
4.3500004 -2.2903886 0.89562798 0
4.3500004 -2.2975135 0.89562798 0
4.3500004 -2.3046386 0.89562798 0
4.3510003 -2.3123372 0.89575243 0
4.3510003 -2.319464 0.89575243 0
4.7260003 -2.0592449 0.93462265 0
4.7100005 -2.0595732 0.9326601 0
4.6930003 -2.0593746 0.93057489 0
4.6770005 -2.0595858 0.92861247 0
4.6610003 -2.0597391 0.92664981 0
4.6460004 -2.0603092 0.92480993 0
4.6300001 -2.0603485 0.92284739 0
4.6140003 -2.0603309 0.92088485 0
4.5990005 -2.0607347 0.91904497 0
4.5840001 -2.0610847 0.9172051 0
4.5680003 -2.0608971 0.91524255 0
4.5530005 -2.0611372 0.91340268 0
4.5380001 -2.0613227 0.9115628 0
4.5230002 -2.0614543 0.90972292 0
4.5080004 -2.061532 0.90788305 0
4.4940004 -2.062048 0.90616584 0
4.4790001 -2.0620189 0.90432596 0
4.4650002 -2.0624321 0.90260869 0
4.4500003 -2.0622969 0.90076882 0
4.4360003 -2.062607 0.89905161 0
4.4220004 -2.0628669 0.8973344 0
4.4080005 -2.063076 0.89561713 0
4.3940001 -2.0632348 0.89389992 0
4.3800001 -2.0633433 0.89218271 0
4.3660002 -2.0634007 0.8904655 0
4.3520002 -2.0634079 0.88874823 0
4.348 -2.0684874 0.88825762 0
4.348 -2.075609 0.88825762 0
4.348 -2.0827303 0.88825762 0
4.348 -2.0898519 0.88825762 0
4.348 -2.0969732 0.88825762 0
4.348 -2.1040947 0.88825762 0
4.348 -2.1112161 0.88825762 0
4.349 -2.1188624 0.88838029 0
4.349 -2.1259856 0.88838029 0
4.349 -2.1331089 0.88838029 0
4.349 -2.1402321 0.88838029 0
4.349 -2.1473556 0.88838029 0
4.349 -2.1544785 0.88838029 0
4.349 -2.1616018 0.88838029 0
4.349 -2.168725 0.88838029 0
4.349 -2.1758482 0.88838029 0
4.349 -2.1829717 0.88838029 0
4.349 -2.1900949 0.88838029 0
4.349 -2.1972179 0.88838029 0
4.349 -2.2043412 0.88838029 0
4.3500004 -2.212013 0.8885029 0
4.3500004 -2.2191381 0.8885029 0
4.3500004 -2.226263 0.8885029 0
4.3500004 -2.2333882 0.8885029 0
4.3500004 -2.2405131 0.8885029 0
4.3500004 -2.2476382 0.8885029 0
4.3500004 -2.2547634 0.8885029 0
4.3500004 -2.2618883 0.8885029 0
4.3500004 -2.2690134 0.8885029 0
4.3500004 -2.2761383 0.8885029 0
4.3500004 -2.2832634 0.8885029 0
4.3500004 -2.2903886 0.8885029 0
4.3500004 -2.2975135 0.8885029 0
4.3500004 -2.3046386 0.8885029 0
4.3510003 -2.3123372 0.88862562 0
4.3510003 -2.319464 0.88862562 0
4.7260003 -2.0592449 0.92681944 0
4.7100005 -2.0595732 0.92488575 0
4.6930003 -2.0593746 0.92283118 0
4.6770005 -2.0595858 0.92089748 0
4.6610003 -2.0597391 0.91896379 0
4.6460004 -2.0603092 0.91715097 0
4.6300001 -2.0603485 0.91521728 0
4.6140003 -2.0603309 0.91328359 0
4.5990005 -2.0607347 0.91147089 0
4.5840001 -2.0610847 0.90965796 0
4.5680003 -2.0608971 0.90772426 0
4.5530005 -2.0611372 0.90591145 0
4.5380001 -2.0613227 0.90409863 0
4.5230002 -2.0614543 0.90228581 0
4.5080004 -2.061532 0.900473 0
4.4940004 -2.062048 0.89878106 0
4.4790001 -2.0620189 0.89696813 0
4.4650002 -2.0624321 0.89527619 0
4.4500003 -2.0622969 0.89346337 0
4.4360003 -2.062607 0.89177144 0
4.4220004 -2.0628669 0.8900795 0
4.4080005 -2.063076 0.88838744 0
4.3940001 -2.0632348 0.8866955 0
4.3800001 -2.0633433 0.88500351 0
4.3660002 -2.0634007 0.88331151 0
4.3520002 -2.0634079 0.88161957 0
4.348 -2.0684874 0.88113618 0
4.348 -2.075609 0.88113618 0
4.348 -2.0827303 0.88113618 0
4.348 -2.0898519 0.88113618 0
4.348 -2.0969732 0.88113618 0
4.348 -2.1040947 0.88113618 0
4.348 -2.1112161 0.88113618 0
4.349 -2.1188624 0.881257 0
4.349 -2.1259856 0.881257 0
4.349 -2.1331089 0.881257 0
4.349 -2.1402321 0.881257 0
4.349 -2.1473556 0.881257 0
4.349 -2.1544785 0.881257 0
4.349 -2.1616018 0.881257 0
4.349 -2.168725 0.881257 0
4.349 -2.1758482 0.881257 0
4.349 -2.1829717 0.881257 0
4.349 -2.1900949 0.881257 0
4.349 -2.1972179 0.881257 0
4.349 -2.2043412 0.881257 0
4.3500004 -2.212013 0.88137788 0
4.3500004 -2.2191381 0.88137788 0
4.3500004 -2.226263 0.88137788 0
4.3500004 -2.2333882 0.88137788 0
4.3500004 -2.2405131 0.88137788 0
4.3500004 -2.2476382 0.88137788 0
4.3500004 -2.2547634 0.88137788 0
4.3500004 -2.2618883 0.88137788 0
4.3500004 -2.2690134 0.88137788 0
4.3500004 -2.2761383 0.88137788 0
4.3500004 -2.2832634 0.88137788 0
4.3500004 -2.2903886 0.88137788 0
4.3500004 -2.2975135 0.88137788 0
4.3500004 -2.3046386 0.88137788 0
4.3510003 -2.3123372 0.88149869 0
4.3510003 -2.319464 0.88149869 0
4.7260003 -2.0592449 0.91901612 0
4.7100005 -2.0595732 0.91711128 0
4.6930003 -2.0593746 0.91508746 0
4.6770005 -2.0595858 0.91318262 0
4.6610003 -2.0597391 0.91127777 0
4.6460004 -2.0603092 0.90949202 0
4.6300001 -2.0603485 0.90758717 0
4.6140003 -2.0603309 0.90568244 0
4.5990005 -2.0607347 0.90389663 0
4.5840001 -2.0610847 0.90211082 0
4.5680003 -2.0608971 0.90020597 0
4.5530005 -2.0611372 0.89842027 0
4.5380001 -2.0613227 0.89663446 0
4.5230002 -2.0614543 0.8948487 0
4.5080004 -2.061532 0.89306295 0
4.4940004 -2.062048 0.89139616 0
4.4790001 -2.0620189 0.88961041 0
4.4650002 -2.0624321 0.88794374 0
4.4500003 -2.0622969 0.88615799 0
4.4360003 -2.062607 0.88449121 0
4.4220004 -2.0628669 0.88282454 0
4.4080005 -2.063076 0.88115782 0
4.3940001 -2.0632348 0.87949109 0
4.3800001 -2.0633433 0.87782437 0
4.3660002 -2.0634007 0.87615764 0
4.3520002 -2.0634079 0.87449092 0
4.348 -2.0684874 0.87401474 0
4.348 -2.075609 0.87401474 0
4.348 -2.0827303 0.87401474 0
4.348 -2.0898519 0.87401474 0
4.348 -2.0969732 0.87401474 0
4.348 -2.1040947 0.87401474 0
4.348 -2.1112161 0.87401474 0
4.349 -2.1188624 0.87413377 0
4.349 -2.1259856 0.87413377 0
4.349 -2.1331089 0.87413377 0
4.349 -2.1402321 0.87413377 0
4.349 -2.1473556 0.87413377 0
4.349 -2.1544785 0.87413377 0
4.349 -2.1616018 0.87413377 0
4.349 -2.168725 0.87413377 0
4.349 -2.1758482 0.87413377 0
4.349 -2.1829717 0.87413377 0
4.349 -2.1900949 0.87413377 0
4.349 -2.1972179 0.87413377 0
4.349 -2.2043412 0.87413377 0
4.3500004 -2.212013 0.8742528 0
4.3500004 -2.2191381 0.8742528 0
4.3500004 -2.226263 0.8742528 0
4.3500004 -2.2333882 0.8742528 0
4.3500004 -2.2405131 0.8742528 0
4.3500004 -2.2476382 0.8742528 0
4.3500004 -2.2547634 0.8742528 0
4.3500004 -2.2618883 0.8742528 0
4.3500004 -2.2690134 0.8742528 0
4.3500004 -2.2761383 0.8742528 0
4.3500004 -2.2832634 0.8742528 0
4.3500004 -2.2903886 0.8742528 0
4.3500004 -2.2975135 0.8742528 0
4.3500004 -2.3046386 0.8742528 0
4.3510003 -2.3123372 0.87437189 0
4.3510003 -2.319464 0.87437189 0
4.7260003 -2.0592449 0.9112128 0
4.7100005 -2.0595732 0.90933692 0
4.6930003 -2.0593746 0.90734363 0
4.6770005 -2.0595858 0.90546775 0
4.6610003 -2.0597391 0.90359175 0
4.6460004 -2.0603092 0.90183306 0
4.6300001 -2.0603485 0.89995706 0
4.6140003 -2.0603309 0.89808112 0
4.5990005 -2.0607347 0.89632243 0
4.5840001 -2.0610847 0.89456367 0
4.5680003 -2.0608971 0.89268774 0
4.5530005 -2.0611372 0.8909291 0
4.5380001 -2.0613227 0.88917029 0
4.5230002 -2.0614543 0.88741159 0
4.5080004 -2.061532 0.8856529 0
4.4940004 -2.062048 0.88401139 0
4.4790001 -2.0620189 0.88225269 0
4.4650002 -2.0624321 0.88061124 0
4.4500003 -2.0622969 0.87885249 0
4.4360003 -2.062607 0.87721109 0
4.4220004 -2.0628669 0.87556958 0
4.4080005 -2.063076 0.87392819 0
4.3940001 -2.0632348 0.87228668 0
4.3800001 -2.0633433 0.87064517 0
4.3660002 -2.0634007 0.86900377 0
4.3520002 -2.0634079 0.86736226 0
4.348 -2.0684874 0.86689329 0
4.348 -2.075609 0.86689329 0
4.348 -2.0827303 0.86689329 0
4.348 -2.0898519 0.86689329 0
4.348 -2.0969732 0.86689329 0
4.348 -2.1040947 0.86689329 0
4.348 -2.1112161 0.86689329 0
4.349 -2.1188624 0.86701047 0
4.349 -2.1259856 0.86701047 0
4.349 -2.1331089 0.86701047 0
4.349 -2.1402321 0.86701047 0
4.349 -2.1473556 0.86701047 0
4.349 -2.1544785 0.86701047 0
4.349 -2.1616018 0.86701047 0
4.349 -2.168725 0.86701047 0
4.349 -2.1758482 0.86701047 0
4.349 -2.1829717 0.86701047 0
4.349 -2.1900949 0.86701047 0
4.349 -2.1972179 0.86701047 0
4.349 -2.2043412 0.86701047 0
4.3500004 -2.212013 0.86712778 0
4.3500004 -2.2191381 0.86712778 0
4.3500004 -2.226263 0.86712778 0
4.3500004 -2.2333882 0.86712778 0
4.3500004 -2.2405131 0.86712778 0
4.3500004 -2.2476382 0.86712778 0
4.3500004 -2.2547634 0.86712778 0
4.3500004 -2.2618883 0.86712778 0
4.3500004 -2.2690134 0.86712778 0
4.3500004 -2.2761383 0.86712778 0
4.3500004 -2.2832634 0.86712778 0
4.3500004 -2.2903886 0.86712778 0
4.3500004 -2.2975135 0.86712778 0
4.3500004 -2.3046386 0.86712778 0
4.3510003 -2.3123372 0.86724502 0
4.3510003 -2.319464 0.86724502 0
4.7260003 -2.0592449 0.9034096 0
4.7100005 -2.0595732 0.90156251 0
4.6930003 -2.0593746 0.89959991 0
4.6770005 -2.0595858 0.89775288 0
4.6610003 -2.0597391 0.89590573 0
4.6460004 -2.0603092 0.8941741 0
4.6300001 -2.0603485 0.89232695 0
4.6140003 -2.0603309 0.89047992 0
4.5990005 -2.0607347 0.88874823 0
4.5840001 -2.0610847 0.88701653 0
4.5680003 -2.0608971 0.88516951 0
4.5530005 -2.0611372 0.88343787 0
4.5380001 -2.0613227 0.88170612 0
4.5230002 -2.0614543 0.87997448 0
4.5080004 -2.061532 0.87824285 0
4.4940004 -2.062048 0.87662661 0
4.4790001 -2.0620189 0.87489498 0
4.4650002 -2.0624321 0.87327874 0
4.4500003 -2.0622969 0.8715471 0
4.4360003 -2.062607 0.86993086 0
4.4220004 -2.0628669 0.86831468 0
4.4080005 -2.063076 0.8666985 0
4.3940001 -2.0632348 0.86508226 0
4.3800001 -2.0633433 0.86346602 0
4.3660002 -2.0634007 0.86184978 0
4.3520002 -2.0634079 0.8602336 0
4.348 -2.0684874 0.85977185 0
4.348 -2.075609 0.85977185 0
4.348 -2.0827303 0.85977185 0
4.348 -2.0898519 0.85977185 0
4.348 -2.0969732 0.85977185 0
4.348 -2.1040947 0.85977185 0
4.348 -2.1112161 0.85977185 0
4.349 -2.1188624 0.85988724 0
4.349 -2.1259856 0.85988724 0
4.349 -2.1331089 0.85988724 0
4.349 -2.1402321 0.85988724 0
4.349 -2.1473556 0.85988724 0
4.349 -2.1544785 0.85988724 0
4.349 -2.1616018 0.85988724 0
4.349 -2.168725 0.85988724 0
4.349 -2.1758482 0.85988724 0
4.349 -2.1829717 0.85988724 0
4.349 -2.1900949 0.85988724 0
4.349 -2.1972179 0.85988724 0
4.349 -2.2043412 0.85988724 0
4.3500004 -2.212013 0.86000276 0
4.3500004 -2.2191381 0.86000276 0
4.3500004 -2.226263 0.86000276 0
4.3500004 -2.2333882 0.86000276 0
4.3500004 -2.2405131 0.86000276 0
4.3500004 -2.2476382 0.86000276 0
4.3500004 -2.2547634 0.86000276 0
4.3500004 -2.2618883 0.86000276 0
4.3500004 -2.2690134 0.86000276 0
4.3500004 -2.2761383 0.86000276 0
4.3500004 -2.2832634 0.86000276 0
4.3500004 -2.2903886 0.86000276 0
4.3500004 -2.2975135 0.86000276 0
4.3500004 -2.3046386 0.86000276 0
4.3510003 -2.3123372 0.86011815 0
4.3510003 -2.319464 0.86011815 0
4.7260003 -2.0592449 0.89560628 0
4.7100005 -2.0595732 0.8937881 0
4.6930003 -2.0593746 0.89185619 0
4.6770005 -2.0595858 0.89003795 0
4.6610003 -2.0597391 0.88821971 0
4.6460004 -2.0603092 0.88651514 0
4.6300001 -2.0603485 0.88469684 0
4.6140003 -2.0603309 0.88287866 0
4.5990005 -2.0607347 0.88117403 0
4.5840001 -2.0610847 0.87946939 0
4.5680003 -2.0608971 0.87765121 0
4.5530005 -2.0611372 0.87594658 0
4.5380001 -2.0613227 0.87424195 0
4.5230002 -2.0614543 0.87253737 0
4.5080004 -2.061532 0.8708328 0
4.4940004 -2.062048 0.86924183 0
4.4790001 -2.0620189 0.8675372 0
4.4650002 -2.0624321 0.86594629 0
4.4500003 -2.0622969 0.86424172 0
4.4360003 -2.062607 0.86265075 0
4.4220004 -2.0628669 0.86105978 0
4.4080005 -2.063076 0.85946882 0
4.3940001 -2.0632348 0.85787785 0
4.3800001 -2.0633433 0.85628688 0
4.3660002 -2.0634007 0.85469592 0
4.3520002 -2.0634079 0.85310495 0
4.348 -2.0684874 0.8526504 0
4.348 -2.075609 0.8526504 0
4.348 -2.0827303 0.8526504 0
4.348 -2.0898519 0.8526504 0
4.348 -2.0969732 0.8526504 0
4.348 -2.1040947 0.8526504 0
4.348 -2.1112161 0.8526504 0
4.349 -2.1188624 0.85276401 0
4.349 -2.1259856 0.85276401 0
4.349 -2.1331089 0.85276401 0
4.349 -2.1402321 0.85276401 0
4.349 -2.1473556 0.85276401 0
4.349 -2.1544785 0.85276401 0
4.349 -2.1616018 0.85276401 0
4.349 -2.168725 0.85276401 0
4.349 -2.1758482 0.85276401 0
4.349 -2.1829717 0.85276401 0
4.349 -2.1900949 0.85276401 0
4.349 -2.1972179 0.85276401 0
4.349 -2.2043412 0.85276401 0
4.3500004 -2.212013 0.85287774 0
4.3500004 -2.2191381 0.85287774 0
4.3500004 -2.226263 0.85287774 0
4.3500004 -2.2333882 0.85287774 0
4.3500004 -2.2405131 0.85287774 0
4.3500004 -2.2476382 0.85287774 0
4.3500004 -2.2547634 0.85287774 0
4.3500004 -2.2618883 0.85287774 0
4.3500004 -2.2690134 0.85287774 0
4.3500004 -2.2761383 0.85287774 0
4.3500004 -2.2832634 0.85287774 0
4.3500004 -2.2903886 0.85287774 0
4.3500004 -2.2975135 0.85287774 0
4.3500004 -2.3046386 0.85287774 0
4.3510003 -2.3123372 0.85299134 0
4.3510003 -2.319464 0.85299134 0
4.7260003 -2.0592449 0.88780302 0
4.7100005 -2.0595732 0.88601369 0
4.6930003 -2.0593746 0.88411248 0
4.6770005 -2.0595858 0.88232303 0
4.6610003 -2.0597391 0.8805337 0
4.6460004 -2.0603092 0.87885618 0
4.6300001 -2.0603485 0.87706673 0
4.6140003 -2.0603309 0.8752774 0
4.5990005 -2.0607347 0.87359989 0
4.5840001 -2.0610847 0.87192225 0
4.5680003 -2.0608971 0.87013292 0
4.5530005 -2.0611372 0.86845541 0
4.5380001 -2.0613227 0.86677778 0
4.5230002 -2.0614543 0.86510026 0
4.5080004 -2.061532 0.86342275 0
4.4940004 -2.062048 0.86185706 0
4.4790001 -2.0620189 0.86017948 0
4.4650002 -2.0624321 0.85861379 0
4.4500003 -2.0622969 0.85693622 0
4.4360003 -2.062607 0.85537052 0
4.4220004 -2.0628669 0.85380483 0
4.4080005 -2.063076 0.85223913 0
4.3940001 -2.0632348 0.85067344 0
4.3800001 -2.0633433 0.84910774 0
4.3660002 -2.0634007 0.84754205 0
4.3520002 -2.0634079 0.84597629 0
4.348 -2.0684874 0.84552896 0
4.348 -2.075609 0.84552896 0
4.348 -2.0827303 0.84552896 0
4.348 -2.0898519 0.84552896 0
4.348 -2.0969732 0.84552896 0
4.348 -2.1040947 0.84552896 0
4.348 -2.1112161 0.84552896 0
4.349 -2.1188624 0.84564078 0
4.349 -2.1259856 0.84564078 0
4.349 -2.1331089 0.84564078 0
4.349 -2.1402321 0.84564078 0
4.349 -2.1473556 0.84564078 0
4.349 -2.1544785 0.84564078 0
4.349 -2.1616018 0.84564078 0
4.349 -2.168725 0.84564078 0
4.349 -2.1758482 0.84564078 0
4.349 -2.1829717 0.84564078 0
4.349 -2.1900949 0.84564078 0
4.349 -2.1972179 0.84564078 0
4.349 -2.2043412 0.84564078 0
4.3500004 -2.212013 0.84575272 0
4.3500004 -2.2191381 0.84575272 0
4.3500004 -2.226263 0.84575272 0
4.3500004 -2.2333882 0.84575272 0
4.3500004 -2.2405131 0.84575272 0
4.3500004 -2.2476382 0.84575272 0
4.3500004 -2.2547634 0.84575272 0
4.3500004 -2.2618883 0.84575272 0
4.3500004 -2.2690134 0.84575272 0
4.3500004 -2.2761383 0.84575272 0
4.3500004 -2.2832634 0.84575272 0
4.3500004 -2.2903886 0.84575272 0
4.3500004 -2.2975135 0.84575272 0
4.3500004 -2.3046386 0.84575272 0
4.3510003 -2.3123372 0.84586447 0
4.3510003 -2.319464 0.84586447 0
4.7260003 -2.0592449 0.87999976 0
4.7100005 -2.0595732 0.87823927 0
4.6930003 -2.0593746 0.8763687 0
4.6770005 -2.0595858 0.87460822 0
4.6610003 -2.0597391 0.87284768 0
4.6460004 -2.0603092 0.87119716 0
4.6300001 -2.0603485 0.86943662 0
4.6140003 -2.0603309 0.86767614 0
4.5990005 -2.0607347 0.86602569 0
4.5840001 -2.0610847 0.86437511 0
4.5680003 -2.0608971 0.86261463 0
4.5530005 -2.0611372 0.86096418 0
4.5380001 -2.0613227 0.85931367 0
4.5230002 -2.0614543 0.85766315 0
4.5080004 -2.061532 0.8560127 0
4.4940004 -2.062048 0.85447228 0
4.4790001 -2.0620189 0.85282177 0
4.4650002 -2.0624321 0.85128129 0
4.4500003 -2.0622969 0.84963083 0
4.4360003 -2.062607 0.84809041 0
4.4220004 -2.0628669 0.84654999 0
4.4080005 -2.063076 0.84500951 0
4.3940001 -2.0632348 0.84346902 0
4.3800001 -2.0633433 0.8419286 0
4.3660002 -2.0634007 0.84038812 0
4.3520002 -2.0634079 0.83884764 0
4.348 -2.0684874 0.83840752 0
4.348 -2.075609 0.83840752 0
4.348 -2.0827303 0.83840752 0
4.348 -2.0898519 0.83840752 0
4.348 -2.0969732 0.83840752 0
4.348 -2.1040947 0.83840752 0
4.348 -2.1112161 0.83840752 0
4.349 -2.1188624 0.83851755 0
4.349 -2.1259856 0.83851755 0
4.349 -2.1331089 0.83851755 0
4.349 -2.1402321 0.83851755 0
4.349 -2.1473556 0.83851755 0
4.349 -2.1544785 0.83851755 0
4.349 -2.1616018 0.83851755 0
4.349 -2.168725 0.83851755 0
4.349 -2.1758482 0.83851755 0
4.349 -2.1829717 0.83851755 0
4.349 -2.1900949 0.83851755 0
4.349 -2.1972179 0.83851755 0
4.349 -2.2043412 0.83851755 0
4.3500004 -2.212013 0.83862758 0
4.3500004 -2.2191381 0.83862758 0
4.3500004 -2.226263 0.83862758 0
4.3500004 -2.2333882 0.83862758 0
4.3500004 -2.2405131 0.83862758 0
4.3500004 -2.2476382 0.83862758 0
4.3500004 -2.2547634 0.83862758 0
4.3500004 -2.2618883 0.83862758 0
4.3500004 -2.2690134 0.83862758 0
4.3500004 -2.2761383 0.83862758 0
4.3500004 -2.2832634 0.83862758 0
4.3500004 -2.2903886 0.83862758 0
4.3500004 -2.2975135 0.83862758 0
4.3500004 -2.3046386 0.83862758 0
4.3510003 -2.3123372 0.83873761 0
4.3510003 -2.319464 0.83873761 0
4.7260003 -2.0592449 0.87219644 0
4.7100005 -2.0595732 0.87046486 0
4.6930003 -2.0593746 0.86862493 0
4.6770005 -2.0595858 0.86689329 0
4.6610003 -2.0597391 0.8651616 0
4.6460004 -2.0603092 0.86353821 0
4.6300001 -2.0603485 0.86180651 0
4.6140003 -2.0603309 0.86007488 0
4.5990005 -2.0607347 0.85845149 0
4.5840001 -2.0610847 0.85682803 0
4.5680003 -2.0608971 0.8550964 0
4.5530005 -2.0611372 0.85347295 0
4.5380001 -2.0613227 0.8518495 0
4.5230002 -2.0614543 0.85022604 0
4.5080004 -2.061532 0.84860265 0
4.4940004 -2.062048 0.8470875 0
4.4790001 -2.0620189 0.84546399 0
4.4650002 -2.0624321 0.84394884 0
4.4500003 -2.0622969 0.84232545 0
4.4360003 -2.062607 0.84081024 0
4.4220004 -2.0628669 0.83929503 0
4.4080005 -2.063076 0.83777988 0
4.3940001 -2.0632348 0.83626461 0
4.3800001 -2.0633433 0.83474946 0
4.3660002 -2.0634007 0.83323419 0
4.3520002 -2.0634079 0.83171904 0
4.348 -2.0684874 0.83128607 0
4.348 -2.075609 0.83128607 0
4.348 -2.0827303 0.83128607 0
4.348 -2.0898519 0.83128607 0
4.348 -2.0969732 0.83128607 0
4.348 -2.1040947 0.83128607 0
4.348 -2.1112161 0.83128607 0
4.349 -2.1188624 0.83139431 0
4.349 -2.1259856 0.83139431 0
4.349 -2.1331089 0.83139431 0
4.349 -2.1402321 0.83139431 0
4.349 -2.1473556 0.83139431 0
4.349 -2.1544785 0.83139431 0
4.349 -2.1616018 0.83139431 0
4.349 -2.168725 0.83139431 0
4.349 -2.1758482 0.83139431 0
4.349 -2.1829717 0.83139431 0
4.349 -2.1900949 0.83139431 0
4.349 -2.1972179 0.83139431 0
4.349 -2.2043412 0.83139431 0
4.3500004 -2.212013 0.83150256 0
4.3500004 -2.2191381 0.83150256 0
4.3500004 -2.226263 0.83150256 0
4.3500004 -2.2333882 0.83150256 0
4.3500004 -2.2405131 0.83150256 0
4.3500004 -2.2476382 0.83150256 0
4.3500004 -2.2547634 0.83150256 0
4.3500004 -2.2618883 0.83150256 0
4.3500004 -2.2690134 0.83150256 0
4.3500004 -2.2761383 0.83150256 0
4.3500004 -2.2832634 0.83150256 0
4.3500004 -2.2903886 0.83150256 0
4.3500004 -2.2975135 0.83150256 0
4.3500004 -2.3046386 0.83150256 0
4.3510003 -2.3123372 0.8316108 0
4.3510003 -2.319464 0.8316108 0
4.7260003 -2.0592449 0.86439323 0
4.7100005 -2.0595732 0.86269045 0
4.6930003 -2.0593746 0.86088121 0
4.6770005 -2.0595858 0.85917842 0
4.6610003 -2.0597391 0.85747558 0
4.6460004 -2.0603092 0.85587925 0
4.6300001 -2.0603485 0.8541764 0
4.6140003 -2.0603309 0.85247362 0
4.5990005 -2.0607347 0.85087729 0
4.5840001 -2.0610847 0.84928089 0
4.5680003 -2.0608971 0.84757811 0
4.5530005 -2.0611372 0.84598172 0
4.5380001 -2.0613227 0.84438533 0
4.5230002 -2.0614543 0.84278893 0
4.5080004 -2.061532 0.8411926 0
4.4940004 -2.062048 0.83970273 0
4.4790001 -2.0620189 0.83810627 0
4.4650002 -2.0624321 0.8366164 0
4.4500003 -2.0622969 0.83502001 0
4.4360003 -2.062607 0.83353007 0
4.4220004 -2.0628669 0.83204007 0
4.4080005 -2.063076 0.83055019 0
4.3940001 -2.0632348 0.8290602 0
4.3800001 -2.0633433 0.82757032 0
4.3660002 -2.0634007 0.82608032 0
4.3520002 -2.0634079 0.82459038 0
4.348 -2.0684874 0.82416463 0
4.348 -2.075609 0.82416463 0
4.348 -2.0827303 0.82416463 0
4.348 -2.0898519 0.82416463 0
4.348 -2.0969732 0.82416463 0
4.348 -2.1040947 0.82416463 0
4.348 -2.1112161 0.82416463 0
4.349 -2.1188624 0.82427108 0
4.349 -2.1259856 0.82427108 0
4.349 -2.1331089 0.82427108 0
4.349 -2.1402321 0.82427108 0
4.349 -2.1473556 0.82427108 0
4.349 -2.1544785 0.82427108 0
4.349 -2.1616018 0.82427108 0
4.349 -2.168725 0.82427108 0
4.349 -2.1758482 0.82427108 0
4.349 -2.1829717 0.82427108 0
4.349 -2.1900949 0.82427108 0
4.349 -2.1972179 0.82427108 0
4.349 -2.2043412 0.82427108 0
4.3500004 -2.212013 0.82437754 0
4.3500004 -2.2191381 0.82437754 0
4.3500004 -2.226263 0.82437754 0
4.3500004 -2.2333882 0.82437754 0
4.3500004 -2.2405131 0.82437754 0
4.3500004 -2.2476382 0.82437754 0
4.3500004 -2.2547634 0.82437754 0
4.3500004 -2.2618883 0.82437754 0
4.3500004 -2.2690134 0.82437754 0
4.3500004 -2.2761383 0.82437754 0
4.3500004 -2.2832634 0.82437754 0
4.3500004 -2.2903886 0.82437754 0
4.3500004 -2.2975135 0.82437754 0
4.3500004 -2.3046386 0.82437754 0
4.3510003 -2.3123372 0.82448393 0
4.3510003 -2.319464 0.82448393 0
4.7260003 -2.0592449 0.85658991 0
4.7100005 -2.0595732 0.85491604 0
4.6930003 -2.0593746 0.85313749 0
4.6770005 -2.0595858 0.85146356 0
4.6610003 -2.0597391 0.84978962 0
4.6460004 -2.0603092 0.84822029 0
4.6300001 -2.0603485 0.84654629 0
4.6140003 -2.0603309 0.84487242 0
4.5990005 -2.0607347 0.84330308 0
4.5840001 -2.0610847 0.84173375 0
4.5680003 -2.0608971 0.84005988 0
4.5530005 -2.0611372 0.83849055 0
4.5380001 -2.0613227 0.83692122 0
4.5230002 -2.0614543 0.83535188 0
4.5080004 -2.061532 0.83378261 0
4.4940004 -2.062048 0.83231795 0
4.4790001 -2.0620189 0.83074856 0
4.4650002 -2.0624321 0.82928383 0
4.4500003 -2.0622969 0.82771456 0
4.4360003 -2.062607 0.82624984 0
4.4220004 -2.0628669 0.82478523 0
4.4080005 -2.063076 0.82332051 0
4.3940001 -2.0632348 0.82185578 0
4.3800001 -2.0633433 0.82039112 0
4.3660002 -2.0634007 0.81892639 0
4.3520002 -2.0634079 0.81746173 0
4.348 -2.0684874 0.81704324 0
4.348 -2.075609 0.81704324 0
4.348 -2.0827303 0.81704324 0
4.348 -2.0898519 0.81704324 0
4.348 -2.0969732 0.81704324 0
4.348 -2.1040947 0.81704324 0
4.348 -2.1112161 0.81704324 0
4.349 -2.1188624 0.81714785 0
4.349 -2.1259856 0.81714785 0
4.349 -2.1331089 0.81714785 0
4.349 -2.1402321 0.81714785 0
4.349 -2.1473556 0.81714785 0
4.349 -2.1544785 0.81714785 0
4.349 -2.1616018 0.81714785 0
4.349 -2.168725 0.81714785 0
4.349 -2.1758482 0.81714785 0
4.349 -2.1829717 0.81714785 0
4.349 -2.1900949 0.81714785 0
4.349 -2.1972179 0.81714785 0
4.349 -2.2043412 0.81714785 0
4.3500004 -2.212013 0.81725252 0
4.3500004 -2.2191381 0.81725252 0
4.3500004 -2.226263 0.81725252 0
4.3500004 -2.2333882 0.81725252 0
4.3500004 -2.2405131 0.81725252 0
4.3500004 -2.2476382 0.81725252 0
4.3500004 -2.2547634 0.81725252 0
4.3500004 -2.2618883 0.81725252 0
4.3500004 -2.2690134 0.81725252 0
4.3500004 -2.2761383 0.81725252 0
4.3500004 -2.2832634 0.81725252 0
4.3500004 -2.2903886 0.81725252 0
4.3500004 -2.2975135 0.81725252 0
4.3500004 -2.3046386 0.81725252 0
4.3510003 -2.3123372 0.81735712 0
4.3510003 -2.319464 0.81735712 0
4.7420001 -2.0588589 0.85043168 0
4.7260003 -2.0592449 0.84878665 0
4.7100005 -2.0595732 0.84714162 0
4.6930003 -2.0593746 0.84539372 0
4.6770005 -2.0595858 0.84374869 0
4.6610003 -2.0597391 0.84210354 0
4.6460004 -2.0603092 0.84056127 0
4.6300001 -2.0603485 0.83891618 0
4.6140003 -2.0603309 0.83727115 0
4.5990005 -2.0607347 0.83572888 0
4.5840001 -2.0610847 0.83418661 0
4.5680003 -2.0608971 0.83254158 0
4.5530005 -2.0611372 0.83099931 0
4.5380001 -2.0613227 0.82945704 0
4.5230002 -2.0614543 0.82791477 0
4.5080004 -2.061532 0.82637256 0
4.4940004 -2.062048 0.82493311 0
4.4790001 -2.0620189 0.82339084 0
4.4650002 -2.0624321 0.82195139 0
4.4500003 -2.0622969 0.82040918 0
4.4360003 -2.062607 0.81896973 0
4.4220004 -2.0628669 0.81753027 0
4.4080005 -2.063076 0.81609082 0
4.3940001 -2.0632348 0.81465137 0
4.3800001 -2.0633433 0.81321192 0
4.3660002 -2.0634007 0.81177253 0
4.3520002 -2.0634079 0.81033307 0
4.348 -2.0684874 0.8099218 0
4.348 -2.075609 0.8099218 0
4.348 -2.0827303 0.8099218 0
4.348 -2.0898519 0.8099218 0
4.348 -2.0969732 0.8099218 0
4.348 -2.1040947 0.8099218 0
4.348 -2.1112161 0.8099218 0
4.349 -2.1188624 0.81002462 0
4.349 -2.1259856 0.81002462 0
4.349 -2.1331089 0.81002462 0
4.349 -2.1402321 0.81002462 0
4.349 -2.1473556 0.81002462 0
4.349 -2.1544785 0.81002462 0
4.349 -2.1616018 0.81002462 0
4.349 -2.168725 0.81002462 0
4.349 -2.1758482 0.81002462 0
4.349 -2.1829717 0.81002462 0
4.349 -2.1900949 0.81002462 0
4.349 -2.1972179 0.81002462 0
4.349 -2.2043412 0.81002462 0
4.3500004 -2.212013 0.81012744 0
4.3500004 -2.2191381 0.81012744 0
4.3500004 -2.226263 0.81012744 0
4.3500004 -2.2333882 0.81012744 0
4.3500004 -2.2405131 0.81012744 0
4.3500004 -2.2476382 0.81012744 0
4.3500004 -2.2547634 0.81012744 0
4.3500004 -2.2618883 0.81012744 0
4.3500004 -2.2690134 0.81012744 0
4.3500004 -2.2761383 0.81012744 0
4.3500004 -2.2832634 0.81012744 0
4.3500004 -2.2903886 0.81012744 0
4.3500004 -2.2975135 0.81012744 0
4.3500004 -2.3046386 0.81012744 0
4.3510003 -2.3123372 0.81023026 0
4.3510003 -2.319464 0.81023026 0
4.7420001 -2.0588589 0.84259963 0
4.7260003 -2.0592449 0.84098339 0
4.7100005 -2.0595732 0.83936715 0
4.6930003 -2.0593746 0.83764994 0
4.6770005 -2.0595858 0.83603376 0
4.6610003 -2.0597391 0.83441752 0
4.6460004 -2.0603092 0.83290231 0
4.6300001 -2.0603485 0.83128607 0
4.6140003 -2.0603309 0.82966989 0
4.5990005 -2.0607347 0.82815468 0
