# .PCD v0.7 - Point Cloud Data file format
VERSION 0.7
FIELDS x y z intensity
SIZE 4 4 4 4
TYPE F F F F
COUNT 1 1 1 1
WIDTH 120
HEIGHT 1
VIEWPOINT 0 0 0 1 0 0 0
POINTS 120
DATA ascii
6.5010004 0.96646321 0.54706544 0
6.5030003 0.95578635 0.54711235 0
6.5090003 0.97881019 0.53623354 0
6.5080004 0.96762478 0.53621197 0
6.5100002 0.95693541 0.53625524 0
6.5200005 0.96961617 0.52543241 0
6.5180006 0.9803201 0.51435697 0
6.5170002 0.96911836 0.51433897 0
6.5120006 0.97931349 0.5032239 0
6.5110002 0.9681226 0.50320768 0
6.5090003 0.97881019 0.49215573 0
6.5080004 0.96762478 0.49214131 0
6.5080004 0.97864234 0.48112363 0
6.5080004 0.96762478 0.48112363 0
6.5100002 0.95693541 0.4811489 0
6.5080004 0.97864234 0.47010598 0
6.5080004 0.96762478 0.47010598 0
6.5100002 0.95693541 0.47012761 0
6.5080004 0.97864234 0.45908833 0
6.5080004 0.96762478 0.45908833 0
6.5100002 0.95693541 0.45910636 0
6.5080004 0.97864234 0.44807065 0
6.5080004 0.96762478 0.44807065 0
6.5100002 0.95693541 0.44808507 0
6.5080004 0.97864234 0.43705299 0
6.5080004 0.96762478 0.43705299 0
6.5100002 0.95693541 0.43706381 0
6.5080004 0.97864234 0.42603534 0
6.5080004 0.96762478 0.42603534 0
6.5100002 0.95693541 0.42604256 0
6.5080004 0.97864234 0.41501766 0
6.5080004 0.96762478 0.41501766 0
6.5100002 0.95693541 0.41502127 0
6.5080004 0.97864234 0.40400001 0
6.5080004 0.96762478 0.40400001 0
6.5100002 0.95693541 0.40400001 0
6.5080004 0.97864234 0.39298236 0
6.5080004 0.96762478 0.39298236 0
6.5100002 0.95693541 0.39297876 0
6.5080004 0.97864234 0.38196468 0
6.5080004 0.96762478 0.38196468 0
6.5100002 0.95693541 0.38195747 0
6.5080004 0.97864234 0.37094703 0
6.5080004 0.96762478 0.37094703 0
6.5100002 0.95693541 0.37093621 0
6.5080004 0.97864234 0.35992938 0
6.5080004 0.96762478 0.35992938 0
6.5100002 0.95693541 0.35991496 0
6.5080004 0.97864234 0.3489117 0
6.5080004 0.96762478 0.3489117 0
6.5100002 0.95693541 0.34889367 0
6.5080004 0.97864234 0.33789405 0
6.5080004 0.96762478 0.33789405 0
6.5100002 0.95693541 0.33787242 0
6.5080004 0.97864234 0.3268764 0
6.5080004 0.96762478 0.3268764 0
6.5100002 0.95693541 0.32685113 0
6.5080004 0.97864234 0.31585872 0
6.5080004 0.96762478 0.31585872 0
6.5100002 0.95693541 0.31582987 0
6.5080004 0.97864234 0.30484107 0
6.5080004 0.96762478 0.30484107 0
6.5100002 0.95693541 0.30480862 0
6.5080004 0.97864234 0.29382342 0
6.5080004 0.96762478 0.29382342 0
6.5100002 0.95693541 0.29378733 0
6.5080004 0.97864234 0.28280574 0
6.5080004 0.96762478 0.28280574 0
6.5100002 0.95693541 0.28276607 0
6.5080004 0.97864234 0.27178806 0
6.5080004 0.96762478 0.27178806 0
6.5100002 0.95693541 0.27174479 0
6.5080004 0.97864234 0.26077044 0
6.5080004 0.96762478 0.26077044 0
6.5100002 0.95693541 0.26072353 0
6.5080004 0.97864234 0.24975277 0
6.5080004 0.96762478 0.24975277 0
6.5100002 0.95693541 0.24970226 0
6.5080004 0.97864234 0.23873511 0
6.5080004 0.96762478 0.23873511 0
6.5100002 0.95693541 0.23868099 0
6.5080004 0.97864234 0.22771744 0
6.5080004 0.96762478 0.22771744 0
6.5100002 0.95693541 0.22765973 0
6.5080004 0.97864234 0.21669978 0
6.5080004 0.96762478 0.21669978 0
6.5100002 0.95693541 0.21663846 0
6.5080004 0.97864234 0.20568211 0
6.5080004 0.96762478 0.20568211 0
6.5100002 0.95693541 0.20561719 0
6.5080004 0.97864234 0.19466446 0
6.5080004 0.96762478 0.19466446 0
6.5100002 0.95693541 0.19459592 0
6.5080004 0.97864234 0.1836468 0
6.5080004 0.96762478 0.1836468 0
6.5100002 0.95693541 0.18357465 0
6.5080004 0.97864234 0.17262915 0
6.5080004 0.96762478 0.17262915 0
6.5100002 0.95693541 0.17255339 0
6.5080004 0.97864234 0.16161148 0
6.5080004 0.96762478 0.16161148 0
6.5100002 0.95693541 0.16153212 0
6.5080004 0.97864234 0.15059382 0
6.5080004 0.96762478 0.15059382 0
6.5100002 0.95693541 0.15051085 0
6.5080004 0.97864234 0.13957614 0
6.5080004 0.96762478 0.13957614 0
6.5100002 0.95693541 0.13948959 0
6.5080004 0.97864234 0.12855849 0
6.5080004 0.96762478 0.12855849 0
6.5100002 0.95693541 0.1284683 0
6.5080004 0.97864234 0.11754084 0
6.5080004 0.96762478 0.11754084 0
6.5100002 0.95693541 0.11744705 0
6.5080004 0.97864234 0.10652319 0
6.5080004 0.96762478 0.10652319 0
6.5100002 0.95693541 0.10642579 0
6.5080004 0.97864234 0.095505536 0
6.5080004 0.96762478 0.095505536 0
6.5080004 0.96762478 0.084487855 0
