# .PCD v0.7 - Point Cloud Data file format
VERSION 0.7
FIELDS x y z intensity
SIZE 4 4 4 4
TYPE F F F F
COUNT 1 1 1 1
WIDTH 1407
HEIGHT 1
VIEWPOINT 0 0 0 1 0 0 0
POINTS 1407
DATA ascii
5.8740005 -1.2210115 0.96682072 0
5.8790002 -1.2319678 0.96733475 0
5.8860002 -1.2433788 0.96805441 0
5.8970003 -1.2556951 0.96918547 0
5.9300003 -1.1133313 0.96260333 0
5.9160004 -1.1205791 0.96118915 0
5.9060001 -1.1285627 0.96017897 0
5.8980002 -1.1369071 0.95937085 0
5.8920002 -1.1456231 0.95876479 0
5.8870006 -1.1545196 0.95825982 0
5.8830004 -1.1636018 0.9578557 0
5.8810005 -1.1730808 0.95765376 0
5.8790002 -1.1825525 0.9574517 0
5.8800006 -1.1926448 0.95755267 0
5.8800006 -1.2025297 0.95755267 0
5.8830004 -1.2130531 0.9578557 0
5.8870006 -1.2238021 0.95825982 0
5.8930001 -1.2349982 0.95886588 0
5.9040003 -1.2473074 0.95997703 0
5.9380002 -1.1248649 0.95342195 0
5.9230003 -1.1319052 0.95193386 0
5.9140005 -1.1400819 0.95104098 0
5.9060001 -1.1484263 0.95024729 0
5.9010005 -1.1573479 0.94975126 0
5.8970003 -1.1664553 0.94935441 0
5.8950005 -1.1759596 0.94915593 0
5.8930001 -1.1854566 0.94895744 0
5.8940005 -1.1955743 0.94905674 0
5.8960004 -1.2059064 0.94925523 0
5.8980002 -1.2162459 0.94945359 0
5.9040003 -1.2274511 0.9500488 0
5.8990002 -1.2362969 0.94955277 0
5.8950005 -1.2453431 0.94915593 0
5.8900003 -1.2541547 0.9486599 0
5.8860002 -1.2631701 0.94826305 0
5.8810005 -1.2719475 0.94776702 0
5.8770003 -1.2809322 0.94737017 0
5.8720002 -1.2896754 0.94687414 0
5.9630003 -1.0795623 0.94586766 0
5.9590006 -1.0888466 0.94547808 0
5.9540005 -1.0979269 0.94499099 0
5.9500003 -1.1071805 0.9446013 0
5.9450002 -1.1162264 0.94411433 0
5.9410005 -1.1254494 0.94372475 0
5.9360003 -1.1344612 0.94323766 0
5.9320002 -1.1436534 0.94284797 0
5.9260006 -1.1524308 0.9422636 0
5.9210005 -1.1613885 0.94177663 0
5.9160004 -1.1703281 0.94128954 0
5.9130006 -1.179661 0.94099736 0
5.9100003 -1.1889831 0.94070506 0
5.9060001 -1.1980851 0.94031549 0
5.9010005 -1.2069618 0.93982852 0
5.8970003 -1.216033 0.93943882 0
5.8930001 -1.2250899 0.93904924 0
5.8880005 -1.233916 0.93856215 0
5.8840003 -1.2429422 0.93817258 0
5.8800006 -1.2519541 0.937783 0
5.8750005 -1.2607296 0.93729591 0
5.8710003 -1.2697108 0.93690634 0
5.8670006 -1.2786775 0.93651664 0
5.8630004 -1.2876297 0.93612707 0
5.8600001 -1.2967966 0.93583477 0
5.8600001 -1.3066454 0.93583477 0
5.9630003 -1.0594932 0.9358331 0
5.9590006 -1.0687919 0.93545067 0
5.9540005 -1.0778902 0.93497264 0
5.9500003 -1.0871581 0.93459022 0
5.9460006 -1.0964117 0.9342078 0
5.9410005 -1.1054596 0.93372977 0
5.9370003 -1.1146824 0.93334734 0
5.9330006 -1.1238909 0.93296504 0
5.9290004 -1.1330849 0.93258262 0
5.9240003 -1.142066 0.93210459 0
5.9200006 -1.1512294 0.93172216 0
5.9160004 -1.1603783 0.93133974 0
5.9120002 -1.1695127 0.93095732 0
5.9070005 -1.1784272 0.93047941 0
5.9030004 -1.187531 0.93009698 0
5.8990002 -1.1966205 0.92971444 0
5.8950005 -1.2056954 0.92933214 0
5.8910003 -1.2147559 0.92894971 0
5.8860002 -1.2235873 0.92847168 0
5.8820004 -1.2326173 0.92808926 0
5.8780003 -1.2416326 0.92770684 0
5.8740005 -1.2506337 0.92732441 0
5.8700004 -1.2596203 0.92694199 0
5.8660002 -1.2685924 0.92655957 0
5.8620005 -1.2775501 0.92617726 0
5.8580003 -1.2864933 0.92579484 0
5.8550005 -1.2956513 0.92550802 0
5.8540006 -1.3052602 0.92541242 0
5.9630003 -1.0494586 0.92579842 0
5.9580002 -1.0585822 0.92532945 0
5.9540005 -1.0678718 0.9249543 0
5.9490004 -1.0769612 0.92448521 0
5.9450002 -1.08622 0.92411005 0
5.9410005 -1.0954647 0.9237349 0
5.9370003 -1.1046947 0.92335963 0
5.9330006 -1.1139104 0.92298448 0
5.9290004 -1.1231116 0.92260933 0
5.9240003 -1.1321018 0.92214036 0
5.9200006 -1.1412724 0.92176521 0
5.9160004 -1.1504284 0.92138994 0
5.9120002 -1.1595701 0.92101467 0
5.9080005 -1.1686975 0.92063951 0
5.9040003 -1.1778102 0.92026436 0
5.9000006 -1.1869087 0.91988921 0
5.8960004 -1.1959927 0.91951394 0
5.8910003 -1.2048512 0.91904497 0
5.8870006 -1.2139046 0.91866982 0
5.8830004 -1.2229434 0.91829467 0
5.8790002 -1.2319678 0.9179194 0
5.8750005 -1.2409779 0.91754425 0
5.8710003 -1.2499734 0.91716897 0
5.8670006 -1.2589546 0.91679382 0
5.8630004 -1.2679213 0.91641867 0
5.8590002 -1.2768736 0.9160434 0
5.8550005 -1.2858115 0.91566825 0
5.8530002 -1.2951931 0.91548061 0
5.8520002 -1.3047984 0.9153868 0
5.8530002 -1.3148655 0.91548061 0
5.9600005 -1.0489174 0.91548789 0
5.9550004 -1.0580357 0.91502798 0
5.9510002 -1.0673199 0.91465998 0
5.9470005 -1.0765897 0.91429198 0
5.9430003 -1.085845 0.91392398 0
5.9390001 -1.0950859 0.91355598 0
5.9350004 -1.1043123 0.91318798 0
5.9310002 -1.1135243 0.91281998 0
5.9270005 -1.122722 0.9124521 0
5.9230003 -1.1319052 0.9120841 0
5.9190001 -1.1410739 0.9117161 0
5.9150004 -1.1502283 0.9113481 0
5.9110003 -1.1593682 0.91098011 0
5.9060001 -1.1682897 0.9105202 0
5.9020004 -1.177399 0.9101522 0
5.8980002 -1.1864939 0.9097842 0
5.8940005 -1.1955743 0.90941632 0
5.8900003 -1.2046402 0.90904832 0
5.8860002 -1.2136916 0.90868032 0
5.8820004 -1.2227287 0.90831232 0
5.8780003 -1.2317514 0.90794432 0
5.8740005 -1.2407596 0.90757632 0
5.8700004 -1.2497534 0.90720832 0
5.8670006 -1.2589546 0.90693247 0
5.8630004 -1.2679213 0.90656447 0
5.8590002 -1.2768736 0.90619648 0
5.8550005 -1.2858115 0.90582848 0
5.8520002 -1.294964 0.90555251 0
5.8520002 -1.3047984 0.90555251 0
5.8530002 -1.3148655 0.90564442 0
5.9600005 -1.0489174 0.90545869 0
5.9550004 -1.0580357 0.90500772 0
5.9510002 -1.0673199 0.90464699 0
5.9470005 -1.0765897 0.90428627 0
5.9430003 -1.085845 0.90392548 0
5.9390001 -1.0950859 0.90356469 0
5.9350004 -1.1043123 0.90320396 0
5.9300003 -1.1133313 0.902753 0
5.9260006 -1.1225272 0.90239227 0
5.9220004 -1.1317085 0.90203142 0
5.9180002 -1.1408756 0.90167069 0
5.9140005 -1.150028 0.90130997 0
5.9100003 -1.1591661 0.90094912 0
5.9060001 -1.1682897 0.90058839 0
5.9020004 -1.177399 0.90022767 0
5.8980002 -1.1864939 0.89986682 0
5.8940005 -1.1955743 0.89950609 0
5.8900003 -1.2046402 0.89914536 0
5.8860002 -1.2136916 0.89878458 0
5.8820004 -1.2227287 0.89842385 0
5.8780003 -1.2317514 0.89806306 0
5.8740005 -1.2407596 0.89770234 0
5.8700004 -1.2497534 0.89734155 0
5.8670006 -1.2589546 0.897071 0
5.8630004 -1.2679213 0.89671028 0
5.8590002 -1.2768736 0.89634943 0
5.8550005 -1.2858115 0.8959887 0
5.8520002 -1.294964 0.8957181 0
5.8520002 -1.3047984 0.8957181 0
5.9600005 -1.0489174 0.89542955 0
5.9550004 -1.0580357 0.89498758 0
5.9510002 -1.0673199 0.89463401 0
5.9470005 -1.0765897 0.89428049 0
5.9430003 -1.085845 0.89392698 0
5.9390001 -1.0950859 0.8935734 0
5.9350004 -1.1043123 0.89321989 0
5.9300003 -1.1133313 0.89277792 0
5.9260006 -1.1225272 0.8924244 0
5.9220004 -1.1317085 0.89207083 0
5.9180002 -1.1408756 0.89171731 0
5.9140005 -1.150028 0.8913638 0
5.9100003 -1.1591661 0.89101022 0
5.9060001 -1.1682897 0.89065665 0
5.9020004 -1.177399 0.89030313 0
5.8980002 -1.1864939 0.88994956 0
5.8940005 -1.1955743 0.88959605 0
5.8900003 -1.2046402 0.88924247 0
5.8860002 -1.2136916 0.8888889 0
5.8820004 -1.2227287 0.88853538 0
5.8780003 -1.2317514 0.88818181 0
5.8740005 -1.2407596 0.88782829 0
5.8700004 -1.2497534 0.88747472 0
5.8670006 -1.2589546 0.88720959 0
5.8630004 -1.2679213 0.88685602 0
5.8590002 -1.2768736 0.88650244 0
5.8550005 -1.2858115 0.88614893 0
5.8520002 -1.294964 0.88588381 0
5.8520002 -1.3047984 0.88588381 0
5.9550004 -1.0580357 0.88496745 0
5.9510002 -1.0673199 0.88462108 0
5.9470005 -1.0765897 0.88427478 0
5.9430003 -1.085845 0.88392848 0
5.9390001 -1.0950859 0.88358212 0
5.9350004 -1.1043123 0.88323581 0
5.9300003 -1.1133313 0.88280284 0
5.9260006 -1.1225272 0.88245654 0
5.9220004 -1.1317085 0.88211024 0
5.9180002 -1.1408756 0.88176388 0
5.9140005 -1.150028 0.88141757 0
5.9100003 -1.1591661 0.88107121 0
5.9060001 -1.1682897 0.88072485 0
5.9020004 -1.177399 0.88037854 0
5.8980002 -1.1864939 0.88003218 0
5.8940005 -1.1955743 0.87968594 0
5.8900003 -1.2046402 0.87933958 0
5.8860002 -1.2136916 0.87899321 0
5.8820004 -1.2227287 0.87864691 0
5.8780003 -1.2317514 0.87830055 0
5.8740005 -1.2407596 0.87795424 0
5.8700004 -1.2497534 0.87760788 0
5.8670006 -1.2589546 0.87734818 0
5.8630004 -1.2679213 0.87700176 0
5.8590002 -1.2768736 0.87665546 0
5.7600002 -1.1288621 0.85841537 0
5.7560005 -1.1377152 0.85807633 0
5.7520003 -1.146554 0.85773718 0
5.7480001 -1.1553781 0.85739803 0
5.7440004 -1.164188 0.85705888 0
5.7400002 -1.1729833 0.85671979 0
5.7370005 -1.1819772 0.85646546 0
5.7330003 -1.1907454 0.85612631 0
5.7290006 -1.1994994 0.85578728 0
5.7250004 -1.2082387 0.85544813 0
5.7210002 -1.2169636 0.85510898 0
5.7170005 -1.2256744 0.85476989 0
5.7130003 -1.2343705 0.85443079 0
5.7100005 -1.2432778 0.85417646 0
5.7060003 -1.2519468 0.85383731 0
5.7020001 -1.2606014 0.85349822 0
5.8270001 -0.97598034 0.85430628 0
5.8230004 -0.98507702 0.8539744 0
5.8190002 -0.99415916 0.85364246 0
5.8150005 -1.0032269 0.85331064 0
5.8110003 -1.0122802 0.85297871 0
5.8070002 -1.021319 0.85264683 0
5.8030005 -1.0303437 0.85231489 0
5.7990003 -1.0393535 0.85198295 0
5.7950006 -1.0483493 0.85165107 0
5.7910004 -1.0573303 0.85131919 0
5.7870002 -1.0662971 0.85098732 0
5.7830005 -1.0752493 0.85065544 0
5.7800002 -1.0843803 0.85040647 0
5.7760005 -1.0933055 0.85007459 0
5.7720003 -1.1022164 0.84974265 0
5.7680001 -1.1111126 0.84941077 0
5.7640004 -1.1199946 0.84907889 0
5.7600002 -1.1288621 0.84874701 0
5.7560005 -1.1377152 0.84841508 0
5.7520003 -1.146554 0.84808314 0
5.7480001 -1.1553781 0.84775126 0
5.7440004 -1.164188 0.84741938 0
5.7400002 -1.1729833 0.8470875 0
5.7370005 -1.1819772 0.84683853 0
5.7330003 -1.1907454 0.8465066 0
5.7290006 -1.1994994 0.84617472 0
5.7250004 -1.2082387 0.84584284 0
5.7210002 -1.2169636 0.84551096 0
5.7170005 -1.2256744 0.84517908 0
5.7130003 -1.2343705 0.84484714 0
5.7100005 -1.2432778 0.84459823 0
5.7060003 -1.2519468 0.8442663 0
5.7020001 -1.2606014 0.84393442 0
5.6980004 -1.2692418 0.84360254 0
5.6940002 -1.2778676 0.8432706 0
5.8350005 -0.95774394 0.84516644 0
5.8310003 -0.96686935 0.84484172 0
5.8270001 -0.97598034 0.84451699 0
5.8230004 -0.98507702 0.84419239 0
5.8190002 -0.99415916 0.84386766 0
5.8150005 -1.0032269 0.84354299 0
5.8110003 -1.0122802 0.84321833 0
5.8070002 -1.021319 0.8428936 0
5.8030005 -1.0303437 0.84256893 0
5.7990003 -1.0393535 0.84224427 0
5.7950006 -1.0483493 0.84191954 0
5.7910004 -1.0573303 0.84159487 0
5.7870002 -1.0662971 0.84127021 0
5.7830005 -1.0752493 0.84094548 0
5.7800002 -1.0843803 0.84070194 0
5.7760005 -1.0933055 0.84037733 0
5.7720003 -1.1022164 0.8400526 0
5.7680001 -1.1111126 0.83972788 0
5.7640004 -1.1199946 0.83940327 0
5.7600002 -1.1288621 0.83907855 0
5.7560005 -1.1377152 0.83875388 0
5.7520003 -1.146554 0.83842921 0
5.7480001 -1.1553781 0.83810449 0
5.7440004 -1.164188 0.83777982 0
5.7400002 -1.1729833 0.83745515 0
5.7370005 -1.1819772 0.83721161 0
5.7330003 -1.1907454 0.83688694 0
5.7290006 -1.1994994 0.83656228 0
5.7250004 -1.2082387 0.83623755 0
5.7210002 -1.2169636 0.83591288 0
5.7170005 -1.2256744 0.83558822 0
5.7130003 -1.2343705 0.83526349 0
5.7100005 -1.2432778 0.83502001 0
5.7060003 -1.2519468 0.83469528 0
5.7020001 -1.2606014 0.83437061 0
5.6980004 -1.2692418 0.83404595 0
5.6940002 -1.2778676 0.83372128 0
5.8390002 -0.94860393 0.83568019 0
5.8350005 -0.95774394 0.83536273 0
5.8310003 -0.96686935 0.83504522 0
5.8270001 -0.97598034 0.83472776 0
5.8230004 -0.98507702 0.83441031 0
5.8190002 -0.99415916 0.83409286 0
5.8150005 -1.0032269 0.8337754 0
5.8110003 -1.0122802 0.83345789 0
5.8070002 -1.021319 0.83314037 0
5.8030005 -1.0303437 0.83282292 0
5.7990003 -1.0393535 0.83250546 0
5.7950006 -1.0483493 0.83218801 0
5.7910004 -1.0573303 0.83187056 0
5.7870002 -1.0662971 0.83155304 0
5.7830005 -1.0752493 0.83123565 0
5.7800002 -1.0843803 0.83099747 0
5.7760005 -1.0933055 0.83068001 0
5.7720003 -1.1022164 0.83036256 0
5.7680001 -1.1111126 0.8300451 0
5.7640004 -1.1199946 0.82972765 0
5.7600002 -1.1288621 0.82941014 0
5.7560005 -1.1377152 0.82909268 0
5.7520003 -1.146554 0.82877517 0
5.7480001 -1.1553781 0.82845771 0
5.7440004 -1.164188 0.82814026 0
5.7400002 -1.1729833 0.8278228 0
5.7370005 -1.1819772 0.82758474 0
5.7330003 -1.1907454 0.82726723 0
5.7290006 -1.1994994 0.82694972 0
5.7250004 -1.2082387 0.82663226 0
5.7210002 -1.2169636 0.82631481 0
5.7170005 -1.2256744 0.82599735 0
5.7130003 -1.2343705 0.8256799 0
5.7100005 -1.2432778 0.82544178 0
5.7060003 -1.2519468 0.82512426 0
5.7020001 -1.2606014 0.82480681 0
5.6980004 -1.2692418 0.82448936 0
5.6940002 -1.2778676 0.8241719 0
5.6910005 -1.2867135 0.82393378 0
5.8430004 -0.93944967 0.8261795 0
5.8390002 -0.94860393 0.82586926 0
5.8350005 -0.95774394 0.82555902 0
5.8310003 -0.96686935 0.82524872 0
5.8270001 -0.97598034 0.82493854 0
5.8230004 -0.98507702 0.82462823 0
5.8190002 -0.99415916 0.82431799 0
5.8150005 -1.0032269 0.82400775 0
5.8110003 -1.0122802 0.82369745 0
5.8070002 -1.021319 0.82338727 0
5.8030005 -1.0303437 0.82307696 0
5.7990003 -1.0393535 0.82276672 0
5.7950006 -1.0483493 0.82245648 0
5.7910004 -1.0573303 0.82214624 0
5.7870002 -1.0662971 0.82183594 0
5.7830005 -1.0752493 0.82152569 0
5.7800002 -1.0843803 0.821293 0
5.7760005 -1.0933055 0.82098275 0
5.7720003 -1.1022164 0.82067251 0
5.7680001 -1.1111126 0.82036221 0
5.7640004 -1.1199946 0.82005203 0
5.7600002 -1.1288621 0.81974173 0
5.7560005 -1.1377152 0.81943148 0
5.7520003 -1.146554 0.81912124 0
5.7480001 -1.1553781 0.81881094 0
5.7440004 -1.164188 0.8185007 0
5.7400002 -1.1729833 0.81819046 0
5.7370005 -1.1819772 0.81795776 0
5.7330003 -1.1907454 0.81764746 0
5.7290006 -1.1994994 0.81733727 0
5.7250004 -1.2082387 0.81702697 0
5.7210002 -1.2169636 0.81671679 0
5.7170005 -1.2256744 0.81640649 0
5.7130003 -1.2343705 0.81609625 0
5.7100005 -1.2432778 0.81586355 0
5.7060003 -1.2519468 0.81555331 0
5.7020001 -1.2606014 0.81524301 0
5.6980004 -1.2692418 0.81493282 0
5.6940002 -1.2778676 0.81462252 0
5.6910005 -1.2867135 0.81438982 0
5.8430004 -0.93944967 0.81636143 0
5.8390002 -0.94860393 0.81605834 0
5.8350005 -0.95774394 0.81575537 0
5.8310003 -0.96686935 0.81545228 0
5.8270001 -0.97598034 0.81514919 0
5.8230004 -0.98507702 0.81484622 0
5.8190002 -0.99415916 0.81454313 0
5.8150005 -1.0032269 0.81424016 0
5.8110003 -1.0122802 0.81393707 0
5.8070002 -1.021319 0.81363404 0
5.8030005 -1.0303437 0.81333101 0
5.7990003 -1.0393535 0.81302798 0
5.7950006 -1.0483493 0.81272495 0
5.7910004 -1.0573303 0.81242192 0
5.7870002 -1.0662971 0.81211883 0
5.7830005 -1.0752493 0.8118158 0
5.7800002 -1.0843803 0.81158853 0
5.7760005 -1.0933055 0.8112855 0
5.7720003 -1.1022164 0.81098247 0
5.7680001 -1.1111126 0.81067938 0
5.7640004 -1.1199946 0.81037641 0
5.7600002 -1.1288621 0.81007332 0
5.7560005 -1.1377152 0.80977029 0
5.7520003 -1.146554 0.80946726 0
5.7480001 -1.1553781 0.80916417 0
5.7440004 -1.164188 0.80886114 0
5.7400002 -1.1729833 0.80855811 0
5.7370005 -1.1819772 0.80833089 0
5.7330003 -1.1907454 0.8080278 0
5.7290006 -1.1994994 0.80772477 0
5.7250004 -1.2082387 0.80742168 0
5.7210002 -1.2169636 0.80711865 0
5.7170005 -1.2256744 0.80681562 0
5.7130003 -1.2343705 0.80651259 0
5.7100005 -1.2432778 0.80628538 0
5.7060003 -1.2519468 0.80598223 0
5.7020001 -1.2606014 0.8056792 0
5.6980004 -1.2692418 0.80537623 0
5.6940002 -1.2778676 0.80507314 0
5.6910005 -1.2867135 0.80484593 0
5.7070003 -1.3000382 0.80605805 0
5.8430004 -0.93944967 0.80654323 0
5.8390002 -0.94860393 0.80624747 0
5.8350005 -0.95774394 0.80595165 0
5.8310003 -0.96686935 0.80565578 0
5.8270001 -0.97598034 0.80535996 0
5.8230004 -0.98507702 0.8050642 0
5.8190002 -0.99415916 0.80476832 0
5.8150005 -1.0032269 0.80447251 0
5.8110003 -1.0122802 0.80417669 0
5.8070002 -1.021319 0.80388081 0
5.8030005 -1.0303437 0.80358505 0
5.7990003 -1.0393535 0.80328918 0
5.7950006 -1.0483493 0.80299342 0
5.7910004 -1.0573303 0.80269754 0
5.7870002 -1.0662971 0.80240172 0
5.7830005 -1.0752493 0.8021059 0
5.7800002 -1.0843803 0.80188406 0
5.7760005 -1.0933055 0.80158818 0
5.7720003 -1.1022164 0.80129242 0
5.7680001 -1.1111126 0.80099654 0
5.7640004 -1.1199946 0.80070072 0
5.7600002 -1.1288621 0.80040491 0
5.7560005 -1.1377152 0.80010915 0
5.7520003 -1.146554 0.79981327 0
5.7480001 -1.1553781 0.79951739 0
5.7440004 -1.164188 0.79922163 0
5.7400002 -1.1729833 0.79892576 0
5.7370005 -1.1819772 0.79870391 0
5.7330003 -1.1907454 0.79840809 0
5.7290006 -1.1994994 0.79811227 0
5.7250004 -1.2082387 0.79781646 0
5.7210002 -1.2169636 0.79752064 0
5.7170005 -1.2256744 0.79722476 0
5.7130003 -1.2343705 0.796929 0
5.7100005 -1.2432778 0.79670715 0
5.7060003 -1.2519468 0.79641128 0
5.7020001 -1.2606014 0.79611546 0
5.6980004 -1.2692418 0.79581964 0
5.6940002 -1.2778676 0.79552376 0
5.6910005 -1.2867135 0.79530191 0
5.7070003 -1.3000382 0.79648519 0
5.8470001 -0.93028086 0.79701376 0
5.8430004 -0.93944967 0.79672515 0
5.8390002 -0.94860393 0.79643655 0
5.8350005 -0.95774394 0.79614794 0
5.8310003 -0.96686935 0.79585934 0
5.8270001 -0.97598034 0.79557073 0
5.8230004 -0.98507702 0.79528213 0
5.8190002 -0.99415916 0.79499352 0
5.8150005 -1.0032269 0.79470491 0
5.8110003 -1.0122802 0.79441625 0
5.8070002 -1.021319 0.79412764 0
5.8030005 -1.0303437 0.79383904 0
5.7990003 -1.0393535 0.79355043 0
5.7950006 -1.0483493 0.79326189 0
5.7910004 -1.0573303 0.79297322 0
5.7870002 -1.0662971 0.79268461 0
5.7830005 -1.0752493 0.79239601 0
5.7800002 -1.0843803 0.79217958 0
5.7760005 -1.0933055 0.79189092 0
5.7720003 -1.1022164 0.79160231 0
5.7680001 -1.1111126 0.79131371 0
5.7640004 -1.1199946 0.7910251 0
5.7600002 -1.1288621 0.7907365 0
5.7560005 -1.1377152 0.79044795 0
5.7520003 -1.146554 0.79015929 0
5.7480001 -1.1553781 0.78987062 0
5.7440004 -1.164188 0.78958207 0
5.7400002 -1.1729833 0.78929341 0
5.7370005 -1.1819772 0.78907698 0
5.7330003 -1.1907454 0.78878838 0
5.7290006 -1.1994994 0.78849983 0
5.7250004 -1.2082387 0.78821117 0
5.7210002 -1.2169636 0.7879225 0
5.7170005 -1.2256744 0.78763402 0
5.7130003 -1.2343705 0.78734529 0
5.7100005 -1.2432778 0.78712893 0
5.7060003 -1.2519468 0.78684026 0
5.7020001 -1.2606014 0.78655165 0
5.6980004 -1.2692418 0.78626305 0
5.6940002 -1.2778676 0.78597444 0
5.6910005 -1.2867135 0.78575802 0
5.7070003 -1.3000382 0.78691244 0
5.8470001 -0.93028086 0.78718841 0
5.8430004 -0.93944967 0.78690702 0
5.8390002 -0.94860393 0.78662562 0
5.8350005 -0.95774394 0.78634423 0
5.8310003 -0.96686935 0.78606284 0
5.8270001 -0.97598034 0.78578138 0
5.8230004 -0.98507702 0.78550005 0
5.8190002 -0.99415916 0.7852186 0
5.8150005 -1.0032269 0.78493726 0
5.8110003 -1.0122802 0.78465587 0
5.8070002 -1.021319 0.78437448 0
5.8030005 -1.0303437 0.78409308 0
5.7990003 -1.0393535 0.78381169 0
5.7950006 -1.0483493 0.78353029 0
5.7910004 -1.0573303 0.7832489 0
5.7870002 -1.0662971 0.78296745 0
5.7830005 -1.0752493 0.78268611 0
5.7800002 -1.0843803 0.78247505 0
5.7760005 -1.0933055 0.78219366 0
5.7720003 -1.1022164 0.78191227 0
5.7680001 -1.1111126 0.78163087 0
5.7640004 -1.1199946 0.78134948 0
5.7600002 -1.1288621 0.78106809 0
5.7560005 -1.1377152 0.78078669 0
5.7520003 -1.146554 0.7805053 0
5.7480001 -1.1553781 0.78022391 0
5.7440004 -1.164188 0.77994251 0
5.7400002 -1.1729833 0.77966112 0
5.7370005 -1.1819772 0.77945006 0
5.7330003 -1.1907454 0.77916867 0
5.7290006 -1.1994994 0.77888727 0
5.7250004 -1.2082387 0.77860594 0
5.7210002 -1.2169636 0.77832448 0
5.7170005 -1.2256744 0.77804315 0
5.7130003 -1.2343705 0.7777617 0
5.7100005 -1.2432778 0.7775507 0
5.7060003 -1.2519468 0.77726924 0
5.7020001 -1.2606014 0.77698785 0
5.6980004 -1.2692418 0.77670646 0
5.6940002 -1.2778676 0.77642506 0
5.6910005 -1.2867135 0.776214 0
5.7070003 -1.3000382 0.77733958 0
5.8470001 -0.93028086 0.77736306 0
5.8430004 -0.93944967 0.77708888 0
5.8390002 -0.94860393 0.7768147 0
5.8350005 -0.95774394 0.77654052 0
5.8310003 -0.96686935 0.77626634 0
5.8270001 -0.97598034 0.77599216 0
5.8230004 -0.98507702 0.77571797 0
5.8190002 -0.99415916 0.77544379 0
5.8150005 -1.0032269 0.77516961 0
5.8110003 -1.0122802 0.77489543 0
5.8070002 -1.021319 0.77462125 0
5.8030005 -1.0303437 0.77434707 0
5.7990003 -1.0393535 0.77407289 0
5.7950006 -1.0483493 0.7737987 0
5.7910004 -1.0573303 0.77352458 0
5.7870002 -1.0662971 0.77325034 0
5.7830005 -1.0752493 0.77297622 0
5.7800002 -1.0843803 0.77277052 0
5.7760005 -1.0933055 0.7724964 0
5.7720003 -1.1022164 0.77222216 0
5.7680001 -1.1111126 0.77194804 0
5.7640004 -1.1199946 0.77167386 0
5.7600002 -1.1288621 0.77139968 0
5.7560005 -1.1377152 0.7711255 0
5.7520003 -1.146554 0.77085131 0
5.7480001 -1.1553781 0.77057713 0
5.7440004 -1.164188 0.77030295 0
5.7400002 -1.1729833 0.77002883 0
5.7370005 -1.1819772 0.76982319 0
5.7330003 -1.1907454 0.76954895 0
5.7290006 -1.1994994 0.76927483 0
5.7250004 -1.2082387 0.76900059 0
5.7210002 -1.2169636 0.76872641 0
5.7170005 -1.2256744 0.76845229 0
5.7130003 -1.2343705 0.76817811 0
5.7100005 -1.2432778 0.76797247 0
5.7060003 -1.2519468 0.76769829 0
5.7020001 -1.2606014 0.76742405 0
5.6980004 -1.2692418 0.76714993 0
5.6940002 -1.2778676 0.76687574 0
5.6910005 -1.2867135 0.76667011 0
5.7070003 -1.3000382 0.76776677 0
5.8470001 -0.93028086 0.76753771 0
5.8430004 -0.93944967 0.76727074 0
5.8390002 -0.94860393 0.76700377 0
5.8350005 -0.95774394 0.76673687 0
5.8310003 -0.96686935 0.76646984 0
5.8270001 -0.97598034 0.76620287 0
5.8230004 -0.98507702 0.76593596 0
5.8190002 -0.99415916 0.76566899 0
5.8150005 -1.0032269 0.76540202 0
5.8110003 -1.0122802 0.76513505 0
5.8070002 -1.021319 0.76486808 0
5.8030005 -1.0303437 0.76460111 0
5.7990003 -1.0393535 0.76433414 0
5.7950006 -1.0483493 0.76406717 0
5.7910004 -1.0573303 0.76380026 0
5.7870002 -1.0662971 0.76353323 0
5.7830005 -1.0752493 0.76326632 0
5.7800002 -1.0843803 0.76306605 0
5.7760005 -1.0933055 0.76279914 0
5.7720003 -1.1022164 0.76253211 0
5.7680001 -1.1111126 0.76226521 0
5.7640004 -1.1199946 0.76199824 0
5.7600002 -1.1288621 0.76173127 0
5.7560005 -1.1377152 0.7614643 0
5.7520003 -1.146554 0.76119733 0
5.7480001 -1.1553781 0.76093036 0
5.7440004 -1.164188 0.76066339 0
5.7400002 -1.1729833 0.76039642 0
5.7370005 -1.1819772 0.76019621 0
5.7330003 -1.1907454 0.7599293 0
5.7290006 -1.1994994 0.75966227 0
5.7250004 -1.2082387 0.75939536 0
5.7210002 -1.2169636 0.75912833 0
5.7170005 -1.2256744 0.75886142 0
5.7130003 -1.2343705 0.75859445 0
5.7100005 -1.2432778 0.75839424 0
5.7060003 -1.2519468 0.75812721 0
5.7020001 -1.2606014 0.7578603 0
5.6980004 -1.2692418 0.75759333 0
5.6940002 -1.2778676 0.75732636 0
5.6910005 -1.2867135 0.75712615 0
5.7070003 -1.3000382 0.75819397 0
5.8470001 -0.93028086 0.75771236 0
5.8430004 -0.93944967 0.75745261 0
5.8390002 -0.94860393 0.75719285 0
5.8350005 -0.95774394 0.75693315 0
5.8310003 -0.96686935 0.75667334 0
5.8270001 -0.97598034 0.75641364 0
5.8230004 -0.98507702 0.75615388 0
5.8190002 -0.99415916 0.75589412 0
5.8150005 -1.0032269 0.75563443 0
5.8110003 -1.0122802 0.75537467 0
5.8070002 -1.021319 0.75511491 0
5.8030005 -1.0303437 0.75485516 0
5.7990003 -1.0393535 0.7545954 0
5.7950006 -1.0483493 0.75433564 0
5.7910004 -1.0573303 0.75407588 0
5.7870002 -1.0662971 0.75381613 0
5.7830005 -1.0752493 0.75355637 0
5.7800002 -1.0843803 0.75336158 0
5.7760005 -1.0933055 0.75310183 0
5.7720003 -1.1022164 0.75284207 0
5.7680001 -1.1111126 0.75258231 0
5.7640004 -1.1199946 0.75232255 0
5.7600002 -1.1288621 0.75206286 0
5.7560005 -1.1377152 0.7518031 0
5.7520003 -1.146554 0.7515434 0
5.7480001 -1.1553781 0.75128359 0
5.7440004 -1.164188 0.75102389 0
5.7400002 -1.1729833 0.75076413 0
5.7370005 -1.1819772 0.75056934 0
5.7330003 -1.1907454 0.75030959 0
5.7290006 -1.1994994 0.75004983 0
5.7250004 -1.2082387 0.74979007 0
5.7210002 -1.2169636 0.74953032 0
5.7170005 -1.2256744 0.74927056 0
5.7130003 -1.2343705 0.7490108 0
5.7100005 -1.2432778 0.74881601 0
5.7060003 -1.2519468 0.74855626 0
5.7020001 -1.2606014 0.7482965 0
5.6980004 -1.2692418 0.74803674 0
5.6940002 -1.2778676 0.74777699 0
5.6910005 -1.2867135 0.7475822 0
5.7070003 -1.3000382 0.74862117 0
5.8470001 -0.93028086 0.74788702 0
5.8430004 -0.93944967 0.74763453 0
5.8390002 -0.94860393 0.74738193 0
5.8350005 -0.95774394 0.74712944 0
5.8310003 -0.96686935 0.7468769 0
5.8270001 -0.97598034 0.74662435 0
5.8230004 -0.98507702 0.74637187 0
5.8190002 -0.99415916 0.74611926 0
5.8150005 -1.0032269 0.74586678 0
5.8110003 -1.0122802 0.74561423 0
5.8070002 -1.021319 0.74536169 0
5.8030005 -1.0303437 0.7451092 0
5.7990003 -1.0393535 0.74485666 0
5.7950006 -1.0483493 0.74460411 0
5.7910004 -1.0573303 0.74435157 0
5.7870002 -1.0662971 0.74409902 0
5.7830005 -1.0752493 0.74384654 0
5.7800002 -1.0843803 0.74365711 0
5.7760005 -1.0933055 0.74340463 0
5.7720003 -1.1022164 0.74315202 0
5.7680001 -1.1111126 0.74289954 0
5.7640004 -1.1199946 0.74264693 0
5.7600002 -1.1288621 0.74239445 0
5.7560005 -1.1377152 0.74214196 0
5.7520003 -1.146554 0.74188936 0
5.7480001 -1.1553781 0.74163687 0
5.7440004 -1.164188 0.74138427 0
5.7400002 -1.1729833 0.74113178 0
5.7370005 -1.1819772 0.74094236 0
5.7330003 -1.1907454 0.74068981 0
5.7290006 -1.1994994 0.74043733 0
5.7250004 -1.2082387 0.74018478 0
5.7210002 -1.2169636 0.73993224 0
5.7170005 -1.2256744 0.73967969 0
5.7130003 -1.2343705 0.73942715 0
5.7100005 -1.2432778 0.73923779 0
5.7060003 -1.2519468 0.73898524 0
5.7020001 -1.2606014 0.7387327 0
5.6980004 -1.2692418 0.73848021 0
5.6940002 -1.2778676 0.73822761 0
5.6910005 -1.2867135 0.73803824 0
5.7070003 -1.3000382 0.73904836 0
5.8470001 -0.93028086 0.73806167 0
5.8430004 -0.93944967 0.73781639 0
5.8390002 -0.94860393 0.73757106 0
5.8350005 -0.95774394 0.73732573 0
5.8310003 -0.96686935 0.73708045 0
5.8270001 -0.97598034 0.73683512 0
5.8230004 -0.98507702 0.73658979 0
5.8190002 -0.99415916 0.73634446 0
5.8150005 -1.0032269 0.73609912 0
5.8110003 -1.0122802 0.73585385 0
5.8070002 -1.021319 0.73560846 0
5.8030005 -1.0303437 0.73536319 0
5.7990003 -1.0393535 0.73511791 0
5.7950006 -1.0483493 0.73487258 0
5.7910004 -1.0573303 0.73462725 0
5.7870002 -1.0662971 0.73438191 0
5.7830005 -1.0752493 0.73413658 0
5.7800002 -1.0843803 0.73395264 0
5.7760005 -1.0933055 0.73370731 0
5.7720003 -1.1022164 0.73346198 0
5.7680001 -1.1111126 0.73321664 0
5.7640004 -1.1199946 0.73297131 0
5.7600002 -1.1288621 0.73272598 0
5.7560005 -1.1377152 0.73248076 0
5.7520003 -1.146554 0.73223537 0
5.7480001 -1.1553781 0.7319901 0
5.7440004 -1.164188 0.73174477 0
5.7400002 -1.1729833 0.73149943 0
5.7370005 -1.1819772 0.73131543 0
5.7330003 -1.1907454 0.73107016 0
5.7290006 -1.1994994 0.73082483 0
5.7250004 -1.2082387 0.7305795 0
5.7210002 -1.2169636 0.73033416 0
5.7170005 -1.2256744 0.73008883 0
5.7130003 -1.2343705 0.72984356 0
5.7100005 -1.2432778 0.72965956 0
5.7060003 -1.2519468 0.72941422 0
5.7020001 -1.2606014 0.72916889 0
5.6980004 -1.2692418 0.72892362 0
5.6940002 -1.2778676 0.72867823 0
5.6910005 -1.2867135 0.72849429 0
5.7070003 -1.3000382 0.72947556 0
5.8470001 -0.93028086 0.72823632 0
5.8430004 -0.93944967 0.72799826 0
5.8390002 -0.94860393 0.72776014 0
5.8350005 -0.95774394 0.72752202 0
5.8310003 -0.96686935 0.72728395 0
5.8270001 -0.97598034 0.72704583 0
5.8230004 -0.98507702 0.72680771 0
5.8190002 -0.99415916 0.72656965 0
5.8150005 -1.0032269 0.72633153 0
5.8110003 -1.0122802 0.72609341 0
5.8070002 -1.021319 0.72585529 0
5.8030005 -1.0303437 0.72561723 0
5.7990003 -1.0393535 0.72537911 0
5.7950006 -1.0483493 0.72514105 0
5.7910004 -1.0573303 0.72490293 0
5.7870002 -1.0662971 0.72466481 0
5.7830005 -1.0752493 0.72442675 0
5.7800002 -1.0843803 0.72424817 0
5.7760005 -1.0933055 0.72401005 0
5.7720003 -1.1022164 0.72377193 0
5.7680001 -1.1111126 0.72353381 0
5.7640004 -1.1199946 0.72329569 0
5.7600002 -1.1288621 0.72305763 0
5.7560005 -1.1377152 0.72281957 0
5.7520003 -1.146554 0.72258139 0
5.7480001 -1.1553781 0.72234333 0
5.7440004 -1.164188 0.72210521 0
5.7400002 -1.1729833 0.72186708 0
5.7370005 -1.1819772 0.72168851 0
5.7330003 -1.1907454 0.72145045 0
5.7290006 -1.1994994 0.72121233 0
5.7250004 -1.2082387 0.72097421 0
5.7210002 -1.2169636 0.72073615 0
5.7170005 -1.2256744 0.72049803 0
5.7130003 -1.2343705 0.7202599 0
5.7100005 -1.2432778 0.72008133 0
5.7060003 -1.2519468 0.71984327 0
5.7020001 -1.2606014 0.71960509 0
5.6980004 -1.2692418 0.71936703 0
5.6940002 -1.2778676 0.71912897 0
5.6910005 -1.2867135 0.71895039 0
5.7070003 -1.3000382 0.71990275 0
5.8470001 -0.93028086 0.71841097 0
5.8430004 -0.93944967 0.71818012 0
5.8390002 -0.94860393 0.71794921 0
5.8350005 -0.95774394 0.71771836 0
5.8310003 -0.96686935 0.71748745 0
5.8270001 -0.97598034 0.71725655 0
5.8230004 -0.98507702 0.7170257 0
5.8190002 -0.99415916 0.71679479 0
5.8150005 -1.0032269 0.71656394 0
5.8110003 -1.0122802 0.71633303 0
5.8070002 -1.021319 0.71610212 0
5.8030005 -1.0303437 0.71587121 0
5.7990003 -1.0393535 0.71564031 0
5.7950006 -1.0483493 0.71540952 0
5.7910004 -1.0573303 0.71517861 0
5.7870002 -1.0662971 0.7149477 0
5.7830005 -1.0752493 0.71471679 0
5.7800002 -1.0843803 0.71454364 0
5.7760005 -1.0933055 0.71431279 0
5.7720003 -1.1022164 0.71408188 0
5.7680001 -1.1111126 0.71385098 0
5.7640004 -1.1199946 0.71362007 0
5.7600002 -1.1288621 0.71338916 0
5.7560005 -1.1377152 0.71315837 0
5.7520003 -1.146554 0.71292746 0
5.7480001 -1.1553781 0.71269655 0
5.7440004 -1.164188 0.71246564 0
5.7400002 -1.1729833 0.71223474 0
5.7370005 -1.1819772 0.71206164 0
5.7330003 -1.1907454 0.71183074 0
5.7290006 -1.1994994 0.71159983 0
5.7250004 -1.2082387 0.71136892 0
5.7210002 -1.2169636 0.71113801 0
5.7170005 -1.2256744 0.71090716 0
5.7130003 -1.2343705 0.71067631 0
5.7100005 -1.2432778 0.7105031 0
5.7060003 -1.2519468 0.71027219 0
5.7020001 -1.2606014 0.71004128 0
5.6980004 -1.2692418 0.7098105 0
5.6940002 -1.2778676 0.70957959 0
5.6910005 -1.2867135 0.70940638 0
5.7070003 -1.3000382 0.71032995 0
5.8470001 -0.93028086 0.70858562 0
5.8430004 -0.93944967 0.70836198 0
5.8390002 -0.94860393 0.70813835 0
5.8350005 -0.95774394 0.70791465 0
5.8310003 -0.96686935 0.70769095 0
5.8270001 -0.97598034 0.70746732 0
5.8230004 -0.98507702 0.70724362 0
5.8190002 -0.99415916 0.70701993 0
5.8150005 -1.0032269 0.70679629 0
5.8110003 -1.0122802 0.70657265 0
5.8070002 -1.021319 0.7063489 0
5.8030005 -1.0303437 0.70612526 0
5.7990003 -1.0393535 0.70590162 0
5.7950006 -1.0483493 0.70567793 0
5.7910004 -1.0573303 0.70545423 0
5.7870002 -1.0662971 0.70523059 0
5.7830005 -1.0752493 0.70500696 0
5.7800002 -1.0843803 0.70483911 0
5.7760005 -1.0933055 0.70461547 0
5.7720003 -1.1022164 0.70439184 0
5.7680001 -1.1111126 0.70416814 0
5.7640004 -1.1199946 0.70394444 0
5.7600002 -1.1288621 0.70372081 0
5.7560005 -1.1377152 0.70349711 0
5.7520003 -1.146554 0.70327342 0
5.7480001 -1.1553781 0.70304978 0
5.7440004 -1.164188 0.70282614 0
5.7400002 -1.1729833 0.70260239 0
5.7370005 -1.1819772 0.70243466 0
5.7330003 -1.1907454 0.70221102 0
5.7290006 -1.1994994 0.70198739 0
5.7250004 -1.2082387 0.70176363 0
5.7210002 -1.2169636 0.70153999 0
5.7170005 -1.2256744 0.70131636 0
5.7130003 -1.2343705 0.7010926 0
5.7100005 -1.2432778 0.70092487 0
5.7060003 -1.2519468 0.70070124 0
5.7020001 -1.2606014 0.70047754 0
5.6980004 -1.2692418 0.70025384 0
5.6940002 -1.2778676 0.70003021 0
5.6910005 -1.2867135 0.69986248 0
5.7070003 -1.3000382 0.70075715 0
5.8470001 -0.93028086 0.69876027 0
5.8430004 -0.93944967 0.69854391 0
5.8390002 -0.94860393 0.69832742 0
5.8350005 -0.95774394 0.69811094 0
5.8310003 -0.96686935 0.69789445 0
5.8270001 -0.97598034 0.69767797 0
5.8230004 -0.98507702 0.69746161 0
5.8190002 -0.99415916 0.69724512 0
5.8150005 -1.0032269 0.69702864 0
5.8110003 -1.0122802 0.69681215 0
5.8070002 -1.021319 0.69659579 0
5.8030005 -1.0303437 0.6963793 0
5.7990003 -1.0393535 0.69616282 0
5.7950006 -1.0483493 0.69594634 0
5.7910004 -1.0573303 0.69572991 0
5.7870002 -1.0662971 0.69551349 0
5.7830005 -1.0752493 0.695297 0
5.7800002 -1.0843803 0.69513464 0
5.7760005 -1.0933055 0.69491822 0
5.7720003 -1.1022164 0.69470173 0
5.7680001 -1.1111126 0.69448531 0
5.7640004 -1.1199946 0.69426882 0
5.7600002 -1.1288621 0.69405234 0
5.7560005 -1.1377152 0.69383591 0
5.7520003 -1.146554 0.69361949 0
5.7480001 -1.1553781 0.69340301 0
5.7440004 -1.164188 0.69318652 0
5.7400002 -1.1729833 0.6929701 0
5.7370005 -1.1819772 0.69280779 0
5.7330003 -1.1907454 0.69259131 0
5.7290006 -1.1994994 0.69237483 0
5.7250004 -1.2082387 0.6921584 0
5.7210002 -1.2169636 0.69194192 0
5.7170005 -1.2256744 0.69172549 0
5.7130003 -1.2343705 0.69150901 0
5.7100005 -1.2432778 0.69134665 0
5.7060003 -1.2519468 0.69113022 0
5.7020001 -1.2606014 0.69091374 0
5.6980004 -1.2692418 0.69069731 0
5.6940002 -1.2778676 0.69048083 0
5.6910005 -1.2867135 0.69031847 0
5.7070003 -1.3000382 0.69118428 0
5.8470001 -0.93028086 0.68893492 0
5.8430004 -0.93944967 0.68872571 0
5.8390002 -0.94860393 0.6885165 0
5.8350005 -0.95774394 0.68830729 0
5.8310003 -0.96686935 0.68809801 0
5.8270001 -0.97598034 0.68788874 0
5.8230004 -0.98507702 0.68767953 0
5.8190002 -0.99415916 0.68747026 0
5.8150005 -1.0032269 0.6872611 0
5.8110003 -1.0122802 0.68705177 0
5.8070002 -1.021319 0.68684256 0
5.8030005 -1.0303437 0.68663335 0
5.7990003 -1.0393535 0.68642402 0
5.7950006 -1.0483493 0.6862148 0
5.7910004 -1.0573303 0.68600559 0
5.7870002 -1.0662971 0.68579638 0
5.7830005 -1.0752493 0.68558711 0
5.7800002 -1.0843803 0.68543017 0
5.7760005 -1.0933055 0.68522096 0
5.7720003 -1.1022164 0.68501168 0
5.7680001 -1.1111126 0.68480241 0
5.7640004 -1.1199946 0.6845932 0
5.7600002 -1.1288621 0.68438399 0
5.7560005 -1.1377152 0.68417472 0
5.7520003 -1.146554 0.68396544 0
5.7480001 -1.1553781 0.68375623 0
5.7440004 -1.164188 0.68354702 0
5.7400002 -1.1729833 0.68333775 0
5.7370005 -1.1819772 0.68318081 0
5.7330003 -1.1907454 0.6829716 0
5.7290006 -1.1994994 0.68276238 0
5.7250004 -1.2082387 0.68255305 0
5.7210002 -1.2169636 0.68234384 0
5.7170005 -1.2256744 0.68213463 0
5.7130003 -1.2343705 0.68192542 0
5.7100005 -1.2432778 0.68176842 0
5.7060003 -1.2519468 0.68155921 0
5.7020001 -1.2606014 0.68134993 0
5.6980004 -1.2692418 0.68114072 0
5.6940002 -1.2778676 0.68093145 0
5.6910005 -1.2867135 0.68077457 0
5.7070003 -1.3000382 0.68161154 0
5.8470001 -0.93028086 0.67910963 0
5.8430004 -0.93944967 0.67890763 0
5.8390002 -0.94860393 0.67870557 0
5.8350005 -0.95774394 0.67850351 0
5.8310003 -0.96686935 0.67830151 0
5.8270001 -0.97598034 0.67809951 0
5.8230004 -0.98507702 0.67789745 0
5.8190002 -0.99415916 0.67769545 0
5.8150005 -1.0032269 0.67749345 0
5.8110003 -1.0122802 0.67729139 0
5.8070002 -1.021319 0.67708933 0
5.8030005 -1.0303437 0.67688733 0
5.7990003 -1.0393535 0.67668533 0
5.7950006 -1.0483493 0.67648327 0
5.7910004 -1.0573303 0.67628127 0
5.7870002 -1.0662971 0.67607921 0
5.7830005 -1.0752493 0.67587721 0
5.7800002 -1.0843803 0.6757257 0
5.7760005 -1.0933055 0.67552364 0
5.7720003 -1.1022164 0.67532158 0
5.7680001 -1.1111126 0.67511964 0
5.7640004 -1.1199946 0.67491758 0
5.7600002 -1.1288621 0.67471552 0
5.7560005 -1.1377152 0.67451358 0
5.7520003 -1.146554 0.67431152 0
5.7480001 -1.1553781 0.67410946 0
5.7440004 -1.164188 0.6739074 0
5.7400002 -1.1729833 0.67370546 0
5.7370005 -1.1819772 0.67355388 0
5.7330003 -1.1907454 0.67335188 0
5.7290006 -1.1994994 0.67314982 0
5.7250004 -1.2082387 0.67294782 0
5.7210002 -1.2169636 0.67274582 0
5.7170005 -1.2256744 0.67254376 0
5.7130003 -1.2343705 0.6723417 0
5.7100005 -1.2432778 0.67219019 0
5.7060003 -1.2519468 0.67198819 0
5.7020001 -1.2606014 0.67178619 0
5.6980004 -1.2692418 0.67158413 0
5.6940002 -1.2778676 0.67138213 0
5.6910005 -1.2867135 0.67123061 0
5.7070003 -1.3000382 0.67203867 0
5.8470001 -0.93028086 0.66928428 0
5.8430004 -0.93944967 0.6690895 0
5.8390002 -0.94860393 0.66889465 0
5.8350005 -0.95774394 0.66869986 0
5.8310003 -0.96686935 0.66850507 0
5.8270001 -0.97598034 0.66831023 0
5.8230004 -0.98507702 0.66811538 0
5.8190002 -0.99415916 0.66792059 0
5.8150005 -1.0032269 0.6677258 0
5.8110003 -1.0122802 0.66753101 0
5.8070002 -1.021319 0.66733617 0
5.8030005 -1.0303437 0.66714138 0
5.7990003 -1.0393535 0.66694653 0
5.7950006 -1.0483493 0.66675174 0
5.7910004 -1.0573303 0.66655695 0
5.7870002 -1.0662971 0.66636211 0
5.7830005 -1.0752493 0.66616726 0
5.7800002 -1.0843803 0.66602123 0
5.7760005 -1.0933055 0.66582638 0
5.7720003 -1.1022164 0.66563153 0
5.7680001 -1.1111126 0.66543674 0
5.7640004 -1.1199946 0.66524196 0
5.7600002 -1.1288621 0.66504717 0
5.7560005 -1.1377152 0.66485238 0
5.7520003 -1.146554 0.66465753 0
5.7480001 -1.1553781 0.66446269 0
5.7440004 -1.164188 0.6642679 0
5.7400002 -1.1729833 0.66407311 0
5.7370005 -1.1819772 0.66392696 0
5.7330003 -1.1907454 0.66373217 0
5.7290006 -1.1994994 0.66353738 0
5.7250004 -1.2082387 0.66334254 0
5.7210002 -1.2169636 0.66314769 0
5.7170005 -1.2256744 0.6629529 0
5.7130003 -1.2343705 0.66275811 0
5.7100005 -1.2432778 0.66261202 0
5.7060003 -1.2519468 0.66241717 0
5.7020001 -1.2606014 0.66222239 0
5.6980004 -1.2692418 0.6620276 0
5.6940002 -1.2778676 0.66183275 0
5.6910005 -1.2867135 0.66168666 0
5.7070003 -1.3000382 0.66246587 0
5.8470001 -0.93028086 0.65945894 0
5.8430004 -0.93944967 0.65927136 0
5.8390002 -0.94860393 0.65908372 0
5.8350005 -0.95774394 0.65889621 0
5.8310003 -0.96686935 0.65870857 0
5.8270001 -0.97598034 0.65852094 0
5.8230004 -0.98507702 0.65833342 0
5.8190002 -0.99415916 0.65814579 0
5.8150005 -1.0032269 0.65795815 0
5.8110003 -1.0122802 0.65777057 0
5.8070002 -1.021319 0.657583 0
5.8030005 -1.0303437 0.65739536 0
5.7990003 -1.0393535 0.65720779 0
5.7950006 -1.0483493 0.65702021 0
5.7910004 -1.0573303 0.65683258 0
5.7870002 -1.0662971 0.65664494 0
5.7830005 -1.0752493 0.65645742 0
5.7800002 -1.0843803 0.6563167 0
5.7760005 -1.0933055 0.65612912 0
5.7720003 -1.1022164 0.65594149 0
5.7680001 -1.1111126 0.65575391 0
5.7640004 -1.1199946 0.65556633 0
5.7600002 -1.1288621 0.6553787 0
5.7560005 -1.1377152 0.65519118 0
5.7520003 -1.146554 0.65500355 0
5.7480001 -1.1553781 0.65481591 0
5.7440004 -1.164188 0.6546284 0
5.7400002 -1.1729833 0.65444076 0
5.7370005 -1.1819772 0.65430009 0
5.7330003 -1.1907454 0.65411246 0
5.7290006 -1.1994994 0.65392488 0
5.7250004 -1.2082387 0.65373731 0
5.7210002 -1.2169636 0.65354967 0
5.7170005 -1.2256744 0.65336204 0
5.7130003 -1.2343705 0.65317446 0
5.7100005 -1.2432778 0.65303379 0
5.7060003 -1.2519468 0.65284622 0
5.7020001 -1.2606014 0.65265858 0
5.6980004 -1.2692418 0.65247101 0
5.6940002 -1.2778676 0.65228337 0
5.6910005 -1.2867135 0.6521427 0
5.7070003 -1.3000382 0.65289307 0
5.8470001 -0.93028086 0.64963359 0
5.8430004 -0.93944967 0.64945322 0
5.8390002 -0.94860393 0.64927286 0
5.8350005 -0.95774394 0.6490925 0
5.8310003 -0.96686935 0.64891207 0
5.8270001 -0.97598034 0.64873171 0
5.8230004 -0.98507702 0.64855134 0
5.8190002 -0.99415916 0.64837092 0
5.8150005 -1.0032269 0.64819056 0
5.8110003 -1.0122802 0.64801019 0
5.8070002 -1.021319 0.64782977 0
5.8030005 -1.0303437 0.64764941 0
5.7990003 -1.0393535 0.64746904 0
5.7950006 -1.0483493 0.64728868 0
5.7910004 -1.0573303 0.64710826 0
5.7870002 -1.0662971 0.64692789 0
5.7830005 -1.0752493 0.64674753 0
5.7800002 -1.0843803 0.64661223 0
5.7760005 -1.0933055 0.64643186 0
5.7720003 -1.1022164 0.64625144 0
5.7680001 -1.1111126 0.64607108 0
5.7640004 -1.1199946 0.64589071 0
5.7600002 -1.1288621 0.64571029 0
5.7560005 -1.1377152 0.64552993 0
5.7520003 -1.146554 0.64534956 0
5.7480001 -1.1553781 0.64516914 0
5.7440004 -1.164188 0.64498878 0
5.7400002 -1.1729833 0.64480841 0
5.7370005 -1.1819772 0.64467311 0
5.7330003 -1.1907454 0.64449275 0
5.7290006 -1.1994994 0.64431238 0
5.7250004 -1.2082387 0.64413196 0
5.7210002 -1.2169636 0.64395159 0
5.7170005 -1.2256744 0.64377123 0
5.7130003 -1.2343705 0.64359087 0
5.7100005 -1.2432778 0.64345556 0
5.7060003 -1.2519468 0.6432752 0
5.7020001 -1.2606014 0.64309478 0
5.6980004 -1.2692418 0.64291441 0
5.6940002 -1.2778676 0.64273405 0
5.6910005 -1.2867135 0.64259875 0
5.7070003 -1.3000382 0.64332026 0
5.8470001 -0.93028086 0.63980824 0
5.8430004 -0.93944967 0.63963509 0
5.8390002 -0.94860393 0.63946193 0
5.8350005 -0.95774394 0.63928878 0
5.8310003 -0.96686935 0.63911557 0
5.8270001 -0.97598034 0.63894242 0
5.8230004 -0.98507702 0.63876927 0
5.8190002 -0.99415916 0.63859606 0
5.8150005 -1.0032269 0.63842297 0
5.8110003 -1.0122802 0.63824975 0
5.8070002 -1.021319 0.6380766 0
5.8030005 -1.0303437 0.63790345 0
5.7990003 -1.0393535 0.63773024 0
5.7950006 -1.0483493 0.63755715 0
5.7910004 -1.0573303 0.63738394 0
5.7870002 -1.0662971 0.63721073 0
5.7830005 -1.0752493 0.63703763 0
5.7800002 -1.0843803 0.6369077 0
5.7760005 -1.0933055 0.6367346 0
5.7720003 -1.1022164 0.63656139 0
5.7680001 -1.1111126 0.63638824 0
5.7640004 -1.1199946 0.63621509 0
5.7600002 -1.1288621 0.63604188 0
5.7560005 -1.1377152 0.63586873 0
5.7520003 -1.146554 0.63569558 0
5.7480001 -1.1553781 0.63552243 0
5.7440004 -1.164188 0.63534927 0
5.7400002 -1.1729833 0.63517606 0
5.7370005 -1.1819772 0.63504624 0
5.7330003 -1.1907454 0.63487303 0
5.7290006 -1.1994994 0.63469988 0
5.7250004 -1.2082387 0.63452673 0
5.7210002 -1.2169636 0.63435352 0
5.7170005 -1.2256744 0.63418037 0
5.7130003 -1.2343705 0.63400722 0
5.7100005 -1.2432778 0.63387734 0
5.7060003 -1.2519468 0.63370419 0
5.7020001 -1.2606014 0.63353097 0
5.6980004 -1.2692418 0.63335782 0
5.6940002 -1.2778676 0.63318467 0
5.6910005 -1.2867135 0.63305479 0
5.7070003 -1.3000382 0.63374746 0
5.8470001 -0.93028086 0.62998289 0
5.8430004 -0.93944967 0.62981695 0
5.8390002 -0.94860393 0.62965101 0
5.8350005 -0.95774394 0.62948507 0
5.8310003 -0.96686935 0.62931907 0
5.8270001 -0.97598034 0.62915313 0
5.8230004 -0.98507702 0.62898719 0
5.8190002 -0.99415916 0.62882125 0
5.8150005 -1.0032269 0.62865531 0
5.8110003 -1.0122802 0.62848938 0
5.8070002 -1.021319 0.62832344 0
5.8030005 -1.0303437 0.62815744 0
5.7990003 -1.0393535 0.6279915 0
5.7950006 -1.0483493 0.62782556 0
5.7910004 -1.0573303 0.62765962 0
5.7870002 -1.0662971 0.62749362 0
5.7830005 -1.0752493 0.62732768 0
5.7800002 -1.0843803 0.62720323 0
5.7760005 -1.0933055 0.62703729 0
5.7720003 -1.1022164 0.62687135 0
5.7680001 -1.1111126 0.62670541 0
5.7640004 -1.1199946 0.62653947 0
5.7600002 -1.1288621 0.62637353 0
5.7560005 -1.1377152 0.62620753 0
5.7520003 -1.146554 0.62604159 0
5.7480001 -1.1553781 0.62587559 0
5.7440004 -1.164188 0.62570971 0
5.7400002 -1.1729833 0.62554371 0
5.7370005 -1.1819772 0.62541926 0
5.7330003 -1.1907454 0.62525332 0
5.7290006 -1.1994994 0.62508738 0
5.7250004 -1.2082387 0.62492144 0
5.7210002 -1.2169636 0.6247555 0
5.7170005 -1.2256744 0.62458956 0
5.7130003 -1.2343705 0.62442356 0
5.7100005 -1.2432778 0.62429911 0
5.7060003 -1.2519468 0.62413317 0
5.7020001 -1.2606014 0.62396717 0
5.6980004 -1.2692418 0.62380123 0
5.6940002 -1.2778676 0.62363529 0
5.6910005 -1.2867135 0.62351084 0
5.7070003 -1.3000382 0.62417465 0
5.8470001 -0.93028086 0.62015754 0
5.8430004 -0.93944967 0.61999881 0
5.8390002 -0.94860393 0.61984009 0
5.8350005 -0.95774394 0.61968136 0
5.8310003 -0.96686935 0.61952263 0
5.8270001 -0.97598034 0.6193639 0
5.8230004 -0.98507702 0.61920518 0
5.8190002 -0.99415916 0.61904645 0
5.8150005 -1.0032269 0.61888772 0
5.8110003 -1.0122802 0.61872894 0
5.8070002 -1.021319 0.61857021 0
5.8030005 -1.0303437 0.61841148 0
5.7990003 -1.0393535 0.61825275 0
5.7950006 -1.0483493 0.61809403 0
5.7910004 -1.0573303 0.6179353 0
5.7870002 -1.0662971 0.61777651 0
5.7830005 -1.0752493 0.61761785 0
5.7800002 -1.0843803 0.61749876 0
5.7760005 -1.0933055 0.61734003 0
5.7720003 -1.1022164 0.6171813 0
5.7680001 -1.1111126 0.61702251 0
5.7640004 -1.1199946 0.61686385 0
5.7600002 -1.1288621 0.61670506 0
5.7560005 -1.1377152 0.61654633 0
5.7520003 -1.146554 0.61638761 0
5.7480001 -1.1553781 0.61622888 0
5.7440004 -1.164188 0.61607015 0
5.7400002 -1.1729833 0.61591136 0
5.7370005 -1.1819772 0.61579239 0
5.7330003 -1.1907454 0.61563361 0
5.7290006 -1.1994994 0.61547488 0
5.7250004 -1.2082387 0.61531615 0
5.7210002 -1.2169636 0.61515743 0
5.7170005 -1.2256744 0.6149987 0
5.7130003 -1.2343705 0.61483991 0
5.7100005 -1.2432778 0.61472088 0
5.7060003 -1.2519468 0.61456215 0
5.7020001 -1.2606014 0.61440343 0
5.6980004 -1.2692418 0.6142447 0
5.6940002 -1.2778676 0.61408591 0
5.6910005 -1.2867135 0.61396688 0
5.7070003 -1.3000382 0.61460185 0
5.8470001 -0.93028086 0.61033225 0
5.8430004 -0.93944967 0.61018074 0
5.8390002 -0.94860393 0.61002916 0
5.8350005 -0.95774394 0.60987771 0
5.8310003 -0.96686935 0.60972613 0
5.8270001 -0.97598034 0.60957462 0
5.8230004 -0.98507702 0.6094231 0
5.8190002 -0.99415916 0.60927159 0
5.8150005 -1.0032269 0.60912007 0
5.8110003 -1.0122802 0.60896856 0
5.8070002 -1.021319 0.60881704 0
5.8030005 -1.0303437 0.60866553 0
5.7990003 -1.0393535 0.60851395 0
5.7950006 -1.0483493 0.6083625 0
5.7910004 -1.0573303 0.60821092 0
5.7870002 -1.0662971 0.60805941 0
5.7830005 -1.0752493 0.60790789 0
5.7800002 -1.0843803 0.60779428 0
5.7760005 -1.0933055 0.60764277 0
5.7720003 -1.1022164 0.60749125 0
5.7680001 -1.1111126 0.60733968 0
5.7640004 -1.1199946 0.60718822 0
5.7600002 -1.1288621 0.60703665 0
5.7560005 -1.1377152 0.60688514 0
5.7520003 -1.146554 0.60673362 0
5.7480001 -1.1553781 0.60658211 0
5.7440004 -1.164188 0.60643059 0
5.7400002 -1.1729833 0.60627908 0
5.7370005 -1.1819772 0.60616541 0
5.7330003 -1.1907454 0.60601389 0
5.7290006 -1.1994994 0.60586238 0
5.7250004 -1.2082387 0.60571086 0
5.7210002 -1.2169636 0.60555935 0
5.7170005 -1.2256744 0.60540783 0
5.7130003 -1.2343705 0.60525632 0
5.7100005 -1.2432778 0.60514271 0
5.7060003 -1.2519468 0.60499114 0
5.7020001 -1.2606014 0.60483962 0
5.6980004 -1.2692418 0.60468811 0
5.6940002 -1.2778676 0.60453659 0
5.6910005 -1.2867135 0.60442293 0
5.7070003 -1.3000382 0.60502905 0
5.8470001 -0.93028086 0.6005069 0
5.8430004 -0.93944967 0.6003626 0
5.8390002 -0.94860393 0.6002183 0
5.8350005 -0.95774394 0.60007399 0
5.8310003 -0.96686935 0.59992969 0
5.8270001 -0.97598034 0.59978533 0
5.8230004 -0.98507702 0.59964108 0
5.8190002 -0.99415916 0.59949672 0
5.8150005 -1.0032269 0.59935248 0
5.8110003 -1.0122802 0.59920812 0
5.8070002 -1.021319 0.59906381 0
5.8030005 -1.0303437 0.59891951 0
5.7990003 -1.0393535 0.59877521 0
5.7950006 -1.0483493 0.59863091 0
5.7910004 -1.0573303 0.5984866 0
5.7870002 -1.0662971 0.5983423 0
5.7830005 -1.0752493 0.598198 0
5.7800002 -1.0843803 0.59808981 0
5.7760005 -1.0933055 0.59794545 0
5.7720003 -1.1022164 0.59780115 0
5.7680001 -1.1111126 0.59765685 0
5.7640004 -1.1199946 0.59751254 0
5.7600002 -1.1288621 0.59736824 0
5.7560005 -1.1377152 0.597224 0
5.7520003 -1.146554 0.59707963 0
5.7480001 -1.1553781 0.59693533 0
5.7440004 -1.164188 0.59679103 0
5.7400002 -1.1729833 0.59664673 0
5.7370005 -1.1819772 0.59653848 0
5.7330003 -1.1907454 0.59639418 0
5.7290006 -1.1994994 0.59624994 0
5.7250004 -1.2082387 0.59610558 0
5.7210002 -1.2169636 0.59596127 0
5.7170005 -1.2256744 0.59581697 0
5.7130003 -1.2343705 0.59567267 0
5.7100005 -1.2432778 0.59556448 0
5.7060003 -1.2519468 0.59542012 0
5.7020001 -1.2606014 0.59527582 0
5.6980004 -1.2692418 0.59513152 0
5.6940002 -1.2778676 0.59498721 0
5.6910005 -1.2867135 0.59487903 0
5.7070003 -1.3000382 0.59545624 0
5.8470001 -0.93028086 0.59068155 0
5.8430004 -0.93944967 0.59054446 0
5.8390002 -0.94860393 0.59040737 0
5.8350005 -0.95774394 0.59027028 0
5.8310003 -0.96686935 0.59013319 0
5.8270001 -0.97598034 0.5899961 0
5.8230004 -0.98507702 0.58985901 0
5.8190002 -0.99415916 0.58972192 0
5.8150005 -1.0032269 0.58958483 0
5.8110003 -1.0122802 0.58944774 0
5.8070002 -1.021319 0.58931065 0
5.8030005 -1.0303437 0.58917356 0
5.7990003 -1.0393535 0.58903646 0
5.7950006 -1.0483493 0.58889937 0
5.7910004 -1.0573303 0.58876228 0
5.7870002 -1.0662971 0.58862519 0
5.7830005 -1.0752493 0.5884881 0
5.7800002 -1.0843803 0.58838528 0
5.7760005 -1.0933055 0.58824819 0
5.7720003 -1.1022164 0.5881111 0
5.7680001 -1.1111126 0.58797401 0
5.7640004 -1.1199946 0.58783692 0
5.7600002 -1.1288621 0.58769983 0
5.7560005 -1.1377152 0.58756274 0
5.7520003 -1.146554 0.58742565 0
5.7480001 -1.1553781 0.58728856 0
5.7440004 -1.164188 0.58715147 0
5.7400002 -1.1729833 0.58701444 0
5.7370005 -1.1819772 0.58691156 0
5.7330003 -1.1907454 0.58677447 0
5.7290006 -1.1994994 0.58663738 0
5.7250004 -1.2082387 0.58650029 0
5.7210002 -1.2169636 0.5863632 0
5.7170005 -1.2256744 0.58622617 0
5.7130003 -1.2343705 0.58608902 0
5.7100005 -1.2432778 0.58598626 0
5.7060003 -1.2519468 0.58584917 0
5.7020001 -1.2606014 0.58571202 0
5.6980004 -1.2692418 0.58557498 0
5.6940002 -1.2778676 0.58543789 0
5.6910005 -1.2867135 0.58533508 0
