# .PCD v0.7 - Point Cloud Data file format
VERSION 0.7
FIELDS x y z intensity
SIZE 4 4 4 4
TYPE F F F F
COUNT 1 1 1 1
WIDTH 1414
HEIGHT 1
VIEWPOINT 0 0 0 1 0 0 0
POINTS 1414
DATA ascii
3.6460001 -1.2170323 0.26347613 0
3.6410003 -1.2210747 0.26369259 0
3.6370003 -1.2254633 0.26386577 0
3.6340003 -1.2302036 0.26399565 0
3.6310003 -1.2349333 0.26412553 0
3.6290002 -1.2400218 0.26421207 0
3.6280003 -1.2454747 0.2642554 0
3.6270003 -1.2509241 0.26429868 0
3.6260002 -1.2563697 0.26434195 0
3.6270003 -1.2625659 0.26429868 0
3.6280003 -1.2687654 0.2642554 0
3.6300004 -1.2753494 0.2641688 0
3.6340003 -1.2827053 0.26399565 0
3.8030002 -1.4148542 0.25667939 0
3.7950003 -1.4177601 0.25702572 0
3.7890003 -1.4214488 0.25728548 0
3.7840002 -1.4255236 0.25750193 0
3.7800002 -1.4299898 0.25767511 0
3.7760003 -1.4344417 0.25784826 0
3.7740002 -1.4397051 0.25793487 0
3.7710001 -1.4445466 0.25806472 0
3.7700002 -1.4502106 0.25810802 0
3.7680004 -1.4554524 0.25819457 0
3.7680004 -1.4615278 0.25819457 0
3.7680004 -1.467603 0.25819457 0
3.7690003 -1.474102 0.25815129 0
3.7720003 -1.4814562 0.25802141 0
3.7760003 -1.4892486 0.25784826 0
4.0339999 -0.9440403 0.24012405 0
4.0290003 -0.94935077 0.24034952 0
4.026 -0.95514464 0.2404848 0
4.0240002 -0.96118015 0.240575 0
4.0240002 -0.96771711 0.240575 0
4.0250001 -0.97451037 0.24052988 0
4.0280004 -0.98182291 0.24039461 0
4.21 -1.1868366 0.23218727 0
4.2030001 -1.1916004 0.23250295 0
4.1990004 -1.1972482 0.23268333 0
4.1960001 -1.2031863 0.2328186 0
4.1940002 -1.2094202 0.2329088 0
4.1940002 -1.2162639 0.2329088 0
3.8010004 -1.1073121 0.25063121 0
3.7920003 -1.110622 0.25103706 0
3.7860003 -1.1148466 0.25130767 0
3.7820003 -1.1196845 0.25148803 0
3.7790003 -1.124827 0.2516233 0
3.7770002 -1.1302799 0.25171351 0
3.7760003 -1.1360486 0.25175861 0
3.7770002 -1.1424628 0.25171351 0
3.7790003 -1.1492074 0.2516233 0
3.7850003 -1.1572722 0.25135273 0
3.6680002 -1.2072846 0.25662887 0
3.6590002 -1.2099649 0.25703475 0
3.6520002 -1.2133309 0.25735039 0
3.6460001 -1.2170323 0.25762099 0
3.6410003 -1.2210747 0.25784647 0
3.6370003 -1.2254633 0.25802684 0
3.6340003 -1.2302036 0.25816211 0
3.6310003 -1.2349333 0.25829741 0
3.6290002 -1.2400218 0.2583876 0
3.6280003 -1.2454747 0.25843269 0
3.6270003 -1.2509241 0.25847781 0
3.6260002 -1.2563697 0.25852287 0
3.6270003 -1.2625659 0.25847781 0
3.6280003 -1.2687654 0.25843269 0
3.6300004 -1.2753494 0.2583425 0
3.6340003 -1.2827053 0.25816211 0
3.8030002 -1.4148542 0.25054103 0
3.7950003 -1.4177601 0.25090179 0
3.7890003 -1.4214488 0.25117236 0
3.7840002 -1.4255236 0.25139785 0
3.7800002 -1.4299898 0.25157821 0
3.7760003 -1.4344417 0.25175861 0
3.7740002 -1.4397051 0.25184882 0
3.7710001 -1.4445466 0.25198406 0
3.7700002 -1.4502106 0.25202918 0
3.7680004 -1.4554524 0.25211936 0
3.7680004 -1.4615278 0.25211936 0
3.7680004 -1.467603 0.25211936 0
3.7690003 -1.474102 0.25207424 0
3.7720003 -1.4814562 0.251939 0
3.7760003 -1.4892486 0.25175861 0
4.0339999 -0.9440403 0.233569 0
4.0290003 -0.94935077 0.2338035 0
4.026 -0.95514464 0.23394419 0
4.0240002 -0.96118015 0.234038 0
4.0240002 -0.96771711 0.234038 0
4.0250001 -0.97451037 0.23399109 0
4.0280004 -0.98182291 0.23385039 0
4.21 -1.1868366 0.22531477 0
4.2030001 -1.1916004 0.22564307 0
4.1990004 -1.1972482 0.22583064 0
4.1960001 -1.2031863 0.22597136 0
4.1940002 -1.2094202 0.22606516 0
4.1940002 -1.2162639 0.22606516 0
3.8010004 -1.1073121 0.24449645 0
3.7920003 -1.110622 0.24491857 0
3.7860003 -1.1148466 0.24519995 0
3.7820003 -1.1196845 0.24538754 0
3.7790003 -1.124827 0.24552825 0
3.7770002 -1.1302799 0.24562205 0
3.7760003 -1.1360486 0.24566895 0
3.7770002 -1.1424628 0.24562205 0
3.7790003 -1.1492074 0.24552825 0
3.7850003 -1.1572722 0.24524684 0
3.6680002 -1.2072846 0.25073403 0
3.6590002 -1.2099649 0.25115615 0
3.6520002 -1.2133309 0.25148442 0
3.6460001 -1.2170323 0.25176582 0
3.6410003 -1.2210747 0.2520003 0
3.6370003 -1.2254633 0.25218791 0
3.6340003 -1.2302036 0.25232857 0
3.6310003 -1.2349333 0.2524693 0
3.6290002 -1.2400218 0.25256312 0
3.6280003 -1.2454747 0.25261 0
3.6270003 -1.2509241 0.25265688 0
3.6260002 -1.2563697 0.25270379 0
3.6270003 -1.2625659 0.25265688 0
3.6280003 -1.2687654 0.25261 0
3.6300004 -1.2753494 0.25251621 0
3.6340003 -1.2827053 0.25232857 0
3.8030002 -1.4148542 0.24440266 0
3.7950003 -1.4177601 0.24477786 0
3.7890003 -1.4214488 0.24505925 0
3.7840002 -1.4255236 0.24529375 0
3.7800002 -1.4299898 0.24548134 0
3.7760003 -1.4344417 0.24566895 0
3.7740002 -1.4397051 0.24576275 0
3.7710001 -1.4445466 0.24590343 0
3.7700002 -1.4502106 0.24595034 0
3.7680004 -1.4554524 0.24604413 0
3.7680004 -1.4615278 0.24604413 0
3.7680004 -1.467603 0.24604413 0
3.7690003 -1.474102 0.24599724 0
3.7720003 -1.4814562 0.24585654 0
3.7760003 -1.4892486 0.24566895 0
4.0339999 -0.9440403 0.22701396 0
4.0290003 -0.94935077 0.22725748 0
4.026 -0.95514464 0.22740358 0
4.0240002 -0.96118015 0.22750099 0
4.0240002 -0.96771711 0.22750099 0
4.0250001 -0.97451037 0.22745228 0
4.0280004 -0.98182291 0.22730617 0
4.21 -1.1868366 0.21844226 0
4.2030001 -1.1916004 0.21878317 0
4.1990004 -1.1972482 0.21897799 0
4.1960001 -1.2031863 0.21912411 0
4.1940002 -1.2094202 0.2192215 0
4.1940002 -1.2162639 0.2192215 0
3.8010004 -1.1073121 0.23836172 0
3.7920003 -1.110622 0.23880003 0
3.7860003 -1.1148466 0.23909226 0
3.7820003 -1.1196845 0.23928708 0
3.7790003 -1.124827 0.23943318 0
3.7770002 -1.1302799 0.23953059 0
3.7760003 -1.1360486 0.23957928 0
3.7770002 -1.1424628 0.23953059 0
3.7790003 -1.1492074 0.23943318 0
3.7850003 -1.1572722 0.23914096 0
3.6680002 -1.2072846 0.24483919 0
3.6590002 -1.2099649 0.24527752 0
3.6520002 -1.2133309 0.24561845 0
3.6460001 -1.2170323 0.24591066 0
3.6410003 -1.2210747 0.24615417 0
3.6370003 -1.2254633 0.24634896 0
3.6340003 -1.2302036 0.24649508 0
3.6310003 -1.2349333 0.24664119 0
3.6290002 -1.2400218 0.24673861 0
3.6280003 -1.2454747 0.24678729 0
3.6270003 -1.2509241 0.24683601 0
3.6260002 -1.2563697 0.2468847 0
3.6270003 -1.2625659 0.24683601 0
3.6280003 -1.2687654 0.24678729 0
3.6300004 -1.2753494 0.2466899 0
3.6340003 -1.2827053 0.24649508 0
3.8030002 -1.4148542 0.23826431 0
3.7950003 -1.4177601 0.23865393 0
3.7890003 -1.4214488 0.23894614 0
3.7840002 -1.4255236 0.23918967 0
3.7800002 -1.4299898 0.23938447 0
3.7760003 -1.4344417 0.23957928 0
3.7740002 -1.4397051 0.2396767 0
3.7710001 -1.4445466 0.2398228 0
3.7700002 -1.4502106 0.2398715 0
3.7680004 -1.4554524 0.23996891 0
3.7680004 -1.4615278 0.23996891 0
3.7680004 -1.467603 0.23996891 0
3.7690003 -1.474102 0.2399202 0
3.7720003 -1.4814562 0.23977409 0
3.7760003 -1.4892486 0.23957928 0
4.0339999 -0.9440403 0.22045892 0
4.0290003 -0.94935077 0.22071145 0
4.026 -0.95514464 0.22086297 0
4.0240002 -0.96118015 0.220964 0
4.0240002 -0.96771711 0.220964 0
4.0250001 -0.97451037 0.22091347 0
4.0280004 -0.98182291 0.22076195 0
4.21 -1.1868366 0.21156974 0
4.2030001 -1.1916004 0.21192329 0
4.1990004 -1.1972482 0.21212532 0
4.1960001 -1.2031863 0.21227683 0
4.1940002 -1.2094202 0.21237786 0
4.1940002 -1.2162639 0.21237786 0
3.8010004 -1.1073121 0.23222697 0
3.7920003 -1.110622 0.23268153 0
3.7860003 -1.1148466 0.23298456 0
3.7820003 -1.1196845 0.23318659 0
3.7790003 -1.124827 0.2333381 0
3.7770002 -1.1302799 0.23343913 0
3.7760003 -1.1360486 0.23348962 0
3.7770002 -1.1424628 0.23343913 0
3.7790003 -1.1492074 0.2333381 0
3.7850003 -1.1572722 0.23303507 0
3.6680002 -1.2072846 0.23894434 0
3.6590002 -1.2099649 0.23939891 0
3.6520002 -1.2133309 0.23975246 0
3.6460001 -1.2170323 0.2400555 0
3.6410003 -1.2210747 0.24030803 0
3.6370003 -1.2254633 0.24051005 0
3.6340003 -1.2302036 0.24066158 0
3.6310003 -1.2349333 0.24081309 0
3.6290002 -1.2400218 0.24091411 0
3.6280003 -1.2454747 0.24096461 0
3.6270003 -1.2509241 0.24101512 0
3.6260002 -1.2563697 0.24106562 0
3.6270003 -1.2625659 0.24101512 0
3.6280003 -1.2687654 0.24096461 0
3.6300004 -1.2753494 0.24086359 0
3.6340003 -1.2827053 0.24066158 0
3.8030002 -1.4148542 0.23212595 0
3.7950003 -1.4177601 0.23253 0
3.7890003 -1.4214488 0.23283304 0
3.7840002 -1.4255236 0.23308559 0
3.7800002 -1.4299898 0.23328762 0
3.7760003 -1.4344417 0.23348962 0
3.7740002 -1.4397051 0.23359065 0
3.7710001 -1.4445466 0.23374216 0
3.7700002 -1.4502106 0.23379268 0
3.7680004 -1.4554524 0.23389368 0
3.7680004 -1.4615278 0.23389368 0
3.7680004 -1.467603 0.23389368 0
3.7690003 -1.474102 0.23384316 0
3.7720003 -1.4814562 0.23369165 0
3.7760003 -1.4892486 0.23348962 0
4.0339999 -0.9440403 0.21390389 0
4.0290003 -0.94935077 0.21416543 0
4.026 -0.95514464 0.21432236 0
4.0240002 -0.96118015 0.21442699 0
4.0240002 -0.96771711 0.21442699 0
4.0250001 -0.97451037 0.21437466 0
4.0280004 -0.98182291 0.21421774 0
4.21 -1.1868366 0.20469724 0
4.2030001 -1.1916004 0.20506342 0
4.1990004 -1.1972482 0.20527266 0
4.1960001 -1.2031863 0.20542958 0
4.1940002 -1.2094202 0.20553422 0
4.1940002 -1.2162639 0.20553422 0
3.8010004 -1.1073121 0.2260922 0
3.7920003 -1.110622 0.22656301 0
3.7860003 -1.1148466 0.22687687 0
3.7820003 -1.1196845 0.22708611 0
3.7790003 -1.124827 0.22724304 0
3.7770002 -1.1302799 0.22734766 0
3.7760003 -1.1360486 0.22739998 0
3.7770002 -1.1424628 0.22734766 0
3.7790003 -1.1492074 0.22724304 0
3.7850003 -1.1572722 0.22692917 0
3.6680002 -1.2072846 0.2330495 0
3.6590002 -1.2099649 0.2335203 0
3.6520002 -1.2133309 0.23388647 0
3.6460001 -1.2170323 0.23420033 0
3.6410003 -1.2210747 0.23446187 0
3.6370003 -1.2254633 0.23467112 0
3.6340003 -1.2302036 0.23482805 0
3.6310003 -1.2349333 0.23498498 0
3.6290002 -1.2400218 0.2350896 0
3.6280003 -1.2454747 0.23514192 0
3.6270003 -1.2509241 0.23519422 0
3.6260002 -1.2563697 0.23524654 0
3.6270003 -1.2625659 0.23519422 0
3.6280003 -1.2687654 0.23514192 0
3.6300004 -1.2753494 0.2350373 0
3.6340003 -1.2827053 0.23482805 0
3.8030002 -1.4148542 0.2259876 0
3.7950003 -1.4177601 0.22640607 0
3.7890003 -1.4214488 0.22671993 0
3.7840002 -1.4255236 0.22698149 0
3.7800002 -1.4299898 0.22719073 0
3.7760003 -1.4344417 0.22739998 0
3.7740002 -1.4397051 0.2275046 0
3.7710001 -1.4445466 0.22766154 0
3.7700002 -1.4502106 0.22771384 0
3.7680004 -1.4554524 0.22781846 0
3.7680004 -1.4615278 0.22781846 0
3.7680004 -1.467603 0.22781846 0
3.7690003 -1.474102 0.22776614 0
3.7720003 -1.4814562 0.2276092 0
3.7760003 -1.4892486 0.22739998 0
4.0339999 -0.9440403 0.20734884 0
4.0290003 -0.94935077 0.20761941 0
4.026 -0.95514464 0.20778175 0
4.0240002 -0.96118015 0.20788999 0
4.0240002 -0.96771711 0.20788999 0
4.0250001 -0.97451037 0.20783587 0
4.0280004 -0.98182291 0.20767352 0
4.21 -1.1868366 0.19782473 0
4.2030001 -1.1916004 0.19820353 0
4.1990004 -1.1972482 0.19841999 0
4.1960001 -1.2031863 0.19858234 0
4.1940002 -1.2094202 0.19869056 0
4.1940002 -1.2162639 0.19869056 0
3.8010004 -1.1073121 0.21995746 0
3.7920003 -1.110622 0.22044449 0
3.7860003 -1.1148466 0.22076918 0
3.7820003 -1.1196845 0.22098562 0
3.7790003 -1.124827 0.22114798 0
3.7770002 -1.1302799 0.2212562 0
3.7760003 -1.1360486 0.22131032 0
3.7770002 -1.1424628 0.2212562 0
3.7790003 -1.1492074 0.22114798 0
3.7850003 -1.1572722 0.22082329 0
3.6680002 -1.2072846 0.22715466 0
3.6590002 -1.2099649 0.22764169 0
3.6520002 -1.2133309 0.22802049 0
3.6460001 -1.2170323 0.22834517 0
3.6410003 -1.2210747 0.22861575 0
3.6370003 -1.2254633 0.22883219 0
3.6340003 -1.2302036 0.22899453 0
3.6310003 -1.2349333 0.22915688 0
3.6290002 -1.2400218 0.22926511 0
3.6280003 -1.2454747 0.22931923 0
3.6270003 -1.2509241 0.22937334 0
3.6260002 -1.2563697 0.22942746 0
3.6270003 -1.2625659 0.22937334 0
3.6280003 -1.2687654 0.22931923 0
3.6300004 -1.2753494 0.22921099 0
3.6340003 -1.2827053 0.22899453 0
3.8030002 -1.4148542 0.21984923 0
3.7950003 -1.4177601 0.22028214 0
3.7890003 -1.4214488 0.22060683 0
3.7840002 -1.4255236 0.22087741 0
3.7800002 -1.4299898 0.22109386 0
3.7760003 -1.4344417 0.22131032 0
3.7740002 -1.4397051 0.22141854 0
3.7710001 -1.4445466 0.22158089 0
3.7700002 -1.4502106 0.221635 0
3.7680004 -1.4554524 0.22174323 0
3.7680004 -1.4615278 0.22174323 0
3.7680004 -1.467603 0.22174323 0
3.7690003 -1.474102 0.22168911 0
3.7720003 -1.4814562 0.22152677 0
3.7760003 -1.4892486 0.22131032 0
4.0339999 -0.9440403 0.20079382 0
4.0290003 -0.94935077 0.20107339 0
4.026 -0.95514464 0.20124115 0
4.0240002 -0.96118015 0.20135298 0
4.0240002 -0.96771711 0.20135298 0
4.0250001 -0.97451037 0.20129706 0
4.0280004 -0.98182291 0.2011293 0
4.21 -1.1868366 0.19095221 0
4.2030001 -1.1916004 0.19134365 0
4.1990004 -1.1972482 0.19156732 0
4.1960001 -1.2031863 0.19173507 0
4.1940002 -1.2094202 0.19184691 0
4.1940002 -1.2162639 0.19184691 0
3.8010004 -1.1073121 0.21382271 0
3.7920003 -1.110622 0.21432596 0
3.7860003 -1.1148466 0.21466148 0
3.7820003 -1.1196845 0.21488516 0
3.7790003 -1.124827 0.2150529 0
3.7770002 -1.1302799 0.21516474 0
3.7760003 -1.1360486 0.21522066 0
3.7770002 -1.1424628 0.21516474 0
3.7790003 -1.1492074 0.2150529 0
3.7850003 -1.1572722 0.2147174 0
3.6680002 -1.2072846 0.2212598 0
3.6590002 -1.2099649 0.22176309 0
3.6520002 -1.2133309 0.2221545 0
3.6460001 -1.2170323 0.22249001 0
3.6410003 -1.2210747 0.22276959 0
3.6370003 -1.2254633 0.22299327 0
3.6340003 -1.2302036 0.22316103 0
3.6310003 -1.2349333 0.22332878 0
3.6290002 -1.2400218 0.22344062 0
3.6280003 -1.2454747 0.22349653 0
3.6270003 -1.2509241 0.22355244 0
3.6260002 -1.2563697 0.22360837 0
3.6270003 -1.2625659 0.22355244 0
3.6280003 -1.2687654 0.22349653 0
3.6300004 -1.2753494 0.22338469 0
3.6340003 -1.2827053 0.22316103 0
3.8030002 -1.4148542 0.21371087 0
3.7950003 -1.4177601 0.21415821 0
3.7890003 -1.4214488 0.21449372 0
3.7840002 -1.4255236 0.21477333 0
3.7800002 -1.4299898 0.21499698 0
3.7760003 -1.4344417 0.21522066 0
3.7740002 -1.4397051 0.21533251 0
3.7710001 -1.4445466 0.21550027 0
3.7700002 -1.4502106 0.21555617 0
3.7680004 -1.4554524 0.21566801 0
3.7680004 -1.4615278 0.21566801 0
3.7680004 -1.467603 0.21566801 0
3.7690003 -1.474102 0.21561208 0
3.7720003 -1.4814562 0.21544433 0
3.7760003 -1.4892486 0.21522066 0
4.0339999 -0.9440403 0.19423877 0
4.0290003 -0.94935077 0.19452737 0
4.026 -0.95514464 0.19470054 0
4.0240002 -0.96118015 0.19481599 0
4.0240002 -0.96771711 0.19481599 0
4.0250001 -0.97451037 0.19475825 0
4.0280004 -0.98182291 0.19458508 0
4.21 -1.1868366 0.18407972 0
4.2030001 -1.1916004 0.18448377 0
4.1990004 -1.1972482 0.18471465 0
4.1960001 -1.2031863 0.18488781 0
4.1940002 -1.2094202 0.18500327 0
4.1940002 -1.2162639 0.18500327 0
3.8010004 -1.1073121 0.20768794 0
3.7920003 -1.110622 0.20820746 0
3.7860003 -1.1148466 0.20855379 0
3.7820003 -1.1196845 0.20878467 0
3.7790003 -1.124827 0.20895784 0
3.7770002 -1.1302799 0.20907329 0
3.7760003 -1.1360486 0.209131 0
3.7770002 -1.1424628 0.20907329 0
3.7790003 -1.1492074 0.20895784 0
3.7850003 -1.1572722 0.2086115 0
3.6680002 -1.2072846 0.21536496 0
3.6590002 -1.2099649 0.21588446 0
3.6520002 -1.2133309 0.21628852 0
3.6460001 -1.2170323 0.21663485 0
3.6410003 -1.2210747 0.21692346 0
3.6370003 -1.2254633 0.21715434 0
3.6340003 -1.2302036 0.21732751 0
3.6310003 -1.2349333 0.21750067 0
3.6290002 -1.2400218 0.21761613 0
3.6280003 -1.2454747 0.21767384 0
3.6270003 -1.2509241 0.21773155 0
3.6260002 -1.2563697 0.21778929 0
3.6270003 -1.2625659 0.21773155 0
3.6280003 -1.2687654 0.21767384 0
3.6300004 -1.2753494 0.21755838 0
3.6340003 -1.2827053 0.21732751 0
3.8030002 -1.4148542 0.20757252 0
3.7950003 -1.4177601 0.20803428 0
3.7890003 -1.4214488 0.20838062 0
3.7840002 -1.4255236 0.20866923 0
3.7800002 -1.4299898 0.20890012 0
3.7760003 -1.4344417 0.209131 0
3.7740002 -1.4397051 0.20924646 0
3.7710001 -1.4445466 0.20941962 0
3.7700002 -1.4502106 0.20947734 0
3.7680004 -1.4554524 0.20959277 0
3.7680004 -1.4615278 0.20959277 0
3.7680004 -1.467603 0.20959277 0
3.7690003 -1.474102 0.20953505 0
3.7720003 -1.4814562 0.20936188 0
3.7760003 -1.4892486 0.209131 0
4.0339999 -0.9440403 0.18768373 0
4.0290003 -0.94935077 0.18798135 0
4.026 -0.95514464 0.18815993 0
4.0240002 -0.96118015 0.18827899 0
4.0240002 -0.96771711 0.18827899 0
4.0250001 -0.97451037 0.18821946 0
4.0280004 -0.98182291 0.18804088 0
4.21 -1.1868366 0.17720722 0
4.2030001 -1.1916004 0.17762388 0
4.1990004 -1.1972482 0.17786197 0
4.1960001 -1.2031863 0.17804056 0
4.1940002 -1.2094202 0.17815962 0
4.1940002 -1.2162639 0.17815962 0
3.8010004 -1.1073121 0.2015532 0
3.7920003 -1.110622 0.20208894 0
3.7860003 -1.1148466 0.20244609 0
3.7820003 -1.1196845 0.20268418 0
3.7790003 -1.124827 0.20286277 0
3.7770002 -1.1302799 0.20298183 0
3.7760003 -1.1360486 0.20304134 0
3.7770002 -1.1424628 0.20298183 0
3.7790003 -1.1492074 0.20286277 0
3.7850003 -1.1572722 0.2025056 0
3.6680002 -1.2072846 0.20947012 0
3.6590002 -1.2099649 0.21000585 0
3.6520002 -1.2133309 0.21042253 0
3.6460001 -1.2170323 0.21077968 0
3.6410003 -1.2210747 0.21107732 0
3.6370003 -1.2254633 0.21131541 0
3.6340003 -1.2302036 0.21149398 0
3.6310003 -1.2349333 0.21167256 0
3.6290002 -1.2400218 0.21179162 0
3.6280003 -1.2454747 0.21185115 0
3.6270003 -1.2509241 0.21191067 0
3.6260002 -1.2563697 0.21197021 0
3.6270003 -1.2625659 0.21191067 0
3.6280003 -1.2687654 0.21185115 0
3.6300004 -1.2753494 0.21173209 0
3.6340003 -1.2827053 0.21149398 0
3.8030002 -1.4148542 0.20143415 0
3.7950003 -1.4177601 0.20191036 0
3.7890003 -1.4214488 0.20226751 0
3.7840002 -1.4255236 0.20256515 0
3.7800002 -1.4299898 0.20280325 0
3.7760003 -1.4344417 0.20304134 0
3.7740002 -1.4397051 0.20316041 0
3.7710001 -1.4445466 0.20333898 0
3.7700002 -1.4502106 0.2033985 0
3.7680004 -1.4554524 0.20351754 0
3.7680004 -1.4615278 0.20351754 0
3.7680004 -1.467603 0.20351754 0
3.7690003 -1.474102 0.20345801 0
3.7720003 -1.4814562 0.20327945 0
3.7760003 -1.4892486 0.20304134 0
4.0339999 -0.9440403 0.1811287 0
4.0290003 -0.94935077 0.18143533 0
4.026 -0.95514464 0.18161932 0
4.0240002 -0.96118015 0.18174198 0
4.0240002 -0.96771711 0.18174198 0
4.0250001 -0.97451037 0.18168065 0
4.0280004 -0.98182291 0.18149666 0
4.21 -1.1868366 0.1703347 0
4.2030001 -1.1916004 0.17076401 0
4.1990004 -1.1972482 0.1710093 0
4.1960001 -1.2031863 0.1711933 0
4.1940002 -1.2094202 0.17131597 0
4.1940002 -1.2162639 0.17131597 0
3.8010004 -1.1073121 0.19541845 0
3.7920003 -1.110622 0.19597042 0
3.7860003 -1.1148466 0.19633839 0
3.7820003 -1.1196845 0.19658372 0
3.7790003 -1.124827 0.19676769 0
3.7770002 -1.1302799 0.19689037 0
3.7760003 -1.1360486 0.19695169 0
3.7770002 -1.1424628 0.19689037 0
3.7790003 -1.1492074 0.19676769 0
3.7850003 -1.1572722 0.19639972 0
3.6680002 -1.2072846 0.20357527 0
3.6590002 -1.2099649 0.20412725 0
3.6520002 -1.2133309 0.20455655 0
3.6460001 -1.2170323 0.20492454 0
3.6410003 -1.2210747 0.20523116 0
3.6370003 -1.2254633 0.20547649 0
3.6340003 -1.2302036 0.20566046 0
3.6310003 -1.2349333 0.20584446 0
3.6290002 -1.2400218 0.20596713 0
3.6280003 -1.2454747 0.20602845 0
3.6270003 -1.2509241 0.20608978 0
3.6260002 -1.2563697 0.20615111 0
3.6270003 -1.2625659 0.20608978 0
3.6280003 -1.2687654 0.20602845 0
3.6300004 -1.2753494 0.2059058 0
3.6340003 -1.2827053 0.20566046 0
3.8030002 -1.4148542 0.1952958 0
3.7950003 -1.4177601 0.19578643 0
3.7890003 -1.4214488 0.1961544 0
3.7840002 -1.4255236 0.19646107 0
3.7800002 -1.4299898 0.19670637 0
3.7760003 -1.4344417 0.19695169 0
3.7740002 -1.4397051 0.19707435 0
3.7710001 -1.4445466 0.19725835 0
3.7700002 -1.4502106 0.19731967 0
3.7680004 -1.4554524 0.19744232 0
3.7680004 -1.4615278 0.19744232 0
3.7680004 -1.467603 0.19744232 0
3.7690003 -1.474102 0.19738099 0
3.7720003 -1.4814562 0.19719701 0
3.7760003 -1.4892486 0.19695169 0
4.0339999 -0.9440403 0.17457364 0
4.0290003 -0.94935077 0.17488931 0
4.026 -0.95514464 0.17507872 0
4.0240002 -0.96118015 0.17520498 0
4.0240002 -0.96771711 0.17520498 0
4.0250001 -0.97451037 0.17514184 0
4.0280004 -0.98182291 0.17495243 0
4.21 -1.1868366 0.16346219 0
4.2030001 -1.1916004 0.16390412 0
4.1990004 -1.1972482 0.16415665 0
4.1960001 -1.2031863 0.16434604 0
4.1940002 -1.2094202 0.16447231 0
4.1940002 -1.2162639 0.16447231 0
3.8010004 -1.1073121 0.18928368 0
3.7920003 -1.110622 0.18985189 0
3.7860003 -1.1148466 0.19023071 0
3.7820003 -1.1196845 0.19048323 0
3.7790003 -1.124827 0.19067264 0
3.7770002 -1.1302799 0.19079891 0
3.7760003 -1.1360486 0.19086203 0
3.7770002 -1.1424628 0.19079891 0
3.7790003 -1.1492074 0.19067264 0
3.7850003 -1.1572722 0.19029383 0
3.6680002 -1.2072846 0.19768043 0
3.6590002 -1.2099649 0.19824864 0
3.6520002 -1.2133309 0.19869058 0
3.6460001 -1.2170323 0.19906937 0
3.6410003 -1.2210747 0.19938503 0
3.6370003 -1.2254633 0.19963756 0
3.6340003 -1.2302036 0.19982696 0
3.6310003 -1.2349333 0.20001636 0
3.6290002 -1.2400218 0.20014264 0
3.6280003 -1.2454747 0.20020576 0
3.6270003 -1.2509241 0.20026889 0
3.6260002 -1.2563697 0.20033203 0
3.6270003 -1.2625659 0.20026889 0
3.6280003 -1.2687654 0.20020576 0
3.6300004 -1.2753494 0.20007949 0
3.6340003 -1.2827053 0.19982696 0
3.8030002 -1.4148542 0.18915744 0
3.7950003 -1.4177601 0.1896625 0
3.7890003 -1.4214488 0.1900413 0
3.7840002 -1.4255236 0.19035697 0
3.7800002 -1.4299898 0.1906095 0
3.7760003 -1.4344417 0.19086203 0
3.7740002 -1.4397051 0.1909883 0
3.7710001 -1.4445466 0.19117771 0
3.7700002 -1.4502106 0.19124083 0
3.7680004 -1.4554524 0.19136709 0
3.7680004 -1.4615278 0.19136709 0
3.7680004 -1.467603 0.19136709 0
3.7690003 -1.474102 0.19130397 0
3.7720003 -1.4814562 0.19111457 0
3.7760003 -1.4892486 0.19086203 0
4.0339999 -0.9440403 0.16801861 0
4.0290003 -0.94935077 0.16834328 0
4.026 -0.95514464 0.16853809 0
4.0240002 -0.96118015 0.16866799 0
4.0240002 -0.96771711 0.16866799 0
4.0250001 -0.97451037 0.16860302 0
4.0280004 -0.98182291 0.16840823 0
4.21 -1.1868366 0.15658969 0
4.2030001 -1.1916004 0.15704425 0
4.1990004 -1.1972482 0.15730399 0
4.1960001 -1.2031863 0.15749879 0
4.1940002 -1.2094202 0.15762869 0
4.1940002 -1.2162639 0.15762869 0
3.8010004 -1.1073121 0.18314894 0
3.7920003 -1.110622 0.18373337 0
3.7860003 -1.1148466 0.18412301 0
3.7820003 -1.1196845 0.18438275 0
3.7790003 -1.124827 0.18457757 0
3.7770002 -1.1302799 0.18470743 0
3.7760003 -1.1360486 0.18477239 0
3.7770002 -1.1424628 0.18470743 0
3.7790003 -1.1492074 0.18457757 0
3.7850003 -1.1572722 0.18418793 0
3.6680002 -1.2072846 0.19178559 0
3.6590002 -1.2099649 0.19237001 0
3.6520002 -1.2133309 0.19282457 0
3.6460001 -1.2170323 0.19321421 0
3.6410003 -1.2210747 0.19353887 0
3.6370003 -1.2254633 0.19379863 0
3.6340003 -1.2302036 0.19399343 0
3.6310003 -1.2349333 0.19418825 0
3.6290002 -1.2400218 0.19431813 0
3.6280003 -1.2454747 0.19438307 0
3.6270003 -1.2509241 0.19444799 0
3.6260002 -1.2563697 0.19451295 0
3.6270003 -1.2625659 0.19444799 0
3.6280003 -1.2687654 0.19438307 0
3.6300004 -1.2753494 0.19425319 0
3.6340003 -1.2827053 0.19399343 0
3.8030002 -1.4148542 0.18301909 0
3.7950003 -1.4177601 0.18353857 0
3.7890003 -1.4214488 0.18392819 0
3.7840002 -1.4255236 0.18425289 0
3.7800002 -1.4299898 0.18451263 0
3.7760003 -1.4344417 0.18477239 0
3.7740002 -1.4397051 0.18490225 0
3.7710001 -1.4445466 0.18509707 0
3.7700002 -1.4502106 0.18516199 0
3.7680004 -1.4554524 0.18529187 0
3.7680004 -1.4615278 0.18529187 0
3.7680004 -1.467603 0.18529187 0
3.7690003 -1.474102 0.18522693 0
3.7720003 -1.4814562 0.18503213 0
3.7760003 -1.4892486 0.18477239 0
4.0339999 -0.9440403 0.16146356 0
4.0290003 -0.94935077 0.16179727 0
4.026 -0.95514464 0.1619975 0
4.0240002 -0.96118015 0.162131 0
4.0240002 -0.96771711 0.162131 0
4.0250001 -0.97451037 0.16206422 0
4.0280004 -0.98182291 0.16186401 0
4.21 -1.1868366 0.14971718 0
4.2030001 -1.1916004 0.15018433 0
4.1990004 -1.1972482 0.15045133 0
4.1960001 -1.2031863 0.15065154 0
4.1940002 -1.2094202 0.15078503 0
4.1940002 -1.2162639 0.15078503 0
3.8010004 -1.1073121 0.17701419 0
3.7920003 -1.110622 0.17761487 0
3.7860003 -1.1148466 0.17801531 0
3.7820003 -1.1196845 0.17828226 0
3.7790003 -1.124827 0.17848249 0
3.7770002 -1.1302799 0.17861599 0
3.7760003 -1.1360486 0.17868273 0
3.7770002 -1.1424628 0.17861599 0
3.7790003 -1.1492074 0.17848249 0
3.7850003 -1.1572722 0.17808205 0
3.6680002 -1.2072846 0.18589073 0
3.6590002 -1.2099649 0.18649141 0
3.6520002 -1.2133309 0.1869586 0
3.6460001 -1.2170323 0.18735904 0
3.6410003 -1.2210747 0.18769273 0
3.6370003 -1.2254633 0.1879597 0
3.6340003 -1.2302036 0.18815993 0
3.6310003 -1.2349333 0.18836015 0
3.6290002 -1.2400218 0.18849362 0
3.6280003 -1.2454747 0.18856038 0
3.6270003 -1.2509241 0.18862711 0
3.6260002 -1.2563697 0.18869387 0
3.6270003 -1.2625659 0.18862711 0
3.6280003 -1.2687654 0.18856038 0
3.6300004 -1.2753494 0.18842688 0
3.6340003 -1.2827053 0.18815993 0
3.8030002 -1.4148542 0.17688072 0
3.7950003 -1.4177601 0.17741464 0
3.7890003 -1.4214488 0.17781509 0
3.7840002 -1.4255236 0.17814881 0
3.7800002 -1.4299898 0.17841576 0
3.7760003 -1.4344417 0.17868273 0
3.7740002 -1.4397051 0.1788162 0
3.7710001 -1.4445466 0.17901643 0
3.7700002 -1.4502106 0.17908317 0
3.7680004 -1.4554524 0.17921664 0
3.7680004 -1.4615278 0.17921664 0
3.7680004 -1.467603 0.17921664 0
3.7690003 -1.474102 0.17914991 0
3.7720003 -1.4814562 0.17894968 0
3.7760003 -1.4892486 0.17868273 0
4.0339999 -0.9440403 0.15490855 0
4.0290003 -0.94935077 0.15525125 0
4.026 -0.95514464 0.15545689 0
4.0240002 -0.96118015 0.15559398 0
4.0240002 -0.96771711 0.15559398 0
4.0250001 -0.97451037 0.15552542 0
4.0280004 -0.98182291 0.15531978 0
4.21 -1.1868366 0.14284465 0
4.2030001 -1.1916004 0.14332446 0
4.1990004 -1.1972482 0.14359865 0
4.1960001 -1.2031863 0.14380425 0
4.1940002 -1.2094202 0.14394137 0
4.1940002 -1.2162639 0.14394137 0
3.8010004 -1.1073121 0.17087944 0
3.7920003 -1.110622 0.17149633 0
3.7860003 -1.1148466 0.17190763 0
3.7820003 -1.1196845 0.1721818 0
3.7790003 -1.124827 0.17238742 0
3.7770002 -1.1302799 0.17252453 0
3.7760003 -1.1360486 0.17259306 0
3.7770002 -1.1424628 0.17252453 0
3.7790003 -1.1492074 0.17238742 0
3.7850003 -1.1572722 0.17197616 0
3.6680002 -1.2072846 0.17999589 0
3.6590002 -1.2099649 0.1806128 0
3.6520002 -1.2133309 0.1810926 0
3.6460001 -1.2170323 0.18150389 0
3.6410003 -1.2210747 0.1818466 0
3.6370003 -1.2254633 0.18212077 0
3.6340003 -1.2302036 0.18232641 0
3.6310003 -1.2349333 0.18253204 0
3.6290002 -1.2400218 0.18266915 0
3.6280003 -1.2454747 0.18273768 0
3.6270003 -1.2509241 0.18280622 0
3.6260002 -1.2563697 0.18287477 0
3.6270003 -1.2625659 0.18280622 0
3.6280003 -1.2687654 0.18273768 0
3.6300004 -1.2753494 0.18260057 0
3.6340003 -1.2827053 0.18232641 0
3.8030002 -1.4148542 0.17074235 0
3.7950003 -1.4177601 0.17129071 0
3.7890003 -1.4214488 0.17170197 0
3.7840002 -1.4255236 0.17204472 0
3.7800002 -1.4299898 0.17231889 0
3.7760003 -1.4344417 0.17259306 0
3.7740002 -1.4397051 0.17273015 0
3.7710001 -1.4445466 0.17293578 0
3.7700002 -1.4502106 0.17300434 0
3.7680004 -1.4554524 0.17314142 0
3.7680004 -1.4615278 0.17314142 0
3.7680004 -1.467603 0.17314142 0
3.7690003 -1.474102 0.17307287 0
3.7720003 -1.4814562 0.17286725 0
3.7760003 -1.4892486 0.17259306 0
4.0339999 -0.9440403 0.14835352 0
4.0290003 -0.94935077 0.14870524 0
4.026 -0.95514464 0.14891627 0
4.0240002 -0.96118015 0.149057 0
4.0240002 -0.96771711 0.149057 0
4.0250001 -0.97451037 0.14898661 0
4.0280004 -0.98182291 0.14877558 0
4.21 -1.1868366 0.13597214 0
4.2030001 -1.1916004 0.1364646 0
4.1990004 -1.1972482 0.13674599 0
4.1960001 -1.2031863 0.13695702 0
4.1940002 -1.2094202 0.13709775 0
4.1940002 -1.2162639 0.13709775 0
3.8010004 -1.1073121 0.16474469 0
3.7920003 -1.110622 0.16537783 0
3.7860003 -1.1148466 0.16579993 0
3.7820003 -1.1196845 0.16608131 0
3.7790003 -1.124827 0.16629237 0
3.7770002 -1.1302799 0.16643307 0
3.7760003 -1.1360486 0.16650341 0
3.7770002 -1.1424628 0.16643307 0
3.7790003 -1.1492074 0.16629237 0
3.7850003 -1.1572722 0.16587025 0
3.6680002 -1.2072846 0.17410105 0
3.6590002 -1.2099649 0.17473419 0
3.6520002 -1.2133309 0.17522663 0
3.6460001 -1.2170323 0.17564872 0
3.6410003 -1.2210747 0.17600045 0
3.6370003 -1.2254633 0.17628184 0
3.6340003 -1.2302036 0.1764929 0
3.6310003 -1.2349333 0.17670393 0
3.6290002 -1.2400218 0.17684466 0
3.6280003 -1.2454747 0.17691499 0
3.6270003 -1.2509241 0.17698532 0
3.6260002 -1.2563697 0.17705569 0
3.6270003 -1.2625659 0.17698532 0
3.6280003 -1.2687654 0.17691499 0
3.6300004 -1.2753494 0.17677429 0
3.6340003 -1.2827053 0.1764929 0
3.8030002 -1.4148542 0.16460399 0
3.7950003 -1.4177601 0.16516677 0
3.7890003 -1.4214488 0.16558887 0
3.7840002 -1.4255236 0.16594063 0
3.7800002 -1.4299898 0.16622201 0
3.7760003 -1.4344417 0.16650341 0
3.7740002 -1.4397051 0.16664411 0
3.7710001 -1.4445466 0.16685514 0
3.7700002 -1.4502106 0.16692549 0
3.7680004 -1.4554524 0.1670662 0
3.7680004 -1.4615278 0.1670662 0
3.7680004 -1.467603 0.1670662 0
3.7690003 -1.474102 0.16699585 0
3.7720003 -1.4814562 0.16678479 0
3.7760003 -1.4892486 0.16650341 0
4.0339999 -0.9440403 0.14179847 0
4.0290003 -0.94935077 0.14215922 0
4.026 -0.95514464 0.14237568 0
4.0240002 -0.96118015 0.14251998 0
4.0240002 -0.96771711 0.14251998 0
4.0250001 -0.97451037 0.1424478 0
4.0280004 -0.98182291 0.14223135 0
4.21 -1.1868366 0.12909964 0
4.2030001 -1.1916004 0.1296047 0
4.1990004 -1.1972482 0.1298933 0
4.1960001 -1.2031863 0.13010976 0
4.1940002 -1.2094202 0.13025406 0
4.1940002 -1.2162639 0.13025406 0
3.8010004 -1.1073121 0.15860994 0
3.7920003 -1.110622 0.1592593 0
3.7860003 -1.1148466 0.15969223 0
3.7820003 -1.1196845 0.15998082 0
3.7790003 -1.124827 0.1601973 0
3.7770002 -1.1302799 0.16034161 0
3.7760003 -1.1360486 0.16041374 0
3.7770002 -1.1424628 0.16034161 0
3.7790003 -1.1492074 0.1601973 0
3.7850003 -1.1572722 0.15976438 0
3.6680002 -1.2072846 0.16820621 0
3.6590002 -1.2099649 0.16885558 0
3.6520002 -1.2133309 0.16936065 0
3.6460001 -1.2170323 0.16979358 0
3.6410003 -1.2210747 0.1701543 0
3.6370003 -1.2254633 0.17044291 0
3.6340003 -1.2302036 0.17065936 0
3.6310003 -1.2349333 0.17087583 0
3.6290002 -1.2400218 0.17102015 0
3.6280003 -1.2454747 0.17109229 0
3.6270003 -1.2509241 0.17116442 0
3.6260002 -1.2563697 0.17123659 0
3.6270003 -1.2625659 0.17116442 0
3.6280003 -1.2687654 0.17109229 0
3.6300004 -1.2753494 0.17094798 0
3.6340003 -1.2827053 0.17065936 0
3.8030002 -1.4148542 0.15846562 0
3.7950003 -1.4177601 0.15904287 0
3.7890003 -1.4214488 0.15947576 0
3.7840002 -1.4255236 0.15983655 0
3.7800002 -1.4299898 0.16012514 0
3.7760003 -1.4344417 0.16041374 0
3.7740002 -1.4397051 0.16055806 0
3.7710001 -1.4445466 0.16077453 0
3.7700002 -1.4502106 0.16084667 0
3.7680004 -1.4554524 0.16099095 0
3.7680004 -1.4615278 0.16099095 0
3.7680004 -1.467603 0.16099095 0
3.7690003 -1.474102 0.16091882 0
3.7720003 -1.4814562 0.16070236 0
3.7760003 -1.4892486 0.16041374 0
4.0339999 -0.9440403 0.13524342 0
4.0290003 -0.94935077 0.1356132 0
4.026 -0.95514464 0.13583508 0
4.0240002 -0.96118015 0.13598299 0
4.0240002 -0.96771711 0.13598299 0
4.0250001 -0.97451037 0.13590899 0
4.0280004 -0.98182291 0.13568714 0
4.21 -1.1868366 0.12222713 0
4.2030001 -1.1916004 0.12274483 0
4.1990004 -1.1972482 0.12304062 0
4.1960001 -1.2031863 0.12326249 0
4.1940002 -1.2094202 0.12341043 0
4.1940002 -1.2162639 0.12341043 0
3.8010004 -1.1073121 0.15247518 0
3.7920003 -1.110622 0.15314078 0
3.7860003 -1.1148466 0.15358454 0
3.7820003 -1.1196845 0.15388036 0
3.7790003 -1.124827 0.15410224 0
3.7770002 -1.1302799 0.15425014 0
3.7760003 -1.1360486 0.1543241 0
3.7770002 -1.1424628 0.15425014 0
3.7790003 -1.1492074 0.15410224 0
3.7850003 -1.1572722 0.15365848 0
3.6680002 -1.2072846 0.16231136 0
3.6590002 -1.2099649 0.16297697 0
3.6520002 -1.2133309 0.16349466 0
3.6460001 -1.2170323 0.1639384 0
3.6410003 -1.2210747 0.16430816 0
3.6370003 -1.2254633 0.16460399 0
3.6340003 -1.2302036 0.16482586 0
3.6310003 -1.2349333 0.16504773 0
3.6290002 -1.2400218 0.16519564 0
3.6280003 -1.2454747 0.1652696 0
3.6270003 -1.2509241 0.16534355 0
3.6260002 -1.2563697 0.16541751 0
3.6270003 -1.2625659 0.16534355 0
3.6280003 -1.2687654 0.1652696 0
3.6300004 -1.2753494 0.16512169 0
3.6340003 -1.2827053 0.16482586 0
3.8030002 -1.4148542 0.15232727 0
3.7950003 -1.4177601 0.15291893 0
3.7890003 -1.4214488 0.15336266 0
3.7840002 -1.4255236 0.15373245 0
3.7800002 -1.4299898 0.15402828 0
3.7760003 -1.4344417 0.1543241 0
3.7740002 -1.4397051 0.15447202 0
3.7710001 -1.4445466 0.15469389 0
3.7700002 -1.4502106 0.15476784 0
3.7680004 -1.4554524 0.15491574 0
3.7680004 -1.4615278 0.15491574 0
3.7680004 -1.467603 0.15491574 0
3.7690003 -1.474102 0.15484178 0
3.7720003 -1.4814562 0.1546199 0
3.7760003 -1.4892486 0.1543241 0
4.0339999 -0.9440403 0.12868837 0
4.0290003 -0.94935077 0.12906715 0
4.026 -0.95514464 0.12929446 0
4.0240002 -0.96118015 0.12944597 0
4.0240002 -0.96771711 0.12944597 0
4.0250001 -0.97451037 0.12937018 0
4.0280004 -0.98182291 0.12914294 0
4.21 -1.1868366 0.11535463 0
4.2030001 -1.1916004 0.11588493 0
4.1990004 -1.1972482 0.11618796 0
4.1960001 -1.2031863 0.11641526 0
4.1940002 -1.2094202 0.11656678 0
4.1940002 -1.2162639 0.11656678 0
3.8010004 -1.1073121 0.14634043 0
3.7920003 -1.110622 0.14702228 0
3.7860003 -1.1148466 0.14747685 0
3.7820003 -1.1196845 0.14777988 0
3.7790003 -1.124827 0.14800715 0
3.7770002 -1.1302799 0.1481587 0
3.7760003 -1.1360486 0.14823443 0
3.7770002 -1.1424628 0.1481587 0
3.7790003 -1.1492074 0.14800715 0
3.7850003 -1.1572722 0.14755258 0
3.6680002 -1.2072846 0.15641651 0
3.6590002 -1.2099649 0.15709835 0
3.6520002 -1.2133309 0.15762869 0
3.6460001 -1.2170323 0.15808325 0
3.6410003 -1.2210747 0.15846202 0
3.6370003 -1.2254633 0.15876506 0
3.6340003 -1.2302036 0.15899235 0
3.6310003 -1.2349333 0.15921962 0
3.6290002 -1.2400218 0.15937114 0
3.6280003 -1.2454747 0.15944691 0
3.6270003 -1.2509241 0.15952265 0
3.6260002 -1.2563697 0.15959844 0
3.6270003 -1.2625659 0.15952265 0
3.6280003 -1.2687654 0.15944691 0
3.6300004 -1.2753494 0.1592954 0
3.6340003 -1.2827053 0.15899235 0
3.8030002 -1.4148542 0.14618891 0
3.7950003 -1.4177601 0.14679497 0
3.7890003 -1.4214488 0.14724955 0
3.7840002 -1.4255236 0.14762837 0
3.7800002 -1.4299898 0.1479314 0
3.7760003 -1.4344417 0.14823443 0
3.7740002 -1.4397051 0.14838594 0
3.7710001 -1.4445466 0.14861324 0
3.7700002 -1.4502106 0.148689 0
3.7680004 -1.4554524 0.14884052 0
3.7680004 -1.4615278 0.14884052 0
3.7680004 -1.467603 0.14884052 0
3.7690003 -1.474102 0.14876476 0
3.7720003 -1.4814562 0.14853749 0
3.7760003 -1.4892486 0.14823443 0
4.0339999 -0.9440403 0.12213334 0
4.0290003 -0.94935077 0.12252113 0
4.026 -0.95514464 0.12275383 0
4.0240002 -0.96118015 0.12290898 0
4.0240002 -0.96771711 0.12290898 0
4.0250001 -0.97451037 0.1228314 0
4.0280004 -0.98182291 0.12259871 0
4.21 -1.1868366 0.10848212 0
4.2030001 -1.1916004 0.10902506 0
4.1990004 -1.1972482 0.1093353 0
4.1960001 -1.2031863 0.109568 0
4.1940002 -1.2094202 0.10972312 0
4.1940002 -1.2162639 0.10972312 0
3.8010004 -1.1073121 0.14020568 0
3.7920003 -1.110622 0.14090377 0
3.7860003 -1.1148466 0.14136913 0
3.7820003 -1.1196845 0.14167941 0
3.7790003 -1.124827 0.14191207 0
3.7770002 -1.1302799 0.14206722 0
3.7760003 -1.1360486 0.14214477 0
3.7770002 -1.1424628 0.14206722 0
3.7790003 -1.1492074 0.14191207 0
3.7850003 -1.1572722 0.14144671 0
3.6680002 -1.2072846 0.15052167 0
3.6590002 -1.2099649 0.15121973 0
3.6520002 -1.2133309 0.15176269 0
3.6460001 -1.2170323 0.15222809 0
3.6410003 -1.2210747 0.15261588 0
3.6370003 -1.2254633 0.15292615 0
3.6340003 -1.2302036 0.15315881 0
3.6310003 -1.2349333 0.15339151 0
3.6290002 -1.2400218 0.15354666 0
3.6280003 -1.2454747 0.15362424 0
3.6270003 -1.2509241 0.15370175 0
3.6260002 -1.2563697 0.15377936 0
3.6270003 -1.2625659 0.15370175 0
3.6280003 -1.2687654 0.15362424 0
3.6300004 -1.2753494 0.15346909 0
3.6340003 -1.2827053 0.15315881 0
3.8030002 -1.4148542 0.14005056 0
3.7950003 -1.4177601 0.14067104 0
3.7890003 -1.4214488 0.14113647 0
3.7840002 -1.4255236 0.14152426 0
3.7800002 -1.4299898 0.14183453 0
3.7760003 -1.4344417 0.14214477 0
3.7740002 -1.4397051 0.14229992 0
3.7710001 -1.4445466 0.14253262 0
3.7700002 -1.4502106 0.14261016 0
3.7680004 -1.4554524 0.14276528 0
3.7680004 -1.4615278 0.14276528 0
3.7680004 -1.467603 0.14276528 0
3.7690003 -1.474102 0.14268774 0
3.7720003 -1.4814562 0.14245504 0
3.7760003 -1.4892486 0.14214477 0
4.0339999 -0.9440403 0.11557832 0
4.0290003 -0.94935077 0.11597511 0
4.026 -0.95514464 0.11621323 0
4.0240002 -0.96118015 0.11637196 0
4.0240002 -0.96771711 0.11637196 0
4.0250001 -0.97451037 0.1162926 0
4.0280004 -0.98182291 0.11605448 0
4.21 -1.1868366 0.10160959 0
4.2030001 -1.1916004 0.10216516 0
4.1990004 -1.1972482 0.10248265 0
4.1960001 -1.2031863 0.10272074 0
4.1940002 -1.2094202 0.10287949 0
4.1940002 -1.2162639 0.10287949 0
3.8010004 -1.1073121 0.13407093 0
3.7920003 -1.110622 0.13478523 0
3.7860003 -1.1148466 0.13526145 0
3.7820003 -1.1196845 0.1355789 0
3.7790003 -1.124827 0.13581702 0
3.7770002 -1.1302799 0.13597578 0
3.7760003 -1.1360486 0.13605511 0
3.7770002 -1.1424628 0.13597578 0
3.7790003 -1.1492074 0.13581702 0
3.7850003 -1.1572722 0.13534081 0
3.6680002 -1.2072846 0.14462683 0
3.6590002 -1.2099649 0.14534116 0
3.6520002 -1.2133309 0.14589673 0
3.6460001 -1.2170323 0.14637291 0
3.6410003 -1.2210747 0.14676976 0
3.6370003 -1.2254633 0.14708722 0
3.6340003 -1.2302036 0.14732531 0
3.6310003 -1.2349333 0.14756343 0
3.6290002 -1.2400218 0.14772215 0
3.6280003 -1.2454747 0.14780152 0
3.6270003 -1.2509241 0.14788088 0
3.6260002 -1.2563697 0.14796028 0
3.6270003 -1.2625659 0.14788088 0
3.6280003 -1.2687654 0.14780152 0
3.6300004 -1.2753494 0.14764279 0
3.6340003 -1.2827053 0.14732531 0
3.8030002 -1.4148542 0.13391221 0
3.7950003 -1.4177601 0.13454714 0
3.7890003 -1.4214488 0.13502333 0
3.7840002 -1.4255236 0.1354202 0
3.7800002 -1.4299898 0.13573766 0
3.7760003 -1.4344417 0.13605511 0
3.7740002 -1.4397051 0.13621387 0
3.7710001 -1.4445466 0.13645196 0
3.7700002 -1.4502106 0.13653135 0
3.7680004 -1.4554524 0.13669005 0
3.7680004 -1.4615278 0.13669005 0
3.7680004 -1.467603 0.13669005 0
3.7690003 -1.474102 0.13661069 0
3.7720003 -1.4814562 0.1363726 0
3.7760003 -1.4892486 0.13605511 0
4.0339999 -0.9440403 0.10902327 0
4.0290003 -0.94935077 0.10942912 0
4.026 -0.95514464 0.10967261 0
4.0240002 -0.96118015 0.10983497 0
4.0240002 -0.96771711 0.10983497 0
4.0250001 -0.97451037 0.10975379 0
4.0280004 -0.98182291 0.10951027 0
4.21 -1.1868366 0.094737083 0
4.2030001 -1.1916004 0.095305294 0
4.1990004 -1.1972482 0.09562996 0
4.1960001 -1.2031863 0.095873505 0
4.1940002 -1.2094202 0.096035838 0
4.1940002 -1.2162639 0.096035838 0
3.8010004 -1.1073121 0.12793618 0
3.7920003 -1.110622 0.1286667 0
3.7860003 -1.1148466 0.12915376 0
3.7820003 -1.1196845 0.12947845 0
3.7790003 -1.124827 0.12972194 0
3.7770002 -1.1302799 0.1298843 0
3.7760003 -1.1360486 0.12996545 0
3.7770002 -1.1424628 0.1298843 0
3.7790003 -1.1492074 0.12972194 0
3.7850003 -1.1572722 0.12923491 0
3.6680002 -1.2072846 0.13873196 0
3.6590002 -1.2099649 0.13946253 0
3.6520002 -1.2133309 0.14003071 0
3.6460001 -1.2170323 0.14051774 0
3.6410003 -1.2210747 0.14092362 0
3.6370003 -1.2254633 0.14124829 0
3.6340003 -1.2302036 0.1414918 0
3.6310003 -1.2349333 0.14173532 0
3.6290002 -1.2400218 0.14189765 0
3.6280003 -1.2454747 0.14197883 0
3.6270003 -1.2509241 0.14205998 0
3.6260002 -1.2563697 0.14214119 0
3.6270003 -1.2625659 0.14205998 0
3.6280003 -1.2687654 0.14197883 0
3.6300004 -1.2753494 0.1418165 0
3.6340003 -1.2827053 0.1414918 0
3.8030002 -1.4148542 0.12777382 0
3.7950003 -1.4177601 0.12842321 0
3.7890003 -1.4214488 0.12891024 0
3.7840002 -1.4255236 0.12931612 0
3.7800002 -1.4299898 0.12964079 0
3.7760003 -1.4344417 0.12996545 0
3.7740002 -1.4397051 0.13012782 0
3.7710001 -1.4445466 0.13037133 0
3.7700002 -1.4502106 0.13045248 0
3.7680004 -1.4554524 0.13061482 0
3.7680004 -1.4615278 0.13061482 0
3.7680004 -1.467603 0.13061482 0
3.7690003 -1.474102 0.13053367 0
3.7720003 -1.4814562 0.13029015 0
3.7760003 -1.4892486 0.12996545 0
4.0339999 -0.9440403 0.10246822 0
4.0290003 -0.94935077 0.1028831 0
4.026 -0.95514464 0.10313201 0
4.0240002 -0.96118015 0.10329795 0
4.0240002 -0.96771711 0.10329795 0
4.0250001 -0.97451037 0.10321498 0
4.0280004 -0.98182291 0.10296604 0
4.21 -1.1868366 0.087864578 0
4.2030001 -1.1916004 0.088445425 0
4.1990004 -1.1972482 0.088777304 0
4.1960001 -1.2031863 0.089026242 0
4.1940002 -1.2094202 0.089192212 0
4.1940002 -1.2162639 0.089192212 0
3.8010004 -1.1073121 0.12180141 0
3.7920003 -1.110622 0.12254819 0
3.7860003 -1.1148466 0.12304604 0
3.7820003 -1.1196845 0.12337795 0
3.7790003 -1.124827 0.12362689 0
3.7770002 -1.1302799 0.12379283 0
3.7760003 -1.1360486 0.12387583 0
3.7770002 -1.1424628 0.12379283 0
3.7790003 -1.1492074 0.12362689 0
3.7850003 -1.1572722 0.12312904 0
3.6680002 -1.2072846 0.13283715 0
3.6590002 -1.2099649 0.1335839 0
3.6520002 -1.2133309 0.13416472 0
3.6460001 -1.2170323 0.13466257 0
3.6410003 -1.2210747 0.13507745 0
3.6370003 -1.2254633 0.13540936 0
3.6340003 -1.2302036 0.13565829 0
3.6310003 -1.2349333 0.1359072 0
3.6290002 -1.2400218 0.13607317 0
3.6280003 -1.2454747 0.13615614 0
3.6270003 -1.2509241 0.13623908 0
3.6260002 -1.2563697 0.13632211 0
3.6270003 -1.2625659 0.13623908 0
3.6280003 -1.2687654 0.13615614 0
3.6300004 -1.2753494 0.13599017 0
3.6340003 -1.2827053 0.13565829 0
3.8030002 -1.4148542 0.12163547 0
3.7950003 -1.4177601 0.12229928 0
3.7890003 -1.4214488 0.12279713 0
3.7840002 -1.4255236 0.12321201 0
3.7800002 -1.4299898 0.12354392 0
3.7760003 -1.4344417 0.12387583 0
3.7740002 -1.4397051 0.12404177 0
3.7710001 -1.4445466 0.12429067 0
3.7700002 -1.4502106 0.12437367 0
3.7680004 -1.4554524 0.12453961 0
3.7680004 -1.4615278 0.12453961 0
3.7680004 -1.467603 0.12453961 0
3.7690003 -1.474102 0.12445661 0
3.7720003 -1.4814562 0.12420771 0
3.7760003 -1.4892486 0.12387583 0
4.0339999 -0.9440403 0.095913172 0
4.0290003 -0.94935077 0.09633708 0
4.026 -0.95514464 0.096591413 0
4.0240002 -0.96118015 0.096760988 0
4.0240002 -0.96771711 0.096760988 0
4.0250001 -0.97451037 0.096676171 0
4.0280004 -0.98182291 0.096421838 0
4.21 -1.1868366 0.080992073 0
4.2030001 -1.1916004 0.081585526 0
4.1990004 -1.1972482 0.081924647 0
4.1960001 -1.2031863 0.08217895 0
4.1940002 -1.2094202 0.082348526 0
4.1940002 -1.2162639 0.082348526 0
3.8010004 -1.1073121 0.11566666 0
3.7920003 -1.110622 0.11642969 0
3.7860003 -1.1148466 0.11693835 0
3.7820003 -1.1196845 0.11727747 0
3.7790003 -1.124827 0.11753184 0
3.7770002 -1.1302799 0.11770138 0
3.7760003 -1.1360486 0.11778614 0
3.7770002 -1.1424628 0.11770138 0
3.7790003 -1.1492074 0.11753184 0
3.7850003 -1.1572722 0.11702314 0
3.6680002 -1.2072846 0.12694228 0
3.6590002 -1.2099649 0.12770531 0
3.6520002 -1.2133309 0.12829876 0
3.6460001 -1.2170323 0.12880746 0
3.6410003 -1.2210747 0.1292313 0
3.6370003 -1.2254633 0.12957042 0
3.6340003 -1.2302036 0.12982476 0
3.6310003 -1.2349333 0.13007909 0
3.6290002 -1.2400218 0.13024867 0
3.6280003 -1.2454747 0.13033345 0
3.6270003 -1.2509241 0.13041821 0
3.6260002 -1.2563697 0.130503 0
3.6270003 -1.2625659 0.13041821 0
3.6280003 -1.2687654 0.13033345 0
3.6300004 -1.2753494 0.13016388 0
3.6340003 -1.2827053 0.12982476 0
3.8030002 -1.4148542 0.11549711 0
3.7950003 -1.4177601 0.11617532 0
3.7890003 -1.4214488 0.11668402 0
3.7840002 -1.4255236 0.11710793 0
3.7800002 -1.4299898 0.11744705 0
3.7760003 -1.4344417 0.11778614 0
3.7740002 -1.4397051 0.11795571 0
3.7710001 -1.4445466 0.11821008 0
3.7700002 -1.4502106 0.11829484 0
3.7680004 -1.4554524 0.11846438 0
3.7680004 -1.4615278 0.11846438 0
3.7680004 -1.467603 0.11846438 0
3.7690003 -1.474102 0.11837962 0
3.7720003 -1.4814562 0.11812526 0
3.7760003 -1.4892486 0.11778614 0
4.0339999 -0.9440403 0.089358151 0
4.0290003 -0.94935077 0.08979103 0
4.026 -0.95514464 0.090050817 0
4.0240002 -0.96118015 0.090223998 0
4.0240002 -0.96771711 0.090223998 0
4.0250001 -0.97451037 0.090137362 0
4.0280004 -0.98182291 0.089877635 0
4.21 -1.1868366 0.074119568 0
4.2030001 -1.1916004 0.074725658 0
4.1990004 -1.1972482 0.075071961 0
4.1960001 -1.2031863 0.075331718 0
4.1940002 -1.2094202 0.075504899 0
4.1940002 -1.2162639 0.075504899 0
3.8010004 -1.1073121 0.10953191 0
3.7920003 -1.110622 0.11031118 0
3.7860003 -1.1148466 0.11083066 0
3.7820003 -1.1196845 0.111177 0
3.7790003 -1.124827 0.11143672 0
3.7770002 -1.1302799 0.11160991 0
3.7760003 -1.1360486 0.11169651 0
3.7770002 -1.1424628 0.11160991 0
3.7790003 -1.1492074 0.11143672 0
3.7850003 -1.1572722 0.11091724 0
3.6680002 -1.2072846 0.12104744 0
3.6590002 -1.2099649 0.12182668 0
3.6520002 -1.2133309 0.12243277 0
3.6460001 -1.2170323 0.12295228 0
3.6410003 -1.2210747 0.12338516 0
3.6370003 -1.2254633 0.12373149 0
3.6340003 -1.2302036 0.12399125 0
3.6310003 -1.2349333 0.12425101 0
3.6290002 -1.2400218 0.12442416 0
3.6280003 -1.2454747 0.12451077 0
3.6270003 -1.2509241 0.12459734 0
3.6260002 -1.2563697 0.12468392 0
3.6270003 -1.2625659 0.12459734 0
3.6280003 -1.2687654 0.12451077 0
3.6300004 -1.2753494 0.12433758 0
3.6340003 -1.2827053 0.12399125 0
3.8030002 -1.4148542 0.10935876 0
3.7950003 -1.4177601 0.11005142 0
3.7890003 -1.4214488 0.11057091 0
3.7840002 -1.4255236 0.11100385 0
3.7800002 -1.4299898 0.11135018 0
3.7760003 -1.4344417 0.11169651 0
3.7740002 -1.4397051 0.11186969 0
3.7710001 -1.4445466 0.11212942 0
3.7700002 -1.4502106 0.112216 0
3.7680004 -1.4554524 0.11238915 0
3.7680004 -1.4615278 0.11238915 0
3.7680004 -1.467603 0.11238915 0
3.7690003 -1.474102 0.11230257 0
3.7720003 -1.4814562 0.11204281 0
3.7760003 -1.4892486 0.11169651 0
4.0339999 -0.9440403 0.0828031 0
4.0290003 -0.94935077 0.083245009 0
4.026 -0.95514464 0.08351019 0
4.0240002 -0.96118015 0.083686978 0
4.0240002 -0.96771711 0.083686978 0
4.0250001 -0.97451037 0.083598554 0
4.0280004 -0.98182291 0.083333403 0
4.21 -1.1868366 0.067247063 0
4.2030001 -1.1916004 0.067865759 0
4.1990004 -1.1972482 0.068219304 0
4.1960001 -1.2031863 0.068484455 0
4.1940002 -1.2094202 0.068661243 0
4.1940002 -1.2162639 0.068661243 0
3.8010004 -1.1073121 0.10339716 0
3.7920003 -1.110622 0.10419264 0
3.7860003 -1.1148466 0.10472298 0
3.7820003 -1.1196845 0.10507649 0
3.7790003 -1.124827 0.10534167 0
3.7770002 -1.1302799 0.10551846 0
3.7760003 -1.1360486 0.10560682 0
3.7770002 -1.1424628 0.10551846 0
3.7790003 -1.1492074 0.10534167 0
3.7850003 -1.1572722 0.10481137 0
3.6680002 -1.2072846 0.1151526 0
3.6590002 -1.2099649 0.11594808 0
3.6520002 -1.2133309 0.11656678 0
3.6460001 -1.2170323 0.11709711 0
3.6410003 -1.2210747 0.11753905 0
3.6370003 -1.2254633 0.11789259 0
3.6340003 -1.2302036 0.11815774 0
3.6310003 -1.2349333 0.1184229 0
3.6290002 -1.2400218 0.11859968 0
3.6280003 -1.2454747 0.11868805 0
3.6270003 -1.2509241 0.11877644 0
3.6260002 -1.2563697 0.11886483 0
3.6270003 -1.2625659 0.11877644 0
3.6280003 -1.2687654 0.11868805 0
3.6300004 -1.2753494 0.11851126 0
3.6340003 -1.2827053 0.11815774 0
3.8030002 -1.4148542 0.1032204 0
3.7950003 -1.4177601 0.10392749 0
3.7890003 -1.4214488 0.10445783 0
3.7840002 -1.4255236 0.10489973 0
3.7800002 -1.4299898 0.10525328 0
3.7760003 -1.4344417 0.10560682 0
3.7740002 -1.4397051 0.10578361 0
3.7710001 -1.4445466 0.10604879 0
3.7700002 -1.4502106 0.10613716 0
3.7680004 -1.4554524 0.10631391 0
3.7680004 -1.4615278 0.10631391 0
3.7680004 -1.467603 0.10631391 0
3.7690003 -1.474102 0.10622555 0
3.7720003 -1.4814562 0.10596037 0
3.7760003 -1.4892486 0.10560682 0
4.0339999 -0.9440403 0.07624808 0
4.0290003 -0.94935077 0.076699018 0
4.026 -0.95514464 0.076969594 0
4.0240002 -0.96118015 0.077149987 0
4.0240002 -0.96771711 0.077149987 0
4.0250001 -0.97451037 0.077059746 0
4.0280004 -0.98182291 0.0767892 0
4.21 -1.1868366 0.060374528 0
4.2030001 -1.1916004 0.06100589 0
4.1990004 -1.1972482 0.061366647 0
4.1960001 -1.2031863 0.061637193 0
4.1940002 -1.2094202 0.061817586 0
4.1940002 -1.2162639 0.061817586 0
3.8010004 -1.1073121 0.097262412 0
3.7920003 -1.110622 0.098074138 0
3.7860003 -1.1148466 0.098615289 0
3.7820003 -1.1196845 0.098976046 0
3.7790003 -1.124827 0.099246591 0
3.7770002 -1.1302799 0.099426985 0
3.7760003 -1.1360486 0.099517196 0
3.7770002 -1.1424628 0.099426985 0
3.7790003 -1.1492074 0.099246591 0
3.7850003 -1.1572722 0.098705471 0
3.6680002 -1.2072846 0.10925776 0
3.6590002 -1.2099649 0.11006948 0
3.6520002 -1.2133309 0.11070079 0
3.6460001 -1.2170323 0.11124194 0
3.6410003 -1.2210747 0.11169291 0
3.6370003 -1.2254633 0.11205366 0
3.6340003 -1.2302036 0.11232421 0
3.6310003 -1.2349333 0.11259481 0
3.6290002 -1.2400218 0.11277518 0
3.6280003 -1.2454747 0.11286536 0
3.6270003 -1.2509241 0.11295557 0
3.6260002 -1.2563697 0.11304575 0
3.6270003 -1.2625659 0.11295557 0
