# .PCD v0.7 - Point Cloud Data file format
VERSION 0.7
FIELDS x y z intensity
SIZE 4 4 4 4
TYPE F F F F
COUNT 1 1 1 1
WIDTH 1457
HEIGHT 1
VIEWPOINT 0 0 0 1 0 0 0
POINTS 1457
DATA ascii
6.2980003 -2.4184659 2.4360225 0
6.2920003 -2.4266806 2.4339554 0
6.2860003 -2.4348733 2.4318881 0
6.2800002 -2.4430447 2.429821 0
6.2750006 -2.4516039 2.4280984 0
6.2690005 -2.4597335 2.4260314 0
6.2630005 -2.4678416 2.4239643 0
6.2570004 -2.4759283 2.4218967 0
6.2510004 -2.4839928 2.4198296 0
6.2450004 -2.4920361 2.4177625 0
6.2400002 -2.500478 2.4160399 0
6.2340002 -2.5084796 2.4139729 0
6.2280002 -2.5164595 2.4119055 0
6.2220006 -2.5244181 2.4098384 0
6.2170005 -2.5327826 2.4081159 0
6.2110004 -2.5406992 2.4060488 0
6.2050004 -2.5485945 2.4039812 0
6.2000003 -2.556901 2.4022586 0
6.1940002 -2.5647547 2.4001915 0
6.1880002 -2.572587 2.3981245 0
6.1830006 -2.5808361 2.3964019 0
6.1770005 -2.5886266 2.3943348 0
6.1710005 -2.5963955 2.3922675 0
6.1660004 -2.6045864 2.3905449 0
6.1600003 -2.612314 2.3884776 0
6.1550002 -2.6204672 2.386755 0
6.1490002 -2.6281531 2.3846877 0
6.1430006 -2.6358178 2.3826208 0
6.1380005 -2.6439133 2.3808982 0
6.1320004 -2.6515362 2.3788309 0
6.1270003 -2.6595936 2.3771083 0
6.1210003 -2.6671751 2.375041 0
6.1160002 -2.6751947 2.3733184 0
6.1100001 -2.6827347 2.3712511 0
6.1050005 -2.6907165 2.3695285 0
6.0990005 -2.698215 2.3674614 0
6.0940003 -2.7061591 2.3657389 0
6.0880003 -2.7136159 2.3636718 0
6.0830002 -2.7215221 2.361949 0
6.0770001 -2.7289374 2.3598819 0
6.0720005 -2.7368057 2.3581593 0
6.0660005 -2.7441797 2.356092 0
6.0610003 -2.7520099 2.3543696 0
6.0560002 -2.7598224 2.3526468 0
6.0500002 -2.7671349 2.3505795 0
6.0450006 -2.7749095 2.3488569 0
6.0390005 -2.7821805 2.3467898 0
6.0340004 -2.789917 2.3450673 0
6.0290003 -2.7976356 2.3433444 0
6.0230002 -2.8048453 2.3412774 0
6.0180001 -2.8125257 2.3395545 0
6.0130005 -2.8201888 2.3378322 0
6.0070004 -2.827337 2.3357649 0
6.0020003 -2.8349617 2.3340423 0
5.9970002 -2.8425682 2.3323195 0
5.9910002 -2.8496554 2.3302524 0
5.9860005 -2.8572245 2.3285298 0
5.9810004 -2.8647749 2.3268073 0
5.9760003 -2.8723078 2.3250844 0
5.9700003 -2.8793137 2.3230174 0
5.9650002 -2.8868084 2.3212948 0
5.9600005 -2.8942854 2.3195722 0
5.9550004 -2.9017441 2.3178494 0
5.9500003 -2.9091847 2.3161268 0
5.9440002 -2.9160898 2.3140597 0
5.9390001 -2.9234927 2.3123369 0
5.9340005 -2.9308777 2.3106143 0
5.9290004 -2.9382441 2.3088918 0
5.9240003 -2.9455926 2.307169 0
5.9180002 -2.9523966 2.3051019 0
5.9130006 -2.9597077 2.3033795 0
5.9080005 -2.9670005 2.3016567 0
5.9030004 -2.9742754 2.2999339 0
5.8980002 -2.9815319 2.2982116 0
5.8930001 -2.9887705 2.2964888 0
5.8880005 -2.9959912 2.2947664 0
5.8830004 -3.0031939 2.2930436 0
5.8780003 -3.0103784 2.2913208 0
5.8730001 -3.017545 2.2895982 0
5.8670006 -3.0241489 2.2875314 0
5.8620005 -3.0312774 2.2858086 0
5.8570004 -3.038388 2.284086 0
5.8520002 -3.0454805 2.2823632 0
5.8470001 -3.0525548 2.2806404 0
5.8420005 -3.0596116 2.278918 0
5.8370004 -3.0666502 2.2771952 0
5.8320003 -3.0736704 2.2754726 0
5.8270001 -3.0806727 2.2737501 0
5.8220005 -3.0876575 2.2720275 0
5.8170004 -3.0946236 2.2703049 0
5.8120003 -3.1015718 2.2685821 0
5.8080006 -3.1090686 2.267204 0
5.8030005 -3.1159823 2.2654812 0
5.7980003 -3.1228783 2.2637587 0
5.7930002 -3.1297562 2.2620361 0
5.7880006 -3.1366162 2.2603137 0
6.4240003 -2.2409604 2.4685669 0
6.4180002 -2.2496295 2.4665105 0
6.4120002 -2.2582769 2.4644542 0
6.4060006 -2.2669029 2.4623978 0
6.4000006 -2.2755072 2.4603415 0
6.3930006 -2.2837162 2.4579422 0
6.3870006 -2.2922754 2.4558859 0
6.3810005 -2.3008125 2.4538298 0
6.3750005 -2.3093286 2.4517734 0
6.3690004 -2.3178227 2.449717 0
6.3630004 -2.3262949 2.4476607 0
6.3570004 -2.3347459 2.4456043 0
6.3510003 -2.3431749 2.443548 0
6.3450003 -2.3515825 2.4414916 0
6.3390002 -2.3599684 2.4394352 0
6.3330002 -2.3683329 2.4373789 0
6.3270001 -2.3766754 2.4353225 0
6.3220005 -2.3853915 2.433609 0
6.3160005 -2.3936925 2.4315526 0
6.3100004 -2.4019721 2.4294963 0
6.3040004 -2.4102299 2.4274399 0
6.2980003 -2.4184659 2.4253836 0
6.2920003 -2.4266806 2.4233272 0
6.2860003 -2.4348733 2.4212711 0
6.2800002 -2.4430447 2.4192147 0
6.2750006 -2.4516039 2.4175012 0
6.2690005 -2.4597335 2.4154449 0
6.2630005 -2.4678416 2.4133885 0
6.2570004 -2.4759283 2.4113319 0
6.2510004 -2.4839928 2.4092755 0
6.2450004 -2.4920361 2.4072192 0
6.2400002 -2.500478 2.4055054 0
6.2340002 -2.5084796 2.4034491 0
6.2280002 -2.5164595 2.4013929 0
6.2220006 -2.5244181 2.3993366 0
6.2170005 -2.5327826 2.3976231 0
6.2110004 -2.5406992 2.3955667 0
6.2050004 -2.5485945 2.3935103 0
6.2000003 -2.556901 2.3917966 0
6.1940002 -2.5647547 2.3897402 0
6.1880002 -2.572587 2.3876839 0
6.1830006 -2.5808361 2.3859706 0
6.1770005 -2.5886266 2.3839142 0
6.1710005 -2.5963955 2.3818579 0
6.1660004 -2.6045864 2.3801441 0
6.1600003 -2.612314 2.3780878 0
6.1550002 -2.6204672 2.3763742 0
6.1490002 -2.6281531 2.3743179 0
6.1430006 -2.6358178 2.3722613 0
6.1380005 -2.6439133 2.3705478 0
6.1320004 -2.6515362 2.3684914 0
6.1270003 -2.6595936 2.3667777 0
6.1210003 -2.6671751 2.3647213 0
6.1160002 -2.6751947 2.3630078 0
6.1100001 -2.6827347 2.3609514 0
6.1050005 -2.6907165 2.3592379 0
6.0990005 -2.698215 2.3571815 0
6.0940003 -2.7061591 2.355468 0
6.0880003 -2.7136159 2.3534117 0
6.0830002 -2.7215221 2.3516979 0
6.0770001 -2.7289374 2.3496416 0
6.0720005 -2.7368057 2.347928 0
6.0660005 -2.7441797 2.3458717 0
6.0610003 -2.7520099 2.3441582 0
6.0560002 -2.7598224 2.3424444 0
6.0500002 -2.7671349 2.3403881 0
6.0450006 -2.7749095 2.3386745 0
6.0390005 -2.7821805 2.3366182 0
6.0340004 -2.789917 2.3349047 0
6.0290003 -2.7976356 2.3331909 0
6.0230002 -2.8048453 2.3311346 0
6.0180001 -2.8125257 2.329421 0
6.0130005 -2.8201888 2.3277075 0
6.0070004 -2.827337 2.3256512 0
6.0020003 -2.8349617 2.3239374 0
5.9970002 -2.8425682 2.3222237 0
5.9910002 -2.8496554 2.3201673 0
5.9860005 -2.8572245 2.3184538 0
5.9810004 -2.8647749 2.31674 0
5.9760003 -2.8723078 2.3150265 0
5.9700003 -2.8793137 2.3129702 0
5.9650002 -2.8868084 2.3112564 0
5.9600005 -2.8942854 2.3095429 0
5.9550004 -2.9017441 2.3078294 0
5.9500003 -2.9091847 2.3061156 0
5.9440002 -2.9160898 2.3040593 0
5.9390001 -2.9234927 2.3023458 0
5.9340005 -2.9308777 2.3006322 0
5.9290004 -2.9382441 2.2989185 0
5.9240003 -2.9455926 2.297205 0
5.9180002 -2.9523966 2.2951486 0
5.9130006 -2.9597077 2.2934351 0
5.9080005 -2.9670005 2.2917213 0
5.9030004 -2.9742754 2.2900078 0
5.8980002 -2.9815319 2.2882941 0
5.8930001 -2.9887705 2.2865806 0
5.8880005 -2.9959912 2.284867 0
5.8830004 -3.0031939 2.2831533 0
5.8780003 -3.0103784 2.2814398 0
5.8730001 -3.017545 2.279726 0
5.8670006 -3.0241489 2.2776699 0
5.8620005 -3.0312774 2.2759562 0
5.8570004 -3.038388 2.2742426 0
5.8520002 -3.0454805 2.2725289 0
5.8470001 -3.0525548 2.2708151 0
5.8420005 -3.0596116 2.2691016 0
5.8370004 -3.0666502 2.2673879 0
5.8320003 -3.0736704 2.2656744 0
5.8270001 -3.0806727 2.2639606 0
5.8220005 -3.0876575 2.2622471 0
5.8170004 -3.0946236 2.2605336 0
5.8120003 -3.1015718 2.2588198 0
5.8080006 -3.1090686 2.2574492 0
5.8030005 -3.1159823 2.2557354 0
5.7980003 -3.1228783 2.2540216 0
5.7930002 -3.1297562 2.2523081 0
5.7880006 -3.1366162 2.2505946 0
6.4420004 -2.2148232 2.4638374 0
6.4360003 -2.2235572 2.4617918 0
6.4300003 -2.2322698 2.4597461 0
6.4240003 -2.2409604 2.4577005 0
6.4180002 -2.2496295 2.4556551 0
6.4120002 -2.2582769 2.4536097 0
6.4060006 -2.2669029 2.4515643 0
6.4000006 -2.2755072 2.4495187 0
6.3930006 -2.2837162 2.4471323 0
6.3870006 -2.2922754 2.4450867 0
6.3810005 -2.3008125 2.4430411 0
6.3750005 -2.3093286 2.4409955 0
6.3690004 -2.3178227 2.4389501 0
6.3630004 -2.3262949 2.4369047 0
6.3570004 -2.3347459 2.434859 0
6.3510003 -2.3431749 2.4328134 0
6.3450003 -2.3515825 2.4307678 0
6.3390002 -2.3599684 2.4287226 0
6.3330002 -2.3683329 2.426677 0
6.3270001 -2.3766754 2.4246314 0
6.3220005 -2.3853915 2.4229269 0
6.3160005 -2.3936925 2.4208813 0
6.3100004 -2.4019721 2.4188359 0
6.3040004 -2.4102299 2.4167902 0
6.2980003 -2.4184659 2.4147449 0
6.2920003 -2.4266806 2.4126992 0
6.2860003 -2.4348733 2.4106536 0
6.2800002 -2.4430447 2.4086082 0
6.2750006 -2.4516039 2.4069037 0
6.2690005 -2.4597335 2.4048581 0
6.2630005 -2.4678416 2.4028125 0
6.2570004 -2.4759283 2.4007668 0
6.2510004 -2.4839928 2.3987217 0
6.2450004 -2.4920361 2.3966761 0
6.2400002 -2.500478 2.3949714 0
6.2340002 -2.5084796 2.3929257 0
6.2280002 -2.5164595 2.3908803 0
6.2220006 -2.5244181 2.388835 0
6.2170005 -2.5327826 2.3871303 0
6.2110004 -2.5406992 2.3850846 0
6.2050004 -2.5485945 2.383039 0
6.2000003 -2.556901 2.3813345 0
6.1940002 -2.5647547 2.3792889 0
6.1880002 -2.572587 2.3772435 0
6.1830006 -2.5808361 2.3755391 0
6.1770005 -2.5886266 2.3734934 0
6.1710005 -2.5963955 2.371448 0
6.1660004 -2.6045864 2.3697433 0
6.1600003 -2.612314 2.3676977 0
6.1550002 -2.6204672 2.3659933 0
6.1490002 -2.6281531 2.3639476 0
6.1430006 -2.6358178 2.3619022 0
6.1380005 -2.6439133 2.3601975 0
6.1320004 -2.6515362 2.3581519 0
6.1270003 -2.6595936 2.3564475 0
6.1210003 -2.6671751 2.3544018 0
6.1160002 -2.6751947 2.3526971 0
6.1100001 -2.6827347 2.3506517 0
6.1050005 -2.6907165 2.3489473 0
6.0990005 -2.698215 2.3469017 0
6.0940003 -2.7061591 2.345197 0
6.0880003 -2.7136159 2.3431513 0
6.0830002 -2.7215221 2.3414469 0
6.0770001 -2.7289374 2.3394012 0
6.0720005 -2.7368057 2.3376968 0
6.0660005 -2.7441797 2.3356512 0
6.0610003 -2.7520099 2.3339467 0
6.0560002 -2.7598224 2.332242 0
6.0500002 -2.7671349 2.3301964 0
6.0450006 -2.7749095 2.3284919 0
6.0390005 -2.7821805 2.3264465 0
6.0340004 -2.789917 2.3247418 0
6.0290003 -2.7976356 2.3230371 0
6.0230002 -2.8048453 2.3209918 0
6.0180001 -2.8125257 2.3192871 0
6.0130005 -2.8201888 2.3175826 0
6.0070004 -2.827337 2.315537 0
6.0020003 -2.8349617 2.3138325 0
5.9970002 -2.8425682 2.3121278 0
5.9910002 -2.8496554 2.3100822 0
5.9860005 -2.8572245 2.3083777 0
5.9810004 -2.8647749 2.3066733 0
5.9760003 -2.8723078 2.3049686 0
5.9700003 -2.8793137 2.302923 0
5.9650002 -2.8868084 2.3012185 0
5.9600005 -2.8942854 2.2995138 0
5.9550004 -2.9017441 2.2978091 0
5.9500003 -2.9091847 2.2961047 0
5.9440002 -2.9160898 2.294059 0
5.9390001 -2.9234927 2.2923543 0
5.9340005 -2.9308777 2.2906499 0
5.9290004 -2.9382441 2.2889454 0
5.9240003 -2.9455926 2.2872407 0
5.9180002 -2.9523966 2.2851951 0
5.9130006 -2.9597077 2.2834907 0
5.9080005 -2.9670005 2.281786 0
5.9030004 -2.9742754 2.2800813 0
5.8980002 -2.9815319 2.2783768 0
5.8930001 -2.9887705 2.2766721 0
5.8880005 -2.9959912 2.2749677 0
5.8830004 -3.0031939 2.2732632 0
5.8780003 -3.0103784 2.2715583 0
5.8730001 -3.017545 2.2698536 0
5.8670006 -3.0241489 2.2678082 0
5.8620005 -3.0312774 2.2661037 0
5.8570004 -3.038388 2.2643991 0
5.8520002 -3.0454805 2.2626944 0
5.8470001 -3.0525548 2.2609899 0
5.8420005 -3.0596116 2.2592854 0
5.8370004 -3.0666502 2.2575808 0
5.8320003 -3.0736704 2.2558761 0
5.8270001 -3.0806727 2.2541714 0
5.8220005 -3.0876575 2.2524669 0
5.8170004 -3.0946236 2.2507622 0
5.8120003 -3.1015718 2.2490578 0
5.8080006 -3.1090686 2.247694 0
5.8030005 -3.1159823 2.2459893 0
5.7980003 -3.1228783 2.2442849 0
5.7930002 -3.1297562 2.2425802 0
5.7880006 -3.1366162 2.2408757 0
6.4670005 -2.1800225 2.4614165 0
6.4610004 -2.1888449 2.4593818 0
6.4550004 -2.1976457 2.4573472 0
6.4490004 -2.2064247 2.4553125 0
6.4420004 -2.2148232 2.4529386 0
6.4360003 -2.2235572 2.4509039 0
6.4300003 -2.2322698 2.4488692 0
6.4240003 -2.2409604 2.4468346 0
6.4180002 -2.2496295 2.4447997 0
6.4120002 -2.2582769 2.442765 0
6.4060006 -2.2669029 2.4407303 0
6.4000006 -2.2755072 2.4386959 0
6.3930006 -2.2837162 2.436322 0
6.3870006 -2.2922754 2.4342871 0
6.3810005 -2.3008125 2.4322526 0
6.3750005 -2.3093286 2.4302177 0
6.3690004 -2.3178227 2.4281833 0
6.3630004 -2.3262949 2.4261484 0
6.3570004 -2.3347459 2.4241138 0
6.3510003 -2.3431749 2.4220791 0
6.3450003 -2.3515825 2.4200444 0
6.3390002 -2.3599684 2.4180095 0
6.3330002 -2.3683329 2.4159749 0
6.3270001 -2.3766754 2.4139402 0
6.3220005 -2.3853915 2.4122448 0
6.3160005 -2.3936925 2.4102099 0
6.3100004 -2.4019721 2.4081752 0
6.3040004 -2.4102299 2.4061406 0
6.2980003 -2.4184659 2.4041059 0
6.2920003 -2.4266806 2.4020712 0
6.2860003 -2.4348733 2.4000363 0
6.2800002 -2.4430447 2.3980017 0
6.2750006 -2.4516039 2.3963063 0
6.2690005 -2.4597335 2.3942716 0
6.2630005 -2.4678416 2.3922367 0
6.2570004 -2.4759283 2.390202 0
6.2510004 -2.4839928 2.3881674 0
6.2450004 -2.4920361 2.3861327 0
6.2400002 -2.500478 2.3844371 0
6.2340002 -2.5084796 2.3824024 0
6.2280002 -2.5164595 2.3803678 0
6.2220006 -2.5244181 2.3783331 0
6.2170005 -2.5327826 2.3766375 0
6.2110004 -2.5406992 2.3746028 0
6.2050004 -2.5485945 2.3725681 0
6.2000003 -2.556901 2.3708725 0
6.1940002 -2.5647547 2.3688376 0
6.1880002 -2.572587 2.3668032 0
6.1830006 -2.5808361 2.3651075 0
6.1770005 -2.5886266 2.3630729 0
6.1710005 -2.5963955 2.3610382 0
6.1660004 -2.6045864 2.3593426 0
6.1600003 -2.612314 2.3573077 0
6.1550002 -2.6204672 2.3556123 0
6.1490002 -2.6281531 2.3535776 0
6.1430006 -2.6358178 2.3515429 0
6.1380005 -2.6439133 2.3498473 0
6.1320004 -2.6515362 2.3478127 0
6.1270003 -2.6595936 2.346117 0
6.1210003 -2.6671751 2.3440824 0
6.1160002 -2.6751947 2.3423867 0
6.1100001 -2.6827347 2.3403518 0
6.1050005 -2.6907165 2.3386564 0
6.0990005 -2.698215 2.3366218 0
6.0940003 -2.7061591 2.3349261 0
6.0880003 -2.7136159 2.3328915 0
6.0830002 -2.7215221 2.3311958 0
6.0770001 -2.7289374 2.3291612 0
6.0720005 -2.7368057 2.3274658 0
6.0660005 -2.7441797 2.3254309 0
6.0610003 -2.7520099 2.3237355 0
6.0560002 -2.7598224 2.3220396 0
6.0500002 -2.7671349 2.3200052 0
6.0450006 -2.7749095 2.3183095 0
6.0390005 -2.7821805 2.3162749 0
6.0340004 -2.789917 2.3145792 0
6.0290003 -2.7976356 2.3128836 0
6.0230002 -2.8048453 2.310849 0
6.0180001 -2.8125257 2.3091533 0
6.0130005 -2.8201888 2.3074577 0
6.0070004 -2.827337 2.3054233 0
6.0020003 -2.8349617 2.3037274 0
5.9970002 -2.8425682 2.302032 0
5.9910002 -2.8496554 2.2999973 0
5.9860005 -2.8572245 2.2983017 0
5.9810004 -2.8647749 2.2966061 0
5.9760003 -2.8723078 2.2949107 0
5.9700003 -2.8793137 2.2928758 0
5.9650002 -2.8868084 2.2911801 0
5.9600005 -2.8942854 2.2894845 0
5.9550004 -2.9017441 2.2877891 0
5.9500003 -2.9091847 2.2860935 0
5.9440002 -2.9160898 2.2840586 0
5.9390001 -2.9234927 2.2823632 0
5.9340005 -2.9308777 2.2806678 0
5.9290004 -2.9382441 2.2789719 0
5.9240003 -2.9455926 2.2772765 0
5.9180002 -2.9523966 2.2752419 0
5.9130006 -2.9597077 2.2735462 0
5.9080005 -2.9670005 2.2718506 0
5.9030004 -2.9742754 2.2701552 0
5.8980002 -2.9815319 2.2684593 0
5.8930001 -2.9887705 2.2667637 0
5.8880005 -2.9959912 2.2650683 0
5.8830004 -3.0031939 2.2633727 0
5.8780003 -3.0103784 2.261677 0
5.8730001 -3.017545 2.2599814 0
5.8670006 -3.0241489 2.257947 0
5.8620005 -3.0312774 2.2562513 0
5.8570004 -3.038388 2.2545557 0
5.8520002 -3.0454805 2.2528601 0
5.8470001 -3.0525548 2.2511644 0
5.8420005 -3.0596116 2.249469 0
5.8370004 -3.0666502 2.2477734 0
5.8320003 -3.0736704 2.2460778 0
5.8270001 -3.0806727 2.2443821 0
5.8220005 -3.0876575 2.2426867 0
5.8170004 -3.0946236 2.2409911 0
5.8120003 -3.1015718 2.2392955 0
5.8080006 -3.1090686 2.2379391 0
5.8030005 -3.1159823 2.2362435 0
5.7980003 -3.1228783 2.2345479 0
5.7930002 -3.1297562 2.2328522 0
5.7880006 -3.1366162 2.2311568 0
6.4920006 -2.144861 2.4589057 0
6.4860005 -2.1537716 2.4568818 0
6.4800005 -2.1626608 2.4548578 0
6.4730005 -2.1711783 2.4524968 0
6.4670005 -2.1800225 2.4504728 0
6.4610004 -2.1888449 2.4484489 0
6.4550004 -2.1976457 2.446425 0
6.4490004 -2.2064247 2.4444013 0
6.4420004 -2.2148232 2.44204 0
6.4360003 -2.2235572 2.440016 0
6.4300003 -2.2322698 2.4379921 0
6.4240003 -2.2409604 2.4359684 0
6.4180002 -2.2496295 2.4339442 0
6.4120002 -2.2582769 2.4319205 0
6.4060006 -2.2669029 2.4298968 0
6.4000006 -2.2755072 2.4278729 0
6.3930006 -2.2837162 2.4255116 0
6.3870006 -2.2922754 2.4234879 0
6.3810005 -2.3008125 2.421464 0
6.3750005 -2.3093286 2.41944 0
6.3690004 -2.3178227 2.4174161 0
6.3630004 -2.3262949 2.4153924 0
6.3570004 -2.3347459 2.4133685 0
6.3510003 -2.3431749 2.4113445 0
6.3450003 -2.3515825 2.4093208 0
6.3390002 -2.3599684 2.4072969 0
6.3330002 -2.3683329 2.405273 0
6.3270001 -2.3766754 2.403249 0
6.3220005 -2.3853915 2.4015625 0
6.3160005 -2.3936925 2.3995388 0
6.3100004 -2.4019721 2.3975148 0
6.3040004 -2.4102299 2.3954909 0
6.2980003 -2.4184659 2.3934669 0
6.2920003 -2.4266806 2.3914433 0
6.2860003 -2.4348733 2.3894191 0
6.2800002 -2.4430447 2.3873954 0
6.2750006 -2.4516039 2.385709 0
6.2690005 -2.4597335 2.3836849 0
6.2630005 -2.4678416 2.3816612 0
6.2570004 -2.4759283 2.3796372 0
6.2510004 -2.4839928 2.3776133 0
6.2450004 -2.4920361 2.3755894 0
6.2400002 -2.500478 2.373903 0
6.2340002 -2.5084796 2.3718789 0
6.2280002 -2.5164595 2.3698552 0
6.2220006 -2.5244181 2.3678315 0
6.2170005 -2.5327826 2.3661447 0
6.2110004 -2.5406992 2.364121 0
6.2050004 -2.5485945 2.362097 0
6.2000003 -2.556901 2.3604102 0
6.1940002 -2.5647547 2.3583865 0
6.1880002 -2.572587 2.3563626 0
6.1830006 -2.5808361 2.3546762 0
6.1770005 -2.5886266 2.3526523 0
6.1710005 -2.5963955 2.3506284 0
6.1660004 -2.6045864 2.3489418 0
6.1600003 -2.612314 2.3469179 0
6.1550002 -2.6204672 2.3452313 0
6.1490002 -2.6281531 2.3432074 0
6.1430006 -2.6358178 2.3411837 0
6.1380005 -2.6439133 2.3394971 0
6.1320004 -2.6515362 2.3374732 0
6.1270003 -2.6595936 2.3357866 0
6.1210003 -2.6671751 2.3337626 0
6.1160002 -2.6751947 2.3320761 0
6.1100001 -2.6827347 2.3300521 0
6.1050005 -2.6907165 2.3283658 0
6.0990005 -2.698215 2.3263419 0
6.0940003 -2.7061591 2.3246553 0
6.0880003 -2.7136159 2.3226314 0
6.0830002 -2.7215221 2.320945 0
6.0770001 -2.7289374 2.3189209 0
6.0720005 -2.7368057 2.3172345 0
6.0660005 -2.7441797 2.3152106 0
6.0610003 -2.7520099 2.313524 0
6.0560002 -2.7598224 2.3118374 0
6.0500002 -2.7671349 2.3098135 0
6.0450006 -2.7749095 2.3081272 0
6.0390005 -2.7821805 2.3061032 0
6.0340004 -2.789917 2.3044167 0
6.0290003 -2.7976356 2.3027301 0
6.0230002 -2.8048453 2.3007059 0
6.0180001 -2.8125257 2.2990196 0
6.0130005 -2.8201888 2.297333 0
6.0070004 -2.827337 2.2953091 0
6.0020003 -2.8349617 2.2936227 0
5.9970002 -2.8425682 2.2919359 0
5.9910002 -2.8496554 2.289912 0
5.9860005 -2.8572245 2.2882257 0
5.9810004 -2.8647749 2.2865391 0
5.9760003 -2.8723078 2.2848525 0
5.9700003 -2.8793137 2.2828286 0
5.9650002 -2.8868084 2.281142 0
5.9600005 -2.8942854 2.2794557 0
5.9550004 -2.9017441 2.2777689 0
5.9500003 -2.9091847 2.2760823 0
5.9440002 -2.9160898 2.2740583 0
5.9390001 -2.9234927 2.2723718 0
5.9340005 -2.9308777 2.2706854 0
5.9290004 -2.9382441 2.2689989 0
5.9240003 -2.9455926 2.2673123 0
5.9180002 -2.9523966 2.2652881 0
5.9130006 -2.9597077 2.263602 0
5.9080005 -2.9670005 2.2619154 0
5.9030004 -2.9742754 2.2602286 0
5.8980002 -2.9815319 2.2585421 0
5.8930001 -2.9887705 2.2568555 0
5.8880005 -2.9959912 2.2551692 0
5.8830004 -3.0031939 2.2534823 0
5.8780003 -3.0103784 2.2517958 0
5.8730001 -3.017545 2.2501092 0
5.8670006 -3.0241489 2.2480855 0
5.8620005 -3.0312774 2.2463989 0
5.8570004 -3.038388 2.2447124 0
5.8520002 -3.0454805 2.2430258 0
5.8470001 -3.0525548 2.2413392 0
5.8420005 -3.0596116 2.2396526 0
5.8370004 -3.0666502 2.2379661 0
5.8320003 -3.0736704 2.2362795 0
5.8270001 -3.0806727 2.2345929 0
5.8220005 -3.0876575 2.2329063 0
5.8170004 -3.0946236 2.2312198 0
5.8120003 -3.1015718 2.2295332 0
5.8080006 -3.1090686 2.228184 0
5.8030005 -3.1159823 2.2264977 0
5.7980003 -3.1228783 2.2248108 0
5.7930002 -3.1297562 2.2231243 0
5.7880006 -3.1366162 2.2214379 0
6.5110002 -2.1183376 2.4542913 0
6.5050006 -2.1273153 2.4522786 0
6.4980006 -2.1359284 2.44993 0
6.4920006 -2.144861 2.4479167 0
6.4860005 -2.1537716 2.4459038 0
6.4800005 -2.1626608 2.4438908 0
6.4730005 -2.1711783 2.4415424 0
6.4670005 -2.1800225 2.4395289 0
6.4610004 -2.1888449 2.437516 0
6.4550004 -2.1976457 2.435503 0
6.4490004 -2.2064247 2.4334898 0
6.4420004 -2.2148232 2.4311414 0
6.4360003 -2.2235572 2.4291284 0
6.4300003 -2.2322698 2.4271154 0
6.4240003 -2.2409604 2.4251022 0
6.4180002 -2.2496295 2.423089 0
6.4120002 -2.2582769 2.4210761 0
6.4060006 -2.2669029 2.4190631 0
6.4000006 -2.2755072 2.4170501 0
6.3930006 -2.2837162 2.4147017 0
6.3870006 -2.2922754 2.4126885 0
6.3810005 -2.3008125 2.4106753 0
6.3750005 -2.3093286 2.4086623 0
6.3690004 -2.3178227 2.4066491 0
6.3630004 -2.3262949 2.4046361 0
6.3570004 -2.3347459 2.4026232 0
6.3510003 -2.3431749 2.40061 0
6.3450003 -2.3515825 2.398597 0
6.3390002 -2.3599684 2.396584 0
6.3330002 -2.3683329 2.3945708 0
6.3270001 -2.3766754 2.3925579 0
6.3220005 -2.3853915 2.3908803 0
6.3160005 -2.3936925 2.3888674 0
6.3100004 -2.4019721 2.3868542 0
6.3040004 -2.4102299 2.3848412 0
6.2980003 -2.4184659 2.3828282 0
6.2920003 -2.4266806 2.380815 0
6.2860003 -2.4348733 2.3788021 0
6.2800002 -2.4430447 2.3767891 0
6.2750006 -2.4516039 2.3751116 0
6.2690005 -2.4597335 2.3730984 0
6.2630005 -2.4678416 2.3710854 0
6.2570004 -2.4759283 2.3690724 0
6.2510004 -2.4839928 2.3670592 0
6.2450004 -2.4920361 2.3650463 0
6.2400002 -2.500478 2.3633685 0
6.2340002 -2.5084796 2.3613555 0
6.2280002 -2.5164595 2.3593426 0
6.2220006 -2.5244181 2.3573296 0
6.2170005 -2.5327826 2.3556519 0
6.2110004 -2.5406992 2.3536389 0
6.2050004 -2.5485945 2.3516259 0
6.2000003 -2.556901 2.3499484 0
6.1940002 -2.5647547 2.3479352 0
6.1880002 -2.572587 2.345922 0
6.1830006 -2.5808361 2.3442447 0
6.1770005 -2.5886266 2.3422318 0
6.1710005 -2.5963955 2.3402188 0
6.1660004 -2.6045864 2.338541 0
6.1600003 -2.612314 2.3365278 0
6.1550002 -2.6204672 2.3348505 0
6.1490002 -2.6281531 2.3328373 0
6.1430006 -2.6358178 2.3308244 0
6.1380005 -2.6439133 2.3291469 0
6.1320004 -2.6515362 2.3271339 0
6.1270003 -2.6595936 2.3254561 0
6.1210003 -2.6671751 2.3234432 0
6.1160002 -2.6751947 2.3217657 0
6.1100001 -2.6827347 2.3197525 0
6.1050005 -2.6907165 2.3180752 0
6.0990005 -2.698215 2.316062 0
6.0940003 -2.7061591 2.3143842 0
6.0880003 -2.7136159 2.3123713 0
6.0830002 -2.7215221 2.3106937 0
6.0770001 -2.7289374 2.3086808 0
6.0720005 -2.7368057 2.3070033 0
6.0660005 -2.7441797 2.3049903 0
6.0610003 -2.7520099 2.3033125 0
6.0560002 -2.7598224 2.301635 0
6.0500002 -2.7671349 2.2996221 0
6.0450006 -2.7749095 2.2979445 0
6.0390005 -2.7821805 2.2959316 0
6.0340004 -2.789917 2.2942541 0
6.0290003 -2.7976356 2.2925763 0
6.0230002 -2.8048453 2.2905633 0
6.0180001 -2.8125257 2.2888856 0
6.0130005 -2.8201888 2.2872083 0
6.0070004 -2.827337 2.2851954 0
6.0020003 -2.8349617 2.2835176 0
5.9970002 -2.8425682 2.2818401 0
5.9910002 -2.8496554 2.2798271 0
5.9860005 -2.8572245 2.2781496 0
5.9810004 -2.8647749 2.2764719 0
5.9760003 -2.8723078 2.2747943 0
5.9700003 -2.8793137 2.2727814 0
5.9650002 -2.8868084 2.2711036 0
5.9600005 -2.8942854 2.2694263 0
5.9550004 -2.9017441 2.2677488 0
5.9500003 -2.9091847 2.2660713 0
5.9440002 -2.9160898 2.2640584 0
5.9390001 -2.9234927 2.2623806 0
5.9340005 -2.9308777 2.2607031 0
5.9290004 -2.9382441 2.2590256 0
5.9240003 -2.9455926 2.2573478 0
5.9180002 -2.9523966 2.2553349 0
5.9130006 -2.9597077 2.2536576 0
5.9080005 -2.9670005 2.2519798 0
5.9030004 -2.9742754 2.2503023 0
5.8980002 -2.9815319 2.2486248 0
5.8930001 -2.9887705 2.2469471 0
5.8880005 -2.9959912 2.2452698 0
5.8830004 -3.0031939 2.2435923 0
5.8780003 -3.0103784 2.2419145 0
5.8730001 -3.017545 2.240237 0
5.8670006 -3.0241489 2.238224 0
5.8620005 -3.0312774 2.2365465 0
5.8570004 -3.038388 2.234869 0
5.8520002 -3.0454805 2.2331913 0
5.8470001 -3.0525548 2.2315137 0
5.8420005 -3.0596116 2.2298365 0
5.8370004 -3.0666502 2.2281587 0
5.8320003 -3.0736704 2.2264812 0
5.8270001 -3.0806727 2.2248037 0
5.8220005 -3.0876575 2.2231262 0
5.8170004 -3.0946236 2.2214487 0
5.8120003 -3.1015718 2.2197709 0
5.8080006 -3.1090686 2.2184291 0
5.8030005 -3.1159823 2.2167516 0
5.7980003 -3.1228783 2.2150738 0
5.7930002 -3.1297562 2.2133963 0
5.7880006 -3.1366162 2.211719 0
6.5360003 -2.0825429 2.451611 0
6.5300002 -2.0916088 2.4496088 0
6.5240002 -2.1006529 2.4476066 0
6.5170002 -2.1093383 2.4452705 0
6.5110002 -2.1183376 2.4432683 0
6.5050006 -2.1273153 2.4412661 0
6.4980006 -2.1359284 2.4389303 0
6.4920006 -2.144861 2.4369283 0
6.4860005 -2.1537716 2.4349258 0
6.4800005 -2.1626608 2.4329236 0
6.4730005 -2.1711783 2.4305878 0
6.4670005 -2.1800225 2.4285853 0
6.4610004 -2.1888449 2.4265831 0
6.4550004 -2.1976457 2.4245808 0
6.4490004 -2.2064247 2.4225788 0
6.4420004 -2.2148232 2.4202428 0
6.4360003 -2.2235572 2.4182405 0
6.4300003 -2.2322698 2.4162383 0
6.4240003 -2.2409604 2.4142361 0
6.4180002 -2.2496295 2.4122338 0
6.4120002 -2.2582769 2.4102316 0
6.4060006 -2.2669029 2.4082296 0
6.4000006 -2.2755072 2.4062274 0
6.3930006 -2.2837162 2.4038913 0
6.3870006 -2.2922754 2.4018891 0
6.3810005 -2.3008125 2.3998868 0
6.3750005 -2.3093286 2.3978846 0
6.3690004 -2.3178227 2.3958821 0
6.3630004 -2.3262949 2.3938801 0
6.3570004 -2.3347459 2.3918779 0
6.3510003 -2.3431749 2.3898757 0
6.3450003 -2.3515825 2.3878734 0
6.3390002 -2.3599684 2.3858709 0
6.3330002 -2.3683329 2.3838687 0
6.3270001 -2.3766754 2.3818667 0
6.3220005 -2.3853915 2.3801982 0
6.3160005 -2.3936925 2.378196 0
6.3100004 -2.4019721 2.3761938 0
6.3040004 -2.4102299 2.3741915 0
6.2980003 -2.4184659 2.3721893 0
6.2920003 -2.4266806 2.370187 0
6.2860003 -2.4348733 2.3681848 0
6.2800002 -2.4430447 2.3661826 0
6.2750006 -2.4516039 2.3645141 0
6.2690005 -2.4597335 2.3625119 0
6.2630005 -2.4678416 2.3605096 0
6.2570004 -2.4759283 2.3585074 0
6.2510004 -2.4839928 2.3565052 0
6.2450004 -2.4920361 2.3545029 0
6.2400002 -2.500478 2.3528345 0
6.2340002 -2.5084796 2.3508322 0
6.2280002 -2.5164595 2.34883 0
6.2220006 -2.5244181 2.3468277 0
6.2170005 -2.5327826 2.3451591 0
6.2110004 -2.5406992 2.3431571 0
6.2050004 -2.5485945 2.3411548 0
6.2000003 -2.556901 2.3394861 0
6.1940002 -2.5647547 2.3374839 0
6.1880002 -2.572587 2.3354816 0
6.1830006 -2.5808361 2.3338134 0
6.1770005 -2.5886266 2.3318112 0
6.1710005 -2.5963955 2.329809 0
6.1660004 -2.6045864 2.3281403 0
6.1600003 -2.612314 2.326138 0
6.1550002 -2.6204672 2.3244696 0
6.1490002 -2.6281531 2.3224673 0
6.1430006 -2.6358178 2.3204651 0
6.1380005 -2.6439133 2.3187964 0
6.1320004 -2.6515362 2.3167944 0
6.1270003 -2.6595936 2.3151257 0
6.1210003 -2.6671751 2.3131235 0
6.1160002 -2.6751947 2.3114548 0
6.1100001 -2.6827347 2.3094528 0
6.1050005 -2.6907165 2.3077843 0
6.0990005 -2.698215 2.3057821 0
6.0940003 -2.7061591 2.3041134 0
6.0880003 -2.7136159 2.3021114 0
6.0830002 -2.7215221 2.3004427 0
6.0770001 -2.7289374 2.2984405 0
6.0720005 -2.7368057 2.296772 0
6.0660005 -2.7441797 2.2947698 0
6.0610003 -2.7520099 2.2931013 0
6.0560002 -2.7598224 2.2914326 0
6.0500002 -2.7671349 2.2894304 0
6.0450006 -2.7749095 2.2877622 0
6.0390005 -2.7821805 2.2857599 0
6.0340004 -2.789917 2.2840912 0
6.0290003 -2.7976356 2.2824225 0
6.0230002 -2.8048453 2.2804205 0
6.0180001 -2.8125257 2.2787519 0
6.0130005 -2.8201888 2.2770834 0
6.0070004 -2.827337 2.2750812 0
6.0020003 -2.8349617 2.2734127 0
5.9970002 -2.8425682 2.2717443 0
5.9910002 -2.8496554 2.2697418 0
5.9860005 -2.8572245 2.2680733 0
5.9810004 -2.8647749 2.2664051 0
5.9760003 -2.8723078 2.2647364 0
5.9700003 -2.8793137 2.2627342 0
5.9650002 -2.8868084 2.2610657 0
5.9600005 -2.8942854 2.2593973 0
5.9550004 -2.9017441 2.2577286 0
5.9500003 -2.9091847 2.2560599 0
5.9440002 -2.9160898 2.2540579 0
5.9390001 -2.9234927 2.2523892 0
5.9340005 -2.9308777 2.250721 0
5.9290004 -2.9382441 2.2490523 0
5.9240003 -2.9455926 2.2473836 0
5.9180002 -2.9523966 2.2453816 0
5.9130006 -2.9597077 2.2437131 0
5.9080005 -2.9670005 2.2420444 0
5.9030004 -2.9742754 2.240376 0
5.8980002 -2.9815319 2.2387073 0
5.8930001 -2.9887705 2.2370389 0
5.8880005 -2.9959912 2.2353704 0
5.8830004 -3.0031939 2.2337019 0
5.8780003 -3.0103784 2.2320333 0
5.8730001 -3.017545 2.2303648 0
5.8670006 -3.0241489 2.2283626 0
5.8620005 -3.0312774 2.2266941 0
5.8570004 -3.038388 2.2250257 0
5.8520002 -3.0454805 2.223357 0
5.8470001 -3.0525548 2.2216885 0
5.8420005 -3.0596116 2.2200201 0
5.8370004 -3.0666502 2.2183514 0
5.8320003 -3.0736704 2.2166829 0
5.8270001 -3.0806727 2.2150142 0
5.8220005 -3.0876575 2.213346 0
5.8170004 -3.0946236 2.2116776 0
5.8120003 -3.1015718 2.2100089 0
5.8080006 -3.1090686 2.2086742 0
5.8030005 -3.1159823 2.2070055 0
5.7980003 -3.1228783 2.205337 0
5.7930002 -3.1297562 2.2036684 0
5.7880006 -3.1366162 2.2020001 0
6.5360003 -2.0825429 2.4405429 0
6.5300002 -2.0916088 2.4385514 0
6.5240002 -2.1006529 2.4365599 0
6.5170002 -2.1093383 2.4342368 0
6.5110002 -2.1183376 2.4322453 0
6.5050006 -2.1273153 2.430254 0
6.4980006 -2.1359284 2.4279306 0
6.4920006 -2.144861 2.4259393 0
6.4860005 -2.1537716 2.4239478 0
6.4800005 -2.1626608 2.4219565 0
6.4730005 -2.1711783 2.4196332 0
6.4670005 -2.1800225 2.4176419 0
6.4610004 -2.1888449 2.4156504 0
6.4550004 -2.1976457 2.4136591 0
6.4490004 -2.2064247 2.4116673 0
6.4420004 -2.2148232 2.4093442 0
6.4360003 -2.2235572 2.4073527 0
6.4300003 -2.2322698 2.4053612 0
6.4240003 -2.2409604 2.4033699 0
6.4180002 -2.2496295 2.4013784 0
6.4120002 -2.2582769 2.3993869 0
6.4060006 -2.2669029 2.3973958 0
6.4000006 -2.2755072 2.3954043 0
6.3930006 -2.2837162 2.3930809 0
6.3870006 -2.2922754 2.3910894 0
6.3810005 -2.3008125 2.3890982 0
6.3750005 -2.3093286 2.3871067 0
6.3690004 -2.3178227 2.3851154 0
6.3630004 -2.3262949 2.3831239 0
6.3570004 -2.3347459 2.3811324 0
6.3510003 -2.3431749 2.3791411 0
6.3450003 -2.3515825 2.3771496 0
6.3390002 -2.3599684 2.3751583 0
6.3330002 -2.3683329 2.3731668 0
6.3270001 -2.3766754 2.3711755 0
6.3220005 -2.3853915 2.3695161 0
6.3160005 -2.3936925 2.3675246 0
6.3100004 -2.4019721 2.3655331 0
6.3040004 -2.4102299 2.3635418 0
6.2980003 -2.4184659 2.3615503 0
6.2920003 -2.4266806 2.3595591 0
6.2860003 -2.4348733 2.3575675 0
6.2800002 -2.4430447 2.3555763 0
6.2750006 -2.4516039 2.3539169 0
6.2690005 -2.4597335 2.3519254 0
6.2630005 -2.4678416 2.3499341 0
6.2570004 -2.4759283 2.3479426 0
6.2510004 -2.4839928 2.3459511 0
6.2450004 -2.4920361 2.3439598 0
6.2400002 -2.500478 2.3423002 0
6.2340002 -2.5084796 2.3403087 0
6.2280002 -2.5164595 2.3383174 0
6.2220006 -2.5244181 2.3363259 0
6.2170005 -2.5327826 2.3346665 0
6.2110004 -2.5406992 2.3326752 0
6.2050004 -2.5485945 2.3306837 0
6.2000003 -2.556901 2.3290241 0
6.1940002 -2.5647547 2.3270328 0
6.1880002 -2.572587 2.3250413 0
6.1830006 -2.5808361 2.3233819 0
6.1770005 -2.5886266 2.3213904 0
6.1710005 -2.5963955 2.3193989 0
6.1660004 -2.6045864 2.3177395 0
6.1600003 -2.612314 2.3157482 0
6.1550002 -2.6204672 2.3140886 0
6.1490002 -2.6281531 2.3120971 0
6.1430006 -2.6358178 2.3101058 0
6.1380005 -2.6439133 2.3084464 0
6.1320004 -2.6515362 2.3064549 0
6.1270003 -2.6595936 2.3047955 0
6.1210003 -2.6671751 2.302804 0
6.1160002 -2.6751947 2.3011444 0
6.1100001 -2.6827347 2.2991531 0
6.1050005 -2.6907165 2.2974937 0
6.0990005 -2.698215 2.2955022 0
6.0940003 -2.7061591 2.2938426 0
6.0880003 -2.7136159 2.2918513 0
6.0830002 -2.7215221 2.2901917 0
6.0770001 -2.7289374 2.2882001 0
6.0720005 -2.7368057 2.286541 0
6.0660005 -2.7441797 2.2845495 0
6.0610003 -2.7520099 2.2828898 0
6.0560002 -2.7598224 2.2812302 0
6.0500002 -2.7671349 2.2792389 0
6.0450006 -2.7749095 2.2775795 0
6.0390005 -2.7821805 2.275588 0
6.0340004 -2.789917 2.2739286 0
6.0290003 -2.7976356 2.2722692 0
6.0230002 -2.8048453 2.2702777 0
6.0180001 -2.8125257 2.2686181 0
6.0130005 -2.8201888 2.2669587 0
6.0070004 -2.827337 2.2649674 0
6.0020003 -2.8349617 2.2633078 0
5.9970002 -2.8425682 2.2616482 0
5.9910002 -2.8496554 2.2596569 0
5.9860005 -2.8572245 2.2579975 0
5.9810004 -2.8647749 2.2563379 0
5.9760003 -2.8723078 2.2546782 0
5.9700003 -2.8793137 2.252687 0
5.9650002 -2.8868084 2.2510273 0
5.9600005 -2.8942854 2.249368 0
5.9550004 -2.9017441 2.2477086 0
5.9500003 -2.9091847 2.2460489 0
5.9440002 -2.9160898 2.2440574 0
5.9390001 -2.9234927 2.242398 0
5.9340005 -2.9308777 2.2407386 0
5.9290004 -2.9382441 2.239079 0
5.9240003 -2.9455926 2.2374194 0
5.9180002 -2.9523966 2.2354281 0
5.9130006 -2.9597077 2.2337687 0
5.9080005 -2.9670005 2.2321091 0
5.9030004 -2.9742754 2.2304497 0
5.8980002 -2.9815319 2.22879 0
5.8930001 -2.9887705 2.2271307 0
5.8880005 -2.9959912 2.225471 0
5.8830004 -3.0031939 2.2238116 0
5.8780003 -3.0103784 2.222152 0
5.8730001 -3.017545 2.2204924 0
5.8670006 -3.0241489 2.2185013 0
5.8620005 -3.0312774 2.2168417 0
5.8570004 -3.038388 2.2151823 0
5.8520002 -3.0454805 2.2135227 0
5.8470001 -3.0525548 2.211863 0
5.8420005 -3.0596116 2.2102036 0
5.8370004 -3.0666502 2.2085443 0
5.8320003 -3.0736704 2.2068846 0
5.8270001 -3.0806727 2.205225 0
5.8220005 -3.0876575 2.2035656 0
5.8170004 -3.0946236 2.2019062 0
5.8120003 -3.1015718 2.2002466 0
5.8080006 -3.1090686 2.1989191 0
5.8030005 -3.1159823 2.1972594 0
5.7980003 -3.1228783 2.1956 0
5.7930002 -3.1297562 2.1939404 0
5.7880006 -3.1366162 2.192281 0
6.5360003 -2.0825429 2.4294746 0
6.5300002 -2.0916088 2.427494 0
6.5240002 -2.1006529 2.4255135 0
6.5170002 -2.1093383 2.4232028 0
6.5110002 -2.1183376 2.4212222 0
6.5050006 -2.1273153 2.4192417 0
6.4980006 -2.1359284 2.4169309 0
6.4920006 -2.144861 2.4149504 0
6.4860005 -2.1537716 2.4129698 0
6.4800005 -2.1626608 2.4109893 0
6.4730005 -2.1711783 2.4086788 0
6.4670005 -2.1800225 2.406698 0
6.4610004 -2.1888449 2.4047174 0
6.4550004 -2.1976457 2.4027367 0
6.4490004 -2.2064247 2.4007561 0
6.4420004 -2.2148232 2.3984454 0
6.4360003 -2.2235572 2.3964648 0
6.4300003 -2.2322698 2.3944843 0
6.4240003 -2.2409604 2.3925037 0
6.4180002 -2.2496295 2.3905232 0
6.4120002 -2.2582769 2.3885427 0
6.4060006 -2.2669029 2.3865621 0
6.4000006 -2.2755072 2.3845816 0
6.3930006 -2.2837162 2.3822708 0
6.3870006 -2.2922754 2.3802903 0
6.3810005 -2.3008125 2.3783097 0
6.3750005 -2.3093286 2.3763289 0
6.3690004 -2.3178227 2.3743484 0
6.3630004 -2.3262949 2.3723679 0
6.3570004 -2.3347459 2.3703873 0
6.3510003 -2.3431749 2.3684068 0
6.3450003 -2.3515825 2.366426 0
6.3390002 -2.3599684 2.3644454 0
6.3330002 -2.3683329 2.3624649 0
6.3270001 -2.3766754 2.3604841 0
6.3220005 -2.3853915 2.3588338 0
6.3160005 -2.3936925 2.3568532 0
6.3100004 -2.4019721 2.3548727 0
6.3040004 -2.4102299 2.3528919 0
6.2980003 -2.4184659 2.3509114 0
6.2920003 -2.4266806 2.3489311 0
6.2860003 -2.4348733 2.3469503 0
6.2800002 -2.4430447 2.3449697 0
6.2750006 -2.4516039 2.3433194 0
6.2690005 -2.4597335 2.3413389 0
6.2630005 -2.4678416 2.3393581 0
6.2570004 -2.4759283 2.3373775 0
6.2510004 -2.4839928 2.335397 0
6.2450004 -2.4920361 2.3334162 0
6.2400002 -2.500478 2.3317659 0
6.2340002 -2.5084796 2.3297853 0
6.2280002 -2.5164595 2.3278048 0
6.2220006 -2.5244181 2.3258243 0
6.2170005 -2.5327826 2.3241737 0
6.2110004 -2.5406992 2.3221931 0
6.2050004 -2.5485945 2.3202126 0
6.2000003 -2.556901 2.318562 0
6.1940002 -2.5647547 2.3165815 0
6.1880002 -2.572587 2.3146007 0
6.1830006 -2.5808361 2.3129504 0
6.1770005 -2.5886266 2.3109698 0
6.1710005 -2.5963955 2.3089893 0
6.1660004 -2.6045864 2.307339 0
6.1600003 -2.612314 2.3053582 0
6.1550002 -2.6204672 2.3037076 0
6.1490002 -2.6281531 2.3017271 0
6.1430006 -2.6358178 2.2997468 0
6.1380005 -2.6439133 2.2980962 0
6.1320004 -2.6515362 2.2961154 0
6.1270003 -2.6595936 2.2944648 0
6.1210003 -2.6671751 2.2924843 0
6.1160002 -2.6751947 2.2908337 0
6.1100001 -2.6827347 2.2888534 0
6.1050005 -2.6907165 2.2872028 0
6.0990005 -2.698215 2.2852223 0
6.0940003 -2.7061591 2.2835717 0
6.0880003 -2.7136159 2.2815912 0
6.0830002 -2.7215221 2.2799406 0
6.0770001 -2.7289374 2.2779601 0
6.0720005 -2.7368057 2.2763097 0
6.0660005 -2.7441797 2.2743289 0
6.0610003 -2.7520099 2.2726786 0
6.0560002 -2.7598224 2.271028 0
6.0500002 -2.7671349 2.2690475 0
6.0450006 -2.7749095 2.2673969 0
6.0390005 -2.7821805 2.2654166 0
6.0340004 -2.789917 2.2637661 0
6.0290003 -2.7976356 2.2621155 0
6.0230002 -2.8048453 2.2601349 0
6.0180001 -2.8125257 2.2584844 0
6.0130005 -2.8201888 2.256834 0
6.0070004 -2.827337 2.2548532 0
6.0020003 -2.8349617 2.2532027 0
5.9970002 -2.8425682 2.2515523 0
5.9910002 -2.8496554 2.2495718 0
5.9860005 -2.8572245 2.2479215 0
5.9810004 -2.8647749 2.2462709 0
5.9760003 -2.8723078 2.2446203 0
5.9700003 -2.8793137 2.2426398 0
5.9650002 -2.8868084 2.2409892 0
5.9600005 -2.8942854 2.2393389 0
5.9550004 -2.9017441 2.2376883 0
5.9500003 -2.9091847 2.2360377 0
5.9440002 -2.9160898 2.2340572 0
5.9390001 -2.9234927 2.2324066 0
5.9340005 -2.9308777 2.2307563 0
5.9290004 -2.9382441 2.2291057 0
5.9240003 -2.9455926 2.2274554 0
5.9180002 -2.9523966 2.2254746 0
5.9130006 -2.9597077 2.2238243 0
5.9080005 -2.9670005 2.2221737 0
5.9030004 -2.9742754 2.2205234 0
5.8980002 -2.9815319 2.2188728 0
5.8930001 -2.9887705 2.2172222 0
5.8880005 -2.9959912 2.2155719 0
5.8830004 -3.0031939 2.2139213 0
5.8780003 -3.0103784 2.212271 0
5.8730001 -3.017545 2.2106204 0
5.8670006 -3.0241489 2.2086399 0
5.8620005 -3.0312774 2.2069893 0
5.8570004 -3.038388 2.2053387 0
5.8520002 -3.0454805 2.2036881 0
5.8470001 -3.0525548 2.2020378 0
5.8420005 -3.0596116 2.2003872 0
5.8370004 -3.0666502 2.1987369 0
5.8320003 -3.0736704 2.1970863 0
5.8270001 -3.0806727 2.1954358 0
5.8220005 -3.0876575 2.1937854 0
5.8170004 -3.0946236 2.1921349 0
5.8120003 -3.1015718 2.1904845 0
5.8080006 -3.1090686 2.1891642 0
5.8030005 -3.1159823 2.1875136 0
5.7980003 -3.1228783 2.185863 0
5.7930002 -3.1297562 2.1842124 0
5.7880006 -3.1366162 2.1825621 0
6.5360003 -2.0825429 2.4184065 0
6.5300002 -2.0916088 2.4164367 0
6.5240002 -2.1006529 2.4144669 0
6.5170002 -2.1093383 2.412169 0
6.5110002 -2.1183376 2.4101992 0
6.5050006 -2.1273153 2.4082296 0
6.4980006 -2.1359284 2.4059315 0
6.4920006 -2.144861 2.4039617 0
6.4860005 -2.1537716 2.4019918 0
6.4800005 -2.1626608 2.400022 0
6.4730005 -2.1711783 2.3977242 0
6.4670005 -2.1800225 2.3957543 0
6.4610004 -2.1888449 2.3937845 0
6.4550004 -2.1976457 2.3918147 0
6.4490004 -2.2064247 2.3898449 0
6.4420004 -2.2148232 2.3875468 0
6.4360003 -2.2235572 2.385577 0
6.4300003 -2.2322698 2.3836074 0
6.4240003 -2.2409604 2.3816376 0
6.4180002 -2.2496295 2.3796678 0
6.4120002 -2.2582769 2.3776979 0
6.4060006 -2.2669029 2.3757284 0
6.4000006 -2.2755072 2.3737588 0
6.3930006 -2.2837162 2.3714607 0
6.3870006 -2.2922754 2.3694906 0
6.3810005 -2.3008125 2.367521 0
6.3750005 -2.3093286 2.3655512 0
6.3690004 -2.3178227 2.3635814 0
6.3630004 -2.3262949 2.3616118 0
6.3570004 -2.3347459 2.359642 0
6.3510003 -2.3431749 2.3576722 0
6.3450003 -2.3515825 2.3557024 0
6.3390002 -2.3599684 2.3537328 0
6.3330002 -2.3683329 2.351763 0
6.3270001 -2.3766754 2.349793 0
6.3220005 -2.3853915 2.3481517 0
6.3160005 -2.3936925 2.3461819 0
6.3100004 -2.4019721 2.3442123 0
6.3040004 -2.4102299 2.3422425 0
6.2980003 -2.4184659 2.3402727 0
6.2920003 -2.4266806 2.3383029 0
6.2860003 -2.4348733 2.3363333 0
6.2800002 -2.4430447 2.3343635 0
6.2750006 -2.4516039 2.3327219 0
6.2690005 -2.4597335 2.3307521 0
6.2630005 -2.4678416 2.3287823 0
6.2570004 -2.4759283 2.3268127 0
6.2510004 -2.4839928 2.3248429 0
6.2450004 -2.4920361 2.3228731 0
6.2400002 -2.500478 2.3212316 0
6.2340002 -2.5084796 2.3192618 0
6.2280002 -2.5164595 2.3172922 0
6.2220006 -2.5244181 2.3153226 0
6.2170005 -2.5327826 2.3136811 0
6.2110004 -2.5406992 2.3117111 0
6.2050004 -2.5485945 2.3097413 0
6.2000003 -2.556901 2.3080997 0
6.1940002 -2.5647547 2.3061302 0
6.1880002 -2.572587 2.3041604 0
6.1830006 -2.5808361 2.3025191 0
6.1770005 -2.5886266 2.3005493 0
6.1710005 -2.5963955 2.2985795 0
6.1660004 -2.6045864 2.2969382 0
6.1600003 -2.612314 2.2949684 0
6.1550002 -2.6204672 2.2933269 0
6.1490002 -2.6281531 2.2913568 0
6.1430006 -2.6358178 2.2893872 0
6.1380005 -2.6439133 2.2877457 0
6.1320004 -2.6515362 2.2857761 0
6.1270003 -2.6595936 2.2841346 0
6.1210003 -2.6671751 2.2821648 0
6.1160002 -2.6751947 2.2805233 0
6.1100001 -2.6827347 2.2785535 0
6.1050005 -2.6907165 2.2769122 0
6.0990005 -2.698215 2.2749424 0
6.0940003 -2.7061591 2.2733009 0
6.0880003 -2.7136159 2.2713311 0
6.0830002 -2.7215221 2.2696896 0
6.0770001 -2.7289374 2.2677197 0
6.0720005 -2.7368057 2.2660785 0
6.0660005 -2.7441797 2.2641087 0
6.0610003 -2.7520099 2.2624671 0
6.0560002 -2.7598224 2.2608256 0
6.0500002 -2.7671349 2.2588561 0
6.0450006 -2.7749095 2.2572148 0
6.0390005 -2.7821805 2.2552447 0
6.0340004 -2.789917 2.2536032 0
6.0290003 -2.7976356 2.2519617 0
6.0230002 -2.8048453 2.2499921 0
6.0180001 -2.8125257 2.2483506 0
6.0130005 -2.8201888 2.2467093 0
6.0070004 -2.827337 2.2447393 0
6.0020003 -2.8349617 2.2430978 0
5.9970002 -2.8425682 2.2414565 0
5.9910002 -2.8496554 2.2394867 0
5.9860005 -2.8572245 2.2378454 0
5.9810004 -2.8647749 2.2362039 0
5.9760003 -2.8723078 2.2345622 0
5.9700003 -2.8793137 2.2325926 0
5.9650002 -2.8868084 2.2309511 0
5.9600005 -2.8942854 2.2293098 0
5.9550004 -2.9017441 2.2276683 0
5.9500003 -2.9091847 2.2260268 0
5.9440002 -2.9160898 2.224057 0
5.9390001 -2.9234927 2.2224154 0
5.9340005 -2.9308777 2.2207739 0
5.9290004 -2.9382441 2.2191327 0
5.9240003 -2.9455926 2.2174911 0
5.9180002 -2.9523966 2.2155213 0
5.9130006 -2.9597077 2.2138798 0
5.9080005 -2.9670005 2.2122383 0
5.9030004 -2.9742754 2.2105968 0
5.8980002 -2.9815319 2.2089555 0
5.8930001 -2.9887705 2.207314 0
5.8880005 -2.9959912 2.2056725 0
5.8830004 -3.0031939 2.204031 0
5.8780003 -3.0103784 2.2023895 0
5.8730001 -3.017545 2.200748 0
5.8670006 -3.0241489 2.1987784 0
5.8620005 -3.0312774 2.1971369 0
5.8570004 -3.038388 2.1954954 0
5.8520002 -3.0454805 2.1938539 0
5.8470001 -3.0525548 2.1922123 0
5.8420005 -3.0596116 2.1905711 0
5.8370004 -3.0666502 2.1889296 0
5.8320003 -3.0736704 2.187288 0
5.8270001 -3.0806727 2.1856465 0
5.8220005 -3.0876575 2.1840053 0
5.8170004 -3.0946236 2.1823637 0
5.8120003 -3.1015718 2.1807222 0
5.8080006 -3.1090686 2.1794093 0
5.8030005 -3.1159823 2.1777678 0
5.7980003 -3.1228783 2.176126 0
5.7930002 -3.1297562 2.1744845 0
5.7880006 -3.1366162 2.1728432 0
6.5360003 -2.0825429 2.4073384 0
6.5300002 -2.0916088 2.4053793 0
6.5240002 -2.1006529 2.4034202 0
6.5170002 -2.1093383 2.401135 0
6.5110002 -2.1183376 2.3991761 0
6.5050006 -2.1273153 2.3972173 0
6.4980006 -2.1359284 2.3949316 0
6.4920006 -2.144861 2.3929727 0
6.4860005 -2.1537716 2.3910139 0
6.4800005 -2.1626608 2.389055 0
6.4730005 -2.1711783 2.3867695 0
6.4670005 -2.1800225 2.3848104 0
6.4610004 -2.1888449 2.3828516 0
6.4550004 -2.1976457 2.3808928 0
6.4490004 -2.2064247 2.3789337 0
6.4420004 -2.2148232 2.3766482 0
6.4360003 -2.2235572 2.3746893 0
6.4300003 -2.2322698 2.3727305 0
6.4240003 -2.2409604 2.3707714 0
6.4180002 -2.2496295 2.3688126 0
6.4120002 -2.2582769 2.3668535 0
6.4060006 -2.2669029 2.3648946 0
6.4000006 -2.2755072 2.3629358 0
6.3930006 -2.2837162 2.3606503 0
6.3870006 -2.2922754 2.3586915 0
6.3810005 -2.3008125 2.3567324 0
6.3750005 -2.3093286 2.3547735 0
6.3690004 -2.3178227 2.3528144 0
6.3630004 -2.3262949 2.3508558 0
6.3570004 -2.3347459 2.3488967 0
6.3510003 -2.3431749 2.3469377 0
6.3450003 -2.3515825 2.3449788 0
6.3390002 -2.3599684 2.3430197 0
6.3330002 -2.3683329 2.3410609 0
6.3270001 -2.3766754 2.3391018 0
6.3220005 -2.3853915 2.3374696 0
6.3160005 -2.3936925 2.3355105 0
6.3100004 -2.4019721 2.3335516 0
6.3040004 -2.4102299 2.3315928 0
6.2980003 -2.4184659 2.329634 0
6.2920003 -2.4266806 2.3276749 0
6.2860003 -2.4348733 2.325716 0
6.2800002 -2.4430447 2.3237569 0
6.2750006 -2.4516039 2.3221247 0
6.2690005 -2.4597335 2.3201656 0
6.2630005 -2.4678416 2.3182068 0
6.2570004 -2.4759283 2.3162477 0
6.2510004 -2.4839928 2.3142889 0
6.2450004 -2.4920361 2.31233 0
6.2400002 -2.500478 2.3106973 0
6.2340002 -2.5084796 2.3087385 0
6.2280002 -2.5164595 2.3067796 0
6.2220006 -2.5244181 2.3048208 0
6.2170005 -2.5327826 2.3031883 0
6.2110004 -2.5406992 2.3012292 0
6.2050004 -2.5485945 2.2992704 0
6.2000003 -2.556901 2.2976379 0
6.1940002 -2.5647547 2.2956789 0
6.1880002 -2.572587 2.29372 0
6.1830006 -2.5808361 2.2920878 0
6.1770005 -2.5886266 2.2901287 0
6.1710005 -2.5963955 2.2881696 0
6.1660004 -2.6045864 2.2865372 0
6.1600003 -2.612314 2.2845783 0
6.1550002 -2.6204672 2.2829459 0
6.1490002 -2.6281531 2.2809868 0
6.1430006 -2.6358178 2.2790279 0
6.1380005 -2.6439133 2.2773957 0
6.1320004 -2.6515362 2.2754366 0
6.1270003 -2.6595936 2.2738042 0
6.1210003 -2.6671751 2.2718451 0
6.1160002 -2.6751947 2.2702129 0
6.1100001 -2.6827347 2.2682538 0
6.1050005 -2.6907165 2.2666216 0
6.0990005 -2.698215 2.2646625 0
6.0940003 -2.7061591 2.2630301 0
6.0880003 -2.7136159 2.2610712 0
6.0830002 -2.7215221 2.2594385 0
6.0770001 -2.7289374 2.2574797 0
6.0720005 -2.7368057 2.2558472 0
6.0660005 -2.7441797 2.2538884 0
6.0610003 -2.7520099 2.2522557 0
6.0560002 -2.7598224 2.2506235 0
6.0500002 -2.7671349 2.2486644 0
6.0450006 -2.7749095 2.2470319 0
6.0390005 -2.7821805 2.2450731 0
6.0340004 -2.789917 2.2434406 0
6.0290003 -2.7976356 2.2418082 0
6.0230002 -2.8048453 2.2398491 0
6.0180001 -2.8125257 2.2382169 0
6.0130005 -2.8201888 2.2365844 0
6.0070004 -2.827337 2.2346256 0
6.0020003 -2.8349617 2.2329929 0
5.9970002 -2.8425682 2.2313604 0
5.9910002 -2.8496554 2.2294016 0
5.9860005 -2.8572245 2.2277691 0
5.9810004 -2.8647749 2.2261367 0
5.9760003 -2.8723078 2.2245042 0
5.9700003 -2.8793137 2.2225454 0
5.9650002 -2.8868084 2.2209129 0
5.9600005 -2.8942854 2.2192805 0
5.9550004 -2.9017441 2.217648 0
5.9500003 -2.9091847 2.2160156 0
5.9440002 -2.9160898 2.2140567 0
5.9390001 -2.9234927 2.212424 0
5.9340005 -2.9308777 2.2107918 0
5.9290004 -2.9382441 2.2091591 0
5.9240003 -2.9455926 2.2075269 0
5.9180002 -2.9523966 2.2055678 0
5.9130006 -2.9597077 2.2039356 0
5.9080005 -2.9670005 2.2023029 0
5.9030004 -2.9742754 2.2006705 0
5.8980002 -2.9815319 2.199038 0
5.8930001 -2.9887705 2.1974056 0
5.8880005 -2.9959912 2.1957731 0
5.8830004 -3.0031939 2.1941407 0
5.8780003 -3.0103784 2.1925082 0
5.8730001 -3.017545 2.1908758 0
5.8670006 -3.0241489 2.1889169 0
5.8620005 -3.0312774 2.1872845 0
5.8570004 -3.038388 2.185652 0
5.8520002 -3.0454805 2.1840196 0
5.8470001 -3.0525548 2.1823871 0
5.8420005 -3.0596116 2.1807547 0
5.8370004 -3.0666502 2.1791222 0
5.8320003 -3.0736704 2.1774898 0
5.8270001 -3.0806727 2.1758573 0
5.8220005 -3.0876575 2.1742251 0
5.8170004 -3.0946236 2.1725924 0
5.8120003 -3.1015718 2.1709599 0
5.8080006 -3.1090686 2.1696541 0
5.8030005 -3.1159823 2.1680217 0
5.7980003 -3.1228783 2.1663892 0
5.7930002 -3.1297562 2.1647565 0
5.7880006 -3.1366162 2.1631243 0
6.5360003 -2.0825429 2.39627 0
6.5300002 -2.0916088 2.3943219 0
6.5240002 -2.1006529 2.3923738 0
6.5170002 -2.1093383 2.3901012 0
6.5110002 -2.1183376 2.3881528 0
6.5050006 -2.1273153 2.386205 0
6.4980006 -2.1359284 2.3839321 0
6.4920006 -2.144861 2.381984 0
6.4860005 -2.1537716 2.3800359 0
6.4800005 -2.1626608 2.3780878 0
6.4730005 -2.1711783 2.3758152 0
6.4670005 -2.1800225 2.3738668 0
6.4610004 -2.1888449 2.3719187 0
6.4550004 -2.1976457 2.3699706 0
6.4490004 -2.2064247 2.3680224 0
6.4420004 -2.2148232 2.3657496 0
6.4360003 -2.2235572 2.3638017 0
6.4300003 -2.2322698 2.3618534 0
6.4240003 -2.2409604 2.3599052 0
6.4180002 -2.2496295 2.3579571 0
6.4120002 -2.2582769 2.356009 0
6.4060006 -2.2669029 2.3540611 0
6.4000006 -2.2755072 2.352113 0
6.3930006 -2.2837162 2.3498402 0
6.3870006 -2.2922754 2.347892 0
6.3810005 -2.3008125 2.3459439 0
6.3750005 -2.3093286 2.3439958 0
6.3690004 -2.3178227 2.3420477 0
6.3630004 -2.3262949 2.3400996 0
6.3570004 -2.3347459 2.3381512 0
6.3510003 -2.3431749 2.3362033 0
6.3450003 -2.3515825 2.334255 0
6.3390002 -2.3599684 2.3323071 0
6.3330002 -2.3683329 2.330359 0
6.3270001 -2.3766754 2.3284106 0
6.3220005 -2.3853915 2.3267875 0
6.3160005 -2.3936925 2.3248394 0
6.3100004 -2.4019721 2.3228912 0
6.3040004 -2.4102299 2.3209431 0
6.2980003 -2.4184659 2.318995 0
6.2920003 -2.4266806 2.3170469 0
6.2860003 -2.4348733 2.3150985 0
6.2800002 -2.4430447 2.3131506 0
6.2750006 -2.4516039 2.3115273 0
6.2690005 -2.4597335 2.3095791 0
6.2630005 -2.4678416 2.307631 0
6.2570004 -2.4759283 2.3056829 0
6.2510004 -2.4839928 2.3037348 0
6.2450004 -2.4920361 2.3017867 0
6.2400002 -2.500478 2.3001633 0
6.2340002 -2.5084796 2.2982149 0
6.2280002 -2.5164595 2.296267 0
6.2220006 -2.5244181 2.2943189 0
6.2170005 -2.5327826 2.2926955 0
6.2110004 -2.5406992 2.2907474 0
6.2050004 -2.5485945 2.288799 0
6.2000003 -2.556901 2.2871757 0
6.1940002 -2.5647547 2.2852275 0
6.1880002 -2.572587 2.2832794 0
6.1830006 -2.5808361 2.2816563 0
6.1770005 -2.5886266 2.2797081 0
6.1710005 -2.5963955 2.2777598 0
6.1660004 -2.6045864 2.2761364 0
6.1600003 -2.612314 2.2741883 0
6.1550002 -2.6204672 2.2725649 0
6.1490002 -2.6281531 2.2706168 0
