# .PCD v0.7 - Point Cloud Data file format
VERSION 0.7
FIELDS x y z intensity
SIZE 4 4 4 4
TYPE F F F F
COUNT 1 1 1 1
WIDTH 1414
HEIGHT 1
VIEWPOINT 0 0 0 1 0 0 0
POINTS 1414
DATA ascii
3.7540002 1.0127453 0.33140033 0
3.7520003 1.0060676 0.33144364 0
3.7510002 0.99970913 0.33146527 0
3.7510002 0.9936645 0.33146527 0
3.7520003 0.98792839 0.33144364 0
3.7530003 0.9821887 0.33142197 0
3.7550004 0.97675025 0.3313787 0
3.7580004 0.97160757 0.33131376 0
3.7610002 0.96645403 0.33124882 0
3.7650003 0.96158922 0.33116221 0
3.7700002 0.95700765 0.331054 0
3.7760003 0.95270365 0.33092415 0
3.7840002 0.94896609 0.33075097 0
3.8010004 0.83740431 0.330383 0
3.7980003 0.83049572 0.33044794 0
3.7970002 0.82411021 0.33046958 0
3.7970002 0.81798267 0.33046958 0
3.7980003 0.81210768 0.33044794 0
3.8000002 0.80647975 0.33040464 0
3.8040001 0.80134249 0.33031806 0
3.8100002 0.7966851 0.33018818 0
3.8870003 0.55153853 0.32852146 0
3.8830004 0.54457045 0.32860804 0
3.8820002 0.53812003 0.3286297 0
3.8810003 0.53167319 0.32865134 0
3.8820002 0.52555823 0.3286297 0
3.8850002 0.51976448 0.32856476 0
3.8890002 0.51412028 0.32847816 0
3.8950002 0.50877923 0.32834828 0
3.7620003 1.0273994 0.32516277 0
3.7570002 1.0197476 0.32528001 0
3.7540002 1.0127453 0.32535037 0
3.7520003 1.0060676 0.32539725 0
3.7510002 0.99970913 0.32542074 0
3.7510002 0.9936645 0.32542074 0
3.7520003 0.98792839 0.32539725 0
3.7530003 0.9821887 0.32537383 0
3.7550004 0.97675025 0.32532692 0
3.7580004 0.97160757 0.32525659 0
3.7610002 0.96645403 0.32518622 0
3.7650003 0.96158922 0.32509243 0
3.7700002 0.95700765 0.32497519 0
3.7760003 0.95270365 0.32483447 0
3.7840002 0.94896609 0.32464689 0
3.8010004 0.83740431 0.32424822 0
3.7980003 0.83049572 0.32431859 0
3.7970002 0.82411021 0.32434204 0
3.7970002 0.81798267 0.32434204 0
3.7980003 0.81210768 0.32431859 0
3.8000002 0.80647975 0.32427168 0
3.8040001 0.80134249 0.32417789 0
3.8100002 0.7966851 0.32403719 0
3.8870003 0.55153853 0.32223159 0
3.8830004 0.54457045 0.32232538 0
3.8820002 0.53812003 0.32234883 0
3.8810003 0.53167319 0.32237229 0
3.8820002 0.52555823 0.32234883 0
3.8850002 0.51976448 0.3222785 0
3.8890002 0.51412028 0.32218468 0
3.8950002 0.50877923 0.32204399 0
3.7620003 1.0273994 0.31909835 0
3.7570002 1.0197476 0.31922463 0
3.7540002 1.0127453 0.31930041 0
3.7520003 1.0060676 0.3193509 0
3.7510002 0.99970913 0.31937617 0
3.7510002 0.9936645 0.31937617 0
3.7520003 0.98792839 0.3193509 0
3.7530003 0.9821887 0.31932566 0
3.7550004 0.97675025 0.31927514 0
3.7580004 0.97160757 0.31919938 0
3.7610002 0.96645403 0.31912363 0
3.7650003 0.96158922 0.3190226 0
3.7700002 0.95700765 0.31889635 0
3.7760003 0.95270365 0.31874481 0
3.7840002 0.94896609 0.31854281 0
3.8010004 0.83740431 0.31811351 0
3.7980003 0.83049572 0.31818926 0
3.7970002 0.82411021 0.31821451 0
3.7970002 0.81798267 0.31821451 0
3.7980003 0.81210768 0.31818926 0
3.8000002 0.80647975 0.31813875 0
3.8040001 0.80134249 0.31803772 0
3.8100002 0.7966851 0.3178862 0
3.8870003 0.55153853 0.31594169 0
3.8830004 0.54457045 0.31604272 0
3.8820002 0.53812003 0.31606796 0
3.8810003 0.53167319 0.31609324 0
3.8820002 0.52555823 0.31606796 0
3.8850002 0.51976448 0.31599221 0
3.8890002 0.51412028 0.31589121 0
3.8950002 0.50877923 0.31573969 0
3.7620003 1.0273994 0.31303397 0
3.7570002 1.0197476 0.31316924 0
3.7540002 1.0127453 0.31325042 0
3.7520003 1.0060676 0.31330454 0
3.7510002 0.99970913 0.3133316 0
3.7510002 0.9936645 0.3133316 0
3.7520003 0.98792839 0.31330454 0
3.7530003 0.9821887 0.31327748 0
3.7550004 0.97675025 0.31322336 0
3.7580004 0.97160757 0.31314218 0
3.7610002 0.96645403 0.31306103 0
3.7650003 0.96158922 0.31295279 0
3.7700002 0.95700765 0.31281751 0
3.7760003 0.95270365 0.31265515 0
3.7840002 0.94896609 0.31243873 0
3.8010004 0.83740431 0.31197873 0
3.7980003 0.83049572 0.31205991 0
3.7970002 0.82411021 0.31208697 0
3.7970002 0.81798267 0.31208697 0
3.7980003 0.81210768 0.31205991 0
3.8000002 0.80647975 0.31200579 0
3.8040001 0.80134249 0.31189758 0
3.8100002 0.7966851 0.31173521 0
3.8870003 0.55153853 0.30965182 0
3.8830004 0.54457045 0.30976003 0
3.8820002 0.53812003 0.30978709 0
3.8810003 0.53167319 0.30981416 0
3.8820002 0.52555823 0.30978709 0
3.8850002 0.51976448 0.30970594 0
3.8890002 0.51412028 0.3095977 0
3.8950002 0.50877923 0.30943537 0
3.7620003 1.0273994 0.30696955 0
3.7570002 1.0197476 0.30711389 0
3.7540002 1.0127453 0.30720046 0
3.7520003 1.0060676 0.30725816 0
3.7510002 0.99970913 0.30728704 0
3.7510002 0.9936645 0.30728704 0
3.7520003 0.98792839 0.30725816 0
3.7530003 0.9821887 0.30722931 0
3.7550004 0.97675025 0.30717158 0
3.7580004 0.97160757 0.30708501 0
3.7610002 0.96645403 0.30699843 0
3.7650003 0.96158922 0.30688298 0
3.7700002 0.95700765 0.30673867 0
3.7760003 0.95270365 0.30656552 0
3.7840002 0.94896609 0.30633461 0
3.8010004 0.83740431 0.30584398 0
3.7980003 0.83049572 0.30593055 0
3.7970002 0.82411021 0.30595943 0
3.7970002 0.81798267 0.30595943 0
3.7980003 0.81210768 0.30593055 0
3.8000002 0.80647975 0.30587286 0
3.8040001 0.80134249 0.3057574 0
3.8100002 0.7966851 0.30558425 0
3.8870003 0.55153853 0.30336195 0
3.8830004 0.54457045 0.30347738 0
3.8820002 0.53812003 0.30350626 0
3.8810003 0.53167319 0.3035351 0
3.8820002 0.52555823 0.30350626 0
3.8850002 0.51976448 0.30341965 0
3.8890002 0.51412028 0.30330423 0
3.8950002 0.50877923 0.30313104 0
3.7620003 1.0273994 0.30090517 0
3.7570002 1.0197476 0.30105847 0
3.7540002 1.0127453 0.30115047 0
3.7520003 1.0060676 0.3012118 0
3.7510002 0.99970913 0.30124247 0
3.7510002 0.9936645 0.30124247 0
3.7520003 0.98792839 0.3012118 0
3.7530003 0.9821887 0.30118114 0
3.7550004 0.97675025 0.3011198 0
3.7580004 0.97160757 0.3010278 0
3.7610002 0.96645403 0.30093583 0
3.7650003 0.96158922 0.30081317 0
3.7700002 0.95700765 0.30065984 0
3.7760003 0.95270365 0.30047584 0
3.7840002 0.94896609 0.30023053 0
3.8010004 0.83740431 0.29970923 0
3.7980003 0.83049572 0.29980123 0
3.7970002 0.82411021 0.2998319 0
3.7970002 0.81798267 0.2998319 0
3.7980003 0.81210768 0.29980123 0
3.8000002 0.80647975 0.2997399 0
3.8040001 0.80134249 0.29961723 0
3.8100002 0.7966851 0.29943326 0
3.8870003 0.55153853 0.29707205 0
3.8830004 0.54457045 0.29719472 0
3.8820002 0.53812003 0.29722539 0
3.8810003 0.53167319 0.29725605 0
3.8820002 0.52555823 0.29722539 0
3.8850002 0.51976448 0.29713339 0
3.8890002 0.51412028 0.29701075 0
3.8950002 0.50877923 0.29682675 0
3.7620003 1.0273994 0.29484075 0
3.7570002 1.0197476 0.29500312 0
3.7540002 1.0127453 0.29510051 0
3.7520003 1.0060676 0.29516542 0
3.7510002 0.99970913 0.2951979 0
3.7510002 0.9936645 0.2951979 0
3.7520003 0.98792839 0.29516542 0
3.7530003 0.9821887 0.29513296 0
3.7550004 0.97675025 0.29506803 0
3.7580004 0.97160757 0.29497063 0
3.7610002 0.96645403 0.29487324 0
3.7650003 0.96158922 0.29474336 0
3.7700002 0.95700765 0.294581 0
3.7760003 0.95270365 0.29438621 0
3.7840002 0.94896609 0.29412645 0
3.8010004 0.83740431 0.29357448 0
3.7980003 0.83049572 0.29367188 0
3.7970002 0.82411021 0.29370436 0
3.7970002 0.81798267 0.29370436 0
3.7980003 0.81210768 0.29367188 0
3.8000002 0.80647975 0.29360694 0
3.8040001 0.80134249 0.29347709 0
3.8100002 0.7966851 0.29328227 0
3.8870003 0.55153853 0.29078218 0
3.8830004 0.54457045 0.29091206 0
3.8820002 0.53812003 0.29094452 0
3.8810003 0.53167319 0.290977 0
3.8820002 0.52555823 0.29094452 0
3.8850002 0.51976448 0.29084712 0
3.8890002 0.51412028 0.29071724 0
3.8950002 0.50877923 0.29052243 0
3.7620003 1.0273994 0.28877634 0
3.7570002 1.0197476 0.2889477 0
3.7540002 1.0127453 0.28905052 0
3.7520003 1.0060676 0.28911906 0
3.7510002 0.99970913 0.28915334 0
3.7510002 0.9936645 0.28915334 0
3.7520003 0.98792839 0.28911906 0
3.7530003 0.9821887 0.28908479 0
3.7550004 0.97675025 0.28901625 0
3.7580004 0.97160757 0.28891343 0
3.7610002 0.96645403 0.28881061 0
3.7650003 0.96158922 0.28867352 0
3.7700002 0.95700765 0.28850219 0
3.7760003 0.95270365 0.28829652 0
3.7840002 0.94896609 0.28802237 0
3.8010004 0.83740431 0.28743973 0
3.7980003 0.83049572 0.28754255 0
3.7970002 0.82411021 0.28757682 0
3.7970002 0.81798267 0.28757682 0
3.7980003 0.81210768 0.28754255 0
3.8000002 0.80647975 0.28747401 0
3.8040001 0.80134249 0.28733692 0
3.8100002 0.7966851 0.28713128 0
3.8870003 0.55153853 0.28449231 0
3.8830004 0.54457045 0.2846294 0
3.8820002 0.53812003 0.28466368 0
3.8810003 0.53167319 0.28469795 0
3.8820002 0.52555823 0.28466368 0
3.8850002 0.51976448 0.28456086 0
3.8890002 0.51412028 0.28442377 0
3.8950002 0.50877923 0.28421813 0
3.7620003 1.0273994 0.28271195 0
3.7570002 1.0197476 0.28289235 0
3.7540002 1.0127453 0.28300056 0
3.7520003 1.0060676 0.28307271 0
3.7510002 0.99970913 0.28310877 0
3.7510002 0.9936645 0.28310877 0
3.7520003 0.98792839 0.28307271 0
3.7530003 0.9821887 0.28303662 0
3.7550004 0.97675025 0.28296447 0
3.7580004 0.97160757 0.28285626 0
3.7610002 0.96645403 0.28274804 0
3.7650003 0.96158922 0.28260371 0
3.7700002 0.95700765 0.28242335 0
3.7760003 0.95270365 0.28220689 0
3.7840002 0.94896609 0.28191829 0
3.8010004 0.83740431 0.28130499 0
3.7980003 0.83049572 0.2814132 0
3.7970002 0.82411021 0.28144929 0
3.7970002 0.81798267 0.28144929 0
3.7980003 0.81210768 0.2814132 0
3.8000002 0.80647975 0.28134108 0
3.8040001 0.80134249 0.28119674 0
3.8100002 0.7966851 0.28098029 0
3.8870003 0.55153853 0.27820241 0
3.8830004 0.54457045 0.27834672 0
3.8820002 0.53812003 0.27838284 0
3.8810003 0.53167319 0.2784189 0
3.8820002 0.52555823 0.27838284 0
3.8850002 0.51976448 0.2782746 0
3.8890002 0.51412028 0.27813029 0
3.8950002 0.50877923 0.27791381 0
3.7620003 1.0273994 0.27664754 0
3.7570002 1.0197476 0.27683693 0
3.7540002 1.0127453 0.2769506 0
3.7520003 1.0060676 0.27702636 0
3.7510002 0.99970913 0.27706423 0
3.7510002 0.9936645 0.27706423 0
3.7520003 0.98792839 0.27702636 0
3.7530003 0.9821887 0.27698845 0
3.7550004 0.97675025 0.27691269 0
3.7580004 0.97160757 0.27679908 0
3.7610002 0.96645403 0.27668542 0
3.7650003 0.96158922 0.2765339 0
3.7700002 0.95700765 0.27634451 0
3.7760003 0.95270365 0.27611721 0
3.7840002 0.94896609 0.27581418 0
3.8010004 0.83740431 0.27517021 0
3.7980003 0.83049572 0.27528387 0
3.7970002 0.82411021 0.27532175 0
3.7970002 0.81798267 0.27532175 0
3.7980003 0.81210768 0.27528387 0
3.8000002 0.80647975 0.27520812 0
3.8040001 0.80134249 0.2750566 0
3.8100002 0.7966851 0.27482933 0
3.8870003 0.55153853 0.27191254 0
3.8830004 0.54457045 0.27206406 0
3.8820002 0.53812003 0.27210194 0
3.8810003 0.53167319 0.27213982 0
3.8820002 0.52555823 0.27210194 0
3.8850002 0.51976448 0.2719883 0
3.8890002 0.51412028 0.27183679 0
3.8950002 0.50877923 0.27160949 0
3.7620003 1.0273994 0.27058315 0
3.7570002 1.0197476 0.27078158 0
3.7540002 1.0127453 0.27090061 0
3.7520003 1.0060676 0.27098 0
3.7510002 0.99970913 0.27101967 0
3.7510002 0.9936645 0.27101967 0
3.7520003 0.98792839 0.27098 0
3.7530003 0.9821887 0.2709403 0
3.7550004 0.97675025 0.27086091 0
3.7580004 0.97160757 0.27074188 0
3.7610002 0.96645403 0.27062285 0
3.7650003 0.96158922 0.27046409 0
3.7700002 0.95700765 0.2702657 0
3.7760003 0.95270365 0.27002758 0
3.7840002 0.94896609 0.26971012 0
3.8010004 0.83740431 0.26903546 0
3.7980003 0.83049572 0.26915452 0
3.7970002 0.82411021 0.26919422 0
3.7970002 0.81798267 0.26919422 0
3.7980003 0.81210768 0.26915452 0
3.8000002 0.80647975 0.26907516 0
3.8040001 0.80134249 0.26891643 0
3.8100002 0.7966851 0.26867831 0
3.8870003 0.55153853 0.26562268 0
3.8830004 0.54457045 0.2657814 0
3.8820002 0.53812003 0.2658211 0
3.8810003 0.53167319 0.2658608 0
3.8820002 0.52555823 0.2658211 0
3.8850002 0.51976448 0.26570204 0
3.8890002 0.51412028 0.26554328 0
3.8950002 0.50877923 0.26530522 0
3.7620003 1.0273994 0.26451874 0
3.7570002 1.0197476 0.26472616 0
3.7540002 1.0127453 0.26485065 0
3.7520003 1.0060676 0.26493359 0
3.7510002 0.99970913 0.26497513 0
3.7510002 0.9936645 0.26497513 0
3.7520003 0.98792839 0.26493359 0
3.7530003 0.9821887 0.26489213 0
3.7550004 0.97675025 0.26480913 0
3.7580004 0.97160757 0.26468468 0
3.7610002 0.96645403 0.26456022 0
3.7650003 0.96158922 0.26439428 0
3.7700002 0.95700765 0.26418686 0
3.7760003 0.95270365 0.26393792 0
3.7840002 0.94896609 0.26360601 0
3.8010004 0.83740431 0.26290071 0
3.7980003 0.83049572 0.26302516 0
3.7970002 0.82411021 0.26306668 0
3.7970002 0.81798267 0.26306668 0
3.7980003 0.81210768 0.26302516 0
3.8000002 0.80647975 0.26294219 0
3.8040001 0.80134249 0.26277626 0
3.8100002 0.7966851 0.26252735 0
3.8870003 0.55153853 0.25933278 0
3.8830004 0.54457045 0.25949872 0
3.8820002 0.53812003 0.25954023 0
3.8810003 0.53167319 0.25958171 0
3.8820002 0.52555823 0.25954023 0
3.8850002 0.51976448 0.25941575 0
3.8890002 0.51412028 0.25924981 0
3.8950002 0.50877923 0.2590009 0
3.7620003 1.0273994 0.25845432 0
3.7570002 1.0197476 0.25867081 0
3.7540002 1.0127453 0.25880069 0
3.7520003 1.0060676 0.25888723 0
3.7510002 0.99970913 0.25893053 0
3.7510002 0.9936645 0.25893053 0
3.7520003 0.98792839 0.25888723 0
3.7530003 0.9821887 0.25884396 0
3.7550004 0.97675025 0.25875735 0
3.7580004 0.97160757 0.25862747 0
3.7610002 0.96645403 0.25849763 0
3.7650003 0.96158922 0.25832444 0
3.7700002 0.95700765 0.25810802 0
3.7760003 0.95270365 0.25784826 0
3.7840002 0.94896609 0.25750193 0
3.8010004 0.83740431 0.25676596 0
3.7980003 0.83049572 0.25689584 0
3.7970002 0.82411021 0.25693914 0
3.7970002 0.81798267 0.25693914 0
3.7980003 0.81210768 0.25689584 0
3.8000002 0.80647975 0.25680926 0
3.8040001 0.80134249 0.25663608 0
3.8100002 0.7966851 0.25637633 0
3.8870003 0.55153853 0.25304291 0
3.8830004 0.54457045 0.25321606 0
3.8820002 0.53812003 0.25325936 0
3.8810003 0.53167319 0.25330263 0
3.8820002 0.52555823 0.25325936 0
3.8850002 0.51976448 0.25312948 0
3.8890002 0.51412028 0.25295633 0
3.8950002 0.50877923 0.25269657 0
3.7620003 1.0273994 0.25238994 0
3.7570002 1.0197476 0.25261539 0
3.7540002 1.0127453 0.25275069 0
3.7520003 1.0060676 0.25284088 0
3.7510002 0.99970913 0.252886 0
3.7510002 0.9936645 0.252886 0
3.7520003 0.98792839 0.25284088 0
3.7530003 0.9821887 0.25279579 0
3.7550004 0.97675025 0.25270557 0
3.7580004 0.97160757 0.25257033 0
3.7610002 0.96645403 0.25243503 0
3.7650003 0.96158922 0.25225464 0
3.7700002 0.95700765 0.25202918 0
3.7760003 0.95270365 0.25175861 0
3.7840002 0.94896609 0.25139785 0
3.8010004 0.83740431 0.25063121 0
3.7980003 0.83049572 0.25076652 0
3.7970002 0.82411021 0.25081161 0
3.7970002 0.81798267 0.25081161 0
3.7980003 0.81210768 0.25076652 0
3.8000002 0.80647975 0.25067633 0
3.8040001 0.80134249 0.25049594 0
3.8100002 0.7966851 0.25022537 0
3.8870003 0.55153853 0.24675304 0
3.8830004 0.54457045 0.24693342 0
3.8820002 0.53812003 0.24697851 0
3.8810003 0.53167319 0.24702361 0
3.8820002 0.52555823 0.24697851 0
3.8850002 0.51976448 0.24684323 0
3.8890002 0.51412028 0.24666286 0
3.8950002 0.50877923 0.24639228 0
3.7620003 1.0273994 0.24632554 0
3.7570002 1.0197476 0.24656002 0
3.7540002 1.0127453 0.24670072 0
3.7520003 1.0060676 0.24679451 0
3.7510002 0.99970913 0.24684143 0
3.7510002 0.9936645 0.24684143 0
3.7520003 0.98792839 0.24679451 0
3.7530003 0.9821887 0.24674763 0
3.7550004 0.97675025 0.24665383 0
3.7580004 0.97160757 0.24651313 0
3.7610002 0.96645403 0.24637243 0
3.7650003 0.96158922 0.24618483 0
3.7700002 0.95700765 0.24595034 0
3.7760003 0.95270365 0.24566895 0
3.7840002 0.94896609 0.24529375 0
3.8010004 0.83740431 0.24449645 0
3.7980003 0.83049572 0.24463716 0
3.7970002 0.82411021 0.24468407 0
3.7970002 0.81798267 0.24468407 0
3.7980003 0.81210768 0.24463716 0
3.8000002 0.80647975 0.24454337 0
3.8040001 0.80134249 0.24435578 0
3.8100002 0.7966851 0.24407437 0
3.8870003 0.55153853 0.24046315 0
3.8830004 0.54457045 0.24065074 0
3.8820002 0.53812003 0.24069765 0
3.8810003 0.53167319 0.24074455 0
3.8820002 0.52555823 0.24069765 0
3.8850002 0.51976448 0.24055696 0
3.8890002 0.51412028 0.24036935 0
3.8950002 0.50877923 0.24008796 0
3.7620003 1.0273994 0.24026112 0
3.7570002 1.0197476 0.24050465 0
3.7540002 1.0127453 0.24065076 0
3.7520003 1.0060676 0.24074815 0
3.7510002 0.99970913 0.24079685 0
3.7510002 0.9936645 0.24079685 0
3.7520003 0.98792839 0.24074815 0
3.7530003 0.9821887 0.24069946 0
3.7550004 0.97675025 0.24060205 0
3.7580004 0.97160757 0.24045593 0
3.7610002 0.96645403 0.24030983 0
3.7650003 0.96158922 0.24011502 0
3.7700002 0.95700765 0.2398715 0
3.7760003 0.95270365 0.23957928 0
3.7840002 0.94896609 0.23918967 0
3.8010004 0.83740431 0.23836172 0
3.7980003 0.83049572 0.23850781 0
3.7970002 0.82411021 0.23855653 0
3.7970002 0.81798267 0.23855653 0
3.7980003 0.81210768 0.23850781 0
3.8000002 0.80647975 0.23841041 0
3.8040001 0.80134249 0.23821561 0
3.8100002 0.7966851 0.2379234 0
3.8870003 0.55153853 0.23417327 0
3.8830004 0.54457045 0.23436807 0
3.8820002 0.53812003 0.2344168 0
3.8810003 0.53167319 0.23446548 0
3.8820002 0.52555823 0.2344168 0
3.8850002 0.51976448 0.23427068 0
3.8890002 0.51412028 0.23407587 0
3.8950002 0.50877923 0.23378365 0
3.7620003 1.0273994 0.23419671 0
3.7570002 1.0197476 0.23444925 0
3.7540002 1.0127453 0.23460078 0
3.7520003 1.0060676 0.2347018 0
3.7510002 0.99970913 0.2347523 0
3.7510002 0.9936645 0.2347523 0
3.7520003 0.98792839 0.2347018 0
3.7530003 0.9821887 0.23465128 0
3.7550004 0.97675025 0.23455025 0
3.7580004 0.97160757 0.23439874 0
3.7610002 0.96645403 0.23424724 0
3.7650003 0.96158922 0.23404519 0
3.7700002 0.95700765 0.23379268 0
3.7760003 0.95270365 0.23348962 0
3.7840002 0.94896609 0.23308559 0
3.8010004 0.83740431 0.23222697 0
3.7980003 0.83049572 0.23237848 0
3.7970002 0.82411021 0.23242898 0
3.7970002 0.81798267 0.23242898 0
3.7980003 0.81210768 0.23237848 0
3.8000002 0.80647975 0.23227747 0
3.8040001 0.80134249 0.23207544 0
3.8100002 0.7966851 0.23177241 0
3.8870003 0.55153853 0.22788338 0
3.8830004 0.54457045 0.22808541 0
3.8820002 0.53812003 0.22813593 0
3.8810003 0.53167319 0.22818644 0
3.8820002 0.52555823 0.22813593 0
3.8850002 0.51976448 0.22798441 0
3.8890002 0.51412028 0.22778238 0
3.8950002 0.50877923 0.22747935 0
3.7620003 1.0273994 0.22813231 0
3.7570002 1.0197476 0.22839387 0
3.7540002 1.0127453 0.22855079 0
3.7520003 1.0060676 0.22865541 0
3.7510002 0.99970913 0.22870775 0
3.7510002 0.9936645 0.22870775 0
3.7520003 0.98792839 0.22865541 0
3.7530003 0.9821887 0.22860311 0
3.7550004 0.97675025 0.22849849 0
3.7580004 0.97160757 0.22834155 0
3.7610002 0.96645403 0.22818464 0
3.7650003 0.96158922 0.22797538 0
3.7700002 0.95700765 0.22771384 0
3.7760003 0.95270365 0.22739998 0
3.7840002 0.94896609 0.22698149 0
3.8010004 0.83740431 0.2260922 0
3.7980003 0.83049572 0.22624914 0
3.7970002 0.82411021 0.22630146 0
3.7970002 0.81798267 0.22630146 0
3.7980003 0.81210768 0.22624914 0
3.8000002 0.80647975 0.22614452 0
3.8040001 0.80134249 0.22593528 0
3.8100002 0.7966851 0.22562143 0
3.8870003 0.55153853 0.22159351 0
3.8830004 0.54457045 0.22180274 0
3.8820002 0.53812003 0.22185507 0
3.8810003 0.53167319 0.22190738 0
3.8820002 0.52555823 0.22185507 0
3.8850002 0.51976448 0.22169814 0
3.8890002 0.51412028 0.22148891 0
3.8950002 0.50877923 0.22117503 0
3.7620003 1.0273994 0.22206791 0
3.7570002 1.0197476 0.22233848 0
3.7540002 1.0127453 0.22250083 0
3.7520003 1.0060676 0.22260906 0
3.7510002 0.99970913 0.22266318 0
3.7510002 0.9936645 0.22266318 0
3.7520003 0.98792839 0.22260906 0
3.7530003 0.9821887 0.22255495 0
3.7550004 0.97675025 0.22244671 0
3.7580004 0.97160757 0.22228438 0
3.7610002 0.96645403 0.22212203 0
3.7650003 0.96158922 0.22190557 0
3.7700002 0.95700765 0.221635 0
3.7760003 0.95270365 0.22131032 0
3.7840002 0.94896609 0.22087741 0
3.8010004 0.83740431 0.21995746 0
3.7980003 0.83049572 0.22011979 0
3.7970002 0.82411021 0.22017393 0
3.7970002 0.81798267 0.22017393 0
3.7980003 0.81210768 0.22011979 0
3.8000002 0.80647975 0.22001158 0
3.8040001 0.80134249 0.21979512 0
3.8100002 0.7966851 0.21947044 0
3.8870003 0.55153853 0.21530363 0
3.8830004 0.54457045 0.21552008 0
3.8820002 0.53812003 0.2155742 0
3.8810003 0.53167319 0.21562831 0
3.8820002 0.52555823 0.2155742 0
3.8850002 0.51976448 0.21541187 0
3.8890002 0.51412028 0.2151954 0
3.8950002 0.50877923 0.21487072 0
3.7620003 1.0273994 0.21600351 0
3.7570002 1.0197476 0.21628311 0
3.7540002 1.0127453 0.21645087 0
3.7520003 1.0060676 0.21656269 0
3.7510002 0.99970913 0.21661861 0
3.7510002 0.9936645 0.21661861 0
3.7520003 0.98792839 0.21656269 0
3.7530003 0.9821887 0.21650676 0
3.7550004 0.97675025 0.21639495 0
3.7580004 0.97160757 0.21622717 0
3.7610002 0.96645403 0.21605943 0
3.7650003 0.96158922 0.21583575 0
3.7700002 0.95700765 0.21555617 0
3.7760003 0.95270365 0.21522066 0
3.7840002 0.94896609 0.21477333 0
3.8010004 0.83740431 0.21382271 0
3.7980003 0.83049572 0.21399046 0
3.7970002 0.82411021 0.21404639 0
3.7970002 0.81798267 0.21404639 0
3.7980003 0.81210768 0.21399046 0
3.8000002 0.80647975 0.21387863 0
3.8040001 0.80134249 0.21365497 0
3.8100002 0.7966851 0.21331945 0
3.8870003 0.55153853 0.20901375 0
3.8830004 0.54457045 0.20923743 0
3.8820002 0.53812003 0.20929335 0
3.8810003 0.53167319 0.20934927 0
3.8820002 0.52555823 0.20929335 0
3.8850002 0.51976448 0.20912559 0
3.8890002 0.51412028 0.20890193 0
3.8950002 0.50877923 0.20856641 0
3.7620003 1.0273994 0.20993911 0
3.7570002 1.0197476 0.21022773 0
3.7540002 1.0127453 0.21040089 0
3.7520003 1.0060676 0.21051632 0
3.7510002 0.99970913 0.21057406 0
3.7510002 0.9936645 0.21057406 0
3.7520003 0.98792839 0.21051632 0
3.7530003 0.9821887 0.21045861 0
3.7550004 0.97675025 0.21034315 0
3.7580004 0.97160757 0.21016999 0
3.7610002 0.96645403 0.20999683 0
3.7650003 0.96158922 0.20976594 0
3.7700002 0.95700765 0.20947734 0
3.7760003 0.95270365 0.209131 0
3.7840002 0.94896609 0.20866923 0
3.8010004 0.83740431 0.20768794 0
3.7980003 0.83049572 0.20786111 0
3.7970002 0.82411021 0.20791885 0
3.7970002 0.81798267 0.20791885 0
3.7980003 0.81210768 0.20786111 0
3.8000002 0.80647975 0.20774569 0
3.8040001 0.80134249 0.20751479 0
3.8100002 0.7966851 0.20716846 0
3.8870003 0.55153853 0.20272388 0
3.8830004 0.54457045 0.20295475 0
3.8820002 0.53812003 0.20301248 0
3.8810003 0.53167319 0.20307021 0
3.8820002 0.52555823 0.20301248 0
3.8850002 0.51976448 0.20283931 0
3.8890002 0.51412028 0.20260844 0
3.8950002 0.50877923 0.2022621 0
3.7620003 1.0273994 0.20387471 0
3.7570002 1.0197476 0.20417233 0
3.7540002 1.0127453 0.2043509 0
3.7520003 1.0060676 0.20446996 0
3.7510002 0.99970913 0.20452949 0
3.7510002 0.9936645 0.20452949 0
3.7520003 0.98792839 0.20446996 0
3.7530003 0.9821887 0.20441045 0
3.7550004 0.97675025 0.20429137 0
3.7580004 0.97160757 0.2041128 0
3.7610002 0.96645403 0.20393424 0
3.7650003 0.96158922 0.20369613 0
3.7700002 0.95700765 0.2033985 0
3.7760003 0.95270365 0.20304134 0
3.7840002 0.94896609 0.20256515 0
3.8010004 0.83740431 0.2015532 0
3.7980003 0.83049572 0.20173177 0
3.7970002 0.82411021 0.2017913 0
3.7970002 0.81798267 0.2017913 0
3.7980003 0.81210768 0.20173177 0
3.8000002 0.80647975 0.20161273 0
3.8040001 0.80134249 0.20137464 0
3.8100002 0.7966851 0.20101747 0
3.8870003 0.55153853 0.19643399 0
3.8830004 0.54457045 0.1966721 0
3.8820002 0.53812003 0.19673163 0
3.8810003 0.53167319 0.19679114 0
3.8820002 0.52555823 0.19673163 0
3.8850002 0.51976448 0.19655305 0
3.8890002 0.51412028 0.19631496 0
3.8950002 0.50877923 0.19595779 0
3.7620003 1.0273994 0.19781031 0
3.7570002 1.0197476 0.19811696 0
3.7540002 1.0127453 0.19830094 0
3.7520003 1.0060676 0.19842359 0
3.7510002 0.99970913 0.19848493 0
3.7510002 0.9936645 0.19848493 0
3.7520003 0.98792839 0.19842359 0
3.7530003 0.9821887 0.19836226 0
3.7550004 0.97675025 0.19823961 0
3.7580004 0.97160757 0.19805561 0
3.7610002 0.96645403 0.19787164 0
3.7650003 0.96158922 0.19762631 0
3.7700002 0.95700765 0.19731967 0
3.7760003 0.95270365 0.19695169 0
3.7840002 0.94896609 0.19646107 0
3.8010004 0.83740431 0.19541845 0
3.7980003 0.83049572 0.19560245 0
3.7970002 0.82411021 0.19566378 0
3.7970002 0.81798267 0.19566378 0
3.7980003 0.81210768 0.19560245 0
3.8000002 0.80647975 0.19547978 0
3.8040001 0.80134249 0.19523448 0
3.8100002 0.7966851 0.19486649 0
3.8870003 0.55153853 0.19014412 0
3.8830004 0.54457045 0.19038942 0
3.8820002 0.53812003 0.19045077 0
3.8810003 0.53167319 0.19051209 0
3.8820002 0.52555823 0.19045077 0
3.8850002 0.51976448 0.19026677 0
3.8890002 0.51412028 0.19002147 0
3.8950002 0.50877923 0.18965349 0
3.7620003 1.0273994 0.19174589 0
3.7570002 1.0197476 0.19206157 0
3.7540002 1.0127453 0.19225098 0
3.7520003 1.0060676 0.19237722 0
3.7510002 0.99970913 0.19244038 0
3.7510002 0.9936645 0.19244038 0
3.7520003 0.98792839 0.19237722 0
3.7530003 0.9821887 0.1923141 0
3.7550004 0.97675025 0.19218782 0
3.7580004 0.97160757 0.19199844 0
3.7610002 0.96645403 0.19180904 0
3.7650003 0.96158922 0.1915565 0
3.7700002 0.95700765 0.19124083 0
3.7760003 0.95270365 0.19086203 0
3.7840002 0.94896609 0.19035697 0
3.8010004 0.83740431 0.18928368 0
3.7980003 0.83049572 0.18947309 0
3.7970002 0.82411021 0.18953624 0
3.7970002 0.81798267 0.18953624 0
3.7980003 0.81210768 0.18947309 0
3.8000002 0.80647975 0.18934685 0
3.8040001 0.80134249 0.18909432 0
3.8100002 0.7966851 0.1887155 0
3.8870003 0.55153853 0.18385424 0
3.8830004 0.54457045 0.18410677 0
3.8820002 0.53812003 0.1841699 0
3.8810003 0.53167319 0.18423304 0
3.8820002 0.52555823 0.1841699 0
3.8850002 0.51976448 0.18398051 0
3.8890002 0.51412028 0.18372798 0
3.8950002 0.50877923 0.18334918 0
3.7620003 1.0273994 0.18568149 0
3.7570002 1.0197476 0.18600619 0
3.7540002 1.0127453 0.18620099 0
3.7520003 1.0060676 0.18633085 0
3.7510002 0.99970913 0.18639581 0
3.7510002 0.9936645 0.18639581 0
3.7520003 0.98792839 0.18633085 0
3.7530003 0.9821887 0.18626593 0
3.7550004 0.97675025 0.18613605 0
3.7580004 0.97160757 0.18594123 0
3.7610002 0.96645403 0.18574645 0
3.7650003 0.96158922 0.18548669 0
3.7700002 0.95700765 0.18516199 0
3.7760003 0.95270365 0.18477239 0
3.7840002 0.94896609 0.18425289 0
3.8010004 0.83740431 0.18314894 0
3.7980003 0.83049572 0.18334375 0
3.7970002 0.82411021 0.18340871 0
3.7970002 0.81798267 0.18340871 0
3.7980003 0.81210768 0.18334375 0
3.8000002 0.80647975 0.18321389 0
3.8040001 0.80134249 0.18295415 0
3.8100002 0.7966851 0.18256453 0
3.8870003 0.55153853 0.17756435 0
3.8830004 0.54457045 0.17782411 0
3.8820002 0.53812003 0.17788905 0
3.8810003 0.53167319 0.17795397 0
3.8820002 0.52555823 0.17788905 0
3.8850002 0.51976448 0.17769423 0
3.8890002 0.51412028 0.17743449 0
3.8950002 0.50877923 0.17704485 0
3.7620003 1.0273994 0.17961709 0
3.7570002 1.0197476 0.17995079 0
3.7540002 1.0127453 0.18015102 0
3.7520003 1.0060676 0.1802845 0
3.7510002 0.99970913 0.18035126 0
3.7510002 0.9936645 0.18035126 0
3.7520003 0.98792839 0.1802845 0
3.7530003 0.9821887 0.18021776 0
3.7550004 0.97675025 0.18008427 0
3.7580004 0.97160757 0.17988405 0
3.7610002 0.96645403 0.17968383 0
3.7650003 0.96158922 0.17941687 0
3.7700002 0.95700765 0.17908317 0
3.7760003 0.95270365 0.17868273 0
3.7840002 0.94896609 0.17814881 0
3.8010004 0.83740431 0.17701419 0
3.7980003 0.83049572 0.17721441 0
3.7970002 0.82411021 0.17728117 0
3.7970002 0.81798267 0.17728117 0
3.7980003 0.81210768 0.17721441 0
3.8000002 0.80647975 0.17708094 0
3.8040001 0.80134249 0.17681399 0
3.8100002 0.7966851 0.17641354 0
3.8870003 0.55153853 0.17127447 0
3.8830004 0.54457045 0.17154142 0
3.8820002 0.53812003 0.17160819 0
3.8810003 0.53167319 0.17167491 0
3.8820002 0.52555823 0.17160819 0
3.8850002 0.51976448 0.17140795 0
3.8890002 0.51412028 0.171141 0
3.8950002 0.50877923 0.17074056 0
3.7620003 1.0273994 0.17355268 0
3.7570002 1.0197476 0.17389542 0
3.7540002 1.0127453 0.17410105 0
3.7520003 1.0060676 0.17423813 0
3.7510002 0.99970913 0.17430668 0
3.7510002 0.9936645 0.17430668 0
3.7520003 0.98792839 0.17423813 0
3.7530003 0.9821887 0.17416959 0
3.7550004 0.97675025 0.17403249 0
3.7580004 0.97160757 0.17382686 0
3.7610002 0.96645403 0.17362124 0
3.7650003 0.96158922 0.17334704 0
3.7700002 0.95700765 0.17300434 0
3.7760003 0.95270365 0.17259306 0
3.7840002 0.94896609 0.17204472 0
3.8010004 0.83740431 0.17087944 0
3.7980003 0.83049572 0.17108507 0
3.7970002 0.82411021 0.17115363 0
3.7970002 0.81798267 0.17115363 0
3.7980003 0.81210768 0.17108507 0
3.8000002 0.80647975 0.17094801 0
3.8040001 0.80134249 0.17067382 0
3.8100002 0.7966851 0.17026255 0
3.8870003 0.55153853 0.16498458 0
3.8830004 0.54457045 0.16525878 0
3.8820002 0.53812003 0.16532733 0
3.8810003 0.53167319 0.16539589 0
3.8820002 0.52555823 0.16532733 0
3.8850002 0.51976448 0.16512169 0
3.8890002 0.51412028 0.16484752 0
3.8950002 0.50877923 0.16443627 0
3.7620003 1.0273994 0.16748828 0
3.7570002 1.0197476 0.16784003 0
3.7540002 1.0127453 0.16805108 0
3.7520003 1.0060676 0.16819176 0
3.7510002 0.99970913 0.16826214 0
3.7510002 0.9936645 0.16826214 0
3.7520003 0.98792839 0.16819176 0
3.7530003 0.9821887 0.16812141 0
3.7550004 0.97675025 0.1679807 0
3.7580004 0.97160757 0.16776969 0
3.7610002 0.96645403 0.16755863 0
3.7650003 0.96158922 0.16727722 0
3.7700002 0.95700765 0.16692549 0
3.7760003 0.95270365 0.16650341 0
3.7840002 0.94896609 0.16594063 0
3.8010004 0.83740431 0.16474469 0
3.7980003 0.83049572 0.16495575 0
3.7970002 0.82411021 0.1650261 0
3.7970002 0.81798267 0.1650261 0
3.7980003 0.81210768 0.16495575 0
3.8000002 0.80647975 0.16481504 0
3.8040001 0.80134249 0.16453366 0
3.8100002 0.7966851 0.16411155 0
3.8870003 0.55153853 0.15869471 0
3.8830004 0.54457045 0.15897612 0
3.8820002 0.53812003 0.15904647 0
3.8810003 0.53167319 0.15911682 0
3.8820002 0.52555823 0.15904647 0
3.8850002 0.51976448 0.15883541 0
3.8890002 0.51412028 0.15855403 0
3.8950002 0.50877923 0.15813193 0
3.7620003 1.0273994 0.16142388 0
3.7570002 1.0197476 0.16178466 0
3.7540002 1.0127453 0.1620011 0
3.7520003 1.0060676 0.16214539 0
3.7510002 0.99970913 0.16221756 0
3.7510002 0.9936645 0.16221756 0
3.7520003 0.98792839 0.16214539 0
3.7530003 0.9821887 0.16207324 0
3.7550004 0.97675025 0.16192894 0
3.7580004 0.97160757 0.1617125 0
3.7610002 0.96645403 0.16149604 0
3.7650003 0.96158922 0.16120742 0
3.7700002 0.95700765 0.16084667 0
3.7760003 0.95270365 0.16041374 0
3.7840002 0.94896609 0.15983655 0
3.8010004 0.83740431 0.15860994 0
3.7980003 0.83049572 0.15882638 0
3.7970002 0.82411021 0.15889855 0
3.7970002 0.81798267 0.15889855 0
3.7980003 0.81210768 0.15882638 0
3.8000002 0.80647975 0.15868211 0
3.8040001 0.80134249 0.15839349 0
3.8100002 0.7966851 0.15796056 0
3.8870003 0.55153853 0.15240484 0
3.8830004 0.54457045 0.15269345 0
3.8820002 0.53812003 0.15276563 0
3.8810003 0.53167319 0.15283775 0
3.8820002 0.52555823 0.15276563 0
3.8850002 0.51976448 0.15254915 0
3.8890002 0.51412028 0.15226054 0
3.8950002 0.50877923 0.15182763 0
3.7620003 1.0273994 0.15535948 0
3.7570002 1.0197476 0.15572925 0
3.7540002 1.0127453 0.15595113 0
3.7520003 1.0060676 0.15609904 0
3.7510002 0.99970913 0.15617299 0
3.7510002 0.9936645 0.15617299 0
3.7520003 0.98792839 0.15609904 0
3.7530003 0.9821887 0.15602508 0
3.7550004 0.97675025 0.15587717 0
3.7580004 0.97160757 0.15565529 0
3.7610002 0.96645403 0.15543346 0
3.7650003 0.96158922 0.1551376 0
3.7700002 0.95700765 0.15476784 0
3.7760003 0.95270365 0.1543241 0
3.7840002 0.94896609 0.15373245 0
3.8010004 0.83740431 0.15247518 0
3.7980003 0.83049572 0.15269706 0
3.7970002 0.82411021 0.15277103 0
3.7970002 0.81798267 0.15277103 0
3.7980003 0.81210768 0.15269706 0
3.8000002 0.80647975 0.15254915 0
3.8040001 0.80134249 0.15225333 0
3.8100002 0.7966851 0.1518096 0
3.8870003 0.55153853 0.14611495 0
3.8830004 0.54457045 0.14641079 0
3.8820002 0.53812003 0.14648473 0
3.8810003 0.53167319 0.1465587 0
3.8820002 0.52555823 0.14648473 0
3.8850002 0.51976448 0.14626288 0
3.8890002 0.51412028 0.14596707 0
3.8950002 0.50877923 0.14552334 0
3.7620003 1.0273994 0.14929506 0
3.7570002 1.0197476 0.14967388 0
3.7540002 1.0127453 0.14990115 0
3.7520003 1.0060676 0.15005267 0
3.7510002 0.99970913 0.15012845 0
3.7510002 0.9936645 0.15012845 0
3.7520003 0.98792839 0.15005267 0
3.7530003 0.9821887 0.14997691 0
3.7550004 0.97675025 0.14982539 0
3.7580004 0.97160757 0.14959812 0
3.7610002 0.96645403 0.14937085 0
3.7650003 0.96158922 0.14906779 0
3.7700002 0.95700765 0.148689 0
3.7760003 0.95270365 0.14823443 0
3.7840002 0.94896609 0.14762837 0
3.8010004 0.83740431 0.14634043 0
3.7980003 0.83049572 0.14656773 0
3.7970002 0.82411021 0.14664349 0
3.7970002 0.81798267 0.14664349 0
3.7980003 0.81210768 0.14656773 0
3.8000002 0.80647975 0.14641622 0
3.8040001 0.80134249 0.14611316 0
3.8100002 0.7966851 0.14565861 0
3.8870003 0.55153853 0.13982508 0
3.8830004 0.54457045 0.14012811 0
3.8820002 0.53812003 0.14020389 0
3.8810003 0.53167319 0.14027962 0
3.8820002 0.52555823 0.14020389 0
3.8850002 0.51976448 0.13997659 0
3.8890002 0.51412028 0.13967356 0
3.8950002 0.50877923 0.13921899 0
3.7620003 1.0273994 0.14323068 0
3.7570002 1.0197476 0.14361849 0
3.7540002 1.0127453 0.14385119 0
3.7520003 1.0060676 0.14400628 0
3.7510002 0.99970913 0.14408389 0
3.7510002 0.9936645 0.14408389 0
3.7520003 0.98792839 0.14400628 0
3.7530003 0.9821887 0.14392877 0
3.7550004 0.97675025 0.14377362 0
3.7580004 0.97160757 0.14354092 0
3.7610002 0.96645403 0.14330822 0
3.7650003 0.96158922 0.14299798 0
3.7700002 0.95700765 0.14261016 0
3.7760003 0.95270365 0.14214477 0
3.7840002 0.94896609 0.14152426 0
3.8010004 0.83740431 0.14020568 0
3.7980003 0.83049572 0.14043838 0
3.7970002 0.82411021 0.14051595 0
3.7970002 0.81798267 0.14051595 0
3.7980003 0.81210768 0.14043838 0
3.8000002 0.80647975 0.14028326 0
3.8040001 0.80134249 0.13997298 0
3.8100002 0.7966851 0.13950762 0
3.8870003 0.55153853 0.13353521 0
3.8830004 0.54457045 0.13384545 0
3.8820002 0.53812003 0.13392305 0
3.8810003 0.53167319 0.13400057 0
3.8820002 0.52555823 0.13392305 0
3.8850002 0.51976448 0.13369033 0
3.8890002 0.51412028 0.13338009 0
3.8950002 0.50877923 0.13291469 0
3.7620003 1.0273994 0.13716626 0
3.7570002 1.0197476 0.13756311 0
3.7540002 1.0127453 0.13780123 0
3.7520003 1.0060676 0.13795996 0
3.7510002 0.99970913 0.13803932 0
3.7510002 0.9936645 0.13803932 0
3.7520003 0.98792839 0.13795996 0
3.7530003 0.9821887 0.13788056 0
3.7550004 0.97675025 0.13772184 0
3.7580004 0.97160757 0.13748372 0
3.7610002 0.96645403 0.13724566 0
3.7650003 0.96158922 0.13692817 0
3.7700002 0.95700765 0.13653135 0
3.7760003 0.95270365 0.13605511 0
3.7840002 0.94896609 0.1354202 0
3.8010004 0.83740431 0.13407093 0
3.7980003 0.83049572 0.13430902 0
3.7970002 0.82411021 0.13438842 0
3.7970002 0.81798267 0.13438842 0
3.7980003 0.81210768 0.13430902 0
3.8000002 0.80647975 0.1341503 0
3.8040001 0.80134249 0.13383284 0
3.8100002 0.7966851 0.13335663 0
3.8870003 0.55153853 0.12724531 0
3.8830004 0.54457045 0.12756279 0
3.8820002 0.53812003 0.12764215 0
3.8810003 0.53167319 0.12772155 0
3.8820002 0.52555823 0.12764215 0
3.8850002 0.51976448 0.12740406 0
3.8890002 0.51412028 0.12708658 0
3.8950002 0.50877923 0.1266104 0
3.7620003 1.0273994 0.13110188 0
3.7570002 1.0197476 0.13150772 0
3.7540002 1.0127453 0.13175124 0
3.7520003 1.0060676 0.13191357 0
3.7510002 0.99970913 0.13199475 0
3.7510002 0.9936645 0.13199475 0
3.7520003 0.98792839 0.13191357 0
3.7530003 0.9821887 0.13183239 0
3.7550004 0.97675025 0.13167006 0
3.7580004 0.97160757 0.13142654 0
3.7610002 0.96645403 0.13118306 0
3.7650003 0.96158922 0.13085833 0
3.7700002 0.95700765 0.13045248 0
3.7760003 0.95270365 0.12996545 0
3.7840002 0.94896609 0.12931612 0
3.8010004 0.83740431 0.12793618 0
3.7980003 0.83049572 0.1281797 0
3.7970002 0.82411021 0.12826088 0
3.7970002 0.81798267 0.12826088 0
3.7980003 0.81210768 0.1281797 0
3.8000002 0.80647975 0.12801737 0
3.8040001 0.80134249 0.12769267 0
3.8100002 0.7966851 0.12720567 0
3.8870003 0.55153853 0.12095544 0
3.8830004 0.54457045 0.1212801 0
3.8820002 0.53812003 0.12136132 0
3.8810003 0.53167319 0.12144247 0
3.8820002 0.52555823 0.12136132 0
3.8850002 0.51976448 0.12111777 0
3.8890002 0.51412028 0.1207931 0
3.8950002 0.50877923 0.12030607 0
3.7620003 1.0273994 0.12503746 0
3.7570002 1.0197476 0.12545234 0
3.7540002 1.0127453 0.12570128 0
3.7520003 1.0060676 0.12586719 0
3.7510002 0.99970913 0.12595022 0
3.7510002 0.9936645 0.12595022 0
3.7520003 0.98792839 0.12586719 0
3.7530003 0.9821887 0.12578425 0
3.7550004 0.97675025 0.12561828 0
3.7580004 0.97160757 0.12536934 0
3.7610002 0.96645403 0.12512046 0
3.7650003 0.96158922 0.12478852 0
3.7700002 0.95700765 0.12437367 0
3.7760003 0.95270365 0.12387583 0
3.7840002 0.94896609 0.12321201 0
3.8010004 0.83740431 0.12180141 0
3.7980003 0.83049572 0.12205034 0
3.7970002 0.82411021 0.12213334 0
3.7970002 0.81798267 0.12213334 0
3.7980003 0.81210768 0.12205034 0
3.8000002 0.80647975 0.12188441 0
3.8040001 0.80134249 0.12155253 0
3.8100002 0.7966851 0.12105468 0
3.8870003 0.55153853 0.11466557 0
3.8830004 0.54457045 0.11499745 0
3.8820002 0.53812003 0.11508045 0
3.8810003 0.53167319 0.11516342 0
3.8820002 0.52555823 0.11508045 0
3.8850002 0.51976448 0.11483151 0
3.8890002 0.51412028 0.11449963 0
3.8950002 0.50877923 0.11400178 0
3.7620003 1.0273994 0.11897305 0
3.7570002 1.0197476 0.11939695 0
3.7540002 1.0127453 0.11965132 0
3.7520003 1.0060676 0.11982086 0
3.7510002 0.99970913 0.11990562 0
3.7510002 0.9936645 0.11990562 0
3.7520003 0.98792839 0.11982086 0
3.7530003 0.9821887 0.11973608 0
3.7550004 0.97675025 0.1195665 0
3.7580004 0.97160757 0.11931217 0
3.7610002 0.96645403 0.11905783 0
3.7650003 0.96158922 0.11871871 0
3.7700002 0.95700765 0.11829484 0
3.7760003 0.95270365 0.11778614 0
3.7840002 0.94896609 0.11710793 0
3.8010004 0.83740431 0.11566666 0
3.7980003 0.83049572 0.11592102 0
3.7970002 0.82411021 0.11600581 0
3.7970002 0.81798267 0.11600581 0
3.7980003 0.81210768 0.11592102 0
3.8000002 0.80647975 0.11575148 0
3.8040001 0.80134249 0.11541235 0
3.8100002 0.7966851 0.11490369 0
3.8870003 0.55153853 0.1083757 0
3.8830004 0.54457045 0.10871479 0
3.8820002 0.53812003 0.10879958 0
3.8810003 0.53167319 0.10888436 0
3.8820002 0.52555823 0.10879958 0
3.8850002 0.51976448 0.10854524 0
3.8890002 0.51412028 0.10820615 0
3.8950002 0.50877923 0.10769746 0
3.7620003 1.0273994 0.11290866 0
3.7570002 1.0197476 0.11334157 0
3.7540002 1.0127453 0.11360133 0
3.7520003 1.0060676 0.11377448 0
3.7510002 0.99970913 0.11386105 0
3.7510002 0.9936645 0.11386105 0
3.7520003 0.98792839 0.11377448 0
3.7530003 0.9821887 0.1136879 0
3.7550004 0.97675025 0.11351472 0
3.7580004 0.97160757 0.11325496 0
3.7610002 0.96645403 0.11299524 0
3.7650003 0.96158922 0.11264887 0
3.7700002 0.95700765 0.112216 0
3.7760003 0.95270365 0.11169651 0
3.7840002 0.94896609 0.11100385 0
3.8010004 0.83740431 0.10953191 0
3.7980003 0.83049572 0.1097917 0
3.7970002 0.82411021 0.10987827 0
3.7970002 0.81798267 0.10987827 0
3.7980003 0.81210768 0.1097917 0
3.8000002 0.80647975 0.10961851 0
3.8040001 0.80134249 0.10927218 0
3.8100002 0.7966851 0.10875267 0
3.8870003 0.55153853 0.1020858 0
3.8830004 0.54457045 0.1024321 0
3.8820002 0.53812003 0.10251874 0
3.8810003 0.53167319 0.10260528 0
3.8820002 0.52555823 0.10251874 0
3.8850002 0.51976448 0.10225898 0
3.8890002 0.51412028 0.10191265 0
3.8950002 0.50877923 0.10139313 0
3.7620003 1.0273994 0.10684425 0
3.7570002 1.0197476 0.10728619 0
3.7540002 1.0127453 0.10755134 0
3.7520003 1.0060676 0.10772809 0
3.7510002 0.99970913 0.10781652 0
3.7510002 0.9936645 0.10781652 0
3.7520003 0.98792839 0.10772809 0
3.7530003 0.9821887 0.10763973 0
3.7550004 0.97675025 0.10746294 0
3.7580004 0.97160757 0.10719779 0
3.7610002 0.96645403 0.10693267 0
3.7650003 0.96158922 0.1065791 0
3.7700002 0.95700765 0.10613716 0
3.7760003 0.95270365 0.10560682 0
3.7840002 0.94896609 0.10489973 0
3.8010004 0.83740431 0.10339716 0
3.7980003 0.83049572 0.10366231 0
3.7970002 0.82411021 0.10375074 0
3.7970002 0.81798267 0.10375074 0
3.7980003 0.81210768 0.10366231 0
3.8000002 0.80647975 0.10348555 0
3.8040001 0.80134249 0.10313201 0
3.8100002 0.7966851 0.10260168 0
3.8870003 0.55153853 0.095795929 0
3.8830004 0.54457045 0.096149474 0
3.8820002 0.53812003 0.096237868 0
3.8810003 0.53167319 0.096326232 0
3.8820002 0.52555823 0.096237868 0
3.8850002 0.51976448 0.095972717 0
3.8890002 0.51412028 0.095619172 0
3.8950002 0.50877923 0.09508884 0
3.7620003 1.0273994 0.10077986 0
3.7570002 1.0197476 0.1012308 0
3.7540002 1.0127453 0.10150138 0
3.7520003 1.0060676 0.10168177 0
3.7510002 0.99970913 0.10177195 0
3.7510002 0.9936645 0.10177195 0
3.7520003 0.98792839 0.10168177 0
3.7530003 0.9821887 0.10159156 0
3.7550004 0.97675025 0.10141116 0
3.7580004 0.97160757 0.10114062 0
3.7610002 0.96645403 0.10087004 0
3.7650003 0.96158922 0.10050926 0
3.7700002 0.95700765 0.10005835 0
3.7760003 0.95270365 0.099517196 0
3.7840002 0.94896609 0.098795682 0
3.8010004 0.83740431 0.097262412 0
3.7980003 0.83049572 0.097532988 0
3.7970002 0.82411021 0.097623199 0
3.7970002 0.81798267 0.097623199 0
3.7980003 0.81210768 0.097532988 0
3.8000002 0.80647975 0.097352624 0
3.8040001 0.80134249 0.096991867 0
3.8100002 0.7966851 0.096450716 0
3.8870003 0.55153853 0.08950606 0
3.8830004 0.54457045 0.089866817 0
3.8820002 0.53812003 0.089956999 0
3.8810003 0.53167319 0.09004721 0
3.8820002 0.52555823 0.089956999 0
3.8850002 0.51976448 0.089686453 0
3.8890002 0.51412028 0.089325696 0
3.8950002 0.50877923 0.088784546 0
3.7620003 1.0273994 0.094715446 0
3.7570002 1.0197476 0.095175445 0
3.7540002 1.0127453 0.095451415 0
3.7520003 1.0060676 0.095635384 0
3.7510002 0.99970913 0.095727384 0
3.7510002 0.9936645 0.095727384 0
3.7520003 0.98792839 0.095635384 0
3.7530003 0.9821887 0.095543385 0
3.7550004 0.97675025 0.095359415 0
3.7580004 0.97160757 0.095083416 0
3.7610002 0.96645403 0.094807446 0
3.7650003 0.96158922 0.094439477 0
3.7700002 0.95700765 0.093979478 0
3.7760003 0.95270365 0.093427539 0
3.7840002 0.94896609 0.0926916 0
3.8010004 0.83740431 0.091127664 0
3.7980003 0.83049572 0.091403633 0
3.7970002 0.82411021 0.091495633 0
3.7970002 0.81798267 0.091495633 0
3.7980003 0.81210768 0.091403633 0
3.8000002 0.80647975 0.091219664 0
3.8040001 0.80134249 0.090851694 0
3.8100002 0.7966851 0.090299726 0
3.8870003 0.55153853 0.083216161 0
3.8830004 0.54457045 0.08358413 0
3.8820002 0.53812003 0.083676159 0
3.8810003 0.53167319 0.083768129 0
3.8820002 0.52555823 0.083676159 0
3.8850002 0.51976448 0.08340016 0
3.8890002 0.51412028 0.083032191 0
3.8950002 0.50877923 0.082480222 0
3.7620003 1.0273994 0.088651061 0
3.7570002 1.0197476 0.08912003 0
3.7540002 1.0127453 0.089401424 0
3.7520003 1.0060676 0.089589 0
3.7510002 0.99970913 0.089682847 0
3.7510002 0.9936645 0.089682847 0
3.7520003 0.98792839 0.089589 0
3.7530003 0.9821887 0.089495242 0
3.7550004 0.97675025 0.089307636 0
3.7580004 0.97160757 0.089026242 0
3.7610002 0.96645403 0.088744849 0
3.7650003 0.96158922 0.088369638 0
3.7700002 0.95700765 0.087900668 0
3.7760003 0.95270365 0.087337881 0
3.8010004 0.83740431 0.084992886 0
3.7980003 0.83049572 0.085274309 0
3.7970002 0.82411021 0.085368127 0
3.7970002 0.81798267 0.085368127 0
3.7980003 0.81210768 0.085274309 0
3.8000002 0.80647975 0.085086733 0
3.8040001 0.80134249 0.084711552 0
3.8100002 0.7966851 0.084148735 0
3.8870003 0.55153853 0.076926291 0
3.8830004 0.54457045 0.077301472 0
3.8820002 0.53812003 0.07739529 0
3.8810003 0.53167319 0.077489078 0
3.8820002 0.52555823 0.07739529 0
3.8850002 0.51976448 0.077113897 0
3.8890002 0.51412028 0.076738685 0
3.8950002 0.50877923 0.076175898 0
3.7620003 1.0273994 0.082586646 0
3.7570002 1.0197476 0.083064646 0
3.7540002 1.0127453 0.083351463 0
3.7520003 1.0060676 0.083542675 0
3.7510002 0.99970913 0.083638281 0
3.7510002 0.9936645 0.083638281 0
3.7520003 0.98792839 0.083542675 0
3.7530003 0.9821887 0.083447039 0
3.7550004 0.97675025 0.083255827 0
3.7580004 0.97160757 0.08296904 0
3.7610002 0.96645403 0.082682252 0
3.7650003 0.96158922 0.082299829 0
3.7700002 0.95700765 0.081821829 0
3.7760003 0.95270365 0.081248224 0
3.8010004 0.83740431 0.078858137 0
3.7980003 0.83049572 0.079144984 0
3.7970002 0.82411021 0.07924059 0
3.7970002 0.81798267 0.07924059 0
3.7980003 0.81210768 0.079144984 0
3.8000002 0.80647975 0.078953773 0
3.8040001 0.80134249 0.078571379 0
3.8100002 0.7966851 0.077997744 0
3.8870003 0.55153853 0.070636421 0
3.8830004 0.54457045 0.071018815 0
3.8820002 0.53812003 0.071114421 0
3.8810003 0.53167319 0.071210027 0
3.8820002 0.52555823 0.071114421 0
3.8850002 0.51976448 0.070827633 0
3.8890002 0.51412028 0.07044521 0
3.8950002 0.50877923 0.069871604 0
3.7620003 1.0273994 0.076522231 0
3.7570002 1.0197476 0.07700929 0
3.7540002 1.0127453 0.077301502 0
3.7520003 1.0060676 0.07749629 0
3.7510002 0.99970913 0.077593684 0
3.7510002 0.9936645 0.077593684 0
3.7520003 0.98792839 0.07749629 0
3.7530003 0.9821887 0.077398896 0
3.7550004 0.97675025 0.077204078 0
3.7580004 0.97160757 0.076911837 0
3.7610002 0.96645403 0.076619655 0
3.7650003 0.96158922 0.076230019 0
3.7700002 0.95700765 0.07574299 0
3.7760003 0.95270365 0.075158536 0
3.8010004 0.83740431 0.072723418 0
3.7980003 0.83049572 0.0730156 0
3.7970002 0.82411021 0.073113054 0
3.7970002 0.81798267 0.073113054 0
3.7980003 0.81210768 0.0730156 0
3.8000002 0.80647975 0.072820812 0
3.8040001 0.80134249 0.072431207 0
3.8100002 0.7966851 0.071846783 0
3.8870003 0.55153853 0.064346522 0
3.8830004 0.54457045 0.064736128 0
3.8820002 0.53812003 0.064833581 0
3.8810003 0.53167319 0.064930946 0
3.8820002 0.52555823 0.064833581 0
3.8850002 0.51976448 0.06454134 0
3.8890002 0.51412028 0.064151734 0
3.8950002 0.50877923 0.063567281 0
3.7470002 1.0527971 0.071945965 0
3.7470002 1.0467596 0.071945965 0
3.7470002 1.0407223 0.071945965 0
3.7460003 1.0343621 0.072045177 0
3.7460003 1.0283265 0.072045177 0
3.7460003 1.0222909 0.072045177 0
3.7460003 1.0162555 0.072045177 0
3.7460003 1.0102199 0.072045177 0
3.7460003 1.0041844 0.072045177 0
3.7480001 0.99877286 0.071846783 0
3.7500002 0.99335432 0.071648329 0
3.7510002 0.98762 0.071549147 0
3.7530003 0.9821887 0.071350724 0
3.7550004 0.97675025 0.0711523 0
3.7560003 0.97100151 0.071053088 0
3.7580004 0.96555042 0.070854664 0
3.7590003 0.95979273 0.070755452 0
3.7610002 0.95432889 0.070557028 0
3.7630002 0.94885796 0.070358634 0
3.7640002 0.94308579 0.070259422 0
3.8010004 0.83740431 0.06658867 0
3.7980003 0.83049572 0.066886276 0
3.7970002 0.82411021 0.066985518 0
3.7970002 0.81798267 0.066985518 0
3.7980003 0.81210768 0.066886276 0
3.8000002 0.80647975 0.066687882 0
3.8040001 0.80134249 0.066291064 0
3.8100002 0.7966851 0.065695792 0
3.8870003 0.55153853 0.058056623 0
3.8830004 0.54457045 0.05845347 0
3.8820002 0.53812003 0.058552712 0
3.8810003 0.53167319 0.058651894 0
3.8820002 0.52555823 0.058552712 0
3.8850002 0.51976448 0.058255076 0
3.8890002 0.51412028 0.057858229 0
3.8950002 0.50877923 0.057262987 0
3.7170002 1.1027805 0.06893903 0
3.7190003 1.0974864 0.068737 0
3.7210002 1.0921849 0.06853497 0
3.7220004 1.0865355 0.06843394 0
3.7240002 1.0812215 0.06823194 0
3.7250001 1.0755628 0.06813094 0
3.7270002 1.0702362 0.06792888 0
3.7290003 1.0649024 0.067726851 0
3.7300003 1.0592294 0.06762585 0
3.7320004 1.053883 0.06742382 0
3.7330003 1.0482008 0.06732282 0
3.7350004 1.0428419 0.06712079 0
3.7370002 1.0374755 0.066918761 0
3.7380002 1.0317791 0.06681776 0
3.7400002 1.0264001 0.066615731 0
3.7420003 1.021014 0.066413701 0
3.7430003 1.015303 0.066312671 0
3.7450004 1.0099043 0.066110671 0
3.7460003 1.0041844 0.066009641 0
3.7480001 0.99877286 0.065807611 0
3.7500002 0.99335432 0.065605581 0
3.7510002 0.98762 0.065504581 0
3.7530003 0.9821887 0.065302551 0
3.7550004 0.97675025 0.065100491 0
3.7560003 0.97100151 0.064999521 0
3.7580004 0.96555042 0.064797461 0
3.7590003 0.95979273 0.064696491 0
3.7610002 0.95432889 0.064494461 0
3.7630002 0.94885796 0.064292431 0
3.7640002 0.94308579 0.064191401 0
3.8010004 0.83740431 0.060453922 0
3.7980003 0.83049572 0.060756952 0
3.7970002 0.82411021 0.060857952 0
3.7970002 0.81798267 0.060857952 0
3.7980003 0.81210768 0.060756952 0
3.8000002 0.80647975 0.060554922 0
3.8040001 0.80134249 0.060150862 0
3.8100002 0.7966851 0.059544802 0
3.8870003 0.55153853 0.051766753 0
3.8830004 0.54457045 0.052170813 0
3.8820002 0.53812003 0.052271843 0
3.8810003 0.53167319 0.052372873 0
3.8820002 0.52555823 0.052271843 0
3.8850002 0.51976448 0.051968813 0
3.8890002 0.51412028 0.051564753 0
3.8950002 0.50877923 0.050958693 0
3.7140002 1.1136972 0.063264251 0
3.7160003 1.1084156 0.063058615 0
3.7170002 1.1027805 0.062955797 0
3.7190003 1.0974864 0.062750161 0
