# .PCD v0.7 - Point Cloud Data file format
VERSION 0.7
FIELDS x y z intensity
SIZE 4 4 4 4
TYPE F F F F
COUNT 1 1 1 1
WIDTH 1503
HEIGHT 1
VIEWPOINT 0 0 0 1 0 0 0
POINTS 1503
DATA ascii
5.9220004 2.6931729 1.6789606 0
5.9260006 2.6851895 1.6798842 0
5.9300003 2.6771913 1.6808077 0
5.9340005 2.6691787 1.6817312 0
5.9370003 2.6606629 1.6824238 0
5.9410005 2.6526234 1.6833475 0
5.9450002 2.6445692 1.684271 0
5.9490004 2.6365011 1.6851945 0
5.9520001 2.6279364 1.6858871 0
5.9560003 2.6198411 1.6868107 0
5.9600005 2.6117313 1.6877344 0
5.9640002 2.6036065 1.6886578 0
5.9670005 2.5949936 1.6893505 0
5.9710002 2.5868421 1.690274 0
5.9750004 2.5786762 1.6911976 0
5.9790006 2.5704961 1.6921211 0
5.9820004 2.5618341 1.6928138 0
5.9860005 2.5536268 1.6937374 0
5.9900002 2.5454049 1.6946609 0
5.9940004 2.537169 1.6955845 0
5.9980001 2.528918 1.6965079 0
6.0010004 2.520195 1.6972007 0
6.0050006 2.5119176 1.6981243 0
6.0090003 2.5036252 1.6990478 0
5.7710004 3.0251765 1.6344084 0
5.7740002 3.0171983 1.6350955 0
5.7780004 3.0097773 1.636012 0
5.7810001 3.0017757 1.6366991 0
5.7850003 2.9943278 1.6376154 0
5.7880006 2.9863029 1.6383028 0
5.7920003 2.9788277 1.639219 0
5.7960005 2.9713383 1.6401354 0
5.7990003 2.9632769 1.6408226 0
5.8030005 2.9557607 1.641739 0
5.8060002 2.9476759 1.6424263 0
5.8100004 2.9401324 1.6433426 0
5.8130002 2.9320242 1.6440297 0
5.8170004 2.9244537 1.6449462 0
5.8200002 2.916322 1.6456333 0
5.8240004 2.9087245 1.6465497 0
5.8280005 2.9011126 1.6474662 0
5.8310003 2.8929448 1.6481533 0
5.8350005 2.8853059 1.6490697 0
5.8380003 2.8771145 1.6497569 0
5.8420005 2.8694484 1.6506733 0
5.8460002 2.8617675 1.6515895 0
5.8490005 2.8535407 1.6522769 0
5.8530002 2.8458328 1.6531931 0
5.8560004 2.8375823 1.6538805 0
5.8600001 2.8298476 1.6547966 0
5.8640003 2.8220983 1.6557131 0
5.8670006 2.8138118 1.6564004 0
5.8710003 2.8060353 1.6573167 0
5.8750005 2.7982447 1.658233 0
5.8780003 2.789922 1.6589202 0
5.8820004 2.7821043 1.6598366 0
5.8860002 2.7742722 1.6607529 0
5.8890004 2.7659135 1.6614401 0
5.8930001 2.758054 1.6623565 0
5.8970003 2.7501805 1.6632729 0
5.9000006 2.7417858 1.6639601 0
5.9040003 2.7338848 1.6648763 0
5.9080005 2.7259698 1.6657928 0
5.9110003 2.7175386 1.6664801 0
5.9150004 2.7095969 1.6673963 0
5.9190001 2.7016399 1.6683127 0
5.9220004 2.6931729 1.669 0
5.9260006 2.6851895 1.6699163 0
5.9300003 2.6771913 1.6708325 0
5.9340005 2.6691787 1.671749 0
5.9370003 2.6606629 1.6724362 0
5.9410005 2.6526234 1.6733525 0
5.9450002 2.6445692 1.6742688 0
5.9490004 2.6365011 1.6751852 0
5.9520001 2.6279364 1.6758724 0
5.9560003 2.6198411 1.6767887 0
5.9600005 2.6117313 1.6777052 0
5.9640002 2.6036065 1.6786214 0
5.9670005 2.5949936 1.6793087 0
5.9710002 2.5868421 1.680225 0
5.9750004 2.5786762 1.6811414 0
5.9790006 2.5704961 1.6820577 0
5.9820004 2.5618341 1.682745 0
5.9860005 2.5536268 1.6836613 0
5.9900002 2.5454049 1.6845776 0
5.9940004 2.537169 1.6854939 0
5.9980001 2.528918 1.6864102 0
6.0010004 2.520195 1.6870975 0
6.0050006 2.5119176 1.6880139 0
6.0090003 2.5036252 1.6889302 0
5.7710004 3.0251765 1.6247201 0
5.7740002 3.0171983 1.6254019 0
5.7780004 3.0097773 1.6263111 0
5.7810001 3.0017757 1.6269927 0
5.7850003 2.9943278 1.6279019 0
5.7880006 2.9863029 1.6285839 0
5.7920003 2.9788277 1.6294929 0
5.7960005 2.9713383 1.6304021 0
5.7990003 2.9632769 1.631084 0
5.8030005 2.9557607 1.6319929 0
5.8060002 2.9476759 1.6326748 0
5.8100004 2.9401324 1.633584 0
5.8130002 2.9320242 1.6342658 0
5.8170004 2.9244537 1.635175 0
5.8200002 2.916322 1.6358566 0
5.8240004 2.9087245 1.6367658 0
5.8280005 2.9011126 1.637675 0
5.8310003 2.8929448 1.6383568 0
5.8350005 2.8853059 1.639266 0
5.8380003 2.8771145 1.6399478 0
5.8420005 2.8694484 1.640857 0
5.8460002 2.8617675 1.641766 0
5.8490005 2.8535407 1.6424478 0
5.8530002 2.8458328 1.6433569 0
5.8560004 2.8375823 1.6440389 0
5.8600001 2.8298476 1.6449479 0
5.8640003 2.8220983 1.6458571 0
5.8670006 2.8138118 1.646539 0
5.8710003 2.8060353 1.6474479 0
5.8750005 2.7982447 1.6483572 0
5.8780003 2.789922 1.649039 0
5.8820004 2.7821043 1.6499481 0
5.8860002 2.7742722 1.6508572 0
5.8890004 2.7659135 1.6515391 0
5.8930001 2.758054 1.6524481 0
5.8970003 2.7501805 1.6533573 0
5.9000006 2.7417858 1.6540391 0
5.9040003 2.7338848 1.6549482 0
5.9080005 2.7259698 1.6558574 0
5.9110003 2.7175386 1.6565392 0
5.9150004 2.7095969 1.6574483 0
5.9190001 2.7016399 1.6583574 0
5.9220004 2.6931729 1.6590393 0
5.9260006 2.6851895 1.6599485 0
5.9300003 2.6771913 1.6608576 0
5.9340005 2.6691787 1.6617666 0
5.9370003 2.6606629 1.6624485 0
5.9410005 2.6526234 1.6633576 0
5.9450002 2.6445692 1.6642667 0
5.9490004 2.6365011 1.6651758 0
5.9520001 2.6279364 1.6658577 0
5.9560003 2.6198411 1.6667668 0
5.9600005 2.6117313 1.667676 0
5.9640002 2.6036065 1.6685851 0
5.9670005 2.5949936 1.6692669 0
5.9710002 2.5868421 1.6701759 0
5.9750004 2.5786762 1.6710851 0
5.9790006 2.5704961 1.6719943 0
5.9820004 2.5618341 1.6726761 0
5.9860005 2.5536268 1.6735853 0
5.9900002 2.5454049 1.6744943 0
5.9940004 2.537169 1.6754035 0
5.9980001 2.528918 1.6763126 0
6.0010004 2.520195 1.6769943 0
6.0050006 2.5119176 1.6779035 0
6.0090003 2.5036252 1.6788126 0
5.7710004 3.0251765 1.6150318 0
5.7740002 3.0171983 1.6157081 0
5.7780004 3.0097773 1.6166102 0
5.7810001 3.0017757 1.6172864 0
5.7850003 2.9943278 1.6181884 0
5.7880006 2.9863029 1.6188649 0
5.7920003 2.9788277 1.6197667 0
5.7960005 2.9713383 1.6206688 0
5.7990003 2.9632769 1.621345 0
5.8030005 2.9557607 1.6222471 0
5.8060002 2.9476759 1.6229234 0
5.8100004 2.9401324 1.6238254 0
5.8130002 2.9320242 1.6245017 0
5.8170004 2.9244537 1.6254038 0
5.8200002 2.916322 1.62608 0
5.8240004 2.9087245 1.6269821 0
5.8280005 2.9011126 1.627884 0
5.8310003 2.8929448 1.6285603 0
5.8350005 2.8853059 1.6294624 0
5.8380003 2.8771145 1.6301386 0
5.8420005 2.8694484 1.6310407 0
5.8460002 2.8617675 1.6319424 0
5.8490005 2.8535407 1.632619 0
5.8530002 2.8458328 1.6335207 0
5.8560004 2.8375823 1.6341974 0
5.8600001 2.8298476 1.6350991 0
5.8640003 2.8220983 1.636001 0
5.8670006 2.8138118 1.6366775 0
5.8710003 2.8060353 1.6375793 0
5.8750005 2.7982447 1.6384814 0
5.8780003 2.789922 1.6391577 0
5.8820004 2.7821043 1.6400597 0
5.8860002 2.7742722 1.6409615 0
5.8890004 2.7659135 1.641638 0
5.8930001 2.758054 1.6425399 0
5.8970003 2.7501805 1.6434417 0
5.9000006 2.7417858 1.6441183 0
5.9040003 2.7338848 1.64502 0
5.9080005 2.7259698 1.6459221 0
5.9110003 2.7175386 1.6465983 0
5.9150004 2.7095969 1.6475004 0
5.9190001 2.7016399 1.6484022 0
5.9220004 2.6931729 1.6490787 0
5.9260006 2.6851895 1.6499807 0
5.9300003 2.6771913 1.6508825 0
5.9340005 2.6691787 1.6517844 0
5.9370003 2.6606629 1.6524608 0
5.9410005 2.6526234 1.6533628 0
5.9450002 2.6445692 1.6542646 0
5.9490004 2.6365011 1.6551666 0
5.9520001 2.6279364 1.6558429 0
5.9560003 2.6198411 1.6567448 0
5.9600005 2.6117313 1.6576468 0
5.9640002 2.6036065 1.6585486 0
5.9670005 2.5949936 1.6592251 0
5.9710002 2.5868421 1.6601269 0
5.9750004 2.5786762 1.661029 0
5.9790006 2.5704961 1.6619309 0
5.9820004 2.5618341 1.6626073 0
5.9860005 2.5536268 1.6635092 0
5.9900002 2.5454049 1.6644109 0
5.9940004 2.537169 1.665313 0
5.9980001 2.528918 1.6662148 0
6.0010004 2.520195 1.6668913 0
6.0050006 2.5119176 1.6677933 0
6.0090003 2.5036252 1.668695 0
5.7710004 3.0251765 1.6053436 0
5.7740002 3.0171983 1.6060146 0
5.7780004 3.0097773 1.6069092 0
5.7810001 3.0017757 1.6075802 0
5.7850003 2.9943278 1.608475 0
5.7880006 2.9863029 1.609146 0
5.7920003 2.9788277 1.6100407 0
5.7960005 2.9713383 1.6109354 0
5.7990003 2.9632769 1.6116064 0
5.8030005 2.9557607 1.612501 0
5.8060002 2.9476759 1.6131721 0
5.8100004 2.9401324 1.6140667 0
5.8130002 2.9320242 1.6147377 0
5.8170004 2.9244537 1.6156324 0
5.8200002 2.916322 1.6163034 0
5.8240004 2.9087245 1.6171982 0
5.8280005 2.9011126 1.6180929 0
5.8310003 2.8929448 1.6187639 0
5.8350005 2.8853059 1.6196586 0
5.8380003 2.8771145 1.6203295 0
5.8420005 2.8694484 1.6212243 0
5.8460002 2.8617675 1.6221189 0
5.8490005 2.8535407 1.62279 0
5.8530002 2.8458328 1.6236846 0
5.8560004 2.8375823 1.6243558 0
5.8600001 2.8298476 1.6252502 0
5.8640003 2.8220983 1.626145 0
5.8670006 2.8138118 1.6268162 0
5.8710003 2.8060353 1.6277108 0
5.8750005 2.7982447 1.6286055 0
5.8780003 2.789922 1.6292765 0
5.8820004 2.7821043 1.6301712 0
5.8860002 2.7742722 1.6310658 0
5.8890004 2.7659135 1.6317369 0
5.8930001 2.758054 1.6326315 0
5.8970003 2.7501805 1.6335263 0
5.9000006 2.7417858 1.6341974 0
5.9040003 2.7338848 1.6350919 0
5.9080005 2.7259698 1.6359867 0
5.9110003 2.7175386 1.6366576 0
5.9150004 2.7095969 1.6375524 0
5.9190001 2.7016399 1.638447 0
5.9220004 2.6931729 1.6391181 0
5.9260006 2.6851895 1.6400127 0
5.9300003 2.6771913 1.6409074 0
5.9340005 2.6691787 1.6418022 0
5.9370003 2.6606629 1.6424731 0
5.9410005 2.6526234 1.6433679 0
5.9450002 2.6445692 1.6442624 0
5.9490004 2.6365011 1.6451572 0
5.9520001 2.6279364 1.6458281 0
5.9560003 2.6198411 1.6467229 0
5.9600005 2.6117313 1.6476177 0
5.9640002 2.6036065 1.6485122 0
5.9670005 2.5949936 1.6491833 0
5.9710002 2.5868421 1.6500779 0
5.9750004 2.5786762 1.6509727 0
5.9790006 2.5704961 1.6518675 0
5.9820004 2.5618341 1.6525384 0
5.9860005 2.5536268 1.6534331 0
5.9900002 2.5454049 1.6543278 0
5.9940004 2.537169 1.6552225 0
5.9980001 2.528918 1.6561171 0
6.0010004 2.520195 1.6567882 0
6.0050006 2.5119176 1.6576829 0
6.0090003 2.5036252 1.6585776 0
5.7710004 3.0251765 1.5956553 0
5.7740002 3.0171983 1.5963209 0
5.7780004 3.0097773 1.5972084 0
5.7810001 3.0017757 1.5978739 0
5.7850003 2.9943278 1.5987614 0
5.7880006 2.9863029 1.5994271 0
5.7920003 2.9788277 1.6003145 0
5.7960005 2.9713383 1.601202 0
5.7990003 2.9632769 1.6018676 0
5.8030005 2.9557607 1.6027551 0
5.8060002 2.9476759 1.6034206 0
5.8100004 2.9401324 1.6043082 0
5.8130002 2.9320242 1.6049737 0
5.8170004 2.9244537 1.6058612 0
5.8200002 2.916322 1.6065269 0
5.8240004 2.9087245 1.6074144 0
5.8280005 2.9011126 1.6083018 0
5.8310003 2.8929448 1.6089673 0
5.8350005 2.8853059 1.6098549 0
5.8380003 2.8771145 1.6105205 0
5.8420005 2.8694484 1.611408 0
5.8460002 2.8617675 1.6122954 0
5.8490005 2.8535407 1.6129611 0
5.8530002 2.8458328 1.6138484 0
5.8560004 2.8375823 1.6145141 0
5.8600001 2.8298476 1.6154015 0
5.8640003 2.8220983 1.616289 0
5.8670006 2.8138118 1.6169547 0
5.8710003 2.8060353 1.6178422 0
5.8750005 2.7982447 1.6187296 0
5.8780003 2.789922 1.6193951 0
5.8820004 2.7821043 1.6202828 0
5.8860002 2.7742722 1.6211702 0
5.8890004 2.7659135 1.6218357 0
5.8930001 2.758054 1.6227231 0
5.8970003 2.7501805 1.6236107 0
5.9000006 2.7417858 1.6242764 0
5.9040003 2.7338848 1.6251638 0
5.9080005 2.7259698 1.6260513 0
5.9110003 2.7175386 1.6267169 0
5.9150004 2.7095969 1.6276044 0
5.9190001 2.7016399 1.6284919 0
5.9220004 2.6931729 1.6291574 0
5.9260006 2.6851895 1.6300449 0
5.9300003 2.6771913 1.6309323 0
5.9340005 2.6691787 1.6318198 0
5.9370003 2.6606629 1.6324854 0
5.9410005 2.6526234 1.6333729 0
5.9450002 2.6445692 1.6342604 0
5.9490004 2.6365011 1.6351479 0
5.9520001 2.6279364 1.6358134 0
5.9560003 2.6198411 1.6367009 0
5.9600005 2.6117313 1.6375885 0
5.9640002 2.6036065 1.6384759 0
5.9670005 2.5949936 1.6391414 0
5.9710002 2.5868421 1.640029 0
5.9750004 2.5786762 1.6409165 0
5.9790006 2.5704961 1.641804 0
5.9820004 2.5618341 1.6424695 0
5.9860005 2.5536268 1.643357 0
5.9900002 2.5454049 1.6442444 0
5.9940004 2.537169 1.6451319 0
5.9980001 2.528918 1.6460193 0
6.0010004 2.520195 1.646685 0
6.0050006 2.5119176 1.6475725 0
6.0090003 2.5036252 1.64846 0
5.7710004 3.0251765 1.5859671 0
5.7740002 3.0171983 1.5866271 0
5.7780004 3.0097773 1.5875075 0
5.7810001 3.0017757 1.5881677 0
5.7850003 2.9943278 1.5890479 0
5.7880006 2.9863029 1.5897082 0
5.7920003 2.9788277 1.5905885 0
5.7960005 2.9713383 1.5914687 0
5.7990003 2.9632769 1.5921289 0
5.8030005 2.9557607 1.5930091 0
5.8060002 2.9476759 1.5936693 0
5.8100004 2.9401324 1.5945495 0
5.8130002 2.9320242 1.5952097 0
5.8170004 2.9244537 1.59609 0
5.8200002 2.916322 1.5967501 0
5.8240004 2.9087245 1.5976305 0
5.8280005 2.9011126 1.5985107 0
5.8310003 2.8929448 1.5991709 0
5.8350005 2.8853059 1.6000513 0
5.8380003 2.8771145 1.6007113 0
5.8420005 2.8694484 1.6015917 0
5.8460002 2.8617675 1.6024718 0
5.8490005 2.8535407 1.603132 0
5.8530002 2.8458328 1.6040123 0
5.8560004 2.8375823 1.6046726 0
5.8600001 2.8298476 1.6055527 0
5.8640003 2.8220983 1.606433 0
5.8670006 2.8138118 1.6070933 0
5.8710003 2.8060353 1.6079735 0
5.8750005 2.7982447 1.6088538 0
5.8780003 2.789922 1.609514 0
5.8820004 2.7821043 1.6103941 0
5.8860002 2.7742722 1.6112744 0
5.8890004 2.7659135 1.6119347 0
5.8930001 2.758054 1.6128149 0
5.8970003 2.7501805 1.6136951 0
5.9000006 2.7417858 1.6143554 0
5.9040003 2.7338848 1.6152357 0
5.9080005 2.7259698 1.6161159 0
5.9110003 2.7175386 1.6167761 0
5.9150004 2.7095969 1.6176564 0
5.9190001 2.7016399 1.6185365 0
5.9220004 2.6931729 1.6191968 0
5.9260006 2.6851895 1.6200771 0
5.9300003 2.6771913 1.6209573 0
5.9340005 2.6691787 1.6218376 0
5.9370003 2.6606629 1.6224978 0
5.9410005 2.6526234 1.623378 0
5.9450002 2.6445692 1.6242582 0
5.9490004 2.6365011 1.6251385 0
5.9520001 2.6279364 1.6257987 0
5.9560003 2.6198411 1.6266789 0
5.9600005 2.6117313 1.6275593 0
5.9640002 2.6036065 1.6284395 0
5.9670005 2.5949936 1.6290997 0
5.9710002 2.5868421 1.6299798 0
5.9750004 2.5786762 1.6308602 0
5.9790006 2.5704961 1.6317406 0
5.9820004 2.5618341 1.6324006 0
5.9860005 2.5536268 1.633281 0
5.9900002 2.5454049 1.6341612 0
5.9940004 2.537169 1.6350414 0
5.9980001 2.528918 1.6359216 0
6.0010004 2.520195 1.6365819 0
6.0050006 2.5119176 1.6374621 0
6.0090003 2.5036252 1.6383424 0
5.7710004 3.0251765 1.5762788 0
5.7740002 3.0171983 1.5769335 0
5.7780004 3.0097773 1.5778066 0
5.7810001 3.0017757 1.5784614 0
5.7850003 2.9943278 1.5793344 0
5.7880006 2.9863029 1.5799893 0
5.7920003 2.9788277 1.5808622 0
5.7960005 2.9713383 1.5817354 0
5.7990003 2.9632769 1.5823901 0
5.8030005 2.9557607 1.5832632 0
5.8060002 2.9476759 1.583918 0
5.8100004 2.9401324 1.5847909 0
5.8130002 2.9320242 1.5854458 0
5.8170004 2.9244537 1.5863187 0
5.8200002 2.916322 1.5869735 0
5.8240004 2.9087245 1.5878465 0
5.8280005 2.9011126 1.5887196 0
5.8310003 2.8929448 1.5893744 0
5.8350005 2.8853059 1.5902475 0
5.8380003 2.8771145 1.5909023 0
5.8420005 2.8694484 1.5917753 0
5.8460002 2.8617675 1.5926483 0
5.8490005 2.8535407 1.5933031 0
5.8530002 2.8458328 1.5941761 0
5.8560004 2.8375823 1.594831 0
5.8600001 2.8298476 1.595704 0
5.8640003 2.8220983 1.596577 0
5.8670006 2.8138118 1.5972319 0
5.8710003 2.8060353 1.5981048 0
5.8750005 2.7982447 1.5989779 0
5.8780003 2.789922 1.5996326 0
5.8820004 2.7821043 1.6005057 0
5.8860002 2.7742722 1.6013788 0
5.8890004 2.7659135 1.6020336 0
5.8930001 2.758054 1.6029066 0
5.8970003 2.7501805 1.6037797 0
5.9000006 2.7417858 1.6044345 0
5.9040003 2.7338848 1.6053075 0
5.9080005 2.7259698 1.6061804 0
5.9110003 2.7175386 1.6068352 0
5.9150004 2.7095969 1.6077083 0
5.9190001 2.7016399 1.6085813 0
5.9220004 2.6931729 1.6092362 0
5.9260006 2.6851895 1.6101092 0
5.9300003 2.6771913 1.6109822 0
5.9340005 2.6691787 1.6118554 0
5.9370003 2.6606629 1.6125101 0
5.9410005 2.6526234 1.6133832 0
5.9450002 2.6445692 1.6142561 0
5.9490004 2.6365011 1.6151292 0
5.9520001 2.6279364 1.6157839 0
5.9560003 2.6198411 1.616657 0
5.9600005 2.6117313 1.6175301 0
5.9640002 2.6036065 1.6184031 0
5.9670005 2.5949936 1.6190579 0
5.9710002 2.5868421 1.6199309 0
5.9750004 2.5786762 1.620804 0
5.9790006 2.5704961 1.6216772 0
5.9820004 2.5618341 1.6223319 0
5.9860005 2.5536268 1.6232049 0
5.9900002 2.5454049 1.6240779 0
5.9940004 2.537169 1.6249509 0
5.9980001 2.528918 1.625824 0
6.0010004 2.520195 1.6264787 0
6.0050006 2.5119176 1.6273519 0
6.0090003 2.5036252 1.6282248 0
5.7710004 3.0251765 1.5665905 0
5.7740002 3.0171983 1.5672399 0
5.7780004 3.0097773 1.5681057 0
5.7810001 3.0017757 1.5687551 0
5.7850003 2.9943278 1.5696208 0
5.7880006 2.9863029 1.5702703 0
5.7920003 2.9788277 1.5711361 0
5.7960005 2.9713383 1.5720019 0
5.7990003 2.9632769 1.5726513 0
5.8030005 2.9557607 1.5735172 0
5.8060002 2.9476759 1.5741665 0
5.8100004 2.9401324 1.5750324 0
5.8130002 2.9320242 1.5756817 0
5.8170004 2.9244537 1.5765475 0
5.8200002 2.916322 1.577197 0
5.8240004 2.9087245 1.5780627 0
5.8280005 2.9011126 1.5789286 0
5.8310003 2.8929448 1.5795779 0
5.8350005 2.8853059 1.5804439 0
5.8380003 2.8771145 1.5810931 0
5.8420005 2.8694484 1.581959 0
5.8460002 2.8617675 1.5828248 0
5.8490005 2.8535407 1.5834743 0
5.8530002 2.8458328 1.5843399 0
5.8560004 2.8375823 1.5849894 0
5.8600001 2.8298476 1.5858551 0
5.8640003 2.8220983 1.5867211 0
5.8670006 2.8138118 1.5873704 0
5.8710003 2.8060353 1.5882362 0
5.8750005 2.7982447 1.5891021 0
5.8780003 2.789922 1.5897515 0
5.8820004 2.7821043 1.5906173 0
5.8860002 2.7742722 1.591483 0
5.8890004 2.7659135 1.5921324 0
5.8930001 2.758054 1.5929983 0
5.8970003 2.7501805 1.5938641 0
5.9000006 2.7417858 1.5945135 0
5.9040003 2.7338848 1.5953794 0
5.9080005 2.7259698 1.5962452 0
5.9110003 2.7175386 1.5968945 0
5.9150004 2.7095969 1.5977603 0
5.9190001 2.7016399 1.5986261 0
5.9220004 2.6931729 1.5992755 0
5.9260006 2.6851895 1.6001414 0
5.9300003 2.6771913 1.6010072 0
5.9340005 2.6691787 1.601873 0
5.9370003 2.6606629 1.6025224 0
5.9410005 2.6526234 1.6033882 0
5.9450002 2.6445692 1.604254 0
5.9490004 2.6365011 1.6051198 0
5.9520001 2.6279364 1.6057692 0
5.9560003 2.6198411 1.6066351 0
5.9600005 2.6117313 1.607501 0
5.9640002 2.6036065 1.6083666 0
5.9670005 2.5949936 1.6090161 0
5.9710002 2.5868421 1.6098819 0
5.9750004 2.5786762 1.6107478 0
5.9790006 2.5704961 1.6116136 0
5.9820004 2.5618341 1.612263 0
5.9860005 2.5536268 1.6131289 0
5.9900002 2.5454049 1.6139946 0
5.9940004 2.537169 1.6148604 0
5.9980001 2.528918 1.6157262 0
6.0010004 2.520195 1.6163757 0
6.0050006 2.5119176 1.6172415 0
6.0090003 2.5036252 1.6181073 0
5.7710004 3.0251765 1.5569023 0
5.7740002 3.0171983 1.5575461 0
5.7780004 3.0097773 1.5584049 0
5.7810001 3.0017757 1.5590488 0
5.7850003 2.9943278 1.5599073 0
5.7880006 2.9863029 1.5605514 0
5.7920003 2.9788277 1.56141 0
5.7960005 2.9713383 1.5622686 0
5.7990003 2.9632769 1.5629126 0
5.8030005 2.9557607 1.5637711 0
5.8060002 2.9476759 1.5644151 0
5.8100004 2.9401324 1.5652738 0
5.8130002 2.9320242 1.5659177 0
5.8170004 2.9244537 1.5667764 0
5.8200002 2.916322 1.5674202 0
5.8240004 2.9087245 1.5682789 0
5.8280005 2.9011126 1.5691376 0
5.8310003 2.8929448 1.5697814 0
5.8350005 2.8853059 1.5706402 0
5.8380003 2.8771145 1.5712841 0
5.8420005 2.8694484 1.5721426 0
5.8460002 2.8617675 1.5730013 0
5.8490005 2.8535407 1.5736452 0
5.8530002 2.8458328 1.5745038 0
5.8560004 2.8375823 1.5751477 0
5.8600001 2.8298476 1.5760063 0
5.8640003 2.8220983 1.576865 0
5.8670006 2.8138118 1.577509 0
5.8710003 2.8060353 1.5783676 0
5.8750005 2.7982447 1.5792261 0
5.8780003 2.789922 1.5798701 0
5.8820004 2.7821043 1.5807288 0
5.8860002 2.7742722 1.5815873 0
5.8890004 2.7659135 1.5822314 0
5.8930001 2.758054 1.5830899 0
5.8970003 2.7501805 1.5839485 0
5.9000006 2.7417858 1.5845926 0
5.9040003 2.7338848 1.5854511 0
5.9080005 2.7259698 1.5863098 0
5.9110003 2.7175386 1.5869536 0
5.9150004 2.7095969 1.5878123 0
5.9190001 2.7016399 1.5886708 0
5.9220004 2.6931729 1.5893149 0
5.9260006 2.6851895 1.5901736 0
5.9300003 2.6771913 1.591032 0
5.9340005 2.6691787 1.5918907 0
5.9370003 2.6606629 1.5925347 0
5.9410005 2.6526234 1.5933933 0
5.9450002 2.6445692 1.5942519 0
5.9490004 2.6365011 1.5951105 0
5.9520001 2.6279364 1.5957544 0
5.9560003 2.6198411 1.596613 0
5.9600005 2.6117313 1.5974718 0
5.9640002 2.6036065 1.5983304 0
5.9670005 2.5949936 1.5989742 0
5.9710002 2.5868421 1.5998329 0
5.9750004 2.5786762 1.6006916 0
5.9790006 2.5704961 1.6015502 0
5.9820004 2.5618341 1.6021942 0
5.9860005 2.5536268 1.6030527 0
5.9900002 2.5454049 1.6039113 0
5.9940004 2.537169 1.6047699 0
5.9980001 2.528918 1.6056285 0
6.0010004 2.520195 1.6062726 0
6.0050006 2.5119176 1.6071311 0
6.0090003 2.5036252 1.6079897 0
5.7710004 3.0251765 1.547214 0
5.7740002 3.0171983 1.5478525 0
5.7780004 3.0097773 1.5487039 0
5.7810001 3.0017757 1.5493425 0
5.7850003 2.9943278 1.5501939 0
5.7880006 2.9863029 1.5508325 0
5.7920003 2.9788277 1.5516839 0
5.7960005 2.9713383 1.5525353 0
5.7990003 2.9632769 1.5531738 0
5.8030005 2.9557607 1.5540252 0
5.8060002 2.9476759 1.5546638 0
5.8100004 2.9401324 1.5555152 0
5.8130002 2.9320242 1.5561537 0
5.8170004 2.9244537 1.5570052 0
5.8200002 2.916322 1.5576435 0
5.8240004 2.9087245 1.558495 0
5.8280005 2.9011126 1.5593464 0
5.8310003 2.8929448 1.559985 0
5.8350005 2.8853059 1.5608364 0
5.8380003 2.8771145 1.5614749 0
5.8420005 2.8694484 1.5623264 0
5.8460002 2.8617675 1.5631777 0
5.8490005 2.8535407 1.5638163 0
5.8530002 2.8458328 1.5646676 0
5.8560004 2.8375823 1.5653062 0
5.8600001 2.8298476 1.5661576 0
5.8640003 2.8220983 1.567009 0
5.8670006 2.8138118 1.5676477 0
5.8710003 2.8060353 1.5684988 0
5.8750005 2.7982447 1.5693504 0
5.8780003 2.789922 1.5699888 0
5.8820004 2.7821043 1.5708404 0
5.8860002 2.7742722 1.5716916 0
5.8890004 2.7659135 1.5723302 0
5.8930001 2.758054 1.5731816 0
5.8970003 2.7501805 1.574033 0
5.9000006 2.7417858 1.5746716 0
5.9040003 2.7338848 1.575523 0
5.9080005 2.7259698 1.5763744 0
5.9110003 2.7175386 1.5770129 0
5.9150004 2.7095969 1.5778643 0
5.9190001 2.7016399 1.5787157 0
5.9220004 2.6931729 1.5793543 0
5.9260006 2.6851895 1.5802057 0
5.9300003 2.6771913 1.5810571 0
5.9340005 2.6691787 1.5819085 0
5.9370003 2.6606629 1.5825469 0
5.9410005 2.6526234 1.5833983 0
5.9450002 2.6445692 1.5842497 0
5.9490004 2.6365011 1.5851012 0
5.9520001 2.6279364 1.5857397 0
5.9560003 2.6198411 1.5865911 0
5.9600005 2.6117313 1.5874426 0
5.9640002 2.6036065 1.5882939 0
5.9670005 2.5949936 1.5889325 0
5.9710002 2.5868421 1.5897838 0
5.9750004 2.5786762 1.5906353 0
5.9790006 2.5704961 1.5914868 0
5.9820004 2.5618341 1.5921252 0
5.9860005 2.5536268 1.5929767 0
5.9900002 2.5454049 1.593828 0
5.9940004 2.537169 1.5946795 0
5.9980001 2.528918 1.5955309 0
6.0010004 2.520195 1.5961694 0
6.0050006 2.5119176 1.5970209 0
6.0090003 2.5036252 1.5978721 0
5.7710004 3.0251765 1.5375258 0
5.7740002 3.0171983 1.5381589 0
5.7780004 3.0097773 1.539003 0
5.7810001 3.0017757 1.5396363 0
5.7850003 2.9943278 1.5404804 0
5.7880006 2.9863029 1.5411136 0
5.7920003 2.9788277 1.5419577 0
5.7960005 2.9713383 1.5428019 0
5.7990003 2.9632769 1.5434351 0
5.8030005 2.9557607 1.5442793 0
5.8060002 2.9476759 1.5449123 0
5.8100004 2.9401324 1.5457566 0
5.8130002 2.9320242 1.5463896 0
5.8170004 2.9244537 1.5472339 0
5.8200002 2.916322 1.5478669 0
5.8240004 2.9087245 1.5487112 0
5.8280005 2.9011126 1.5495554 0
5.8310003 2.8929448 1.5501884 0
5.8350005 2.8853059 1.5510327 0
5.8380003 2.8771145 1.5516658 0
5.8420005 2.8694484 1.55251 0
5.8460002 2.8617675 1.5533541 0
5.8490005 2.8535407 1.5539873 0
5.8530002 2.8458328 1.5548315 0
5.8560004 2.8375823 1.5554646 0
5.8600001 2.8298476 1.5563087 0
5.8640003 2.8220983 1.557153 0
5.8670006 2.8138118 1.5577861 0
5.8710003 2.8060353 1.5586302 0
5.8750005 2.7982447 1.5594746 0
5.8780003 2.789922 1.5601076 0
5.8820004 2.7821043 1.5609518 0
5.8860002 2.7742722 1.5617959 0
5.8890004 2.7659135 1.5624291 0
5.8930001 2.758054 1.5632733 0
5.8970003 2.7501805 1.5641176 0
5.9000006 2.7417858 1.5647507 0
5.9040003 2.7338848 1.5655948 0
5.9080005 2.7259698 1.566439 0
5.9110003 2.7175386 1.5670722 0
5.9150004 2.7095969 1.5679164 0
5.9190001 2.7016399 1.5687605 0
5.9220004 2.6931729 1.5693936 0
5.9260006 2.6851895 1.5702379 0
5.9300003 2.6771913 1.571082 0
5.9340005 2.6691787 1.5719262 0
5.9370003 2.6606629 1.5725594 0
5.9410005 2.6526234 1.5734036 0
5.9450002 2.6445692 1.5742477 0
5.9490004 2.6365011 1.5750918 0
5.9520001 2.6279364 1.575725 0
5.9560003 2.6198411 1.5765692 0
5.9600005 2.6117313 1.5774133 0
5.9640002 2.6036065 1.5782576 0
5.9670005 2.5949936 1.5788907 0
5.9710002 2.5868421 1.5797348 0
5.9750004 2.5786762 1.580579 0
5.9790006 2.5704961 1.5814233 0
5.9820004 2.5618341 1.5820564 0
5.9860005 2.5536268 1.5829006 0
5.9900002 2.5454049 1.5837448 0
5.9940004 2.537169 1.584589 0
5.9980001 2.528918 1.585433 0
6.0010004 2.520195 1.5860662 0
6.0050006 2.5119176 1.5869105 0
6.0090003 2.5036252 1.5877546 0
5.7710004 3.0251765 1.5278375 0
5.7740002 3.0171983 1.5284653 0
5.7780004 3.0097773 1.5293022 0
5.7810001 3.0017757 1.5299299 0
5.7850003 2.9943278 1.5307668 0
5.7880006 2.9863029 1.5313947 0
5.7920003 2.9788277 1.5322316 0
5.7960005 2.9713383 1.5330685 0
5.7990003 2.9632769 1.5336962 0
5.8030005 2.9557607 1.5345333 0
5.8060002 2.9476759 1.5351609 0
5.8100004 2.9401324 1.535998 0
5.8130002 2.9320242 1.5366256 0
5.8170004 2.9244537 1.5374626 0
5.8200002 2.916322 1.5380903 0
5.8240004 2.9087245 1.5389273 0
5.8280005 2.9011126 1.5397644 0
5.8310003 2.8929448 1.540392 0
5.8350005 2.8853059 1.541229 0
5.8380003 2.8771145 1.5418568 0
5.8420005 2.8694484 1.5426937 0
5.8460002 2.8617675 1.5435306 0
5.8490005 2.8535407 1.5441583 0
5.8530002 2.8458328 1.5449953 0
5.8560004 2.8375823 1.5456231 0
5.8600001 2.8298476 1.5464599 0
5.8640003 2.8220983 1.547297 0
5.8670006 2.8138118 1.5479248 0
5.8710003 2.8060353 1.5487617 0
5.8750005 2.7982447 1.5495987 0
5.8780003 2.789922 1.5502263 0
5.8820004 2.7821043 1.5510634 0
5.8860002 2.7742722 1.5519003 0
5.8890004 2.7659135 1.5525281 0
5.8930001 2.758054 1.5533649 0
5.8970003 2.7501805 1.554202 0
5.9000006 2.7417858 1.5548297 0
5.9040003 2.7338848 1.5556667 0
5.9080005 2.7259698 1.5565037 0
5.9110003 2.7175386 1.5571313 0
5.9150004 2.7095969 1.5579684 0
5.9190001 2.7016399 1.5588052 0
5.9220004 2.6931729 1.5594331 0
5.9260006 2.6851895 1.5602701 0
5.9300003 2.6771913 1.5611069 0
5.9340005 2.6691787 1.5619439 0
5.9370003 2.6606629 1.5625715 0
5.9410005 2.6526234 1.5634086 0
5.9450002 2.6445692 1.5642456 0
5.9490004 2.6365011 1.5650826 0
5.9520001 2.6279364 1.5657102 0
5.9560003 2.6198411 1.5665473 0
5.9600005 2.6117313 1.5673842 0
5.9640002 2.6036065 1.5682211 0
5.9670005 2.5949936 1.5688488 0
5.9710002 2.5868421 1.5696858 0
5.9750004 2.5786762 1.5705228 0
5.9790006 2.5704961 1.5713599 0
5.9820004 2.5618341 1.5719875 0
5.9860005 2.5536268 1.5728246 0
5.9900002 2.5454049 1.5736614 0
5.9940004 2.537169 1.5744984 0
5.9980001 2.528918 1.5753353 0
6.0010004 2.520195 1.5759631 0
6.0050006 2.5119176 1.5768001 0
6.0090003 2.5036252 1.5776371 0
5.7710004 3.0251765 1.5181493 0
5.7740002 3.0171983 1.5187715 0
5.7780004 3.0097773 1.5196013 0
5.7810001 3.0017757 1.5202236 0
5.7850003 2.9943278 1.5210534 0
5.7880006 2.9863029 1.5216757 0
5.7920003 2.9788277 1.5225054 0
5.7960005 2.9713383 1.5233352 0
5.7990003 2.9632769 1.5239575 0
5.8030005 2.9557607 1.5247873 0
5.8060002 2.9476759 1.5254096 0
5.8100004 2.9401324 1.5262393 0
5.8130002 2.9320242 1.5268615 0
5.8170004 2.9244537 1.5276914 0
5.8200002 2.916322 1.5283136 0
5.8240004 2.9087245 1.5291435 0
5.8280005 2.9011126 1.5299733 0
5.8310003 2.8929448 1.5305955 0
5.8350005 2.8853059 1.5314252 0
5.8380003 2.8771145 1.5320475 0
5.8420005 2.8694484 1.5328773 0
5.8460002 2.8617675 1.5337071 0
5.8490005 2.8535407 1.5343295 0
5.8530002 2.8458328 1.5351592 0
5.8560004 2.8375823 1.5357815 0
5.8600001 2.8298476 1.5366112 0
5.8640003 2.8220983 1.537441 0
5.8670006 2.8138118 1.5380634 0
5.8710003 2.8060353 1.5388931 0
5.8750005 2.7982447 1.5397228 0
5.8780003 2.789922 1.5403451 0
5.8820004 2.7821043 1.5411749 0
5.8860002 2.7742722 1.5420046 0
5.8890004 2.7659135 1.542627 0
5.8930001 2.758054 1.5434567 0
5.8970003 2.7501805 1.5442865 0
5.9000006 2.7417858 1.5449088 0
5.9040003 2.7338848 1.5457385 0
5.9080005 2.7259698 1.5465683 0
5.9110003 2.7175386 1.5471905 0
5.9150004 2.7095969 1.5480204 0
5.9190001 2.7016399 1.5488501 0
5.9220004 2.6931729 1.5494723 0
5.9260006 2.6851895 1.5503021 0
5.9300003 2.6771913 1.5511318 0
5.9340005 2.6691787 1.5519617 0
5.9370003 2.6606629 1.5525839 0
5.9410005 2.6526234 1.5534137 0
5.9450002 2.6445692 1.5542433 0
5.9490004 2.6365011 1.5550731 0
5.9520001 2.6279364 1.5556954 0
5.9560003 2.6198411 1.5565252 0
5.9600005 2.6117313 1.557355 0
5.9640002 2.6036065 1.5581847 0
5.9670005 2.5949936 1.558807 0
5.9710002 2.5868421 1.5596368 0
5.9750004 2.5786762 1.5604666 0
5.9790006 2.5704961 1.5612965 0
5.9820004 2.5618341 1.5619187 0
5.9860005 2.5536268 1.5627486 0
5.9900002 2.5454049 1.5635781 0
5.9940004 2.537169 1.5644079 0
5.9980001 2.528918 1.5652376 0
6.0010004 2.520195 1.56586 0
6.0050006 2.5119176 1.5666898 0
6.0090003 2.5036252 1.5675195 0
5.7710004 3.0251765 1.508461 0
5.7740002 3.0171983 1.5090778 0
5.7780004 3.0097773 1.5099005 0
5.7810001 3.0017757 1.5105174 0
5.7850003 2.9943278 1.5113399 0
5.7880006 2.9863029 1.5119568 0
5.7920003 2.9788277 1.5127794 0
5.7960005 2.9713383 1.5136019 0
5.7990003 2.9632769 1.5142187 0
5.8030005 2.9557607 1.5150412 0
5.8060002 2.9476759 1.5156581 0
5.8100004 2.9401324 1.5164808 0
5.8130002 2.9320242 1.5170976 0
5.8170004 2.9244537 1.5179201 0
5.8200002 2.916322 1.518537 0
5.8240004 2.9087245 1.5193597 0
5.8280005 2.9011126 1.5201821 0
5.8310003 2.8929448 1.520799 0
5.8350005 2.8853059 1.5216216 0
5.8380003 2.8771145 1.5222385 0
5.8420005 2.8694484 1.523061 0
5.8460002 2.8617675 1.5238835 0
5.8490005 2.8535407 1.5245005 0
5.8530002 2.8458328 1.525323 0
5.8560004 2.8375823 1.5259398 0
5.8600001 2.8298476 1.5267624 0
5.8640003 2.8220983 1.5275849 0
5.8670006 2.8138118 1.5282019 0
5.8710003 2.8060353 1.5290244 0
5.8750005 2.7982447 1.5298469 0
5.8780003 2.789922 1.5304638 0
5.8820004 2.7821043 1.5312865 0
5.8860002 2.7742722 1.5321089 0
5.8890004 2.7659135 1.5327258 0
5.8930001 2.758054 1.5335484 0
5.8970003 2.7501805 1.5343709 0
5.9000006 2.7417858 1.5349878 0
5.9040003 2.7338848 1.5358102 0
5.9080005 2.7259698 1.5366329 0
5.9110003 2.7175386 1.5372498 0
5.9150004 2.7095969 1.5380723 0
5.9190001 2.7016399 1.5388948 0
5.9220004 2.6931729 1.5395118 0
5.9260006 2.6851895 1.5403343 0
5.9300003 2.6771913 1.5411569 0
5.9340005 2.6691787 1.5419794 0
5.9370003 2.6606629 1.5425962 0
5.9410005 2.6526234 1.5434189 0
5.9450002 2.6445692 1.5442413 0
5.9490004 2.6365011 1.545064 0
5.9520001 2.6279364 1.5456806 0
5.9560003 2.6198411 1.5465033 0
5.9600005 2.6117313 1.5473258 0
5.9640002 2.6036065 1.5481484 0
5.9670005 2.5949936 1.5487653 0
5.9710002 2.5868421 1.5495877 0
5.9750004 2.5786762 1.5504104 0
5.9790006 2.5704961 1.5512329 0
5.9820004 2.5618341 1.5518498 0
5.9860005 2.5536268 1.5526724 0
5.9900002 2.5454049 1.5534948 0
5.9940004 2.537169 1.5543175 0
5.9980001 2.528918 1.5551399 0
6.0010004 2.520195 1.5557569 0
6.0050006 2.5119176 1.5565794 0
6.0090003 2.5036252 1.5574019 0
5.7710004 3.0251765 1.4987727 0
5.7740002 3.0171983 1.4993843 0
5.7780004 3.0097773 1.5001996 0
5.7810001 3.0017757 1.500811 0
5.7850003 2.9943278 1.5016264 0
5.7880006 2.9863029 1.5022379 0
5.7920003 2.9788277 1.5030532 0
5.7960005 2.9713383 1.5038686 0
5.7990003 2.9632769 1.50448 0
5.8030005 2.9557607 1.5052954 0
5.8060002 2.9476759 1.5059067 0
5.8100004 2.9401324 1.5067221 0
5.8130002 2.9320242 1.5073336 0
5.8170004 2.9244537 1.5081489 0
5.8200002 2.916322 1.5087605 0
5.8240004 2.9087245 1.5095758 0
5.8280005 2.9011126 1.5103911 0
5.8310003 2.8929448 1.5110025 0
5.8350005 2.8853059 1.5118179 0
5.8380003 2.8771145 1.5124294 0
5.8420005 2.8694484 1.5132447 0
5.8460002 2.8617675 1.51406 0
5.8490005 2.8535407 1.5146716 0
5.8530002 2.8458328 1.5154868 0
5.8560004 2.8375823 1.5160983 0
5.8600001 2.8298476 1.5169135 0
5.8640003 2.8220983 1.5177289 0
5.8670006 2.8138118 1.5183405 0
5.8710003 2.8060353 1.5191557 0
5.8750005 2.7982447 1.5199711 0
5.8780003 2.789922 1.5205826 0
5.8820004 2.7821043 1.5213979 0
5.8860002 2.7742722 1.5222132 0
5.8890004 2.7659135 1.5228248 0
5.8930001 2.758054 1.5236399 0
5.8970003 2.7501805 1.5244553 0
5.9000006 2.7417858 1.525067 0
5.9040003 2.7338848 1.5258821 0
5.9080005 2.7259698 1.5266975 0
5.9110003 2.7175386 1.5273091 0
5.9150004 2.7095969 1.5281243 0
5.9190001 2.7016399 1.5289396 0
5.9220004 2.6931729 1.5295511 0
5.9260006 2.6851895 1.5303665 0
5.9300003 2.6771913 1.5311817 0
5.9340005 2.6691787 1.5319971 0
5.9370003 2.6606629 1.5326086 0
5.9410005 2.6526234 1.5334239 0
5.9450002 2.6445692 1.5342392 0
5.9490004 2.6365011 1.5350546 0
5.9520001 2.6279364 1.535666 0
5.9560003 2.6198411 1.5364813 0
5.9600005 2.6117313 1.5372967 0
5.9640002 2.6036065 1.5381119 0
5.9670005 2.5949936 1.5387235 0
5.9710002 2.5868421 1.5395387 0
5.9750004 2.5786762 1.5403541 0
5.9790006 2.5704961 1.5411695 0
5.9820004 2.5618341 1.5417809 0
5.9860005 2.5536268 1.5425963 0
5.9900002 2.5454049 1.5434116 0
5.9940004 2.537169 1.5442269 0
5.9980001 2.528918 1.5450423 0
6.0010004 2.520195 1.5456537 0
6.0050006 2.5119176 1.5464691 0
6.0090003 2.5036252 1.5472844 0
5.7710004 3.0251765 1.4890845 0
5.7740002 3.0171983 1.4896905 0
5.7780004 3.0097773 1.4904988 0
5.7810001 3.0017757 1.4911047 0
5.7850003 2.9943278 1.4919128 0
5.7880006 2.9863029 1.492519 0
5.7920003 2.9788277 1.4933271 0
5.7960005 2.9713383 1.4941351 0
5.7990003 2.9632769 1.4947412 0
5.8030005 2.9557607 1.4955493 0
5.8060002 2.9476759 1.4961555 0
5.8100004 2.9401324 1.4969635 0
5.8130002 2.9320242 1.4975696 0
5.8170004 2.9244537 1.4983777 0
5.8200002 2.916322 1.4989839 0
5.8240004 2.9087245 1.4997919 0
5.8280005 2.9011126 1.5006 0
5.8310003 2.8929448 1.501206 0
5.8350005 2.8853059 1.5020142 0
5.8380003 2.8771145 1.5026202 0
5.8420005 2.8694484 1.5034283 0
5.8460002 2.8617675 1.5042365 0
5.8490005 2.8535407 1.5048425 0
5.8530002 2.8458328 1.5056506 0
5.8560004 2.8375823 1.5062567 0
5.8600001 2.8298476 1.5070648 0
5.8640003 2.8220983 1.5078729 0
5.8670006 2.8138118 1.5084791 0
5.8710003 2.8060353 1.5092871 0
5.8750005 2.7982447 1.5100954 0
5.8780003 2.789922 1.5107013 0
5.8820004 2.7821043 1.5115094 0
5.8860002 2.7742722 1.5123175 0
5.8890004 2.7659135 1.5129237 0
5.8930001 2.758054 1.5137317 0
5.8970003 2.7501805 1.5145398 0
5.9000006 2.7417858 1.515146 0
5.9040003 2.7338848 1.515954 0
5.9080005 2.7259698 1.5167621 0
5.9110003 2.7175386 1.5173682 0
5.9150004 2.7095969 1.5181763 0
5.9190001 2.7016399 1.5189843 0
5.9220004 2.6931729 1.5195905 0
5.9260006 2.6851895 1.5203986 0
5.9300003 2.6771913 1.5212067 0
5.9340005 2.6691787 1.5220149 0
5.9370003 2.6606629 1.5226209 0
5.9410005 2.6526234 1.523429 0
5.9450002 2.6445692 1.5242372 0
5.9490004 2.6365011 1.5250453 0
5.9520001 2.6279364 1.5256512 0
5.9560003 2.6198411 1.5264595 0
5.9600005 2.6117313 1.5272675 0
5.9640002 2.6036065 1.5280756 0
5.9670005 2.5949936 1.5286816 0
5.9710002 2.5868421 1.5294898 0
5.9750004 2.5786762 1.5302979 0
5.9790006 2.5704961 1.531106 0
5.9820004 2.5618341 1.5317121 0
5.9860005 2.5536268 1.5325203 0
5.9900002 2.5454049 1.5333283 0
5.9940004 2.537169 1.5341364 0
5.9980001 2.528918 1.5349445 0
6.0010004 2.520195 1.5355506 0
6.0050006 2.5119176 1.5363588 0
6.0090003 2.5036252 1.5371667 0
5.7710004 3.0251765 1.4793962 0
5.7740002 3.0171983 1.4799969 0
5.7780004 3.0097773 1.4807978 0
5.7810001 3.0017757 1.4813985 0
5.7850003 2.9943278 1.4821994 0
5.7880006 2.9863029 1.4828001 0
5.7920003 2.9788277 1.4836009 0
5.7960005 2.9713383 1.4844018 0
5.7990003 2.9632769 1.4850024 0
5.8030005 2.9557607 1.4858034 0
5.8060002 2.9476759 1.4864041 0
5.8100004 2.9401324 1.4872049 0
5.8130002 2.9320242 1.4878056 0
5.8170004 2.9244537 1.4886066 0
5.8200002 2.916322 1.4892071 0
5.8240004 2.9087245 1.490008 0
5.8280005 2.9011126 1.490809 0
5.8310003 2.8929448 1.4914095 0
5.8350005 2.8853059 1.4922105 0
5.8380003 2.8771145 1.4928112 0
5.8420005 2.8694484 1.4936122 0
5.8460002 2.8617675 1.4944129 0
5.8490005 2.8535407 1.4950136 0
5.8530002 2.8458328 1.4958144 0
5.8560004 2.8375823 1.4964151 0
5.8600001 2.8298476 1.497216 0
5.8640003 2.8220983 1.498017 0
5.8670006 2.8138118 1.4986176 0
5.8710003 2.8060353 1.4994185 0
5.8750005 2.7982447 1.5002195 0
5.8780003 2.789922 1.50082 0
5.8820004 2.7821043 1.5016209 0
5.8860002 2.7742722 1.5024217 0
5.8890004 2.7659135 1.5030226 0
5.8930001 2.758054 1.5038234 0
5.8970003 2.7501805 1.5046244 0
5.9000006 2.7417858 1.5052251 0
5.9040003 2.7338848 1.5060259 0
5.9080005 2.7259698 1.5068268 0
5.9110003 2.7175386 1.5074273 0
5.9150004 2.7095969 1.5082283 0
5.9190001 2.7016399 1.5090292 0
5.9220004 2.6931729 1.5096298 0
5.9260006 2.6851895 1.5104308 0
5.9300003 2.6771913 1.5112317 0
5.9340005 2.6691787 1.5120326 0
5.9370003 2.6606629 1.5126332 0
5.9410005 2.6526234 1.5134341 0
5.9450002 2.6445692 1.5142349 0
5.9490004 2.6365011 1.5150359 0
5.9520001 2.6279364 1.5156366 0
5.9560003 2.6198411 1.5164374 0
5.9600005 2.6117313 1.5172384 0
5.9640002 2.6036065 1.5180392 0
5.9670005 2.5949936 1.5186399 0
5.9710002 2.5868421 1.5194407 0
5.9750004 2.5786762 1.5202416 0
5.9790006 2.5704961 1.5210426 0
5.9820004 2.5618341 1.5216433 0
5.9860005 2.5536268 1.5224441 0
5.9900002 2.5454049 1.523245 0
5.9940004 2.537169 1.5240459 0
5.9980001 2.528918 1.5248467 0
6.0010004 2.520195 1.5254475 0
6.0050006 2.5119176 1.5262483 0
6.0090003 2.5036252 1.5270492 0
5.7710004 3.0251765 1.4697081 0
5.7740002 3.0171983 1.4703032 0
5.7780004 3.0097773 1.4710969 0
5.7810001 3.0017757 1.4716922 0
5.7850003 2.9943278 1.4724859 0
5.7880006 2.9863029 1.4730811 0
5.7920003 2.9788277 1.4738747 0
5.7960005 2.9713383 1.4746685 0
5.7990003 2.9632769 1.4752637 0
5.8030005 2.9557607 1.4760574 0
5.8060002 2.9476759 1.4766526 0
5.8100004 2.9401324 1.4774463 0
5.8130002 2.9320242 1.4780415 0
5.8170004 2.9244537 1.4788353 0
5.8200002 2.916322 1.4794304 0
5.8240004 2.9087245 1.4802241 0
5.8280005 2.9011126 1.4810179 0
5.8310003 2.8929448 1.4816132 0
5.8350005 2.8853059 1.4824069 0
5.8380003 2.8771145 1.4830019 0
5.8420005 2.8694484 1.4837958 0
5.8460002 2.8617675 1.4845893 0
5.8490005 2.8535407 1.4851847 0
5.8530002 2.8458328 1.4859784 0
5.8560004 2.8375823 1.4865736 0
5.8600001 2.8298476 1.4873672 0
5.8640003 2.8220983 1.488161 0
5.8670006 2.8138118 1.4887563 0
5.8710003 2.8060353 1.4895499 0
5.8750005 2.7982447 1.4903436 0
5.8780003 2.789922 1.4909388 0
5.8820004 2.7821043 1.4917325 0
5.8860002 2.7742722 1.4925262 0
5.8890004 2.7659135 1.4931214 0
5.8930001 2.758054 1.493915 0
5.8970003 2.7501805 1.4947088 0
5.9000006 2.7417858 1.4953041 0
5.9040003 2.7338848 1.4960977 0
5.9080005 2.7259698 1.4968915 0
5.9110003 2.7175386 1.4974866 0
5.9150004 2.7095969 1.4982803 0
5.9190001 2.7016399 1.499074 0
5.9220004 2.6931729 1.4996693 0
5.9260006 2.6851895 1.5004629 0
5.9300003 2.6771913 1.5012566 0
5.9340005 2.6691787 1.5020503 0
5.9370003 2.6606629 1.5026455 0
5.9410005 2.6526234 1.5034392 0
5.9450002 2.6445692 1.5042329 0
5.9490004 2.6365011 1.5050266 0
5.9520001 2.6279364 1.5056218 0
5.9560003 2.6198411 1.5064155 0
5.9600005 2.6117313 1.5072092 0
5.9640002 2.6036065 1.5080029 0
5.9670005 2.5949936 1.5085981 0
5.9710002 2.5868421 1.5093917 0
5.9750004 2.5786762 1.5101855 0
5.9790006 2.5704961 1.5109792 0
5.9820004 2.5618341 1.5115744 0
5.9860005 2.5536268 1.5123681 0
5.9900002 2.5454049 1.5131617 0
5.9940004 2.537169 1.5139554 0
5.9980001 2.528918 1.5147491 0
6.0010004 2.520195 1.5153444 0
6.0050006 2.5119176 1.5161381 0
6.0090003 2.5036252 1.5169318 0
5.7710004 3.0251765 1.4600197 0
5.7740002 3.0171983 1.4606096 0
5.7780004 3.0097773 1.461396 0
5.7810001 3.0017757 1.4619858 0
5.7850003 2.9943278 1.4627724 0
5.7880006 2.9863029 1.4633622 0
5.7920003 2.9788277 1.4641486 0
5.7960005 2.9713383 1.4649352 0
5.7990003 2.9632769 1.4655249 0
5.8030005 2.9557607 1.4663115 0
5.8060002 2.9476759 1.4669013 0
5.8100004 2.9401324 1.4676877 0
5.8130002 2.9320242 1.4682776 0
5.8170004 2.9244537 1.469064 0
5.8200002 2.916322 1.4696538 0
5.8240004 2.9087245 1.4704403 0
5.8280005 2.9011126 1.4712268 0
5.8310003 2.8929448 1.4718165 0
5.8350005 2.8853059 1.4726031 0
5.8380003 2.8771145 1.4731929 0
5.8420005 2.8694484 1.4739795 0
5.8460002 2.8617675 1.4747659 0
5.8490005 2.8535407 1.4753557 0
5.8530002 2.8458328 1.4761422 0
5.8560004 2.8375823 1.476732 0
5.8600001 2.8298476 1.4775184 0
5.8640003 2.8220983 1.478305 0
5.8670006 2.8138118 1.4788948 0
5.8710003 2.8060353 1.4796813 0
5.8750005 2.7982447 1.4804677 0
5.8780003 2.789922 1.4810575 0
5.8820004 2.7821043 1.4818439 0
5.8860002 2.7742722 1.4826304 0
5.8890004 2.7659135 1.4832203 0
5.8930001 2.758054 1.4840068 0
5.8970003 2.7501805 1.4847932 0
5.9000006 2.7417858 1.4853832 0
5.9040003 2.7338848 1.4861696 0
5.9080005 2.7259698 1.4869561 0
5.9110003 2.7175386 1.4875458 0
5.9150004 2.7095969 1.4883323 0
5.9190001 2.7016399 1.4891187 0
5.9220004 2.6931729 1.4897085 0
5.9260006 2.6851895 1.4904951 0
5.9300003 2.6771913 1.4912815 0
5.9340005 2.6691787 1.4920681 0
5.9370003 2.6606629 1.4926578 0
5.9410005 2.6526234 1.4934443 0
5.9450002 2.6445692 1.4942307 0
5.9490004 2.6365011 1.4950172 0
5.9520001 2.6279364 1.495607 0
5.9560003 2.6198411 1.4963934 0
5.9600005 2.6117313 1.49718 0
5.9640002 2.6036065 1.4979664 0
5.9670005 2.5949936 1.4985563 0
5.9710002 2.5868421 1.4993427 0
5.9750004 2.5786762 1.5001292 0
5.9790006 2.5704961 1.5009156 0
5.9820004 2.5618341 1.5015056 0
5.9860005 2.5536268 1.5022919 0
5.9900002 2.5454049 1.5030783 0
5.9940004 2.537169 1.5038649 0
5.9980001 2.528918 1.5046513 0
6.0010004 2.520195 1.5052412 0
6.0050006 2.5119176 1.5060277 0
6.0090003 2.5036252 1.5068141 0
5.7710004 3.0251765 1.4503316 0
5.7740002 3.0171983 1.4509159 0
5.7780004 3.0097773 1.4516952 0
5.7810001 3.0017757 1.4522796 0
5.7850003 2.9943278 1.4530588 0
5.7880006 2.9863029 1.4536433 0
5.7920003 2.9788277 1.4544225 0
5.7960005 2.9713383 1.4552019 0
5.7990003 2.9632769 1.4557862 0
5.8030005 2.9557607 1.4565655 0
5.8060002 2.9476759 1.4571499 0
5.8100004 2.9401324 1.4579291 0
5.8130002 2.9320242 1.4585135 0
5.8170004 2.9244537 1.4592928 0
5.8200002 2.916322 1.4598771 0
5.8240004 2.9087245 1.4606565 0
5.8280005 2.9011126 1.4614358 0
5.8310003 2.8929448 1.4620202 0
5.8350005 2.8853059 1.4627994 0
5.8380003 2.8771145 1.4633838 0
5.8420005 2.8694484 1.4641631 0
5.8460002 2.8617675 1.4649423 0
5.8490005 2.8535407 1.4655268 0
5.8530002 2.8458328 1.466306 0
5.8560004 2.8375823 1.4668905 0
5.8600001 2.8298476 1.4676696 0
5.8640003 2.8220983 1.4684489 0
5.8670006 2.8138118 1.4690334 0
5.8710003 2.8060353 1.4698126 0
5.8750005 2.7982447 1.4705919 0
5.8780003 2.789922 1.4711763 0
5.8820004 2.7821043 1.4719555 0
5.8860002 2.7742722 1.4727348 0
5.8890004 2.7659135 1.4733192 0
5.8930001 2.758054 1.4740984 0
5.8970003 2.7501805 1.4748777 0
5.9000006 2.7417858 1.4754622 0
5.9040003 2.7338848 1.4762414 0
5.9080005 2.7259698 1.4770206 0
5.9110003 2.7175386 1.477605 0
5.9150004 2.7095969 1.4783844 0
5.9190001 2.7016399 1.4791635 0
5.9220004 2.6931729 1.479748 0
5.9260006 2.6851895 1.4805273 0
5.9300003 2.6771913 1.4813066 0
5.9340005 2.6691787 1.4820858 0
5.9370003 2.6606629 1.4826702 0
5.9410005 2.6526234 1.4834495 0
5.9450002 2.6445692 1.4842286 0
5.9490004 2.6365011 1.4850079 0
5.9520001 2.6279364 1.4855924 0
5.9560003 2.6198411 1.4863716 0
5.9600005 2.6117313 1.4871508 0
5.9640002 2.6036065 1.4879299 0
5.9670005 2.5949936 1.4885144 0
5.9710002 2.5868421 1.4892937 0
5.9750004 2.5786762 1.490073 0
5.9790006 2.5704961 1.4908522 0
5.9820004 2.5618341 1.4914366 0
5.9860005 2.5536268 1.4922159 0
5.9900002 2.5454049 1.4929951 0
5.9940004 2.537169 1.4937744 0
5.9980001 2.528918 1.4945536 0
6.0010004 2.520195 1.495138 0
6.0050006 2.5119176 1.4959173 0
6.0090003 2.5036252 1.4966966 0
5.7710004 3.0251765 1.4406432 0
5.7740002 3.0171983 1.4412222 0
5.7780004 3.0097773 1.4419943 0
5.7810001 3.0017757 1.4425733 0
5.7850003 2.9943278 1.4433453 0
5.7880006 2.9863029 1.4439244 0
5.7920003 2.9788277 1.4446964 0
5.7960005 2.9713383 1.4454685 0
5.7990003 2.9632769 1.4460474 0
5.8030005 2.9557607 1.4468194 0
5.8060002 2.9476759 1.4473984 0
5.8100004 2.9401324 1.4481705 0
5.8130002 2.9320242 1.4487495 0
5.8170004 2.9244537 1.4495215 0
5.8200002 2.916322 1.4501005 0
5.8240004 2.9087245 1.4508727 0
5.8280005 2.9011126 1.4516447 0
5.8310003 2.8929448 1.4522237 0
5.8350005 2.8853059 1.4529958 0
5.8380003 2.8771145 1.4535748 0
5.8420005 2.8694484 1.4543468 0
5.8460002 2.8617675 1.4551187 0
5.8490005 2.8535407 1.4556978 0
5.8530002 2.8458328 1.4564698 0
5.8560004 2.8375823 1.4570489 0
5.8600001 2.8298476 1.4578209 0
5.8640003 2.8220983 1.4585929 0
5.8670006 2.8138118 1.459172 0
5.8710003 2.8060353 1.459944 0
5.8750005 2.7982447 1.460716 0
5.8780003 2.789922 1.461295 0
5.8820004 2.7821043 1.4620671 0
5.8860002 2.7742722 1.462839 0
5.8890004 2.7659135 1.4634181 0
5.8930001 2.758054 1.46419 0
5.8970003 2.7501805 1.4649621 0
5.9000006 2.7417858 1.4655412 0
5.9040003 2.7338848 1.4663132 0
5.9080005 2.7259698 1.4670852 0
5.9110003 2.7175386 1.4676642 0
5.9150004 2.7095969 1.4684364 0
5.9190001 2.7016399 1.4692084 0
5.9220004 2.6931729 1.4697874 0
5.9260006 2.6851895 1.4705594 0
5.9300003 2.6771913 1.4713314 0
5.9340005 2.6691787 1.4721035 0
5.9370003 2.6606629 1.4726825 0
5.9410005 2.6526234 1.4734545 0
5.9450002 2.6445692 1.4742265 0
5.9490004 2.6365011 1.4749986 0
5.9520001 2.6279364 1.4755776 0
5.9560003 2.6198411 1.4763496 0
5.9600005 2.6117313 1.4771217 0
5.9640002 2.6036065 1.4778937 0
5.9670005 2.5949936 1.4784727 0
5.9710002 2.5868421 1.4792446 0
5.9750004 2.5786762 1.4800167 0
5.9790006 2.5704961 1.4807888 0
5.9820004 2.5618341 1.4813678 0
5.9860005 2.5536268 1.4821398 0
5.9900002 2.5454049 1.4829118 0
5.9940004 2.537169 1.4836839 0
5.9980001 2.528918 1.4844559 0
6.0010004 2.520195 1.4850349 0
6.0050006 2.5119176 1.4858071 0
6.0090003 2.5036252 1.4865789 0
5.7710004 3.0251765 1.4309551 0
5.7740002 3.0171983 1.4315284 0
5.7780004 3.0097773 1.4322934 0
5.7810001 3.0017757 1.4328669 0
5.7850003 2.9943278 1.4336318 0
5.7880006 2.9863029 1.4342055 0
5.7920003 2.9788277 1.4349703 0
5.7960005 2.9713383 1.435735 0
5.7990003 2.9632769 1.4363086 0
5.8030005 2.9557607 1.4370735 0
5.8060002 2.9476759 1.4376471 0
5.8100004 2.9401324 1.438412 0
5.8130002 2.9320242 1.4389855 0
5.8170004 2.9244537 1.4397503 0
5.8200002 2.916322 1.4403239 0
5.8240004 2.9087245 1.4410888 0
5.8280005 2.9011126 1.4418536 0
5.8310003 2.8929448 1.4424272 0
5.8350005 2.8853059 1.443192 0
5.8380003 2.8771145 1.4437656 0
5.8420005 2.8694484 1.4445305 0
5.8460002 2.8617675 1.4452952 0
5.8490005 2.8535407 1.4458688 0
5.8530002 2.8458328 1.4466336 0
5.8560004 2.8375823 1.4472073 0
5.8600001 2.8298476 1.4479721 0
5.8640003 2.8220983 1.4487369 0
5.8670006 2.8138118 1.4493107 0
5.8710003 2.8060353 1.4500754 0
5.8750005 2.7982447 1.4508401 0
5.8780003 2.789922 1.4514138 0
5.8820004 2.7821043 1.4521786 0
5.8860002 2.7742722 1.4529433 0
5.8890004 2.7659135 1.4535171 0
5.8930001 2.758054 1.4542818 0
5.8970003 2.7501805 1.4550467 0
5.9000006 2.7417858 1.4556203 0
5.9040003 2.7338848 1.456385 0
5.9080005 2.7259698 1.4571499 0
5.9110003 2.7175386 1.4577235 0
5.9150004 2.7095969 1.4584883 0
5.9190001 2.7016399 1.4592531 0
5.9220004 2.6931729 1.4598267 0
5.9260006 2.6851895 1.4605916 0
5.9300003 2.6771913 1.4613563 0
5.9340005 2.6691787 1.4621212 0
5.9370003 2.6606629 1.4626948 0
5.9410005 2.6526234 1.4634596 0
5.9450002 2.6445692 1.4642243 0
5.9490004 2.6365011 1.4649892 0
5.9520001 2.6279364 1.4655628 0
5.9560003 2.6198411 1.4663277 0
5.9600005 2.6117313 1.4670925 0
5.9640002 2.6036065 1.4678572 0
5.9670005 2.5949936 1.4684309 0
5.9710002 2.5868421 1.4691956 0
5.9750004 2.5786762 1.4699605 0
5.9790006 2.5704961 1.4707253 0
5.9820004 2.5618341 1.4712989 0
5.9860005 2.5536268 1.4720638 0
5.9900002 2.5454049 1.4728286 0
5.9940004 2.537169 1.4735935 0
5.9980001 2.528918 1.4743582 0
6.0010004 2.520195 1.4749318 0
6.0050006 2.5119176 1.4756967 0
6.0090003 2.5036252 1.4764614 0
5.7710004 3.0251765 1.4212667 0
5.7740002 3.0171983 1.4218349 0
5.7780004 3.0097773 1.4225925 0
5.7810001 3.0017757 1.4231607 0
5.7850003 2.9943278 1.4239184 0
5.7880006 2.9863029 1.4244865 0
5.7920003 2.9788277 1.4252441 0
5.7960005 2.9713383 1.4260017 0
5.7990003 2.9632769 1.4265699 0
5.8030005 2.9557607 1.4273276 0
5.8060002 2.9476759 1.4278957 0
5.8100004 2.9401324 1.4286534 0
5.8130002 2.9320242 1.4292214 0
5.8170004 2.9244537 1.4299791 0
5.8200002 2.916322 1.4305474 0
5.8240004 2.9087245 1.4313049 0
5.8280005 2.9011126 1.4320626 0
5.8310003 2.8929448 1.4326307 0
5.8350005 2.8853059 1.4333884 0
5.8380003 2.8771145 1.4339565 0
5.8420005 2.8694484 1.4347141 0
5.8460002 2.8617675 1.4354717 0
5.8490005 2.8535407 1.4360399 0
5.8530002 2.8458328 1.4367975 0
5.8560004 2.8375823 1.4373657 0
5.8600001 2.8298476 1.4381232 0
5.8640003 2.8220983 1.4388809 0
