# .PCD v0.7 - Point Cloud Data file format
VERSION 0.7
FIELDS x y z intensity
SIZE 4 4 4 4
TYPE F F F F
COUNT 1 1 1 1
WIDTH 1416
HEIGHT 1
VIEWPOINT 0 0 0 1 0 0 0
POINTS 1416
DATA ascii
3.8340003 -1.5697923 0.79423952 0
3.8350003 -1.5764321 0.79435313 0
3.8370004 -1.5835229 0.79458046 0
3.8390002 -1.5906209 0.79480767 0
3.8430002 -1.5986279 0.79526222 0
4.0120001 -1.1796719 0.80795205 0
4.0050001 -1.1839776 0.8071692 0
3.9980004 -1.1882579 0.80638635 0
3.9910002 -1.1925131 0.8056035 0
3.9840002 -1.196743 0.80482066 0
3.9780002 -1.2012707 0.80414963 0
3.9710002 -1.2054518 0.80336678 0
3.9640002 -1.2096078 0.80258393 0
3.9570003 -1.2137386 0.80180109 0
3.9510002 -1.2181741 0.80113006 0
3.9440002 -1.2222561 0.80034721 0
3.9370003 -1.2263129 0.79956436 0
3.9310002 -1.23068 0.79889333 0
3.9240003 -1.234688 0.79811049 0
3.9180002 -1.2390099 0.79743946 0
3.9110003 -1.2429693 0.79665661 0
3.9050002 -1.247246 0.79598558 0
3.8980002 -1.2511568 0.79520273 0
3.8920002 -1.2553884 0.7945317 0
3.8850002 -1.2592504 0.79374886 0
3.8790002 -1.263437 0.79307783 0
3.8720002 -1.2672503 0.79229498 0
3.8660002 -1.2713919 0.79162395 0
3.8600004 -1.2755119 0.79095298 0
3.8530002 -1.2792529 0.79017007 0
3.8470004 -1.2833277 0.7894991 0
3.8410003 -1.2873809 0.78882807 0
3.8350003 -1.2914124 0.78815711 0
3.8280003 -1.2950579 0.7873742 0
3.8220003 -1.2990443 0.78670323 0
3.8160002 -1.303009 0.7860322 0
3.8100002 -1.3069521 0.78536117 0
3.8040001 -1.3108735 0.78469014 0
3.7970002 -1.3144001 0.78390729 0
3.7910004 -1.3182765 0.78323627 0
3.7850003 -1.3221312 0.78256524 0
3.7790003 -1.3259643 0.78189421 0
3.7730002 -1.3297757 0.78122318 0
3.7670002 -1.3335655 0.78055221 0
3.7610002 -1.3373337 0.77988118 0
3.7550004 -1.3410802 0.77921015 0
3.7490003 -1.3448051 0.77853918 0
3.7430003 -1.3485082 0.77786815 0
3.7370002 -1.3521899 0.77719712 0
3.7320004 -1.356243 0.77663791 0
3.7260003 -1.3598831 0.77596688 0
3.7200003 -1.3635015 0.77529591 0
3.7140002 -1.3670983 0.77462488 0
3.7080002 -1.3706735 0.77395386 0
3.7030003 -1.3746293 0.7733947 0
3.6970003 -1.3781629 0.77272367 0
3.6910002 -1.3816749 0.77205265 0
3.6850002 -1.3851652 0.77138162 0
3.6820002 -1.3898624 0.77104616 0
3.6870003 -1.3978388 0.77160531 0
3.6920002 -1.4058334 0.77216446 0
3.6970003 -1.4138459 0.77272367 0
3.8210003 -1.4776322 0.78659141 0
3.8160002 -1.4817015 0.7860322 0
3.8120003 -1.4861749 0.78558481 0
3.8090003 -1.4910579 0.78524935 0
3.8060002 -1.49593 0.78491378 0
3.8040001 -1.5012186 0.78469014 0
3.8020003 -1.5065002 0.78446651 0
3.8010004 -1.5122057 0.78435463 0
3.8010004 -1.5183405 0.78435463 0
3.8010004 -1.5244752 0.78435463 0
3.8030002 -1.5314829 0.78457832 0
3.8060002 -1.5389363 0.78491378 0
3.8110003 -1.5472808 0.78547299 0
3.8230002 -1.5587367 0.78681505 0
3.8360002 -1.5706798 0.78826892 0
3.8370004 -1.5773232 0.78838074 0
3.8380003 -1.5839702 0.78849256 0
3.8400002 -1.5910699 0.7887162 0
3.8430002 -1.5986279 0.78905177 0
3.8490002 -1.607555 0.7897228 0
4.0120001 -1.1796719 0.80143666 0
4.0050001 -1.1839776 0.80066645 0
3.9980004 -1.1882579 0.79989624 0
3.9910002 -1.1925131 0.79912603 0
3.9840002 -1.196743 0.79835582 0
3.9780002 -1.2012707 0.79769564 0
3.9710002 -1.2054518 0.79692537 0
3.9640002 -1.2096078 0.7961551 0
3.9570003 -1.2137386 0.79538488 0
3.9510002 -1.2181741 0.7947247 0
3.9440002 -1.2222561 0.79395449 0
3.9370003 -1.2263129 0.79318428 0
3.9310002 -1.23068 0.7925241 0
3.9240003 -1.234688 0.79175383 0
3.9180002 -1.2390099 0.79109365 0
3.9110003 -1.2429693 0.79032338 0
3.9050002 -1.247246 0.7896632 0
3.8980002 -1.2511568 0.78889298 0
3.8920002 -1.2553884 0.7882328 0
3.8850002 -1.2592504 0.78746259 0
3.8790002 -1.263437 0.78680241 0
3.8720002 -1.2672503 0.7860322 0
3.8660002 -1.2713919 0.78537196 0
3.8600004 -1.2755119 0.78471178 0
3.8530002 -1.2792529 0.78394157 0
3.8470004 -1.2833277 0.78328133 0
3.8410003 -1.2873809 0.78262115 0
3.8350003 -1.2914124 0.78196096 0
3.8280003 -1.2950579 0.78119075 0
3.8220003 -1.2990443 0.78053057 0
3.8160002 -1.303009 0.77987039 0
3.8100002 -1.3069521 0.77921015 0
3.8040001 -1.3108735 0.77854991 0
3.7970002 -1.3144001 0.77777976 0
3.7910004 -1.3182765 0.77711952 0
3.7850003 -1.3221312 0.77645934 0
3.7790003 -1.3259643 0.77579916 0
3.7730002 -1.3297757 0.77513897 0
3.7670002 -1.3335655 0.77447879 0
3.7610002 -1.3373337 0.77381855 0
3.7550004 -1.3410802 0.77315843 0
3.7490003 -1.3448051 0.77249825 0
3.7430003 -1.3485082 0.77183795 0
3.7370002 -1.3521899 0.77117777 0
3.7320004 -1.356243 0.77062762 0
3.7260003 -1.3598831 0.76996744 0
3.7200003 -1.3635015 0.76930726 0
3.7140002 -1.3670983 0.76864707 0
3.7080002 -1.3706735 0.76798689 0
3.7030003 -1.3746293 0.76743674 0
3.6970003 -1.3781629 0.7667765 0
3.6910002 -1.3816749 0.76611632 0
3.6850002 -1.3851652 0.76545614 0
3.6820002 -1.3898624 0.76512599 0
3.6870003 -1.3978388 0.76567614 0
3.6920002 -1.4058334 0.76622629 0
3.6970003 -1.4138459 0.7667765 0
3.8210003 -1.4776322 0.78042054 0
3.8160002 -1.4817015 0.77987039 0
3.8120003 -1.4861749 0.77943021 0
3.8090003 -1.4910579 0.77910012 0
3.8060002 -1.49593 0.77877003 0
3.8040001 -1.5012186 0.77854991 0
3.8020003 -1.5065002 0.77832991 0
3.8010004 -1.5122057 0.77821988 0
3.8010004 -1.5183405 0.77821988 0
3.8010004 -1.5244752 0.77821988 0
3.8030002 -1.5314829 0.77843994 0
3.8060002 -1.5389363 0.77877003 0
3.8110003 -1.5472808 0.77932024 0
3.8230002 -1.5587367 0.7806406 0
3.8380003 -1.5715672 0.78229105 0
3.8380003 -1.5777687 0.78229105 0
3.8390002 -1.5844175 0.78240108 0
3.8410003 -1.5915192 0.78262115 0
3.8440003 -1.5990789 0.78295124 0
3.8490002 -1.607555 0.78350139 0
4.0120001 -1.1796719 0.79492134 0
4.0050001 -1.1839776 0.79416376 0
3.9980004 -1.1882579 0.79340613 0
3.9910002 -1.1925131 0.79264855 0
3.9840002 -1.196743 0.79189092 0
3.9780002 -1.2012707 0.79124153 0
3.9710002 -1.2054518 0.79048395 0
3.9640002 -1.2096078 0.78972638 0
3.9570003 -1.2137386 0.7889688 0
3.9510002 -1.2181741 0.78831941 0
3.9440002 -1.2222561 0.78756177 0
3.9370003 -1.2263129 0.7868042 0
3.9310002 -1.23068 0.78615487 0
3.9240003 -1.234688 0.78539717 0
3.9180002 -1.2390099 0.78474784 0
3.9110003 -1.2429693 0.78399026 0
3.9050002 -1.247246 0.78334087 0
3.8980002 -1.2511568 0.78258324 0
3.8920002 -1.2553884 0.7819339 0
3.8850002 -1.2592504 0.78117633 0
3.8790002 -1.263437 0.78052694 0
3.8720002 -1.2672503 0.7797693 0
3.8660002 -1.2713919 0.77911997 0
3.8600004 -1.2755119 0.77847064 0
3.8530002 -1.2792529 0.777713 0
3.8470004 -1.2833277 0.77706367 0
3.8410003 -1.2873809 0.77641428 0
3.8350003 -1.2914124 0.77576488 0
3.8280003 -1.2950579 0.77500725 0
3.8220003 -1.2990443 0.77435791 0
3.8160002 -1.303009 0.77370858 0
3.8100002 -1.3069521 0.77305913 0
3.8040001 -1.3108735 0.7724098 0
3.7970002 -1.3144001 0.77165222 0
3.7910004 -1.3182765 0.77100289 0
3.7850003 -1.3221312 0.77035344 0
3.7790003 -1.3259643 0.7697041 0
3.7730002 -1.3297757 0.76905471 0
3.7670002 -1.3335655 0.76840532 0
3.7610002 -1.3373337 0.76775599 0
3.7550004 -1.3410802 0.76710665 0
3.7490003 -1.3448051 0.76645726 0
3.7430003 -1.3485082 0.76580787 0
3.7370002 -1.3521899 0.76515847 0
3.7320004 -1.356243 0.76461732 0
3.7260003 -1.3598831 0.76396799 0
3.7200003 -1.3635015 0.76331866 0
3.7140002 -1.3670983 0.76266921 0
3.7080002 -1.3706735 0.76201987 0
3.7030003 -1.3746293 0.76147872 0
3.6970003 -1.3781629 0.76082933 0
3.6910002 -1.3816749 0.76018 0
3.6850002 -1.3851652 0.7595306 0
3.6820002 -1.3898624 0.75920594 0
3.6870003 -1.3978388 0.75974709 0
3.6920002 -1.4058334 0.76028824 0
3.6970003 -1.4138459 0.76082933 0
3.8210003 -1.4776322 0.77424967 0
3.8160002 -1.4817015 0.77370858 0
3.8120003 -1.4861749 0.77327561 0
3.8090003 -1.4910579 0.77295095 0
3.8060002 -1.49593 0.77262628 0
3.8040001 -1.5012186 0.7724098 0
3.8020003 -1.5065002 0.77219331 0
3.8010004 -1.5122057 0.77208513 0
3.8010004 -1.5183405 0.77208513 0
3.8010004 -1.5244752 0.77208513 0
3.8030002 -1.5314829 0.77230155 0
3.8060002 -1.5389363 0.77262628 0
3.8110003 -1.5472808 0.77316743 0
3.8230002 -1.5587367 0.77446616 0
3.8400002 -1.5724546 0.77630603 0
3.8400002 -1.5786597 0.77630603 0
3.8400002 -1.5848649 0.77630603 0
3.8420002 -1.5919683 0.77652252 0
3.8440003 -1.5990789 0.77673894 0
3.8480003 -1.6071023 0.77717185 0
4.0120001 -1.1796719 0.78840601 0
4.0050001 -1.1839776 0.78766102 0
3.9980004 -1.1882579 0.78691602 0
3.9910002 -1.1925131 0.78617108 0
3.9840002 -1.196743 0.78542608 0
3.9780002 -1.2012707 0.78478754 0
3.9710002 -1.2054518 0.7840426 0
3.9640002 -1.2096078 0.78329754 0
3.9570003 -1.2137386 0.7825526 0
3.9510002 -1.2181741 0.78191406 0
3.9440002 -1.2222561 0.78116906 0
3.9370003 -1.2263129 0.78042412 0
3.9310002 -1.23068 0.77978557 0
3.9240003 -1.234688 0.77904058 0
3.9180002 -1.2390099 0.77840209 0
3.9110003 -1.2429693 0.77765703 0
3.9050002 -1.247246 0.77701855 0
3.8980002 -1.2511568 0.77627355 0
3.8920002 -1.2553884 0.775635 0
3.8850002 -1.2592504 0.77489007 0
3.8790002 -1.263437 0.77425146 0
3.8720002 -1.2672503 0.77350652 0
3.8660002 -1.2713919 0.77286798 0
3.8600004 -1.2755119 0.77222943 0
3.8530002 -1.2792529 0.77148443 0
3.8470004 -1.2833277 0.77084589 0
3.8410003 -1.2873809 0.77020741 0
3.8350003 -1.2914124 0.7695688 0
3.8280003 -1.2950579 0.76882386 0
3.8220003 -1.2990443 0.76818526 0
3.8160002 -1.303009 0.76754677 0
3.8100002 -1.3069521 0.76690817 0
3.8040001 -1.3108735 0.76626962 0
3.7970002 -1.3144001 0.76552463 0
3.7910004 -1.3182765 0.76488614 0
3.7850003 -1.3221312 0.76424754 0
3.7790003 -1.3259643 0.76360905 0
3.7730002 -1.3297757 0.76297045 0
3.7670002 -1.3335655 0.7623319 0
3.7610002 -1.3373337 0.76169336 0
3.7550004 -1.3410802 0.76105487 0
3.7490003 -1.3448051 0.76041627 0
3.7430003 -1.3485082 0.75977778 0
3.7370002 -1.3521899 0.75913918 0
3.7320004 -1.356243 0.75860703 0
3.7260003 -1.3598831 0.75796854 0
3.7200003 -1.3635015 0.75732994 0
3.7140002 -1.3670983 0.7566914 0
3.7080002 -1.3706735 0.75605285 0
3.7030003 -1.3746293 0.75552076 0
3.6970003 -1.3781629 0.75488222 0
3.6910002 -1.3816749 0.75424361 0
3.6850002 -1.3851652 0.75360513 0
3.6820002 -1.3898624 0.75328583 0
3.6870003 -1.3978388 0.75381798 0
3.6920002 -1.4058334 0.75435007 0
3.6970003 -1.4138459 0.75488222 0
3.8210003 -1.4776322 0.76807892 0
3.8160002 -1.4817015 0.76754677 0
3.8120003 -1.4861749 0.76712108 0
3.8090003 -1.4910579 0.76680177 0
3.8060002 -1.49593 0.76648247 0
3.8040001 -1.5012186 0.76626962 0
3.8020003 -1.5065002 0.76605678 0
3.8010004 -1.5122057 0.76595038 0
3.8010004 -1.5183405 0.76595038 0
3.8010004 -1.5244752 0.76595038 0
3.8030002 -1.5314829 0.76616323 0
3.8060002 -1.5389363 0.76648247 0
3.8110003 -1.5472808 0.76701462 0
3.8230002 -1.5587367 0.76829171 0
3.8420002 -1.5733422 0.77031374 0
3.8410003 -1.5791054 0.77020741 0
3.8420002 -1.5857595 0.77031374 0
3.8430002 -1.5924174 0.77042019 0
3.8450003 -1.5995299 0.77063304 0
3.8490002 -1.607555 0.7710588 0
3.8550003 -1.6165037 0.77169728 0
4.0120001 -1.1796719 0.78189063 0
4.0050001 -1.1839776 0.78115827 0
3.9980004 -1.1882579 0.78042597 0
3.9910002 -1.1925131 0.7796936 0
3.9840002 -1.196743 0.77896124 0
3.9780002 -1.2012707 0.77833349 0
3.9710002 -1.2054518 0.77760118 0
3.9640002 -1.2096078 0.77686882 0
3.9570003 -1.2137386 0.77613652 0
3.9510002 -1.2181741 0.77550876 0
3.9440002 -1.2222561 0.7747764 0
3.9370003 -1.2263129 0.77404404 0
3.9310002 -1.23068 0.77341628 0
3.9240003 -1.234688 0.77268398 0
3.9180002 -1.2390099 0.77205622 0
3.9110003 -1.2429693 0.77132392 0
3.9050002 -1.247246 0.77069616 0
3.8980002 -1.2511568 0.76996386 0
3.8920002 -1.2553884 0.7693361 0
3.8850002 -1.2592504 0.7686038 0
3.8790002 -1.263437 0.76797605 0
3.8720002 -1.2672503 0.76724368 0
3.8660002 -1.2713919 0.76661599 0
3.8600004 -1.2755119 0.76598823 0
3.8530002 -1.2792529 0.76525593 0
3.8470004 -1.2833277 0.76462817 0
3.8410003 -1.2873809 0.76400048 0
3.8350003 -1.2914124 0.76337272 0
3.8280003 -1.2950579 0.76264036 0
3.8220003 -1.2990443 0.76201266 0
3.8160002 -1.303009 0.76138496 0
3.8100002 -1.3069521 0.76075721 0
3.8040001 -1.3108735 0.76012945 0
3.7970002 -1.3144001 0.75939715 0
3.7910004 -1.3182765 0.75876939 0
3.7850003 -1.3221312 0.7581417 0
3.7790003 -1.3259643 0.757514 0
3.7730002 -1.3297757 0.75688624 0
3.7670002 -1.3335655 0.75625849 0
3.7610002 -1.3373337 0.75563073 0
3.7550004 -1.3410802 0.75500309 0
3.7490003 -1.3448051 0.75437534 0
3.7430003 -1.3485082 0.75374758 0
3.7370002 -1.3521899 0.75311989 0
3.7320004 -1.356243 0.7525968 0
3.7260003 -1.3598831 0.7519691 0
3.7200003 -1.3635015 0.75134134 0
3.7140002 -1.3670983 0.75071359 0
3.7080002 -1.3706735 0.75008583 0
3.7030003 -1.3746293 0.74956274 0
3.6970003 -1.3781629 0.74893504 0
3.6910002 -1.3816749 0.74830735 0
3.6850002 -1.3851652 0.74767959 0
3.6820002 -1.3898624 0.74736571 0
3.6870003 -1.3978388 0.7478888 0
3.6920002 -1.4058334 0.74841189 0
3.6970003 -1.4138459 0.74893504 0
3.8210003 -1.4776322 0.76190805 0
3.8160002 -1.4817015 0.76138496 0
3.8120003 -1.4861749 0.76096642 0
3.8090003 -1.4910579 0.7606526 0
3.8060002 -1.49593 0.76033872 0
3.8040001 -1.5012186 0.76012945 0
3.8020003 -1.5065002 0.75992024 0
3.8010004 -1.5122057 0.75981563 0
3.8010004 -1.5183405 0.75981563 0
3.8010004 -1.5244752 0.75981563 0
3.8030002 -1.5314829 0.76002485 0
3.8060002 -1.5389363 0.76033872 0
3.8110003 -1.5472808 0.76086187 0
3.8230002 -1.5587367 0.76211727 0
3.8440003 -1.5742297 0.76431429 0
3.8430002 -1.5799963 0.76420969 0
3.8440003 -1.5866543 0.76431429 0
3.8440003 -1.5928665 0.76431429 0
3.8460002 -1.5999807 0.76452357 0
3.8490002 -1.607555 0.76483738 0
3.8540003 -1.6160492 0.76536053 0
4.0120001 -1.1796719 0.77537525 0
4.0050001 -1.1839776 0.77465558 0
3.9980004 -1.1882579 0.77393579 0
3.9910002 -1.1925131 0.77321613 0
3.9840002 -1.196743 0.7724964 0
3.9780002 -1.2012707 0.77187943 0
3.9710002 -1.2054518 0.77115977 0
3.9640002 -1.2096078 0.77044004 0
3.9570003 -1.2137386 0.76972032 0
3.9510002 -1.2181741 0.76910341 0
3.9440002 -1.2222561 0.76838374 0
3.9370003 -1.2263129 0.76766396 0
3.9310002 -1.23068 0.76704711 0
3.9240003 -1.234688 0.76632738 0
3.9180002 -1.2390099 0.76571047 0
3.9110003 -1.2429693 0.76499075 0
3.9050002 -1.247246 0.76437384 0
3.8980002 -1.2511568 0.76365411 0
3.8920002 -1.2553884 0.7630372 0
3.8850002 -1.2592504 0.76231748 0
3.8790002 -1.263437 0.76170063 0
3.8720002 -1.2672503 0.76098084 0
3.8660002 -1.2713919 0.76036394 0
3.8600004 -1.2755119 0.75974709 0
3.8530002 -1.2792529 0.75902736 0
3.8470004 -1.2833277 0.75841045 0
3.8410003 -1.2873809 0.75779355 0
3.8350003 -1.2914124 0.75717664 0
3.8280003 -1.2950579 0.75645697 0
3.8220003 -1.2990443 0.75584006 0
3.8160002 -1.303009 0.75522316 0
3.8100002 -1.3069521 0.75460625 0
3.8040001 -1.3108735 0.75398934 0
3.7970002 -1.3144001 0.75326955 0
3.7910004 -1.3182765 0.7526527 0
3.7850003 -1.3221312 0.7520358 0
3.7790003 -1.3259643 0.75141889 0
3.7730002 -1.3297757 0.75080198 0
3.7670002 -1.3335655 0.75018507 0
3.7610002 -1.3373337 0.74956816 0
3.7550004 -1.3410802 0.74895132 0
3.7490003 -1.3448051 0.74833441 0
3.7430003 -1.3485082 0.7477175 0
3.7380002 -1.3525813 0.74720335 0
3.7320004 -1.356243 0.7465865 0
3.7260003 -1.3598831 0.74596959 0
3.7200003 -1.3635015 0.74535269 0
3.7140002 -1.3670983 0.74473578 0
3.7080002 -1.3706735 0.74411887 0
3.7030003 -1.3746293 0.74360478 0
3.6970003 -1.3781629 0.74298787 0
3.6910002 -1.3816749 0.74237096 0
3.6850002 -1.3851652 0.74175406 0
3.6820002 -1.3898624 0.74144566 0
3.6870003 -1.3978388 0.74195969 0
3.6920002 -1.4058334 0.74247378 0
3.6970003 -1.4138459 0.74298787 0
3.8210003 -1.4776322 0.75573719 0
3.8160002 -1.4817015 0.75522316 0
3.8120003 -1.4861749 0.75481188 0
3.8090003 -1.4910579 0.75450337 0
3.8060002 -1.49593 0.75419497 0
3.8040001 -1.5012186 0.75398934 0
3.8020003 -1.5065002 0.7537837 0
3.8010004 -1.5122057 0.75368083 0
3.8010004 -1.5183405 0.75368083 0
3.8010004 -1.5244752 0.75368083 0
3.8030002 -1.5314829 0.75388646 0
3.8060002 -1.5389363 0.75419497 0
3.8110003 -1.5472808 0.75470906 0
3.8230002 -1.5587367 0.75594282 0
3.8460002 -1.575117 0.75830764 0
3.8450003 -1.5808874 0.75820482 0
3.8450003 -1.5871016 0.75820482 0
3.8460002 -1.5937648 0.75830764 0
3.8480003 -1.6008828 0.75851327 0
3.8500001 -1.6080077 0.75871891 0
3.8540003 -1.6160492 0.75913018 0
4.0120001 -1.1796719 0.76885992 0
4.0050001 -1.1839776 0.76815283 0
3.9980004 -1.1882579 0.76744574 0
3.9910002 -1.1925131 0.76673865 0
3.9840002 -1.196743 0.7660315 0
3.9780002 -1.2012707 0.76542544 0
3.9710002 -1.2054518 0.76471841 0
3.9640002 -1.2096078 0.76401126 0
3.9570003 -1.2137386 0.76330423 0
3.9510002 -1.2181741 0.76269805 0
3.9440002 -1.2222561 0.76199102 0
3.9370003 -1.2263129 0.76128387 0
3.9310002 -1.23068 0.76067781 0
3.9240003 -1.234688 0.75997078 0
3.9180002 -1.2390099 0.75936466 0
3.9110003 -1.2429693 0.75865757 0
3.9050002 -1.247246 0.75805151 0
3.8980002 -1.2511568 0.75734437 0
3.8920002 -1.2553884 0.75673831 0
3.8850002 -1.2592504 0.75603122 0
3.8790002 -1.263437 0.75542516 0
3.8720002 -1.2672503 0.75471807 0
3.8660002 -1.2713919 0.75411201 0
3.8600004 -1.2755119 0.75350589 0
3.8530002 -1.2792529 0.7527988 0
3.8470004 -1.2833277 0.75219274 0
3.8410003 -1.2873809 0.75158668 0
3.8350003 -1.2914124 0.75098062 0
3.8280003 -1.2950579 0.75027347 0
3.8220003 -1.2990443 0.74966741 0
3.8160002 -1.303009 0.74906135 0
3.8100002 -1.3069521 0.74845523 0
3.8040001 -1.3108735 0.74784917 0
3.7970002 -1.3144001 0.74714208 0
3.7910004 -1.3182765 0.74653602 0
3.7850003 -1.3221312 0.7459299 0
3.7790003 -1.3259643 0.74532384 0
3.7730002 -1.3297757 0.74471772 0
3.7670002 -1.3335655 0.74411166 0
3.7610002 -1.3373337 0.7435056 0
3.7550004 -1.3410802 0.74289954 0
3.7490003 -1.3448051 0.74229342 0
3.7430003 -1.3485082 0.74168736 0
3.7380002 -1.3525813 0.74118227 0
3.7320004 -1.356243 0.74057621 0
3.7260003 -1.3598831 0.73997009 0
3.7200003 -1.3635015 0.73936403 0
3.7140002 -1.3670983 0.73875797 0
3.7080002 -1.3706735 0.73815191 0
3.7030003 -1.3746293 0.73764682 0
3.6970003 -1.3781629 0.73704076 0
3.6910002 -1.3816749 0.73643464 0
3.6850002 -1.3851652 0.73582858 0
3.6820002 -1.3898624 0.73552555 0
3.6870003 -1.3978388 0.73603058 0
3.6920002 -1.4058334 0.73653567 0
3.6970003 -1.4138459 0.73704076 0
3.8210003 -1.4776322 0.74956644 0
3.8160002 -1.4817015 0.74906135 0
3.8120003 -1.4861749 0.74865723 0
3.8090003 -1.4910579 0.7483542 0
3.8060002 -1.49593 0.74805117 0
3.8040001 -1.5012186 0.74784917 0
3.8020003 -1.5065002 0.74764717 0
3.8010004 -1.5122057 0.74754608 0
3.8010004 -1.5183405 0.74754608 0
3.8010004 -1.5244752 0.74754608 0
3.8030002 -1.5314829 0.74774814 0
3.8060002 -1.5389363 0.74805117 0
3.8110003 -1.5472808 0.74855626 0
3.8480003 -1.5760046 0.75229371 0
3.8470004 -1.5817786 0.75219274 0
3.8470004 -1.5879964 0.75219274 0
3.8480003 -1.5946633 0.75229371 0
3.8490002 -1.6013336 0.7523948 0
3.8510003 -1.6084605 0.7525968 0
3.8540003 -1.6160492 0.75289983 0
3.8600004 -1.6250176 0.75350589 0
4.0120001 -1.1796719 0.7623446 0
4.0050001 -1.1839776 0.76165009 0
3.9980004 -1.1882579 0.76095563 0
3.9910002 -1.1925131 0.76026118 0
3.9840002 -1.196743 0.75956666 0
3.9780002 -1.2012707 0.75897145 0
3.9710002 -1.2054518 0.75827694 0
3.9640002 -1.2096078 0.75758249 0
3.9570003 -1.2137386 0.75688803 0
3.9510002 -1.2181741 0.75629282 0
3.9440002 -1.2222561 0.75559831 0
3.9370003 -1.2263129 0.75490385 0
3.9310002 -1.23068 0.75430858 0
3.9240003 -1.234688 0.75361413 0
3.9180002 -1.2390099 0.75301886 0
3.9110003 -1.2429693 0.7523244 0
3.9050002 -1.247246 0.75172913 0
3.8980002 -1.2511568 0.75103468 0
3.8920002 -1.2553884 0.75043941 0
3.8850002 -1.2592504 0.74974495 0
3.8790002 -1.263437 0.74914968 0
3.8720002 -1.2672503 0.74845523 0
3.8660002 -1.2713919 0.74785995 0
3.8600004 -1.2755119 0.74726474 0
3.8530002 -1.2792529 0.74657023 0
3.8470004 -1.2833277 0.74597502 0
3.8410003 -1.2873809 0.74537975 0
3.8350003 -1.2914124 0.74478447 0
3.8280003 -1.2950579 0.74409002 0
3.8220003 -1.2990443 0.74349475 0
3.8160002 -1.303009 0.74289954 0
3.8100002 -1.3069521 0.74230421 0
3.8040001 -1.3108735 0.74170899 0
3.7970002 -1.3144001 0.74101448 0
3.7910004 -1.3182765 0.74041927 0
3.7850003 -1.3221312 0.73982406 0
3.7790003 -1.3259643 0.73922873 0
3.7730002 -1.3297757 0.73863351 0
3.7670002 -1.3335655 0.73803824 0
3.7610002 -1.3373337 0.73744297 0
3.7550004 -1.3410802 0.73684776 0
3.7490003 -1.3448051 0.73625243 0
3.7430003 -1.3485082 0.73565722 0
3.7380002 -1.3525813 0.73516119 0
3.7320004 -1.356243 0.73456591 0
3.7260003 -1.3598831 0.73397064 0
3.7200003 -1.3635015 0.73337543 0
3.7140002 -1.3670983 0.7327801 0
3.7080002 -1.3706735 0.73218489 0
3.7030003 -1.3746293 0.73168886 0
3.6970003 -1.3781629 0.73109359 0
3.6910002 -1.3816749 0.73049831 0
3.6850002 -1.3851652 0.72990304 0
3.6820002 -1.3898624 0.72960544 0
3.6870003 -1.3978388 0.73010147 0
3.6920002 -1.4058334 0.7305975 0
3.6970003 -1.4138459 0.73109359 0
3.8210003 -1.4776322 0.74339557 0
3.8160002 -1.4817015 0.74289954 0
3.8120003 -1.4861749 0.74250269 0
3.8090003 -1.4910579 0.74220502 0
3.8060002 -1.49593 0.74190736 0
3.8040001 -1.5012186 0.74170899 0
3.8020003 -1.5065002 0.74151063 0
3.8010004 -1.5122057 0.74141133 0
3.8010004 -1.5183405 0.74141133 0
3.8010004 -1.5244752 0.74141133 0
3.8030002 -1.5314829 0.74160981 0
3.8060002 -1.5389363 0.74190736 0
3.8110003 -1.5472808 0.74240345 0
3.8500001 -1.576892 0.74627262 0
3.8490002 -1.5826696 0.74617338 0
3.8490002 -1.588891 0.74617338 0
3.8490002 -1.5951123 0.74617338 0
3.8500001 -1.6017846 0.74627262 0
3.8520002 -1.6089132 0.74647105 0
3.8550003 -1.6165037 0.74676871 0
3.8590002 -1.6245612 0.7471655 0
4.0120001 -1.1796719 0.75582922 0
4.0050001 -1.1839776 0.75514734 0
3.9980004 -1.1882579 0.75446558 0
3.9910002 -1.1925131 0.7537837 0
3.9840002 -1.196743 0.75310183 0
3.9780002 -1.2012707 0.7525174 0
3.9710002 -1.2054518 0.75183558 0
3.9640002 -1.2096078 0.75115371 0
3.9570003 -1.2137386 0.75047189 0
3.9510002 -1.2181741 0.74988747 0
3.9440002 -1.2222561 0.74920559 0
3.9370003 -1.2263129 0.74852383 0
3.9310002 -1.23068 0.74793935 0
3.9240003 -1.234688 0.74725747 0
3.9180002 -1.2390099 0.74667305 0
3.9110003 -1.2429693 0.74599123 0
3.9050002 -1.247246 0.74540675 0
3.8980002 -1.2511568 0.74472499 0
3.8920002 -1.2553884 0.74414051 0
3.8850002 -1.2592504 0.74345869 0
3.8790002 -1.263437 0.74287426 0
3.8720002 -1.2672503 0.74219239 0
3.8660002 -1.2713919 0.74160796 0
3.8600004 -1.2755119 0.74102354 0
3.8530002 -1.2792529 0.74034166 0
3.8470004 -1.2833277 0.7397573 0
3.8410003 -1.2873809 0.73917282 0
3.8350003 -1.2914124 0.73858839 0
3.8280003 -1.2950579 0.73790658 0
3.8220003 -1.2990443 0.73732209 0
3.8160002 -1.303009 0.73673773 0
3.8100002 -1.3069521 0.73615324 0
3.8040001 -1.3108735 0.73556882 0
3.7970002 -1.3144001 0.734887 0
3.7910004 -1.3182765 0.73430252 0
3.7850003 -1.3221312 0.73371816 0
3.7790003 -1.3259643 0.73313367 0
3.7730002 -1.3297757 0.73254925 0
3.7670002 -1.3335655 0.73196483 0
3.7610002 -1.3373337 0.73138034 0
3.7550004 -1.3410802 0.73079598 0
3.7490003 -1.3448051 0.7302115 0
3.7430003 -1.3485082 0.72962707 0
3.7380002 -1.3525813 0.72914004 0
3.7320004 -1.356243 0.72855562 0
3.7260003 -1.3598831 0.7279712 0
3.7200003 -1.3635015 0.72738677 0
3.7140002 -1.3670983 0.72680235 0
3.7080002 -1.3706735 0.72621787 0
3.7030003 -1.3746293 0.7257309 0
3.6970003 -1.3781629 0.72514641 0
3.6910002 -1.3816749 0.72456199 0
3.6850002 -1.3851652 0.72397757 0
3.6820002 -1.3898624 0.72368532 0
3.6870003 -1.3978388 0.72417235 0
3.6920002 -1.4058334 0.72465938 0
3.6970003 -1.4138459 0.72514641 0
3.8210003 -1.4776322 0.7372247 0
3.8160002 -1.4817015 0.73673773 0
3.8120003 -1.4861749 0.73634809 0
3.8090003 -1.4910579 0.73605585 0
3.8060002 -1.49593 0.73576367 0
3.8040001 -1.5012186 0.73556882 0
3.8020003 -1.5065002 0.73537397 0
3.8010004 -1.5122057 0.73527658 0
3.8010004 -1.5183405 0.73527658 0
3.8010004 -1.5244752 0.73527658 0
3.8030002 -1.5314829 0.73547143 0
3.8060002 -1.5389363 0.73576367 0
3.8110003 -1.5472808 0.73625064 0
3.8530002 -1.5782231 0.74034166 0
3.8510003 -1.5835607 0.74014688 0
3.8510003 -1.5897857 0.74014688 0
3.8510003 -1.5960107 0.74014688 0
3.8520002 -1.6026865 0.74024427 0
3.8530002 -1.6093659 0.74034166 0
3.8550003 -1.6165037 0.74053651 0
3.8600004 -1.6250176 0.74102354 0
4.0120001 -1.1796719 0.74931383 0
4.0050001 -1.1839776 0.74864465 0
3.9980004 -1.1882579 0.74797547 0
3.9910002 -1.1925131 0.74730623 0
3.9840002 -1.196743 0.74663699 0
3.9780002 -1.2012707 0.74606335 0
3.9710002 -1.2054518 0.74539417 0
3.9640002 -1.2096078 0.74472499 0
3.9570003 -1.2137386 0.74405575 0
3.9510002 -1.2181741 0.74348211 0
3.9440002 -1.2222561 0.74281287 0
3.9370003 -1.2263129 0.74214375 0
3.9310002 -1.23068 0.74157012 0
3.9240003 -1.234688 0.74090087 0
3.9180002 -1.2390099 0.74032724 0
3.9110003 -1.2429693 0.73965806 0
3.9050002 -1.247246 0.73908442 0
3.8980002 -1.2511568 0.73841524 0
3.8920002 -1.2553884 0.73784161 0
3.8850002 -1.2592504 0.73717237 0
3.8790002 -1.263437 0.73659879 0
3.8720002 -1.2672503 0.73592961 0
3.8660002 -1.2713919 0.73535597 0
3.8600004 -1.2755119 0.7347824 0
3.8530002 -1.2792529 0.73411316 0
3.8470004 -1.2833277 0.73353958 0
3.8410003 -1.2873809 0.73296595 0
3.8350003 -1.2914124 0.73239231 0
3.8280003 -1.2950579 0.73172307 0
3.8220003 -1.2990443 0.73114949 0
3.8160002 -1.303009 0.73057592 0
3.8100002 -1.3069521 0.73000228 0
3.8040001 -1.3108735 0.72942865 0
3.7970002 -1.3144001 0.72875941 0
3.7910004 -1.3182765 0.72818583 0
3.7850003 -1.3221312 0.72761226 0
3.7790003 -1.3259643 0.72703862 0
3.7730002 -1.3297757 0.72646499 0
3.7670002 -1.3335655 0.72589135 0
3.7610002 -1.3373337 0.72531778 0
3.7550004 -1.3410802 0.7247442 0
3.7490003 -1.3448051 0.72417057 0
3.7430003 -1.3485082 0.72359693 0
3.7380002 -1.3525813 0.7231189 0
3.7320004 -1.356243 0.72254533 0
3.7260003 -1.3598831 0.72197175 0
3.7200003 -1.3635015 0.72139812 0
3.7140002 -1.3670983 0.72082448 0
3.7080002 -1.3706735 0.72025084 0
3.7030003 -1.3746293 0.71977288 0
3.6970003 -1.3781629 0.7191993 0
3.6910002 -1.3816749 0.71862566 0
3.6850002 -1.3851652 0.71805203 0
3.6820002 -1.3898624 0.71776521 0
3.6870003 -1.3978388 0.71824324 0
3.6920002 -1.4058334 0.71872127 0
3.6970003 -1.4138459 0.7191993 0
3.8210003 -1.4776322 0.73105395 0
3.8160002 -1.4817015 0.73057592 0
3.8120003 -1.4861749 0.7301935 0
3.8090003 -1.4910579 0.72990668 0
3.8060002 -1.49593 0.72961986 0
3.8040001 -1.5012186 0.72942865 0
3.8020003 -1.5065002 0.72923744 0
3.8010004 -1.5122057 0.72914189 0
3.8010004 -1.5183405 0.72914189 0
3.8010004 -1.5244752 0.72914189 0
3.8030002 -1.5314829 0.72933304 0
3.8060002 -1.5389363 0.72961986 0
3.8110003 -1.5472808 0.73009789 0
3.8550003 -1.5791107 0.73430431 0
3.8540003 -1.5848974 0.73420876 0
3.8530002 -1.5906802 0.73411316 0
3.8530002 -1.5969088 0.73411316 0
3.8530002 -1.6031374 0.73411316 0
3.8540003 -1.6098188 0.73420876 0
3.8560002 -1.6169583 0.73439991 0
3.8600004 -1.6250176 0.7347824 0
3.8660002 -1.6340078 0.73535597 0
4.0120001 -1.1796719 0.74279845 0
4.0050001 -1.1839776 0.7421419 0
3.9980004 -1.1882579 0.74148536 0
3.9910002 -1.1925131 0.74082875 0
3.9840002 -1.196743 0.74017215 0
3.9780002 -1.2012707 0.73960936 0
3.9710002 -1.2054518 0.73895276 0
3.9640002 -1.2096078 0.73829615 0
3.9570003 -1.2137386 0.73763961 0
3.9510002 -1.2181741 0.73707682 0
3.9440002 -1.2222561 0.73642021 0
3.9370003 -1.2263129 0.73576367 0
3.9310002 -1.23068 0.73520082 0
3.9240003 -1.234688 0.73454428 0
3.9180002 -1.2390099 0.73398149 0
3.9110003 -1.2429693 0.73332489 0
3.9050002 -1.247246 0.7327621 0
3.8980002 -1.2511568 0.73210549 0
3.8920002 -1.2553884 0.73154271 0
3.8850002 -1.2592504 0.7308861 0
3.8790002 -1.263437 0.73032331 0
3.8720002 -1.2672503 0.72966677 0
3.8660002 -1.2713919 0.72910398 0
3.8600004 -1.2755119 0.7285412 0
3.8530002 -1.2792529 0.72788459 0
3.8470004 -1.2833277 0.72732186 0
3.8410003 -1.2873809 0.72675902 0
3.8350003 -1.2914124 0.72619623 0
3.8280003 -1.2950579 0.72553968 0
3.8220003 -1.2990443 0.7249769 0
3.8160002 -1.303009 0.72441411 0
3.8100002 -1.3069521 0.72385132 0
3.8040001 -1.3108735 0.72328848 0
3.7970002 -1.3144001 0.72263193 0
3.7910004 -1.3182765 0.72206914 0
3.7850003 -1.3221312 0.72150636 0
3.7790003 -1.3259643 0.72094357 0
3.7730002 -1.3297757 0.72038078 0
3.7670002 -1.3335655 0.719818 0
3.7610002 -1.3373337 0.71925521 0
3.7550004 -1.3410802 0.71869242 0
3.7490003 -1.3448051 0.71812963 0
3.7430003 -1.3485082 0.71756685 0
3.7380002 -1.3525813 0.71709782 0
3.7320004 -1.356243 0.71653503 0
3.7260003 -1.3598831 0.7159723 0
3.7200003 -1.3635015 0.71540952 0
3.7140002 -1.3670983 0.71484667 0
3.7080002 -1.3706735 0.71428388 0
3.7030003 -1.3746293 0.71381491 0
3.6970003 -1.3781629 0.71325213 0
3.6910002 -1.3816749 0.71268928 0
3.6850002 -1.3851652 0.71212649 0
3.6820002 -1.3898624 0.71184516 0
3.6870003 -1.3978388 0.71231413 0
3.6920002 -1.4058334 0.7127831 0
3.6970003 -1.4138459 0.71325213 0
3.8210003 -1.4776322 0.72488308 0
3.8160002 -1.4817015 0.72441411 0
3.8120003 -1.4861749 0.7240389 0
3.8090003 -1.4910579 0.72375751 0
3.8060002 -1.49593 0.72347605 0
3.8040001 -1.5012186 0.72328848 0
3.8020003 -1.5065002 0.7231009 0
3.8010004 -1.5122057 0.72300714 0
3.8010004 -1.5183405 0.72300714 0
3.8010004 -1.5244752 0.72300714 0
3.8030002 -1.5314829 0.72319472 0
3.8060002 -1.5389363 0.72347605 0
3.8110003 -1.5472808 0.72394508 0
3.8570004 -1.5799983 0.7282598 0
3.8560002 -1.5857884 0.72816598 0
3.8550003 -1.591575 0.72807217 0
3.8550003 -1.5978072 0.72807217 0
3.8550003 -1.6040394 0.72807217 0
3.8560002 -1.6107242 0.72816598 0
3.8580003 -1.6178674 0.72835362 0
3.8600004 -1.6250176 0.7285412 0
3.8650002 -1.6335497 0.72901022 0
4.0120001 -1.1796719 0.73628312 0
4.0050001 -1.1839776 0.73563921 0
3.9980004 -1.1882579 0.73499525 0
3.9910002 -1.1925131 0.73435128 0
3.9840002 -1.196743 0.73370731 0
3.9780002 -1.2012707 0.73315531 0
3.9710002 -1.2054518 0.7325114 0
3.9640002 -1.2096078 0.73186743 0
3.9570003 -1.2137386 0.73122346 0
3.9510002 -1.2181741 0.73067153 0
3.9440002 -1.2222561 0.73002756 0
3.9370003 -1.2263129 0.72938359 0
3.9310002 -1.23068 0.72883165 0
3.9240003 -1.234688 0.72818768 0
3.9180002 -1.2390099 0.72763562 0
3.9110003 -1.2429693 0.72699171 0
3.9050002 -1.247246 0.72643971 0
3.8980002 -1.2511568 0.72579581 0
3.8920002 -1.2553884 0.72524381 0
3.8850002 -1.2592504 0.72459984 0
3.8790002 -1.263437 0.7240479 0
3.8720002 -1.2672503 0.72340393 0
3.8660002 -1.2713919 0.72285199 0
3.8600004 -1.2755119 0.72230005 0
3.8530002 -1.2792529 0.72165602 0
3.8470004 -1.2833277 0.72110409 0
3.8410003 -1.2873809 0.72055215 0
3.8350003 -1.2914124 0.72000015 0
3.8280003 -1.2950579 0.71935618 0
3.8220003 -1.2990443 0.71880424 0
3.8160002 -1.303009 0.7182523 0
3.8100002 -1.3069521 0.7177003 0
3.8040001 -1.3108735 0.7171483 0
3.7970002 -1.3144001 0.7165044 0
3.7910004 -1.3182765 0.7159524 0
3.7850003 -1.3221312 0.71540046 0
3.7790003 -1.3259643 0.71484852 0
3.7730002 -1.3297757 0.71429652 0
3.7670002 -1.3335655 0.71374452 0
3.7610002 -1.3373337 0.71319258 0
3.7550004 -1.3410802 0.71264064 0
3.7490003 -1.3448051 0.7120887 0
3.7430003 -1.3485082 0.71153671 0
3.7380002 -1.3525813 0.71107674 0
3.7320004 -1.356243 0.71052474 0
3.7260003 -1.3598831 0.7099728 0
3.7200003 -1.3635015 0.7094208 0
3.7140002 -1.3670983 0.70886886 0
3.7080002 -1.3706735 0.70831692 0
3.7030003 -1.3746293 0.70785695 0
3.6970003 -1.3781629 0.70730495 0
3.6910002 -1.3816749 0.70675302 0
3.6850002 -1.3851652 0.70620102 0
3.6820002 -1.3898624 0.70592505 0
3.6870003 -1.3978388 0.70638502 0
3.6920002 -1.4058334 0.70684493 0
3.6970003 -1.4138459 0.70730495 0
3.8210003 -1.4776322 0.71871221 0
3.8160002 -1.4817015 0.7182523 0
3.8120003 -1.4861749 0.7178843 0
3.8090003 -1.4910579 0.71760833 0
3.8060002 -1.49593 0.71733236 0
3.8040001 -1.5012186 0.7171483 0
3.8020003 -1.5065002 0.71696436 0
3.8010004 -1.5122057 0.71687233 0
3.8010004 -1.5183405 0.71687233 0
3.8010004 -1.5244752 0.71687233 0
3.8030002 -1.5314829 0.71705633 0
3.8060002 -1.5389363 0.71733236 0
3.8110003 -1.5472808 0.71779227 0
3.8600004 -1.5813295 0.72230005 0
3.8580003 -1.5866795 0.72211599 0
3.8570004 -1.5924698 0.72202402 0
3.8570004 -1.5987056 0.72202402 0
3.8560002 -1.6044903 0.72193205 0
3.8570004 -1.6111771 0.72202402 0
3.8590002 -1.6183219 0.72220802 0
3.8610003 -1.6254741 0.72239202 0
3.8650002 -1.6335497 0.72275996 0
4.0120001 -1.1796719 0.7297678 0
4.0050001 -1.1839776 0.72913647 0
3.9980004 -1.1882579 0.72850513 0
3.9910002 -1.1925131 0.7278738 0
3.9840002 -1.196743 0.72724247 0
3.9780002 -1.2012707 0.72670132 0
3.9710002 -1.2054518 0.72606993 0
3.9640002 -1.2096078 0.72543865 0
3.9570003 -1.2137386 0.72480726 0
3.9510002 -1.2181741 0.72426617 0
3.9440002 -1.2222561 0.72363484 0
3.9370003 -1.2263129 0.72300351 0
3.9310002 -1.23068 0.72246236 0
3.9240003 -1.234688 0.72183102 0
3.9180002 -1.2390099 0.72128987 0
3.9110003 -1.2429693 0.72065854 0
3.9050002 -1.247246 0.72011739 0
3.8980002 -1.2511568 0.71948612 0
3.8920002 -1.2553884 0.71894491 0
3.8850002 -1.2592504 0.71831357 0
3.8790002 -1.263437 0.71777248 0
3.8720002 -1.2672503 0.71714115 0
3.8660002 -1.2713919 0.71659994 0
3.8600004 -1.2755119 0.71605885 0
3.8530002 -1.2792529 0.71542752 0
3.8470004 -1.2833277 0.71488637 0
3.8410003 -1.2873809 0.71434522 0
3.8350003 -1.2914124 0.71380413 0
3.8280003 -1.2950579 0.71317273 0
3.8220003 -1.2990443 0.71263158 0
3.8160002 -1.303009 0.71209049 0
3.8100002 -1.3069521 0.71154928 0
3.8040001 -1.3108735 0.71100819 0
3.7970002 -1.3144001 0.71037686 0
3.7910004 -1.3182765 0.70983571 0
3.7850003 -1.3221312 0.70929456 0
3.7790003 -1.3259643 0.70875347 0
3.7730002 -1.3297757 0.70821226 0
3.7670002 -1.3335655 0.70767117 0
3.7610002 -1.3373337 0.70712996 0
3.7550004 -1.3410802 0.70658886 0
3.7490003 -1.3448051 0.70604771 0
3.7430003 -1.3485082 0.70550656 0
3.7380002 -1.3525813 0.70505559 0
3.7320004 -1.356243 0.7045145 0
3.7260003 -1.3598831 0.70397335 0
3.7200003 -1.3635015 0.7034322 0
3.7140002 -1.3670983 0.70289105 0
3.7080002 -1.3706735 0.7023499 0
3.7030003 -1.3746293 0.70189893 0
3.6970003 -1.3781629 0.70135784 0
3.6910002 -1.3816749 0.70081663 0
3.6850002 -1.3851652 0.70027554 0
3.6820002 -1.3898624 0.70000494 0
3.6870003 -1.3978388 0.7004559 0
3.6920002 -1.4058334 0.70090687 0
3.6970003 -1.4138459 0.70135784 0
3.8210003 -1.4776322 0.71254146 0
3.8160002 -1.4817015 0.71209049 0
3.8120003 -1.4861749 0.71172971 0
3.8090003 -1.4910579 0.71145916 0
3.8060002 -1.49593 0.71118855 0
3.8040001 -1.5012186 0.71100819 0
3.8020003 -1.5065002 0.71082783 0
3.8010004 -1.5122057 0.71073759 0
3.8010004 -1.5183405 0.71073759 0
3.8010004 -1.5244752 0.71073759 0
3.8030002 -1.5314829 0.71091795 0
3.8060002 -1.5389363 0.71118855 0
3.8110003 -1.5472808 0.71163952 0
3.8630002 -1.5826606 0.71632946 0
3.8610003 -1.5880162 0.71614903 0
3.8590002 -1.5933644 0.71596867 0
3.8590002 -1.5996038 0.71596867 0
3.8580003 -1.6053922 0.71587849 0
3.8590002 -1.6120826 0.71596867 0
3.8600004 -1.6187764 0.71605885 0
3.8620002 -1.6259304 0.71623921 0
3.8650002 -1.6335497 0.71650982 0
3.8710003 -1.6425596 0.71705091 0
4.0120001 -1.1796719 0.72325242 0
4.0050001 -1.1839776 0.72263372 0
3.9980004 -1.1882579 0.72201502 0
3.9910002 -1.1925131 0.72139633 0
3.9840002 -1.196743 0.72077763 0
3.9780002 -1.2012707 0.72024727 0
3.9710002 -1.2054518 0.71962857 0
3.9640002 -1.2096078 0.71900988 0
3.9570003 -1.2137386 0.71839118 0
3.9510002 -1.2181741 0.71786082 0
3.9440002 -1.2222561 0.71724212 0
3.9370003 -1.2263129 0.71662343 0
3.9310002 -1.23068 0.71609312 0
3.9240003 -1.234688 0.71547437 0
3.9180002 -1.2390099 0.71494406 0
3.9110003 -1.2429693 0.71432537 0
3.9050002 -1.247246 0.71379507 0
3.8980002 -1.2511568 0.71317637 0
3.8920002 -1.2553884 0.71264601 0
3.8850002 -1.2592504 0.71202731 0
3.8790002 -1.263437 0.71149701 0
3.8720002 -1.2672503 0.71087825 0
3.8660002 -1.2713919 0.71034801 0
3.8600004 -1.2755119 0.70981765 0
3.8530002 -1.2792529 0.70919895 0
3.8470004 -1.2833277 0.70866865 0
3.8410003 -1.2873809 0.70813835 0
3.8350003 -1.2914124 0.70760798 0
3.8280003 -1.2950579 0.70698929 0
3.8220003 -1.2990443 0.70645899 0
3.8160002 -1.303009 0.70592868 0
3.8100002 -1.3069521 0.70539832 0
3.8040001 -1.3108735 0.70486802 0
3.7980003 -1.3147734 0.70433772 0
3.7910004 -1.3182765 0.70371902 0
3.7850003 -1.3221312 0.70318866 0
3.7790003 -1.3259643 0.70265836 0
3.7730002 -1.3297757 0.70212805 0
3.7670002 -1.3335655 0.70159769 0
3.7610002 -1.3373337 0.70106733 0
3.7550004 -1.3410802 0.70053709 0
3.7490003 -1.3448051 0.70000672 0
3.7430003 -1.3485082 0.69947642 0
3.7380002 -1.3525813 0.69903445 0
3.7320004 -1.356243 0.69850421 0
3.7260003 -1.3598831 0.69797385 0
3.7200003 -1.3635015 0.69744354 0
3.7140002 -1.3670983 0.69691324 0
3.7080002 -1.3706735 0.69638288 0
3.7030003 -1.3746293 0.69594097 0
3.6970003 -1.3781629 0.69541061 0
3.6910002 -1.3816749 0.69488031 0
3.6850002 -1.3851652 0.69435 0
3.6820002 -1.3898624 0.69408488 0
3.6870003 -1.3978388 0.69452679 0
3.6920002 -1.4058334 0.6949687 0
3.6970003 -1.4138459 0.69541061 0
3.8210003 -1.4776322 0.70637059 0
3.8160002 -1.4817015 0.70592868 0
3.8120003 -1.4861749 0.70557511 0
3.8090003 -1.4910579 0.70530993 0
3.8060002 -1.49593 0.70504481 0
3.8040001 -1.5012186 0.70486802 0
3.8020003 -1.5065002 0.70469129 0
3.8010004 -1.5122057 0.70460284 0
3.8010004 -1.5183405 0.70460284 0
3.8010004 -1.5244752 0.70460284 0
3.8030002 -1.5314829 0.70477962 0
3.8060002 -1.5389363 0.70504481 0
3.8110003 -1.5472808 0.70548671 0
3.8660002 -1.5839919 0.71034801 0
3.8630002 -1.5889072 0.71008277 0
3.8620002 -1.5947065 0.70999444 0
3.8610003 -1.6005021 0.70990604 0
3.8600004 -1.6062942 0.70981765 0
3.8600004 -1.6125354 0.70981765 0
3.8610003 -1.6192311 0.70990604 0
3.8630002 -1.6263868 0.71008277 0
3.8660002 -1.6340078 0.71034801 0
3.8710003 -1.6425596 0.71078992 0
4.0120001 -1.1796719 0.71673703 0
4.0050001 -1.1839776 0.71613097 0
3.9980004 -1.1882579 0.71552491 0
3.9910002 -1.1925131 0.71491885 0
3.9840002 -1.196743 0.71431279 0
3.9780002 -1.2012707 0.71379328 0
3.9710002 -1.2054518 0.71318716 0
3.9640002 -1.2096078 0.7125811 0
3.9570003 -1.2137386 0.71197498 0
3.9510002 -1.2181741 0.71145546 0
3.9440002 -1.2222561 0.7108494 0
3.9370003 -1.2263129 0.71024334 0
3.9310002 -1.23068 0.70972383 0
3.9240003 -1.234688 0.70911777 0
3.9180002 -1.2390099 0.70859826 0
3.9110003 -1.2429693 0.7079922 0
3.9050002 -1.247246 0.70747268 0
3.8980002 -1.2511568 0.70686662 0
3.8920002 -1.2553884 0.70634711 0
3.8850002 -1.2592504 0.70574105 0
3.8790002 -1.263437 0.70522153 0
3.8720002 -1.2672503 0.70461547 0
3.8660002 -1.2713919 0.70409596 0
3.8600004 -1.2755119 0.70357651 0
3.8530002 -1.2792529 0.70297039 0
3.8470004 -1.2833277 0.70245087 0
3.8410003 -1.2873809 0.70193142 0
3.8350003 -1.2914124 0.7014119 0
3.8280003 -1.2950579 0.70080584 0
3.8220003 -1.2990443 0.70028639 0
3.8160002 -1.303009 0.69976687 0
3.8100002 -1.3069521 0.69924736 0
3.8040001 -1.3108735 0.69872785 0
3.7980003 -1.3147734 0.69820833 0
3.7910004 -1.3182765 0.69760227 0
3.7850003 -1.3221312 0.69708276 0
3.7790003 -1.3259643 0.6965633 0
3.7730002 -1.3297757 0.69604379 0
3.7670002 -1.3335655 0.69552428 0
3.7610002 -1.3373337 0.69500482 0
3.7550004 -1.3410802 0.69448531 0
3.7490003 -1.3448051 0.69396579 0
3.7430003 -1.3485082 0.69344628 0
3.7380002 -1.3525813 0.69301337 0
3.7320004 -1.356243 0.69249392 0
3.7260003 -1.3598831 0.6919744 0
3.7200003 -1.3635015 0.69145489 0
3.7140002 -1.3670983 0.69093537 0
3.7080002 -1.3706735 0.69041586 0
3.7030003 -1.3746293 0.68998301 0
3.6970003 -1.3781629 0.6894635 0
3.6910002 -1.3816749 0.68894398 0
3.6850002 -1.3851652 0.68842447 0
3.6820002 -1.3898624 0.68816471 0
3.6870003 -1.3978388 0.68859768 0
3.6920002 -1.4058334 0.68903059 0
3.6970003 -1.4138459 0.6894635 0
3.8210003 -1.4776322 0.70019972 0
3.8160002 -1.4817015 0.69976687 0
3.8120003 -1.4861749 0.69942051 0
3.8090003 -1.4910579 0.69916075 0
3.8060002 -1.49593 0.698901 0
3.8040001 -1.5012186 0.69872785 0
3.8020003 -1.5065002 0.69855464 0
3.8010004 -1.5122057 0.69846809 0
3.8010004 -1.5183405 0.69846809 0
3.8010004 -1.5244752 0.69846809 0
3.8030002 -1.5314829 0.6986413 0
3.8060002 -1.5389363 0.698901 0
3.8110003 -1.5472808 0.69933391 0
3.8680003 -1.5848793 0.70426917 0
3.8660002 -1.5902437 0.70409596 0
3.8640003 -1.5956012 0.70392281 0
3.8630002 -1.6014003 0.7038362 0
3.8620002 -1.6071961 0.70374966 0
3.8620002 -1.6134408 0.70374966 0
3.8630002 -1.6201401 0.7038362 0
3.8640003 -1.6268431 0.70392281 0
3.8660002 -1.6340078 0.70409596 0
3.8710003 -1.6425596 0.70452893 0
3.8770003 -1.6515914 0.70504844 0
4.0120001 -1.1796719 0.71022171 0
4.0050001 -1.1839776 0.70962828 0
3.9980004 -1.1882579 0.7090348 0
3.9910002 -1.1925131 0.70844138 0
3.9840002 -1.196743 0.70784789 0
3.9780002 -1.2012707 0.70733923 0
3.9710002 -1.2054518 0.70674574 0
3.9640002 -1.2096078 0.70615232 0
3.9570003 -1.2137386 0.7055589 0
3.9510002 -1.2181741 0.70505023 0
3.9440002 -1.2222561 0.70445675 0
3.9370003 -1.2263129 0.70386326 0
3.9310002 -1.23068 0.7033546 0
3.9240003 -1.234688 0.70276117 0
3.9180002 -1.2390099 0.70225251 0
3.9110003 -1.2429693 0.70165908 0
3.9050002 -1.247246 0.70115036 0
3.8980002 -1.2511568 0.70055687 0
3.8920002 -1.2553884 0.70004821 0
3.8850002 -1.2592504 0.69945478 0
3.8790002 -1.263437 0.69894612 0
3.8720002 -1.2672503 0.69835269 0
3.8660002 -1.2713919 0.69784397 0
3.8600004 -1.2755119 0.6973353 0
3.8530002 -1.2792529 0.69674182 0
3.8470004 -1.2833277 0.69623321 0
3.8410003 -1.2873809 0.69572449 0
3.8350003 -1.2914124 0.69521582 0
3.8280003 -1.2950579 0.6946224 0
3.8220003 -1.2990443 0.69411373 0
3.8160002 -1.303009 0.69360507 0
3.8100002 -1.3069521 0.69309634 0
3.8040001 -1.3108735 0.69258767 0
3.7980003 -1.3147734 0.69207901 0
3.7910004 -1.3182765 0.69148558 0
3.7850003 -1.3221312 0.69097686 0
3.7790003 -1.3259643 0.69046819 0
3.7730002 -1.3297757 0.68995953 0
3.7670002 -1.3335655 0.68945086 0
3.7610002 -1.3373337 0.68894219 0
3.7550004 -1.3410802 0.68843353 0
3.7490003 -1.3448051 0.68792486 0
3.7430003 -1.3485082 0.6874162 0
3.7380002 -1.3525813 0.68699229 0
3.7320004 -1.356243 0.68648362 0
3.7260003 -1.3598831 0.68597496 0
3.7200003 -1.3635015 0.68546629 0
3.7140002 -1.3670983 0.68495762 0
3.7080002 -1.3706735 0.6844489 0
3.7030003 -1.3746293 0.68402505 0
3.6970003 -1.3781629 0.68351638 0
3.6910002 -1.3816749 0.68300766 0
3.6850002 -1.3851652 0.68249899 0
3.6820002 -1.3898624 0.68224466 0
3.6870003 -1.3978388 0.68266857 0
3.6920002 -1.4058334 0.68309242 0
3.6970003 -1.4138459 0.68351638 0
3.8210003 -1.4776322 0.69402897 0
3.8160002 -1.4817015 0.69360507 0
3.8120003 -1.4861749 0.69326591 0
3.8090003 -1.4910579 0.69301158 0
3.8060002 -1.49593 0.69275725 0
3.8040001 -1.5012186 0.69258767 0
3.8020003 -1.5065002 0.6924181 0
3.8010004 -1.5122057 0.69233334 0
3.8010004 -1.5183405 0.69233334 0
3.8010004 -1.5244752 0.69233334 0
3.8030002 -1.5314829 0.69250292 0
3.8060002 -1.5389363 0.69275725 0
3.8110003 -1.5472808 0.69318116 0
3.8710003 -1.5862105 0.69826788 0
3.8690002 -1.5915804 0.6980983 0
3.8660002 -1.5964957 0.69784397 0
3.8650002 -1.6022987 0.69775921 0
3.8640003 -1.6080979 0.69767439 0
3.8640003 -1.6143464 0.69767439 0
3.8640003 -1.6205947 0.69767439 0
3.8650002 -1.6272994 0.69775921 0
3.8680003 -1.6349242 0.69801354 0
3.8710003 -1.6425596 0.69826788 0
3.8770003 -1.6515914 0.69877654 0
4.0120001 -1.1796719 0.70370638 0
4.0050001 -1.1839776 0.70312554 0
3.9980004 -1.1882579 0.70254469 0
3.9910002 -1.1925131 0.7019639 0
3.9840002 -1.196743 0.70138299 0
3.9780002 -1.2012707 0.70088518 0
3.9710002 -1.2054518 0.70030439 0
3.9640002 -1.2096078 0.69972354 0
3.9570003 -1.2137386 0.69914269 0
3.9510002 -1.2181741 0.69864488 0
3.9440002 -1.2222561 0.69806403 0
3.9370003 -1.2263129 0.69748324 0
3.9310002 -1.23068 0.69698536 0
3.9240003 -1.234688 0.69640458 0
3.9180002 -1.2390099 0.6959067 0
3.9110003 -1.2429693 0.69532585 0
3.9050002 -1.247246 0.69482803 0
3.8980002 -1.2511568 0.69424719 0
3.8920002 -1.2553884 0.69374931 0
3.8850002 -1.2592504 0.69316852 0
3.8790002 -1.263437 0.69267064 0
3.8720002 -1.2672503 0.6920898 0
3.8660002 -1.2713919 0.69159198 0
3.8600004 -1.2755119 0.69109416 0
3.8530002 -1.2792529 0.69051325 0
3.8470004 -1.2833277 0.69001544 0
3.8410003 -1.2873809 0.68951762 0
3.8350003 -1.2914124 0.6890198 0
3.8280003 -1.2950579 0.68843889 0
3.8220003 -1.2990443 0.68794107 0
3.8160002 -1.303009 0.68744326 0
3.8100002 -1.3069521 0.68694532 0
3.8040001 -1.3108735 0.6864475 0
3.7980003 -1.3147734 0.68594968 0
3.7910004 -1.3182765 0.68536884 0
3.7850003 -1.3221312 0.68487096 0
3.7790003 -1.3259643 0.68437314 0
3.7730002 -1.3297757 0.68387532 0
3.7670002 -1.3335655 0.68337744 0
3.7610002 -1.3373337 0.68287957 0
3.7550004 -1.3410802 0.68238175 0
3.7490003 -1.3448051 0.68188393 0
3.7430003 -1.3485082 0.68138605 0
3.7380002 -1.3525813 0.68097115 0
3.7320004 -1.356243 0.68047333 0
3.7260003 -1.3598831 0.67997545 0
3.7200003 -1.3635015 0.67947757 0
3.7140002 -1.3670983 0.67897975 0
3.7080002 -1.3706735 0.67848188 0
3.7030003 -1.3746293 0.67806703 0
3.6970003 -1.3781629 0.67756915 0
3.6910002 -1.3816749 0.67707133 0
3.6850002 -1.3851652 0.67657346 0
3.6820002 -1.3898624 0.67632455 0
3.6870003 -1.3978388 0.67673945 0
3.6920002 -1.4058334 0.6771543 0
3.6970003 -1.4138459 0.67756915 0
3.8210003 -1.4776322 0.6878581 0
3.8160002 -1.4817015 0.68744326 0
3.8120003 -1.4861749 0.68711132 0
3.8090003 -1.4910579 0.68686241 0
3.8060002 -1.49593 0.68661344 0
3.8040001 -1.5012186 0.6864475 0
3.8020003 -1.5065002 0.68628156 0
3.8010004 -1.5122057 0.68619859 0
3.8010004 -1.5183405 0.68619859 0
3.8010004 -1.5244752 0.68619859 0
3.8030002 -1.5314829 0.68636453 0
3.8060002 -1.5389363 0.68661344 0
3.8110003 -1.5472808 0.68702835 0
3.8740003 -1.5875418 0.6922558 0
3.8710003 -1.5924715 0.69200689 0
3.8690002 -1.5978378 0.69184089 0
3.8670003 -1.6031971 0.69167495 0
3.8660002 -1.6089997 0.69159198 0
3.8660002 -1.6152518 0.69159198 0
3.8660002 -1.6215038 0.69159198 0
3.8670003 -1.6282122 0.69167495 0
3.8690002 -1.6353823 0.69184089 0
3.8720002 -1.6430197 0.6920898 0
3.8760002 -1.6511295 0.69242167 0
3.8840003 -1.6611083 0.69308555 0
4.0120001 -1.1796719 0.697191 0
4.0050001 -1.1839776 0.69662279 0
3.9980004 -1.1882579 0.69605464 0
3.9910002 -1.1925131 0.69548643 0
3.9840002 -1.196743 0.69491816 0
3.9780002 -1.2012707 0.69443119 0
3.9710002 -1.2054518 0.69386297 0
3.9640002 -1.2096078 0.69329476 0
3.9570003 -1.2137386 0.69272661 0
3.9510002 -1.2181741 0.69223952 0
3.9440002 -1.2222561 0.69167137 0
3.9370003 -1.2263129 0.69110316 0
3.9310002 -1.23068 0.69061613 0
3.9240003 -1.234688 0.69004792 0
3.9180002 -1.2390099 0.68956089 0
3.9110003 -1.2429693 0.68899274 0
3.9050002 -1.247246 0.68850565 0
3.8980002 -1.2511568 0.6879375 0
3.8920002 -1.2553884 0.68745041 0
3.8850002 -1.2592504 0.68688226 0
3.8790002 -1.263437 0.68639517 0
3.8720002 -1.2672503 0.68582702 0
3.8660002 -1.2713919 0.68533999 0
3.8600004 -1.2755119 0.68485296 0
3.8530002 -1.2792529 0.68428475 0
3.8470004 -1.2833277 0.68379772 0
3.8410003 -1.2873809 0.68331075 0
3.8350003 -1.2914124 0.68282366 0
3.8280003 -1.2950579 0.68225551 0
3.8220003 -1.2990443 0.68176842 0
3.8160002 -1.303009 0.68128145 0
3.8100002 -1.3069521 0.68079436 0
3.8040001 -1.3108735 0.68030739 0
3.7980003 -1.3147734 0.6798203 0
3.7910004 -1.3182765 0.67925215 0
3.7850003 -1.3221312 0.67876512 0
3.7790003 -1.3259643 0.67827809 0
3.7730002 -1.3297757 0.677791 0
3.7670002 -1.3335655 0.67730403 0
3.7610002 -1.3373337 0.67681694 0
3.7550004 -1.3410802 0.67632997 0
3.7490003 -1.3448051 0.67584294 0
3.7430003 -1.3485082 0.67535591 0
3.7380002 -1.3525813 0.67495 0
3.7320004 -1.356243 0.67446303 0
3.7260003 -1.3598831 0.673976 0
3.7200003 -1.3635015 0.67348897 0
3.7140002 -1.3670983 0.67300195 0
3.7080002 -1.3706735 0.67251492 0
3.7030003 -1.3746293 0.67210907 0
3.6970003 -1.3781629 0.67162204 0
3.6910002 -1.3816749 0.67113495 0
3.6850002 -1.3851652 0.67064798 0
3.6820002 -1.3898624 0.67040443 0
3.6870003 -1.3978388 0.67081034 0
3.6920002 -1.4058334 0.67121613 0
3.6970003 -1.4138459 0.67162204 0
3.8210003 -1.4776322 0.68168724 0
3.8160002 -1.4817015 0.68128145 0
3.8120003 -1.4861749 0.68095672 0
3.8090003 -1.4910579 0.68071324 0
3.8060002 -1.49593 0.68046969 0
3.8040001 -1.5012186 0.68030739 0
3.8020003 -1.5065002 0.68014503 0
3.8010004 -1.5122057 0.68006384 0
3.8010004 -1.5183405 0.68006384 0
3.8010004 -1.5244752 0.68006384 0
3.8030002 -1.5314829 0.68022621 0
3.8060002 -1.5389363 0.68046969 0
3.8110003 -1.5472808 0.68087554 0
3.8770003 -1.5888729 0.68623286 0
