# .PCD v0.7 - Point Cloud Data file format
VERSION 0.7
FIELDS x y z intensity
SIZE 4 4 4 4
TYPE F F F F
COUNT 1 1 1 1
WIDTH 998
HEIGHT 1
VIEWPOINT 0 0 0 1 0 0 0
POINTS 998
DATA ascii
4.9400005 -0.81579322 1.3048218 0
4.9400005 -0.81579322 1.2966326 0
4.9440002 -0.82466793 1.297419 0
4.9400005 -0.81579322 1.2884433 0
4.9440002 -0.82466793 1.2892225 0
4.9490004 -0.83373028 1.2901965 0
4.9470005 -0.80057633 1.2816051 0
4.9400005 -0.81579322 1.280254 0
4.9440002 -0.82466793 1.281026 0
4.9490004 -0.83373028 1.2819911 0
4.9540005 -0.84281069 1.2829561 0
4.9470005 -0.80057633 1.2734032 0
4.9400005 -0.81579322 1.2720647 0
4.9440002 -0.82466793 1.2728294 0
4.9490004 -0.83373028 1.2737856 0
4.9540005 -0.84281069 1.2747415 0
4.9590001 -0.85190904 1.2756975 0
4.9640002 -0.86102545 1.2766535 0
4.9680004 -0.86997962 1.2774184 0
4.9730005 -0.87913036 1.2783744 0
4.9470005 -0.80057633 1.2652012 0
4.9400005 -0.81579322 1.2638755 0
4.9440002 -0.82466793 1.2646331 0
4.9490004 -0.83373028 1.2655799 0
4.9540005 -0.84281069 1.2665271 0
4.9590001 -0.85190904 1.2674739 0
4.9640002 -0.86102545 1.2684209 0
4.9680004 -0.86997962 1.2691786 0
4.9730005 -0.87913036 1.2701256 0
4.9780002 -0.88829905 1.2710725 0
4.9830003 -0.89748585 1.2720196 0
4.9470005 -0.80057633 1.2569993 0
4.9400005 -0.81579322 1.2556862 0
4.9440002 -0.82466793 1.2564365 0
4.9490004 -0.83373028 1.2573745 0
4.9540005 -0.84281069 1.2583125 0
4.9590001 -0.85190904 1.2592504 0
4.9640002 -0.86102545 1.2601883 0
4.9680004 -0.86997962 1.2609388 0
4.9730005 -0.87913036 1.2618768 0
4.9780002 -0.88829905 1.2628148 0
4.9830003 -0.89748585 1.2637527 0
4.9470005 -0.80057633 1.2487974 0
4.9400005 -0.81579322 1.2474968 0
4.9440002 -0.82466793 1.24824 0
4.9490004 -0.83373028 1.249169 0
4.9540005 -0.84281069 1.250098 0
4.9590001 -0.85190904 1.2510269 0
4.9640002 -0.86102545 1.2519559 0
4.9680004 -0.86997962 1.252699 0
4.9730005 -0.87913036 1.253628 0
4.9780002 -0.88829905 1.2545569 0
4.9830003 -0.89748585 1.2554859 0
4.9470005 -0.80057633 1.2405955 0
4.9400005 -0.81579322 1.2393075 0
4.9440002 -0.82466793 1.2400434 0
4.9490004 -0.83373028 1.2409635 0
4.9540005 -0.84281069 1.2418834 0
4.9590001 -0.85190904 1.2428033 0
4.9640002 -0.86102545 1.2437233 0
4.9680004 -0.86997962 1.2444593 0
4.9730005 -0.87913036 1.2453792 0
4.9780002 -0.88829905 1.246299 0
4.9830003 -0.89748585 1.247219 0
4.9470005 -0.80057633 1.2323936 0
4.9400005 -0.81579322 1.2311183 0
4.9440002 -0.82466793 1.2318469 0
4.9490004 -0.83373028 1.2327579 0
4.9540005 -0.84281069 1.2336688 0
4.9590001 -0.85190904 1.2345797 0
4.9640002 -0.86102545 1.2354907 0
4.9680004 -0.86997962 1.2362194 0
4.9730005 -0.87913036 1.2371304 0
4.9780002 -0.88829905 1.2380413 0
4.9830003 -0.89748585 1.2389522 0
4.9470005 -0.80057633 1.2241917 0
4.9400005 -0.81579322 1.222929 0
4.9440002 -0.82466793 1.2236505 0
4.9490004 -0.83373028 1.2245524 0
4.9540005 -0.84281069 1.2254543 0
4.9590001 -0.85190904 1.2263561 0
4.9640002 -0.86102545 1.2272581 0
4.9680004 -0.86997962 1.2279797 0
4.9730005 -0.87913036 1.2288816 0
4.9780002 -0.88829905 1.2297834 0
4.9830003 -0.89748585 1.2306854 0
4.9470005 -0.80057633 1.2159897 0
4.9400005 -0.81579322 1.2147397 0
4.9440002 -0.82466793 1.215454 0
4.9490004 -0.83373028 1.2163469 0
4.9540005 -0.84281069 1.2172397 0
4.9590001 -0.85190904 1.2181326 0
4.9640002 -0.86102545 1.2190255 0
4.9680004 -0.86997962 1.2197398 0
4.9730005 -0.87913036 1.2206328 0
4.9780002 -0.88829905 1.2215255 0
4.9830003 -0.89748585 1.2224184 0
4.9470005 -0.80057633 1.2077879 0
4.9400005 -0.81579322 1.2065504 0
4.9440002 -0.82466793 1.2072574 0
4.9490004 -0.83373028 1.2081413 0
4.9540005 -0.84281069 1.2090251 0
4.9590001 -0.85190904 1.2099091 0
4.9640002 -0.86102545 1.2107929 0
4.9680004 -0.86997962 1.2115 0
4.9730005 -0.87913036 1.212384 0
4.9780002 -0.88829905 1.2132677 0
4.9830003 -0.89748585 1.2141516 0
4.9470005 -0.80057633 1.1995859 0
4.9400005 -0.81579322 1.1983612 0
4.9440002 -0.82466793 1.1990609 0
4.9490004 -0.83373028 1.1999358 0
4.9540005 -0.84281069 1.2008107 0
4.9590001 -0.85190904 1.2016854 0
4.9640002 -0.86102545 1.2025603 0
4.9680004 -0.86997962 1.2032603 0
4.9730005 -0.87913036 1.2041352 0
4.9780002 -0.88829905 1.2050099 0
4.9830003 -0.89748585 1.2058848 0
4.9470005 -0.80057633 1.191384 0
4.9400005 -0.81579322 1.1901718 0
4.9440002 -0.82466793 1.1908644 0
4.9490004 -0.83373028 1.1917303 0
4.9540005 -0.84281069 1.1925961 0
4.9590001 -0.85190904 1.1934619 0
4.9640002 -0.86102545 1.1943277 0
4.9680004 -0.86997962 1.1950204 0
4.9730005 -0.87913036 1.1958864 0
4.9780002 -0.88829905 1.1967521 0
4.9830003 -0.89748585 1.1976179 0
4.9470005 -0.80057633 1.183182 0
4.9400005 -0.81579322 1.1819825 0
4.9440002 -0.82466793 1.182668 0
4.9490004 -0.83373028 1.1835247 0
4.9540005 -0.84281069 1.1843816 0
4.9590001 -0.85190904 1.1852384 0
4.9640002 -0.86102545 1.1860952 0
4.9680004 -0.86997962 1.1867807 0
4.9730005 -0.87913036 1.1876374 0
4.9780002 -0.88829905 1.1884942 0
4.9830003 -0.89748585 1.1893511 0
4.9470005 -0.80057633 1.1749802 0
4.9400005 -0.81579322 1.1737932 0
4.9440002 -0.82466793 1.1744715 0
4.9490004 -0.83373028 1.1753192 0
4.9540005 -0.84281069 1.1761671 0
4.9590001 -0.85190904 1.1770147 0
4.9640002 -0.86102545 1.1778626 0
4.9680004 -0.86997962 1.1785408 0
4.9730005 -0.87913036 1.1793886 0
4.9780002 -0.88829905 1.1802363 0
4.9830003 -0.89748585 1.1810842 0
4.9470005 -0.80057633 1.1667782 0
4.9400005 -0.81579322 1.165604 0
4.9440002 -0.82466793 1.1662749 0
4.9490004 -0.83373028 1.1671138 0
4.9540005 -0.84281069 1.1679525 0
4.9590001 -0.85190904 1.1687912 0
4.9640002 -0.86102545 1.1696301 0
4.9680004 -0.86997962 1.1703011 0
4.9730005 -0.87913036 1.1711398 0
4.9780002 -0.88829905 1.1719786 0
4.9830003 -0.89748585 1.1728173 0
4.9470005 -0.80057633 1.1585764 0
4.9400005 -0.81579322 1.1574147 0
4.9440002 -0.82466793 1.1580784 0
4.9490004 -0.83373028 1.1589082 0
4.9540005 -0.84281069 1.1597379 0
4.9590001 -0.85190904 1.1605676 0
4.9640002 -0.86102545 1.1613975 0
4.9680004 -0.86997962 1.1620613 0
4.9730005 -0.87913036 1.162891 0
4.9780002 -0.88829905 1.1637207 0
4.9830003 -0.89748585 1.1645505 0
4.9470005 -0.80057633 1.1503744 0
4.9400005 -0.81579322 1.1492254 0
4.9440002 -0.82466793 1.149882 0
4.9490004 -0.83373028 1.1507027 0
4.9540005 -0.84281069 1.1515235 0
4.9590001 -0.85190904 1.1523441 0
4.9640002 -0.86102545 1.1531649 0
4.9680004 -0.86997962 1.1538215 0
4.9730005 -0.87913036 1.1546422 0
4.9780002 -0.88829905 1.1554629 0
4.9830003 -0.89748585 1.1562836 0
4.9470005 -0.80057633 1.1421725 0
4.9400005 -0.81579322 1.141036 0
4.9440002 -0.82466793 1.1416855 0
4.9490004 -0.83373028 1.1424972 0
4.9540005 -0.84281069 1.1433089 0
4.9590001 -0.85190904 1.1441206 0
4.9640002 -0.86102545 1.1449323 0
4.9680004 -0.86997962 1.1455817 0
4.9730005 -0.87913036 1.1463934 0
4.9780002 -0.88829905 1.1472051 0
4.9830003 -0.89748585 1.1480168 0
4.9470005 -0.80057633 1.1339706 0
4.9400005 -0.81579322 1.1328468 0
4.9440002 -0.82466793 1.1334889 0
4.9490004 -0.83373028 1.1342916 0
4.9540005 -0.84281069 1.1350943 0
4.9590001 -0.85190904 1.135897 0
4.9640002 -0.86102545 1.1366997 0
4.9680004 -0.86997962 1.1373419 0
4.9730005 -0.87913036 1.1381446 0
4.9780002 -0.88829905 1.1389472 0
4.9830003 -0.89748585 1.13975 0
4.9470005 -0.80057633 1.1257687 0
4.9400005 -0.81579322 1.1246575 0
4.9440002 -0.82466793 1.1252924 0
4.9490004 -0.83373028 1.1260861 0
4.9540005 -0.84281069 1.1268798 0
4.9590001 -0.85190904 1.1276734 0
4.9640002 -0.86102545 1.1284671 0
4.9680004 -0.86997962 1.1291021 0
4.9730005 -0.87913036 1.1298958 0
4.9780002 -0.88829905 1.1306894 0
4.9830003 -0.89748585 1.1314831 0
4.9470005 -0.80057633 1.1175668 0
4.9400005 -0.81579322 1.1164682 0
4.9440002 -0.82466793 1.1170958 0
4.9490004 -0.83373028 1.1178806 0
4.9540005 -0.84281069 1.1186652 0
4.9590001 -0.85190904 1.1194499 0
4.9640002 -0.86102545 1.1202346 0
4.9680004 -0.86997962 1.1208622 0
4.9730005 -0.87913036 1.121647 0
4.9780002 -0.88829905 1.1224315 0
4.9830003 -0.89748585 1.1232163 0
4.9470005 -0.80057633 1.1093647 0
4.9400005 -0.81579322 1.1082789 0
4.9440002 -0.82466793 1.1088995 0
4.9490004 -0.83373028 1.109675 0
4.9540005 -0.84281069 1.1104507 0
4.9590001 -0.85190904 1.1112263 0
4.9640002 -0.86102545 1.1120019 0
4.9680004 -0.86997962 1.1126225 0
4.9730005 -0.87913036 1.1133982 0
4.9780002 -0.88829905 1.1141738 0
4.9830003 -0.89748585 1.1149493 0
4.9470005 -0.80057633 1.1011629 0
4.9400005 -0.81579322 1.1000897 0
4.9440002 -0.82466793 1.1007029 0
4.9490004 -0.83373028 1.1014695 0
4.9540005 -0.84281069 1.1022362 0
4.9590001 -0.85190904 1.1030028 0
4.9640002 -0.86102545 1.1037693 0
4.9680004 -0.86997962 1.1043828 0
4.9730005 -0.87913036 1.1051494 0
4.9780002 -0.88829905 1.1059159 0
4.9830003 -0.89748585 1.1066825 0
4.9470005 -0.80057633 1.092961 0
4.9400005 -0.81579322 1.0919003 0
4.9440002 -0.82466793 1.0925064 0
4.9490004 -0.83373028 1.093264 0
4.9540005 -0.84281069 1.0940217 0
4.9590001 -0.85190904 1.0947791 0
4.9640002 -0.86102545 1.0955368 0
4.9680004 -0.86997962 1.0961429 0
4.9730005 -0.87913036 1.0969006 0
4.9780002 -0.88829905 1.097658 0
4.9830003 -0.89748585 1.0984156 0
4.9470005 -0.80057633 1.0847591 0
4.9400005 -0.81579322 1.083711 0
4.9440002 -0.82466793 1.0843099 0
4.9490004 -0.83373028 1.0850585 0
4.9540005 -0.84281069 1.0858071 0
4.9590001 -0.85190904 1.0865556 0
4.9640002 -0.86102545 1.0873042 0
4.9680004 -0.86997962 1.087903 0
4.9730005 -0.87913036 1.0886517 0
4.9780002 -0.88829905 1.0894002 0
4.9830003 -0.89748585 1.0901488 0
4.9470005 -0.80057633 1.0765572 0
4.9400005 -0.81579322 1.0755217 0
4.9440002 -0.82466793 1.0761133 0
4.9490004 -0.83373028 1.076853 0
4.9540005 -0.84281069 1.0775926 0
4.9590001 -0.85190904 1.0783321 0
4.9640002 -0.86102545 1.0790716 0
4.9680004 -0.86997962 1.0796633 0
4.9730005 -0.87913036 1.0804029 0
4.9780002 -0.88829905 1.0811424 0
4.9830003 -0.89748585 1.081882 0
4.9470005 -0.80057633 1.0683552 0
4.9400005 -0.81579322 1.0673325 0
4.9440002 -0.82466793 1.0679169 0
4.9490004 -0.83373028 1.0686474 0
4.9540005 -0.84281069 1.069378 0
4.9590001 -0.85190904 1.0701084 0
4.9640002 -0.86102545 1.070839 0
4.9680004 -0.86997962 1.0714235 0
4.9730005 -0.87913036 1.072154 0
4.9780002 -0.88829905 1.0728846 0
4.9830003 -0.89748585 1.0736151 0
4.9470005 -0.80057633 1.0601534 0
4.9400005 -0.81579322 1.0591432 0
4.9440002 -0.82466793 1.0597204 0
4.9490004 -0.83373028 1.0604419 0
4.9540005 -0.84281069 1.0611634 0
4.9590001 -0.85190904 1.0618849 0
4.9640002 -0.86102545 1.0626065 0
4.9680004 -0.86997962 1.0631837 0
4.9730005 -0.87913036 1.0639052 0
4.9780002 -0.88829905 1.0646267 0
4.9830003 -0.89748585 1.0653483 0
4.9470005 -0.80057633 1.0519514 0
4.9400005 -0.81579322 1.0509539 0
4.9440002 -0.82466793 1.0515239 0
4.9490004 -0.83373028 1.0522364 0
4.9540005 -0.84281069 1.052949 0
4.9590001 -0.85190904 1.0536613 0
4.9640002 -0.86102545 1.0543739 0
4.9680004 -0.86997962 1.0549439 0
4.9730005 -0.87913036 1.0556564 0
4.9780002 -0.88829905 1.0563689 0
4.9830003 -0.89748585 1.0570813 0
4.9470005 -0.80057633 1.0437496 0
4.9400005 -0.81579322 1.0427645 0
4.9440002 -0.82466793 1.0433273 0
4.9490004 -0.83373028 1.0440309 0
4.9540005 -0.84281069 1.0447344 0
4.9590001 -0.85190904 1.0454378 0
4.9640002 -0.86102545 1.0461413 0
4.9680004 -0.86997962 1.0467041 0
4.9730005 -0.87913036 1.0474076 0
4.9780002 -0.88829905 1.0481111 0
4.9830003 -0.89748585 1.0488145 0
4.9470005 -0.80057633 1.0355475 0
4.9400005 -0.81579322 1.0345753 0
4.9440002 -0.82466793 1.0351309 0
4.9490004 -0.83373028 1.0358254 0
4.9540005 -0.84281069 1.0365198 0
4.9590001 -0.85190904 1.0372143 0
4.9640002 -0.86102545 1.0379087 0
4.9680004 -0.86997962 1.0384643 0
4.9730005 -0.87913036 1.0391588 0
4.9780002 -0.88829905 1.0398532 0
4.9830003 -0.89748585 1.0405477 0
4.9470005 -0.80057633 1.0273457 0
4.9400005 -0.81579322 1.026386 0
4.9440002 -0.82466793 1.0269344 0
4.9490004 -0.83373028 1.0276198 0
4.9540005 -0.84281069 1.0283053 0
4.9590001 -0.85190904 1.0289907 0
4.9640002 -0.86102545 1.0296762 0
4.9680004 -0.86997962 1.0302246 0
4.9730005 -0.87913036 1.03091 0
4.9780002 -0.88829905 1.0315953 0
4.9830003 -0.89748585 1.0322808 0
4.9470005 -0.80057633 1.0191437 0
4.9400005 -0.81579322 1.0181967 0
4.9440002 -0.82466793 1.0187379 0
4.9490004 -0.83373028 1.0194143 0
4.9540005 -0.84281069 1.0200907 0
4.9590001 -0.85190904 1.0207671 0
4.9640002 -0.86102545 1.0214436 0
4.9680004 -0.86997962 1.0219847 0
4.9730005 -0.87913036 1.0226612 0
4.9780002 -0.88829905 1.0233376 0
4.9830003 -0.89748585 1.024014 0
4.9470005 -0.80057633 1.0109419 0
4.9400005 -0.81579322 1.0100074 0
4.9440002 -0.82466793 1.0105413 0
4.9490004 -0.83373028 1.0112088 0
4.9540005 -0.84281069 1.0118762 0
4.9590001 -0.85190904 1.0125436 0
4.9640002 -0.86102545 1.013211 0
4.9680004 -0.86997962 1.013745 0
4.9730005 -0.87913036 1.0144124 0
4.9780002 -0.88829905 1.0150797 0
4.9830003 -0.89748585 1.0157472 0
4.9470005 -0.80057633 1.0027399 0
4.9400005 -0.81579322 1.0018182 0
4.9440002 -0.82466793 1.0023448 0
4.9490004 -0.83373028 1.0030032 0
4.9540005 -0.84281069 1.0036616 0
4.9590001 -0.85190904 1.00432 0
4.9640002 -0.86102545 1.0049784 0
4.9680004 -0.86997962 1.0055051 0
4.9730005 -0.87913036 1.0061636 0
4.9780002 -0.88829905 1.0068219 0
4.9830003 -0.89748585 1.0074803 0
4.9470005 -0.80057633 0.99453795 0
4.9400005 -0.81579322 0.99362886 0
4.9440002 -0.82466793 0.99414837 0
4.9490004 -0.83373028 0.99479771 0
4.9540005 -0.84281069 0.99544716 0
4.9590001 -0.85190904 0.99609637 0
4.9640002 -0.86102545 0.99674582 0
4.9680004 -0.86997962 0.99726534 0
4.9730005 -0.87913036 0.99791479 0
4.9780002 -0.88829905 0.998564 0
4.9830003 -0.89748585 0.99921346 0
4.9470005 -0.80057633 0.98633611 0
4.9400005 -0.81579322 0.98543954 0
4.9440002 -0.82466793 0.9859519 0
4.9490004 -0.83373028 0.98659217 0
4.9540005 -0.84281069 0.98723257 0
4.9590001 -0.85190904 0.98787284 0
4.9640002 -0.86102545 0.98851323 0
4.9680004 -0.86997962 0.98902559 0
4.9730005 -0.87913036 0.98966599 0
4.9780002 -0.88829905 0.99030614 0
4.9830003 -0.89748585 0.99094653 0
4.9470005 -0.80057633 0.97813416 0
4.9400005 -0.81579322 0.97725022 0
4.9440002 -0.82466793 0.97775531 0
4.9490004 -0.83373028 0.97838664 0
4.9540005 -0.84281069 0.97901797 0
4.9590001 -0.85190904 0.97964931 0
4.9640002 -0.86102545 0.98028064 0
4.9680004 -0.86997962 0.98078573 0
4.9730005 -0.87913036 0.98141706 0
4.9780002 -0.88829905 0.98204839 0
4.9830003 -0.89748585 0.98267972 0
4.9470005 -0.80057633 0.96993232 0
4.9400005 -0.81579322 0.96906102 0
4.9440002 -0.82466793 0.96955884 0
4.9490004 -0.83373028 0.97018111 0
4.9540005 -0.84281069 0.9708035 0
4.9590001 -0.85190904 0.97142577 0
4.9640002 -0.86102545 0.97204804 0
4.9680004 -0.86997962 0.97254598 0
4.9730005 -0.87913036 0.97316825 0
4.9780002 -0.88829905 0.97379053 0
4.9830003 -0.89748585 0.97441292 0
4.9470005 -0.80057633 0.96173036 0
4.9400005 -0.81579322 0.9608717 0
4.9440002 -0.82466793 0.96136236 0
4.9490004 -0.83373028 0.96197569 0
4.9540005 -0.84281069 0.96258891 0
4.9590001 -0.85190904 0.96320212 0
4.9640002 -0.86102545 0.96381557 0
4.9680004 -0.86997962 0.96430612 0
4.9730005 -0.87913036 0.96491945 0
4.9780002 -0.88829905 0.96553278 0
4.9830003 -0.89748585 0.96614599 0
4.9470005 -0.80057633 0.9535284 0
4.9400005 -0.81579322 0.95268238 0
4.9440002 -0.82466793 0.95316577 0
4.9490004 -0.83373028 0.95377016 0
4.9540005 -0.84281069 0.95437431 0
4.9590001 -0.85190904 0.95497859 0
4.9640002 -0.86102545 0.95558286 0
4.9680004 -0.86997962 0.95606637 0
4.9730005 -0.87913036 0.95667064 0
4.9780002 -0.88829905 0.95727491 0
4.9830003 -0.89748585 0.95787919 0
4.9470005 -0.80057633 0.94532645 0
4.9400005 -0.81579322 0.94449306 0
4.9440002 -0.82466793 0.9449693 0
4.9490004 -0.83373028 0.94556451 0
4.9540005 -0.84281069 0.94615984 0
4.9590001 -0.85190904 0.94675505 0
4.9640002 -0.86102545 0.94735026 0
4.9680004 -0.86997962 0.9478265 0
4.9730005 -0.87913036 0.94842184 0
4.9780002 -0.88829905 0.94901705 0
4.9830003 -0.89748585 0.94961238 0
4.9470005 -0.80057633 0.93712461 0
4.9400005 -0.81579322 0.93630385 0
4.9440002 -0.82466793 0.93677282 0
4.9490004 -0.83373028 0.93735909 0
4.9540005 -0.84281069 0.93794525 0
4.9590001 -0.85190904 0.93853152 0
4.9640002 -0.86102545 0.93911779 0
4.9680004 -0.86997962 0.93958676 0
4.9730005 -0.87913036 0.94017303 0
4.9780002 -0.88829905 0.94075918 0
4.9830003 -0.89748585 0.94134545 0
4.9470005 -0.80057633 0.92892265 0
4.9400005 -0.81579322 0.92811453 0
4.9440002 -0.82466793 0.92857635 0
4.9490004 -0.83373028 0.92915356 0
4.9540005 -0.84281069 0.92973077 0
4.9590001 -0.85190904 0.93030798 0
4.9640002 -0.86102545 0.9308852 0
4.9680004 -0.86997962 0.93134701 0
4.9730005 -0.87913036 0.93192422 0
4.9780002 -0.88829905 0.93250144 0
4.9830003 -0.89748585 0.93307865 0
4.9470005 -0.80057633 0.9207207 0
4.9400005 -0.81579322 0.91992521 0
4.9440002 -0.82466793 0.92037976 0
4.9490004 -0.83373028 0.92094803 0
4.9540005 -0.84281069 0.9215163 0
4.9590001 -0.85190904 0.92208445 0
4.9640002 -0.86102545 0.9226526 0
4.9680004 -0.86997962 0.92310715 0
4.9730005 -0.87913036 0.92367542 0
4.9780002 -0.88829905 0.92424357 0
4.9830003 -0.89748585 0.92481172 0
4.9470005 -0.80057633 0.91251886 0
4.9400005 -0.81579322 0.91173601 0
4.9440002 -0.82466793 0.91218328 0
4.9490004 -0.83373028 0.9127425 0
4.9540005 -0.84281069 0.91330171 0
4.9590001 -0.85190904 0.9138608 0
4.9640002 -0.86102545 0.91442001 0
4.9680004 -0.86997962 0.9148674 0
4.9730005 -0.87913036 0.91542661 0
4.9780002 -0.88829905 0.9159857 0
4.9830003 -0.89748585 0.91654491 0
4.9470005 -0.80057633 0.9043169 0
4.9400005 -0.81579322 0.90354669 0
4.9440002 -0.82466793 0.90398681 0
4.9490004 -0.83373028 0.90453696 0
4.9540005 -0.84281069 0.90508711 0
4.9590001 -0.85190904 0.90563726 0
4.9640002 -0.86102545 0.90618742 0
4.9680004 -0.86997962 0.90662754 0
4.9730005 -0.87913036 0.90717781 0
4.9780002 -0.88829905 0.90772784 0
4.9830003 -0.89748585 0.90827811 0
4.9470005 -0.80057633 0.89611506 0
4.9400005 -0.81579322 0.89535737 0
4.9440002 -0.82466793 0.89579028 0
4.9490004 -0.83373028 0.89633143 0
4.9540005 -0.84281069 0.89687258 0
4.9590001 -0.85190904 0.89741373 0
4.9640002 -0.86102545 0.89795482 0
4.9680004 -0.86997962 0.89838779 0
4.9730005 -0.87913036 0.898929 0
4.9780002 -0.88829905 0.89947003 0
4.9830003 -0.89748585 0.90001118 0
4.9470005 -0.80057633 0.88791305 0
4.9400005 -0.81579322 0.88716805 0
4.9440002 -0.82466793 0.88759375 0
4.9490004 -0.83373028 0.8881259 0
4.9540005 -0.84281069 0.88865805 0
4.9590001 -0.85190904 0.88919008 0
4.9640002 -0.86102545 0.88972223 0
4.9680004 -0.86997962 0.89014798 0
4.9730005 -0.87913036 0.89068013 0
4.9780002 -0.88829905 0.89121222 0
4.9830003 -0.89748585 0.89174438 0
4.9470005 -0.80057633 0.87971115 0
4.9400005 -0.81579322 0.87897885 0
4.9440002 -0.82466793 0.87939727 0
4.9490004 -0.83373028 0.87992036 0
4.9540005 -0.84281069 0.88044351 0
4.9590001 -0.85190904 0.88096654 0
4.9640002 -0.86102545 0.88148969 0
4.9680004 -0.86997962 0.88190818 0
4.9730005 -0.87913036 0.88243133 0
4.9780002 -0.88829905 0.88295436 0
4.9830003 -0.89748585 0.88347751 0
4.9470005 -0.80057633 0.87150919 0
4.9400005 -0.81579322 0.87078953 0
4.9440002 -0.82466793 0.87120074 0
4.9490004 -0.83373028 0.87171489 0
4.9540005 -0.84281069 0.87222898 0
4.9590001 -0.85190904 0.87274301 0
4.9640002 -0.86102545 0.8732571 0
4.9680004 -0.86997962 0.87366837 0
4.9730005 -0.87913036 0.87418246 0
4.9780002 -0.88829905 0.87469655 0
4.9830003 -0.89748585 0.87521064 0
4.9470005 -0.80057633 0.86330736 0
4.9400005 -0.81579322 0.86260021 0
4.9440002 -0.82466793 0.86300427 0
4.9490004 -0.83373028 0.86350936 0
4.9540005 -0.84281069 0.86401439 0
4.9590001 -0.85190904 0.86451948 0
4.9640002 -0.86102545 0.86502457 0
4.9680004 -0.86997962 0.86542857 0
4.9730005 -0.87913036 0.86593366 0
4.9780002 -0.88829905 0.86643875 0
4.9830003 -0.89748585 0.86694378 0
4.9470005 -0.80057633 0.8551054 0
4.9400005 -0.81579322 0.85441095 0
4.9440002 -0.82466793 0.85480773 0
4.9490004 -0.83373028 0.85530376 0
4.9540005 -0.84281069 0.85579991 0
4.9590001 -0.85190904 0.85629588 0
4.9640002 -0.86102545 0.85679197 0
4.9680004 -0.86997962 0.85718882 0
4.9730005 -0.87913036 0.85768485 0
4.9780002 -0.88829905 0.85818088 0
4.9830003 -0.89748585 0.85867691 0
4.9470005 -0.80057633 0.8469035 0
4.9400005 -0.81579322 0.84622169 0
4.9440002 -0.82466793 0.84661126 0
4.9490004 -0.83373028 0.84709829 0
4.9540005 -0.84281069 0.84758532 0
4.9590001 -0.85190904 0.84807229 0
4.9640002 -0.86102545 0.84855938 0
4.9680004 -0.86997962 0.84894896 0
4.9730005 -0.87913036 0.84943604 0
4.9780002 -0.88829905 0.84992301 0
4.9830003 -0.89748585 0.8504101 0
4.9470005 -0.80057633 0.83870161 0
4.9400005 -0.81579322 0.83803236 0
4.9440002 -0.82466793 0.83841473 0
4.9490004 -0.83373028 0.83889282 0
4.9540005 -0.84281069 0.83937079 0
4.9590001 -0.85190904 0.83984876 0
4.9640002 -0.86102545 0.84032679 0
4.9680004 -0.86997962 0.84070921 0
4.9730005 -0.87913036 0.84118724 0
4.9780002 -0.88829905 0.84166521 0
4.9830003 -0.89748585 0.84214324 0
4.9470005 -0.80057633 0.83049965 0
4.9400005 -0.81579322 0.82984304 0
4.9440002 -0.82466793 0.83021826 0
4.9490004 -0.83373028 0.83068728 0
4.9540005 -0.84281069 0.83115625 0
4.9590001 -0.85190904 0.83162522 0
4.9640002 -0.86102545 0.83209419 0
4.9680004 -0.86997962 0.8324694 0
4.9730005 -0.87913036 0.83293843 0
4.9780002 -0.88829905 0.8334074 0
4.9830003 -0.89748585 0.83387637 0
4.9470005 -0.80057633 0.82229775 0
4.9400005 -0.81579322 0.82165378 0
4.9440002 -0.82466793 0.82202172 0
4.9490004 -0.83373028 0.82248175 0
4.9540005 -0.84281069 0.82294166 0
4.9590001 -0.85190904 0.82340169 0
4.9640002 -0.86102545 0.8238616 0
4.9680004 -0.86997962 0.8242296 0
4.9730005 -0.87913036 0.82468963 0
4.9780002 -0.88829905 0.82514954 0
4.9830003 -0.89748585 0.82560951 0
4.9470005 -0.80057633 0.81409585 0
4.9400005 -0.81579322 0.81346452 0
4.9440002 -0.82466793 0.81382525 0
4.9490004 -0.83373028 0.81427622 0
4.9540005 -0.84281069 0.81472719 0
4.9590001 -0.85190904 0.81517804 0
4.9640002 -0.86102545 0.81562907 0
4.9680004 -0.86997962 0.81598985 0
4.9730005 -0.87913036 0.81644082 0
4.9780002 -0.88829905 0.81689173 0
4.9830003 -0.89748585 0.81734264 0
4.9470005 -0.80057633 0.8058939 0
4.9400005 -0.81579322 0.8052752 0
4.9440002 -0.82466793 0.80562872 0
4.9490004 -0.83373028 0.80607069 0
4.9540005 -0.84281069 0.80651259 0
4.9590001 -0.85190904 0.8069545 0
4.9640002 -0.86102545 0.80739641 0
4.9680004 -0.86997962 0.80774999 0
4.9730005 -0.87913036 0.80819201 0
4.9780002 -0.88829905 0.80863386 0
4.9830003 -0.89748585 0.80907583 0
4.9470005 -0.80057633 0.797692 0
4.9400005 -0.81579322 0.79708588 0
4.9440002 -0.82466793 0.79743218 0
4.9490004 -0.83373028 0.79786515 0
4.9540005 -0.84281069 0.79829806 0
4.9590001 -0.85190904 0.79873097 0
4.9640002 -0.86102545 0.79916388 0
4.9680004 -0.86997962 0.79951024 0
4.9730005 -0.87913036 0.79994321 0
4.9780002 -0.88829905 0.80037606 0
4.9830003 -0.89748585 0.80080897 0
4.9470005 -0.80057633 0.7894901 0
4.9400005 -0.81579322 0.78889662 0
4.9440002 -0.82466793 0.78923571 0
4.9490004 -0.83373028 0.78965962 0
4.9540005 -0.84281069 0.79008353 0
4.9590001 -0.85190904 0.79050738 0
4.9640002 -0.86102545 0.79093134 0
4.9680004 -0.86997962 0.79127043 0
4.9730005 -0.87913036 0.79169434 0
4.9780002 -0.88829905 0.79211819 0
4.9830003 -0.89748585 0.7925421 0
4.9470005 -0.80057633 0.78128815 0
4.9400005 -0.81579322 0.78070736 0
4.9440002 -0.82466793 0.78103924 0
4.9490004 -0.83373028 0.78145409 0
4.9540005 -0.84281069 0.78186899 0
4.9590001 -0.85190904 0.78228384 0
4.9640002 -0.86102545 0.78269875 0
4.9680004 -0.86997962 0.78303063 0
4.9730005 -0.87913036 0.78344548 0
4.9780002 -0.88829905 0.78386033 0
4.9830003 -0.89748585 0.78427529 0
4.9470005 -0.80057633 0.77308625 0
4.9400005 -0.81579322 0.77251804 0
4.9440002 -0.82466793 0.77284276 0
4.9490004 -0.83373028 0.77324855 0
4.9540005 -0.84281069 0.77365446 0
4.9590001 -0.85190904 0.77406025 0
4.9640002 -0.86102545 0.77446616 0
4.9680004 -0.86997962 0.77479088 0
4.9730005 -0.87913036 0.77519667 0
4.9780002 -0.88829905 0.77560258 0
4.9830003 -0.89748585 0.77600843 0
4.9470005 -0.80057633 0.76488435 0
4.9400005 -0.81579322 0.76432878 0
4.9440002 -0.82466793 0.76464617 0
4.9490004 -0.83373028 0.76504302 0
4.9540005 -0.84281069 0.76543993 0
4.9590001 -0.85190904 0.76583672 0
4.9640002 -0.86102545 0.76623356 0
4.9680004 -0.86997962 0.76655102 0
4.9730005 -0.87913036 0.76694787 0
4.9780002 -0.88829905 0.76734471 0
4.9830003 -0.89748585 0.76774156 0
4.9470005 -0.80057633 0.7566824 0
4.9400005 -0.81579322 0.75613946 0
4.9440002 -0.82466793 0.7564497 0
4.9490004 -0.83373028 0.75683755 0
4.9540005 -0.84281069 0.75722539 0
4.9590001 -0.85190904 0.75761318 0
4.9640002 -0.86102545 0.75800097 0
4.9680004 -0.86997962 0.75831127 0
4.9730005 -0.87913036 0.75869906 0
4.9780002 -0.88829905 0.75908685 0
4.9830003 -0.89748585 0.75947469 0
4.9470005 -0.80057633 0.7484805 0
4.9400005 -0.81579322 0.7479502 0
4.9440002 -0.82466793 0.74825323 0
4.9490004 -0.83373028 0.74863201 0
4.9540005 -0.84281069 0.7490108 0
4.9590001 -0.85190904 0.74938959 0
4.9640002 -0.86102545 0.74976838 0
4.9680004 -0.86997962 0.75007147 0
4.9730005 -0.87913036 0.75045025 0
4.9780002 -0.88829905 0.75082904 0
4.9830003 -0.89748585 0.75120783 0
4.9470005 -0.80057633 0.7402786 0
4.9400005 -0.81579322 0.73976088 0
4.9440002 -0.82466793 0.74005669 0
4.9490004 -0.83373028 0.74042654 0
4.9540005 -0.84281069 0.74079633 0
4.9590001 -0.85190904 0.74116606 0
4.9640002 -0.86102545 0.74153578 0
4.9680004 -0.86997962 0.74183166 0
4.9730005 -0.87913036 0.74220145 0
4.9780002 -0.88829905 0.74257123 0
4.9830003 -0.89748585 0.74294102 0
4.9470005 -0.80057633 0.73207664 0
4.9400005 -0.81579322 0.73157161 0
4.9440002 -0.82466793 0.73186016 0
4.9490004 -0.83373028 0.73222095 0
4.9540005 -0.84281069 0.73258173 0
4.9590001 -0.85190904 0.73294246 0
4.9640002 -0.86102545 0.73330319 0
4.9680004 -0.86997962 0.73359185 0
4.9730005 -0.87913036 0.73395264 0
4.9780002 -0.88829905 0.73431337 0
4.9830003 -0.89748585 0.7346741 0
4.9470005 -0.80057633 0.72387481 0
4.9400005 -0.81579322 0.72338229 0
4.9440002 -0.82466793 0.72366369 0
4.9490004 -0.83373028 0.72401547 0
4.9540005 -0.84281069 0.7243672 0
4.9590001 -0.85190904 0.72471893 0
4.9640002 -0.86102545 0.72507066 0
4.9680004 -0.86997962 0.72535205 0
4.9730005 -0.87913036 0.72570384 0
4.9780002 -0.88829905 0.7260555 0
4.9830003 -0.89748585 0.72640729 0
4.9470005 -0.80057633 0.71567285 0
4.9400005 -0.81579322 0.71519303 0
4.9440002 -0.82466793 0.71546721 0
4.9490004 -0.83373028 0.71580994 0
4.9540005 -0.84281069 0.71615267 0
4.9590001 -0.85190904 0.71649539 0
4.9640002 -0.86102545 0.71683812 0
4.9680004 -0.86997962 0.7171123 0
4.9730005 -0.87913036 0.71745503 0
4.9780002 -0.88829905 0.7177977 0
4.9830003 -0.89748585 0.71814042 0
4.9470005 -0.80057633 0.70747089 0
4.9400005 -0.81579322 0.70700371 0
4.9440002 -0.82466793 0.70727068 0
4.9490004 -0.83373028 0.70760441 0
4.9540005 -0.84281069 0.70793808 0
4.9590001 -0.85190904 0.70827174 0
4.9640002 -0.86102545 0.70860553 0
4.9680004 -0.86997962 0.70887244 0
4.9730005 -0.87913036 0.70920622 0
4.9780002 -0.88829905 0.70953989 0
4.9830003 -0.89748585 0.70987356 0
4.9470005 -0.80057633 0.699269 0
4.9400005 -0.81579322 0.69881445 0
4.9440002 -0.82466793 0.69907415 0
4.9490004 -0.83373028 0.69939888 0
4.9540005 -0.84281069 0.6997236 0
4.9590001 -0.85190904 0.70004821 0
4.9640002 -0.86102545 0.70037293 0
4.9680004 -0.86997962 0.70063269 0
4.9730005 -0.87913036 0.70095742 0
4.9780002 -0.88829905 0.70128202 0
4.9830003 -0.89748585 0.70160675 0
4.9470005 -0.80057633 0.6910671 0
4.9400005 -0.81579322 0.69062513 0
4.9440002 -0.82466793 0.69087768 0
4.9490004 -0.83373028 0.69119334 0
4.9540005 -0.84281069 0.69150901 0
4.9590001 -0.85190904 0.69182467 0
4.9640002 -0.86102545 0.69214034 0
4.9680004 -0.86997962 0.69239283 0
4.9730005 -0.87913036 0.69270855 0
4.9780002 -0.88829905 0.69302416 0
4.9830003 -0.89748585 0.69333982 0
4.9470005 -0.80057633 0.68286514 0
4.9400005 -0.81579322 0.68243587 0
4.9440002 -0.82466793 0.6826812 0
4.9490004 -0.83373028 0.68298781 0
4.9540005 -0.84281069 0.68329448 0
4.9590001 -0.85190904 0.68360108 0
4.9640002 -0.86102545 0.68390775 0
4.9680004 -0.86997962 0.68415308 0
4.9730005 -0.87913036 0.68445969 0
4.9780002 -0.88829905 0.68476641 0
4.9830003 -0.89748585 0.68507302 0
4.9470005 -0.80057633 0.67466325 0
4.9400005 -0.81579322 0.67424655 0
4.9440002 -0.82466793 0.67448467 0
4.9490004 -0.83373028 0.67478228 0
4.9540005 -0.84281069 0.67507994 0
4.9590001 -0.85190904 0.67537755 0
4.9640002 -0.86102545 0.67567515 0
4.9680004 -0.86997962 0.67591327 0
4.9730005 -0.87913036 0.67621088 0
4.9780002 -0.88829905 0.67650855 0
4.9830003 -0.89748585 0.67680621 0
4.9470005 -0.80057633 0.66646135 0
4.9400005 -0.81579322 0.66605729 0
4.9440002 -0.82466793 0.66628814 0
4.9490004 -0.83373028 0.66657674 0
4.9540005 -0.84281069 0.66686535 0
4.9590001 -0.85190904 0.66715395 0
4.9640002 -0.86102545 0.66744256 0
4.9680004 -0.86997962 0.66767347 0
4.9730005 -0.87913036 0.66796207 0
4.9780002 -0.88829905 0.66825068 0
4.9830003 -0.89748585 0.66853929 0
4.9470005 -0.80057633 0.65825939 0
4.9400005 -0.81579322 0.65786803 0
4.9440002 -0.82466793 0.65809166 0
4.9490004 -0.83373028 0.65837127 0
4.9540005 -0.84281069 0.65865088 0
4.9590001 -0.85190904 0.65893042 0
4.9640002 -0.86102545 0.65921003 0
4.9680004 -0.86997962 0.65943372 0
4.9730005 -0.87913036 0.65971327 0
4.9780002 -0.88829905 0.65999281 0
4.9830003 -0.89748585 0.66027248 0
4.9470005 -0.80057633 0.65005755 0
4.9400005 -0.81579322 0.64967871 0
4.9440002 -0.82466793 0.64989513 0
4.9490004 -0.83373028 0.65016568 0
4.9540005 -0.84281069 0.65043628 0
4.9590001 -0.85190904 0.65070689 0
4.9640002 -0.86102545 0.65097743 0
4.9680004 -0.86997962 0.65119392 0
4.9730005 -0.87913036 0.65146446 0
4.9780002 -0.88829905 0.65173501 0
4.9830003 -0.89748585 0.65200561 0
4.9470005 -0.80057633 0.6418556 0
4.9400005 -0.81579322 0.64148945 0
4.9440002 -0.82466793 0.64169866 0
4.9490004 -0.83373028 0.6419602 0
4.9540005 -0.84281069 0.64222175 0
4.9590001 -0.85190904 0.64248329 0
4.9640002 -0.86102545 0.64274484 0
4.9680004 -0.86997962 0.64295411 0
4.9730005 -0.87913036 0.64321566 0
4.9780002 -0.88829905 0.6434772 0
4.9830003 -0.89748585 0.64373875 0
4.9470005 -0.80057633 0.63365364 0
4.9400005 -0.81579322 0.63330013 0
4.9440002 -0.82466793 0.63350213 0
4.9490004 -0.83373028 0.63375467 0
4.9540005 -0.84281069 0.63400722 0
4.9590001 -0.85190904 0.6342597 0
4.9640002 -0.86102545 0.63451231 0
4.9680004 -0.86997962 0.63471431 0
4.9730005 -0.87913036 0.63496685 0
4.9780002 -0.88829905 0.63521934 0
4.9830003 -0.89748585 0.63547188 0
4.9470005 -0.80057633 0.62545174 0
4.9400005 -0.81579322 0.62511086 0
4.9440002 -0.82466793 0.62530565 0
4.9490004 -0.83373028 0.62554914 0
4.9540005 -0.84281069 0.62579268 0
4.9590001 -0.85190904 0.62603617 0
4.9640002 -0.86102545 0.62627971 0
4.9680004 -0.86997962 0.6264745 0
4.9730005 -0.87913036 0.62671804 0
4.9780002 -0.88829905 0.62696153 0
4.9830003 -0.89748585 0.62720501 0
4.9470005 -0.80057633 0.61724985 0
4.9400005 -0.81579322 0.61692154 0
4.9440002 -0.82466793 0.61710912 0
4.9490004 -0.83373028 0.61734366 0
4.9540005 -0.84281069 0.61757815 0
4.9590001 -0.85190904 0.61781263 0
4.9640002 -0.86102545 0.61804712 0
4.9680004 -0.86997962 0.61823469 0
4.9730005 -0.87913036 0.61846924 0
4.9780002 -0.88829905 0.61870372 0
4.9830003 -0.89748585 0.61893821 0
4.9470005 -0.80057633 0.60904789 0
4.9400005 -0.81579322 0.60873222 0
4.9440002 -0.82466793 0.60891265 0
4.9490004 -0.83373028 0.60913813 0
4.9540005 -0.84281069 0.60936356 0
4.9590001 -0.85190904 0.60958904 0
4.9640002 -0.86102545 0.60981452 0
4.9680004 -0.86997962 0.60999489 0
4.9730005 -0.87913036 0.61022043 0
4.9780002 -0.88829905 0.61044586 0
4.9830003 -0.89748585 0.61067134 0
4.9470005 -0.80057633 0.60084599 0
4.9400005 -0.81579322 0.60054296 0
4.9440002 -0.82466793 0.60071611 0
4.9490004 -0.83373028 0.6009326 0
4.9540005 -0.84281069 0.60114902 0
4.9590001 -0.85190904 0.60136551 0
4.9640002 -0.86102545 0.60158193 0
4.9680004 -0.86997962 0.60175514 0
4.9730005 -0.87913036 0.60197163 0
4.9780002 -0.88829905 0.60218799 0
4.9830003 -0.89748585 0.60240448 0
4.9470005 -0.80057633 0.5926441 0
4.9400005 -0.81579322 0.5923537 0
4.9440002 -0.82466793 0.59251964 0
4.9490004 -0.83373028 0.59272707 0
4.9540005 -0.84281069 0.59293449 0
4.9590001 -0.85190904 0.59314191 0
4.9640002 -0.86102545 0.59334934 0
4.9680004 -0.86997962 0.59351534 0
4.9730005 -0.87913036 0.59372276 0
4.9780002 -0.88829905 0.59393018 0
4.9830003 -0.89748585 0.59413767 0
4.9470005 -0.80057633 0.5844422 0
4.9400005 -0.81579322 0.58416438 0
4.9440002 -0.82466793 0.58432311 0
4.9490004 -0.83373028 0.58452153 0
4.9540005 -0.84281069 0.58471996 0
4.9590001 -0.85190904 0.58491838 0
4.9640002 -0.86102545 0.5851168 0
4.9680004 -0.86997962 0.58527553 0
4.9730005 -0.87913036 0.58547395 0
4.9780002 -0.88829905 0.58567238 0
4.9830003 -0.89748585 0.5858708 0
4.9470005 -0.80057633 0.57624024 0
4.9400005 -0.81579322 0.57597512 0
4.9440002 -0.82466793 0.57612658 0
4.9490004 -0.83373028 0.576316 0
4.9540005 -0.84281069 0.57650542 0
4.9590001 -0.85190904 0.57669479 0
4.9640002 -0.86102545 0.57688421 0
4.9680004 -0.86997962 0.57703573 0
4.9730005 -0.87913036 0.57722515 0
4.9780002 -0.88829905 0.57741451 0
4.9830003 -0.89748585 0.57760394 0
4.9470005 -0.80057633 0.56803834 0
4.9400005 -0.81579322 0.5677858 0
4.9440002 -0.82466793 0.5679301 0
4.9490004 -0.83373028 0.56811047 0
4.9540005 -0.84281069 0.56829089 0
4.9590001 -0.85190904 0.56847125 0
4.9640002 -0.86102545 0.56865162 0
4.9680004 -0.86997962 0.56879592 0
4.9730005 -0.87913036 0.56897628 0
4.9780002 -0.88829905 0.56915665 0
4.9830003 -0.89748585 0.56933707 0
4.9470005 -0.80057633 0.55983639 0
4.9400005 -0.81579322 0.55959654 0
4.9440002 -0.82466793 0.55973363 0
4.9490004 -0.83373028 0.55990493 0
4.9540005 -0.84281069 0.56007636 0
4.9590001 -0.85190904 0.56024766 0
4.9640002 -0.86102545 0.56041908 0
4.9680004 -0.86997962 0.56055617 0
4.9730005 -0.87913036 0.56072748 0
4.9780002 -0.88829905 0.56089884 0
4.9830003 -0.89748585 0.5610702 0
4.9470005 -0.80057633 0.55163449 0
4.9400005 -0.81579322 0.55140722 0
4.9440002 -0.82466793 0.5515371 0
4.9490004 -0.83373028 0.55169946 0
4.9540005 -0.84281069 0.55186176 0
4.9590001 -0.85190904 0.55202413 0
4.9640002 -0.86102545 0.55218649 0
4.9680004 -0.86997962 0.55231637 0
4.9730005 -0.87913036 0.55247867 0
4.9780002 -0.88829905 0.55264103 0
4.9470005 -0.80057633 0.54343259 0
4.9400005 -0.81579322 0.54321796 0
4.9440002 -0.82466793 0.54334056 0
4.9490004 -0.83373028 0.54349393 0
4.9540005 -0.84281069 0.54364723 0
4.9590001 -0.85190904 0.54380053 0
4.9400005 -0.81579322 0.53502864 0
4.9440002 -0.82466793 0.53514409 0
4.9490004 -0.83373028 0.53528839 0
4.9400005 -0.81579322 0.52683938 0
4.9440002 -0.82466793 0.52694756 0
