# .PCD v0.7 - Point Cloud Data file format
VERSION 0.7
FIELDS x y z intensity
SIZE 4 4 4 4
TYPE F F F F
COUNT 1 1 1 1
WIDTH 308
HEIGHT 1
VIEWPOINT 0 0 0 1 0 0 0
POINTS 308
DATA ascii
3.5410001 1.0758208 0.34167665 0
3.5360003 1.0683783 0.34177583 0
3.5300002 1.0606003 0.34189489 0
3.5470002 1.0836402 0.33588099 0
3.5410001 1.0758208 0.33601087 0
3.5360003 1.0683783 0.33611912 0
3.5300002 1.0606003 0.33624899 0
3.5250003 1.0531957 0.33635721 0
3.5520003 1.0911207 0.33008718 0
3.5470002 1.0836402 0.33020443 0
3.5410001 1.0758208 0.33034512 0
3.5360003 1.0683783 0.33046237 0
3.5300002 1.0606003 0.33060306 0
3.5250003 1.0531957 0.33072031 0
3.5520003 1.0911207 0.32440156 0
3.5470002 1.0836402 0.32452783 0
3.5410001 1.0758208 0.32467937 0
3.5360003 1.0683783 0.32480562 0
3.5300002 1.0606003 0.32495713 0
3.5250003 1.0531957 0.3250834 0
3.5520003 1.0911207 0.31871596 0
3.5470002 1.0836402 0.31885123 0
3.5410001 1.0758208 0.3190136 0
3.5360003 1.0683783 0.31914887 0
3.5300002 1.0606003 0.3193112 0
3.5250003 1.0531957 0.3194465 0
3.5520003 1.0911207 0.31303036 0
3.5470002 1.0836402 0.31317466 0
3.5410001 1.0758208 0.31334782 0
3.5360003 1.0683783 0.31349212 0
3.5300002 1.0606003 0.3136653 0
3.5250003 1.0531957 0.3138096 0
3.5520003 1.0911207 0.30734473 0
3.5470002 1.0836402 0.3074981 0
3.5410001 1.0758208 0.30768207 0
3.5360003 1.0683783 0.3078354 0
3.5300002 1.0606003 0.30801937 0
3.5250003 1.0531957 0.3081727 0
3.5520003 1.0911207 0.30165914 0
3.5470002 1.0836402 0.3018215 0
3.5410001 1.0758208 0.30201632 0
3.5360003 1.0683783 0.30217865 0
3.5300002 1.0606003 0.30237347 0
3.5250003 1.0531957 0.3025358 0
3.5520003 1.0911207 0.29597354 0
3.5470002 1.0836402 0.2961449 0
3.5410001 1.0758208 0.29635054 0
3.5360003 1.0683783 0.2965219 0
3.5300002 1.0606003 0.29672754 0
3.5250003 1.0531957 0.2968989 0
3.5520003 1.0911207 0.29028794 0
3.5470002 1.0836402 0.29046834 0
3.5410001 1.0758208 0.29068479 0
3.5360003 1.0683783 0.29086518 0
3.5300002 1.0606003 0.29108161 0
3.5250003 1.0531957 0.291262 0
3.5520003 1.0911207 0.28460234 0
3.5470002 1.0836402 0.28479174 0
3.5410001 1.0758208 0.28501904 0
3.5360003 1.0683783 0.2852084 0
3.5300002 1.0606003 0.28543571 0
3.5250003 1.0531957 0.2856251 0
3.5520003 1.0911207 0.27891672 0
3.5470002 1.0836402 0.27911514 0
3.5410001 1.0758208 0.27935326 0
3.5360003 1.0683783 0.27955168 0
3.5300002 1.0606003 0.27978978 0
3.5250003 1.0531957 0.2799882 0
3.5520003 1.0911207 0.27323115 0
3.5470002 1.0836402 0.27343857 0
3.5410001 1.0758208 0.27368748 0
3.5360003 1.0683783 0.27389494 0
3.5300002 1.0606003 0.27414387 0
3.5250003 1.0531957 0.2743513 0
3.5520003 1.0911207 0.26754552 0
3.5470002 1.0836402 0.26776201 0
3.5410001 1.0758208 0.26802173 0
3.5360003 1.0683783 0.26823819 0
3.5300002 1.0606003 0.26849794 0
3.5250003 1.0531957 0.26871437 0
3.5520003 1.0911207 0.26185992 0
3.5470002 1.0836402 0.26208541 0
3.5410001 1.0758208 0.26235598 0
3.5360003 1.0683783 0.26258147 0
3.5300002 1.0606003 0.26285201 0
3.5250003 1.0531957 0.2630775 0
3.5520003 1.0911207 0.25617433 0
3.5470002 1.0836402 0.25640881 0
3.5410001 1.0758208 0.2566902 0
3.5360003 1.0683783 0.25692469 0
3.5300002 1.0606003 0.25720608 0
3.5250003 1.0531957 0.25744057 0
3.5520003 1.0911207 0.2504887 0
3.5470002 1.0836402 0.25073224 0
3.5410001 1.0758208 0.25102445 0
3.5360003 1.0683783 0.25126797 0
3.5300002 1.0606003 0.25156018 0
3.5250003 1.0531957 0.2518037 0
3.5520003 1.0911207 0.24480312 0
3.5470002 1.0836402 0.24505565 0
3.5410001 1.0758208 0.24535871 0
3.5360003 1.0683783 0.24561122 0
3.5300002 1.0606003 0.24591427 0
3.5250003 1.0531957 0.24616678 0
3.5520003 1.0911207 0.2391175 0
3.5470002 1.0836402 0.23937906 0
3.5410001 1.0758208 0.23969293 0
3.5360003 1.0683783 0.23995447 0
3.5300002 1.0606003 0.24026833 0
3.5250003 1.0531957 0.24052988 0
3.5520003 1.0911207 0.23343191 0
3.5470002 1.0836402 0.23370248 0
3.5410001 1.0758208 0.23402716 0
3.5360003 1.0683783 0.23429774 0
3.5300002 1.0606003 0.23462242 0
3.5250003 1.0531957 0.23489298 0
3.5520003 1.0911207 0.22774631 0
3.5470002 1.0836402 0.2280259 0
3.5410001 1.0758208 0.22836141 0
3.5360003 1.0683783 0.22864099 0
3.5300002 1.0606003 0.2289765 0
3.5250003 1.0531957 0.22925609 0
3.5520003 1.0911207 0.2220607 0
3.5470002 1.0836402 0.22234932 0
3.5410001 1.0758208 0.22269565 0
3.5360003 1.0683783 0.22298425 0
3.5300002 1.0606003 0.22333059 0
3.5250003 1.0531957 0.22361919 0
3.5520003 1.0911207 0.2163751 0
3.5470002 1.0836402 0.21667272 0
3.5410001 1.0758208 0.21702988 0
3.5360003 1.0683783 0.21732751 0
3.5300002 1.0606003 0.21768467 0
3.5250003 1.0531957 0.21798229 0
3.5520003 1.0911207 0.21068949 0
3.5470002 1.0836402 0.21099615 0
3.5410001 1.0758208 0.21136414 0
3.5360003 1.0683783 0.21167076 0
3.5300002 1.0606003 0.21203874 0
3.5250003 1.0531957 0.21234539 0
3.5520003 1.0911207 0.20500389 0
3.5470002 1.0836402 0.20531955 0
3.5410001 1.0758208 0.20569837 0
3.5360003 1.0683783 0.20601402 0
3.5300002 1.0606003 0.20639282 0
3.5250003 1.0531957 0.20670849 0
3.5520003 1.0911207 0.19931827 0
3.5470002 1.0836402 0.19964299 0
3.5410001 1.0758208 0.20003259 0
3.5360003 1.0683783 0.20035729 0
3.5300002 1.0606003 0.20074689 0
3.5250003 1.0531957 0.20107159 0
3.5520003 1.0911207 0.19363268 0
3.5470002 1.0836402 0.19396639 0
3.5410001 1.0758208 0.19436684 0
3.5360003 1.0683783 0.19470054 0
3.5300002 1.0606003 0.19510098 0
3.5250003 1.0531957 0.19543469 0
3.5520003 1.0911207 0.18794708 0
3.5470002 1.0836402 0.18828981 0
3.5410001 1.0758208 0.18870108 0
3.5360003 1.0683783 0.18904379 0
3.5300002 1.0606003 0.18945506 0
3.5250003 1.0531957 0.18979779 0
3.5520003 1.0911207 0.18226147 0
3.5470002 1.0836402 0.18261322 0
3.5410001 1.0758208 0.18303531 0
3.5360003 1.0683783 0.18338704 0
3.5300002 1.0606003 0.18380915 0
3.5250003 1.0531957 0.18416089 0
3.5520003 1.0911207 0.17657587 0
3.5470002 1.0836402 0.17693664 0
3.5410001 1.0758208 0.17736956 0
3.5360003 1.0683783 0.17773032 0
3.5300002 1.0606003 0.17816323 0
3.5250003 1.0531957 0.17852399 0
3.5520003 1.0911207 0.17089026 0
3.5470002 1.0836402 0.17126004 0
3.5410001 1.0758208 0.17170379 0
3.5360003 1.0683783 0.17207357 0
3.5300002 1.0606003 0.17251731 0
3.5250003 1.0531957 0.17288707 0
3.5520003 1.0911207 0.16520467 0
3.5470002 1.0836402 0.16558348 0
3.5410001 1.0758208 0.16603804 0
3.5360003 1.0683783 0.16641682 0
3.5300002 1.0606003 0.16687138 0
3.5250003 1.0531957 0.16725017 0
3.5520003 1.0911207 0.15951905 0
3.5470002 1.0836402 0.15990689 0
3.5410001 1.0758208 0.16037227 0
3.5360003 1.0683783 0.16076007 0
3.5300002 1.0606003 0.16122545 0
3.5250003 1.0531957 0.16161327 0
3.5520003 1.0911207 0.15383345 0
3.5470002 1.0836402 0.1542303 0
3.5410001 1.0758208 0.15470652 0
3.5360003 1.0683783 0.15510334 0
3.5300002 1.0606003 0.15557955 0
3.5250003 1.0531957 0.15597637 0
3.5520003 1.0911207 0.14814785 0
3.5470002 1.0836402 0.1485537 0
3.5410001 1.0758208 0.14904076 0
3.5360003 1.0683783 0.14944658 0
3.5300002 1.0606003 0.14993364 0
3.5250003 1.0531957 0.15033945 0
3.5520003 1.0911207 0.14246225 0
3.5470002 1.0836402 0.14287713 0
3.5410001 1.0758208 0.14337498 0
3.5360003 1.0683783 0.14378986 0
3.5300002 1.0606003 0.14428771 0
3.5250003 1.0531957 0.14470255 0
3.5520003 1.0911207 0.13677663 0
3.5470002 1.0836402 0.13720056 0
3.5410001 1.0758208 0.13770923 0
3.5360003 1.0683783 0.13813311 0
3.5300002 1.0606003 0.1386418 0
3.5250003 1.0531957 0.13906565 0
3.5520003 1.0911207 0.13109106 0
3.5470002 1.0836402 0.13152397 0
3.5410001 1.0758208 0.13204345 0
3.5360003 1.0683783 0.13247636 0
3.5300002 1.0606003 0.13299587 0
3.5250003 1.0531957 0.13342875 0
3.5520003 1.0911207 0.12540543 0
3.5470002 1.0836402 0.12584737 0
3.5410001 1.0758208 0.1263777 0
3.5360003 1.0683783 0.12681964 0
3.5300002 1.0606003 0.12734994 0
3.5250003 1.0531957 0.12779185 0
3.5520003 1.0911207 0.11971983 0
3.5470002 1.0836402 0.1201708 0
3.5410001 1.0758208 0.12071195 0
3.5360003 1.0683783 0.12116289 0
3.5300002 1.0606003 0.12170404 0
3.5250003 1.0531957 0.12215495 0
3.5520003 1.0911207 0.11403424 0
3.5470002 1.0836402 0.1144942 0
3.5410001 1.0758208 0.1150462 0
3.5360003 1.0683783 0.11550614 0
3.5300002 1.0606003 0.11605811 0
3.5250003 1.0531957 0.11651805 0
3.5520003 1.0911207 0.10834864 0
3.5470002 1.0836402 0.10881764 0
3.5410001 1.0758208 0.10938042 0
3.5360003 1.0683783 0.10984939 0
3.5300002 1.0606003 0.11041218 0
3.5250003 1.0531957 0.11088115 0
3.5520003 1.0911207 0.10266301 0
3.5470002 1.0836402 0.10314104 0
3.5410001 1.0758208 0.10371464 0
3.5360003 1.0683783 0.10419264 0
3.5300002 1.0606003 0.10476628 0
3.5250003 1.0531957 0.10524425 0
3.5520003 1.0911207 0.096977413 0
3.5470002 1.0836402 0.097464472 0
3.5410001 1.0758208 0.098048896 0
3.5360003 1.0683783 0.098535925 0
3.5300002 1.0606003 0.099120349 0
3.5250003 1.0531957 0.099607348 0
3.5520003 1.0911207 0.091291815 0
3.5470002 1.0836402 0.091787875 0
3.5410001 1.0758208 0.092383116 0
3.5360003 1.0683783 0.092879176 0
3.5300002 1.0606003 0.093474418 0
3.5250003 1.0531957 0.093970448 0
3.5520003 1.0911207 0.085606217 0
3.5470002 1.0836402 0.086111277 0
3.5410001 1.0758208 0.086717397 0
3.5360003 1.0683783 0.087222427 0
3.5300002 1.0606003 0.087828517 0
3.5250003 1.0531957 0.088333547 0
3.5520003 1.0911207 0.07992059 0
3.5470002 1.0836402 0.08043471 0
3.5410001 1.0758208 0.081051618 0
3.5360003 1.0683783 0.081565678 0
3.5300002 1.0606003 0.082182586 0
3.5250003 1.0531957 0.082696646 0
3.5520003 1.0911207 0.074234992 0
3.5470002 1.0836402 0.074758112 0
3.5410001 1.0758208 0.075385839 0
3.5360003 1.0683783 0.075908929 0
3.5300002 1.0606003 0.076536655 0
3.5250003 1.0531957 0.077059746 0
3.5520003 1.0911207 0.068549395 0
3.5470002 1.0836402 0.069081545 0
3.5410001 1.0758208 0.069720089 0
3.5360003 1.0683783 0.07025221 0
3.5300002 1.0606003 0.070890725 0
3.5250003 1.0531957 0.071422845 0
3.5520003 1.0911207 0.062863797 0
3.5470002 1.0836402 0.063404948 0
3.5410001 1.0758208 0.06405431 0
3.5360003 1.0683783 0.064595461 0
3.5300002 1.0606003 0.065244824 0
3.5250003 1.0531957 0.065785944 0
3.5520003 1.0911207 0.057178169 0
3.5470002 1.0836402 0.05772835 0
3.5410001 1.0758208 0.058388561 0
3.5360003 1.0683783 0.058938712 0
3.5300002 1.0606003 0.059598923 0
3.5250003 1.0531957 0.060149044 0
3.5520003 1.0911207 0.051492602 0
3.5470002 1.0836402 0.052051783 0
3.5410001 1.0758208 0.052722812 0
3.5360003 1.0683783 0.053281963 0
3.5300002 1.0606003 0.053952992 0
3.5250003 1.0531957 0.054512173 0
