# .PCD v0.7 - Point Cloud Data file format
VERSION 0.7
FIELDS x y z intensity
SIZE 4 4 4 4
TYPE F F F F
COUNT 1 1 1 1
WIDTH 1416
HEIGHT 1
VIEWPOINT 0 0 0 1 0 0 0
POINTS 1416
DATA ascii
2.5400002 0.90745693 0.41944063 0
2.5410001 0.90404058 0.41944784 0
2.5430002 0.90106249 0.41946226 0
2.5440001 0.89763695 0.41946948 0
2.5460002 0.89464629 0.4194839 0
2.5470002 0.89121187 0.41949111 0
2.5490003 0.88820857 0.41950554 0
2.5500002 0.88476503 0.41951278 0
2.5520003 0.88174915 0.4195272 0
2.5540001 0.87872595 0.41954163 0
2.5550003 0.87526804 0.41954884 0
2.5570002 0.87223214 0.41956326 0
2.5580001 0.86876523 0.41957048 0
2.5600002 0.86571687 0.41958493 0
2.5610001 0.86224085 0.41959214 0
2.5630002 0.85917985 0.41960657 0
2.5640001 0.85569483 0.41961378 0
2.5660002 0.8526212 0.4196282 0
2.5670002 0.84912717 0.41963542 0
2.5690002 0.8460409 0.41964984 0
2.5710001 0.8429473 0.41966429 0
2.5720003 0.83943897 0.41967151 0
2.5740001 0.83633274 0.41968593 0
2.5750003 0.83281541 0.41969314 0
2.5770001 0.82969654 0.41970757 0
2.5780003 0.82617021 0.41971478 0
2.5800002 0.82303876 0.41972923 0
2.5820003 0.81990016 0.41974366 0
2.5830002 0.81635922 0.41975087 0
2.5850003 0.81320804 0.41976529 0
2.5860002 0.80965811 0.41977251 0
2.5880003 0.80649424 0.41978693 0
2.5890002 0.8029353 0.41979417 0
2.5910003 0.79975885 0.4198086 0
2.5930002 0.79657501 0.41982302 0
2.5940001 0.79300165 0.41983023 0
2.5960002 0.78980535 0.41984466 0
2.5970001 0.78622293 0.41985187 0
2.5990002 0.78301406 0.41986632 0
2.6010003 0.77979785 0.41988075 0
2.6020002 0.77620107 0.41988796 0
2.6040001 0.77297217 0.41990238 0
2.6050003 0.76936644 0.4199096 0
2.6070001 0.7661249 0.41992402 0
2.6090002 0.76287633 0.41993847 0
2.6100001 0.75925606 0.41994569 0
2.6120002 0.7559948 0.41996011 0
2.6140001 0.7527262 0.41997454 0
2.6150002 0.74909163 0.41998175 0
2.6170001 0.74581045 0.41999617 0
2.6180003 0.74216682 0.42000341 0
2.6200001 0.738873 0.42001784 0
2.6220002 0.7355721 0.42003226 0
2.6230001 0.73191392 0.42003947 0
2.6250002 0.72860032 0.4200539 0
2.6270001 0.72527945 0.42006832 0
2.6280003 0.72160703 0.42007557 0
2.6300001 0.71827352 0.42008999 0
2.6320002 0.71493292 0.42010441 0
2.6330001 0.71124589 0.42011163 0
2.6350002 0.70789266 0.42012605 0
2.6370001 0.70453209 0.4201405 0
2.6380002 0.70083076 0.42014772 0
2.6400001 0.69745755 0.42016214 0
2.6410003 0.69374716 0.42016935 0
2.6430001 0.69036138 0.42018378 0
2.6450002 0.68696845 0.4201982 0
2.6460001 0.68324357 0.42020541 0
2.6480002 0.679838 0.42021987 0
2.6500001 0.67642516 0.42023429 0
2.6520002 0.67300516 0.42024872 0
2.6530001 0.66926044 0.42025593 0
2.6550002 0.66582787 0.42027035 0
2.6570003 0.66238803 0.42028481 0
2.6580002 0.65862882 0.42029202 0
2.6600001 0.65517628 0.42030644 0
2.6620002 0.65171659 0.42032087 0
2.6630001 0.64794302 0.42032808 0
2.9850001 0.71404362 0.42265138 0
2.9760003 0.70675087 0.42258644 0
2.9710002 0.70065218 0.42255038 0
2.9680002 0.69514871 0.42252874 0
2.9650002 0.68965614 0.42250708 0
2.9640002 0.68474436 0.42249987 0
2.9630003 0.67983621 0.42249265 0
2.9620001 0.67493159 0.42248544 0
2.9620001 0.67031026 0.42248544 0
2.9630003 0.66596675 0.42249265 0
2.7560003 0.60421515 0.42099911 0
2.7490003 0.59804612 0.42094859 0
2.7450001 0.59271944 0.42091975 0
2.7420001 0.58767778 0.42089808 0
2.7400002 0.58291578 0.42088366 0
2.7380002 0.57816094 0.42086923 0
2.7370002 0.57367849 0.42086202 0
2.7370002 0.56946301 0.42086202 0
2.7360003 0.56498593 0.42085481 0
2.7360003 0.56077224 0.42085481 0
2.7370002 0.55681646 0.42086202 0
2.7380002 0.5528571 0.42086923 0
2.7390003 0.54889417 0.42087644 0
2.7400002 0.5449276 0.42088366 0
2.7420001 0.54120809 0.42089808 0
2.7440002 0.53748143 0.4209125 0
2.7470002 0.53399467 0.42093417 0
2.7500002 0.53049707 0.42095581 0
2.7530003 0.52698874 0.42097747 0
2.7580001 0.5239529 0.42101353 0
2.7620003 0.52065915 0.42104238 0
2.7680001 0.51782709 0.42108569 0
2.7770002 0.51568246 0.42115062 0
2.4940002 1.0040544 0.41533154 0
2.4950001 1.0007769 0.41533694 0
2.4970002 0.99799371 0.41534778 0
2.4980001 0.99470711 0.41535318 0
2.5000002 0.99191129 0.415364 0
2.5010002 0.98861563 0.41536942 0
2.5020001 0.98531651 0.41537482 0
2.5040002 0.98250258 0.41538566 0
2.5050001 0.97919428 0.41539106 0
2.5070002 0.97636783 0.41540188 0
2.5080001 0.97305059 0.4154073 0
2.5100002 0.97021151 0.41541812 0
2.5110002 0.96688521 0.41542354 0
2.5130002 0.96403348 0.41543436 0
2.5140002 0.96069813 0.41543975 0
2.5160003 0.95783377 0.4154506 0
2.5170002 0.95448947 0.415456 0
2.5190003 0.95161235 0.41546682 0
2.5200002 0.94825906 0.41547224 0
2.5220003 0.94536948 0.41548306 0
2.5230002 0.94200706 0.41548848 0
2.5250001 0.93910474 0.4154993 0
2.5260003 0.9357335 0.41550469 0
2.5280001 0.93281847 0.41551551 0
2.5290003 0.92943823 0.41552094 0
2.5310001 0.92651051 0.41553175 0
2.5320003 0.92312127 0.41553718 0
2.5340002 0.92018104 0.415548 0
2.5350001 0.91678262 0.41555339 0
2.5370002 0.9138298 0.41556424 0
2.5380001 0.91042238 0.41556963 0
2.5400002 0.90745693 0.41558045 0
2.5410001 0.90404058 0.41558588 0
2.5430002 0.90106249 0.41559669 0
2.5440001 0.89763695 0.41560212 0
2.5460002 0.89464629 0.41561294 0
2.5470002 0.89121187 0.41561833 0
2.5490003 0.88820857 0.41562918 0
2.5500002 0.88476503 0.41563457 0
2.5520003 0.88174915 0.41564539 0
2.5540001 0.87872595 0.41565621 0
2.5550003 0.87526804 0.41566163 0
2.5570002 0.87223214 0.41567245 0
2.5580001 0.86876523 0.41567788 0
2.5600002 0.86571687 0.41568869 0
2.5610001 0.86224085 0.41569409 0
2.5630002 0.85917985 0.41570494 0
2.5640001 0.85569483 0.41571033 0
2.5660002 0.8526212 0.41572115 0
2.5670002 0.84912717 0.41572657 0
2.5690002 0.8460409 0.41573739 0
2.5710001 0.8429473 0.41574821 0
2.5720003 0.83943897 0.41575363 0
2.5740001 0.83633274 0.41576445 0
2.5750003 0.83281541 0.41576988 0
2.5770001 0.82969654 0.41578069 0
2.5780003 0.82617021 0.41578609 0
2.5800002 0.82303876 0.41579691 0
2.5820003 0.81990016 0.41580775 0
2.5830002 0.81635922 0.41581315 0
2.5850003 0.81320804 0.41582397 0
2.5860002 0.80965811 0.41582939 0
2.5880003 0.80649424 0.41584021 0
2.5890002 0.8029353 0.41584563 0
2.5910003 0.79975885 0.41585645 0
2.5930002 0.79657501 0.41586727 0
2.5940001 0.79300165 0.41587269 0
2.5960002 0.78980535 0.41588351 0
2.5970001 0.78622293 0.41588891 0
2.5990002 0.78301406 0.41589972 0
2.6010003 0.77979785 0.41591057 0
2.6020002 0.77620107 0.41591597 0
2.6040001 0.77297217 0.41592678 0
2.6050003 0.76936644 0.41593221 0
2.6070001 0.7661249 0.41594303 0
2.6090002 0.76287633 0.41595384 0
2.6100001 0.75925606 0.41595927 0
2.6120002 0.7559948 0.41597009 0
2.6140001 0.7527262 0.41598091 0
2.6150002 0.74909163 0.41598633 0
2.6170001 0.74581045 0.41599715 0
2.6180003 0.74216682 0.41600254 0
2.6200001 0.738873 0.41601339 0
2.6220002 0.7355721 0.41602421 0
2.6230001 0.73191392 0.4160296 0
2.6250002 0.72860032 0.41604042 0
2.6270001 0.72527945 0.41605127 0
2.6280003 0.72160703 0.41605666 0
2.6300001 0.71827352 0.41606748 0
2.6320002 0.71493292 0.4160783 0
2.6330001 0.71124589 0.41608372 0
2.6350002 0.70789266 0.41609454 0
2.6370001 0.70453209 0.41610536 0
2.6380002 0.70083076 0.41611078 0
2.6400001 0.69745755 0.4161216 0
2.6410003 0.69374716 0.41612703 0
2.6430001 0.69036138 0.41613784 0
2.6450002 0.68696845 0.41614866 0
2.6460001 0.68324357 0.41615409 0
2.6480002 0.679838 0.4161649 0
2.6500001 0.67642516 0.41617572 0
2.6520002 0.67300516 0.41618654 0
2.6530001 0.66926044 0.41619197 0
2.6550002 0.66582787 0.41620278 0
2.6570003 0.66238803 0.4162136 0
2.6580002 0.65862882 0.416219 0
2.6600001 0.65517628 0.41622984 0
2.6620002 0.65171659 0.41624066 0
2.6630001 0.64794302 0.41624606 0
2.9850001 0.71404362 0.41798854 0
2.9760003 0.70675087 0.41793984 0
2.9710002 0.70065218 0.41791278 0
2.9680002 0.69514871 0.41789654 0
2.9650002 0.68965614 0.41788033 0
2.9640002 0.68474436 0.4178749 0
2.9630003 0.67983621 0.41786951 0
2.9620001 0.67493159 0.41786408 0
2.9620001 0.67031026 0.41786408 0
2.9630003 0.66596675 0.41786951 0
2.7560003 0.60421515 0.41674933 0
2.7490003 0.59804612 0.41671145 0
2.7450001 0.59271944 0.41668981 0
2.7420001 0.58767778 0.41667357 0
2.7400002 0.58291578 0.41666275 0
2.7380002 0.57816094 0.41665193 0
2.7370002 0.57367849 0.41664651 0
2.7370002 0.56946301 0.41664651 0
2.7360003 0.56498593 0.41664112 0
2.7360003 0.56077224 0.41664112 0
2.7370002 0.55681646 0.41664651 0
2.7380002 0.5528571 0.41665193 0
2.7390003 0.54889417 0.41665733 0
2.7400002 0.5449276 0.41666275 0
2.7420001 0.54120809 0.41667357 0
2.7440002 0.53748143 0.41668439 0
2.7470002 0.53399467 0.41670063 0
2.7500002 0.53049707 0.41671687 0
2.7530003 0.52698874 0.41673309 0
2.7580001 0.5239529 0.41676015 0
2.7620003 0.52065915 0.41678181 0
2.7680001 0.51782709 0.41681427 0
2.7770002 0.51568246 0.41686296 0
2.4940002 1.0040544 0.41155437 0
2.4950001 1.0007769 0.41155797 0
2.4970002 0.99799371 0.41156518 0
2.4980001 0.99470711 0.41156879 0
2.5000002 0.99191129 0.411576 0
2.5010002 0.98861563 0.41157961 0
2.5020001 0.98531651 0.41158321 0
2.5040002 0.98250258 0.41159043 0
2.5050001 0.97919428 0.41159403 0
2.5070002 0.97636783 0.41160128 0
2.5080001 0.97305059 0.41160488 0
2.5100002 0.97021151 0.41161209 0
2.5110002 0.96688521 0.4116157 0
2.5130002 0.96403348 0.41162291 0
2.5140002 0.96069813 0.41162652 0
2.5160003 0.95783377 0.41163373 0
2.5170002 0.95448947 0.41163734 0
2.5190003 0.95161235 0.41164455 0
2.5200002 0.94825906 0.41164815 0
2.5220003 0.94536948 0.41165537 0
2.5230002 0.94200706 0.41165897 0
2.5250001 0.93910474 0.41166618 0
2.5260003 0.9357335 0.41166982 0
2.5280001 0.93281847 0.41167703 0
2.5290003 0.92943823 0.41168064 0
2.5310001 0.92651051 0.41168785 0
2.5320003 0.92312127 0.41169146 0
2.5340002 0.92018104 0.41169867 0
2.5350001 0.91678262 0.41170228 0
2.5370002 0.9138298 0.41170949 0
2.5380001 0.91042238 0.41171309 0
2.5400002 0.90745693 0.41172031 0
2.5410001 0.90404058 0.41172391 0
2.5430002 0.90106249 0.41173112 0
2.5440001 0.89763695 0.41173473 0
2.5460002 0.89464629 0.41174197 0
2.5470002 0.89121187 0.41174558 0
2.5490003 0.88820857 0.41175279 0
2.5500002 0.88476503 0.4117564 0
2.5520003 0.88174915 0.41176361 0
2.5540001 0.87872595 0.41177082 0
2.5550003 0.87526804 0.41177443 0
2.5570002 0.87223214 0.41178164 0
2.5580001 0.86876523 0.41178524 0
2.5600002 0.86571687 0.41179246 0
2.5610001 0.86224085 0.41179606 0
2.5630002 0.85917985 0.41180328 0
2.5640001 0.85569483 0.41180688 0
2.5660002 0.8526212 0.41181412 0
2.5670002 0.84912717 0.41181773 0
2.5690002 0.8460409 0.41182494 0
2.5710001 0.8429473 0.41183215 0
2.5720003 0.83943897 0.41183576 0
2.5740001 0.83633274 0.41184297 0
2.5750003 0.83281541 0.41184658 0
2.5770001 0.82969654 0.41185379 0
2.5780003 0.82617021 0.4118574 0
2.5800002 0.82303876 0.41186461 0
2.5820003 0.81990016 0.41187182 0
2.5830002 0.81635922 0.41187543 0
2.5850003 0.81320804 0.41188267 0
2.5860002 0.80965811 0.41188627 0
2.5880003 0.80649424 0.41189349 0
2.5890002 0.8029353 0.41189709 0
2.5910003 0.79975885 0.41190431 0
2.5930002 0.79657501 0.41191152 0
2.5940001 0.79300165 0.41191512 0
2.5960002 0.78980535 0.41192234 0
2.5970001 0.78622293 0.41192594 0
2.5990002 0.78301406 0.41193315 0
2.6010003 0.77979785 0.41194037 0
2.6020002 0.77620107 0.41194397 0
2.6040001 0.77297217 0.41195121 0
2.6050003 0.76936644 0.41195482 0
2.6070001 0.7661249 0.41196203 0
2.6090002 0.76287633 0.41196924 0
2.6100001 0.75925606 0.41197285 0
2.6120002 0.7559948 0.41198006 0
2.6140001 0.7527262 0.41198727 0
2.6150002 0.74909163 0.41199088 0
2.6170001 0.74581045 0.41199809 0
2.6180003 0.74216682 0.4120017 0
2.6200001 0.738873 0.41200891 0
2.6220002 0.7355721 0.41201612 0
2.6230001 0.73191392 0.41201976 0
2.6250002 0.72860032 0.41202697 0
2.6270001 0.72527945 0.41203418 0
2.6280003 0.72160703 0.41203779 0
2.6300001 0.71827352 0.412045 0
2.6320002 0.71493292 0.41205221 0
2.6330001 0.71124589 0.41205582 0
2.6350002 0.70789266 0.41206303 0
2.6370001 0.70453209 0.41207024 0
2.6380002 0.70083076 0.41207385 0
2.6400001 0.69745755 0.41208106 0
2.6410003 0.69374716 0.41208467 0
2.6430001 0.69036138 0.41209191 0
2.6450002 0.68696845 0.41209912 0
2.6460001 0.68324357 0.41210273 0
2.6480002 0.679838 0.41210994 0
2.6500001 0.67642516 0.41211715 0
2.6520002 0.67300516 0.41212437 0
2.6530001 0.66926044 0.41212797 0
2.6550002 0.66582787 0.41213518 0
2.6570003 0.66238803 0.4121424 0
2.6580002 0.65862882 0.412146 0
2.6600001 0.65517628 0.41215321 0
2.6620002 0.65171659 0.41216046 0
2.6630001 0.64794302 0.41216406 0
2.9850001 0.71404362 0.4133257 0
2.9760003 0.70675087 0.41329324 0
2.9710002 0.70065218 0.41327518 0
2.9680002 0.69514871 0.41326436 0
2.9650002 0.68965614 0.41325355 0
2.9640002 0.68474436 0.41324994 0
2.9630003 0.67983621 0.41324633 0
2.9620001 0.67493159 0.41324273 0
2.9620001 0.67031026 0.41324273 0
2.9630003 0.66596675 0.41324633 0
2.7560003 0.60421515 0.41249955 0
2.7490003 0.59804612 0.4124743 0
2.7450001 0.59271944 0.41245988 0
2.7420001 0.58767778 0.41244906 0
2.7400002 0.58291578 0.41244185 0
2.7380002 0.57816094 0.41243461 0
2.7370002 0.57367849 0.412431 0
2.7370002 0.56946301 0.412431 0
2.7360003 0.56498593 0.4124274 0
2.7360003 0.56077224 0.4124274 0
2.7370002 0.55681646 0.412431 0
2.7380002 0.5528571 0.41243461 0
2.7390003 0.54889417 0.41243824 0
2.7400002 0.5449276 0.41244185 0
2.7420001 0.54120809 0.41244906 0
2.7440002 0.53748143 0.41245627 0
2.7470002 0.53399467 0.41246709 0
2.7500002 0.53049707 0.41247791 0
2.7530003 0.52698874 0.41248873 0
2.7580001 0.5239529 0.41250676 0
2.7620003 0.52065915 0.41252121 0
2.7680001 0.51782709 0.41254285 0
2.7770002 0.51568246 0.4125753 0
2.4940002 1.0040544 0.40777719 0
2.4950001 1.0007769 0.40777898 0
2.4970002 0.99799371 0.40778261 0
2.4980001 0.99470711 0.4077844 0
2.5000002 0.99191129 0.40778801 0
2.5010002 0.98861563 0.40778983 0
2.5020001 0.98531651 0.40779161 0
2.5040002 0.98250258 0.40779522 0
2.5050001 0.97919428 0.40779704 0
2.5070002 0.97636783 0.40780064 0
2.5080001 0.97305059 0.40780243 0
2.5100002 0.97021151 0.40780604 0
2.5110002 0.96688521 0.40780786 0
2.5130002 0.96403348 0.40781146 0
2.5140002 0.96069813 0.40781325 0
2.5160003 0.95783377 0.40781689 0
2.5170002 0.95448947 0.40781868 0
2.5190003 0.95161235 0.40782228 0
2.5200002 0.94825906 0.4078241 0
2.5220003 0.94536948 0.40782771 0
2.5230002 0.94200706 0.40782949 0
2.5250001 0.93910474 0.4078331 0
2.5260003 0.9357335 0.40783492 0
2.5280001 0.93281847 0.40783852 0
2.5290003 0.92943823 0.40784031 0
2.5310001 0.92651051 0.40784392 0
2.5320003 0.92312127 0.40784574 0
2.5340002 0.92018104 0.40784934 0
2.5350001 0.91678262 0.40785113 0
2.5370002 0.9138298 0.40785477 0
2.5380001 0.91042238 0.40785655 0
2.5400002 0.90745693 0.40786016 0
2.5410001 0.90404058 0.40786198 0
2.5430002 0.90106249 0.40786558 0
2.5440001 0.89763695 0.40786737 0
2.5460002 0.89464629 0.40787098 0
2.5470002 0.89121187 0.4078728 0
2.5490003 0.88820857 0.4078764 0
2.5500002 0.88476503 0.40787819 0
2.5520003 0.88174915 0.4078818 0
2.5540001 0.87872595 0.4078854 0
2.5550003 0.87526804 0.40788722 0
2.5570002 0.87223214 0.40789083 0
2.5580001 0.86876523 0.40789264 0
2.5600002 0.86571687 0.40789625 0
2.5610001 0.86224085 0.40789804 0
2.5630002 0.85917985 0.40790164 0
2.5640001 0.85569483 0.40790346 0
2.5660002 0.8526212 0.40790707 0
2.5670002 0.84912717 0.40790886 0
2.5690002 0.8460409 0.40791246 0
2.5710001 0.8429473 0.40791607 0
2.5720003 0.83943897 0.40791789 0
2.5740001 0.83633274 0.40792149 0
2.5750003 0.83281541 0.40792331 0
2.5770001 0.82969654 0.40792692 0
2.5780003 0.82617021 0.40792871 0
2.5800002 0.82303876 0.40793231 0
2.5820003 0.81990016 0.40793592 0
2.5830002 0.81635922 0.40793774 0
2.5850003 0.81320804 0.40794134 0
2.5860002 0.80965811 0.40794313 0
2.5880003 0.80649424 0.40794674 0
2.5890002 0.8029353 0.40794855 0
2.5910003 0.79975885 0.40795216 0
2.5930002 0.79657501 0.40795577 0
2.5940001 0.79300165 0.40795758 0
2.5960002 0.78980535 0.40796119 0
2.5970001 0.78622293 0.40796298 0
2.5990002 0.78301406 0.40796658 0
2.6010003 0.77979785 0.40797019 0
2.6020002 0.77620107 0.40797201 0
2.6040001 0.77297217 0.40797561 0
2.6050003 0.76936644 0.4079774 0
2.6070001 0.7661249 0.40798101 0
2.6090002 0.76287633 0.40798461 0
2.6100001 0.75925606 0.40798643 0
2.6120002 0.7559948 0.40799004 0
2.6140001 0.7527262 0.40799364 0
2.6150002 0.74909163 0.40799546 0
2.6170001 0.74581045 0.40799907 0
2.6180003 0.74216682 0.40800086 0
2.6200001 0.738873 0.40800446 0
2.6220002 0.7355721 0.40800807 0
2.6230001 0.73191392 0.40800989 0
2.6250002 0.72860032 0.40801349 0
2.6270001 0.72527945 0.4080171 0
2.6280003 0.72160703 0.40801889 0
2.6300001 0.71827352 0.40802249 0
2.6320002 0.71493292 0.4080261 0
2.6330001 0.71124589 0.40802792 0
2.6350002 0.70789266 0.40803152 0
2.6370001 0.70453209 0.40803513 0
2.6380002 0.70083076 0.40803695 0
2.6400001 0.69745755 0.40804055 0
2.6410003 0.69374716 0.40804234 0
2.6430001 0.69036138 0.40804595 0
2.6450002 0.68696845 0.40804955 0
2.6460001 0.68324357 0.40805137 0
2.6480002 0.679838 0.40805498 0
2.6500001 0.67642516 0.40805858 0
2.6520002 0.67300516 0.40806219 0
2.6530001 0.66926044 0.40806401 0
2.6550002 0.66582787 0.40806761 0
2.6570003 0.66238803 0.40807122 0
2.6580002 0.65862882 0.40807301 0
2.6600001 0.65517628 0.40807661 0
2.6620002 0.65171659 0.40808022 0
2.6630001 0.64794302 0.40808204 0
2.9850001 0.71404362 0.40866286 0
2.9760003 0.70675087 0.40864661 0
2.9710002 0.70065218 0.40863761 0
2.9680002 0.69514871 0.40863219 0
2.9650002 0.68965614 0.40862679 0
2.9640002 0.68474436 0.40862498 0
2.9630003 0.67983621 0.40862319 0
2.9620001 0.67493159 0.40862137 0
2.9620001 0.67031026 0.40862137 0
2.9630003 0.66596675 0.40862319 0
2.7560003 0.60421515 0.4082498 0
2.7490003 0.59804612 0.40823716 0
2.7450001 0.59271944 0.40822995 0
2.7420001 0.58767778 0.40822452 0
2.7400002 0.58291578 0.40822092 0
2.7380002 0.57816094 0.40821731 0
2.7370002 0.57367849 0.40821552 0
2.7370002 0.56946301 0.40821552 0
2.7360003 0.56498593 0.4082137 0
2.7360003 0.56077224 0.4082137 0
2.7370002 0.55681646 0.40821552 0
2.7380002 0.5528571 0.40821731 0
2.7390003 0.54889417 0.40821913 0
2.7400002 0.5449276 0.40822092 0
2.7420001 0.54120809 0.40822452 0
2.7440002 0.53748143 0.40822813 0
2.7470002 0.53399467 0.40823355 0
2.7500002 0.53049707 0.40823898 0
2.7530003 0.52698874 0.40824437 0
2.7580001 0.5239529 0.4082534 0
2.7620003 0.52065915 0.40826061 0
2.7680001 0.51782709 0.40827143 0
2.7770002 0.51568246 0.40828767 0
2.4940002 1.0040544 0.40400001 0
2.4950001 1.0007769 0.40400001 0
2.4970002 0.99799371 0.40400001 0
2.4980001 0.99470711 0.40400001 0
2.5000002 0.99191129 0.40400001 0
2.5010002 0.98861563 0.40400001 0
2.5020001 0.98531651 0.40400001 0
2.5040002 0.98250258 0.40400001 0
2.5050001 0.97919428 0.40400001 0
2.5070002 0.97636783 0.40400001 0
2.5080001 0.97305059 0.40400001 0
2.5100002 0.97021151 0.40400001 0
2.5110002 0.96688521 0.40400001 0
2.5130002 0.96403348 0.40400001 0
2.5140002 0.96069813 0.40400001 0
2.5160003 0.95783377 0.40400001 0
2.5170002 0.95448947 0.40400001 0
2.5190003 0.95161235 0.40400001 0
2.5200002 0.94825906 0.40400001 0
2.5220003 0.94536948 0.40400001 0
2.5230002 0.94200706 0.40400001 0
2.5250001 0.93910474 0.40400001 0
2.5260003 0.9357335 0.40400001 0
2.5280001 0.93281847 0.40400001 0
2.5290003 0.92943823 0.40400001 0
2.5310001 0.92651051 0.40400001 0
2.5320003 0.92312127 0.40400001 0
2.5340002 0.92018104 0.40400001 0
2.5350001 0.91678262 0.40400001 0
2.5370002 0.9138298 0.40400001 0
2.5380001 0.91042238 0.40400001 0
2.5400002 0.90745693 0.40400001 0
2.5410001 0.90404058 0.40400001 0
2.5430002 0.90106249 0.40400001 0
2.5440001 0.89763695 0.40400001 0
2.5460002 0.89464629 0.40400001 0
2.5470002 0.89121187 0.40400001 0
2.5490003 0.88820857 0.40400001 0
2.5500002 0.88476503 0.40400001 0
2.5520003 0.88174915 0.40400001 0
2.5540001 0.87872595 0.40400001 0
2.5550003 0.87526804 0.40400001 0
2.5570002 0.87223214 0.40400001 0
2.5580001 0.86876523 0.40400001 0
2.5600002 0.86571687 0.40400001 0
2.5610001 0.86224085 0.40400001 0
2.5630002 0.85917985 0.40400001 0
2.5640001 0.85569483 0.40400001 0
2.5660002 0.8526212 0.40400001 0
2.5670002 0.84912717 0.40400001 0
2.5690002 0.8460409 0.40400001 0
2.5710001 0.8429473 0.40400001 0
2.5720003 0.83943897 0.40400001 0
2.5740001 0.83633274 0.40400001 0
2.5750003 0.83281541 0.40400001 0
2.5770001 0.82969654 0.40400001 0
2.5780003 0.82617021 0.40400001 0
2.5800002 0.82303876 0.40400001 0
2.5820003 0.81990016 0.40400001 0
2.5830002 0.81635922 0.40400001 0
2.5850003 0.81320804 0.40400001 0
2.5860002 0.80965811 0.40400001 0
2.5880003 0.80649424 0.40400001 0
2.5890002 0.8029353 0.40400001 0
2.5910003 0.79975885 0.40400001 0
2.5930002 0.79657501 0.40400001 0
2.5940001 0.79300165 0.40400001 0
2.5960002 0.78980535 0.40400001 0
2.5970001 0.78622293 0.40400001 0
2.5990002 0.78301406 0.40400001 0
2.6010003 0.77979785 0.40400001 0
2.6020002 0.77620107 0.40400001 0
2.6040001 0.77297217 0.40400001 0
2.6050003 0.76936644 0.40400001 0
2.6070001 0.7661249 0.40400001 0
2.6090002 0.76287633 0.40400001 0
2.6100001 0.75925606 0.40400001 0
2.6120002 0.7559948 0.40400001 0
2.6140001 0.7527262 0.40400001 0
2.6150002 0.74909163 0.40400001 0
2.6170001 0.74581045 0.40400001 0
2.6180003 0.74216682 0.40400001 0
2.6200001 0.738873 0.40400001 0
2.6220002 0.7355721 0.40400001 0
2.6230001 0.73191392 0.40400001 0
2.6250002 0.72860032 0.40400001 0
2.6270001 0.72527945 0.40400001 0
2.6280003 0.72160703 0.40400001 0
2.6300001 0.71827352 0.40400001 0
2.6320002 0.71493292 0.40400001 0
2.6330001 0.71124589 0.40400001 0
2.6350002 0.70789266 0.40400001 0
2.6370001 0.70453209 0.40400001 0
2.6380002 0.70083076 0.40400001 0
2.6400001 0.69745755 0.40400001 0
2.6410003 0.69374716 0.40400001 0
2.6430001 0.69036138 0.40400001 0
2.6450002 0.68696845 0.40400001 0
2.6460001 0.68324357 0.40400001 0
2.6480002 0.679838 0.40400001 0
2.6500001 0.67642516 0.40400001 0
2.6520002 0.67300516 0.40400001 0
2.6530001 0.66926044 0.40400001 0
2.6550002 0.66582787 0.40400001 0
2.6570003 0.66238803 0.40400001 0
2.6580002 0.65862882 0.40400001 0
2.6600001 0.65517628 0.40400001 0
2.6620002 0.65171659 0.40400001 0
2.6630001 0.64794302 0.40400001 0
2.9850001 0.71404362 0.40400001 0
2.9760003 0.70675087 0.40400001 0
2.9710002 0.70065218 0.40400001 0
2.9680002 0.69514871 0.40400001 0
2.9650002 0.68965614 0.40400001 0
2.9640002 0.68474436 0.40400001 0
2.9630003 0.67983621 0.40400001 0
2.9620001 0.67493159 0.40400001 0
2.9620001 0.67031026 0.40400001 0
2.9630003 0.66596675 0.40400001 0
2.7560003 0.60421515 0.40400001 0
2.7490003 0.59804612 0.40400001 0
2.7450001 0.59271944 0.40400001 0
2.7420001 0.58767778 0.40400001 0
2.7400002 0.58291578 0.40400001 0
2.7380002 0.57816094 0.40400001 0
2.7370002 0.57367849 0.40400001 0
2.7370002 0.56946301 0.40400001 0
2.7360003 0.56498593 0.40400001 0
2.7360003 0.56077224 0.40400001 0
2.7370002 0.55681646 0.40400001 0
2.7380002 0.5528571 0.40400001 0
2.7390003 0.54889417 0.40400001 0
2.7400002 0.5449276 0.40400001 0
2.7420001 0.54120809 0.40400001 0
2.7440002 0.53748143 0.40400001 0
2.7470002 0.53399467 0.40400001 0
2.7500002 0.53049707 0.40400001 0
2.7530003 0.52698874 0.40400001 0
2.7580001 0.5239529 0.40400001 0
2.7620003 0.52065915 0.40400001 0
2.7680001 0.51782709 0.40400001 0
2.7770002 0.51568246 0.40400001 0
2.4940002 1.0040544 0.40022284 0
2.4950001 1.0007769 0.40022105 0
2.4970002 0.99799371 0.40021741 0
2.4980001 0.99470711 0.40021563 0
2.5000002 0.99191129 0.40021202 0
2.5010002 0.98861563 0.4002102 0
2.5020001 0.98531651 0.40020841 0
2.5040002 0.98250258 0.40020481 0
2.5050001 0.97919428 0.40020299 0
2.5070002 0.97636783 0.40019938 0
2.5080001 0.97305059 0.4001976 0
2.5100002 0.97021151 0.40019399 0
2.5110002 0.96688521 0.40019217 0
2.5130002 0.96403348 0.40018857 0
2.5140002 0.96069813 0.40018678 0
2.5160003 0.95783377 0.40018314 0
2.5170002 0.95448947 0.40018135 0
2.5190003 0.95161235 0.40017775 0
2.5200002 0.94825906 0.40017593 0
2.5220003 0.94536948 0.40017232 0
2.5230002 0.94200706 0.40017053 0
2.5250001 0.93910474 0.40016693 0
2.5260003 0.9357335 0.40016511 0
2.5280001 0.93281847 0.4001615 0
2.5290003 0.92943823 0.40015972 0
2.5310001 0.92651051 0.40015611 0
2.5320003 0.92312127 0.40015429 0
2.5340002 0.92018104 0.40015069 0
2.5350001 0.91678262 0.4001489 0
2.5370002 0.9138298 0.40014526 0
2.5380001 0.91042238 0.40014347 0
2.5400002 0.90745693 0.40013987 0
2.5410001 0.90404058 0.40013805 0
2.5430002 0.90106249 0.40013444 0
2.5440001 0.89763695 0.40013266 0
2.5460002 0.89464629 0.40012905 0
2.5470002 0.89121187 0.40012723 0
2.5490003 0.88820857 0.40012363 0
2.5500002 0.88476503 0.40012184 0
2.5520003 0.88174915 0.40011823 0
2.5540001 0.87872595 0.40011463 0
2.5550003 0.87526804 0.40011281 0
2.5570002 0.87223214 0.4001092 0
2.5580001 0.86876523 0.40010738 0
2.5600002 0.86571687 0.40010378 0
2.5610001 0.86224085 0.40010199 0
2.5630002 0.85917985 0.40009838 0
2.5640001 0.85569483 0.40009657 0
2.5660002 0.8526212 0.40009296 0
2.5670002 0.84912717 0.40009117 0
2.5690002 0.8460409 0.40008757 0
2.5710001 0.8429473 0.40008396 0
2.5720003 0.83943897 0.40008214 0
2.5740001 0.83633274 0.40007854 0
2.5750003 0.83281541 0.40007672 0
2.5770001 0.82969654 0.40007311 0
2.5780003 0.82617021 0.40007132 0
2.5800002 0.82303876 0.40006772 0
2.5820003 0.81990016 0.40006411 0
2.5830002 0.81635922 0.40006229 0
2.5850003 0.81320804 0.40005869 0
2.5860002 0.80965811 0.4000569 0
2.5880003 0.80649424 0.40005329 0
2.5890002 0.8029353 0.40005147 0
2.5910003 0.79975885 0.40004787 0
2.5930002 0.79657501 0.40004426 0
2.5940001 0.79300165 0.40004244 0
2.5960002 0.78980535 0.40003884 0
2.5970001 0.78622293 0.40003705 0
2.5990002 0.78301406 0.40003344 0
2.6010003 0.77979785 0.40002984 0
2.6020002 0.77620107 0.40002802 0
2.6040001 0.77297217 0.40002441 0
2.6050003 0.76936644 0.40002263 0
2.6070001 0.7661249 0.40001902 0
2.6090002 0.76287633 0.40001541 0
2.6100001 0.75925606 0.4000136 0
2.6120002 0.7559948 0.40000999 0
2.6140001 0.7527262 0.40000638 0
2.6150002 0.74909163 0.40000457 0
2.6170001 0.74581045 0.40000096 0
2.6180003 0.74216682 0.39999917 0
2.6200001 0.738873 0.39999557 0
2.6220002 0.7355721 0.39999196 0
2.6230001 0.73191392 0.39999014 0
2.6250002 0.72860032 0.39998654 0
2.6270001 0.72527945 0.39998293 0
2.6280003 0.72160703 0.39998114 0
2.6300001 0.71827352 0.39997754 0
2.6320002 0.71493292 0.39997393 0
2.6330001 0.71124589 0.39997211 0
2.6350002 0.70789266 0.3999685 0
2.6370001 0.70453209 0.3999649 0
2.6380002 0.70083076 0.39996308 0
2.6400001 0.69745755 0.39995947 0
2.6410003 0.69374716 0.39995769 0
2.6430001 0.69036138 0.39995408 0
2.6450002 0.68696845 0.39995047 0
2.6460001 0.68324357 0.39994866 0
2.6480002 0.679838 0.39994505 0
2.6500001 0.67642516 0.39994144 0
2.6520002 0.67300516 0.39993784 0
2.6530001 0.66926044 0.39993602 0
2.6550002 0.66582787 0.39993241 0
2.6570003 0.66238803 0.39992881 0
2.6580002 0.65862882 0.39992702 0
2.6600001 0.65517628 0.39992341 0
2.6620002 0.65171659 0.39991981 0
2.6630001 0.64794302 0.39991799 0
2.9850001 0.71404362 0.39933717 0
2.9760003 0.70675087 0.39935341 0
2.9710002 0.70065218 0.39936242 0
2.9680002 0.69514871 0.39936784 0
2.9650002 0.68965614 0.39937323 0
2.9640002 0.68474436 0.39937505 0
2.9630003 0.67983621 0.39937684 0
2.9620001 0.67493159 0.39937866 0
2.9620001 0.67031026 0.39937866 0
2.9630003 0.66596675 0.39937684 0
2.7560003 0.60421515 0.39975023 0
2.7490003 0.59804612 0.39976287 0
2.7450001 0.59271944 0.39977008 0
2.7420001 0.58767778 0.39977551 0
2.7400002 0.58291578 0.39977911 0
2.7380002 0.57816094 0.39978272 0
2.7370002 0.57367849 0.39978451 0
2.7370002 0.56946301 0.39978451 0
2.7360003 0.56498593 0.39978632 0
2.7360003 0.56077224 0.39978632 0
2.7370002 0.55681646 0.39978451 0
2.7380002 0.5528571 0.39978272 0
2.7390003 0.54889417 0.3997809 0
2.7400002 0.5449276 0.39977911 0
2.7420001 0.54120809 0.39977551 0
2.7440002 0.53748143 0.3997719 0
2.7470002 0.53399467 0.39976647 0
2.7500002 0.53049707 0.39976105 0
2.7530003 0.52698874 0.39975566 0
2.7580001 0.5239529 0.39974663 0
2.7620003 0.52065915 0.39973941 0
2.7680001 0.51782709 0.3997286 0
2.7770002 0.51568246 0.39971235 0
2.4940002 1.0040544 0.39644566 0
2.4950001 1.0007769 0.39644206 0
2.4970002 0.99799371 0.39643484 0
2.4980001 0.99470711 0.39643124 0
2.5000002 0.99191129 0.39642403 0
2.5010002 0.98861563 0.39642042 0
2.5020001 0.98531651 0.39641681 0
2.5040002 0.98250258 0.3964096 0
2.5050001 0.97919428 0.39640599 0
2.5070002 0.97636783 0.39639875 0
2.5080001 0.97305059 0.39639515 0
2.5100002 0.97021151 0.39638793 0
2.5110002 0.96688521 0.39638433 0
2.5130002 0.96403348 0.39637712 0
2.5140002 0.96069813 0.39637351 0
2.5160003 0.95783377 0.3963663 0
2.5170002 0.95448947 0.39636269 0
2.5190003 0.95161235 0.39635548 0
2.5200002 0.94825906 0.39635187 0
2.5220003 0.94536948 0.39634466 0
2.5230002 0.94200706 0.39634106 0
2.5250001 0.93910474 0.39633384 0
2.5260003 0.9357335 0.39633021 0
2.5280001 0.93281847 0.396323 0
2.5290003 0.92943823 0.39631939 0
2.5310001 0.92651051 0.39631218 0
2.5320003 0.92312127 0.39630857 0
2.5340002 0.92018104 0.39630136 0
2.5350001 0.91678262 0.39629775 0
2.5370002 0.9138298 0.39629054 0
2.5380001 0.91042238 0.39628693 0
2.5400002 0.90745693 0.39627972 0
2.5410001 0.90404058 0.39627612 0
2.5430002 0.90106249 0.3962689 0
2.5440001 0.89763695 0.3962653 0
2.5460002 0.89464629 0.39625806 0
2.5470002 0.89121187 0.39625445 0
2.5490003 0.88820857 0.39624724 0
2.5500002 0.88476503 0.39624363 0
2.5520003 0.88174915 0.39623642 0
2.5540001 0.87872595 0.39622921 0
2.5550003 0.87526804 0.3962256 0
2.5570002 0.87223214 0.39621839 0
2.5580001 0.86876523 0.39621478 0
2.5600002 0.86571687 0.39620757 0
2.5610001 0.86224085 0.39620396 0
2.5630002 0.85917985 0.39619675 0
2.5640001 0.85569483 0.39619315 0
2.5660002 0.8526212 0.3961859 0
2.5670002 0.84912717 0.3961823 0
2.5690002 0.8460409 0.39617509 0
2.5710001 0.8429473 0.39616787 0
2.5720003 0.83943897 0.39616427 0
2.5740001 0.83633274 0.39615706 0
2.5750003 0.83281541 0.39615345 0
2.5770001 0.82969654 0.39614624 0
2.5780003 0.82617021 0.39614263 0
2.5800002 0.82303876 0.39613542 0
2.5820003 0.81990016 0.39612821 0
2.5830002 0.81635922 0.3961246 0
2.5850003 0.81320804 0.39611736 0
2.5860002 0.80965811 0.39611375 0
2.5880003 0.80649424 0.39610654 0
2.5890002 0.8029353 0.39610294 0
2.5910003 0.79975885 0.39609572 0
2.5930002 0.79657501 0.39608851 0
2.5940001 0.79300165 0.3960849 0
2.5960002 0.78980535 0.39607769 0
2.5970001 0.78622293 0.39607409 0
2.5990002 0.78301406 0.39606687 0
2.6010003 0.77979785 0.39605966 0
2.6020002 0.77620107 0.39605606 0
2.6040001 0.77297217 0.39604881 0
2.6050003 0.76936644 0.39604521 0
2.6070001 0.7661249 0.396038 0
2.6090002 0.76287633 0.39603078 0
2.6100001 0.75925606 0.39602718 0
2.6120002 0.7559948 0.39601997 0
2.6140001 0.7527262 0.39601275 0
2.6150002 0.74909163 0.39600915 0
2.6170001 0.74581045 0.39600194 0
2.6180003 0.74216682 0.39599833 0
2.6200001 0.738873 0.39599112 0
2.6220002 0.7355721 0.3959839 0
2.6230001 0.73191392 0.39598027 0
2.6250002 0.72860032 0.39597306 0
2.6270001 0.72527945 0.39596584 0
2.6280003 0.72160703 0.39596224 0
2.6300001 0.71827352 0.39595503 0
2.6320002 0.71493292 0.39594781 0
2.6330001 0.71124589 0.39594421 0
2.6350002 0.70789266 0.395937 0
2.6370001 0.70453209 0.39592978 0
2.6380002 0.70083076 0.39592618 0
2.6400001 0.69745755 0.39591897 0
2.6410003 0.69374716 0.39591536 0
2.6430001 0.69036138 0.39590812 0
2.6450002 0.68696845 0.39590091 0
2.6470003 0.68356836 0.39589369 0
2.6480002 0.679838 0.39589009 0
2.6500001 0.67642516 0.39588287 0
2.6520002 0.67300516 0.39587566 0
2.6530001 0.66926044 0.39587206 0
2.6550002 0.66582787 0.39586484 0
2.6570003 0.66238803 0.39585763 0
2.6580002 0.65862882 0.39585403 0
2.6600001 0.65517628 0.39584681 0
2.6620002 0.65171659 0.39583957 0
2.6630001 0.64794302 0.39583597 0
2.9850001 0.71404362 0.39467433 0
2.9760003 0.70675087 0.39470679 0
2.9710002 0.70065218 0.39472485 0
2.9680002 0.69514871 0.39473566 0
2.9650002 0.68965614 0.39474648 0
2.9640002 0.68474436 0.39475009 0
2.9630003 0.67983621 0.39475369 0
2.9620001 0.67493159 0.3947573 0
2.9620001 0.67031026 0.3947573 0
2.9630003 0.66596675 0.39475369 0
2.7560003 0.60421515 0.39550048 0
2.7490003 0.59804612 0.39552572 0
2.7450001 0.59271944 0.39554015 0
2.7420001 0.58767778 0.39555097 0
2.7400002 0.58291578 0.39555818 0
2.7380002 0.57816094 0.39556542 0
2.7370002 0.57367849 0.39556903 0
2.7370002 0.56946301 0.39556903 0
2.7360003 0.56498593 0.39557263 0
2.7360003 0.56077224 0.39557263 0
2.7370002 0.55681646 0.39556903 0
2.7380002 0.5528571 0.39556542 0
2.7390003 0.54889417 0.39556178 0
2.7400002 0.5449276 0.39555818 0
2.7420001 0.54120809 0.39555097 0
2.7440002 0.53748143 0.39554375 0
2.7470002 0.53399467 0.39553294 0
2.7500002 0.53049707 0.39552212 0
2.7530003 0.52698874 0.3955113 0
2.7580001 0.5239529 0.39549327 0
2.7620003 0.52065915 0.39547881 0
2.7680001 0.51782709 0.39545718 0
2.7770002 0.51568246 0.39542472 0
2.4940002 1.0040544 0.39266849 0
2.4950001 1.0007769 0.39266309 0
2.4970002 0.99799371 0.39265224 0
2.4980001 0.99470711 0.39264685 0
2.5000002 0.99191129 0.39263603 0
2.5010002 0.98861563 0.39263061 0
2.5020001 0.98531651 0.39262521 0
2.5040002 0.98250258 0.39261436 0
2.5050001 0.97919428 0.39260897 0
2.5070002 0.97636783 0.39259815 0
2.5080001 0.97305059 0.39259273 0
2.5100002 0.97021151 0.39258191 0
2.5110002 0.96688521 0.39257649 0
2.5130002 0.96403348 0.39256567 0
2.5140002 0.96069813 0.39256027 0
2.5160003 0.95783377 0.39254943 0
2.5170002 0.95448947 0.39254403 0
2.5190003 0.95161235 0.39253321 0
2.5200002 0.94825906 0.39252779 0
2.5220003 0.94536948 0.39251697 0
2.5230002 0.94200706 0.39251155 0
2.5250001 0.93910474 0.39250073 0
2.5260003 0.9357335 0.39249533 0
2.5280001 0.93281847 0.39248452 0
2.5290003 0.92943823 0.39247909 0
2.5310001 0.92651051 0.39246827 0
2.5320003 0.92312127 0.39246285 0
2.5340002 0.92018104 0.39245203 0
2.5350001 0.91678262 0.39244664 0
2.5370002 0.9138298 0.39243579 0
2.5380001 0.91042238 0.39243039 0
2.5400002 0.90745693 0.39241958 0
2.5410001 0.90404058 0.39241415 0
2.5430002 0.90106249 0.39240333 0
2.5440001 0.89763695 0.39239791 0
2.5460002 0.89464629 0.39238709 0
2.5470002 0.89121187 0.3923817 0
2.5490003 0.88820857 0.39237085 0
2.5500002 0.88476503 0.39236546 0
2.5520003 0.88174915 0.39235464 0
2.5540001 0.87872595 0.39234382 0
2.5550003 0.87526804 0.3923384 0
2.5570002 0.87223214 0.39232758 0
2.5580001 0.86876523 0.39232215 0
2.5600002 0.86571687 0.39231133 0
2.5610001 0.86224085 0.39230594 0
2.5630002 0.85917985 0.39229509 0
2.5640001 0.85569483 0.3922897 0
2.5660002 0.8526212 0.39227888 0
2.5670002 0.84912717 0.39227346 0
2.5690002 0.8460409 0.39226264 0
2.5710001 0.8429473 0.39225182 0
2.5720003 0.83943897 0.3922464 0
2.5740001 0.83633274 0.39223558 0
2.5750003 0.83281541 0.39223015 0
2.5770001 0.82969654 0.39221933 0
2.5780003 0.82617021 0.39221394 0
2.5800002 0.82303876 0.39220312 0
2.5820003 0.81990016 0.39219227 0
2.5830002 0.81635922 0.39218688 0
2.5850003 0.81320804 0.39217606 0
2.5860002 0.80965811 0.39217064 0
2.5880003 0.80649424 0.39215982 0
2.5890002 0.8029353 0.3921544 0
2.5910003 0.79975885 0.39214358 0
2.5930002 0.79657501 0.39213276 0
2.5940001 0.79300165 0.39212734 0
2.5960002 0.78980535 0.39211652 0
2.5970001 0.78622293 0.39211112 0
2.5990002 0.78301406 0.3921003 0
2.6010003 0.77979785 0.39208946 0
2.6020002 0.77620107 0.39208406 0
2.6040001 0.77297217 0.39207324 0
2.6050003 0.76936644 0.39206782 0
2.6070001 0.7661249 0.392057 0
2.6090002 0.76287633 0.39204618 0
2.6100001 0.75925606 0.39204076 0
2.6120002 0.7559948 0.39202994 0
2.6140001 0.7527262 0.39201912 0
2.6150002 0.74909163 0.3920137 0
2.6170001 0.74581045 0.39200288 0
2.6180003 0.74216682 0.39199749 0
2.6200001 0.738873 0.39198664 0
2.6220002 0.7355721 0.39197582 0
2.6230001 0.73191392 0.39197043 0
2.6250002 0.72860032 0.39195961 0
2.6270001 0.72527945 0.39194876 0
2.6280003 0.72160703 0.39194337 0
2.6300001 0.71827352 0.39193255 0
2.6320002 0.71493292 0.39192173 0
2.6330001 0.71124589 0.3919163 0
2.6350002 0.70789266 0.39190549 0
2.6370001 0.70453209 0.39189467 0
2.6380002 0.70083076 0.39188924 0
2.6400001 0.69745755 0.39187843 0
2.6410003 0.69374716 0.391873 0
2.6430001 0.69036138 0.39186218 0
2.6450002 0.68696845 0.39185137 0
2.6470003 0.68356836 0.39184055 0
2.6480002 0.679838 0.39183512 0
2.6500001 0.67642516 0.39182431 0
2.6520002 0.67300516 0.39181349 0
2.6530001 0.66926044 0.39180806 0
2.6550002 0.66582787 0.39179724 0
2.6570003 0.66238803 0.39178643 0
2.6580002 0.65862882 0.39178103 0
2.6600001 0.65517628 0.39177018 0
2.6620002 0.65171659 0.39175937 0
2.6630001 0.64794302 0.39175397 0
2.9850001 0.71404362 0.39001149 0
2.9760003 0.70675087 0.39006019 0
2.9710002 0.70065218 0.39008725 0
2.9680002 0.69514871 0.39010349 0
2.9650002 0.68965614 0.3901197 0
2.9640002 0.68474436 0.39012513 0
2.9630003 0.67983621 0.39013052 0
2.9620001 0.67493159 0.39013594 0
2.9620001 0.67031026 0.39013594 0
2.9630003 0.66596675 0.39013052 0
2.7560003 0.60421515 0.3912507 0
2.7490003 0.59804612 0.39128858 0
2.7450001 0.59271944 0.39131021 0
2.7420001 0.58767778 0.39132646 0
2.7400002 0.58291578 0.39133728 0
2.7380002 0.57816094 0.39134809 0
2.7370002 0.57367849 0.39135352 0
2.7370002 0.56946301 0.39135352 0
2.7360003 0.56498593 0.39135891 0
2.7360003 0.56077224 0.39135891 0
2.7370002 0.55681646 0.39135352 0
2.7380002 0.5528571 0.39134809 0
2.7390003 0.54889417 0.3913427 0
2.7400002 0.5449276 0.39133728 0
2.7420001 0.54120809 0.39132646 0
2.7440002 0.53748143 0.39131564 0
2.7470002 0.53399467 0.3912994 0
2.7500002 0.53049707 0.39128315 0
2.7530003 0.52698874 0.39126694 0
2.7580001 0.5239529 0.39123988 0
2.7620003 0.52065915 0.39121822 0
2.7680001 0.51782709 0.39118576 0
2.7770002 0.51568246 0.39113706 0
2.4940002 1.0040544 0.38889131 0
2.4950001 1.0007769 0.3888841 0
2.4970002 0.99799371 0.38886967 0
2.4980001 0.99470711 0.38886246 0
2.5000002 0.99191129 0.38884804 0
2.5010002 0.98861563 0.38884079 0
2.5020001 0.98531651 0.38883358 0
2.5040002 0.98250258 0.38881916 0
2.5050001 0.97919428 0.38881195 0
2.5070002 0.97636783 0.38879752 0
2.5080001 0.97305059 0.38879031 0
2.5100002 0.97021151 0.38877589 0
2.5110002 0.96688521 0.38876867 0
2.5130002 0.96403348 0.38875422 0
2.5140002 0.96069813 0.38874701 0
2.5160003 0.95783377 0.38873258 0
2.5170002 0.95448947 0.38872537 0
2.5190003 0.95161235 0.38871095 0
2.5200002 0.94825906 0.38870373 0
2.5220003 0.94536948 0.38868928 0
2.5230002 0.94200706 0.38868207 0
2.5250001 0.93910474 0.38866764 0
2.5260003 0.9357335 0.38866043 0
2.5280001 0.93281847 0.38864601 0
2.5290003 0.92943823 0.38863879 0
2.5310001 0.92651051 0.38862434 0
2.5320003 0.92312127 0.38861713 0
2.5340002 0.92018104 0.3886027 0
2.5350001 0.91678262 0.38859549 0
2.5370002 0.9138298 0.38858107 0
2.5380001 0.91042238 0.38857386 0
2.5400002 0.90745693 0.3885594 0
2.5410001 0.90404058 0.38855219 0
2.5430002 0.90106249 0.38853776 0
2.5440001 0.89763695 0.38853055 0
2.5460002 0.89464629 0.38851613 0
2.5470002 0.89121187 0.38850892 0
2.5490003 0.88820857 0.38849449 0
2.5500002 0.88476503 0.38848725 0
2.5520003 0.88174915 0.38847283 0
2.5540001 0.87872595 0.3884584 0
2.5550003 0.87526804 0.38845119 0
2.5570002 0.87223214 0.38843676 0
2.5580001 0.86876523 0.38842955 0
2.5600002 0.86571687 0.3884151 0
2.5610001 0.86224085 0.38840789 0
2.5630002 0.85917985 0.38839346 0
2.5640001 0.85569483 0.38838625 0
2.5660002 0.8526212 0.38837183 0
2.5670002 0.84912717 0.38836461 0
2.5690002 0.8460409 0.38835019 0
2.5710001 0.8429473 0.38833573 0
2.5720003 0.83943897 0.38832852 0
2.5740001 0.83633274 0.3883141 0
2.5750003 0.83281541 0.38830689 0
2.5770001 0.82969654 0.38829246 0
2.5780003 0.82617021 0.38828525 0
2.5800002 0.82303876 0.3882708 0
2.5820003 0.81990016 0.38825637 0
2.5830002 0.81635922 0.38824916 0
2.5850003 0.81320804 0.38823473 0
2.5860002 0.80965811 0.38822752 0
2.5880003 0.80649424 0.3882131 0
2.5890002 0.8029353 0.38820586 0
2.5910003 0.79975885 0.38819143 0
2.5930002 0.79657501 0.38817701 0
2.5940001 0.79300165 0.3881698 0
2.5960002 0.78980535 0.38815537 0
2.5970001 0.78622293 0.38814816 0
2.5990002 0.78301406 0.3881337 0
2.6010003 0.77979785 0.38811928 0
2.6020002 0.77620107 0.38811207 0
2.6040001 0.77297217 0.38809764 0
2.6050003 0.76936644 0.38809043 0
2.6070001 0.7661249 0.38807601 0
2.6090002 0.76287633 0.38806155 0
2.6100001 0.75925606 0.38805434 0
2.6120002 0.7559948 0.38803992 0
2.6140001 0.7527262 0.38802549 0
2.6150002 0.74909163 0.38801828 0
2.6170001 0.74581045 0.38800386 0
2.6180003 0.74216682 0.38799661 0
2.6200001 0.738873 0.38798219 0
2.6220002 0.7355721 0.38796777 0
2.6230001 0.73191392 0.38796055 0
2.6250002 0.72860032 0.38794613 0
2.6270001 0.72527945 0.3879317 0
2.6280003 0.72160703 0.38792446 0
2.6300001 0.71827352 0.38791004 0
2.6320002 0.71493292 0.38789561 0
2.6330001 0.71124589 0.3878884 0
2.6350002 0.70789266 0.38787398 0
2.6370001 0.70453209 0.38785952 0
2.6380002 0.70083076 0.38785231 0
2.6400001 0.69745755 0.38783789 0
2.6410003 0.69374716 0.38783067 0
2.6430001 0.69036138 0.38781625 0
2.6450002 0.68696845 0.38780183 0
2.6470003 0.68356836 0.38778737 0
2.6480002 0.679838 0.38778016 0
2.6500001 0.67642516 0.38776574 0
2.6520002 0.67300516 0.38775131 0
2.6530001 0.66926044 0.3877441 0
2.6550002 0.66582787 0.38772967 0
2.6570003 0.66238803 0.38771522 0
2.6580002 0.65862882 0.38770801 0
2.6600001 0.65517628 0.38769358 0
2.6620002 0.65171659 0.38767916 0
2.6630001 0.64794302 0.38767195 0
2.9850001 0.71404362 0.38534865 0
2.9760003 0.70675087 0.38541359 0
2.9710002 0.70065218 0.38544965 0
2.9680002 0.69514871 0.38547128 0
2.9650002 0.68965614 0.38549295 0
2.9640002 0.68474436 0.38550016 0
2.9630003 0.67983621 0.38550738 0
2.9620001 0.67493159 0.38551459 0
2.9620001 0.67031026 0.38551459 0
2.9630003 0.66596675 0.38550738 0
2.7560003 0.60421515 0.38700092 0
2.7490003 0.59804612 0.38705143 0
2.7450001 0.59271944 0.38708028 0
2.7420001 0.58767778 0.38710195 0
2.7400002 0.58291578 0.38711637 0
2.7380002 0.57816094 0.3871308 0
2.7370002 0.57367849 0.38713801 0
2.7370002 0.56946301 0.38713801 0
2.7360003 0.56498593 0.38714522 0
2.7360003 0.56077224 0.38714522 0
2.7370002 0.55681646 0.38713801 0
2.7380002 0.5528571 0.3871308 0
2.7390003 0.54889417 0.38712358 0
2.7400002 0.5449276 0.38711637 0
2.7420001 0.54120809 0.38710195 0
2.7440002 0.53748143 0.38708752 0
2.7470002 0.53399467 0.38706586 0
2.7500002 0.53049707 0.38704422 0
2.7530003 0.52698874 0.38702255 0
2.7580001 0.5239529 0.38698649 0
2.7620003 0.52065915 0.38695765 0
2.7680001 0.51782709 0.38691434 0
2.7770002 0.51568246 0.3868494 0
2.4940002 1.0040544 0.38511413 0
2.4950001 1.0007769 0.38510513 0
2.4970002 0.99799371 0.38508707 0
2.4980001 0.99470711 0.38507807 0
2.5000002 0.99191129 0.38506001 0
2.5010002 0.98861563 0.38505101 0
2.5020001 0.98531651 0.38504198 0
2.5040002 0.98250258 0.38502395 0
2.5050001 0.97919428 0.38501492 0
2.5070002 0.97636783 0.38499689 0
2.5080001 0.97305059 0.38498789 0
2.5100002 0.97021151 0.38496983 0
2.5300002 0.97600162 0.38478947 0
2.5310001 0.97263753 0.38478044 0
2.5320003 0.96926999 0.38477141 0
2.5340002 0.96637285 0.38475338 0
2.5360003 0.96346879 0.38473535 0
2.5390003 0.96102834 0.38470829 0
2.5420003 0.95857692 0.38468122 0
2.5450003 0.95611477 0.38465416 0
2.5490003 0.95410705 0.3846181 0
2.5550003 0.95301223 0.38456398 0
2.5630002 0.95281911 0.38449183 0
2.9360001 0.85974258 0.38112772 0
2.9320002 0.85374677 0.38116381 0
2.9300003 0.84847242 0.38118184 0
2.9300003 0.84390879 0.38118184 0
2.9290001 0.83899516 0.38119087 0
2.9300003 0.83478153 0.38118184 0
2.6730001 0.73711067 0.38349974 0
2.6650002 0.73026884 0.38357189 0
2.6620002 0.72516048 0.38359895 0
2.6600001 0.720402 0.38361698 0
2.6590002 0.7159881 0.38362601 0
2.6590002 0.71191329 0.38362601 0
2.6590002 0.70783848 0.38362601 0
2.6590002 0.70376366 0.38362601 0
2.6610003 0.70034915 0.38360795 0
2.6630001 0.69692725 0.38358992 0
2.6650002 0.69349825 0.38357189 0
2.6680002 0.69038665 0.38354483 0
2.6710002 0.68726432 0.38351777 0
2.6760001 0.68477315 0.38347268 0
2.6820002 0.68258339 0.38341856 0
2.9850001 0.71404362 0.38068581 0
2.9760003 0.70675087 0.38076696 0
2.9710002 0.70065218 0.38081205 0
2.9680002 0.69514871 0.38083911 0
2.9650002 0.68965614 0.38086617 0
2.9640002 0.68474436 0.3808752 0
2.9630003 0.67983621 0.3808842 0
2.9620001 0.67493159 0.38089323 0
2.9620001 0.67031026 0.38089323 0
2.9630003 0.66596675 0.3808842 0
2.7560003 0.60421515 0.38275117 0
2.7490003 0.59804612 0.38281429 0
2.7450001 0.59271944 0.38285035 0
2.7420001 0.58767778 0.38287741 0
2.7400002 0.58291578 0.38289547 0
2.7380002 0.57816094 0.3829135 0
2.7370002 0.57367849 0.38292253 0
2.7370002 0.56946301 0.38292253 0
2.7360003 0.56498593 0.38293153 0
2.7360003 0.56077224 0.38293153 0
2.7370002 0.55681646 0.38292253 0
2.7380002 0.5528571 0.3829135 0
2.7390003 0.54889417 0.38290447 0
2.7400002 0.5449276 0.38289547 0
2.7420001 0.54120809 0.38287741 0
2.7440002 0.53748143 0.38285938 0
2.7470002 0.53399467 0.38283232 0
2.7500002 0.53049707 0.38280526 0
2.7530003 0.52698874 0.3827782 0
2.7580001 0.5239529 0.38273311 0
2.7620003 0.52065915 0.38269705 0
2.7680001 0.51782709 0.38264292 0
2.7770002 0.51568246 0.38256174 0
2.4940002 1.0040544 0.38133696 0
2.4950001 1.0007769 0.38132614 0
2.4970002 0.99799371 0.3813045 0
2.4980001 0.99470711 0.38129368 0
2.5000002 0.99191129 0.38127202 0
2.5010002 0.98861563 0.3812612 0
2.5020001 0.98531651 0.38125038 0
2.5040002 0.98250258 0.38122874 0
2.5050001 0.97919428 0.38121793 0
2.5070002 0.97636783 0.38119626 0
2.5080001 0.97305059 0.38118544 0
2.5100002 0.97021151 0.38116381 0
2.5300002 0.97600162 0.38094735 0
2.5310001 0.97263753 0.38093653 0
2.5320003 0.96926999 0.38092569 0
2.5340002 0.96637285 0.38090405 0
2.5360003 0.96346879 0.38088241 0
2.5390003 0.96102834 0.38084993 0
2.5420003 0.95857692 0.38081747 0
2.5450003 0.95611477 0.38078499 0
2.5490003 0.95410705 0.38074172 0
2.5550003 0.95301223 0.38067678 0
2.5630002 0.95281911 0.3805902 0
2.9360001 0.85974258 0.37655327 0
2.9320002 0.85374677 0.37659657 0
2.9300003 0.84847242 0.37661821 0
2.9300003 0.84390879 0.37661821 0
2.9290001 0.83899516 0.37662902 0
2.9300003 0.83478153 0.37661821 0
2.9310002 0.8305642 0.37660739 0
2.6730001 0.73711067 0.37939969 0
2.6650002 0.73026884 0.37948626 0
2.6620002 0.72516048 0.37951872 0
2.6600001 0.720402 0.37954038 0
2.6590002 0.7159881 0.3795512 0
2.6590002 0.71191329 0.3795512 0
2.6590002 0.70783848 0.3795512 0
2.6590002 0.70376366 0.3795512 0
2.6610003 0.70034915 0.37952954 0
2.6630001 0.69692725 0.3795079 0
2.6650002 0.69349825 0.37948626 0
2.6680002 0.69038665 0.37945378 0
2.6710002 0.68726432 0.37942132 0
2.6760001 0.68477315 0.3793672 0
2.6820002 0.68258339 0.37930226 0
2.6950002 0.68259418 0.37916157 0
2.9850001 0.71404362 0.37602293 0
2.9760003 0.70675087 0.37612036 0
2.9710002 0.70065218 0.37617448 0
2.9680002 0.69514871 0.37620693 0
2.9650002 0.68965614 0.37623942 0
2.9640002 0.68474436 0.37625024 0
2.9630003 0.67983621 0.37626106 0
2.9620001 0.67493159 0.37627187 0
2.9620001 0.67031026 0.37627187 0
2.9630003 0.66596675 0.37626106 0
2.7560003 0.60421515 0.37850139 0
2.7490003 0.59804612 0.37857714 0
2.7450001 0.59271944 0.37862045 0
2.7420001 0.58767778 0.3786529 0
2.7400002 0.58291578 0.37867454 0
2.7380002 0.57816094 0.3786962 0
2.7370002 0.57367849 0.37870702 0
2.7370002 0.56946301 0.37870702 0
2.7360003 0.56498593 0.37871784 0
2.7360003 0.56077224 0.37871784 0
2.7370002 0.55681646 0.37870702 0
2.7380002 0.5528571 0.3786962 0
2.7390003 0.54889417 0.37868536 0
2.7400002 0.5449276 0.37867454 0
2.7420001 0.54120809 0.3786529 0
2.7440002 0.53748143 0.37863126 0
2.7470002 0.53399467 0.37859878 0
2.7500002 0.53049707 0.37856632 0
2.7530003 0.52698874 0.37853384 0
2.7580001 0.5239529 0.37847975 0
2.7620003 0.52065915 0.37843645 0
2.7680001 0.51782709 0.37837151 0
2.7770002 0.51568246 0.37827411 0
2.4940002 1.0040544 0.37755978 0
2.4950001 1.0007769 0.37754717 0
2.4970002 0.99799371 0.3775219 0
2.4980001 0.99470711 0.3775093 0
2.5000002 0.99191129 0.37748402 0
2.5010002 0.98861563 0.37747142 0
2.5020001 0.98531651 0.37745878 0
2.5040002 0.98250258 0.37743354 0
2.5050001 0.97919428 0.3774209 0
2.5070002 0.97636783 0.37739566 0
2.5080001 0.97305059 0.37738302 0
2.5100002 0.97021151 0.37735778 0
2.5300002 0.97600162 0.37710524 0
