# .PCD v0.7 - Point Cloud Data file format
VERSION 0.7
FIELDS x y z intensity
SIZE 4 4 4 4
TYPE F F F F
COUNT 1 1 1 1
WIDTH 1382
HEIGHT 1
VIEWPOINT 0 0 0 1 0 0 0
POINTS 1382
DATA ascii
3.8750002 -0.12748703 1.074701 0
3.8700004 -0.13362901 1.073736 0
3.8670003 -0.13980705 1.073157 0
3.8640003 -0.14597426 1.072578 0
3.8610003 -0.15213066 1.071999 0
3.8590002 -0.1583087 1.0716128 0
3.8570004 -0.16447954 1.0712268 0
3.8550003 -0.17064315 1.0708408 0
3.8540003 -0.17683743 1.0706478 0
3.8530002 -0.1830281 1.0704548 0
3.8520002 -0.18921517 1.0702618 0
3.8520002 -0.19544192 1.0702618 0
3.8520002 -0.20166865 1.0702618 0
3.8520002 -0.2078954 1.0702618 0
3.8530002 -0.21417084 1.0704548 0
3.8540003 -0.22044991 1.0706478 0
3.8550003 -0.22673257 1.0708408 0
3.8570004 -0.23307295 1.0712268 0
3.8590002 -0.23942055 1.0716128 0
3.8620002 -0.2458331 1.072192 0
3.8650002 -0.25225645 1.072771 0
3.8680003 -0.25869063 1.07335 0
3.8720002 -0.26519877 1.074122 0
3.8770003 -0.2717863 1.0750871 0
3.8830004 -0.2784586 1.0762451 0
3.8890002 -0.28515249 1.0774031 0
3.8970003 -0.10277125 1.0726393 0
3.8900003 -0.10895291 1.0713009 0
3.8840003 -0.11512914 1.0701536 0
3.8780003 -0.12128374 1.0690064 0
3.8740003 -0.12746359 1.0682416 0
3.8700004 -0.13362901 1.0674767 0
3.8660002 -0.13977998 1.0667119 0
3.8630002 -0.1459454 1.0661383 0
3.8600004 -0.1521 1.0655648 0
3.8580003 -0.15827624 1.0651823 0
3.8560002 -0.16444527 1.0647999 0
3.8550003 -0.17064315 1.0646087 0
3.8530002 -0.17679955 1.0642263 0
3.8520002 -0.18298841 1.0640351 0
3.8520002 -0.18921517 1.0640351 0
3.8520002 -0.19544192 1.0640351 0
3.8520002 -0.20166865 1.0640351 0
3.8520002 -0.2078954 1.0640351 0
3.8530002 -0.21417084 1.0642263 0
3.8530002 -0.22039939 1.0642263 0
3.8550003 -0.22673257 1.0646087 0
3.8560002 -0.23301883 1.0647999 0
3.8590002 -0.23942055 1.0653735 0
3.8610003 -0.24577537 1.065756 0
3.8640003 -0.25219691 1.0663296 0
3.8680003 -0.25869063 1.0670943 0
3.8720002 -0.26519877 1.0678592 0
3.8760002 -0.27172133 1.0686239 0
3.8820002 -0.27839181 1.0697712 0
3.8880002 -0.28508395 1.0709184 0
3.8960001 -0.10275503 1.066142 0
3.8890002 -0.10893486 1.0648161 0
3.8830004 -0.11510931 1.0636798 0
3.8780003 -0.12128374 1.0627327 0
3.8730001 -0.12744014 1.0617857 0
3.8690002 -0.13360375 1.0610281 0
3.8660002 -0.13977998 1.06046 0
3.8630002 -0.1459454 1.0598917 0
3.8600004 -0.1521 1.0593235 0
3.8580003 -0.15827624 1.0589448 0
3.8560002 -0.16444527 1.058566 0
3.8540003 -0.17060708 1.0581871 0
3.8530002 -0.17679955 1.0579977 0
3.8520002 -0.18298841 1.0578084 0
3.8520002 -0.18921517 1.0578084 0
3.8510003 -0.19539861 1.057619 0
3.8510003 -0.20162357 1.057619 0
3.8520002 -0.2078954 1.0578084 0
3.8520002 -0.21412215 1.0578084 0
3.8530002 -0.22039939 1.0579977 0
3.8550003 -0.22673257 1.0583766 0
3.8560002 -0.23301883 1.058566 0
3.8590002 -0.23942055 1.0591341 0
3.8610003 -0.24577537 1.059513 0
3.8640003 -0.25219691 1.0600811 0
3.8670003 -0.25862929 1.0606494 0
3.8710003 -0.26513565 1.061407 0
3.8760002 -0.27172133 1.062354 0
3.8810003 -0.27832511 1.063301 0
3.8870003 -0.28501543 1.0644373 0
3.8950002 -0.10273879 1.0596483 0
3.8880002 -0.10891683 1.0583351 0
3.8830004 -0.11510931 1.0573971 0
3.8780003 -0.12128374 1.0564591 0
3.8730001 -0.12744014 1.0555211 0
3.8690002 -0.13360375 1.0547707 0
3.8660002 -0.13977998 1.0542079 0
3.8630002 -0.1459454 1.0536451 0
3.8600004 -0.1521 1.0530823 0
3.8580003 -0.15827624 1.0527072 0
3.8560002 -0.16444527 1.0523319 0
3.8540003 -0.17060708 1.0519568 0
3.8530002 -0.17679955 1.0517691 0
3.8520002 -0.18298841 1.0515816 0
3.8520002 -0.18921517 1.0515816 0
3.8520002 -0.19544192 1.0515816 0
3.8520002 -0.20166865 1.0515816 0
3.8520002 -0.2078954 1.0515816 0
3.8530002 -0.21417084 1.0517691 0
3.8530002 -0.22039939 1.0517691 0
3.8550003 -0.22673257 1.0521444 0
3.8560002 -0.23301883 1.0523319 0
3.8590002 -0.23942055 1.0528948 0
3.8610003 -0.24577537 1.05327 0
3.8640003 -0.25219691 1.0538328 0
3.8670003 -0.25862929 1.0543956 0
3.8710003 -0.26513565 1.0551459 0
3.8760002 -0.27172133 1.0560839 0
3.8810003 -0.27832511 1.0570219 0
3.8870003 -0.28501543 1.0581474 0
3.8960001 -0.10275503 1.0535297 0
3.8890002 -0.10893486 1.0522292 0
3.8830004 -0.11510931 1.0511144 0
3.8780003 -0.12128374 1.0501854 0
3.8740003 -0.12746359 1.0494423 0
3.8700004 -0.13362901 1.0486991 0
3.8660002 -0.13977998 1.047956 0
3.8630002 -0.1459454 1.0473986 0
3.8600004 -0.1521 1.0468413 0
3.8580003 -0.15827624 1.0464696 0
3.8560002 -0.16444527 1.046098 0
3.8550003 -0.17064315 1.0459123 0
3.8540003 -0.17683743 1.0457264 0
3.8530002 -0.1830281 1.0455406 0
3.8520002 -0.18921517 1.0453548 0
3.8520002 -0.19544192 1.0453548 0
3.8520002 -0.20166865 1.0453548 0
3.8520002 -0.2078954 1.0453548 0
3.8530002 -0.21417084 1.0455406 0
3.8540003 -0.22044991 1.0457264 0
3.8550003 -0.22673257 1.0459123 0
3.8570004 -0.23307295 1.0462838 0
3.8590002 -0.23942055 1.0466554 0
3.8610003 -0.24577537 1.047027 0
3.8640003 -0.25219691 1.0475844 0
3.8680003 -0.25869063 1.0483276 0
3.8720002 -0.26519877 1.0490707 0
3.8760002 -0.27172133 1.0498139 0
3.8810003 -0.27832511 1.0507429 0
3.8870003 -0.28501543 1.0518576 0
3.8960001 -0.10275503 1.0472236 0
3.8900003 -0.10895291 1.0461197 0
3.8840003 -0.11512914 1.0450157 0
3.8790002 -0.12130539 1.0440958 0
3.8740003 -0.12746359 1.0431758 0
3.8700004 -0.13362901 1.0424399 0
3.8670003 -0.13980705 1.041888 0
3.8640003 -0.14597426 1.0413359 0
3.8610003 -0.15213066 1.040784 0
3.8590002 -0.1583087 1.040416 0
3.8570004 -0.16447954 1.040048 0
3.8560002 -0.17067923 1.0398641 0
3.8540003 -0.17683743 1.0394961 0
3.8530002 -0.1830281 1.039312 0
3.8530002 -0.18925664 1.039312 0
3.8530002 -0.19548519 1.039312 0
3.8530002 -0.20171376 1.039312 0
3.8530002 -0.20794229 1.039312 0
3.8540003 -0.21421956 1.0394961 0
3.8550003 -0.22050041 1.03968 0
3.8560002 -0.22678487 1.0398641 0
3.8580003 -0.23312707 1.0402321 0
3.8600004 -0.23947649 1.0406001 0
3.8620002 -0.2458331 1.0409681 0
3.8650002 -0.25225645 1.04152 0
3.8680003 -0.25869063 1.0420719 0
3.8720002 -0.26519877 1.0428078 0
3.8770003 -0.2717863 1.0437279 0
3.8820002 -0.27839181 1.0446477 0
3.8880002 -0.28508395 1.0457517 0
3.8970003 -0.10277125 1.0410997 0
3.8900003 -0.10895291 1.0398244 0
3.8850002 -0.11514899 1.0389135 0
3.8800004 -0.12132703 1.0380025 0
3.8750002 -0.12748703 1.0370916 0
3.8710003 -0.13365425 1.0363629 0
3.8680003 -0.13983411 1.0358163 0
3.8650002 -0.14600313 1.0352697 0
3.8620002 -0.15216133 1.0347232 0
3.8600004 -0.15834118 1.0343589 0
3.8580003 -0.16451381 1.0339944 0
3.8570004 -0.1707153 1.0338123 0
3.8560002 -0.17691319 1.03363 0
3.8550003 -0.18310747 1.0334479 0
3.8540003 -0.18929815 1.0332657 0
3.8540003 -0.19552849 1.0332657 0
3.8540003 -0.20175885 1.0332657 0
3.8540003 -0.2079892 1.0332657 0
3.8550003 -0.21426825 1.0334479 0
3.8560002 -0.22055092 1.03363 0
3.8570004 -0.22683719 1.0338123 0
3.8590002 -0.23318118 1.0341766 0
3.8610003 -0.2395324 1.034541 0
3.8630002 -0.24589081 1.0349053 0
3.8660002 -0.25231597 1.0354519 0
3.8700004 -0.25881329 1.0361807 0
3.8730001 -0.26526189 1.0367272 0
3.8780003 -0.27185121 1.0376382 0
3.8830004 -0.2784586 1.0385491 0
3.8890002 -0.28515249 1.0396422 0
3.8990002 -0.10280372 1.0351524 0
3.8920002 -0.10898899 1.0338899 0
3.8860002 -0.11516882 1.0328076 0
3.8810003 -0.12134868 1.0319057 0
3.8770003 -0.12753394 1.0311841 0
3.8730001 -0.13370477 1.0304626 0
3.8690002 -0.13986115 1.029741 0
3.8660002 -0.14603199 1.0292 0
3.8640003 -0.15222266 1.0288392 0
3.8610003 -0.15837365 1.028298 0
3.8600004 -0.16458236 1.0281177 0
3.8580003 -0.17075138 1.0277569 0
3.8570004 -0.17695108 1.0275766 0
3.8560002 -0.18314715 1.0273961 0
3.8550003 -0.18933962 1.0272158 0
3.8550003 -0.19557178 1.0272158 0
3.8550003 -0.20180395 1.0272158 0
3.8560002 -0.20808299 1.0273961 0
3.8560002 -0.21431696 1.0273961 0
3.8570004 -0.22060142 1.0275766 0
3.8590002 -0.22694181 1.0279373 0
3.8600004 -0.23323531 1.0281177 0
3.8620002 -0.23958832 1.0284784 0
3.8650002 -0.24600627 1.0290196 0
3.8680003 -0.25243503 1.0295607 0
3.8710003 -0.25887462 1.0301018 0
3.8750002 -0.26538819 1.0308233 0
3.8790002 -0.27191615 1.0315449 0
3.8850002 -0.27859205 1.0326271 0
3.8910003 -0.28528959 1.0337094 0
3.9010003 -0.10283619 1.0291982 0
3.8940003 -0.10902506 1.0279481 0
3.8880002 -0.11520851 1.0268767 0
3.8830004 -0.12139198 1.0259838 0
3.8780003 -0.12755738 1.0250909 0
3.8750002 -0.13375527 1.0245552 0
3.8710003 -0.13991527 1.0238409 0
3.8680003 -0.14608972 1.0233052 0
3.8650002 -0.15225333 1.0227693 0
3.8630002 -0.15843858 1.0224122 0
3.8610003 -0.16461663 1.022055 0
3.8600004 -0.17082353 1.0218766 0
3.8590002 -0.17702682 1.0216979 0
3.8580003 -0.18322653 1.0215193 0
3.8570004 -0.18942261 1.0213407 0
3.8570004 -0.19565836 1.0213407 0
3.8570004 -0.20189413 1.0213407 0
3.8570004 -0.2081299 1.0213407 0
3.8580003 -0.21441436 1.0215193 0
3.8590002 -0.22070244 1.0216979 0
3.8600004 -0.22699413 1.0218766 0
3.8620002 -0.23334351 1.0222336 0
3.8640003 -0.23970015 1.0225909 0
3.8660002 -0.24606398 1.0229479 0
3.8690002 -0.25249454 1.0234836 0
3.8730001 -0.25899726 1.0241979 0
3.8770003 -0.26551443 1.0249124 0
3.8810003 -0.27204603 1.0256267 0
3.8860002 -0.27865878 1.0265195 0
3.8930004 -0.28542668 1.0277696 0
3.9030004 -0.10286866 1.0232366 0
3.8960001 -0.10906114 1.0219991 0
3.8900003 -0.1152482 1.0209385 0
3.8850002 -0.12143525 1.0200546 0
3.8810003 -0.12762773 1.0193475 0
3.8770003 -0.13380578 1.0186405 0
3.8730001 -0.13996939 1.0179334 0
3.8700004 -0.14614743 1.017403 0
3.8670003 -0.15231465 1.0168728 0
3.8650002 -0.15850352 1.0165192 0
3.8630002 -0.16468517 1.0161656 0
3.8620002 -0.17089568 1.0159888 0
3.8600004 -0.17706472 1.0156353 0
3.8600004 -0.18330589 1.0156353 0
3.8590002 -0.18950556 1.0154586 0
3.8590002 -0.19574495 1.0154586 0
3.8590002 -0.20198433 1.0154586 0
3.8590002 -0.2082237 1.0154586 0
3.8600004 -0.21451177 1.0156353 0
3.8610003 -0.22080345 1.015812 0
3.8620002 -0.22709873 1.0159888 0
3.8640003 -0.23345175 1.0163424 0
3.8660002 -0.23981197 1.016696 0
3.8690002 -0.24623714 1.0172262 0
3.8710003 -0.2526136 1.0175798 0
3.8750002 -0.25911993 1.0182869 0
3.8790002 -0.26564071 1.018994 0
3.8840003 -0.27224085 1.0198778 0
3.8890002 -0.27885902 1.0207617 0
3.8950002 -0.28556374 1.0218223 0
3.9060004 -0.10291737 1.0174427 0
3.8990002 -0.10911524 1.0162179 0
3.8930004 -0.11530773 1.0151681 0
3.8880002 -0.12150019 1.0142933 0
3.8830004 -0.12767464 1.0134184 0
3.8790002 -0.13385628 1.0127186 0
3.8760002 -0.14005056 1.0121936 0
3.8720002 -0.14620516 1.0114937 0
3.8700004 -0.15240665 1.0111438 0
3.8670003 -0.15856846 1.0106189 0
3.8650002 -0.16475372 1.0102689 0
3.8640003 -0.17096785 1.010094 0
3.8630002 -0.17717834 1.009919 0
3.8620002 -0.18338525 1.009744 0
3.8610003 -0.18958855 1.009569 0
3.8610003 -0.19583152 1.009569 0
3.8610003 -0.20207451 1.009569 0
3.8610003 -0.2083175 1.009569 0
3.8620002 -0.21460918 1.009744 0
3.8630002 -0.22090447 1.009919 0
3.8650002 -0.22725567 1.0102689 0
3.8660002 -0.23355998 1.0104439 0
3.8690002 -0.23997973 1.0109688 0
3.8710003 -0.2463526 1.0113188 0
3.8740003 -0.25279218 1.0118437 0
3.8780003 -0.25930393 1.0125436 0
3.8810003 -0.26576698 1.0130684 0
3.8860002 -0.2723707 1.0139433 0
3.8920002 -0.27905923 1.0149931 0
3.8980002 -0.2857694 1.0160429 0
3.9030004 -0.10918741 1.0105991 0
3.8960001 -0.11536725 1.0093869 0
3.8910003 -0.12156513 1.0085211 0
3.8860002 -0.12774497 1.0076553 0
3.8820002 -0.13393204 1.0069625 0
3.8780003 -0.14010468 1.0062699 0
3.8750002 -0.14629173 1.0057504 0
3.8720002 -0.15246798 1.0052309 0
3.8700004 -0.15866587 1.0048846 0
3.8680003 -0.16485654 1.0045383 0
3.8670003 -0.17107607 1.0043651 0
3.8650002 -0.1772541 1.0040188 0
3.8650002 -0.1835043 1.0040188 0
3.8640003 -0.18971302 1.0038456 0
3.8640003 -0.1959614 1.0038456 0
3.8640003 -0.2022098 1.0038456 0
3.8640003 -0.20845819 1.0038456 0
3.8650002 -0.2147553 1.0040188 0
3.8660002 -0.22105598 1.004192 0
3.8670003 -0.22736029 1.0043651 0
3.8690002 -0.23372231 1.0047115 0
3.8710003 -0.24009158 1.0050578 0
3.8740003 -0.24652576 1.0055773 0
3.8770003 -0.25297076 1.0060968 0
3.8810003 -0.25948793 1.0067894 0
3.8850002 -0.26601949 1.0074821 0
3.8890002 -0.27256551 1.0081748 0
3.8950002 -0.27925944 1.0092138 0
3.9060004 -0.10924152 1.0047945 0
3.9000003 -0.11544663 1.0037663 0
3.8940003 -0.12163007 1.0027381 0
3.8890002 -0.12781534 1.0018812 0
3.8850002 -0.1340078 1.0011958 0
3.8810003 -0.14018585 1.0005103 0
3.8780003 -0.14637832 0.9999963 0
3.8760002 -0.15259063 0.99965358 0
3.8730001 -0.15876326 0.99913943 0
3.8710003 -0.16495936 0.99879682 0
3.8700004 -0.1711843 0.9986254 0
3.8680003 -0.17736775 0.99828267 0
3.8670003 -0.18358368 0.99811137 0
3.8670003 -0.18983749 0.99811137 0
3.8660002 -0.19604799 0.99793994 0
3.8670003 -0.20234507 0.99811137 0
3.8670003 -0.20859888 0.99811137 0
3.8680003 -0.21490139 0.99828267 0
3.8690002 -0.2212075 0.99845409 0
3.8700004 -0.22751723 0.9986254 0
3.8720002 -0.23388466 0.99896812 0
3.8740003 -0.24025933 0.99931085 0
3.8770003 -0.24669893 0.999825 0
3.8800004 -0.25314933 1.000339 0
3.8840003 -0.2596719 1.0010245 0
3.8880002 -0.26620889 1.0017099 0
3.8930004 -0.27282527 1.0025667 0
3.8990002 -0.27952641 1.0035949 0
3.9040003 -0.11552599 0.99813116 0
3.8980002 -0.12171665 0.99711382 0
3.8930004 -0.12790914 0.99626601 0
3.8890002 -0.13410881 0.99558771 0
3.8850002 -0.14029408 0.99490952 0
3.8820002 -0.14649376 0.99440086 0
3.8790002 -0.15268263 0.99389219 0
3.8770003 -0.15889315 0.99355304 0
3.8750002 -0.16509643 0.99321401 0
3.8730001 -0.17129251 0.99287486 0
3.8720002 -0.17751926 0.99270535 0
3.8710003 -0.18374242 0.99253571 0
3.8700004 -0.18996194 0.99236619 0
3.8700004 -0.19622116 0.99236619 0
3.8700004 -0.20248038 0.99236619 0
3.8700004 -0.20873959 0.99236619 0
3.8710003 -0.21504749 0.99253571 0
3.8720002 -0.22135903 0.99270535 0
3.8740003 -0.22772647 0.9930445 0
3.8760002 -0.23410112 0.99338353 0
3.8780003 -0.240483 0.99372268 0
3.8810003 -0.24692981 0.99423134 0
3.8840003 -0.25338745 0.99474001 0
3.8870003 -0.2598559 0.99524868 0
3.8920002 -0.26646143 0.99609649 0
3.8980002 -0.27314997 0.99711382 0
3.9090002 -0.11562519 0.99264932 0
3.9030004 -0.12182489 0.99164283 0
3.8970003 -0.12800293 0.99063635 0
3.8930004 -0.13420983 0.98996532 0
3.8890002 -0.1404023 0.98929429 0
3.8860002 -0.1466092 0.98879099 0
3.8830004 -0.1528053 0.98828781 0
3.8800004 -0.15899055 0.9877845 0
3.8780003 -0.16519925 0.98744905 0
3.8770003 -0.17143683 0.9872812 0
3.8750002 -0.17763291 0.98694575 0
3.8740003 -0.18386145 0.98677802 0
3.8740003 -0.19012789 0.98677802 0
3.8730001 -0.19635104 0.98661017 0
3.8740003 -0.20266075 0.98677802 0
3.8740003 -0.20892718 0.98677802 0
3.8750002 -0.21524231 0.98694575 0
3.8760002 -0.22156104 0.98711348 0
3.8780003 -0.22793572 0.98744905 0
3.8800004 -0.23431759 0.9877845 0
3.8820002 -0.24070667 0.98812008 0
3.8850002 -0.2471607 0.98862326 0
3.8880002 -0.25362554 0.98912656 0
3.8920002 -0.26016253 0.98979759 0
3.8970003 -0.2667771 0.99063635 0
3.9030004 -0.27347466 0.99164283 0
3.9080002 -0.1219331 0.98615384 0
3.9020002 -0.12812017 0.98515821 0
3.8980002 -0.1343361 0.98449433 0
3.8940003 -0.14053759 0.98383057 0
3.8900003 -0.14672466 0.98316681 0
3.8870003 -0.15292795 0.98266888 0
3.8850002 -0.1591529 0.982337 0
3.8820002 -0.16533634 0.98183918 0
3.8810003 -0.17158113 0.98167324 0
3.8790002 -0.17778443 0.98134124 0
3.8780003 -0.18402021 0.9811753 0
3.8780003 -0.19029383 0.9811753 0
3.8780003 -0.19656748 0.9811753 0
3.8780003 -0.20284113 0.9811753 0
3.8780003 -0.20911478 0.9811753 0
3.8790002 -0.21543711 0.98134124 0
3.8800004 -0.22176309 0.9815073 0
3.8820002 -0.22814494 0.98183918 0
3.8840003 -0.23453404 0.98217106 0
3.8870003 -0.24098627 0.98266888 0
3.8890002 -0.24739158 0.98300076 0
3.8930004 -0.25392318 0.98366463 0
3.8970003 -0.2604692 0.98432839 0
3.9020002 -0.26709276 0.98515821 0
3.9080002 -0.12826087 0.97982609 0
3.9030004 -0.13446237 0.97900534 0
3.8990002 -0.14067288 0.97834873 0
3.8950002 -0.14686896 0.97769225 0
3.8920002 -0.15308127 0.97719979 0
3.8900003 -0.15931523 0.97687149 0
3.8870003 -0.16550772 0.97637904 0
3.8860002 -0.17176151 0.97621489 0
3.8840003 -0.17797382 0.97588658 0
3.8830004 -0.18421862 0.97572243 0
3.8830004 -0.19050129 0.97572243 0
3.8820002 -0.19674064 0.97555828 0
3.8830004 -0.2030666 0.97572243 0
3.8830004 -0.20934927 0.97572243 0
3.8840003 -0.21568064 0.97588658 0
3.8850002 -0.2220156 0.97605073 0
3.8870003 -0.2284065 0.97637904 0
3.8890002 -0.23480462 0.97670734 0
3.8920002 -0.24126585 0.97719979 0
3.8950002 -0.24773791 0.97769225 0
3.8980002 -0.25422078 0.9781847 0
3.9030004 -0.26083717 0.97900534 0
3.9150002 -0.12842502 0.97463477 0
3.9090002 -0.13461387 0.97366071 0
3.9040003 -0.14080817 0.97284901 0
3.9010003 -0.14704213 0.97236192 0
3.8980002 -0.15326527 0.97187495 0
3.8950002 -0.15947758 0.97138786 0
3.8930004 -0.16571334 0.97106326 0
3.8910003 -0.17194191 0.97073853 0
3.8890002 -0.17816323 0.9704138 0
3.8880002 -0.18441702 0.97025144 0
3.8880002 -0.19070873 0.97025144 0
3.8870003 -0.19695711 0.9700892 0
3.8870003 -0.20324698 0.9700892 0
3.8880002 -0.20958376 0.97025144 0
3.8890002 -0.21592414 0.9704138 0
3.8900003 -0.22226815 0.97057617 0
3.8920002 -0.22866806 0.97090089 0
3.8940003 -0.23507519 0.97122562 0
3.8970003 -0.24154544 0.97171259 0
3.9010003 -0.24808425 0.97236192 0
3.9040003 -0.25457793 0.97284901 0
3.9220002 -0.12858915 0.96941817 0
3.9160004 -0.13479066 0.96845484 0
3.9110003 -0.14099756 0.9676522 0
3.9070003 -0.14721529 0.96701002 0
3.9040003 -0.15344925 0.96652842 0
3.9010003 -0.15967238 0.96604681 0
3.8990002 -0.16591898 0.96572578 0
3.8970003 -0.17215835 0.96540475 0
3.8950002 -0.17839052 0.9650836 0
3.8940003 -0.18465513 0.96492302 0
3.8930004 -0.19091615 0.96476245 0
3.8930004 -0.19721687 0.96476245 0
3.8930004 -0.20351756 0.96476245 0
3.8940003 -0.20986515 0.96492302 0
3.8950002 -0.21621637 0.9650836 0
3.8960001 -0.22257118 0.96524417 0
3.8980002 -0.22898191 0.9655652 0
3.9000003 -0.23539987 0.96588635 0
3.9040003 -0.24193688 0.96652842 0
3.9070003 -0.24843058 0.96701002 0
3.9120002 -0.25505415 0.96781266 0
3.9310002 -0.1288002 0.96449375 0
3.9240003 -0.13499269 0.9633826 0
3.9190001 -0.14121401 0.96258891 0
3.9150002 -0.14744617 0.961954 0
3.9110003 -0.1536639 0.96131909 0
3.9070003 -0.1598672 0.96068406 0
3.9050002 -0.16612461 0.96036661 0
3.9030004 -0.17237481 0.96004915 0
3.9010003 -0.17861779 0.9597317 0
3.9010003 -0.18493292 0.9597317 0
3.9000003 -0.19120657 0.95957303 0
3.8990002 -0.1974766 0.95941424 0
3.9000003 -0.20383324 0.95957303 0
3.9000003 -0.21014656 0.95957303 0
3.9010003 -0.2165086 0.9597317 0
3.9030004 -0.22292474 0.96004915 0
3.9050002 -0.22934809 0.96036661 0
3.9070003 -0.23577867 0.96068406 0
3.9110003 -0.24232829 0.96131909 0
3.9150002 -0.24889235 0.961954 0
3.9200003 -0.25553036 0.96274769 0
3.9260004 -0.26224774 0.96370006 0
3.9410002 -0.1290347 0.95969379 0
3.9340003 -0.13524522 0.95859528 0
3.9280002 -0.14145753 0.95765364 0
3.9230003 -0.14767706 0.95686901 0
3.9180002 -0.15387855 0.95608437 0
3.9150002 -0.16012694 0.95561361 0
3.9130003 -0.16639878 0.95529974 0
3.9100003 -0.17262734 0.95482898 0
3.9080002 -0.17888294 0.9545151 0
3.9080002 -0.1852107 0.9545151 0
3.9070003 -0.19149698 0.9543581 0
3.9060004 -0.19777964 0.95420122 0
3.9070003 -0.20414889 0.9543581 0
3.9080002 -0.21052174 0.9545151 0
3.9080002 -0.21684951 0.9545151 0
3.9110003 -0.22332878 0.95498586 0
3.9130003 -0.22976658 0.95529974 0
3.9160004 -0.2362657 0.95577049 0
3.9190001 -0.24277563 0.95624137 0
3.9240003 -0.24941185 0.957026 0
3.9300003 -0.25612563 0.95796752 0
3.9360003 -0.26286104 0.95890915 0
3.9390004 -0.14175516 0.95299625 0
3.9330003 -0.14796567 0.95206547 0
3.9280002 -0.15418521 0.95128989 0
3.9250002 -0.16045164 0.9508245 0
3.9220002 -0.16670723 0.95035911 0
3.9190001 -0.17295203 0.94989371 0
3.9170003 -0.17922387 0.94958341 0
3.9160004 -0.18552817 0.94942832 0
3.9150002 -0.19182888 0.94927323 0
3.9140003 -0.19812597 0.94911802 0
3.9150002 -0.20450965 0.94927323 0
3.9160004 -0.21089694 0.94942832 0
3.9170003 -0.21728784 0.94958341 0
3.9190001 -0.22373283 0.94989371 0
3.9220002 -0.23023736 0.95035911 0
3.9250002 -0.23675272 0.9508245 0
3.9290004 -0.24333483 0.95144498 0
3.9360003 -0.25010452 0.95253086 0
3.9470003 -0.1227773 0.94783914 0
3.9470003 -0.12917541 0.94783914 0
3.9470003 -0.13557351 0.94783914 0
3.9470003 -0.14197162 0.94783914 0
3.9450002 -0.148312 0.94753253 0
3.9390004 -0.15452252 0.9466126 0
3.9360003 -0.16080879 0.94615269 0
3.9320002 -0.16704996 0.94553936 0
3.9280002 -0.17327672 0.94492602 0
3.9270003 -0.17960267 0.94477272 0
3.9260004 -0.18592502 0.94461942 0
3.9250002 -0.19224375 0.94446599 0
3.9240003 -0.19855888 0.94431269 0
3.9250002 -0.2049606 0.94446599 0
3.9260004 -0.21136594 0.94461942 0
3.9270003 -0.21777485 0.94477272 0
3.9300003 -0.2242884 0.94523263 0
3.9330003 -0.23081279 0.94569266 0
3.9370003 -0.2374021 0.94630599 0
3.9420002 -0.24406175 0.94707251 0
3.9460003 -0.25707802 0.94768584 0
3.9460003 -0.26347435 0.94768584 0
3.9460003 -0.26987064 0.94768584 0
3.9390004 -0.09706942 0.94022894 0
3.9390004 -0.1034531 0.94022894 0
3.9390004 -0.10983677 0.94022894 0
3.9390004 -0.11622046 0.94022894 0
3.9390004 -0.12260413 0.94022894 0
3.9390004 -0.1289878 0.94022894 0
3.9390004 -0.13537149 0.94022894 0
3.9390004 -0.14175516 0.94022894 0
3.9390004 -0.14813884 0.94022894 0
3.9380002 -0.15449186 0.94007742 0
3.9380002 -0.16087373 0.94007742 0
3.9380002 -0.1672556 0.94007742 0
3.9380002 -0.17363748 0.94007742 0
3.9380002 -0.18001935 0.94007742 0
3.9380002 -0.18640122 0.94007742 0
3.9360003 -0.19270012 0.93977439 0
3.9360003 -0.1990784 0.93977439 0
3.9370003 -0.20550175 0.93992579 0
3.9380002 -0.21192873 0.94007742 0
3.9380002 -0.21831058 0.94007742 0
3.9380002 -0.22469246 0.94007742 0
3.9380002 -0.23107433 0.94007742 0
3.9380002 -0.2374562 0.94007742 0
3.9380002 -0.24383807 0.94007742 0
3.9380002 -0.25021994 0.94007742 0
3.9380002 -0.25660181 0.94007742 0
3.9380002 -0.26298371 0.94007742 0
3.9380002 -0.26936555 0.94007742 0
3.9380002 -0.27574745 0.94007742 0
3.9380002 -0.28212932 0.94007742 0
3.9380002 -0.28851119 0.94007742 0
3.9380002 -0.29489306 0.94007742 0
3.9340003 -0.071498632 0.93309665 0
3.9330003 -0.077864274 0.93294692 0
3.9330003 -0.084237128 0.93294692 0
3.9330003 -0.090609983 0.93294692 0
3.9330003 -0.096982837 0.93294692 0
3.9330003 -0.10335569 0.93294692 0
3.9330003 -0.10972854 0.93294692 0
3.9330003 -0.1161014 0.93294692 0
3.9330003 -0.12247425 0.93294692 0
3.9330003 -0.12884711 0.93294692 0
3.9330003 -0.13521996 0.93294692 0
3.9330003 -0.14159282 0.93294692 0
3.9330003 -0.14796567 0.93294692 0
3.9330003 -0.15433852 0.93294692 0
3.9330003 -0.16071139 0.93294692 0
3.9330003 -0.16708425 0.93294692 0
3.9330003 -0.1734571 0.93294692 0
3.9330003 -0.17982996 0.93294692 0
3.9330003 -0.18620281 0.93294692 0
3.9330003 -0.19257565 0.93294692 0
3.9330003 -0.19894852 0.93294692 0
3.9330003 -0.20532137 0.93294692 0
3.9330003 -0.21169423 0.93294692 0
3.9330003 -0.21806708 0.93294692 0
3.9330003 -0.22443993 0.93294692 0
3.9330003 -0.23081279 0.93294692 0
3.9330003 -0.23718564 0.93294692 0
3.9330003 -0.2435585 0.93294692 0
3.9330003 -0.24993135 0.93294692 0
3.9330003 -0.2563042 0.93294692 0
3.9330003 -0.26267704 0.93294692 0
3.9330003 -0.26904991 0.93294692 0
3.9330003 -0.27542278 0.93294692 0
3.9330003 -0.28179562 0.93294692 0
3.9330003 -0.28816849 0.93294692 0
3.9330003 -0.2945413 0.93294692 0
3.9330003 -0.3009142 0.93294692 0
3.9330003 -0.30728704 0.93294692 0
3.9330003 -0.31365991 0.93294692 0
3.9330003 -0.32003275 0.93294692 0
3.9330003 -0.32640561 0.93294692 0
3.9300003 -0.058734886 0.92613041 0
3.9280002 -0.065091506 0.92583454 0
3.9280002 -0.071455345 0.92583454 0
3.9280002 -0.077819183 0.92583454 0
3.9290004 -0.084193841 0.92598248 0
3.9300003 -0.090572104 0.92613041 0
3.9300003 -0.096939549 0.92613041 0
3.9300003 -0.10330699 0.92613041 0
3.9300003 -0.10967444 0.92613041 0
3.9300003 -0.11604187 0.92613041 0
3.9300003 -0.12240931 0.92613041 0
3.9300003 -0.12877676 0.92613041 0
3.9300003 -0.1351442 0.92613041 0
3.9300003 -0.14151165 0.92613041 0
3.9300003 -0.14787909 0.92613041 0
3.9300003 -0.15424652 0.92613041 0
3.9300003 -0.16061398 0.92613041 0
3.9300003 -0.16698143 0.92613041 0
3.9300003 -0.17334887 0.92613041 0
3.9300003 -0.1797163 0.92613041 0
3.9300003 -0.18608375 0.92613041 0
3.9300003 -0.19245119 0.92613041 0
3.9300003 -0.19881864 0.92613041 0
3.9300003 -0.20518608 0.92613041 0
3.9300003 -0.21155353 0.92613041 0
3.9300003 -0.21792097 0.92613041 0
3.9300003 -0.2242884 0.92613041 0
3.9300003 -0.23065585 0.92613041 0
3.9300003 -0.23702331 0.92613041 0
3.9300003 -0.24339074 0.92613041 0
3.9300003 -0.24975818 0.92613041 0
3.9300003 -0.25612563 0.92613041 0
3.9300003 -0.26249304 0.92613041 0
3.9300003 -0.26886052 0.92613041 0
3.9300003 -0.27522796 0.92613041 0
3.9300003 -0.28159538 0.92613041 0
3.9300003 -0.28796285 0.92613041 0
3.9300003 -0.2943303 0.92613041 0
3.9300003 -0.30069774 0.92613041 0
3.9300003 -0.30706519 0.92613041 0
3.9280002 -0.31328109 0.92583454 0
3.9280002 -0.31964493 0.92583454 0
3.9280002 -0.32600877 0.92583454 0
3.9280002 -0.33237261 0.92583454 0
3.9290004 -0.052365638 0.91961682 0
3.9260004 -0.058720455 0.91917849 0
3.9240003 -0.065069862 0.91888618 0
3.9240003 -0.071426481 0.91888618 0
3.9240003 -0.0777831 0.91888618 0
3.9250002 -0.084150545 0.91903234 0
3.9280002 -0.090546846 0.91947067 0
3.9280002 -0.096910685 0.91947067 0
3.9280002 -0.10327452 0.91947067 0
3.9280002 -0.10963836 0.91947067 0
3.9280002 -0.11600219 0.91947067 0
3.9280002 -0.12236603 0.91947067 0
3.9280002 -0.12872986 0.91947067 0
3.9280002 -0.13509369 0.91947067 0
3.9280002 -0.14145753 0.91947067 0
3.9280002 -0.14782137 0.91947067 0
3.9280002 -0.15418521 0.91947067 0
3.9280002 -0.16054903 0.91947067 0
3.9280002 -0.16691288 0.91947067 0
3.9280002 -0.17327672 0.91947067 0
3.9280002 -0.17964055 0.91947067 0
3.9280002 -0.18600439 0.91947067 0
3.9280002 -0.19236822 0.91947067 0
3.9280002 -0.19873205 0.91947067 0
3.9280002 -0.20509589 0.91947067 0
3.9280002 -0.21145973 0.91947067 0
3.9280002 -0.21782357 0.91947067 0
3.9280002 -0.22418739 0.91947067 0
3.9280002 -0.23055123 0.91947067 0
3.9280002 -0.23691507 0.91947067 0
3.9280002 -0.24327891 0.91947067 0
3.9280002 -0.24964273 0.91947067 0
3.9280002 -0.25600657 0.91947067 0
3.9280002 -0.26237041 0.91947067 0
3.9280002 -0.26873425 0.91947067 0
3.9280002 -0.27509806 0.91947067 0
3.9280002 -0.28146192 0.91947067 0
3.9280002 -0.28782576 0.91947067 0
3.9280002 -0.29418957 0.91947067 0
3.9280002 -0.30055344 0.91947067 0
3.9270003 -0.30684331 0.91932452 0
3.9240003 -0.31297806 0.91888618 0
3.9240003 -0.31933469 0.91888618 0
3.9240003 -0.32569128 0.91888618 0
3.9240003 -0.33204791 0.91888618 0
3.9270003 -0.33865345 0.91932452 0
3.9250002 -0.052358422 0.91267395 0
3.9220002 -0.058706023 0.91224098 0
3.9200003 -0.065048218 0.91195238 0
3.9200003 -0.071397617 0.91195238 0
3.9200003 -0.077747025 0.91195238 0
3.9210002 -0.08410725 0.91209674 0
3.9240003 -0.090496346 0.91252959 0
3.9270003 -0.096896254 0.91296256 0
3.9270003 -0.10325828 0.91296256 0
3.9270003 -0.10962032 0.91296256 0
3.9270003 -0.11598235 0.91296256 0
3.9270003 -0.12234437 0.91296256 0
3.9270003 -0.12870641 0.91296256 0
3.9270003 -0.13506845 0.91296256 0
3.9270003 -0.14143047 0.91296256 0
3.9270003 -0.1477925 0.91296256 0
3.9270003 -0.15415454 0.91296256 0
3.9270003 -0.16051657 0.91296256 0
3.9270003 -0.1668786 0.91296256 0
3.9270003 -0.17324063 0.91296256 0
3.9270003 -0.17960267 0.91296256 0
3.9270003 -0.1859647 0.91296256 0
3.9270003 -0.19232672 0.91296256 0
3.9270003 -0.19868876 0.91296256 0
3.9270003 -0.2050508 0.91296256 0
3.9270003 -0.21141283 0.91296256 0
3.9270003 -0.21777485 0.91296256 0
3.9270003 -0.22413689 0.91296256 0
3.9270003 -0.23049892 0.91296256 0
3.9270003 -0.23686095 0.91296256 0
3.9270003 -0.24322298 0.91296256 0
3.9270003 -0.24958502 0.91296256 0
3.9270003 -0.25594705 0.91296256 0
3.9270003 -0.26230907 0.91296256 0
3.9270003 -0.2686711 0.91296256 0
3.9270003 -0.27503315 0.91296256 0
3.9270003 -0.28139517 0.91296256 0
3.9270003 -0.28775719 0.91296256 0
3.9270003 -0.29411924 0.91296256 0
3.9260004 -0.30040911 0.91281819 0
3.9230003 -0.30654749 0.91238534 0
3.9210002 -0.31275076 0.91209674 0
3.9200003 -0.31902444 0.91195238 0
3.9200003 -0.32537383 0.91195238 0
3.9200003 -0.33172324 0.91195238 0
3.9230003 -0.33832157 0.91238534 0
3.9250002 -0.046 0.90631545 0
3.9210002 -0.05235121 0.90574551 0
3.9180002 -0.058691595 0.90531802 0
3.9160004 -0.065026566 0.90503299 0
3.9160004 -0.071368761 0.90503299 0
3.9160004 -0.077710949 0.90503299 0
3.9170003 -0.084063962 0.90517557 0
3.9200003 -0.090445831 0.90560305 0
3.9240003 -0.096852958 0.90617299 0
3.9260004 -0.10324205 0.90645802 0
3.9260004 -0.10960227 0.90645802 0
3.9260004 -0.11596251 0.90645802 0
3.9260004 -0.12232274 0.90645802 0
3.9260004 -0.12868297 0.90645802 0
3.9260004 -0.13504319 0.90645802 0
3.9260004 -0.14140342 0.90645802 0
3.9260004 -0.14776365 0.90645802 0
3.9260004 -0.15412387 0.90645802 0
3.9260004 -0.16048411 0.90645802 0
3.9260004 -0.16684432 0.90645802 0
3.9260004 -0.17320456 0.90645802 0
3.9260004 -0.17956479 0.90645802 0
3.9260004 -0.18592502 0.90645802 0
3.9260004 -0.19228525 0.90645802 0
3.9260004 -0.19864547 0.90645802 0
3.9260004 -0.20500571 0.90645802 0
3.9260004 -0.21136594 0.90645802 0
3.9260004 -0.21772616 0.90645802 0
3.9260004 -0.22408639 0.90645802 0
3.9260004 -0.23044661 0.90645802 0
3.9260004 -0.23680684 0.90645802 0
3.9260004 -0.24316707 0.90645802 0
3.9260004 -0.24952731 0.90645802 0
3.9260004 -0.25588751 0.90645802 0
3.9260004 -0.26224774 0.90645802 0
3.9260004 -0.26860797 0.90645802 0
3.9260004 -0.27496821 0.90645802 0
3.9260004 -0.28132844 0.90645802 0
3.9260004 -0.28768864 0.90645802 0
3.9260004 -0.29404888 0.90645802 0
3.9220002 -0.3001205 0.90588796 0
3.9190001 -0.30625165 0.90546048 0
3.9170003 -0.31244773 0.90517557 0
3.9160004 -0.31871417 0.90503299 0
3.9160004 -0.32505634 0.90503299 0
3.9160004 -0.33139855 0.90503299 0
3.9190001 -0.33798966 0.90546048 0
3.9220002 -0.34459159 0.90588796 0
3.9210002 -0.046 0.89939427 0
3.9170003 -0.052343994 0.89883149 0
3.9140003 -0.058677167 0.89840943 0
3.9130003 -0.065010339 0.8982687 0
3.9120002 -0.071339898 0.89812803 0
3.9120002 -0.077674873 0.89812803 0
3.9130003 -0.084020674 0.8982687 0
3.9160004 -0.090395331 0.89869082 0
3.9200003 -0.096795246 0.89925361 0
3.9250002 -0.10322581 0.89995706 0
3.9260004 -0.10960227 0.90009779 0
3.9260004 -0.11596251 0.90009779 0
3.9260004 -0.12232274 0.90009779 0
3.9260004 -0.12868297 0.90009779 0
3.9260004 -0.13504319 0.90009779 0
3.9260004 -0.14140342 0.90009779 0
3.9260004 -0.14776365 0.90009779 0
3.9260004 -0.15412387 0.90009779 0
3.9260004 -0.16048411 0.90009779 0
3.9260004 -0.16684432 0.90009779 0
3.9260004 -0.17320456 0.90009779 0
3.9260004 -0.17956479 0.90009779 0
3.9260004 -0.18592502 0.90009779 0
3.9260004 -0.19228525 0.90009779 0
3.9260004 -0.19864547 0.90009779 0
3.9260004 -0.20500571 0.90009779 0
3.9260004 -0.21136594 0.90009779 0
3.9260004 -0.21772616 0.90009779 0
3.9260004 -0.22408639 0.90009779 0
3.9260004 -0.23044661 0.90009779 0
3.9260004 -0.23680684 0.90009779 0
3.9260004 -0.24316707 0.90009779 0
3.9260004 -0.24952731 0.90009779 0
3.9260004 -0.25588751 0.90009779 0
3.9260004 -0.26224774 0.90009779 0
3.9260004 -0.26860797 0.90009779 0
3.9260004 -0.27496821 0.90009779 0
3.9260004 -0.28132844 0.90009779 0
3.9260004 -0.28768864 0.90009779 0
3.9230003 -0.29383782 0.89967567 0
3.9190001 -0.29990405 0.89911288 0
3.9150002 -0.30595583 0.89855015 0
3.9130003 -0.3121447 0.8982687 0
3.9120002 -0.3184039 0.89812803 0
3.9120002 -0.32473886 0.89812803 0
3.9120002 -0.33107385 0.89812803 0
3.9140003 -0.33757478 0.89840943 0
3.9180002 -0.34425247 0.89897221 0
3.9180002 -0.046 0.8926264 0
3.9130003 -0.052336778 0.89193189 0
3.9100003 -0.058662735 0.89151525 0
3.9090002 -0.064988688 0.89137638 0
3.9080002 -0.071311034 0.89123744 0
3.9080002 -0.077638797 0.89123744 0
3.9090002 -0.083977379 0.89137638 0
3.9120002 -0.090344816 0.89179301 0
3.9160004 -0.096737519 0.89234865 0
3.9210002 -0.10316087 0.89304304 0
3.9260004 -0.10960227 0.89373755 0
3.9260004 -0.11596251 0.89373755 0
3.9260004 -0.12232274 0.89373755 0
3.9260004 -0.12868297 0.89373755 0
3.9260004 -0.13504319 0.89373755 0
3.9260004 -0.14140342 0.89373755 0
3.9260004 -0.14776365 0.89373755 0
3.9260004 -0.15412387 0.89373755 0
3.9260004 -0.16048411 0.89373755 0
3.9260004 -0.16684432 0.89373755 0
3.9260004 -0.17320456 0.89373755 0
3.9260004 -0.17956479 0.89373755 0
3.9260004 -0.18592502 0.89373755 0
3.9260004 -0.19228525 0.89373755 0
3.9260004 -0.19864547 0.89373755 0
3.9260004 -0.20500571 0.89373755 0
3.9260004 -0.21136594 0.89373755 0
3.9260004 -0.21772616 0.89373755 0
3.9260004 -0.22408639 0.89373755 0
3.9260004 -0.23044661 0.89373755 0
3.9260004 -0.23680684 0.89373755 0
3.9260004 -0.24316707 0.89373755 0
3.9260004 -0.24952731 0.89373755 0
3.9260004 -0.25588751 0.89373755 0
3.9260004 -0.26224774 0.89373755 0
3.9260004 -0.26860797 0.89373755 0
3.9260004 -0.27496821 0.89373755 0
3.9260004 -0.28132844 0.89373755 0
3.9250002 -0.2876201 0.89359868 0
3.9190001 -0.29355642 0.89276528 0
3.9150002 -0.29961544 0.89220971 0
3.9110003 -0.30566001 0.89165413 0
3.9090002 -0.31184164 0.89137638 0
3.9080002 -0.31809366 0.89123744 0
3.9080002 -0.32442141 0.89123744 0
3.9080002 -0.33074915 0.89123744 0
3.9100003 -0.33724287 0.89151525 0
3.9130003 -0.34382859 0.89193189 0
3.9140003 -0.046 0.88573229 0
3.9090002 -0.052329563 0.88504678 0
3.9060004 -0.058648303 0.88463557 0
3.9050002 -0.064967044 0.88449848 0
3.9040003 -0.071282178 0.88436139 0
3.9040003 -0.077602714 0.88436139 0
3.9050002 -0.083934084 0.88449848 0
3.9080002 -0.090294316 0.88490969 0
3.9120002 -0.096679792 0.88545811 0
3.9170003 -0.10309594 0.88614357 0
3.9240003 -0.1095662 0.88710314 0
3.9260004 -0.11596251 0.88737732 0
3.9260004 -0.12232274 0.88737732 0
3.9260004 -0.12868297 0.88737732 0
3.9260004 -0.13504319 0.88737732 0
3.9260004 -0.14140342 0.88737732 0
3.9260004 -0.14776365 0.88737732 0
3.9260004 -0.15412387 0.88737732 0
3.9260004 -0.16048411 0.88737732 0
3.9260004 -0.16684432 0.88737732 0
3.9260004 -0.17320456 0.88737732 0
3.9260004 -0.17956479 0.88737732 0
3.9260004 -0.18592502 0.88737732 0
3.9260004 -0.19228525 0.88737732 0
3.9260004 -0.19864547 0.88737732 0
3.9260004 -0.20500571 0.88737732 0
3.9260004 -0.21136594 0.88737732 0
3.9260004 -0.21772616 0.88737732 0
3.9260004 -0.22408639 0.88737732 0
3.9260004 -0.23044661 0.88737732 0
3.9260004 -0.23680684 0.88737732 0
3.9260004 -0.24316707 0.88737732 0
3.9260004 -0.24952731 0.88737732 0
3.9260004 -0.25588751 0.88737732 0
3.9260004 -0.26224774 0.88737732 0
3.9260004 -0.26860797 0.88737732 0
3.9260004 -0.27496821 0.88737732 0
3.9260004 -0.28132844 0.88737732 0
3.9220002 -0.28741446 0.8868289 0
3.9160004 -0.29334539 0.88600647 0
3.9110003 -0.29932684 0.88532096 0
3.9070003 -0.30536416 0.88477266 0
3.9050002 -0.31153861 0.88449848 0
3.9040003 -0.31778342 0.88436139 0
3.9040003 -0.32410395 0.88436139 0
3.9040003 -0.33042449 0.88436139 0
3.9060004 -0.33691099 0.88463557 0
3.9090002 -0.34348947 0.88504678 0
3.9100003 -0.046 0.87885261 0
3.9050002 -0.052322347 0.87817609 0
3.9030004 -0.058637481 0.87790549 0
3.9010003 -0.0649454 0.877635 0
3.9000003 -0.071253315 0.8774997 0
3.9000003 -0.077566646 0.8774997 0
3.9010003 -0.083890796 0.877635 0
3.9040003 -0.090243809 0.87804079 0
3.9080002 -0.096622072 0.87858194 0
3.9130003 -0.10303101 0.87925839 0
3.9200003 -0.10949405 0.88020539 0
3.9260004 -0.11596251 0.88101709 0
3.9260004 -0.12232274 0.88101709 0
3.9260004 -0.12868297 0.88101709 0
3.9260004 -0.13504319 0.88101709 0
3.9260004 -0.14140342 0.88101709 0
3.9260004 -0.14776365 0.88101709 0
3.9260004 -0.15412387 0.88101709 0
3.9260004 -0.16048411 0.88101709 0
3.9260004 -0.16684432 0.88101709 0
3.9260004 -0.17320456 0.88101709 0
3.9260004 -0.17956479 0.88101709 0
3.9260004 -0.18592502 0.88101709 0
3.9260004 -0.19228525 0.88101709 0
3.9260004 -0.19864547 0.88101709 0
3.9260004 -0.20500571 0.88101709 0
3.9260004 -0.21136594 0.88101709 0
3.9260004 -0.21772616 0.88101709 0
3.9260004 -0.22408639 0.88101709 0
3.9260004 -0.23044661 0.88101709 0
3.9260004 -0.23680684 0.88101709 0
3.9260004 -0.24316707 0.88101709 0
3.9260004 -0.24952731 0.88101709 0
3.9260004 -0.25588751 0.88101709 0
3.9260004 -0.26224774 0.88101709 0
3.9260004 -0.26860797 0.88101709 0
3.9260004 -0.27496821 0.88101709 0
3.9260004 -0.28132844 0.88101709 0
3.9180002 -0.28714031 0.87993479 0
3.9120002 -0.293064 0.87912309 0
3.9070003 -0.29903823 0.8784467 0
3.9040003 -0.30514231 0.87804079 0
3.9010003 -0.31123558 0.877635 0
3.9000003 -0.31747314 0.8774997 0
3.9000003 -0.3237865 0.8774997 0
3.9000003 -0.33009982 0.8774997 0
3.9020002 -0.33657908 0.87777019 0
3.9050002 -0.34315035 0.87817609 0
3.9060004 -0.046 0.87198728 0
3.9010003 -0.052315131 0.87131977 0
3.8990002 -0.058623049 0.87105286 0
3.8970003 -0.064923756 0.87078589 0
3.8960001 -0.071224451 0.87065244 0
3.8960001 -0.077530563 0.87065244 0
3.8970003 -0.083847508 0.87078589 0
3.9000003 -0.090193301 0.87118638 0
3.9040003 -0.096564353 0.87172031 0
3.9090002 -0.10296607 0.87238765 0
3.9160004 -0.10942189 0.87332207 0
3.9260004 -0.11596251 0.87465692 0
3.9260004 -0.12232274 0.87465692 0
3.9260004 -0.12868297 0.87465692 0
3.9260004 -0.13504319 0.87465692 0
3.9260004 -0.14140342 0.87465692 0
3.9260004 -0.14776365 0.87465692 0
3.9260004 -0.15412387 0.87465692 0
3.9260004 -0.16048411 0.87465692 0
3.9260004 -0.16684432 0.87465692 0
3.9260004 -0.17320456 0.87465692 0
3.9260004 -0.17956479 0.87465692 0
3.9260004 -0.18592502 0.87465692 0
3.9260004 -0.19228525 0.87465692 0
3.9260004 -0.19864547 0.87465692 0
3.9260004 -0.20500571 0.87465692 0
3.9260004 -0.21136594 0.87465692 0
3.9260004 -0.21772616 0.87465692 0
3.9260004 -0.22408639 0.87465692 0
3.9260004 -0.23044661 0.87465692 0
3.9260004 -0.23680684 0.87465692 0
3.9260004 -0.24316707 0.87465692 0
3.9260004 -0.24952731 0.87465692 0
3.9260004 -0.25588751 0.87465692 0
3.9260004 -0.26224774 0.87465692 0
3.9260004 -0.26860797 0.87465692 0
3.9260004 -0.27496821 0.87465692 0
3.9230003 -0.28112823 0.87425649 0
3.9150002 -0.28693467 0.87318861 0
3.9080002 -0.2927826 0.87225419 0
3.9030004 -0.29874963 0.8715868 0
3.9000003 -0.3048465 0.87118638 0
3.8970003 -0.31093255 0.87078589 0
3.8960001 -0.31716287 0.87065244 0
3.8960001 -0.32346898 0.87065244 0
3.8960001 -0.32977512 0.87065244 0
3.8980002 -0.33624718 0.87091941 0
3.9010003 -0.34281126 0.87131977 0
3.9020002 -0.046 0.86513638 0
3.8970003 -0.052307919 0.86447799 0
3.8950002 -0.058608621 0.86421466 0
3.8930004 -0.064902112 0.86395127 0
3.8920002 -0.071195595 0.8638196 0
3.8920002 -0.077494487 0.8638196 0
3.8930004 -0.08380422 0.86395127 0
3.8960001 -0.090142794 0.86434627 0
3.9000003 -0.096506633 0.86487305 0
3.9050002 -0.10290113 0.86553138 0
3.9120002 -0.10934974 0.86645317 0
3.9230003 -0.11590298 0.86790162 0
3.9260004 -0.12232274 0.86829662 0
3.9260004 -0.12868297 0.86829662 0
3.9260004 -0.13504319 0.86829662 0
3.9260004 -0.14140342 0.86829662 0
3.9260004 -0.14776365 0.86829662 0
3.9260004 -0.15412387 0.86829662 0
3.9260004 -0.16048411 0.86829662 0
3.9260004 -0.16684432 0.86829662 0
3.9260004 -0.17320456 0.86829662 0
3.9260004 -0.17956479 0.86829662 0
3.9260004 -0.18592502 0.86829662 0
3.9260004 -0.19228525 0.86829662 0
3.9260004 -0.19864547 0.86829662 0
3.9260004 -0.20500571 0.86829662 0
3.9260004 -0.21136594 0.86829662 0
3.9260004 -0.21772616 0.86829662 0
3.9260004 -0.22408639 0.86829662 0
3.9260004 -0.23044661 0.86829662 0
3.9260004 -0.23680684 0.86829662 0
3.9260004 -0.24316707 0.86829662 0
3.9260004 -0.24952731 0.86829662 0
3.9260004 -0.25588751 0.86829662 0
3.9260004 -0.26224774 0.86829662 0
3.9260004 -0.26860797 0.86829662 0
3.9260004 -0.27496821 0.86829662 0
3.9200003 -0.28092799 0.86750662 0
3.9110003 -0.28666046 0.86632144 0
3.9050002 -0.29257157 0.86553138 0
3.9000003 -0.29853317 0.86487305 0
3.8960001 -0.30455065 0.86434627 0
3.8940003 -0.31070524 0.86408293 0
3.8920002 -0.31685263 0.8638196 0
3.8920002 -0.32315153 0.8638196 0
3.8920002 -0.32945043 0.8638196 0
3.8940003 -0.3359153 0.86408293 0
3.8970003 -0.34247214 0.86447799 0
3.9010003 -0.34912637 0.86500466 0
3.8980002 -0.046 0.85829997 0
3.8940003 -0.052302506 0.85778046 0
3.8910003 -0.05859419 0.85739088 0
3.8890002 -0.064880461 0.85713106 0
3.8880002 -0.071166731 0.85700119 0
3.8880002 -0.077458411 0.85700119 0
3.8890002 -0.083760917 0.85713106 0
3.8920002 -0.090092286 0.8575207 0
3.8960001 -0.096448906 0.85804021 0
3.9010003 -0.10283619 0.85868955 0
3.9080002 -0.10927759 0.85959864 0
3.9190001 -0.11582361 0.8610273 0
3.9260004 -0.12232274 0.86193645 0
3.9260004 -0.12868297 0.86193645 0
3.9260004 -0.13504319 0.86193645 0
3.9260004 -0.14140342 0.86193645 0
3.9260004 -0.14776365 0.86193645 0
3.9260004 -0.15412387 0.86193645 0
3.9260004 -0.16048411 0.86193645 0
3.9260004 -0.16684432 0.86193645 0
3.9260004 -0.17320456 0.86193645 0
3.9260004 -0.17956479 0.86193645 0
3.9260004 -0.18592502 0.86193645 0
3.9260004 -0.19228525 0.86193645 0
3.9260004 -0.19864547 0.86193645 0
3.9260004 -0.20500571 0.86193645 0
3.9260004 -0.21136594 0.86193645 0
3.9260004 -0.21772616 0.86193645 0
3.9260004 -0.22408639 0.86193645 0
3.9260004 -0.23044661 0.86193645 0
3.9260004 -0.23680684 0.86193645 0
3.9260004 -0.24316707 0.86193645 0
3.9260004 -0.24952731 0.86193645 0
3.9260004 -0.25588751 0.86193645 0
3.9260004 -0.26224774 0.86193645 0
3.9260004 -0.26860797 0.86193645 0
3.9260004 -0.27496821 0.86193645 0
3.9160004 -0.28066102 0.86063766 0
3.9070003 -0.28638631 0.85946882 0
3.9010003 -0.29229015 0.85868955 0
3.8960001 -0.29824454 0.85804021 0
3.8920002 -0.30425483 0.8575207 0
3.8900003 -0.31040224 0.85726094 0
3.8880002 -0.31654239 0.85700119 0
3.8880002 -0.32283404 0.85700119 0
3.8880002 -0.32912573 0.85700119 0
3.8900003 -0.33558339 0.85726094 0
3.8920002 -0.34204823 0.8575207 0
3.8970003 -0.34878007 0.85817003 0
3.8940003 -0.046 0.85147798 0
3.8900003 -0.05229529 0.85096568 0
3.8870003 -0.058579758 0.85058141 0
3.8850002 -0.064858817 0.85032535 0
3.8840003 -0.071137875 0.8501972 0
3.8840003 -0.077422343 0.8501972 0
3.8860002 -0.083728448 0.85045338 0
3.8880002 -0.090041779 0.8507095 0
3.8920002 -0.096391186 0.8512218 0
3.8970003 -0.10277125 0.85186219 0
3.9040003 -0.10920544 0.85275865 0
3.9150002 -0.11574425 0.8541674 0
3.9260004 -0.12232274 0.85557622 0
3.9260004 -0.12868297 0.85557622 0
3.9260004 -0.13504319 0.85557622 0
3.9260004 -0.14140342 0.85557622 0
3.9260004 -0.14776365 0.85557622 0
3.9260004 -0.15412387 0.85557622 0
3.9260004 -0.16048411 0.85557622 0
3.9260004 -0.16684432 0.85557622 0
3.9260004 -0.17320456 0.85557622 0
3.9260004 -0.17956479 0.85557622 0
3.9260004 -0.18592502 0.85557622 0
3.9260004 -0.19228525 0.85557622 0
3.9260004 -0.19864547 0.85557622 0
3.9260004 -0.20500571 0.85557622 0
3.9260004 -0.21136594 0.85557622 0
3.9260004 -0.21772616 0.85557622 0
3.9260004 -0.22408639 0.85557622 0
3.9260004 -0.23044661 0.85557622 0
3.9260004 -0.23680684 0.85557622 0
3.9260004 -0.24316707 0.85557622 0
3.9260004 -0.24952731 0.85557622 0
3.9260004 -0.25588751 0.85557622 0
3.9260004 -0.26224774 0.85557622 0
3.9260004 -0.26860797 0.85557622 0
3.9260004 -0.27496821 0.85557622 0
3.9130003 -0.28046077 0.85391128 0
3.9040003 -0.28618068 0.85275865 0
3.8970003 -0.29200879 0.85186219 0
3.8920002 -0.29795593 0.8512218 0
3.8880002 -0.30395901 0.8507095 0
3.8860002 -0.31009915 0.85045338 0
3.8840003 -0.31623214 0.8501972 0
3.8840003 -0.32251659 0.8501972 0
3.8840003 -0.32880107 0.8501972 0
3.8860002 -0.33525148 0.85045338 0
3.8880002 -0.34170911 0.8507095 0
3.8930004 -0.34843373 0.85134989 0
3.8900003 -0.046 0.84467041 0
3.8860002 -0.052288074 0.84416533 0
3.8830004 -0.05856533 0.84378648 0
3.8810003 -0.064837173 0.84353399 0
3.8800004 -0.071109012 0.84340775 0
3.8810003 -0.077395283 0.84353399 0
3.8820002 -0.08368516 0.84366024 0
3.8840003 -0.089991271 0.84391278 0
3.8880002 -0.096333466 0.84441781 0
3.8930004 -0.10270632 0.8450492 0
3.9110003 -0.11566488 0.84732199 0
3.9260004 -0.12232274 0.84921598 0
3.9260004 -0.12868297 0.84921598 0
3.9260004 -0.13504319 0.84921598 0
3.9260004 -0.14140342 0.84921598 0
3.9260004 -0.14776365 0.84921598 0
3.9260004 -0.15412387 0.84921598 0
3.9260004 -0.16048411 0.84921598 0
3.9260004 -0.16684432 0.84921598 0
3.9260004 -0.17320456 0.84921598 0
3.9260004 -0.17956479 0.84921598 0
3.9260004 -0.18592502 0.84921598 0
3.9260004 -0.19228525 0.84921598 0
3.9260004 -0.19864547 0.84921598 0
3.9260004 -0.20500571 0.84921598 0
3.9260004 -0.21136594 0.84921598 0
3.9260004 -0.21772616 0.84921598 0
3.9260004 -0.22408639 0.84921598 0
3.9260004 -0.23044661 0.84921598 0
3.9260004 -0.23680684 0.84921598 0
3.9260004 -0.24316707 0.84921598 0
3.9260004 -0.24952731 0.84921598 0
3.9260004 -0.25588751 0.84921598 0
3.9260004 -0.26224774 0.84921598 0
3.9260004 -0.26860797 0.84921598 0
3.9250002 -0.27490327 0.84908968 0
3.9100003 -0.28026059 0.84719568 0
3.9000003 -0.28590649 0.84593308 0
3.8940003 -0.29179773 0.84517545 0
3.8880002 -0.29766732 0.84441781 0
3.8840003 -0.30366319 0.84391278 0
3.8820002 -0.30979612 0.84366024 0
3.8810003 -0.31599945 0.84353399 0
3.8800004 -0.32219914 0.84340775 0
3.8800004 -0.32847637 0.84340775 0
3.8820002 -0.33491957 0.84366024 0
3.8840003 -0.34137002 0.84391278 0
3.8890002 -0.34808737 0.84454405 0
3.8860002 -0.046 0.83787715 0
3.8820002 -0.052280862 0.83737934 0
3.8790002 -0.058550898 0.83700597 0
3.8770003 -0.064815521 0.83675706 0
3.8760002 -0.071080148 0.83663261 0
3.8770003 -0.077359207 0.83675706 0
3.8780003 -0.083641872 0.83688152 0
3.8800004 -0.089940771 0.83713043 0
3.8840003 -0.096275747 0.8376283 0
3.8890002 -0.10264138 0.83825064 0
3.9260004 -0.12232274 0.84285575 0
3.9260004 -0.12868297 0.84285575 0
3.9260004 -0.13504319 0.84285575 0
3.9260004 -0.14140342 0.84285575 0
3.9260004 -0.14776365 0.84285575 0
3.9260004 -0.15412387 0.84285575 0
3.9260004 -0.16048411 0.84285575 0
3.9260004 -0.16684432 0.84285575 0
3.9260004 -0.17320456 0.84285575 0
3.9260004 -0.17956479 0.84285575 0
3.9260004 -0.18592502 0.84285575 0
3.9260004 -0.19228525 0.84285575 0
3.9260004 -0.19864547 0.84285575 0
3.9260004 -0.20500571 0.84285575 0
3.9260004 -0.21136594 0.84285575 0
3.9260004 -0.21772616 0.84285575 0
3.9260004 -0.22408639 0.84285575 0
3.9260004 -0.23044661 0.84285575 0
3.9260004 -0.23680684 0.84285575 0
3.9260004 -0.24316707 0.84285575 0
3.9260004 -0.24952731 0.84285575 0
3.9260004 -0.25588751 0.84285575 0
3.9260004 -0.26224774 0.84285575 0
3.9260004 -0.26860797 0.84285575 0
3.9220002 -0.27470845 0.84235787 0
3.9060004 -0.27999362 0.84036648 0
3.8970003 -0.28570086 0.83924633 0
3.8900003 -0.29151636 0.83837509 0
3.8850002 -0.29745087 0.83775276 0
3.8810003 -0.30344132 0.83725488 0
3.8780003 -0.30949309 0.83688152 0
3.8770003 -0.31568921 0.83675706 0
3.8760002 -0.32188165 0.83663261 0
3.8770003 -0.32823285 0.83675706 0
3.8780003 -0.33458766 0.83688152 0
3.8800004 -0.3410309 0.83713043 0
3.8840003 -0.34765446 0.8376283 0
3.8820002 -0.046 0.8310985 0
3.8780003 -0.052273646 0.83060789 0
3.8750002 -0.058536466 0.83023989 0
3.8730001 -0.064793877 0.82999456 0
3.8720002 -0.071051285 0.82987189 0
3.8730001 -0.077323124 0.82999456 0
3.8740003 -0.083598584 0.83011723 0
3.8760002 -0.089890257 0.83036256 0
3.8800004 -0.09621802 0.83085322 0
3.8850002 -0.10257645 0.8314665 0
3.9260004 -0.12232274 0.83649552 0
3.9260004 -0.12868297 0.83649552 0
3.9260004 -0.13504319 0.83649552 0
3.9260004 -0.14140342 0.83649552 0
3.9260004 -0.14776365 0.83649552 0
3.9260004 -0.15412387 0.83649552 0
3.9260004 -0.16048411 0.83649552 0
3.9260004 -0.16684432 0.83649552 0
3.9260004 -0.17320456 0.83649552 0
3.9260004 -0.17956479 0.83649552 0
3.9260004 -0.18592502 0.83649552 0
3.9260004 -0.19228525 0.83649552 0
3.9260004 -0.19864547 0.83649552 0
3.9260004 -0.20500571 0.83649552 0
3.9260004 -0.21136594 0.83649552 0
3.9260004 -0.21772616 0.83649552 0
3.9260004 -0.22408639 0.83649552 0
3.9260004 -0.23044661 0.83649552 0
3.9260004 -0.23680684 0.83649552 0
3.9260004 -0.24316707 0.83649552 0
3.9260004 -0.24952731 0.83649552 0
3.9260004 -0.25588751 0.83649552 0
3.9260004 -0.26224774 0.83649552 0
3.9260004 -0.26860797 0.83649552 0
3.9190001 -0.27451363 0.83563685 0
3.9030004 -0.27979338 0.83367431 0
