# .PCD v0.7 - Point Cloud Data file format
VERSION 0.7
FIELDS x y z intensity
SIZE 4 4 4 4
TYPE F F F F
COUNT 1 1 1 1
WIDTH 159
HEIGHT 1
VIEWPOINT 0 0 0 1 0 0 0
POINTS 159
DATA ascii
6.6440005 1.3393463 0.67431152 0
6.6470003 1.3287436 0.67444134 0
6.6440005 1.3393463 0.66304851 0
6.6470003 1.3287436 0.66317296 0
6.6440005 1.3393463 0.65178555 0
6.6470003 1.3287436 0.65190458 0
6.6440005 1.3393463 0.6405226 0
6.6470003 1.3287436 0.64063621 0
6.6510005 1.3183482 0.64078772 0
6.6440005 1.3393463 0.62925959 0
6.6470003 1.3287436 0.62936783 0
6.6510005 1.3183482 0.62951213 0
6.6440005 1.3393463 0.61799663 0
6.6470003 1.3287436 0.61809945 0
6.6510005 1.3183482 0.61823654 0
6.6440005 1.3393463 0.60673362 0
6.6470003 1.3287436 0.60683107 0
6.6510005 1.3183482 0.60696089 0
6.6440005 1.3393463 0.59547067 0
6.6470003 1.3287436 0.59556264 0
6.6510005 1.3183482 0.5956853 0
6.6440005 1.3393463 0.58420765 0
6.6470003 1.3287436 0.58429426 0
6.6510005 1.3183482 0.58440971 0
6.6440005 1.3393463 0.5729447 0
6.6470003 1.3287436 0.57302582 0
6.6510005 1.3183482 0.57313406 0
6.6440005 1.3393463 0.56168175 0
6.6470003 1.3287436 0.56175745 0
6.4830003 1.0512565 0.55761594 0
6.4850006 1.0406412 0.55766642 0
6.6440005 1.3393463 0.55041873 0
6.6470003 1.3287436 0.55048907 0
6.4880004 1.0521585 0.54676062 0
6.4890003 1.0413555 0.54678404 0
6.4960003 1.0536015 0.53595221 0
6.4970002 1.0427841 0.53597385 0
6.5080004 1.0557661 0.52519429 0
6.5090003 1.044927 0.52521414 0
6.5060005 1.0664194 0.51414055 0
6.5040002 1.0550445 0.51410449 0
6.5060005 1.0443913 0.51414055 0
6.4990005 1.0651441 0.50301284 0
6.4980006 1.0539623 0.50299662 0
6.5000005 1.0433198 0.50302911 0
6.4960003 1.0645975 0.49196813 0
6.4950004 1.053421 0.4919537 0
6.4970002 1.0427841 0.49198258 0
6.4950004 1.0644153 0.48095948 0
6.4950004 1.053421 0.48095948 0
6.4960003 1.0426055 0.48097211 0
6.4950004 1.0644153 0.46996528 0
6.4950004 1.053421 0.46996528 0
6.4960003 1.0426055 0.4699761 0
6.4950004 1.0644153 0.45897108 0
6.4950004 1.053421 0.45897108 0
6.4960003 1.0426055 0.45898008 0
6.5000005 1.0323166 0.45901617 0
6.4950004 1.0644153 0.44797686 0
6.4950004 1.053421 0.44797686 0
6.4960003 1.0426055 0.44798407 0
6.5000005 1.0323166 0.44801295 0
6.4950004 1.0644153 0.43698263 0
6.4950004 1.053421 0.43698263 0
6.4960003 1.0426055 0.43698806 0
6.5000005 1.0323166 0.43700969 0
6.4950004 1.053421 0.42598844 0
6.4960003 1.0426055 0.42599204 0
6.5000005 1.0323166 0.42600647 0
6.4950004 1.053421 0.41499424 0
6.4960003 1.0426055 0.41499603 0
6.5000005 1.0323166 0.41500324 0
6.4950004 1.053421 0.40400001 0
6.4960003 1.0426055 0.40400001 0
6.5000005 1.0323166 0.40400001 0
6.4950004 1.053421 0.39300579 0
6.4960003 1.0426055 0.393004 0
6.5000005 1.0323166 0.39299679 0
6.4950004 1.053421 0.38201159 0
6.4960003 1.0426055 0.38200799 0
6.5000005 1.0323166 0.38199356 0
6.4950004 1.053421 0.3710174 0
6.4960003 1.0426055 0.37101197 0
6.5000005 1.0323166 0.37099034 0
6.4950004 1.053421 0.36002317 0
6.4960003 1.0426055 0.36001596 0
6.5000005 1.0323166 0.35998708 0
6.4950004 1.053421 0.34902894 0
6.4960003 1.0426055 0.34901994 0
6.5000005 1.0323166 0.34898385 0
6.4950004 1.053421 0.33803475 0
6.4960003 1.0426055 0.33802393 0
6.5000005 1.0323166 0.33798063 0
6.4950004 1.053421 0.32704055 0
6.4960003 1.0426055 0.32702792 0
6.5000005 1.0323166 0.3269774 0
6.4950004 1.053421 0.31604633 0
6.4960003 1.0426055 0.3160319 0
6.5000005 1.0323166 0.31597418 0
6.4950004 1.053421 0.3050521 0
6.4960003 1.0426055 0.30503589 0
6.5000005 1.0323166 0.30497095 0
6.4950004 1.053421 0.29405791 0
6.4960003 1.0426055 0.29403988 0
6.5000005 1.0323166 0.29396772 0
6.4950004 1.053421 0.28306368 0
6.4960003 1.0426055 0.28304386 0
6.5000005 1.0323166 0.28296447 0
6.4950004 1.053421 0.27206948 0
6.4960003 1.0426055 0.27204782 0
6.5000005 1.0323166 0.27196127 0
6.4950004 1.053421 0.26107526 0
6.4960003 1.0426055 0.26105183 0
6.5000005 1.0323166 0.26095802 0
6.4950004 1.053421 0.25008106 0
6.4960003 1.0426055 0.25005579 0
6.5000005 1.0323166 0.24995477 0
6.4950004 1.053421 0.23908685 0
6.4960003 1.0426055 0.23905979 0
6.5000005 1.0323166 0.23895155 0
6.4950004 1.053421 0.22809264 0
6.4960003 1.0426055 0.22806378 0
6.5000005 1.0323166 0.22794832 0
6.4950004 1.053421 0.21709843 0
6.4960003 1.0426055 0.21706776 0
6.5000005 1.0323166 0.2169451 0
6.4950004 1.053421 0.2061042 0
6.4960003 1.0426055 0.20607175 0
6.5000005 1.0323166 0.20594187 0
6.4950004 1.053421 0.19510999 0
6.4960003 1.0426055 0.19507574 0
6.5000005 1.0323166 0.19493863 0
6.4950004 1.053421 0.18411578 0
6.4960003 1.0426055 0.18407972 0
6.5000005 1.0323166 0.1839354 0
6.4950004 1.053421 0.17312159 0
6.4960003 1.0426055 0.17308369 0
6.5000005 1.0323166 0.17293218 0
6.4950004 1.053421 0.16212736 0
6.4960003 1.0426055 0.16208769 0
6.5000005 1.0323166 0.16192894 0
6.4950004 1.053421 0.15113315 0
6.4960003 1.0426055 0.15109167 0
6.5000005 1.0323166 0.15092573 0
6.4950004 1.053421 0.14013895 0
6.4960003 1.0426055 0.14009565 0
6.5000005 1.0323166 0.1399225 0
6.4950004 1.053421 0.12914476 0
6.4960003 1.0426055 0.12909964 0
6.5000005 1.0323166 0.12891924 0
6.4950004 1.053421 0.11815053 0
6.4960003 1.0426055 0.11810362 0
6.5000005 1.0323166 0.11791602 0
6.4950004 1.053421 0.10715634 0
6.4960003 1.0426055 0.10710761 0
6.4950004 1.053421 0.096162111 0
6.4960003 1.0426055 0.096111596 0
6.4950004 1.053421 0.085167885 0
6.4960003 1.0426055 0.085115582 0
