# .PCD v0.7 - Point Cloud Data file format
VERSION 0.7
FIELDS x y z intensity
SIZE 4 4 4 4
TYPE F F F F
COUNT 1 1 1 1
WIDTH 1415
HEIGHT 1
VIEWPOINT 0 0 0 1 0 0 0
POINTS 1415
DATA ascii
2.5710001 -1.2834773 0.59197128 0
2.5670002 -1.2851062 0.59162492 0
2.5640001 -1.2872943 0.59136516 0
2.5610001 -1.2894714 0.5911054 0
2.6660001 -1.2272671 0.59610915 0
2.6620002 -1.2292621 0.59577006 0
2.6590002 -1.2317677 0.59551573 0
2.6550002 -1.2337356 0.59517664 0
2.6510003 -1.235689 0.59483755 0
2.6480002 -1.2381586 0.59458315 0
2.6440003 -1.240085 0.59424406 0
2.6410003 -1.2425309 0.59398973 0
2.6370001 -1.2444303 0.59365058 0
2.6330001 -1.2463154 0.59331149 0
2.6300001 -1.2487252 0.59305716 0
2.6260002 -1.2505832 0.59271801 0
2.6230001 -1.2529695 0.59246373 0
2.6190002 -1.2548004 0.59212458 0
2.6160002 -1.2571634 0.59187025 0
2.6120002 -1.2589673 0.59153116 0
2.6090002 -1.2613069 0.59127676 0
2.6050003 -1.2630836 0.59093767 0
2.6020002 -1.2653996 0.59068334 0
2.5980003 -1.2671493 0.59034425 0
2.5950003 -1.269442 0.59008992 0
2.5910003 -1.2711647 0.58975077 0
2.5880003 -1.2734339 0.58949643 0
2.5840001 -1.2751293 0.58915734 0
2.5810001 -1.2773751 0.58890295 0
2.5780003 -1.2796102 0.58864868 0
2.5740001 -1.2812659 0.58830953 0
2.5710001 -1.2834773 0.58805519 0
2.5670002 -1.2851062 0.5877161 0
2.5640001 -1.2872943 0.58746171 0
2.5610001 -1.2894714 0.58720738 0
2.6660001 -1.2272671 0.59202176 0
2.6620002 -1.2292621 0.59168988 0
2.6590002 -1.2317677 0.59144092 0
2.6550002 -1.2337356 0.59110904 0
2.6510003 -1.235689 0.59077716 0
2.6480002 -1.2381586 0.59052825 0
2.6440003 -1.240085 0.59019631 0
2.6410003 -1.2425309 0.5899474 0
2.6370001 -1.2444303 0.58961546 0
2.6330001 -1.2463154 0.58928359 0
2.6300001 -1.2487252 0.58903468 0
2.6260002 -1.2505832 0.58870274 0
2.6230001 -1.2529695 0.58845383 0
2.6190002 -1.2548004 0.58812195 0
2.6160002 -1.2571634 0.58787298 0
2.6120002 -1.2589673 0.5875411 0
2.6090002 -1.2613069 0.58729219 0
2.6050003 -1.2630836 0.58696032 0
2.6020002 -1.2653996 0.58671135 0
2.5980003 -1.2671493 0.58637947 0
2.5950003 -1.269442 0.58613056 0
2.5910003 -1.2711647 0.58579862 0
2.5880003 -1.2734339 0.58554971 0
2.5840001 -1.2751293 0.58521783 0
2.5810001 -1.2773751 0.58496886 0
2.5780003 -1.2796102 0.58471996 0
2.5740001 -1.2812659 0.58438802 0
2.5710001 -1.2834773 0.58413911 0
2.5670002 -1.2851062 0.58380723 0
2.5640001 -1.2872943 0.58355832 0
2.5610001 -1.2894714 0.58330935 0
2.6660001 -1.2272671 0.58793432 0
2.6620002 -1.2292621 0.58760965 0
2.6590002 -1.2317677 0.58736616 0
2.6550002 -1.2337356 0.58704144 0
2.6510003 -1.235689 0.58671677 0
2.6480002 -1.2381586 0.58647323 0
2.6440003 -1.240085 0.58614856 0
2.6410003 -1.2425309 0.58590508 0
2.6370001 -1.2444303 0.58558035 0
2.6330001 -1.2463154 0.58525568 0
2.6300001 -1.2487252 0.58501214 0
2.6260002 -1.2505832 0.58468747 0
2.6230001 -1.2529695 0.58444399 0
2.6190002 -1.2548004 0.58411926 0
2.6160002 -1.2571634 0.58387578 0
2.6120002 -1.2589673 0.58355111 0
2.6090002 -1.2613069 0.58330756 0
2.6050003 -1.2630836 0.5829829 0
2.6020002 -1.2653996 0.58273935 0
2.5980003 -1.2671493 0.58241469 0
2.5950003 -1.269442 0.5821712 0
2.5910003 -1.2711647 0.58184648 0
2.5880003 -1.2734339 0.58160299 0
2.5840001 -1.2751293 0.58127826 0
2.5810001 -1.2773751 0.58103478 0
2.5780003 -1.2796102 0.58079123 0
2.5740001 -1.2812659 0.58046657 0
2.5710001 -1.2834773 0.58022308 0
2.5670002 -1.2851062 0.57989836 0
2.5640001 -1.2872943 0.57965487 0
2.5610001 -1.2894714 0.57941133 0
2.6660001 -1.2272671 0.58384693 0
2.6620002 -1.2292621 0.58352941 0
2.6590002 -1.2317677 0.58329135 0
2.6550002 -1.2337356 0.58297384 0
2.6510003 -1.235689 0.58265638 0
2.6480002 -1.2381586 0.58241832 0
2.6440003 -1.240085 0.58210081 0
2.6410003 -1.2425309 0.58186269 0
2.6370001 -1.2444303 0.58154523 0
2.6330001 -1.2463154 0.58122778 0
2.6300001 -1.2487252 0.58098966 0
2.6260002 -1.2505832 0.5806722 0
2.6230001 -1.2529695 0.58043408 0
2.6190002 -1.2548004 0.58011663 0
2.6160002 -1.2571634 0.57987857 0
2.6120002 -1.2589673 0.57956105 0
2.6090002 -1.2613069 0.57932293 0
2.6050003 -1.2630836 0.57900548 0
2.6020002 -1.2653996 0.57876742 0
2.5980003 -1.2671493 0.5784499 0
2.5950003 -1.269442 0.57821184 0
2.5910003 -1.2711647 0.57789433 0
2.5880003 -1.2734339 0.57765627 0
2.5840001 -1.2751293 0.57733876 0
2.5810001 -1.2773751 0.57710063 0
2.5780003 -1.2796102 0.57686257 0
2.5740001 -1.2812659 0.57654512 0
2.5710001 -1.2834773 0.576307 0
2.5670002 -1.2851062 0.57598948 0
2.5640001 -1.2872943 0.57575142 0
2.5610001 -1.2894714 0.5755133 0
2.6660001 -1.2272671 0.57975948 0
2.6620002 -1.2292621 0.57944924 0
2.6590002 -1.2317677 0.57921654 0
2.6550002 -1.2337356 0.5789063 0
2.6510003 -1.235689 0.578596 0
2.6480002 -1.2381586 0.57836336 0
2.6440003 -1.240085 0.57805312 0
2.6410003 -1.2425309 0.57782042 0
2.6370001 -1.2444303 0.57751012 0
2.6330001 -1.2463154 0.57719988 0
2.6300001 -1.2487252 0.57696718 0
2.6260002 -1.2505832 0.57665694 0
2.6230001 -1.2529695 0.57642424 0
2.6190002 -1.2548004 0.576114 0
2.6160002 -1.2571634 0.5758813 0
2.6120002 -1.2589673 0.57557106 0
2.6090002 -1.2613069 0.57533836 0
2.6050003 -1.2630836 0.57502812 0
2.6020002 -1.2653996 0.57479537 0
2.5980003 -1.2671493 0.57448518 0
2.5950003 -1.269442 0.57425249 0
2.5910003 -1.2711647 0.57394218 0
2.5880003 -1.2734339 0.57370949 0
2.5840001 -1.2751293 0.57339925 0
2.5810001 -1.2773751 0.57316655 0
2.5780003 -1.2796102 0.57293385 0
2.5740001 -1.2812659 0.57262361 0
2.5710001 -1.2834773 0.57239091 0
2.5670002 -1.2851062 0.57208067 0
2.5640001 -1.2872943 0.57184798 0
2.5610001 -1.2894714 0.57161528 0
2.6660001 -1.2272671 0.57567203 0
2.6620002 -1.2292621 0.575369 0
2.6590002 -1.2317677 0.57514173 0
2.6550002 -1.2337356 0.5748387 0
2.6510003 -1.235689 0.57453567 0
2.6480002 -1.2381586 0.5743084 0
2.6440003 -1.240085 0.57400537 0
2.6410003 -1.2425309 0.57377803 0
2.6370001 -1.2444303 0.573475 0
2.6330001 -1.2463154 0.57317197 0
2.6300001 -1.2487252 0.5729447 0
2.6260002 -1.2505832 0.57264167 0
2.6230001 -1.2529695 0.5724144 0
2.6190002 -1.2548004 0.57211137 0
2.6160002 -1.2571634 0.57188404 0
2.6120002 -1.2589673 0.57158101 0
2.6090002 -1.2613069 0.57135373 0
2.6050003 -1.2630836 0.5710507 0
2.6020002 -1.2653996 0.57082343 0
2.5980003 -1.2671493 0.5705204 0
2.5950003 -1.269442 0.57029307 0
2.5910003 -1.2711647 0.56999004 0
2.5880003 -1.2734339 0.56976277 0
2.5840001 -1.2751293 0.56945974 0
2.5810001 -1.2773751 0.56923246 0
2.5780003 -1.2796102 0.56900519 0
2.5740001 -1.2812659 0.5687021 0
2.5710001 -1.2834773 0.56847483 0
2.5670002 -1.2851062 0.5681718 0
2.5640001 -1.2872943 0.56794453 0
2.5610001 -1.2894714 0.56771725 0
2.6660001 -1.2272671 0.57158458 0
2.6620002 -1.2292621 0.57128882 0
2.6590002 -1.2317677 0.57106692 0
2.6550002 -1.2337356 0.5707711 0
2.6510003 -1.235689 0.57047528 0
2.6480002 -1.2381586 0.57025343 0
2.6440003 -1.240085 0.56995761 0
2.6410003 -1.2425309 0.56973571 0
2.6370001 -1.2444303 0.56943989 0
2.6330001 -1.2463154 0.56914407 0
2.6300001 -1.2487252 0.56892216 0
2.6260002 -1.2505832 0.5686264 0
2.6230001 -1.2529695 0.5684045 0
2.6190002 -1.2548004 0.56810868 0
2.6160002 -1.2571634 0.56788683 0
2.6120002 -1.2589673 0.56759101 0
2.6090002 -1.2613069 0.5673691 0
2.6050003 -1.2630836 0.56707329 0
2.6020002 -1.2653996 0.56685144 0
2.5980003 -1.2671493 0.56655562 0
2.5950003 -1.269442 0.56633377 0
2.5910003 -1.2711647 0.56603789 0
2.5880003 -1.2734339 0.56581604 0
2.5840001 -1.2751293 0.56552023 0
2.5810001 -1.2773751 0.56529832 0
2.5780003 -1.2796102 0.56507647 0
2.5740001 -1.2812659 0.56478065 0
2.5710001 -1.2834773 0.5645588 0
2.5670002 -1.2851062 0.56426299 0
2.5640001 -1.2872943 0.56404108 0
2.5610001 -1.2894714 0.56381923 0
2.6660001 -1.2272671 0.56749719 0
2.6620002 -1.2292621 0.56720859 0
2.6590002 -1.2317677 0.5669921 0
2.6550002 -1.2337356 0.5667035 0
2.6510003 -1.235689 0.56641495 0
2.6480002 -1.2381586 0.56619847 0
2.6440003 -1.240085 0.56590986 0
2.6410003 -1.2425309 0.56569338 0
2.6370001 -1.2444303 0.56540477 0
2.6330001 -1.2463154 0.56511617 0
2.6300001 -1.2487252 0.56489968 0
2.6260002 -1.2505832 0.56461108 0
2.6230001 -1.2529695 0.56439465 0
2.6190002 -1.2548004 0.56410605 0
2.6160002 -1.2571634 0.56388956 0
2.6120002 -1.2589673 0.56360096 0
2.6090002 -1.2613069 0.56338453 0
2.6050003 -1.2630836 0.56309593 0
2.6020002 -1.2653996 0.56287944 0
2.5980003 -1.2671493 0.56259084 0
2.5950003 -1.269442 0.56237435 0
2.5910003 -1.2711647 0.56208575 0
2.5880003 -1.2734339 0.56186932 0
2.5840001 -1.2751293 0.56158066 0
2.5810001 -1.2773751 0.56136423 0
2.5780003 -1.2796102 0.56114781 0
2.5740001 -1.2812659 0.5608592 0
2.5710001 -1.2834773 0.56064272 0
2.5670002 -1.2851062 0.56035411 0
2.5640001 -1.2872943 0.56013763 0
2.5610001 -1.2894714 0.55992121 0
2.6660001 -1.2272671 0.56340975 0
2.6620002 -1.2292621 0.56312835 0
2.6590002 -1.2317677 0.56291735 0
2.6550002 -1.2337356 0.5626359 0
2.6510003 -1.235689 0.56235456 0
2.6480002 -1.2381586 0.5621435 0
2.6440003 -1.240085 0.56186211 0
2.6410003 -1.2425309 0.56165105 0
2.6370001 -1.2444303 0.56136966 0
2.6330001 -1.2463154 0.56108826 0
2.6300001 -1.2487252 0.5608772 0
2.6260002 -1.2505832 0.56059581 0
2.6230001 -1.2529695 0.56038475 0
2.6190002 -1.2548004 0.56010336 0
2.6160002 -1.2571634 0.55989236 0
2.6120002 -1.2589673 0.55961096 0
2.6090002 -1.2613069 0.5593999 0
2.6050003 -1.2630836 0.55911851 0
2.6020002 -1.2653996 0.55890745 0
2.5980003 -1.2671493 0.55862606 0
2.5950003 -1.269442 0.558415 0
2.5910003 -1.2711647 0.5581336 0
2.5880003 -1.2734339 0.5579226 0
2.5840001 -1.2751293 0.55764115 0
2.5810001 -1.2773751 0.55743015 0
2.5780003 -1.2796102 0.55721909 0
2.5740001 -1.2812659 0.55693769 0
2.5710001 -1.2834773 0.55672663 0
2.5670002 -1.2851062 0.55644524 0
2.5640001 -1.2872943 0.55623424 0
2.5610001 -1.2894714 0.55602318 0
2.6660001 -1.2272671 0.55932236 0
2.6620002 -1.2292621 0.55904818 0
2.6590002 -1.2317677 0.55884254 0
2.6550002 -1.2337356 0.55856836 0
2.6510003 -1.235689 0.55829418 0
2.6480002 -1.2381586 0.55808854 0
2.6440003 -1.240085 0.55781436 0
2.6410003 -1.2425309 0.55760872 0
2.6370001 -1.2444303 0.55733454 0
2.6330001 -1.2463154 0.55706036 0
2.6300001 -1.2487252 0.55685472 0
2.6260002 -1.2505832 0.55658054 0
2.6230001 -1.2529695 0.55637491 0
2.6190002 -1.2548004 0.55610073 0
2.6160002 -1.2571634 0.55589509 0
2.6120002 -1.2589673 0.55562091 0
2.6090002 -1.2613069 0.55541527 0
2.6050003 -1.2630836 0.55514109 0
2.6020002 -1.2653996 0.55493546 0
2.5980003 -1.2671493 0.55466127 0
2.5950003 -1.269442 0.55445564 0
2.5910003 -1.2711647 0.55418146 0
2.5880003 -1.2734339 0.55397582 0
2.5840001 -1.2751293 0.55370164 0
2.5810001 -1.2773751 0.553496 0
2.5780003 -1.2796102 0.55329043 0
2.5740001 -1.2812659 0.55301619 0
2.5710001 -1.2834773 0.55281055 0
2.5670002 -1.2851062 0.55253637 0
2.5640001 -1.2872943 0.55233079 0
2.5610001 -1.2894714 0.55212516 0
2.6660001 -1.2272671 0.55523491 0
2.6620002 -1.2292621 0.55496794 0
2.6590002 -1.2317677 0.55476773 0
2.6550002 -1.2337356 0.55450076 0
2.6510003 -1.235689 0.55423379 0
2.6480002 -1.2381586 0.55403358 0
2.6440003 -1.240085 0.55376661 0
2.6410003 -1.2425309 0.5535664 0
2.6370001 -1.2444303 0.55329943 0
2.6330001 -1.2463154 0.55303246 0
2.6300001 -1.2487252 0.55283225 0
2.6260002 -1.2505832 0.55256528 0
2.6230001 -1.2529695 0.55236506 0
2.6190002 -1.2548004 0.5520981 0
2.6160002 -1.2571634 0.55189788 0
2.6120002 -1.2589673 0.55163085 0
2.6090002 -1.2613069 0.5514307 0
2.6050003 -1.2630836 0.55116373 0
2.6020002 -1.2653996 0.55096352 0
2.5980003 -1.2671493 0.55069649 0
2.5950003 -1.269442 0.55049628 0
2.5910003 -1.2711647 0.55022931 0
2.5880003 -1.2734339 0.55002916 0
2.5840001 -1.2751293 0.54976213 0
2.5810001 -1.2773751 0.54956192 0
2.5780003 -1.2796102 0.54936171 0
2.5740001 -1.2812659 0.54909474 0
2.5710001 -1.2834773 0.54889452 0
2.5670002 -1.2851062 0.54862756 0
2.5640001 -1.2872943 0.54842734 0
2.5610001 -1.2894714 0.54822707 0
2.6660001 -1.2272671 0.55114746 0
2.6620002 -1.2292621 0.5508877 0
2.6590002 -1.2317677 0.55069292 0
2.6550002 -1.2337356 0.55043316 0
2.6510003 -1.235689 0.5501734 0
2.6480002 -1.2381586 0.54997861 0
2.6440003 -1.240085 0.54971886 0
2.6410003 -1.2425309 0.54952407 0
2.6370001 -1.2444303 0.54926431 0
2.6330001 -1.2463154 0.54900455 0
2.6300001 -1.2487252 0.54880977 0
2.6260002 -1.2505832 0.54855001 0
2.6230001 -1.2529695 0.54835516 0
2.6190002 -1.2548004 0.54809546 0
2.6160002 -1.2571634 0.54790062 0
2.6120002 -1.2589673 0.54764086 0
2.6090002 -1.2613069 0.54744607 0
2.6050003 -1.2630836 0.54718632 0
2.6020002 -1.2653996 0.54699147 0
2.5980003 -1.2671493 0.54673177 0
2.5950003 -1.269442 0.54653692 0
2.5910003 -1.2711647 0.54627717 0
2.5880003 -1.2734339 0.54608238 0
2.5840001 -1.2751293 0.54582262 0
2.5810001 -1.2773751 0.54562783 0
2.5780003 -1.2796102 0.54543304 0
2.5740001 -1.2812659 0.54517329 0
2.5710001 -1.2834773 0.54497844 0
2.5670002 -1.2851062 0.54471868 0
2.5640001 -1.2872943 0.54452389 0
2.5610001 -1.2894714 0.54432905 0
2.6660001 -1.2272671 0.54706001 0
2.6620002 -1.2292621 0.54680753 0
2.6590002 -1.2317677 0.5466181 0
2.6550002 -1.2337356 0.54636556 0
2.6510003 -1.235689 0.54611301 0
2.6480002 -1.2381586 0.54592365 0
2.6440003 -1.240085 0.54567111 0
2.6410003 -1.2425309 0.54548168 0
2.6370001 -1.2444303 0.5452292 0
2.6330001 -1.2463154 0.54497665 0
2.6300001 -1.2487252 0.54478723 0
2.6260002 -1.2505832 0.54453468 0
2.6230001 -1.2529695 0.54434532 0
2.6190002 -1.2548004 0.54409277 0
2.6160002 -1.2571634 0.54390335 0
2.6120002 -1.2589673 0.54365087 0
2.6090002 -1.2613069 0.54346144 0
2.6050003 -1.2630836 0.5432089 0
2.6020002 -1.2653996 0.54301953 0
2.5980003 -1.2671493 0.54276699 0
2.5950003 -1.269442 0.54257756 0
2.5910003 -1.2711647 0.54232502 0
2.5880003 -1.2734339 0.54213566 0
2.5840001 -1.2751293 0.54188311 0
2.5810001 -1.2773751 0.54169369 0
2.5780003 -1.2796102 0.54150432 0
2.5740001 -1.2812659 0.54125178 0
2.5710001 -1.2834773 0.54106236 0
2.5670002 -1.2851062 0.54080987 0
2.5640001 -1.2872943 0.54062045 0
2.5610001 -1.2894714 0.54043102 0
2.6660001 -1.2272671 0.54297262 0
2.6620002 -1.2292621 0.54272729 0
2.6590002 -1.2317677 0.54254329 0
2.6550002 -1.2337356 0.54229796 0
2.6510003 -1.235689 0.54205269 0
2.6480002 -1.2381586 0.54186869 0
2.6440003 -1.240085 0.54162335 0
2.6410003 -1.2425309 0.54143941 0
2.6370001 -1.2444303 0.54119408 0
2.6330001 -1.2463154 0.54094875 0
2.6300001 -1.2487252 0.54076475 0
2.6260002 -1.2505832 0.54051948 0
2.6230001 -1.2529695 0.54033542 0
2.6190002 -1.2548004 0.54009014 0
2.6160002 -1.2571634 0.53990614 0
2.6120002 -1.2589673 0.53966081 0
2.6090002 -1.2613069 0.53947681 0
2.6050003 -1.2630836 0.53923154 0
2.6020002 -1.2653996 0.53904754 0
2.5980003 -1.2671493 0.53880221 0
2.5950003 -1.269442 0.53861821 0
2.5910003 -1.2711647 0.53837293 0
2.5880003 -1.2734339 0.53818893 0
2.5840001 -1.2751293 0.5379436 0
2.5810001 -1.2773751 0.5377596 0
2.5780003 -1.2796102 0.5375756 0
2.5740001 -1.2812659 0.53733027 0
2.5710001 -1.2834773 0.53714633 0
2.5670002 -1.2851062 0.536901 0
2.5640001 -1.2872943 0.536717 0
2.5610001 -1.2894714 0.536533 0
2.6660001 -1.2272671 0.53888518 0
2.6620002 -1.2292621 0.53864706 0
2.6590002 -1.2317677 0.53846848 0
2.6550002 -1.2337356 0.53823042 0
2.6510003 -1.235689 0.5379923 0
2.6480002 -1.2381586 0.53781372 0
2.6440003 -1.240085 0.5375756 0
2.6410003 -1.2425309 0.53739703 0
2.6370001 -1.2444303 0.53715897 0
2.6330001 -1.2463154 0.53692085 0
2.6300001 -1.2487252 0.53674227 0
2.6260002 -1.2505832 0.53650415 0
2.6230001 -1.2529695 0.53632557 0
2.6190002 -1.2548004 0.53608751 0
2.6160002 -1.2571634 0.53590894 0
2.6120002 -1.2589673 0.53567082 0
2.6090002 -1.2613069 0.53549224 0
2.6050003 -1.2630836 0.53525412 0
2.6020002 -1.2653996 0.53507555 0
2.5980003 -1.2671493 0.53483742 0
2.5950003 -1.269442 0.53465885 0
2.5910003 -1.2711647 0.53442079 0
2.5880003 -1.2734339 0.53424221 0
2.5840001 -1.2751293 0.53400409 0
2.5810001 -1.2773751 0.53382552 0
2.5780003 -1.2796102 0.53364694 0
2.5740001 -1.2812659 0.53340882 0
2.5710001 -1.2834773 0.53323025 0
2.5670002 -1.2851062 0.53299212 0
2.5640001 -1.2872943 0.53281355 0
2.5610001 -1.2894714 0.53263497 0
2.6660001 -1.2272671 0.53479779 0
2.6620002 -1.2292621 0.53456688 0
2.6590002 -1.2317677 0.53439367 0
2.6550002 -1.2337356 0.53416282 0
2.6510003 -1.235689 0.53393191 0
2.6480002 -1.2381586 0.53375876 0
2.6440003 -1.240085 0.53352785 0
2.6410003 -1.2425309 0.5333547 0
2.6370001 -1.2444303 0.53312385 0
2.6330001 -1.2463154 0.53289294 0
2.6300001 -1.2487252 0.53271973 0
2.6260002 -1.2505832 0.53248888 0
2.6230001 -1.2529695 0.53231573 0
2.6190002 -1.2548004 0.53208482 0
2.6160002 -1.2571634 0.53191167 0
2.6120002 -1.2589673 0.53168076 0
2.6090002 -1.2613069 0.53150761 0
2.6050003 -1.2630836 0.5312767 0
2.6020002 -1.2653996 0.53110355 0
2.5980003 -1.2671493 0.5308727 0
2.5950003 -1.269442 0.53069949 0
2.5910003 -1.2711647 0.53046864 0
2.5880003 -1.2734339 0.53029549 0
2.5840001 -1.2751293 0.53006458 0
2.5810001 -1.2773751 0.52989137 0
2.5780003 -1.2796102 0.52971822 0
2.5740001 -1.2812659 0.52948737 0
2.5710001 -1.2834773 0.52931416 0
2.5670002 -1.2851062 0.52908331 0
2.5640001 -1.2872943 0.5289101 0
2.5610001 -1.2894714 0.52873695 0
2.6660001 -1.2272671 0.53071034 0
2.6620002 -1.2292621 0.53048664 0
2.6590002 -1.2317677 0.53031892 0
2.6550002 -1.2337356 0.53009522 0
2.6510003 -1.235689 0.52987158 0
2.6480002 -1.2381586 0.5297038 0
2.6440003 -1.240085 0.5294801 0
2.6410003 -1.2425309 0.52931237 0
2.6370001 -1.2444303 0.52908868 0
2.6330001 -1.2463154 0.52886504 0
2.6300001 -1.2487252 0.52869725 0
2.6260002 -1.2505832 0.52847362 0
2.6230001 -1.2529695 0.52830583 0
2.6190002 -1.2548004 0.52808219 0
2.6160002 -1.2571634 0.5279144 0
2.6120002 -1.2589673 0.52769077 0
2.6090002 -1.2613069 0.52752298 0
2.6050003 -1.2630836 0.52729934 0
2.6020002 -1.2653996 0.52713156 0
2.5980003 -1.2671493 0.52690792 0
2.5950003 -1.269442 0.52674013 0
2.5910003 -1.2711647 0.5265165 0
2.5880003 -1.2734339 0.52634871 0
2.5840001 -1.2751293 0.52612507 0
2.5810001 -1.2773751 0.52595729 0
2.5780003 -1.2796102 0.52578956 0
2.5740001 -1.2812659 0.52556586 0
2.5710001 -1.2834773 0.52539814 0
2.5670002 -1.2851062 0.52517444 0
2.5640001 -1.2872943 0.52500665 0
2.5610001 -1.2894714 0.52483892 0
2.6660001 -1.2272671 0.52662289 0
2.6620002 -1.2292621 0.52640641 0
2.6590002 -1.2317677 0.5262441 0
2.6550002 -1.2337356 0.52602762 0
2.6510003 -1.235689 0.5258112 0
2.6480002 -1.2381586 0.52564883 0
2.6440003 -1.240085 0.52543241 0
2.6410003 -1.2425309 0.52527004 0
2.6370001 -1.2444303 0.52505356 0
2.6330001 -1.2463154 0.52483714 0
2.6300001 -1.2487252 0.52467477 0
2.6260002 -1.2505832 0.52445829 0
2.6230001 -1.2529695 0.52429599 0
2.6190002 -1.2548004 0.5240795 0
2.6160002 -1.2571634 0.5239172 0
2.6120002 -1.2589673 0.52370071 0
2.6090002 -1.2613069 0.52353841 0
2.6050003 -1.2630836 0.52332193 0
2.6020002 -1.2653996 0.52315962 0
2.5980003 -1.2671493 0.52294314 0
2.5950003 -1.269442 0.52278078 0
2.5910003 -1.2711647 0.52256435 0
2.5880003 -1.2734339 0.52240199 0
2.5840001 -1.2751293 0.52218556 0
2.5810001 -1.2773751 0.5220232 0
2.5780003 -1.2796102 0.52186084 0
2.5740001 -1.2812659 0.52164435 0
2.5710001 -1.2834773 0.52148205 0
2.5670002 -1.2851062 0.52126557 0
2.5640001 -1.2872943 0.52110326 0
2.5610001 -1.2894714 0.5209409 0
2.6660001 -1.2272671 0.52253544 0
2.6620002 -1.2292621 0.52232623 0
2.6590002 -1.2317677 0.52216929 0
2.6550002 -1.2337356 0.52196008 0
2.6510003 -1.235689 0.52175081 0
2.6480002 -1.2381586 0.52159387 0
2.6440003 -1.240085 0.52138466 0
2.6410003 -1.2425309 0.52122772 0
2.6370001 -1.2444303 0.52101845 0
2.6330001 -1.2463154 0.52080923 0
2.6300001 -1.2487252 0.52065229 0
2.6260002 -1.2505832 0.52044302 0
2.6230001 -1.2529695 0.52028614 0
2.6190002 -1.2548004 0.52007687 0
2.6160002 -1.2571634 0.51991993 0
2.6120002 -1.2589673 0.51971072 0
2.6090002 -1.2613069 0.51955378 0
2.6050003 -1.2630836 0.51934451 0
2.6020002 -1.2653996 0.51918763 0
2.5980003 -1.2671493 0.51897836 0
2.5950003 -1.269442 0.51882142 0
2.5910003 -1.2711647 0.51861221 0
2.5880003 -1.2734339 0.51845527 0
2.5840001 -1.2751293 0.518246 0
2.5810001 -1.2773751 0.51808906 0
2.5780003 -1.2796102 0.51793218 0
2.5740001 -1.2812659 0.5177229 0
2.5710001 -1.2834773 0.51756597 0
2.5670002 -1.2851062 0.51735675 0
2.5640001 -1.2872943 0.51719981 0
2.5610001 -1.2894714 0.51704288 0
2.6660001 -1.2272671 0.51844805 0
2.6620002 -1.2292621 0.518246 0
2.6590002 -1.2317677 0.51809448 0
2.6550002 -1.2337356 0.51789248 0
2.6510003 -1.235689 0.51769042 0
2.6480002 -1.2381586 0.51753891 0
2.6440003 -1.240085 0.51733691 0
2.6410003 -1.2425309 0.51718539 0
2.6370001 -1.2444303 0.51698333 0
2.6330001 -1.2463154 0.51678133 0
2.6300001 -1.2487252 0.51662982 0
2.6260002 -1.2505832 0.51642776 0
2.6230001 -1.2529695 0.51627624 0
2.6190002 -1.2548004 0.51607424 0
2.6160002 -1.2571634 0.51592273 0
2.6120002 -1.2589673 0.51572067 0
2.6090002 -1.2613069 0.51556915 0
2.6050003 -1.2630836 0.51536715 0
2.6020002 -1.2653996 0.51521564 0
2.5980003 -1.2671493 0.51501358 0
2.5950003 -1.269442 0.51486206 0
2.5910003 -1.2711647 0.51466006 0
2.5880003 -1.2734339 0.51450855 0
2.5840001 -1.2751293 0.51430649 0
2.5810001 -1.2773751 0.51415497 0
2.5780003 -1.2796102 0.51400346 0
2.5740001 -1.2812659 0.51380146 0
2.5710001 -1.2834773 0.51364994 0
2.5670002 -1.2851062 0.51344788 0
2.5640001 -1.2872943 0.51329637 0
2.5610001 -1.2894714 0.51314485 0
2.6660001 -1.2272671 0.51436061 0
2.6620002 -1.2292621 0.51416582 0
2.6590002 -1.2317677 0.51401967 0
2.6550002 -1.2337356 0.51382488 0
2.6510003 -1.235689 0.51363009 0
2.6480002 -1.2381586 0.51348394 0
2.6440003 -1.240085 0.51328915 0
2.6410003 -1.2425309 0.51314306 0
2.6370001 -1.2444303 0.51294822 0
2.6330001 -1.2463154 0.51275343 0
2.6300001 -1.2487252 0.51260728 0
2.6260002 -1.2505832 0.51241249 0
2.6230001 -1.2529695 0.5122664 0
2.6190002 -1.2548004 0.51207155 0
2.6160002 -1.2571634 0.51192546 0
2.6120002 -1.2589673 0.51173067 0
2.6090002 -1.2613069 0.51158452 0
2.6050003 -1.2630836 0.51138973 0
2.6020002 -1.2653996 0.51124364 0
2.5980003 -1.2671493 0.51104879 0
2.5950003 -1.269442 0.5109027 0
2.5910003 -1.2711647 0.51070791 0
2.5880003 -1.2734339 0.51056182 0
2.5840001 -1.2751293 0.51036698 0
2.5810001 -1.2773751 0.51022089 0
2.5780003 -1.2796102 0.51007479 0
2.5740001 -1.2812659 0.50987995 0
2.5710001 -1.2834773 0.50973386 0
2.5670002 -1.2851062 0.50953901 0
2.5640001 -1.2872943 0.50939292 0
2.5610001 -1.2894714 0.50924683 0
2.6660001 -1.2272671 0.51027316 0
2.6620002 -1.2292621 0.51008558 0
2.6590002 -1.2317677 0.50994492 0
2.6550002 -1.2337356 0.50975728 0
2.6510003 -1.235689 0.5095697 0
2.6480002 -1.2381586 0.50942898 0
2.6440003 -1.240085 0.5092414 0
2.6410003 -1.2425309 0.50910074 0
2.6370001 -1.2444303 0.5089131 0
2.6330001 -1.2463154 0.50872552 0
2.6300001 -1.2487252 0.5085848 0
2.6260002 -1.2505832 0.50839722 0
2.6230001 -1.2529695 0.50825649 0
2.6190002 -1.2548004 0.50806892 0
2.6160002 -1.2571634 0.50792825 0
2.6120002 -1.2589673 0.50774062 0
2.6090002 -1.2613069 0.50759995 0
2.6050003 -1.2630836 0.50741231 0
2.6020002 -1.2653996 0.50727165 0
2.5980003 -1.2671493 0.50708407 0
2.5950003 -1.269442 0.50694335 0
2.5910003 -1.2711647 0.50675577 0
2.5880003 -1.2734339 0.50661504 0
2.5840001 -1.2751293 0.50642747 0
2.5810001 -1.2773751 0.50628674 0
2.5780003 -1.2796102 0.50614607 0
2.5740001 -1.2812659 0.50595844 0
2.5710001 -1.2834773 0.50581777 0
2.5670002 -1.2851062 0.5056302 0
2.5640001 -1.2872943 0.50548947 0
2.5610001 -1.2894714 0.5053488 0
2.6660001 -1.2272671 0.50618577 0
2.6620002 -1.2292621 0.50600535 0
2.6590002 -1.2317677 0.5058701 0
2.6550002 -1.2337356 0.50568968 0
2.6510003 -1.235689 0.50550932 0
2.6480002 -1.2381586 0.50537401 0
2.6440003 -1.240085 0.50519365 0
2.6410003 -1.2425309 0.50505841 0
2.6370001 -1.2444303 0.50487798 0
2.6330001 -1.2463154 0.50469762 0
2.6300001 -1.2487252 0.50456232 0
2.6260002 -1.2505832 0.50438195 0
2.6230001 -1.2529695 0.50424665 0
2.6190002 -1.2548004 0.50406629 0
2.6160002 -1.2571634 0.50393099 0
2.6120002 -1.2589673 0.50375062 0
2.6090002 -1.2613069 0.50361532 0
2.6050003 -1.2630836 0.50343496 0
2.6020002 -1.2653996 0.50329965 0
2.5980003 -1.2671493 0.50311929 0
2.5950003 -1.269442 0.50298399 0
2.5910003 -1.2711647 0.50280362 0
2.5880003 -1.2734339 0.50266832 0
2.5840001 -1.2751293 0.50248796 0
2.5810001 -1.2773751 0.50235265 0
2.5780003 -1.2796102 0.50221735 0
2.5740001 -1.2812659 0.50203699 0
2.5710001 -1.2834773 0.50190169 0
2.5670002 -1.2851062 0.50172132 0
2.5640001 -1.2872943 0.50158602 0
2.5610001 -1.2894714 0.50145078 0
2.6660001 -1.2272671 0.50209832 0
2.6620002 -1.2292621 0.50192517 0
2.6590002 -1.2317677 0.50179529 0
2.6550002 -1.2337356 0.50162214 0
2.6510003 -1.235689 0.50144893 0
2.6480002 -1.2381586 0.50131905 0
2.6440003 -1.240085 0.5011459 0
2.6410003 -1.2425309 0.50101602 0
2.6370001 -1.2444303 0.50084287 0
2.6330001 -1.2463154 0.50066972 0
2.6300001 -1.2487252 0.50053984 0
2.6260002 -1.2505832 0.50036669 0
2.6230001 -1.2529695 0.50023681 0
2.6190002 -1.2548004 0.50006366 0
2.6160002 -1.2571634 0.49993375 0
2.6120002 -1.2589673 0.4997606 0
2.6090002 -1.2613069 0.49963072 0
2.6050003 -1.2630836 0.49945754 0
2.6020002 -1.2653996 0.49932766 0
2.5980003 -1.2671493 0.49915451 0
2.5950003 -1.269442 0.49902463 0
2.5910003 -1.2711647 0.49885148 0
2.5880003 -1.2734339 0.4987216 0
2.5840001 -1.2751293 0.49854842 0
2.5810001 -1.2773751 0.49841854 0
2.5780003 -1.2796102 0.49828869 0
2.5740001 -1.2812659 0.49811551 0
2.5710001 -1.2834773 0.49798563 0
2.5670002 -1.2851062 0.49781248 0
2.5640001 -1.2872943 0.4976826 0
2.5610001 -1.2894714 0.49755272 0
2.6660001 -1.2272671 0.49801087 0
2.6620002 -1.2292621 0.49784493 0
2.6590002 -1.2317677 0.49772048 0
2.6550002 -1.2337356 0.49755454 0
2.6510003 -1.235689 0.49738857 0
2.6480002 -1.2381586 0.49726412 0
2.6440003 -1.240085 0.49709815 0
2.6410003 -1.2425309 0.49697369 0
2.6370001 -1.2444303 0.49680775 0
2.6330001 -1.2463154 0.49664181 0
2.6300001 -1.2487252 0.49651733 0
2.6260002 -1.2505832 0.49635139 0
2.6230001 -1.2529695 0.49622691 0
2.6190002 -1.2548004 0.49606097 0
2.6160002 -1.2571634 0.49593651 0
2.6120002 -1.2589673 0.49577057 0
2.6090002 -1.2613069 0.49564609 0
2.6050003 -1.2630836 0.49548015 0
2.6020002 -1.2653996 0.4953557 0
2.5980003 -1.2671493 0.49518973 0
2.5950003 -1.269442 0.49506527 0
2.5910003 -1.2711647 0.49489933 0
2.5880003 -1.2734339 0.49477488 0
2.5840001 -1.2751293 0.49460891 0
2.5810001 -1.2773751 0.49448442 0
2.5780003 -1.2796102 0.49436 0
2.5740001 -1.2812659 0.49419403 0
2.5710001 -1.2834773 0.49406958 0
2.5670002 -1.2851062 0.49390361 0
2.5640001 -1.2872943 0.49377915 0
2.5610001 -1.2894714 0.4936547 0
2.6660001 -1.2272671 0.49392346 0
2.6620002 -1.2292621 0.49376473 0
2.6590002 -1.2317677 0.49364567 0
2.6550002 -1.2337356 0.49348694 0
2.6510003 -1.235689 0.49332821 0
2.6480002 -1.2381586 0.49320915 0
2.6440003 -1.240085 0.49305043 0
2.6410003 -1.2425309 0.49293137 0
2.6370001 -1.2444303 0.49277264 0
2.6330001 -1.2463154 0.49261388 0
2.6300001 -1.2487252 0.49249485 0
2.6260002 -1.2505832 0.49233609 0
2.6230001 -1.2529695 0.49221706 0
2.6190002 -1.2548004 0.49205834 0
2.6160002 -1.2571634 0.49193928 0
2.6120002 -1.2589673 0.49178052 0
2.6090002 -1.2613069 0.49166149 0
2.6050003 -1.2630836 0.49150276 0
2.6020002 -1.2653996 0.4913837 0
2.5980003 -1.2671493 0.49122497 0
2.5950003 -1.269442 0.49110591 0
2.5910003 -1.2711647 0.49094719 0
2.5880003 -1.2734339 0.49082813 0
2.5840001 -1.2751293 0.4906694 0
2.5810001 -1.2773751 0.49055034 0
2.5780003 -1.2796102 0.49043131 0
2.5740001 -1.2812659 0.49027255 0
2.5710001 -1.2834773 0.49015349 0
2.5670002 -1.2851062 0.48999476 0
2.5640001 -1.2872943 0.48987573 0
2.5610001 -1.2894714 0.48975664 0
2.6660001 -1.2272671 0.48983604 0
2.6620002 -1.2292621 0.48968452 0
2.6590002 -1.2317677 0.48957086 0
2.6550002 -1.2337356 0.48941934 0
2.6510003 -1.235689 0.48926783 0
2.6480002 -1.2381586 0.48915419 0
2.6440003 -1.240085 0.48900267 0
2.6410003 -1.2425309 0.48888904 0
2.6370001 -1.2444303 0.48873752 0
2.6330001 -1.2463154 0.48858601 0
2.6300001 -1.2487252 0.48847234 0
2.6260002 -1.2505832 0.48832083 0
2.6230001 -1.2529695 0.48820719 0
2.6190002 -1.2548004 0.48805568 0
2.6160002 -1.2571634 0.48794204 0
2.6120002 -1.2589673 0.48779052 0
2.6090002 -1.2613069 0.48767686 0
2.6050003 -1.2630836 0.48752534 0
2.6020002 -1.2653996 0.48741171 0
2.5980003 -1.2671493 0.48726019 0
2.5950003 -1.269442 0.48714656 0
2.5910003 -1.2711647 0.48699504 0
2.5880003 -1.2734339 0.48688141 0
2.5840001 -1.2751293 0.48672986 0
2.5810001 -1.2773751 0.48661622 0
2.5780003 -1.2796102 0.48650259 0
2.5740001 -1.2812659 0.48635107 0
2.5710001 -1.2834773 0.48623744 0
2.5670002 -1.2851062 0.48608592 0
2.5640001 -1.2872943 0.48597229 0
2.5610001 -1.2894714 0.48585862 0
2.6660001 -1.2272671 0.48574859 0
2.6620002 -1.2292621 0.48560429 0
2.6590002 -1.2317677 0.48549607 0
2.6550002 -1.2337356 0.48535177 0
2.6510003 -1.235689 0.48520747 0
2.6480002 -1.2381586 0.48509923 0
2.6440003 -1.240085 0.48495492 0
2.6410003 -1.2425309 0.48484671 0
2.6370001 -1.2444303 0.48470238 0
2.6330001 -1.2463154 0.48455808 0
2.6300001 -1.2487252 0.48444986 0
2.6260002 -1.2505832 0.48430556 0
2.6230001 -1.2529695 0.48419732 0
2.6190002 -1.2548004 0.48405302 0
2.6160002 -1.2571634 0.48394477 0
2.6120002 -1.2589673 0.4838005 0
2.6090002 -1.2613069 0.48369226 0
2.6050003 -1.2630836 0.48354796 0
2.6020002 -1.2653996 0.48343974 0
2.5980003 -1.2671493 0.48329544 0
2.5950003 -1.269442 0.4831872 0
2.5910003 -1.2711647 0.4830429 0
2.5880003 -1.2734339 0.48293465 0
2.5840001 -1.2751293 0.48279035 0
2.5810001 -1.2773751 0.48268211 0
2.5780003 -1.2796102 0.4825739 0
2.5740001 -1.2812659 0.48242959 0
2.5710001 -1.2834773 0.48232135 0
2.5670002 -1.2851062 0.48217705 0
2.5640001 -1.2872943 0.48206884 0
2.5610001 -1.2894714 0.48196059 0
2.6660001 -1.2272671 0.48166117 0
2.6620002 -1.2292621 0.48152408 0
2.6590002 -1.2317677 0.48142126 0
2.6550002 -1.2337356 0.48128417 0
2.6510003 -1.235689 0.48114711 0
2.6480002 -1.2381586 0.48104426 0
2.6440003 -1.240085 0.4809072 0
2.6410003 -1.2425309 0.48080438 0
2.6370001 -1.2444303 0.48066726 0
2.6330001 -1.2463154 0.4805302 0
2.6300001 -1.2487252 0.48042735 0
2.6260002 -1.2505832 0.48029029 0
2.6230001 -1.2529695 0.48018748 0
2.6190002 -1.2548004 0.48005038 0
2.6160002 -1.2571634 0.47994757 0
2.6120002 -1.2589673 0.47981048 0
2.6090002 -1.2613069 0.47970766 0
2.6050003 -1.2630836 0.47957057 0
2.6020002 -1.2653996 0.47946775 0
2.5980003 -1.2671493 0.47933066 0
2.5950003 -1.269442 0.47922784 0
2.5910003 -1.2711647 0.47909075 0
2.5880003 -1.2734339 0.47898793 0
2.5840001 -1.2751293 0.47885084 0
2.5810001 -1.2773751 0.47874802 0
2.5780003 -1.2796102 0.47864521 0
2.5740001 -1.2812659 0.47850811 0
2.5710001 -1.2834773 0.4784053 0
2.5670002 -1.2851062 0.47826821 0
2.5640001 -1.2872943 0.47816539 0
2.5610001 -1.2894714 0.47806257 0
2.6660001 -1.2272671 0.47757375 0
2.6620002 -1.2292621 0.47744387 0
2.6590002 -1.2317677 0.47734648 0
2.6550002 -1.2337356 0.4772166 0
2.6510003 -1.235689 0.47708672 0
2.6480002 -1.2381586 0.47698933 0
2.6440003 -1.240085 0.47685945 0
2.6410003 -1.2425309 0.47676203 0
2.6370001 -1.2444303 0.47663215 0
2.6330001 -1.2463154 0.47650227 0
2.6300001 -1.2487252 0.47640488 0
2.6260002 -1.2505832 0.476275 0
2.6230001 -1.2529695 0.4761776 0
2.6190002 -1.2548004 0.47604772 0
2.6160002 -1.2571634 0.4759503 0
2.6120002 -1.2589673 0.47582045 0
2.6090002 -1.2613069 0.47572303 0
2.6050003 -1.2630836 0.47559315 0
2.6020002 -1.2653996 0.47549576 0
2.5980003 -1.2671493 0.47536588 0
2.5950003 -1.269442 0.47526848 0
2.5910003 -1.2711647 0.4751386 0
2.5880003 -1.2734339 0.47504121 0
2.5840001 -1.2751293 0.47491133 0
2.5810001 -1.2773751 0.47481391 0
2.5780003 -1.2796102 0.47471651 0
2.5740001 -1.2812659 0.47458664 0
2.5710001 -1.2834773 0.47448921 0
2.5670002 -1.2851062 0.47435936 0
2.5640001 -1.2872943 0.47426194 0
2.5610001 -1.2894714 0.47416455 0
2.6660001 -1.2272671 0.4734863 0
2.6620002 -1.2292621 0.47336367 0
2.6590002 -1.2317677 0.47327167 0
2.6550002 -1.2337356 0.473149 0
2.6510003 -1.235689 0.47302634 0
2.6480002 -1.2381586 0.47293437 0
2.6440003 -1.240085 0.4728117 0
2.6410003 -1.2425309 0.4727197 0
2.6370001 -1.2444303 0.47259703 0
2.6330001 -1.2463154 0.4724744 0
2.6300001 -1.2487252 0.47238237 0
2.6260002 -1.2505832 0.47225973 0
2.6230001 -1.2529695 0.47216773 0
2.6190002 -1.2548004 0.47204506 0
2.6160002 -1.2571634 0.47195309 0
2.6120002 -1.2589673 0.47183043 0
2.6090002 -1.2613069 0.47173843 0
2.6050003 -1.2630836 0.47161576 0
2.6020002 -1.2653996 0.47152376 0
2.5980003 -1.2671493 0.47140113 0
2.5950003 -1.269442 0.47130913 0
2.5910003 -1.2711647 0.47118646 0
2.5880003 -1.2734339 0.47109446 0
2.5840001 -1.2751293 0.47097179 0
2.5810001 -1.2773751 0.47087979 0
2.5780003 -1.2796102 0.47078782 0
2.5740001 -1.2812659 0.47066516 0
2.5710001 -1.2834773 0.47057316 0
2.5670002 -1.2851062 0.47045052 0
2.5640001 -1.2872943 0.47035852 0
2.5610001 -1.2894714 0.47026652 0
2.6660001 -1.2272671 0.46939889 0
2.6620002 -1.2292621 0.46928343 0
2.6590002 -1.2317677 0.46919686 0
2.6550002 -1.2337356 0.4690814 0
2.6510003 -1.235689 0.46896598 0
2.6480002 -1.2381586 0.4688794 0
2.6440003 -1.240085 0.46876395 0
2.6410003 -1.2425309 0.46867737 0
2.6370001 -1.2444303 0.46856192 0
2.6330001 -1.2463154 0.46844646 0
2.6300001 -1.2487252 0.46835989 0
2.6260002 -1.2505832 0.46824443 0
2.6230001 -1.2529695 0.46815786 0
2.6190002 -1.2548004 0.46804243 0
2.6160002 -1.2571634 0.46795583 0
2.6120002 -1.2589673 0.4678404 0
2.6090002 -1.2613069 0.46775383 0
2.6050003 -1.2630836 0.46763837 0
2.6020002 -1.2653996 0.4675518 0
2.5980003 -1.2671493 0.46743634 0
2.5950003 -1.269442 0.46734977 0
2.5910003 -1.2711647 0.46723431 0
2.5880003 -1.2734339 0.46714774 0
2.5840001 -1.2751293 0.46703228 0
2.5810001 -1.2773751 0.46694571 0
2.5780003 -1.2796102 0.46685913 0
2.5740001 -1.2812659 0.46674368 0
2.5710001 -1.2834773 0.4666571 0
2.5670002 -1.2851062 0.46654165 0
2.5640001 -1.2872943 0.46645507 0
2.5610001 -1.2894714 0.4663685 0
2.6660001 -1.2272671 0.46531147 0
2.6620002 -1.2292621 0.46520323 0
2.6590002 -1.2317677 0.46512204 0
2.6550002 -1.2337356 0.46501383 0
2.6510003 -1.235689 0.46490559 0
2.6480002 -1.2381586 0.46482444 0
2.6440003 -1.240085 0.4647162 0
2.6410003 -1.2425309 0.46463501 0
2.6370001 -1.2444303 0.4645268 0
2.6330001 -1.2463154 0.46441856 0
2.6300001 -1.2487252 0.46433741 0
2.6260002 -1.2505832 0.46422917 0
2.6230001 -1.2529695 0.46414798 0
2.6190002 -1.2548004 0.46403977 0
2.6160002 -1.2571634 0.46395859 0
2.6120002 -1.2589673 0.46385038 0
2.6090002 -1.2613069 0.4637692 0
2.6050003 -1.2630836 0.46366096 0
2.6020002 -1.2653996 0.4635798 0
2.5980003 -1.2671493 0.46347156 0
2.5950003 -1.269442 0.46339041 0
2.5910003 -1.2711647 0.46328217 0
2.5880003 -1.2734339 0.46320102 0
2.5840001 -1.2751293 0.46309277 0
2.5810001 -1.2773751 0.46301159 0
2.5780003 -1.2796102 0.46293044 0
2.5740001 -1.2812659 0.4628222 0
2.5710001 -1.2834773 0.46274102 0
2.5670002 -1.2851062 0.46263281 0
2.5640001 -1.2872943 0.46255162 0
2.5610001 -1.2894714 0.46247047 0
2.6660001 -1.2272671 0.46122402 0
2.6620002 -1.2292621 0.46112302 0
2.6590002 -1.2317677 0.46104726 0
2.6550002 -1.2337356 0.46094623 0
2.6510003 -1.235689 0.46084523 0
2.6480002 -1.2381586 0.46076947 0
2.6440003 -1.240085 0.46066844 0
2.6410003 -1.2425309 0.46059269 0
2.6370001 -1.2444303 0.46049169 0
2.6330001 -1.2463154 0.46039066 0
2.6300001 -1.2487252 0.4603149 0
2.6260002 -1.2505832 0.4602139 0
2.6230001 -1.2529695 0.46013814 0
2.6190002 -1.2548004 0.46003711 0
2.6160002 -1.2571634 0.45996135 0
2.6120002 -1.2589673 0.45986035 0
2.6090002 -1.2613069 0.4597846 0
2.6050003 -1.2630836 0.45968357 0
2.6020002 -1.2653996 0.45960781 0
2.5980003 -1.2671493 0.45950681 0
2.5950003 -1.269442 0.45943105 0
2.5910003 -1.2711647 0.45933002 0
2.5880003 -1.2734339 0.45925426 0
2.5840001 -1.2751293 0.45915326 0
2.5810001 -1.2773751 0.45907748 0
2.5780003 -1.2796102 0.45900172 0
2.5740001 -1.2812659 0.45890072 0
2.5710001 -1.2834773 0.45882496 0
2.5670002 -1.2851062 0.45872396 0
2.5640001 -1.2872943 0.4586482 0
2.5610001 -1.2894714 0.45857242 0
2.6660001 -1.2272671 0.4571366 0
2.6620002 -1.2292621 0.45704281 0
2.6590002 -1.2317677 0.45697245 0
2.6550002 -1.2337356 0.45687866 0
2.6510003 -1.235689 0.45678484 0
2.6480002 -1.2381586 0.45671451 0
2.6440003 -1.240085 0.45662072 0
2.6410003 -1.2425309 0.45655036 0
2.6370001 -1.2444303 0.45645654 0
2.6330001 -1.2463154 0.45636275 0
2.6300001 -1.2487252 0.45629242 0
2.6260002 -1.2505832 0.45619863 0
2.6230001 -1.2529695 0.45612827 0
2.6190002 -1.2548004 0.45603448 0
2.6160002 -1.2571634 0.45596412 0
2.6120002 -1.2589673 0.45587033 0
2.6090002 -1.2613069 0.45579997 0
2.6050003 -1.2630836 0.45570618 0
2.6020002 -1.2653996 0.45563582 0
2.5980003 -1.2671493 0.45554203 0
2.5950003 -1.269442 0.45547169 0
2.5910003 -1.2711647 0.45537788 0
2.5880003 -1.2734339 0.45530754 0
2.5840001 -1.2751293 0.45521373 0
2.5810001 -1.2773751 0.45514339 0
2.5780003 -1.2796102 0.45507306 0
2.5740001 -1.2812659 0.45497924 0
2.5710001 -1.2834773 0.45490888 0
2.5670002 -1.2851062 0.45481509 0
2.5640001 -1.2872943 0.45474476 0
2.5610001 -1.2894714 0.45467439 0
2.6660001 -1.2272671 0.45304918 0
2.6620002 -1.2292621 0.45296258 0
2.6590002 -1.2317677 0.45289764 0
2.6550002 -1.2337356 0.45281106 0
2.6510003 -1.235689 0.45272449 0
2.6480002 -1.2381586 0.45265955 0
2.6440003 -1.240085 0.45257297 0
2.6410003 -1.2425309 0.45250803 0
2.6370001 -1.2444303 0.45242143 0
2.6330001 -1.2463154 0.45233485 0
2.6300001 -1.2487252 0.45226991 0
2.6260002 -1.2505832 0.45218334 0
2.6230001 -1.2529695 0.4521184 0
2.6190002 -1.2548004 0.45203182 0
2.6160002 -1.2571634 0.45196688 0
2.6120002 -1.2589673 0.45188031 0
2.6090002 -1.2613069 0.45181537 0
2.6050003 -1.2630836 0.45172879 0
2.6020002 -1.2653996 0.45166385 0
2.5980003 -1.2671493 0.45157728 0
2.5950003 -1.269442 0.45151234 0
2.5910003 -1.2711647 0.45142573 0
2.5880003 -1.2734339 0.45136082 0
2.5840001 -1.2751293 0.45127422 0
2.5810001 -1.2773751 0.45120928 0
2.5780003 -1.2796102 0.45114434 0
2.5740001 -1.2812659 0.45105776 0
2.5710001 -1.2834773 0.45099282 0
2.5670002 -1.2851062 0.45090625 0
2.5640001 -1.2872943 0.45084131 0
2.5610001 -1.2894714 0.45077637 0
2.6660001 -1.2272671 0.44896173 0
2.6620002 -1.2292621 0.44888237 0
2.6590002 -1.2317677 0.44882286 0
2.6550002 -1.2337356 0.44874346 0
2.6510003 -1.235689 0.4486641 0
2.6480002 -1.2381586 0.44860458 0
2.6440003 -1.240085 0.44852522 0
2.6410003 -1.2425309 0.4484657 0
2.6370001 -1.2444303 0.44838631 0
2.6330001 -1.2463154 0.44830695 0
2.6300001 -1.2487252 0.44824743 0
2.6260002 -1.2505832 0.44816807 0
2.6230001 -1.2529695 0.44810852 0
2.6190002 -1.2548004 0.44802916 0
2.6160002 -1.2571634 0.44796965 0
2.6120002 -1.2589673 0.44789028 0
2.6090002 -1.2613069 0.44783074 0
2.6050003 -1.2630836 0.44775137 0
2.6020002 -1.2653996 0.44769186 0
2.5980003 -1.2671493 0.44761249 0
2.5950003 -1.269442 0.44755298 0
2.5910003 -1.2711647 0.44747359 0
2.5880003 -1.2734339 0.44741407 0
2.5840001 -1.2751293 0.44733471 0
2.5810001 -1.2773751 0.44727516 0
2.5780003 -1.2796102 0.44721565 0
2.5740001 -1.2812659 0.44713628 0
2.5710001 -1.2834773 0.44707677 0
2.5670002 -1.2851062 0.4469974 0
2.5640001 -1.2872943 0.44693786 0
2.5610001 -1.2894714 0.44687834 0
2.6660001 -1.2272671 0.44487432 0
2.6620002 -1.2292621 0.44480217 0
2.6590002 -1.2317677 0.44474804 0
2.6550002 -1.2337356 0.44467589 0
2.6510003 -1.235689 0.44460374 0
2.6480002 -1.2381586 0.44454962 0
2.6440003 -1.240085 0.44447747 0
2.6410003 -1.2425309 0.44442335 0
2.6370001 -1.2444303 0.4443512 0
2.6330001 -1.2463154 0.44427904 0
2.6300001 -1.2487252 0.44422492 0
2.6260002 -1.2505832 0.44415277 0
2.6230001 -1.2529695 0.44409868 0
2.6190002 -1.2548004 0.44402653 0
2.6160002 -1.2571634 0.44397241 0
2.6120002 -1.2589673 0.44390026 0
2.6090002 -1.2613069 0.44384614 0
2.6050003 -1.2630836 0.44377398 0
2.6020002 -1.2653996 0.44371986 0
2.5980003 -1.2671493 0.44364771 0
2.5950003 -1.269442 0.44359359 0
2.5910003 -1.2711647 0.44352144 0
2.5880003 -1.2734339 0.44346735 0
2.5840001 -1.2751293 0.4433952 0
2.5810001 -1.2773751 0.44334108 0
2.5780003 -1.2796102 0.44328696 0
2.5740001 -1.2812659 0.4432148 0
2.5710001 -1.2834773 0.44316068 0
2.5670002 -1.2851062 0.44308853 0
2.5640001 -1.2872943 0.44303441 0
2.5610001 -1.2894714 0.44298032 0
2.6660001 -1.2272671 0.44078687 0
2.6620002 -1.2292621 0.44072193 0
2.6590002 -1.2317677 0.44067323 0
2.6550002 -1.2337356 0.44060829 0
2.6510003 -1.235689 0.44054335 0
2.6480002 -1.2381586 0.44049466 0
2.6440003 -1.240085 0.44042972 0
2.6410003 -1.2425309 0.44038102 0
2.6370001 -1.2444303 0.44031608 0
2.6330001 -1.2463154 0.44025114 0
2.6300001 -1.2487252 0.44020244 0
2.6260002 -1.2505832 0.44013751 0
2.6230001 -1.2529695 0.44008881 0
2.6190002 -1.2548004 0.44002387 0
2.6160002 -1.2571634 0.43997517 0
2.6120002 -1.2589673 0.43991023 0
2.6090002 -1.2613069 0.43986154 0
2.6050003 -1.2630836 0.4397966 0
2.6020002 -1.2653996 0.43974787 0
2.5980003 -1.2671493 0.43968296 0
2.5950003 -1.269442 0.43963423 0
2.5910003 -1.2711647 0.43956929 0
2.5880003 -1.2734339 0.4395206 0
2.5840001 -1.2751293 0.43945566 0
2.5810001 -1.2773751 0.43940696 0
2.5780003 -1.2796102 0.43935826 0
2.5740001 -1.2812659 0.43929332 0
2.5710001 -1.2834773 0.43924463 0
2.5670002 -1.2851062 0.43917969 0
2.5640001 -1.2872943 0.43913099 0
2.5610001 -1.2894714 0.43908226 0
2.6660001 -1.2272671 0.43669945 0
2.6620002 -1.2292621 0.43664172 0
2.6590002 -1.2317677 0.43659842 0
2.6550002 -1.2337356 0.43654072 0
2.6510003 -1.235689 0.436483 0
2.6480002 -1.2381586 0.43643969 0
2.6440003 -1.240085 0.436382 0
2.6410003 -1.2425309 0.43633869 0
2.6370001 -1.2444303 0.43628097 0
2.6330001 -1.2463154 0.43622324 0
2.6300001 -1.2487252 0.43617994 0
2.6260002 -1.2505832 0.43612224 0
2.6230001 -1.2529695 0.43607894 0
2.6190002 -1.2548004 0.43602121 0
2.6160002 -1.2571634 0.43597794 0
2.6120002 -1.2589673 0.43592021 0
2.6090002 -1.2613069 0.43587691 0
2.6050003 -1.2630836 0.43581921 0
2.6020002 -1.2653996 0.43577591 0
2.5980003 -1.2671493 0.43571818 0
2.5950003 -1.269442 0.43567488 0
2.5910003 -1.2711647 0.43561718 0
2.5880003 -1.2734339 0.43557388 0
2.5840001 -1.2751293 0.43551615 0
2.5810001 -1.2773751 0.43547285 0
2.5780003 -1.2796102 0.43542957 0
2.5740001 -1.2812659 0.43537185 0
2.5710001 -1.2834773 0.43532854 0
2.5670002 -1.2851062 0.43527085 0
2.5640001 -1.2872943 0.43522754 0
2.5610001 -1.2894714 0.43518424 0
2.6660001 -1.2272671 0.43261203 0
2.6620002 -1.2292621 0.43256152 0
2.6590002 -1.2317677 0.43252364 0
2.6550002 -1.2337356 0.43247312 0
2.6510003 -1.235689 0.43242261 0
2.6480002 -1.2381586 0.43238473 0
2.6440003 -1.240085 0.43233424 0
2.6410003 -1.2425309 0.43229637 0
2.6370001 -1.2444303 0.43224585 0
2.6330001 -1.2463154 0.43219534 0
2.6300001 -1.2487252 0.43215746 0
2.6260002 -1.2505832 0.43210694 0
2.6230001 -1.2529695 0.43206906 0
2.6190002 -1.2548004 0.43201858 0
2.6160002 -1.2571634 0.4319807 0
2.6120002 -1.2589673 0.43193018 0
2.6090002 -1.2613069 0.43189231 0
2.6050003 -1.2630836 0.43184179 0
2.6020002 -1.2653996 0.43180391 0
2.5980003 -1.2671493 0.4317534 0
2.5950003 -1.269442 0.43171552 0
2.5910003 -1.2711647 0.43166503 0
2.5880003 -1.2734339 0.43162715 0
2.5840001 -1.2751293 0.43157664 0
2.5810001 -1.2773751 0.43153876 0
2.5780003 -1.2796102 0.43150088 0
2.5740001 -1.2812659 0.43145037 0
2.5710001 -1.2834773 0.43141249 0
2.5670002 -1.2851062 0.43136197 0
2.5640001 -1.2872943 0.43132409 0
2.5610001 -1.2894714 0.43128622 0
2.6660001 -1.2272671 0.42852458 0
2.6620002 -1.2292621 0.42848131 0
2.6590002 -1.2317677 0.42844883 0
2.6550002 -1.2337356 0.42840555 0
2.6510003 -1.235689 0.42836225 0
2.6480002 -1.2381586 0.42832977 0
2.6440003 -1.240085 0.42828649 0
2.6410003 -1.2425309 0.42825401 0
2.6370001 -1.2444303 0.42821074 0
2.6330001 -1.2463154 0.42816743 0
2.6300001 -1.2487252 0.42813498 0
2.6260002 -1.2505832 0.42809168 0
2.6230001 -1.2529695 0.42805922 0
2.6190002 -1.2548004 0.42801592 0
2.6160002 -1.2571634 0.42798346 0
2.6120002 -1.2589673 0.42794016 0
2.6090002 -1.2613069 0.42790768 0
2.6050003 -1.2630836 0.4278644 0
2.6020002 -1.2653996 0.42783192 0
2.5980003 -1.2671493 0.42778865 0
2.5950003 -1.269442 0.42775616 0
2.5910003 -1.2711647 0.42771289 0
2.5880003 -1.2734339 0.4276804 0
2.5840001 -1.2751293 0.42763713 0
2.5810001 -1.2773751 0.42760465 0
2.5780003 -1.2796102 0.42757219 0
2.5740001 -1.2812659 0.42752889 0
2.5710001 -1.2834773 0.42749643 0
2.5670002 -1.2851062 0.42745313 0
2.5640001 -1.2872943 0.42742065 0
2.5610001 -1.2894714 0.42738819 0
2.6660001 -1.2272671 0.42443717 0
2.6620002 -1.2292621 0.42440107 0
2.6590002 -1.2317677 0.42437401 0
2.6550002 -1.2337356 0.42433795 0
2.6510003 -1.235689 0.42430186 0
2.6480002 -1.2381586 0.42427483 0
2.6440003 -1.240085 0.42423874 0
2.6410003 -1.2425309 0.42421168 0
2.6370001 -1.2444303 0.42417562 0
2.6330001 -1.2463154 0.42413953 0
2.6300001 -1.2487252 0.42411247 0
2.6260002 -1.2505832 0.42407641 0
2.6230001 -1.2529695 0.42404935 0
2.6190002 -1.2548004 0.42401326 0
2.6160002 -1.2571634 0.4239862 0
2.6120002 -1.2589673 0.42395014 0
2.6090002 -1.2613069 0.42392308 0
2.6050003 -1.2630836 0.42388701 0
2.6020002 -1.2653996 0.42385995 0
2.5980003 -1.2671493 0.42382386 0
2.5950003 -1.269442 0.4237968 0
2.5910003 -1.2711647 0.42376074 0
2.5880003 -1.2734339 0.42373368 0
2.5840001 -1.2751293 0.42369759 0
2.5810001 -1.2773751 0.42367053 0
2.5780003 -1.2796102 0.4236435 0
2.5740001 -1.2812659 0.42360741 0
2.5710001 -1.2834773 0.42358035 0
2.5670002 -1.2851062 0.42354429 0
2.5640001 -1.2872943 0.42351723 0
2.5610001 -1.2894714 0.42349017 0
2.6660001 -1.2272671 0.42034972 0
2.6620002 -1.2292621 0.42032087 0
2.6590002 -1.2317677 0.42029923 0
2.6550002 -1.2337356 0.42027035 0
2.6510003 -1.235689 0.4202415 0
2.6480002 -1.2381586 0.42021987 0
2.6440003 -1.240085 0.42019099 0
2.6410003 -1.2425309 0.42016935 0
2.6370001 -1.2444303 0.4201405 0
2.6330001 -1.2463154 0.42011163 0
2.6300001 -1.2487252 0.42008999 0
2.6260002 -1.2505832 0.42006111 0
2.6230001 -1.2529695 0.42003947 0
2.6190002 -1.2548004 0.42001063 0
2.6160002 -1.2571634 0.41998896 0
2.6120002 -1.2589673 0.41996011 0
2.6090002 -1.2613069 0.41993847 0
2.6050003 -1.2630836 0.4199096 0
2.6020002 -1.2653996 0.41988796 0
2.5980003 -1.2671493 0.41985911 0
2.5950003 -1.269442 0.41983745 0
2.5910003 -1.2711647 0.4198086 0
2.5880003 -1.2734339 0.41978693 0
2.5840001 -1.2751293 0.41975808 0
2.5810001 -1.2773751 0.41973644 0
2.5780003 -1.2796102 0.41971478 0
2.5740001 -1.2812659 0.41968593 0
2.5710001 -1.2834773 0.41966429 0
2.5670002 -1.2851062 0.41963542 0
2.5640001 -1.2872943 0.41961378 0
2.5610001 -1.2894714 0.41959214 0
2.6660001 -1.2272671 0.4162623 0
2.6620002 -1.2292621 0.41624066 0
2.6590002 -1.2317677 0.41622442 0
2.6550002 -1.2337356 0.41620278 0
2.6510003 -1.235689 0.41618112 0
2.6480002 -1.2381586 0.4161649 0
2.6440003 -1.240085 0.41614324 0
2.6410003 -1.2425309 0.41612703 0
2.6370001 -1.2444303 0.41610536 0
2.6330001 -1.2463154 0.41608372 0
2.6300001 -1.2487252 0.41606748 0
2.6260002 -1.2505832 0.41604584 0
2.6230001 -1.2529695 0.4160296 0
2.6190002 -1.2548004 0.41600797 0
2.6160002 -1.2571634 0.41599172 0
2.6120002 -1.2589673 0.41597009 0
2.6090002 -1.2613069 0.41595384 0
2.6050003 -1.2630836 0.41593221 0
2.6020002 -1.2653996 0.41591597 0
2.5980003 -1.2671493 0.41589433 0
2.5950003 -1.269442 0.41587809 0
2.5910003 -1.2711647 0.41585645 0
2.5880003 -1.2734339 0.41584021 0
2.5840001 -1.2751293 0.41581857 0
2.5810001 -1.2773751 0.41580233 0
2.5780003 -1.2796102 0.41578609 0
2.5740001 -1.2812659 0.41576445 0
2.5710001 -1.2834773 0.41574821 0
2.5670002 -1.2851062 0.41572657 0
2.5640001 -1.2872943 0.41571033 0
2.5610001 -1.2894714 0.41569409 0
2.6660001 -1.2272671 0.41217488 0
2.6620002 -1.2292621 0.41216046 0
2.6590002 -1.2317677 0.41214961 0
2.6550002 -1.2337356 0.41213518 0
2.6510003 -1.235689 0.41212076 0
2.6480002 -1.2381586 0.41210994 0
2.6440003 -1.240085 0.41209552 0
2.6410003 -1.2425309 0.41208467 0
2.6370001 -1.2444303 0.41207024 0
2.6330001 -1.2463154 0.41205582 0
2.6300001 -1.2487252 0.412045 0
2.6260002 -1.2505832 0.41203058 0
2.6230001 -1.2529695 0.41201976 0
2.6190002 -1.2548004 0.41200531 0
2.6160002 -1.2571634 0.41199449 0
2.6120002 -1.2589673 0.41198006 0
