# .PCD v0.7 - Point Cloud Data file format
VERSION 0.7
FIELDS x y z intensity
SIZE 4 4 4 4
TYPE F F F F
COUNT 1 1 1 1
WIDTH 1415
HEIGHT 1
VIEWPOINT 0 0 0 1 0 0 0
POINTS 1415
DATA ascii
2.9110003 -1.4863373 0.69387925 0
2.9080002 -1.4891404 0.69353288 0
3.0520003 -1.3423827 0.70537311 0
3.0490003 -1.3456944 0.70503217 0
3.0460002 -1.3489953 0.70469129 0
3.0430002 -1.3522854 0.70435035 0
3.0400002 -1.3555647 0.70400941 0
3.0370002 -1.3588332 0.70366848 0
3.0330002 -1.3615913 0.70321393 0
3.0300002 -1.3648363 0.70287299 0
3.0270002 -1.3680706 0.70253205 0
3.0240002 -1.371294 0.70219117 0
3.0210001 -1.3745066 0.70185024 0
3.0180001 -1.3777083 0.70150936 0
3.0150001 -1.3808992 0.70116842 0
3.0120003 -1.3840795 0.70082748 0
3.0090003 -1.3872488 0.70048654 0
3.0060003 -1.3904072 0.7001456 0
3.0030003 -1.3935548 0.69980472 0
3.0000002 -1.3966917 0.69946378 0
2.9960003 -1.3992964 0.6990093 0
2.9930003 -1.4024097 0.69866836 0
2.9900002 -1.4055123 0.69832742 0
2.9870002 -1.408604 0.69798648 0
2.9840002 -1.4116849 0.69764555 0
2.9810002 -1.4147549 0.69730467 0
2.9780002 -1.4178141 0.69696373 0
2.9750001 -1.4208626 0.69662279 0
2.9720001 -1.4239002 0.69628185 0
2.9690001 -1.426927 0.69594097 0
2.9660003 -1.4299431 0.69560003 0
2.9630003 -1.4329482 0.69525909 0
2.9610002 -1.4364854 0.69503182 0
2.9580002 -1.4394708 0.69469094 0
2.9550002 -1.4424452 0.69435 0
2.9520001 -1.4454088 0.69400907 0
2.9490001 -1.4483616 0.69366813 0
2.9460001 -1.4513036 0.69332719 0
2.9430003 -1.454235 0.69298637 0
2.9400003 -1.4571553 0.69264543 0
2.9370003 -1.4600648 0.69230449 0
2.9340003 -1.4629636 0.69196355 0
2.9310002 -1.4658514 0.69162261 0
2.9280002 -1.4687284 0.69128174 0
2.9260001 -1.4721593 0.69105446 0
2.9230001 -1.4750165 0.69071352 0
2.9200003 -1.477863 0.69037259 0
2.9170003 -1.4806986 0.69003171 0
2.9140003 -1.4835234 0.68969077 0
2.9110003 -1.4863373 0.68934989 0
2.9080002 -1.4891404 0.68900895 0
3.0520003 -1.3423827 0.70058942 0
3.0490003 -1.3456944 0.70025384 0
3.0460002 -1.3489953 0.69991839 0
3.0430002 -1.3522854 0.69958287 0
3.0400002 -1.3555647 0.69924736 0
3.0370002 -1.3588332 0.69891179 0
3.0330002 -1.3615913 0.69846451 0
3.0300002 -1.3648363 0.698129 0
3.0270002 -1.3680706 0.69779348 0
3.0240002 -1.371294 0.69745797 0
3.0210001 -1.3745066 0.69712245 0
3.0180001 -1.3777083 0.69678694 0
3.0150001 -1.3808992 0.69645143 0
3.0120003 -1.3840795 0.69611597 0
3.0090003 -1.3872488 0.6957804 0
3.0060003 -1.3904072 0.69544494 0
3.0030003 -1.3935548 0.69510943 0
3.0000002 -1.3966917 0.69477391 0
2.9960003 -1.3992964 0.69432652 0
2.9930003 -1.4024097 0.69399107 0
2.9900002 -1.4055123 0.69365555 0
2.9870002 -1.408604 0.69332004 0
2.9840002 -1.4116849 0.69298452 0
2.9810002 -1.4147549 0.69264901 0
2.9780002 -1.4178141 0.69231349 0
2.9750001 -1.4208626 0.69197798 0
2.9720001 -1.4239002 0.69164252 0
2.9690001 -1.426927 0.69130695 0
2.9660003 -1.4299431 0.69097149 0
2.9630003 -1.4329482 0.69063592 0
2.9610002 -1.4364854 0.69041228 0
2.9580002 -1.4394708 0.69007683 0
2.9550002 -1.4424452 0.68974125 0
2.9520001 -1.4454088 0.68940574 0
2.9490001 -1.4483616 0.68907022 0
2.9460001 -1.4513036 0.68873477 0
2.9430003 -1.454235 0.68839926 0
2.9400003 -1.4571553 0.68806374 0
2.9370003 -1.4600648 0.68772823 0
2.9340003 -1.4629636 0.68739271 0
2.9310002 -1.4658514 0.68705726 0
2.9280002 -1.4687284 0.68672168 0
2.9260001 -1.4721593 0.68649805 0
2.9230001 -1.4750165 0.68616247 0
2.9200003 -1.477863 0.68582702 0
2.9170003 -1.4806986 0.68549156 0
2.9140003 -1.4835234 0.68515599 0
2.9110003 -1.4863373 0.68482047 0
2.9080002 -1.4891404 0.68448496 0
3.0520003 -1.3423827 0.69580567 0
3.0490003 -1.3456944 0.69547558 0
3.0460002 -1.3489953 0.69514549 0
3.0430002 -1.3522854 0.6948154 0
3.0400002 -1.3555647 0.69448531 0
3.0370002 -1.3588332 0.69415522 0
3.0330002 -1.3615913 0.6937151 0
3.0300002 -1.3648363 0.693385 0
3.0270002 -1.3680706 0.69305491 0
3.0240002 -1.371294 0.69272482 0
3.0210001 -1.3745066 0.69239461 0
3.0180001 -1.3777083 0.69206452 0
3.0150001 -1.3808992 0.69173443 0
3.0120003 -1.3840795 0.6914044 0
3.0090003 -1.3872488 0.69107431 0
3.0060003 -1.3904072 0.69074422 0
3.0030003 -1.3935548 0.69041407 0
3.0000002 -1.3966917 0.69008398 0
2.9960003 -1.3992964 0.68964386 0
2.9930003 -1.4024097 0.68931377 0
2.9900002 -1.4055123 0.68898368 0
2.9870002 -1.408604 0.68865359 0
2.9840002 -1.4116849 0.6883235 0
2.9810002 -1.4147549 0.68799341 0
2.9780002 -1.4178141 0.68766332 0
2.9750001 -1.4208626 0.68733317 0
2.9720001 -1.4239002 0.68700308 0
2.9690001 -1.426927 0.68667299 0
2.9660003 -1.4299431 0.68634295 0
2.9630003 -1.4329482 0.68601286 0
2.9610002 -1.4364854 0.68579274 0
2.9580002 -1.4394708 0.68546265 0
2.9550002 -1.4424452 0.68513256 0
2.9520001 -1.4454088 0.68480241 0
2.9490001 -1.4483616 0.68447232 0
2.9460001 -1.4513036 0.68414223 0
2.9430003 -1.454235 0.68381214 0
2.9400003 -1.4571553 0.68348205 0
2.9370003 -1.4600648 0.68315196 0
2.9340003 -1.4629636 0.68282187 0
2.9310002 -1.4658514 0.68249178 0
2.9280002 -1.4687284 0.68216169 0
2.9260001 -1.4721593 0.68194163 0
2.9230001 -1.4750165 0.68161154 0
2.9200003 -1.477863 0.68128145 0
2.9170003 -1.4806986 0.68095136 0
2.9140003 -1.4835234 0.68062121 0
2.9110003 -1.4863373 0.68029112 0
2.9080002 -1.4891404 0.67996103 0
3.0520003 -1.3423827 0.69102198 0
3.0490003 -1.3456944 0.69069731 0
3.0460002 -1.3489953 0.69037259 0
3.0430002 -1.3522854 0.69004792 0
3.0400002 -1.3555647 0.68972325 0
3.0370002 -1.3588332 0.68939853 0
3.0330002 -1.3615913 0.68896568 0
3.0300002 -1.3648363 0.68864095 0
3.0270002 -1.3680706 0.68831629 0
3.0240002 -1.371294 0.68799156 0
3.0210001 -1.3745066 0.68766689 0
3.0180001 -1.3777083 0.68734217 0
3.0150001 -1.3808992 0.6870175 0
3.0120003 -1.3840795 0.68669283 0
3.0090003 -1.3872488 0.68636817 0
3.0060003 -1.3904072 0.6860435 0
3.0030003 -1.3935548 0.68571877 0
3.0000002 -1.3966917 0.68539411 0
2.9960003 -1.3992964 0.6849612 0
2.9930003 -1.4024097 0.68463647 0
2.9900002 -1.4055123 0.68431181 0
2.9870002 -1.408604 0.68398714 0
2.9840002 -1.4116849 0.68366241 0
2.9810002 -1.4147549 0.68333775 0
2.9780002 -1.4178141 0.68301308 0
2.9750001 -1.4208626 0.68268836 0
2.9720001 -1.4239002 0.68236369 0
2.9690001 -1.426927 0.68203902 0
2.9660003 -1.4299431 0.6817143 0
2.9630003 -1.4329482 0.68138969 0
2.9610002 -1.4364854 0.68117321 0
2.9580002 -1.4394708 0.68084848 0
2.9550002 -1.4424452 0.68052381 0
2.9520001 -1.4454088 0.68019915 0
2.9490001 -1.4483616 0.67987442 0
2.9460001 -1.4513036 0.67954969 0
2.9430003 -1.454235 0.67922509 0
2.9400003 -1.4571553 0.67890036 0
2.9370003 -1.4600648 0.67857575 0
2.9340003 -1.4629636 0.67825103 0
2.9310002 -1.4658514 0.67792636 0
2.9280002 -1.4687284 0.67760164 0
2.9260001 -1.4721593 0.67738521 0
2.9230001 -1.4750165 0.67706048 0
2.9200003 -1.477863 0.67673582 0
2.9170003 -1.4806986 0.67641115 0
2.9140003 -1.4835234 0.67608643 0
2.9110003 -1.4863373 0.67576176 0
2.9080002 -1.4891404 0.67543709 0
3.0520003 -1.3423827 0.68623829 0
3.0490003 -1.3456944 0.68591905 0
3.0460002 -1.3489953 0.68559974 0
3.0430002 -1.3522854 0.68528044 0
3.0400002 -1.3555647 0.6849612 0
3.0370002 -1.3588332 0.6846419 0
3.0330002 -1.3615913 0.68421626 0
3.0300002 -1.3648363 0.68389696 0
3.0270002 -1.3680706 0.68357766 0
3.0240002 -1.371294 0.68325841 0
3.0210001 -1.3745066 0.68293911 0
3.0180001 -1.3777083 0.68261981 0
3.0150001 -1.3808992 0.68230057 0
3.0120003 -1.3840795 0.68198133 0
3.0090003 -1.3872488 0.68166202 0
3.0060003 -1.3904072 0.68134272 0
3.0030003 -1.3935548 0.68102348 0
3.0000002 -1.3966917 0.68070424 0
2.9960003 -1.3992964 0.68027854 0
2.9930003 -1.4024097 0.67995924 0
2.9900002 -1.4055123 0.67963994 0
2.9870002 -1.408604 0.67932069 0
2.9840002 -1.4116849 0.67900139 0
2.9810002 -1.4147549 0.67868209 0
2.9780002 -1.4178141 0.67836285 0
2.9750001 -1.4208626 0.6780436 0
2.9720001 -1.4239002 0.6777243 0
2.9690001 -1.426927 0.677405 0
2.9660003 -1.4299431 0.67708576 0
2.9630003 -1.4329482 0.67676651 0
2.9610002 -1.4364854 0.67655361 0
2.9580002 -1.4394708 0.67623436 0
2.9550002 -1.4424452 0.67591512 0
2.9520001 -1.4454088 0.67559582 0
2.9490001 -1.4483616 0.67527652 0
2.9460001 -1.4513036 0.67495728 0
2.9430003 -1.454235 0.67463803 0
2.9400003 -1.4571553 0.67431873 0
2.9370003 -1.4600648 0.67399943 0
2.9340003 -1.4629636 0.67368019 0
2.9310002 -1.4658514 0.67336088 0
2.9280002 -1.4687284 0.67304158 0
2.9260001 -1.4721593 0.67282879 0
2.9230001 -1.4750165 0.67250943 0
2.9200003 -1.477863 0.67219019 0
2.9170003 -1.4806986 0.67187095 0
2.9140003 -1.4835234 0.6715517 0
2.9110003 -1.4863373 0.6712324 0
2.9080002 -1.4891404 0.6709131 0
3.0520003 -1.3423827 0.6814546 0
3.0490003 -1.3456944 0.68114072 0
3.0460002 -1.3489953 0.68082684 0
3.0430002 -1.3522854 0.68051302 0
3.0400002 -1.3555647 0.68019915 0
3.0370002 -1.3588332 0.67988527 0
3.0330002 -1.3615913 0.67946678 0
3.0300002 -1.3648363 0.67915297 0
3.0270002 -1.3680706 0.67883909 0
3.0240002 -1.371294 0.67852521 0
3.0210001 -1.3745066 0.67821133 0
3.0180001 -1.3777083 0.67789745 0
3.0150001 -1.3808992 0.67758358 0
3.0120003 -1.3840795 0.67726976 0
3.0090003 -1.3872488 0.67695588 0
3.0060003 -1.3904072 0.67664206 0
3.0030003 -1.3935548 0.67632818 0
3.0000002 -1.3966917 0.6760143 0
2.9960003 -1.3992964 0.67559582 0
2.9930003 -1.4024097 0.675282 0
2.9900002 -1.4055123 0.67496806 0
2.9870002 -1.408604 0.67465425 0
2.9840002 -1.4116849 0.67434037 0
2.9810002 -1.4147549 0.67402649 0
2.9780002 -1.4178141 0.67371261 0
2.9750001 -1.4208626 0.67339873 0
2.9720001 -1.4239002 0.67308486 0
2.9690001 -1.426927 0.67277104 0
2.9660003 -1.4299431 0.67245722 0
2.9630003 -1.4329482 0.67214334 0
2.9610002 -1.4364854 0.67193413 0
2.9580002 -1.4394708 0.67162019 0
2.9550002 -1.4424452 0.67130637 0
2.9520001 -1.4454088 0.67099249 0
2.9490001 -1.4483616 0.67067862 0
2.9460001 -1.4513036 0.67036474 0
2.9430003 -1.454235 0.67005092 0
2.9400003 -1.4571553 0.66973704 0
2.9370003 -1.4600648 0.66942322 0
2.9340003 -1.4629636 0.66910934 0
2.9310002 -1.4658514 0.66879547 0
2.9280002 -1.4687284 0.66848159 0
2.9260001 -1.4721593 0.66827232 0
2.9230001 -1.4750165 0.6679585 0
2.9200003 -1.477863 0.66764462 0
2.9170003 -1.4806986 0.66733074 0
2.9140003 -1.4835234 0.66701692 0
2.9110003 -1.4863373 0.66670305 0
2.9080002 -1.4891404 0.66638917 0
3.0520003 -1.3423827 0.67667091 0
3.0490003 -1.3456944 0.6763624 0
3.0460002 -1.3489953 0.676054 0
3.0430002 -1.3522854 0.67574549 0
3.0400002 -1.3555647 0.67543709 0
3.0370002 -1.3588332 0.67512858 0
3.0330002 -1.3615913 0.67471737 0
3.0300002 -1.3648363 0.67440891 0
3.0270002 -1.3680706 0.6741004 0
3.0240002 -1.371294 0.673792 0
3.0210001 -1.3745066 0.67348355 0
3.0180001 -1.3777083 0.6731751 0
3.0150001 -1.3808992 0.67286664 0
3.0120003 -1.3840795 0.67255819 0
3.0090003 -1.3872488 0.67224979 0
3.0060003 -1.3904072 0.67194128 0
3.0030003 -1.3935548 0.67163283 0
3.0000002 -1.3966917 0.67132437 0
2.9960003 -1.3992964 0.6709131 0
2.9930003 -1.4024097 0.67060471 0
2.9900002 -1.4055123 0.67029619 0
2.9870002 -1.408604 0.6699878 0
2.9840002 -1.4116849 0.66967928 0
2.9810002 -1.4147549 0.66937089 0
2.9780002 -1.4178141 0.66906238 0
2.9750001 -1.4208626 0.66875398 0
2.9720001 -1.4239002 0.66844547 0
2.9690001 -1.426927 0.66813707 0
2.9660003 -1.4299431 0.66782862 0
2.9630003 -1.4329482 0.66752017 0
2.9610002 -1.4364854 0.66731453 0
2.9580002 -1.4394708 0.66700608 0
2.9550002 -1.4424452 0.66669762 0
2.9520001 -1.4454088 0.66638917 0
2.9490001 -1.4483616 0.66608071 0
2.9460001 -1.4513036 0.66577226 0
2.9430003 -1.454235 0.66546381 0
2.9400003 -1.4571553 0.66515541 0
2.9370003 -1.4600648 0.6648469 0
2.9340003 -1.4629636 0.6645385 0
2.9310002 -1.4658514 0.66422999 0
2.9280002 -1.4687284 0.66392159 0
2.9260001 -1.4721593 0.6637159 0
2.9230001 -1.4750165 0.66340744 0
2.9200003 -1.477863 0.66309905 0
2.9170003 -1.4806986 0.6627906 0
2.9140003 -1.4835234 0.66248214 0
2.9110003 -1.4863373 0.66217369 0
2.9080002 -1.4891404 0.66186523 0
3.0520003 -1.3423827 0.67188716 0
3.0490003 -1.3456944 0.67158413 0
3.0460002 -1.3489953 0.6712811 0
3.0430002 -1.3522854 0.67097807 0
3.0400002 -1.3555647 0.67067504 0
3.0370002 -1.3588332 0.67037201 0
3.0330002 -1.3615913 0.66996795 0
3.0300002 -1.3648363 0.66966486 0
3.0270002 -1.3680706 0.66936183 0
3.0240002 -1.371294 0.6690588 0
3.0210001 -1.3745066 0.66875577 0
3.0180001 -1.3777083 0.66845274 0
3.0150001 -1.3808992 0.66814971 0
3.0120003 -1.3840795 0.66784668 0
3.0090003 -1.3872488 0.66754365 0
3.0060003 -1.3904072 0.66724056 0
3.0030003 -1.3935548 0.66693753 0
3.0000002 -1.3966917 0.6666345 0
2.9960003 -1.3992964 0.66623044 0
2.9930003 -1.4024097 0.66592741 0
2.9900002 -1.4055123 0.66562438 0
2.9870002 -1.408604 0.66532135 0
2.9840002 -1.4116849 0.66501832 0
2.9810002 -1.4147549 0.66471529 0
2.9780002 -1.4178141 0.6644122 0
2.9750001 -1.4208626 0.66410911 0
2.9720001 -1.4239002 0.66380608 0
2.9690001 -1.426927 0.66350305 0
2.9660003 -1.4299431 0.66320002 0
2.9630003 -1.4329482 0.66289699 0
2.9610002 -1.4364854 0.66269493 0
2.9580002 -1.4394708 0.6623919 0
2.9550002 -1.4424452 0.66208887 0
2.9520001 -1.4454088 0.66178584 0
2.9490001 -1.4483616 0.66148281 0
2.9460001 -1.4513036 0.66117978 0
2.9430003 -1.454235 0.66087675 0
2.9400003 -1.4571553 0.66057372 0
2.9370003 -1.4600648 0.66027069 0
2.9340003 -1.4629636 0.65996766 0
2.9310002 -1.4658514 0.65966457 0
2.9280002 -1.4687284 0.65936154 0
2.9260001 -1.4721593 0.65915948 0
2.9230001 -1.4750165 0.65885645 0
2.9200003 -1.477863 0.65855348 0
2.9170003 -1.4806986 0.65825039 0
2.9140003 -1.4835234 0.65794736 0
2.9110003 -1.4863373 0.65764433 0
2.9080002 -1.4891404 0.65734124 0
3.0520003 -1.3423827 0.66710353 0
3.0490003 -1.3456944 0.66680586 0
3.0460002 -1.3489953 0.6665082 0
3.0430002 -1.3522854 0.66621059 0
3.0400002 -1.3555647 0.66591299 0
3.0370002 -1.3588332 0.66561532 0
3.0330002 -1.3615913 0.66521847 0
3.0300002 -1.3648363 0.66492087 0
3.0270002 -1.3680706 0.66462326 0
3.0240002 -1.371294 0.66432559 0
3.0210001 -1.3745066 0.66402799 0
3.0180001 -1.3777083 0.66373038 0
3.0150001 -1.3808992 0.66343272 0
3.0120003 -1.3840795 0.66313517 0
3.0090003 -1.3872488 0.66283751 0
3.0060003 -1.3904072 0.66253984 0
3.0030003 -1.3935548 0.66224223 0
3.0000002 -1.3966917 0.66194463 0
2.9960003 -1.3992964 0.66154778 0
2.9930003 -1.4024097 0.66125011 0
2.9900002 -1.4055123 0.66095251 0
2.9870002 -1.408604 0.6606549 0
2.9840002 -1.4116849 0.66035724 0
2.9810002 -1.4147549 0.66005957 0
2.9780002 -1.4178141 0.65976202 0
2.9750001 -1.4208626 0.65946436 0
2.9720001 -1.4239002 0.65916669 0
2.9690001 -1.426927 0.65886909 0
2.9660003 -1.4299431 0.65857148 0
2.9630003 -1.4329482 0.65827382 0
2.9610002 -1.4364854 0.65807545 0
2.9580002 -1.4394708 0.65777779 0
2.9550002 -1.4424452 0.65748018 0
2.9520001 -1.4454088 0.65718251 0
2.9490001 -1.4483616 0.65688491 0
2.9460001 -1.4513036 0.65658724 0
2.9430003 -1.454235 0.65628964 0
2.9400003 -1.4571553 0.65599203 0
2.9370003 -1.4600648 0.65569437 0
2.9340003 -1.4629636 0.65539676 0
2.9310002 -1.4658514 0.65509915 0
2.9280002 -1.4687284 0.65480149 0
2.9260001 -1.4721593 0.65460312 0
2.9230001 -1.4750165 0.65430546 0
2.9200003 -1.477863 0.65400779 0
2.9170003 -1.4806986 0.65371025 0
2.9140003 -1.4835234 0.65341258 0
2.9110003 -1.4863373 0.65311497 0
2.9080002 -1.4891404 0.65281731 0
3.0520003 -1.3423827 0.66231978 0
3.0490003 -1.3456944 0.6620276 0
3.0460002 -1.3489953 0.66173536 0
3.0430002 -1.3522854 0.66144311 0
3.0400002 -1.3555647 0.66115093 0
3.0370002 -1.3588332 0.66085869 0
3.0330002 -1.3615913 0.66046906 0
3.0300002 -1.3648363 0.66017687 0
3.0270002 -1.3680706 0.65988463 0
3.0240002 -1.371294 0.65959239 0
3.0210001 -1.3745066 0.65930021 0
3.0180001 -1.3777083 0.65900803 0
3.0150001 -1.3808992 0.65871578 0
3.0120003 -1.3840795 0.65842354 0
3.0090003 -1.3872488 0.65813136 0
3.0060003 -1.3904072 0.65783918 0
3.0030003 -1.3935548 0.65754688 0
3.0000002 -1.3966917 0.6572547 0
2.9960003 -1.3992964 0.65686506 0
2.9930003 -1.4024097 0.65657282 0
2.9900002 -1.4055123 0.65628064 0
2.9870002 -1.408604 0.65598845 0
2.9840002 -1.4116849 0.65569621 0
2.9810002 -1.4147549 0.65540397 0
2.9780002 -1.4178141 0.65511179 0
2.9750001 -1.4208626 0.65481955 0
2.9720001 -1.4239002 0.65452731 0
2.9690001 -1.426927 0.65423512 0
2.9660003 -1.4299431 0.65394288 0
2.9630003 -1.4329482 0.6536507 0
2.9610002 -1.4364854 0.65345585 0
2.9580002 -1.4394708 0.65316367 0
2.9550002 -1.4424452 0.65287143 0
2.9520001 -1.4454088 0.65257919 0
2.9490001 -1.4483616 0.65228701 0
2.9460001 -1.4513036 0.65199476 0
2.9430003 -1.454235 0.65170258 0
2.9400003 -1.4571553 0.65141034 0
2.9370003 -1.4600648 0.65111816 0
2.9340003 -1.4629636 0.65082592 0
2.9310002 -1.4658514 0.65053368 0
2.9280002 -1.4687284 0.65024149 0
2.9260001 -1.4721593 0.65004671 0
2.9230001 -1.4750165 0.64975446 0
2.9200003 -1.477863 0.64946222 0
2.9170003 -1.4806986 0.64917004 0
2.9140003 -1.4835234 0.6488778 0
2.9110003 -1.4863373 0.64858556 0
2.9080002 -1.4891404 0.64829338 0
3.0520003 -1.3423827 0.65753609 0
3.0490003 -1.3456944 0.65724927 0
3.0460002 -1.3489953 0.65696251 0
3.0430002 -1.3522854 0.6566757 0
3.0400002 -1.3555647 0.65638888 0
3.0370002 -1.3588332 0.65610206 0
3.0330002 -1.3615913 0.65571964 0
3.0300002 -1.3648363 0.65543282 0
3.0270002 -1.3680706 0.655146 0
3.0240002 -1.371294 0.65485924 0
3.0210001 -1.3745066 0.65457243 0
3.0180001 -1.3777083 0.65428561 0
3.0150001 -1.3808992 0.65399879 0
3.0120003 -1.3840795 0.65371203 0
3.0090003 -1.3872488 0.65342522 0
3.0060003 -1.3904072 0.6531384 0
3.0030003 -1.3935548 0.65285158 0
3.0000002 -1.3966917 0.65256476 0
2.9960003 -1.3992964 0.6521824 0
2.9930003 -1.4024097 0.65189558 0
2.9900002 -1.4055123 0.65160877 0
2.9870002 -1.408604 0.65132195 0
2.9840002 -1.4116849 0.65103519 0
2.9810002 -1.4147549 0.65074837 0
2.9780002 -1.4178141 0.65046155 0
2.9750001 -1.4208626 0.65017474 0
2.9720001 -1.4239002 0.64988792 0
2.9690001 -1.426927 0.6496011 0
2.9660003 -1.4299431 0.64931434 0
2.9630003 -1.4329482 0.64902753 0
2.9610002 -1.4364854 0.64883631 0
2.9580002 -1.4394708 0.6485495 0
2.9550002 -1.4424452 0.64826274 0
2.9520001 -1.4454088 0.64797586 0
2.9490001 -1.4483616 0.6476891 0
2.9460001 -1.4513036 0.64740229 0
2.9430003 -1.454235 0.64711547 0
2.9400003 -1.4571553 0.64682865 0
2.9370003 -1.4600648 0.64654189 0
2.9340003 -1.4629636 0.64625508 0
2.9310002 -1.4658514 0.64596826 0
2.9280002 -1.4687284 0.64568144 0
2.9260001 -1.4721593 0.64549029 0
2.9230001 -1.4750165 0.64520341 0
2.9200003 -1.477863 0.64491665 0
2.9170003 -1.4806986 0.64462984 0
2.9140003 -1.4835234 0.64434302 0
2.9110003 -1.4863373 0.6440562 0
2.9080002 -1.4891404 0.64376944 0
3.0520003 -1.3423827 0.6527524 0
3.0490003 -1.3456944 0.65247101 0
3.0460002 -1.3489953 0.65218961 0
3.0430002 -1.3522854 0.65190822 0
3.0400002 -1.3555647 0.65162683 0
3.0370002 -1.3588332 0.65134543 0
3.0330002 -1.3615913 0.65097022 0
3.0300002 -1.3648363 0.65068883 0
3.0270002 -1.3680706 0.65040743 0
3.0240002 -1.371294 0.65012604 0
3.0210001 -1.3745066 0.64984465 0
3.0180001 -1.3777083 0.64956325 0
3.0150001 -1.3808992 0.64928186 0
3.0120003 -1.3840795 0.64900047 0
3.0090003 -1.3872488 0.64871907 0
3.0060003 -1.3904072 0.64843768 0
3.0030003 -1.3935548 0.64815629 0
3.0000002 -1.3966917 0.64787489 0
2.9960003 -1.3992964 0.64749968 0
2.9930003 -1.4024097 0.64721835 0
2.9900002 -1.4055123 0.64693689 0
2.9870002 -1.408604 0.6466555 0
2.9840002 -1.4116849 0.64637411 0
2.9810002 -1.4147549 0.64609271 0
2.9780002 -1.4178141 0.64581132 0
2.9750001 -1.4208626 0.64552993 0
2.9720001 -1.4239002 0.64524853 0
2.9690001 -1.426927 0.64496714 0
2.9660003 -1.4299431 0.64468575 0
2.9630003 -1.4329482 0.64440441 0
2.9610002 -1.4364854 0.64421678 0
2.9580002 -1.4394708 0.64393538 0
2.9550002 -1.4424452 0.64365399 0
2.9520001 -1.4454088 0.6433726 0
2.9490001 -1.4483616 0.6430912 0
2.9460001 -1.4513036 0.64280975 0
2.9430003 -1.454235 0.64252841 0
2.9400003 -1.4571553 0.64224702 0
2.9370003 -1.4600648 0.64196563 0
2.9340003 -1.4629636 0.64168423 0
2.9310002 -1.4658514 0.64140284 0
2.9280002 -1.4687284 0.64112145 0
2.9260001 -1.4721593 0.64093381 0
2.9230001 -1.4750165 0.64065242 0
2.9200003 -1.477863 0.64037108 0
2.9170003 -1.4806986 0.64008963 0
2.9140003 -1.4835234 0.6398083 0
2.9110003 -1.4863373 0.63952684 0
2.9080002 -1.4891404 0.63924545 0
3.0520003 -1.3423827 0.64796871 0
3.0490003 -1.3456944 0.64769268 0
3.0460002 -1.3489953 0.64741671 0
3.0430002 -1.3522854 0.64714074 0
3.0400002 -1.3555647 0.64686477 0
3.0370002 -1.3588332 0.64658874 0
3.0330002 -1.3615913 0.6462208 0
3.0300002 -1.3648363 0.64594483 0
3.0270002 -1.3680706 0.64566886 0
3.0240002 -1.371294 0.64539284 0
3.0210001 -1.3745066 0.64511687 0
3.0180001 -1.3777083 0.6448409 0
3.0150001 -1.3808992 0.64456487 0
3.0120003 -1.3840795 0.6442889 0
3.0090003 -1.3872488 0.64401293 0
3.0060003 -1.3904072 0.64373696 0
3.0030003 -1.3935548 0.64346099 0
3.0000002 -1.3966917 0.64318502 0
2.9960003 -1.3992964 0.64281702 0
2.9930003 -1.4024097 0.64254105 0
2.9900002 -1.4055123 0.64226508 0
2.9870002 -1.408604 0.64198905 0
2.9840002 -1.4116849 0.64171308 0
2.9810002 -1.4147549 0.64143711 0
2.9780002 -1.4178141 0.64116108 0
2.9750001 -1.4208626 0.64088511 0
2.9720001 -1.4239002 0.64060915 0
2.9690001 -1.426927 0.64033318 0
2.9660003 -1.4299431 0.64005721 0
2.9630003 -1.4329482 0.63978124 0
2.9610002 -1.4364854 0.63959718 0
2.9580002 -1.4394708 0.63932121 0
2.9550002 -1.4424452 0.63904524 0
2.9520001 -1.4454088 0.63876927 0
2.9490001 -1.4483616 0.6384933 0
2.9460001 -1.4513036 0.63821727 0
2.9430003 -1.454235 0.6379413 0
2.9400003 -1.4571553 0.63766533 0
2.9370003 -1.4600648 0.63738936 0
2.9340003 -1.4629636 0.63711339 0
2.9310002 -1.4658514 0.63683736 0
2.9280002 -1.4687284 0.63656139 0
2.9260001 -1.4721593 0.63637739 0
2.9230001 -1.4750165 0.63610142 0
2.9200003 -1.477863 0.63582546 0
2.9170003 -1.4806986 0.63554943 0
2.9140003 -1.4835234 0.63527346 0
2.9110003 -1.4863373 0.63499749 0
2.9080002 -1.4891404 0.63472152 0
3.0520003 -1.3423827 0.64318502 0
3.0490003 -1.3456944 0.64291441 0
3.0460002 -1.3489953 0.64264381 0
3.0430002 -1.3522854 0.64237326 0
3.0400002 -1.3555647 0.64210272 0
3.0370002 -1.3588332 0.64183211 0
3.0330002 -1.3615913 0.64147139 0
3.0300002 -1.3648363 0.64120078 0
3.0270002 -1.3680706 0.64093024 0
3.0240002 -1.371294 0.64065963 0
3.0210001 -1.3745066 0.64038908 0
3.0180001 -1.3777083 0.64011848 0
3.0150001 -1.3808992 0.63984793 0
3.0120003 -1.3840795 0.63957739 0
3.0090003 -1.3872488 0.63930678 0
3.0060003 -1.3904072 0.63903624 0
3.0030003 -1.3935548 0.63876569 0
3.0000002 -1.3966917 0.63849509 0
2.9960003 -1.3992964 0.6381343 0
2.9930003 -1.4024097 0.63786376 0
2.9900002 -1.4055123 0.63759315 0
2.9870002 -1.408604 0.6373226 0
2.9840002 -1.4116849 0.63705206 0
2.9810002 -1.4147549 0.63678145 0
2.9780002 -1.4178141 0.63651091 0
2.9750001 -1.4208626 0.6362403 0
2.9720001 -1.4239002 0.63596976 0
2.9690001 -1.426927 0.63569915 0
2.9660003 -1.4299431 0.63542867 0
2.9630003 -1.4329482 0.63515806 0
2.9610002 -1.4364854 0.63497764 0
2.9580002 -1.4394708 0.63470709 0
2.9550002 -1.4424452 0.63443649 0
2.9520001 -1.4454088 0.63416594 0
2.9490001 -1.4483616 0.6338954 0
2.9460001 -1.4513036 0.63362479 0
2.9430003 -1.454235 0.63335425 0
2.9400003 -1.4571553 0.63308364 0
2.9370003 -1.4600648 0.6328131 0
2.9340003 -1.4629636 0.63254249 0
2.9310002 -1.4658514 0.63227195 0
2.9280002 -1.4687284 0.6320014 0
2.9260001 -1.4721593 0.63182098 0
2.9230001 -1.4750165 0.63155043 0
2.9200003 -1.477863 0.63127983 0
2.9170003 -1.4806986 0.63100928 0
2.9140003 -1.4835234 0.63073874 0
2.9110003 -1.4863373 0.63046813 0
2.9080002 -1.4891404 0.63019758 0
3.0520003 -1.3423827 0.63840127 0
3.0490003 -1.3456944 0.63813615 0
3.0460002 -1.3489953 0.63787097 0
3.0430002 -1.3522854 0.63760579 0
3.0400002 -1.3555647 0.63734066 0
3.0370002 -1.3588332 0.63707548 0
3.0330002 -1.3615913 0.63672197 0
3.0300002 -1.3648363 0.63645679 0
3.0270002 -1.3680706 0.63619161 0
3.0240002 -1.371294 0.63592649 0
3.0210001 -1.3745066 0.6356613 0
3.0180001 -1.3777083 0.63539612 0
3.0150001 -1.3808992 0.63513094 0
3.0120003 -1.3840795 0.63486582 0
3.0090003 -1.3872488 0.63460064 0
3.0060003 -1.3904072 0.63433552 0
3.0030003 -1.3935548 0.63407034 0
3.0000002 -1.3966917 0.63380516 0
2.9960003 -1.3992964 0.63345164 0
2.9930003 -1.4024097 0.63318646 0
2.9900002 -1.4055123 0.63292134 0
2.9870002 -1.408604 0.63265616 0
2.9840002 -1.4116849 0.63239098 0
2.9810002 -1.4147549 0.63212585 0
2.9780002 -1.4178141 0.63186067 0
2.9750001 -1.4208626 0.63159549 0
2.9720001 -1.4239002 0.63133037 0
2.9690001 -1.426927 0.63106519 0
2.9660003 -1.4299431 0.63080001 0
2.9630003 -1.4329482 0.63053489 0
2.9610002 -1.4364854 0.6303581 0
2.9580002 -1.4394708 0.63009292 0
2.9550002 -1.4424452 0.62982774 0
2.9520001 -1.4454088 0.62956262 0
2.9490001 -1.4483616 0.62929744 0
2.9460001 -1.4513036 0.62903231 0
2.9430003 -1.454235 0.62876713 0
2.9400003 -1.4571553 0.62850201 0
2.9370003 -1.4600648 0.62823683 0
2.9340003 -1.4629636 0.62797165 0
2.9310002 -1.4658514 0.62770653 0
2.9280002 -1.4687284 0.62744135 0
2.9260001 -1.4721593 0.62726456 0
2.9230001 -1.4750165 0.62699938 0
2.9200003 -1.477863 0.62673426 0
2.9170003 -1.4806986 0.62646914 0
2.9140003 -1.4835234 0.62620395 0
2.9110003 -1.4863373 0.62593877 0
2.9080002 -1.4891404 0.62567365 0
3.0520003 -1.3423827 0.63361758 0
3.0490003 -1.3456944 0.63335782 0
3.0460002 -1.3489953 0.63309813 0
3.0430002 -1.3522854 0.63283837 0
3.0400002 -1.3555647 0.63257861 0
3.0370002 -1.3588332 0.63231885 0
3.0330002 -1.3615913 0.63197249 0
3.0300002 -1.3648363 0.63171279 0
3.0270002 -1.3680706 0.63145304 0
3.0240002 -1.371294 0.63119328 0
3.0210001 -1.3745066 0.63093352 0
3.0180001 -1.3777083 0.63067377 0
3.0150001 -1.3808992 0.63041401 0
3.0120003 -1.3840795 0.63015425 0
3.0090003 -1.3872488 0.62989455 0
3.0060003 -1.3904072 0.6296348 0
3.0030003 -1.3935548 0.62937504 0
3.0000002 -1.3966917 0.62911528 0
2.9960003 -1.3992964 0.62876892 0
2.9930003 -1.4024097 0.62850916 0
2.9900002 -1.4055123 0.62824947 0
2.9870002 -1.408604 0.62798971 0
2.9840002 -1.4116849 0.62772995 0
2.9810002 -1.4147549 0.6274702 0
2.9780002 -1.4178141 0.62721044 0
2.9750001 -1.4208626 0.62695074 0
2.9720001 -1.4239002 0.62669098 0
2.9690001 -1.426927 0.62643123 0
2.9660003 -1.4299431 0.62617147 0
2.9630003 -1.4329482 0.62591171 0
2.9610002 -1.4364854 0.62573856 0
2.9580002 -1.4394708 0.6254788 0
2.9550002 -1.4424452 0.62521905 0
2.9520001 -1.4454088 0.62495929 0
2.9490001 -1.4483616 0.62469959 0
2.9460001 -1.4513036 0.62443984 0
2.9430003 -1.454235 0.62418008 0
2.9400003 -1.4571553 0.62392032 0
2.9370003 -1.4600648 0.62366056 0
2.9340003 -1.4629636 0.62340081 0
2.9310002 -1.4658514 0.62314105 0
2.9280002 -1.4687284 0.62288129 0
2.9260001 -1.4721593 0.62270814 0
2.9230001 -1.4750165 0.62244838 0
2.9200003 -1.477863 0.62218869 0
2.9170003 -1.4806986 0.62192893 0
2.9140003 -1.4835234 0.62166917 0
2.9110003 -1.4863373 0.62140942 0
2.9080002 -1.4891404 0.62114966 0
3.0520003 -1.3423827 0.62883389 0
3.0490003 -1.3456944 0.62857956 0
3.0460002 -1.3489953 0.62832522 0
3.0430002 -1.3522854 0.62807089 0
3.0400002 -1.3555647 0.62781656 0
3.0370002 -1.3588332 0.62756217 0
3.0330002 -1.3615913 0.62722307 0
3.0300002 -1.3648363 0.62696874 0
3.0270002 -1.3680706 0.62671441 0
3.0240002 -1.371294 0.62646008 0
3.0210001 -1.3745066 0.62620574 0
3.0180001 -1.3777083 0.62595141 0
3.0150001 -1.3808992 0.62569702 0
3.0120003 -1.3840795 0.62544274 0
3.0090003 -1.3872488 0.62518841 0
3.0060003 -1.3904072 0.62493408 0
3.0030003 -1.3935548 0.62467974 0
3.0000002 -1.3966917 0.62442541 0
2.9960003 -1.3992964 0.62408626 0
2.9930003 -1.4024097 0.62383193 0
2.9900002 -1.4055123 0.62357759 0
2.9870002 -1.408604 0.62332326 0
2.9840002 -1.4116849 0.62306893 0
2.9810002 -1.4147549 0.6228146 0
2.9780002 -1.4178141 0.62256026 0
2.9750001 -1.4208626 0.62230587 0
2.9720001 -1.4239002 0.6220516 0
2.9690001 -1.426927 0.6217972 0
2.9660003 -1.4299431 0.62154293 0
2.9630003 -1.4329482 0.62128854 0
2.9610002 -1.4364854 0.62111902 0
2.9580002 -1.4394708 0.62086463 0
2.9550002 -1.4424452 0.62061036 0
2.9520001 -1.4454088 0.62035596 0
2.9490001 -1.4483616 0.62010163 0
2.9460001 -1.4513036 0.6198473 0
2.9430003 -1.454235 0.61959302 0
2.9400003 -1.4571553 0.61933863 0
2.9370003 -1.4600648 0.6190843 0
2.9340003 -1.4629636 0.61882997 0
2.9310002 -1.4658514 0.61857563 0
2.9280002 -1.4687284 0.6183213 0
2.9260001 -1.4721593 0.61815172 0
2.9230001 -1.4750165 0.61789739 0
2.9200003 -1.477863 0.61764306 0
2.9170003 -1.4806986 0.61738873 0
2.9140003 -1.4835234 0.61713439 0
2.9110003 -1.4863373 0.61688006 0
2.9080002 -1.4891404 0.61662573 0
3.0520003 -1.3423827 0.6240502 0
3.0490003 -1.3456944 0.62380123 0
3.0460002 -1.3489953 0.62355232 0
3.0430002 -1.3522854 0.62330341 0
3.0400002 -1.3555647 0.6230545 0
3.0370002 -1.3588332 0.62280554 0
3.0330002 -1.3615913 0.62247366 0
3.0300002 -1.3648363 0.62222475 0
3.0270002 -1.3680706 0.62197578 0
3.0240002 -1.371294 0.62172687 0
3.0210001 -1.3745066 0.62147796 0
3.0180001 -1.3777083 0.62122905 0
3.0150001 -1.3808992 0.62098008 0
3.0120003 -1.3840795 0.62073117 0
3.0090003 -1.3872488 0.62048227 0
3.0060003 -1.3904072 0.6202333 0
3.0030003 -1.3935548 0.61998439 0
3.0000002 -1.3966917 0.61973548 0
2.9960003 -1.3992964 0.6194036 0
2.9930003 -1.4024097 0.61915469 0
2.9900002 -1.4055123 0.61890572 0
2.9870002 -1.408604 0.61865681 0
2.9840002 -1.4116849 0.61840785 0
2.9810002 -1.4147549 0.61815894 0
2.9780002 -1.4178141 0.61791003 0
2.9750001 -1.4208626 0.61766112 0
2.9720001 -1.4239002 0.61741215 0
2.9690001 -1.426927 0.61716324 0
2.9660003 -1.4299431 0.61691433 0
2.9630003 -1.4329482 0.61666542 0
2.9610002 -1.4364854 0.61649942 0
2.9580002 -1.4394708 0.61625051 0
2.9550002 -1.4424452 0.61600161 0
2.9520001 -1.4454088 0.61575264 0
2.9490001 -1.4483616 0.61550373 0
2.9460001 -1.4513036 0.61525482 0
2.9430003 -1.454235 0.61500591 0
2.9400003 -1.4571553 0.61475694 0
2.9370003 -1.4600648 0.61450803 0
2.9340003 -1.4629636 0.61425912 0
2.9310002 -1.4658514 0.61401021 0
2.9280002 -1.4687284 0.61376125 0
2.9260001 -1.4721593 0.61359531 0
2.9230001 -1.4750165 0.6133464 0
2.9200003 -1.477863 0.61309749 0
2.9170003 -1.4806986 0.61284852 0
2.9140003 -1.4835234 0.61259961 0
2.9110003 -1.4863373 0.6123507 0
2.9080002 -1.4891404 0.61210179 0
3.0520003 -1.3423827 0.61926651 0
3.0490003 -1.3456944 0.61902297 0
3.0460002 -1.3489953 0.61877948 0
3.0430002 -1.3522854 0.61853594 0
3.0400002 -1.3555647 0.61829245 0
3.0370002 -1.3588332 0.61804891 0
3.0330002 -1.3615913 0.61772424 0
3.0300002 -1.3648363 0.61748075 0
3.0270002 -1.3680706 0.61723721 0
3.0240002 -1.371294 0.61699367 0
3.0210001 -1.3745066 0.61675018 0
3.0180001 -1.3777083 0.61650664 0
3.0150001 -1.3808992 0.61626315 0
3.0120003 -1.3840795 0.61601961 0
3.0090003 -1.3872488 0.61577612 0
3.0060003 -1.3904072 0.61553264 0
3.0030003 -1.3935548 0.61528909 0
3.0000002 -1.3966917 0.61504555 0
2.9960003 -1.3992964 0.61472088 0
2.9930003 -1.4024097 0.6144774 0
2.9900002 -1.4055123 0.61423385 0
2.9870002 -1.408604 0.61399037 0
2.9840002 -1.4116849 0.61374682 0
2.9810002 -1.4147549 0.61350334 0
2.9780002 -1.4178141 0.61325979 0
2.9750001 -1.4208626 0.61301625 0
2.9720001 -1.4239002 0.61277276 0
2.9690001 -1.426927 0.61252928 0
2.9660003 -1.4299431 0.61228573 0
2.9630003 -1.4329482 0.61204225 0
2.9610002 -1.4364854 0.61187989 0
2.9580002 -1.4394708 0.6116364 0
2.9550002 -1.4424452 0.61139286 0
2.9520001 -1.4454088 0.61114937 0
2.9490001 -1.4483616 0.61090583 0
2.9460001 -1.4513036 0.61066234 0
2.9430003 -1.454235 0.6104188 0
2.9400003 -1.4571553 0.61017531 0
2.9370003 -1.4600648 0.60993177 0
2.9340003 -1.4629636 0.60968828 0
2.9310002 -1.4658514 0.60944474 0
2.9280002 -1.4687284 0.60920125 0
2.9260001 -1.4721593 0.60903889 0
2.9230001 -1.4750165 0.6087954 0
2.9200003 -1.477863 0.60855186 0
2.9170003 -1.4806986 0.60830837 0
2.9140003 -1.4835234 0.60806483 0
2.9110003 -1.4863373 0.60782135 0
2.9080002 -1.4891404 0.6075778 0
3.0520003 -1.3423827 0.61448282 0
3.0490003 -1.3456944 0.6142447 0
3.0460002 -1.3489953 0.61400658 0
3.0430002 -1.3522854 0.61376846 0
3.0400002 -1.3555647 0.6135304 0
3.0370002 -1.3588332 0.61329228 0
3.0330002 -1.3615913 0.61297482 0
3.0300002 -1.3648363 0.6127367 0
3.0270002 -1.3680706 0.61249858 0
3.0240002 -1.371294 0.61226046 0
3.0210001 -1.3745066 0.6120224 0
3.0180001 -1.3777083 0.61178428 0
3.0150001 -1.3808992 0.61154616 0
3.0120003 -1.3840795 0.6113081 0
3.0090003 -1.3872488 0.61106998 0
3.0060003 -1.3904072 0.61083186 0
3.0030003 -1.3935548 0.6105938 0
3.0000002 -1.3966917 0.61035568 0
2.9960003 -1.3992964 0.61003822 0
2.9930003 -1.4024097 0.6098001 0
2.9900002 -1.4055123 0.60956204 0
2.9870002 -1.408604 0.60932386 0
2.9840002 -1.4116849 0.6090858 0
2.9810002 -1.4147549 0.60884768 0
2.9780002 -1.4178141 0.60860956 0
2.9750001 -1.4208626 0.6083715 0
2.9720001 -1.4239002 0.60813338 0
2.9690001 -1.426927 0.60789526 0
2.9660003 -1.4299431 0.60765719 0
2.9630003 -1.4329482 0.60741907 0
2.9610002 -1.4364854 0.60726035 0
2.9580002 -1.4394708 0.60702223 0
2.9550002 -1.4424452 0.60678411 0
2.9520001 -1.4454088 0.60654604 0
2.9490001 -1.4483616 0.60630792 0
2.9460001 -1.4513036 0.6060698 0
2.9430003 -1.454235 0.60583174 0
2.9400003 -1.4571553 0.60559362 0
2.9370003 -1.4600648 0.6053555 0
2.9340003 -1.4629636 0.60511744 0
2.9310002 -1.4658514 0.60487932 0
2.9280002 -1.4687284 0.6046412 0
2.9260001 -1.4721593 0.60448247 0
2.9230001 -1.4750165 0.60424435 0
2.9200003 -1.477863 0.60400629 0
2.9170003 -1.4806986 0.60376817 0
2.9140003 -1.4835234 0.60353005 0
2.9110003 -1.4863373 0.60329199 0
2.9080002 -1.4891404 0.60305387 0
3.0520003 -1.3423827 0.60969913 0
3.0490003 -1.3456944 0.60946643 0
3.0460002 -1.3489953 0.60923374 0
3.0430002 -1.3522854 0.60900104 0
3.0400002 -1.3555647 0.60876834 0
3.0370002 -1.3588332 0.60853565 0
3.0330002 -1.3615913 0.60822541 0
3.0300002 -1.3648363 0.60799265 0
3.0270002 -1.3680706 0.60776001 0
3.0240002 -1.371294 0.60752732 0
3.0210001 -1.3745066 0.60729462 0
3.0180001 -1.3777083 0.60706192 0
3.0150001 -1.3808992 0.60682923 0
3.0120003 -1.3840795 0.60659653 0
3.0090003 -1.3872488 0.60636389 0
3.0060003 -1.3904072 0.60613114 0
3.0030003 -1.3935548 0.6058985 0
3.0000002 -1.3966917 0.6056658 0
2.9960003 -1.3992964 0.6053555 0
2.9930003 -1.4024097 0.6051228 0
2.9900002 -1.4055123 0.60489017 0
2.9870002 -1.408604 0.60465741 0
2.9840002 -1.4116849 0.60442477 0
2.9810002 -1.4147549 0.60419208 0
2.9780002 -1.4178141 0.60395938 0
2.9750001 -1.4208626 0.60372669 0
2.9720001 -1.4239002 0.60349399 0
2.9690001 -1.426927 0.60326129 0
2.9660003 -1.4299431 0.60302866 0
2.9630003 -1.4329482 0.6027959 0
2.9610002 -1.4364854 0.60264075 0
2.9580002 -1.4394708 0.60240811 0
2.9550002 -1.4424452 0.60217541 0
2.9520001 -1.4454088 0.60194272 0
2.9490001 -1.4483616 0.60171002 0
2.9460001 -1.4513036 0.60147732 0
2.9430003 -1.454235 0.60124463 0
2.9400003 -1.4571553 0.60101199 0
2.9370003 -1.4600648 0.60077929 0
2.9340003 -1.4629636 0.6005466 0
2.9310002 -1.4658514 0.6003139 0
2.9280002 -1.4687284 0.60008121 0
2.9260001 -1.4721593 0.59992605 0
2.9230001 -1.4750165 0.59969336 0
2.9200003 -1.477863 0.59946066 0
2.9170003 -1.4806986 0.59922802 0
2.9140003 -1.4835234 0.59899533 0
2.9110003 -1.4863373 0.59876263 0
2.9080002 -1.4891404 0.59852993 0
3.0520003 -1.3423827 0.60491538 0
3.0490003 -1.3456944 0.60468811 0
3.0460002 -1.3489953 0.60446084 0
3.0430002 -1.3522854 0.60423356 0
3.0400002 -1.3555647 0.60400629 0
3.0370002 -1.3588332 0.60377896 0
3.0330002 -1.3615913 0.60347593 0
3.0300002 -1.3648363 0.60324866 0
3.0270002 -1.3680706 0.60302138 0
3.0240002 -1.371294 0.60279411 0
3.0210001 -1.3745066 0.60256684 0
3.0180001 -1.3777083 0.60233957 0
3.0150001 -1.3808992 0.60211229 0
3.0120003 -1.3840795 0.60188502 0
3.0090003 -1.3872488 0.60165775 0
3.0060003 -1.3904072 0.60143042 0
3.0030003 -1.3935548 0.60120314 0
3.0000002 -1.3966917 0.60097587 0
2.9960003 -1.3992964 0.60067284 0
2.9930003 -1.4024097 0.60044557 0
2.9900002 -1.4055123 0.6002183 0
2.9870002 -1.408604 0.59999096 0
2.9840002 -1.4116849 0.59976375 0
2.9810002 -1.4147549 0.59953642 0
2.9780002 -1.4178141 0.59930915 0
2.9750001 -1.4208626 0.59908187 0
2.9720001 -1.4239002 0.5988546 0
2.9690001 -1.426927 0.59862733 0
2.9660003 -1.4299431 0.59840006 0
2.9630003 -1.4329482 0.59817278 0
2.9610002 -1.4364854 0.59802127 0
2.9580002 -1.4394708 0.59779394 0
2.9550002 -1.4424452 0.59756666 0
2.9520001 -1.4454088 0.59733939 0
2.9490001 -1.4483616 0.59711212 0
2.9460001 -1.4513036 0.59688485 0
2.9430003 -1.454235 0.59665757 0
2.9400003 -1.4571553 0.5964303 0
2.9370003 -1.4600648 0.59620297 0
2.9340003 -1.4629636 0.59597576 0
2.9310002 -1.4658514 0.59574842 0
2.9280002 -1.4687284 0.59552115 0
2.9260001 -1.4721593 0.59536964 0
2.9230001 -1.4750165 0.59514236 0
2.9200003 -1.477863 0.59491509 0
2.9170003 -1.4806986 0.59468782 0
2.9140003 -1.4835234 0.59446049 0
2.9110003 -1.4863373 0.59423327 0
2.9080002 -1.4891404 0.59400594 0
3.0520003 -1.3423827 0.60013169 0
3.0490003 -1.3456944 0.59990984 0
3.0460002 -1.3489953 0.59968793 0
3.0430002 -1.3522854 0.59946609 0
3.0400002 -1.3555647 0.59924424 0
3.0370002 -1.3588332 0.59902233 0
3.0330002 -1.3615913 0.59872651 0
3.0300002 -1.3648363 0.59850466 0
3.0270002 -1.3680706 0.59828281 0
3.0240002 -1.371294 0.59806091 0
3.0210001 -1.3745066 0.59783906 0
3.0180001 -1.3777083 0.59761715 0
3.0150001 -1.3808992 0.5973953 0
3.0120003 -1.3840795 0.59717345 0
3.0090003 -1.3872488 0.5969516 0
3.0060003 -1.3904072 0.5967297 0
3.0030003 -1.3935548 0.59650785 0
3.0000002 -1.3966917 0.59628594 0
2.9960003 -1.3992964 0.59599018 0
2.9930003 -1.4024097 0.59576827 0
2.9900002 -1.4055123 0.59554642 0
2.9870002 -1.408604 0.59532452 0
2.9840002 -1.4116849 0.59510267 0
2.9810002 -1.4147549 0.59488082 0
2.9780002 -1.4178141 0.59465897 0
2.9750001 -1.4208626 0.59443706 0
2.9720001 -1.4239002 0.59421521 0
2.9690001 -1.426927 0.59399331 0
2.9660003 -1.4299431 0.59377146 0
2.9630003 -1.4329482 0.59354961 0
2.9610002 -1.4364854 0.59340167 0
2.9580002 -1.4394708 0.59317982 0
2.9550002 -1.4424452 0.59295797 0
2.9520001 -1.4454088 0.59273607 0
2.9490001 -1.4483616 0.59251422 0
2.9460001 -1.4513036 0.59229231 0
2.9430003 -1.454235 0.59207046 0
2.9400003 -1.4571553 0.59184861 0
2.9370003 -1.4600648 0.59162676 0
2.9340003 -1.4629636 0.59140486 0
2.9310002 -1.4658514 0.59118301 0
2.9280002 -1.4687284 0.5909611 0
2.9260001 -1.4721593 0.59081322 0
2.9230001 -1.4750165 0.59059131 0
2.9200003 -1.477863 0.59036946 0
2.9170003 -1.4806986 0.59014761 0
2.9140003 -1.4835234 0.58992577 0
2.9110003 -1.4863373 0.58970386 0
2.9080002 -1.4891404 0.58948201 0
3.0520003 -1.3423827 0.595348 0
3.0490003 -1.3456944 0.59513152 0
3.0460002 -1.3489953 0.59491509 0
3.0430002 -1.3522854 0.59469861 0
3.0400002 -1.3555647 0.59448218 0
3.0370002 -1.3588332 0.5942657 0
3.0330002 -1.3615913 0.59397709 0
3.0300002 -1.3648363 0.59376061 0
3.0270002 -1.3680706 0.59354419 0
3.0240002 -1.371294 0.59332776 0
3.0210001 -1.3745066 0.59311128 0
3.0180001 -1.3777083 0.59289479 0
3.0150001 -1.3808992 0.59267831 0
3.0120003 -1.3840795 0.59246194 0
3.0090003 -1.3872488 0.59224546 0
3.0060003 -1.3904072 0.59202898 0
3.0030003 -1.3935548 0.59181255 0
3.0000002 -1.3966917 0.59159607 0
2.9960003 -1.3992964 0.59130746 0
2.9930003 -1.4024097 0.59109104 0
2.9900002 -1.4055123 0.59087455 0
2.9870002 -1.408604 0.59065807 0
2.9840002 -1.4116849 0.59044164 0
2.9810002 -1.4147549 0.59022516 0
2.9780002 -1.4178141 0.59000874 0
2.9750001 -1.4208626 0.58979225 0
2.9720001 -1.4239002 0.58957583 0
2.9690001 -1.426927 0.58935934 0
2.9660003 -1.4299431 0.58914292 0
2.9630003 -1.4329482 0.58892643 0
2.9610002 -1.4364854 0.58878213 0
2.9580002 -1.4394708 0.58856571 0
2.9550002 -1.4424452 0.58834922 0
2.9520001 -1.4454088 0.58813274 0
2.9490001 -1.4483616 0.58791625 0
2.9460001 -1.4513036 0.58769983 0
2.9430003 -1.454235 0.58748341 0
2.9400003 -1.4571553 0.58726692 0
2.9370003 -1.4600648 0.5870505 0
2.9340003 -1.4629636 0.58683401 0
2.9310002 -1.4658514 0.58661759 0
2.9280002 -1.4687284 0.5864011 0
2.9260001 -1.4721593 0.5862568 0
2.9230001 -1.4750165 0.58604032 0
2.9200003 -1.477863 0.58582389 0
2.9170003 -1.4806986 0.58560741 0
2.9140003 -1.4835234 0.58539099 0
2.9110003 -1.4863373 0.5851745 0
2.9080002 -1.4891404 0.58495808 0
3.0520003 -1.3423827 0.59056431 0
3.0490003 -1.3456944 0.59035325 0
3.0460002 -1.3489953 0.59014219 0
3.0430002 -1.3522854 0.58993113 0
3.0400002 -1.3555647 0.58972013 0
3.0370002 -1.3588332 0.58950907 0
3.0330002 -1.3615913 0.58922768 0
3.0300002 -1.3648363 0.58901662 0
3.0270002 -1.3680706 0.58880556 0
3.0240002 -1.371294 0.58859456 0
3.0210001 -1.3745066 0.5883835 0
3.0180001 -1.3777083 0.58817244 0
3.0150001 -1.3808992 0.58796138 0
3.0120003 -1.3840795 0.58775038 0
3.0090003 -1.3872488 0.58753932 0
3.0060003 -1.3904072 0.58732826 0
3.0030003 -1.3935548 0.5871172 0
3.0000002 -1.3966917 0.58690619 0
2.9960003 -1.3992964 0.5866248 0
2.9930003 -1.4024097 0.58641374 0
2.9900002 -1.4055123 0.58620268 0
2.9870002 -1.408604 0.58599162 0
2.9840002 -1.4116849 0.58578062 0
2.9810002 -1.4147549 0.58556956 0
2.9780002 -1.4178141 0.5853585 0
2.9750001 -1.4208626 0.58514744 0
2.9720001 -1.4239002 0.58493638 0
2.9690001 -1.426927 0.58472538 0
2.9660003 -1.4299431 0.58451432 0
2.9630003 -1.4329482 0.58430326 0
2.9610002 -1.4364854 0.58416259 0
2.9580002 -1.4394708 0.58395153 0
2.9550002 -1.4424452 0.58374047 0
2.9520001 -1.4454088 0.58352941 0
2.9490001 -1.4483616 0.58331841 0
2.9460001 -1.4513036 0.58310735 0
2.9430003 -1.454235 0.58289629 0
2.9400003 -1.4571553 0.58268523 0
2.9370003 -1.4600648 0.58247423 0
2.9340003 -1.4629636 0.58226317 0
2.9310002 -1.4658514 0.58205211 0
2.9280002 -1.4687284 0.58184105 0
2.9260001 -1.4721593 0.58170038 0
2.9230001 -1.4750165 0.58148932 0
2.9200003 -1.477863 0.58127832 0
2.9170003 -1.4806986 0.58106726 0
2.9140003 -1.4835234 0.5808562 0
2.9110003 -1.4863373 0.58064514 0
2.9080002 -1.4891404 0.58043408 0
3.0520003 -1.3423827 0.58578062 0
3.0490003 -1.3456944 0.58557498 0
3.0460002 -1.3489953 0.58536935 0
3.0430002 -1.3522854 0.58516371 0
3.0400002 -1.3555647 0.58495808 0
3.0370002 -1.3588332 0.58475244 0
3.0330002 -1.3615913 0.58447826 0
3.0300002 -1.3648363 0.58427262 0
3.0270002 -1.3680706 0.58406699 0
3.0240002 -1.371294 0.58386135 0
3.0210001 -1.3745066 0.58365571 0
3.0180001 -1.3777083 0.58345008 0
3.0150001 -1.3808992 0.58324444 0
3.0120003 -1.3840795 0.58303881 0
3.0090003 -1.3872488 0.58283317 0
3.0060003 -1.3904072 0.58262753 0
3.0030003 -1.3935548 0.5824219 0
3.0000002 -1.3966917 0.58221626 0
2.9960003 -1.3992964 0.58194208 0
2.9930003 -1.4024097 0.58173645 0
2.9900002 -1.4055123 0.58153081 0
2.9870002 -1.408604 0.58132517 0
2.9840002 -1.4116849 0.58111954 0
2.9810002 -1.4147549 0.5809139 0
2.9780002 -1.4178141 0.58070827 0
2.9750001 -1.4208626 0.58050263 0
2.9720001 -1.4239002 0.58029699 0
2.9690001 -1.426927 0.58009136 0
2.9660003 -1.4299431 0.57988578 0
2.9630003 -1.4329482 0.57968009 0
2.9610002 -1.4364854 0.57954299 0
2.9580002 -1.4394708 0.57933736 0
2.9550002 -1.4424452 0.57913172 0
2.9520001 -1.4454088 0.57892609 0
2.9490001 -1.4483616 0.57872045 0
2.9460001 -1.4513036 0.57851481 0
2.9430003 -1.454235 0.57830924 0
2.9400003 -1.4571553 0.5781036 0
2.9370003 -1.4600648 0.57789797 0
2.9340003 -1.4629636 0.57769233 0
2.9310002 -1.4658514 0.57748669 0
2.9280002 -1.4687284 0.57728106 0
2.9260001 -1.4721593 0.57714397 0
2.9230001 -1.4750165 0.57693833 0
2.9200003 -1.477863 0.5767327 0
2.9170003 -1.4806986 0.57652706 0
2.9140003 -1.4835234 0.57632142 0
2.9110003 -1.4863373 0.57611579 0
2.9080002 -1.4891404 0.57591015 0
3.0520003 -1.3423827 0.58099687 0
3.0490003 -1.3456944 0.58079666 0
3.0460002 -1.3489953 0.58059645 0
3.0430002 -1.3522854 0.58039623 0
3.0400002 -1.3555647 0.58019602 0
3.0370002 -1.3588332 0.57999575 0
3.0330002 -1.3615913 0.57972884 0
3.0300002 -1.3648363 0.57952857 0
3.0270002 -1.3680706 0.57932836 0
3.0240002 -1.371294 0.57912815 0
3.0210001 -1.3745066 0.57892793 0
3.0180001 -1.3777083 0.57872772 0
3.0150001 -1.3808992 0.57852745 0
3.0120003 -1.3840795 0.57832724 0
3.0090003 -1.3872488 0.57812703 0
3.0060003 -1.3904072 0.57792681 0
3.0030003 -1.3935548 0.5777266 0
3.0000002 -1.3966917 0.57752633 0
2.9960003 -1.3992964 0.57725942 0
2.9930003 -1.4024097 0.57705921 0
2.9900002 -1.4055123 0.57685894 0
2.9870002 -1.408604 0.57665873 0
2.9840002 -1.4116849 0.57645851 0
2.9810002 -1.4147549 0.5762583 0
2.9780002 -1.4178141 0.57605803 0
2.9750001 -1.4208626 0.57585782 0
2.9720001 -1.4239002 0.57565761 0
2.9690001 -1.426927 0.57545739 0
2.9660003 -1.4299431 0.57525718 0
2.9630003 -1.4329482 0.57505697 0
2.9610002 -1.4364854 0.57492346 0
2.9580002 -1.4394708 0.57472324 0
2.9550002 -1.4424452 0.57452303 0
2.9520001 -1.4454088 0.57432282 0
2.9490001 -1.4483616 0.57412255 0
2.9460001 -1.4513036 0.57392234 0
2.9430003 -1.454235 0.57372212 0
2.9400003 -1.4571553 0.57352191 0
2.9370003 -1.4600648 0.5733217 0
2.9340003 -1.4629636 0.57312143 0
2.9310002 -1.4658514 0.57292128 0
2.9280002 -1.4687284 0.572721 0
2.9260001 -1.4721593 0.57258755 0
2.9230001 -1.4750165 0.57238734 0
2.9200003 -1.477863 0.57218707 0
2.9170003 -1.4806986 0.57198685 0
2.9140003 -1.4835234 0.57178664 0
2.9110003 -1.4863373 0.57158643 0
2.9080002 -1.4891404 0.57138622 0
3.0520003 -1.3423827 0.57621318 0
3.0490003 -1.3456944 0.57601839 0
3.0460002 -1.3489953 0.57582355 0
3.0430002 -1.3522854 0.57562876 0
3.0400002 -1.3555647 0.57543397 0
3.0370002 -1.3588332 0.57523912 0
3.0330002 -1.3615913 0.57497936 0
3.0300002 -1.3648363 0.57478458 0
3.0270002 -1.3680706 0.57458979 0
3.0240002 -1.371294 0.57439494 0
3.0210001 -1.3745066 0.57420015 0
3.0180001 -1.3777083 0.57400531 0
3.0150001 -1.3808992 0.57381052 0
3.0120003 -1.3840795 0.57361573 0
3.0090003 -1.3872488 0.57342088 0
3.0060003 -1.3904072 0.57322609 0
3.0030003 -1.3935548 0.57303131 0
3.0000002 -1.3966917 0.57283646 0
2.9960003 -1.3992964 0.57257676 0
2.9930003 -1.4024097 0.57238191 0
2.9900002 -1.4055123 0.57218707 0
2.9870002 -1.408604 0.57199228 0
2.9840002 -1.4116849 0.57179749 0
2.9810002 -1.4147549 0.57160264 0
2.9780002 -1.4178141 0.57140785 0
2.9750001 -1.4208626 0.57121301 0
2.9720001 -1.4239002 0.57101822 0
2.9690001 -1.426927 0.57082343 0
2.9660003 -1.4299431 0.57062864 0
2.9630003 -1.4329482 0.5704338 0
2.9610002 -1.4364854 0.57030392 0
2.9580002 -1.4394708 0.57010913 0
2.9550002 -1.4424452 0.56991428 0
2.9520001 -1.4454088 0.56971949 0
2.9490001 -1.4483616 0.56952465 0
2.9460001 -1.4513036 0.56932986 0
2.9430003 -1.454235 0.56913507 0
2.9400003 -1.4571553 0.56894028 0
2.9370003 -1.4600648 0.56874543 0
2.9340003 -1.4629636 0.56855059 0
2.9310002 -1.4658514 0.5683558 0
2.9280002 -1.4687284 0.56816101 0
2.9260001 -1.4721593 0.56803113 0
2.9230001 -1.4750165 0.56783628 0
2.9200003 -1.477863 0.5676415 0
2.9170003 -1.4806986 0.56744671 0
2.9140003 -1.4835234 0.56725186 0
2.9110003 -1.4863373 0.56705707 0
2.9080002 -1.4891404 0.56686223 0
3.0520003 -1.3423827 0.57142949 0
3.0490003 -1.3456944 0.57124007 0
3.0460002 -1.3489953 0.5710507 0
3.0430002 -1.3522854 0.57086128 0
3.0400002 -1.3555647 0.57067192 0
3.0370002 -1.3588332 0.57048249 0
3.0330002 -1.3615913 0.57022995 0
3.0300002 -1.3648363 0.57004058 0
3.0270002 -1.3680706 0.56985116 0
3.0240002 -1.371294 0.56966174 0
3.0210001 -1.3745066 0.56947237 0
3.0180001 -1.3777083 0.56928295 0
3.0150001 -1.3808992 0.56909359 0
3.0120003 -1.3840795 0.56890416 0
3.0090003 -1.3872488 0.56871474 0
3.0060003 -1.3904072 0.56852537 0
3.0030003 -1.3935548 0.56833595 0
3.0000002 -1.3966917 0.56814659 0
2.9960003 -1.3992964 0.56789404 0
2.9930003 -1.4024097 0.56770462 0
2.9900002 -1.4055123 0.56751525 0
2.9870002 -1.408604 0.56732583 0
2.9840002 -1.4116849 0.56713641 0
2.9810002 -1.4147549 0.56694704 0
2.9780002 -1.4178141 0.56675762 0
2.9750001 -1.4208626 0.56656826 0
2.9720001 -1.4239002 0.56637883 0
2.9690001 -1.426927 0.56618941 0
2.9660003 -1.4299431 0.56600004 0
2.9630003 -1.4329482 0.56581062 0
2.9610002 -1.4364854 0.56568438 0
2.9580002 -1.4394708 0.56549495 0
2.9550002 -1.4424452 0.56530559 0
2.9520001 -1.4454088 0.56511617 0
2.9490001 -1.4483616 0.56492674 0
2.9460001 -1.4513036 0.56473738 0
2.9430003 -1.454235 0.56454796 0
2.9400003 -1.4571553 0.56435859 0
2.9370003 -1.4600648 0.56416917 0
2.9340003 -1.4629636 0.56397974 0
2.9310002 -1.4658514 0.56379038 0
