# .PCD v0.7 - Point Cloud Data file format
VERSION 0.7
FIELDS x y z intensity
SIZE 4 4 4 4
TYPE F F F F
COUNT 1 1 1 1
WIDTH 1429
HEIGHT 1
VIEWPOINT 0 0 0 1 0 0 0
POINTS 1429
DATA ascii
4.0570002 -1.286147 0.3050521 0
4.0500002 -1.2903571 0.30524153 0
4.0420003 -1.2941992 0.30545795 0
4.0350003 -1.298357 0.30564737 0
3.8840003 -1.3845917 0.309733 0
3.8770003 -1.3881741 0.3099224 0
3.7740002 -1.5188237 0.31270927 0
3.7790003 -1.5271015 0.312574 0
3.7840002 -1.5353973 0.31243873 0
3.7880003 -1.5432692 0.31233048 0
3.7930002 -1.551599 0.31219518 0
3.7980003 -1.559947 0.31205991 0
3.8020003 -1.5678658 0.3119517 0
3.8070002 -1.576248 0.31181639 0
3.8120003 -1.5846485 0.31168109 0
3.8160002 -1.5926141 0.31157288 0
4.5980005 -0.9774037 0.2828418 0
4.5890002 -0.98296297 0.28310156 0
4.5790005 -0.98826438 0.28339016 0
4.5700002 -0.99375683 0.28364992 0
4.5600004 -0.99898803 0.28393853 0
4.5510001 -1.0044137 0.28419828 0
4.5420003 -1.0098072 0.28445804 0
4.5320001 -1.0149335 0.28474665 0
4.5230002 -1.0202602 0.2850064 0
4.5140004 -1.0255544 0.28526613 0
4.5050001 -1.0308161 0.28552589 0
4.4960003 -1.0360453 0.28578565 0
4.4870005 -1.0412422 0.28604537 0
4.4780002 -1.0464065 0.28630513 0
4.4690003 -1.0515382 0.28656489 0
4.4600005 -1.0566376 0.28682461 0
4.4510002 -1.0617045 0.28708437 0
4.4420004 -1.0667391 0.28734413 0
4.4330001 -1.071741 0.28760388 0
4.4240003 -1.0767105 0.28786361 0
4.4150004 -1.0816475 0.28812337 0
4.4070001 -1.0868118 0.28835428 0
4.3980002 -1.0916857 0.288614 0
4.3889999 -1.096527 0.28887376 0
4.381 -1.1016012 0.28910464 0
4.2000003 -1.2044057 0.29432848 0
4.1920004 -1.208807 0.29455936 0
4.184 -1.2131793 0.29479024 0
4.177 -1.2178333 0.29499227 0
4.1690001 -1.2221497 0.29522318 0
4.1610003 -1.2264373 0.29545406 0
4.1540003 -1.2310117 0.29565609 0
4.1460004 -1.2352436 0.29588696 0
4.138 -1.2394464 0.29611784 0
4.131 -1.2439415 0.29631987 0
4.1230001 -1.2480885 0.29655075 0
4.1160002 -1.2525312 0.29675281 0
4.1080003 -1.2566222 0.29698369 0
4.1010003 -1.2610128 0.29718572 0
4.0929999 -1.2650479 0.2974166 0
4.086 -1.2693859 0.29761863 0
4.079 -1.2736989 0.29782066 0
4.0710001 -1.2776511 0.29805154 0
4.0640001 -1.2819117 0.29825357 0
4.0570002 -1.286147 0.2984556 0
4.0500002 -1.2903571 0.29865763 0
4.0420003 -1.2941992 0.2988885 0
4.0350003 -1.298357 0.29909053 0
4.0280004 -1.3024895 0.29929256 0
3.8970003 -1.3769706 0.30307335 0
3.8900003 -1.3806016 0.30327535 0
3.8840003 -1.3845917 0.30344853 0
3.8770003 -1.3881741 0.30365056 0
3.8710003 -1.3921189 0.30382371 0
3.8640003 -1.3956527 0.30402574 0
3.7740002 -1.5188237 0.30662322 0
3.7790003 -1.5271015 0.30647892 0
3.7840002 -1.5353973 0.30633461 0
3.7880003 -1.5432692 0.30621916 0
3.7930002 -1.551599 0.30607486 0
3.7980003 -1.559947 0.30593055 0
3.8020003 -1.5678658 0.30581513 0
3.8070002 -1.576248 0.30567083 0
3.8120003 -1.5846485 0.30552652 0
3.8160002 -1.5926141 0.30541107 0
4.5980005 -0.9774037 0.27526945 0
4.5890002 -0.98296297 0.27554542 0
4.5790005 -0.98826438 0.27585205 0
4.5700002 -0.99375683 0.27612805 0
4.5600004 -0.99898803 0.27643469 0
4.5510001 -1.0044137 0.27671069 0
4.5420003 -1.0098072 0.27698666 0
4.5320001 -1.0149335 0.27729332 0
4.5230002 -1.0202602 0.27756929 0
4.5140004 -1.0255544 0.27784526 0
4.5050001 -1.0308161 0.27812126 0
4.4960003 -1.0360453 0.27839723 0
4.4870005 -1.0412422 0.27867323 0
4.4780002 -1.0464065 0.2789492 0
4.4690003 -1.0515382 0.27922517 0
4.4600005 -1.0566376 0.27950117 0
4.4510002 -1.0617045 0.27977714 0
4.4420004 -1.0667391 0.28005314 0
4.4330001 -1.071741 0.28032914 0
4.4240003 -1.0767105 0.28060511 0
4.4150004 -1.0816475 0.28088108 0
4.4070001 -1.0868118 0.28112641 0
4.3980002 -1.0916857 0.28140238 0
4.3889999 -1.096527 0.28167838 0
4.381 -1.1016012 0.28192368 0
4.3720002 -1.1063795 0.28219968 0
4.2080002 -1.1999755 0.2872287 0
4.2000003 -1.2044057 0.28747401 0
4.1920004 -1.208807 0.28771931 0
4.184 -1.2131793 0.28796464 0
4.177 -1.2178333 0.28817931 0
4.1690001 -1.2221497 0.28842461 0
4.1610003 -1.2264373 0.28866994 0
4.1540003 -1.2310117 0.28888458 0
4.1460004 -1.2352436 0.28912988 0
4.138 -1.2394464 0.28937522 0
4.131 -1.2439415 0.28958988 0
4.1230001 -1.2480885 0.28983518 0
4.1160002 -1.2525312 0.29004985 0
4.1080003 -1.2566222 0.29029515 0
4.1010003 -1.2610128 0.29050982 0
4.0929999 -1.2650479 0.29075512 0
4.086 -1.2693859 0.29096979 0
4.079 -1.2736989 0.29118443 0
4.0710001 -1.2776511 0.29142976 0
4.0640001 -1.2819117 0.29164439 0
4.0570002 -1.286147 0.29185906 0
4.0500002 -1.2903571 0.29207373 0
4.0420003 -1.2941992 0.29231903 0
4.0350003 -1.298357 0.2925337 0
4.0280004 -1.3024895 0.29274833 0
4.0210004 -1.3065968 0.29296297 0
3.8970003 -1.3769706 0.29676542 0
3.8900003 -1.3806016 0.29698008 0
3.8840003 -1.3845917 0.29716405 0
3.8770003 -1.3881741 0.29737872 0
3.8710003 -1.3921189 0.29756272 0
3.8640003 -1.3956527 0.29777735 0
3.7740002 -1.5188237 0.30053717 0
3.7790003 -1.5271015 0.30038387 0
3.7840002 -1.5353973 0.30023053 0
3.7880003 -1.5432692 0.30010787 0
3.7930002 -1.551599 0.29995453 0
3.7980003 -1.559947 0.29980123 0
3.8020003 -1.5678658 0.29967856 0
3.8070002 -1.576248 0.29952526 0
3.8120003 -1.5846485 0.29937193 0
3.8160002 -1.5926141 0.29924926 0
4.5980005 -0.9774037 0.26769704 0
4.5890002 -0.98296297 0.26798928 0
4.5790005 -0.98826438 0.26831394 0
4.5700002 -0.99375683 0.26860619 0
4.5600004 -0.99898803 0.26893085 0
4.5510001 -1.0044137 0.26922309 0
4.5420003 -1.0098072 0.26951528 0
4.5320001 -1.0149335 0.26984 0
4.5230002 -1.0202602 0.27013218 0
4.5140004 -1.0255544 0.27042443 0
4.5050001 -1.0308161 0.27071664 0
4.4960003 -1.0360453 0.27100885 0
4.4870005 -1.0412422 0.27130103 0
4.4780002 -1.0464065 0.27159327 0
4.4690003 -1.0515382 0.27188548 0
4.4600005 -1.0566376 0.2721777 0
4.4510002 -1.0617045 0.27246994 0
4.4420004 -1.0667391 0.27276212 0
4.4330001 -1.071741 0.27305436 0
4.4240003 -1.0767105 0.27334657 0
4.4150004 -1.0816475 0.27363878 0
4.4070001 -1.0868118 0.27389854 0
4.3980002 -1.0916857 0.27419075 0
4.3889999 -1.096527 0.27448297 0
4.381 -1.1016012 0.27474272 0
4.3720002 -1.1063795 0.27503496 0
4.2080002 -1.1999755 0.2803598 0
4.2000003 -1.2044057 0.28061953 0
4.1920004 -1.208807 0.28087926 0
4.184 -1.2131793 0.28113902 0
4.177 -1.2178333 0.28136632 0
4.1690001 -1.2221497 0.28162605 0
4.1610003 -1.2264373 0.2818858 0
4.1540003 -1.2310117 0.28211308 0
4.1460004 -1.2352436 0.28237283 0
4.138 -1.2394464 0.28263259 0
4.131 -1.2439415 0.28285986 0
4.1230001 -1.2480885 0.28311962 0
4.1160002 -1.2525312 0.28334689 0
4.1080003 -1.2566222 0.28360665 0
4.1010003 -1.2610128 0.28383392 0
4.0929999 -1.2650479 0.28409368 0
4.086 -1.2693859 0.28432095 0
4.079 -1.2736989 0.28454822 0
4.0710001 -1.2776511 0.28480798 0
4.0640001 -1.2819117 0.28503525 0
4.0570002 -1.286147 0.28526253 0
4.0500002 -1.2903571 0.2854898 0
4.0420003 -1.2941992 0.28574955 0
4.0350003 -1.298357 0.28597683 0
4.0280004 -1.3024895 0.28620413 0
4.0210004 -1.3065968 0.28643137 0
3.9040003 -1.3733143 0.29023021 0
3.8970003 -1.3769706 0.29045749 0
3.8900003 -1.3806016 0.29068479 0
3.8840003 -1.3845917 0.29087958 0
3.8770003 -1.3881741 0.29110688 0
3.8710003 -1.3921189 0.29130167 0
3.8640003 -1.3956527 0.29152897 0
3.8580003 -1.3995525 0.29172379 0
3.7740002 -1.5188237 0.29445112 0
3.7790003 -1.5271015 0.29428878 0
3.7840002 -1.5353973 0.29412645 0
3.7880003 -1.5432692 0.29399657 0
3.7930002 -1.551599 0.29383424 0
3.7980003 -1.559947 0.29367188 0
3.8020003 -1.5678658 0.29354203 0
3.8070002 -1.576248 0.29337966 0
3.8120003 -1.5846485 0.29321733 0
3.8160002 -1.5926141 0.29308745 0
4.5980005 -0.9774037 0.26012465 0
4.5890002 -0.98296297 0.26043311 0
4.5790005 -0.98826438 0.26077583 0
4.5700002 -0.99375683 0.26108429 0
4.5600004 -0.99898803 0.26142699 0
4.5510001 -1.0044137 0.26173547 0
4.5420003 -1.0098072 0.26204389 0
4.5320001 -1.0149335 0.26238665 0
4.5230002 -1.0202602 0.26269507 0
4.5140004 -1.0255544 0.26300353 0
4.5050001 -1.0308161 0.26331198 0
4.4960003 -1.0360453 0.26362044 0
4.4870005 -1.0412422 0.26392889 0
4.4780002 -1.0464065 0.26423734 0
4.4690003 -1.0515382 0.2645458 0
4.4600005 -1.0566376 0.26485425 0
4.4510002 -1.0617045 0.26516271 0
4.4420004 -1.0667391 0.26547116 0
4.4330001 -1.071741 0.26577961 0
4.4240003 -1.0767105 0.26608807 0
4.4150004 -1.0816475 0.26639652 0
4.4070001 -1.0868118 0.2666707 0
4.3980002 -1.0916857 0.26697913 0
4.3889999 -1.096527 0.26728761 0
4.381 -1.1016012 0.26756176 0
4.3720002 -1.1063795 0.26787022 0
4.3640003 -1.1113942 0.2681444 0
4.2080002 -1.1999755 0.27349088 0
4.2000003 -1.2044057 0.27376506 0
4.1920004 -1.208807 0.27403924 0
4.184 -1.2131793 0.27431342 0
4.177 -1.2178333 0.27455333 0
4.1690001 -1.2221497 0.27482748 0
4.1610003 -1.2264373 0.27510169 0
4.1540003 -1.2310117 0.27534157 0
4.1460004 -1.2352436 0.27561575 0
4.138 -1.2394464 0.27588993 0
4.131 -1.2439415 0.27612984 0
4.1230001 -1.2480885 0.27640402 0
4.1160002 -1.2525312 0.27664393 0
4.1080003 -1.2566222 0.27691811 0
4.1010003 -1.2610128 0.27715802 0
4.0929999 -1.2650479 0.2774322 0
4.086 -1.2693859 0.27767211 0
4.079 -1.2736989 0.27791202 0
4.0710001 -1.2776511 0.2781862 0
4.0640001 -1.2819117 0.27842611 0
4.0570002 -1.286147 0.27866602 0
4.0500002 -1.2903571 0.27890593 0
4.0420003 -1.2941992 0.27918008 0
4.0350003 -1.298357 0.27942002 0
4.0280004 -1.3024895 0.2796599 0
4.0210004 -1.3065968 0.27989981 0
3.9040003 -1.3733143 0.28390968 0
3.8970003 -1.3769706 0.28414959 0
3.8900003 -1.3806016 0.2843895 0
3.8840003 -1.3845917 0.28459513 0
3.8770003 -1.3881741 0.28483504 0
3.8710003 -1.3921189 0.28504068 0
3.8640003 -1.3956527 0.28528059 0
3.8580003 -1.3995525 0.28548622 0
3.7740002 -1.5188237 0.28836507 0
3.7790003 -1.5271015 0.2881937 0
3.7840002 -1.5353973 0.28802237 0
3.7880003 -1.5432692 0.28788528 0
3.7930002 -1.551599 0.28771392 0
3.7980003 -1.559947 0.28754255 0
3.8020003 -1.5678658 0.28740546 0
3.8070002 -1.576248 0.2872341 0
3.8120003 -1.5846485 0.28706273 0
3.8160002 -1.5926141 0.28692564 0
4.5980005 -0.9774037 0.25255227 0
4.5890002 -0.98296297 0.25287697 0
4.5790005 -0.98826438 0.25323772 0
4.5700002 -0.99375683 0.25356239 0
4.5600004 -0.99898803 0.25392318 0
4.5510001 -1.0044137 0.25424784 0
4.5420003 -1.0098072 0.25457254 0
4.5320001 -1.0149335 0.2549333 0
4.5230002 -1.0202602 0.25525796 0
4.5140004 -1.0255544 0.25558269 0
4.5050001 -1.0308161 0.25590736 0
4.4960003 -1.0360453 0.25623202 0
4.4870005 -1.0412422 0.25655672 0
4.4780002 -1.0464065 0.25688142 0
4.4690003 -1.0515382 0.25720608 0
4.4600005 -1.0566376 0.25753075 0
4.4510002 -1.0617045 0.25785547 0
4.4420004 -1.0667391 0.25818014 0
4.4330001 -1.071741 0.25850484 0
4.4240003 -1.0767105 0.25882953 0
4.4150004 -1.0816475 0.2591542 0
4.4070001 -1.0868118 0.25944284 0
4.3980002 -1.0916857 0.2597675 0
4.3889999 -1.096527 0.2600922 0
4.381 -1.1016012 0.2603808 0
4.3720002 -1.1063795 0.26070547 0
4.3640003 -1.1113942 0.26099408 0
4.2080002 -1.1999755 0.26662198 0
4.2000003 -1.2044057 0.26691061 0
4.1920004 -1.208807 0.26719922 0
4.184 -1.2131793 0.26748782 0
4.177 -1.2178333 0.26774034 0
4.1690001 -1.2221497 0.26802894 0
4.1610003 -1.2264373 0.26831758 0
4.1540003 -1.2310117 0.2685701 0
4.1460004 -1.2352436 0.2688587 0
4.138 -1.2394464 0.26914731 0
4.131 -1.2439415 0.26939985 0
4.1230001 -1.2480885 0.26968843 0
4.1160002 -1.2525312 0.26994097 0
4.1080003 -1.2566222 0.27022958 0
4.1010003 -1.2610128 0.27048212 0
4.0929999 -1.2650479 0.27077073 0
4.086 -1.2693859 0.27102327 0
4.079 -1.2736989 0.27127582 0
4.0710001 -1.2776511 0.27156442 0
4.0640001 -1.2819117 0.27181694 0
4.0570002 -1.286147 0.27206948 0
4.0500002 -1.2903571 0.272322 0
4.0420003 -1.2941992 0.2726106 0
4.0350003 -1.298357 0.27286315 0
4.0280004 -1.3024895 0.27311569 0
4.0210004 -1.3065968 0.27336824 0
4.0139999 -1.3106788 0.27362078 0
3.9040003 -1.3733143 0.27758914 0
3.8970003 -1.3769706 0.27784169 0
3.8900003 -1.3806016 0.2780942 0
3.8840003 -1.3845917 0.27831066 0
3.8770003 -1.3881741 0.2785632 0
3.8710003 -1.3921189 0.27877963 0
3.8640003 -1.3956527 0.27903217 0
3.8580003 -1.3995525 0.27924863 0
3.7740002 -1.5188237 0.28227904 0
3.7790003 -1.5271015 0.28209865 0
3.7840002 -1.5353973 0.28191829 0
3.7880003 -1.5432692 0.28177398 0
3.7930002 -1.551599 0.28159359 0
3.7980003 -1.559947 0.2814132 0
3.8020003 -1.5678658 0.28126889 0
3.8070002 -1.576248 0.28108853 0
3.8120003 -1.5846485 0.28090814 0
3.8160002 -1.5926141 0.28076383 0
4.5980005 -0.9774037 0.24497987 0
4.5890002 -0.98296297 0.24532081 0
4.5790005 -0.98826438 0.2456996 0
4.5700002 -0.99375683 0.24604054 0
4.5600004 -0.99898803 0.24641933 0
4.5510001 -1.0044137 0.24676026 0
4.5420003 -1.0098072 0.24710117 0
4.5320001 -1.0149335 0.24747998 0
4.5230002 -1.0202602 0.2478209 0
4.5140004 -1.0255544 0.24816181 0
4.5050001 -1.0308161 0.24850273 0
4.4960003 -1.0360453 0.24884364 0
4.4870005 -1.0412422 0.24918455 0
4.4780002 -1.0464065 0.24952549 0
4.4690003 -1.0515382 0.2498664 0
4.4600005 -1.0566376 0.2502073 0
4.4510002 -1.0617045 0.25054824 0
4.4420004 -1.0667391 0.25088918 0
4.4330001 -1.071741 0.25123009 0
4.4240003 -1.0767105 0.251571 0
4.4150004 -1.0816475 0.25191191 0
4.4070001 -1.0868118 0.25221497 0
4.3980002 -1.0916857 0.25255591 0
4.3889999 -1.096527 0.25289679 0
4.381 -1.1016012 0.25319985 0
4.3720002 -1.1063795 0.25354075 0
4.3640003 -1.1113942 0.25384378 0
4.2080002 -1.1999755 0.25975308 0
4.2000003 -1.2044057 0.26005614 0
4.1920004 -1.208807 0.26035917 0
4.184 -1.2131793 0.2606622 0
4.177 -1.2178333 0.26092738 0
4.1690001 -1.2221497 0.26123038 0
4.1610003 -1.2264373 0.26153344 0
4.1540003 -1.2310117 0.26179859 0
4.1460004 -1.2352436 0.26210165 0
4.138 -1.2394464 0.26240468 0
4.131 -1.2439415 0.26266983 0
4.1230001 -1.2480885 0.26297289 0
4.1160002 -1.2525312 0.26323804 0
4.1080003 -1.2566222 0.26354107 0
4.1010003 -1.2610128 0.26380622 0
4.0929999 -1.2650479 0.26410928 0
4.086 -1.2693859 0.26437443 0
4.079 -1.2736989 0.26463962 0
4.0710001 -1.2776511 0.26494265 0
4.0640001 -1.2819117 0.26520777 0
4.0570002 -1.286147 0.26547295 0
4.0500002 -1.2903571 0.26573813 0
4.0420003 -1.2941992 0.26604116 0
4.0350003 -1.298357 0.26630631 0
4.0280004 -1.3024895 0.26657146 0
4.0210004 -1.3065968 0.26683664 0
4.0139999 -1.3106788 0.26710179 0
3.9040003 -1.3733143 0.27126858 0
3.8970003 -1.3769706 0.27153373 0
3.8900003 -1.3806016 0.27179891 0
3.8840003 -1.3845917 0.27202618 0
3.8770003 -1.3881741 0.27229136 0
3.8710003 -1.3921189 0.27251863 0
3.8640003 -1.3956527 0.27278379 0
3.8580003 -1.3995525 0.27301109 0
3.7740002 -1.5188237 0.27619296 0
3.7790003 -1.5271015 0.2760036 0
3.7840002 -1.5353973 0.27581418 0
3.7880003 -1.5432692 0.27566266 0
3.7930002 -1.551599 0.27547327 0
3.7980003 -1.559947 0.27528387 0
3.8020003 -1.5678658 0.27513236 0
3.8070002 -1.576248 0.27494293 0
3.8120003 -1.5846485 0.27475357 0
3.8160002 -1.5926141 0.27460203 0
4.5980005 -0.9774037 0.23740749 0
4.5890002 -0.98296297 0.23776466 0
4.5790005 -0.98826438 0.23816147 0
4.5700002 -0.99375683 0.23851864 0
4.5600004 -0.99898803 0.23891549 0
4.5510001 -1.0044137 0.23927265 0
4.5420003 -1.0098072 0.23962979 0
4.5320001 -1.0149335 0.24002664 0
4.5230002 -1.0202602 0.24038379 0
4.5140004 -1.0255544 0.24074093 0
4.5050001 -1.0308161 0.24109811 0
4.4960003 -1.0360453 0.24145524 0
4.4870005 -1.0412422 0.24181239 0
4.4780002 -1.0464065 0.24216956 0
4.4690003 -1.0515382 0.24252671 0
4.4600005 -1.0566376 0.24288386 0
4.4510002 -1.0617045 0.24324103 0
4.4420004 -1.0667391 0.24359818 0
4.4330001 -1.071741 0.24395533 0
4.4240003 -1.0767105 0.24431248 0
4.4150004 -1.0816475 0.24466962 0
4.4070001 -1.0868118 0.24498712 0
4.3980002 -1.0916857 0.24534427 0
4.3889999 -1.096527 0.24570142 0
4.381 -1.1016012 0.24601889 0
4.3720002 -1.1063795 0.24637604 0
4.3640003 -1.1113942 0.24669349 0
4.2080002 -1.1999755 0.25288418 0
4.2000003 -1.2044057 0.25320166 0
4.1920004 -1.208807 0.25351912 0
4.184 -1.2131793 0.25383657 0
4.177 -1.2178333 0.25411439 0
4.1690001 -1.2221497 0.25443184 0
4.1610003 -1.2264373 0.2547493 0
4.1540003 -1.2310117 0.25502712 0
4.1460004 -1.2352436 0.25534457 0
4.138 -1.2394464 0.25566205 0
4.131 -1.2439415 0.25593984 0
4.1230001 -1.2480885 0.2562573 0
4.1160002 -1.2525312 0.25653511 0
4.1080003 -1.2566222 0.25685257 0
4.1010003 -1.2610128 0.25713032 0
4.0929999 -1.2650479 0.25744781 0
4.086 -1.2693859 0.2577256 0
4.079 -1.2736989 0.25800338 0
4.0710001 -1.2776511 0.25832084 0
4.0640001 -1.2819117 0.25859863 0
4.0570002 -1.286147 0.25887644 0
4.0500002 -1.2903571 0.2591542 0
4.0420003 -1.2941992 0.25947165 0
4.0350003 -1.298357 0.25974947 0
4.0280004 -1.3024895 0.26002723 0
4.0210004 -1.3065968 0.26030505 0
4.0139999 -1.3106788 0.26058283 0
3.9040003 -1.3733143 0.26494804 0
3.8970003 -1.3769706 0.26522583 0
3.8900003 -1.3806016 0.26550362 0
3.8840003 -1.3845917 0.26574171 0
3.8770003 -1.3881741 0.26601952 0
3.8710003 -1.3921189 0.26625758 0
3.8640003 -1.3956527 0.2665354 0
3.8580003 -1.3995525 0.26677349 0
3.7740002 -1.5188237 0.27010694 0
3.7790003 -1.5271015 0.26990852 0
3.7840002 -1.5353973 0.26971012 0
3.7880003 -1.5432692 0.26955137 0
3.7930002 -1.551599 0.26935294 0
3.7980003 -1.559947 0.26915452 0
3.8020003 -1.5678658 0.26899579 0
3.8070002 -1.576248 0.26879737 0
3.8120003 -1.5846485 0.26859897 0
3.8160002 -1.5926141 0.26844022 0
4.5980005 -0.9774037 0.22983511 0
4.5890002 -0.98296297 0.23020852 0
4.5790005 -0.98826438 0.23062336 0
4.5700002 -0.99375683 0.23099677 0
4.5600004 -0.99898803 0.23141164 0
4.5510001 -1.0044137 0.23178504 0
4.5420003 -1.0098072 0.23215842 0
4.5320001 -1.0149335 0.23257332 0
4.5230002 -1.0202602 0.23294669 0
4.5140004 -1.0255544 0.23332006 0
4.5050001 -1.0308161 0.23369347 0
4.4960003 -1.0360453 0.23406684 0
4.4870005 -1.0412422 0.23444024 0
4.4780002 -1.0464065 0.23481363 0
4.4690003 -1.0515382 0.23518701 0
4.4600005 -1.0566376 0.23556039 0
4.4510002 -1.0617045 0.2359338 0
4.4420004 -1.0667391 0.23630717 0
4.4330001 -1.071741 0.23668057 0
4.4240003 -1.0767105 0.23705396 0
4.4150004 -1.0816475 0.23742734 0
4.4070001 -1.0868118 0.23775926 0
4.3980002 -1.0916857 0.23813264 0
4.3889999 -1.096527 0.23850602 0
4.381 -1.1016012 0.23883793 0
4.3720002 -1.1063795 0.23921131 0
4.3640003 -1.1113942 0.23954321 0
4.2080002 -1.1999755 0.24601528 0
4.2000003 -1.2044057 0.24634717 0
4.1920004 -1.208807 0.24667908 0
4.184 -1.2131793 0.24701098 0
4.177 -1.2178333 0.2473014 0
4.1690001 -1.2221497 0.24763329 0
4.1610003 -1.2264373 0.24796519 0
4.1540003 -1.2310117 0.24825561 0
4.1460004 -1.2352436 0.2485875 0
4.138 -1.2394464 0.2489194 0
4.131 -1.2439415 0.24920982 0
4.1230001 -1.2480885 0.24954171 0
4.1160002 -1.2525312 0.24983214 0
4.1080003 -1.2566222 0.25016403 0
4.1010003 -1.2610128 0.25045446 0
4.0929999 -1.2650479 0.25078636 0
4.086 -1.2693859 0.25107676 0
4.079 -1.2736989 0.25136715 0
4.0710001 -1.2776511 0.25169909 0
4.0640001 -1.2819117 0.25198948 0
4.0570002 -1.286147 0.25227991 0
4.0500002 -1.2903571 0.25257033 0
4.0420003 -1.2941992 0.25290221 0
4.0350003 -1.298357 0.25319263 0
4.0280004 -1.3024895 0.25348303 0
4.0210004 -1.3065968 0.25377345 0
4.0139999 -1.3106788 0.25406387 0
3.9040003 -1.3733143 0.2586275 0
3.8970003 -1.3769706 0.25891793 0
3.8900003 -1.3806016 0.25920832 0
3.8840003 -1.3845917 0.25945723 0
3.8770003 -1.3881741 0.25974765 0
3.8710003 -1.3921189 0.25999659 0
3.8640003 -1.3956527 0.26028699 0
3.8580003 -1.3995525 0.26053593 0
3.7740002 -1.5188237 0.26402089 0
3.7790003 -1.5271015 0.26381344 0
3.7840002 -1.5353973 0.26360601 0
3.7880003 -1.5432692 0.26344007 0
3.7930002 -1.551599 0.26323265 0
3.7980003 -1.559947 0.26302516 0
3.8020003 -1.5678658 0.26285923 0
3.8070002 -1.576248 0.2626518 0
3.8120003 -1.5846485 0.26244438 0
3.8160002 -1.5926141 0.26227841 0
4.5980005 -0.9774037 0.22226271 0
4.5890002 -0.98296297 0.22265235 0
4.5790005 -0.98826438 0.22308527 0
4.5700002 -0.99375683 0.22347489 0
4.5600004 -0.99898803 0.22390778 0
4.5510001 -1.0044137 0.22429743 0
4.5420003 -1.0098072 0.22468704 0
4.5320001 -1.0149335 0.22511996 0
4.5230002 -1.0202602 0.22550958 0
4.5140004 -1.0255544 0.2258992 0
4.5050001 -1.0308161 0.22628883 0
4.4960003 -1.0360453 0.22667846 0
4.4870005 -1.0412422 0.22706805 0
4.4780002 -1.0464065 0.2274577 0
4.4690003 -1.0515382 0.22784731 0
4.4600005 -1.0566376 0.22823693 0
4.4510002 -1.0617045 0.22862658 0
4.4420004 -1.0667391 0.22901617 0
4.4330001 -1.071741 0.22940582 0
4.4240003 -1.0767105 0.22979543 0
4.4150004 -1.0816475 0.23018505 0
4.4070001 -1.0868118 0.23053139 0
4.3980002 -1.0916857 0.23092102 0
4.3889999 -1.096527 0.23131064 0
4.381 -1.1016012 0.23165695 0
4.3720002 -1.1063795 0.23204659 0
4.3640003 -1.1113942 0.23239292 0
4.2080002 -1.1999755 0.23914638 0
4.2000003 -1.2044057 0.2394927 0
4.1920004 -1.208807 0.23983902 0
4.184 -1.2131793 0.24018537 0
4.177 -1.2178333 0.24048841 0
4.1690001 -1.2221497 0.24083473 0
4.1610003 -1.2264373 0.24118106 0
4.1540003 -1.2310117 0.24148411 0
4.1460004 -1.2352436 0.24183044 0
4.138 -1.2394464 0.24217677 0
4.131 -1.2439415 0.2424798 0
4.1230001 -1.2480885 0.24282613 0
4.1160002 -1.2525312 0.24312918 0
4.1080003 -1.2566222 0.24347551 0
4.1010003 -1.2610128 0.24377856 0
4.0929999 -1.2650479 0.24412489 0
4.086 -1.2693859 0.24442792 0
4.079 -1.2736989 0.24473096 0
4.0710001 -1.2776511 0.2450773 0
4.0640001 -1.2819117 0.24538033 0
4.0570002 -1.286147 0.24568337 0
4.0500002 -1.2903571 0.2459864 0
4.0420003 -1.2941992 0.24633275 0
4.0350003 -1.298357 0.24663578 0
4.0280004 -1.3024895 0.24693882 0
4.0210004 -1.3065968 0.24724185 0
4.0139999 -1.3106788 0.24754491 0
3.9040003 -1.3733143 0.25230694 0
3.8970003 -1.3769706 0.25260997 0
3.8900003 -1.3806016 0.25291303 0
3.8840003 -1.3845917 0.25317279 0
3.8770003 -1.3881741 0.25347582 0
3.8710003 -1.3921189 0.25373557 0
3.8640003 -1.3956527 0.25403863 0
3.8580003 -1.3995525 0.25429836 0
3.7740002 -1.5188237 0.25793487 0
3.7790003 -1.5271015 0.25771838 0
3.7840002 -1.5353973 0.25750193 0
3.7880003 -1.5432692 0.25732875 0
3.7930002 -1.551599 0.25711229 0
3.7980003 -1.559947 0.25689584 0
3.8020003 -1.5678658 0.25672269 0
3.8070002 -1.576248 0.2565062 0
3.8120003 -1.5846485 0.25628978 0
3.8160002 -1.5926141 0.2561166 0
4.5980005 -0.9774037 0.21469033 0
4.5890002 -0.98296297 0.21509619 0
4.5790005 -0.98826438 0.21554714 0
4.5700002 -0.99375683 0.21595301 0
4.5600004 -0.99898803 0.21640395 0
4.5510001 -1.0044137 0.21680982 0
4.5420003 -1.0098072 0.21721567 0
4.5320001 -1.0149335 0.21766663 0
4.5230002 -1.0202602 0.21807247 0
4.5140004 -1.0255544 0.21847834 0
4.5050001 -1.0308161 0.2188842 0
4.4960003 -1.0360453 0.21929006 0
4.4870005 -1.0412422 0.2196959 0
4.4780002 -1.0464065 0.22010176 0
4.4690003 -1.0515382 0.22050762 0
4.4600005 -1.0566376 0.22091347 0
4.4510002 -1.0617045 0.22131935 0
4.4420004 -1.0667391 0.22172518 0
4.4330001 -1.071741 0.22213106 0
4.4240003 -1.0767105 0.22253691 0
4.4150004 -1.0816475 0.22294275 0
4.4070001 -1.0868118 0.22330353 0
4.3980002 -1.0916857 0.22370937 0
4.3889999 -1.096527 0.22411525 0
4.381 -1.1016012 0.22447601 0
4.3720002 -1.1063795 0.22488186 0
4.3640003 -1.1113942 0.22524261 0
4.2080002 -1.1999755 0.23227747 0
4.2000003 -1.2044057 0.23263822 0
4.1920004 -1.208807 0.23299898 0
4.184 -1.2131793 0.23335975 0
4.177 -1.2178333 0.23367542 0
4.1690001 -1.2221497 0.23403618 0
4.1610003 -1.2264373 0.23439695 0
4.1540003 -1.2310117 0.23471262 0
4.1460004 -1.2352436 0.23507336 0
4.138 -1.2394464 0.23543413 0
4.131 -1.2439415 0.23574981 0
4.1230001 -1.2480885 0.23611057 0
4.1160002 -1.2525312 0.23642623 0
4.1080003 -1.2566222 0.23678699 0
4.1010003 -1.2610128 0.23710264 0
4.0929999 -1.2650479 0.23746341 0
4.086 -1.2693859 0.2377791 0
4.079 -1.2736989 0.23809475 0
4.0710001 -1.2776511 0.2384555 0
4.0640001 -1.2819117 0.23877117 0
4.0570002 -1.286147 0.23908685 0
4.0500002 -1.2903571 0.23940252 0
4.0420003 -1.2941992 0.23976327 0
4.0350003 -1.298357 0.24007894 0
4.0280004 -1.3024895 0.24039461 0
4.0210004 -1.3065968 0.24071026 0
4.0139999 -1.3106788 0.24102595 0
3.9040003 -1.3733143 0.2459864 0
3.8970003 -1.3769706 0.24630208 0
3.8900003 -1.3806016 0.24661773 0
3.8840003 -1.3845917 0.24688831 0
3.8770003 -1.3881741 0.24720399 0
3.8710003 -1.3921189 0.24747457 0
3.8640003 -1.3956527 0.24779022 0
3.8580003 -1.3995525 0.24806079 0
3.7740002 -1.5188237 0.25184882 0
3.7790003 -1.5271015 0.2516233 0
3.7840002 -1.5353973 0.25139785 0
3.7880003 -1.5432692 0.25121745 0
3.7930002 -1.551599 0.250992 0
3.7980003 -1.559947 0.25076652 0
3.8020003 -1.5678658 0.25058612 0
3.8070002 -1.576248 0.25036067 0
3.8120003 -1.5846485 0.25013518 0
3.8160002 -1.5926141 0.24995479 0
4.5980005 -0.9774037 0.20711794 0
4.5890002 -0.98296297 0.20754005 0
4.5790005 -0.98826438 0.20800903 0
4.5700002 -0.99375683 0.20843114 0
4.5600004 -0.99898803 0.20890011 0
4.5510001 -1.0044137 0.20932221 0
4.5420003 -1.0098072 0.2097443 0
4.5320001 -1.0149335 0.2102133 0
4.5230002 -1.0202602 0.21063538 0
4.5140004 -1.0255544 0.21105747 0
4.5050001 -1.0308161 0.21147956 0
4.4960003 -1.0360453 0.21190166 0
4.4870005 -1.0412422 0.21232374 0
4.4780002 -1.0464065 0.21274585 0
4.4690003 -1.0515382 0.21316792 0
4.4600005 -1.0566376 0.21359 0
4.4510002 -1.0617045 0.21401212 0
4.4420004 -1.0667391 0.21443419 0
4.4330001 -1.071741 0.2148563 0
4.4240003 -1.0767105 0.21527837 0
4.4150004 -1.0816475 0.21570046 0
4.4070001 -1.0868118 0.21607567 0
4.3980002 -1.0916857 0.21649775 0
4.3889999 -1.096527 0.21691985 0
4.381 -1.1016012 0.21729504 0
4.3720002 -1.1063795 0.21771713 0
4.3640003 -1.1113942 0.21809232 0
4.2080002 -1.1999755 0.22540857 0
4.2000003 -1.2044057 0.22578377 0
4.1920004 -1.208807 0.22615895 0
4.184 -1.2131793 0.22653414 0
4.177 -1.2178333 0.22686245 0
4.1690001 -1.2221497 0.22723761 0
4.1610003 -1.2264373 0.22761282 0
4.1540003 -1.2310117 0.22794111 0
4.1460004 -1.2352436 0.22831629 0
4.138 -1.2394464 0.2286915 0
4.131 -1.2439415 0.22901979 0
4.1230001 -1.2480885 0.22939499 0
4.1160002 -1.2525312 0.22972327 0
4.1080003 -1.2566222 0.23009847 0
4.1010003 -1.2610128 0.23042676 0
4.0929999 -1.2650479 0.23080195 0
4.086 -1.2693859 0.23113024 0
4.079 -1.2736989 0.23145853 0
4.0710001 -1.2776511 0.23183373 0
4.0640001 -1.2819117 0.23216201 0
4.0570002 -1.286147 0.23249033 0
4.0500002 -1.2903571 0.23281862 0
4.0420003 -1.2941992 0.23319381 0
4.0350003 -1.298357 0.23352209 0
4.0280004 -1.3024895 0.23385039 0
4.0210004 -1.3065968 0.23417868 0
4.0139999 -1.3106788 0.23450698 0
3.9040003 -1.3733143 0.23966587 0
3.8970003 -1.3769706 0.23999417 0
3.8900003 -1.3806016 0.24032246 0
3.8840003 -1.3845917 0.24060385 0
3.8770003 -1.3881741 0.24093214 0
3.8710003 -1.3921189 0.24121355 0
3.8640003 -1.3956527 0.24154183 0
3.8580003 -1.3995525 0.24182323 0
3.7740002 -1.5188237 0.24576275 0
3.7790003 -1.5271015 0.24552825 0
3.7840002 -1.5353973 0.24529375 0
3.7880003 -1.5432692 0.24510615 0
3.7930002 -1.551599 0.24487166 0
3.7980003 -1.559947 0.24463716 0
3.8020003 -1.5678658 0.24444957 0
3.8070002 -1.576248 0.24421509 0
3.8120003 -1.5846485 0.24398057 0
3.8160002 -1.5926141 0.24379298 0
4.5980005 -0.9774037 0.19954556 0
4.5890002 -0.98296297 0.19998389 0
4.5790005 -0.98826438 0.20047091 0
4.5700002 -0.99375683 0.20090924 0
4.5600004 -0.99898803 0.20139627 0
4.5510001 -1.0044137 0.2018346 0
4.5420003 -1.0098072 0.20227292 0
4.5320001 -1.0149335 0.20275997 0
4.5230002 -1.0202602 0.20319827 0
4.5140004 -1.0255544 0.20363659 0
4.5050001 -1.0308161 0.20407493 0
4.4960003 -1.0360453 0.20451325 0
4.4870005 -1.0412422 0.20495157 0
4.4780002 -1.0464065 0.2053899 0
4.4690003 -1.0515382 0.20582823 0
4.4600005 -1.0566376 0.20626655 0
4.4510002 -1.0617045 0.20670488 0
4.4420004 -1.0667391 0.2071432 0
4.4330001 -1.071741 0.20758155 0
4.4240003 -1.0767105 0.20801987 0
4.4150004 -1.0816475 0.20845819 0
4.4070001 -1.0868118 0.20884782 0
4.3980002 -1.0916857 0.20928612 0
4.3889999 -1.096527 0.20972446 0
4.381 -1.1016012 0.21011408 0
4.3720002 -1.1063795 0.21055241 0
4.3640003 -1.1113942 0.21094202 0
4.2080002 -1.1999755 0.21853967 0
4.2000003 -1.2044057 0.21892929 0
4.1920004 -1.208807 0.2193189 0
4.184 -1.2131793 0.21970853 0
4.177 -1.2178333 0.22004946 0
4.1690001 -1.2221497 0.22043908 0
4.1610003 -1.2264373 0.2208287 0
4.1540003 -1.2310117 0.22116962 0
4.1460004 -1.2352436 0.22155924 0
4.138 -1.2394464 0.22194886 0
4.131 -1.2439415 0.22228979 0
4.1230001 -1.2480885 0.22267939 0
4.1160002 -1.2525312 0.22302033 0
4.1080003 -1.2566222 0.22340995 0
4.1010003 -1.2610128 0.22375087 0
4.0929999 -1.2650479 0.22414051 0
4.086 -1.2693859 0.22448142 0
4.079 -1.2736989 0.22482234 0
4.0710001 -1.2776511 0.22521195 0
4.0640001 -1.2819117 0.22555287 0
4.0570002 -1.286147 0.22589381 0
4.0500002 -1.2903571 0.22623472 0
4.0420003 -1.2941992 0.22662432 0
4.0350003 -1.298357 0.22696525 0
4.0280004 -1.3024895 0.22730617 0
4.0210004 -1.3065968 0.2276471 0
4.0139999 -1.3106788 0.22798802 0
3.9040003 -1.3733143 0.23334533 0
3.8970003 -1.3769706 0.23368624 0
3.8900003 -1.3806016 0.23402716 0
3.8840003 -1.3845917 0.23431937 0
3.8770003 -1.3881741 0.2346603 0
3.8710003 -1.3921189 0.23495252 0
3.8640003 -1.3956527 0.23529343 0
3.8580003 -1.3995525 0.23558566 0
3.7740002 -1.5188237 0.2396767 0
3.7790003 -1.5271015 0.23943318 0
3.7840002 -1.5353973 0.23918967 0
3.7880003 -1.5432692 0.23899485 0
3.7930002 -1.551599 0.23875135 0
3.7980003 -1.559947 0.23850781 0
3.8020003 -1.5678658 0.23831302 0
3.8070002 -1.576248 0.2380695 0
3.8120003 -1.5846485 0.23782597 0
3.8160002 -1.5926141 0.23763117 0
4.5980005 -0.9774037 0.19197316 0
4.5890002 -0.98296297 0.19242774 0
4.5790005 -0.98826438 0.1929328 0
4.5700002 -0.99375683 0.19338737 0
4.5600004 -0.99898803 0.19389242 0
4.5510001 -1.0044137 0.19434701 0
4.5420003 -1.0098072 0.19480155 0
4.5320001 -1.0149335 0.19530663 0
4.5230002 -1.0202602 0.19576119 0
4.5140004 -1.0255544 0.19621573 0
4.5050001 -1.0308161 0.19667029 0
4.4960003 -1.0360453 0.19712485 0
4.4870005 -1.0412422 0.1975794 0
4.4780002 -1.0464065 0.19803397 0
4.4690003 -1.0515382 0.19848853 0
4.4600005 -1.0566376 0.19894309 0
4.4510002 -1.0617045 0.19939767 0
4.4420004 -1.0667391 0.1998522 0
4.4330001 -1.071741 0.20030679 0
4.4240003 -1.0767105 0.20076133 0
4.4150004 -1.0816475 0.20121588 0
4.4070001 -1.0868118 0.20161995 0
4.3980002 -1.0916857 0.20207451 0
4.3889999 -1.096527 0.20252907 0
4.381 -1.1016012 0.20293312 0
4.3720002 -1.1063795 0.20338768 0
4.3640003 -1.1113942 0.20379174 0
4.2080002 -1.1999755 0.21167077 0
4.2000003 -1.2044057 0.21207482 0
4.1920004 -1.208807 0.21247886 0
4.184 -1.2131793 0.21288292 0
4.177 -1.2178333 0.21323647 0
4.1690001 -1.2221497 0.21364053 0
4.1610003 -1.2264373 0.21404457 0
4.1540003 -1.2310117 0.21439812 0
4.1460004 -1.2352436 0.21480218 0
4.138 -1.2394464 0.21520624 0
4.131 -1.2439415 0.21555978 0
4.1230001 -1.2480885 0.21596381 0
4.1160002 -1.2525312 0.21631737 0
4.1080003 -1.2566222 0.21672143 0
4.1010003 -1.2610128 0.21707498 0
4.0929999 -1.2650479 0.21747904 0
4.086 -1.2693859 0.21783258 0
4.079 -1.2736989 0.21818613 0
4.0710001 -1.2776511 0.21859017 0
4.0640001 -1.2819117 0.21894372 0
4.0570002 -1.286147 0.21929727 0
4.0500002 -1.2903571 0.21965082 0
4.0420003 -1.2941992 0.22005486 0
4.0350003 -1.298357 0.22040841 0
4.0280004 -1.3024895 0.22076195 0
4.0210004 -1.3065968 0.2211155 0
4.0139999 -1.3106788 0.22146906 0
3.9040003 -1.3733143 0.22702478 0
3.8970003 -1.3769706 0.22737832 0
3.8900003 -1.3806016 0.22773187 0
3.8840003 -1.3845917 0.22803491 0
3.8770003 -1.3881741 0.22838846 0
3.8710003 -1.3921189 0.2286915 0
3.8640003 -1.3956527 0.22904505 0
3.8580003 -1.3995525 0.22934808 0
3.7740002 -1.5188237 0.23359065 0
3.7790003 -1.5271015 0.2333381 0
3.7840002 -1.5353973 0.23308559 0
3.7880003 -1.5432692 0.23288354 0
3.7930002 -1.551599 0.23263101 0
3.7980003 -1.559947 0.23237848 0
3.8020003 -1.5678658 0.23217645 0
3.8070002 -1.576248 0.23192392 0
3.8120003 -1.5846485 0.23167139 0
3.8160002 -1.5926141 0.23146936 0
4.5980005 -0.9774037 0.18440078 0
4.5890002 -0.98296297 0.18487158 0
4.5790005 -0.98826438 0.18539469 0
4.5700002 -0.99375683 0.18586549 0
4.5600004 -0.99898803 0.18638858 0
4.5510001 -1.0044137 0.1868594 0
4.5420003 -1.0098072 0.18733019 0
4.5320001 -1.0149335 0.18785329 0
4.5230002 -1.0202602 0.18832408 0
4.5140004 -1.0255544 0.18879487 0
4.5050001 -1.0308161 0.18926568 0
4.4960003 -1.0360453 0.18973646 0
4.4870005 -1.0412422 0.19020724 0
4.4780002 -1.0464065 0.19067806 0
4.4690003 -1.0515382 0.19114883 0
4.4600005 -1.0566376 0.19161962 0
4.4510002 -1.0617045 0.19209044 0
4.4420004 -1.0667391 0.19256121 0
4.4330001 -1.071741 0.19303203 0
4.4240003 -1.0767105 0.19350281 0
4.4150004 -1.0816475 0.19397359 0
4.4070001 -1.0868118 0.19439209 0
4.3980002 -1.0916857 0.19486289 0
4.3889999 -1.096527 0.19533369 0
4.381 -1.1016012 0.19575216 0
4.3720002 -1.1063795 0.19622296 0
4.3640003 -1.1113942 0.19664143 0
4.2080002 -1.1999755 0.20480187 0
4.2000003 -1.2044057 0.20522034 0
4.1920004 -1.208807 0.20563883 0
4.184 -1.2131793 0.20605731 0
4.177 -1.2178333 0.20642349 0
4.1690001 -1.2221497 0.20684196 0
4.1610003 -1.2264373 0.20726044 0
4.1540003 -1.2310117 0.20762663 0
4.1460004 -1.2352436 0.2080451 0
4.138 -1.2394464 0.20846359 0
4.131 -1.2439415 0.20882976 0
4.1230001 -1.2480885 0.20924824 0
4.1160002 -1.2525312 0.20961443 0
4.1080003 -1.2566222 0.21003291 0
4.1010003 -1.2610128 0.21039908 0
4.0929999 -1.2650479 0.21081758 0
4.086 -1.2693859 0.21118374 0
4.079 -1.2736989 0.21154992 0
4.0710001 -1.2776511 0.21196839 0
4.0640001 -1.2819117 0.21233457 0
4.0570002 -1.286147 0.21270074 0
4.0500002 -1.2903571 0.21306691 0
4.0420003 -1.2941992 0.2134854 0
4.0350003 -1.298357 0.21385156 0
4.0280004 -1.3024895 0.21421774 0
4.0210004 -1.3065968 0.2145839 0
4.0139999 -1.3106788 0.2149501 0
3.9040003 -1.3733143 0.22070424 0
3.8970003 -1.3769706 0.22107039 0
3.8900003 -1.3806016 0.22143658 0
3.8840003 -1.3845917 0.22175045 0
3.8770003 -1.3881741 0.22211662 0
3.8710003 -1.3921189 0.22243048 0
3.8640003 -1.3956527 0.22279665 0
3.8580003 -1.3995525 0.22311051 0
3.7740002 -1.5188237 0.2275046 0
3.7790003 -1.5271015 0.22724304 0
3.7840002 -1.5353973 0.22698149 0
3.7880003 -1.5432692 0.22677225 0
3.7930002 -1.551599 0.2265107 0
3.7980003 -1.559947 0.22624914 0
3.8020003 -1.5678658 0.2260399 0
3.8070002 -1.576248 0.22577836 0
3.8120003 -1.5846485 0.2255168 0
3.8160002 -1.5926141 0.22530755 0
4.5980005 -0.9774037 0.1768284 0
4.5890002 -0.98296297 0.17731543 0
4.5790005 -0.98826438 0.17785656 0
4.5700002 -0.99375683 0.17834361 0
4.5600004 -0.99898803 0.17888474 0
4.5510001 -1.0044137 0.17937179 0
4.5420003 -1.0098072 0.17985879 0
4.5320001 -1.0149335 0.18039995 0
4.5230002 -1.0202602 0.18088698 0
4.5140004 -1.0255544 0.18137398 0
4.5050001 -1.0308161 0.18186104 0
4.4960003 -1.0360453 0.18234806 0
4.4870005 -1.0412422 0.18283509 0
4.4780002 -1.0464065 0.18332212 0
4.4690003 -1.0515382 0.18380915 0
4.4600005 -1.0566376 0.18429616 0
4.4510002 -1.0617045 0.18478321 0
4.4420004 -1.0667391 0.18527022 0
4.4330001 -1.071741 0.18575726 0
4.4240003 -1.0767105 0.18624429 0
4.4150004 -1.0816475 0.18673129 0
4.4070001 -1.0868118 0.18716423 0
4.3980002 -1.0916857 0.18765126 0
4.3889999 -1.096527 0.18813828 0
4.381 -1.1016012 0.1885712 0
4.3720002 -1.1063795 0.18905823 0
4.3640003 -1.1113942 0.18949114 0
4.2080002 -1.1999755 0.19793296 0
4.2000003 -1.2044057 0.19836587 0
4.1920004 -1.208807 0.19879878 0
4.184 -1.2131793 0.1992317 0
4.177 -1.2178333 0.1996105 0
4.1690001 -1.2221497 0.20004341 0
4.1610003 -1.2264373 0.20047633 0
4.1540003 -1.2310117 0.20085514 0
4.1460004 -1.2352436 0.20128804 0
4.138 -1.2394464 0.20172095 0
4.131 -1.2439415 0.20209976 0
4.1230001 -1.2480885 0.20253266 0
4.1160002 -1.2525312 0.20291148 0
4.1080003 -1.2566222 0.20334439 0
4.1010003 -1.2610128 0.20372318 0
4.0929999 -1.2650479 0.2041561 0
4.086 -1.2693859 0.2045349 0
4.079 -1.2736989 0.20491371 0
4.0710001 -1.2776511 0.20534661 0
4.0640001 -1.2819117 0.20572542 0
4.0570002 -1.286147 0.20610422 0
4.0500002 -1.2903571 0.20648302 0
4.0420003 -1.2941992 0.20691592 0
4.0350003 -1.298357 0.20729473 0
4.0280004 -1.3024895 0.20767352 0
4.0210004 -1.3065968 0.20805232 0
4.0139999 -1.3106788 0.20843112 0
3.9040003 -1.3733143 0.21438369 0
3.8970003 -1.3769706 0.21476249 0
3.8900003 -1.3806016 0.2151413 0
3.8840003 -1.3845917 0.21546598 0
3.8770003 -1.3881741 0.21584478 0
3.8710003 -1.3921189 0.21616946 0
3.8640003 -1.3956527 0.21654826 0
3.8580003 -1.3995525 0.21687295 0
3.7740002 -1.5188237 0.22141854 0
3.7790003 -1.5271015 0.22114798 0
3.7840002 -1.5353973 0.22087741 0
3.7880003 -1.5432692 0.22066094 0
3.7930002 -1.551599 0.22039038 0
3.7980003 -1.559947 0.22011979 0
3.8020003 -1.5678658 0.21990335 0
3.8070002 -1.576248 0.21963279 0
3.8120003 -1.5846485 0.2193622 0
3.8160002 -1.5926141 0.21914575 0
4.5980005 -0.9774037 0.169256 0
4.5890002 -0.98296297 0.16975927 0
4.5790005 -0.98826438 0.17031845 0
4.5700002 -0.99375683 0.17082173 0
4.5600004 -0.99898803 0.17138091 0
4.5510001 -1.0044137 0.17188418 0
4.5420003 -1.0098072 0.17238742 0
4.5320001 -1.0149335 0.17294663 0
4.5230002 -1.0202602 0.17344987 0
4.5140004 -1.0255544 0.17395313 0
4.5050001 -1.0308161 0.17445642 0
4.4960003 -1.0360453 0.17495966 0
4.4870005 -1.0412422 0.1754629 0
4.4780002 -1.0464065 0.1759662 0
4.4690003 -1.0515382 0.17646945 0
4.4600005 -1.0566376 0.17697269 0
4.4510002 -1.0617045 0.17747597 0
4.4420004 -1.0667391 0.17797923 0
4.4330001 -1.071741 0.1784825 0
4.4240003 -1.0767105 0.17898576 0
4.4150004 -1.0816475 0.17948902 0
4.4070001 -1.0868118 0.17993638 0
4.3980002 -1.0916857 0.18043964 0
4.3889999 -1.096527 0.18094289 0
4.381 -1.1016012 0.18139024 0
4.3720002 -1.1063795 0.1818935 0
4.3640003 -1.1113942 0.18234083 0
4.2080002 -1.1999755 0.19106406 0
4.2000003 -1.2044057 0.19151141 0
4.1920004 -1.208807 0.19195874 0
4.184 -1.2131793 0.19240609 0
4.177 -1.2178333 0.19279753 0
4.1690001 -1.2221497 0.19324484 0
4.1610003 -1.2264373 0.19369221 0
4.1540003 -1.2310117 0.19408363 0
4.1460004 -1.2352436 0.19453098 0
4.138 -1.2394464 0.19497833 0
4.131 -1.2439415 0.19536975 0
4.1230001 -1.2480885 0.19581708 0
4.1160002 -1.2525312 0.19620854 0
4.1080003 -1.2566222 0.19665587 0
4.1010003 -1.2610128 0.19704729 0
4.0929999 -1.2650479 0.19749464 0
4.086 -1.2693859 0.19788606 0
4.079 -1.2736989 0.19827749 0
4.0710001 -1.2776511 0.19872482 0
4.0640001 -1.2819117 0.19911626 0
4.0570002 -1.286147 0.19950768 0
4.0500002 -1.2903571 0.19989912 0
4.0420003 -1.2941992 0.20034645 0
4.0350003 -1.298357 0.20073788 0
4.0280004 -1.3024895 0.2011293 0
4.0210004 -1.3065968 0.20152073 0
4.0139999 -1.3106788 0.20191216 0
3.9040003 -1.3733143 0.20806314 0
3.8970003 -1.3769706 0.20845458 0
3.8900003 -1.3806016 0.20884599 0
3.8840003 -1.3845917 0.2091815 0
3.8770003 -1.3881741 0.20957293 0
3.8710003 -1.3921189 0.20990844 0
3.8640003 -1.3956527 0.21029986 0
3.8580003 -1.3995525 0.21063538 0
3.7740002 -1.5188237 0.21533251 0
3.7790003 -1.5271015 0.2150529 0
3.7840002 -1.5353973 0.21477333 0
3.7880003 -1.5432692 0.21454965 0
3.7930002 -1.551599 0.21427006 0
3.7980003 -1.559947 0.21399046 0
3.8020003 -1.5678658 0.21376678 0
3.8070002 -1.576248 0.21348721 0
3.8120003 -1.5846485 0.21320762 0
3.8160002 -1.5926141 0.21298394 0
4.5980005 -0.9774037 0.16168362 0
4.5890002 -0.98296297 0.16220313 0
4.5790005 -0.98826438 0.16278033 0
4.5700002 -0.99375683 0.16329984 0
4.5600004 -0.99898803 0.16387706 0
4.5510001 -1.0044137 0.16439657 0
4.5420003 -1.0098072 0.16491605 0
4.5320001 -1.0149335 0.16549329 0
4.5230002 -1.0202602 0.16601278 0
4.5140004 -1.0255544 0.16653226 0
4.5050001 -1.0308161 0.16705178 0
4.4960003 -1.0360453 0.16757126 0
4.4870005 -1.0412422 0.16809075 0
4.4780002 -1.0464065 0.16861026 0
4.4690003 -1.0515382 0.16912974 0
4.4600005 -1.0566376 0.16964923 0
4.4510002 -1.0617045 0.17016874 0
4.4420004 -1.0667391 0.17068824 0
4.4330001 -1.071741 0.17120776 0
4.4240003 -1.0767105 0.17172724 0
4.4150004 -1.0816475 0.17224672 0
4.4070001 -1.0868118 0.17270853 0
4.3980002 -1.0916857 0.17322801 0
4.3889999 -1.096527 0.17374751 0
4.381 -1.1016012 0.17420928 0
4.3720002 -1.1063795 0.17472878 0
4.3640003 -1.1113942 0.17519054 0
4.2080002 -1.1999755 0.18419516 0
4.2000003 -1.2044057 0.18465693 0
4.1920004 -1.208807 0.18511871 0
4.184 -1.2131793 0.18558048 0
4.177 -1.2178333 0.18598454 0
4.1690001 -1.2221497 0.18644631 0
4.1610003 -1.2264373 0.18690808 0
4.1540003 -1.2310117 0.18731214 0
4.1460004 -1.2352436 0.18777391 0
4.138 -1.2394464 0.18823569 0
4.131 -1.2439415 0.18863975 0
4.1230001 -1.2480885 0.18910152 0
4.1160002 -1.2525312 0.18950558 0
4.1080003 -1.2566222 0.18996735 0
4.1010003 -1.2610128 0.19037139 0
4.0929999 -1.2650479 0.19083318 0
4.086 -1.2693859 0.19123723 0
4.079 -1.2736989 0.19164129 0
4.0710001 -1.2776511 0.19210304 0
4.0640001 -1.2819117 0.1925071 0
4.0570002 -1.286147 0.19291116 0
4.0500002 -1.2903571 0.19331522 0
4.0420003 -1.2941992 0.19377698 0
4.0350003 -1.298357 0.19418104 0
4.0280004 -1.3024895 0.19458508 0
4.0210004 -1.3065968 0.19498914 0
4.0139999 -1.3106788 0.1953932 0
3.9040003 -1.3733143 0.2017426 0
3.8970003 -1.3769706 0.20214665 0
3.8900003 -1.3806016 0.20255071 0
3.8840003 -1.3845917 0.20289704 0
3.8770003 -1.3881741 0.20330109 0
3.8710003 -1.3921189 0.20364742 0
3.8640003 -1.3956527 0.20405148 0
3.8580003 -1.3995525 0.20439781 0
3.7740002 -1.5188237 0.20924646 0
3.7790003 -1.5271015 0.20895784 0
3.7840002 -1.5353973 0.20866923 0
3.7880003 -1.5432692 0.20843834 0
3.7930002 -1.551599 0.20814973 0
3.7980003 -1.559947 0.20786111 0
3.8020003 -1.5678658 0.20763023 0
3.8070002 -1.576248 0.20734163 0
3.8120003 -1.5846485 0.20705302 0
3.8160002 -1.5926141 0.20682213 0
4.5980005 -0.9774037 0.15411124 0
4.5890002 -0.98296297 0.15464699 0
4.5790005 -0.98826438 0.15524222 0
4.5700002 -0.99375683 0.15577798 0
4.5600004 -0.99898803 0.1563732 0
4.5510001 -1.0044137 0.15690896 0
4.5420003 -1.0098072 0.15744469 0
4.5320001 -1.0149335 0.15803994 0
4.5230002 -1.0202602 0.15857567 0
4.5140004 -1.0255544 0.1591114 0
4.5050001 -1.0308161 0.15964715 0
4.4960003 -1.0360453 0.16018288 0
4.4870005 -1.0412422 0.16071858 0
4.4780002 -1.0464065 0.16125433 0
4.4690003 -1.0515382 0.16179006 0
4.4600005 -1.0566376 0.16232578 0
4.4510002 -1.0617045 0.16286153 0
4.4420004 -1.0667391 0.16339722 0
4.4330001 -1.071741 0.16393298 0
4.4240003 -1.0767105 0.16446871 0
4.4150004 -1.0816475 0.16500443 0
4.4070001 -1.0868118 0.16548066 0
4.3980002 -1.0916857 0.16601638 0
4.3889999 -1.096527 0.16655211 0
4.381 -1.1016012 0.16702832 0
4.3720002 -1.1063795 0.16756405 0
4.3640003 -1.1113942 0.16804025 0
4.2080002 -1.1999755 0.17732626 0
4.2000003 -1.2044057 0.17780246 0
4.1920004 -1.208807 0.17827865 0
4.184 -1.2131793 0.17875488 0
4.177 -1.2178333 0.17917155 0
4.1690001 -1.2221497 0.17964776 0
4.1610003 -1.2264373 0.18012396 0
4.1540003 -1.2310117 0.18054065 0
4.1460004 -1.2352436 0.18101683 0
4.138 -1.2394464 0.18149306 0
4.131 -1.2439415 0.18190973 0
4.1230001 -1.2480885 0.18238594 0
4.1160002 -1.2525312 0.18280262 0
4.1080003 -1.2566222 0.18327883 0
4.1010003 -1.2610128 0.1836955 0
4.0929999 -1.2650479 0.18417171 0
4.086 -1.2693859 0.1845884 0
4.079 -1.2736989 0.18500507 0
4.0710001 -1.2776511 0.18548128 0
4.0640001 -1.2819117 0.18589795 0
4.0570002 -1.286147 0.18631464 0
4.0500002 -1.2903571 0.18673131 0
4.0420003 -1.2941992 0.18720752 0
4.0350003 -1.298357 0.18762419 0
4.0280004 -1.3024895 0.18804088 0
4.0210004 -1.3065968 0.18845755 0
4.0139999 -1.3106788 0.18887424 0
3.9040003 -1.3733143 0.19542207 0
3.8970003 -1.3769706 0.19583873 0
3.8900003 -1.3806016 0.19625542 0
3.8840003 -1.3845917 0.19661257 0
3.8770003 -1.3881741 0.19702925 0
3.8710003 -1.3921189 0.1973864 0
3.8640003 -1.3956527 0.19780309 0
3.8580003 -1.3995525 0.19816025 0
3.7740002 -1.5188237 0.20316041 0
3.7790003 -1.5271015 0.20286277 0
3.7840002 -1.5353973 0.20256515 0
3.7880003 -1.5432692 0.20232703 0
3.7930002 -1.551599 0.20202942 0
3.7980003 -1.559947 0.20173177 0
3.8020003 -1.5678658 0.20149368 0
3.8070002 -1.576248 0.20119606 0
3.8120003 -1.5846485 0.20089842 0
3.8160002 -1.5926141 0.20066032 0
4.5980005 -0.9774037 0.14653885 0
4.5890002 -0.98296297 0.14709082 0
4.5790005 -0.98826438 0.14770409 0
4.5700002 -0.99375683 0.14825609 0
4.5600004 -0.99898803 0.14886937 0
4.5510001 -1.0044137 0.14942136 0
4.5420003 -1.0098072 0.1499733 0
4.5320001 -1.0149335 0.15058661 0
4.5230002 -1.0202602 0.15113857 0
4.5140004 -1.0255544 0.15169054 0
4.5050001 -1.0308161 0.15224251 0
4.4960003 -1.0360453 0.15279445 0
4.4870005 -1.0412422 0.15334642 0
4.4780002 -1.0464065 0.15389839 0
4.4690003 -1.0515382 0.15445036 0
4.4600005 -1.0566376 0.15500233 0
4.4510002 -1.0617045 0.15555428 0
4.4420004 -1.0667391 0.15610625 0
4.4330001 -1.071741 0.15665825 0
4.4240003 -1.0767105 0.15721019 0
4.4150004 -1.0816475 0.15776214 0
4.4070001 -1.0868118 0.15825279 0
4.3980002 -1.0916857 0.15880476 0
4.3889999 -1.096527 0.15935671 0
4.381 -1.1016012 0.15984736 0
4.3720002 -1.1063795 0.16039932 0
4.3640003 -1.1113942 0.16088997 0
4.2080002 -1.1999755 0.17045736 0
4.2000003 -1.2044057 0.17094798 0
4.1920004 -1.208807 0.17143862 0
4.184 -1.2131793 0.17192926 0
4.177 -1.2178333 0.17235859 0
4.1690001 -1.2221497 0.17284919 0
4.1610003 -1.2264373 0.17333984 0
4.1540003 -1.2310117 0.17376915 0
4.1460004 -1.2352436 0.17425977 0
4.138 -1.2394464 0.17475042 0
4.131 -1.2439415 0.17517973 0
4.1230001 -1.2480885 0.17567036 0
4.1160002 -1.2525312 0.17609967 0
4.1080003 -1.2566222 0.17659031 0
4.1010003 -1.2610128 0.17701961 0
4.0929999 -1.2650479 0.17751025 0
4.086 -1.2693859 0.17793955 0
4.079 -1.2736989 0.17836885 0
4.0710001 -1.2776511 0.17885949 0
4.0640001 -1.2819117 0.17928879 0
4.0570002 -1.286147 0.17971811 0
4.0500002 -1.2903571 0.18014741 0
4.0420003 -1.2941992 0.18063806 0
4.0350003 -1.298357 0.18106735 0
4.0280004 -1.3024895 0.18149666 0
4.0210004 -1.3065968 0.18192595 0
4.0139999 -1.3106788 0.18235528 0
3.9040003 -1.3733143 0.18910152 0
3.8970003 -1.3769706 0.18953082 0
3.8900003 -1.3806016 0.18996012 0
3.8840003 -1.3845917 0.19032811 0
3.8770003 -1.3881741 0.19075741 0
3.8710003 -1.3921189 0.19112539 0
3.8640003 -1.3956527 0.1915547 0
3.8580003 -1.3995525 0.19192266 0
3.7740002 -1.5188237 0.19707435 0
3.7790003 -1.5271015 0.19676769 0
3.7840002 -1.5353973 0.19646107 0
3.7880003 -1.5432692 0.19621573 0
3.7930002 -1.551599 0.19590908 0
3.7980003 -1.559947 0.19560245 0
3.8020003 -1.5678658 0.19535711 0
3.8070002 -1.576248 0.19505048 0
3.8120003 -1.5846485 0.19474383 0
3.8160002 -1.5926141 0.19449851 0
4.5980005 -0.9774037 0.13896647 0
4.5890002 -0.98296297 0.13953468 0
4.5790005 -0.98826438 0.14016598 0
4.5700002 -0.99375683 0.14073423 0
4.5600004 -0.99898803 0.14136553 0
4.5510001 -1.0044137 0.14193374 0
4.5420003 -1.0098072 0.14250195 0
4.5320001 -1.0149335 0.14313328 0
4.5230002 -1.0202602 0.14370146 0
4.5140004 -1.0255544 0.14426968 0
4.5050001 -1.0308161 0.14483789 0
4.4960003 -1.0360453 0.14540607 0
4.4870005 -1.0412422 0.14597425 0
4.4780002 -1.0464065 0.14654249 0
4.4690003 -1.0515382 0.14711067 0
4.4600005 -1.0566376 0.14767885 0
4.4510002 -1.0617045 0.14824706 0
4.4420004 -1.0667391 0.14881524 0
4.4330001 -1.071741 0.14938349 0
4.4240003 -1.0767105 0.14995167 0
4.4150004 -1.0816475 0.15051985 0
4.4070001 -1.0868118 0.15102494 0
4.3980002 -1.0916857 0.15159312 0
4.3889999 -1.096527 0.15216133 0
4.381 -1.1016012 0.15266639 0
4.3720002 -1.1063795 0.1532346 0
4.3640003 -1.1113942 0.15373966 0
4.2080002 -1.1999755 0.16358846 0
4.2000003 -1.2044057 0.16409352 0
4.1920004 -1.208807 0.16459857 0
4.184 -1.2131793 0.16510366 0
4.177 -1.2178333 0.16554558 0
4.1690001 -1.2221497 0.16605064 0
4.1610003 -1.2264373 0.16655572 0
4.1540003 -1.2310117 0.16699766 0
4.1460004 -1.2352436 0.1675027 0
4.138 -1.2394464 0.16800779 0
4.131 -1.2439415 0.16844971 0
4.1230001 -1.2480885 0.16895477 0
4.1160002 -1.2525312 0.16939673 0
4.1080003 -1.2566222 0.16990179 0
4.1010003 -1.2610128 0.17034371 0
4.0929999 -1.2650479 0.17084879 0
4.086 -1.2693859 0.17129071 0
4.079 -1.2736989 0.17173266 0
4.0710001 -1.2776511 0.17223769 0
4.0640001 -1.2819117 0.17267965 0
4.0570002 -1.286147 0.17312159 0
4.0500002 -1.2903571 0.17356353 0
4.0420003 -1.2941992 0.17406857 0
4.0350003 -1.298357 0.17451051 0
4.0280004 -1.3024895 0.17495243 0
4.0210004 -1.3065968 0.17539437 0
4.0139999 -1.3106788 0.17583631 0
3.9040003 -1.3733143 0.18278097 0
3.8970003 -1.3769706 0.1832229 0
3.8900003 -1.3806016 0.18366483 0
3.8840003 -1.3845917 0.18404363 0
3.8770003 -1.3881741 0.18448557 0
