# .PCD v0.7 - Point Cloud Data file format
VERSION 0.7
FIELDS x y z intensity
SIZE 4 4 4 4
TYPE F F F F
COUNT 1 1 1 1
WIDTH 1414
HEIGHT 1
VIEWPOINT 0 0 0 1 0 0 0
POINTS 1414
DATA ascii
3.8610003 0.4284665 0.90343845 0
3.8610003 0.42222351 0.90343845 0
3.8620002 0.41611403 0.90358275 0
3.8630002 0.41000092 0.90372705 0
3.8650002 0.40401408 0.90401566 0
3.8680003 0.39814809 0.90444851 0
3.8710003 0.39227128 0.90488148 0
3.8760002 0.38663256 0.90560305 0
3.8820002 0.38109848 0.90646875 0
3.8680003 0.46070415 0.898193 0
3.8640003 0.45387137 0.89762294 0
3.8620002 0.44733796 0.89733797 0
3.8610003 0.44095245 0.89719546 0
3.8600004 0.43457058 0.897053 0
3.8600004 0.42832944 0.897053 0
3.8610003 0.42222351 0.89719546 0
3.8620002 0.41611403 0.89733797 0
3.8630002 0.41000092 0.89748043 0
3.8650002 0.40401408 0.89776546 0
3.8680003 0.39814809 0.898193 0
3.8710003 0.39227128 0.89862049 0
3.8760002 0.38663256 0.89933294 0
3.8820002 0.38109848 0.90018797 0
3.8690002 0.46710765 0.89207804 0
3.8650002 0.46026582 0.89151525 0
3.8630002 0.45372701 0.89123386 0
3.8610003 0.44719544 0.89095247 0
3.8600004 0.44081181 0.8908118 0
3.8600004 0.43457058 0.8908118 0
3.8600004 0.42832944 0.8908118 0
3.8610003 0.42222351 0.89095247 0
3.8620002 0.41611403 0.89109313 0
3.8630002 0.41000092 0.89123386 0
3.8650002 0.40401408 0.89151525 0
3.8680003 0.39814809 0.89193738 0
3.8710003 0.39227128 0.89235944 0
3.8760002 0.38663256 0.89306289 0
3.8820002 0.38109848 0.89390707 0
3.8710003 0.47366452 0.88609844 0
3.8660002 0.46666396 0.88540399 0
3.8630002 0.45997357 0.88498724 0
3.8610003 0.4534384 0.88470948 0
3.8600004 0.44705296 0.8845706 0
3.8590002 0.44067106 0.88443172 0
3.8590002 0.4344317 0.88443172 0
3.8600004 0.42832944 0.8845706 0
3.8610003 0.42222351 0.88470948 0
3.8620002 0.41611403 0.88484836 0
3.8630002 0.41000092 0.88498724 0
3.8650002 0.40401408 0.88526511 0
3.8680003 0.39814809 0.88568175 0
3.8710003 0.39227128 0.88609844 0
3.8760002 0.38663256 0.8867929 0
3.8820002 0.38109848 0.88762629 0
3.8670003 0.47306567 0.87928903 0
3.8630002 0.4662202 0.87874067 0
3.8610003 0.45968139 0.87846649 0
3.8590002 0.4531498 0.87819231 0
3.8590002 0.44691044 0.87819231 0
3.8580003 0.44053033 0.87805521 0
3.8590002 0.4344317 0.87819231 0
3.8600004 0.42832944 0.87832946 0
3.8620002 0.42235881 0.87860358 0
3.8620002 0.41611403 0.87860358 0
3.8630002 0.41000092 0.87874067 0
3.8650002 0.40401408 0.87901491 0
3.8680003 0.39814809 0.87942612 0
3.8710003 0.39227128 0.87983739 0
3.8760002 0.38663256 0.88052285 0
3.8820002 0.38109848 0.88134539 0
3.8680003 0.47947097 0.8731705 0
3.8640003 0.47261655 0.8726294 0
3.8610003 0.46592438 0.8722235 0
3.8590002 0.45938921 0.87195301 0
3.8580003 0.45300552 0.87181771 0
3.8580003 0.44676793 0.87181771 0
3.8580003 0.44053033 0.87181771 0
3.8590002 0.4344317 0.87195301 0
3.8600004 0.42832944 0.87208831 0
3.8620002 0.42235881 0.8723588 0
3.8620002 0.41611403 0.8723588 0
3.8630002 0.41000092 0.8724941 0
3.8650002 0.40401408 0.87276465 0
3.8680003 0.39814809 0.8731705 0
3.8710003 0.39227128 0.8735764 0
3.8760002 0.38663256 0.8742528 0
3.8820002 0.38109848 0.87506449 0
3.8650002 0.47901636 0.86651444 0
3.8620002 0.47231704 0.86611402 0
3.8590002 0.4656285 0.8657136 0
3.8580003 0.45924312 0.86558008 0
3.8570004 0.45286122 0.86544669 0
3.8570004 0.44662547 0.86544669 0
3.8580003 0.44053033 0.86558008 0
3.8590002 0.4344317 0.8657136 0
3.8610003 0.4284665 0.86598057 0
3.8620002 0.42235881 0.86611402 0
3.8620002 0.41611403 0.86611402 0
3.8630002 0.41000092 0.86624748 0
3.8650002 0.40401408 0.86651444 0
3.8680003 0.39814809 0.86691493 0
3.8710003 0.39227128 0.86731535 0
3.8760002 0.38663256 0.86798275 0
3.8820002 0.38109848 0.86878365 0
3.8660002 0.48541993 0.86039597 0
3.8620002 0.47856188 0.85986924 0
3.8600004 0.47201765 0.85960591 0
3.8580003 0.46548069 0.85934258 0
3.8570004 0.45909697 0.85921085 0
3.8570004 0.45286122 0.85921085 0
3.8570004 0.44662547 0.85921085 0
3.8580003 0.44053033 0.85934258 0
3.8590002 0.4344317 0.85947418 0
3.8610003 0.4284665 0.85973758 0
3.8620002 0.42235881 0.85986924 0
3.8620002 0.41611403 0.85986924 0
3.8630002 0.41000092 0.86000097 0
3.8650002 0.40401408 0.8602643 0
3.8680003 0.39814809 0.86065936 0
3.8710003 0.39227128 0.86105436 0
3.8760002 0.38663256 0.86171269 0
3.8820002 0.38109848 0.86250281 0
3.8680003 0.49198222 0.85440373 0
3.8630002 0.48495996 0.85375428 0
3.8600004 0.47825885 0.85336471 0
3.8580003 0.47171819 0.85310495 0
3.8570004 0.46533275 0.85297513 0
3.8560002 0.45895082 0.85284519 0
3.8560002 0.45271689 0.85284519 0
3.8570004 0.44662547 0.85297513 0
3.8580003 0.44053033 0.85310495 0
3.8600004 0.43457058 0.85336471 0
3.8620002 0.42860356 0.85362446 0
3.8620002 0.42235881 0.85362446 0
3.8620002 0.41611403 0.85362446 0
3.8630002 0.41000092 0.85375428 0
3.8650002 0.40401408 0.8540141 0
3.8680003 0.39814809 0.85440373 0
3.8710003 0.39227128 0.85479331 0
3.8760002 0.38663256 0.8554427 0
3.8820002 0.38109848 0.85622191 0
3.8640003 0.49136168 0.84763587 0
3.8610003 0.48465335 0.84725165 0
3.8580003 0.47795576 0.84686738 0
3.8560002 0.4714188 0.84661126 0
3.8560002 0.46518481 0.84661126 0
3.8560002 0.45895082 0.84661126 0
3.8560002 0.45271689 0.84661126 0
3.8570004 0.44662547 0.84673935 0
3.8590002 0.44067106 0.84699547 0
3.8610003 0.43470946 0.84725165 0
3.8620002 0.42860356 0.84737968 0
3.8620002 0.42235881 0.84737968 0
3.8620002 0.41611403 0.84737968 0
3.8630002 0.41000092 0.84750772 0
3.8650002 0.40401408 0.8477639 0
3.8680003 0.39814809 0.84814811 0
3.8710003 0.39227128 0.84853232 0
3.8760002 0.38663256 0.84917265 0
3.8820002 0.38109848 0.84994113 0
3.8660002 0.49792391 0.84164 0
3.8610003 0.49089634 0.84100866 0
3.8580003 0.48419338 0.84062982 0
3.8560002 0.47765273 0.84037733 0
3.8550003 0.47126907 0.84025103 0
3.8550003 0.46503693 0.84025103 0
3.8550003 0.45880473 0.84025103 0
3.8560002 0.45271689 0.84037733 0
3.8570004 0.44662547 0.84050357 0
3.8590002 0.44067106 0.84075606 0
3.8620002 0.43484837 0.84113491 0
3.8620002 0.42860356 0.84113491 0
3.8620002 0.42235881 0.84113491 0
3.8620002 0.41611403 0.84113491 0
3.8630002 0.41000092 0.84126115 0
3.8650002 0.40401408 0.84151375 0
3.8680003 0.39814809 0.84189248 0
3.8710003 0.39227128 0.84227133 0
3.8760002 0.38663256 0.84290266 0
3.8820002 0.38109848 0.84366024 0
3.8620002 0.49729621 0.83489013 0
3.8590002 0.49058604 0.8345167 0
3.8570004 0.48404008 0.83426785 0
3.8550003 0.47750121 0.83401883 0
3.8550003 0.47126907 0.83401883 0
3.8540003 0.46488899 0.83389443 0
3.8550003 0.45880473 0.83401883 0
3.8560002 0.45271689 0.83414334 0
3.8580003 0.44676793 0.83439231 0
3.8600004 0.44081181 0.83464122 0
3.8630002 0.43498725 0.83501458 0
3.8620002 0.42860356 0.83489013 0
3.8620002 0.42235881 0.83489013 0
3.8620002 0.41611403 0.83489013 0
3.8630002 0.41000092 0.83501458 0
3.8650002 0.40401408 0.83526349 0
3.8680003 0.39814809 0.83563685 0
3.8710003 0.39227128 0.83601028 0
3.8760002 0.38663256 0.83663261 0
3.8820002 0.38109848 0.83737934 0
3.8630002 0.50369972 0.82876801 0
3.8600004 0.49698234 0.82840002 0
3.8570004 0.4902758 0.82803202 0
3.8550003 0.48373342 0.82778674 0
3.8540003 0.4773497 0.82766402 0
3.8540003 0.47111934 0.82766402 0
3.8540003 0.46488899 0.82766402 0
3.8550003 0.45880473 0.82778674 0
3.8560002 0.45271689 0.82790935 0
3.8580003 0.44676793 0.82815468 0
3.8610003 0.44095245 0.82852268 0
3.8630002 0.43498725 0.82876801 0
3.8620002 0.42860356 0.82864535 0
3.8620002 0.42235881 0.82864535 0
3.8620002 0.41611403 0.82864535 0
3.8630002 0.41000092 0.82876801 0
3.8650002 0.40401408 0.82901335 0
3.8680003 0.39814809 0.82938129 0
3.8710003 0.39227128 0.82974923 0
3.8760002 0.38663256 0.83036256 0
3.8820002 0.38109848 0.8310985 0
3.8660002 0.23533997 0.82913595 0
3.8670003 0.22916734 0.82925862 0
3.8600004 0.50322354 0.82215887 0
3.8570004 0.49651158 0.8217963 0
3.8550003 0.4899655 0.82155454 0
3.8540003 0.48358005 0.82143372 0
3.8530002 0.47719818 0.82131279 0
3.8530002 0.47096962 0.82131279 0
3.8540003 0.46488899 0.82143372 0
3.8550003 0.45880473 0.82155454 0
3.8570004 0.45286122 0.8217963 0
3.8590002 0.44691044 0.82203794 0
3.8620002 0.44109315 0.82240057 0
3.8630002 0.43498725 0.82252145 0
3.8620002 0.42860356 0.82240057 0
3.8620002 0.42235881 0.82240057 0
3.8620002 0.41611403 0.82240057 0
3.8630002 0.41000092 0.82252145 0
3.8650002 0.40401408 0.82276309 0
3.8680003 0.39814809 0.82312572 0
3.8710003 0.39227128 0.82348824 0
3.8760002 0.38663256 0.82409251 0
3.8820002 0.38109848 0.82481766 0
3.8650002 0.24150899 0.82276309 0
3.8660002 0.23533997 0.82288396 0
3.8670003 0.22916734 0.82300484 0
3.8680003 0.22299111 0.82312572 0
3.8610003 0.50962526 0.8160367 0
3.8580003 0.50290608 0.81567955 0
3.8550003 0.4961977 0.8153224 0
3.8540003 0.48981041 0.81520337 0
3.8530002 0.48342669 0.81508434 0
3.8530002 0.47719818 0.81508434 0
3.8530002 0.47096962 0.81508434 0
3.8540003 0.46488899 0.81520337 0
3.8560002 0.45895082 0.81544149 0
3.8580003 0.45300552 0.81567955 0
3.8600004 0.44705296 0.81591767 0
3.8640003 0.44137457 0.81639385 0
3.8630002 0.43498725 0.81627476 0
3.8620002 0.42860356 0.81615579 0
3.8620002 0.42235881 0.81615579 0
3.8620002 0.41611403 0.81615579 0
3.8630002 0.41000092 0.81627476 0
3.8650002 0.40401408 0.81651294 0
3.8680003 0.39814809 0.81687009 0
3.8710003 0.39227128 0.81722724 0
3.8760002 0.38663256 0.81782246 0
3.8820002 0.38109848 0.81853676 0
3.8640003 0.24767441 0.81639385 0
3.8650002 0.24150899 0.81651294 0
3.8660002 0.23533997 0.81663197 0
3.8670003 0.22916734 0.816751 0
3.8680003 0.22299111 0.81687009 0
3.8630002 0.51619291 0.8100282 0
3.8590002 0.50930417 0.80955923 0
3.8560002 0.50258857 0.80920744 0
3.8540003 0.49604076 0.80897295 0
3.8530002 0.48965526 0.80885577 0
3.8520002 0.48327339 0.80873847 0
3.8520002 0.47704667 0.80873847 0
3.8530002 0.47096962 0.80885577 0
3.8540003 0.46488899 0.80897295 0
3.8560002 0.45895082 0.80920744 0
3.8590002 0.4531498 0.80955923 0
3.8620002 0.44733796 0.80991101 0
3.8650002 0.44151527 0.81026268 0
3.8630002 0.43498725 0.8100282 0
3.8620002 0.42860356 0.80991101 0
3.8620002 0.42235881 0.80991101 0
3.8620002 0.41611403 0.80991101 0
3.8630002 0.41000092 0.8100282 0
3.8650002 0.40401408 0.81026268 0
3.8680003 0.39814809 0.81061447 0
3.8710003 0.39227128 0.81096619 0
3.8760002 0.38663256 0.81155241 0
3.8820002 0.38109848 0.81225592 0
3.8640003 0.24767441 0.8101455 0
3.8650002 0.24150899 0.81026268 0
3.8660002 0.23533997 0.81037998 0
3.8670003 0.22916734 0.81049722 0
3.8680003 0.22299111 0.81061447 0
3.8590002 0.51554352 0.80331987 0
3.8560002 0.50882256 0.80297351 0
3.8540003 0.50227112 0.80274266 0
3.8520002 0.49572688 0.80251175 0
3.8520002 0.48950016 0.80251175 0
3.8520002 0.48327339 0.80251175 0
3.8520002 0.47704667 0.80251175 0
3.8530002 0.47096962 0.80262721 0
3.8550003 0.46503693 0.80285811 0
3.8570004 0.45909697 0.80308902 0
3.8600004 0.45329413 0.80343533 0
3.8630002 0.44748041 0.80378163 0
3.8660002 0.4416559 0.80412793 0
3.8630002 0.43498725 0.80378163 0
3.8620002 0.42860356 0.80366623 0
3.8620002 0.42235881 0.80366623 0
3.8620002 0.41611403 0.80366623 0
3.8630002 0.41000092 0.80378163 0
3.8650002 0.40401408 0.80401254 0
3.8680003 0.39814809 0.80435884 0
3.8710003 0.39227128 0.8047052 0
3.8760002 0.38663256 0.80528235 0
3.8820002 0.38109848 0.80597508 0
3.8640003 0.24767441 0.80389708 0
3.8650002 0.24150899 0.80401254 0
3.8660002 0.23533997 0.80412793 0
3.8670003 0.22916734 0.80424345 0
3.8680003 0.22299111 0.80435884 0
3.8610003 0.52211124 0.79730779 0
3.8570004 0.51521891 0.79685318 0
3.8540003 0.50850147 0.79651231 0
3.8520002 0.5019536 0.79628503 0
3.8510003 0.49557 0.79617137 0
3.8510003 0.48934501 0.79617137 0
3.8510003 0.48312008 0.79617137 0
3.8520002 0.47704667 0.79628503 0
3.8530002 0.47096962 0.79639864 0
3.8550003 0.46503693 0.79662597 0
3.8580003 0.45924312 0.79696685 0
3.8610003 0.4534384 0.79730779 0
3.8650002 0.44776544 0.79776233 0
3.8660002 0.4416559 0.797876 0
3.8630002 0.43498725 0.79753506 0
3.8620002 0.42860356 0.7974214 0
3.8620002 0.42235881 0.7974214 0
3.8620002 0.41611403 0.7974214 0
3.8630002 0.41000092 0.79753506 0
3.8650002 0.40401408 0.79776233 0
3.8680003 0.39814809 0.79810321 0
3.8710003 0.39227128 0.79844415 0
3.8760002 0.38663256 0.79901236 0
3.8820002 0.38109848 0.79969418 0
3.8640003 0.24767441 0.79764867 0
3.8650002 0.24150899 0.79776233 0
3.8660002 0.23533997 0.797876 0
3.8670003 0.22916734 0.79798961 0
3.8680003 0.22299111 0.79810321 0
3.8580003 0.52161872 0.79072928 0
3.8540003 0.51473182 0.79028195 0
3.8520002 0.50818044 0.79005826 0
3.8510003 0.50179493 0.78994644 0
3.8500001 0.49541301 0.78983462 0
3.8500001 0.48918992 0.78983462 0
3.8510003 0.48312008 0.78994644 0
3.8520002 0.47704667 0.79005826 0
3.8540003 0.47111934 0.79028195 0
3.8560002 0.46518481 0.79050559 0
3.8590002 0.45938921 0.7908411 0
3.8630002 0.45372701 0.7912885 0
3.8670003 0.44805044 0.79173577 0
3.8660002 0.4416559 0.79162395 0
3.8630002 0.43498725 0.7912885 0
3.8620002 0.42860356 0.79117668 0
3.8620002 0.42235881 0.79117668 0
3.8620002 0.41611403 0.79117668 0
3.8630002 0.41000092 0.7912885 0
3.8650002 0.40401408 0.79151213 0
3.8680003 0.39814809 0.79184765 0
3.8710003 0.39227128 0.79218316 0
3.8760002 0.38663256 0.79274237 0
3.8820002 0.38109848 0.79341334 0
3.8640003 0.24767441 0.79140031 0
3.8650002 0.24150899 0.79151213 0
3.8660002 0.23533997 0.79162395 0
3.8670003 0.22916734 0.79173577 0
3.8680003 0.22299111 0.79184765 0
3.8590002 0.52802223 0.78460175 0
3.8550003 0.52112633 0.78416157 0
3.8530002 0.51456946 0.78394157 0
3.8510003 0.50801986 0.78372151 0
3.8500001 0.50163615 0.78361142 0
3.8500001 0.49541301 0.78361142 0
3.8500001 0.48918992 0.78361142 0
3.8510003 0.48312008 0.78372151 0
3.8530002 0.47719818 0.78394157 0
3.8550003 0.47126907 0.78416157 0
3.8570004 0.46533275 0.78438169 0
3.8610003 0.45968139 0.78482187 0
3.8650002 0.45401561 0.78526193 0
3.8690002 0.44833541 0.78570211 0
3.8660002 0.4416559 0.78537196 0
3.8630002 0.43498725 0.78504181 0
3.8620002 0.42860356 0.78493184 0
3.8620002 0.42235881 0.78493184 0
3.8620002 0.41611403 0.78493184 0
3.8630002 0.41000092 0.78504181 0
3.8650002 0.40401408 0.78526193 0
3.8680003 0.39814809 0.78559202 0
3.8710003 0.39227128 0.78592217 0
3.8760002 0.38663256 0.78647232 0
3.8820002 0.38109848 0.7871325 0
3.8640003 0.24767441 0.78515196 0
3.8650002 0.24150899 0.78526193 0
3.8660002 0.23533997 0.78537196 0
3.8670003 0.22916734 0.78548205 0
3.8680003 0.22299111 0.78559202 0
3.8600004 0.53442943 0.77847064 0
3.8560002 0.52752441 0.77803767 0
3.8530002 0.52079797 0.777713 0
3.8510003 0.51424479 0.77749658 0
3.8500001 0.50785935 0.77738833 0
3.8490002 0.50147748 0.77728009 0
3.8490002 0.49525613 0.77728009 0
3.8500001 0.48918992 0.77738833 0
3.8510003 0.48312008 0.77749658 0
3.8530002 0.47719818 0.777713 0
3.8560002 0.4714188 0.77803767 0
3.8590002 0.4656285 0.77836239 0
3.8620002 0.45982748 0.778687 0
3.8670003 0.45430428 0.77922821 0
3.8690002 0.44833541 0.77944463 0
3.8660002 0.4416559 0.77911997 0
3.8630002 0.43498725 0.77879524 0
3.8620002 0.42860356 0.778687 0
3.8620002 0.42235881 0.778687 0
3.8620002 0.41611403 0.778687 0
3.8630002 0.41000092 0.77879524 0
3.8650002 0.40401408 0.77901173 0
3.8680003 0.39814809 0.77933645 0
3.8710003 0.39227128 0.77966112 0
3.8760002 0.38663256 0.78020227 0
3.8820002 0.38109848 0.7808516 0
3.8640003 0.24767441 0.77890348 0
3.8650002 0.24150899 0.77901173 0
3.8660002 0.23533997 0.77911997 0
3.8670003 0.22916734 0.77922821 0
3.8680003 0.22299111 0.77933645 0
3.8570004 0.53392619 0.77191019 0
3.8530002 0.52702653 0.77148443 0
3.8510003 0.52046973 0.77127159 0
3.8490002 0.51392007 0.7710588 0
3.8490002 0.50769877 0.7710588 0
3.8490002 0.50147748 0.7710588 0
3.8490002 0.49525613 0.7710588 0
3.8500001 0.48918992 0.77116513 0
3.8520002 0.48327339 0.77137804 0
3.8540003 0.4773497 0.77159089 0
3.8560002 0.4714188 0.77180374 0
3.8600004 0.4657765 0.77222943 0
3.8640003 0.46011972 0.77265513 0
3.8690002 0.45459288 0.77318728 0
3.8690002 0.44833541 0.77318728 0
3.8660002 0.4416559 0.77286798 0
3.8630002 0.43498725 0.77254868 0
3.8620002 0.42860356 0.77244228 0
3.8620002 0.42235881 0.77244228 0
3.8620002 0.41611403 0.77244228 0
3.8630002 0.41000092 0.77254868 0
3.8650002 0.40401408 0.77276158 0
3.8680003 0.39814809 0.77308083 0
3.8710003 0.39227128 0.77340007 0
3.8760002 0.38663256 0.77393222 0
3.8820002 0.38109848 0.77457076 0
3.8640003 0.24767441 0.77265513 0
3.8650002 0.24150899 0.77276158 0
3.8660002 0.23533997 0.77286798 0
3.8670003 0.22916734 0.77297437 0
3.8680003 0.22299111 0.77308083 0
3.8580003 0.54033142 0.76577902 0
3.8540003 0.53342289 0.76536053 0
3.8510003 0.52669466 0.76504672 0
3.8490002 0.52014142 0.76483738 0
3.8480003 0.51375777 0.76473284 0
3.8480003 0.5075382 0.76473284 0
3.8480003 0.50131869 0.76473284 0
3.8490002 0.49525613 0.76483738 0
3.8500001 0.48918992 0.76494205 0
3.8520002 0.48327339 0.76515126 0
3.8550003 0.47750121 0.76546514 0
3.8580003 0.47171819 0.76577902 0
3.8620002 0.46607226 0.76619744 0
3.8670003 0.46055806 0.76672059 0
3.8730001 0.45517004 0.76734829 0
3.8690002 0.44833541 0.76692986 0
3.8660002 0.4416559 0.76661599 0
3.8630002 0.43498725 0.76630211 0
3.8620002 0.42860356 0.76619744 0
3.8620002 0.42235881 0.76619744 0
3.8620002 0.41611403 0.76619744 0
3.8630002 0.41000092 0.76630211 0
3.8650002 0.40401408 0.76651132 0
3.8680003 0.39814809 0.7668252 0
3.8710003 0.39227128 0.76713908 0
3.8760002 0.38663256 0.76766217 0
3.8820002 0.38109848 0.76828992 0
3.8640003 0.24767441 0.76640677 0
3.8650002 0.24150899 0.76651132 0
3.8660002 0.23533997 0.76661599 0
3.8670003 0.22916734 0.76672059 0
3.8680003 0.22299111 0.7668252 0
3.8550003 0.53982282 0.759233 0
3.8510003 0.53291965 0.75882173 0
3.8500001 0.52652872 0.75871891 0
3.8480003 0.51997727 0.75851327 0
3.8470004 0.5135954 0.75841045 0
3.8480003 0.5075382 0.75851327 0
3.8480003 0.50131869 0.75851327 0
3.8490002 0.49525613 0.75861609 0
3.8510003 0.48934501 0.75882173 0
3.8530002 0.48342669 0.75902736 0
3.8560002 0.47765273 0.75933576 0
3.8600004 0.47201765 0.75974709 0
3.8640003 0.46636808 0.76015836 0
3.8690002 0.46085024 0.76067245 0
3.8750002 0.45545864 0.76128936 0
3.8690002 0.44833541 0.76067245 0
3.8660002 0.4416559 0.76036394 0
3.8630002 0.43498725 0.76005554 0
3.8620002 0.42860356 0.75995272 0
3.8620002 0.42235881 0.75995272 0
3.8620002 0.41611403 0.75995272 0
3.8630002 0.41000092 0.76005554 0
3.8650002 0.40401408 0.76026118 0
3.8680003 0.39814809 0.76056957 0
3.8710003 0.39227128 0.76087809 0
3.8760002 0.38663256 0.76139212 0
3.8820002 0.38109848 0.76200902 0
3.8640003 0.24767441 0.76015836 0
3.8650002 0.24150899 0.76026118 0
3.8660002 0.23533997 0.76036394 0
3.8670003 0.22916734 0.76046681 0
3.8680003 0.22299111 0.76056957 0
3.8560002 0.54622632 0.75310183 0
3.8520002 0.53931409 0.75269783 0
3.8500001 0.53275186 0.75249577 0
3.8480003 0.52619678 0.75229371 0
3.8470004 0.51981318 0.75219274 0
3.8470004 0.5135954 0.75219274 0
3.8470004 0.50737768 0.75219274 0
3.8480003 0.50131869 0.75229371 0
3.8500001 0.49541301 0.75249577 0
3.8520002 0.48950016 0.75269783 0
3.8540003 0.48358005 0.75289983 0
3.8580003 0.47795576 0.75330389 0
3.8610003 0.47216737 0.75360692 0
3.8670003 0.46681184 0.75421298 0
3.8730001 0.46143472 0.75481904 0
3.8750002 0.45545864 0.7550211 0
3.8690002 0.44833541 0.75441504 0
3.8660002 0.4416559 0.75411201 0
3.8630002 0.43498725 0.75380898 0
3.8620002 0.42860356 0.75370789 0
3.8620002 0.42235881 0.75370789 0
3.8620002 0.41611403 0.75370789 0
3.8630002 0.41000092 0.75380898 0
3.8650002 0.40401408 0.75401098 0
3.8680003 0.39814809 0.75431401 0
3.8710003 0.39227128 0.75461704 0
3.8760002 0.38663256 0.75512207 0
3.8820002 0.38109848 0.75572819 0
3.8640003 0.24767441 0.75390995 0
3.8650002 0.24150899 0.75401098 0
3.8660002 0.23533997 0.75411201 0
3.8670003 0.22916734 0.75421298 0
3.8680003 0.22299111 0.75431401 0
3.8580003 0.55280662 0.74706626 0
3.8530002 0.54571223 0.74657023 0
3.8500001 0.538975 0.74627262 0
3.8480003 0.5324164 0.7460742 0
3.8470004 0.5260309 0.74597502 0
3.8460002 0.51964897 0.74587578 0
3.8460002 0.5134331 0.74587578 0
3.8470004 0.50737768 0.74597502 0
3.8480003 0.50131869 0.7460742 0
3.8500001 0.49541301 0.74627262 0
3.8530002 0.48965526 0.74657023 0
3.8550003 0.48373342 0.74676871 0
3.8590002 0.47810727 0.7471655 0
3.8640003 0.47261655 0.74766159 0
3.8690002 0.46710765 0.74815762 0
3.8760002 0.46187299 0.74885207 0
3.8750002 0.45545864 0.74875283 0
3.8690002 0.44833541 0.74815762 0
3.8660002 0.4416559 0.74785995 0
3.8630002 0.43498725 0.74756229 0
3.8620002 0.42860356 0.74746311 0
3.8620002 0.42235881 0.74746311 0
3.8620002 0.41611403 0.74746311 0
3.8630002 0.41000092 0.74756229 0
3.8650002 0.40401408 0.74776077 0
3.8680003 0.39814809 0.74805838 0
3.8710003 0.39227128 0.74835604 0
3.8760002 0.38663256 0.74885207 0
3.8820002 0.38109848 0.74944735 0
3.8640003 0.24767441 0.74766159 0
3.8650002 0.24150899 0.74776077 0
3.8660002 0.23533997 0.74785995 0
3.8670003 0.22916734 0.7479592 0
3.8680003 0.22299111 0.74805838 0
3.8540003 0.55211395 0.74043912 0
3.8500001 0.54519814 0.74004948 0
3.8480003 0.53863591 0.73985469 0
3.8470004 0.53224862 0.7397573 0
3.8460002 0.5258649 0.73965985 0
3.8460002 0.51964897 0.73965985 0
3.8460002 0.5134331 0.73965985 0
3.8470004 0.50737768 0.7397573 0
3.8490002 0.50147748 0.73995209 0
3.8510003 0.49557 0.74014688 0
3.8530002 0.48965526 0.74034166 0
3.8570004 0.48404008 0.74073136 0
3.8610003 0.47841036 0.74112093 0
3.8660002 0.47291595 0.74160796 0
3.8730001 0.46769935 0.74228978 0
3.8820002 0.46274972 0.74316645 0
3.8750002 0.45545864 0.74248463 0
3.8690002 0.44833541 0.74190021 0
3.8660002 0.4416559 0.74160796 0
3.8630002 0.43498725 0.74131572 0
3.8620002 0.42860356 0.74121833 0
3.8620002 0.42235881 0.74121833 0
3.8620002 0.41611403 0.74121833 0
3.8630002 0.41000092 0.74131572 0
3.8650002 0.40401408 0.74151063 0
3.8680003 0.39814809 0.74180281 0
3.8710003 0.39227128 0.74209499 0
3.8760002 0.38663256 0.74258202 0
3.8820002 0.38109848 0.74316645 0
3.8640003 0.24767441 0.74141318 0
3.8650002 0.24150899 0.74151063 0
3.8660002 0.23533997 0.74160796 0
3.8670003 0.22916734 0.74170542 0
3.8680003 0.22299111 0.74180281 0
3.8550003 0.55851924 0.73430431 0
3.8510003 0.55159444 0.733922 0
3.8480003 0.54485542 0.73363513 0
3.8470004 0.53846639 0.73353958 0
3.8460002 0.53208083 0.73344392 0
3.8450003 0.52569896 0.73334837 0
3.8450003 0.51948488 0.73334837 0
3.8460002 0.5134331 0.73344392 0
3.8470004 0.50737768 0.73353958 0
3.8490002 0.50147748 0.73373079 0
3.8520002 0.49572688 0.73401755 0
3.8550003 0.4899655 0.73430431 0
3.8590002 0.48434669 0.73468673 0
3.8640003 0.47886491 0.73516476 0
3.8690002 0.47336507 0.73564279 0
3.8770003 0.46829098 0.73640764 0
3.8830004 0.46289581 0.73698121 0
3.8750002 0.45545864 0.73621643 0
3.8690002 0.44833541 0.73564279 0
3.8660002 0.4416559 0.73535597 0
3.8630002 0.43498725 0.73506916 0
3.8620002 0.42860356 0.73497355 0
3.8620002 0.42235881 0.73497355 0
3.8620002 0.41611403 0.73497355 0
3.8630002 0.41000092 0.73506916 0
3.8650002 0.40401408 0.73526037 0
3.8680003 0.39814809 0.73554718 0
3.8710003 0.39227128 0.735834 0
3.8760002 0.38663256 0.73631197 0
3.8820002 0.38109848 0.73688561 0
3.8640003 0.24767441 0.73516476 0
3.8650002 0.24150899 0.73526037 0
3.8660002 0.23533997 0.73535597 0
3.8670003 0.22916734 0.73545158 0
3.8680003 0.22299111 0.73554718 0
3.8520002 0.55799437 0.72779083 0
3.8490002 0.55124807 0.72750938 0
3.8470004 0.54468405 0.72732186 0
3.8450003 0.53812724 0.72713423 0
3.8450003 0.5319131 0.72713423 0
3.8450003 0.52569896 0.72713423 0
3.8450003 0.51948488 0.72713423 0
3.8460002 0.5134331 0.72722805 0
3.8480003 0.5075382 0.72741562 0
3.8500001 0.50163615 0.7276032 0
3.8530002 0.49588382 0.72788459 0
3.8570004 0.4902758 0.7282598 0
3.8610003 0.48465335 0.72863501 0
3.8660002 0.47916794 0.72910398 0
3.8730001 0.47396392 0.72976053 0
3.8820002 0.46903056 0.73060477 0
3.8830004 0.46289581 0.73069859 0
3.8750002 0.45545864 0.72994816 0
3.8690002 0.44833541 0.72938538 0
3.8660002 0.4416559 0.72910398 0
3.8630002 0.43498725 0.72882259 0
3.8620002 0.42860356 0.72872877 0
3.8620002 0.42235881 0.72872877 0
3.8620002 0.41611403 0.72872877 0
3.8630002 0.41000092 0.72882259 0
3.8650002 0.40401408 0.72901022 0
3.8680003 0.39814809 0.72929156 0
3.8710003 0.39227128 0.72957295 0
3.8760002 0.38663256 0.73004198 0
3.8820002 0.38109848 0.73060477 0
3.8640003 0.24767441 0.72891641 0
3.8650002 0.24150899 0.72901022 0
3.8660002 0.23533997 0.72910398 0
3.8670003 0.22916734 0.72919774 0
3.8680003 0.22299111 0.72929156 0
3.8530002 0.56439787 0.72165602 0
3.8500001 0.55764437 0.72138005 0
3.8470004 0.55090177 0.72110409 0
3.8450003 0.54434133 0.72092009 0
3.8440003 0.53795767 0.72082812 0
3.8440003 0.53174537 0.72082812 0
3.8440003 0.52553302 0.72082812 0
3.8450003 0.51948488 0.72092009 0
3.8470004 0.5135954 0.72110409 0
3.8490002 0.50769877 0.72128808 0
3.8510003 0.50179493 0.72147202 0
3.8540003 0.49604076 0.72174805 0
3.8580003 0.49043089 0.72211599 0
3.8630002 0.48495996 0.72257602 0
3.8690002 0.47962248 0.72312796 0
3.8780003 0.47471255 0.72395587 0
3.8830004 0.46289581 0.7244159 0
3.8750002 0.45545864 0.7236799 0
3.8690002 0.44833541 0.72312796 0
3.8660002 0.4416559 0.72285199 0
3.8630002 0.43498725 0.72257602 0
3.8620002 0.42860356 0.72248399 0
3.8620002 0.42235881 0.72248399 0
3.8620002 0.41611403 0.72248399 0
3.8630002 0.41000092 0.72257602 0
3.8650002 0.40401408 0.72275996 0
3.8680003 0.39814809 0.72303593 0
3.8710003 0.39227128 0.72331196 0
3.8760002 0.38663256 0.72377193 0
3.8820002 0.38109848 0.72432387 0
3.8640003 0.24767441 0.72266799 0
3.8650002 0.24150899 0.72275996 0
3.8660002 0.23533997 0.72285199 0
3.8670003 0.22916734 0.72294402 0
3.8680003 0.22299111 0.72303593 0
3.8550003 0.57098359 0.71560788 0
3.8500001 0.56386757 0.71515691 0
3.8470004 0.55711955 0.71488637 0
3.8450003 0.55055547 0.714706 0
3.8440003 0.54416996 0.71461582 0
3.8430002 0.53778809 0.71452558 0
3.8440003 0.53174537 0.71461582 0
3.8440003 0.52553302 0.71461582 0
3.8450003 0.51948488 0.714706 0
3.8470004 0.5135954 0.71488637 0
3.8500001 0.50785935 0.71515691 0
3.8520002 0.5019536 0.71533728 0
3.8560002 0.49635458 0.71569806 0
3.8610003 0.49089634 0.71614903 0
3.8660002 0.48541993 0.71659994 0
3.8730001 0.48022854 0.71723127 0
3.8830004 0.47546113 0.71813321 0
3.8830004 0.46289581 0.71813321 0
3.8750002 0.45545864 0.71741164 0
3.8690002 0.44833541 0.71687055 0
3.8660002 0.4416559 0.71659994 0
3.8630002 0.43498725 0.71632946 0
3.8620002 0.42860356 0.71623921 0
3.8620002 0.42235881 0.71623921 0
3.8620002 0.41611403 0.71623921 0
3.8630002 0.41000092 0.71632946 0
3.8650002 0.40401408 0.71650982 0
3.8680003 0.39814809 0.71678036 0
3.8710003 0.39227128 0.71705091 0
3.8760002 0.38663256 0.71750188 0
3.8820002 0.38109848 0.71804303 0
3.8640003 0.24767441 0.71641958 0
3.8650002 0.24150899 0.71650982 0
3.8660002 0.23533997 0.71659994 0
3.8670003 0.22916734 0.71669018 0
3.8680003 0.22299111 0.71678036 0
3.8570004 0.57757652 0.70955253 0
3.8510003 0.57026929 0.70902216 0
3.8480003 0.56351405 0.70875704 0
3.8450003 0.55676955 0.70849186 0
3.8440003 0.55038232 0.70840347 0
3.8430002 0.5439986 0.70831507 0
3.8430002 0.53778809 0.70831507 0
3.8430002 0.53157759 0.70831507 0
3.8440003 0.52553302 0.70840347 0
3.8460002 0.51964897 0.70858026 0
3.8480003 0.51375777 0.70875704 0
3.8500001 0.50785935 0.70893383 0
3.8540003 0.50227112 0.70928735 0
3.8580003 0.49666846 0.70964086 0
3.8630002 0.49120653 0.71008277 0
3.8700004 0.48603326 0.71070153 0
3.8780003 0.48098618 0.71140862 0
3.8830004 0.46289581 0.71185052 0
3.8750002 0.45545864 0.71114349 0
3.8690002 0.44833541 0.71061313 0
3.8660002 0.4416559 0.71034801 0
3.8630002 0.43498725 0.71008277 0
3.8620002 0.42860356 0.70999444 0
3.8620002 0.42235881 0.70999444 0
3.8620002 0.41611403 0.70999444 0
3.8630002 0.41000092 0.71008277 0
3.8650002 0.40401408 0.71025956 0
3.8680003 0.39814809 0.71052474 0
3.8710003 0.39227128 0.71078992 0
3.8760002 0.38663256 0.71123183 0
3.8820002 0.38109848 0.71176219 0
3.8640003 0.24767441 0.71017122 0
3.8650002 0.24150899 0.71025956 0
3.8660002 0.23533997 0.71034801 0
3.8670003 0.22916734 0.71043634 0
3.8680003 0.22299111 0.71052474 0
3.8500001 0.59498322 0.70271063 0
3.8470004 0.58820814 0.70245087 0
3.8460002 0.58180827 0.70236433 0
3.8530002 0.576855 0.70297039 0
3.8480003 0.56973356 0.70253754 0
3.8450003 0.56298369 0.70227778 0
3.8440003 0.55659461 0.70219117 0
3.8430002 0.55020911 0.70210457 0
3.8420002 0.54382724 0.70201802 0
3.8420002 0.53761852 0.70201802 0
3.8430002 0.53157759 0.70210457 0
3.8450003 0.52569896 0.70227778 0
3.8460002 0.51964897 0.70236433 0
3.8490002 0.51392007 0.70262408 0
3.8520002 0.50818044 0.70288384 0
3.8560002 0.50258857 0.70323014 0
3.8600004 0.49698234 0.70357651 0
3.8660002 0.49167192 0.70409596 0
3.8730001 0.48649323 0.70470208 0
3.8830004 0.46289581 0.70556796 0
3.8750002 0.45545864 0.70487523 0
3.8690002 0.44833541 0.70435572 0
3.8660002 0.4416559 0.70409596 0
3.8630002 0.43498725 0.7038362 0
3.8620002 0.42860356 0.70374966 0
3.8620002 0.42235881 0.70374966 0
3.8620002 0.41611403 0.70374966 0
3.8630002 0.41000092 0.7038362 0
3.8650002 0.40401408 0.70400941 0
3.8680003 0.39814809 0.70426917 0
3.8710003 0.39227128 0.70452893 0
3.8760002 0.38663256 0.70496178 0
3.8820002 0.38109848 0.70548129 0
3.8640003 0.24767441 0.70392281 0
3.8650002 0.24150899 0.70400941 0
3.8660002 0.23533997 0.70409596 0
3.8670003 0.22916734 0.70418257 0
3.8680003 0.22299111 0.70426917 0
3.8460002 0.600456 0.6961484 0
3.8440003 0.59386849 0.69597888 0
3.8430002 0.5874722 0.69589406 0
3.8420002 0.58107954 0.69580925 0
3.8510003 0.57649428 0.6965723 0
3.8470004 0.56955498 0.69623321 0
3.8440003 0.56280696 0.69597888 0
3.8420002 0.55624467 0.69580925 0
3.8420002 0.55003595 0.69580925 0
3.8420002 0.54382724 0.69580925 0
3.8420002 0.53761852 0.69580925 0
3.8430002 0.53157759 0.69589406 0
3.8450003 0.52569896 0.69606364 0
3.8470004 0.51981318 0.69623321 0
3.8500001 0.51408243 0.69648755 0
3.8530002 0.50834095 0.69674182 0
3.8580003 0.50290608 0.69716573 0
3.8630002 0.49745315 0.69758964 0
3.8700004 0.49229246 0.69818312 0
3.8830004 0.46289581 0.69928527 0
3.8750002 0.45545864 0.69860697 0
3.8690002 0.44833541 0.6980983 0
3.8660002 0.4416559 0.69784397 0
3.8630002 0.43498725 0.69758964 0
3.8620002 0.42860356 0.69750488 0
3.8620002 0.42235881 0.69750488 0
3.8620002 0.41611403 0.69750488 0
3.8630002 0.41000092 0.69758964 0
3.8650002 0.40401408 0.69775921 0
3.8680003 0.39814809 0.69801354 0
3.8710003 0.39227128 0.69826788 0
3.8760002 0.38663256 0.69869179 0
3.8820002 0.38109848 0.69920045 0
3.8640003 0.24767441 0.69767439 0
3.8650002 0.24150899 0.69775921 0
3.8660002 0.23533997 0.69784397 0
3.8670003 0.22916734 0.69792879 0
3.8680003 0.22299111 0.69801354 0
3.8450003 0.61269665 0.6898495 0
3.8430002 0.60610372 0.68968356 0
3.8410003 0.599518 0.68951762 0
3.8400002 0.59312528 0.68943465 0
3.8400002 0.5869202 0.68943465 0
3.8390002 0.58053297 0.68935168 0
3.8390002 0.57432967 0.68935168 0
3.8460002 0.56937641 0.68993247 0
3.8430002 0.56263012 0.68968356 0
3.8420002 0.55624467 0.68960059 0
3.8410003 0.5498628 0.68951762 0
3.8410003 0.54365587 0.68951762 0
3.8420002 0.53761852 0.68960059 0
3.8440003 0.53174537 0.68976653 0
3.8460002 0.5258649 0.68993247 0
3.8480003 0.51997727 0.6900984 0
3.8510003 0.51424479 0.69034731 0
3.8550003 0.50866205 0.69067925 0
3.8600004 0.50322354 0.69109416 0
3.8660002 0.49792391 0.69159198 0
3.8740003 0.49291295 0.6922558 0
3.8750002 0.45545864 0.69233876 0
3.8690002 0.44833541 0.69184089 0
3.8660002 0.4416559 0.69159198 0
3.8630002 0.43498725 0.69134307 0
3.8620002 0.42860356 0.6912601 0
3.8620002 0.42235881 0.6912601 0
3.8620002 0.41611403 0.6912601 0
3.8630002 0.41000092 0.69134307 0
3.8650002 0.40401408 0.69150901 0
3.8680003 0.39814809 0.69175792 0
3.8710003 0.39227128 0.69200689 0
3.8760002 0.38663256 0.69242167 0
3.8820002 0.38109848 0.69291961 0
3.8640003 0.24767441 0.69142604 0
3.8650002 0.24150899 0.69150901 0
3.8660002 0.23533997 0.69159198 0
3.8670003 0.22916734 0.69167495 0
3.8680003 0.22299111 0.69175792 0
3.8430002 0.62473524 0.68347299 0
3.8420002 0.61833173 0.68339187 0
3.8400002 0.61174065 0.68322951 0
3.8390002 0.60534608 0.68314838 0
3.8380003 0.59895527 0.6830672 0
3.8370004 0.59256798 0.68298602 0
3.8370004 0.58636832 0.68298602 0
3.8370004 0.5801686 0.68298602 0
3.8370004 0.57396889 0.68298602 0
3.8470004 0.56955498 0.68379772 0
3.8440003 0.56280696 0.68355423 0
3.8420002 0.55624467 0.68339187 0
3.8410003 0.5498628 0.68331075 0
3.8420002 0.54382724 0.68339187 0
3.8420002 0.53761852 0.68339187 0
3.8440003 0.53174537 0.68355423 0
3.8460002 0.5258649 0.68371654 0
3.8490002 0.52014142 0.68396008 0
3.8530002 0.51456946 0.68428475 0
3.8570004 0.50898314 0.68460947 0
3.8630002 0.50369972 0.6850965 0
3.8700004 0.49855167 0.68566465 0
3.8750002 0.45545864 0.6860705 0
3.8690002 0.44833541 0.68558347 0
3.8660002 0.4416559 0.68533999 0
3.8630002 0.43498725 0.6850965 0
3.8620002 0.42860356 0.68501532 0
3.8620002 0.42235881 0.68501532 0
3.8620002 0.41611403 0.68501532 0
3.8630002 0.41000092 0.6850965 0
3.8650002 0.40401408 0.68525881 0
3.8680003 0.39814809 0.68550235 0
3.8710003 0.39227128 0.68574584 0
3.8760002 0.38663256 0.68615168 0
3.8820002 0.38109848 0.68663871 0
3.8640003 0.24767441 0.68517762 0
3.8650002 0.24150899 0.68525881 0
3.8660002 0.23533997 0.68533999 0
3.8670003 0.22916734 0.68542117 0
3.8680003 0.22299111 0.68550235 0
3.8420002 0.63695788 0.67718315 0
3.8400002 0.63035589 0.67702442 0
3.8390002 0.62395602 0.67694509 0
3.8370004 0.61736673 0.6767863 0
3.8360002 0.6109758 0.67670697 0
3.8360002 0.60477787 0.67670697 0
3.8360002 0.59858006 0.67670697 0
3.8360002 0.59238219 0.67670697 0
3.8360002 0.58618426 0.67670697 0
3.8360002 0.57998639 0.67670697 0
3.8370004 0.57396889 0.6767863 0
3.8370004 0.56776923 0.6767863 0
3.8450003 0.56298369 0.67742121 0
3.8430002 0.55641961 0.67726254 0
3.8430002 0.55020911 0.67726254 0
3.8430002 0.5439986 0.67726254 0
3.8430002 0.53778809 0.67726254 0
3.8450003 0.5319131 0.67742121 0
3.8470004 0.5260309 0.67758 0
3.8510003 0.52046973 0.67789745 0
3.8550003 0.51489419 0.67821491 0
3.8600004 0.50946474 0.67861176 0
3.8660002 0.5041759 0.679088 0
3.8750002 0.45545864 0.6798023 0
3.8690002 0.44833541 0.67932606 0
3.8660002 0.4416559 0.679088 0
3.8630002 0.43498725 0.67884988 0
3.8620002 0.42860356 0.67877054 0
3.8620002 0.42235881 0.67877054 0
3.8620002 0.41611403 0.67877054 0
3.8630002 0.41000092 0.67884988 0
3.8650002 0.40401408 0.6790086 0
3.8680003 0.39814809 0.67924672 0
3.8710003 0.39227128 0.67948484 0
3.8760002 0.38663256 0.67988169 0
3.8820002 0.38109848 0.68035787 0
3.8640003 0.24767441 0.67892927 0
3.8650002 0.24150899 0.6790086 0
3.8660002 0.23533997 0.679088 0
3.8670003 0.22916734 0.67916739 0
3.8680003 0.22299111 0.67924672 0
3.8410003 0.64917326 0.67089689 0
3.8390002 0.64256591 0.67074174 0
3.8370004 0.63596582 0.67058665 0
3.8360002 0.62956947 0.6705091 0
3.8350003 0.62317675 0.67043149 0
3.8340003 0.61678767 0.67035401 0
3.8340003 0.61059344 0.67035401 0
3.8340003 0.60439914 0.67035401 0
3.8340003 0.59820485 0.67035401 0
3.8340003 0.59201062 0.67035401 0
3.8350003 0.58600032 0.67043149 0
3.8350003 0.57980424 0.67043149 0
3.8360002 0.57378846 0.6705091 0
3.8370004 0.56776923 0.67058665 0
3.8390002 0.56192303 0.67074174 0
3.8450003 0.55676955 0.67120719 0
3.8440003 0.55038232 0.67112958 0
3.8450003 0.54434133 0.67120719 0
3.8450003 0.53812724 0.67120719 0
3.8470004 0.53224862 0.67136228 0
3.8490002 0.52636278 0.67151737 0
3.8530002 0.52079797 0.67182767 0
3.8570004 0.51521891 0.67213792 0
3.8630002 0.50994629 0.67260325 0
3.8750002 0.45545864 0.67353404 0
3.8690002 0.44833541 0.67306864 0
3.8660002 0.4416559 0.67283595 0
3.8630002 0.43498725 0.67260325 0
3.8620002 0.42860356 0.67252576 0
3.8620002 0.42235881 0.67252576 0
3.8620002 0.41611403 0.67252576 0
3.8630002 0.41000092 0.67260325 0
3.8650002 0.40401408 0.67275846 0
3.8680003 0.39814809 0.67299116 0
3.8710003 0.39227128 0.67322379 0
3.8760002 0.38663256 0.67361164 0
3.8820002 0.38109848 0.67407697 0
3.8640003 0.24767441 0.67268085 0
3.8650002 0.24150899 0.67275846 0
3.8660002 0.23533997 0.67283595 0
3.8670003 0.22916734 0.67291355 0
3.8680003 0.22299111 0.67299116 0
3.8400002 0.66138142 0.6646142 0
3.8370004 0.65456486 0.66438693 0
3.8360002 0.64816308 0.66431117 0
3.8340003 0.64156485 0.66415966 0
3.8330002 0.63517207 0.6640839 0
3.8330002 0.62897962 0.6640839 0
3.8320003 0.62259233 0.66400814 0
3.8320003 0.61640167 0.66400814 0
3.8320003 0.61021101 0.66400814 0
3.8320003 0.60402036 0.66400814 0
3.8330002 0.59801728 0.6640839 0
3.8340003 0.59201062 0.66415966 0
3.8340003 0.58581632 0.66415966 0
3.8350003 0.57980424 0.66423541 0
3.8370004 0.57396889 0.66438693 0
3.8380003 0.5679478 0.66446269 0
3.8390002 0.56192303 0.6645385 0
3.8480003 0.55729449 0.66522032 0
3.8470004 0.55090177 0.66514456 0
3.8470004 0.54468405 0.66514456 0
3.8480003 0.53863591 0.66522032 0
3.8500001 0.53275186 0.66537184 0
3.8520002 0.52686065 0.66552335 0
3.8560002 0.52129042 0.66582638 0
3.8600004 0.51570588 0.66612947 0
3.8670003 0.51058847 0.66665977 0
3.8750002 0.45545864 0.66726583 0
3.8690002 0.44833541 0.66681123 0
3.8660002 0.4416559 0.66658401 0
3.8630002 0.43498725 0.66635668 0
3.8620002 0.42860356 0.66628098 0
3.8620002 0.42235881 0.66628098 0
3.8620002 0.41611403 0.66628098 0
3.8630002 0.41000092 0.66635668 0
3.8650002 0.40401408 0.6665082 0
3.8680003 0.39814809 0.66673553 0
3.8710003 0.39227128 0.6669628 0
3.8760002 0.38663256 0.66734159 0
3.8820002 0.38109848 0.66779613 0
3.8640003 0.24767441 0.6664325 0
3.8650002 0.24150899 0.6665082 0
3.8660002 0.23533997 0.66658401 0
3.8670003 0.22916734 0.66665977 0
3.8680003 0.22299111 0.66673553 0
3.8360002 0.66675675 0.6581133 0
3.8340003 0.66014767 0.65796542 0
3.8330002 0.65374953 0.65789139 0
3.8320003 0.64735502 0.65781748 0
3.8310003 0.64096415 0.65774351 0
3.8300002 0.63457686 0.65766954 0
3.8300002 0.62838972 0.65766954 0
3.8300002 0.62220269 0.65766954 0
3.8300002 0.61601561 0.65766954 0
3.8310003 0.6100198 0.65774351 0
3.8320003 0.60402036 0.65781748 0
3.8320003 0.59782964 0.65781748 0
3.8330002 0.59182477 0.65789139 0
3.8350003 0.58600032 0.65803933 0
3.8360002 0.57998639 0.6581133 0
3.8370004 0.57396889 0.65818727 0
3.8390002 0.56812632 0.65833521 0
3.8410003 0.5622766 0.65848309 0
3.8430002 0.55641961 0.65863097 0
3.8510003 0.55159444 0.65922266 0
3.8510003 0.54536951 0.65922266 0
3.8520002 0.53931409 0.65929663 0
3.8530002 0.5332551 0.65937054 0
3.8560002 0.52752441 0.65959239 0
3.8600004 0.52194709 0.65988827 0
3.8650002 0.51651758 0.66025805 0
3.8750002 0.45545864 0.66099763 0
3.8690002 0.44833541 0.66055381 0
3.8660002 0.4416559 0.66033196 0
3.8630002 0.43498725 0.66011012 0
3.8620002 0.42860356 0.66003615 0
3.8620002 0.42235881 0.66003615 0
3.8620002 0.41611403 0.66003615 0
3.8630002 0.41000092 0.66011012 0
3.8650002 0.40401408 0.66025805 0
3.8680003 0.39814809 0.6604799 0
3.8710003 0.39227128 0.66070175 0
3.8760002 0.38663256 0.66107154 0
3.8820002 0.38109848 0.6615153 0
3.8640003 0.24767441 0.66018403 0
3.8650002 0.24150899 0.66025805 0
3.8660002 0.23533997 0.66033196 0
3.8670003 0.22916734 0.66040593 0
3.8680003 0.22299111 0.6604799 0
3.8350003 0.67894149 0.65184325 0
3.8330002 0.67232692 0.65169895 0
3.8310003 0.66571963 0.65155464 0
3.8300002 0.65932512 0.65148246 0
3.8290002 0.65293419 0.65141034 0
3.8290002 0.6467489 0.65141034 0
3.8290002 0.64056367 0.65141034 0
3.8290002 0.63437837 0.65141034 0
3.8290002 0.62819314 0.65141034 0
3.8290002 0.62200785 0.65141034 0
3.8300002 0.61601561 0.65148246 0
3.8300002 0.60982859 0.65148246 0
3.8310003 0.60383099 0.65155464 0
3.8330002 0.59801728 0.65169895 0
3.8340003 0.59201062 0.65177113 0
3.8350003 0.58600032 0.65184325 0
3.8370004 0.5801686 0.65198755 0
3.8390002 0.57432967 0.65213186 0
3.8410003 0.56848353 0.65227616 0
3.8430002 0.56263012 0.65242046 0
3.8460002 0.55694455 0.65263689 0
3.8560002 0.55246025 0.65335846 0
3.8560002 0.54622632 0.65335846 0
3.8570004 0.54016197 0.65343064 0
3.8590002 0.53426164 0.65357494 0
3.8610003 0.52835417 0.65371919 0
3.8750002 0.45545864 0.65472937 0
3.8690002 0.44833541 0.65429646 0
3.8660002 0.4416559 0.65407997 0
3.8630002 0.43498725 0.65386355 0
3.8620002 0.42860356 0.65379137 0
3.8620002 0.42235881 0.65379137 0
3.8620002 0.41611403 0.65379137 0
3.8630002 0.41000092 0.65386355 0
3.8650002 0.40401408 0.65400779 0
3.8680003 0.39814809 0.65422428 0
3.8710003 0.39227128 0.65444076 0
3.8760002 0.38663256 0.65480149 0
3.8820002 0.38109848 0.6552344 0
3.8640003 0.24767441 0.65393567 0
3.8650002 0.24150899 0.65400779 0
3.8660002 0.23533997 0.65407997 0
3.8670003 0.22916734 0.65415215 0
3.8680003 0.22299111 0.65422428 0
3.8330002 0.69090432 0.6455065 0
3.8310003 0.68428624 0.64536577 0
3.8300002 0.67788625 0.64529544 0
3.8280003 0.67128074 0.64515471 0
3.8280003 0.6650973 0.64515471 0
3.8270001 0.65870816 0.64508438 0
3.8270001 0.6525265 0.64508438 0
3.8270001 0.64634484 0.64508438 0
3.8270001 0.64016318 0.64508438 0
3.8270001 0.63398153 0.64508438 0
3.8280003 0.6279965 0.64515471 0
3.8290002 0.62200785 0.64522511 0
3.8290002 0.61582267 0.64522511 0
3.8310003 0.6100198 0.64536577 0
3.8320003 0.60402036 0.64543617 0
3.8330002 0.59801728 0.6455065 0
3.8350003 0.5921964 0.64564717 0
3.8370004 0.58636832 0.64578789 0
3.8390002 0.58053297 0.64592856 0
3.8410003 0.57469046 0.64606929 0
3.8430002 0.56884062 0.64620996 0
3.8460002 0.56316048 0.64642102 0
3.8490002 0.55746943 0.64663208 0
3.8520002 0.55176765 0.64684308 0
3.8630002 0.54742587 0.64761692 0
3.8640003 0.54134881 0.64768732 0
3.8660002 0.53543591 0.64782798 0
3.8750002 0.45545864 0.6484611 0
3.8690002 0.44833541 0.64803904 0
3.8660002 0.4416559 0.64782798 0
3.8630002 0.43498725 0.64761692 0
3.8620002 0.42860356 0.64754659 0
3.8620002 0.42235881 0.64754659 0
3.8620002 0.41611403 0.64754659 0
3.8630002 0.41000092 0.64761692 0
3.8650002 0.40401408 0.64775765 0
3.8680003 0.39814809 0.64796871 0
3.8710003 0.39227128 0.64817971 0
3.8760002 0.38663256 0.64853144 0
3.8820002 0.38109848 0.64895356 0
3.8640003 0.24767441 0.64768732 0
3.8650002 0.24150899 0.64775765 0
3.8660002 0.23533997 0.64782798 0
3.8670003 0.22916734 0.64789832 0
3.8680003 0.22299111 0.64796871 0
3.8320003 0.70307106 0.63924545 0
3.8300002 0.69644743 0.63910836 0
3.8280003 0.68983114 0.63897133 0
3.8270001 0.68343478 0.63890272 0
3.8260002 0.67704207 0.63883418 0
3.8250003 0.67065299 0.63876569 0
3.8250003 0.66447496 0.63876569 0
3.8250003 0.65829688 0.63876569 0
3.8250003 0.65211886 0.63876569 0
3.8250003 0.64594084 0.63876569 0
3.8260002 0.63996297 0.63883418 0
3.8270001 0.63398153 0.63890272 0
3.8270001 0.62779993 0.63890272 0
3.8290002 0.62200785 0.63903981 0
3.8300002 0.61601561 0.63910836 0
3.8310003 0.6100198 0.63917691 0
3.8330002 0.60420972 0.63931406 0
3.8350003 0.59839243 0.63945115 0
3.8360002 0.59238219 0.63951963 0
3.8390002 0.58673626 0.63972527 0
3.8410003 0.58089733 0.63986236 0
3.8440003 0.57523155 0.64006799 0
3.8470004 0.56955498 0.64027363 0
3.8500001 0.56386757 0.64047927 0
3.8530002 0.55816931 0.6406849 0
3.8570004 0.5526334 0.64095908 0
3.8750002 0.45545864 0.6421929 0
3.8690002 0.44833541 0.64178163 0
3.8660002 0.4416559 0.64157599 0
3.8630002 0.43498725 0.64137036 0
3.8620002 0.42860356 0.64130181 0
3.8620002 0.42235881 0.64130181 0
3.8620002 0.41611403 0.64130181 0
3.8630002 0.41000092 0.64137036 0
3.8650002 0.40401408 0.64150745 0
3.8680003 0.39814809 0.64171308 0
3.8710003 0.39227128 0.64191872 0
3.8760002 0.38663256 0.64226139 0
3.8820002 0.38109848 0.64267272 0
3.8640003 0.24767441 0.6414389 0
3.8650002 0.24150899 0.64150745 0
3.8660002 0.23533997 0.64157599 0
3.8670003 0.22916734 0.64164454 0
3.8680003 0.22299111 0.64171308 0
3.8310003 0.71523052 0.6329881 0
3.8280003 0.70838147 0.63278782 0
3.8270001 0.7019797 0.63272107 0
3.8250003 0.69536519 0.63258761 0
3.8240004 0.68897247 0.63252091 0
3.8240004 0.6827963 0.63252091 0
3.8230002 0.67640895 0.63245416 0
3.8230002 0.67023456 0.63245416 0
3.8230002 0.66406012 0.63245416 0
3.8230002 0.65788567 0.63245416 0
3.8240004 0.65191507 0.63252091 0
3.8250003 0.64594084 0.63258761 0
3.8260002 0.63996297 0.63265431 0
3.8270001 0.63398153 0.63272107 0
3.8280003 0.6279965 0.63278782 0
3.8290002 0.62200785 0.63285458 0
3.8310003 0.61620867 0.6329881 0
3.8330002 0.61040217 0.63312155 0
3.8340003 0.60439914 0.63318825 0
3.8360002 0.59858006 0.63332176 0
3.8390002 0.5929395 0.63352197 0
3.8410003 0.58710426 0.63365549 0
3.8440003 0.58144391 0.6338557 0
3.8470004 0.5757727 0.63405591 0
3.8510003 0.57026929 0.63432288 0
3.8550003 0.56475145 0.63458985 0
3.8590002 0.55921912 0.63485682 0
3.8750002 0.45545864 0.6359247 0
3.8690002 0.44833541 0.63552421 0
3.8660002 0.4416559 0.635324 0
3.8630002 0.43498725 0.63512373 0
3.8620002 0.42860356 0.63505703 0
3.8620002 0.42235881 0.63505703 0
3.8620002 0.41611403 0.63505703 0
3.8630002 0.41000092 0.63512373 0
3.8650002 0.40401408 0.63525724 0
3.8680003 0.39814809 0.63545746 0
3.8710003 0.39227128 0.63565767 0
3.8760002 0.38663256 0.63599139 0
3.8820002 0.38109848 0.63639182 0
3.8640003 0.24767441 0.63519049 0
3.8650002 0.24150899 0.63525724 0
3.8660002 0.23533997 0.635324 0
3.8670003 0.22916734 0.63539076 0
3.8680003 0.22299111 0.63545746 0
3.8180003 0.73700792 0.62595499 0
3.8200002 0.73129702 0.62608486 0
3.8220003 0.72557896 0.62621474 0
3.8250003 0.72007734 0.62640953 0
3.8250003 0.71389931 0.62640953 0
3.8240004 0.70750123 0.62634462 0
3.8230002 0.70110667 0.62627971 0
3.8220003 0.6947158 0.62621474 0
3.8220003 0.6885432 0.62621474 0
3.8220003 0.68237054 0.62621474 0
3.8220003 0.67619795 0.62621474 0
3.8220003 0.67002529 0.62621474 0
3.8220003 0.66385269 0.62621474 0
3.8230002 0.65788567 0.62627971 0
3.8240004 0.65191507 0.62634462 0
3.8250003 0.64594084 0.62640953 0
3.8260002 0.63996297 0.6264745 0
3.8270001 0.63398153 0.62653947 0
3.8290002 0.62819314 0.62666929 0
3.8300002 0.62220269 0.62673426 0
3.8320003 0.61640167 0.62686414 0
3.8340003 0.61059344 0.62699401 0
3.8370004 0.60496736 0.6271888 0
3.8390002 0.59914279 0.62731868 0
3.8420002 0.59349686 0.62751353 0
3.8450003 0.58784014 0.62770832 0
3.8480003 0.58217263 0.6279031 0
3.8520002 0.57667458 0.62816286 0
3.8560002 0.57116216 0.62842262 0
3.8750002 0.45545864 0.62965643 0
3.8690002 0.44833541 0.6292668 0
3.8660002 0.4416559 0.62907195 0
3.8630002 0.43498725 0.62887716 0
3.8620002 0.42860356 0.62881225 0
3.8620002 0.42235881 0.62881225 0
3.8620002 0.41611403 0.62881225 0
3.8630002 0.41000092 0.62887716 0
3.8650002 0.40401408 0.62900704 0
3.8680003 0.39814809 0.62920189 0
3.8710003 0.39227128 0.62939668 0
3.8760002 0.38663256 0.62972134 0
3.8820002 0.38109848 0.63011098 0
3.8640003 0.24767441 0.62894213 0
3.8650002 0.24150899 0.62900704 0
3.8660002 0.23533997 0.62907195 0
3.8670003 0.22916734 0.62913692 0
3.8680003 0.22299111 0.62920189 0
3.8130002 0.75433165 0.61947393 0
3.8110003 0.74770993 0.61934769 0
3.8110003 0.74155712 0.61934769 0
3.8120003 0.73563343 0.61941081 0
3.8130002 0.72970611 0.61947393 0
3.8150003 0.72400063 0.61960018 0
3.8180003 0.71851164 0.6197896 0
3.8210003 0.71301186 0.61997902 0
3.8210003 0.70684105 0.61997902 0
3.8200002 0.70045191 0.61991584 0
3.8200002 0.69428289 0.61991584 0
3.8200002 0.68811387 0.61991584 0
3.8200002 0.68194479 0.61991584 0
3.8200002 0.67577583 0.61991584 0
3.8210003 0.66981608 0.61997902 0
3.8220003 0.66385269 0.62004215 0
3.8230002 0.65788567 0.62010527 0
3.8240004 0.65191507 0.62016839 0
3.8250003 0.64594084 0.62023151 0
3.8260002 0.63996297 0.62029469 0
3.8280003 0.63418001 0.62042093 0
3.8300002 0.62838972 0.62054718 0
3.8320003 0.62259233 0.62067342 0
3.8340003 0.61678767 0.62079972 0
3.8370004 0.61116701 0.62098914 0
3.8390002 0.60534608 0.62111539 0
3.8420002 0.59970564 0.62130481 0
3.8460002 0.59424007 0.6215573 0
3.8490002 0.58857608 0.62174672 0
3.8540003 0.58326572 0.62206239 0
3.8580003 0.57775688 0.62231493 0
3.8750002 0.45545864 0.62338817 0
3.8690002 0.44833541 0.62300938 0
3.8660002 0.4416559 0.62282002 0
3.8630002 0.43498725 0.6226306 0
3.8620002 0.42860356 0.62256747 0
3.8620002 0.42235881 0.62256747 0
3.8620002 0.41611403 0.62256747 0
3.8630002 0.41000092 0.6226306 0
3.8650002 0.40401408 0.62275684 0
