# .PCD v0.7 - Point Cloud Data file format
VERSION 0.7
FIELDS x y z intensity
SIZE 4 4 4 4
TYPE F F F F
COUNT 1 1 1 1
WIDTH 1415
HEIGHT 1
VIEWPOINT 0 0 0 1 0 0 0
POINTS 1415
DATA ascii
3.3320003 -1.3523252 0.57324052 0
3.3300002 -1.3567191 0.57312506 0
3.3280003 -1.3611062 0.57300961 0
3.3260002 -1.3654857 0.57289422 0
3.3250003 -1.3703109 0.57283646 0
3.3230002 -1.3746779 0.572721 0
3.3230002 -1.3799505 0.572721 0
3.3220003 -1.3847649 0.57266331 0
3.3220003 -1.3900356 0.57266331 0
3.3230002 -1.395768 0.572721 0
3.3240001 -1.4015042 0.5727787 0
3.3260002 -1.4077092 0.57289422 0
3.3290002 -1.4143888 0.57306737 0
3.3320003 -1.4210792 0.57324052 0
3.3390002 -1.4296634 0.57364458 0
3.6140003 -1.5707266 0.58951807 0
3.6120002 -1.5755717 0.58940262 0
3.6100001 -1.5804094 0.58928716 0
3.6090002 -1.5857199 0.58922946 0
3.6070004 -1.5905451 0.58911407 0
3.6050003 -1.5953631 0.58899856 0
3.6040003 -1.600659 0.58894086 0
3.6020002 -1.6054643 0.5888254 0
3.6000001 -1.6102624 0.58870995 0
3.5980003 -1.6150535 0.58859456 0
3.5970004 -1.6203296 0.5885368 0
3.5950003 -1.6251079 0.58842134 0
3.5930002 -1.6298789 0.58830595 0
3.5910003 -1.6346428 0.5881905 0
3.5900002 -1.639899 0.58813274 0
3.5880003 -1.6446503 0.58801734 0
3.5860002 -1.6493943 0.58790189 0
3.5850003 -1.6546361 0.58784413 0
3.5830002 -1.6593676 0.58772874 0
3.5810003 -1.6640918 0.58761328 0
3.5790002 -1.6688087 0.58749783 0
3.5780003 -1.6740308 0.58744013 0
3.5760002 -1.678735 0.58732462 0
3.5740004 -1.6834323 0.58720922 0
3.3100002 -1.5577356 0.57197064 0
3.3000002 -1.5577717 0.57139343 0
3.2920003 -1.5588179 0.57093167 0
3.2850003 -1.5603602 0.57052761 0
3.2790003 -1.5624038 0.57018125 0
3.2740002 -1.5649544 0.56989264 0
3.2690003 -1.5674871 0.56960404 0
3.2650003 -1.5705336 0.56937313 0
3.2610002 -1.5735658 0.56914228 0
3.2580001 -1.5771192 0.56896913 0
3.2550001 -1.5806619 0.56879592 0
3.2520003 -1.5841938 0.56862277 0
3.2500002 -1.5882561 0.56850731 0
3.2470002 -1.591768 0.56833416 0
3.2450001 -1.595814 0.56821871 0
3.2440002 -1.6003993 0.56816101 0
3.2420003 -1.6044327 0.56804556 0
3.2410002 -1.6090088 0.5679878 0
3.2400002 -1.6135815 0.5679301 0
3.2400002 -1.6187043 0.5679301 0
3.2400002 -1.6238271 0.5679301 0
3.2400002 -1.62895 0.5679301 0
3.2410002 -1.6346319 0.5679878 0
3.2430003 -1.6408786 0.56810325 0
3.2450001 -1.6471323 0.56821871 0
3.2480001 -1.6539578 0.56839186 0
3.2540002 -1.6624935 0.56873822 0
3.8690002 -1.478947 0.59797972 0
3.8670003 -1.4843748 0.59786791 0
3.8650002 -1.4897952 0.59775609 0
3.8630002 -1.4952084 0.59764421 0
3.8610003 -1.5006144 0.59753239 0
3.8590002 -1.5060132 0.59742057 0
3.3840003 -1.3216677 0.57085949 0
3.3750002 -1.3231864 0.57035625 0
3.3670003 -1.3251039 0.56990886 0
3.3600001 -1.3274254 0.56951743 0
3.3550003 -1.3305911 0.56923783 0
3.3500001 -1.3337387 0.56895828 0
3.3460002 -1.3373066 0.56873459 0
3.3420002 -1.3408601 0.56851095 0
3.3380003 -1.3443992 0.56828725 0
3.3350003 -1.3483677 0.56811953 0
3.3320003 -1.3523252 0.56795174 0
3.3300002 -1.3567191 0.56783992 0
3.3280003 -1.3611062 0.5677281 0
3.3260002 -1.3654857 0.56761622 0
3.3250003 -1.3703109 0.56756032 0
3.3240001 -1.3751324 0.56750441 0
3.3230002 -1.3799505 0.5674485 0
3.3230002 -1.3852229 0.5674485 0
3.3230002 -1.3904955 0.5674485 0
3.3240001 -1.3962297 0.56750441 0
3.3250003 -1.4019678 0.56756032 0
3.3270001 -1.4081746 0.56767213 0
3.3290002 -1.4143888 0.56778401 0
3.3330002 -1.421548 0.56800765 0
3.3400002 -1.4301342 0.56839907 0
3.6160002 -1.5658743 0.5838325 0
3.6140003 -1.5707266 0.58372068 0
3.6120002 -1.5755717 0.58360881 0
3.6100001 -1.5804094 0.58349699 0
3.6090002 -1.5857199 0.58344102 0
3.6070004 -1.5905451 0.5833292 0
3.6050003 -1.5953631 0.58321738 0
3.6040003 -1.600659 0.58316147 0
3.6020002 -1.6054643 0.58304965 0
3.6000001 -1.6102624 0.58293778 0
3.5980003 -1.6150535 0.58282596 0
3.5970004 -1.6203296 0.58277005 0
3.5950003 -1.6251079 0.58265817 0
3.5930002 -1.6298789 0.58254635 0
3.5910003 -1.6346428 0.58243454 0
3.5900002 -1.639899 0.58237863 0
3.5880003 -1.6446503 0.58226681 0
3.5860002 -1.6493943 0.58215493 0
3.5850003 -1.6546361 0.58209902 0
3.5830002 -1.6593676 0.5819872 0
3.5810003 -1.6640918 0.58187532 0
3.5790002 -1.6688087 0.58176351 0
3.5780003 -1.6740308 0.5817076 0
3.5760002 -1.678735 0.58159578 0
3.5740004 -1.6834323 0.5814839 0
3.5730002 -1.6886396 0.58142799 0
3.3110003 -1.5582551 0.56677747 0
3.3010001 -1.5582929 0.56621826 0
3.2930002 -1.559341 0.56577098 0
3.2860003 -1.5608851 0.5653795 0
3.2800002 -1.5629306 0.56504405 0
3.2750003 -1.565483 0.56476444 0
3.2700002 -1.5680172 0.56448483 0
3.2660003 -1.5710658 0.5642612 0
3.2620003 -1.5740998 0.5640375 0
3.2590003 -1.5776551 0.56386971 0
3.2560003 -1.5811996 0.56370199 0
3.2530003 -1.5847332 0.56353426 0
3.2510002 -1.5887972 0.56342238 0
3.2480001 -1.5923109 0.56325459 0
3.2460003 -1.5963588 0.56314278 0
3.2450001 -1.6009458 0.56308687 0
3.2430003 -1.6049809 0.56297505 0
3.2420003 -1.6095591 0.56291914 0
3.2410002 -1.6141334 0.56286323 0
3.2410002 -1.619258 0.56286323 0
3.2410002 -1.6243826 0.56286323 0
3.2410002 -1.6295073 0.56286323 0
3.2420003 -1.6351912 0.56291914 0
3.2440002 -1.6414394 0.56303096 0
3.2460003 -1.6476952 0.56314278 0
3.2500002 -1.6550871 0.56336647 0
3.2560003 -1.6636264 0.56370199 0
3.8690002 -1.478947 0.59172231 0
3.8670003 -1.4843748 0.59161413 0
3.8650002 -1.4897952 0.59150589 0
3.8630002 -1.4952084 0.59139764 0
3.8610003 -1.5006144 0.5912894 0
3.8590002 -1.5060132 0.59118116 0
3.3860002 -1.3225225 0.56558514 0
3.3760002 -1.3236157 0.56504399 0
3.3680003 -1.3255351 0.56461108 0
3.3610003 -1.3278583 0.56423229 0
3.3560002 -1.3310257 0.56396174 0
3.3510003 -1.3341752 0.56369114 0
3.3470001 -1.337745 0.56347471 0
3.3430002 -1.3413002 0.56325823 0
3.3390002 -1.3448411 0.56304181 0
3.3360002 -1.3488114 0.56287944 0
3.3330002 -1.3527707 0.56271708 0
3.3310003 -1.3571666 0.5626089 0
3.3290002 -1.3615552 0.56250066 0
3.3270001 -1.3659366 0.56239241 0
3.3260002 -1.3707637 0.56233829 0
3.3250003 -1.3755871 0.56228417 0
3.3240001 -1.3804069 0.56223005 0
3.3240001 -1.385681 0.56223005 0
3.3240001 -1.3909554 0.56223005 0
3.3250003 -1.3966917 0.56228417 0
3.3260002 -1.4024314 0.56233829 0
3.3280003 -1.4086401 0.56244653 0
3.3310003 -1.4153233 0.5626089 0
3.3350003 -1.4224861 0.56282532 0
3.3420002 -1.4310758 0.56320411 0
3.6160002 -1.5658743 0.57803142 0
3.6140003 -1.5707266 0.57792318 0
3.6120002 -1.5755717 0.57781494 0
3.6100001 -1.5804094 0.57770675 0
3.6090002 -1.5857199 0.57765263 0
3.6070004 -1.5905451 0.57754439 0
3.6050003 -1.5953631 0.57743615 0
3.6040003 -1.600659 0.57738209 0
3.6020002 -1.6054643 0.57727385 0
3.6000001 -1.6102624 0.5771656 0
3.5980003 -1.6150535 0.57705736 0
3.5970004 -1.6203296 0.57700324 0
3.5950003 -1.6251079 0.57689506 0
3.5930002 -1.6298789 0.57678682 0
3.5910003 -1.6346428 0.57667857 0
3.5900002 -1.639899 0.57662445 0
3.5880003 -1.6446503 0.57651627 0
3.5860002 -1.6493943 0.57640803 0
3.5850003 -1.6546361 0.57635391 0
3.5830002 -1.6593676 0.57624567 0
3.5810003 -1.6640918 0.57613742 0
3.5790002 -1.6688087 0.57602918 0
3.5780003 -1.6740308 0.57597506 0
3.5760002 -1.678735 0.57586688 0
3.5740004 -1.6834323 0.57575864 0
3.5730002 -1.6886396 0.57570451 0
3.3140001 -1.5598135 0.5616889 0
3.3030002 -1.5593356 0.56109369 0
3.2940001 -1.559864 0.56060666 0
3.2880003 -1.5619349 0.56028199 0
3.2820003 -1.563984 0.55995727 0
3.2760003 -1.5660114 0.5596326 0
3.2720003 -1.569078 0.55941612 0
3.2670002 -1.5715978 0.55914557 0
3.2630002 -1.5746337 0.55892909 0
3.2600002 -1.5781908 0.55876672 0
3.2570002 -1.581737 0.55860442 0
3.2540002 -1.5852724 0.55844206 0
3.2520003 -1.5893384 0.55833387 0
3.2490003 -1.592854 0.55817151 0
3.2470002 -1.5969036 0.55806327 0
3.2460003 -1.6014924 0.55800915 0
3.2440002 -1.6055293 0.55790091 0
3.2430003 -1.6101092 0.55784684 0
3.2420003 -1.6146855 0.55779272 0
3.2420003 -1.6198119 0.55779272 0
3.2420003 -1.6249384 0.55779272 0
3.2430003 -1.6306221 0.55784684 0
3.2440002 -1.6363095 0.55790091 0
3.2450001 -1.6420004 0.55795503 0
3.2480001 -1.6488206 0.55811739 0
3.2520003 -1.6562164 0.55833387 0
3.2590003 -1.6653256 0.55871266 0
3.8690002 -1.478947 0.58546495 0
3.8670003 -1.4843748 0.58536029 0
3.8650002 -1.4897952 0.58525568 0
3.8630002 -1.4952084 0.58515108 0
3.8610003 -1.5006144 0.58504641 0
3.8590002 -1.5060132 0.5849418 0
3.3880002 -1.3233777 0.56030363 0
3.3780003 -1.3244743 0.55978048 0
3.3700001 -1.3263972 0.55936199 0
3.3630002 -1.328724 0.55899584 0
3.3570004 -1.3314606 0.55868196 0
3.3520002 -1.3346118 0.55842042 0
3.3480003 -1.3381834 0.55821121 0
3.3440003 -1.3417405 0.55800194 0
3.3400002 -1.345283 0.55779266 0
3.3370001 -1.349255 0.55763578 0
3.3350003 -1.3536618 0.55753112 0
3.3320003 -1.3576139 0.55737424 0
3.3300002 -1.3620043 0.55726957 0
3.3280003 -1.3663877 0.55716497 0
3.3270001 -1.3712164 0.55711269 0
3.3260002 -1.3760417 0.55706036 0
3.3250003 -1.3808632 0.55700803 0
3.3250003 -1.3861394 0.55700803 0
3.3250003 -1.3914155 0.55700803 0
3.3260002 -1.3971534 0.55706036 0
3.3280003 -1.4033585 0.55716497 0
3.3300002 -1.4095707 0.55726957 0
3.3330002 -1.4162575 0.55742651 0
3.3380003 -1.4238931 0.55768812 0
3.6160002 -1.5658743 0.5722304 0
3.6140003 -1.5707266 0.57212579 0
3.6120002 -1.5755717 0.57202113 0
3.6100001 -1.5804094 0.57191652 0
3.6090002 -1.5857199 0.57186425 0
3.6070004 -1.5905451 0.57175958 0
3.6050003 -1.5953631 0.57165498 0
3.6040003 -1.600659 0.5716027 0
3.6020002 -1.6054643 0.57149804 0
3.6000001 -1.6102624 0.57139343 0
3.5980003 -1.6150535 0.57128882 0
3.5970004 -1.6203296 0.57123649 0
3.5950003 -1.6251079 0.57113189 0
3.5930002 -1.6298789 0.57102722 0
3.5910003 -1.6346428 0.57092261 0
3.5900002 -1.639899 0.57087028 0
3.5880003 -1.6446503 0.57076567 0
3.5860002 -1.6493943 0.57066107 0
3.5850003 -1.6546361 0.57060874 0
3.5830002 -1.6593676 0.57050413 0
3.5810003 -1.6640918 0.57039952 0
3.5790002 -1.6688087 0.57029492 0
3.5780003 -1.6740308 0.57024258 0
3.5760002 -1.678735 0.57013798 0
3.5740004 -1.6834323 0.57003331 0
3.5730002 -1.6886396 0.56998104 0
3.3060002 -1.5608995 0.55601418 0
3.2970002 -1.5614333 0.55554336 0
3.2900002 -1.5629847 0.55517721 0
3.2830002 -1.5645107 0.554811 0
3.2780001 -1.5670685 0.55454946 0
3.2730002 -1.5696083 0.55428791 0
3.2690003 -1.5726621 0.5540787 0
3.2650003 -1.5757016 0.55386943 0
3.2620003 -1.5792623 0.55371249 0
3.2590003 -1.5828122 0.55355555 0
3.2560003 -1.5863512 0.55339861 0
3.2530003 -1.5898794 0.55324173 0
3.2510002 -1.5939398 0.55313706 0
3.2490003 -1.597993 0.55303246 0
3.2470002 -1.602039 0.55292785 0
3.2460003 -1.6066262 0.55287552 0
3.2450001 -1.6112095 0.55282319 0
3.2440002 -1.6157894 0.55277091 0
3.2440002 -1.6209193 0.55277091 0
3.2440002 -1.6260494 0.55277091 0
3.2450001 -1.6317368 0.55282319 0
3.2460003 -1.6374279 0.55287552 0
3.2480001 -1.6436834 0.55298012 0
3.2510002 -1.650509 0.55313706 0
3.2550001 -1.65791 0.55334628 0
3.8690002 -1.478947 0.57920754 0
3.8670003 -1.4843748 0.57910651 0
3.8650002 -1.4897952 0.57900548 0
3.8630002 -1.4952084 0.57890451 0
3.8610003 -1.5006144 0.57880348 0
3.8590002 -1.5060132 0.57870245 0
3.3810003 -1.3257623 0.5545603 0
3.3720002 -1.3272594 0.5541057 0
3.3650002 -1.32959 0.55375218 0
3.3590002 -1.3323299 0.55344915 0
3.3540003 -1.3354847 0.55319661 0
3.3500001 -1.3390599 0.55299455 0
3.3460002 -1.3426206 0.55279255 0
3.3420002 -1.346167 0.55259055 0
3.3390002 -1.3501425 0.55243897 0
3.3360002 -1.3541073 0.55228746 0
3.3340003 -1.3585087 0.55218649 0
3.3320003 -1.3629028 0.55208546 0
3.3300002 -1.3672894 0.55198443 0
3.3290002 -1.3721219 0.55193394 0
3.3280003 -1.3769509 0.55188346 0
3.3280003 -1.3822323 0.55188346 0
3.3270001 -1.3870556 0.55183291 0
3.3280003 -1.3927954 0.55188346 0
3.3280003 -1.398077 0.55188346 0
3.3300002 -1.4042856 0.55198443 0
3.3320003 -1.4105016 0.55208546 0
3.3360002 -1.417659 0.55228746 0
3.3410003 -1.4253 0.55254 0
3.6160002 -1.5658743 0.56642932 0
3.6140003 -1.5707266 0.56632835 0
3.6120002 -1.5755717 0.56622732 0
3.6100001 -1.5804094 0.56612629 0
3.6090002 -1.5857199 0.5660758 0
3.6070004 -1.5905451 0.56597477 0
3.6050003 -1.5953631 0.56587374 0
3.6040003 -1.600659 0.56582326 0
3.6020002 -1.6054643 0.56572223 0
3.6000001 -1.6102624 0.56562126 0
3.5980003 -1.6150535 0.56552023 0
3.5970004 -1.6203296 0.56546974 0
3.5950003 -1.6251079 0.56536871 0
3.5930002 -1.6298789 0.56526768 0
3.5910003 -1.6346428 0.56516671 0
3.5900002 -1.639899 0.56511617 0
3.5880003 -1.6446503 0.56501514 0
3.5860002 -1.6493943 0.56491411 0
3.5850003 -1.6546361 0.56486362 0
3.5830002 -1.6593676 0.56476259 0
3.5810003 -1.6640918 0.56466162 0
3.5790002 -1.6688087 0.56456059 0
3.5780003 -1.6740308 0.56451011 0
3.5760002 -1.678735 0.56440908 0
3.5740004 -1.6834323 0.56430805 0
3.5730002 -1.6886396 0.56425756 0
3.3100002 -1.5629847 0.55097431 0
3.3000002 -1.5630027 0.55046928 0
3.2920003 -1.5640346 0.55006516 0
3.2860003 -1.5660908 0.54976213 0
3.2810001 -1.5686539 0.54950964 0
3.2760003 -1.5711993 0.5492571 0
3.2710001 -1.5737263 0.54900455 0
3.2670002 -1.5767694 0.5488025 0
3.2640002 -1.5803337 0.54865098 0
3.2600002 -1.5833497 0.54844898 0
3.2580001 -1.5874298 0.54834795 0
3.2550001 -1.5909617 0.54819643 0
3.2530003 -1.5950258 0.54809546 0
3.2510002 -1.5990825 0.54799443 0
3.2490003 -1.6031321 0.5478934 0
3.2480001 -1.6077226 0.54784286 0
3.2470002 -1.6123098 0.54779238 0
3.2460003 -1.6168933 0.54774189 0
3.2460003 -1.6220269 0.54774189 0
3.2460003 -1.6271605 0.54774189 0
3.2470002 -1.6328516 0.54779238 0
3.2490003 -1.6391054 0.5478934 0
3.2510002 -1.6453663 0.54799443 0
3.2540002 -1.6521974 0.54814595 0
3.2610002 -1.6612977 0.54849946 0
3.8690002 -1.478947 0.57295012 0
3.8670003 -1.4843748 0.57285273 0
3.8650002 -1.4897952 0.57275534 0
3.8630002 -1.4952084 0.57265788 0
3.8610003 -1.5006144 0.57256049 0
3.8590002 -1.5060132 0.5724631 0
3.3850002 -1.3274795 0.54937792 0
3.3760002 -1.3289839 0.54893959 0
3.3680003 -1.3308887 0.54855001 0
3.3620002 -1.3336341 0.54825777 0
3.3570004 -1.3367944 0.54801428 0
3.3520002 -1.3399366 0.54777074 0
3.3480003 -1.343501 0.54757595 0
3.3440003 -1.3470508 0.54738116 0
3.3410003 -1.3510301 0.54723501 0
3.3390002 -1.355444 0.54713762 0
3.3360002 -1.3594034 0.54699147 0
3.3340003 -1.363801 0.54689407 0
3.3320003 -1.3681915 0.54679668 0
3.3310003 -1.3730274 0.54674798 0
3.3300002 -1.3778598 0.54669929 0
3.3300002 -1.383145 0.54669929 0
3.3300002 -1.3884301 0.54669929 0
3.3300002 -1.3937153 0.54669929 0
3.3310003 -1.3994623 0.54674798 0
3.3330002 -1.4056764 0.54684538 0
3.3360002 -1.4123631 0.54699147 0
3.3400002 -1.4195278 0.54718632 0
3.3470001 -1.4281139 0.54752719 0
3.6170003 -1.5605443 0.56067699 0
3.6160002 -1.5658743 0.56062829 0
3.6140003 -1.5707266 0.5605309 0
3.6120002 -1.5755717 0.56043351 0
3.6100001 -1.5804094 0.56033605 0
3.6090002 -1.5857199 0.56028736 0
3.6070004 -1.5905451 0.56018996 0
3.6050003 -1.5953631 0.56009257 0
3.6040003 -1.600659 0.56004387 0
3.6020002 -1.6054643 0.55994642 0
3.6000001 -1.6102624 0.55984902 0
3.5980003 -1.6150535 0.55975163 0
3.5970004 -1.6203296 0.55970293 0
3.5950003 -1.6251079 0.55960554 0
3.5930002 -1.6298789 0.55950809 0
3.5910003 -1.6346428 0.55941069 0
3.5900002 -1.639899 0.55936205 0
3.5880003 -1.6446503 0.5592646 0
3.5860002 -1.6493943 0.55916721 0
3.5850003 -1.6546361 0.55911851 0
3.5830002 -1.6593676 0.55902112 0
3.5810003 -1.6640918 0.55892372 0
3.5790002 -1.6688087 0.55882627 0
3.5780003 -1.6740308 0.55877757 0
3.5760002 -1.678735 0.55868018 0
3.5740004 -1.6834323 0.55858278 0
3.5730002 -1.6886396 0.55853409 0
3.5710003 -1.6933243 0.55843663 0
3.3050003 -1.5656183 0.54548168 0
3.2960002 -1.5661341 0.54504335 0
3.2890003 -1.5676711 0.54470247 0
3.2830002 -1.5697111 0.54441023 0
3.2780001 -1.5722598 0.54416674 0
3.2740002 -1.5753227 0.5439719 0
3.2700002 -1.5783712 0.54377711 0
3.2660003 -1.5814052 0.54358232 0
3.2630002 -1.5849624 0.54343617 0
3.2600002 -1.5885085 0.54329008 0
3.2570002 -1.592044 0.54314399 0
3.2550001 -1.5961115 0.54304659 0
3.2530003 -1.600172 0.5429492 0
3.2520003 -1.6047717 0.54290044 0
3.2500002 -1.6088195 0.54280305 0
3.2500002 -1.6139604 0.54280305 0
3.2490003 -1.6185492 0.54275435 0
3.2490003 -1.6236883 0.54275435 0
3.2490003 -1.6288273 0.54275435 0
3.2500002 -1.6345237 0.54280305 0
3.2520003 -1.640783 0.54290044 0
3.2550001 -1.6476103 0.54304659 0
3.2600002 -1.6555742 0.54329008 0
3.8690002 -1.478947 0.56669271 0
3.8670003 -1.4843748 0.56659889 0
3.8650002 -1.4897952 0.56650507 0
3.8630002 -1.4952084 0.56641132 0
3.8610003 -1.5006144 0.5663175 0
3.8590002 -1.5060132 0.56622374 0
3.3800004 -1.3307083 0.54375911 0
3.3720002 -1.3326204 0.5433839 0
3.3660002 -1.3353729 0.5431025 0
3.3600001 -1.3381039 0.54282111 0
3.3550003 -1.3412516 0.54258657 0
3.3510003 -1.3448213 0.54239899 0
3.3470001 -1.3483765 0.54221141 0
3.3440003 -1.3523613 0.54207075 0
3.3410003 -1.356335 0.54193002 0
3.3390002 -1.3607453 0.5418362 0
3.3370001 -1.3651483 0.54174244 0
3.3350003 -1.3695444 0.54164863 0
3.3340003 -1.3743858 0.54160172 0
3.3330002 -1.3792235 0.54155481 0
3.3330002 -1.3845141 0.54155481 0
3.3330002 -1.3898046 0.54155481 0
3.3340003 -1.3955553 0.54160172 0
3.3350003 -1.4013094 0.54164863 0
3.3370001 -1.4075307 0.54174244 0
3.3400002 -1.4142246 0.54188311 0
3.3450003 -1.4218638 0.5421176 0
3.6170003 -1.5605443 0.55487418 0
3.6160002 -1.5658743 0.55482721 0
3.6140003 -1.5707266 0.55473346 0
3.6120002 -1.5755717 0.55463964 0
3.6100001 -1.5804094 0.55454582 0
3.6090002 -1.5857199 0.55449897 0
3.6070004 -1.5905451 0.55440515 0
3.6050003 -1.5953631 0.55431134 0
3.6040003 -1.600659 0.55426443 0
3.6020002 -1.6054643 0.55417067 0
3.6000001 -1.6102624 0.55407685 0
3.5980003 -1.6150535 0.55398309 0
3.5970004 -1.6203296 0.55393618 0
3.5950003 -1.6251079 0.55384237 0
3.5930002 -1.6298789 0.55374855 0
3.5910003 -1.6346428 0.55365479 0
3.5900002 -1.639899 0.55360788 0
3.5880003 -1.6446503 0.55351406 0
3.5860002 -1.6493943 0.55342031 0
3.5850003 -1.6546361 0.5533734 0
3.5830002 -1.6593676 0.55327958 0
3.5810003 -1.6640918 0.55318582 0
3.5790002 -1.6688087 0.553092 0
3.5780003 -1.6740308 0.55304509 0
3.5760002 -1.678735 0.55295128 0
3.5740004 -1.6834323 0.55285752 0
3.5730002 -1.6886396 0.55281055 0
3.5710003 -1.6933243 0.55271679 0
3.5690002 -1.6980016 0.55262297 0
3.3110003 -1.5687569 0.54052305 0
3.3010001 -1.5687586 0.54005408 0
3.2930002 -1.5697778 0.53967887 0
3.2870002 -1.5718251 0.53939748 0
3.2820003 -1.5743811 0.53916299 0
3.2770002 -1.5769191 0.53892851 0
3.2730002 -1.5799729 0.53874087 0
3.2690003 -1.5830125 0.5385533 0
3.2660003 -1.5865749 0.53841257 0
3.2630002 -1.5901266 0.5382719 0
3.2610002 -1.5942086 0.53817809 0
3.2580001 -1.5977404 0.53803742 0
3.2560003 -1.6018063 0.5379436 0
3.2550001 -1.6064113 0.53789669 0
3.2540002 -1.6110128 0.53784978 0
3.2530003 -1.6156108 0.53780288 0
3.2530003 -1.6207571 0.53780288 0
3.2520003 -1.6253496 0.53775603 0
3.2530003 -1.6310496 0.53780288 0
3.2540002 -1.6367532 0.53784978 0
3.2570002 -1.6435789 0.53799051 0
3.2600002 -1.6504152 0.53813118 0
3.8690002 -1.478947 0.5604353 0
3.8670003 -1.4843748 0.56034505 0
3.8650002 -1.4897952 0.56025493 0
3.8630002 -1.4952084 0.56016469 0
3.8610003 -1.5006144 0.56007451 0
3.8590002 -1.5060132 0.55998433 0
3.3870003 -1.3337262 0.53869939 0
3.3780003 -1.3352178 0.53829354 0
3.3700001 -1.3371118 0.53793275 0
3.3640003 -1.3398499 0.53766221 0
3.3590002 -1.3430049 0.53743672 0
3.3550003 -1.3465818 0.53725636 0
3.3510003 -1.3501444 0.537076 0
3.3480003 -1.3541362 0.53694069 0
3.3450003 -1.3581172 0.53680539 0
3.3420002 -1.3620874 0.53667009 0
3.3400002 -1.3664958 0.53657991 0
3.3390002 -1.3713481 0.53653485 0
3.3370001 -1.375744 0.53644466 0
3.3370001 -1.3810418 0.53644466 0
3.3360002 -1.3858832 0.53639954 0
3.3360002 -1.3911791 0.53639954 0
3.3370001 -1.3969351 0.53644466 0
3.3390002 -1.4031564 0.53653485 0
3.3420002 -1.4098486 0.53667009 0
3.3460002 -1.417017 0.53685045 0
3.6190002 -1.5556792 0.54916149 0
3.6170003 -1.5605443 0.54907131 0
3.6160002 -1.5658743 0.54902619 0
3.6140003 -1.5707266 0.54893601 0
3.6120002 -1.5755717 0.54884583 0
3.6100001 -1.5804094 0.54875565 0
3.6090002 -1.5857199 0.54871053 0
3.6070004 -1.5905451 0.54862034 0
3.6050003 -1.5953631 0.54853016 0
3.6040003 -1.600659 0.54848504 0
3.6020002 -1.6054643 0.54839486 0
3.6000001 -1.6102624 0.54830468 0
3.5980003 -1.6150535 0.5482145 0
3.5970004 -1.6203296 0.54816937 0
3.5950003 -1.6251079 0.54807919 0
3.5930002 -1.6298789 0.54798901 0
3.5910003 -1.6346428 0.54789883 0
3.5900002 -1.639899 0.54785371 0
3.5880003 -1.6446503 0.54776353 0
3.5860002 -1.6493943 0.54767334 0
3.5850003 -1.6546361 0.54762828 0
3.5830002 -1.6593676 0.54753804 0
3.5810003 -1.6640918 0.54744786 0
3.5790002 -1.6688087 0.54735768 0
3.5780003 -1.6740308 0.54731256 0
3.5760002 -1.678735 0.54722238 0
3.5740004 -1.6834323 0.54713219 0
3.5730002 -1.6886396 0.54708707 0
3.5710003 -1.6933243 0.54699695 0
3.5690002 -1.6980016 0.54690671 0
3.5680003 -1.7031947 0.54686165 0
3.3080003 -1.5724331 0.53513688 0
3.2990003 -1.5729381 0.53473103 0
3.2920003 -1.5744678 0.53441536 0
3.2860003 -1.5765024 0.53414476 0
3.2810001 -1.5790476 0.53391933 0
3.2770002 -1.5821086 0.53373891 0
3.2730002 -1.5851554 0.53355855 0
3.2700002 -1.588725 0.53342324 0
3.2670002 -1.592284 0.533288 0
3.2640002 -1.595832 0.5331527 0
3.2620003 -1.5999124 0.53306246 0
3.2600002 -1.6039852 0.53297228 0
3.2580001 -1.6080509 0.53288209 0
3.2570002 -1.6126579 0.53283703 0
3.2570002 -1.6178114 0.53283703 0
3.2570002 -1.6229649 0.53283703 0
3.2570002 -1.6281184 0.53283703 0
3.2580001 -1.6338274 0.53288209 0
3.2600002 -1.6400975 0.53297228 0
3.2630002 -1.6469339 0.53310758 0
3.2690003 -1.6554642 0.53337818 0
3.8690002 -1.478947 0.55417788 0
3.8670003 -1.4843748 0.55409127 0
3.8650002 -1.4897952 0.55400467 0
3.8630002 -1.4952084 0.55391812 0
3.8610003 -1.5006144 0.55383152 0
3.8590002 -1.5060132 0.55374497 0
3.3850002 -1.3382483 0.53322482 0
3.3760002 -1.3397201 0.53283525 0
3.3700001 -1.3424691 0.53257549 0
3.3640003 -1.3451966 0.53231573 0
3.3590002 -1.3483423 0.53209925 0
3.3550003 -1.351912 0.5319261 0
3.3520002 -1.3559111 0.53179622 0
3.3490002 -1.3598993 0.53166634 0
3.3460002 -1.3638767 0.53153646 0
3.3440003 -1.3682925 0.53144991 0
3.3430002 -1.3731519 0.53140658 0
3.3420002 -1.3780078 0.53136331 0
3.3410003 -1.3828601 0.53132004 0
3.3410003 -1.388165 0.53132004 0
3.3420002 -1.3939283 0.53136331 0
3.3430002 -1.3996949 0.53140658 0
3.3450003 -1.4059271 0.53149319 0
3.3490002 -1.4130936 0.53166634 0
3.6210003 -1.5508072 0.54344159 0
3.6190002 -1.5556792 0.54335499 0
3.6170003 -1.5605443 0.54326844 0
3.6160002 -1.5658743 0.54322517 0
3.6140003 -1.5707266 0.54313856 0
3.6120002 -1.5755717 0.54305196 0
3.6100001 -1.5804094 0.54296541 0
3.6090002 -1.5857199 0.54292214 0
3.6070004 -1.5905451 0.54283553 0
3.6050003 -1.5953631 0.54274893 0
3.6040003 -1.600659 0.54270566 0
3.6020002 -1.6054643 0.54261911 0
3.6000001 -1.6102624 0.5425325 0
3.5980003 -1.6150535 0.5424459 0
3.5970004 -1.6203296 0.54240263 0
3.5950003 -1.6251079 0.54231602 0
3.5930002 -1.6298789 0.54222941 0
3.5910003 -1.6346428 0.54214287 0
3.5900002 -1.639899 0.5420996 0
3.5880003 -1.6446503 0.54201299 0
3.5860002 -1.6493943 0.54192638 0
3.5850003 -1.6546361 0.54188311 0
3.5830002 -1.6593676 0.54179651 0
3.5810003 -1.6640918 0.54170996 0
3.5790002 -1.6688087 0.54162335 0
3.5780003 -1.6740308 0.54158008 0
3.5760002 -1.678735 0.54149348 0
3.5740004 -1.6834323 0.54140693 0
3.5730002 -1.6886396 0.5413636 0
3.5710003 -1.6933243 0.54127705 0
3.5690002 -1.6980016 0.54119045 0
3.5680003 -1.7031947 0.54114717 0
3.3080003 -1.5776786 0.52989137 0
3.2990003 -1.5781673 0.5295018 0
3.2920003 -1.5796844 0.52919877 0
3.2870002 -1.5822403 0.52898228 0
3.2820003 -1.5847784 0.5287658 0
3.2780001 -1.5878339 0.52859265 0
3.2740002 -1.5908751 0.52841949 0
3.2710001 -1.5944413 0.52828962 0
3.2690003 -1.5985378 0.52820301 0
3.2660003 -1.6020842 0.52807319 0
3.2650003 -1.6067091 0.52802986 0
3.2630002 -1.6107838 0.52794331 0
3.2620003 -1.6153998 0.52789998 0
3.2620003 -1.6205623 0.52789998 0
3.2620003 -1.6257248 0.52789998 0
3.2620003 -1.6308874 0.52789998 0
3.2640002 -1.6371608 0.52798659 0
3.2680001 -1.6445565 0.52815974 0
3.2750003 -1.6536441 0.52846277 0
3.8690002 -1.478947 0.54792047 0
3.8670003 -1.4843748 0.5478375 0
3.8650002 -1.4897952 0.54775453 0
3.8630002 -1.4952084 0.54767156 0
3.8610003 -1.5006144 0.54758859 0
3.8590002 -1.5060132 0.54750556 0
3.3860002 -1.3440673 0.52788198 0
3.3770003 -1.3455249 0.52750856 0
3.3700001 -1.3478265 0.52721816 0
3.3650002 -1.3509831 0.52701074 0
3.3610003 -1.3545637 0.52684474 0
3.3570004 -1.3581299 0.5266788 0
3.3540003 -1.3621271 0.52655435 0
3.3510003 -1.3661134 0.52642989 0
3.3490002 -1.3705382 0.52634692 0
3.3480003 -1.3754067 0.52630544 0
3.3470001 -1.3802716 0.52626395 0
3.3460002 -1.3851328 0.52622247 0
3.3470001 -1.3909031 0.52626395 0
3.3480003 -1.3966773 0.52630544 0
3.3500001 -1.4029146 0.52638841 0
3.3540003 -1.4100832 0.52655435 0
3.6230001 -1.5459278 0.53771448 0
3.6210003 -1.5508072 0.53763151 0
3.6190002 -1.5556792 0.53754854 0
3.6170003 -1.5605443 0.53746557 0
3.6160002 -1.5658743 0.53742409 0
3.6140003 -1.5707266 0.53734112 0
3.6120002 -1.5755717 0.53725815 0
3.6100001 -1.5804094 0.53717518 0
3.6090002 -1.5857199 0.53713369 0
3.6070004 -1.5905451 0.53705072 0
3.6050003 -1.5953631 0.53696775 0
3.6040003 -1.600659 0.53692627 0
3.6020002 -1.6054643 0.5368433 0
3.6000001 -1.6102624 0.53676027 0
3.5980003 -1.6150535 0.5366773 0
3.5970004 -1.6203296 0.53663588 0
3.5950003 -1.6251079 0.53655285 0
3.5930002 -1.6298789 0.53646988 0
3.5910003 -1.6346428 0.53638691 0
3.5900002 -1.639899 0.53634542 0
3.5880003 -1.6446503 0.53626245 0
3.5860002 -1.6493943 0.53617948 0
3.5850003 -1.6546361 0.536138 0
3.5830002 -1.6593676 0.53605497 0
3.5810003 -1.6640918 0.535972 0
3.5790002 -1.6688087 0.53588903 0
3.5780003 -1.6740308 0.53584754 0
3.5760002 -1.678735 0.53576458 0
3.5740004 -1.6834323 0.53568161 0
3.5730002 -1.6886396 0.53564012 0
3.5710003 -1.6933243 0.53555715 0
3.5690002 -1.6980016 0.53547418 0
3.5680003 -1.7031947 0.5354327 0
3.3110003 -1.5845096 0.52477038 0
3.3010001 -1.5844572 0.52435553 0
3.2940001 -1.5859652 0.52406508 0
3.2880003 -1.5879819 0.52381617 0
3.2840002 -1.5910484 0.52365023 0
3.2800002 -1.5941004 0.52348429 0
3.2770002 -1.5976774 0.52335984 0
3.2740002 -1.6012434 0.52323532 0
3.2720003 -1.6053417 0.52315235 0
3.2700002 -1.6094328 0.52306938 0
3.2690003 -1.6140631 0.5230279 0
3.2680001 -1.6186899 0.52298641 0
3.2680001 -1.6238631 0.52298641 0
3.2690003 -1.6295885 0.5230279 0
3.2700002 -1.6353173 0.52306938 0
3.2740002 -1.6427165 0.52323532 0
3.8690002 -1.478947 0.54166305 0
3.8670003 -1.4843748 0.54158366 0
3.8650002 -1.4897952 0.54150432 0
3.8630002 -1.4952084 0.54142493 0
3.8610003 -1.5006144 0.5413456 0
3.8590002 -1.5060132 0.5412662 0
3.3900003 -1.3511996 0.52265453 0
3.3800004 -1.3522098 0.52225769 0
3.3730001 -1.3545041 0.52197987 0
3.3680003 -1.3576572 0.5217815 0
3.3640003 -1.361236 0.52162278 0
3.3610003 -1.3652458 0.52150369 0
3.3580003 -1.3692449 0.52138466 0
3.3560002 -1.3736821 0.52130526 0
3.3550003 -1.3785634 0.52126557 0
3.3540003 -1.3834409 0.52122593 0
3.3540003 -1.3887694 0.52122593 0
3.3540003 -1.3940978 0.52122593 0
3.3570004 -1.4008007 0.52134496 0
3.3610003 -1.4079745 0.52150369 0
3.6250002 -1.5410413 0.53198022 0
3.6230001 -1.5459278 0.53190082 0
3.6210003 -1.5508072 0.53182149 0
3.6190002 -1.5556792 0.5317421 0
3.6170003 -1.5605443 0.5316627 0
3.6160002 -1.5658743 0.53162307 0
3.6140003 -1.5707266 0.53154373 0
3.6120002 -1.5755717 0.53146434 0
3.6110003 -1.5808874 0.53142464 0
3.6090002 -1.5857199 0.53134525 0
3.6070004 -1.5905451 0.53126591 0
3.6050003 -1.5953631 0.53118652 0
3.6040003 -1.600659 0.53114688 0
3.6020002 -1.6054643 0.53106749 0
3.6000001 -1.6102624 0.5309881 0
3.5980003 -1.6150535 0.53090876 0
3.5970004 -1.6203296 0.53086907 0
3.5950003 -1.6251079 0.53078967 0
3.5930002 -1.6298789 0.53071034 0
3.5910003 -1.6346428 0.53063095 0
3.5900002 -1.639899 0.53059125 0
3.5880003 -1.6446503 0.53051192 0
3.5860002 -1.6493943 0.53043252 0
3.5850003 -1.6546361 0.53039289 0
3.5830002 -1.6593676 0.53031349 0
3.5810003 -1.6640918 0.5302341 0
3.5790002 -1.6688087 0.53015476 0
3.5780003 -1.6740308 0.53011507 0
3.5760002 -1.678735 0.53003573 0
3.5740004 -1.6834323 0.52995634 0
3.5730002 -1.6886396 0.52991664 0
3.5710003 -1.6933243 0.52983731 0
3.3090003 -1.5886998 0.51944011 0
3.2990003 -1.5886259 0.51904333 0
3.2920003 -1.5901176 0.51876551 0
3.2870002 -1.5926555 0.51856709 0
3.2820003 -1.5951755 0.51836866 0
3.2790003 -1.5987561 0.51824963 0
3.2760003 -1.6023258 0.51813054 0
3.2730002 -1.6058847 0.51801151 0
3.2710001 -1.6099774 0.51793218 0
3.2700002 -1.6146097 0.51789248 0
3.2690003 -1.6192384 0.51785278 0
3.2690003 -1.6244134 0.51785278 0
3.2700002 -1.6301404 0.51789248 0
3.2720003 -1.6364249 0.51797181 0
3.2770002 -1.6443833 0.51817024 0
3.8690002 -1.478947 0.53540564 0
3.8670003 -1.4843748 0.53532988 0
3.8650002 -1.4897952 0.53525412 0
3.8630002 -1.4952084 0.53517836 0
3.8610003 -1.5006144 0.53510261 0
3.8590002 -1.5060132 0.53502685 0
3.3880002 -1.3503264 0.51718539 0
3.3780003 -1.351333 0.5168066 0
3.3710003 -1.353624 0.51654142 0
3.3660002 -1.3567734 0.516352 0
3.3610003 -1.3599048 0.51616263 0
3.3580003 -1.3639092 0.51604897 0
3.3550003 -1.3679028 0.51593536 0
3.3530002 -1.3723347 0.51585954 0
3.3510003 -1.3767595 0.51578379 0
3.3500001 -1.3816298 0.51574594 0
3.3500001 -1.386951 0.51574594 0
3.3500001 -1.3922722 0.51574594 0
3.3520002 -1.3985099 0.5158217 0
3.3550003 -1.4052145 0.51593536 0
3.3620002 -1.4137772 0.51620048 0
3.6250002 -1.5410413 0.52616292 0
3.6230001 -1.5459278 0.52608716 0
3.6210003 -1.5508072 0.52601141 0
3.6190002 -1.5556792 0.52593565 0
3.6170003 -1.5605443 0.52585989 0
3.6160002 -1.5658743 0.52582198 0
3.6140003 -1.5707266 0.52574623 0
3.6120002 -1.5755717 0.52567047 0
3.6110003 -1.5808874 0.52563262 0
3.6090002 -1.5857199 0.52555686 0
3.6070004 -1.5905451 0.5254811 0
3.6050003 -1.5953631 0.52540535 0
3.6040003 -1.600659 0.52536744 0
3.6020002 -1.6054643 0.52529168 0
3.6000001 -1.6102624 0.52521592 0
3.5980003 -1.6150535 0.52514017 0
3.5970004 -1.6203296 0.52510232 0
3.5950003 -1.6251079 0.5250265 0
3.5930002 -1.6298789 0.52495074 0
3.5910003 -1.6346428 0.52487499 0
3.5900002 -1.639899 0.52483714 0
3.5880003 -1.6446503 0.52476138 0
3.5860002 -1.6493943 0.52468562 0
3.5850003 -1.6546361 0.52464771 0
3.5830002 -1.6593676 0.52457196 0
3.5810003 -1.6640918 0.5244962 0
3.5790002 -1.6688087 0.52442044 0
3.5780003 -1.6740308 0.52438259 0
3.5760002 -1.678735 0.52430677 0
3.5740004 -1.6834323 0.52423108 0
3.5730002 -1.6886396 0.52419317 0
3.3100002 -1.5839809 0.51423073 0
3.2990003 -1.5833966 0.51381409 0
3.2920003 -1.584901 0.51354891 0
3.2860003 -1.5869141 0.51332164 0
3.2820003 -1.5899769 0.51317012 0
3.2780001 -1.5930252 0.51301855 0
3.2740002 -1.5960593 0.51286703 0
3.2720003 -1.6001612 0.51279128 0
3.2690003 -1.6037129 0.51267767 0
3.2670002 -1.6077985 0.51260191 0
3.2660003 -1.6124235 0.512564 0
3.2650003 -1.6170449 0.51252615 0
3.2650003 -1.6222128 0.51252615 0
3.2650003 -1.6273807 0.51252615 0
3.2660003 -1.6331023 0.512564 0
3.2680001 -1.6393831 0.51263976 0
3.2740002 -1.6479008 0.51286703 0
3.8690002 -1.478947 0.52914822 0
3.8670003 -1.4843748 0.5290761 0
3.8650002 -1.4897952 0.52900392 0
3.8630002 -1.4952084 0.52893174 0
3.8610003 -1.5006144 0.52885962 0
3.8590002 -1.5060132 0.52878749 0
3.3900003 -1.3458062 0.51186776 0
3.3790002 -1.3463979 0.51147091 0
3.3720002 -1.3487031 0.51121837 0
3.3660002 -1.3514233 0.51100194 0
3.3610003 -1.3545637 0.51082152 0
3.3570004 -1.3581299 0.51067722 0
3.3540003 -1.3621271 0.51056898 0
3.3510003 -1.3661134 0.51046079 0
3.3490002 -1.3705382 0.51038861 0
3.3470001 -1.3749557 0.51031649 0
3.3460002 -1.3798188 0.51028037 0
3.3460002 -1.3851328 0.51028037 0
3.3460002 -1.3904468 0.51028037 0
3.3470001 -1.396219 0.51031649 0
3.3490002 -1.4024549 0.51038861 0
3.3530002 -1.4096212 0.51053292 0
3.6230001 -1.5459278 0.52027351 0
3.6210003 -1.5508072 0.52020133 0
3.6190002 -1.5556792 0.5201292 0
3.6170003 -1.5605443 0.52005702 0
3.6160002 -1.5658743 0.52002096 0
3.6140003 -1.5707266 0.51994884 0
3.6120002 -1.5755717 0.51987666 0
3.6110003 -1.5808874 0.5198406 0
3.6090002 -1.5857199 0.51976842 0
3.6070004 -1.5905451 0.5196963 0
3.6050003 -1.5953631 0.51962411 0
3.6040003 -1.600659 0.51958805 0
3.6020002 -1.6054643 0.51951587 0
3.6000001 -1.6102624 0.51944375 0
3.5980003 -1.6150535 0.51937157 0
3.5970004 -1.6203296 0.51933551 0
3.5950003 -1.6251079 0.51926339 0
3.5930002 -1.6298789 0.51919121 0
3.5910003 -1.6346428 0.51911902 0
3.5900002 -1.639899 0.51908296 0
3.5880003 -1.6446503 0.51901084 0
3.5860002 -1.6493943 0.51893866 0
3.5850003 -1.6546361 0.5189026 0
3.5830002 -1.6593676 0.51883042 0
3.5810003 -1.6640918 0.5187583 0
3.5790002 -1.6688087 0.51868612 0
3.5780003 -1.6740308 0.51865005 0
3.5760002 -1.678735 0.51857793 0
3.3140001 -1.5808387 0.50912595 0
3.3020003 -1.5797529 0.50869304 0
3.2940001 -1.5807449 0.50840443 0
3.2880003 -1.5827725 0.50818801 0
3.2830002 -1.5853122 0.50800759 0
3.2780001 -1.5878339 0.50782722 0
3.2740002 -1.5908751 0.50768292 0
3.2710001 -1.5944413 0.50757468 0
3.2690003 -1.5985378 0.50750256 0
3.2660003 -1.6020842 0.50739431 0
3.2640002 -1.6061642 0.50732213 0
3.2630002 -1.6107838 0.50728607 0
3.2620003 -1.6153998 0.50725001 0
3.2610002 -1.620012 0.50721395 0
3.2610002 -1.6251727 0.50721395 0
3.2620003 -1.6308874 0.50725001 0
3.2630002 -1.6366054 0.50728607 0
3.2670002 -1.6439991 0.50743037 0
3.2740002 -1.6530849 0.50768292 0
3.8690002 -1.478947 0.52289081 0
3.8670003 -1.4843748 0.52282226 0
3.8650002 -1.4897952 0.52275372 0
3.8630002 -1.4952084 0.52268517 0
3.8610003 -1.5006144 0.52261662 0
3.8590002 -1.5060132 0.52254808 0
3.3830001 -1.3427631 0.50623447 0
3.3740003 -1.3442153 0.50592601 0
3.3680003 -1.3469498 0.50572038 0
3.3620002 -1.3496627 0.50551474 0
3.3580003 -1.3532379 0.50537765 0
3.3540003 -1.3567986 0.50524056 0
3.3510003 -1.3607904 0.50513774 0
3.3480003 -1.3647715 0.50503492 0
3.3460002 -1.3691907 0.50496638 0
3.3450003 -1.3740538 0.50493211 0
3.3430002 -1.3784604 0.50486356 0
3.3430002 -1.3837692 0.50486356 0
3.3430002 -1.3890778 0.50486356 0
3.3430002 -1.3943863 0.50486356 0
3.3450003 -1.4006149 0.50493211 0
3.3480003 -1.4073125 0.50503492 0
3.3530002 -1.4149479 0.50520629 0
3.6230001 -1.5459278 0.51445979 0
3.6210003 -1.5508072 0.5143913 0
3.6190002 -1.5556792 0.51432276 0
3.6170003 -1.5605443 0.51425421 0
3.6160002 -1.5658743 0.51421988 0
3.6140003 -1.5707266 0.51415139 0
3.6120002 -1.5755717 0.51408285 0
3.6110003 -1.5808874 0.51404858 0
3.6090002 -1.5857199 0.51398003 0
3.6070004 -1.5905451 0.51391149 0
3.6050003 -1.5953631 0.51384294 0
3.6040003 -1.600659 0.51380867 0
3.6020002 -1.6054643 0.51374012 0
3.6000001 -1.6102624 0.51367152 0
3.5980003 -1.6150535 0.51360303 0
3.5970004 -1.6203296 0.51356876 0
3.5950003 -1.6251079 0.51350021 0
3.5930002 -1.6298789 0.51343167 0
3.5910003 -1.6346428 0.51336312 0
3.5900002 -1.639899 0.51332885 0
3.5880003 -1.6446503 0.5132603 0
3.5860002 -1.6493943 0.51319176 0
3.5850003 -1.6546361 0.51315749 0
3.5830002 -1.6593676 0.51308894 0
3.5810003 -1.6640918 0.5130204 0
3.5790002 -1.6688087 0.51295185 0
3.5780003 -1.6740308 0.51291758 0
3.3070002 -1.5771518 0.50362974 0
3.2970002 -1.5771103 0.50328702 0
3.2910001 -1.5791539 0.50308138 0
3.2850003 -1.5811762 0.50287575 0
3.2800002 -1.5837104 0.50270438 0
3.2760003 -1.5867625 0.50256729 0
3.2720003 -1.5898001 0.5024302 0
3.2690003 -1.5933627 0.50232744 0
3.2660003 -1.5969143 0.50222456 0
3.2640002 -1.6009982 0.50215602 0
3.2620003 -1.6050749 0.50208747 0
3.2600002 -1.6091441 0.50201893 0
3.2590003 -1.6137546 0.50198466 0
3.2590003 -1.6189117 0.50198466 0
3.2580001 -1.6235169 0.50195038 0
3.2590003 -1.629226 0.50198466 0
3.2600002 -1.6349386 0.50201893 0
3.2630002 -1.6417696 0.50212175 0
3.2670002 -1.6491706 0.50225884 0
3.8690002 -1.478947 0.51663339 0
3.8670003 -1.4843748 0.51656848 0
3.8650002 -1.4897952 0.51650351 0
3.8630002 -1.4952084 0.5164386 0
3.8610003 -1.5006144 0.51637363 0
3.8590002 -1.5060132 0.51630872 0
3.3890002 -1.3399799 0.50104851 0
3.3780003 -1.3405896 0.50069135 0
3.3710003 -1.3429056 0.50046408 0
3.3650002 -1.3456348 0.50026923 0
3.3600001 -1.3487824 0.50010693 0
3.3550003 -1.351912 0.49994457 0
3.3520002 -1.3559111 0.49984717 0
3.3490002 -1.3598993 0.49974975 0
3.3460002 -1.3638767 0.49965236 0
3.3440003 -1.3682925 0.49958742 0
3.3420002 -1.372701 0.49952248 0
3.3410003 -1.377555 0.49949002 0
3.3410003 -1.3828601 0.49949002 0
3.3400002 -1.3877085 0.49945754 0
3.3410003 -1.39347 0.49949002 0
3.3420002 -1.399235 0.49952248 0
3.3450003 -1.4059271 0.4996199 0
3.3490002 -1.4130936 0.49974975 0
3.6210003 -1.5508072 0.50858122 0
3.6190002 -1.5556792 0.50851625 0
3.6170003 -1.5605443 0.50845134 0
3.6160002 -1.5658743 0.50841886 0
3.6140003 -1.5707266 0.50835395 0
3.6120002 -1.5755717 0.50828898 0
3.6110003 -1.5808874 0.50825655 0
3.6090002 -1.5857199 0.50819159 0
3.6070004 -1.5905451 0.50812668 0
3.6050003 -1.5953631 0.50806171 0
3.6040003 -1.600659 0.50802922 0
3.6020002 -1.6054643 0.50796431 0
3.6000001 -1.6102624 0.50789934 0
3.5980003 -1.6150535 0.50783443 0
3.5970004 -1.6203296 0.50780195 0
3.5950003 -1.6251079 0.50773704 0
3.5930002 -1.6298789 0.50767207 0
3.5910003 -1.6346428 0.50760716 0
3.5900002 -1.639899 0.50757468 0
3.5880003 -1.6446503 0.50750977 0
3.5860002 -1.6493943 0.5074448 0
3.5850003 -1.6546361 0.50741231 0
3.5830002 -1.6593676 0.5073474 0
3.5810003 -1.6640918 0.5072825 0
3.5790002 -1.6688087 0.50721753 0
3.5780003 -1.6740308 0.50718504 0
3.3150003 -1.5761075 0.49864584 0
3.3030002 -1.5750449 0.49825621 0
3.2950003 -1.5760533 0.49799645 0
3.2880003 -1.5775632 0.49776918 0
3.2830002 -1.5801119 0.49760684 0
3.2780001 -1.5826426 0.49744451 0
3.2740002 -1.585691 0.49731463 0
3.2700002 -1.588725 0.49718475 0
3.2670002 -1.592284 0.49708736 0
3.2650003 -1.5963732 0.49702239 0
3.2620003 -1.5999124 0.496925 0
3.2600002 -1.6039852 0.49686006 0
3.2590003 -1.6085976 0.4968276 0
3.2580001 -1.6132063 0.49679512 0
3.2570002 -1.6178114 0.49676266 0
3.2570002 -1.6229649 0.49676266 0
3.2570002 -1.6281184 0.49676266 0
3.2580001 -1.6338274 0.49679512 0
3.2600002 -1.6400975 0.49686006 0
3.2640002 -1.6474931 0.49698994 0
3.2710001 -1.6565861 0.49721721 0
3.8690002 -1.478947 0.51037598 0
3.8670003 -1.4843748 0.51031464 0
3.8650002 -1.4897952 0.51025331 0
3.8630002 -1.4952084 0.51019204 0
3.8610003 -1.5006144 0.51013064 0
3.8590002 -1.5060132 0.51006937 0
3.3850002 -1.3382483 0.49553427 0
3.3760002 -1.3397201 0.49525827 0
3.3690002 -1.3420327 0.49504364 0
3.3630002 -1.3447582 0.49485964 0
3.3580003 -1.3479023 0.49470633 0
3.3540003 -1.3514701 0.49458367 0
3.3500001 -1.3550236 0.494461 0
3.3470001 -1.3590082 0.494369 0
3.3450003 -1.3634294 0.49430767 0
3.3430002 -1.3678433 0.49424633 0
3.3410003 -1.3722501 0.49418503 0
3.3400002 -1.3771021 0.49415433 0
3.3390002 -1.381951 0.4941237 0
3.3390002 -1.3872522 0.4941237 0
3.3390002 -1.3925537 0.4941237 0
3.3400002 -1.398315 0.49415433 0
3.3420002 -1.4045417 0.49421567 0
3.3460002 -1.4117029 0.49433833 0
3.3520002 -1.4198092 0.49452233 0
3.6210003 -1.5508072 0.50277114 0
3.6190002 -1.5556792 0.50270981 0
3.6170003 -1.5605443 0.50264847 0
3.6160002 -1.5658743 0.50261784 0
3.6140003 -1.5707266 0.5025565 0
3.6120002 -1.5755717 0.50249517 0
3.6110003 -1.5808874 0.50246447 0
3.6090002 -1.5857199 0.50240314 0
3.6070004 -1.5905451 0.50234187 0
3.6050003 -1.5953631 0.50228053 0
3.6040003 -1.600659 0.50224984 0
3.6020002 -1.6054643 0.5021885 0
3.6000001 -1.6102624 0.50212717 0
3.5980003 -1.6150535 0.50206584 0
3.5970004 -1.6203296 0.5020352 0
3.5950003 -1.6251079 0.50197387 0
3.5930002 -1.6298789 0.50191253 0
3.5910003 -1.6346428 0.5018512 0
3.5900002 -1.639899 0.5018205 0
3.5880003 -1.6446503 0.50175923 0
3.5860002 -1.6493943 0.5016979 0
3.5850003 -1.6546361 0.5016672 0
3.5830002 -1.6593676 0.50160587 0
3.5810003 -1.6640918 0.50154454 0
3.5790002 -1.6688087 0.5014832 0
3.3110003 -1.5740079 0.49326509 0
3.3000002 -1.5734649 0.49292776 0
3.2930002 -1.5749962 0.49271309 0
3.2870002 -1.5770327 0.49252912 0
3.2810001 -1.5790476 0.49234512 0
3.2770002 -1.5821086 0.49222246 0
3.2730002 -1.5851554 0.49209982 0
3.2690003 -1.5881875 0.49197716 0
3.2660003 -1.5917447 0.49188516 0
3.2630002 -1.5952909 0.49179316 0
3.2610002 -1.5993693 0.49173182 0
3.2590003 -1.6034406 0.49167052 0
3.2580001 -1.6080509 0.49163985 0
3.2560003 -1.6121097 0.49157852 0
3.2560003 -1.6172613 0.49157852 0
3.2550001 -1.621861 0.49154785 0
3.2560003 -1.6275647 0.49157852 0
3.2560003 -1.6327164 0.49157852 0
3.2580001 -1.6389827 0.49163985 0
3.2620003 -1.6463748 0.49176252 0
3.2680001 -1.6549031 0.49194649 0
3.8690002 -1.478947 0.50411856 0
3.8670003 -1.4843748 0.50406086 0
3.8650002 -1.4897952 0.50400317 0
3.8630002 -1.4952084 0.50394541 0
3.8610003 -1.5006144 0.50388771 0
3.8590002 -1.5060132 0.50382996 0
3.3830001 -1.3373823 0.49009216 0
3.3740003 -1.3388507 0.48983243 0
3.3670003 -1.3411596 0.4896304 0
3.3620002 -1.3443198 0.4894861 0
3.3570004 -1.3474621 0.4893418 0
3.3530002 -1.3510282 0.48922634 0
3.3490002 -1.3545799 0.48911089 0
3.3470001 -1.3590082 0.48905319 0
3.3440003 -1.362982 0.48896658 0
3.3420002 -1.3673942 0.48890889 0
3.3400002 -1.371799 0.48885116 0
3.3390002 -1.3766495 0.48882228 0
3.3380003 -1.3814963 0.48879343 0
3.3380003 -1.3867959 0.48879343 0
3.3380003 -1.3920956 0.48879343 0
3.3390002 -1.397855 0.48882228 0
3.3410003 -1.40408 0.48888001 0
3.3440003 -1.4107758 0.48896658 0
3.3500001 -1.4188784 0.48913977 0
3.6210003 -1.5508072 0.49696109 0
3.6190002 -1.5556792 0.49690336 0
3.6170003 -1.5605443 0.49684563 0
3.6160002 -1.5658743 0.49681675 0
3.6140003 -1.5707266 0.49675906 0
3.6120002 -1.5755717 0.49670133 0
3.6110003 -1.5808874 0.49667245 0
3.6090002 -1.5857199 0.49661475 0
3.6070004 -1.5905451 0.49655703 0
3.6050003 -1.5953631 0.4964993 0
3.6040003 -1.600659 0.49647045 0
3.6020002 -1.6054643 0.49641272 0
3.6000001 -1.6102624 0.496355 0
3.5980003 -1.6150535 0.49629727 0
3.5970004 -1.6203296 0.49626842 0
3.5950003 -1.6251079 0.49621069 0
3.5930002 -1.6298789 0.49615297 0
3.5910003 -1.6346428 0.49609524 0
3.5900002 -1.639899 0.49606639 0
3.5880003 -1.6446503 0.49600866 0
3.5860002 -1.6493943 0.49595094 0
3.5850003 -1.6546361 0.49592209 0
3.5830002 -1.6593676 0.49586436 0
3.5810003 -1.6640918 0.49580663 0
3.5790002 -1.6688087 0.49574891 0
3.3090003 -1.572958 0.48795646 0
3.2990003 -1.5729381 0.48766786 0
3.2920003 -1.5744678 0.48746583 0
3.2860003 -1.5765024 0.48729265 0
3.2810001 -1.5790476 0.48714834 0
3.2760003 -1.5815747 0.48700404 0
3.2720003 -1.5846196 0.48688862 0
3.2690003 -1.5881875 0.48680204 0
3.2660003 -1.5917447 0.48671544 0
3.2630002 -1.5952909 0.48662886 0
3.2610002 -1.5993693 0.48657113 0
3.2590003 -1.6034406 0.48651344 0
3.2570002 -1.6075045 0.48645568 0
3.2560003 -1.6121097 0.48642683 0
3.2550001 -1.6167111 0.48639798 0
3.2550001 -1.621861 0.48639798 0
3.2550001 -1.6270107 0.48639798 0
3.2560003 -1.6327164 0.48642683 0
3.2580001 -1.6389827 0.48648456 0
3.2610002 -1.6458155 0.48657113 0
3.2660003 -1.6537812 0.48671544 0
3.8690002 -1.478947 0.49786118 0
3.8670003 -1.4843748 0.49780706 0
3.8650002 -1.4897952 0.49775296 0
3.8630002 -1.4952084 0.49769884 0
3.8610003 -1.5006144 0.49764472 0
3.8590002 -1.5060132 0.4975906 0
3.3820002 -1.3369495 0.48468435 0
3.3730001 -1.338416 0.48444083 0
3.3670003 -1.3411596 0.4842785 0
3.3610003 -1.3438816 0.48411617 0
3.3570004 -1.3474621 0.48400792 0
3.3530002 -1.3510282 0.48389971 0
3.3490002 -1.3545799 0.48379147 0
3.3460002 -1.3585627 0.48371029 0
3.3440003 -1.362982 0.4836562 0
3.3410003 -1.3669451 0.48357502 0
3.3400002 -1.371799 0.48354796 0
3.3390002 -1.3766495 0.4835209 0
3.3380003 -1.3814963 0.48349383 0
3.3370001 -1.3863395 0.48346677 0
3.3380003 -1.3920956 0.48349383 0
3.3390002 -1.397855 0.4835209 0
3.3410003 -1.40408 0.48357502 0
3.3440003 -1.4107758 0.4836562 0
3.3490002 -1.418413 0.48379147 0
3.6210003 -1.5508072 0.49115101 0
3.6190002 -1.5556792 0.49109688 0
3.6170003 -1.5605443 0.49104279 0
3.6160002 -1.5658743 0.49101573 0
3.6140003 -1.5707266 0.49096161 0
3.6120002 -1.5755717 0.49090749 0
3.6110003 -1.5808874 0.49088043 0
3.6090002 -1.5857199 0.49082631 0
3.6070004 -1.5905451 0.49077222 0
3.6050003 -1.5953631 0.4907181 0
3.6040003 -1.600659 0.49069104 0
3.6020002 -1.6054643 0.49063691 0
3.6000001 -1.6102624 0.49058282 0
3.5980003 -1.6150535 0.4905287 0
3.5970004 -1.6203296 0.49050164 0
3.5950003 -1.6251079 0.49044752 0
3.5930002 -1.6298789 0.4903934 0
3.5910003 -1.6346428 0.49033928 0
3.5900002 -1.639899 0.49031225 0
3.5880003 -1.6446503 0.49025813 0
3.5860002 -1.6493943 0.49020401 0
3.5850003 -1.6546361 0.49017695 0
3.5830002 -1.6593676 0.49012285 0
3.5810003 -1.6640918 0.49006873 0
3.5790002 -1.6688087 0.49001461 0
3.3080003 -1.5724331 0.48268214 0
3.2990003 -1.5729381 0.48243862 0
3.2910001 -1.5739391 0.48222214 0
3.2850003 -1.5759722 0.48205981 0
3.2800002 -1.5785155 0.48192453 0
3.2760003 -1.5815747 0.48181629 0
3.2720003 -1.5846196 0.48170808 0
3.2680001 -1.5876499 0.48159984 0
3.2650003 -1.5912054 0.48151869 0
3.2630002 -1.5952909 0.48146456 0
3.2600002 -1.5988264 0.48138338 0
3.2580001 -1.6028957 0.48132926 0
3.2570002 -1.6075045 0.4813022 0
3.2560003 -1.6121097 0.48127517 0
3.2550001 -1.6167111 0.48124808 0
3.2550001 -1.621861 0.48124808 0
3.2550001 -1.6270107 0.48124808 0
3.2560003 -1.6327164 0.48127517 0
3.2570002 -1.6384254 0.4813022 0
3.2600002 -1.6452564 0.48138338 0
3.2660003 -1.6537812 0.48154575 0
3.8690002 -1.478947 0.49160376 0
3.8670003 -1.4843748 0.49155325 0
3.8650002 -1.4897952 0.49150276 0
3.8630002 -1.4952084 0.49145225 0
3.8610003 -1.5006144 0.49140173 0
3.8590002 -1.5060132 0.49135125 0
3.3940003 -1.3367438 0.47960845 0
3.3820002 -1.3369495 0.47930539 0
3.3730001 -1.338416 0.47907811 0
3.3670003 -1.3411596 0.4789266 0
3.3610003 -1.3438816 0.47877508 0
3.3570004 -1.3474621 0.47867405 0
3.3530002 -1.3510282 0.47857305 0
3.3490002 -1.3545799 0.47847205 0
3.3460002 -1.3585627 0.4783963 0
3.3440003 -1.362982 0.47834578 0
3.3410003 -1.3669451 0.47827002 0
3.3400002 -1.371799 0.47824475 0
3.3390002 -1.3766495 0.47821951 0
3.3380003 -1.3814963 0.47819427 0
3.3380003 -1.3867959 0.47819427 0
3.3380003 -1.3920956 0.47819427 0
3.3390002 -1.397855 0.47821951 0
3.3410003 -1.40408 0.47827002 0
3.3440003 -1.4107758 0.47834578 0
3.3490002 -1.418413 0.47847205 0
3.6210003 -1.5508072 0.48534095 0
3.6190002 -1.5556792 0.48529044 0
3.6170003 -1.5605443 0.48523992 0
3.6160002 -1.5658743 0.48521468 0
3.6140003 -1.5707266 0.48516417 0
3.6120002 -1.5755717 0.48511368 0
3.6110003 -1.5808874 0.48508841 0
3.6090002 -1.5857199 0.48503789 0
3.6070004 -1.5905451 0.48498741 0
3.6050003 -1.5953631 0.48493689 0
3.6040003 -1.600659 0.48491162 0
3.6020002 -1.6054643 0.48486114 0
3.6000001 -1.6102624 0.48481062 0
3.5980003 -1.6150535 0.48476011 0
3.5970004 -1.6203296 0.48473486 0
3.5950003 -1.6251079 0.48468435 0
3.5930002 -1.6298789 0.48463386 0
3.5910003 -1.6346428 0.48458335 0
3.5900002 -1.639899 0.48455808 0
3.5880003 -1.6446503 0.48450759 0
3.5860002 -1.6493943 0.48445708 0
3.5850003 -1.6546361 0.48443183 0
3.5830002 -1.6593676 0.48438132 0
3.5810003 -1.6640918 0.4843308 0
3.5790002 -1.6688087 0.48428029 0
3.3080003 -1.5724331 0.47743666 0
3.2990003 -1.5729381 0.47720939 0
3.2910001 -1.5739391 0.47700733 0
3.2860003 -1.5765024 0.47688109 0
3.2800002 -1.5785155 0.47672957 0
3.2760003 -1.5815747 0.47662854 0
3.2720003 -1.5846196 0.47652754 0
3.2680001 -1.5876499 0.47642651 0
3.2650003 -1.5912054 0.47635078 0
3.2630002 -1.5952909 0.47630024 0
3.2600002 -1.5988264 0.47622448 0
3.2580001 -1.6028957 0.476174 0
3.2570002 -1.6075045 0.47614872 0
3.2560003 -1.6121097 0.47612348 0
3.2550001 -1.6167111 0.47609824 0
3.2550001 -1.621861 0.47609824 0
3.2550001 -1.6270107 0.47609824 0
3.2560003 -1.6327164 0.47612348 0
3.2570002 -1.6384254 0.47614872 0
3.2600002 -1.6452564 0.47622448 0
3.2660003 -1.6537812 0.476376 0
3.8690002 -1.478947 0.48534635 0
3.8670003 -1.4843748 0.48529947 0
3.8650002 -1.4897952 0.48525256 0
3.8630002 -1.4952084 0.48520565 0
3.8610003 -1.5006144 0.48515877 0
3.8590002 -1.5060132 0.48511186 0
3.3940003 -1.3367438 0.47420782 0
3.3820002 -1.3369495 0.47392645 0
