# .PCD v0.7 - Point Cloud Data file format
VERSION 0.7
FIELDS x y z intensity
SIZE 4 4 4 4
TYPE F F F F
COUNT 1 1 1 1
WIDTH 1412
HEIGHT 1
VIEWPOINT 0 0 0 1 0 0 0
POINTS 1412
DATA ascii
5.0650005 0.70291412 0.90888596 0
5.0710001 0.69545174 0.90953529 0
5.0770001 0.68796778 0.91018462 0
5.0820003 0.68030697 0.91072583 0
5.0880003 0.67278147 0.91137516 0
5.0940003 0.66523439 0.91202462 0
5.0990005 0.65751588 0.91256571 0
5.1050005 0.64992726 0.91321504 0
5.0540004 0.71793807 0.89930052 0
5.0600004 0.71051717 0.89993906 0
5.0650005 0.70291412 0.90047121 0
5.0710001 0.69545174 0.9011097 0
5.0760002 0.68781084 0.90164185 0
5.0820003 0.68030697 0.90228039 0
5.0880003 0.67278147 0.90291893 0
5.0930004 0.66508287 0.90345109 0
5.0990005 0.65751588 0.90408969 0
5.1040001 0.64977932 0.90462172 0
5.1100001 0.64217085 0.90526032 0
5.1160002 0.63454074 0.90589881 0
5.1210003 0.62674654 0.90643096 0
5.1270003 0.61907494 0.90706944 0
5.1330004 0.61138165 0.90770805 0
5.0540004 0.71793807 0.89090556 0
5.0600004 0.71051717 0.89153337 0
5.0650005 0.70291412 0.89205647 0
5.0710001 0.69545174 0.8926841 0
5.0760002 0.68781084 0.89320719 0
5.0820003 0.68030697 0.89383495 0
5.0880003 0.67278147 0.8944627 0
5.0930004 0.66508287 0.8949858 0
5.0990005 0.65751588 0.89561355 0
5.1040001 0.64977932 0.89613664 0
5.1100001 0.64217085 0.89676428 0
5.1160002 0.63454074 0.89739203 0
5.1210003 0.62674654 0.89791518 0
5.1270003 0.61907494 0.89854288 0
5.1330004 0.61138165 0.89917064 0
5.1390004 0.60366678 0.89979839 0
5.0600004 0.71051717 0.88312757 0
5.0650005 0.70291412 0.88364166 0
5.0710001 0.69545174 0.88425851 0
5.0760002 0.68781084 0.88477266 0
5.0820003 0.68030697 0.88538957 0
5.0880003 0.67278147 0.88600641 0
5.0930004 0.66508287 0.8865205 0
5.0990005 0.65751588 0.88713741 0
5.1040001 0.64977932 0.88765144 0
5.1100001 0.64217085 0.88826835 0
5.1160002 0.63454074 0.88888532 0
5.1210003 0.62674654 0.88939941 0
5.1270003 0.61907494 0.89001632 0
5.1330004 0.61138165 0.89063323 0
5.1390004 0.60366678 0.89125013 0
5.1390004 0.59511852 0.89125013 0
5.1380005 0.58643681 0.89114726 0
5.0600004 0.71051717 0.87472183 0
5.0650005 0.70291412 0.87522686 0
5.0710001 0.69545174 0.87583292 0
5.0760002 0.68781084 0.87633801 0
5.0820003 0.68030697 0.87694407 0
5.0880003 0.67278147 0.87755018 0
5.0930004 0.66508287 0.87805521 0
5.0990005 0.65751588 0.87866133 0
5.1040001 0.64977932 0.87916636 0
5.1100001 0.64217085 0.87977242 0
5.1160002 0.63454074 0.88037854 0
5.1210003 0.62674654 0.88088357 0
5.1270003 0.61907494 0.88148969 0
5.1330004 0.61138165 0.88209575 0
5.1380005 0.60352975 0.8826009 0
5.1350002 0.59457737 0.88229775 0
5.1340003 0.58590287 0.88219678 0
4.9750004 0.77098984 0.85788327 0
5.0600004 0.71051717 0.86631608 0
5.0650005 0.70291412 0.86681211 0
5.0710001 0.69545174 0.86740732 0
5.0760002 0.68781084 0.86790335 0
5.0820003 0.68030697 0.86849868 0
5.0880003 0.67278147 0.86909389 0
5.0930004 0.66508287 0.86958998 0
5.0990005 0.65751588 0.87018526 0
5.1040001 0.64977932 0.87068129 0
5.1100001 0.64217085 0.8712765 0
5.1160002 0.63454074 0.87187177 0
5.1210003 0.62674654 0.87236786 0
5.1270003 0.61907494 0.87296307 0
5.1330004 0.61138165 0.87355834 0
5.1340003 0.60298133 0.87365758 0
5.1310005 0.59403628 0.87335992 0
5.1300001 0.58536893 0.87326074 0
4.9710002 0.77027553 0.8492412 0
5.0650005 0.70291412 0.85839736 0
5.0710001 0.69545174 0.85898173 0
5.0760002 0.68781084 0.85946882 0
5.0820003 0.68030697 0.86005318 0
5.0880003 0.67278147 0.86063766 0
5.0930004 0.66508287 0.86112469 0
5.0990005 0.65751588 0.86170912 0
5.1040001 0.64977932 0.86219615 0
5.1100001 0.64217085 0.86278057 0
5.1160002 0.63454074 0.86336505 0
5.1210003 0.62674654 0.86385202 0
5.1270003 0.61907494 0.86443651 0
5.1330004 0.61138165 0.86502093 0
5.1320004 0.60270715 0.86492354 0
5.1280003 0.59363037 0.8645339 0
5.1260004 0.58483505 0.86433911 0
4.9670005 0.77779925 0.8406136 0
4.9660001 0.7693826 0.840518 0
5.0650005 0.70291412 0.84998262 0
5.0710001 0.69545174 0.85055614 0
5.0760002 0.68781084 0.85103416 0
5.0820003 0.68030697 0.8516078 0
5.0880003 0.67278147 0.85218143 0
5.0930004 0.66508287 0.85265946 0
5.0990005 0.65751588 0.85323304 0
5.1040001 0.64977932 0.85371101 0
5.1100001 0.64217085 0.85428464 0
5.1160002 0.63454074 0.85485828 0
5.1210003 0.62674654 0.85533631 0
5.1270003 0.61907494 0.85590988 0
5.1330004 0.61138165 0.85648352 0
5.1290002 0.60229582 0.8561011 0
5.1250005 0.59322459 0.85571873 0
5.1220002 0.58430111 0.85543191 0
4.9620004 0.76866835 0.83190662 0
4.9630003 0.76061612 0.83200043 0
5.0650005 0.70291412 0.84156781 0
5.0710001 0.69545174 0.84213054 0
5.0760002 0.68781084 0.84259963 0
5.0820003 0.68030697 0.84316236 0
5.0880003 0.67278147 0.8437252 0
5.0930004 0.66508287 0.84419417 0
5.0990005 0.65751588 0.84475696 0
5.1040001 0.64977932 0.84522593 0
5.1100001 0.64217085 0.84578872 0
5.1160002 0.63454074 0.8463515 0
5.1210003 0.62674654 0.84682047 0
5.1270003 0.61907494 0.84738326 0
5.1260004 0.60188466 0.8472895 0
5.1220002 0.59281868 0.84691429 0
5.1190004 0.58390069 0.84663296 0
4.9580002 0.76795399 0.82330966 0
4.9590001 0.75990903 0.82340169 0
5.0710001 0.69545174 0.83370495 0
5.0760002 0.68781084 0.83416498 0
5.0820003 0.68030697 0.83471692 0
5.0880003 0.67278147 0.83526891 0
5.0930004 0.66508287 0.83572888 0
5.0990005 0.65751588 0.83628082 0
5.1040001 0.64977932 0.83674085 0
5.1100001 0.64217085 0.83729279 0
5.1160002 0.63454074 0.83784473 0
5.1210003 0.62674654 0.83830476 0
5.1270003 0.61907494 0.8388567 0
5.1240005 0.60161048 0.83858073 0
5.1190004 0.59241283 0.83812076 0
4.9550004 0.76741832 0.81481731 0
4.9540005 0.75902516 0.81472719 0
5.0710001 0.69545174 0.82527941 0
5.0760002 0.68781084 0.82573032 0
5.0820003 0.68030697 0.82627153 0
5.0880003 0.67278147 0.82681262 0
5.0930004 0.66508287 0.82726359 0
5.0990005 0.65751588 0.8278048 0
5.1040001 0.64977932 0.82825565 0
5.1100001 0.64217085 0.82879686 0
5.1160002 0.63454074 0.82933795 0
5.1210003 0.62674654 0.82978892 0
5.1270003 0.61907494 0.83033007 0
5.1220002 0.60133624 0.82987916 0
5.1160002 0.59200698 0.82933795 0
5.1570005 0.93220162 0.82445514 0
5.1630001 0.92484379 0.82498538 0
4.9510002 0.76670396 0.80624747 0
4.9500003 0.75831807 0.80615902 0
4.9510002 0.75028574 0.80624747 0
5.0710001 0.69545174 0.81685382 0
5.0760002 0.68781084 0.81729579 0
5.0820003 0.68030697 0.81782609 0
5.0880003 0.67278147 0.81835639 0
5.0930004 0.66508287 0.81879836 0
5.0990005 0.65751588 0.81932867 0
5.1040001 0.64977932 0.81977057 0
5.1100001 0.64217085 0.82030094 0
5.1160002 0.63454074 0.82083118 0
5.1210003 0.62674654 0.82127321 0
5.1270003 0.61907494 0.82180351 0
5.1200004 0.60106212 0.82118475 0
5.1520004 0.93974513 0.81544149 0
5.1570005 0.93220162 0.8158744 0
5.1630001 0.92484379 0.81639385 0
5.1680002 0.91726238 0.81682682 0
4.9470005 0.76598972 0.797692 0
4.9460001 0.75761098 0.7976054 0
4.9470005 0.74958593 0.797692 0
5.0760002 0.68781084 0.80886114 0
5.0820003 0.68030697 0.80938065 0
5.0880003 0.67278147 0.80990016 0
5.0930004 0.66508287 0.81033307 0
5.0990005 0.65751588 0.81085259 0
5.1040001 0.64977932 0.81128544 0
5.1100001 0.64217085 0.81180495 0
5.1160002 0.63454074 0.81232446 0
5.1210003 0.62674654 0.81275737 0
5.1270003 0.61907494 0.81327689 0
5.1520004 0.93974513 0.80686975 0
5.1570005 0.93220162 0.80729365 0
5.1630001 0.92484379 0.80780232 0
5.1680002 0.91726238 0.80822623 0
4.9420004 0.75690389 0.7890662 0
4.9430003 0.74888599 0.78915095 0
5.0760002 0.68781084 0.80042654 0
5.0820003 0.68030697 0.80093521 0
5.0880003 0.67278147 0.80144393 0
5.0930004 0.66508287 0.80186784 0
5.0990005 0.65751588 0.80237651 0
5.1040001 0.64977932 0.80280036 0
5.1100001 0.64217085 0.80330902 0
5.1160002 0.63454074 0.80381775 0
5.1210003 0.62674654 0.8042416 0
5.1520004 0.93974513 0.79829806 0
5.1570005 0.93220162 0.79871297 0
5.1630001 0.92484379 0.79921079 0
5.1680002 0.91726238 0.79962564 0
4.9390001 0.75637352 0.78062433 0
4.9390001 0.74818605 0.78062433 0
4.9400005 0.74017179 0.78070736 0
5.0760002 0.68781084 0.79199195 0
5.0820003 0.68030697 0.79248977 0
5.0880003 0.67278147 0.79298764 0
5.0930004 0.66508287 0.79340255 0
5.0990005 0.65751588 0.79390037 0
5.1040001 0.64977932 0.79431522 0
5.1100001 0.64217085 0.7948131 0
5.1160002 0.63454074 0.79531097 0
5.1210003 0.62674654 0.79572582 0
5.1520004 0.93974513 0.78972638 0
5.1570005 0.93220162 0.79013222 0
5.1630001 0.92484379 0.79061925 0
5.1680002 0.91726238 0.7910251 0
4.9350004 0.75566649 0.77211219 0
4.9340005 0.74731129 0.77203101 0
4.9350004 0.73930597 0.77211219 0
5.0760002 0.68781084 0.7835573 0
5.0820003 0.68030697 0.78404438 0
5.0880003 0.67278147 0.78453135 0
5.0930004 0.66508287 0.78493726 0
5.0990005 0.65751588 0.78542429 0
5.1040001 0.64977932 0.78583014 0
5.1100001 0.64217085 0.78631711 0
5.1160002 0.63454074 0.7868042 0
5.1210003 0.62674654 0.78721005 0
5.1520004 0.93974513 0.78115463 0
5.1570005 0.93220162 0.78155148 0
5.1630001 0.92484379 0.78202772 0
5.1680002 0.91726238 0.78242457 0
4.9310002 0.7549594 0.76361442 0
4.9300003 0.74661142 0.76353502 0
4.9310002 0.73861325 0.76361442 0
5.0820003 0.68030697 0.77559894 0
5.0880003 0.67278147 0.77607512 0
5.0930004 0.66508287 0.77647197 0
5.0990005 0.65751588 0.77694821 0
5.1040001 0.64977932 0.777345 0
5.1100001 0.64217085 0.77782118 0
5.1160002 0.63454074 0.77829742 0
5.1210003 0.62674654 0.77869427 0
5.1520004 0.93974513 0.77258301 0
5.1570005 0.93220162 0.7729708 0
5.1630001 0.92484379 0.77343619 0
5.1680002 0.91726238 0.77382398 0
4.9280005 0.7544291 0.75520873 0
4.9270005 0.74608654 0.75513113 0
4.9270005 0.73792064 0.75513113 0
4.9280005 0.72992617 0.75520873 0
5.0820003 0.68030697 0.7671535 0
5.0880003 0.67278147 0.76761889 0
5.0930004 0.66508287 0.76800668 0
5.0990005 0.65751588 0.76847208 0
5.1040001 0.64977932 0.76885986 0
5.1100001 0.64217085 0.76932526 0
5.1160002 0.63454074 0.76979065 0
5.1210003 0.62674654 0.7701785 0
5.1520004 0.93974513 0.76401126 0
5.1570005 0.93220162 0.76439011 0
5.1630001 0.92484379 0.76484466 0
5.1680002 0.91726238 0.76522344 0
4.9230003 0.7453866 0.74666226 0
4.9230003 0.73722792 0.74666226 0
5.0820003 0.68030697 0.75870812 0
5.0880003 0.67278147 0.75916266 0
5.0930004 0.66508287 0.75954145 0
5.0990005 0.65751588 0.75999606 0
5.1040001 0.64977932 0.76037478 0
5.1100001 0.64217085 0.76082933 0
5.1160002 0.63454074 0.76128387 0
5.1210003 0.62674654 0.76166272 0
5.1520004 0.93974513 0.75543958 0
5.1570005 0.93220162 0.75580937 0
5.1630001 0.92484379 0.75625312 0
5.1680002 0.91726238 0.75662291 0
5.0880003 0.67278147 0.75070637 0
5.0930004 0.66508287 0.75107616 0
5.0990005 0.65751588 0.75151992 0
5.1040001 0.64977932 0.75188971 0
5.1100001 0.64217085 0.7523334 0
5.1160002 0.63454074 0.75277716 0
5.1210003 0.62674654 0.75314689 0
5.1520004 0.93974513 0.7468679 0
5.1570005 0.93220162 0.74722862 0
5.1630001 0.92484379 0.74766159 0
5.1680002 0.91726238 0.74802232 0
5.0880003 0.67278147 0.74225008 0
5.0930004 0.66508287 0.74261093 0
5.0990005 0.65751588 0.74304384 0
5.1040001 0.64977932 0.74340457 0
5.1100001 0.64217085 0.74383748 0
5.1160002 0.63454074 0.74427038 0
5.1210003 0.62674654 0.74463117 0
5.1520004 0.93974513 0.73829621 0
5.1570005 0.93220162 0.73864794 0
5.1630001 0.92484379 0.73907 0
5.1680002 0.91726238 0.73942173 0
5.0930004 0.66508287 0.73414564 0
5.0990005 0.65751588 0.73456776 0
5.1040001 0.64977932 0.73491943 0
5.1100001 0.64217085 0.73534155 0
5.1160002 0.63454074 0.73576361 0
5.1210003 0.62674654 0.73611534 0
5.1520004 0.93974513 0.72972453 0
5.1570005 0.93220162 0.73006725 0
5.1630001 0.92484379 0.73047847 0
5.1680002 0.91726238 0.73082119 0
5.0990005 0.65751588 0.72609162 0
5.1040001 0.64977932 0.72643435 0
5.1100001 0.64217085 0.72684562 0
5.1160002 0.63454074 0.72725689 0
5.1210003 0.62674654 0.72759962 0
5.1520004 0.93974513 0.72115278 0
5.1570005 0.93220162 0.72148651 0
5.1630001 0.92484379 0.72188693 0
5.1680002 0.91726238 0.72222066 0
5.0990005 0.65751588 0.71761549 0
5.1040001 0.64977932 0.71794921 0
5.1100001 0.64217085 0.7183497 0
5.1160002 0.63454074 0.71875012 0
5.1210003 0.62674654 0.71908379 0
5.1520004 0.93974513 0.7125811 0
5.1570005 0.93220162 0.71290576 0
5.1630001 0.92484379 0.7132954 0
5.1680002 0.91726238 0.71362007 0
5.1040001 0.64977932 0.70946407 0
5.1100001 0.64217085 0.70985371 0
5.1160002 0.63454074 0.71024334 0
5.1210003 0.62674654 0.71056807 0
5.1520004 0.93974513 0.70400941 0
5.1570005 0.93220162 0.70432508 0
5.1630001 0.92484379 0.70470387 0
5.1680002 0.91726238 0.70501953 0
5.1100001 0.64217085 0.70135784 0
5.1160002 0.63454074 0.70173657 0
5.1210003 0.62674654 0.70205224 0
5.1270003 0.61907494 0.70243108 0
5.1520004 0.93974513 0.69543767 0
5.1570005 0.93220162 0.6957444 0
5.1630001 0.92484379 0.69611228 0
5.1680002 0.91726238 0.696419 0
5.1210003 0.62674654 0.69353652 0
5.1270003 0.61907494 0.69390446 0
5.1520004 0.93974513 0.68686604 0
5.1570005 0.93220162 0.68716365 0
5.1630001 0.92484379 0.68752074 0
5.1680002 0.91726238 0.68781841 0
5.1520004 0.93974513 0.6782943 0
5.1570005 0.93220162 0.67858291 0
5.1630001 0.92484379 0.67892921 0
5.1680002 0.91726238 0.67921782 0
5.1520004 0.93974513 0.66972262 0
5.1570005 0.93220162 0.67000222 0
5.1630001 0.92484379 0.67033768 0
5.1680002 0.91726238 0.67061728 0
5.0040002 0.80938751 0.66144669 0
5.1520004 0.93974513 0.66115093 0
5.1570005 0.93220162 0.66142148 0
5.1630001 0.92484379 0.66174614 0
5.1680002 0.91726238 0.66201675 0
5.0060005 0.81806749 0.65325022 0
5.0040002 0.80938751 0.65314198 0
5.0040002 0.80108273 0.65314198 0
5.1520004 0.93974513 0.65257925 0
5.1570005 0.93220162 0.65284079 0
5.1630001 0.92484379 0.65315461 0
5.1680002 0.91726238 0.65341616 0
5.0060005 0.81806749 0.64494193 0
5.0040002 0.80938751 0.64483726 0
5.0040002 0.80108273 0.64483726 0
5.0050001 0.79296023 0.64488959 0
5.1520004 0.93974513 0.64400756 0
5.1570005 0.93220162 0.64426005 0
5.1630001 0.92484379 0.64456308 0
5.1680002 0.91726238 0.64481562 0
5.0060005 0.81806749 0.63663357 0
5.0040002 0.80938751 0.63653255 0
5.0040002 0.80108273 0.63653255 0
5.0050001 0.79296023 0.63658303 0
5.0070004 0.78501451 0.63668406 0
5.1520004 0.93974513 0.63543582 0
5.1570005 0.93220162 0.63567936 0
5.1630001 0.92484379 0.63597155 0
5.1680002 0.91726238 0.63621509 0
5.0060005 0.81806749 0.62832522 0
5.0040002 0.80938751 0.62822783 0
5.0040002 0.80108273 0.62822783 0
5.0050001 0.79296023 0.62827647 0
5.0070004 0.78501451 0.62837392 0
5.0110002 0.77741861 0.62856871 0
5.1520004 0.93974513 0.62686414 0
5.1570005 0.93220162 0.62709862 0
5.1630001 0.92484379 0.62738001 0
5.1680002 0.91726238 0.6276145 0
5.0060005 0.81806749 0.62001687 0
5.0040002 0.80938751 0.61992306 0
5.0040002 0.80108273 0.61992306 0
5.0050001 0.79296023 0.61996996 0
5.0070004 0.78501451 0.62006378 0
5.0110002 0.77741861 0.62025136 0
5.0160003 0.76998508 0.62048584 0
4.7350001 0.61865819 0.6073072 0
4.7350001 0.61083871 0.6073072 0
4.7350001 0.60301918 0.6073072 0
4.7370005 0.59549558 0.60740101 0
4.7390003 0.58796465 0.60749483 0
5.1520004 0.93974513 0.61829245 0
5.1570005 0.93220162 0.61851794 0
5.1630001 0.92484379 0.61878848 0
5.1680002 0.91726238 0.61901397 0
5.0060005 0.81806749 0.61170852 0
5.0040002 0.80938751 0.61161834 0
5.0040002 0.80108273 0.61161834 0
5.0050001 0.79296023 0.61166346 0
5.0070004 0.78501451 0.61175364 0
5.0110002 0.77741861 0.61193401 0
5.0160003 0.76998508 0.61215949 0
4.7340002 0.62632257 0.5994426 0
4.7320004 0.61819828 0.59935248 0
4.7310004 0.61023265 0.59930736 0
4.7310004 0.60242039 0.59930736 0
4.7330003 0.59490389 0.59939754 0
4.7350001 0.58738017 0.59948772 0
4.7390003 0.58013791 0.59966815 0
4.7440004 0.57302368 0.59989357 0
4.8830004 0.40684247 0.60616183 0
4.8830004 0.398756 0.60616183 0
5.1520004 0.93974513 0.60972071 0
5.1570005 0.93220162 0.60993719 0
5.1630001 0.92484379 0.61019695 0
5.1680002 0.91726238 0.61041343 0
5.0060005 0.81806749 0.60340023 0
5.0040002 0.80938751 0.60331362 0
5.0040002 0.80108273 0.60331362 0
5.0050001 0.79296023 0.6033569 0
5.0070004 0.78501451 0.6034435 0
5.0110002 0.77741861 0.60361665 0
5.0160003 0.76998508 0.60383308 0
5.0210004 0.76253361 0.60404956 0
4.7340002 0.63414031 0.59162492 0
4.7310004 0.62585723 0.59149504 0
4.7290001 0.61773825 0.59140849 0
4.7290001 0.60992956 0.59140849 0
4.7290001 0.60212088 0.59140849 0
4.7300005 0.59446019 0.59145176 0
4.7330003 0.58708799 0.59158164 0
4.7360005 0.57970506 0.59171152 0
4.7410002 0.57259613 0.59192801 0
4.8810005 0.42280614 0.59798878 0
4.8790002 0.41451764 0.59790218 0
4.8790002 0.40643838 0.59790218 0
4.8800001 0.3984583 0.59794545 0
4.8820004 0.3905721 0.59803206 0
4.8850002 0.3827742 0.59816194 0
5.1520004 0.93974513 0.60114902 0
5.1570005 0.93220162 0.60135651 0
5.1630001 0.92484379 0.60160542 0
5.1680002 0.91726238 0.60181284 0
5.0060005 0.81806749 0.59509188 0
5.0040002 0.80938751 0.59500885 0
5.0040002 0.80108273 0.59500885 0
5.0050001 0.79296023 0.59505033 0
5.0070004 0.78501451 0.5951333 0
5.0110002 0.77741861 0.5952993 0
5.0160003 0.76998508 0.59550673 0
5.0210004 0.76253361 0.59571415 0
5.0270004 0.75523716 0.59596312 0
4.7320004 0.63382649 0.58372426 0
4.7300005 0.62570214 0.58364129 0
4.7280002 0.61758494 0.58355832 0
4.7270002 0.60962659 0.58351684 0
4.7280002 0.60197115 0.58355832 0
4.7290001 0.59431219 0.58359981 0
4.7310004 0.58679581 0.58368278 0
4.7350001 0.57956064 0.58384871 0
4.7390003 0.57231116 0.58401465 0
4.7450004 0.56532866 0.58426356 0
4.8810005 0.43088904 0.58990592 0
4.8780003 0.42249227 0.5897814 0
4.8770003 0.41431201 0.58973998 0
4.8770003 0.40623635 0.58973998 0
4.8780003 0.39825991 0.5897814 0
4.8790002 0.39027986 0.58982289 0
4.8820004 0.38248745 0.5899474 0
4.8860002 0.37477794 0.59011334 0
5.1520004 0.93974513 0.59257734 0
5.1570005 0.93220162 0.59277576 0
5.1630001 0.92484379 0.59301388 0
5.1680002 0.91726238 0.59321225 0
5.0060005 0.81806749 0.58678353 0
5.0040002 0.80938751 0.58670413 0
5.0040002 0.80108273 0.58670413 0
5.0050001 0.79296023 0.58674383 0
5.0070004 0.78501451 0.58682323 0
5.0110002 0.77741861 0.58698189 0
5.0160003 0.76998508 0.58718038 0
5.0210004 0.76253361 0.58737874 0
5.0270004 0.75523716 0.58761686 0
4.7320004 0.63382649 0.57591015 0
4.7290001 0.62554693 0.57579112 0
4.7280002 0.61758494 0.57575142 0
4.7270002 0.60962659 0.57571173 0
4.7280002 0.60197115 0.57575142 0
4.7290001 0.59431219 0.57579112 0
4.7310004 0.58679581 0.57587045 0
4.7340002 0.57941633 0.57598948 0
4.7390003 0.57231116 0.57618797 0
4.7440004 0.56518799 0.57638633 0
4.8800001 0.43078259 0.58178335 0
4.8770003 0.42238766 0.58166432 0
4.8760004 0.41420922 0.58162463 0
4.8760004 0.40613538 0.58162463 0
4.8760004 0.39806151 0.58162463 0
4.8780003 0.39018247 0.58170402 0
4.8810005 0.38239184 0.58182305 0
4.8850002 0.37468413 0.58198178 0
5.1520004 0.93974513 0.58400565 0
5.1570005 0.93220162 0.58419508 0
5.1630001 0.92484379 0.58442235 0
5.1680002 0.91726238 0.58461171 0
5.0060005 0.81806749 0.57847518 0
5.0040002 0.80938751 0.57839942 0
5.0040002 0.80108273 0.57839942 0
5.0050001 0.79296023 0.57843727 0
5.0070004 0.78501451 0.57851303 0
5.0110002 0.77741861 0.57866454 0
5.0160003 0.76998508 0.57885396 0
5.0210004 0.76253361 0.57904339 0
5.0270004 0.75523716 0.57927066 0
5.0320005 0.74774778 0.57946002 0
4.7330003 0.63398337 0.56813395 0
4.7300005 0.62570214 0.56802028 0
4.7280002 0.61758494 0.56794453 0
4.7280002 0.60977805 0.56794453 0
4.7280002 0.60197115 0.56794453 0
4.7290001 0.59431219 0.56798244 0
4.7320004 0.5869419 0.56809604 0
4.7350001 0.57956064 0.56820971 0
4.7390003 0.57231116 0.56836122 0
4.7450004 0.56532866 0.5685885 0
4.8800001 0.43078259 0.57370228 0
4.8770003 0.42238766 0.57358867 0
4.8760004 0.41420922 0.57355076 0
4.8760004 0.40613538 0.57355076 0
4.8760004 0.39806151 0.57355076 0
4.8780003 0.39018247 0.57362652 0
4.8810005 0.38239184 0.57374018 0
4.8850002 0.37468413 0.5738917 0
5.1520004 0.93974513 0.57543397 0
5.1570005 0.93220162 0.57561433 0
5.1630001 0.92484379 0.57583082 0
5.1680002 0.91726238 0.57601118 0
5.0060005 0.81806749 0.57016683 0
5.0040002 0.80938751 0.5700947 0
5.0040002 0.80108273 0.5700947 0
5.0050001 0.79296023 0.57013071 0
5.0070004 0.78501451 0.57020289 0
5.0110002 0.77741861 0.57034719 0
5.0160003 0.76998508 0.57052761 0
5.0210004 0.76253361 0.57070798 0
5.0270004 0.75523716 0.5709244 0
5.0320005 0.74774778 0.57110482 0
4.7340002 0.63414031 0.56035411 0
4.7320004 0.62601238 0.56028199 0
4.7300005 0.61789167 0.56020981 0
4.7290001 0.60992956 0.56017375 0
4.7300005 0.60227066 0.56020981 0
4.7310004 0.59460807 0.56024587 0
4.7330003 0.58708799 0.56031805 0
4.7370005 0.5798493 0.56046236 0
4.7410002 0.57259613 0.56060666 0
4.8810005 0.43088904 0.56565732 0
4.8780003 0.42249227 0.56554908 0
4.8770003 0.41431201 0.56551301 0
4.8770003 0.40623635 0.56551301 0
4.8770003 0.39816073 0.56551301 0
4.8790002 0.39027986 0.56558514 0
4.8820004 0.38248745 0.56569338 0
4.8860002 0.37477794 0.56583768 0
5.1520004 0.93974513 0.56686223 0
5.1570005 0.93220162 0.56703365 0
5.1630001 0.92484379 0.56723922 0
5.1680002 0.91726238 0.56741059 0
5.0060005 0.81806749 0.56185848 0
5.0040002 0.80938751 0.56178993 0
5.0040002 0.80108273 0.56178993 0
5.0050001 0.79296023 0.5618242 0
5.0070004 0.78501451 0.56189275 0
5.0110002 0.77741861 0.56202984 0
5.0160003 0.76998508 0.5622012 0
5.0210004 0.76253361 0.56237257 0
5.0270004 0.75523716 0.5625782 0
4.7370005 0.63461113 0.55263925 0
4.7340002 0.62632257 0.55253637 0
4.7320004 0.61819828 0.55246788 0
4.7320004 0.61038417 0.55246788 0
4.7320004 0.60257012 0.55246788 0
4.7340002 0.59505177 0.55253637 0
4.7360005 0.58752632 0.55260497 0
4.7390003 0.58013791 0.55270779 0
4.7440004 0.57302368 0.5528791 0
4.8830004 0.43110186 0.557643 0
4.8800001 0.42270151 0.55754018 0
4.8790002 0.41451764 0.55750591 0
4.8790002 0.40643838 0.55750591 0
4.8790002 0.39835912 0.55750591 0
4.8810005 0.39047474 0.55757445 0
4.8840003 0.38267863 0.55767727 0
4.8880005 0.37496558 0.55781436 0
5.1520004 0.93974513 0.55829054 0
5.1570005 0.93220162 0.5584529 0
5.1630001 0.92484379 0.55864769 0
5.1680002 0.91726238 0.55881006 0
5.0060005 0.81806749 0.55355012 0
5.0040002 0.80938751 0.55348521 0
5.0040002 0.80108273 0.55348521 0
5.0050001 0.79296023 0.5535177 0
5.0070004 0.78501451 0.55358261 0
5.0110002 0.77741861 0.55371249 0
5.0160003 0.76998508 0.55387485 0
4.7380004 0.62694311 0.54484856 0
4.7360005 0.61881155 0.54478365 0
4.7360005 0.61099029 0.54478365 0
4.7360005 0.60316896 0.54478365 0
4.7370005 0.59549558 0.54481614 0
4.7390003 0.58796465 0.54488105 0
4.7430005 0.58071518 0.54501092 0
4.7480001 0.57359368 0.54517329 0
4.8840003 0.42312002 0.54958898 0
4.8820004 0.4148261 0.54952407 0
4.8820004 0.40674144 0.54952407 0
4.8820004 0.39865679 0.54952407 0
4.8840003 0.39076692 0.54958898 0
4.8870001 0.38296542 0.54968637 0
5.1520004 0.93974513 0.54971886 0
5.1570005 0.93220162 0.54987216 0
5.1630001 0.92484379 0.55005616 0
5.1680002 0.91726238 0.55020952 0
5.0040002 0.80938751 0.5451805 0
5.0040002 0.80108273 0.5451805 0
5.0050001 0.79296023 0.54521114 0
4.7440004 0.6278739 0.53720766 0
4.7420001 0.61973149 0.53714633 0
4.7410002 0.61174786 0.53711563 0
4.7410002 0.60391748 0.53711563 0
4.7420001 0.5962351 0.53714633 0
4.7450004 0.58884126 0.5372383 0
4.7490001 0.58158088 0.53736097 0
4.8880005 0.42353851 0.54162335 0
4.8860002 0.41523734 0.54156202 0
4.8860002 0.40714547 0.54156202 0
4.8870001 0.39915279 0.54159272 0
4.8890004 0.39125395 0.54165405 0
4.8920002 0.38344344 0.54174602 0
5.1520004 0.93974513 0.54114717 0
5.1570005 0.93220162 0.54129148 0
5.1630001 0.92484379 0.54146463 0
5.1680002 0.91726238 0.54160893 0
4.7520003 0.62911493 0.52960277 0
4.7490001 0.62080473 0.52951622 0
4.7480001 0.61280847 0.52948737 0
4.7480001 0.60496551 0.52948737 0
4.7490001 0.59727049 0.52951622 0
4.7520003 0.58986408 0.52960277 0
4.7560005 0.58259112 0.52971822 0
4.8950005 0.42427087 0.53372991 0
4.8930001 0.41595709 0.53367215 0
4.8920002 0.40775156 0.53364331 0
4.8930001 0.39974806 0.53367215 0
4.8950005 0.3918384 0.53372991 0
4.8980002 0.38401705 0.53381646 0
5.1520004 0.93974513 0.53257549 0
5.1570005 0.93220162 0.53271073 0
5.1630001 0.92484379 0.53287309 0
5.1680002 0.91726238 0.5330084 0
4.7600002 0.6224913 0.52196908 0
4.7580004 0.61432368 0.52191496 0
4.7580004 0.60646272 0.52191496 0
4.7590003 0.59874958 0.52194202 0
4.7630005 0.59147131 0.52205026 0
4.9010005 0.41677967 0.52578413 0
4.9010005 0.40866071 0.52578413 0
4.9010005 0.40054175 0.52578413 0
4.9040003 0.39271501 0.52586532 0
5.1520004 0.93974513 0.52400374 0
5.1570005 0.93220162 0.52413005 0
5.1630001 0.92484379 0.52428156 0
5.1680002 0.91726238 0.5244078 0
4.7550001 0.62172467 0.51397818 0
4.7530003 0.61356604 0.5139277 0
4.7530003 0.60571408 0.5139277 0
4.7550001 0.59815794 0.51397818 0
4.7580004 0.59074068 0.51405394 0
4.7630005 0.58360124 0.51418024 0
4.9060001 0.4172937 0.51779145 0
4.9050002 0.40906471 0.51776618 0
4.9060001 0.40103778 0.51779145 0
4.9080005 0.39310467 0.51784194 0
5.1520004 0.93974513 0.51543206 0
5.1570005 0.93220162 0.5155493 0
5.1630001 0.92484379 0.51569003 0
5.1680002 0.91726238 0.51580727 0
4.7530003 0.62927002 0.50607574 0
4.7500005 0.62095809 0.50600535 0
4.7480001 0.61280847 0.50595844 0
4.7480001 0.60496551 0.50595844 0
4.7500005 0.59741843 0.50600535 0
4.7530003 0.59001017 0.50607574 0
4.7570004 0.58273542 0.5061695 0
4.9020004 0.4250032 0.5095697 0
4.8990002 0.41657394 0.50949931 0
4.8980002 0.40835762 0.50947589 0
4.8990002 0.40034333 0.50949931 0
4.9010005 0.39242283 0.50954628 0
4.9060001 0.38478187 0.50966346 0
5.1520004 0.93974513 0.50686038 0
5.1570005 0.93220162 0.50696862 0
5.1630001 0.92484379 0.50709844 0
5.1680002 0.91726238 0.50720668 0
4.7490001 0.62864953 0.49813715 0
4.7460003 0.62034476 0.49807221 0
4.7450004 0.61235392 0.49805057 0
4.7450004 0.60451639 0.49805057 0
4.7470002 0.59697467 0.49809387 0
4.7490001 0.58942568 0.49813715 0
4.7530003 0.58215821 0.49822372 0
4.8970003 0.42448008 0.50134075 0
4.8950005 0.41616276 0.50129741 0
4.8940005 0.40795362 0.50127578 0
4.8950005 0.39994651 0.50129741 0
4.8970003 0.39203319 0.50134075 0
4.9010005 0.3843039 0.50142729 0
5.1520004 0.93974513 0.49828869 0
5.1570005 0.93220162 0.49838787 0
5.1630001 0.92484379 0.49850693 0
5.1680002 0.91726238 0.49860615 0
4.7470002 0.62833923 0.4902527 0
4.7440004 0.62003815 0.49019319 0
4.7430005 0.61205095 0.49017334 0
4.7430005 0.60421693 0.49017334 0
4.7450004 0.59667879 0.49021304 0
4.7470002 0.58913344 0.4902527 0
4.7510004 0.58186954 0.49033207 0
4.8940005 0.42416626 0.49316949 0
4.8920002 0.41585428 0.49312979 0
4.8920002 0.40775156 0.49312979 0
4.8930001 0.39974806 0.49314964 0
4.8950005 0.3918384 0.49318931 0
4.8980002 0.38401705 0.49324882 0
5.1520004 0.93974513 0.48971698 0
5.1570005 0.93220162 0.48980719 0
5.1630001 0.92484379 0.4899154 0
5.1680002 0.91726238 0.49000558 0
4.7460003 0.62818414 0.4823935 0
4.7430005 0.61988485 0.48233941 0
4.7420001 0.61189932 0.48232135 0
4.7430005 0.60421693 0.48233941 0
4.7440004 0.59653097 0.48235744 0
4.7470002 0.58913344 0.48241156 0
4.7510004 0.58186954 0.48248371 0
4.7560005 0.57473373 0.4825739 0
4.8930001 0.42406157 0.48504511 0
4.8910003 0.41575146 0.48500904 0
4.8910003 0.40765053 0.48500904 0
4.8920002 0.39964887 0.48502707 0
4.8940005 0.39174098 0.48506317 0
4.8970003 0.38392147 0.48511726 0
5.1520004 0.93974513 0.48114529 0
5.1570005 0.93220162 0.48122644 0
5.1630001 0.92484379 0.48132387 0
5.1680002 0.91726238 0.48140502 0
4.7460003 0.62818414 0.47455418 0
4.7440004 0.62003815 0.4745217 0
4.7430005 0.61205095 0.47450548 0
4.7430005 0.60421693 0.47450548 0
4.7440004 0.59653097 0.4745217 0
4.7470002 0.58913344 0.47457039 0
4.7510004 0.58186954 0.47463536 0
4.7560005 0.57473373 0.47471651 0
4.8930001 0.42406157 0.4769406 0
4.8910003 0.41575146 0.47690815 0
4.8910003 0.40765053 0.47690815 0
4.8920002 0.39964887 0.47692436 0
4.8940005 0.39174098 0.47695684 0
4.8970003 0.38392147 0.47700554 0
5.1520004 0.93974513 0.47257358 0
5.1570005 0.93220162 0.47264576 0
5.1630001 0.92484379 0.47273231 0
5.1680002 0.91726238 0.47280449 0
4.7460003 0.62818414 0.46671483 0
4.7440004 0.62003815 0.46668595 0
4.7430005 0.61205095 0.46667153 0
4.7430005 0.60421693 0.46667153 0
4.7440004 0.59653097 0.46668595 0
4.7470002 0.58913344 0.46672925 0
4.7510004 0.58186954 0.46678698 0
4.7560005 0.57473373 0.46685913 0
4.8970003 0.4325918 0.46889383 0
4.8930001 0.42406157 0.4688361 0
4.8910003 0.41575146 0.46880722 0
4.8910003 0.40765053 0.46880722 0
4.8920002 0.39964887 0.46882167 0
4.8940005 0.39174098 0.46885052 0
4.8970003 0.38392147 0.46889383 0
5.1520004 0.93974513 0.46400189 0
5.1570005 0.93220162 0.46406502 0
5.1630001 0.92484379 0.46414077 0
5.1680002 0.91726238 0.46420392 0
4.7460003 0.62818414 0.45887548 0
4.7440004 0.62003815 0.4588502 0
4.7430005 0.61205095 0.4588376 0
4.7430005 0.60421693 0.4588376 0
4.7440004 0.59653097 0.4588502 0
4.7470002 0.58913344 0.45888808 0
4.7510004 0.58186954 0.4589386 0
4.7560005 0.57473373 0.45900172 0
4.8970003 0.4325918 0.46078211 0
4.8930001 0.42406157 0.4607316 0
4.8910003 0.41575146 0.46070632 0
4.8910003 0.40765053 0.46070632 0
4.8920002 0.39964887 0.46071896 0
4.8940005 0.39174098 0.4607442 0
4.8970003 0.38392147 0.46078211 0
5.1570005 0.93220162 0.4554843 0
4.7460003 0.62818414 0.45103613 0
4.7440004 0.62003815 0.45101446 0
4.7430005 0.61205095 0.45100364 0
4.7430005 0.60421693 0.45100364 0
4.7440004 0.59653097 0.45101446 0
4.7470002 0.58913344 0.45104694 0
4.7510004 0.58186954 0.45109025 0
4.7560005 0.57473373 0.45114434 0
4.8970003 0.4325918 0.45267037 0
4.8930001 0.42406157 0.45262706 0
4.8910003 0.41575146 0.45260543 0
4.8910003 0.40765053 0.45260543 0
4.8920002 0.39964887 0.45261624 0
4.8940005 0.39174098 0.45263791 0
4.8970003 0.38392147 0.45267037 0
4.7460003 0.62818414 0.44319677 0
4.7440004 0.62003815 0.44317871 0
4.7430005 0.61205095 0.44316971 0
4.7430005 0.60421693 0.44316971 0
4.7440004 0.59653097 0.44317871 0
4.7470002 0.58913344 0.44320577 0
4.7510004 0.58186954 0.44324186 0
4.7560005 0.57473373 0.44328696 0
4.8930001 0.42406157 0.44452256 0
4.8910003 0.41575146 0.44450453 0
4.8910003 0.40765053 0.44450453 0
4.8920002 0.39964887 0.44451356 0
4.8940005 0.39174098 0.44453159 0
4.8970003 0.38392147 0.44455865 0
4.7460003 0.62818414 0.43535742 0
4.7440004 0.62003815 0.435343 0
4.7430005 0.61205095 0.43533579 0
4.7430005 0.60421693 0.43533579 0
4.7440004 0.59653097 0.435343 0
4.7470002 0.58913344 0.43536463 0
4.7510004 0.58186954 0.43539348 0
4.7560005 0.57473373 0.43542957 0
4.8930001 0.42406157 0.43641806 0
4.8910003 0.41575146 0.43640363 0
4.8910003 0.40765053 0.43640363 0
4.8920002 0.39964887 0.43641084 0
4.8940005 0.39174098 0.43642527 0
4.8970003 0.38392147 0.43644691 0
4.7460003 0.62818414 0.42751807 0
4.7440004 0.62003815 0.42750725 0
4.7430005 0.61205095 0.42750183 0
4.7430005 0.60421693 0.42750183 0
4.7440004 0.59653097 0.42750725 0
4.7470002 0.58913344 0.42752346 0
4.7510004 0.58186954 0.42754513 0
4.7560005 0.57473373 0.42757219 0
4.8930001 0.42406157 0.42831355 0
4.8910003 0.41575146 0.42830274 0
4.8910003 0.40765053 0.42830274 0
4.8920002 0.39964887 0.42830813 0
4.8940005 0.39174098 0.42831895 0
4.8970003 0.38392147 0.42833519 0
4.7460003 0.62818414 0.41967872 0
4.7440004 0.62003815 0.41967151 0
4.7430005 0.61205095 0.4196679 0
4.7430005 0.60421693 0.4196679 0
4.7440004 0.59653097 0.41967151 0
4.7470002 0.58913344 0.41968232 0
4.7510004 0.58186954 0.41969675 0
4.7560005 0.57473373 0.41971478 0
4.8930001 0.42406157 0.42020902 0
4.8910003 0.41575146 0.42020181 0
4.8910003 0.40765053 0.42020181 0
4.8920002 0.39964887 0.42020541 0
4.8940005 0.39174098 0.42021266 0
4.8970003 0.38392147 0.42022347 0
4.7460003 0.62818414 0.41183937 0
4.7440004 0.62003815 0.41183576 0
4.7430005 0.61205095 0.41183394 0
4.7430005 0.60421693 0.41183394 0
4.7440004 0.59653097 0.41183576 0
4.7470002 0.58913344 0.41184115 0
4.7510004 0.58186954 0.4118484 0
4.7560005 0.57473373 0.4118574 0
4.8930001 0.42406157 0.41210452 0
4.8910003 0.41575146 0.41210091 0
4.8910003 0.40765053 0.41210091 0
4.8920002 0.39964887 0.41210273 0
4.8940005 0.39174098 0.41210634 0
4.8970003 0.38392147 0.41211173 0
4.7460003 0.62818414 0.40400001 0
4.7440004 0.62003815 0.40400001 0
4.7430005 0.61205095 0.40400001 0
4.7430005 0.60421693 0.40400001 0
4.7440004 0.59653097 0.40400001 0
4.7470002 0.58913344 0.40400001 0
4.7510004 0.58186954 0.40400001 0
4.7560005 0.57473373 0.40400001 0
4.8930001 0.42406157 0.40400001 0
4.8910003 0.41575146 0.40400001 0
4.8910003 0.40765053 0.40400001 0
4.8920002 0.39964887 0.40400001 0
4.8940005 0.39174098 0.40400001 0
4.8970003 0.38392147 0.40400001 0
4.7460003 0.62818414 0.39616066 0
4.7440004 0.62003815 0.39616427 0
4.7430005 0.61205095 0.39616609 0
4.7430005 0.60421693 0.39616609 0
4.7440004 0.59653097 0.39616427 0
4.7470002 0.58913344 0.39615887 0
4.7510004 0.58186954 0.39615163 0
4.7560005 0.57473373 0.39614263 0
4.8930001 0.42406157 0.39589551 0
4.8910003 0.41575146 0.39589912 0
4.8910003 0.40765053 0.39589912 0
4.8920002 0.39964887 0.3958973 0
4.8940005 0.39174098 0.39589369 0
4.8970003 0.38392147 0.3958883 0
4.7460003 0.62818414 0.38832131 0
4.7440004 0.62003815 0.38832852 0
4.7430005 0.61205095 0.38833213 0
4.7430005 0.60421693 0.38833213 0
4.7440004 0.59653097 0.38832852 0
4.7470002 0.58913344 0.3883177 0
4.7510004 0.58186954 0.38830328 0
4.7560005 0.57473373 0.38828525 0
4.8930001 0.42406157 0.38779101 0
4.8910003 0.41575146 0.38779822 0
4.8910003 0.40765053 0.38779822 0
4.8920002 0.39964887 0.38779461 0
4.8940005 0.39174098 0.38778737 0
4.8970003 0.38392147 0.38777655 0
4.7460003 0.62818414 0.38048196 0
4.7440004 0.62003815 0.38049278 0
4.7430005 0.61205095 0.3804982 0
4.7430005 0.60421693 0.3804982 0
4.7440004 0.59653097 0.38049278 0
4.7470002 0.58913344 0.38047656 0
4.7510004 0.58186954 0.3804549 0
4.7560005 0.57473373 0.38042784 0
4.8930001 0.42406157 0.37968647 0
4.8910003 0.41575146 0.37969729 0
4.8910003 0.40765053 0.37969729 0
4.8920002 0.39964887 0.3796919 0
4.8940005 0.39174098 0.37968108 0
4.8970003 0.38392147 0.37966484 0
4.7460003 0.62818414 0.37264261 0
4.7440004 0.62003815 0.37265703 0
4.7430005 0.61205095 0.37266424 0
4.7430005 0.60421693 0.37266424 0
4.7440004 0.59653097 0.37265703 0
4.7470002 0.58913344 0.37263539 0
4.7510004 0.58186954 0.37260655 0
4.7560005 0.57473373 0.37257046 0
4.8930001 0.42406157 0.37158197 0
4.8910003 0.41575146 0.3715964 0
4.8910003 0.40765053 0.3715964 0
4.8920002 0.39964887 0.37158918 0
4.8940005 0.39174098 0.37157476 0
4.8970003 0.38392147 0.37155312 0
4.8900003 0.72341442 0.36350453 0
4.7460003 0.62818414 0.36480325 0
4.7440004 0.62003815 0.36482131 0
4.7430005 0.61205095 0.36483032 0
4.7430005 0.60421693 0.36483032 0
4.7440004 0.59653097 0.36482131 0
4.7470002 0.58913344 0.36479425 0
4.7510004 0.58186954 0.36475816 0
4.7560005 0.57473373 0.36471307 0
4.8930001 0.42406157 0.36347747 0
4.8910003 0.41575146 0.3634955 0
4.8910003 0.40765053 0.3634955 0
4.8920002 0.39964887 0.36348647 0
4.8940005 0.39174098 0.36346844 0
4.8970003 0.38392147 0.36344138 0
4.8880005 0.7311672 0.35542706 0
4.8900003 0.72341442 0.35540542 0
4.7460003 0.62818414 0.3569639 0
4.7440004 0.62003815 0.35698557 0
4.7430005 0.61205095 0.35699639 0
4.7430005 0.60421693 0.35699639 0
4.7440004 0.59653097 0.35698557 0
4.7470002 0.58913344 0.35695308 0
4.7510004 0.58186954 0.35690978 0
4.7560005 0.57473373 0.35685569 0
4.8930001 0.42406157 0.35537297 0
4.8910003 0.41575146 0.3553946 0
4.8910003 0.40765053 0.3553946 0
4.8920002 0.39964887 0.35538378 0
4.8940005 0.39174098 0.35536212 0
4.8970003 0.38392147 0.35532966 0
4.8880005 0.7311672 0.34733158 0
4.8900003 0.72341442 0.34730631 0
4.7460003 0.62818414 0.34912455 0
4.7440004 0.62003815 0.34914982 0
4.7430005 0.61205095 0.34916243 0
4.7430005 0.60421693 0.34916243 0
4.7440004 0.59653097 0.34914982 0
4.7470002 0.58913344 0.34911194 0
4.7510004 0.58186954 0.34906143 0
4.7560005 0.57473373 0.34899831 0
4.8930001 0.42406157 0.34726843 0
4.8910003 0.41575146 0.3472937 0
4.8910003 0.40765053 0.3472937 0
4.8920002 0.39964887 0.34728107 0
4.8940005 0.39174098 0.34725583 0
4.8970003 0.38392147 0.34721792 0
4.8880005 0.7311672 0.33923608 0
4.8900003 0.72341442 0.33920723 0
4.7460003 0.62818414 0.3412852 0
4.7440004 0.62003815 0.34131408 0
4.7430005 0.61205095 0.3413285 0
4.7430005 0.60421693 0.3413285 0
4.7440004 0.59653097 0.34131408 0
4.7470002 0.58913344 0.34127077 0
4.7510004 0.58186954 0.34121305 0
4.7560005 0.57473373 0.3411409 0
4.8930001 0.42406157 0.33916393 0
4.8910003 0.41575146 0.33919281 0
4.8910003 0.40765053 0.33919281 0
4.8920002 0.39964887 0.33917835 0
4.8940005 0.39174098 0.3391495 0
4.8970003 0.38392147 0.3391062 0
4.8880005 0.7311672 0.33114058 0
4.8900003 0.72341442 0.33110812 0
4.7460003 0.62818414 0.33344585 0
4.7440004 0.62003815 0.33347833 0
4.7430005 0.61205095 0.33349454 0
4.7430005 0.60421693 0.33349454 0
4.7440004 0.59653097 0.33347833 0
4.7470002 0.58913344 0.33342963 0
4.7510004 0.58186954 0.33336467 0
4.7560005 0.57473373 0.33328351 0
4.8930001 0.42406157 0.33105943 0
4.8910003 0.41575146 0.33109188 0
4.8910003 0.40765053 0.33109188 0
4.8920002 0.39964887 0.33107567 0
4.8940005 0.39174098 0.33104318 0
4.8970003 0.38392147 0.33099449 0
4.8880005 0.7311672 0.3230451 0
4.8900003 0.72341442 0.32300901 0
4.7460003 0.62818414 0.32560652 0
4.7440004 0.62003815 0.32564259 0
4.7430005 0.61205095 0.32566062 0
4.7430005 0.60421693 0.32566062 0
4.7440004 0.59653097 0.32564259 0
4.7470002 0.58913344 0.32558846 0
4.7510004 0.58186954 0.32551631 0
4.7560005 0.57473373 0.32542613 0
4.8930001 0.42406157 0.32295492 0
4.8910003 0.41575146 0.32299098 0
4.8910003 0.40765053 0.32299098 0
4.8920002 0.39964887 0.32297295 0
4.8940005 0.39174098 0.32293686 0
4.8970003 0.38392147 0.32288277 0
4.8880005 0.7311672 0.3149496 0
4.8900003 0.72341442 0.31490993 0
4.7460003 0.62818414 0.31776714 0
4.7440004 0.62003815 0.31780684 0
4.7430005 0.61205095 0.31782669 0
4.7430005 0.60421693 0.31782669 0
4.7440004 0.59653097 0.31780684 0
4.7470002 0.58913344 0.31774732 0
4.7510004 0.58186954 0.31766796 0
4.7560005 0.57473373 0.31756872 0
4.8930001 0.42406157 0.31485039 0
4.8910003 0.41575146 0.31489009 0
4.8910003 0.40765053 0.31489009 0
4.8920002 0.39964887 0.31487024 0
4.8940005 0.39174098 0.31483054 0
4.8970003 0.38392147 0.31477103 0
4.8880005 0.7311672 0.30685413 0
4.8900003 0.72341442 0.30681083 0
4.7460003 0.62818414 0.30992782 0
4.7440004 0.62003815 0.30997109 0
4.7430005 0.61205095 0.30999273 0
4.7430005 0.60421693 0.30999273 0
4.7440004 0.59653097 0.30997109 0
4.7470002 0.58913344 0.30990615 0
4.7510004 0.58186954 0.30981958 0
4.7560005 0.57473373 0.30971134 0
4.8930001 0.42406157 0.30674589 0
4.8910003 0.41575146 0.30678919 0
4.8910003 0.40765053 0.30678919 0
4.8920002 0.39964887 0.30676752 0
4.8940005 0.39174098 0.30672425 0
4.8970003 0.38392147 0.30665931 0
4.8880005 0.7311672 0.29875863 0
4.8900003 0.72341442 0.29871172 0
4.7460003 0.62818414 0.30208847 0
4.7440004 0.62003815 0.30213535 0
4.7430005 0.61205095 0.3021588 0
4.7430005 0.60421693 0.3021588 0
4.7440004 0.59653097 0.30213535 0
4.7470002 0.58913344 0.30206501 0
4.7510004 0.58186954 0.3019712 0
4.7560005 0.57473373 0.30185395 0
4.8930001 0.42406157 0.29864138 0
4.8910003 0.41575146 0.29868829 0
4.8910003 0.40765053 0.29868829 0
4.8920002 0.39964887 0.29866484 0
4.8940005 0.39174098 0.29861793 0
4.8970003 0.38392147 0.29854757 0
4.8880005 0.7311672 0.29066312 0
4.8900003 0.72341442 0.29061264 0
4.7460003 0.62818414 0.29424912 0
4.7440004 0.62003815 0.2942996 0
4.7430005 0.61205095 0.29432487 0
4.7430005 0.60421693 0.29432487 0
4.7440004 0.59653097 0.2942996 0
4.7470002 0.58913344 0.29422385 0
4.7510004 0.58186954 0.29412284 0
4.7560005 0.57473373 0.29399657 0
4.8930001 0.42406157 0.29053688 0
4.8910003 0.41575146 0.29058737 0
4.8910003 0.40765053 0.29058737 0
4.8920002 0.39964887 0.29056212 0
4.8940005 0.39174098 0.29051161 0
4.8970003 0.38392147 0.29043585 0
4.8880005 0.7311672 0.28256762 0
4.8900003 0.72341442 0.28251353 0
4.7460003 0.62818414 0.28640977 0
4.7440004 0.62003815 0.28646386 0
4.7430005 0.61205095 0.28649092 0
4.7430005 0.60421693 0.28649092 0
4.7440004 0.59653097 0.28646386 0
4.7470002 0.58913344 0.2863827 0
4.7510004 0.58186954 0.28627446 0
4.7560005 0.57473373 0.28613919 0
4.8930001 0.42406157 0.28243235 0
4.8910003 0.41575146 0.28248647 0
4.8910003 0.40765053 0.28248647 0
4.8920002 0.39964887 0.28245941 0
4.8940005 0.39174098 0.28240532 0
4.8970003 0.38392147 0.28232414 0
4.8880005 0.7311672 0.27447215 0
4.8900003 0.72341442 0.27441442 0
4.7460003 0.62818414 0.27857041 0
4.7440004 0.62003815 0.27862811 0
4.7430005 0.61205095 0.27865696 0
4.7430005 0.60421693 0.27865696 0
4.7440004 0.59653097 0.27862811 0
4.7470002 0.58913344 0.27854156 0
4.7510004 0.58186954 0.27842611 0
4.7560005 0.57473373 0.27828181 0
4.8930001 0.42406157 0.27432787 0
4.8910003 0.41575146 0.27438557 0
4.8910003 0.40765053 0.27438557 0
4.8920002 0.39964887 0.27435672 0
4.8940005 0.39174098 0.27429897 0
4.8970003 0.38392147 0.27421242 0
4.8880005 0.7311672 0.26637667 0
4.8900003 0.72341442 0.26631534 0
4.7460003 0.62818414 0.27073103 0
4.7440004 0.62003815 0.27079237 0
4.7430005 0.61205095 0.27082303 0
4.7430005 0.60421693 0.27082303 0
4.7440004 0.59653097 0.27079237 0
4.7470002 0.58913344 0.2707004 0
4.7510004 0.58186954 0.27057773 0
4.7560005 0.57473373 0.2704244 0
4.8930001 0.42406157 0.26622337 0
4.8910003 0.41575146 0.26628467 0
4.8910003 0.40765053 0.26628467 0
4.8920002 0.39964887 0.26625401 0
4.8940005 0.39174098 0.26619267 0
4.8970003 0.38392147 0.26610067 0
4.8880005 0.7311672 0.25828117 0
4.8900003 0.72341442 0.25821623 0
4.7460003 0.62818414 0.26289171 0
4.7440004 0.62003815 0.26295662 0
4.7430005 0.61205095 0.2629891 0
4.7430005 0.60421693 0.2629891 0
4.7440004 0.59653097 0.26295662 0
4.7470002 0.58913344 0.26285923 0
4.7510004 0.58186954 0.26272935 0
4.7560005 0.57473373 0.26256701 0
4.8930001 0.42406157 0.25811884 0
4.8910003 0.41575146 0.25818378 0
4.8910003 0.40765053 0.25818378 0
4.8920002 0.39964887 0.25815129 0
4.8940005 0.39174098 0.25808635 0
4.8970003 0.38392147 0.25798893 0
4.8880005 0.7311672 0.25018567 0
4.8900003 0.72341442 0.25011712 0
4.7460003 0.62818414 0.25505236 0
4.7440004 0.62003815 0.2551209 0
4.7430005 0.61205095 0.25515515 0
4.7430005 0.60421693 0.25515515 0
4.7440004 0.59653097 0.2551209 0
4.7470002 0.58913344 0.25501809 0
4.7510004 0.58186954 0.25488096 0
4.7560005 0.57473373 0.2547096 0
4.8930001 0.42406157 0.25001431 0
4.8910003 0.41575146 0.25008285 0
4.8910003 0.40765053 0.25008285 0
4.8920002 0.39964887 0.25004858 0
4.8940005 0.39174098 0.24998003 0
4.8970003 0.38392147 0.24987723 0
4.8880005 0.7311672 0.24209018 0
4.8900003 0.72341442 0.24201804 0
4.7460003 0.62818414 0.24721301 0
4.7440004 0.62003815 0.24728516 0
4.7430005 0.61205095 0.24732122 0
4.7430005 0.60421693 0.24732122 0
4.7440004 0.59653097 0.24728516 0
4.7470002 0.58913344 0.24717693 0
4.7510004 0.58186954 0.24703263 0
4.7560005 0.57473373 0.24685223 0
4.8930001 0.42406157 0.24190982 0
4.8910003 0.41575146 0.24198195 0
4.8910003 0.40765053 0.24198195 0
4.8920002 0.39964887 0.24194588 0
4.8940005 0.39174098 0.24187373 0
4.8970003 0.38392147 0.2417655 0
4.8880005 0.7311672 0.23399469 0
4.8900003 0.72341442 0.23391894 0
4.7460003 0.62818414 0.23937365 0
4.7440004 0.62003815 0.23944941 0
4.7430005 0.61205095 0.23948728 0
4.7430005 0.60421693 0.23948728 0
4.7440004 0.59653097 0.23944941 0
4.7470002 0.58913344 0.23933578 0
4.7510004 0.58186954 0.23918425 0
4.7560005 0.57473373 0.23899485 0
4.8930001 0.42406157 0.23380531 0
4.8910003 0.41575146 0.23388106 0
4.8910003 0.40765053 0.23388106 0
4.8920002 0.39964887 0.23384318 0
4.8940005 0.39174098 0.23376741 0
4.8970003 0.38392147 0.23365378 0
4.8880005 0.7311672 0.2258992 0
4.8900003 0.72341442 0.22581984 0
4.7460003 0.62818414 0.2315343 0
4.7440004 0.62003815 0.23161367 0
4.7430005 0.61205095 0.23165335 0
4.7430005 0.60421693 0.23165335 0
4.7440004 0.59653097 0.23161367 0
4.7470002 0.58913344 0.23149462 0
4.7510004 0.58186954 0.23133588 0
4.7560005 0.57473373 0.23113745 0
4.8930001 0.42406157 0.2257008 0
4.8910003 0.41575146 0.22578016 0
4.8910003 0.40765053 0.22578016 0
4.8920002 0.39964887 0.22574046 0
4.8940005 0.39174098 0.22566108 0
4.8970003 0.38392147 0.22554205 0
4.8880005 0.7311672 0.21780372 0
4.8900003 0.72341442 0.21772073 0
4.7460003 0.62818414 0.22369495 0
4.7440004 0.62003815 0.22377792 0
4.7430005 0.61205095 0.2238194 0
4.7430005 0.60421693 0.2238194 0
4.7440004 0.59653097 0.22377792 0
4.7470002 0.58913344 0.22365347 0
4.7510004 0.58186954 0.22348751 0
4.7560005 0.57473373 0.22328006 0
4.8930001 0.42406157 0.21759628 0
4.8910003 0.41575146 0.21767925 0
4.8910003 0.40765053 0.21767925 0
4.8920002 0.39964887 0.21763776 0
4.8940005 0.39174098 0.21755478 0
4.8970003 0.38392147 0.21743032 0
4.8880005 0.7311672 0.20970821 0
4.8900003 0.72341442 0.20962162 0
4.7460003 0.62818414 0.21585561 0
4.7440004 0.62003815 0.21594217 0
4.7430005 0.61205095 0.21598546 0
4.7430005 0.60421693 0.21598546 0
4.7440004 0.59653097 0.21594217 0
4.7470002 0.58913344 0.21581231 0
4.7510004 0.58186954 0.21563913 0
4.7560005 0.57473373 0.21542269 0
4.8930001 0.42406157 0.20949177 0
4.8910003 0.41575146 0.20957835 0
4.8910003 0.40765053 0.20957835 0
4.8920002 0.39964887 0.20953506 0
4.8940005 0.39174098 0.20944846 0
4.8970003 0.38392147 0.20931859 0
4.8890004 0.73943764 0.20156763 0
4.8880005 0.7311672 0.20161271 0
4.8900003 0.72341442 0.20152253 0
4.7460003 0.62818414 0.20801626 0
4.7440004 0.62003815 0.20810644 0
4.7430005 0.61205095 0.20815152 0
4.7430005 0.60421693 0.20815152 0
4.7440004 0.59653097 0.20810644 0
4.7470002 0.58913344 0.20797116 0
4.7510004 0.58186954 0.20779076 0
4.7560005 0.57473373 0.20756529 0
4.8930001 0.42406157 0.20138727 0
4.8910003 0.41575146 0.20147745 0
4.8910003 0.40765053 0.20147745 0
4.8920002 0.39964887 0.20143235 0
4.8940005 0.39174098 0.20134215 0
4.8970003 0.38392147 0.20120688 0
4.8890004 0.73943764 0.19347034 0
4.8880005 0.7311672 0.19351722 0
4.8900003 0.72341442 0.19342344 0
4.7460003 0.62818414 0.20017691 0
4.7440004 0.62003815 0.2002707 0
4.7430005 0.61205095 0.20031758 0
4.7430005 0.60421693 0.20031758 0
4.7440004 0.59653097 0.2002707 0
4.7470002 0.58913344 0.20013 0
4.7510004 0.58186954 0.1999424 0
4.7560005 0.57473373 0.1997079 0
4.8930001 0.42406157 0.19328275 0
4.8910003 0.41575146 0.19337654 0
4.8910003 0.40765053 0.19337654 0
4.8920002 0.39964887 0.19332965 0
4.8940005 0.39174098 0.19323584 0
4.8970003 0.38392147 0.19309515 0
4.8890004 0.73943764 0.18537304 0
4.8880005 0.7311672 0.18542174 0
4.8900003 0.72341442 0.18532434 0
4.7460003 0.62818414 0.19233756 0
4.7440004 0.62003815 0.19243495 0
4.7430005 0.61205095 0.19248365 0
4.7430005 0.60421693 0.19248365 0
4.7440004 0.59653097 0.19243495 0
4.7470002 0.58913344 0.19228885 0
4.7510004 0.58186954 0.19209403 0
4.7560005 0.57473373 0.1918505 0
4.8930001 0.42406157 0.18517824 0
4.8910003 0.41575146 0.18527564 0
4.8910003 0.40765053 0.18527564 0
4.8920002 0.39964887 0.18522693 0
4.8940005 0.39174098 0.18512952 0
4.8970003 0.38392147 0.18498342 0
4.8890004 0.73943764 0.17727575 0
4.8880005 0.7311672 0.17732625 0
4.8900003 0.72341442 0.17722523 0
4.7460003 0.62818414 0.18449821 0
4.7440004 0.62003815 0.18459921 0
4.7430005 0.61205095 0.18464971 0
4.7430005 0.60421693 0.18464971 0
4.7440004 0.59653097 0.18459921 0
4.7470002 0.58913344 0.18444769 0
4.7510004 0.58186954 0.18424566 0
4.7560005 0.57473373 0.18399313 0
4.8930001 0.42406157 0.17707373 0
4.8910003 0.41575146 0.17717475 0
4.8910003 0.40765053 0.17717475 0
4.8920002 0.39964887 0.17712423 0
4.8940005 0.39174098 0.1770232 0
4.8970003 0.38392147 0.17687169 0
4.8890004 0.73943764 0.16917844 0
4.8880005 0.7311672 0.16923076 0
4.8900003 0.72341442 0.16912614 0
4.7460003 0.62818414 0.17665885 0
4.7440004 0.62003815 0.17676346 0
4.7430005 0.61205095 0.17681576 0
4.7430005 0.60421693 0.17681576 0
4.7440004 0.59653097 0.17676346 0
4.7470002 0.58913344 0.17660654 0
4.7510004 0.58186954 0.17639729 0
4.7560005 0.57473373 0.17613573 0
4.8930001 0.42406157 0.16896923 0
4.8910003 0.41575146 0.16907385 0
4.8910003 0.40765053 0.16907385 0
4.8920002 0.39964887 0.16902153 0
4.8940005 0.39174098 0.16891688 0
4.8970003 0.38392147 0.16875997 0
4.8890004 0.73943764 0.16108115 0
