# .PCD v0.7 - Point Cloud Data file format
VERSION 0.7
FIELDS x y z intensity
SIZE 4 4 4 4
TYPE F F F F
COUNT 1 1 1 1
WIDTH 1457
HEIGHT 1
VIEWPOINT 0 0 0 1 0 0 0
POINTS 1457
DATA ascii
5.8280005 2.9892323 0.52149284 0
5.8310003 2.9811132 0.52155781 0
5.8340006 2.9729834 0.52162278 0
5.8370004 2.9648428 0.52168769 0
5.8400002 2.9566913 0.5217526 0
5.8430004 2.9485292 0.52181756 0
5.8460002 2.9403558 0.52188247 0
5.8490005 2.9321723 0.52194744 0
5.8520002 2.9239774 0.52201235 0
5.8560004 2.9163148 0.52209896 0
5.8590002 2.9080968 0.52216387 0
5.8620005 2.8998678 0.52222884 0
5.8650002 2.891628 0.52229375 0
5.8680005 2.8833773 0.52235872 0
5.8710003 2.8751159 0.52242362 0
5.8740005 2.8668437 0.52248859 0
5.8770003 2.8585606 0.5225535 0
5.8800006 2.8502667 0.52261847 0
5.8830004 2.8419621 0.52268338 0
5.8870006 2.8341715 0.52276999 0
5.8900003 2.8258431 0.5228349 0
5.8930001 2.8175039 0.52289981 0
5.8960004 2.8091543 0.52296478 0
5.8990002 2.8007934 0.52302969 0
5.9020004 2.7924223 0.52309465 0
5.9050002 2.7840397 0.52315956 0
5.9080005 2.7756467 0.52322453 0
5.9120002 2.7677531 0.52331108 0
5.9150004 2.7593367 0.52337605 0
5.9180002 2.7509091 0.52344096 0
5.9210005 2.7424712 0.52350593 0
5.9240003 2.7340219 0.52357084 0
5.9270005 2.7255623 0.5236358 0
5.9310002 2.717591 0.52372235 0
5.9340005 2.7091079 0.52378732 0
5.9370003 2.7006137 0.52385223 0
5.9400005 2.6921089 0.5239172 0
5.9430003 2.6835928 0.52398211 0
5.9460006 2.6750665 0.52404708 0
5.9500003 2.6670177 0.52413362 0
5.9530005 2.658468 0.52419859 0
5.9560003 2.6499069 0.5242635 0
5.9590006 2.6413352 0.52432847 0
5.9620004 2.6327527 0.52439338 0
5.9660006 2.6246393 0.52447999 0
5.9690003 2.6160331 0.52454489 0
5.9720001 2.6074164 0.52460986 0
5.9750004 2.5987887 0.52467477 0
5.9780002 2.5901501 0.52473974 0
5.9820004 2.5819719 0.52482629 0
5.9850001 2.5733097 0.52489126 0
5.9880004 2.5646372 0.52495617 0
5.9910002 2.5559535 0.52502114 0
5.9950004 2.5477228 0.52510768 0
5.9980001 2.5390158 0.52517265 0
6.0010004 2.5302982 0.52523756 0
6.0040002 2.5215695 0.52530253 0
6.0080004 2.5132864 0.52538908 0
6.0110002 2.5045342 0.52545404 0
6.0140004 2.4957716 0.52551895 0
6.0170002 2.4869976 0.52558392 0
6.0210004 2.4786623 0.52567047 0
5.8070002 3.0457616 0.51128513 0
5.8100004 3.0377183 0.51134467 0
5.8130002 3.0296645 0.51140416 0
5.8160005 3.0215998 0.5114637 0
5.8190002 3.0135241 0.51152325 0
5.8220005 3.0054376 0.51158273 0
5.8250003 2.9973402 0.51164228 0
5.8280005 2.9892323 0.51170182 0
5.8310003 2.9811132 0.51176131 0
5.8340006 2.9729834 0.51182085 0
5.8370004 2.9648428 0.5118804 0
5.8400002 2.9566913 0.51193988 0
5.8430004 2.9485292 0.51199943 0
5.8460002 2.9403558 0.51205897 0
5.8490005 2.9321723 0.51211846 0
5.8520002 2.9239774 0.512178 0
5.8560004 2.9163148 0.51225734 0
5.8590002 2.9080968 0.51231688 0
5.8620005 2.8998678 0.51237643 0
5.8650002 2.891628 0.51243591 0
5.8680005 2.8833773 0.51249546 0
5.8710003 2.8751159 0.512555 0
5.8740005 2.8668437 0.51261455 0
5.8770003 2.8585606 0.51267403 0
5.8800006 2.8502667 0.51273358 0
5.8830004 2.8419621 0.51279312 0
5.8870006 2.8341715 0.51287246 0
5.8900003 2.8258431 0.512932 0
5.8930001 2.8175039 0.51299155 0
5.8960004 2.8091543 0.51305103 0
5.8990002 2.8007934 0.51311058 0
5.9020004 2.7924223 0.51317012 0
5.9050002 2.7840397 0.51322961 0
5.9080005 2.7756467 0.51328915 0
5.9120002 2.7677531 0.51336849 0
5.9150004 2.7593367 0.51342803 0
5.9180002 2.7509091 0.51348758 0
5.9210005 2.7424712 0.51354706 0
5.9240003 2.7340219 0.51360661 0
5.9270005 2.7255623 0.51366615 0
5.9310002 2.717591 0.51374549 0
5.9340005 2.7091079 0.51380503 0
5.9370003 2.7006137 0.51386458 0
5.9400005 2.6921089 0.51392412 0
5.9430003 2.6835928 0.51398361 0
5.9460006 2.6750665 0.51404315 0
5.9500003 2.6670177 0.51412249 0
5.9530005 2.658468 0.51418203 0
5.9560003 2.6499069 0.51424158 0
5.9590006 2.6413352 0.51430106 0
5.9620004 2.6327527 0.51436061 0
5.9660006 2.6246393 0.51444 0
5.9690003 2.6160331 0.51449949 0
5.9720001 2.6074164 0.51455903 0
5.9750004 2.5987887 0.51461858 0
5.9780002 2.5901501 0.51467806 0
5.9820004 2.5819719 0.51475745 0
5.9850001 2.5733097 0.514817 0
5.9880004 2.5646372 0.51487648 0
5.9910002 2.5559535 0.51493603 0
5.9950004 2.5477228 0.51501536 0
5.9980001 2.5390158 0.51507491 0
6.0010004 2.5302982 0.51513445 0
6.0040002 2.5215695 0.51519394 0
6.0080004 2.5132864 0.51527333 0
6.0110002 2.5045342 0.51533288 0
6.0140004 2.4957716 0.51539242 0
6.0170002 2.4869976 0.51545191 0
6.0210004 2.4786623 0.5155313 0
6.0240002 2.4698651 0.51559079 0
5.8070002 3.0457616 0.5015319 0
5.8100004 3.0377183 0.50158602 0
5.8130002 3.0296645 0.50164014 0
5.8160005 3.0215998 0.50169426 0
5.8190002 3.0135241 0.50174838 0
5.8220005 3.0054376 0.5018025 0
5.8250003 2.9973402 0.50185663 0
5.8280005 2.9892323 0.50191075 0
5.8310003 2.9811132 0.50196481 0
5.8340006 2.9729834 0.50201893 0
5.8370004 2.9648428 0.50207305 0
5.8400002 2.9566913 0.50212717 0
5.8430004 2.9485292 0.50218129 0
5.8460002 2.9403558 0.50223541 0
5.8490005 2.9321723 0.50228953 0
5.8520002 2.9239774 0.50234365 0
5.8560004 2.9163148 0.50241578 0
5.8590002 2.9080968 0.5024699 0
5.8620005 2.8998678 0.50252402 0
5.8650002 2.891628 0.50257814 0
5.8680005 2.8833773 0.50263226 0
5.8710003 2.8751159 0.50268638 0
5.8740005 2.8668437 0.5027405 0
5.8770003 2.8585606 0.50279462 0
5.8800006 2.8502667 0.50284868 0
5.8830004 2.8419621 0.50290281 0
5.8870006 2.8341715 0.50297499 0
5.8900003 2.8258431 0.50302911 0
5.8930001 2.8175039 0.50308323 0
5.8960004 2.8091543 0.50313729 0
5.8990002 2.8007934 0.50319141 0
5.9020004 2.7924223 0.50324553 0
5.9050002 2.7840397 0.50329965 0
5.9080005 2.7756467 0.50335377 0
5.9120002 2.7677531 0.50342596 0
5.9150004 2.7593367 0.50348002 0
5.9180002 2.7509091 0.50353414 0
5.9210005 2.7424712 0.50358826 0
5.9240003 2.7340219 0.50364238 0
5.9270005 2.7255623 0.5036965 0
5.9310002 2.717591 0.50376862 0
5.9340005 2.7091079 0.50382274 0
5.9370003 2.7006137 0.50387686 0
5.9400005 2.6921089 0.50393099 0
5.9430003 2.6835928 0.50398511 0
5.9460006 2.6750665 0.50403923 0
5.9500003 2.6670177 0.50411135 0
5.9530005 2.658468 0.50416547 0
5.9560003 2.6499069 0.50421959 0
5.9590006 2.6413352 0.50427371 0
5.9620004 2.6327527 0.50432783 0
5.9660006 2.6246393 0.50440001 0
5.9690003 2.6160331 0.50445408 0
5.9720001 2.6074164 0.5045082 0
5.9750004 2.5987887 0.50456232 0
5.9780002 2.5901501 0.50461644 0
5.9820004 2.5819719 0.50468862 0
5.9850001 2.5733097 0.50474268 0
5.9880004 2.5646372 0.5047968 0
5.9910002 2.5559535 0.50485092 0
5.9950004 2.5477228 0.50492311 0
5.9980001 2.5390158 0.50497723 0
6.0010004 2.5302982 0.50503129 0
6.0040002 2.5215695 0.50508541 0
6.0080004 2.5132864 0.50515759 0
6.0110002 2.5045342 0.50521171 0
6.0140004 2.4957716 0.50526583 0
6.0170002 2.4869976 0.50531995 0
6.0210004 2.4786623 0.50539207 0
6.0240002 2.4698651 0.5054462 0
5.8070002 3.0457616 0.49177873 0
5.8100004 3.0377183 0.49182743 0
5.8130002 3.0296645 0.49187613 0
5.8160005 3.0215998 0.49192485 0
5.8190002 3.0135241 0.49197355 0
5.8220005 3.0054376 0.49202225 0
5.8250003 2.9973402 0.49207094 0
5.8280005 2.9892323 0.49211967 0
5.8310003 2.9811132 0.49216837 0
5.8340006 2.9729834 0.49221706 0
5.8370004 2.9648428 0.49226576 0
5.8400002 2.9566913 0.49231446 0
5.8430004 2.9485292 0.49236315 0
5.8460002 2.9403558 0.49241185 0
5.8490005 2.9321723 0.49246058 0
5.8520002 2.9239774 0.49250928 0
5.8560004 2.9163148 0.49257421 0
5.8590002 2.9080968 0.49262291 0
5.8620005 2.8998678 0.49267161 0
5.8650002 2.891628 0.49272031 0
5.8680005 2.8833773 0.49276903 0
5.8710003 2.8751159 0.49281773 0
5.8740005 2.8668437 0.49286643 0
5.8770003 2.8585606 0.49291512 0
5.8800006 2.8502667 0.49296385 0
5.8830004 2.8419621 0.49301255 0
5.8870006 2.8341715 0.49307749 0
5.8900003 2.8258431 0.49312618 0
5.8930001 2.8175039 0.49317488 0
5.8960004 2.8091543 0.49322358 0
5.8990002 2.8007934 0.49327227 0
5.9020004 2.7924223 0.493321 0
5.9050002 2.7840397 0.4933697 0
5.9080005 2.7756467 0.4934184 0
5.9120002 2.7677531 0.49348333 0
5.9150004 2.7593367 0.49353203 0
5.9180002 2.7509091 0.49358073 0
5.9210005 2.7424712 0.49362946 0
5.9240003 2.7340219 0.49367815 0
5.9270005 2.7255623 0.49372685 0
5.9310002 2.717591 0.49379179 0
5.9340005 2.7091079 0.49384049 0
5.9370003 2.7006137 0.49388918 0
5.9400005 2.6921089 0.49393791 0
5.9430003 2.6835928 0.49398661 0
5.9460006 2.6750665 0.4940353 0
5.9500003 2.6670177 0.49410024 0
5.9530005 2.658468 0.49414894 0
5.9560003 2.6499069 0.49419764 0
5.9590006 2.6413352 0.49424636 0
5.9620004 2.6327527 0.49429506 0
5.9660006 2.6246393 0.49436 0
5.9690003 2.6160331 0.4944087 0
5.9720001 2.6074164 0.49445739 0
5.9750004 2.5987887 0.49450609 0
5.9780002 2.5901501 0.49455479 0
5.9820004 2.5819719 0.49461973 0
5.9850001 2.5733097 0.49466842 0
5.9880004 2.5646372 0.49471715 0
5.9910002 2.5559535 0.49476582 0
5.9950004 2.5477228 0.49483079 0
5.9980001 2.5390158 0.49487948 0
6.0010004 2.5302982 0.49492818 0
6.0040002 2.5215695 0.49497688 0
6.0080004 2.5132864 0.49504182 0
6.0110002 2.5045342 0.49509051 0
6.0140004 2.4957716 0.49513924 0
6.0170002 2.4869976 0.49518794 0
6.0210004 2.4786623 0.49525288 0
6.0240002 2.4698651 0.49530157 0
6.0270004 2.4610572 0.49535027 0
5.8070002 3.0457616 0.48202553 0
5.8100004 3.0377183 0.48206884 0
5.8130002 3.0296645 0.48211211 0
5.8160005 3.0215998 0.48215541 0
5.8190002 3.0135241 0.48219872 0
5.8220005 3.0054376 0.48224199 0
5.8250003 2.9973402 0.48228529 0
5.8280005 2.9892323 0.48232859 0
5.8310003 2.9811132 0.48237187 0
5.8340006 2.9729834 0.48241517 0
5.8370004 2.9648428 0.48245847 0
5.8400002 2.9566913 0.48250175 0
5.8430004 2.9485292 0.48254505 0
5.8460002 2.9403558 0.48258832 0
5.8490005 2.9321723 0.48263162 0
5.8520002 2.9239774 0.4826749 0
5.8560004 2.9163148 0.48273265 0
5.8590002 2.9080968 0.48277593 0
5.8620005 2.8998678 0.48281923 0
5.8650002 2.891628 0.4828625 0
5.8680005 2.8833773 0.48290581 0
5.8710003 2.8751159 0.48294908 0
5.8740005 2.8668437 0.48299238 0
5.8770003 2.8585606 0.48303568 0
5.8800006 2.8502667 0.48307896 0
5.8830004 2.8419621 0.48312226 0
5.8870006 2.8341715 0.48317999 0
5.8900003 2.8258431 0.48322326 0
5.8930001 2.8175039 0.48326656 0
5.8960004 2.8091543 0.48330986 0
5.8990002 2.8007934 0.48335314 0
5.9020004 2.7924223 0.48339644 0
5.9050002 2.7840397 0.48343974 0
5.9080005 2.7756467 0.48348302 0
5.9120002 2.7677531 0.48354074 0
5.9150004 2.7593367 0.48358405 0
5.9180002 2.7509091 0.48362732 0
5.9210005 2.7424712 0.48367062 0
5.9240003 2.7340219 0.4837139 0
5.9270005 2.7255623 0.4837572 0
5.9310002 2.717591 0.48381492 0
5.9340005 2.7091079 0.48385823 0
5.9370003 2.7006137 0.4839015 0
5.9400005 2.6921089 0.4839448 0
5.9430003 2.6835928 0.48398808 0
5.9460006 2.6750665 0.48403138 0
5.9500003 2.6670177 0.48408911 0
5.9530005 2.658468 0.48413241 0
5.9560003 2.6499069 0.48417568 0
5.9590006 2.6413352 0.48421898 0
5.9620004 2.6327527 0.48426226 0
5.9660006 2.6246393 0.48431998 0
5.9690003 2.6160331 0.48436329 0
5.9720001 2.6074164 0.48440656 0
5.9750004 2.5987887 0.48444986 0
5.9780002 2.5901501 0.48449314 0
5.9820004 2.5819719 0.48455086 0
5.9850001 2.5733097 0.48459417 0
5.9880004 2.5646372 0.48463744 0
5.9910002 2.5559535 0.48468074 0
5.9950004 2.5477228 0.48473847 0
5.9980001 2.5390158 0.48478174 0
6.0010004 2.5302982 0.48482504 0
6.0040002 2.5215695 0.48486835 0
6.0080004 2.5132864 0.48492607 0
6.0110002 2.5045342 0.48496935 0
6.0140004 2.4957716 0.48501265 0
6.0170002 2.4869976 0.48505592 0
6.0210004 2.4786623 0.48511368 0
6.0240002 2.4698651 0.48515695 0
6.0270004 2.4610572 0.48520026 0
6.0300002 2.4522381 0.48524353 0
5.8070002 3.0457616 0.47227234 0
5.8100004 3.0377183 0.47231025 0
5.8130002 3.0296645 0.47234809 0
5.8160005 3.0215998 0.472386 0
5.8190002 3.0135241 0.47242388 0
5.8220005 3.0054376 0.47246176 0
5.8250003 2.9973402 0.47249964 0
5.8280005 2.9892323 0.47253752 0
5.8310003 2.9811132 0.4725754 0
5.8340006 2.9729834 0.47261328 0
5.8370004 2.9648428 0.47265115 0
5.8400002 2.9566913 0.47268903 0
5.8430004 2.9485292 0.47272691 0
5.8460002 2.9403558 0.47276479 0
5.8490005 2.9321723 0.47280267 0
5.8520002 2.9239774 0.47284055 0
5.8560004 2.9163148 0.47289106 0
5.8590002 2.9080968 0.47292894 0
5.8620005 2.8998678 0.47296682 0
5.8650002 2.891628 0.4730047 0
5.8680005 2.8833773 0.47304258 0
5.8710003 2.8751159 0.47308046 0
5.8740005 2.8668437 0.47311834 0
5.8770003 2.8585606 0.47315621 0
5.8800006 2.8502667 0.47319409 0
5.8830004 2.8419621 0.47323197 0
5.8870006 2.8341715 0.47328249 0
5.8900003 2.8258431 0.47332036 0
5.8930001 2.8175039 0.47335824 0
5.8960004 2.8091543 0.47339612 0
5.8990002 2.8007934 0.473434 0
5.9020004 2.7924223 0.47347188 0
5.9050002 2.7840397 0.47350976 0
5.9080005 2.7756467 0.47354764 0
5.9120002 2.7677531 0.47359815 0
5.9150004 2.7593367 0.47363603 0
5.9180002 2.7509091 0.47367391 0
5.9210005 2.7424712 0.47371179 0
5.9240003 2.7340219 0.47374967 0
5.9270005 2.7255623 0.47378755 0
5.9310002 2.717591 0.47383806 0
5.9340005 2.7091079 0.47387594 0
5.9370003 2.7006137 0.47391382 0
5.9400005 2.6921089 0.4739517 0
5.9430003 2.6835928 0.47398958 0
5.9460006 2.6750665 0.47402745 0
5.9500003 2.6670177 0.47407797 0
5.9530005 2.658468 0.47411585 0
5.9560003 2.6499069 0.47415373 0
5.9590006 2.6413352 0.47419161 0
5.9620004 2.6327527 0.47422948 0
5.9660006 2.6246393 0.47428 0
5.9690003 2.6160331 0.47431788 0
5.9720001 2.6074164 0.47435576 0
5.9750004 2.5987887 0.47439364 0
5.9780002 2.5901501 0.47443151 0
5.9820004 2.5819719 0.474482 0
5.9850001 2.5733097 0.47451991 0
5.9880004 2.5646372 0.47455776 0
5.9910002 2.5559535 0.47459567 0
5.9950004 2.5477228 0.47464615 0
5.9980001 2.5390158 0.47468406 0
6.0010004 2.5302982 0.47472191 0
6.0040002 2.5215695 0.47475982 0
6.0080004 2.5132864 0.4748103 0
6.0110002 2.5045342 0.47484818 0
6.0140004 2.4957716 0.47488606 0
6.0170002 2.4869976 0.47492394 0
6.0210004 2.4786623 0.47497445 0
6.0240002 2.4698651 0.47501233 0
6.0270004 2.4610572 0.47505021 0
6.0300002 2.4522381 0.47508809 0
6.0340004 2.4438508 0.4751386 0
6.0370002 2.4350083 0.47517648 0
6.0400004 2.4261553 0.47521436 0
5.8070002 3.0457616 0.46251917 0
5.8100004 3.0377183 0.46255162 0
5.8130002 3.0296645 0.46258411 0
5.8160005 3.0215998 0.46261656 0
5.8190002 3.0135241 0.46264905 0
5.8220005 3.0054376 0.4626815 0
5.8250003 2.9973402 0.46271399 0
5.8280005 2.9892323 0.46274644 0
5.8310003 2.9811132 0.46277893 0
5.8340006 2.9729834 0.46281138 0
5.8370004 2.9648428 0.46284384 0
5.8400002 2.9566913 0.46287632 0
5.8430004 2.9485292 0.46290877 0
5.8460002 2.9403558 0.46294126 0
5.8490005 2.9321723 0.46297371 0
5.8520002 2.9239774 0.4630062 0
5.8560004 2.9163148 0.46304947 0
5.8590002 2.9080968 0.46308196 0
5.8620005 2.8998678 0.46311441 0
5.8650002 2.891628 0.4631469 0
5.8680005 2.8833773 0.46317935 0
5.8710003 2.8751159 0.46321183 0
5.8740005 2.8668437 0.46324429 0
5.8770003 2.8585606 0.46327674 0
5.8800006 2.8502667 0.46330923 0
5.8830004 2.8419621 0.46334171 0
5.8870006 2.8341715 0.46338499 0
5.8900003 2.8258431 0.46341747 0
5.8930001 2.8175039 0.46344993 0
5.8960004 2.8091543 0.46348238 0
5.8990002 2.8007934 0.46351486 0
5.9020004 2.7924223 0.46354732 0
5.9050002 2.7840397 0.4635798 0
5.9080005 2.7756467 0.46361226 0
5.9120002 2.7677531 0.46365556 0
5.9150004 2.7593367 0.46368805 0
5.9180002 2.7509091 0.4637205 0
5.9210005 2.7424712 0.46375299 0
5.9240003 2.7340219 0.46378544 0
5.9270005 2.7255623 0.46381789 0
5.9310002 2.717591 0.4638612 0
5.9340005 2.7091079 0.46389365 0
5.9370003 2.7006137 0.46392614 0
5.9400005 2.6921089 0.46395859 0
5.9430003 2.6835928 0.46399108 0
5.9460006 2.6750665 0.46402353 0
5.9500003 2.6670177 0.46406683 0
5.9530005 2.658468 0.46409929 0
5.9560003 2.6499069 0.46413177 0
5.9590006 2.6413352 0.46416423 0
5.9620004 2.6327527 0.46419671 0
5.9660006 2.6246393 0.46423998 0
5.9690003 2.6160331 0.46427247 0
5.9720001 2.6074164 0.46430492 0
5.9750004 2.5987887 0.46433741 0
5.9780002 2.5901501 0.46436986 0
5.9820004 2.5819719 0.46441317 0
5.9850001 2.5733097 0.46444562 0
5.9880004 2.5646372 0.46447811 0
5.9910002 2.5559535 0.46451056 0
5.9950004 2.5477228 0.46455386 0
5.9980001 2.5390158 0.46458632 0
6.0010004 2.5302982 0.4646188 0
6.0040002 2.5215695 0.46465126 0
6.0080004 2.5132864 0.46469456 0
6.0110002 2.5045342 0.46472701 0
6.0140004 2.4957716 0.4647595 0
6.0170002 2.4869976 0.46479195 0
6.0210004 2.4786623 0.46483526 0
6.0240002 2.4698651 0.46486771 0
6.0270004 2.4610572 0.4649002 0
6.0300002 2.4522381 0.46493265 0
6.0340004 2.4438508 0.46497595 0
6.0370002 2.4350083 0.46500841 0
6.0400004 2.4261553 0.46504089 0
6.0440001 2.4177277 0.46508417 0
6.0470004 2.4088514 0.46511665 0
6.0500002 2.3999639 0.4651491 0
6.0540004 2.3914969 0.46519241 0
6.0570002 2.382586 0.46522486 0
6.0600004 2.3736644 0.46525735 0
6.0630002 2.3647318 0.4652898 0
6.0670004 2.3562126 0.4653331 0
6.0700002 2.3472567 0.46536556 0
6.0730004 2.33829 0.46539804 0
6.0770001 2.3297307 0.46544132 0
6.0800004 2.3207407 0.4654738 0
6.0830002 2.3117394 0.46550626 0
6.0870004 2.3031411 0.46554956 0
6.0900002 2.2941165 0.46558201 0
6.0940003 2.2854908 0.46562532 0
6.0970006 2.2764428 0.4656578 0
6.1000004 2.2673841 0.46569026 0
6.1040006 2.2587185 0.46573356 0
6.1070004 2.2496364 0.46576601 0
6.1100001 2.2405434 0.4657985 0
5.8070002 3.0457616 0.45276597 0
5.8100004 3.0377183 0.45279303 0
5.8130002 3.0296645 0.45282009 0
5.8160005 3.0215998 0.45284715 0
5.8190002 3.0135241 0.45287418 0
5.8220005 3.0054376 0.45290124 0
5.8250003 2.9973402 0.4529283 0
5.8280005 2.9892323 0.45295537 0
5.8310003 2.9811132 0.45298243 0
5.8340006 2.9729834 0.45300949 0
5.8370004 2.9648428 0.45303655 0
5.8400002 2.9566913 0.45306361 0
5.8430004 2.9485292 0.45309067 0
5.8460002 2.9403558 0.4531177 0
5.8490005 2.9321723 0.45314479 0
5.8520002 2.9239774 0.45317182 0
5.8560004 2.9163148 0.45320791 0
5.8590002 2.9080968 0.45323497 0
5.8620005 2.8998678 0.45326203 0
5.8650002 2.891628 0.45328906 0
5.8680005 2.8833773 0.45331612 0
5.8710003 2.8751159 0.45334318 0
5.8740005 2.8668437 0.45337024 0
5.8770003 2.8585606 0.4533973 0
5.8800006 2.8502667 0.45342436 0
5.8830004 2.8419621 0.45345142 0
5.8870006 2.8341715 0.45348749 0
5.8900003 2.8258431 0.45351455 0
5.8930001 2.8175039 0.45354161 0
5.8960004 2.8091543 0.45356867 0
5.8990002 2.8007934 0.45359573 0
5.9020004 2.7924223 0.45362279 0
5.9050002 2.7840397 0.45364985 0
5.9080005 2.7756467 0.45367688 0
5.9120002 2.7677531 0.45371297 0
5.9150004 2.7593367 0.45374003 0
5.9180002 2.7509091 0.45376709 0
5.9210005 2.7424712 0.45379415 0
5.9240003 2.7340219 0.45382118 0
5.9270005 2.7255623 0.45384824 0
5.9310002 2.717591 0.45388433 0
5.9340005 2.7091079 0.45391139 0
5.9370003 2.7006137 0.45393845 0
5.9400005 2.6921089 0.45396551 0
5.9430003 2.6835928 0.45399255 0
5.9460006 2.6750665 0.45401961 0
5.9500003 2.6670177 0.4540557 0
5.9530005 2.658468 0.45408276 0
5.9560003 2.6499069 0.45410982 0
5.9590006 2.6413352 0.45413685 0
5.9620004 2.6327527 0.45416391 0
5.9660006 2.6246393 0.4542 0
5.9690003 2.6160331 0.45422706 0
5.9720001 2.6074164 0.45425412 0
5.9750004 2.5987887 0.45428118 0
5.9780002 2.5901501 0.45430821 0
5.9820004 2.5819719 0.4543443 0
5.9850001 2.5733097 0.45437136 0
5.9880004 2.5646372 0.45439842 0
5.9910002 2.5559535 0.45442545 0
5.9950004 2.5477228 0.45446154 0
5.9980001 2.5390158 0.45448861 0
6.0010004 2.5302982 0.45451567 0
6.0040002 2.5215695 0.45454273 0
6.0080004 2.5132864 0.45457879 0
6.0110002 2.5045342 0.45460585 0
6.0140004 2.4957716 0.45463291 0
6.0170002 2.4869976 0.45465997 0
6.0210004 2.4786623 0.45469606 0
6.0240002 2.4698651 0.45472309 0
6.0270004 2.4610572 0.45475015 0
6.0300002 2.4522381 0.45477721 0
6.0340004 2.4438508 0.4548133 0
6.0370002 2.4350083 0.45484036 0
6.0400004 2.4261553 0.45486739 0
6.0440001 2.4177277 0.45490348 0
6.0470004 2.4088514 0.45493054 0
6.0500002 2.3999639 0.4549576 0
6.0540004 2.3914969 0.45499367 0
6.0570002 2.382586 0.45502073 0
6.0600004 2.3736644 0.45504779 0
6.0630002 2.3647318 0.45507485 0
6.0670004 2.3562126 0.45511091 0
6.0700002 2.3472567 0.45513797 0
6.0730004 2.33829 0.45516503 0
6.0770001 2.3297307 0.45520112 0
6.0800004 2.3207407 0.45522818 0
6.0830002 2.3117394 0.45525521 0
6.0870004 2.3031411 0.4552913 0
6.0900002 2.2941165 0.45531836 0
6.0940003 2.2854908 0.45535442 0
6.0970006 2.2764428 0.45538148 0
6.1000004 2.2673841 0.45540854 0
6.1040006 2.2587185 0.45544463 0
6.1070004 2.2496364 0.45547169 0
6.1100001 2.2405434 0.45549873 0
6.1140003 2.2318382 0.45553482 0
6.1170006 2.2227218 0.45556188 0
6.1210003 2.2139895 0.45559794 0
6.1240005 2.2048497 0.455625 0
6.1270003 2.195699 0.45565206 0
6.1310005 2.1869271 0.45568815 0
5.8070002 3.0457616 0.44301277 0
5.8100004 3.0377183 0.44303441 0
5.8130002 3.0296645 0.44305608 0
5.8160005 3.0215998 0.44307771 0
5.8190002 3.0135241 0.44309935 0
5.8220005 3.0054376 0.44312102 0
5.8250003 2.9973402 0.44314265 0
5.8280005 2.9892323 0.44316429 0
5.8310003 2.9811132 0.44318596 0
5.8340006 2.9729834 0.44320759 0
5.8370004 2.9648428 0.44322923 0
5.8400002 2.9566913 0.44325089 0
5.8430004 2.9485292 0.44327253 0
5.8460002 2.9403558 0.44329417 0
5.8490005 2.9321723 0.4433158 0
5.8520002 2.9239774 0.44333747 0
5.8560004 2.9163148 0.44336632 0
5.8590002 2.9080968 0.44338799 0
5.8620005 2.8998678 0.44340962 0
5.8650002 2.891628 0.44343126 0
5.8680005 2.8833773 0.44345289 0
5.8710003 2.8751159 0.44347456 0
5.8740005 2.8668437 0.4434962 0
5.8770003 2.8585606 0.44351783 0
5.8800006 2.8502667 0.4435395 0
5.8830004 2.8419621 0.44356114 0
5.8870006 2.8341715 0.44358999 0
5.8900003 2.8258431 0.44361165 0
5.8930001 2.8175039 0.44363329 0
5.8960004 2.8091543 0.44365492 0
5.8990002 2.8007934 0.44367659 0
5.9020004 2.7924223 0.44369823 0
5.9050002 2.7840397 0.44371986 0
5.9080005 2.7756467 0.44374153 0
5.9120002 2.7677531 0.44377038 0
5.9150004 2.7593367 0.44379202 0
5.9180002 2.7509091 0.44381368 0
5.9210005 2.7424712 0.44383532 0
5.9240003 2.7340219 0.44385695 0
5.9270005 2.7255623 0.44387859 0
5.9310002 2.717591 0.44390747 0
5.9340005 2.7091079 0.44392911 0
5.9370003 2.7006137 0.44395077 0
5.9400005 2.6921089 0.44397241 0
5.9430003 2.6835928 0.44399405 0
5.9460006 2.6750665 0.44401568 0
5.9500003 2.6670177 0.44404456 0
5.9530005 2.658468 0.4440662 0
5.9560003 2.6499069 0.44408786 0
5.9590006 2.6413352 0.4441095 0
5.9620004 2.6327527 0.44413114 0
5.9660006 2.6246393 0.44416001 0
5.9690003 2.6160331 0.44418165 0
5.9720001 2.6074164 0.44420329 0
5.9750004 2.5987887 0.44422495 0
5.9780002 2.5901501 0.44424659 0
5.9820004 2.5819719 0.44427544 0
5.9850001 2.5733097 0.44429708 0
5.9880004 2.5646372 0.44431874 0
5.9910002 2.5559535 0.44434038 0
5.9950004 2.5477228 0.44436926 0
5.9980001 2.5390158 0.44439089 0
6.0010004 2.5302982 0.44441253 0
6.0040002 2.5215695 0.44443417 0
6.0080004 2.5132864 0.44446304 0
6.0110002 2.5045342 0.44448468 0
6.0140004 2.4957716 0.44450635 0
6.0170002 2.4869976 0.44452798 0
6.0210004 2.4786623 0.44455683 0
6.0240002 2.4698651 0.44457847 0
6.0270004 2.4610572 0.44460014 0
6.0300002 2.4522381 0.44462177 0
6.0340004 2.4438508 0.44465065 0
6.0370002 2.4350083 0.44467229 0
6.0400004 2.4261553 0.44469392 0
6.0440001 2.4177277 0.44472277 0
6.0470004 2.4088514 0.44474444 0
6.0500002 2.3999639 0.44476607 0
6.0540004 2.3914969 0.44479495 0
6.0570002 2.382586 0.44481659 0
6.0600004 2.3736644 0.44483823 0
6.0630002 2.3647318 0.44485986 0
6.0670004 2.3562126 0.44488874 0
6.0700002 2.3472567 0.44491038 0
6.0730004 2.33829 0.44493204 0
6.0770001 2.3297307 0.44496089 0
6.0800004 2.3207407 0.44498253 0
6.0830002 2.3117394 0.44500417 0
6.0870004 2.3031411 0.44503304 0
6.0900002 2.2941165 0.44505468 0
6.0940003 2.2854908 0.44508356 0
6.0970006 2.2764428 0.4451052 0
6.1000004 2.2673841 0.44512683 0
6.1040006 2.2587185 0.44515571 0
6.1070004 2.2496364 0.44517735 0
6.1100001 2.2405434 0.44519898 0
6.1140003 2.2318382 0.44522786 0
6.1170006 2.2227218 0.4452495 0
6.1210003 2.2139895 0.44527835 0
6.1240005 2.2048497 0.44530001 0
6.1270003 2.195699 0.44532165 0
6.1310005 2.1869271 0.44535053 0
5.8070002 3.0457616 0.43325958 0
5.8100004 3.0377183 0.43327582 0
5.8130002 3.0296645 0.43329206 0
5.8160005 3.0215998 0.4333083 0
5.8190002 3.0135241 0.43332452 0
5.8220005 3.0054376 0.43334076 0
5.8250003 2.9973402 0.433357 0
5.8280005 2.9892323 0.43337321 0
5.8310003 2.9811132 0.43338946 0
5.8340006 2.9729834 0.4334057 0
5.8370004 2.9648428 0.43342194 0
5.8400002 2.9566913 0.43343815 0
5.8430004 2.9485292 0.43345439 0
5.8460002 2.9403558 0.43347064 0
5.8490005 2.9321723 0.43348688 0
5.8520002 2.9239774 0.43350309 0
5.8560004 2.9163148 0.43352476 0
5.8590002 2.9080968 0.43354097 0
5.8620005 2.8998678 0.43355721 0
5.8650002 2.891628 0.43357345 0
5.8680005 2.8833773 0.4335897 0
5.8710003 2.8751159 0.43360591 0
5.8740005 2.8668437 0.43362215 0
5.8770003 2.8585606 0.43363839 0
5.8800006 2.8502667 0.43365464 0
5.8830004 2.8419621 0.43367085 0
5.8870006 2.8341715 0.43369251 0
5.8900003 2.8258431 0.43370873 0
5.8930001 2.8175039 0.43372497 0
5.8960004 2.8091543 0.43374121 0
5.8990002 2.8007934 0.43375742 0
5.9020004 2.7924223 0.43377367 0
5.9050002 2.7840397 0.43378991 0
5.9080005 2.7756467 0.43380615 0
5.9120002 2.7677531 0.43382779 0
5.9150004 2.7593367 0.43384403 0
5.9180002 2.7509091 0.43386024 0
5.9210005 2.7424712 0.43387648 0
5.9240003 2.7340219 0.43389273 0
5.9270005 2.7255623 0.43390897 0
5.9310002 2.717591 0.43393061 0
5.9340005 2.7091079 0.43394685 0
5.9370003 2.7006137 0.43396306 0
5.9400005 2.6921089 0.4339793 0
5.9430003 2.6835928 0.43399554 0
5.9460006 2.6750665 0.43401179 0
5.9500003 2.6670177 0.43403342 0
5.9530005 2.658468 0.43404967 0
5.9560003 2.6499069 0.43406588 0
5.9590006 2.6413352 0.43408212 0
5.9620004 2.6327527 0.43409836 0
5.9660006 2.6246393 0.43412 0
5.9690003 2.6160331 0.43413624 0
5.9720001 2.6074164 0.43415248 0
5.9750004 2.5987887 0.4341687 0
5.9780002 2.5901501 0.43418494 0
5.9820004 2.5819719 0.43420658 0
5.9850001 2.5733097 0.43422282 0
5.9880004 2.5646372 0.43423906 0
5.9910002 2.5559535 0.4342553 0
5.9950004 2.5477228 0.43427694 0
5.9980001 2.5390158 0.43429318 0
6.0010004 2.5302982 0.43430939 0
6.0040002 2.5215695 0.43432564 0
6.0080004 2.5132864 0.43434727 0
6.0110002 2.5045342 0.43436351 0
6.0140004 2.4957716 0.43437976 0
6.0170002 2.4869976 0.434396 0
6.0210004 2.4786623 0.43441764 0
6.0240002 2.4698651 0.43443388 0
6.0270004 2.4610572 0.43445009 0
6.0300002 2.4522381 0.43446633 0
6.0340004 2.4438508 0.43448797 0
6.0370002 2.4350083 0.43450421 0
6.0400004 2.4261553 0.43452045 0
6.0440001 2.4177277 0.43454209 0
6.0470004 2.4088514 0.43455833 0
6.0500002 2.3999639 0.43457457 0
6.0540004 2.3914969 0.43459621 0
6.0570002 2.382586 0.43461245 0
6.0600004 2.3736644 0.43462867 0
6.0630002 2.3647318 0.43464491 0
6.0670004 2.3562126 0.43466657 0
6.0700002 2.3472567 0.43468279 0
6.0730004 2.33829 0.43469903 0
6.0770001 2.3297307 0.43472067 0
6.0800004 2.3207407 0.43473691 0
6.0830002 2.3117394 0.43475315 0
6.0870004 2.3031411 0.43477479 0
6.0900002 2.2941165 0.43479103 0
6.0940003 2.2854908 0.43481266 0
6.0970006 2.2764428 0.43482891 0
6.1000004 2.2673841 0.43484515 0
6.1040006 2.2587185 0.43486679 0
6.1070004 2.2496364 0.434883 0
6.1100001 2.2405434 0.43489924 0
6.1140003 2.2318382 0.43492091 0
6.1170006 2.2227218 0.43493712 0
6.1210003 2.2139895 0.43495879 0
6.1240005 2.2048497 0.434975 0
6.1270003 2.195699 0.43499124 0
6.1310005 2.1869271 0.43501288 0
5.8070002 3.0457616 0.42350641 0
5.8100004 3.0377183 0.42351723 0
5.8130002 3.0296645 0.42352805 0
5.8160005 3.0215998 0.42353886 0
5.8190002 3.0135241 0.42354968 0
5.8220005 3.0054376 0.4235605 0
5.8250003 2.9973402 0.42357135 0
5.8280005 2.9892323 0.42358217 0
5.8310003 2.9811132 0.42359298 0
5.8340006 2.9729834 0.4236038 0
5.8370004 2.9648428 0.42361462 0
5.8400002 2.9566913 0.42362544 0
5.8430004 2.9485292 0.42363626 0
5.8460002 2.9403558 0.42364711 0
5.8490005 2.9321723 0.42365792 0
5.8520002 2.9239774 0.42366874 0
5.8560004 2.9163148 0.42368317 0
5.8590002 2.9080968 0.42369398 0
5.8620005 2.8998678 0.4237048 0
5.8650002 2.891628 0.42371565 0
5.8680005 2.8833773 0.42372647 0
5.8710003 2.8751159 0.42373729 0
5.8740005 2.8668437 0.42374811 0
5.8770003 2.8585606 0.42375892 0
5.8800006 2.8502667 0.42376974 0
5.8830004 2.8419621 0.42378056 0
5.8870006 2.8341715 0.42379501 0
5.8900003 2.8258431 0.42380583 0
5.8930001 2.8175039 0.42381665 0
5.8960004 2.8091543 0.42382747 0
5.8990002 2.8007934 0.42383829 0
5.9020004 2.7924223 0.42384911 0
5.9050002 2.7840397 0.42385995 0
5.9080005 2.7756467 0.42387077 0
5.9120002 2.7677531 0.4238852 0
5.9150004 2.7593367 0.42389601 0
5.9180002 2.7509091 0.42390683 0
5.9210005 2.7424712 0.42391765 0
5.9240003 2.7340219 0.4239285 0
5.9270005 2.7255623 0.42393932 0
5.9310002 2.717591 0.42395374 0
5.9340005 2.7091079 0.42396456 0
5.9370003 2.7006137 0.42397538 0
5.9400005 2.6921089 0.4239862 0
5.9430003 2.6835928 0.42399704 0
5.9460006 2.6750665 0.42400786 0
5.9500003 2.6670177 0.42402229 0
5.9530005 2.658468 0.42403311 0
5.9560003 2.6499069 0.42404392 0
5.9590006 2.6413352 0.42405474 0
5.9620004 2.6327527 0.42406559 0
5.9660006 2.6246393 0.42408001 0
5.9690003 2.6160331 0.42409083 0
5.9720001 2.6074164 0.42410165 0
5.9750004 2.5987887 0.42411247 0
5.9780002 2.5901501 0.42412329 0
5.9820004 2.5819719 0.42413774 0
5.9850001 2.5733097 0.42414856 0
5.9880004 2.5646372 0.42415938 0
5.9910002 2.5559535 0.4241702 0
5.9950004 2.5477228 0.42418462 0
5.9980001 2.5390158 0.42419544 0
6.0010004 2.5302982 0.42420629 0
6.0040002 2.5215695 0.4242171 0
6.0080004 2.5132864 0.42423153 0
6.0110002 2.5045342 0.42424235 0
6.0140004 2.4957716 0.42425317 0
6.0170002 2.4869976 0.42426398 0
6.0210004 2.4786623 0.42427844 0
6.0240002 2.4698651 0.42428926 0
6.0270004 2.4610572 0.42430007 0
6.0300002 2.4522381 0.42431089 0
6.0340004 2.4438508 0.42432532 0
6.0370002 2.4350083 0.42433614 0
6.0400004 2.4261553 0.42434698 0
6.0440001 2.4177277 0.42436141 0
6.0470004 2.4088514 0.42437223 0
6.0500002 2.3999639 0.42438304 0
6.0540004 2.3914969 0.42439747 0
6.0570002 2.382586 0.42440829 0
6.0600004 2.3736644 0.42441913 0
6.0630002 2.3647318 0.42442995 0
6.0670004 2.3562126 0.42444438 0
6.0700002 2.3472567 0.4244552 0
6.0730004 2.33829 0.42446601 0
6.0770001 2.3297307 0.42448044 0
6.0800004 2.3207407 0.42449129 0
6.0830002 2.3117394 0.4245021 0
6.0870004 2.3031411 0.42451653 0
6.0900002 2.2941165 0.42452735 0
6.0940003 2.2854908 0.42454177 0
6.0970006 2.2764428 0.42455262 0
6.1000004 2.2673841 0.42456344 0
6.1040006 2.2587185 0.42457786 0
6.1070004 2.2496364 0.42458868 0
6.1100001 2.2405434 0.4245995 0
6.1140003 2.2318382 0.42461392 0
6.1170006 2.2227218 0.42462477 0
6.1210003 2.2139895 0.4246392 0
6.1240005 2.2048497 0.42465001 0
6.1270003 2.195699 0.42466083 0
6.1310005 2.1869271 0.42467526 0
5.8070002 3.0457616 0.41375321 0
5.8100004 3.0377183 0.41375861 0
5.8130002 3.0296645 0.41376403 0
5.8160005 3.0215998 0.41376945 0
5.8190002 3.0135241 0.41377485 0
5.8220005 3.0054376 0.41378027 0
5.8250003 2.9973402 0.41378567 0
5.8280005 2.9892323 0.41379109 0
5.8310003 2.9811132 0.41379648 0
5.8340006 2.9729834 0.41380191 0
5.8370004 2.9648428 0.41380733 0
5.8400002 2.9566913 0.41381273 0
5.8430004 2.9485292 0.41381815 0
5.8460002 2.9403558 0.41382354 0
5.8490005 2.9321723 0.41382897 0
5.8520002 2.9239774 0.41383436 0
5.8560004 2.9163148 0.41384161 0
5.8590002 2.9080968 0.413847 0
5.8620005 2.8998678 0.41385242 0
5.8650002 2.891628 0.41385782 0
5.8680005 2.8833773 0.41386324 0
5.8710003 2.8751159 0.41386864 0
5.8740005 2.8668437 0.41387406 0
5.8770003 2.8585606 0.41387948 0
5.8800006 2.8502667 0.41388488 0
5.8830004 2.8419621 0.4138903 0
5.8870006 2.8341715 0.41389751 0
5.8900003 2.8258431 0.41390291 0
5.8930001 2.8175039 0.41390833 0
5.8960004 2.8091543 0.41391376 0
5.8990002 2.8007934 0.41391915 0
5.9020004 2.7924223 0.41392457 0
5.9050002 2.7840397 0.41392997 0
5.9080005 2.7756467 0.41393539 0
5.9120002 2.7677531 0.41394261 0
5.9150004 2.7593367 0.41394803 0
5.9180002 2.7509091 0.41395342 0
5.9210005 2.7424712 0.41395885 0
5.9240003 2.7340219 0.41396424 0
5.9270005 2.7255623 0.41396967 0
5.9310002 2.717591 0.41397688 0
5.9340005 2.7091079 0.4139823 0
5.9370003 2.7006137 0.4139877 0
5.9400005 2.6921089 0.41399312 0
5.9430003 2.6835928 0.41399851 0
5.9460006 2.6750665 0.41400394 0
5.9500003 2.6670177 0.41401115 0
5.9530005 2.658468 0.41401657 0
5.9560003 2.6499069 0.41402197 0
5.9590006 2.6413352 0.41402739 0
5.9620004 2.6327527 0.41403279 0
5.9660006 2.6246393 0.41404 0
5.9690003 2.6160331 0.41404542 0
5.9720001 2.6074164 0.41405085 0
5.9750004 2.5987887 0.41405624 0
5.9780002 2.5901501 0.41406167 0
5.9820004 2.5819719 0.41406888 0
5.9850001 2.5733097 0.41407427 0
5.9880004 2.5646372 0.4140797 0
5.9910002 2.5559535 0.41408512 0
5.9950004 2.5477228 0.41409233 0
5.9980001 2.5390158 0.41409773 0
6.0010004 2.5302982 0.41410315 0
6.0040002 2.5215695 0.41410854 0
6.0080004 2.5132864 0.41411576 0
6.0110002 2.5045342 0.41412118 0
6.0140004 2.4957716 0.4141266 0
6.0170002 2.4869976 0.414132 0
6.0210004 2.4786623 0.41413921 0
6.0240002 2.4698651 0.41414464 0
6.0270004 2.4610572 0.41415003 0
6.0300002 2.4522381 0.41415545 0
6.0340004 2.4438508 0.41416267 0
6.0370002 2.4350083 0.41416809 0
6.0400004 2.4261553 0.41417348 0
6.0440001 2.4177277 0.4141807 0
6.0470004 2.4088514 0.41418612 0
6.0500002 2.3999639 0.41419154 0
6.0540004 2.3914969 0.41419876 0
6.0570002 2.382586 0.41420415 0
6.0600004 2.3736644 0.41420957 0
6.0630002 2.3647318 0.41421497 0
6.0670004 2.3562126 0.41422218 0
6.0700002 2.3472567 0.4142276 0
6.0730004 2.33829 0.41423303 0
6.0770001 2.3297307 0.41424024 0
6.0800004 2.3207407 0.41424564 0
6.0830002 2.3117394 0.41425106 0
6.0870004 2.3031411 0.41425827 0
6.0900002 2.2941165 0.4142637 0
6.0940003 2.2854908 0.41427091 0
6.0970006 2.2764428 0.4142763 0
6.1000004 2.2673841 0.41428173 0
6.1040006 2.2587185 0.41428894 0
6.1070004 2.2496364 0.41429436 0
6.1100001 2.2405434 0.41429976 0
6.1140003 2.2318382 0.41430697 0
6.1170006 2.2227218 0.41431239 0
6.1210003 2.2139895 0.4143196 0
6.1240005 2.2048497 0.414325 0
6.1270003 2.195699 0.41433042 0
6.1310005 2.1869271 0.41433764 0
5.8070002 3.0457616 0.40400001 0
5.8100004 3.0377183 0.40400001 0
5.8130002 3.0296645 0.40400001 0
5.8160005 3.0215998 0.40400001 0
5.8190002 3.0135241 0.40400001 0
5.8220005 3.0054376 0.40400001 0
5.8250003 2.9973402 0.40400001 0
5.8280005 2.9892323 0.40400001 0
5.8310003 2.9811132 0.40400001 0
5.8340006 2.9729834 0.40400001 0
5.8370004 2.9648428 0.40400001 0
5.8400002 2.9566913 0.40400001 0
5.8430004 2.9485292 0.40400001 0
5.8460002 2.9403558 0.40400001 0
5.8490005 2.9321723 0.40400001 0
5.8520002 2.9239774 0.40400001 0
5.8560004 2.9163148 0.40400001 0
5.8590002 2.9080968 0.40400001 0
5.8620005 2.8998678 0.40400001 0
5.8650002 2.891628 0.40400001 0
5.8680005 2.8833773 0.40400001 0
5.8710003 2.8751159 0.40400001 0
5.8740005 2.8668437 0.40400001 0
5.8770003 2.8585606 0.40400001 0
5.8800006 2.8502667 0.40400001 0
5.8830004 2.8419621 0.40400001 0
5.8870006 2.8341715 0.40400001 0
5.8900003 2.8258431 0.40400001 0
5.8930001 2.8175039 0.40400001 0
5.8960004 2.8091543 0.40400001 0
5.8990002 2.8007934 0.40400001 0
5.9020004 2.7924223 0.40400001 0
5.9050002 2.7840397 0.40400001 0
5.9080005 2.7756467 0.40400001 0
5.9120002 2.7677531 0.40400001 0
5.9150004 2.7593367 0.40400001 0
5.9180002 2.7509091 0.40400001 0
5.9210005 2.7424712 0.40400001 0
5.9240003 2.7340219 0.40400001 0
5.9270005 2.7255623 0.40400001 0
5.9310002 2.717591 0.40400001 0
5.9340005 2.7091079 0.40400001 0
5.9370003 2.7006137 0.40400001 0
5.9400005 2.6921089 0.40400001 0
5.9430003 2.6835928 0.40400001 0
5.9460006 2.6750665 0.40400001 0
5.9500003 2.6670177 0.40400001 0
5.9530005 2.658468 0.40400001 0
5.9560003 2.6499069 0.40400001 0
5.9590006 2.6413352 0.40400001 0
5.9620004 2.6327527 0.40400001 0
5.9660006 2.6246393 0.40400001 0
5.9690003 2.6160331 0.40400001 0
5.9720001 2.6074164 0.40400001 0
5.9750004 2.5987887 0.40400001 0
5.9780002 2.5901501 0.40400001 0
5.9820004 2.5819719 0.40400001 0
5.9850001 2.5733097 0.40400001 0
5.9880004 2.5646372 0.40400001 0
5.9910002 2.5559535 0.40400001 0
5.9950004 2.5477228 0.40400001 0
5.9980001 2.5390158 0.40400001 0
6.0010004 2.5302982 0.40400001 0
6.0040002 2.5215695 0.40400001 0
6.0080004 2.5132864 0.40400001 0
6.0110002 2.5045342 0.40400001 0
6.0140004 2.4957716 0.40400001 0
6.0170002 2.4869976 0.40400001 0
6.0210004 2.4786623 0.40400001 0
6.0240002 2.4698651 0.40400001 0
6.0270004 2.4610572 0.40400001 0
6.0300002 2.4522381 0.40400001 0
6.0340004 2.4438508 0.40400001 0
6.0370002 2.4350083 0.40400001 0
6.0400004 2.4261553 0.40400001 0
6.0440001 2.4177277 0.40400001 0
6.0470004 2.4088514 0.40400001 0
6.0500002 2.3999639 0.40400001 0
6.0540004 2.3914969 0.40400001 0
6.0570002 2.382586 0.40400001 0
6.0600004 2.3736644 0.40400001 0
6.0630002 2.3647318 0.40400001 0
6.0670004 2.3562126 0.40400001 0
6.0700002 2.3472567 0.40400001 0
6.0730004 2.33829 0.40400001 0
6.0770001 2.3297307 0.40400001 0
6.0800004 2.3207407 0.40400001 0
6.0830002 2.3117394 0.40400001 0
6.0870004 2.3031411 0.40400001 0
6.0900002 2.2941165 0.40400001 0
6.0940003 2.2854908 0.40400001 0
6.0970006 2.2764428 0.40400001 0
6.1000004 2.2673841 0.40400001 0
6.1040006 2.2587185 0.40400001 0
6.1070004 2.2496364 0.40400001 0
6.1100001 2.2405434 0.40400001 0
6.1140003 2.2318382 0.40400001 0
6.1170006 2.2227218 0.40400001 0
6.1210003 2.2139895 0.40400001 0
6.1240005 2.2048497 0.40400001 0
6.1270003 2.195699 0.40400001 0
6.1310005 2.1869271 0.40400001 0
5.8070002 3.0457616 0.39424682 0
5.8100004 3.0377183 0.39424142 0
5.8130002 3.0296645 0.394236 0
5.8160005 3.0215998 0.39423057 0
5.8190002 3.0135241 0.39422518 0
5.8220005 3.0054376 0.39421976 0
5.8250003 2.9973402 0.39421436 0
5.8280005 2.9892323 0.39420894 0
5.8310003 2.9811132 0.39420354 0
5.8340006 2.9729834 0.39419812 0
5.8370004 2.9648428 0.3941927 0
5.8400002 2.9566913 0.3941873 0
5.8430004 2.9485292 0.39418188 0
5.8460002 2.9403558 0.39417648 0
5.8490005 2.9321723 0.39417106 0
5.8520002 2.9239774 0.39416566 0
5.8560004 2.9163148 0.39415842 0
5.8590002 2.9080968 0.39415303 0
5.8620005 2.8998678 0.3941476 0
5.8650002 2.891628 0.39414221 0
5.8680005 2.8833773 0.39413679 0
5.8710003 2.8751159 0.39413139 0
5.8740005 2.8668437 0.39412597 0
5.8770003 2.8585606 0.39412054 0
5.8800006 2.8502667 0.39411515 0
5.8830004 2.8419621 0.39410973 0
5.8870006 2.8341715 0.39410251 0
5.8900003 2.8258431 0.39409712 0
5.8930001 2.8175039 0.3940917 0
5.8960004 2.8091543 0.39408627 0
5.8990002 2.8007934 0.39408088 0
5.9020004 2.7924223 0.39407545 0
5.9050002 2.7840397 0.39407006 0
5.9080005 2.7756467 0.39406464 0
5.9120002 2.7677531 0.39405742 0
5.9150004 2.7593367 0.394052 0
5.9180002 2.7509091 0.3940466 0
5.9210005 2.7424712 0.39404118 0
5.9240003 2.7340219 0.39403579 0
5.9270005 2.7255623 0.39403036 0
5.9310002 2.717591 0.39402315 0
5.9340005 2.7091079 0.39401773 0
5.9370003 2.7006137 0.39401233 0
5.9400005 2.6921089 0.39400691 0
5.9430003 2.6835928 0.39400151 0
5.9460006 2.6750665 0.39399609 0
5.9500003 2.6670177 0.39398888 0
5.9530005 2.658468 0.39398345 0
5.9560003 2.6499069 0.39397806 0
5.9590006 2.6413352 0.39397264 0
5.9620004 2.6327527 0.39396724 0
5.9660006 2.6246393 0.39396003 0
5.9690003 2.6160331 0.3939546 0
5.9720001 2.6074164 0.39394918 0
5.9750004 2.5987887 0.39394379 0
5.9780002 2.5901501 0.39393836 0
5.9820004 2.5819719 0.39393115 0
5.9850001 2.5733097 0.39392576 0
5.9880004 2.5646372 0.39392033 0
5.9910002 2.5559535 0.39391491 0
5.9950004 2.5477228 0.3939077 0
5.9980001 2.5390158 0.3939023 0
6.0010004 2.5302982 0.39389688 0
6.0040002 2.5215695 0.39389148 0
6.0080004 2.5132864 0.39388427 0
6.0110002 2.5045342 0.39387885 0
6.0140004 2.4957716 0.39387342 0
6.0170002 2.4869976 0.39386803 0
6.0210004 2.4786623 0.39386082 0
6.0240002 2.4698651 0.39385539 0
6.0270004 2.4610572 0.39385 0
6.0300002 2.4522381 0.39384457 0
6.0340004 2.4438508 0.39383736 0
6.0370002 2.4350083 0.39383194 0
6.0400004 2.4261553 0.39382654 0
6.0440001 2.4177277 0.39381933 0
6.0470004 2.4088514 0.39381391 0
6.0500002 2.3999639 0.39380848 0
6.0540004 2.3914969 0.39380127 0
6.0570002 2.382586 0.39379588 0
6.0600004 2.3736644 0.39379045 0
6.0630002 2.3647318 0.39378506 0
6.0670004 2.3562126 0.39377785 0
6.0700002 2.3472567 0.39377242 0
6.0730004 2.33829 0.393767 0
6.0770001 2.3297307 0.39375979 0
6.0800004 2.3207407 0.39375439 0
6.0830002 2.3117394 0.39374897 0
6.0870004 2.3031411 0.39374176 0
6.0900002 2.2941165 0.39373633 0
6.0940003 2.2854908 0.39372912 0
6.0970006 2.2764428 0.39372373 0
6.1000004 2.2673841 0.3937183 0
6.1040006 2.2587185 0.39371109 0
6.1070004 2.2496364 0.39370567 0
6.1100001 2.2405434 0.39370027 0
6.1140003 2.2318382 0.39369306 0
6.1170006 2.2227218 0.39368764 0
6.1210003 2.2139895 0.39368042 0
6.1240005 2.2048497 0.39367503 0
6.1270003 2.195699 0.39366961 0
6.1310005 2.1869271 0.39366239 0
5.8070002 3.0457616 0.38449362 0
5.8100004 3.0377183 0.3844828 0
5.8130002 3.0296645 0.38447198 0
5.8160005 3.0215998 0.38446116 0
5.8190002 3.0135241 0.38445035 0
5.8220005 3.0054376 0.38443953 0
5.8250003 2.9973402 0.38442868 0
5.8280005 2.9892323 0.38441786 0
5.8310003 2.9811132 0.38440704 0
5.8340006 2.9729834 0.38439623 0
5.8370004 2.9648428 0.38438541 0
5.8400002 2.9566913 0.38437459 0
5.8430004 2.9485292 0.38436377 0
5.8460002 2.9403558 0.38435292 0
5.8490005 2.9321723 0.3843421 0
5.8520002 2.9239774 0.38433129 0
5.8560004 2.9163148 0.38431686 0
5.8590002 2.9080968 0.38430604 0
5.8620005 2.8998678 0.38429523 0
5.8650002 2.891628 0.38428438 0
5.8680005 2.8833773 0.38427356 0
5.8710003 2.8751159 0.38426274 0
5.8740005 2.8668437 0.38425192 0
5.8770003 2.8585606 0.3842411 0
5.8800006 2.8502667 0.38423029 0
5.8830004 2.8419621 0.38421947 0
5.8870006 2.8341715 0.38420501 0
5.8900003 2.8258431 0.3841942 0
5.8930001 2.8175039 0.38418338 0
5.8960004 2.8091543 0.38417256 0
5.8990002 2.8007934 0.38416174 0
5.9020004 2.7924223 0.38415092 0
5.9050002 2.7840397 0.38414007 0
5.9080005 2.7756467 0.38412926 0
5.9120002 2.7677531 0.38411483 0
5.9150004 2.7593367 0.38410401 0
5.9180002 2.7509091 0.3840932 0
5.9210005 2.7424712 0.38408238 0
5.9240003 2.7340219 0.38407153 0
5.9270005 2.7255623 0.38406071 0
5.9310002 2.717591 0.38404629 0
5.9340005 2.7091079 0.38403547 0
5.9370003 2.7006137 0.38402465 0
5.9400005 2.6921089 0.38401383 0
5.9430003 2.6835928 0.38400298 0
5.9460006 2.6750665 0.38399217 0
5.9500003 2.6670177 0.38397774 0
5.9530005 2.658468 0.38396692 0
5.9560003 2.6499069 0.3839561 0
5.9590006 2.6413352 0.38394529 0
5.9620004 2.6327527 0.38393444 0
5.9660006 2.6246393 0.38392001 0
5.9690003 2.6160331 0.3839092 0
5.9720001 2.6074164 0.38389838 0
5.9750004 2.5987887 0.38388756 0
5.9780002 2.5901501 0.38387674 0
5.9820004 2.5819719 0.38386229 0
5.9850001 2.5733097 0.38385147 0
5.9880004 2.5646372 0.38384065 0
5.9910002 2.5559535 0.38382983 0
5.9950004 2.5477228 0.38381541 0
5.9980001 2.5390158 0.38380459 0
6.0010004 2.5302982 0.38379374 0
6.0040002 2.5215695 0.38378292 0
6.0080004 2.5132864 0.3837685 0
6.0110002 2.5045342 0.38375768 0
6.0140004 2.4957716 0.38374686 0
6.0170002 2.4869976 0.38373604 0
6.0210004 2.4786623 0.38372159 0
6.0240002 2.4698651 0.38371077 0
6.0270004 2.4610572 0.38369995 0
6.0300002 2.4522381 0.38368914 0
6.0340004 2.4438508 0.38367471 0
6.0370002 2.4350083 0.38366389 0
6.0400004 2.4261553 0.38365304 0
6.0440001 2.4177277 0.38363862 0
6.0470004 2.4088514 0.3836278 0
6.0500002 2.3999639 0.38361698 0
6.0540004 2.3914969 0.38360256 0
6.0570002 2.382586 0.38359174 0
6.0600004 2.3736644 0.38358089 0
6.0630002 2.3647318 0.38357008 0
6.0670004 2.3562126 0.38355565 0
6.0700002 2.3472567 0.38354483 0
6.0730004 2.33829 0.38353401 0
6.0770001 2.3297307 0.38351959 0
6.0800004 2.3207407 0.38350874 0
6.0830002 2.3117394 0.38349792 0
6.0870004 2.3031411 0.3834835 0
6.0900002 2.2941165 0.38347268 0
6.0940003 2.2854908 0.38345826 0
6.0970006 2.2764428 0.38344741 0
6.1000004 2.2673841 0.38343659 0
6.1040006 2.2587185 0.38342217 0
6.1070004 2.2496364 0.38341135 0
6.1100001 2.2405434 0.38340053 0
6.1140003 2.2318382 0.38338611 0
6.1170006 2.2227218 0.38337526 0
6.1210003 2.2139895 0.38336083 0
6.1240005 2.2048497 0.38335001 0
6.1270003 2.195699 0.3833392 0
6.1310005 2.1869271 0.38332477 0
5.8070002 3.0457616 0.37474045 0
5.8100004 3.0377183 0.37472421 0
5.8130002 3.0296645 0.37470797 0
5.8160005 3.0215998 0.37469172 0
5.8190002 3.0135241 0.37467551 0
5.8220005 3.0054376 0.37465927 0
5.8250003 2.9973402 0.37464303 0
5.8280005 2.9892323 0.37462682 0
5.8310003 2.9811132 0.37461057 0
5.8340006 2.9729834 0.37459433 0
5.8370004 2.9648428 0.37457809 0
5.8400002 2.9566913 0.37456188 0
5.8430004 2.9485292 0.37454563 0
5.8460002 2.9403558 0.37452939 0
5.8490005 2.9321723 0.37451315 0
5.8520002 2.9239774 0.37449694 0
5.8560004 2.9163148 0.37447527 0
5.8590002 2.9080968 0.37445906 0
5.8620005 2.8998678 0.37444282 0
5.8650002 2.891628 0.37442657 0
5.8680005 2.8833773 0.37441033 0
5.8710003 2.8751159 0.37439412 0
5.8740005 2.8668437 0.37437788 0
5.8770003 2.8585606 0.37436163 0
5.8800006 2.8502667 0.37434539 0
5.8830004 2.8419621 0.37432918 0
5.8870006 2.8341715 0.37430751 0
5.8900003 2.8258431 0.3742913 0
5.8930001 2.8175039 0.37427506 0
5.8960004 2.8091543 0.37425882 0
5.8990002 2.8007934 0.3742426 0
5.9020004 2.7924223 0.37422636 0
5.9050002 2.7840397 0.37421012 0
5.9080005 2.7756467 0.37419388 0
5.9120002 2.7677531 0.37417224 0
5.9150004 2.7593367 0.374156 0
5.9180002 2.7509091 0.37413979 0
5.9210005 2.7424712 0.37412354 0
5.9240003 2.7340219 0.3741073 0
5.9270005 2.7255623 0.37409106 0
5.9310002 2.717591 0.37406942 0
5.9340005 2.7091079 0.37405318 0
5.9370003 2.7006137 0.37403697 0
5.9400005 2.6921089 0.37402073 0
5.9430003 2.6835928 0.37400448 0
5.9460006 2.6750665 0.37398824 0
5.9500003 2.6670177 0.3739666 0
5.9530005 2.658468 0.37395036 0
5.9560003 2.6499069 0.37393415 0
5.9590006 2.6413352 0.37391791 0
5.9620004 2.6327527 0.37390167 0
5.9660006 2.6246393 0.37388003 0
5.9690003 2.6160331 0.37386379 0
5.9720001 2.6074164 0.37384754 0
5.9750004 2.5987887 0.37383133 0
5.9780002 2.5901501 0.37381509 0
5.9820004 2.5819719 0.37379345 0
5.9850001 2.5733097 0.37377721 0
5.9880004 2.5646372 0.37376097 0
5.9910002 2.5559535 0.37374473 0
5.9950004 2.5477228 0.37372309 0
5.9980001 2.5390158 0.37370685 0
6.0010004 2.5302982 0.37369063 0
6.0040002 2.5215695 0.37367439 0
6.0080004 2.5132864 0.37365276 0
6.0110002 2.5045342 0.37363651 0
6.0140004 2.4957716 0.37362027 0
6.0170002 2.4869976 0.37360403 0
6.0210004 2.4786623 0.37358239 0
6.0240002 2.4698651 0.37356615 0
6.0270004 2.4610572 0.37354994 0
6.0300002 2.4522381 0.3735337 0
6.0340004 2.4438508 0.37351206 0
6.0370002 2.4350083 0.37349582 0
6.0400004 2.4261553 0.37347957 0
6.0440001 2.4177277 0.37345794 0
6.0470004 2.4088514 0.3734417 0
6.0500002 2.3999639 0.37342545 0
6.0540004 2.3914969 0.37340382 0
6.0570002 2.382586 0.37338758 0
6.0600004 2.3736644 0.37337136 0
6.0630002 2.3647318 0.37335512 0
6.0670004 2.3562126 0.37333345 0
6.0700002 2.3472567 0.37331724 0
6.0730004 2.33829 0.373301 0
6.0770001 2.3297307 0.37327936 0
6.0800004 2.3207407 0.37326312 0
6.0830002 2.3117394 0.37324688 0
6.0870004 2.3031411 0.37322524 0
6.0900002 2.2941165 0.373209 0
6.0940003 2.2854908 0.37318736 0
6.0970006 2.2764428 0.37317112 0
6.1000004 2.2673841 0.37315488 0
6.1040006 2.2587185 0.37313324 0
6.1070004 2.2496364 0.37311703 0
6.1100001 2.2405434 0.37310079 0
6.1140003 2.2318382 0.37307912 0
6.1170006 2.2227218 0.37306291 0
6.1210003 2.2139895 0.37304124 0
6.1240005 2.2048497 0.37302503 0
6.1270003 2.195699 0.37300879 0
6.1310005 2.1869271 0.37298715 0
5.8070002 3.0457616 0.36498725 0
5.8100004 3.0377183 0.36496562 0
5.8130002 3.0296645 0.36494395 0
5.8160005 3.0215998 0.36492231 0
5.8190002 3.0135241 0.36490068 0
5.8220005 3.0054376 0.36487901 0
5.8250003 2.9973402 0.36485738 0
5.8280005 2.9892323 0.36483574 0
5.8310003 2.9811132 0.36481407 0
5.8340006 2.9729834 0.36479244 0
5.8370004 2.9648428 0.3647708 0
5.8400002 2.9566913 0.36474913 0
5.8430004 2.9485292 0.3647275 0
5.8460002 2.9403558 0.36470586 0
5.8490005 2.9321723 0.36468422 0
5.8520002 2.9239774 0.36466256 0
5.8560004 2.9163148 0.36463371 0
5.8590002 2.9080968 0.36461204 0
5.8620005 2.8998678 0.36459041 0
5.8650002 2.891628 0.36456877 0
5.8680005 2.8833773 0.36454713 0
5.8710003 2.8751159 0.36452547 0
5.8740005 2.8668437 0.36450383 0
