# .PCD v0.7 - Point Cloud Data file format
VERSION 0.7
FIELDS x y z intensity
SIZE 4 4 4 4
TYPE F F F F
COUNT 1 1 1 1
WIDTH 1443
HEIGHT 1
VIEWPOINT 0 0 0 1 0 0 0
POINTS 1443
DATA ascii
6.0760002 -2.9537098 1.0899738 0
6.0690002 -2.9603498 1.0891278 0
6.0630002 -2.9674802 1.0884027 0
6.0570002 -2.9745889 1.0876776 0
6.0510006 -2.9816763 1.0869524 0
6.0450006 -2.9887419 1.0862274 0
6.0380006 -2.9952626 1.0853814 0
6.0320005 -3.0022831 1.0846562 0
6.0260005 -3.0092819 1.0839311 0
6.0200005 -3.016259 1.0832061 0
6.0140004 -3.0232143 1.0824809 0
6.0080004 -3.0301483 1.0817558 0
6.0020003 -3.0370603 1.0810306 0
5.9960003 -3.043951 1.0803055 0
5.9900002 -3.0508199 1.0795803 0
5.9840002 -3.057667 1.0788552 0
5.9770002 -3.0639515 1.0780091 0
5.9710002 -3.0707536 1.0772841 0
5.9650002 -3.0775342 1.0765589 0
5.9590006 -3.0842934 1.0758338 0
5.9530005 -3.0910306 1.0751086 0
5.9470005 -3.0977459 1.0743835 0
5.9420004 -3.1049917 1.0737792 0
5.9360003 -3.111666 1.0730541 0
5.9300003 -3.1183183 1.072329 0
5.9240003 -3.124949 1.0716039 0
5.9180002 -3.1315582 1.0708787 0
5.9120002 -3.1381457 1.0701536 0
5.9060001 -3.1447117 1.0694284 0
5.9000006 -3.1512558 1.0687034 0
5.8940005 -3.1577785 1.0679783 0
5.8880005 -3.1642795 1.0672531 0
5.8830004 -3.1713285 1.0666488 0
5.8770003 -3.177788 1.0659237 0
6.4840002 -2.4932842 1.1283084 0
6.4770002 -2.5014303 1.127475 0
6.4700003 -2.509551 1.1266416 0
6.4620004 -2.5172389 1.1256893 0
6.4550004 -2.5253074 1.1248559 0
6.4480004 -2.5333507 1.1240226 0
6.4410005 -2.5413685 1.1231892 0
6.4340005 -2.5493612 1.1223558 0
6.4270005 -2.5573285 1.1215225 0
6.4200006 -2.5652709 1.1206892 0
6.4130006 -2.5731876 1.1198558 0
6.4060006 -2.5810795 1.1190224 0
6.3990002 -2.5889456 1.118189 0
6.3920002 -2.596787 1.1173557 0
6.3850002 -2.6046028 1.1165223 0
6.3780003 -2.6123934 1.1156889 0
6.3710003 -2.6201589 1.1148555 0
6.3640003 -2.6278989 1.1140223 0
6.3570004 -2.6356139 1.1131889 0
6.3510003 -2.6437399 1.1124746 0
6.3440003 -2.6514063 1.1116412 0
6.3370004 -2.6590471 1.1108078 0
6.3300004 -2.6666629 1.1099745 0
6.3230004 -2.6742532 1.1091411 0
6.3160005 -2.6818185 1.1083077 0
6.3100004 -2.6898055 1.1075934 0
6.3030005 -2.6973221 1.1067601 0
6.2960005 -2.7048135 1.1059268 0
6.2890005 -2.7122796 1.1050934 0
6.2830005 -2.7201746 1.1043791 0
6.2760005 -2.7275918 1.1035458 0
6.2690005 -2.7349839 1.1027124 0
6.2630005 -2.7428105 1.1019981 0
6.2560005 -2.750154 1.1011647 0
6.2490005 -2.757472 1.1003313 0
6.2430005 -2.7652302 1.099617 0
6.2360005 -2.7724996 1.0987836 0
6.2300005 -2.7802124 1.0980693 0
6.2230005 -2.7874331 1.097236 0
6.2160006 -2.7946286 1.0964026 0
6.2100005 -2.8022733 1.0956883 0
6.2030005 -2.8094199 1.094855 0
6.1970005 -2.8170192 1.0941406 0
6.1900005 -2.8241174 1.0933073 0
6.1840005 -2.8316717 1.092593 0
6.1770005 -2.8387208 1.0917597 0
6.1710005 -2.84623 1.0910453 0
6.1640005 -2.8532307 1.090212 0
6.1580005 -2.8606949 1.0894977 0
6.1520004 -2.8681374 1.0887834 0
6.1450005 -2.8750658 1.08795 0
6.1390004 -2.8824632 1.0872357 0
6.1320004 -2.8893428 1.0864023 0
6.1260004 -2.8966954 1.085688 0
6.1200004 -2.9040258 1.0849737 0
6.1130004 -2.9108336 1.0841403 0
6.1070004 -2.918119 1.083426 0
6.1010003 -2.9253829 1.0827117 0
6.0940003 -2.9321184 1.0818783 0
6.0880003 -2.9393373 1.081164 0
6.0820003 -2.9465344 1.0804497 0
6.0760002 -2.9537098 1.0797354 0
6.0690002 -2.9603498 1.0789021 0
6.0630002 -2.9674802 1.0781877 0
6.0570002 -2.9745889 1.0774734 0
6.0510006 -2.9816763 1.0767592 0
6.0450006 -2.9887419 1.0760449 0
6.0380006 -2.9952626 1.0752115 0
6.0320005 -3.0022831 1.0744972 0
6.0260005 -3.0092819 1.0737829 0
6.0200005 -3.016259 1.0730685 0
6.0140004 -3.0232143 1.0723542 0
6.0080004 -3.0301483 1.0716399 0
6.0020003 -3.0370603 1.0709257 0
5.9960003 -3.043951 1.0702113 0
5.9900002 -3.0508199 1.069497 0
5.9840002 -3.057667 1.0687827 0
5.9770002 -3.0639515 1.0679493 0
5.9710002 -3.0707536 1.067235 0
5.9650002 -3.0775342 1.0665207 0
5.9590006 -3.0842934 1.0658065 0
5.9530005 -3.0910306 1.0650921 0
5.9470005 -3.0977459 1.0643778 0
5.9420004 -3.1049917 1.0637826 0
5.9360003 -3.111666 1.0630683 0
5.9300003 -3.1183183 1.062354 0
5.9240003 -3.124949 1.0616397 0
5.9180002 -3.1315582 1.0609254 0
5.9120002 -3.1381457 1.0602109 0
5.9060001 -3.1447117 1.0594966 0
5.9000006 -3.1512558 1.0587825 0
5.8940005 -3.1577785 1.0580682 0
5.8880005 -3.1642795 1.0573539 0
5.8830004 -3.1713285 1.0567585 0
5.8770003 -3.177788 1.0560442 0
6.4840002 -2.4932842 1.117334 0
6.4770002 -2.5014303 1.1165133 0
6.4700003 -2.509551 1.1156925 0
6.4620004 -2.5172389 1.1147546 0
6.4550004 -2.5253074 1.1139338 0
6.4480004 -2.5333507 1.1131132 0
6.4410005 -2.5413685 1.1122924 0
6.4340005 -2.5493612 1.1114717 0
6.4270005 -2.5573285 1.1106509 0
6.4200006 -2.5652709 1.1098301 0
6.4130006 -2.5731876 1.1090095 0
6.4060006 -2.5810795 1.1081887 0
6.3990002 -2.5889456 1.107368 0
6.3920002 -2.596787 1.1065472 0
6.3850002 -2.6046028 1.1057265 0
6.3780003 -2.6123934 1.1049057 0
6.3710003 -2.6201589 1.1040851 0
6.3640003 -2.6278989 1.1032643 0
6.3570004 -2.6356139 1.1024436 0
6.3510003 -2.6437399 1.1017401 0
6.3440003 -2.6514063 1.1009194 0
6.3370004 -2.6590471 1.1000986 0
6.3300004 -2.6666629 1.0992779 0
6.3230004 -2.6742532 1.0984572 0
6.3160005 -2.6818185 1.0976365 0
6.3100004 -2.6898055 1.096933 0
6.3030005 -2.6973221 1.0961123 0
6.2960005 -2.7048135 1.0952915 0
6.2890005 -2.7122796 1.0944707 0
6.2830005 -2.7201746 1.0937673 0
6.2760005 -2.7275918 1.0929465 0
6.2690005 -2.7349839 1.0921258 0
6.2630005 -2.7428105 1.0914223 0
6.2560005 -2.750154 1.0906016 0
6.2490005 -2.757472 1.0897808 0
6.2430005 -2.7652302 1.0890774 0
6.2360005 -2.7724996 1.0882566 0
6.2300005 -2.7802124 1.0875531 0
6.2230005 -2.7874331 1.0867324 0
6.2160006 -2.7946286 1.0859118 0
6.2100005 -2.8022733 1.0852082 0
6.2030005 -2.8094199 1.0843875 0
6.1970005 -2.8170192 1.083684 0
6.1900005 -2.8241174 1.0828633 0
6.1840005 -2.8316717 1.0821598 0
6.1770005 -2.8387208 1.081339 0
6.1710005 -2.84623 1.0806355 0
6.1640005 -2.8532307 1.0798148 0
6.1580005 -2.8606949 1.0791113 0
6.1520004 -2.8681374 1.0784079 0
6.1450005 -2.8750658 1.0775871 0
6.1390004 -2.8824632 1.0768837 0
6.1320004 -2.8893428 1.0760629 0
6.1260004 -2.8966954 1.0753595 0
6.1200004 -2.9040258 1.0746559 0
6.1130004 -2.9108336 1.0738353 0
6.1070004 -2.918119 1.0731317 0
6.1010003 -2.9253829 1.0724282 0
6.0940003 -2.9321184 1.0716075 0
6.0880003 -2.9393373 1.070904 0
6.0820003 -2.9465344 1.0702006 0
6.0760002 -2.9537098 1.069497 0
6.0690002 -2.9603498 1.0686762 0
6.0630002 -2.9674802 1.0679728 0
6.0570002 -2.9745889 1.0672693 0
6.0510006 -2.9816763 1.0665659 0
6.0450006 -2.9887419 1.0658623 0
6.0380006 -2.9952626 1.0650417 0
6.0320005 -3.0022831 1.0643381 0
6.0260005 -3.0092819 1.0636346 0
6.0200005 -3.016259 1.0629312 0
6.0140004 -3.0232143 1.0622277 0
6.0080004 -3.0301483 1.0615242 0
6.0020003 -3.0370603 1.0608207 0
5.9960003 -3.043951 1.0601172 0
5.9900002 -3.0508199 1.0594137 0
5.9840002 -3.057667 1.0587102 0
5.9770002 -3.0639515 1.0578895 0
5.9710002 -3.0707536 1.057186 0
5.9650002 -3.0775342 1.0564826 0
5.9590006 -3.0842934 1.0557791 0
5.9530005 -3.0910306 1.0550756 0
5.9470005 -3.0977459 1.0543721 0
5.9420004 -3.1049917 1.0537858 0
5.9360003 -3.111666 1.0530823 0
5.9300003 -3.1183183 1.0523789 0
5.9240003 -3.124949 1.0516753 0
5.9180002 -3.1315582 1.0509719 0
5.9120002 -3.1381457 1.0502684 0
5.9060001 -3.1447117 1.049565 0
5.9000006 -3.1512558 1.0488615 0
5.8940005 -3.1577785 1.0481579 0
5.8880005 -3.1642795 1.0474545 0
5.8830004 -3.1713285 1.0468682 0
5.8770003 -3.177788 1.0461648 0
6.4840002 -2.4932842 1.1063596 0
6.4770002 -2.5014303 1.1055515 0
6.4700003 -2.509551 1.1047435 0
6.4620004 -2.5172389 1.1038198 0
6.4550004 -2.5253074 1.1030117 0
6.4480004 -2.5333507 1.1022037 0
6.4410005 -2.5413685 1.1013956 0
6.4340005 -2.5493612 1.1005875 0
6.4270005 -2.5573285 1.0997794 0
6.4200006 -2.5652709 1.0989712 0
6.4130006 -2.5731876 1.0981631 0
6.4060006 -2.5810795 1.097355 0
6.3990002 -2.5889456 1.0965469 0
6.3920002 -2.596787 1.0957388 0
6.3850002 -2.6046028 1.0949306 0
6.3780003 -2.6123934 1.0941226 0
6.3710003 -2.6201589 1.0933145 0
6.3640003 -2.6278989 1.0925064 0
6.3570004 -2.6356139 1.0916983 0
6.3510003 -2.6437399 1.0910057 0
6.3440003 -2.6514063 1.0901976 0
6.3370004 -2.6590471 1.0893894 0
6.3300004 -2.6666629 1.0885813 0
6.3230004 -2.6742532 1.0877732 0
6.3160005 -2.6818185 1.0869651 0
6.3100004 -2.6898055 1.0862725 0
6.3030005 -2.6973221 1.0854644 0
6.2960005 -2.7048135 1.0846562 0
6.2890005 -2.7122796 1.0838481 0
6.2830005 -2.7201746 1.0831555 0
6.2760005 -2.7275918 1.0823474 0
6.2690005 -2.7349839 1.0815393 0
6.2630005 -2.7428105 1.0808465 0
6.2560005 -2.750154 1.0800385 0
6.2490005 -2.757472 1.0792304 0
6.2430005 -2.7652302 1.0785377 0
6.2360005 -2.7724996 1.0777296 0
6.2300005 -2.7802124 1.077037 0
6.2230005 -2.7874331 1.0762289 0
6.2160006 -2.7946286 1.0754207 0
6.2100005 -2.8022733 1.0747281 0
6.2030005 -2.8094199 1.07392 0
6.1970005 -2.8170192 1.0732273 0
6.1900005 -2.8241174 1.0724192 0
6.1840005 -2.8316717 1.0717266 0
6.1770005 -2.8387208 1.0709184 0
6.1710005 -2.84623 1.0702257 0
6.1640005 -2.8532307 1.0694177 0
6.1580005 -2.8606949 1.068725 0
6.1520004 -2.8681374 1.0680324 0
6.1450005 -2.8750658 1.0672243 0
6.1390004 -2.8824632 1.0665315 0
6.1320004 -2.8893428 1.0657234 0
6.1260004 -2.8966954 1.0650308 0
6.1200004 -2.9040258 1.0643381 0
6.1130004 -2.9108336 1.0635301 0
6.1070004 -2.918119 1.0628374 0
6.1010003 -2.9253829 1.0621446 0
6.0940003 -2.9321184 1.0613366 0
6.0880003 -2.9393373 1.0606439 0
6.0820003 -2.9465344 1.0599513 0
6.0760002 -2.9537098 1.0592586 0
6.0690002 -2.9603498 1.0584505 0
6.0630002 -2.9674802 1.0577579 0
6.0570002 -2.9745889 1.0570651 0
6.0510006 -2.9816763 1.0563725 0
6.0450006 -2.9887419 1.0556799 0
6.0380006 -2.9952626 1.0548718 0
6.0320005 -3.0022831 1.0541791 0
6.0260005 -3.0092819 1.0534865 0
6.0200005 -3.016259 1.0527937 0
6.0140004 -3.0232143 1.0521011 0
6.0080004 -3.0301483 1.0514084 0
6.0020003 -3.0370603 1.0507158 0
5.9960003 -3.043951 1.0500231 0
5.9900002 -3.0508199 1.0493305 0
5.9840002 -3.057667 1.0486377 0
5.9770002 -3.0639515 1.0478296 0
5.9710002 -3.0707536 1.047137 0
5.9650002 -3.0775342 1.0464443 0
5.9590006 -3.0842934 1.0457517 0
5.9530005 -3.0910306 1.0450591 0
5.9470005 -3.0977459 1.0443664 0
5.9420004 -3.1049917 1.0437891 0
5.9360003 -3.111666 1.0430965 0
5.9300003 -3.1183183 1.0424038 0
5.9240003 -3.124949 1.0417111 0
5.9180002 -3.1315582 1.0410185 0
5.9120002 -3.1381457 1.0403258 0
5.9060001 -3.1447117 1.0396332 0
5.9000006 -3.1512558 1.0389405 0
5.8940005 -3.1577785 1.0382478 0
5.8880005 -3.1642795 1.0375552 0
5.8830004 -3.1713285 1.036978 0
5.8770003 -3.177788 1.0362853 0
6.4840002 -2.4932842 1.0953852 0
6.4770002 -2.5014303 1.0945898 0
6.4700003 -2.509551 1.0937943 0
6.4620004 -2.5172389 1.0928851 0
6.4550004 -2.5253074 1.0920898 0
6.4480004 -2.5333507 1.0912943 0
6.4410005 -2.5413685 1.0904987 0
6.4340005 -2.5493612 1.0897033 0
6.4270005 -2.5573285 1.0889078 0
6.4200006 -2.5652709 1.0881124 0
6.4130006 -2.5731876 1.0873169 0
6.4060006 -2.5810795 1.0865214 0
6.3990002 -2.5889456 1.0857259 0
6.3920002 -2.596787 1.0849304 0
6.3850002 -2.6046028 1.0841349 0
6.3780003 -2.6123934 1.0833395 0
6.3710003 -2.6201589 1.082544 0
6.3640003 -2.6278989 1.0817485 0
6.3570004 -2.6356139 1.080953 0
6.3510003 -2.6437399 1.0802711 0
6.3440003 -2.6514063 1.0794756 0
6.3370004 -2.6590471 1.0786802 0
6.3300004 -2.6666629 1.0778848 0
6.3230004 -2.6742532 1.0770893 0
6.3160005 -2.6818185 1.0762937 0
6.3100004 -2.6898055 1.0756119 0
6.3030005 -2.6973221 1.0748165 0
6.2960005 -2.7048135 1.074021 0
6.2890005 -2.7122796 1.0732255 0
6.2830005 -2.7201746 1.0725436 0
6.2760005 -2.7275918 1.0717481 0
6.2690005 -2.7349839 1.0709528 0
6.2630005 -2.7428105 1.0702709 0
6.2560005 -2.750154 1.0694754 0
6.2490005 -2.757472 1.0686799 0
6.2430005 -2.7652302 1.0679981 0
6.2360005 -2.7724996 1.0672026 0
6.2300005 -2.7802124 1.0665208 0
6.2230005 -2.7874331 1.0657253 0
6.2160006 -2.7946286 1.0649298 0
6.2100005 -2.8022733 1.064248 0
6.2030005 -2.8094199 1.0634525 0
6.1970005 -2.8170192 1.0627706 0
6.1900005 -2.8241174 1.0619751 0
6.1840005 -2.8316717 1.0612934 0
6.1770005 -2.8387208 1.0604979 0
6.1710005 -2.84623 1.059816 0
6.1640005 -2.8532307 1.0590205 0
6.1580005 -2.8606949 1.0583386 0
6.1520004 -2.8681374 1.0576568 0
6.1450005 -2.8750658 1.0568614 0
6.1390004 -2.8824632 1.0561795 0
6.1320004 -2.8893428 1.055384 0
6.1260004 -2.8966954 1.0547022 0
6.1200004 -2.9040258 1.0540204 0
6.1130004 -2.9108336 1.0532248 0
6.1070004 -2.918119 1.052543 0
6.1010003 -2.9253829 1.0518612 0
6.0940003 -2.9321184 1.0510657 0
6.0880003 -2.9393373 1.0503839 0
6.0820003 -2.9465344 1.049702 0
6.0760002 -2.9537098 1.0490202 0
6.0690002 -2.9603498 1.0482247 0
6.0630002 -2.9674802 1.0475428 0
6.0570002 -2.9745889 1.0468609 0
6.0510006 -2.9816763 1.0461792 0
6.0450006 -2.9887419 1.0454974 0
6.0380006 -2.9952626 1.0447019 0
6.0320005 -3.0022831 1.0440201 0
6.0260005 -3.0092819 1.0433382 0
6.0200005 -3.016259 1.0426564 0
6.0140004 -3.0232143 1.0419745 0
6.0080004 -3.0301483 1.0412927 0
6.0020003 -3.0370603 1.0406109 0
5.9960003 -3.043951 1.039929 0
5.9900002 -3.0508199 1.0392472 0
5.9840002 -3.057667 1.0385653 0
5.9770002 -3.0639515 1.0377698 0
5.9710002 -3.0707536 1.0370879 0
5.9650002 -3.0775342 1.0364062 0
5.9590006 -3.0842934 1.0357244 0
5.9530005 -3.0910306 1.0350425 0
5.9470005 -3.0977459 1.0343606 0
5.9420004 -3.1049917 1.0337925 0
5.9360003 -3.111666 1.0331106 0
5.9300003 -3.1183183 1.0324287 0
5.9240003 -3.124949 1.031747 0
5.9180002 -3.1315582 1.0310651 0
5.9120002 -3.1381457 1.0303832 0
5.9060001 -3.1447117 1.0297014 0
5.9000006 -3.1512558 1.0290196 0
5.8940005 -3.1577785 1.0283377 0
5.8880005 -3.1642795 1.0276558 0
5.8830004 -3.1713285 1.0270877 0
5.8770003 -3.177788 1.0264058 0
6.4840002 -2.4932842 1.0844109 0
6.4770002 -2.5014303 1.0836281 0
6.4700003 -2.509551 1.0828452 0
6.4620004 -2.5172389 1.0819505 0
6.4550004 -2.5253074 1.0811677 0
6.4480004 -2.5333507 1.0803849 0
6.4410005 -2.5413685 1.079602 0
6.4340005 -2.5493612 1.0788192 0
6.4270005 -2.5573285 1.0780362 0
6.4200006 -2.5652709 1.0772535 0
6.4130006 -2.5731876 1.0764706 0
6.4060006 -2.5810795 1.0756878 0
6.3990002 -2.5889456 1.0749048 0
6.3920002 -2.596787 1.074122 0
6.3850002 -2.6046028 1.0733391 0
6.3780003 -2.6123934 1.0725563 0
6.3710003 -2.6201589 1.0717734 0
6.3640003 -2.6278989 1.0709906 0
6.3570004 -2.6356139 1.0702077 0
6.3510003 -2.6437399 1.0695367 0
6.3440003 -2.6514063 1.0687538 0
6.3370004 -2.6590471 1.067971 0
6.3300004 -2.6666629 1.0671881 0
6.3230004 -2.6742532 1.0664053 0
6.3160005 -2.6818185 1.0656224 0
6.3100004 -2.6898055 1.0649514 0
6.3030005 -2.6973221 1.0641686 0
6.2960005 -2.7048135 1.0633857 0
6.2890005 -2.7122796 1.0626029 0
6.2830005 -2.7201746 1.0619318 0
6.2760005 -2.7275918 1.061149 0
6.2690005 -2.7349839 1.0603662 0
6.2630005 -2.7428105 1.0596951 0
6.2560005 -2.750154 1.0589123 0
6.2490005 -2.757472 1.0581294 0
6.2430005 -2.7652302 1.0574584 0
6.2360005 -2.7724996 1.0566756 0
6.2300005 -2.7802124 1.0560045 0
6.2230005 -2.7874331 1.0552217 0
6.2160006 -2.7946286 1.0544388 0
6.2100005 -2.8022733 1.0537678 0
6.2030005 -2.8094199 1.052985 0
6.1970005 -2.8170192 1.0523139 0
6.1900005 -2.8241174 1.0515312 0
6.1840005 -2.8316717 1.05086 0
6.1770005 -2.8387208 1.0500772 0
6.1710005 -2.84623 1.0494063 0
6.1640005 -2.8532307 1.0486233 0
6.1580005 -2.8606949 1.0479524 0
6.1520004 -2.8681374 1.0472814 0
6.1450005 -2.8750658 1.0464985 0
6.1390004 -2.8824632 1.0458275 0
6.1320004 -2.8893428 1.0450447 0
6.1260004 -2.8966954 1.0443736 0
6.1200004 -2.9040258 1.0437026 0
6.1130004 -2.9108336 1.0429198 0
6.1070004 -2.918119 1.0422487 0
6.1010003 -2.9253829 1.0415777 0
6.0940003 -2.9321184 1.0407948 0
6.0880003 -2.9393373 1.0401238 0
6.0820003 -2.9465344 1.0394528 0
6.0760002 -2.9537098 1.0387818 0
6.0690002 -2.9603498 1.0379989 0
6.0630002 -2.9674802 1.0373279 0
6.0570002 -2.9745889 1.0366569 0
6.0510006 -2.9816763 1.0359859 0
6.0450006 -2.9887419 1.0353149 0
6.0380006 -2.9952626 1.0345321 0
6.0320005 -3.0022831 1.033861 0
6.0260005 -3.0092819 1.03319 0
6.0200005 -3.016259 1.032519 0
6.0140004 -3.0232143 1.031848 0
6.0080004 -3.0301483 1.0311769 0
6.0020003 -3.0370603 1.0305059 0
5.9960003 -3.043951 1.0298349 0
5.9900002 -3.0508199 1.0291638 0
5.9840002 -3.057667 1.0284928 0
5.9770002 -3.0639515 1.02771 0
5.9710002 -3.0707536 1.0270389 0
5.9650002 -3.0775342 1.0263679 0
5.9590006 -3.0842934 1.025697 0
5.9530005 -3.0910306 1.025026 0
5.9470005 -3.0977459 1.0243549 0
5.9420004 -3.1049917 1.0237957 0
5.9360003 -3.111666 1.0231247 0
5.9300003 -3.1183183 1.0224537 0
5.9240003 -3.124949 1.0217826 0
5.9180002 -3.1315582 1.0211116 0
5.9120002 -3.1381457 1.0204407 0
5.9060001 -3.1447117 1.0197697 0
5.9000006 -3.1512558 1.0190986 0
5.8940005 -3.1577785 1.0184276 0
5.8880005 -3.1642795 1.0177566 0
5.8830004 -3.1713285 1.0171974 0
5.8770003 -3.177788 1.0165263 0
6.4840002 -2.4932842 1.0734365 0
6.4770002 -2.5014303 1.0726663 0
6.4700003 -2.509551 1.0718961 0
6.4620004 -2.5172389 1.0710158 0
6.4550004 -2.5253074 1.0702456 0
6.4480004 -2.5333507 1.0694754 0
6.4410005 -2.5413685 1.0687052 0
6.4340005 -2.5493612 1.067935 0
6.4270005 -2.5573285 1.0671648 0
6.4200006 -2.5652709 1.0663944 0
6.4130006 -2.5731876 1.0656242 0
6.4060006 -2.5810795 1.064854 0
6.3990002 -2.5889456 1.0640838 0
6.3920002 -2.596787 1.0633135 0
6.3850002 -2.6046028 1.0625434 0
6.3780003 -2.6123934 1.0617732 0
6.3710003 -2.6201589 1.0610029 0
6.3640003 -2.6278989 1.0602326 0
6.3570004 -2.6356139 1.0594624 0
6.3510003 -2.6437399 1.0588022 0
6.3440003 -2.6514063 1.058032 0
6.3370004 -2.6590471 1.0572618 0
6.3300004 -2.6666629 1.0564916 0
6.3230004 -2.6742532 1.0557213 0
6.3160005 -2.6818185 1.0549512 0
6.3100004 -2.6898055 1.0542909 0
6.3030005 -2.6973221 1.0535207 0
6.2960005 -2.7048135 1.0527505 0
6.2890005 -2.7122796 1.0519803 0
6.2830005 -2.7201746 1.0513201 0
6.2760005 -2.7275918 1.0505499 0
6.2690005 -2.7349839 1.0497797 0
6.2630005 -2.7428105 1.0491195 0
6.2560005 -2.750154 1.0483493 0
6.2490005 -2.757472 1.0475789 0
6.2430005 -2.7652302 1.0469187 0
6.2360005 -2.7724996 1.0461485 0
6.2300005 -2.7802124 1.0454884 0
6.2230005 -2.7874331 1.0447181 0
6.2160006 -2.7946286 1.0439479 0
6.2100005 -2.8022733 1.0432878 0
6.2030005 -2.8094199 1.0425175 0
6.1970005 -2.8170192 1.0418574 0
6.1900005 -2.8241174 1.041087 0
6.1840005 -2.8316717 1.0404269 0
6.1770005 -2.8387208 1.0396566 0
6.1710005 -2.84623 1.0389965 0
6.1640005 -2.8532307 1.0382262 0
6.1580005 -2.8606949 1.0375661 0
6.1520004 -2.8681374 1.0369058 0
6.1450005 -2.8750658 1.0361356 0
6.1390004 -2.8824632 1.0354754 0
6.1320004 -2.8893428 1.0347052 0
6.1260004 -2.8966954 1.034045 0
6.1200004 -2.9040258 1.0333848 0
6.1130004 -2.9108336 1.0326146 0
6.1070004 -2.918119 1.0319544 0
6.1010003 -2.9253829 1.0312942 0
6.0940003 -2.9321184 1.0305239 0
6.0880003 -2.9393373 1.0298637 0
6.0820003 -2.9465344 1.0292035 0
6.0760002 -2.9537098 1.0285434 0
6.0690002 -2.9603498 1.0277731 0
6.0630002 -2.9674802 1.0271128 0
6.0570002 -2.9745889 1.0264527 0
6.0510006 -2.9816763 1.0257926 0
6.0450006 -2.9887419 1.0251324 0
6.0380006 -2.9952626 1.0243622 0
6.0320005 -3.0022831 1.023702 0
6.0260005 -3.0092819 1.0230417 0
6.0200005 -3.016259 1.0223815 0
6.0140004 -3.0232143 1.0217214 0
6.0080004 -3.0301483 1.0210612 0
6.0020003 -3.0370603 1.020401 0
5.9960003 -3.043951 1.0197408 0
5.9900002 -3.0508199 1.0190806 0
5.9840002 -3.057667 1.0184203 0
5.9770002 -3.0639515 1.0176501 0
5.9710002 -3.0707536 1.0169899 0
5.9650002 -3.0775342 1.0163298 0
5.9590006 -3.0842934 1.0156696 0
5.9530005 -3.0910306 1.0150094 0
5.9470005 -3.0977459 1.0143492 0
5.9420004 -3.1049917 1.0137991 0
5.9360003 -3.111666 1.0131389 0
5.9300003 -3.1183183 1.0124786 0
5.9240003 -3.124949 1.0118184 0
5.9180002 -3.1315582 1.0111582 0
5.9120002 -3.1381457 1.010498 0
5.9060001 -3.1447117 1.0098379 0
5.9000006 -3.1512558 1.0091777 0
5.8940005 -3.1577785 1.0085175 0
5.8880005 -3.1642795 1.0078573 0
5.8830004 -3.1713285 1.0073072 0
5.8770003 -3.177788 1.006647 0
6.4840002 -2.4932842 1.0624622 0
6.4770002 -2.5014303 1.0617045 0
6.4700003 -2.509551 1.0609469 0
6.4620004 -2.5172389 1.0600811 0
6.4550004 -2.5253074 1.0593235 0
6.4480004 -2.5333507 1.058566 0
6.4410005 -2.5413685 1.0578084 0
6.4340005 -2.5493612 1.0570508 0
6.4270005 -2.5573285 1.0562931 0
6.4200006 -2.5652709 1.0555356 0
6.4130006 -2.5731876 1.054778 0
6.4060006 -2.5810795 1.0540204 0
6.3990002 -2.5889456 1.0532627 0
6.3920002 -2.596787 1.0525051 0
6.3850002 -2.6046028 1.0517476 0
6.3780003 -2.6123934 1.05099 0
6.3710003 -2.6201589 1.0502323 0
6.3640003 -2.6278989 1.0494747 0
6.3570004 -2.6356139 1.0487171 0
6.3510003 -2.6437399 1.0480677 0
6.3440003 -2.6514063 1.0473102 0
6.3370004 -2.6590471 1.0465527 0
6.3300004 -2.6666629 1.045795 0
6.3230004 -2.6742532 1.0450374 0
6.3160005 -2.6818185 1.0442798 0
6.3100004 -2.6898055 1.0436304 0
6.3030005 -2.6973221 1.0428728 0
6.2960005 -2.7048135 1.0421152 0
6.2890005 -2.7122796 1.0413576 0
6.2830005 -2.7201746 1.0407082 0
6.2760005 -2.7275918 1.0399506 0
6.2690005 -2.7349839 1.039193 0
6.2630005 -2.7428105 1.0385437 0
6.2560005 -2.750154 1.0377861 0
6.2490005 -2.757472 1.0370286 0
6.2430005 -2.7652302 1.0363791 0
6.2360005 -2.7724996 1.0356215 0
6.2300005 -2.7802124 1.0349722 0
6.2230005 -2.7874331 1.0342146 0
6.2160006 -2.7946286 1.0334569 0
6.2100005 -2.8022733 1.0328076 0
6.2030005 -2.8094199 1.03205 0
6.1970005 -2.8170192 1.0314007 0
6.1900005 -2.8241174 1.030643 0
6.1840005 -2.8316717 1.0299937 0
6.1770005 -2.8387208 1.0292361 0
6.1710005 -2.84623 1.0285866 0
6.1640005 -2.8532307 1.0278291 0
6.1580005 -2.8606949 1.0271797 0
6.1520004 -2.8681374 1.0265304 0
6.1450005 -2.8750658 1.0257727 0
6.1390004 -2.8824632 1.0251234 0
6.1320004 -2.8893428 1.0243658 0
6.1260004 -2.8966954 1.0237164 0
6.1200004 -2.9040258 1.023067 0
6.1130004 -2.9108336 1.0223094 0
6.1070004 -2.918119 1.02166 0
6.1010003 -2.9253829 1.0210106 0
6.0940003 -2.9321184 1.0202531 0
6.0880003 -2.9393373 1.0196036 0
6.0820003 -2.9465344 1.0189543 0
6.0760002 -2.9537098 1.0183049 0
6.0690002 -2.9603498 1.0175474 0
6.0630002 -2.9674802 1.0168979 0
6.0570002 -2.9745889 1.0162486 0
6.0510006 -2.9816763 1.0155993 0
6.0450006 -2.9887419 1.0149498 0
6.0380006 -2.9952626 1.0141923 0
6.0320005 -3.0022831 1.0135429 0
6.0260005 -3.0092819 1.0128936 0
6.0200005 -3.016259 1.0122441 0
6.0140004 -3.0232143 1.0115948 0
6.0080004 -3.0301483 1.0109454 0
6.0020003 -3.0370603 1.0102961 0
5.9960003 -3.043951 1.0096467 0
5.9900002 -3.0508199 1.0089973 0
5.9840002 -3.057667 1.0083479 0
5.9770002 -3.0639515 1.0075903 0
5.9710002 -3.0707536 1.006941 0
5.9650002 -3.0775342 1.0062915 0
5.9590006 -3.0842934 1.0056423 0
5.9530005 -3.0910306 1.0049928 0
5.9470005 -3.0977459 1.0043435 0
5.9420004 -3.1049917 1.0038023 0
5.9360003 -3.111666 1.003153 0
5.9300003 -3.1183183 1.0025036 0
5.9240003 -3.124949 1.0018542 0
5.9180002 -3.1315582 1.0012048 0
5.9120002 -3.1381457 1.0005554 0
5.9060001 -3.1447117 0.99990606 0
5.9000006 -3.1512558 0.99925673 0
5.8940005 -3.1577785 0.9986074 0
5.8880005 -3.1642795 0.99795806 0
5.8830004 -3.1713285 0.99741685 0
5.8770003 -3.177788 0.99676752 0
6.4840002 -2.4932842 1.0514878 0
6.4770002 -2.5014303 1.0507427 0
6.4700003 -2.509551 1.0499978 0
6.4620004 -2.5172389 1.0491464 0
6.4550004 -2.5253074 1.0484015 0
6.4480004 -2.5333507 1.0476565 0
6.4410005 -2.5413685 1.0469115 0
6.4340005 -2.5493612 1.0461665 0
6.4270005 -2.5573285 1.0454216 0
6.4200006 -2.5652709 1.0446767 0
6.4130006 -2.5731876 1.0439317 0
6.4060006 -2.5810795 1.0431867 0
6.3990002 -2.5889456 1.0424417 0
6.3920002 -2.596787 1.0416968 0
6.3850002 -2.6046028 1.0409517 0
6.3780003 -2.6123934 1.0402068 0
6.3710003 -2.6201589 1.0394617 0
6.3640003 -2.6278989 1.0387168 0
6.3570004 -2.6356139 1.0379719 0
6.3510003 -2.6437399 1.0373333 0
6.3440003 -2.6514063 1.0365883 0
6.3370004 -2.6590471 1.0358434 0
6.3300004 -2.6666629 1.0350984 0
6.3230004 -2.6742532 1.0343535 0
6.3160005 -2.6818185 1.0336084 0
6.3100004 -2.6898055 1.03297 0
6.3030005 -2.6973221 1.0322249 0
6.2960005 -2.7048135 1.03148 0
6.2890005 -2.7122796 1.030735 0
6.2830005 -2.7201746 1.0300964 0
6.2760005 -2.7275918 1.0293515 0
6.2690005 -2.7349839 1.0286065 0
6.2630005 -2.7428105 1.0279679 0
6.2560005 -2.750154 1.027223 0
6.2490005 -2.757472 1.0264781 0
6.2430005 -2.7652302 1.0258394 0
6.2360005 -2.7724996 1.0250945 0
6.2300005 -2.7802124 1.0244559 0
6.2230005 -2.7874331 1.023711 0
6.2160006 -2.7946286 1.022966 0
6.2100005 -2.8022733 1.0223274 0
6.2030005 -2.8094199 1.0215825 0
6.1970005 -2.8170192 1.0209439 0
6.1900005 -2.8241174 1.0201989 0
6.1840005 -2.8316717 1.0195603 0
6.1770005 -2.8387208 1.0188154 0
6.1710005 -2.84623 1.0181769 0
6.1640005 -2.8532307 1.0174319 0
6.1580005 -2.8606949 1.0167934 0
6.1520004 -2.8681374 1.0161548 0
6.1450005 -2.8750658 1.0154098 0
6.1390004 -2.8824632 1.0147712 0
6.1320004 -2.8893428 1.0140263 0
6.1260004 -2.8966954 1.0133878 0
6.1200004 -2.9040258 1.0127492 0
6.1130004 -2.9108336 1.0120043 0
6.1070004 -2.918119 1.0113657 0
6.1010003 -2.9253829 1.0107272 0
6.0940003 -2.9321184 1.0099822 0
6.0880003 -2.9393373 1.0093436 0
6.0820003 -2.9465344 1.008705 0
6.0760002 -2.9537098 1.0080665 0
6.0690002 -2.9603498 1.0073216 0
6.0630002 -2.9674802 1.006683 0
6.0570002 -2.9745889 1.0060444 0
6.0510006 -2.9816763 1.0054059 0
6.0450006 -2.9887419 1.0047674 0
6.0380006 -2.9952626 1.0040224 0
6.0320005 -3.0022831 1.0033839 0
6.0260005 -3.0092819 1.0027453 0
6.0200005 -3.016259 1.0021068 0
6.0140004 -3.0232143 1.0014682 0
6.0080004 -3.0301483 1.0008297 0
6.0020003 -3.0370603 1.0001911 0
5.9960003 -3.043951 0.99955249 0
5.9900002 -3.0508199 0.998914 0
5.9840002 -3.057667 0.9982754 0
5.9770002 -3.0639515 0.99753046 0
5.9710002 -3.0707536 0.99689186 0
5.9650002 -3.0775342 0.99625337 0
5.9590006 -3.0842934 0.99561489 0
5.9530005 -3.0910306 0.99497628 0
5.9470005 -3.0977459 0.99433768 0
5.9420004 -3.1049917 0.99380565 0
5.9360003 -3.111666 0.99316704 0
5.9300003 -3.1183183 0.99252856 0
5.9240003 -3.124949 0.99188995 0
5.9180002 -3.1315582 0.99125147 0
5.9120002 -3.1381457 0.99061286 0
5.9060001 -3.1447117 0.98997426 0
5.9000006 -3.1512558 0.98933578 0
5.8940005 -3.1577785 0.98869729 0
5.8880005 -3.1642795 0.98805869 0
5.8830004 -3.1713285 0.98752654 0
5.8770003 -3.177788 0.98688805 0
6.4840002 -2.4932842 1.0405134 0
6.4770002 -2.5014303 1.0397811 0
6.4700003 -2.509551 1.0390487 0
6.4620004 -2.5172389 1.0382117 0
6.4550004 -2.5253074 1.0374794 0
6.4480004 -2.5333507 1.0367471 0
6.4410005 -2.5413685 1.0360148 0
6.4340005 -2.5493612 1.0352824 0
6.4270005 -2.5573285 1.0345501 0
6.4200006 -2.5652709 1.0338178 0
6.4130006 -2.5731876 1.0330853 0
6.4060006 -2.5810795 1.032353 0
6.3990002 -2.5889456 1.0316206 0
6.3920002 -2.596787 1.0308883 0
6.3850002 -2.6046028 1.0301559 0
6.3780003 -2.6123934 1.0294236 0
6.3710003 -2.6201589 1.0286913 0
6.3640003 -2.6278989 1.027959 0
6.3570004 -2.6356139 1.0272266 0
6.3510003 -2.6437399 1.0265988 0
6.3440003 -2.6514063 1.0258665 0
6.3370004 -2.6590471 1.0251342 0
6.3300004 -2.6666629 1.0244018 0
6.3230004 -2.6742532 1.0236695 0
6.3160005 -2.6818185 1.0229372 0
6.3100004 -2.6898055 1.0223094 0
6.3030005 -2.6973221 1.0215771 0
6.2960005 -2.7048135 1.0208447 0
6.2890005 -2.7122796 1.0201124 0
6.2830005 -2.7201746 1.0194846 0
6.2760005 -2.7275918 1.0187523 0
6.2690005 -2.7349839 1.01802 0
6.2630005 -2.7428105 1.0173923 0
6.2560005 -2.750154 1.0166599 0
6.2490005 -2.757472 1.0159276 0
6.2430005 -2.7652302 1.0152998 0
6.2360005 -2.7724996 1.0145675 0
6.2300005 -2.7802124 1.0139397 0
6.2230005 -2.7874331 1.0132074 0
6.2160006 -2.7946286 1.012475 0
6.2100005 -2.8022733 1.0118473 0
6.2030005 -2.8094199 1.011115 0
6.1970005 -2.8170192 1.0104872 0
6.1900005 -2.8241174 1.0097549 0
6.1840005 -2.8316717 1.0091271 0
6.1770005 -2.8387208 1.0083948 0
6.1710005 -2.84623 1.0077671 0
6.1640005 -2.8532307 1.0070348 0
6.1580005 -2.8606949 1.006407 0
6.1520004 -2.8681374 1.0057793 0
6.1450005 -2.8750658 1.005047 0
6.1390004 -2.8824632 1.0044192 0
6.1320004 -2.8893428 1.0036869 0
6.1260004 -2.8966954 1.0030591 0
6.1200004 -2.9040258 1.0024314 0
6.1130004 -2.9108336 1.0016991 0
6.1070004 -2.918119 1.0010713 0
6.1010003 -2.9253829 1.0004437 0
6.0940003 -2.9321184 0.99971128 0
6.0880003 -2.9393373 0.99908352 0
6.0820003 -2.9465344 0.99845576 0
6.0760002 -2.9537098 0.99782813 0
6.0690002 -2.9603498 0.9970957 0
6.0630002 -2.9674802 0.99646807 0
6.0570002 -2.9745889 0.99584031 0
6.0510006 -2.9816763 0.99521255 0
6.0450006 -2.9887419 0.99458492 0
6.0380006 -2.9952626 0.9938525 0
6.0320005 -3.0022831 0.99322486 0
6.0260005 -3.0092819 0.9925971 0
6.0200005 -3.016259 0.99196935 0
6.0140004 -3.0232143 0.99134159 0
6.0080004 -3.0301483 0.99071383 0
6.0020003 -3.0370603 0.9900862 0
5.9960003 -3.043951 0.98945844 0
5.9900002 -3.0508199 0.98883069 0
5.9840002 -3.057667 0.98820293 0
5.9770002 -3.0639515 0.98747063 0
5.9710002 -3.0707536 0.98684287 0
5.9650002 -3.0775342 0.98621511 0
5.9590006 -3.0842934 0.98558748 0
5.9530005 -3.0910306 0.98495984 0
5.9470005 -3.0977459 0.98433197 0
5.9420004 -3.1049917 0.98380888 0
5.9360003 -3.111666 0.98318124 0
5.9300003 -3.1183183 0.98255348 0
5.9240003 -3.124949 0.98192573 0
5.9180002 -3.1315582 0.98129797 0
5.9120002 -3.1381457 0.98067033 0
5.9060001 -3.1447117 0.98004258 0
5.9000006 -3.1512558 0.97941482 0
5.8940005 -3.1577785 0.97878718 0
5.8880005 -3.1642795 0.97815943 0
5.8830004 -3.1713285 0.97763622 0
5.8770003 -3.177788 0.97700858 0
6.4840002 -2.4932842 1.029539 0
6.4770002 -2.5014303 1.0288193 0
6.4700003 -2.509551 1.0280997 0
6.4620004 -2.5172389 1.0272771 0
6.4550004 -2.5253074 1.0265573 0
6.4480004 -2.5333507 1.0258377 0
6.4410005 -2.5413685 1.025118 0
6.4340005 -2.5493612 1.0243982 0
6.4270005 -2.5573285 1.0236785 0
6.4200006 -2.5652709 1.0229588 0
6.4130006 -2.5731876 1.0222391 0
6.4060006 -2.5810795 1.0215194 0
6.3990002 -2.5889456 1.0207995 0
6.3920002 -2.596787 1.0200799 0
6.3850002 -2.6046028 1.0193602 0
6.3780003 -2.6123934 1.0186404 0
6.3710003 -2.6201589 1.0179207 0
6.3640003 -2.6278989 1.0172009 0
6.3570004 -2.6356139 1.0164813 0
6.3510003 -2.6437399 1.0158644 0
6.3440003 -2.6514063 1.0151447 0
6.3370004 -2.6590471 1.0144249 0
6.3300004 -2.6666629 1.0137053 0
6.3230004 -2.6742532 1.0129856 0
6.3160005 -2.6818185 1.0122658 0
6.3100004 -2.6898055 1.0116489 0
6.3030005 -2.6973221 1.0109291 0
6.2960005 -2.7048135 1.0102094 0
6.2890005 -2.7122796 1.0094898 0
6.2830005 -2.7201746 1.0088729 0
6.2760005 -2.7275918 1.0081532 0
6.2690005 -2.7349839 1.0074334 0
6.2630005 -2.7428105 1.0068165 0
6.2560005 -2.750154 1.0060968 0
6.2490005 -2.757472 1.0053771 0
6.2430005 -2.7652302 1.0047601 0
6.2360005 -2.7724996 1.0040405 0
6.2300005 -2.7802124 1.0034236 0
6.2230005 -2.7874331 1.0027038 0
6.2160006 -2.7946286 1.0019841 0
6.2100005 -2.8022733 1.0013672 0
6.2030005 -2.8094199 1.0006475 0
6.1970005 -2.8170192 1.0000305 0
6.1900005 -2.8241174 0.99931085 0
6.1840005 -2.8316717 0.99869394 0
6.1770005 -2.8387208 0.99797428 0
6.1710005 -2.84623 0.99735737 0
6.1640005 -2.8532307 0.99663758 0
6.1580005 -2.8606949 0.99602067 0
6.1520004 -2.8681374 0.99540377 0
6.1450005 -2.8750658 0.9946841 0
6.1390004 -2.8824632 0.99406719 0
6.1320004 -2.8893428 0.99334753 0
6.1260004 -2.8966954 0.99273062 0
6.1200004 -2.9040258 0.99211359 0
6.1130004 -2.9108336 0.99139392 0
6.1070004 -2.918119 0.99077702 0
6.1010003 -2.9253829 0.99016011 0
6.0940003 -2.9321184 0.98944044 0
6.0880003 -2.9393373 0.98882353 0
6.0820003 -2.9465344 0.98820662 0
6.0760002 -2.9537098 0.98758972 0
6.0690002 -2.9603498 0.98686993 0
6.0630002 -2.9674802 0.98625302 0
6.0570002 -2.9745889 0.98563612 0
6.0510006 -2.9816763 0.98501933 0
6.0450006 -2.9887419 0.98440242 0
6.0380006 -2.9952626 0.98368263 0
6.0320005 -3.0022831 0.98306572 0
6.0260005 -3.0092819 0.98244894 0
6.0200005 -3.016259 0.98183191 0
6.0140004 -3.0232143 0.981215 0
6.0080004 -3.0301483 0.98059809 0
6.0020003 -3.0370603 0.9799813 0
5.9960003 -3.043951 0.97936428 0
5.9900002 -3.0508199 0.97874737 0
5.9840002 -3.057667 0.97813046 0
5.9770002 -3.0639515 0.97741079 0
5.9710002 -3.0707536 0.97679389 0
5.9650002 -3.0775342 0.97617698 0
5.9590006 -3.0842934 0.97556019 0
5.9530005 -3.0910306 0.97494316 0
5.9470005 -3.0977459 0.97432625 0
5.9420004 -3.1049917 0.97381222 0
5.9360003 -3.111666 0.97319531 0
5.9300003 -3.1183183 0.97257841 0
5.9240003 -3.124949 0.9719615 0
5.9180002 -3.1315582 0.97134459 0
5.9120002 -3.1381457 0.97072768 0
5.9060001 -3.1447117 0.97011077 0
5.9000006 -3.1512558 0.96949387 0
5.8940005 -3.1577785 0.96887696 0
5.8880005 -3.1642795 0.96826005 0
5.8830004 -3.1713285 0.96774602 0
5.8770003 -3.177788 0.96712911 0
6.4840002 -2.4932842 1.0185647 0
6.4770002 -2.5014303 1.0178576 0
6.4700003 -2.509551 1.0171505 0
6.4620004 -2.5172389 1.0163424 0
6.4550004 -2.5253074 1.0156353 0
6.4480004 -2.5333507 1.0149282 0
6.4410005 -2.5413685 1.0142212 0
6.4340005 -2.5493612 1.013514 0
6.4270005 -2.5573285 1.012807 0
6.4200006 -2.5652709 1.0120999 0
6.4130006 -2.5731876 1.0113928 0
6.4060006 -2.5810795 1.0106857 0
6.3990002 -2.5889456 1.0099785 0
6.3920002 -2.596787 1.0092715 0
6.3850002 -2.6046028 1.0085644 0
6.3780003 -2.6123934 1.0078573 0
6.3710003 -2.6201589 1.0071502 0
6.3640003 -2.6278989 1.0064431 0
6.3570004 -2.6356139 1.005736 0
6.3510003 -2.6437399 1.0051299 0
6.3440003 -2.6514063 1.0044228 0
6.3370004 -2.6590471 1.0037158 0
6.3300004 -2.6666629 1.0030086 0
6.3230004 -2.6742532 1.0023016 0
6.3160005 -2.6818185 1.0015944 0
6.3100004 -2.6898055 1.0009884 0
6.3030005 -2.6973221 1.0002813 0
6.2960005 -2.7048135 0.99957418 0
6.2890005 -2.7122796 0.99886715 0
6.2830005 -2.7201746 0.99826109 0
6.2760005 -2.7275918 0.99755394 0
6.2690005 -2.7349839 0.99684691 0
6.2630005 -2.7428105 0.99624085 0
6.2560005 -2.750154 0.9955337 0
6.2490005 -2.757472 0.99482667 0
6.2430005 -2.7652302 0.9942205 0
6.2360005 -2.7724996 0.99351346 0
6.2300005 -2.7802124 0.99290729 0
6.2230005 -2.7874331 0.99220026 0
6.2160006 -2.7946286 0.99149311 0
6.2100005 -2.8022733 0.99088705 0
6.2030005 -2.8094199 0.99018002 0
6.1970005 -2.8170192 0.98957384 0
6.1900005 -2.8241174 0.98886681 0
6.1840005 -2.8316717 0.98826075 0
6.1770005 -2.8387208 0.9875536 0
6.1710005 -2.84623 0.98694754 0
6.1640005 -2.8532307 0.98624051 0
6.1580005 -2.8606949 0.98563445 0
6.1520004 -2.8681374 0.98502827 0
6.1450005 -2.8750658 0.98432124 0
6.1390004 -2.8824632 0.98371518 0
6.1320004 -2.8893428 0.98300803 0
6.1260004 -2.8966954 0.98240197 0
6.1200004 -2.9040258 0.98179591 0
6.1130004 -2.9108336 0.98108876 0
6.1070004 -2.918119 0.9804827 0
6.1010003 -2.9253829 0.97987664 0
6.0940003 -2.9321184 0.97916949 0
6.0880003 -2.9393373 0.97856343 0
6.0820003 -2.9465344 0.97795737 0
6.0760002 -2.9537098 0.97735131 0
6.0690002 -2.9603498 0.97664416 0
6.0630002 -2.9674802 0.9760381 0
6.0570002 -2.9745889 0.97543204 0
6.0510006 -2.9816763 0.97482598 0
6.0450006 -2.9887419 0.97421992 0
6.0380006 -2.9952626 0.97351277 0
6.0320005 -3.0022831 0.97290671 0
6.0260005 -3.0092819 0.97230065 0
6.0200005 -3.016259 0.97169459 0
6.0140004 -3.0232143 0.97108853 0
6.0080004 -3.0301483 0.97048235 0
6.0020003 -3.0370603 0.96987629 0
5.9960003 -3.043951 0.96927023 0
5.9900002 -3.0508199 0.96866417 0
5.9840002 -3.057667 0.96805811 0
5.9770002 -3.0639515 0.96735096 0
5.9710002 -3.0707536 0.9667449 0
5.9650002 -3.0775342 0.96613884 0
5.9590006 -3.0842934 0.96553278 0
5.9530005 -3.0910306 0.9649266 0
5.9470005 -3.0977459 0.96432054 0
5.9420004 -3.1049917 0.96381557 0
5.9360003 -3.111666 0.96320939 0
5.9300003 -3.1183183 0.96260333 0
5.9240003 -3.124949 0.96199727 0
5.9180002 -3.1315582 0.96139121 0
5.9120002 -3.1381457 0.96078503 0
5.9060001 -3.1447117 0.96017897 0
5.9000006 -3.1512558 0.95957303 0
5.8940005 -3.1577785 0.95896685 0
5.8880005 -3.1642795 0.95836079 0
5.8830004 -3.1713285 0.9578557 0
5.8770003 -3.177788 0.95724964 0
6.4840002 -2.4932842 1.0075903 0
6.4770002 -2.5014303 1.0068959 0
6.4700003 -2.509551 1.0062014 0
6.4620004 -2.5172389 1.0054077 0
6.4550004 -2.5253074 1.0047133 0
6.4480004 -2.5333507 1.0040188 0
6.4410005 -2.5413685 1.0033243 0
6.4340005 -2.5493612 1.0026299 0
6.4270005 -2.5573285 1.0019354 0
6.4200006 -2.5652709 1.001241 0
6.4130006 -2.5731876 1.0005465 0
6.4060006 -2.5810795 0.99985194 0
6.3990002 -2.5889456 0.99915755 0
6.3920002 -2.596787 0.99846303 0
6.3850002 -2.6046028 0.99776864 0
6.3780003 -2.6123934 0.99707413 0
6.3710003 -2.6201589 0.99637961 0
6.3640003 -2.6278989 0.99568522 0
6.3570004 -2.6356139 0.99499071 0
6.3510003 -2.6437399 0.99439549 0
6.3440003 -2.6514063 0.99370098 0
6.3370004 -2.6590471 0.99300647 0
6.3300004 -2.6666629 0.99231207 0
6.3230004 -2.6742532 0.99161756 0
6.3160005 -2.6818185 0.99092317 0
6.3100004 -2.6898055 0.99032784 0
6.3030005 -2.6973221 0.98963344 0
6.2960005 -2.7048135 0.98893893 0
6.2890005 -2.7122796 0.98824453 0
6.2830005 -2.7201746 0.9876492 0
6.2760005 -2.7275918 0.98695481 0
6.2690005 -2.7349839 0.98626029 0
6.2630005 -2.7428105 0.98566508 0
6.2560005 -2.750154 0.98497057 0
6.2490005 -2.757472 0.98427618 0
6.2430005 -2.7652302 0.98368084 0
6.2360005 -2.7724996 0.98298633 0
6.2300005 -2.7802124 0.98239112 0
6.2230005 -2.7874331 0.98169661 0
6.2160006 -2.7946286 0.98100221 0
6.2100005 -2.8022733 0.980407 0
6.2030005 -2.8094199 0.97971249 0
6.1970005 -2.8170192 0.97911727 0
6.1900005 -2.8241174 0.97842276 0
6.1840005 -2.8316717 0.97782755 0
6.1770005 -2.8387208 0.97713304 0
6.1710005 -2.84623 0.97653782 0
6.1640005 -2.8532307 0.97584331 0
6.1580005 -2.8606949 0.9752481 0
6.1520004 -2.8681374 0.97465277 0
6.1450005 -2.8750658 0.97395825 0
6.1390004 -2.8824632 0.97336304 0
6.1320004 -2.8893428 0.97266853 0
6.1260004 -2.8966954 0.97207332 0
6.1200004 -2.9040258 0.9714781 0
6.1130004 -2.9108336 0.97078359 0
6.1070004 -2.918119 0.97018838 0
6.1010003 -2.9253829 0.96959317 0
6.0940003 -2.9321184 0.96889865 0
6.0880003 -2.9393373 0.96830332 0
6.0820003 -2.9465344 0.96770811 0
6.0760002 -2.9537098 0.96711278 0
6.0690002 -2.9603498 0.96641839 0
6.0630002 -2.9674802 0.96582305 0
6.0570002 -2.9745889 0.96522784 0
6.0510006 -2.9816763 0.96463263 0
6.0450006 -2.9887419 0.96403742 0
6.0380006 -2.9952626 0.96334291 0
6.0320005 -3.0022831 0.96274769 0
6.0260005 -3.0092819 0.96215236 0
6.0200005 -3.016259 0.96155715 0
6.0140004 -3.0232143 0.96096194 0
6.0080004 -3.0301483 0.96036661 0
6.0020003 -3.0370603 0.95977139 0
5.9960003 -3.043951 0.95917606 0
5.9900002 -3.0508199 0.95858085 0
5.9840002 -3.057667 0.95798552 0
5.9770002 -3.0639515 0.95729113 0
5.9710002 -3.0707536 0.9566958 0
5.9650002 -3.0775342 0.95610058 0
5.9590006 -3.0842934 0.95550537 0
5.9530005 -3.0910306 0.95491016 0
5.9470005 -3.0977459 0.95431483 0
5.9420004 -3.1049917 0.9538188 0
5.9360003 -3.111666 0.95322359 0
5.9300003 -3.1183183 0.95262825 0
5.9240003 -3.124949 0.95203304 0
5.9180002 -3.1315582 0.95143783 0
5.9120002 -3.1381457 0.9508425 0
5.9060001 -3.1447117 0.95024729 0
5.9000006 -3.1512558 0.94965208 0
5.8940005 -3.1577785 0.94905674 0
5.8880005 -3.1642795 0.94846153 0
5.8830004 -3.1713285 0.94796538 0
5.8770003 -3.177788 0.94737017 0
6.4840002 -2.4932842 0.99661601 0
6.4770002 -2.5014303 0.99593413 0
6.4700003 -2.509551 0.99525225 0
6.4620004 -2.5172389 0.9944731 0
6.4550004 -2.5253074 0.99379122 0
6.4480004 -2.5333507 0.99310935 0
6.4410005 -2.5413685 0.99242747 0
6.4340005 -2.5493612 0.99174571 0
6.4270005 -2.5573285 0.99106383 0
6.4200006 -2.5652709 0.99038196 0
6.4130006 -2.5731876 0.9897002 0
6.4060006 -2.5810795 0.98901832 0
6.3990002 -2.5889456 0.98833644 0
6.3920002 -2.596787 0.98765457 0
6.3850002 -2.6046028 0.98697281 0
6.3780003 -2.6123934 0.98629093 0
6.3710003 -2.6201589 0.98560917 0
6.3640003 -2.6278989 0.9849273 0
6.3570004 -2.6356139 0.98424542 0
6.3510003 -2.6437399 0.98366094 0
6.3440003 -2.6514063 0.98297918 0
6.3370004 -2.6590471 0.9822973 0
6.3300004 -2.6666629 0.98161554 0
6.3230004 -2.6742532 0.98093367 0
6.3160005 -2.6818185 0.98025179 0
6.3100004 -2.6898055 0.97966743 0
6.3030005 -2.6973221 0.97898555 0
6.2960005 -2.7048135 0.97830367 0
6.2890005 -2.7122796 0.97762179 0
6.2830005 -2.7201746 0.97703743 0
6.2760005 -2.7275918 0.97635555 0
6.2690005 -2.7349839 0.97567379 0
6.2630005 -2.7428105 0.97508931 0
6.2560005 -2.750154 0.97440755 0
6.2490005 -2.757472 0.97372568 0
6.2430005 -2.7652302 0.97314119 0
6.2360005 -2.7724996 0.97245932 0
6.2300005 -2.7802124 0.97187495 0
6.2230005 -2.7874331 0.97119308 0
6.2160006 -2.7946286 0.97051132 0
6.2100005 -2.8022733 0.96992683 0
6.2030005 -2.8094199 0.96924496 0
6.1970005 -2.8170192 0.96866059 0
6.1900005 -2.8241174 0.96797872 0
6.1840005 -2.8316717 0.96739423 0
6.1770005 -2.8387208 0.96671236 0
6.1710005 -2.84623 0.96612799 0
6.1640005 -2.8532307 0.96544611 0
6.1580005 -2.8606949 0.96486175 0
6.1520004 -2.8681374 0.96427727 0
6.1450005 -2.8750658 0.96359539 0
6.1390004 -2.8824632 0.96301103 0
6.1320004 -2.8893428 0.96232915 0
6.1260004 -2.8966954 0.96174479 0
6.1200004 -2.9040258 0.9611603 0
6.1130004 -2.9108336 0.96047843 0
6.1070004 -2.918119 0.95989406 0
6.1010003 -2.9253829 0.95930958 0
6.0940003 -2.9321184 0.9586277 0
6.0880003 -2.9393373 0.95804334 0
6.0820003 -2.9465344 0.95745885 0
6.0760002 -2.9537098 0.95687437 0
6.0690002 -2.9603498 0.95619261 0
6.0630002 -2.9674802 0.95560813 0
6.0570002 -2.9745889 0.95502377 0
6.0510006 -2.9816763 0.95443928 0
6.0450006 -2.9887419 0.95385492 0
6.0380006 -2.9952626 0.95317304 0
6.0320005 -3.0022831 0.95258856 0
6.0260005 -3.0092819 0.95200419 0
6.0200005 -3.016259 0.95141971 0
6.0140004 -3.0232143 0.95083523 0
6.0080004 -3.0301483 0.95025086 0
6.0020003 -3.0370603 0.9496665 0
5.9960003 -3.043951 0.94908202 0
5.9900002 -3.0508199 0.94849753 0
5.9840002 -3.057667 0.94791317 0
5.9770002 -3.0639515 0.94723129 0
5.9710002 -3.0707536 0.94664681 0
5.9650002 -3.0775342 0.94606245 0
5.9590006 -3.0842934 0.94547808 0
5.9530005 -3.0910306 0.9448936 0
5.9470005 -3.0977459 0.94430912 0
5.9420004 -3.1049917 0.94382203 0
5.9360003 -3.111666 0.94323766 0
5.9300003 -3.1183183 0.9426533 0
5.9240003 -3.124949 0.94206882 0
5.9180002 -3.1315582 0.94148433 0
5.9120002 -3.1381457 0.94089997 0
5.9060001 -3.1447117 0.94031549 0
5.9000006 -3.1512558 0.93973112 0
5.8940005 -3.1577785 0.93914664 0
5.8880005 -3.1642795 0.93856215 0
5.8830004 -3.1713285 0.93807518 0
5.8770003 -3.177788 0.9374907 0
6.4840002 -2.4932842 0.9856416 0
6.4770002 -2.5014303 0.98497236 0
6.4700003 -2.509551 0.98430312 0
6.4620004 -2.5172389 0.98353839 0
6.4550004 -2.5253074 0.98286915 0
6.4480004 -2.5333507 0.98219991 0
6.4410005 -2.5413685 0.98153079 0
6.4340005 -2.5493612 0.98086154 0
6.4270005 -2.5573285 0.9801923 0
6.4200006 -2.5652709 0.97952306 0
6.4130006 -2.5731876 0.97885382 0
6.4060006 -2.5810795 0.9781847 0
6.3990002 -2.5889456 0.97751534 0
6.3920002 -2.596787 0.97684622 0
6.3850002 -2.6046028 0.97617698 0
6.3780003 -2.6123934 0.97550774 0
6.3710003 -2.6201589 0.97483861 0
6.3640003 -2.6278989 0.97416937 0
6.3570004 -2.6356139 0.97350013 0
6.3510003 -2.6437399 0.9729265 0
6.3440003 -2.6514063 0.97225738 0
6.3370004 -2.6590471 0.97158813 0
6.3300004 -2.6666629 0.97091889 0
6.3230004 -2.6742532 0.97024965 0
6.3160005 -2.6818185 0.96958053 0
6.3100004 -2.6898055 0.9690069 0
6.3030005 -2.6973221 0.96833766 0
6.2960005 -2.7048135 0.96766841 0
6.2890005 -2.7122796 0.96699929 0
6.2830005 -2.7201746 0.96642566 0
6.2760005 -2.7275918 0.96575642 0
6.2690005 -2.7349839 0.96508718 0
6.2630005 -2.7428105 0.96451354 0
6.2560005 -2.750154 0.96384442 0
6.2490005 -2.757472 0.96317518 0
6.2430005 -2.7652302 0.96260154 0
6.2360005 -2.7724996 0.9619323 0
6.2300005 -2.7802124 0.96135879 0
6.2230005 -2.7874331 0.96068954 0
6.2160006 -2.7946286 0.9600203 0
6.2100005 -2.8022733 0.95944667 0
6.2030005 -2.8094199 0.95877743 0
6.1970005 -2.8170192 0.95820391 0
6.1900005 -2.8241174 0.95753467 0
6.1840005 -2.8316717 0.95696104 0
6.1770005 -2.8387208 0.95629179 0
6.1710005 -2.84623 0.95571816 0
6.1640005 -2.8532307 0.95504904 0
6.1580005 -2.8606949 0.9544754 0
6.1520004 -2.8681374 0.95390177 0
6.1450005 -2.8750658 0.95323253 0
6.1390004 -2.8824632 0.95265901 0
6.1320004 -2.8893428 0.95198977 0
6.1260004 -2.8966954 0.95141613 0
6.1200004 -2.9040258 0.9508425 0
6.1130004 -2.9108336 0.95017326 0
6.1070004 -2.918119 0.94959962 0
6.1010003 -2.9253829 0.94902611 0
6.0940003 -2.9321184 0.94835687 0
6.0880003 -2.9393373 0.94778323 0
6.0820003 -2.9465344 0.9472096 0
6.0760002 -2.9537098 0.94663596 0
6.0690002 -2.9603498 0.94596684 0
6.0630002 -2.9674802 0.9453932 0
6.0570002 -2.9745889 0.94481957 0
6.0510006 -2.9816763 0.94424605 0
6.0450006 -2.9887419 0.94367242 0
6.0380006 -2.9952626 0.94300318 0
6.0320005 -3.0022831 0.94242954 0
6.0260005 -3.0092819 0.94185591 0
6.0200005 -3.016259 0.94128239 0
6.0140004 -3.0232143 0.94070876 0
6.0080004 -3.0301483 0.94013512 0
6.0020003 -3.0370603 0.93956149 0
5.9960003 -3.043951 0.93898785 0
5.9900002 -3.0508199 0.93841434 0
5.9840002 -3.057667 0.93784058 0
5.9770002 -3.0639515 0.93717146 0
5.9710002 -3.0707536 0.93659782 0
5.9650002 -3.0775342 0.93602419 0
5.9590006 -3.0842934 0.93545067 0
5.9530005 -3.0910306 0.93487704 0
5.9470005 -3.0977459 0.9343034 0
5.9420004 -3.1049917 0.93382537 0
5.9360003 -3.111666 0.93325174 0
5.9300003 -3.1183183 0.9326781 0
5.9240003 -3.124949 0.93210459 0
5.9180002 -3.1315582 0.93153095 0
5.9120002 -3.1381457 0.93095732 0
5.9060001 -3.1447117 0.93038368 0
5.9000006 -3.1512558 0.92981017 0
5.8940005 -3.1577785 0.92923653 0
5.8880005 -3.1642795 0.9286629 0
5.8830004 -3.1713285 0.92818487 0
5.8770003 -3.177788 0.92761123 0
6.4840002 -2.4932842 0.97466719 0
6.4770002 -2.5014303 0.97401059 0
6.4700003 -2.509551 0.9733541 0
6.4620004 -2.5172389 0.97260368 0
6.4550004 -2.5253074 0.97194707 0
6.4480004 -2.5333507 0.97129047 0
6.4410005 -2.5413685 0.97063386 0
6.4340005 -2.5493612 0.96997726 0
6.4270005 -2.5573285 0.96932077 0
6.4200006 -2.5652709 0.96866417 0
6.4130006 -2.5731876 0.96800756 0
6.4060006 -2.5810795 0.96735096 0
6.3990002 -2.5889456 0.96669436 0
6.3920002 -2.596787 0.96603775 0
6.3850002 -2.6046028 0.96538115 0
6.3780003 -2.6123934 0.96472466 0
6.3710003 -2.6201589 0.96406806 0
6.3640003 -2.6278989 0.96341145 0
6.3570004 -2.6356139 0.96275485 0
6.3510003 -2.6437399 0.96219206 0
6.3440003 -2.6514063 0.96153545 0
6.3370004 -2.6590471 0.96087885 0
6.3300004 -2.6666629 0.96022236 0
6.3230004 -2.6742532 0.95956576 0
6.3160005 -2.6818185 0.95890915 0
6.3100004 -2.6898055 0.95834637 0
6.3030005 -2.6973221 0.95768976 0
6.2960005 -2.7048135 0.95703316 0
6.2890005 -2.7122796 0.95637667 0
6.2830005 -2.7201746 0.95581377 0
6.2760005 -2.7275918 0.95515728 0
6.2690005 -2.7349839 0.95450068 0
6.2630005 -2.7428105 0.95393789 0
6.2560005 -2.750154 0.95328128 0
6.2490005 -2.757472 0.95262468 0
6.2430005 -2.7652302 0.95206189 0
6.2360005 -2.7724996 0.95140529 0
6.2300005 -2.7802124 0.9508425 0
6.2230005 -2.7874331 0.95018589 0
6.2160006 -2.7946286 0.94952941 0
6.2100005 -2.8022733 0.94896662 0
6.2030005 -2.8094199 0.94831002 0
6.1970005 -2.8170192 0.94774723 0
6.1900005 -2.8241174 0.94709063 0
6.1840005 -2.8316717 0.94652784 0
6.1770005 -2.8387208 0.94587123 0
6.1710005 -2.84623 0.94530845 0
6.1640005 -2.8532307 0.94465184 0
6.1580005 -2.8606949 0.94408906 0
6.1520004 -2.8681374 0.94352627 0
6.1450005 -2.8750658 0.94286966 0
6.1390004 -2.8824632 0.94230688 0
6.1320004 -2.8893428 0.94165039 0
6.1260004 -2.8966954 0.94108748 0
6.1200004 -2.9040258 0.9405247 0
6.1130004 -2.9108336 0.93986821 0
6.1070004 -2.918119 0.93930531 0
6.1010003 -2.9253829 0.93874264 0
6.0940003 -2.9321184 0.93808603 0
6.0880003 -2.9393373 0.93752313 0
6.0820003 -2.9465344 0.93696046 0
6.0760002 -2.9537098 0.93639755 0
6.0690002 -2.9603498 0.93574095 0
6.0630002 -2.9674802 0.93517828 0
6.0570002 -2.9745889 0.93461549 0
6.0510006 -2.9816763 0.93405271 0
6.0450006 -2.9887419 0.93348992 0
6.0380006 -2.9952626 0.93283331 0
6.0320005 -3.0022831 0.93227053 0
6.0260005 -3.0092819 0.93170774 0
6.0200005 -3.016259 0.93114495 0
6.0140004 -3.0232143 0.93058217 0
6.0080004 -3.0301483 0.93001938 0
6.0020003 -3.0370603 0.92945659 0
5.9960003 -3.043951 0.9288938 0
5.9900002 -3.0508199 0.9283309 0
5.9840002 -3.057667 0.92776823 0
5.9770002 -3.0639515 0.92711163 0
5.9710002 -3.0707536 0.92654884 0
