# .PCD v0.7 - Point Cloud Data file format
VERSION 0.7
FIELDS x y z intensity
SIZE 4 4 4 4
TYPE F F F F
COUNT 1 1 1 1
WIDTH 1440
HEIGHT 1
VIEWPOINT 0 0 0 1 0 0 0
POINTS 1440
DATA ascii
2.6510003 0.87976491 0.30655107 0
2.6530001 0.87652338 0.30646449 0
2.6540003 0.87286717 0.30642119 0
2.6560001 0.86961305 0.30633461 0
2.6590002 0.86675584 0.30620474 0
2.6610003 0.86348552 0.30611816 0
2.6640003 0.86060846 0.30598828 0
2.6670003 0.85772061 0.3058584 0
2.6710002 0.85521865 0.30568525 0
2.6750002 0.85270232 0.30551207 0
2.6810002 0.85095805 0.30525234 0
2.6860001 0.84880072 0.30503589 0
2.6940002 0.84779418 0.30468956 0
2.7070003 0.8486979 0.30412674 0
2.8210001 1.2160686 0.29482454 0
2.8130002 1.2075458 0.29518527 0
2.8100002 1.20164 0.29532057 0
2.8090003 1.196777 0.29536566 0
2.8080003 1.1919177 0.29541075 0
2.8080003 1.187574 0.29541075 0
2.8090003 1.183741 0.29536566 0
2.5630002 1.0542617 0.30645907 0
2.5580001 1.0478257 0.30668455 0
2.5550003 1.042418 0.30681986 0
2.5540001 1.0380274 0.30686495 0
2.5540001 1.034142 0.30686495 0
2.5540001 1.0302566 0.30686495 0
2.5540001 1.0263712 0.30686495 0
2.5550003 1.0229819 0.30681986 0
2.5570002 1.0200831 0.30672964 0
2.5580001 1.0166847 0.30668455 0
2.5600002 1.0137734 0.30659437 0
2.5630002 1.0113437 0.30645907 0
2.5660002 1.0089031 0.3063238 0
2.5690002 1.0064518 0.30618852 0
2.5730002 1.004473 0.30600813 0
2.5780003 1.0029614 0.30578265 0
2.5860002 1.0028712 0.30542189 0
2.8740003 1.0651928 0.29243445 0
2.8680003 1.0580461 0.29270506 0
2.8650002 1.0522577 0.29284033 0
2.8630002 1.0469238 0.29293054 0
2.8610003 1.0415972 0.29302073 0
2.8600001 1.0367178 0.29306582 0
2.8600001 1.0322804 0.29306582 0
2.8600001 1.0278431 0.29306582 0
2.8600001 1.0234057 0.29306582 0
2.6630001 0.93368429 0.30194956 0
2.6570003 0.92701566 0.30222014 0
2.6540003 0.92165655 0.30235541 0
2.6510003 0.91630828 0.30249071 0
2.6500001 0.91182214 0.3025358 0
2.6490002 0.90733969 0.30258089 0
2.6480002 0.90286088 0.30262598 0
2.6480002 0.89880598 0.30262598 0
2.6480002 0.89475089 0.30262598 0
2.6480002 0.89069599 0.30262598 0
2.6490002 0.88705587 0.30258089 0
2.6500001 0.88341212 0.3025358 0
2.6510003 0.87976491 0.30249071 0
2.6530001 0.87652338 0.30240053 0
2.6540003 0.87286717 0.30235541 0
2.6560001 0.86961305 0.30226523 0
2.6590002 0.86675584 0.30212995 0
2.6610003 0.86348552 0.30203974 0
2.6640003 0.86060846 0.30190447 0
2.6670003 0.85772061 0.3017692 0
2.6710002 0.85521865 0.3015888 0
2.6750002 0.85270232 0.30140841 0
2.6810002 0.85095805 0.30113786 0
2.6860001 0.84880072 0.30091238 0
2.6940002 0.84779418 0.30055162 0
2.7070003 0.8486979 0.29996538 0
2.8210001 1.2160686 0.29045752 0
2.8130002 1.2075458 0.2908327 0
2.8100002 1.20164 0.2909734 0
2.8090003 1.196777 0.29102027 0
2.8080003 1.1919177 0.29106718 0
2.8080003 1.187574 0.29106718 0
2.8090003 1.183741 0.29102027 0
2.5630002 1.0542617 0.30255744 0
2.5580001 1.0478257 0.30279195 0
2.5550003 1.042418 0.30293262 0
2.5540001 1.0380274 0.30297953 0
2.5540001 1.034142 0.30297953 0
2.5540001 1.0302566 0.30297953 0
2.5540001 1.0263712 0.30297953 0
2.5550003 1.0229819 0.30293262 0
2.5570002 1.0200831 0.30283886 0
2.5580001 1.0166847 0.30279195 0
2.5600002 1.0137734 0.30269814 0
2.5630002 1.0113437 0.30255744 0
2.5660002 1.0089031 0.30241674 0
2.5690002 1.0064518 0.30227605 0
2.5730002 1.004473 0.30208847 0
2.5780003 1.0029614 0.30185395 0
2.5860002 1.0028712 0.30147877 0
2.8740003 1.0651928 0.28797185 0
2.8680003 1.0580461 0.28825325 0
2.8650002 1.0522577 0.28839394 0
2.8630002 1.0469238 0.28848773 0
2.8610003 1.0415972 0.28858155 0
2.8600001 1.0367178 0.28862846 0
2.8600001 1.0322804 0.28862846 0
2.8600001 1.0278431 0.28862846 0
2.8600001 1.0234057 0.28862846 0
2.6630001 0.93368429 0.29786754 0
2.6570003 0.92701566 0.29814893 0
2.6540003 0.92165655 0.29828963 0
2.6510003 0.91630828 0.29843032 0
2.6500001 0.91182214 0.29847723 0
2.6490002 0.90733969 0.29852414 0
2.6480002 0.90286088 0.29857102 0
2.6480002 0.89880598 0.29857102 0
2.6480002 0.89475089 0.29857102 0
2.6480002 0.89069599 0.29857102 0
2.6490002 0.88705587 0.29852414 0
2.6500001 0.88341212 0.29847723 0
2.6510003 0.87976491 0.29843032 0
2.6530001 0.87652338 0.29833654 0
2.6540003 0.87286717 0.29828963 0
2.6560001 0.86961305 0.29819584 0
2.6590002 0.86675584 0.29805514 0
2.6610003 0.86348552 0.29796135 0
2.6640003 0.86060846 0.29782063 0
2.6670003 0.85772061 0.29767996 0
2.6710002 0.85521865 0.29749236 0
2.6750002 0.85270232 0.29730475 0
2.6810002 0.85095805 0.29702336 0
2.6860001 0.84880072 0.29678887 0
2.6940002 0.84779418 0.29641366 0
2.7070003 0.8486979 0.29580399 0
2.8210001 1.2160686 0.28609049 0
2.8130002 1.2075458 0.2864801 0
2.8100002 1.20164 0.28662622 0
2.8090003 1.196777 0.28667492 0
2.8080003 1.1919177 0.28672361 0
2.8080003 1.187574 0.28672361 0
2.8090003 1.183741 0.28667492 0
2.5630002 1.0542617 0.29865581 0
2.5580001 1.0478257 0.29889932 0
2.5550003 1.042418 0.29904544 0
2.5540001 1.0380274 0.29909414 0
2.5540001 1.034142 0.29909414 0
2.5540001 1.0302566 0.29909414 0
2.5540001 1.0263712 0.29909414 0
2.5550003 1.0229819 0.29904544 0
2.5570002 1.0200831 0.29894802 0
2.5580001 1.0166847 0.29889932 0
2.5600002 1.0137734 0.2988019 0
2.5630002 1.0113437 0.29865581 0
2.5660002 1.0089031 0.29850972 0
2.5690002 1.0064518 0.2983636 0
2.5730002 1.004473 0.29816878 0
2.5780003 1.0029614 0.29792526 0
2.5860002 1.0028712 0.29753566 0
2.8740003 1.0651928 0.28350922 0
2.8680003 1.0580461 0.28380144 0
2.8650002 1.0522577 0.28394756 0
2.8630002 1.0469238 0.28404498 0
2.8610003 1.0415972 0.28414237 0
2.8600001 1.0367178 0.28419107 0
2.8600001 1.0322804 0.28419107 0
2.8600001 1.0278431 0.28419107 0
2.8600001 1.0234057 0.28419107 0
2.6630001 0.93368429 0.29378551 0
2.6570003 0.92701566 0.29407775 0
2.6540003 0.92165655 0.29422385 0
2.6510003 0.91630828 0.29436997 0
2.6500001 0.91182214 0.29441866 0
2.6490002 0.90733969 0.29446736 0
2.6480002 0.90286088 0.29451609 0
2.6480002 0.89880598 0.29451609 0
2.6480002 0.89475089 0.29451609 0
2.6480002 0.89069599 0.29451609 0
2.6490002 0.88705587 0.29446736 0
2.6500001 0.88341212 0.29441866 0
2.6510003 0.87976491 0.29436997 0
2.6530001 0.87652338 0.29427254 0
2.6540003 0.87286717 0.29422385 0
2.6560001 0.86961305 0.29412645 0
2.6590002 0.86675584 0.29398036 0
2.6610003 0.86348552 0.29388294 0
2.6640003 0.86060846 0.29373682 0
2.6670003 0.85772061 0.29359072 0
2.6710002 0.85521865 0.29339591 0
2.6750002 0.85270232 0.29320109 0
2.6810002 0.85095805 0.29290888 0
2.6860001 0.84880072 0.29266536 0
2.6940002 0.84779418 0.29227573 0
2.7070003 0.8486979 0.29164261 0
2.8210001 1.2160686 0.28172347 0
2.8130002 1.2075458 0.2821275 0
2.8100002 1.20164 0.28227904 0
2.8090003 1.196777 0.28232953 0
2.8080003 1.1919177 0.28238004 0
2.8080003 1.187574 0.28238004 0
2.8090003 1.183741 0.28232953 0
2.5630002 1.0542617 0.29475418 0
2.5580001 1.0478257 0.29500669 0
2.5550003 1.042418 0.29515821 0
2.5540001 1.0380274 0.29520875 0
2.5540001 1.034142 0.29520875 0
2.5540001 1.0302566 0.29520875 0
2.5540001 1.0263712 0.29520875 0
2.5550003 1.0229819 0.29515821 0
2.5570002 1.0200831 0.29505721 0
2.5580001 1.0166847 0.29500669 0
2.5600002 1.0137734 0.29490569 0
2.5630002 1.0113437 0.29475418 0
2.5660002 1.0089031 0.29460266 0
2.5690002 1.0064518 0.29445112 0
2.5730002 1.004473 0.29424912 0
2.5780003 1.0029614 0.29399657 0
2.5860002 1.0028712 0.29359251 0
2.8740003 1.0651928 0.2790466 0
2.8680003 1.0580461 0.27934965 0
2.8650002 1.0522577 0.27950117 0
2.8630002 1.0469238 0.27960217 0
2.8610003 1.0415972 0.2797032 0
2.8600001 1.0367178 0.27975368 0
2.8600001 1.0322804 0.27975368 0
2.8600001 1.0278431 0.27975368 0
2.8600001 1.0234057 0.27975368 0
2.6630001 0.93368429 0.28970352 0
2.6570003 0.92701566 0.29000655 0
2.6540003 0.92165655 0.29015806 0
2.6510003 0.91630828 0.29030958 0
2.6500001 0.91182214 0.29036009 0
2.6490002 0.90733969 0.29041061 0
2.6480002 0.90286088 0.29046112 0
2.6480002 0.89880598 0.29046112 0
2.6480002 0.89475089 0.29046112 0
2.6480002 0.89069599 0.29046112 0
2.6490002 0.88705587 0.29041061 0
2.6500001 0.88341212 0.29036009 0
2.6510003 0.87976491 0.29030958 0
2.6530001 0.87652338 0.29020858 0
2.6540003 0.87286717 0.29015806 0
2.6560001 0.86961305 0.29005706 0
2.6590002 0.86675584 0.28990555 0
2.6610003 0.86348552 0.28980452 0
2.6640003 0.86060846 0.289653 0
2.6670003 0.85772061 0.28950149 0
2.6710002 0.85521865 0.28929946 0
2.6750002 0.85270232 0.28909743 0
2.6810002 0.85095805 0.2887944 0
2.6860001 0.84880072 0.28854185 0
2.6940002 0.84779418 0.28813779 0
2.7070003 0.8486979 0.28748122 0
2.8210001 1.2160686 0.27735645 0
2.8130002 1.2075458 0.27777493 0
2.8100002 1.20164 0.27793187 0
2.8090003 1.196777 0.27798414 0
2.8080003 1.1919177 0.27803648 0
2.8080003 1.187574 0.27803648 0
2.8090003 1.183741 0.27798414 0
2.5630002 1.0542617 0.29085255 0
2.5580001 1.0478257 0.29111409 0
2.5550003 1.042418 0.291271 0
2.5540001 1.0380274 0.29132333 0
2.5540001 1.034142 0.29132333 0
2.5540001 1.0302566 0.29132333 0
2.5540001 1.0263712 0.29132333 0
2.5550003 1.0229819 0.291271 0
2.5570002 1.0200831 0.29116639 0
2.5580001 1.0166847 0.29111409 0
2.5600002 1.0137734 0.29100946 0
2.5630002 1.0113437 0.29085255 0
2.5660002 1.0089031 0.29069561 0
2.5690002 1.0064518 0.29053867 0
2.5730002 1.004473 0.29032943 0
2.5780003 1.0029614 0.29006788 0
2.5860002 1.0028712 0.2896494 0
2.8740003 1.0651928 0.274584 0
2.8680003 1.0580461 0.27489784 0
2.8650002 1.0522577 0.27505478 0
2.8630002 1.0469238 0.27515942 0
2.8610003 1.0415972 0.27526402 0
2.8600001 1.0367178 0.27531633 0
2.8600001 1.0322804 0.27531633 0
2.8600001 1.0278431 0.27531633 0
2.8600001 1.0234057 0.27531633 0
2.6630001 0.93368429 0.28562149 0
2.6570003 0.92701566 0.28593534 0
2.6540003 0.92165655 0.28609228 0
2.6510003 0.91630828 0.28624922 0
2.6500001 0.91182214 0.28630152 0
2.6490002 0.90733969 0.28635383 0
2.6480002 0.90286088 0.28640616 0
2.6480002 0.89880598 0.28640616 0
2.6480002 0.89475089 0.28640616 0
2.6480002 0.89069599 0.28640616 0
2.6490002 0.88705587 0.28635383 0
2.6500001 0.88341212 0.28630152 0
2.6510003 0.87976491 0.28624922 0
2.6530001 0.87652338 0.28614461 0
2.6540003 0.87286717 0.28609228 0
2.6560001 0.86961305 0.28598768 0
2.6590002 0.86675584 0.28583074 0
2.6610003 0.86348552 0.2857261 0
2.6640003 0.86060846 0.28556919 0
2.6670003 0.85772061 0.28541225 0
2.6710002 0.85521865 0.28520301 0
2.6750002 0.85270232 0.28499377 0
2.6810002 0.85095805 0.28467989 0
2.6860001 0.84880072 0.28441834 0
2.6940002 0.84779418 0.28399986 0
2.7070003 0.8486979 0.28331983 0
2.8210001 1.2160686 0.27298945 0
2.8130002 1.2075458 0.27342236 0
2.8100002 1.20164 0.27358466 0
2.8090003 1.196777 0.27363878 0
2.8080003 1.1919177 0.27369291 0
2.8080003 1.187574 0.27369291 0
2.8090003 1.183741 0.27363878 0
2.5630002 1.0542617 0.28695089 0
2.5580001 1.0478257 0.28722149 0
2.5550003 1.042418 0.28738379 0
2.5540001 1.0380274 0.28743792 0
2.5540001 1.034142 0.28743792 0
2.5540001 1.0302566 0.28743792 0
2.5540001 1.0263712 0.28743792 0
2.5550003 1.0229819 0.28738379 0
2.5570002 1.0200831 0.28727558 0
2.5580001 1.0166847 0.28722149 0
2.5600002 1.0137734 0.28711325 0
2.5630002 1.0113437 0.28695089 0
2.5660002 1.0089031 0.28678855 0
2.5690002 1.0064518 0.28662622 0
2.5730002 1.004473 0.28640977 0
2.5780003 1.0029614 0.28613919 0
2.5860002 1.0028712 0.28570628 0
2.8740003 1.0651928 0.27012134 0
2.8680003 1.0580461 0.27044606 0
2.8650002 1.0522577 0.2706084 0
2.8630002 1.0469238 0.27071664 0
2.8610003 1.0415972 0.27082485 0
2.8600001 1.0367178 0.27087897 0
2.8600001 1.0322804 0.27087897 0
2.8600001 1.0278431 0.27087897 0
2.8600001 1.0234057 0.27087897 0
2.6630001 0.93368429 0.28153947 0
2.6570003 0.92701566 0.28186417 0
2.6540003 0.92165655 0.2820265 0
2.6510003 0.91630828 0.28218883 0
2.6500001 0.91182214 0.28224295 0
2.6490002 0.90733969 0.28229707 0
2.6480002 0.90286088 0.2823512 0
2.6480002 0.89880598 0.2823512 0
2.6480002 0.89475089 0.2823512 0
2.6480002 0.89069599 0.2823512 0
2.6490002 0.88705587 0.28229707 0
2.6500001 0.88341212 0.28224295 0
2.6510003 0.87976491 0.28218883 0
2.6530001 0.87652338 0.28208062 0
2.6540003 0.87286717 0.2820265 0
2.6560001 0.86961305 0.28191829 0
2.6590002 0.86675584 0.28175592 0
2.6610003 0.86348552 0.28164771 0
2.6640003 0.86060846 0.28148535 0
2.6670003 0.85772061 0.28132302 0
2.6710002 0.85521865 0.28110656 0
2.6750002 0.85270232 0.28089011 0
2.6810002 0.85095805 0.28056541 0
2.6860001 0.84880072 0.28029484 0
2.6940002 0.84779418 0.27986193 0
2.7070003 0.8486979 0.27915844 0
2.8210001 1.2160686 0.2686224 0
2.8130002 1.2075458 0.26906973 0
2.8100002 1.20164 0.26923752 0
2.8090003 1.196777 0.26929343 0
2.8080003 1.1919177 0.26934934 0
2.8080003 1.187574 0.26934934 0
2.8090003 1.183741 0.26929343 0
2.5630002 1.0542617 0.28304926 0
2.5580001 1.0478257 0.28332886 0
2.5550003 1.042418 0.28349659 0
2.5540001 1.0380274 0.28355253 0
2.5540001 1.034142 0.28355253 0
2.5540001 1.0302566 0.28355253 0
2.5540001 1.0263712 0.28355253 0
2.5550003 1.0229819 0.28349659 0
2.5570002 1.0200831 0.28338477 0
2.5580001 1.0166847 0.28332886 0
2.5600002 1.0137734 0.28321701 0
2.5630002 1.0113437 0.28304926 0
2.5660002 1.0089031 0.2828815 0
2.5690002 1.0064518 0.28271374 0
2.5730002 1.004473 0.28249007 0
2.5780003 1.0029614 0.28221047 0
2.5860002 1.0028712 0.28176314 0
2.8740003 1.0651928 0.26565874 0
2.8680003 1.0580461 0.26599425 0
2.8650002 1.0522577 0.26616198 0
2.8630002 1.0469238 0.26627386 0
2.8610003 1.0415972 0.26638567 0
2.8600001 1.0367178 0.26644158 0
2.8600001 1.0322804 0.26644158 0
2.8600001 1.0278431 0.26644158 0
2.8600001 1.0234057 0.26644158 0
2.6630001 0.93368429 0.27745748 0
2.6570003 0.92701566 0.27779296 0
2.6540003 0.92165655 0.27796072 0
2.6510003 0.91630828 0.27812845 0
2.6500001 0.91182214 0.27818441 0
2.6490002 0.90733969 0.27824032 0
2.6480002 0.90286088 0.27829623 0
2.6480002 0.89880598 0.27829623 0
2.6480002 0.89475089 0.27829623 0
2.6480002 0.89069599 0.27829623 0
2.6490002 0.88705587 0.27824032 0
2.6500001 0.88341212 0.27818441 0
2.6510003 0.87976491 0.27812845 0
2.6530001 0.87652338 0.27801663 0
2.6540003 0.87286717 0.27796072 0
2.6560001 0.86961305 0.2778489 0
2.6590002 0.86675584 0.27768111 0
2.6610003 0.86348552 0.27756929 0
2.6640003 0.86060846 0.27740154 0
2.6670003 0.85772061 0.27723378 0
2.6710002 0.85521865 0.27701011 0
2.6750002 0.85270232 0.27678645 0
2.6810002 0.85095805 0.27645093 0
2.6860001 0.84880072 0.27617136 0
2.6940002 0.84779418 0.27572399 0
2.7070003 0.8486979 0.27499706 0
2.8210001 1.2160686 0.2642554 0
2.8130002 1.2075458 0.26471716 0
2.8100002 1.20164 0.26489031 0
2.8090003 1.196777 0.26494804 0
2.8080003 1.1919177 0.26500577 0
2.8080003 1.187574 0.26500577 0
2.8090003 1.183741 0.26494804 0
2.5630002 1.0542617 0.27914762 0
2.5580001 1.0478257 0.27943623 0
2.5550003 1.042418 0.27960938 0
2.5540001 1.0380274 0.27966714 0
2.5540001 1.034142 0.27966714 0
2.5540001 1.0302566 0.27966714 0
2.5540001 1.0263712 0.27966714 0
2.5550003 1.0229819 0.27960938 0
2.5570002 1.0200831 0.27949396 0
2.5580001 1.0166847 0.27943623 0
2.5600002 1.0137734 0.27932078 0
2.5630002 1.0113437 0.27914762 0
2.5660002 1.0089031 0.27897447 0
2.5690002 1.0064518 0.27880129 0
2.5730002 1.004473 0.27857041 0
2.5780003 1.0029614 0.27828181 0
2.5860002 1.0028712 0.27782002 0
2.8740003 1.0651928 0.26119614 0
2.8680003 1.0580461 0.26154244 0
2.8650002 1.0522577 0.26171562 0
2.8630002 1.0469238 0.26183107 0
2.8610003 1.0415972 0.2619465 0
2.8600001 1.0367178 0.26200426 0
2.8600001 1.0322804 0.26200426 0
2.8600001 1.0278431 0.26200426 0
2.8600001 1.0234057 0.26200426 0
2.6630001 0.93368429 0.27337545 0
2.6570003 0.92701566 0.27372175 0
2.6540003 0.92165655 0.27389494 0
2.6510003 0.91630828 0.27406812 0
2.6500001 0.91182214 0.27412581 0
2.6490002 0.90733969 0.27418354 0
2.6480002 0.90286088 0.27424127 0
2.6480002 0.89880598 0.27424127 0
2.6480002 0.89475089 0.27424127 0
2.6480002 0.89069599 0.27424127 0
2.6490002 0.88705587 0.27418354 0
2.6500001 0.88341212 0.27412581 0
2.6510003 0.87976491 0.27406812 0
2.6530001 0.87652338 0.27395266 0
2.6540003 0.87286717 0.27389494 0
2.6560001 0.86961305 0.27377951 0
2.6590002 0.86675584 0.27360633 0
2.6610003 0.86348552 0.27349088 0
2.6640003 0.86060846 0.27331769 0
2.6670003 0.85772061 0.27314454 0
2.6710002 0.85521865 0.27291366 0
2.6750002 0.85270232 0.27268279 0
2.6810002 0.85095805 0.27233642 0
2.6860001 0.84880072 0.27204782 0
2.6940002 0.84779418 0.27158606 0
2.7070003 0.8486979 0.27083567 0
2.8210001 1.2160686 0.25988838 0
2.8130002 1.2075458 0.26036456 0
2.8100002 1.20164 0.26054314 0
2.8090003 1.196777 0.26060265 0
2.8080003 1.1919177 0.2606622 0
2.8080003 1.187574 0.2606622 0
2.8090003 1.183741 0.26060265 0
2.5630002 1.0542617 0.27524596 0
2.5580001 1.0478257 0.27554363 0
2.5550003 1.042418 0.27572221 0
2.5540001 1.0380274 0.27578172 0
2.5540001 1.034142 0.27578172 0
2.5540001 1.0302566 0.27578172 0
2.5540001 1.0263712 0.27578172 0
2.5550003 1.0229819 0.27572221 0
2.5570002 1.0200831 0.27560315 0
2.5580001 1.0166847 0.27554363 0
2.5600002 1.0137734 0.27542454 0
2.5630002 1.0113437 0.27524596 0
2.5660002 1.0089031 0.27506739 0
2.5690002 1.0064518 0.27488881 0
2.5730002 1.004473 0.27465075 0
2.5780003 1.0029614 0.27435309 0
2.5860002 1.0028712 0.27387691 0
2.8740003 1.0651928 0.25673348 0
2.8680003 1.0580461 0.25709063 0
2.8650002 1.0522577 0.25726923 0
2.8630002 1.0469238 0.25738829 0
2.8610003 1.0415972 0.25750732 0
2.8600001 1.0367178 0.25756687 0
2.8600001 1.0322804 0.25756687 0
2.8600001 1.0278431 0.25756687 0
2.8600001 1.0234057 0.25756687 0
2.6630001 0.93368429 0.26929343 0
2.6570003 0.92701566 0.26965058 0
2.6540003 0.92165655 0.26982915 0
2.6510003 0.91630828 0.27000773 0
2.6500001 0.91182214 0.27006727 0
2.6490002 0.90733969 0.27012676 0
2.6480002 0.90286088 0.27018631 0
2.6480002 0.89880598 0.27018631 0
2.6480002 0.89475089 0.27018631 0
2.6480002 0.89069599 0.27018631 0
2.6490002 0.88705587 0.27012676 0
2.6500001 0.88341212 0.27006727 0
2.6510003 0.87976491 0.27000773 0
2.6530001 0.87652338 0.2698887 0
2.6540003 0.87286717 0.26982915 0
2.6560001 0.86961305 0.26971012 0
2.6590002 0.86675584 0.26953152 0
2.6610003 0.86348552 0.26941246 0
2.6640003 0.86060846 0.26923388 0
2.6670003 0.85772061 0.26905531 0
2.6710002 0.85521865 0.26881719 0
2.6750002 0.85270232 0.26857913 0
2.6810002 0.85095805 0.26822197 0
2.6860001 0.84880072 0.26792431 0
2.6940002 0.84779418 0.26744813 0
2.7070003 0.8486979 0.26667428 0
2.8210001 1.2160686 0.25552136 0
2.8130002 1.2075458 0.25601196 0
2.8100002 1.20164 0.25619596 0
2.8090003 1.196777 0.2562573 0
2.8080003 1.1919177 0.25631863 0
2.8080003 1.187574 0.25631863 0
2.8090003 1.183741 0.2562573 0
2.5630002 1.0542617 0.27134436 0
2.5580001 1.0478257 0.271651 0
2.5550003 1.042418 0.27183497 0
2.5540001 1.0380274 0.2718963 0
2.5540001 1.034142 0.2718963 0
2.5540001 1.0302566 0.2718963 0
2.5540001 1.0263712 0.2718963 0
2.5550003 1.0229819 0.27183497 0
2.5570002 1.0200831 0.2717123 0
2.5580001 1.0166847 0.271651 0
2.5600002 1.0137734 0.27152833 0
2.5630002 1.0113437 0.27134436 0
2.5660002 1.0089031 0.27116036 0
2.5690002 1.0064518 0.27097636 0
2.5730002 1.004473 0.27073103 0
2.5780003 1.0029614 0.2704244 0
2.5860002 1.0028712 0.26993376 0
2.8740003 1.0651928 0.25227088 0
2.8680003 1.0580461 0.25263888 0
2.8650002 1.0522577 0.25282285 0
2.8630002 1.0469238 0.25294548 0
2.8610003 1.0415972 0.25306815 0
2.8600001 1.0367178 0.25312948 0
2.8600001 1.0322804 0.25312948 0
2.8600001 1.0278431 0.25312948 0
2.8600001 1.0234057 0.25312948 0
2.6630001 0.93368429 0.2652114 0
2.6570003 0.92701566 0.26557937 0
2.6540003 0.92165655 0.26576334 0
2.6510003 0.91630828 0.26594734 0
2.6500001 0.91182214 0.26600868 0
2.6490002 0.90733969 0.26607001 0
2.6480002 0.90286088 0.26613134 0
2.6480002 0.89880598 0.26613134 0
2.6480002 0.89475089 0.26613134 0
2.6480002 0.89069599 0.26613134 0
2.6490002 0.88705587 0.26607001 0
2.6500001 0.88341212 0.26600868 0
2.6510003 0.87976491 0.26594734 0
2.6530001 0.87652338 0.26582471 0
2.6540003 0.87286717 0.26576334 0
2.6560001 0.86961305 0.26564071 0
2.6590002 0.86675584 0.26545674 0
2.6610003 0.86348552 0.26533407 0
2.6640003 0.86060846 0.26515007 0
2.6670003 0.85772061 0.26496607 0
2.6710002 0.85521865 0.26472077 0
2.6750002 0.85270232 0.26447546 0
2.6810002 0.85095805 0.26410747 0
2.6860001 0.84880072 0.26380083 0
2.6940002 0.84779418 0.26331019 0
2.7070003 0.8486979 0.26251292 0
2.8210001 1.2160686 0.25115433 0
2.8130002 1.2075458 0.25165939 0
2.8100002 1.20164 0.25184879 0
2.8090003 1.196777 0.25191194 0
2.8080003 1.1919177 0.25197506 0
2.8080003 1.187574 0.25197506 0
2.8090003 1.183741 0.25191194 0
2.5630002 1.0542617 0.2674427 0
2.5580001 1.0478257 0.26775837 0
2.5550003 1.042418 0.26794776 0
2.5540001 1.0380274 0.26801091 0
2.5540001 1.034142 0.26801091 0
2.5540001 1.0302566 0.26801091 0
2.5540001 1.0263712 0.26801091 0
2.5550003 1.0229819 0.26794776 0
2.5570002 1.0200831 0.26782149 0
2.5580001 1.0166847 0.26775837 0
2.5600002 1.0137734 0.26763213 0
2.5630002 1.0113437 0.2674427 0
2.5660002 1.0089031 0.26725331 0
2.5690002 1.0064518 0.26706392 0
2.5730002 1.004473 0.26681137 0
2.5780003 1.0029614 0.2664957 0
2.5860002 1.0028712 0.26599064 0
2.8740003 1.0651928 0.24780826 0
2.8680003 1.0580461 0.24818705 0
2.8650002 1.0522577 0.24837644 0
2.8630002 1.0469238 0.24850273 0
2.8610003 1.0415972 0.24862899 0
2.8600001 1.0367178 0.24869214 0
2.8600001 1.0322804 0.24869214 0
2.8600001 1.0278431 0.24869214 0
2.8600001 1.0234057 0.24869214 0
2.6630001 0.93368429 0.26112938 0
2.6570003 0.92701566 0.26150817 0
2.6540003 0.92165655 0.26169759 0
2.6510003 0.91630828 0.26188698 0
2.6500001 0.91182214 0.26195014 0
2.6490002 0.90733969 0.26201326 0
2.6480002 0.90286088 0.26207638 0
2.6480002 0.89880598 0.26207638 0
2.6480002 0.89475089 0.26207638 0
2.6480002 0.89069599 0.26207638 0
2.6490002 0.88705587 0.26201326 0
2.6500001 0.88341212 0.26195014 0
2.6510003 0.87976491 0.26188698 0
2.6530001 0.87652338 0.26176071 0
2.6540003 0.87286717 0.26169759 0
2.6560001 0.86961305 0.26157132 0
2.6590002 0.86675584 0.26138192 0
2.6610003 0.86348552 0.26125565 0
2.6640003 0.86060846 0.26106626 0
2.6670003 0.85772061 0.26087683 0
2.6710002 0.85521865 0.26062429 0
2.6750002 0.85270232 0.2603718 0
2.6810002 0.85095805 0.25999296 0
2.6860001 0.84880072 0.25967732 0
2.6940002 0.84779418 0.25917226 0
2.7070003 0.8486979 0.2583515 0
2.8210001 1.2160686 0.24678731 0
2.8130002 1.2075458 0.24730679 0
2.8100002 1.20164 0.24750161 0
2.8090003 1.196777 0.24756655 0
2.8080003 1.1919177 0.24763148 0
2.8080003 1.187574 0.24763148 0
2.8090003 1.183741 0.24756655 0
2.5630002 1.0542617 0.26354107 0
2.5580001 1.0478257 0.26386577 0
2.5550003 1.042418 0.26406056 0
2.5540001 1.0380274 0.26412553 0
2.5540001 1.034142 0.26412553 0
2.5540001 1.0302566 0.26412553 0
2.5540001 1.0263712 0.26412553 0
2.5550003 1.0229819 0.26406056 0
2.5570002 1.0200831 0.26393071 0
2.5580001 1.0166847 0.26386577 0
2.5600002 1.0137734 0.26373589 0
2.5630002 1.0113437 0.26354107 0
2.5660002 1.0089031 0.26334625 0
2.5690002 1.0064518 0.26315147 0
2.5730002 1.004473 0.26289171 0
2.5780003 1.0029614 0.26256701 0
2.5860002 1.0028712 0.26204753 0
2.8740003 1.0651928 0.24334563 0
2.8680003 1.0580461 0.24373525 0
2.8650002 1.0522577 0.24393007 0
2.8630002 1.0469238 0.24405995 0
2.8610003 1.0415972 0.24418981 0
2.8600001 1.0367178 0.24425477 0
2.8600001 1.0322804 0.24425477 0
2.8600001 1.0278431 0.24425477 0
2.8600001 1.0234057 0.24425477 0
2.6630001 0.93368429 0.25704736 0
2.6570003 0.92701566 0.25743699 0
2.6540003 0.92165655 0.25763178 0
2.6510003 0.91630828 0.25782663 0
2.6500001 0.91182214 0.25789154 0
2.6490002 0.90733969 0.2579565 0
2.6480002 0.90286088 0.25802141 0
2.6480002 0.89880598 0.25802141 0
2.6480002 0.89475089 0.25802141 0
2.6480002 0.89069599 0.25802141 0
2.6490002 0.88705587 0.2579565 0
2.6500001 0.88341212 0.25789154 0
2.6510003 0.87976491 0.25782663 0
2.6530001 0.87652338 0.25769675 0
2.6540003 0.87286717 0.25763178 0
2.6560001 0.86961305 0.25750193 0
2.6590002 0.86675584 0.25730711 0
2.6610003 0.86348552 0.25717723 0
2.6640003 0.86060846 0.25698245 0
2.6670003 0.85772061 0.2567876 0
2.6710002 0.85521865 0.25652787 0
2.6750002 0.85270232 0.25626814 0
2.6810002 0.85095805 0.25587851 0
2.6860001 0.84880072 0.25555384 0
2.6940002 0.84779418 0.25503433 0
2.7070003 0.8486979 0.25419015 0
2.8210001 1.2160686 0.24242029 0
2.8130002 1.2075458 0.24295421 0
2.8100002 1.20164 0.24315444 0
2.8090003 1.196777 0.24322118 0
2.8080003 1.1919177 0.24328791 0
2.8080003 1.187574 0.24328791 0
2.8090003 1.183741 0.24322118 0
2.5630002 1.0542617 0.25963944 0
2.5580001 1.0478257 0.25997317 0
2.5550003 1.042418 0.26017335 0
2.5540001 1.0380274 0.26024014 0
2.5540001 1.034142 0.26024014 0
2.5540001 1.0302566 0.26024014 0
2.5540001 1.0263712 0.26024014 0
2.5550003 1.0229819 0.26017335 0
2.5570002 1.0200831 0.26003987 0
2.5580001 1.0166847 0.25997317 0
2.5600002 1.0137734 0.25983965 0
2.5630002 1.0113437 0.25963944 0
2.5660002 1.0089031 0.25943923 0
2.5690002 1.0064518 0.25923899 0
2.5730002 1.004473 0.25897205 0
2.5780003 1.0029614 0.25863832 0
2.5860002 1.0028712 0.25810438 0
2.8740003 1.0651928 0.238883 0
2.8680003 1.0580461 0.23928346 0
2.8650002 1.0522577 0.23948368 0
2.8630002 1.0469238 0.23961717 0
2.8610003 1.0415972 0.23975064 0
2.8600001 1.0367178 0.2398174 0
2.8600001 1.0322804 0.2398174 0
2.8600001 1.0278431 0.2398174 0
2.8600001 1.0234057 0.2398174 0
2.6630001 0.93368429 0.25296533 0
2.6570003 0.92701566 0.25336578 0
2.6540003 0.92165655 0.253566 0
2.6510003 0.91630828 0.25376624 0
2.6500001 0.91182214 0.253833 0
2.6490002 0.90733969 0.25389972 0
2.6480002 0.90286088 0.25396645 0
2.6480002 0.89880598 0.25396645 0
2.6480002 0.89475089 0.25396645 0
2.6480002 0.89069599 0.25396645 0
2.6490002 0.88705587 0.25389972 0
2.6500001 0.88341212 0.253833 0
2.6510003 0.87976491 0.25376624 0
2.6530001 0.87652338 0.25363278 0
2.6540003 0.87286717 0.253566 0
2.6560001 0.86961305 0.25343254 0
2.6590002 0.86675584 0.2532323 0
2.6610003 0.86348552 0.25309885 0
2.6640003 0.86060846 0.2528986 0
2.6670003 0.85772061 0.25269836 0
2.6710002 0.85521865 0.25243139 0
2.6750002 0.85270232 0.25216445 0
2.6810002 0.85095805 0.251764 0
2.6860001 0.84880072 0.25143033 0
2.6940002 0.84779418 0.25089639 0
2.7070003 0.8486979 0.25002873 0
2.8210001 1.2160686 0.23805328 0
2.8130002 1.2075458 0.23860162 0
2.8100002 1.20164 0.23880726 0
2.8090003 1.196777 0.23887579 0
2.8080003 1.1919177 0.23894434 0
2.8080003 1.187574 0.23894434 0
2.8090003 1.183741 0.23887579 0
2.5630002 1.0542617 0.25573781 0
2.5580001 1.0478257 0.25608054 0
2.5550003 1.042418 0.25628614 0
2.5540001 1.0380274 0.25635469 0
2.5540001 1.034142 0.25635469 0
2.5540001 1.0302566 0.25635469 0
2.5540001 1.0263712 0.25635469 0
2.5550003 1.0229819 0.25628614 0
2.5570002 1.0200831 0.25614905 0
2.5580001 1.0166847 0.25608054 0
2.5600002 1.0137734 0.25594342 0
2.5630002 1.0113437 0.25573781 0
2.5660002 1.0089031 0.25553215 0
2.5690002 1.0064518 0.25532651 0
2.5730002 1.004473 0.25505236 0
2.5780003 1.0029614 0.2547096 0
2.5860002 1.0028712 0.2541613 0
2.8740003 1.0651928 0.23442039 0
2.8680003 1.0580461 0.23483166 0
2.8650002 1.0522577 0.2350373 0
2.8630002 1.0469238 0.23517439 0
2.8610003 1.0415972 0.23531148 0
2.8600001 1.0367178 0.23538002 0
2.8600001 1.0322804 0.23538002 0
2.8600001 1.0278431 0.23538002 0
2.8600001 1.0234057 0.23538002 0
2.6630001 0.93368429 0.24888334 0
2.6570003 0.92701566 0.24929459 0
2.6540003 0.92165655 0.24950023 0
2.6510003 0.91630828 0.24970585 0
2.6500001 0.91182214 0.24977441 0
2.6490002 0.90733969 0.24984296 0
2.6480002 0.90286088 0.2499115 0
2.6480002 0.89880598 0.2499115 0
2.6480002 0.89475089 0.2499115 0
2.6480002 0.89069599 0.2499115 0
2.6490002 0.88705587 0.24984296 0
2.6500001 0.88341212 0.24977441 0
2.6510003 0.87976491 0.24970585 0
2.6530001 0.87652338 0.24956879 0
2.6540003 0.87286717 0.24950023 0
2.6560001 0.86961305 0.24936314 0
2.6590002 0.86675584 0.2491575 0
2.6610003 0.86348552 0.24902041 0
2.6640003 0.86060846 0.24881478 0
2.6670003 0.85772061 0.24860914 0
2.6710002 0.85521865 0.24833497 0
2.6750002 0.85270232 0.24806079 0
2.6810002 0.85095805 0.24764952 0
2.6860001 0.84880072 0.24730679 0
2.6940002 0.84779418 0.24675845 0
2.7070003 0.8486979 0.24586736 0
2.8210001 1.2160686 0.23368625 0
2.8130002 1.2075458 0.23424904 0
2.8100002 1.20164 0.23446007 0
2.8090003 1.196777 0.23453043 0
2.8080003 1.1919177 0.23460077 0
2.8080003 1.187574 0.23460077 0
2.8090003 1.183741 0.23453043 0
2.5630002 1.0542617 0.25183618 0
2.5580001 1.0478257 0.25218791 0
2.5550003 1.042418 0.25239897 0
2.5540001 1.0380274 0.2524693 0
2.5540001 1.034142 0.2524693 0
2.5540001 1.0302566 0.2524693 0
2.5540001 1.0263712 0.2524693 0
2.5550003 1.0229819 0.25239897 0
2.5570002 1.0200831 0.25225824 0
2.5580001 1.0166847 0.25218791 0
2.5600002 1.0137734 0.25204721 0
2.5630002 1.0113437 0.25183618 0
2.5660002 1.0089031 0.25162512 0
2.5690002 1.0064518 0.25141406 0
2.5730002 1.004473 0.25113267 0
2.5780003 1.0029614 0.25078094 0
2.5860002 1.0028712 0.25021815 0
2.8740003 1.0651928 0.22995777 0
2.8680003 1.0580461 0.23037986 0
2.8650002 1.0522577 0.23059089 0
2.8630002 1.0469238 0.23073162 0
2.8610003 1.0415972 0.23087229 0
2.8600001 1.0367178 0.23094265 0
2.8600001 1.0322804 0.23094265 0
2.8600001 1.0278431 0.23094265 0
2.8600001 1.0234057 0.23094265 0
2.6630001 0.93368429 0.24480131 0
2.6570003 0.92701566 0.24522339 0
2.6540003 0.92165655 0.24543445 0
2.6510003 0.91630828 0.24564548 0
2.6500001 0.91182214 0.24571586 0
2.6490002 0.90733969 0.24578619 0
2.6480002 0.90286088 0.24585654 0
2.6480002 0.89880598 0.24585654 0
2.6480002 0.89475089 0.24585654 0
2.6480002 0.89069599 0.24585654 0
2.6490002 0.88705587 0.24578619 0
2.6500001 0.88341212 0.24571586 0
2.6510003 0.87976491 0.24564548 0
2.6530001 0.87652338 0.2455048 0
2.6540003 0.87286717 0.24543445 0
2.6560001 0.86961305 0.24529375 0
2.6590002 0.86675584 0.24508271 0
2.6610003 0.86348552 0.24494199 0
2.6640003 0.86060846 0.24473096 0
2.6670003 0.85772061 0.2445199 0
2.6710002 0.85521865 0.24423851 0
2.6750002 0.85270232 0.24395713 0
2.6810002 0.85095805 0.24353503 0
2.6860001 0.84880072 0.2431833 0
2.6940002 0.84779418 0.24262051 0
2.7070003 0.8486979 0.24170597 0
2.8210001 1.2160686 0.22931924 0
2.8130002 1.2075458 0.22989644 0
2.8100002 1.20164 0.23011291 0
2.8090003 1.196777 0.23018505 0
2.8080003 1.1919177 0.2302572 0
2.8080003 1.187574 0.2302572 0
2.8090003 1.183741 0.23018505 0
2.5630002 1.0542617 0.24793452 0
2.5580001 1.0478257 0.24829529 0
2.5550003 1.042418 0.24851173 0
2.5540001 1.0380274 0.2485839 0
2.5540001 1.034142 0.2485839 0
2.5540001 1.0302566 0.2485839 0
2.5540001 1.0263712 0.2485839 0
2.5550003 1.0229819 0.24851173 0
2.5570002 1.0200831 0.24836744 0
2.5580001 1.0166847 0.24829529 0
2.5600002 1.0137734 0.24815099 0
2.5630002 1.0113437 0.24793452 0
2.5660002 1.0089031 0.24771807 0
2.5690002 1.0064518 0.2475016 0
2.5730002 1.004473 0.24721301 0
2.5780003 1.0029614 0.24685223 0
2.5860002 1.0028712 0.24627502 0
2.8740003 1.0651928 0.22549514 0
2.8680003 1.0580461 0.22592805 0
2.8650002 1.0522577 0.22614452 0
2.8630002 1.0469238 0.22628883 0
2.8610003 1.0415972 0.22643313 0
2.8600001 1.0367178 0.22650529 0
2.8600001 1.0322804 0.22650529 0
2.8600001 1.0278431 0.22650529 0
2.8600001 1.0234057 0.22650529 0
2.6630001 0.93368429 0.24071929 0
2.6570003 0.92701566 0.2411522 0
2.6540003 0.92165655 0.24136867 0
2.6510003 0.91630828 0.24158511 0
2.6500001 0.91182214 0.24165729 0
2.6490002 0.90733969 0.24172942 0
2.6480002 0.90286088 0.24180157 0
2.6480002 0.89880598 0.24180157 0
2.6480002 0.89475089 0.24180157 0
2.6480002 0.89069599 0.24180157 0
2.6490002 0.88705587 0.24172942 0
2.6500001 0.88341212 0.24165729 0
2.6510003 0.87976491 0.24158511 0
2.6530001 0.87652338 0.24144082 0
2.6540003 0.87286717 0.24136867 0
2.6560001 0.86961305 0.24122436 0
2.6590002 0.86675584 0.24100791 0
2.6610003 0.86348552 0.24086361 0
2.6640003 0.86060846 0.24064714 0
2.6670003 0.85772061 0.24043068 0
2.6710002 0.85521865 0.24014208 0
2.6750002 0.85270232 0.23985347 0
2.6810002 0.85095805 0.23942055 0
2.6860001 0.84880072 0.23905979 0
2.6940002 0.84779418 0.23848256 0
2.7070003 0.8486979 0.23754458 0
2.8210001 1.2160686 0.22495221 0
2.8130002 1.2075458 0.22554386 0
2.8100002 1.20164 0.22576572 0
2.8090003 1.196777 0.22583967 0
2.8080003 1.1919177 0.22591363 0
2.8080003 1.187574 0.22591363 0
2.8090003 1.183741 0.22583967 0
2.5630002 1.0542617 0.24403289 0
2.5580001 1.0478257 0.24440268 0
2.5550003 1.042418 0.24462453 0
2.5540001 1.0380274 0.24469849 0
2.5540001 1.034142 0.24469849 0
2.5540001 1.0302566 0.24469849 0
2.5540001 1.0263712 0.24469849 0
2.5550003 1.0229819 0.24462453 0
2.5570002 1.0200831 0.24447663 0
2.5580001 1.0166847 0.24440268 0
2.5600002 1.0137734 0.24425475 0
2.5630002 1.0113437 0.24403289 0
2.5660002 1.0089031 0.24381101 0
2.5690002 1.0064518 0.24358915 0
2.5730002 1.004473 0.24329333 0
2.5780003 1.0029614 0.24292353 0
2.5860002 1.0028712 0.24233189 0
2.8740003 1.0651928 0.22103253 0
2.8680003 1.0580461 0.22147627 0
2.8650002 1.0522577 0.22169814 0
2.8630002 1.0469238 0.22184606 0
2.8610003 1.0415972 0.22199395 0
2.8600001 1.0367178 0.22206792 0
2.8600001 1.0322804 0.22206792 0
2.8600001 1.0278431 0.22206792 0
2.8600001 1.0234057 0.22206792 0
2.6630001 0.93368429 0.23663729 0
2.6570003 0.92701566 0.23708101 0
2.6540003 0.92165655 0.23730287 0
2.6510003 0.91630828 0.23752475 0
2.6500001 0.91182214 0.23759872 0
2.6490002 0.90733969 0.23767267 0
2.6480002 0.90286088 0.23774661 0
2.6480002 0.89880598 0.23774661 0
2.6480002 0.89475089 0.23774661 0
2.6480002 0.89069599 0.23774661 0
2.6490002 0.88705587 0.23767267 0
2.6500001 0.88341212 0.23759872 0
2.6510003 0.87976491 0.23752475 0
2.6530001 0.87652338 0.23737684 0
2.6540003 0.87286717 0.23730287 0
2.6560001 0.86961305 0.23715498 0
2.6590002 0.86675584 0.2369331 0
2.6610003 0.86348552 0.23678519 0
2.6640003 0.86060846 0.23656331 0
2.6670003 0.85772061 0.23634145 0
2.6710002 0.85521865 0.23604561 0
2.6750002 0.85270232 0.23574981 0
2.6810002 0.85095805 0.23530607 0
2.6860001 0.84880072 0.2349363 0
2.6940002 0.84779418 0.23434463 0
2.7070003 0.8486979 0.23338321 0
2.8210001 1.2160686 0.2205852 0
2.8130002 1.2075458 0.22119126 0
2.8100002 1.20164 0.22141854 0
2.8090003 1.196777 0.2214943 0
2.8080003 1.1919177 0.22157006 0
2.8080003 1.187574 0.22157006 0
2.8090003 1.183741 0.2214943 0
2.5630002 1.0542617 0.24013124 0
2.5580001 1.0478257 0.24051006 0
2.5550003 1.042418 0.24073732 0
2.5540001 1.0380274 0.24081309 0
2.5540001 1.034142 0.24081309 0
2.5540001 1.0302566 0.24081309 0
2.5540001 1.0263712 0.24081309 0
2.5550003 1.0229819 0.24073732 0
2.5570002 1.0200831 0.24058582 0
2.5580001 1.0166847 0.24051006 0
2.5600002 1.0137734 0.24035853 0
2.5630002 1.0113437 0.24013124 0
2.5660002 1.0089031 0.23990397 0
2.5690002 1.0064518 0.23967668 0
2.5730002 1.004473 0.23937365 0
2.5780003 1.0029614 0.23899485 0
2.5860002 1.0028712 0.23838878 0
2.8740003 1.0651928 0.2165699 0
2.8680003 1.0580461 0.21702446 0
2.8650002 1.0522577 0.21725175 0
2.8630002 1.0469238 0.21740328 0
2.8610003 1.0415972 0.21755478 0
2.8600001 1.0367178 0.21763055 0
2.8600001 1.0322804 0.21763055 0
2.8600001 1.0278431 0.21763055 0
2.8600001 1.0234057 0.21763055 0
2.6630001 0.93368429 0.23255527 0
2.6570003 0.92701566 0.23300982 0
2.6540003 0.92165655 0.23323709 0
2.6510003 0.91630828 0.23346438 0
2.6500001 0.91182214 0.23354015 0
2.6490002 0.90733969 0.23361591 0
2.6480002 0.90286088 0.23369165 0
2.6480002 0.89880598 0.23369165 0
2.6480002 0.89475089 0.23369165 0
2.6480002 0.89069599 0.23369165 0
2.6490002 0.88705587 0.23361591 0
2.6500001 0.88341212 0.23354015 0
2.6510003 0.87976491 0.23346438 0
2.6530001 0.87652338 0.23331286 0
2.6540003 0.87286717 0.23323709 0
2.6560001 0.86961305 0.23308559 0
2.6590002 0.86675584 0.2328583 0
2.6610003 0.86348552 0.23270677 0
2.6640003 0.86060846 0.2324795 0
2.6670003 0.85772061 0.23225221 0
2.6710002 0.85521865 0.23194918 0
2.6750002 0.85270232 0.23164614 0
2.6810002 0.85095805 0.23119158 0
2.6860001 0.84880072 0.23081279 0
2.6940002 0.84779418 0.2302067 0
2.7070003 0.8486979 0.22922182 0
2.8210001 1.2160686 0.21621817 0
2.8130002 1.2075458 0.21683867 0
2.8100002 1.20164 0.21707137 0
2.8090003 1.196777 0.21714893 0
2.8080003 1.1919177 0.21722649 0
2.8080003 1.187574 0.21722649 0
2.8090003 1.183741 0.21714893 0
2.5630002 1.0542617 0.23622961 0
2.5580001 1.0478257 0.23661745 0
2.5550003 1.042418 0.23685011 0
2.5540001 1.0380274 0.23692769 0
2.5540001 1.034142 0.23692769 0
2.5540001 1.0302566 0.23692769 0
2.5540001 1.0263712 0.23692769 0
2.5550003 1.0229819 0.23685011 0
2.5570002 1.0200831 0.23669501 0
2.5580001 1.0166847 0.23661745 0
2.5600002 1.0137734 0.23646231 0
2.5630002 1.0113437 0.23622961 0
2.5660002 1.0089031 0.23599692 0
2.5690002 1.0064518 0.23576424 0
2.5730002 1.004473 0.23545398 0
2.5780003 1.0029614 0.23506616 0
2.5860002 1.0028712 0.23444566 0
2.8740003 1.0651928 0.21210727 0
2.8680003 1.0580461 0.21257266 0
2.8650002 1.0522577 0.21280535 0
2.8630002 1.0469238 0.2129605 0
2.8610003 1.0415972 0.21311562 0
2.8600001 1.0367178 0.21319319 0
2.8600001 1.0322804 0.21319319 0
2.8600001 1.0278431 0.21319319 0
2.8600001 1.0234057 0.21319319 0
2.6630001 0.93368429 0.22847325 0
2.6570003 0.92701566 0.22893861 0
2.6540003 0.92165655 0.22917131 0
2.6510003 0.91630828 0.229404 0
2.6500001 0.91182214 0.22948158 0
2.6490002 0.90733969 0.22955914 0
2.6480002 0.90286088 0.22963668 0
2.6480002 0.89880598 0.22963668 0
2.6480002 0.89475089 0.22963668 0
2.6480002 0.89069599 0.22963668 0
2.6490002 0.88705587 0.22955914 0
2.6500001 0.88341212 0.22948158 0
2.6510003 0.87976491 0.229404 0
2.6530001 0.87652338 0.22924888 0
2.6540003 0.87286717 0.22917131 0
2.6560001 0.86961305 0.22901618 0
2.6590002 0.86675584 0.2287835 0
2.6610003 0.86348552 0.22862837 0
2.6640003 0.86060846 0.22839567 0
2.6670003 0.85772061 0.22816297 0
2.6710002 0.85521865 0.22785272 0
2.6750002 0.85270232 0.22754247 0
2.6810002 0.85095805 0.22707708 0
2.6860001 0.84880072 0.22668928 0
2.6940002 0.84779418 0.22606876 0
2.7070003 0.8486979 0.22506043 0
2.8210001 1.2160686 0.21185115 0
2.8130002 1.2075458 0.21248609 0
2.8100002 1.20164 0.21272419 0
2.8090003 1.196777 0.21280354 0
2.8080003 1.1919177 0.21288291 0
2.8080003 1.187574 0.21288291 0
2.8090003 1.183741 0.21280354 0
2.5630002 1.0542617 0.23232798 0
2.5580001 1.0478257 0.23272483 0
2.5550003 1.042418 0.23296291 0
2.5540001 1.0380274 0.23304228 0
2.5540001 1.034142 0.23304228 0
2.5540001 1.0302566 0.23304228 0
2.5540001 1.0263712 0.23304228 0
2.5550003 1.0229819 0.23296291 0
2.5570002 1.0200831 0.23280418 0
2.5580001 1.0166847 0.23272483 0
2.5600002 1.0137734 0.23256609 0
2.5630002 1.0113437 0.23232798 0
2.5660002 1.0089031 0.23208986 0
2.5690002 1.0064518 0.23185177 0
2.5730002 1.004473 0.2315343 0
2.5780003 1.0029614 0.23113745 0
2.5860002 1.0028712 0.23050252 0
2.8740003 1.0651928 0.20764466 0
2.8680003 1.0580461 0.20812087 0
2.8650002 1.0522577 0.20835897 0
2.8630002 1.0469238 0.20851772 0
2.8610003 1.0415972 0.20867643 0
2.8600001 1.0367178 0.20875581 0
2.8600001 1.0322804 0.20875581 0
2.8600001 1.0278431 0.20875581 0
2.8600001 1.0234057 0.20875581 0
2.6630001 0.93368429 0.22439124 0
2.6570003 0.92701566 0.22486742 0
2.6540003 0.92165655 0.22510552 0
2.6510003 0.91630828 0.22534363 0
2.6500001 0.91182214 0.22542301 0
2.6490002 0.90733969 0.22550237 0
2.6480002 0.90286088 0.22558174 0
2.6480002 0.89880598 0.22558174 0
2.6480002 0.89475089 0.22558174 0
2.6480002 0.89069599 0.22558174 0
2.6490002 0.88705587 0.22550237 0
2.6500001 0.88341212 0.22542301 0
2.6510003 0.87976491 0.22534363 0
2.6530001 0.87652338 0.2251849 0
2.6540003 0.87286717 0.22510552 0
2.6560001 0.86961305 0.2249468 0
2.6590002 0.86675584 0.22470869 0
2.6610003 0.86348552 0.22454995 0
2.6640003 0.86060846 0.22431186 0
2.6670003 0.85772061 0.22407374 0
2.6710002 0.85521865 0.22375628 0
2.6750002 0.85270232 0.22343881 0
2.6810002 0.85095805 0.2229626 0
2.6860001 0.84880072 0.22256577 0
2.6940002 0.84779418 0.22193083 0
2.7070003 0.8486979 0.22089903 0
2.8210001 1.2160686 0.20748414 0
2.8130002 1.2075458 0.20813349 0
2.8100002 1.20164 0.20837702 0
2.8090003 1.196777 0.20845819 0
2.8080003 1.1919177 0.20853935 0
2.8080003 1.187574 0.20853935 0
2.8090003 1.183741 0.20845819 0
2.5630002 1.0542617 0.22842634 0
2.5580001 1.0478257 0.2288322 0
2.5550003 1.042418 0.22907571 0
2.5540001 1.0380274 0.2291569 0
2.5540001 1.034142 0.2291569 0
2.5540001 1.0302566 0.2291569 0
2.5540001 1.0263712 0.2291569 0
2.5550003 1.0229819 0.22907571 0
2.5570002 1.0200831 0.22891337 0
2.5580001 1.0166847 0.2288322 0
2.5600002 1.0137734 0.22866985 0
2.5630002 1.0113437 0.22842634 0
2.5660002 1.0089031 0.22818282 0
2.5690002 1.0064518 0.22793931 0
2.5730002 1.004473 0.22761463 0
2.5780003 1.0029614 0.22720876 0
2.5860002 1.0028712 0.2265594 0
2.8740003 1.0651928 0.20318204 0
2.8680003 1.0580461 0.20366907 0
2.8650002 1.0522577 0.20391259 0
2.8630002 1.0469238 0.20407493 0
2.8610003 1.0415972 0.20423727 0
2.8600001 1.0367178 0.20431845 0
2.8600001 1.0322804 0.20431845 0
2.8600001 1.0278431 0.20431845 0
2.8600001 1.0234057 0.20431845 0
2.6630001 0.93368429 0.22030921 0
2.6570003 0.92701566 0.22079623 0
2.6540003 0.92165655 0.22103974 0
2.6510003 0.91630828 0.22128326 0
2.6500001 0.91182214 0.22136444 0
2.6490002 0.90733969 0.22144561 0
2.6480002 0.90286088 0.22152677 0
2.6480002 0.89880598 0.22152677 0
2.6480002 0.89475089 0.22152677 0
2.6480002 0.89069599 0.22152677 0
2.6490002 0.88705587 0.22144561 0
2.6500001 0.88341212 0.22136444 0
2.6510003 0.87976491 0.22128326 0
2.6530001 0.87652338 0.22112092 0
2.6540003 0.87286717 0.22103974 0
2.6560001 0.86961305 0.22087741 0
2.6590002 0.86675584 0.22063388 0
2.6610003 0.86348552 0.22047153 0
2.6640003 0.86060846 0.22022803 0
2.6670003 0.85772061 0.21998452 0
2.6710002 0.85521865 0.21965982 0
2.6750002 0.85270232 0.21933514 0
2.6810002 0.85095805 0.21884812 0
2.6860001 0.84880072 0.21844226 0
2.6940002 0.84779418 0.2177929 0
2.7070003 0.8486979 0.21673766 0
2.8210001 1.2160686 0.20311712 0
2.8130002 1.2075458 0.20378092 0
2.8100002 1.20164 0.20402984 0
2.8090003 1.196777 0.2041128 0
2.8080003 1.1919177 0.20419577 0
2.8080003 1.187574 0.20419577 0
2.8090003 1.183741 0.2041128 0
2.5630002 1.0542617 0.22452471 0
2.5580001 1.0478257 0.22493958 0
2.5550003 1.042418 0.22518849 0
2.5540001 1.0380274 0.22527149 0
2.5540001 1.034142 0.22527149 0
2.5540001 1.0302566 0.22527149 0
2.5540001 1.0263712 0.22527149 0
2.5550003 1.0229819 0.22518849 0
2.5570002 1.0200831 0.22502257 0
2.5580001 1.0166847 0.22493958 0
2.5600002 1.0137734 0.22477363 0
2.5630002 1.0113437 0.22452471 0
2.5660002 1.0089031 0.22427577 0
2.5690002 1.0064518 0.22402684 0
2.5730002 1.004473 0.22369495 0
2.5780003 1.0029614 0.22328006 0
2.5860002 1.0028712 0.22261627 0
2.8740003 1.0651928 0.19871941 0
2.8680003 1.0580461 0.19921727 0
2.8650002 1.0522577 0.1994662 0
2.8630002 1.0469238 0.19963215 0
2.8610003 1.0415972 0.19979809 0
2.8600001 1.0367178 0.19988108 0
2.8600001 1.0322804 0.19988108 0
2.8600001 1.0278431 0.19988108 0
2.8600001 1.0234057 0.19988108 0
2.6630001 0.93368429 0.21622719 0
2.6570003 0.92701566 0.21672504 0
2.6540003 0.92165655 0.21697396 0
2.6510003 0.91630828 0.21722288 0
2.6500001 0.91182214 0.21730587 0
2.6490002 0.90733969 0.21738884 0
2.6480002 0.90286088 0.21747181 0
2.6480002 0.89880598 0.21747181 0
2.6480002 0.89475089 0.21747181 0
2.6480002 0.89069599 0.21747181 0
2.6490002 0.88705587 0.21738884 0
2.6500001 0.88341212 0.21730587 0
2.6510003 0.87976491 0.21722288 0
2.6530001 0.87652338 0.21705694 0
2.6540003 0.87286717 0.21697396 0
2.6560001 0.86961305 0.21680802 0
2.6590002 0.86675584 0.2165591 0
2.6610003 0.86348552 0.21639314 0
2.6640003 0.86060846 0.2161442 0
2.6670003 0.85772061 0.21589527 0
2.6710002 0.85521865 0.21556339 0
2.6750002 0.85270232 0.21523149 0
2.6810002 0.85095805 0.21473362 0
2.6860001 0.84880072 0.21431877 0
2.6940002 0.84779418 0.21365495 0
2.7070003 0.8486979 0.21257627 0
2.8210001 1.2160686 0.19875009 0
2.8130002 1.2075458 0.19942832 0
2.8100002 1.20164 0.19968265 0
2.8090003 1.196777 0.19976743 0
2.8080003 1.1919177 0.1998522 0
2.8080003 1.187574 0.1998522 0
2.8090003 1.183741 0.19976743 0
2.5630002 1.0542617 0.22062306 0
2.5580001 1.0478257 0.22104697 0
2.5550003 1.042418 0.22130129 0
2.5540001 1.0380274 0.22138609 0
2.5540001 1.034142 0.22138609 0
2.5540001 1.0302566 0.22138609 0
2.5540001 1.0263712 0.22138609 0
2.5550003 1.0229819 0.22130129 0
2.5570002 1.0200831 0.22113174 0
2.5580001 1.0166847 0.22104697 0
2.5600002 1.0137734 0.22087741 0
2.5630002 1.0113437 0.22062306 0
2.5660002 1.0089031 0.22036871 0
2.5690002 1.0064518 0.22011438 0
2.5730002 1.004473 0.21977527 0
2.5780003 1.0029614 0.21935137 0
2.5860002 1.0028712 0.21867315 0
2.8740003 1.0651928 0.1942568 0
2.8680003 1.0580461 0.19476546 0
2.8650002 1.0522577 0.1950198 0
2.8630002 1.0469238 0.19518937 0
2.8610003 1.0415972 0.19535892 0
2.8600001 1.0367178 0.1954437 0
2.8600001 1.0322804 0.1954437 0
2.8600001 1.0278431 0.1954437 0
2.8600001 1.0234057 0.1954437 0
2.6630001 0.93368429 0.21214518 0
2.6570003 0.92701566 0.21265383 0
2.6540003 0.92165655 0.21290816 0
2.6510003 0.91630828 0.21316251 0
2.6500001 0.91182214 0.2132473 0
2.6490002 0.90733969 0.21333207 0
2.6480002 0.90286088 0.21341684 0
2.6480002 0.89880598 0.21341684 0
2.6480002 0.89475089 0.21341684 0
2.6480002 0.89069599 0.21341684 0
2.6490002 0.88705587 0.21333207 0
2.6500001 0.88341212 0.2132473 0
2.6510003 0.87976491 0.21316251 0
2.6530001 0.87652338 0.21299297 0
2.6540003 0.87286717 0.21290816 0
2.6560001 0.86961305 0.21273862 0
2.6590002 0.86675584 0.21248429 0
2.6610003 0.86348552 0.21231472 0
2.6640003 0.86060846 0.21206039 0
2.6670003 0.85772061 0.21180604 0
2.6710002 0.85521865 0.21146694 0
2.6750002 0.85270232 0.21112782 0
2.6810002 0.85095805 0.21061914 0
2.6860001 0.84880072 0.21019526 0
2.6940002 0.84779418 0.20951702 0
2.7070003 0.8486979 0.20841488 0
2.8210001 1.2160686 0.19438307 0
2.8130002 1.2075458 0.19507574 0
2.8100002 1.20164 0.19533548 0
2.8090003 1.196777 0.19542207 0
2.8080003 1.1919177 0.19550863 0
2.8080003 1.187574 0.19550863 0
2.8090003 1.183741 0.19542207 0
2.5630002 1.0542617 0.21672143 0
2.5580001 1.0478257 0.21715435 0
2.5550003 1.042418 0.21741408 0
2.5540001 1.0380274 0.21750069 0
2.5540001 1.034142 0.21750069 0
2.5540001 1.0302566 0.21750069 0
2.5540001 1.0263712 0.21750069 0
2.5550003 1.0229819 0.21741408 0
2.5570002 1.0200831 0.21724093 0
2.5580001 1.0166847 0.21715435 0
2.5600002 1.0137734 0.21698117 0
2.5630002 1.0113437 0.21672143 0
2.5660002 1.0089031 0.21646169 0
2.5690002 1.0064518 0.21620193 0
2.5730002 1.004473 0.21585561 0
2.5780003 1.0029614 0.21542269 0
2.5860002 1.0028712 0.21473001 0
2.8740003 1.0651928 0.18979417 0
2.8680003 1.0580461 0.19031368 0
2.8650002 1.0522577 0.19057342 0
2.8630002 1.0469238 0.19074661 0
2.8610003 1.0415972 0.19091976 0
2.8600001 1.0367178 0.19100635 0
2.8600001 1.0322804 0.19100635 0
2.8600001 1.0278431 0.19100635 0
2.8600001 1.0234057 0.19100635 0
2.6630001 0.93368429 0.20806316 0
2.6570003 0.92701566 0.20858262 0
2.6540003 0.92165655 0.20884238 0
2.6510003 0.91630828 0.20910214 0
2.6500001 0.91182214 0.20918873 0
2.6490002 0.90733969 0.20927531 0
2.6480002 0.90286088 0.20936188 0
2.6480002 0.89880598 0.20936188 0
2.6480002 0.89475089 0.20936188 0
2.6480002 0.89069599 0.20936188 0
2.6490002 0.88705587 0.20927531 0
2.6500001 0.88341212 0.20918873 0
2.6510003 0.87976491 0.20910214 0
2.6530001 0.87652338 0.20892899 0
2.6540003 0.87286717 0.20884238 0
2.6560001 0.86961305 0.20866923 0
2.6590002 0.86675584 0.20840947 0
2.6610003 0.86348552 0.20823631 0
2.6640003 0.86060846 0.20797655 0
2.6670003 0.85772061 0.20771681 0
2.6710002 0.85521865 0.20737047 0
2.6750002 0.85270232 0.20702416 0
2.6810002 0.85095805 0.20650466 0
2.6860001 0.84880072 0.20607176 0
2.6940002 0.84779418 0.20537908 0
2.7070003 0.8486979 0.20425349 0
2.8210001 1.2160686 0.19001606 0
2.8130002 1.2075458 0.19072314 0
2.8100002 1.20164 0.1909883 0
2.8090003 1.196777 0.19107668 0
2.8080003 1.1919177 0.19116506 0
2.8080003 1.187574 0.19116506 0
2.8090003 1.183741 0.19107668 0
2.5630002 1.0542617 0.21281978 0
2.5580001 1.0478257 0.21326174 0
2.5550003 1.042418 0.21352687 0
