# .PCD v0.7 - Point Cloud Data file format
VERSION 0.7
FIELDS x y z intensity
SIZE 4 4 4 4
TYPE F F F F
COUNT 1 1 1 1
WIDTH 1381
HEIGHT 1
VIEWPOINT 0 0 0 1 0 0 0
POINTS 1381
DATA ascii
3.8110003 -0.47054252 0.41015279 0
3.8110003 -0.4766953 0.41015279 0
3.8110003 -0.48284808 0.41015279 0
3.8110003 -0.48900089 0.41015279 0
3.8110003 -0.4951537 0.41015279 0
3.8110003 -0.50130647 0.41015279 0
3.8110003 -0.50745922 0.41015279 0
3.8110003 -0.51361203 0.41015279 0
3.8110003 -0.51976484 0.41015279 0
3.8120003 -0.52605832 0.41015461 0
3.8120003 -0.53221285 0.41015461 0
3.8120003 -0.53836751 0.41015461 0
3.8120003 -0.54452205 0.41015461 0
3.8070002 -0.15047477 0.40400001 0
3.8070002 -0.15662034 0.40400001 0
3.8070002 -0.16276592 0.40400001 0
3.8070002 -0.16891149 0.40400001 0
3.8070002 -0.17505707 0.40400001 0
3.8070002 -0.18120265 0.40400001 0
3.8070002 -0.18734822 0.40400001 0
3.8070002 -0.1934938 0.40400001 0
3.8070002 -0.19963937 0.40400001 0
3.8080003 -0.20583186 0.40400001 0
3.8080003 -0.21197923 0.40400001 0
3.8080003 -0.2181266 0.40400001 0
3.8080003 -0.22427398 0.40400001 0
3.8080003 -0.23042136 0.40400001 0
3.8080003 -0.23656875 0.40400001 0
3.8080003 -0.24271612 0.40400001 0
3.8080003 -0.24886349 0.40400001 0
3.8080003 -0.25501087 0.40400001 0
3.8080003 -0.26115826 0.40400001 0
3.8080003 -0.26730564 0.40400001 0
3.8080003 -0.273453 0.40400001 0
3.8080003 -0.27960038 0.40400001 0
3.8090003 -0.2858181 0.40400001 0
3.8090003 -0.29196727 0.40400001 0
3.8090003 -0.29811648 0.40400001 0
3.8090003 -0.30426565 0.40400001 0
3.8090003 -0.31041485 0.40400001 0
3.8090003 -0.31656402 0.40400001 0
3.8090003 -0.32271323 0.40400001 0
3.8090003 -0.3288624 0.40400001 0
3.8090003 -0.33501157 0.40400001 0
3.8090003 -0.34116074 0.40400001 0
3.8090003 -0.34730992 0.40400001 0
3.8090003 -0.35345912 0.40400001 0
3.8090003 -0.35960829 0.40400001 0
3.8100002 -0.36585128 0.40400001 0
3.8100002 -0.37200227 0.40400001 0
3.8100002 -0.37815323 0.40400001 0
3.8100002 -0.38430423 0.40400001 0
3.8100002 -0.39045522 0.40400001 0
3.8100002 -0.39660621 0.40400001 0
3.8100002 -0.40275717 0.40400001 0
3.8100002 -0.40890816 0.40400001 0
3.8100002 -0.41505915 0.40400001 0
3.8100002 -0.42121014 0.40400001 0
3.8100002 -0.42736113 0.40400001 0
3.8100002 -0.43351212 0.40400001 0
3.8100002 -0.43966311 0.40400001 0
3.8110003 -0.44593135 0.40400001 0
3.8110003 -0.45208415 0.40400001 0
3.8110003 -0.45823693 0.40400001 0
3.8110003 -0.46438971 0.40400001 0
3.8110003 -0.47054252 0.40400001 0
3.8110003 -0.4766953 0.40400001 0
3.8110003 -0.48284808 0.40400001 0
3.8110003 -0.48900089 0.40400001 0
3.8110003 -0.4951537 0.40400001 0
3.8110003 -0.50130647 0.40400001 0
3.8110003 -0.50745922 0.40400001 0
3.8110003 -0.51361203 0.40400001 0
3.8110003 -0.51976484 0.40400001 0
3.8120003 -0.52605832 0.40400001 0
3.8120003 -0.53221285 0.40400001 0
3.8120003 -0.53836751 0.40400001 0
3.8120003 -0.54452205 0.40400001 0
3.8070002 -0.15047477 0.39785445 0
3.8070002 -0.15662034 0.39785445 0
3.8070002 -0.16276592 0.39785445 0
3.8070002 -0.16891149 0.39785445 0
3.8070002 -0.17505707 0.39785445 0
3.8070002 -0.18120265 0.39785445 0
3.8070002 -0.18734822 0.39785445 0
3.8070002 -0.1934938 0.39785445 0
3.8070002 -0.19963937 0.39785445 0
3.8080003 -0.20583186 0.39785263 0
3.8080003 -0.21197923 0.39785263 0
3.8080003 -0.2181266 0.39785263 0
3.8080003 -0.22427398 0.39785263 0
3.8080003 -0.23042136 0.39785263 0
3.8080003 -0.23656875 0.39785263 0
3.8080003 -0.24271612 0.39785263 0
3.8080003 -0.24886349 0.39785263 0
3.8080003 -0.25501087 0.39785263 0
3.8080003 -0.26115826 0.39785263 0
3.8080003 -0.26730564 0.39785263 0
3.8080003 -0.273453 0.39785263 0
3.8080003 -0.27960038 0.39785263 0
3.8090003 -0.2858181 0.39785084 0
3.8090003 -0.29196727 0.39785084 0
3.8090003 -0.29811648 0.39785084 0
3.8090003 -0.30426565 0.39785084 0
3.8090003 -0.31041485 0.39785084 0
3.8090003 -0.31656402 0.39785084 0
3.8090003 -0.32271323 0.39785084 0
3.8090003 -0.3288624 0.39785084 0
3.8090003 -0.33501157 0.39785084 0
3.8090003 -0.34116074 0.39785084 0
3.8090003 -0.34730992 0.39785084 0
3.8090003 -0.35345912 0.39785084 0
3.8090003 -0.35960829 0.39785084 0
3.8100002 -0.36585128 0.39784902 0
3.8100002 -0.37200227 0.39784902 0
3.8100002 -0.37815323 0.39784902 0
3.8100002 -0.38430423 0.39784902 0
3.8100002 -0.39045522 0.39784902 0
3.8100002 -0.39660621 0.39784902 0
3.8100002 -0.40275717 0.39784902 0
3.8100002 -0.40890816 0.39784902 0
3.8100002 -0.41505915 0.39784902 0
3.8100002 -0.42121014 0.39784902 0
3.8100002 -0.42736113 0.39784902 0
3.8100002 -0.43351212 0.39784902 0
3.8100002 -0.43966311 0.39784902 0
3.8110003 -0.44593135 0.39784724 0
3.8110003 -0.45208415 0.39784724 0
3.8110003 -0.45823693 0.39784724 0
3.8110003 -0.46438971 0.39784724 0
3.8110003 -0.47054252 0.39784724 0
3.8110003 -0.4766953 0.39784724 0
3.8110003 -0.48284808 0.39784724 0
3.8110003 -0.48900089 0.39784724 0
3.8110003 -0.4951537 0.39784724 0
3.8110003 -0.50130647 0.39784724 0
3.8110003 -0.50745922 0.39784724 0
3.8110003 -0.51361203 0.39784724 0
3.8110003 -0.51976484 0.39784724 0
3.8120003 -0.52605832 0.39784542 0
3.8120003 -0.53221285 0.39784542 0
3.8120003 -0.53836751 0.39784542 0
3.8120003 -0.54452205 0.39784542 0
3.8070002 -0.15047477 0.39170885 0
3.8070002 -0.15662034 0.39170885 0
3.8070002 -0.16276592 0.39170885 0
3.8070002 -0.16891149 0.39170885 0
3.8070002 -0.17505707 0.39170885 0
3.8070002 -0.18120265 0.39170885 0
3.8070002 -0.18734822 0.39170885 0
3.8070002 -0.1934938 0.39170885 0
3.8070002 -0.19963937 0.39170885 0
3.8080003 -0.20583186 0.39170524 0
3.8080003 -0.21197923 0.39170524 0
3.8080003 -0.2181266 0.39170524 0
3.8080003 -0.22427398 0.39170524 0
3.8080003 -0.23042136 0.39170524 0
3.8080003 -0.23656875 0.39170524 0
3.8080003 -0.24271612 0.39170524 0
3.8080003 -0.24886349 0.39170524 0
3.8080003 -0.25501087 0.39170524 0
3.8080003 -0.26115826 0.39170524 0
3.8080003 -0.26730564 0.39170524 0
3.8080003 -0.273453 0.39170524 0
3.8080003 -0.27960038 0.39170524 0
3.8090003 -0.2858181 0.39170164 0
3.8090003 -0.29196727 0.39170164 0
3.8090003 -0.29811648 0.39170164 0
3.8090003 -0.30426565 0.39170164 0
3.8090003 -0.31041485 0.39170164 0
3.8090003 -0.31656402 0.39170164 0
3.8090003 -0.32271323 0.39170164 0
3.8090003 -0.3288624 0.39170164 0
3.8090003 -0.33501157 0.39170164 0
3.8090003 -0.34116074 0.39170164 0
3.8090003 -0.34730992 0.39170164 0
3.8090003 -0.35345912 0.39170164 0
3.8090003 -0.35960829 0.39170164 0
3.8100002 -0.36585128 0.39169803 0
3.8100002 -0.37200227 0.39169803 0
3.8100002 -0.37815323 0.39169803 0
3.8100002 -0.38430423 0.39169803 0
3.8100002 -0.39045522 0.39169803 0
3.8100002 -0.39660621 0.39169803 0
3.8100002 -0.40275717 0.39169803 0
3.8100002 -0.40890816 0.39169803 0
3.8100002 -0.41505915 0.39169803 0
3.8100002 -0.42121014 0.39169803 0
3.8100002 -0.42736113 0.39169803 0
3.8100002 -0.43351212 0.39169803 0
3.8100002 -0.43966311 0.39169803 0
3.8110003 -0.44593135 0.39169443 0
3.8110003 -0.45208415 0.39169443 0
3.8110003 -0.45823693 0.39169443 0
3.8110003 -0.46438971 0.39169443 0
3.8110003 -0.47054252 0.39169443 0
3.8110003 -0.4766953 0.39169443 0
3.8110003 -0.48284808 0.39169443 0
3.8110003 -0.48900089 0.39169443 0
3.8110003 -0.4951537 0.39169443 0
3.8110003 -0.50130647 0.39169443 0
3.8110003 -0.50745922 0.39169443 0
3.8110003 -0.51361203 0.39169443 0
3.8110003 -0.51976484 0.39169443 0
3.8120003 -0.52605832 0.39169082 0
3.8120003 -0.53221285 0.39169082 0
3.8120003 -0.53836751 0.39169082 0
3.8120003 -0.54452205 0.39169082 0
3.8070002 -0.15047477 0.38556328 0
3.8070002 -0.15662034 0.38556328 0
3.8070002 -0.16276592 0.38556328 0
3.8070002 -0.16891149 0.38556328 0
3.8070002 -0.17505707 0.38556328 0
3.8070002 -0.18120265 0.38556328 0
3.8070002 -0.18734822 0.38556328 0
3.8070002 -0.1934938 0.38556328 0
3.8070002 -0.19963937 0.38556328 0
3.8080003 -0.20583186 0.38555789 0
3.8080003 -0.21197923 0.38555789 0
3.8080003 -0.2181266 0.38555789 0
3.8080003 -0.22427398 0.38555789 0
3.8080003 -0.23042136 0.38555789 0
3.8080003 -0.23656875 0.38555789 0
3.8080003 -0.24271612 0.38555789 0
3.8080003 -0.24886349 0.38555789 0
3.8080003 -0.25501087 0.38555789 0
3.8080003 -0.26115826 0.38555789 0
3.8080003 -0.26730564 0.38555789 0
3.8080003 -0.273453 0.38555789 0
3.8080003 -0.27960038 0.38555789 0
3.8090003 -0.2858181 0.38555247 0
3.8090003 -0.29196727 0.38555247 0
3.8090003 -0.29811648 0.38555247 0
3.8090003 -0.30426565 0.38555247 0
3.8090003 -0.31041485 0.38555247 0
3.8090003 -0.31656402 0.38555247 0
3.8090003 -0.32271323 0.38555247 0
3.8090003 -0.3288624 0.38555247 0
3.8090003 -0.33501157 0.38555247 0
3.8090003 -0.34116074 0.38555247 0
3.8090003 -0.34730992 0.38555247 0
3.8090003 -0.35345912 0.38555247 0
3.8090003 -0.35960829 0.38555247 0
3.8100002 -0.36585128 0.38554704 0
3.8100002 -0.37200227 0.38554704 0
3.8100002 -0.37815323 0.38554704 0
3.8100002 -0.38430423 0.38554704 0
3.8100002 -0.39045522 0.38554704 0
3.8100002 -0.39660621 0.38554704 0
3.8100002 -0.40275717 0.38554704 0
3.8100002 -0.40890816 0.38554704 0
3.8100002 -0.41505915 0.38554704 0
3.8100002 -0.42121014 0.38554704 0
3.8100002 -0.42736113 0.38554704 0
3.8100002 -0.43351212 0.38554704 0
3.8100002 -0.43966311 0.38554704 0
3.8110003 -0.44593135 0.38554165 0
3.8110003 -0.45208415 0.38554165 0
3.8110003 -0.45823693 0.38554165 0
3.8110003 -0.46438971 0.38554165 0
3.8110003 -0.47054252 0.38554165 0
3.8110003 -0.4766953 0.38554165 0
3.8110003 -0.48284808 0.38554165 0
3.8110003 -0.48900089 0.38554165 0
3.8110003 -0.4951537 0.38554165 0
3.8110003 -0.50130647 0.38554165 0
3.8110003 -0.50745922 0.38554165 0
3.8110003 -0.51361203 0.38554165 0
3.8110003 -0.51976484 0.38554165 0
3.8120003 -0.52605832 0.38553622 0
3.8120003 -0.53221285 0.38553622 0
3.8120003 -0.53836751 0.38553622 0
3.8120003 -0.54452205 0.38553622 0
3.8070002 -0.15047477 0.37941772 0
3.8070002 -0.15662034 0.37941772 0
3.8070002 -0.16276592 0.37941772 0
3.8070002 -0.16891149 0.37941772 0
3.8070002 -0.17505707 0.37941772 0
3.8070002 -0.18120265 0.37941772 0
3.8070002 -0.18734822 0.37941772 0
3.8070002 -0.1934938 0.37941772 0
3.8080003 -0.19968447 0.37941051 0
3.8080003 -0.20583186 0.37941051 0
3.8080003 -0.21197923 0.37941051 0
3.8080003 -0.2181266 0.37941051 0
3.8080003 -0.22427398 0.37941051 0
3.8080003 -0.23042136 0.37941051 0
3.8080003 -0.23656875 0.37941051 0
3.8080003 -0.24271612 0.37941051 0
3.8080003 -0.24886349 0.37941051 0
3.8080003 -0.25501087 0.37941051 0
3.8080003 -0.26115826 0.37941051 0
3.8080003 -0.26730564 0.37941051 0
3.8080003 -0.273453 0.37941051 0
3.8080003 -0.27960038 0.37941051 0
3.8090003 -0.2858181 0.37940329 0
3.8090003 -0.29196727 0.37940329 0
3.8090003 -0.29811648 0.37940329 0
3.8090003 -0.30426565 0.37940329 0
3.8090003 -0.31041485 0.37940329 0
3.8090003 -0.31656402 0.37940329 0
3.8090003 -0.32271323 0.37940329 0
3.8090003 -0.3288624 0.37940329 0
3.8090003 -0.33501157 0.37940329 0
3.8090003 -0.34116074 0.37940329 0
3.8090003 -0.34730992 0.37940329 0
3.8090003 -0.35345912 0.37940329 0
3.8090003 -0.35960829 0.37940329 0
3.8100002 -0.36585128 0.37939608 0
3.8100002 -0.37200227 0.37939608 0
3.8100002 -0.37815323 0.37939608 0
3.8100002 -0.38430423 0.37939608 0
3.8100002 -0.39045522 0.37939608 0
3.8100002 -0.39660621 0.37939608 0
3.8100002 -0.40275717 0.37939608 0
3.8100002 -0.40890816 0.37939608 0
3.8100002 -0.41505915 0.37939608 0
3.8100002 -0.42121014 0.37939608 0
3.8100002 -0.42736113 0.37939608 0
3.8100002 -0.43351212 0.37939608 0
3.8100002 -0.43966311 0.37939608 0
3.8110003 -0.44593135 0.37938887 0
3.8110003 -0.45208415 0.37938887 0
3.8110003 -0.45823693 0.37938887 0
3.8110003 -0.46438971 0.37938887 0
3.8110003 -0.47054252 0.37938887 0
3.8110003 -0.4766953 0.37938887 0
3.8110003 -0.48284808 0.37938887 0
3.8110003 -0.48900089 0.37938887 0
3.8110003 -0.4951537 0.37938887 0
3.8110003 -0.50130647 0.37938887 0
3.8110003 -0.50745922 0.37938887 0
3.8110003 -0.51361203 0.37938887 0
3.8110003 -0.51976484 0.37938887 0
3.8120003 -0.52605832 0.37938163 0
3.8120003 -0.53221285 0.37938163 0
3.8120003 -0.53836751 0.37938163 0
3.8120003 -0.54452205 0.37938163 0
3.8070002 -0.15047477 0.37327215 0
3.8070002 -0.15662034 0.37327215 0
3.8070002 -0.16276592 0.37327215 0
3.8070002 -0.16891149 0.37327215 0
3.8070002 -0.17505707 0.37327215 0
3.8070002 -0.18120265 0.37327215 0
3.8070002 -0.18734822 0.37327215 0
3.8070002 -0.1934938 0.37327215 0
3.8080003 -0.19968447 0.37326312 0
3.8080003 -0.20583186 0.37326312 0
3.8080003 -0.21197923 0.37326312 0
3.8080003 -0.2181266 0.37326312 0
3.8080003 -0.22427398 0.37326312 0
3.8080003 -0.23042136 0.37326312 0
3.8080003 -0.23656875 0.37326312 0
3.8080003 -0.24271612 0.37326312 0
3.8080003 -0.24886349 0.37326312 0
3.8080003 -0.25501087 0.37326312 0
3.8080003 -0.26115826 0.37326312 0
3.8080003 -0.26730564 0.37326312 0
3.8080003 -0.273453 0.37326312 0
3.8080003 -0.27960038 0.37326312 0
3.8090003 -0.2858181 0.37325409 0
3.8090003 -0.29196727 0.37325409 0
3.8090003 -0.29811648 0.37325409 0
3.8090003 -0.30426565 0.37325409 0
3.8090003 -0.31041485 0.37325409 0
3.8090003 -0.31656402 0.37325409 0
3.8090003 -0.32271323 0.37325409 0
3.8090003 -0.3288624 0.37325409 0
3.8090003 -0.33501157 0.37325409 0
3.8090003 -0.34116074 0.37325409 0
3.8090003 -0.34730992 0.37325409 0
3.8090003 -0.35345912 0.37325409 0
3.8090003 -0.35960829 0.37325409 0
3.8100002 -0.36585128 0.37324509 0
3.8100002 -0.37200227 0.37324509 0
3.8100002 -0.37815323 0.37324509 0
3.8100002 -0.38430423 0.37324509 0
3.8100002 -0.39045522 0.37324509 0
3.8100002 -0.39660621 0.37324509 0
3.8100002 -0.40275717 0.37324509 0
3.8100002 -0.40890816 0.37324509 0
3.8100002 -0.41505915 0.37324509 0
3.8100002 -0.42121014 0.37324509 0
3.8100002 -0.42736113 0.37324509 0
3.8100002 -0.43351212 0.37324509 0
3.8100002 -0.43966311 0.37324509 0
3.8110003 -0.44593135 0.37323606 0
3.8110003 -0.45208415 0.37323606 0
3.8110003 -0.45823693 0.37323606 0
3.8110003 -0.46438971 0.37323606 0
3.8110003 -0.47054252 0.37323606 0
3.8110003 -0.4766953 0.37323606 0
3.8110003 -0.48284808 0.37323606 0
3.8110003 -0.48900089 0.37323606 0
3.8110003 -0.4951537 0.37323606 0
3.8110003 -0.50130647 0.37323606 0
3.8110003 -0.50745922 0.37323606 0
3.8110003 -0.51361203 0.37323606 0
3.8110003 -0.51976484 0.37323606 0
3.8120003 -0.52605832 0.37322706 0
3.8120003 -0.53221285 0.37322706 0
3.8120003 -0.53836751 0.37322706 0
3.8120003 -0.54452205 0.37322706 0
3.8070002 -0.15047477 0.36712655 0
3.8070002 -0.15662034 0.36712655 0
3.8070002 -0.16276592 0.36712655 0
3.8070002 -0.16891149 0.36712655 0
3.8070002 -0.17505707 0.36712655 0
3.8070002 -0.18120265 0.36712655 0
3.8070002 -0.18734822 0.36712655 0
3.8070002 -0.1934938 0.36712655 0
3.8080003 -0.19968447 0.36711574 0
3.8080003 -0.20583186 0.36711574 0
3.8080003 -0.21197923 0.36711574 0
3.8080003 -0.2181266 0.36711574 0
3.8080003 -0.22427398 0.36711574 0
3.8080003 -0.23042136 0.36711574 0
3.8080003 -0.23656875 0.36711574 0
3.8080003 -0.24271612 0.36711574 0
3.8080003 -0.24886349 0.36711574 0
3.8080003 -0.25501087 0.36711574 0
3.8080003 -0.26115826 0.36711574 0
3.8080003 -0.26730564 0.36711574 0
3.8080003 -0.273453 0.36711574 0
3.8080003 -0.27960038 0.36711574 0
3.8090003 -0.2858181 0.36710492 0
3.8090003 -0.29196727 0.36710492 0
3.8090003 -0.29811648 0.36710492 0
3.8090003 -0.30426565 0.36710492 0
3.8090003 -0.31041485 0.36710492 0
3.8090003 -0.31656402 0.36710492 0
3.8090003 -0.32271323 0.36710492 0
3.8090003 -0.3288624 0.36710492 0
3.8090003 -0.33501157 0.36710492 0
3.8090003 -0.34116074 0.36710492 0
3.8090003 -0.34730992 0.36710492 0
3.8090003 -0.35345912 0.36710492 0
3.8090003 -0.35960829 0.36710492 0
3.8100002 -0.36585128 0.3670941 0
3.8100002 -0.37200227 0.3670941 0
3.8100002 -0.37815323 0.3670941 0
3.8100002 -0.38430423 0.3670941 0
3.8100002 -0.39045522 0.3670941 0
3.8100002 -0.39660621 0.3670941 0
3.8100002 -0.40275717 0.3670941 0
3.8100002 -0.40890816 0.3670941 0
3.8100002 -0.41505915 0.3670941 0
3.8100002 -0.42121014 0.3670941 0
3.8100002 -0.42736113 0.3670941 0
3.8100002 -0.43351212 0.3670941 0
3.8100002 -0.43966311 0.3670941 0
3.8110003 -0.44593135 0.36708328 0
3.8110003 -0.45208415 0.36708328 0
3.8110003 -0.45823693 0.36708328 0
3.8110003 -0.46438971 0.36708328 0
3.8110003 -0.47054252 0.36708328 0
3.8110003 -0.4766953 0.36708328 0
3.8110003 -0.48284808 0.36708328 0
3.8110003 -0.48900089 0.36708328 0
3.8110003 -0.4951537 0.36708328 0
3.8110003 -0.50130647 0.36708328 0
3.8110003 -0.50745922 0.36708328 0
3.8110003 -0.51361203 0.36708328 0
3.8110003 -0.51976484 0.36708328 0
3.8120003 -0.52605832 0.36707246 0
3.8120003 -0.53221285 0.36707246 0
3.8120003 -0.53836751 0.36707246 0
3.8120003 -0.54452205 0.36707246 0
3.8070002 -0.15662034 0.36098099 0
3.8070002 -0.16276592 0.36098099 0
3.8070002 -0.16891149 0.36098099 0
3.8070002 -0.17505707 0.36098099 0
3.8070002 -0.18120265 0.36098099 0
3.8070002 -0.18734822 0.36098099 0
3.8070002 -0.1934938 0.36098099 0
3.8080003 -0.19968447 0.36096835 0
3.8080003 -0.20583186 0.36096835 0
3.8080003 -0.21197923 0.36096835 0
3.8080003 -0.2181266 0.36096835 0
3.8080003 -0.22427398 0.36096835 0
3.8080003 -0.23042136 0.36096835 0
3.8080003 -0.23656875 0.36096835 0
3.8080003 -0.24271612 0.36096835 0
3.8080003 -0.24886349 0.36096835 0
3.8080003 -0.25501087 0.36096835 0
3.8080003 -0.26115826 0.36096835 0
3.8080003 -0.26730564 0.36096835 0
3.8080003 -0.273453 0.36096835 0
3.8080003 -0.27960038 0.36096835 0
3.8090003 -0.2858181 0.36095574 0
3.8090003 -0.29196727 0.36095574 0
3.8090003 -0.29811648 0.36095574 0
3.8090003 -0.30426565 0.36095574 0
3.8090003 -0.31041485 0.36095574 0
3.8090003 -0.31656402 0.36095574 0
3.8090003 -0.32271323 0.36095574 0
3.8090003 -0.3288624 0.36095574 0
3.8090003 -0.33501157 0.36095574 0
3.8090003 -0.34116074 0.36095574 0
3.8090003 -0.34730992 0.36095574 0
3.8090003 -0.35345912 0.36095574 0
3.8090003 -0.35960829 0.36095574 0
3.8100002 -0.36585128 0.36094311 0
3.8100002 -0.37200227 0.36094311 0
3.8100002 -0.37815323 0.36094311 0
3.8100002 -0.38430423 0.36094311 0
3.8100002 -0.39045522 0.36094311 0
3.8100002 -0.39660621 0.36094311 0
3.8100002 -0.40275717 0.36094311 0
3.8100002 -0.40890816 0.36094311 0
3.8100002 -0.41505915 0.36094311 0
3.8100002 -0.42121014 0.36094311 0
3.8100002 -0.42736113 0.36094311 0
3.8100002 -0.43351212 0.36094311 0
3.8100002 -0.43966311 0.36094311 0
3.8110003 -0.44593135 0.36093047 0
3.8110003 -0.45208415 0.36093047 0
3.8110003 -0.45823693 0.36093047 0
3.8110003 -0.46438971 0.36093047 0
3.8110003 -0.47054252 0.36093047 0
3.8110003 -0.4766953 0.36093047 0
3.8110003 -0.48284808 0.36093047 0
3.8110003 -0.48900089 0.36093047 0
3.8110003 -0.4951537 0.36093047 0
3.8110003 -0.50130647 0.36093047 0
3.8110003 -0.50745922 0.36093047 0
3.8110003 -0.51361203 0.36093047 0
3.8110003 -0.51976484 0.36093047 0
3.8120003 -0.52605832 0.36091787 0
3.8120003 -0.53221285 0.36091787 0
3.8120003 -0.53836751 0.36091787 0
3.8440003 -0.17024632 0.35430148 0
3.8360002 -0.1761556 0.35441694 0
3.8320003 -0.18219474 0.35447466 0
3.8290002 -0.18826094 0.35451794 0
3.8280003 -0.19440292 0.35453236 0
3.8280003 -0.20058636 0.35453236 0
3.8290002 -0.20681673 0.35451794 0
3.8320003 -0.21314809 0.35447466 0
3.8380003 -0.2196418 0.35438806 0
3.8420002 -0.47440085 0.35433036 0
3.8370004 -0.47997826 0.35440251 0
3.8340003 -0.48579371 0.35444579 0
3.8320003 -0.49172822 0.35447466 0
3.8310003 -0.49778724 0.35448909 0
3.8320003 -0.50410956 0.35447466 0
3.8340003 -0.51057082 0.35444579 0
3.8390002 -0.51745051 0.35437363 0
3.8440003 -0.17024632 0.34808916 0
3.8360002 -0.1761556 0.34821904 0
3.8320003 -0.18219474 0.34828398 0
3.8290002 -0.18826094 0.3483327 0
3.8280003 -0.19440292 0.34834892 0
3.8280003 -0.20058636 0.34834892 0
3.8290002 -0.20681673 0.3483327 0
3.8320003 -0.21314809 0.34828398 0
3.8380003 -0.2196418 0.34818658 0
4.2940001 -0.43934563 0.34078375 0
4.29 -0.44595841 0.34084868 0
4.2880001 -0.45276597 0.34088117 0
3.8500001 -0.4691734 0.34799176 0
3.8420002 -0.47440085 0.34812164 0
3.8370004 -0.47997826 0.34820282 0
3.8340003 -0.48579371 0.34825152 0
3.8320003 -0.49172822 0.34828398 0
3.8310003 -0.49778724 0.34830022 0
3.8320003 -0.50410956 0.34828398 0
3.8340003 -0.51057082 0.34825152 0
3.8390002 -0.51745051 0.34817034 0
3.8440003 -0.17024632 0.34187686 0
3.8360002 -0.1761556 0.34202117 0
3.8320003 -0.18219474 0.34209332 0
3.8290002 -0.18826094 0.34214744 0
3.8280003 -0.19440292 0.34216547 0
3.8280003 -0.20058636 0.34216547 0
3.8290002 -0.20681673 0.34214744 0
3.8320003 -0.21314809 0.34209332 0
3.8380003 -0.2196418 0.34198508 0
4.2990003 -0.43281767 0.33366954 0
4.2940001 -0.43934563 0.33375973 0
4.29 -0.44595841 0.33383188 0
4.2880001 -0.45276597 0.33386797 0
4.2860003 -0.45956632 0.33390403 0
4.2860003 -0.46657592 0.33390403 0
3.8500001 -0.4691734 0.34176862 0
3.8420002 -0.47440085 0.34191293 0
3.8370004 -0.47997826 0.34200311 0
3.8340003 -0.48579371 0.34205723 0
3.8320003 -0.49172822 0.34209332 0
3.8310003 -0.49778724 0.34211135 0
3.8320003 -0.50410956 0.34209332 0
3.8340003 -0.51057082 0.34205723 0
3.8390002 -0.51745051 0.34196705 0
3.8440003 -0.17024632 0.33566454 0
3.8360002 -0.1761556 0.33582327 0
3.8320003 -0.18219474 0.33590263 0
3.8290002 -0.18826094 0.33596218 0
3.8280003 -0.19440292 0.33598202 0
3.8280003 -0.20058636 0.33598202 0
3.8290002 -0.20681673 0.33596218 0
3.8320003 -0.21314809 0.33590263 0
3.8380003 -0.2196418 0.3357836 0
4.3050003 -0.42636904 0.32651743 0
4.2990003 -0.43281767 0.32663649 0
4.2940001 -0.43934563 0.32673568 0
4.29 -0.44595841 0.32681507 0
4.2880001 -0.45276597 0.32685474 0
4.2860003 -0.45956632 0.32689443 0
4.2860003 -0.46657592 0.32689443 0
3.8500001 -0.4691734 0.33554548 0
3.8420002 -0.47440085 0.33570421 0
3.8370004 -0.47997826 0.33580345 0
3.8340003 -0.48579371 0.33586296 0
3.8320003 -0.49172822 0.33590263 0
3.8310003 -0.49778724 0.33592248 0
3.8320003 -0.50410956 0.33590263 0
3.8340003 -0.51057082 0.33586296 0
3.8390002 -0.51745051 0.33576375 0
3.8510003 -0.52532053 0.33552563 0
3.8440003 -0.17024632 0.32945222 0
3.8360002 -0.1761556 0.3296254 0
3.8320003 -0.18219474 0.32971197 0
3.8290002 -0.18826094 0.32977691 0
3.8280003 -0.19440292 0.32979855 0
3.8280003 -0.20058636 0.32979855 0
3.8290002 -0.20681673 0.32977691 0
3.8320003 -0.21314809 0.32971197 0
3.8380003 -0.2196418 0.3295821 0
4.3050003 -0.42636904 0.31947356 0
4.2990003 -0.43281767 0.31960344 0
4.2940001 -0.43934563 0.31971166 0
4.29 -0.44595841 0.31979823 0
4.2880001 -0.45276597 0.31984153 0
4.2860003 -0.45956632 0.31988484 0
4.2860003 -0.46657592 0.31988484 0
4.2870002 -0.47369555 0.3198632 0
4.1360002 -0.47729775 0.32313168 0
4.1330004 -0.48368508 0.32319662 0
3.8500001 -0.4691734 0.32932234 0
3.8420002 -0.47440085 0.32949552 0
3.8370004 -0.47997826 0.32960373 0
3.8340003 -0.48579371 0.32966867 0
3.8320003 -0.49172822 0.32971197 0
3.8310003 -0.49778724 0.32973361 0
3.8320003 -0.50410956 0.32971197 0
3.8340003 -0.51057082 0.32966867 0
3.8390002 -0.51745051 0.32956046 0
3.8510003 -0.52532053 0.3293007 0
3.8440003 -0.17024632 0.32323992 0
3.8360002 -0.1761556 0.3234275 0
3.8320003 -0.18219474 0.32352132 0
3.8290002 -0.18826094 0.32359165 0
3.8280003 -0.19440292 0.3236151 0
3.8280003 -0.20058636 0.3236151 0
3.8290002 -0.20681673 0.32359165 0
3.8320003 -0.21314809 0.32352132 0
3.8380003 -0.2196418 0.32338059 0
3.8520002 -0.22657563 0.32305232 0
4.3050003 -0.42636904 0.3124297 0
4.2990003 -0.43281767 0.31257039 0
4.2940001 -0.43934563 0.31268764 0
4.29 -0.44595841 0.31278145 0
4.2880001 -0.45276597 0.31282833 0
4.2860003 -0.45956632 0.31287524 0
4.2860003 -0.46657592 0.31287524 0
4.2870002 -0.47369555 0.31285179 0
4.1410003 -0.47112694 0.31627542 0
4.1360002 -0.47729775 0.31639266 0
4.1330004 -0.48368508 0.31646299 0
4.131 -0.49018058 0.3165099 0
3.8500001 -0.4691734 0.3230992 0
3.8420002 -0.47440085 0.3232868 0
3.8370004 -0.47997826 0.32340407 0
3.8340003 -0.48579371 0.32347441 0
3.8320003 -0.49172822 0.32352132 0
3.8310003 -0.49778724 0.32354474 0
3.8320003 -0.50410956 0.32352132 0
3.8340003 -0.51057082 0.32347441 0
3.8390002 -0.51745051 0.32335716 0
3.8510003 -0.52532053 0.32307577 0
3.8440003 -0.17024632 0.3170276 0
3.8360002 -0.1761556 0.31722963 0
3.8320003 -0.18219474 0.31733063 0
3.8290002 -0.18826094 0.31740642 0
3.8280003 -0.19440292 0.31743163 0
3.8280003 -0.20058636 0.31743163 0
3.8290002 -0.20681673 0.31740642 0
3.8320003 -0.21314809 0.31733063 0
3.8380003 -0.2196418 0.31717911 0
3.8520002 -0.22657563 0.31682557 0
4.3050003 -0.42636904 0.30538583 0
4.2990003 -0.43281767 0.30553734 0
4.2940001 -0.43934563 0.30566362 0
4.29 -0.44595841 0.30576462 0
4.2880001 -0.45276597 0.30581513 0
4.2860003 -0.45956632 0.30586565 0
4.2860003 -0.46657592 0.30586565 0
4.2870002 -0.47369555 0.30584037 0
4.1410003 -0.47112694 0.30952737 0
4.1360002 -0.47729775 0.30965364 0
4.1330004 -0.48368508 0.3097294 0
4.131 -0.49018058 0.30977988 0
4.132 -0.49703142 0.30975464 0
3.8500001 -0.4691734 0.31687608 0
3.8420002 -0.47440085 0.31707811 0
3.8370004 -0.47997826 0.31720436 0
3.8340003 -0.48579371 0.31728011 0
3.8320003 -0.49172822 0.31733063 0
3.8310003 -0.49778724 0.31735587 0
3.8320003 -0.50410956 0.31733063 0
3.8340003 -0.51057082 0.31728011 0
3.8390002 -0.51745051 0.31715387 0
3.8510003 -0.52532053 0.31685081 0
3.8440003 -0.17024632 0.31081527 0
3.8360002 -0.1761556 0.31103176 0
3.8320003 -0.18219474 0.31113997 0
3.8290002 -0.18826094 0.31122112 0
3.8280003 -0.19440292 0.31124818 0
3.8280003 -0.20058636 0.31124818 0
3.8290002 -0.20681673 0.31122112 0
3.8320003 -0.21314809 0.31113997 0
3.8380003 -0.2196418 0.31097764 0
3.8520002 -0.22657563 0.31059882 0
4.3050003 -0.42636904 0.29834193 0
4.2990003 -0.43281767 0.29850429 0
4.2940001 -0.43934563 0.29863957 0
4.29 -0.44595841 0.29874781 0
4.2880001 -0.45276597 0.2988019 0
4.2860003 -0.45956632 0.29885602 0
4.2860003 -0.46657592 0.29885602 0
4.2870002 -0.47369555 0.29882899 0
4.1500001 -0.46538544 0.3025358 0
4.1410003 -0.47112694 0.30277932 0
4.1360002 -0.47729775 0.30291462 0
4.1330004 -0.48368508 0.30299577 0
4.131 -0.49018058 0.30304989 0
4.132 -0.49703142 0.30302283 0
3.8500001 -0.4691734 0.31065294 0
3.8420002 -0.47440085 0.3108694 0
3.8370004 -0.47997826 0.31100467 0
3.8340003 -0.48579371 0.31108585 0
3.8320003 -0.49172822 0.31113997 0
3.8310003 -0.49778724 0.31116703 0
3.8320003 -0.50410956 0.31113997 0
3.8340003 -0.51057082 0.31108585 0
3.8390002 -0.51745051 0.31095058 0
3.8510003 -0.52532053 0.31062588 0
3.8440003 -0.17024632 0.30460298 0
3.8360002 -0.1761556 0.30483386 0
3.8320003 -0.18219474 0.30494928 0
3.8290002 -0.18826094 0.30503589 0
3.8280003 -0.19440292 0.30506474 0
3.8280003 -0.20058636 0.30506474 0
3.8290002 -0.20681673 0.30503589 0
3.8320003 -0.21314809 0.30494928 0
3.8380003 -0.2196418 0.30477613 0
3.8520002 -0.22657563 0.30437207 0
4.3050003 -0.42636904 0.29129809 0
4.2990003 -0.43281767 0.29147124 0
4.2940001 -0.43934563 0.29161555 0
4.29 -0.44595841 0.291731 0
4.2880001 -0.45276597 0.2917887 0
4.2860003 -0.45956632 0.29184642 0
4.2860003 -0.46657592 0.29184642 0
4.2870002 -0.47369555 0.29181758 0
4.1500001 -0.46538544 0.29577151 0
4.1410003 -0.47112694 0.29603127 0
4.1360002 -0.47729775 0.29617557 0
4.1330004 -0.48368508 0.29626215 0
4.131 -0.49018058 0.29631987 0
4.132 -0.49703142 0.29629102 0
3.8500001 -0.4691734 0.3044298 0
3.8420002 -0.47440085 0.30466068 0
3.8370004 -0.47997826 0.30480498 0
3.8340003 -0.48579371 0.30489159 0
3.8320003 -0.49172822 0.30494928 0
3.8310003 -0.49778724 0.30497816 0
3.8320003 -0.50410956 0.30494928 0
3.8340003 -0.51057082 0.30489159 0
3.8390002 -0.51745051 0.30474728 0
3.8510003 -0.52532053 0.30440092 0
3.8440003 -0.17024632 0.29839066 0
3.8360002 -0.1761556 0.29863596 0
3.8320003 -0.18219474 0.29875863 0
3.8290002 -0.18826094 0.29885063 0
3.8280003 -0.19440292 0.29888129 0
3.8280003 -0.20058636 0.29888129 0
3.8290002 -0.20681673 0.29885063 0
3.8320003 -0.21314809 0.29875863 0
3.8380003 -0.2196418 0.29857463 0
3.8520002 -0.22657563 0.29814532 0
4.3050003 -0.42636904 0.28425419 0
4.2990003 -0.43281767 0.28443819 0
4.2940001 -0.43934563 0.2845915 0
4.29 -0.44595841 0.28471416 0
4.2880001 -0.45276597 0.2847755 0
4.2860003 -0.45956632 0.28483683 0
4.2860003 -0.46657592 0.28483683 0
4.2870002 -0.47369555 0.28480616 0
4.1500001 -0.46538544 0.28900725 0
4.1410003 -0.47112694 0.28928322 0
4.1360002 -0.47729775 0.28943655 0
4.1330004 -0.48368508 0.28952855 0
4.131 -0.49018058 0.28958988 0
4.132 -0.49703142 0.28955922 0
3.8500001 -0.4691734 0.29820666 0
3.8420002 -0.47440085 0.29845196 0
3.8370004 -0.47997826 0.29860529 0
3.8340003 -0.48579371 0.29869729 0
3.8320003 -0.49172822 0.29875863 0
3.8310003 -0.49778724 0.29878929 0
3.8320003 -0.50410956 0.29875863 0
3.8340003 -0.51057082 0.29869729 0
3.8390002 -0.51745051 0.29854399 0
3.8510003 -0.52532053 0.29817599 0
3.8440003 -0.17024632 0.29217833 0
3.8360002 -0.1761556 0.29243809 0
3.8320003 -0.18219474 0.29256797 0
3.8290002 -0.18826094 0.29266536 0
3.8280003 -0.19440292 0.29269785 0
3.8280003 -0.20058636 0.29269785 0
3.8290002 -0.20681673 0.29266536 0
3.8320003 -0.21314809 0.29256797 0
3.8380003 -0.2196418 0.29237315 0
3.8520002 -0.22657563 0.29191858 0
4.3050003 -0.42636904 0.27721035 0
4.2990003 -0.43281767 0.27740514 0
4.2940001 -0.43934563 0.27756751 0
4.29 -0.44595841 0.27769735 0
4.2880001 -0.45276597 0.27776229 0
4.2860003 -0.45956632 0.27782723 0
4.2860003 -0.46657592 0.27782723 0
4.2870002 -0.47369555 0.27779478 0
4.1500001 -0.46538544 0.28224295 0
4.1410003 -0.47112694 0.28253517 0
4.1360002 -0.47729775 0.28269753 0
4.1330004 -0.48368508 0.28279492 0
4.131 -0.49018058 0.28285986 0
4.132 -0.49703142 0.28282738 0
3.8500001 -0.4691734 0.29198352 0
3.8420002 -0.47440085 0.29224327 0
3.8370004 -0.47997826 0.29240561 0
3.8340003 -0.48579371 0.292503 0
3.8320003 -0.49172822 0.29256797 0
3.8310003 -0.49778724 0.29260042 0
3.8320003 -0.50410956 0.29256797 0
3.8340003 -0.51057082 0.292503 0
3.8390002 -0.51745051 0.2923407 0
3.8510003 -0.52532053 0.29195106 0
3.8440003 -0.17024632 0.28596601 0
3.8360002 -0.1761556 0.28624019 0
3.8320003 -0.18219474 0.28637728 0
3.8290002 -0.18826094 0.2864801 0
3.8280003 -0.19440292 0.28651437 0
3.8280003 -0.20058636 0.28651437 0
3.8290002 -0.20681673 0.2864801 0
3.8320003 -0.21314809 0.28637728 0
3.8380003 -0.2196418 0.28617164 0
3.8520002 -0.22657563 0.28569183 0
4.3050003 -0.42636904 0.27016646 0
4.2990003 -0.43281767 0.27037209 0
4.2940001 -0.43934563 0.27054346 0
4.29 -0.44595841 0.27068055 0
4.2880001 -0.45276597 0.27074909 0
4.2860003 -0.45956632 0.27081764 0
4.2860003 -0.46657592 0.27081764 0
4.2870002 -0.47369555 0.27078336 0
4.1500001 -0.46538544 0.27547866 0
4.1410003 -0.47112694 0.27578712 0
4.1360002 -0.47729775 0.27595848 0
4.1330004 -0.48368508 0.2760613 0
4.131 -0.49018058 0.27612984 0
4.132 -0.49703142 0.27609557 0
3.8500001 -0.4691734 0.2857604 0
3.8420002 -0.47440085 0.28603455 0
3.8370004 -0.47997826 0.28620592 0
3.8340003 -0.48579371 0.28630874 0
3.8320003 -0.49172822 0.28637728 0
3.8310003 -0.49778724 0.28641155 0
3.8320003 -0.50410956 0.28637728 0
3.8340003 -0.51057082 0.28630874 0
3.8390002 -0.51745051 0.28613737 0
3.8510003 -0.52532053 0.28572613 0
3.8440003 -0.17024632 0.27975368 0
3.8360002 -0.1761556 0.28004232 0
3.8320003 -0.18219474 0.28018662 0
3.8290002 -0.18826094 0.28029484 0
3.8280003 -0.19440292 0.28033093 0
3.8280003 -0.20058636 0.28033093 0
3.8290002 -0.20681673 0.28029484 0
3.8320003 -0.21314809 0.28018662 0
3.8380003 -0.2196418 0.27997017 0
3.8520002 -0.22657563 0.27946511 0
4.3050003 -0.42636904 0.26312259 0
4.2990003 -0.43281767 0.26333904 0
4.2940001 -0.43934563 0.26351941 0
4.29 -0.44595841 0.26366374 0
4.2880001 -0.45276597 0.26373589 0
4.2860003 -0.45956632 0.26380804 0
4.2860003 -0.46657592 0.26380804 0
4.2870002 -0.47369555 0.26377195 0
4.1500001 -0.46538544 0.26871437 0
4.1410003 -0.47112694 0.26903909 0
4.1360002 -0.47729775 0.26921946 0
4.1330004 -0.48368508 0.2693277 0
4.131 -0.49018058 0.26939985 0
4.132 -0.49703142 0.26936376 0
3.8500001 -0.4691734 0.27953726 0
3.8420002 -0.47440085 0.27982587 0
3.8370004 -0.47997826 0.28000623 0
3.8340003 -0.48579371 0.28011447 0
3.8320003 -0.49172822 0.28018662 0
3.8310003 -0.49778724 0.28022268 0
3.8320003 -0.50410956 0.28018662 0
3.8340003 -0.51057082 0.28011447 0
3.8390002 -0.51745051 0.27993411 0
3.8510003 -0.52532053 0.27950117 0
3.8440003 -0.17024632 0.27354139 0
3.8360002 -0.1761556 0.27384442 0
3.8320003 -0.18219474 0.27399594 0
3.8290002 -0.18826094 0.2741096 0
3.8280003 -0.19440292 0.27414745 0
3.8280003 -0.20058636 0.27414745 0
3.8290002 -0.20681673 0.2741096 0
3.8320003 -0.21314809 0.27399594 0
3.8380003 -0.2196418 0.27376866 0
3.8520002 -0.22657563 0.27323836 0
4.3050003 -0.42636904 0.25607872 0
4.2990003 -0.43281767 0.25630599 0
4.2940001 -0.43934563 0.25649539 0
4.29 -0.44595841 0.25664693 0
4.2880001 -0.45276597 0.25672269 0
4.2860003 -0.45956632 0.25679845 0
4.2860003 -0.46657592 0.25679845 0
4.2870002 -0.47369555 0.25676057 0
4.1500001 -0.46538544 0.26195011 0
4.1410003 -0.47112694 0.26229101 0
4.1360002 -0.47729775 0.26248044 0
4.1330004 -0.48368508 0.26259407 0
4.131 -0.49018058 0.26266983 0
4.132 -0.49703142 0.26263195 0
3.8500001 -0.4691734 0.27331412 0
3.8420002 -0.47440085 0.27361715 0
3.8370004 -0.47997826 0.27380657 0
3.8340003 -0.48579371 0.27392018 0
3.8320003 -0.49172822 0.27399594 0
3.8310003 -0.49778724 0.27403384 0
3.8320003 -0.50410956 0.27399594 0
3.8340003 -0.51057082 0.27392018 0
3.8390002 -0.51745051 0.27373078 0
3.8510003 -0.52532053 0.27327621 0
3.8440003 -0.17024632 0.26732907 0
3.8360002 -0.1761556 0.26764655 0
3.8320003 -0.18219474 0.26780528 0
3.8290002 -0.18826094 0.26792431 0
3.8280003 -0.19440292 0.26796401 0
3.8280003 -0.20058636 0.26796401 0
3.8290002 -0.20681673 0.26792431 0
3.8320003 -0.21314809 0.26780528 0
3.8380003 -0.2196418 0.26756716 0
3.8520002 -0.22657563 0.26701161 0
4.3050003 -0.42636904 0.24903485 0
4.2990003 -0.43281767 0.24927296 0
4.2940001 -0.43934563 0.24947137 0
4.29 -0.44595841 0.24963011 0
4.2880001 -0.45276597 0.24970947 0
4.2860003 -0.45956632 0.24978884 0
4.2860003 -0.46657592 0.24978884 0
4.2870002 -0.47369555 0.24974917 0
4.1500001 -0.46538544 0.25518584 0
4.1410003 -0.47112694 0.25554299 0
4.1360002 -0.47729775 0.25574142 0
4.1330004 -0.48368508 0.25586045 0
4.131 -0.49018058 0.25593984 0
4.132 -0.49703142 0.25590014 0
3.8500001 -0.4691734 0.26709098 0
3.8420002 -0.47440085 0.26740843 0
3.8370004 -0.47997826 0.26760685 0
3.8340003 -0.48579371 0.26772591 0
3.8320003 -0.49172822 0.26780528 0
3.8310003 -0.49778724 0.26784497 0
3.8320003 -0.50410956 0.26780528 0
3.8340003 -0.51057082 0.26772591 0
3.8390002 -0.51745051 0.26752749 0
3.8510003 -0.52532053 0.26705128 0
3.8440003 -0.17024632 0.26111674 0
3.8360002 -0.1761556 0.26144868 0
3.8320003 -0.18219474 0.26161462 0
3.8290002 -0.18826094 0.26173908 0
3.8280003 -0.19440292 0.26178056 0
3.8280003 -0.20058636 0.26178056 0
3.8290002 -0.20681673 0.26173908 0
3.8320003 -0.21314809 0.26161462 0
3.8380003 -0.2196418 0.26136568 0
3.8520002 -0.22657563 0.26078486 0
4.3050003 -0.42636904 0.24199098 0
4.2990003 -0.43281767 0.24223991 0
4.2940001 -0.43934563 0.24244735 0
4.29 -0.44595841 0.2426133 0
4.2880001 -0.45276597 0.24269627 0
4.2860003 -0.45956632 0.24277924 0
4.2860003 -0.46657592 0.24277924 0
4.2870002 -0.47369555 0.24273776 0
4.1500001 -0.46538544 0.24842155 0
4.1410003 -0.47112694 0.24879494 0
4.1360002 -0.47729775 0.24900238 0
4.1330004 -0.48368508 0.24912684 0
4.131 -0.49018058 0.24920982 0
4.132 -0.49703142 0.24916832 0
3.8500001 -0.4691734 0.26086783 0
3.8420002 -0.47440085 0.26119974 0
3.8370004 -0.47997826 0.26140714 0
3.8340003 -0.48579371 0.26153165 0
3.8320003 -0.49172822 0.26161462 0
3.8310003 -0.49778724 0.26165611 0
3.8320003 -0.50410956 0.26161462 0
3.8340003 -0.51057082 0.26153165 0
3.8390002 -0.51745051 0.2613242 0
3.8510003 -0.52532053 0.26082635 0
3.8440003 -0.17024632 0.25490445 0
3.8360002 -0.1761556 0.25525075 0
3.8320003 -0.18219474 0.25542393 0
3.8290002 -0.18826094 0.25555381 0
3.8280003 -0.19440292 0.25559711 0
3.8280003 -0.20058636 0.25559711 0
3.8290002 -0.20681673 0.25555381 0
3.8320003 -0.21314809 0.25542393 0
3.8380003 -0.2196418 0.25516418 0
3.8520002 -0.22657563 0.25455809 0
4.3050003 -0.42636904 0.23494712 0
4.2990003 -0.43281767 0.23520686 0
4.2940001 -0.43934563 0.2354233 0
4.29 -0.44595841 0.23559648 0
4.2880001 -0.45276597 0.23568305 0
4.2860003 -0.45956632 0.23576964 0
4.2860003 -0.46657592 0.23576964 0
4.2870002 -0.47369555 0.23572636 0
4.1500001 -0.46538544 0.24165727 0
4.1410003 -0.47112694 0.24204689 0
4.1360002 -0.47729775 0.24226336 0
4.1330004 -0.48368508 0.24239321 0
4.131 -0.49018058 0.2424798 0
4.132 -0.49703142 0.24243653 0
3.8500001 -0.4691734 0.25464469 0
3.8420002 -0.47440085 0.25499102 0
3.8370004 -0.47997826 0.25520748 0
3.8340003 -0.48579371 0.25533736 0
3.8320003 -0.49172822 0.25542393 0
3.8310003 -0.49778724 0.25546724 0
3.8320003 -0.50410956 0.25542393 0
3.8340003 -0.51057082 0.25533736 0
3.8390002 -0.51745051 0.2551209 0
3.8510003 -0.52532053 0.25460142 0
3.8440003 -0.17024632 0.24869213 0
3.8360002 -0.1761556 0.2490529 0
3.8320003 -0.18219474 0.24923328 0
3.8290002 -0.18826094 0.24936855 0
3.8280003 -0.19440292 0.24941365 0
3.8280003 -0.20058636 0.24941365 0
3.8290002 -0.20681673 0.24936855 0
3.8320003 -0.21314809 0.24923328 0
3.8380003 -0.2196418 0.2489627 0
3.8520002 -0.22657563 0.24833137 0
4.3050003 -0.42636904 0.22790323 0
4.2990003 -0.43281767 0.22817381 0
4.2940001 -0.43934563 0.22839928 0
4.29 -0.44595841 0.22857967 0
4.2880001 -0.45276597 0.22866985 0
4.2860003 -0.45956632 0.22876005 0
4.2860003 -0.46657592 0.22876005 0
4.2870002 -0.47369555 0.22871496 0
4.1500001 -0.46538544 0.23489298 0
4.1410003 -0.47112694 0.23529886 0
4.1360002 -0.47729775 0.23552433 0
4.1330004 -0.48368508 0.23565961 0
4.131 -0.49018058 0.23574981 0
4.132 -0.49703142 0.23570471 0
3.8500001 -0.4691734 0.24842156 0
3.8420002 -0.47440085 0.24878232 0
3.8370004 -0.47997826 0.24900779 0
3.8340003 -0.48579371 0.24914308 0
3.8320003 -0.49172822 0.24923328 0
3.8310003 -0.49778724 0.24927835 0
3.8320003 -0.50410956 0.24923328 0
3.8340003 -0.51057082 0.24914308 0
3.8390002 -0.51745051 0.24891759 0
3.8510003 -0.52532053 0.24837644 0
3.8440003 -0.17024632 0.2424798 0
3.8360002 -0.1761556 0.242855 0
3.8320003 -0.18219474 0.2430426 0
3.8290002 -0.18826094 0.24318328 0
3.8280003 -0.19440292 0.24323019 0
3.8280003 -0.20058636 0.24323019 0
3.8290002 -0.20681673 0.24318328 0
3.8320003 -0.21314809 0.2430426 0
3.8380003 -0.2196418 0.24276119 0
3.8520002 -0.22657563 0.24210462 0
4.3050003 -0.42636904 0.22085936 0
4.2990003 -0.43281767 0.22114076 0
4.2940001 -0.43934563 0.22137524 0
4.29 -0.44595841 0.22156286 0
4.2880001 -0.45276597 0.22165665 0
4.2860003 -0.45956632 0.22175045 0
4.2860003 -0.46657592 0.22175045 0
4.2870002 -0.47369555 0.22170354 0
4.1500001 -0.46538544 0.2281287 0
4.1410003 -0.47112694 0.22855079 0
4.1360002 -0.47729775 0.22878531 0
4.1330004 -0.48368508 0.22892599 0
4.131 -0.49018058 0.22901979 0
4.132 -0.49703142 0.2289729 0
3.8500001 -0.4691734 0.24219841 0
3.8420002 -0.47440085 0.2425736 0
3.8370004 -0.47997826 0.2428081 0
3.8340003 -0.48579371 0.2429488 0
3.8320003 -0.49172822 0.2430426 0
3.8310003 -0.49778724 0.24308948 0
3.8320003 -0.50410956 0.2430426 0
3.8340003 -0.51057082 0.2429488 0
3.8390002 -0.51745051 0.24271432 0
3.8510003 -0.52532053 0.24215151 0
3.8440003 -0.17024632 0.23626749 0
3.8360002 -0.1761556 0.23665711 0
3.8320003 -0.18219474 0.23685193 0
3.8290002 -0.18826094 0.23699805 0
3.8280003 -0.19440292 0.23704673 0
3.8280003 -0.20058636 0.23704673 0
3.8290002 -0.20681673 0.23699805 0
3.8320003 -0.21314809 0.23685193 0
3.8380003 -0.2196418 0.23655972 0
3.8520002 -0.22657563 0.23587787 0
4.3050003 -0.42636904 0.2138155 0
4.2990003 -0.43281767 0.21410771 0
4.2940001 -0.43934563 0.21435122 0
4.29 -0.44595841 0.21454604 0
4.2880001 -0.45276597 0.21464343 0
4.2860003 -0.45956632 0.21474084 0
4.2860003 -0.46657592 0.21474084 0
4.2870002 -0.47369555 0.21469215 0
4.1500001 -0.46538544 0.22136442 0
4.1410003 -0.47112694 0.22180276 0
4.1360002 -0.47729775 0.22204627 0
4.1330004 -0.48368508 0.22219238 0
4.131 -0.49018058 0.22228979 0
4.132 -0.49703142 0.22224109 0
3.8500001 -0.4691734 0.23597528 0
3.8420002 -0.47440085 0.2363649 0
3.8370004 -0.47997826 0.2366084 0
3.8340003 -0.48579371 0.23675451 0
3.8320003 -0.49172822 0.23685193 0
3.8310003 -0.49778724 0.23690063 0
3.8320003 -0.50410956 0.23685193 0
3.8340003 -0.51057082 0.23675451 0
3.8390002 -0.51745051 0.23651101 0
3.8510003 -0.52532053 0.23592658 0
3.8440003 -0.17024632 0.23005517 0
3.8360002 -0.1761556 0.23045924 0
3.8320003 -0.18219474 0.23066126 0
3.8290002 -0.18826094 0.23081279 0
3.8280003 -0.19440292 0.23086327 0
3.8280003 -0.20058636 0.23086327 0
3.8290002 -0.20681673 0.23081279 0
3.8320003 -0.21314809 0.23066126 0
3.8380003 -0.2196418 0.23035821 0
3.8520002 -0.22657563 0.22965112 0
4.3050003 -0.42636904 0.20677163 0
4.2990003 -0.43281767 0.20707466 0
4.2940001 -0.43934563 0.2073272 0
4.29 -0.44595841 0.20752922 0
4.2880001 -0.45276597 0.20763023 0
4.2860003 -0.45956632 0.20773125 0
4.2860003 -0.46657592 0.20773125 0
4.2870002 -0.47369555 0.20768075 0
4.1500001 -0.46538544 0.21460015 0
4.1410003 -0.47112694 0.21505472 0
4.1360002 -0.47729775 0.21530725 0
4.1330004 -0.48368508 0.21545875 0
4.131 -0.49018058 0.21555978 0
4.132 -0.49703142 0.21550928 0
3.8500001 -0.4691734 0.22975215 0
3.8420002 -0.47440085 0.23015618 0
3.8370004 -0.47997826 0.23040871 0
3.8340003 -0.48579371 0.23056024 0
3.8320003 -0.49172822 0.23066126 0
3.8310003 -0.49778724 0.23071176 0
3.8320003 -0.50410956 0.23066126 0
3.8340003 -0.51057082 0.23056024 0
3.8390002 -0.51745051 0.23030771 0
3.8510003 -0.52532053 0.22970162 0
3.8440003 -0.17024632 0.22384286 0
3.8360002 -0.1761556 0.22426134 0
3.8320003 -0.18219474 0.22447059 0
3.8290002 -0.18826094 0.22462752 0
3.8280003 -0.19440292 0.22467983 0
3.8280003 -0.20058636 0.22467983 0
3.8290002 -0.20681673 0.22462752 0
3.8320003 -0.21314809 0.22447059 0
3.8380003 -0.2196418 0.22415672 0
3.8520002 -0.22657563 0.22342439 0
4.3050003 -0.42636904 0.19972776 0
4.2990003 -0.43281767 0.20004161 0
4.2940001 -0.43934563 0.20030315 0
4.29 -0.44595841 0.20051241 0
4.2880001 -0.45276597 0.20061703 0
4.2860003 -0.45956632 0.20072165 0
4.2860003 -0.46657592 0.20072165 0
4.2870002 -0.47369555 0.20066935 0
4.1500001 -0.46538544 0.20783587 0
4.1410003 -0.47112694 0.20830666 0
4.1360002 -0.47729775 0.20856822 0
4.1330004 -0.48368508 0.20872514 0
4.131 -0.49018058 0.20882976 0
4.132 -0.49703142 0.20877746 0
3.8500001 -0.4691734 0.223529 0
3.8420002 -0.47440085 0.2239475 0
3.8370004 -0.47997826 0.22420904 0
3.8340003 -0.48579371 0.22436596 0
3.8320003 -0.49172822 0.22447059 0
3.8310003 -0.49778724 0.22452289 0
3.8320003 -0.50410956 0.22447059 0
3.8340003 -0.51057082 0.22436596 0
3.8390002 -0.51745051 0.22410442 0
3.8510003 -0.52532053 0.22347668 0
3.8440003 -0.17024632 0.21763055 0
3.8360002 -0.1761556 0.21806347 0
3.8320003 -0.18219474 0.21827991 0
3.8290002 -0.18826094 0.21844226 0
3.8280003 -0.19440292 0.21849638 0
3.8280003 -0.20058636 0.21849638 0
3.8290002 -0.20681673 0.21844226 0
3.8320003 -0.21314809 0.21827991 0
3.8380003 -0.2196418 0.21795523 0
3.8520002 -0.22657563 0.21719763 0
4.3050003 -0.42636904 0.19268388 0
4.2990003 -0.43281767 0.19300857 0
4.2940001 -0.43934563 0.19327913 0
4.29 -0.44595841 0.1934956 0
4.2880001 -0.45276597 0.19360381 0
4.2860003 -0.45956632 0.19371206 0
4.2860003 -0.46657592 0.19371206 0
4.2870002 -0.47369555 0.19365795 0
4.1500001 -0.46538544 0.20107159 0
4.1410003 -0.47112694 0.20155862 0
4.1360002 -0.47729775 0.2018292 0
4.1330004 -0.48368508 0.20199153 0
4.131 -0.49018058 0.20209976 0
4.132 -0.49703142 0.20204563 0
3.8500001 -0.4691734 0.21730587 0
3.8420002 -0.47440085 0.21773878 0
3.8370004 -0.47997826 0.21800934 0
3.8340003 -0.48579371 0.21817169 0
3.8320003 -0.49172822 0.21827991 0
3.8310003 -0.49778724 0.21833403 0
3.8320003 -0.50410956 0.21827991 0
3.8340003 -0.51057082 0.21817169 0
3.8390002 -0.51745051 0.21790111 0
3.8510003 -0.52532053 0.21725175 0
3.8440003 -0.17024632 0.21141823 0
3.8360002 -0.1761556 0.21186557 0
3.8320003 -0.18219474 0.21208924 0
3.8290002 -0.18826094 0.21225701 0
3.8280003 -0.19440292 0.21231292 0
3.8280003 -0.20058636 0.21231292 0
3.8290002 -0.20681673 0.21225701 0
3.8320003 -0.21314809 0.21208924 0
3.8380003 -0.2196418 0.21175374 0
3.8520002 -0.22657563 0.21097089 0
4.3050003 -0.42636904 0.18564001 0
4.2990003 -0.43281767 0.18597552 0
4.2940001 -0.43934563 0.1862551 0
4.29 -0.44595841 0.18647878 0
4.2880001 -0.45276597 0.18659061 0
4.2860003 -0.45956632 0.18670246 0
4.2860003 -0.46657592 0.18670246 0
4.2870002 -0.47369555 0.18664654 0
4.1500001 -0.46538544 0.1943073 0
4.1410003 -0.47112694 0.19481057 0
4.1360002 -0.47729775 0.19509016 0
4.1330004 -0.48368508 0.19525792 0
4.131 -0.49018058 0.19536975 0
4.132 -0.49703142 0.19531384 0
3.8500001 -0.4691734 0.21108273 0
3.8420002 -0.47440085 0.21153007 0
3.8370004 -0.47997826 0.21180965 0
3.8340003 -0.48579371 0.21197741 0
3.8320003 -0.49172822 0.21208924 0
3.8310003 -0.49778724 0.21214516 0
3.8320003 -0.50410956 0.21208924 0
3.8340003 -0.51057082 0.21197741 0
3.8390002 -0.51745051 0.21169783 0
3.8510003 -0.52532053 0.2110268 0
3.8440003 -0.17024632 0.20520592 0
3.8360002 -0.1761556 0.20566769 0
3.8320003 -0.18219474 0.20589858 0
3.8290002 -0.18826094 0.20607175 0
3.8280003 -0.19440292 0.20612946 0
3.8280003 -0.20058636 0.20612946 0
3.8290002 -0.20681673 0.20607175 0
3.8320003 -0.21314809 0.20589858 0
3.8380003 -0.2196418 0.20555225 0
3.8520002 -0.22657563 0.20474415 0
4.3050003 -0.42636904 0.17859614 0
4.2990003 -0.43281767 0.17894247 0
4.2940001 -0.43934563 0.17923108 0
4.29 -0.44595841 0.17946197 0
4.2880001 -0.45276597 0.17957741 0
4.2860003 -0.45956632 0.17969285 0
4.2860003 -0.46657592 0.17969285 0
4.2870002 -0.47369555 0.17963514 0
4.1500001 -0.46538544 0.18754302 0
4.1410003 -0.47112694 0.18806252 0
4.1360002 -0.47729775 0.18835114 0
4.1330004 -0.48368508 0.18852429 0
4.131 -0.49018058 0.18863975 0
4.132 -0.49703142 0.18858202 0
3.8500001 -0.4691734 0.20485958 0
3.8420002 -0.47440085 0.20532136 0
3.8370004 -0.47997826 0.20560996 0
3.8340003 -0.48579371 0.20578313 0
3.8320003 -0.49172822 0.20589858 0
3.8310003 -0.49778724 0.2059563 0
3.8320003 -0.50410956 0.20589858 0
3.8340003 -0.51057082 0.20578313 0
3.8390002 -0.51745051 0.20549452 0
3.8510003 -0.52532053 0.20480186 0
3.8440003 -0.17024632 0.19899359 0
3.8360002 -0.1761556 0.19946982 0
3.8320003 -0.18219474 0.19970791 0
3.8290002 -0.18826094 0.19988649 0
3.8280003 -0.19440292 0.199946 0
3.8280003 -0.20058636 0.199946 0
3.8290002 -0.20681673 0.19988649 0
3.8320003 -0.21314809 0.19970791 0
3.8380003 -0.2196418 0.19935074 0
3.8520002 -0.22657563 0.1985174 0
4.3050003 -0.42636904 0.17155227 0
4.2990003 -0.43281767 0.17190942 0
4.2940001 -0.43934563 0.17220703 0
4.29 -0.44595841 0.17244515 0
4.2880001 -0.45276597 0.17256421 0
4.2860003 -0.45956632 0.17268325 0
4.2860003 -0.46657592 0.17268325 0
4.2870002 -0.47369555 0.17262375 0
4.1500001 -0.46538544 0.18077874 0
4.1410003 -0.47112694 0.18131448 0
4.1360002 -0.47729775 0.1816121 0
4.1330004 -0.48368508 0.18179068 0
4.131 -0.49018058 0.18190973 0
4.132 -0.49703142 0.18185021 0
3.8500001 -0.4691734 0.19863646 0
3.8420002 -0.47440085 0.19911265 0
3.8370004 -0.47997826 0.19941027 0
3.8340003 -0.48579371 0.19958885 0
3.8320003 -0.49172822 0.19970791 0
3.8310003 -0.49778724 0.19976743 0
3.8320003 -0.50410956 0.19970791 0
3.8340003 -0.51057082 0.19958885 0
3.8390002 -0.51745051 0.19929123 0
3.8510003 -0.52532053 0.19857691 0
3.8440003 -0.17024632 0.19278128 0
3.8360002 -0.1761556 0.19327192 0
3.8320003 -0.18219474 0.19351724 0
3.8290002 -0.18826094 0.19370122 0
3.8280003 -0.19440292 0.19376256 0
3.8280003 -0.20058636 0.19376256 0
3.8290002 -0.20681673 0.19370122 0
3.8320003 -0.21314809 0.19351724 0
3.8380003 -0.2196418 0.19314927 0
3.8520002 -0.22657563 0.19229065 0
4.3050003 -0.42636904 0.1645084 0
4.2990003 -0.43281767 0.16487637 0
4.2940001 -0.43934563 0.16518301 0
4.29 -0.44595841 0.16542833 0
4.2880001 -0.45276597 0.16555101 0
4.2860003 -0.45956632 0.16567366 0
4.2860003 -0.46657592 0.16567366 0
4.2870002 -0.47369555 0.16561233 0
4.1500001 -0.46538544 0.17401446 0
4.1410003 -0.47112694 0.17456643 0
4.1360002 -0.47729775 0.17487308 0
4.1330004 -0.48368508 0.17505705 0
