# .PCD v0.7 - Point Cloud Data file format
VERSION 0.7
FIELDS x y z intensity
SIZE 4 4 4 4
TYPE F F F F
COUNT 1 1 1 1
WIDTH 1456
HEIGHT 1
VIEWPOINT 0 0 0 1 0 0 0
POINTS 1456
DATA ascii
5.3020005 -2.7163651 2.145927 0
5.2920003 -2.7197416 2.1423733 0
5.2820005 -2.7230825 2.1388199 0
5.2720003 -2.726387 2.1352663 0
5.2620006 -2.7296555 2.1317129 0
5.2520003 -2.7328877 2.1281593 0
5.2420001 -2.7360842 2.1246057 0
5.2320004 -2.7392445 2.1210523 0
5.2230005 -2.7429278 2.1178541 0
5.2130003 -2.7460177 2.1143005 0
5.2030005 -2.7490716 2.1107471 0
5.1940002 -2.7526541 2.107549 0
5.1840005 -2.7556376 2.1039956 0
5.1750002 -2.7591529 2.1007974 0
5.1650004 -2.7620664 2.0972438 0
5.1560001 -2.7655149 2.0940456 0
5.7030005 -2.5808828 2.2788568 0
5.6910005 -2.5846906 2.2746141 0
5.6800003 -2.5889366 2.270725 0
5.6680002 -2.5926595 2.2664826 0
5.6570005 -2.5968249 2.2625935 0
5.6450005 -2.6004632 2.2583508 0
5.6340003 -2.6045468 2.2544618 0
5.6220002 -2.6081002 2.2502193 0
5.6110005 -2.6121032 2.2463305 0
5.6000004 -2.616066 2.2424414 0
5.5880003 -2.6194932 2.2381988 0
5.5770001 -2.6233749 2.2343097 0
5.5660005 -2.6272171 2.2304208 0
5.5550003 -2.6310196 2.2265317 0
5.5440001 -2.6347823 2.2226427 0
5.5330005 -2.6385055 2.2187538 0
5.5220003 -2.6421888 2.2148647 0
5.5110002 -2.6458323 2.2109756 0
5.5000005 -2.6494365 2.2070868 0
5.4890003 -2.6530008 2.2031977 0
5.4780002 -2.6565251 2.1993086 0
5.4680004 -2.6605263 2.1957731 0
5.4570003 -2.6639731 2.1918843 0
5.4460001 -2.6673806 2.1879952 0
5.4360003 -2.6712697 2.1844597 0
5.4250002 -2.6745994 2.1805706 0
5.4150004 -2.6784146 2.1770353 0
5.4040003 -2.6816669 2.1731462 0
5.3940005 -2.6854081 2.169611 0
5.3830004 -2.6885827 2.1657217 0
5.3730001 -2.6922498 2.1621861 0
5.3630004 -2.6958809 2.1586509 0
5.3520002 -2.69894 2.1547618 0
5.3420005 -2.7024972 2.1512265 0
5.3320003 -2.7060182 2.147691 0
5.3220005 -2.7095032 2.1441555 0
5.3120003 -2.7129521 2.14062 0
5.3020005 -2.7163651 2.1370847 0
5.2920003 -2.7197416 2.133549 0
5.2820005 -2.7230825 2.1300137 0
5.2720003 -2.726387 2.1264782 0
5.2620006 -2.7296555 2.1229427 0
5.2520003 -2.7328877 2.1194072 0
5.2420001 -2.7360842 2.1158717 0
5.2320004 -2.7392445 2.1123362 0
5.2230005 -2.7429278 2.1091545 0
5.2130003 -2.7460177 2.1056187 0
5.2030005 -2.7490716 2.1020834 0
5.1940002 -2.7526541 2.0989015 0
5.1840005 -2.7556376 2.095366 0
5.1750002 -2.7591529 2.0921841 0
5.1650004 -2.7620664 2.0886488 0
5.1560001 -2.7655149 2.0854666 0
5.7030005 -2.5808828 2.2692912 0
5.6910005 -2.5846906 2.2650702 0
5.6800003 -2.5889366 2.2612011 0
5.6680002 -2.5926595 2.2569799 0
5.6570005 -2.5968249 2.2531109 0
5.6450005 -2.6004632 2.2488899 0
5.6340003 -2.6045468 2.2450209 0
5.6220002 -2.6081002 2.2407999 0
5.6110005 -2.6121032 2.2369308 0
5.6000004 -2.616066 2.2330616 0
5.5880003 -2.6194932 2.2288406 0
5.5770001 -2.6233749 2.2249713 0
5.5660005 -2.6272171 2.2211022 0
5.5550003 -2.6310196 2.2172332 0
5.5440001 -2.6347823 2.2133639 0
5.5330005 -2.6385055 2.2094948 0
5.5220003 -2.6421888 2.2056255 0
5.5110002 -2.6458323 2.2017565 0
5.5000005 -2.6494365 2.1978872 0
5.4890003 -2.6530008 2.1940181 0
5.4780002 -2.6565251 2.1901488 0
5.4680004 -2.6605263 2.1866314 0
5.4570003 -2.6639731 2.1827624 0
5.4460001 -2.6673806 2.1788931 0
5.4360003 -2.6712697 2.1753757 0
5.4250002 -2.6745994 2.1715064 0
5.4150004 -2.6784146 2.1679893 0
5.4040003 -2.6816669 2.16412 0
5.3940005 -2.6854081 2.1606026 0
5.3830004 -2.6885827 2.1567335 0
5.3730001 -2.6922498 2.1532159 0
5.3630004 -2.6958809 2.1496985 0
5.3520002 -2.69894 2.1458292 0
5.3420005 -2.7024972 2.142312 0
5.3320003 -2.7060182 2.1387944 0
5.3220005 -2.7095032 2.1352773 0
5.3120003 -2.7129521 2.1317596 0
5.3020005 -2.7163651 2.1282423 0
5.2920003 -2.7197416 2.1247249 0
5.2820005 -2.7230825 2.1212075 0
5.2720003 -2.726387 2.1176898 0
5.2620006 -2.7296555 2.1141727 0
5.2520003 -2.7328877 2.1106551 0
5.2420001 -2.7360842 2.1071377 0
5.2320004 -2.7392445 2.1036203 0
5.2230005 -2.7429278 2.1004546 0
5.2130003 -2.7460177 2.0969372 0
5.2030005 -2.7490716 2.0934198 0
5.1940002 -2.7526541 2.0902541 0
5.1840005 -2.7556376 2.0867367 0
5.1750002 -2.7591529 2.083571 0
5.1650004 -2.7620664 2.0800536 0
5.1560001 -2.7655149 2.0768876 0
5.7030005 -2.5808828 2.2597256 0
5.6910005 -2.5846906 2.2555263 0
5.6800003 -2.5889366 2.2516768 0
5.6680002 -2.5926595 2.2474775 0
5.6570005 -2.5968249 2.2436283 0
5.6450005 -2.6004632 2.239429 0
5.6340003 -2.6045468 2.2355797 0
5.6220002 -2.6081002 2.2313802 0
5.6110005 -2.6121032 2.2275312 0
5.6000004 -2.616066 2.2236817 0
5.5880003 -2.6194932 2.2194824 0
5.5770001 -2.6233749 2.2156332 0
5.5660005 -2.6272171 2.2117839 0
5.5550003 -2.6310196 2.2079346 0
5.5440001 -2.6347823 2.2040851 0
5.5330005 -2.6385055 2.2002358 0
5.5220003 -2.6421888 2.1963866 0
5.5110002 -2.6458323 2.1925371 0
5.5000005 -2.6494365 2.1886878 0
5.4890003 -2.6530008 2.1848385 0
5.4780002 -2.6565251 2.180989 0
5.4680004 -2.6605263 2.1774898 0
5.4570003 -2.6639731 2.1736405 0
5.4460001 -2.6673806 2.169791 0
5.4360003 -2.6712697 2.1662917 0
5.4250002 -2.6745994 2.1624424 0
5.4150004 -2.6784146 2.1589432 0
5.4040003 -2.6816669 2.1550937 0
5.3940005 -2.6854081 2.1515944 0
5.3830004 -2.6885827 2.1477449 0
5.3730001 -2.6922498 2.1442456 0
5.3630004 -2.6958809 2.1407464 0
5.3520002 -2.69894 2.1368968 0
5.3420005 -2.7024972 2.1333976 0
5.3320003 -2.7060182 2.1298981 0
5.3220005 -2.7095032 2.1263988 0
5.3120003 -2.7129521 2.1228993 0
5.3020005 -2.7163651 2.1194 0
5.2920003 -2.7197416 2.1159005 0
5.2820005 -2.7230825 2.1124012 0
5.2720003 -2.726387 2.1089017 0
5.2620006 -2.7296555 2.1054025 0
5.2520003 -2.7328877 2.101903 0
5.2420001 -2.7360842 2.0984037 0
5.2320004 -2.7392445 2.0949042 0
5.2230005 -2.7429278 2.0917549 0
5.2130003 -2.7460177 2.0882554 0
5.2030005 -2.7490716 2.0847561 0
5.1940002 -2.7526541 2.0816066 0
5.1840005 -2.7556376 2.0781071 0
5.1750002 -2.7591529 2.0749576 0
5.1650004 -2.7620664 2.0714583 0
5.1560001 -2.7655149 2.0683088 0
5.7030005 -2.5808828 2.25016 0
5.6910005 -2.5846906 2.2459822 0
5.6800003 -2.5889366 2.2421527 0
5.6680002 -2.5926595 2.2379751 0
5.6570005 -2.5968249 2.2341456 0
5.6450005 -2.6004632 2.2299681 0
5.6340003 -2.6045468 2.2261386 0
5.6220002 -2.6081002 2.2219608 0
5.6110005 -2.6121032 2.2181315 0
5.6000004 -2.616066 2.2143018 0
5.5880003 -2.6194932 2.2101243 0
5.5770001 -2.6233749 2.2062948 0
5.5660005 -2.6272171 2.2024653 0
5.5550003 -2.6310196 2.1986358 0
5.5440001 -2.6347823 2.1948063 0
5.5330005 -2.6385055 2.1909769 0
5.5220003 -2.6421888 2.1871474 0
5.5110002 -2.6458323 2.1833179 0
5.5000005 -2.6494365 2.1794884 0
5.4890003 -2.6530008 2.1756589 0
5.4780002 -2.6565251 2.1718295 0
5.4680004 -2.6605263 2.1683481 0
5.4570003 -2.6639731 2.1645186 0
5.4460001 -2.6673806 2.1606891 0
5.4360003 -2.6712697 2.1572077 0
5.4250002 -2.6745994 2.1533782 0
5.4150004 -2.6784146 2.1498971 0
5.4040003 -2.6816669 2.1460674 0
5.3940005 -2.6854081 2.1425862 0
5.3830004 -2.6885827 2.1387568 0
5.3730001 -2.6922498 2.1352751 0
5.3630004 -2.6958809 2.131794 0
5.3520002 -2.69894 2.1279645 0
5.3420005 -2.7024972 2.1244831 0
5.3320003 -2.7060182 2.1210017 0
5.3220005 -2.7095032 2.1175206 0
5.3120003 -2.7129521 2.1140389 0
5.3020005 -2.7163651 2.1105578 0
5.2920003 -2.7197416 2.1070764 0
5.2820005 -2.7230825 2.103595 0
5.2720003 -2.726387 2.1001136 0
5.2620006 -2.7296555 2.0966325 0
5.2520003 -2.7328877 2.0931509 0
5.2420001 -2.7360842 2.0896695 0
5.2320004 -2.7392445 2.0861883 0
5.2230005 -2.7429278 2.0830553 0
5.2130003 -2.7460177 2.0795736 0
5.2030005 -2.7490716 2.0760925 0
5.1940002 -2.7526541 2.0729589 0
5.1840005 -2.7556376 2.0694778 0
5.1750002 -2.7591529 2.0663445 0
5.1650004 -2.7620664 2.0628633 0
5.1560001 -2.7655149 2.0597301 0
5.7030005 -2.5808828 2.2405944 0
5.6910005 -2.5846906 2.2364383 0
5.6800003 -2.5889366 2.2326286 0
5.6680002 -2.5926595 2.2284727 0
5.6570005 -2.5968249 2.224663 0
5.6450005 -2.6004632 2.2205069 0
5.6340003 -2.6045468 2.2166975 0
5.6220002 -2.6081002 2.2125413 0
5.6110005 -2.6121032 2.2087319 0
5.6000004 -2.616066 2.2049222 0
5.5880003 -2.6194932 2.2007661 0
5.5770001 -2.6233749 2.1969564 0
5.5660005 -2.6272171 2.1931469 0
5.5550003 -2.6310196 2.1893373 0
5.5440001 -2.6347823 2.1855276 0
5.5330005 -2.6385055 2.1817179 0
5.5220003 -2.6421888 2.1779084 0
5.5110002 -2.6458323 2.1740985 0
5.5000005 -2.6494365 2.170289 0
5.4890003 -2.6530008 2.1664793 0
5.4780002 -2.6565251 2.1626697 0
5.4680004 -2.6605263 2.1592064 0
5.4570003 -2.6639731 2.1553967 0
5.4460001 -2.6673806 2.151587 0
5.4360003 -2.6712697 2.1481237 0
5.4250002 -2.6745994 2.1443143 0
5.4150004 -2.6784146 2.1408508 0
5.4040003 -2.6816669 2.1370413 0
5.3940005 -2.6854081 2.1335781 0
5.3830004 -2.6885827 2.1297684 0
5.3730001 -2.6922498 2.1263049 0
5.3630004 -2.6958809 2.1228416 0
5.3520002 -2.69894 2.1190319 0
5.3420005 -2.7024972 2.1155686 0
5.3320003 -2.7060182 2.1121054 0
5.3220005 -2.7095032 2.1086421 0
5.3120003 -2.7129521 2.1051786 0
5.3020005 -2.7163651 2.1017156 0
5.2920003 -2.7197416 2.0982521 0
5.2820005 -2.7230825 2.094789 0
5.2720003 -2.726387 2.0913255 0
5.2620006 -2.7296555 2.0878623 0
5.2520003 -2.7328877 2.084399 0
5.2420001 -2.7360842 2.0809355 0
5.2320004 -2.7392445 2.0774722 0
5.2230005 -2.7429278 2.0743554 0
5.2130003 -2.7460177 2.0708921 0
5.2030005 -2.7490716 2.0674288 0
5.1940002 -2.7526541 2.0643115 0
5.1840005 -2.7556376 2.0608485 0
5.1750002 -2.7591529 2.0577314 0
5.1650004 -2.7620664 2.0542681 0
5.1560001 -2.7655149 2.051151 0
5.7030005 -2.5808828 2.2310288 0
5.6910005 -2.5846906 2.2268944 0
5.6800003 -2.5889366 2.2231045 0
5.6680002 -2.5926595 2.2189703 0
5.6570005 -2.5968249 2.2151804 0
5.6450005 -2.6004632 2.211046 0
5.6340003 -2.6045468 2.2072563 0
5.6220002 -2.6081002 2.2031219 0
5.6110005 -2.6121032 2.1993322 0
5.6000004 -2.616066 2.1955423 0
5.5880003 -2.6194932 2.1914079 0
5.5770001 -2.6233749 2.187618 0
5.5660005 -2.6272171 2.1838284 0
5.5550003 -2.6310196 2.1800387 0
5.5440001 -2.6347823 2.1762488 0
5.5330005 -2.6385055 2.1724591 0
5.5220003 -2.6421888 2.1686692 0
5.5110002 -2.6458323 2.1648793 0
5.5000005 -2.6494365 2.1610897 0
5.4890003 -2.6530008 2.1572998 0
5.4780002 -2.6565251 2.1535099 0
5.4680004 -2.6605263 2.1500647 0
5.4570003 -2.6639731 2.1462748 0
5.4460001 -2.6673806 2.1424851 0
5.4360003 -2.6712697 2.1390398 0
5.4250002 -2.6745994 2.1352501 0
5.4150004 -2.6784146 2.1318047 0
5.4040003 -2.6816669 2.128015 0
5.3940005 -2.6854081 2.1245697 0
5.3830004 -2.6885827 2.12078 0
5.3730001 -2.6922498 2.1173346 0
5.3630004 -2.6958809 2.1138892 0
5.3520002 -2.69894 2.1100996 0
5.3420005 -2.7024972 2.1066542 0
5.3320003 -2.7060182 2.103209 0
5.3220005 -2.7095032 2.0997636 0
5.3120003 -2.7129521 2.0963185 0
5.3020005 -2.7163651 2.0928733 0
5.2920003 -2.7197416 2.0894277 0
5.2820005 -2.7230825 2.0859828 0
5.2720003 -2.726387 2.0825374 0
5.2620006 -2.7296555 2.0790923 0
5.2520003 -2.7328877 2.0756469 0
5.2420001 -2.7360842 2.0722015 0
5.2320004 -2.7392445 2.0687563 0
5.2230005 -2.7429278 2.0656555 0
5.2130003 -2.7460177 2.0622101 0
5.2030005 -2.7490716 2.0587652 0
5.1940002 -2.7526541 2.0556643 0
5.1840005 -2.7556376 2.0522189 0
5.1750002 -2.7591529 2.049118 0
5.1650004 -2.7620664 2.0456729 0
5.1560001 -2.7655149 2.042572 0
5.7030005 -2.5808828 2.221463 0
5.6910005 -2.5846906 2.2173502 0
5.6800003 -2.5889366 2.2135804 0
5.6680002 -2.5926595 2.2094676 0
5.6570005 -2.5968249 2.2056978 0
5.6450005 -2.6004632 2.2015851 0
5.6340003 -2.6045468 2.1978152 0
5.6220002 -2.6081002 2.1937025 0
5.6110005 -2.6121032 2.1899326 0
5.6000004 -2.616066 2.1861625 0
5.5880003 -2.6194932 2.1820498 0
5.5770001 -2.6233749 2.1782799 0
5.5660005 -2.6272171 2.17451 0
5.5550003 -2.6310196 2.1707399 0
5.5440001 -2.6347823 2.1669698 0
5.5330005 -2.6385055 2.1632001 0
5.5220003 -2.6421888 2.15943 0
5.5110002 -2.6458323 2.1556602 0
5.5000005 -2.6494365 2.1518903 0
5.4890003 -2.6530008 2.1481202 0
5.4780002 -2.6565251 2.1443503 0
5.4680004 -2.6605263 2.140923 0
5.4570003 -2.6639731 2.1371529 0
5.4460001 -2.6673806 2.133383 0
5.4360003 -2.6712697 2.1299558 0
5.4250002 -2.6745994 2.1261859 0
5.4150004 -2.6784146 2.1227586 0
5.4040003 -2.6816669 2.1189888 0
5.3940005 -2.6854081 2.1155615 0
5.3830004 -2.6885827 2.1117916 0
5.3730001 -2.6922498 2.1083641 0
5.3630004 -2.6958809 2.1049371 0
5.3520002 -2.69894 2.101167 0
5.3420005 -2.7024972 2.0977399 0
5.3320003 -2.7060182 2.0943127 0
5.3220005 -2.7095032 2.0908854 0
5.3120003 -2.7129521 2.0874581 0
5.3020005 -2.7163651 2.0840309 0
5.2920003 -2.7197416 2.0806036 0
5.2820005 -2.7230825 2.0771766 0
5.2720003 -2.726387 2.0737493 0
5.2620006 -2.7296555 2.070322 0
5.2520003 -2.7328877 2.0668948 0
5.2420001 -2.7360842 2.0634673 0
5.2320004 -2.7392445 2.0600402 0
5.2230005 -2.7429278 2.0569558 0
5.2130003 -2.7460177 2.0535285 0
5.2030005 -2.7490716 2.0501013 0
5.1940002 -2.7526541 2.0470169 0
5.1840005 -2.7556376 2.0435896 0
5.1750002 -2.7591529 2.0405049 0
5.1650004 -2.7620664 2.0370777 0
5.1560001 -2.7655149 2.0339932 0
5.7030005 -2.5808828 2.2118976 0
5.6910005 -2.5846906 2.2078066 0
5.6800003 -2.5889366 2.2040563 0
5.6680002 -2.5926595 2.1999652 0
5.6570005 -2.5968249 2.1962152 0
5.6450005 -2.6004632 2.1921241 0
5.6340003 -2.6045468 2.188374 0
5.6220002 -2.6081002 2.1842828 0
5.6110005 -2.6121032 2.1805329 0
5.6000004 -2.616066 2.1767826 0
5.5880003 -2.6194932 2.1726916 0
5.5770001 -2.6233749 2.1689415 0
5.5660005 -2.6272171 2.1651914 0
5.5550003 -2.6310196 2.1614413 0
5.5440001 -2.6347823 2.1576912 0
5.5330005 -2.6385055 2.1539412 0
5.5220003 -2.6421888 2.1501911 0
5.5110002 -2.6458323 2.1464407 0
5.5000005 -2.6494365 2.1426909 0
5.4890003 -2.6530008 2.1389406 0
5.4780002 -2.6565251 2.1351905 0
5.4680004 -2.6605263 2.1317813 0
5.4570003 -2.6639731 2.128031 0
5.4460001 -2.6673806 2.1242809 0
5.4360003 -2.6712697 2.120872 0
5.4250002 -2.6745994 2.1171217 0
5.4150004 -2.6784146 2.1137125 0
5.4040003 -2.6816669 2.1099625 0
5.3940005 -2.6854081 2.1065533 0
5.3830004 -2.6885827 2.1028032 0
5.3730001 -2.6922498 2.0993938 0
5.3630004 -2.6958809 2.0959847 0
5.3520002 -2.69894 2.0922346 0
5.3420005 -2.7024972 2.0888255 0
5.3320003 -2.7060182 2.0854161 0
5.3220005 -2.7095032 2.0820069 0
5.3120003 -2.7129521 2.0785978 0
5.3020005 -2.7163651 2.0751886 0
5.2920003 -2.7197416 2.0717795 0
5.2820005 -2.7230825 2.0683703 0
5.2720003 -2.726387 2.064961 0
5.2620006 -2.7296555 2.0615518 0
5.2520003 -2.7328877 2.0581427 0
5.2420001 -2.7360842 2.0547333 0
5.2320004 -2.7392445 2.0513244 0
5.2230005 -2.7429278 2.0482559 0
5.2130003 -2.7460177 2.0448468 0
5.2030005 -2.7490716 2.0414376 0
5.1940002 -2.7526541 2.0383692 0
5.1840005 -2.7556376 2.0349603 0
5.1750002 -2.7591529 2.0318918 0
5.1650004 -2.7620664 2.0284827 0
5.1560001 -2.7655149 2.0254142 0
5.7030005 -2.5808828 2.202332 0
5.6910005 -2.5846906 2.1982625 0
5.6800003 -2.5889366 2.1945322 0
5.6680002 -2.5926595 2.1904628 0
5.6570005 -2.5968249 2.1867325 0
5.6450005 -2.6004632 2.1826632 0
5.6340003 -2.6045468 2.1789329 0
5.6220002 -2.6081002 2.1748633 0
5.6110005 -2.6121032 2.1711333 0
5.6000004 -2.616066 2.167403 0
5.5880003 -2.6194932 2.1633337 0
5.5770001 -2.6233749 2.1596031 0
5.5660005 -2.6272171 2.1558731 0
5.5550003 -2.6310196 2.1521425 0
5.5440001 -2.6347823 2.1484125 0
5.5330005 -2.6385055 2.1446822 0
5.5220003 -2.6421888 2.1409519 0
5.5110002 -2.6458323 2.1372216 0
5.5000005 -2.6494365 2.1334913 0
5.4890003 -2.6530008 2.129761 0
5.4780002 -2.6565251 2.1260307 0
5.4680004 -2.6605263 2.1226397 0
5.4570003 -2.6639731 2.1189094 0
5.4460001 -2.6673806 2.1151791 0
5.4360003 -2.6712697 2.111788 0
5.4250002 -2.6745994 2.1080575 0
5.4150004 -2.6784146 2.1046665 0
5.4040003 -2.6816669 2.1009362 0
5.3940005 -2.6854081 2.0975451 0
5.3830004 -2.6885827 2.0938148 0
5.3730001 -2.6922498 2.0904236 0
5.3630004 -2.6958809 2.0870326 0
5.3520002 -2.69894 2.083302 0
5.3420005 -2.7024972 2.079911 0
5.3320003 -2.7060182 2.0765197 0
5.3220005 -2.7095032 2.0731287 0
5.3120003 -2.7129521 2.0697374 0
5.3020005 -2.7163651 2.0663464 0
5.2920003 -2.7197416 2.0629551 0
5.2820005 -2.7230825 2.0595641 0
5.2720003 -2.726387 2.0561728 0
5.2620006 -2.7296555 2.0527818 0
5.2520003 -2.7328877 2.0493906 0
5.2420001 -2.7360842 2.0459993 0
5.2320004 -2.7392445 2.0426083 0
5.2230005 -2.7429278 2.0395563 0
5.2130003 -2.7460177 2.036165 0
5.2030005 -2.7490716 2.032774 0
5.1940002 -2.7526541 2.0297217 0
5.1840005 -2.7556376 2.0263307 0
5.1750002 -2.7591529 2.0232785 0
5.1650004 -2.7620664 2.0198874 0
5.1560001 -2.7655149 2.0168355 0
5.7030005 -2.5808828 2.1927662 0
5.6910005 -2.5846906 2.1887186 0
5.6800003 -2.5889366 2.185008 0
5.6680002 -2.5926595 2.1809604 0
5.6570005 -2.5968249 2.1772499 0
5.6450005 -2.6004632 2.1732023 0
5.6340003 -2.6045468 2.1694918 0
5.6220002 -2.6081002 2.1654439 0
5.6110005 -2.6121032 2.1617336 0
5.6000004 -2.616066 2.1580231 0
5.5880003 -2.6194932 2.1539755 0
5.5770001 -2.6233749 2.1502647 0
5.5660005 -2.6272171 2.1465545 0
5.5550003 -2.6310196 2.142844 0
5.5440001 -2.6347823 2.1391337 0
5.5330005 -2.6385055 2.1354232 0
5.5220003 -2.6421888 2.1317127 0
5.5110002 -2.6458323 2.1280022 0
5.5000005 -2.6494365 2.1242919 0
5.4890003 -2.6530008 2.1205814 0
5.4780002 -2.6565251 2.1168709 0
5.4680004 -2.6605263 2.113498 0
5.4570003 -2.6639731 2.1097875 0
5.4460001 -2.6673806 2.106077 0
5.4360003 -2.6712697 2.102704 0
5.4250002 -2.6745994 2.0989933 0
5.4150004 -2.6784146 2.0956204 0
5.4040003 -2.6816669 2.0919099 0
5.3940005 -2.6854081 2.0885367 0
5.3830004 -2.6885827 2.0848265 0
5.3730001 -2.6922498 2.0814531 0
5.3630004 -2.6958809 2.0780802 0
5.3520002 -2.69894 2.0743697 0
5.3420005 -2.7024972 2.0709965 0
5.3320003 -2.7060182 2.0676234 0
5.3220005 -2.7095032 2.0642505 0
5.3120003 -2.7129521 2.0608771 0
5.3020005 -2.7163651 2.0575042 0
5.2920003 -2.7197416 2.054131 0
5.2820005 -2.7230825 2.0507579 0
5.2720003 -2.726387 2.0473847 0
5.2620006 -2.7296555 2.0440116 0
5.2520003 -2.7328877 2.0406384 0
5.2420001 -2.7360842 2.0372653 0
5.2320004 -2.7392445 2.0338922 0
5.2230005 -2.7429278 2.0308564 0
5.2130003 -2.7460177 2.0274835 0
5.2030005 -2.7490716 2.0241103 0
5.1940002 -2.7526541 2.0210743 0
5.1840005 -2.7556376 2.0177014 0
5.1750002 -2.7591529 2.0146654 0
5.1650004 -2.7620664 2.0112925 0
5.1560001 -2.7655149 2.0082564 0
5.7030005 -2.5808828 2.1832008 0
5.6910005 -2.5846906 2.1791747 0
5.6800003 -2.5889366 2.1754839 0
5.6680002 -2.5926595 2.1714578 0
5.6570005 -2.5968249 2.1677673 0
5.6450005 -2.6004632 2.1637411 0
5.6340003 -2.6045468 2.1600506 0
5.6220002 -2.6081002 2.1560245 0
5.6110005 -2.6121032 2.152334 0
5.6000004 -2.616066 2.1486433 0
5.5880003 -2.6194932 2.1446171 0
5.5770001 -2.6233749 2.1409266 0
5.5660005 -2.6272171 2.1372361 0
5.5550003 -2.6310196 2.1335454 0
5.5440001 -2.6347823 2.1298547 0
5.5330005 -2.6385055 2.1261644 0
5.5220003 -2.6421888 2.1224737 0
5.5110002 -2.6458323 2.118783 0
5.5000005 -2.6494365 2.1150925 0
5.4890003 -2.6530008 2.1114018 0
5.4780002 -2.6565251 2.1077113 0
5.4680004 -2.6605263 2.1043563 0
5.4570003 -2.6639731 2.1006656 0
5.4460001 -2.6673806 2.0969751 0
5.4360003 -2.6712697 2.0936198 0
5.4250002 -2.6745994 2.0899293 0
5.4150004 -2.6784146 2.0865743 0
5.4040003 -2.6816669 2.0828836 0
5.3940005 -2.6854081 2.0795286 0
5.3830004 -2.6885827 2.0758381 0
5.3730001 -2.6922498 2.0724828 0
5.3630004 -2.6958809 2.0691278 0
5.3520002 -2.69894 2.0654373 0
5.3420005 -2.7024972 2.0620823 0
5.3320003 -2.7060182 2.058727 0
5.3220005 -2.7095032 2.055372 0
5.3120003 -2.7129521 2.052017 0
5.3020005 -2.7163651 2.0486619 0
5.2920003 -2.7197416 2.0453067 0
5.2820005 -2.7230825 2.0419517 0
5.2720003 -2.726387 2.0385966 0
5.2620006 -2.7296555 2.0352416 0
5.2520003 -2.7328877 2.0318863 0
5.2420001 -2.7360842 2.0285313 0
5.2320004 -2.7392445 2.0251763 0
5.2230005 -2.7429278 2.0221567 0
5.2130003 -2.7460177 2.0188015 0
5.2030005 -2.7490716 2.0154467 0
5.1940002 -2.7526541 2.0124269 0
5.1840005 -2.7556376 2.0090718 0
5.1750002 -2.7591529 2.0060523 0
5.1650004 -2.7620664 2.0026972 0
5.1560001 -2.7655149 1.9996777 0
5.7030005 -2.5808828 2.173635 0
5.6910005 -2.5846906 2.1696308 0
5.6800003 -2.5889366 2.1659598 0
5.6680002 -2.5926595 2.1619554 0
5.6570005 -2.5968249 2.1582847 0
5.6450005 -2.6004632 2.1542802 0
5.6340003 -2.6045468 2.1506095 0
5.6220002 -2.6081002 2.146605 0
5.6110005 -2.6121032 2.1429343 0
5.6000004 -2.616066 2.1392636 0
5.5880003 -2.6194932 2.1352589 0
5.5770001 -2.6233749 2.1315882 0
5.5660005 -2.6272171 2.1279175 0
5.5550003 -2.6310196 2.1242468 0
5.5440001 -2.6347823 2.1205759 0
5.5330005 -2.6385055 2.1169052 0
5.5220003 -2.6421888 2.1132345 0
5.5110002 -2.6458323 2.1095638 0
5.5000005 -2.6494365 2.1058931 0
5.4890003 -2.6530008 2.1022222 0
5.4780002 -2.6565251 2.0985515 0
5.4680004 -2.6605263 2.0952146 0
5.4570003 -2.6639731 2.0915437 0
5.4460001 -2.6673806 2.087873 0
5.4360003 -2.6712697 2.0845358 0
5.4250002 -2.6745994 2.0808651 0
5.4150004 -2.6784146 2.0775282 0
5.4040003 -2.6816669 2.0738575 0
5.3940005 -2.6854081 2.0705204 0
5.3830004 -2.6885827 2.0668497 0
5.3730001 -2.6922498 2.0635126 0
5.3630004 -2.6958809 2.0601754 0
5.3520002 -2.69894 2.0565047 0
5.3420005 -2.7024972 2.0531678 0
5.3320003 -2.7060182 2.0498307 0
5.3220005 -2.7095032 2.0464938 0
5.3120003 -2.7129521 2.0431566 0
5.3020005 -2.7163651 2.0398195 0
5.2920003 -2.7197416 2.0364826 0
5.2820005 -2.7230825 2.0331457 0
5.2720003 -2.726387 2.0298085 0
5.2620006 -2.7296555 2.0264714 0
5.2520003 -2.7328877 2.0231345 0
5.2420001 -2.7360842 2.0197973 0
5.2320004 -2.7392445 2.0164602 0
5.2230005 -2.7429278 2.0134571 0
5.2130003 -2.7460177 2.0101199 0
5.2030005 -2.7490716 2.0067828 0
5.1940002 -2.7526541 2.0037794 0
5.1840005 -2.7556376 2.0004425 0
5.1750002 -2.7591529 1.997439 0
5.1650004 -2.7620664 1.9941021 0
5.1560001 -2.7655149 1.9910986 0
5.7030005 -2.5808828 2.1640694 0
5.6910005 -2.5846906 2.1600866 0
5.6800003 -2.5889366 2.1564357 0
5.6680002 -2.5926595 2.1524529 0
5.6570005 -2.5968249 2.148802 0
5.6450005 -2.6004632 2.1448193 0
5.6340003 -2.6045468 2.1411684 0
5.6220002 -2.6081002 2.1371856 0
5.6110005 -2.6121032 2.1335347 0
5.6000004 -2.616066 2.1298838 0
5.5880003 -2.6194932 2.125901 0
5.5770001 -2.6233749 2.1222498 0
5.5660005 -2.6272171 2.1185992 0
5.5550003 -2.6310196 2.114948 0
5.5440001 -2.6347823 2.1112971 0
5.5330005 -2.6385055 2.1076465 0
5.5220003 -2.6421888 2.1039956 0
5.5110002 -2.6458323 2.1003444 0
5.5000005 -2.6494365 2.0966938 0
5.4890003 -2.6530008 2.0930426 0
5.4780002 -2.6565251 2.0893917 0
5.4680004 -2.6605263 2.0860729 0
5.4570003 -2.6639731 2.0824218 0
5.4460001 -2.6673806 2.0787709 0
5.4360003 -2.6712697 2.0754519 0
5.4250002 -2.6745994 2.0718009 0
5.4150004 -2.6784146 2.0684822 0
5.4040003 -2.6816669 2.064831 0
5.3940005 -2.6854081 2.0615122 0
5.3830004 -2.6885827 2.0578613 0
5.3730001 -2.6922498 2.0545421 0
5.3630004 -2.6958809 2.0512233 0
5.3520002 -2.69894 2.0475724 0
5.3420005 -2.7024972 2.0442533 0
5.3320003 -2.7060182 2.0409343 0
5.3220005 -2.7095032 2.0376153 0
5.3120003 -2.7129521 2.0342963 0
5.3020005 -2.7163651 2.0309772 0
5.2920003 -2.7197416 2.0276582 0
5.2820005 -2.7230825 2.0243394 0
5.2720003 -2.726387 2.0210204 0
5.2620006 -2.7296555 2.0177014 0
5.2520003 -2.7328877 2.0143824 0
5.2420001 -2.7360842 2.0110631 0
5.2320004 -2.7392445 2.0077443 0
5.2230005 -2.7429278 2.0047572 0
5.2130003 -2.7460177 2.0014381 0
5.2030005 -2.7490716 1.9981192 0
5.1940002 -2.7526541 1.995132 0
5.1840005 -2.7556376 1.9918132 0
5.1750002 -2.7591529 1.9888259 0
5.1650004 -2.7620664 1.985507 0
5.1560001 -2.7655149 1.9825197 0
5.7030005 -2.5808828 2.1545041 0
5.6910005 -2.5846906 2.1505427 0
5.6800003 -2.5889366 2.1469116 0
5.6680002 -2.5926595 2.1429505 0
5.6570005 -2.5968249 2.1393194 0
5.6450005 -2.6004632 2.1353583 0
5.6340003 -2.6045468 2.1317272 0
5.6220002 -2.6081002 2.1277661 0
5.6110005 -2.6121032 2.124135 0
5.6000004 -2.616066 2.1205039 0
5.5880003 -2.6194932 2.1165428 0
5.5770001 -2.6233749 2.1129115 0
5.5660005 -2.6272171 2.1092806 0
5.5550003 -2.6310196 2.1056495 0
5.5440001 -2.6347823 2.1020184 0
5.5330005 -2.6385055 2.0983875 0
5.5220003 -2.6421888 2.0947564 0
5.5110002 -2.6458323 2.0911252 0
5.5000005 -2.6494365 2.0874941 0
5.4890003 -2.6530008 2.0838633 0
5.4780002 -2.6565251 2.0802319 0
5.4680004 -2.6605263 2.076931 0
5.4570003 -2.6639731 2.0733001 0
5.4460001 -2.6673806 2.069669 0
5.4360003 -2.6712697 2.0663681 0
5.4250002 -2.6745994 2.062737 0
5.4150004 -2.6784146 2.0594361 0
5.4040003 -2.6816669 2.055805 0
5.3940005 -2.6854081 2.0525041 0
5.3830004 -2.6885827 2.0488729 0
5.3730001 -2.6922498 2.0455718 0
5.3630004 -2.6958809 2.0422709 0
5.3520002 -2.69894 2.0386398 0
5.3420005 -2.7024972 2.0353389 0
5.3320003 -2.7060182 2.032038 0
5.3220005 -2.7095032 2.0287371 0
5.3120003 -2.7129521 2.0254359 0
5.3020005 -2.7163651 2.022135 0
5.2920003 -2.7197416 2.0188341 0
5.2820005 -2.7230825 2.0155332 0
5.2720003 -2.726387 2.0122321 0
5.2620006 -2.7296555 2.0089312 0
5.2520003 -2.7328877 2.00563 0
5.2420001 -2.7360842 2.0023291 0
5.2320004 -2.7392445 1.9990283 0
5.2230005 -2.7429278 1.9960575 0
5.2130003 -2.7460177 1.9927565 0
5.2030005 -2.7490716 1.9894556 0
5.1940002 -2.7526541 1.9864845 0
5.1840005 -2.7556376 1.9831836 0
5.1750002 -2.7591529 1.9802127 0
5.1650004 -2.7620664 1.9769118 0
5.1560001 -2.7655149 1.9739408 0
5.7030005 -2.5808828 2.1449382 0
5.6910005 -2.5846906 2.1409988 0
5.6800003 -2.5889366 2.1373875 0
5.6680002 -2.5926595 2.1334479 0
5.6570005 -2.5968249 2.1298368 0
5.6450005 -2.6004632 2.1258974 0
5.6340003 -2.6045468 2.1222861 0
5.6220002 -2.6081002 2.1183465 0
5.6110005 -2.6121032 2.1147354 0
5.6000004 -2.616066 2.111124 0
5.5880003 -2.6194932 2.1071846 0
5.5770001 -2.6233749 2.1035733 0
5.5660005 -2.6272171 2.099962 0
5.5550003 -2.6310196 2.0963509 0
5.5440001 -2.6347823 2.0927396 0
5.5330005 -2.6385055 2.0891285 0
5.5220003 -2.6421888 2.0855172 0
5.5110002 -2.6458323 2.0819061 0
5.5000005 -2.6494365 2.0782948 0
5.4890003 -2.6530008 2.0746837 0
5.4780002 -2.6565251 2.0710723 0
5.4680004 -2.6605263 2.0677893 0
5.4570003 -2.6639731 2.0641782 0
5.4460001 -2.6673806 2.0605669 0
5.4360003 -2.6712697 2.0572841 0
5.4250002 -2.6745994 2.0536728 0
5.4150004 -2.6784146 2.0503898 0
5.4040003 -2.6816669 2.0467787 0
5.3940005 -2.6854081 2.0434959 0
5.3830004 -2.6885827 2.0398846 0
5.3730001 -2.6922498 2.0366015 0
5.3630004 -2.6958809 2.0333188 0
5.3520002 -2.69894 2.0297074 0
5.3420005 -2.7024972 2.0264246 0
5.3320003 -2.7060182 2.0231416 0
5.3220005 -2.7095032 2.0198586 0
5.3120003 -2.7129521 2.0165756 0
5.3020005 -2.7163651 2.0132928 0
5.2920003 -2.7197416 2.0100098 0
5.2820005 -2.7230825 2.006727 0
5.2720003 -2.726387 2.003444 0
5.2620006 -2.7296555 2.0001612 0
5.2520003 -2.7328877 1.9968781 0
5.2420001 -2.7360842 1.9935952 0
5.2320004 -2.7392445 1.9903123 0
5.2230005 -2.7429278 1.9873577 0
5.2130003 -2.7460177 1.9840747 0
5.2030005 -2.7490716 1.9807918 0
5.1940002 -2.7526541 1.9778372 0
5.1840005 -2.7556376 1.9745543 0
5.1750002 -2.7591529 1.9715995 0
5.1650004 -2.7620664 1.9683167 0
5.1560001 -2.7655149 1.965362 0
5.7030005 -2.5808828 2.1353726 0
5.6910005 -2.5846906 2.1314549 0
5.6800003 -2.5889366 2.1278634 0
5.6680002 -2.5926595 2.1239455 0
5.6570005 -2.5968249 2.1203542 0
5.6450005 -2.6004632 2.1164365 0
5.6340003 -2.6045468 2.1128449 0
5.6220002 -2.6081002 2.108927 0
5.6110005 -2.6121032 2.1053357 0
5.6000004 -2.616066 2.1017444 0
5.5880003 -2.6194932 2.0978265 0
5.5770001 -2.6233749 2.0942349 0
5.5660005 -2.6272171 2.0906436 0
5.5550003 -2.6310196 2.0870523 0
5.5440001 -2.6347823 2.0834608 0
5.5330005 -2.6385055 2.0798695 0
5.5220003 -2.6421888 2.0762782 0
5.5110002 -2.6458323 2.0726867 0
5.5000005 -2.6494365 2.0690954 0
5.4890003 -2.6530008 2.0655041 0
5.4780002 -2.6565251 2.0619125 0
5.4680004 -2.6605263 2.0586476 0
5.4570003 -2.6639731 2.0550563 0
5.4460001 -2.6673806 2.0514648 0
5.4360003 -2.6712697 2.0482001 0
5.4250002 -2.6745994 2.0446086 0
5.4150004 -2.6784146 2.0413439 0
5.4040003 -2.6816669 2.0377524 0
5.3940005 -2.6854081 2.0344875 0
5.3830004 -2.6885827 2.0308962 0
5.3730001 -2.6922498 2.0276313 0
5.3630004 -2.6958809 2.0243664 0
5.3520002 -2.69894 2.0207748 0
5.3420005 -2.7024972 2.0175102 0
5.3320003 -2.7060182 2.014245 0
5.3220005 -2.7095032 2.0109804 0
5.3120003 -2.7129521 2.0077152 0
5.3020005 -2.7163651 2.0044506 0
5.2920003 -2.7197416 2.0011857 0
5.2820005 -2.7230825 1.9979209 0
5.2720003 -2.726387 1.9946558 0
5.2620006 -2.7296555 1.9913911 0
5.2520003 -2.7328877 1.988126 0
5.2420001 -2.7360842 1.984861 0
5.2320004 -2.7392445 1.9815964 0
5.2230005 -2.7429278 1.978658 0
5.2130003 -2.7460177 1.9753929 0
5.2030005 -2.7490716 1.9721282 0
5.1940002 -2.7526541 1.9691898 0
5.1840005 -2.7556376 1.9659249 0
5.1750002 -2.7591529 1.9629864 0
5.1650004 -2.7620664 1.9597216 0
5.1560001 -2.7655149 1.9567831 0
5.7030005 -2.5808828 2.1258073 0
5.6910005 -2.5846906 2.1219108 0
5.6800003 -2.5889366 2.1183393 0
5.6680002 -2.5926595 2.1144431 0
5.6570005 -2.5968249 2.1108716 0
5.6450005 -2.6004632 2.1069753 0
5.6340003 -2.6045468 2.1034038 0
5.6220002 -2.6081002 2.0995076 0
5.6110005 -2.6121032 2.0959361 0
5.6000004 -2.616066 2.0923645 0
5.5880003 -2.6194932 2.0884683 0
5.5770001 -2.6233749 2.0848966 0
5.5660005 -2.6272171 2.0813253 0
5.5550003 -2.6310196 2.0777535 0
5.5440001 -2.6347823 2.074182 0
5.5330005 -2.6385055 2.0706105 0
5.5220003 -2.6421888 2.067039 0
5.5110002 -2.6458323 2.0634673 0
5.5000005 -2.6494365 2.059896 0
5.4890003 -2.6530008 2.0563242 0
5.4780002 -2.6565251 2.052753 0
5.4680004 -2.6605263 2.0495059 0
5.4570003 -2.6639731 2.0459344 0
5.4460001 -2.6673806 2.0423629 0
5.4360003 -2.6712697 2.0391161 0
5.4250002 -2.6745994 2.0355444 0
5.4150004 -2.6784146 2.0322978 0
5.4040003 -2.6816669 2.0287261 0
5.3940005 -2.6854081 2.0254793 0
5.3830004 -2.6885827 2.0219078 0
5.3730001 -2.6922498 2.0186608 0
5.3630004 -2.6958809 2.015414 0
5.3520002 -2.69894 2.0118425 0
5.3420005 -2.7024972 2.0085957 0
5.3320003 -2.7060182 2.0053487 0
5.3220005 -2.7095032 2.0021019 0
5.3120003 -2.7129521 1.9988551 0
5.3020005 -2.7163651 1.9956084 0
5.2920003 -2.7197416 1.9923614 0
5.2820005 -2.7230825 1.9891146 0
5.2720003 -2.726387 1.9858676 0
5.2620006 -2.7296555 1.982621 0
5.2520003 -2.7328877 1.9793741 0
5.2420001 -2.7360842 1.976127 0
5.2320004 -2.7392445 1.9728804 0
5.2230005 -2.7429278 1.9699582 0
5.2130003 -2.7460177 1.9667113 0
5.2030005 -2.7490716 1.9634645 0
5.1940002 -2.7526541 1.9605422 0
5.1840005 -2.7556376 1.9572954 0
5.1750002 -2.7591529 1.9543731 0
5.1650004 -2.7620664 1.9511265 0
5.1560001 -2.7655149 1.9482042 0
5.7030005 -2.5808828 2.1162415 0
5.6910005 -2.5846906 2.1123669 0
5.6800003 -2.5889366 2.1088152 0
5.6680002 -2.5926595 2.1049407 0
5.6570005 -2.5968249 2.1013889 0
5.6450005 -2.6004632 2.0975144 0
5.6340003 -2.6045468 2.0939627 0
5.6220002 -2.6081002 2.0900881 0
5.6110005 -2.6121032 2.0865364 0
5.6000004 -2.616066 2.0829847 0
5.5880003 -2.6194932 2.0791101 0
5.5770001 -2.6233749 2.0755582 0
5.5660005 -2.6272171 2.0720067 0
5.5550003 -2.6310196 2.068455 0
5.5440001 -2.6347823 2.0649033 0
5.5330005 -2.6385055 2.0613518 0
5.5220003 -2.6421888 2.0577998 0
5.5110002 -2.6458323 2.0542481 0
5.5000005 -2.6494365 2.0506966 0
5.4890003 -2.6530008 2.0471449 0
5.4780002 -2.6565251 2.0435932 0
5.4680004 -2.6605263 2.0403643 0
5.4570003 -2.6639731 2.0368125 0
5.4460001 -2.6673806 2.0332608 0
5.4360003 -2.6712697 2.0300322 0
5.4250002 -2.6745994 2.0264804 0
5.4150004 -2.6784146 2.0232515 0
5.4040003 -2.6816669 2.0196998 0
5.3940005 -2.6854081 2.0164711 0
5.3830004 -2.6885827 2.0129194 0
5.3730001 -2.6922498 2.0096905 0
5.3630004 -2.6958809 2.0064619 0
5.3520002 -2.69894 2.0029099 0
5.3420005 -2.7024972 1.9996812 0
5.3320003 -2.7060182 1.9964523 0
5.3220005 -2.7095032 1.9932237 0
5.3120003 -2.7129521 1.9899949 0
5.3020005 -2.7163651 1.9867661 0
5.2920003 -2.7197416 1.9835372 0
5.2820005 -2.7230825 1.9803084 0
5.2720003 -2.726387 1.9770795 0
5.2620006 -2.7296555 1.9738508 0
5.2520003 -2.7328877 1.9706219 0
5.2420001 -2.7360842 1.967393 0
5.2320004 -2.7392445 1.9641643 0
5.2230005 -2.7429278 1.9612584 0
5.2130003 -2.7460177 1.9580295 0
5.2030005 -2.7490716 1.9548007 0
5.1940002 -2.7526541 1.9518948 0
5.1840005 -2.7556376 1.948666 0
5.1750002 -2.7591529 1.94576 0
5.1650004 -2.7620664 1.9425312 0
5.1560001 -2.7655149 1.9396253 0
5.7030005 -2.5808828 2.1066759 0
5.6910005 -2.5846906 2.102823 0
5.6800003 -2.5889366 2.0992911 0
5.6680002 -2.5926595 2.0954382 0
5.6570005 -2.5968249 2.0919063 0
5.6450005 -2.6004632 2.0880535 0
5.6340003 -2.6045468 2.0845215 0
5.6220002 -2.6081002 2.0806684 0
5.6110005 -2.6121032 2.0771368 0
5.6000004 -2.616066 2.0736048 0
5.5880003 -2.6194932 2.069752 0
5.5770001 -2.6233749 2.06622 0
5.5660005 -2.6272171 2.0626884 0
5.5550003 -2.6310196 2.0591564 0
5.5440001 -2.6347823 2.0556245 0
5.5330005 -2.6385055 2.0520928 0
5.5220003 -2.6421888 2.0485609 0
5.5110002 -2.6458323 2.0450289 0
5.5000005 -2.6494365 2.041497 0
5.4890003 -2.6530008 2.0379653 0
5.4780002 -2.6565251 2.0344334 0
5.4680004 -2.6605263 2.0312226 0
5.4570003 -2.6639731 2.0276909 0
5.4460001 -2.6673806 2.0241587 0
5.4360003 -2.6712697 2.0209482 0
5.4250002 -2.6745994 2.0174162 0
5.4150004 -2.6784146 2.0142055 0
5.4040003 -2.6816669 2.0106735 0
5.3940005 -2.6854081 2.007463 0
5.3830004 -2.6885827 2.003931 0
5.3730001 -2.6922498 2.0007203 0
5.3630004 -2.6958809 1.9975095 0
5.3520002 -2.69894 1.9939777 0
5.3420005 -2.7024972 1.9907669 0
5.3320003 -2.7060182 1.9875561 0
5.3220005 -2.7095032 1.9843454 0
5.3120003 -2.7129521 1.9811345 0
5.3020005 -2.7163651 1.9779239 0
5.2920003 -2.7197416 1.974713 0
5.2820005 -2.7230825 1.9715023 0
5.2720003 -2.726387 1.9682914 0
5.2620006 -2.7296555 1.9650807 0
5.2520003 -2.7328877 1.9618698 0
5.2420001 -2.7360842 1.9586589 0
5.2320004 -2.7392445 1.9554484 0
5.2230005 -2.7429278 1.9525586 0
5.2130003 -2.7460177 1.9493479 0
5.2030005 -2.7490716 1.9461371 0
5.1940002 -2.7526541 1.9432473 0
5.1840005 -2.7556376 1.9400365 0
5.1750002 -2.7591529 1.9371468 0
5.1650004 -2.7620664 1.9339361 0
5.1560001 -2.7655149 1.9310462 0
5.7030005 -2.5808828 2.0971105 0
5.6910005 -2.5846906 2.0932791 0
5.6800003 -2.5889366 2.089767 0
5.6680002 -2.5926595 2.0859356 0
5.6570005 -2.5968249 2.0824237 0
5.6450005 -2.6004632 2.0785925 0
5.6340003 -2.6045468 2.0750804 0
5.6220002 -2.6081002 2.071249 0
5.6110005 -2.6121032 2.0677371 0
5.6000004 -2.616066 2.064225 0
5.5880003 -2.6194932 2.0603938 0
5.5770001 -2.6233749 2.0568817 0
5.5660005 -2.6272171 2.0533698 0
5.5550003 -2.6310196 2.0498579 0
5.5440001 -2.6347823 2.0463457 0
5.5330005 -2.6385055 2.0428338 0
5.5220003 -2.6421888 2.0393217 0
5.5110002 -2.6458323 2.0358098 0
5.5000005 -2.6494365 2.0322978 0
5.4890003 -2.6530008 2.0287857 0
5.4780002 -2.6565251 2.0252736 0
5.4680004 -2.6605263 2.0220809 0
5.4570003 -2.6639731 2.018569 0
5.4460001 -2.6673806 2.0150568 0
5.4360003 -2.6712697 2.0118642 0
5.4250002 -2.6745994 2.008352 0
5.4150004 -2.6784146 2.0051594 0
5.4040003 -2.6816669 2.0016472 0
5.3940005 -2.6854081 1.9984547 0
5.3830004 -2.6885827 1.9949427 0
5.3730001 -2.6922498 1.9917499 0
5.3630004 -2.6958809 1.9885572 0
5.3520002 -2.69894 1.9850452 0
5.3420005 -2.7024972 1.9818525 0
5.3320003 -2.7060182 1.9786597 0
5.3220005 -2.7095032 1.9754671 0
5.3120003 -2.7129521 1.9722742 0
5.3020005 -2.7163651 1.9690815 0
5.2920003 -2.7197416 1.9658887 0
5.2820005 -2.7230825 1.9626961 0
5.2720003 -2.726387 1.9595033 0
5.2620006 -2.7296555 1.9563106 0
5.2520003 -2.7328877 1.9531177 0
5.2420001 -2.7360842 1.9499249 0
5.2320004 -2.7392445 1.9467323 0
5.2230005 -2.7429278 1.9438589 0
5.2130003 -2.7460177 1.9406661 0
5.2030005 -2.7490716 1.9374734 0
5.1940002 -2.7526541 1.9345999 0
5.1840005 -2.7556376 1.9314072 0
5.1750002 -2.7591529 1.9285336 0
5.1650004 -2.7620664 1.925341 0
5.1560001 -2.7655149 1.9224674 0
5.7030005 -2.5808828 2.0875447 0
5.6910005 -2.5846906 2.083735 0
5.6800003 -2.5889366 2.0802429 0
5.6680002 -2.5926595 2.0764332 0
5.6570005 -2.5968249 2.0729411 0
5.6450005 -2.6004632 2.0691314 0
5.6340003 -2.6045468 2.0656393 0
5.6220002 -2.6081002 2.0618296 0
5.6110005 -2.6121032 2.0583375 0
5.6000004 -2.616066 2.0548453 0
5.5880003 -2.6194932 2.0510356 0
5.5770001 -2.6233749 2.0475433 0
5.5660005 -2.6272171 2.0440514 0
5.5550003 -2.6310196 2.0405591 0
5.5440001 -2.6347823 2.0370669 0
5.5330005 -2.6385055 2.0335748 0
5.5220003 -2.6421888 2.0300827 0
5.5110002 -2.6458323 2.0265903 0
5.5000005 -2.6494365 2.0230985 0
5.4890003 -2.6530008 2.0196061 0
5.4780002 -2.6565251 2.016114 0
5.4680004 -2.6605263 2.0129392 0
5.4570003 -2.6639731 2.0094471 0
5.4460001 -2.6673806 2.0059547 0
5.4360003 -2.6712697 2.0027802 0
5.4250002 -2.6745994 1.999288 0
5.4150004 -2.6784146 1.9961134 0
5.4040003 -2.6816669 1.9926212 0
5.3940005 -2.6854081 1.9894465 0
5.3830004 -2.6885827 1.9859543 0
5.3730001 -2.6922498 1.9827795 0
5.3630004 -2.6958809 1.9796048 0
5.3520002 -2.69894 1.9761126 0
5.3420005 -2.7024972 1.9729381 0
5.3320003 -2.7060182 1.9697633 0
5.3220005 -2.7095032 1.9665887 0
5.3120003 -2.7129521 1.9634138 0
5.3020005 -2.7163651 1.9602393 0
5.2920003 -2.7197416 1.9570645 0
5.2820005 -2.7230825 1.9538898 0
5.2720003 -2.726387 1.9507151 0
5.2620006 -2.7296555 1.9475405 0
5.2520003 -2.7328877 1.9443656 0
5.2420001 -2.7360842 1.941191 0
5.2320004 -2.7392445 1.9380163 0
5.2230005 -2.7429278 1.9351591 0
5.2130003 -2.7460177 1.9319843 0
5.2030005 -2.7490716 1.9288096 0
5.1940002 -2.7526541 1.9259524 0
5.1840005 -2.7556376 1.9227778 0
5.1750002 -2.7591529 1.9199204 0
5.1650004 -2.7620664 1.9167459 0
5.1560001 -2.7655149 1.9138886 0
5.7030005 -2.5808828 2.0779791 0
5.6910005 -2.5846906 2.0741911 0
5.6800003 -2.5889366 2.0707188 0
5.6680002 -2.5926595 2.0669308 0
5.6570005 -2.5968249 2.0634584 0
5.6450005 -2.6004632 2.0596704 0
5.6340003 -2.6045468 2.0561981 0
5.6220002 -2.6081002 2.0524101 0
5.6110005 -2.6121032 2.0489378 0
5.6000004 -2.616066 2.0454655 0
5.5880003 -2.6194932 2.0416775 0
5.5770001 -2.6233749 2.0382051 0
5.5660005 -2.6272171 2.0347328 0
5.5550003 -2.6310196 2.0312605 0
5.5440001 -2.6347823 2.0277882 0
5.5330005 -2.6385055 2.0243158 0
5.5220003 -2.6421888 2.0208435 0
5.5110002 -2.6458323 2.0173712 0
5.5000005 -2.6494365 2.0138988 0
5.4890003 -2.6530008 2.0104265 0
5.4780002 -2.6565251 2.0069542 0
5.4680004 -2.6605263 2.0037975 0
5.4570003 -2.6639731 2.0003252 0
5.4460001 -2.6673806 1.9968528 0
5.4360003 -2.6712697 1.9936962 0
5.4250002 -2.6745994 1.9902239 0
5.4150004 -2.6784146 1.9870672 0
5.4040003 -2.6816669 1.9835949 0
5.3940005 -2.6854081 1.9804384 0
5.3830004 -2.6885827 1.9769659 0
5.3730001 -2.6922498 1.9738092 0
5.3630004 -2.6958809 1.9706526 0
5.3520002 -2.69894 1.9671803 0
5.3420005 -2.7024972 1.9640237 0
5.3320003 -2.7060182 1.9608669 0
5.3220005 -2.7095032 1.9577104 0
5.3120003 -2.7129521 1.9545536 0
5.3020005 -2.7163651 1.9513971 0
5.2920003 -2.7197416 1.9482403 0
5.2820005 -2.7230825 1.9450837 0
5.2720003 -2.726387 1.941927 0
5.2620006 -2.7296555 1.9387704 0
5.2520003 -2.7328877 1.9356136 0
5.2420001 -2.7360842 1.9324569 0
5.2320004 -2.7392445 1.9293003 0
5.2230005 -2.7429278 1.9264593 0
5.2130003 -2.7460177 1.9233027 0
5.2030005 -2.7490716 1.920146 0
5.1940002 -2.7526541 1.9173049 0
5.1840005 -2.7556376 1.9141483 0
5.1750002 -2.7591529 1.9113072 0
5.1650004 -2.7620664 1.9081507 0
5.1560001 -2.7655149 1.9053096 0
5.7030005 -2.5808828 2.0684137 0
5.6910005 -2.5846906 2.0646472 0
5.6800003 -2.5889366 2.0611947 0
5.6680002 -2.5926595 2.0574284 0
5.6570005 -2.5968249 2.0539758 0
5.6450005 -2.6004632 2.0502095 0
5.6340003 -2.6045468 2.046757 0
5.6220002 -2.6081002 2.0429907 0
5.6110005 -2.6121032 2.0395381 0
5.6000004 -2.616066 2.0360856 0
5.5880003 -2.6194932 2.0323193 0
5.5770001 -2.6233749 2.0288668 0
5.5660005 -2.6272171 2.0254142 0
5.5550003 -2.6310196 2.0219619 0
5.5440001 -2.6347823 2.0185094 0
5.5330005 -2.6385055 2.0150568 0
5.5220003 -2.6421888 2.0116043 0
5.5110002 -2.6458323 2.0081518 0
5.5000005 -2.6494365 2.0046995 0
5.4890003 -2.6530008 2.0012469 0
5.4780002 -2.6565251 1.9977945 0
5.4680004 -2.6605263 1.9946558 0
5.4570003 -2.6639731 1.9912033 0
5.4460001 -2.6673806 1.9877509 0
5.4360003 -2.6712697 1.9846122 0
5.4250002 -2.6745994 1.9811598 0
5.4150004 -2.6784146 1.9780211 0
5.4040003 -2.6816669 1.9745686 0
5.3940005 -2.6854081 1.9714301 0
5.3830004 -2.6885827 1.9679775 0
5.3730001 -2.6922498 1.9648389 0
5.3630004 -2.6958809 1.9617003 0
5.3520002 -2.69894 1.9582478 0
5.3420005 -2.7024972 1.9551092 0
5.3320003 -2.7060182 1.9519706 0
5.3220005 -2.7095032 1.948832 0
5.3120003 -2.7129521 1.9456933 0
5.3020005 -2.7163651 1.9425547 0
5.2920003 -2.7197416 1.9394159 0
5.2820005 -2.7230825 1.9362775 0
5.2720003 -2.726387 1.9331387 0
5.2620006 -2.7296555 1.9300003 0
5.2520003 -2.7328877 1.9268615 0
5.2420001 -2.7360842 1.9237229 0
5.2320004 -2.7392445 1.9205843 0
5.2230005 -2.7429278 1.9177597 0
5.2130003 -2.7460177 1.9146209 0
5.2030005 -2.7490716 1.9114823 0
5.1940002 -2.7526541 1.9086574 0
5.1840005 -2.7556376 1.9055189 0
5.1750002 -2.7591529 1.9026941 0
5.1650004 -2.7620664 1.8995554 0
5.1560001 -2.7655149 1.8967307 0
5.7030005 -2.5808828 2.0588479 0
5.6910005 -2.5846906 2.0551033 0
5.6800003 -2.5889366 2.0516706 0
5.6680002 -2.5926595 2.0479257 0
5.6570005 -2.5968249 2.0444932 0
5.6450005 -2.6004632 2.0407486 0
5.6340003 -2.6045468 2.0373158 0
5.6220002 -2.6081002 2.033571 0
5.6110005 -2.6121032 2.0301385 0
5.6000004 -2.616066 2.0267057 0
5.5880003 -2.6194932 2.0229611 0
5.5770001 -2.6233749 2.0195284 0
5.5660005 -2.6272171 2.0160959 0
5.5550003 -2.6310196 2.0126634 0
5.5440001 -2.6347823 2.0092304 0
5.5330005 -2.6385055 2.0057981 0
5.5220003 -2.6421888 2.0023654 0
5.5110002 -2.6458323 1.9989326 0
5.5000005 -2.6494365 1.9955001 0
5.4890003 -2.6530008 1.9920673 0
5.4780002 -2.6565251 1.9886347 0
5.4680004 -2.6605263 1.9855142 0
5.4570003 -2.6639731 1.9820815 0
5.4460001 -2.6673806 1.9786488 0
5.4360003 -2.6712697 1.9755282 0
5.4250002 -2.6745994 1.9720956 0
5.4150004 -2.6784146 1.9689751 0
5.4040003 -2.6816669 1.9655423 0
5.3940005 -2.6854081 1.9624219 0
5.3830004 -2.6885827 1.9589891 0
5.3730001 -2.6922498 1.9558685 0
5.3630004 -2.6958809 1.9527481 0
5.3520002 -2.69894 1.9493153 0
5.3420005 -2.7024972 1.9461948 0
5.3320003 -2.7060182 1.9430741 0
5.3220005 -2.7095032 1.9399536 0
5.3120003 -2.7129521 1.9368329 0
5.3020005 -2.7163651 1.9337125 0
5.2920003 -2.7197416 1.9305918 0
5.2820005 -2.7230825 1.9274713 0
5.2720003 -2.726387 1.9243506 0
5.2620006 -2.7296555 1.9212302 0
5.2520003 -2.7328877 1.9181095 0
5.2420001 -2.7360842 1.9149889 0
5.2320004 -2.7392445 1.9118683 0
5.2230005 -2.7429278 1.9090599 0
5.2130003 -2.7460177 1.9059392 0
5.2030005 -2.7490716 1.9028187 0
5.1940002 -2.7526541 1.90001 0
5.1840005 -2.7556376 1.8968896 0
5.1750002 -2.7591529 1.8940809 0
5.1650004 -2.7620664 1.8909603 0
5.1560001 -2.7655149 1.8881518 0
5.7030005 -2.5808828 2.0492823 0
5.6910005 -2.5846906 2.0455594 0
5.6800003 -2.5889366 2.0421464 0
5.6680002 -2.5926595 2.0384233 0
5.6570005 -2.5968249 2.0350108 0
5.6450005 -2.6004632 2.0312877 0
5.6340003 -2.6045468 2.0278747 0
5.6220002 -2.6081002 2.0241516 0
5.6110005 -2.6121032 2.0207388 0
5.6000004 -2.616066 2.0173261 0
5.5880003 -2.6194932 2.013603 0
5.5770001 -2.6233749 2.0101902 0
5.5660005 -2.6272171 2.0067775 0
5.5550003 -2.6310196 2.0033646 0
5.5440001 -2.6347823 1.9999518 0
5.5330005 -2.6385055 1.996539 0
5.5220003 -2.6421888 1.9931262 0
5.5110002 -2.6458323 1.9897134 0
5.5000005 -2.6494365 1.9863007 0
5.4890003 -2.6530008 1.9828879 0
5.4780002 -2.6565251 1.979475 0
5.4680004 -2.6605263 1.9763725 0
5.4570003 -2.6639731 1.9729596 0
5.4460001 -2.6673806 1.9695468 0
5.4360003 -2.6712697 1.9664443 0
5.4250002 -2.6745994 1.9630314 0
5.4150004 -2.6784146 1.959929 0
5.4040003 -2.6816669 1.9565161 0
5.3940005 -2.6854081 1.9534136 0
5.3830004 -2.6885827 1.9500008 0
5.3730001 -2.6922498 1.9468982 0
5.3630004 -2.6958809 1.9437957 0
5.3520002 -2.69894 1.9403828 0
5.3420005 -2.7024972 1.9372803 0
5.3320003 -2.7060182 1.9341778 0
5.3220005 -2.7095032 1.9310752 0
5.3120003 -2.7129521 1.9279727 0
5.3020005 -2.7163651 1.9248701 0
5.2920003 -2.7197416 1.9217675 0
5.2820005 -2.7230825 1.9186652 0
5.2720003 -2.726387 1.9155624 0
5.2620006 -2.7296555 1.9124601 0
5.2520003 -2.7328877 1.9093574 0
5.2420001 -2.7360842 1.9062548 0
5.2320004 -2.7392445 1.9031523 0
5.2230005 -2.7429278 1.9003601 0
5.2130003 -2.7460177 1.8972574 0
5.2030005 -2.7490716 1.894155 0
5.1940002 -2.7526541 1.8913627 0
5.1840005 -2.7556376 1.8882601 0
5.1750002 -2.7591529 1.8854676 0
5.1650004 -2.7620664 1.8823652 0
5.1560001 -2.7655149 1.8795727 0
5.7030005 -2.5808828 2.0397167 0
5.6910005 -2.5846906 2.0360153 0
5.6800003 -2.5889366 2.0326223 0
5.6680002 -2.5926595 2.0289209 0
5.6570005 -2.5968249 2.025528 0
5.6450005 -2.6004632 2.0218267 0
5.6340003 -2.6045468 2.0184336 0
5.6220002 -2.6081002 2.0147321 0
5.6110005 -2.6121032 2.0113392 0
5.6000004 -2.616066 2.0079463 0
5.5880003 -2.6194932 2.0042448 0
5.5770001 -2.6233749 2.0008519 0
5.5660005 -2.6272171 1.9974589 0
5.5550003 -2.6310196 1.9940661 0
5.5440001 -2.6347823 1.9906731 0
5.5330005 -2.6385055 1.9872801 0
5.5220003 -2.6421888 1.9838872 0
5.5110002 -2.6458323 1.9804941 0
5.5000005 -2.6494365 1.9771012 0
5.4890003 -2.6530008 1.9737083 0
5.4780002 -2.6565251 1.9703152 0
5.4680004 -2.6605263 1.9672308 0
5.4570003 -2.6639731 1.9638377 0
5.4460001 -2.6673806 1.9604448 0
5.4360003 -2.6712697 1.9573604 0
5.4250002 -2.6745994 1.9539673 0
5.4150004 -2.6784146 1.9508829 0
5.4040003 -2.6816669 1.9474899 0
5.3940005 -2.6854081 1.9444054 0
5.3830004 -2.6885827 1.9410124 0
5.3730001 -2.6922498 1.9379278 0
5.3630004 -2.6958809 1.9348434 0
5.3520002 -2.69894 1.9314505 0
5.3420005 -2.7024972 1.9283661 0
5.3320003 -2.7060182 1.9252813 0
5.3220005 -2.7095032 1.9221969 0
5.3120003 -2.7129521 1.9191123 0
5.3020005 -2.7163651 1.9160279 0
5.2920003 -2.7197416 1.9129434 0
5.2820005 -2.7230825 1.9098589 0
5.2720003 -2.726387 1.9067744 0
5.2620006 -2.7296555 1.90369 0
5.2520003 -2.7328877 1.9006053 0
5.2420001 -2.7360842 1.8975207 0
5.2320004 -2.7392445 1.8944362 0
5.2230005 -2.7429278 1.8916603 0
5.2130003 -2.7460177 1.8885757 0
5.2030005 -2.7490716 1.8854913 0
5.1940002 -2.7526541 1.8827151 0
5.1840005 -2.7556376 1.8796307 0
5.1750002 -2.7591529 1.8768545 0
5.1650004 -2.7620664 1.8737701 0
5.1560001 -2.7655149 1.870994 0
5.7030005 -2.5808828 2.0301511 0
5.6910005 -2.5846906 2.0264714 0
5.6800003 -2.5889366 2.0230982 0
5.6680002 -2.5926595 2.0194185 0
5.6570005 -2.5968249 2.0160453 0
5.6450005 -2.6004632 2.0123656 0
5.6340003 -2.6045468 2.0089924 0
5.6220002 -2.6081002 2.0053127 0
5.6110005 -2.6121032 2.0019395 0
5.6000004 -2.616066 1.9985665 0
5.5880003 -2.6194932 1.9948868 0
5.5770001 -2.6233749 1.9915136 0
5.5660005 -2.6272171 1.9881406 0
5.5550003 -2.6310196 1.9847674 0
5.5440001 -2.6347823 1.9813942 0
5.5330005 -2.6385055 1.9780211 0
5.5220003 -2.6421888 1.974648 0
5.5110002 -2.6458323 1.9712749 0
5.5000005 -2.6494365 1.9679018 0
5.4890003 -2.6530008 1.9645287 0
5.4780002 -2.6565251 1.9611555 0
5.4680004 -2.6605263 1.9580891 0
5.4570003 -2.6639731 1.9547158 0
5.4460001 -2.6673806 1.9513428 0
5.4360003 -2.6712697 1.9482764 0
5.4250002 -2.6745994 1.9449031 0
5.4150004 -2.6784146 1.9418367 0
5.4040003 -2.6816669 1.9384637 0
5.3940005 -2.6854081 1.9353973 0
5.3830004 -2.6885827 1.932024 0
5.3730001 -2.6922498 1.9289576 0
5.3630004 -2.6958809 1.925891 0
5.3520002 -2.69894 1.9225179 0
5.3420005 -2.7024972 1.9194516 0
5.3320003 -2.7060182 1.9163849 0
5.3220005 -2.7095032 1.9133185 0
5.3120003 -2.7129521 1.9102521 0
5.3020005 -2.7163651 1.9071857 0
5.2920003 -2.7197416 1.9041191 0
5.2820005 -2.7230825 1.9010527 0
5.2720003 -2.726387 1.8979862 0
5.2620006 -2.7296555 1.8949198 0
5.2520003 -2.7328877 1.8918532 0
5.2420001 -2.7360842 1.8887867 0
5.2320004 -2.7392445 1.8857204 0
5.2230005 -2.7429278 1.8829606 0
5.2130003 -2.7460177 1.8798939 0
5.2030005 -2.7490716 1.8768276 0
5.1940002 -2.7526541 1.8740677 0
5.1840005 -2.7556376 1.8710012 0
5.1750002 -2.7591529 1.8682413 0
5.1650004 -2.7620664 1.8651749 0
5.1560001 -2.7655149 1.8624151 0
5.7030005 -2.5808828 2.0205855 0
5.6910005 -2.5846906 2.0169275 0
5.6800003 -2.5889366 2.0135741 0
5.6680002 -2.5926595 2.0099158 0
5.6570005 -2.5968249 2.0065629 0
5.6450005 -2.6004632 2.0029047 0
5.6340003 -2.6045468 1.9995514 0
5.6220002 -2.6081002 1.9958932 0
5.6110005 -2.6121032 1.99254 0
