# .PCD v0.7 - Point Cloud Data file format
VERSION 0.7
FIELDS x y z intensity
SIZE 4 4 4 4
TYPE F F F F
COUNT 1 1 1 1
WIDTH 1402
HEIGHT 1
VIEWPOINT 0 0 0 1 0 0 0
POINTS 1402
DATA ascii
4.6920004 -1.0989045 0.50464529 0
4.6770005 -1.1029396 0.50429356 0
4.6780005 -1.1109035 0.50431699 0
4.6790004 -1.118871 0.50434047 0
4.6810002 -1.1270944 0.50438738 0
4.6820002 -1.1350709 0.5044108 0
4.6830001 -1.1430508 0.50443423 0
4.6840005 -1.1510346 0.50445771 0
4.6850004 -1.1590219 0.50448114 0
4.6860003 -1.1670127 0.50450462 0
4.6880002 -1.1752706 0.50455153 0
4.6890001 -1.1832705 0.50457495 0
4.6900005 -1.1912739 0.50459838 0
4.6910005 -1.1992811 0.50462186 0
4.6920004 -1.2072917 0.50464529 0
4.6930003 -1.215306 0.50466877 0
4.6950002 -1.2235981 0.50471562 0
4.6960001 -1.2316215 0.50473911 0
4.6970005 -1.2396485 0.50476253 0
4.6980004 -1.2476791 0.50478601 0
4.6990004 -1.2557132 0.50480944 0
4.7000003 -1.2637509 0.50483286 0
4.7020001 -1.2720773 0.50487977 0
4.7030001 -1.2801241 0.50490326 0
4.7040005 -1.2881746 0.50492668 0
4.7050004 -1.2962285 0.50495017 0
4.7060003 -1.3042861 0.50497359 0
4.7070003 -1.3123473 0.50499701 0
4.7090001 -1.3207079 0.50504392 0
4.7100005 -1.3287783 0.50506741 0
4.7110004 -1.3368521 0.50509083 0
4.7120004 -1.3449296 0.50511432 0
4.7130003 -1.3530107 0.50513774 0
4.7170005 -1.3620099 0.50523156 0
4.7230005 -1.3716369 0.50537223 0
4.6240001 -0.83078641 0.49543142 0
4.6090002 -0.83559179 0.49510676 0
4.6100001 -0.84337342 0.49512839 0
4.6110001 -0.85115862 0.49515003 0
4.6120005 -0.85894758 0.4951717 0
4.6130004 -0.86673999 0.49519336 0
4.7070003 -0.97051126 0.49722803 0
4.6910005 -0.97481698 0.49688172 0
4.6810002 -0.98037452 0.49666524 0
4.6740003 -0.98655617 0.49651372 0
4.6690001 -0.99315625 0.49640548 0
4.6650004 -0.99996209 0.49631894 0
4.6630001 -1.0072043 0.4962756 0
4.6610003 -1.0144393 0.49623233 0
4.6610003 -1.0221254 0.49623233 0
4.6620002 -1.0300423 0.49625397 0
4.6640005 -1.0381955 0.4962973 0
4.6690001 -1.0470594 0.49640548 0
4.6770005 -1.0566504 0.49657866 0
4.7120004 -1.0960329 0.49733627 0
4.6920004 -1.0989045 0.49690336 0
4.6740003 -1.1021982 0.49651372 0
4.6750002 -1.1101567 0.49653536 0
4.6760001 -1.1181186 0.49655703 0
4.6780005 -1.1263368 0.49660033 0
4.6790004 -1.1343079 0.49662197 0
4.6800003 -1.1422825 0.4966436 0
4.6810002 -1.1502608 0.49666524 0
4.6820002 -1.1582426 0.49668691 0
4.6830001 -1.1662279 0.49670854 0
4.6840005 -1.1742171 0.49673021 0
4.6860003 -1.182475 0.49677348 0
4.6870003 -1.190473 0.49679512 0
4.6880002 -1.1984746 0.49681675 0
4.6890001 -1.2064799 0.49683842 0
4.6900005 -1.214489 0.49686006 0
4.6910005 -1.2225015 0.49688172 0
4.6930003 -1.2307936 0.496925 0
4.6940002 -1.2388151 0.49694663 0
4.6950002 -1.2468402 0.49696827 0
4.6960001 -1.254869 0.49698994 0
4.6970005 -1.2629014 0.49701157 0
4.6980004 -1.2709373 0.49703324 0
4.7000003 -1.2792636 0.49707651 0
4.7010002 -1.2873087 0.49709815 0
4.7020001 -1.2953572 0.49711981 0
4.7030001 -1.3034095 0.49714145 0
4.7040005 -1.3114654 0.49716312 0
4.7050004 -1.3195246 0.49718475 0
4.7070003 -1.3278854 0.49722803 0
4.7080002 -1.3359537 0.49724966 0
4.7090001 -1.3440259 0.49727133 0
4.7100005 -1.3521016 0.497293 0
4.7130003 -1.3607904 0.4973579 0
4.7180004 -1.3701035 0.49746615 0
4.6240001 -0.83078641 0.48781216 0
4.6090002 -0.83559179 0.48751453 0
4.6100001 -0.84337342 0.48753437 0
4.6110001 -0.85115862 0.48755419 0
4.6120005 -0.85894758 0.48757407 0
4.6130004 -0.86673999 0.48759389 0
4.7070003 -0.97051126 0.48945904 0
4.6910005 -0.97481698 0.48914158 0
4.6810002 -0.98037452 0.48894316 0
4.6740003 -0.98655617 0.48880425 0
4.6690001 -0.99315625 0.48870504 0
4.6650004 -0.99996209 0.48862568 0
4.6630001 -1.0072043 0.48858601 0
4.6610003 -1.0144393 0.48854631 0
4.6610003 -1.0221254 0.48854631 0
4.6620002 -1.0300423 0.48856616 0
4.6640005 -1.0381955 0.48860583 0
4.6690001 -1.0470594 0.48870504 0
4.6770005 -1.0566504 0.48886377 0
4.7120004 -1.0960329 0.48955825 0
4.6920004 -1.0989045 0.4891614 0
4.6730003 -1.1019512 0.4887844 0
4.6740003 -1.1099077 0.48880425 0
4.6750002 -1.1178679 0.4888241 0
4.6760001 -1.1258317 0.48884392 0
4.6770005 -1.1337993 0.48886377 0
4.6780005 -1.1417702 0.48888361 0
4.6790004 -1.1497449 0.48890346 0
4.6810002 -1.1579828 0.48894316 0
4.6820002 -1.1659665 0.48896298 0
4.6830001 -1.1739537 0.48898283 0
4.6840005 -1.1819446 0.48900267 0
4.6850004 -1.1899391 0.48902252 0
4.6860003 -1.1979371 0.48904234 0
4.6870003 -1.2059389 0.48906219 0
4.6890001 -1.2142165 0.48910189 0
4.6900005 -1.2222273 0.48912174 0
4.6910005 -1.2302417 0.48914158 0
4.6920004 -1.2382596 0.4891614 0
4.6930003 -1.246281 0.48918125 0
4.6940002 -1.2543062 0.4892011 0
4.6950002 -1.2623349 0.48922092 0
4.6970005 -1.2706524 0.48926061 0
4.6980004 -1.2786902 0.48928046 0
4.6990004 -1.2867315 0.48930031 0
4.7000003 -1.2947764 0.48932016 0
4.7010002 -1.302825 0.48933998 0
4.7020001 -1.3108772 0.48935983 0
4.7040005 -1.319229 0.48939952 0
4.7050004 -1.3272902 0.48941934 0
4.7060003 -1.3353549 0.48943919 0
4.7070003 -1.3434234 0.48945904 0
4.7080002 -1.3514954 0.48947889 0
4.7110004 -1.3601809 0.4895384 0
4.7150002 -1.3691834 0.48961776 0
4.6240001 -0.83078641 0.48019287 0
4.6090002 -0.83559179 0.47992229 0
4.6100001 -0.84337342 0.47994033 0
4.6110001 -0.85115862 0.47995839 0
4.6120005 -0.85894758 0.47997642 0
4.6130004 -0.86673999 0.47999448 0
4.7070003 -0.97051126 0.48169002 0
4.6910005 -0.97481698 0.48140144 0
4.6810002 -0.98037452 0.48122105 0
4.6740003 -0.98655617 0.48109478 0
4.6690001 -0.99315625 0.4810046 0
4.6650004 -0.99996209 0.48093244 0
4.6630001 -1.0072043 0.48089635 0
4.6610003 -1.0144393 0.48086029 0
4.6610003 -1.0221254 0.48086029 0
4.6620002 -1.0300423 0.48087832 0
4.6640005 -1.0381955 0.48091441 0
4.6690001 -1.0470594 0.4810046 0
4.6770005 -1.0566504 0.4811489 0
4.7120004 -1.0960329 0.48178023 0
4.6920004 -1.0989045 0.48141947 0
4.6720004 -1.101704 0.48105872 0
4.6730003 -1.1096588 0.48107675 0
4.6740003 -1.1176171 0.48109478 0
4.6760001 -1.1258317 0.48113084 0
4.6770005 -1.1337993 0.4811489 0
4.6780005 -1.1417702 0.48116693 0
4.6790004 -1.1497449 0.48118496 0
4.6800003 -1.1577231 0.48120302 0
4.6810002 -1.1657048 0.48122105 0
4.6820002 -1.1736903 0.48123908 0
4.6840005 -1.1819446 0.48127517 0
4.6850004 -1.1899391 0.4812932 0
4.6860003 -1.1979371 0.48131123 0
4.6870003 -1.2059389 0.48132926 0
4.6880002 -1.2139442 0.48134732 0
4.6890001 -1.221953 0.48136535 0
4.6900005 -1.2299657 0.48138338 0
4.6920004 -1.2382596 0.48141947 0
4.6930003 -1.246281 0.4814375 0
4.6940002 -1.2543062 0.48145553 0
4.6950002 -1.2623349 0.48147357 0
4.6960001 -1.2703673 0.48149163 0
4.6970005 -1.2784034 0.48150966 0
4.6980004 -1.2864429 0.48152769 0
4.7000003 -1.2947764 0.48156375 0
4.7010002 -1.302825 0.48158181 0
4.7020001 -1.3108772 0.48159984 0
4.7030001 -1.318933 0.48161787 0
4.7040005 -1.3269925 0.48163593 0
4.7050004 -1.3350556 0.48165396 0
4.7070003 -1.3434234 0.48169002 0
4.7080002 -1.3514954 0.48170808 0
4.7100005 -1.3598759 0.48174417 0
4.7150002 -1.3691834 0.48183435 0
4.6240001 -0.83078641 0.47257358 0
4.6090002 -0.83559179 0.47233006 0
4.6100001 -0.84337342 0.47234631 0
4.6110001 -0.85115862 0.47236252 0
4.6120005 -0.85894758 0.47237879 0
4.6130004 -0.86673999 0.472395 0
4.7070003 -0.97051126 0.47392103 0
4.6910005 -0.97481698 0.4736613 0
4.6810002 -0.98037452 0.47349894 0
4.6740003 -0.98655617 0.4733853 0
4.6690001 -0.99315625 0.47330412 0
4.6650004 -0.99996209 0.47323918 0
4.6630001 -1.0072043 0.47320673 0
4.6610003 -1.0144393 0.47317427 0
4.6610003 -1.0221254 0.47317427 0
4.6620002 -1.0300423 0.47319049 0
4.6640005 -1.0381955 0.47322297 0
4.6690001 -1.0470594 0.47330412 0
4.6770005 -1.0566504 0.473434 0
4.7120004 -1.0960329 0.47400221 0
4.6920004 -1.0989045 0.47367752 0
4.6730003 -1.1019512 0.47336906 0
4.6740003 -1.1099077 0.4733853 0
4.6750002 -1.1178679 0.47340155 0
4.6760001 -1.1258317 0.47341776 0
4.6770005 -1.1337993 0.473434 0
4.6790004 -1.1420264 0.47346646 0
4.6800003 -1.1500028 0.4734827 0
4.6810002 -1.1579828 0.47349894 0
4.6820002 -1.1659665 0.47351518 0
4.6830001 -1.1739537 0.47353142 0
4.6840005 -1.1819446 0.47354764 0
4.6850004 -1.1899391 0.47356388 0
4.6870003 -1.1982059 0.47359633 0
4.6880002 -1.2062094 0.47361258 0
4.6890001 -1.2142165 0.47362882 0
4.6900005 -1.2222273 0.47364506 0
4.6910005 -1.2302417 0.4736613 0
4.6920004 -1.2382596 0.47367752 0
4.6940002 -1.2465606 0.47371 0
4.6950002 -1.2545875 0.47372621 0
4.6960001 -1.2626181 0.47374246 0
4.6970005 -1.2706524 0.4737587 0
4.6980004 -1.2786902 0.47377491 0
4.6990004 -1.2867315 0.47379115 0
4.7000003 -1.2947764 0.47380739 0
4.7020001 -1.3031172 0.47383988 0
4.7030001 -1.3111712 0.47385609 0
4.7040005 -1.319229 0.47387233 0
4.7050004 -1.3272902 0.47388858 0
4.7060003 -1.3353549 0.47390479 0
4.7070003 -1.3434234 0.47392103 0
4.7080002 -1.3514954 0.47393727 0
4.7100005 -1.3598759 0.47396976 0
4.7150002 -1.3691834 0.47405091 0
4.6240001 -0.83078641 0.46495429 0
4.6090002 -0.83559179 0.46473783 0
4.6100001 -0.84337342 0.46475226 0
4.6110001 -0.85115862 0.46476671 0
4.6120005 -0.85894758 0.46478114 0
4.6130004 -0.86673999 0.46479556 0
4.7070003 -0.97051126 0.46615204 0
4.6910005 -0.97481698 0.46592113 0
4.6810002 -0.98037452 0.46577683 0
4.6740003 -0.98655617 0.46567583 0
4.6690001 -0.99315625 0.46560368 0
4.6650004 -0.99996209 0.46554595 0
4.6630001 -1.0072043 0.4655171 0
4.6610003 -1.0144393 0.46548823 0
4.6610003 -1.0221254 0.46548823 0
4.6620002 -1.0300423 0.46550265 0
4.6640005 -1.0381955 0.46553153 0
4.6690001 -1.0470594 0.46560368 0
4.6770005 -1.0566504 0.4657191 0
4.7120004 -1.0960329 0.46622419 0
4.6920004 -1.0989045 0.46593559 0
4.6750002 -1.1024454 0.46569026 0
4.6760001 -1.1104056 0.46570468 0
4.6780005 -1.1186202 0.46573356 0
4.6790004 -1.1265894 0.46574798 0
4.6800003 -1.1345623 0.46576241 0
4.6810002 -1.1425387 0.46577683 0
4.6820002 -1.1505187 0.46579126 0
4.6830001 -1.1585023 0.46580571 0
4.6840005 -1.1664896 0.46582013 0
4.6860003 -1.1747439 0.46584898 0
4.6870003 -1.1827401 0.46586341 0
4.6880002 -1.19074 0.46587786 0
4.6890001 -1.1987435 0.46589229 0
4.6900005 -1.2067506 0.46590671 0
4.6910005 -1.2147614 0.46592113 0
4.6920004 -1.2227756 0.46593559 0
4.6940002 -1.2310694 0.46596444 0
4.6950002 -1.2390928 0.46597886 0
4.6960001 -1.2471198 0.46599329 0
4.6970005 -1.2551504 0.46600774 0
4.6980004 -1.2631847 0.46602216 0
4.6990004 -1.2712224 0.46603659 0
4.7000003 -1.2792636 0.46605101 0
4.7020001 -1.2875973 0.46607989 0
4.7030001 -1.2956476 0.46609432 0
4.7040005 -1.3037018 0.46610874 0
4.7050004 -1.3117592 0.46612316 0
4.7060003 -1.3198205 0.46613759 0
4.7070003 -1.3278854 0.46615204 0
4.7070003 -1.3356544 0.46615204 0
4.7070003 -1.3434234 0.46615204 0
4.7080002 -1.3514954 0.46616647 0
4.7100005 -1.3598759 0.46619532 0
4.7150002 -1.3691834 0.46626747 0
4.6240001 -0.83078641 0.45733503 0
4.6090002 -0.83559179 0.45714563 0
4.6100001 -0.84337342 0.45715824 0
4.6110001 -0.85115862 0.45717087 0
4.6120005 -0.85894758 0.45718351 0
4.6130004 -0.86673999 0.45719612 0
4.6910005 -0.97481698 0.45818099 0
4.6810002 -0.98037452 0.45805472 0
4.6740003 -0.98655617 0.45796636 0
4.6690001 -0.99315625 0.45790321 0
4.6650004 -0.99996209 0.45785272 0
4.6630001 -1.0072043 0.45782745 0
4.6610003 -1.0144393 0.45780221 0
4.6610003 -1.0221254 0.45780221 0
4.6620002 -1.0300423 0.45781481 0
4.6640005 -1.0381955 0.45784009 0
4.6690001 -1.0470594 0.45790321 0
4.6770005 -1.0566504 0.45800424 0
4.7120004 -1.0960329 0.45844617 0
4.6920004 -1.0989045 0.45819363 0
4.6790004 -1.1034338 0.45802948 0
4.6800003 -1.1114013 0.45804211 0
4.6810002 -1.1193724 0.45805472 0
4.6830001 -1.1275995 0.45807999 0
4.6840005 -1.1355796 0.45809263 0
4.6850004 -1.1435632 0.45810524 0
4.6860003 -1.1515504 0.45811787 0
4.6870003 -1.1595412 0.45813048 0
4.6880002 -1.1675358 0.45814312 0
4.6890001 -1.1755339 0.45815575 0
4.6910005 -1.1838008 0.45818099 0
4.6920004 -1.1918079 0.45819363 0
4.6930003 -1.1998186 0.45820627 0
4.6940002 -1.2078329 0.45821887 0
4.6950002 -1.2158507 0.45823151 0
4.6960001 -1.2238723 0.45824414 0
4.6970005 -1.2318975 0.45825675 0
4.6990004 -1.240204 0.45828202 0
4.7000003 -1.2482381 0.45829463 0
4.7010002 -1.2562759 0.45830727 0
4.7020001 -1.2643173 0.4583199 0
4.7030001 -1.2723624 0.45833251 0
4.7040005 -1.280411 0.45834514 0
4.7050004 -1.2884631 0.45835778 0
4.7070003 -1.2968093 0.45838302 0
4.7080002 -1.3048705 0.45839566 0
4.7090001 -1.3129354 0.4584083 0
4.7100005 -1.3210039 0.4584209 0
4.7090001 -1.3284805 0.4584083 0
4.7070003 -1.3356544 0.45838302 0
4.7070003 -1.3434234 0.45838302 0
4.7080002 -1.3514954 0.45839566 0
4.7100005 -1.3598759 0.4584209 0
4.7150002 -1.3691834 0.45848405 0
4.6240001 -0.83078641 0.44971573 0
4.6090002 -0.83559179 0.4495534 0
4.6100001 -0.84337342 0.44956422 0
4.6110001 -0.85115862 0.44957504 0
4.6120005 -0.85894758 0.44958586 0
4.6130004 -0.86673999 0.44959667 0
4.6910005 -0.97481698 0.45044085 0
4.6810002 -0.98037452 0.45033264 0
4.6740003 -0.98655617 0.45025688 0
4.6690001 -0.99315625 0.45020276 0
4.6650004 -0.99996209 0.45015946 0
4.6630001 -1.0072043 0.45013782 0
4.6610003 -1.0144393 0.45011619 0
4.6610003 -1.0221254 0.45011619 0
4.6620002 -1.0300423 0.45012701 0
4.6640005 -1.0381955 0.45014864 0
4.6690001 -1.0470594 0.45020276 0
4.6770005 -1.0566504 0.45028934 0
4.6920004 -1.0989045 0.45045167 0
4.6850004 -1.1049167 0.45037591 0
4.6860003 -1.1128948 0.45038676 0
4.6870003 -1.1208767 0.45039755 0
4.6880002 -1.1288621 0.4504084 0
4.6890001 -1.1368512 0.45041922 0
4.6910005 -1.1451 0.45044085 0
4.6920004 -1.1530981 0.45045167 0
4.6930003 -1.1610998 0.45046252 0
4.6940002 -1.1691051 0.45047334 0
4.6950002 -1.177114 0.45048416 0
4.6960001 -1.1851265 0.45049497 0
4.6970005 -1.1931428 0.45050579 0
4.6990004 -1.2014312 0.45052743 0
4.7000003 -1.2094562 0.45053828 0
4.7010002 -1.217485 0.4505491 0
4.7020001 -1.2255174 0.45055991 0
4.7030001 -1.2335533 0.45057073 0
4.7040005 -1.241593 0.45058155 0
4.7050004 -1.2496362 0.45059237 0
4.7070003 -1.2579644 0.45061404 0
4.7080002 -1.2660165 0.45062485 0
4.7090001 -1.2740723 0.45063567 0
4.7100005 -1.2821318 0.45064649 0
4.7110004 -1.2901949 0.45065731 0
4.7120004 -1.2982614 0.45066816 0
4.7130003 -1.3063316 0.45067897 0
4.7150002 -1.3146995 0.45070061 0
4.7110004 -1.3212997 0.45065731 0
4.7090001 -1.3284805 0.45063567 0
4.7070003 -1.3356544 0.45061404 0
4.7070003 -1.3434234 0.45061404 0
4.7080002 -1.3514954 0.45062485 0
4.7100005 -1.3598759 0.45064649 0
4.7150002 -1.3691834 0.45070061 0
4.6240001 -0.83078641 0.44209644 0
4.6090002 -0.83559179 0.44196117 0
4.6100001 -0.84337342 0.44197017 0
4.6110001 -0.85115862 0.4419792 0
4.6120005 -0.85894758 0.44198823 0
4.6130004 -0.86673999 0.44199723 0
4.6810002 -0.98037452 0.44261053 0
4.6740003 -0.98655617 0.44254738 0
4.6690001 -0.99315625 0.44250229 0
4.6650004 -0.99996209 0.44246623 0
4.6630001 -1.0072043 0.4424482 0
4.6610003 -1.0144393 0.44243014 0
4.6610003 -1.0221254 0.44243014 0
4.6620002 -1.0300423 0.44243917 0
4.6640005 -1.0381955 0.4424572 0
4.6690001 -1.0470594 0.44250229 0
4.6920004 -1.0989045 0.44270974 0
4.6940002 -1.1071407 0.44272777 0
4.6950002 -1.1151352 0.4427368 0
4.6960001 -1.1231332 0.4427458 0
4.6970005 -1.1311351 0.44275483 0
4.6980004 -1.1391404 0.44276386 0
4.6990004 -1.1471491 0.44277287 0
4.7000003 -1.1551616 0.4427819 0
4.7020001 -1.1634376 0.44279993 0
4.7030001 -1.1714591 0.44280896 0
4.7040005 -1.1794842 0.44281799 0
4.7050004 -1.187513 0.44282699 0
4.7060003 -1.1955453 0.44283602 0
4.7070003 -1.2035813 0.44284502 0
4.7080002 -1.2116208 0.44285405 0
4.7100005 -1.2199365 0.44287208 0
4.7110004 -1.227985 0.44288111 0
4.7120004 -1.2360373 0.44289011 0
4.7130003 -1.2440931 0.44289914 0
4.7140002 -1.2521524 0.44290817 0
4.7150002 -1.2602154 0.44291717 0
4.7160001 -1.2682821 0.4429262 0
4.7180004 -1.2766374 0.44294423 0
4.7190003 -1.284713 0.44295326 0
4.7200003 -1.2927922 0.44296226 0
4.7210002 -1.3008751 0.44297129 0
4.7200003 -1.3083771 0.44296226 0
4.7150002 -1.3146995 0.44291717 0
4.7110004 -1.3212997 0.44288111 0
4.7090001 -1.3284805 0.44286305 0
4.7070003 -1.3356544 0.44284502 0
4.7070003 -1.3434234 0.44284502 0
4.7080002 -1.3514954 0.44285405 0
4.7100005 -1.3598759 0.44287208 0
4.7150002 -1.3691834 0.44291717 0
4.6240001 -0.83078641 0.43447715 0
4.6090002 -0.83559179 0.43436894 0
4.6100001 -0.84337342 0.43437615 0
4.6110001 -0.85115862 0.43438336 0
4.6120005 -0.85894758 0.43439057 0
4.6130004 -0.86673999 0.43439779 0
4.6740003 -0.98655617 0.43483791 0
4.6690001 -0.99315625 0.43480185 0
4.6650004 -0.99996209 0.43477297 0
4.6630001 -1.0072043 0.43475854 0
4.6610003 -1.0144393 0.43474412 0
4.6610003 -1.0221254 0.43474412 0
4.6620002 -1.0300423 0.43475133 0
4.6640005 -1.0381955 0.43476576 0
4.6690001 -1.0470594 0.43480185 0
4.7330003 -1.2730964 0.43526363 0
4.7340002 -1.2811974 0.43527085 0
4.7350001 -1.2893019 0.43527806 0
4.7350001 -1.2971213 0.43527806 0
4.7270002 -1.3026175 0.43522033 0
4.7200003 -1.3083771 0.43516982 0
4.7150002 -1.3146995 0.43513376 0
4.7110004 -1.3212997 0.43510488 0
4.7090001 -1.3284805 0.43509045 0
4.7070003 -1.3356544 0.43507603 0
4.7070003 -1.3434234 0.43507603 0
4.7080002 -1.3514954 0.43508324 0
4.7100005 -1.3598759 0.43509766 0
4.7150002 -1.3691834 0.43513376 0
4.6240001 -0.83078641 0.42685786 0
4.6090002 -0.83559179 0.42677671 0
4.6100001 -0.84337342 0.4267821 0
4.6110001 -0.85115862 0.42678753 0
4.6120005 -0.85894758 0.42679295 0
4.6130004 -0.86673999 0.42679834 0
4.6140003 -0.87453604 0.42680377 0
4.6150002 -0.88233572 0.42680916 0
4.6160002 -0.89013892 0.42681459 0
4.6180005 -0.89814794 0.4268254 0
4.6190004 -0.9059602 0.42683083 0
4.6200004 -0.91377604 0.42683622 0
4.6210003 -0.92159557 0.42684165 0
4.6220002 -0.92941868 0.42684704 0
4.6230001 -0.93724537 0.42685246 0
4.6240001 -0.94507569 0.42685786 0
4.6250005 -0.95290977 0.42686328 0
4.6270003 -0.96096367 0.4268741 0
4.6280003 -0.96880662 0.42687953 0
4.6290002 -0.97665316 0.42688492 0
4.6300001 -0.98450333 0.42689034 0
4.6310005 -0.99235719 0.42689574 0
4.6320004 -1.0002146 0.42690116 0
4.6330004 -1.0080756 0.42690659 0
4.6340003 -1.0159401 0.42691198 0
4.6360002 -1.0240391 0.4269228 0
4.6370001 -1.0319128 0.42692822 0
4.6380005 -1.0397902 0.42693365 0
4.6390004 -1.047671 0.42693904 0
4.6400003 -1.0555555 0.42694446 0
4.6410003 -1.0634434 0.42694986 0
4.6420002 -1.0713351 0.42695528 0
4.6430001 -1.0792303 0.42696068 0
4.6450005 -1.0873747 0.42697152 0
4.6460004 -1.0952789 0.42697692 0
4.6470003 -1.1031868 0.42698234 0
4.6480002 -1.1110983 0.42698774 0
4.6490002 -1.1190133 0.42699316 0
4.6500001 -1.126932 0.42699856 0
4.6510005 -1.1348544 0.42700398 0
4.6530004 -1.1430383 0.4270148 0
4.6540003 -1.1509696 0.42702022 0
4.6550002 -1.1589046 0.42702562 0
4.6560001 -1.1668431 0.42703104 0
4.6570001 -1.1747853 0.42703643 0
4.6580005 -1.1827312 0.42704186 0
4.6590004 -1.1906805 0.42704728 0
4.6610003 -1.198904 0.4270581 0
4.6620002 -1.2068624 0.42706349 0
4.7350001 -1.2971213 0.42745852 0
4.7270002 -1.3026175 0.42741525 0
4.7200003 -1.3083771 0.42737737 0
4.7150002 -1.3146995 0.42735031 0
4.7110004 -1.3212997 0.42732868 0
4.7090001 -1.3284805 0.42731786 0
4.7070003 -1.3356544 0.42730701 0
4.7070003 -1.3434234 0.42730701 0
4.7080002 -1.3514954 0.42731243 0
4.7100005 -1.3598759 0.42732325 0
4.7150002 -1.3691834 0.42735031 0
4.6240001 -0.83078641 0.4192386 0
4.6090002 -0.83559179 0.41918448 0
4.6100001 -0.84337342 0.41918808 0
4.6110001 -0.85115862 0.41919169 0
4.6120005 -0.85894758 0.41919529 0
4.6130004 -0.86673999 0.4191989 0
4.6140003 -0.87453604 0.41920251 0
4.6150002 -0.88233572 0.41920611 0
4.6160002 -0.89013892 0.41920972 0
4.6180005 -0.89814794 0.41921693 0
4.6190004 -0.9059602 0.41922054 0
4.6200004 -0.91377604 0.41922414 0
4.6210003 -0.92159557 0.41922775 0
4.6220002 -0.92941868 0.41923136 0
4.6230001 -0.93724537 0.41923499 0
4.6240001 -0.94507569 0.4192386 0
4.6250005 -0.95290977 0.4192422 0
4.6270003 -0.96096367 0.41924942 0
4.6280003 -0.96880662 0.41925302 0
4.6290002 -0.97665316 0.41925663 0
4.6300001 -0.98450333 0.41926023 0
4.6310005 -0.99235719 0.41926384 0
4.6320004 -1.0002146 0.41926745 0
4.6330004 -1.0080756 0.41927105 0
4.6340003 -1.0159401 0.41927466 0
4.6360002 -1.0240391 0.41928187 0
4.6370001 -1.0319128 0.41928548 0
4.6380005 -1.0397902 0.41928908 0
4.6390004 -1.047671 0.41929269 0
4.6400003 -1.0555555 0.41929629 0
4.6410003 -1.0634434 0.4192999 0
4.6420002 -1.0713351 0.41930354 0
4.6430001 -1.0792303 0.41930714 0
4.6450005 -1.0873747 0.41931435 0
4.6460004 -1.0952789 0.41931796 0
4.6470003 -1.1031868 0.41932157 0
4.6480002 -1.1110983 0.41932517 0
4.6490002 -1.1190133 0.41932878 0
4.6500001 -1.126932 0.41933239 0
4.6510005 -1.1348544 0.41933599 0
4.6530004 -1.1430383 0.4193432 0
4.6540003 -1.1509696 0.41934681 0
4.6550002 -1.1589046 0.41935042 0
4.6560001 -1.1668431 0.41935402 0
4.6570001 -1.1747853 0.41935763 0
4.6580005 -1.1827312 0.41936123 0
4.6590004 -1.1906805 0.41936484 0
4.6610003 -1.198904 0.41937208 0
4.6620002 -1.2068624 0.41937569 0
4.7350001 -1.2971213 0.41963902 0
4.7270002 -1.3026175 0.41961017 0
4.7200003 -1.3083771 0.41958493 0
4.7150002 -1.3146995 0.41956687 0
4.7110004 -1.3212997 0.41955245 0
4.7090001 -1.3284805 0.41954523 0
4.7070003 -1.3356544 0.41953802 0
4.7070003 -1.3434234 0.41953802 0
4.7080002 -1.3514954 0.41954163 0
4.7100005 -1.3598759 0.41954884 0
4.7150002 -1.3691834 0.41956687 0
4.6240001 -0.83078641 0.41161931 0
4.6090002 -0.83559179 0.41159225 0
4.6100001 -0.84337342 0.41159403 0
4.6110001 -0.85115862 0.41159585 0
4.6120005 -0.85894758 0.41159767 0
4.6130004 -0.86673999 0.41159946 0
4.6140003 -0.87453604 0.41160128 0
4.6150002 -0.88233572 0.41160306 0
4.6160002 -0.89013892 0.41160488 0
4.6180005 -0.89814794 0.41160849 0
4.6190004 -0.9059602 0.41161028 0
4.6200004 -0.91377604 0.41161209 0
4.6210003 -0.92159557 0.41161388 0
4.6220002 -0.92941868 0.4116157 0
4.6230001 -0.93724537 0.41161749 0
4.6240001 -0.94507569 0.41161931 0
4.6250005 -0.95290977 0.41162109 0
4.6270003 -0.96096367 0.4116247 0
4.6280003 -0.96880662 0.41162652 0
4.6290002 -0.97665316 0.41162831 0
4.6300001 -0.98450333 0.41163012 0
4.6310005 -0.99235719 0.41163194 0
4.6320004 -1.0002146 0.41163373 0
4.6330004 -1.0080756 0.41163555 0
4.6340003 -1.0159401 0.41163734 0
4.6360002 -1.0240391 0.41164094 0
4.6370001 -1.0319128 0.41164276 0
4.6380005 -1.0397902 0.41164455 0
4.6390004 -1.047671 0.41164637 0
4.6400003 -1.0555555 0.41164815 0
4.6410003 -1.0634434 0.41164997 0
4.6420002 -1.0713351 0.41165176 0
4.6430001 -1.0792303 0.41165358 0
4.6450005 -1.0873747 0.41165718 0
4.6460004 -1.0952789 0.41165897 0
4.6470003 -1.1031868 0.41166079 0
4.6480002 -1.1110983 0.41166258 0
4.6490002 -1.1190133 0.4116644 0
4.6500001 -1.126932 0.41166618 0
4.6510005 -1.1348544 0.411668 0
4.6530004 -1.1430383 0.41167161 0
4.6540003 -1.1509696 0.41167343 0
4.6550002 -1.1589046 0.41167521 0
4.6560001 -1.1668431 0.41167703 0
4.6570001 -1.1747853 0.41167882 0
4.6580005 -1.1827312 0.41168064 0
4.6590004 -1.1906805 0.41168243 0
4.6610003 -1.198904 0.41168603 0
4.6620002 -1.2068624 0.41168785 0
4.7350001 -1.2971213 0.41181952 0
4.7270002 -1.3026175 0.41180509 0
4.7200003 -1.3083771 0.41179246 0
4.7150002 -1.3146995 0.41178346 0
4.7110004 -1.3212997 0.41177624 0
4.7090001 -1.3284805 0.41177261 0
4.7070003 -1.3356544 0.411769 0
4.7070003 -1.3434234 0.411769 0
4.7080002 -1.3514954 0.41177082 0
4.7100005 -1.3598759 0.41177443 0
4.7150002 -1.3691834 0.41178346 0
4.6240001 -0.83078641 0.40400001 0
4.6090002 -0.83559179 0.40400001 0
4.6100001 -0.84337342 0.40400001 0
4.6110001 -0.85115862 0.40400001 0
4.6120005 -0.85894758 0.40400001 0
4.6130004 -0.86673999 0.40400001 0
4.6140003 -0.87453604 0.40400001 0
4.6150002 -0.88233572 0.40400001 0
4.6160002 -0.89013892 0.40400001 0
4.6180005 -0.89814794 0.40400001 0
4.6190004 -0.9059602 0.40400001 0
4.6200004 -0.91377604 0.40400001 0
4.6210003 -0.92159557 0.40400001 0
4.6220002 -0.92941868 0.40400001 0
4.6230001 -0.93724537 0.40400001 0
4.6240001 -0.94507569 0.40400001 0
4.6250005 -0.95290977 0.40400001 0
4.6270003 -0.96096367 0.40400001 0
4.6280003 -0.96880662 0.40400001 0
4.6290002 -0.97665316 0.40400001 0
4.6300001 -0.98450333 0.40400001 0
4.6310005 -0.99235719 0.40400001 0
4.6320004 -1.0002146 0.40400001 0
4.6330004 -1.0080756 0.40400001 0
4.6340003 -1.0159401 0.40400001 0
4.6360002 -1.0240391 0.40400001 0
4.6370001 -1.0319128 0.40400001 0
4.6380005 -1.0397902 0.40400001 0
4.6390004 -1.047671 0.40400001 0
4.6400003 -1.0555555 0.40400001 0
4.6410003 -1.0634434 0.40400001 0
4.6420002 -1.0713351 0.40400001 0
4.6430001 -1.0792303 0.40400001 0
4.6450005 -1.0873747 0.40400001 0
4.6460004 -1.0952789 0.40400001 0
4.6470003 -1.1031868 0.40400001 0
4.6480002 -1.1110983 0.40400001 0
4.6490002 -1.1190133 0.40400001 0
4.6500001 -1.126932 0.40400001 0
4.6510005 -1.1348544 0.40400001 0
4.6530004 -1.1430383 0.40400001 0
4.6540003 -1.1509696 0.40400001 0
4.6550002 -1.1589046 0.40400001 0
4.6560001 -1.1668431 0.40400001 0
4.6570001 -1.1747853 0.40400001 0
4.6580005 -1.1827312 0.40400001 0
4.6590004 -1.1906805 0.40400001 0
4.6610003 -1.198904 0.40400001 0
4.6620002 -1.2068624 0.40400001 0
4.7350001 -1.2971213 0.40400001 0
4.7270002 -1.3026175 0.40400001 0
4.7200003 -1.3083771 0.40400001 0
4.7150002 -1.3146995 0.40400001 0
4.7110004 -1.3212997 0.40400001 0
4.7090001 -1.3284805 0.40400001 0
4.7070003 -1.3356544 0.40400001 0
4.7070003 -1.3434234 0.40400001 0
4.7080002 -1.3514954 0.40400001 0
4.7100005 -1.3598759 0.40400001 0
4.7150002 -1.3691834 0.40400001 0
4.6240001 -0.83078641 0.39638072 0
4.6090002 -0.83559179 0.39640778 0
4.6100001 -0.84337342 0.39640599 0
4.6110001 -0.85115862 0.39640418 0
4.6120005 -0.85894758 0.39640236 0
4.6130004 -0.86673999 0.39640057 0
4.6140003 -0.87453604 0.39639875 0
4.6150002 -0.88233572 0.39639696 0
4.6160002 -0.89013892 0.39639515 0
4.6180005 -0.89814794 0.39639154 0
4.6190004 -0.9059602 0.39638975 0
4.6200004 -0.91377604 0.39638793 0
4.6210003 -0.92159557 0.39638615 0
4.6220002 -0.92941868 0.39638433 0
4.6230001 -0.93724537 0.39638254 0
4.6240001 -0.94507569 0.39638072 0
4.6250005 -0.95290977 0.39637893 0
4.6270003 -0.96096367 0.39637533 0
4.6280003 -0.96880662 0.39637351 0
4.6290002 -0.97665316 0.39637172 0
4.6300001 -0.98450333 0.3963699 0
4.6310005 -0.99235719 0.39636809 0
4.6320004 -1.0002146 0.3963663 0
4.6330004 -1.0080756 0.39636448 0
4.6340003 -1.0159401 0.39636269 0
4.6360002 -1.0240391 0.39635909 0
4.6370001 -1.0319128 0.39635727 0
4.6380005 -1.0397902 0.39635548 0
4.6390004 -1.047671 0.39635366 0
4.6400003 -1.0555555 0.39635187 0
4.6410003 -1.0634434 0.39635006 0
4.6420002 -1.0713351 0.39634827 0
4.6430001 -1.0792303 0.39634645 0
4.6450005 -1.0873747 0.39634284 0
4.6460004 -1.0952789 0.39634106 0
4.6470003 -1.1031868 0.39633924 0
4.6480002 -1.1110983 0.39633745 0
4.6490002 -1.1190133 0.39633563 0
4.6500001 -1.126932 0.39633384 0
4.6510005 -1.1348544 0.39633203 0
4.6530004 -1.1430383 0.39632842 0
4.6540003 -1.1509696 0.3963266 0
4.6550002 -1.1589046 0.39632481 0
4.6560001 -1.1668431 0.396323 0
4.6570001 -1.1747853 0.39632121 0
4.6580005 -1.1827312 0.39631939 0
4.6590004 -1.1906805 0.3963176 0
4.6610003 -1.198904 0.396314 0
4.6620002 -1.2068624 0.39631218 0
4.7350001 -1.2971213 0.39618051 0
4.7270002 -1.3026175 0.39619493 0
4.7200003 -1.3083771 0.39620757 0
4.7150002 -1.3146995 0.39621657 0
4.7110004 -1.3212997 0.39622378 0
4.7090001 -1.3284805 0.39622742 0
4.7070003 -1.3356544 0.39623103 0
4.7070003 -1.3434234 0.39623103 0
4.7080002 -1.3514954 0.39622921 0
4.7100005 -1.3598759 0.3962256 0
4.7150002 -1.3691834 0.39621657 0
4.6240001 -0.83078641 0.38876143 0
4.6090002 -0.83559179 0.38881555 0
4.6100001 -0.84337342 0.38881195 0
4.6110001 -0.85115862 0.38880834 0
4.6120005 -0.85894758 0.38880473 0
4.6130004 -0.86673999 0.38880113 0
4.6140003 -0.87453604 0.38879752 0
4.6150002 -0.88233572 0.38879392 0
4.6160002 -0.89013892 0.38879031 0
4.6180005 -0.89814794 0.3887831 0
4.6190004 -0.9059602 0.38877949 0
4.6200004 -0.91377604 0.38877589 0
4.6210003 -0.92159557 0.38877228 0
4.6220002 -0.92941868 0.38876867 0
4.6230001 -0.93724537 0.38876504 0
4.6240001 -0.94507569 0.38876143 0
4.6250005 -0.95290977 0.38875782 0
4.6270003 -0.96096367 0.38875061 0
4.6280003 -0.96880662 0.38874701 0
4.6290002 -0.97665316 0.3887434 0
4.6300001 -0.98450333 0.38873979 0
4.6310005 -0.99235719 0.38873619 0
4.6320004 -1.0002146 0.38873258 0
4.6330004 -1.0080756 0.38872898 0
4.6340003 -1.0159401 0.38872537 0
4.6360002 -1.0240391 0.38871816 0
4.6370001 -1.0319128 0.38871455 0
4.6380005 -1.0397902 0.38871095 0
4.6390004 -1.047671 0.38870734 0
4.6400003 -1.0555555 0.38870373 0
4.6410003 -1.0634434 0.38870013 0
4.6420002 -1.0713351 0.38869649 0
4.6430001 -1.0792303 0.38869289 0
4.6450005 -1.0873747 0.38868567 0
4.6460004 -1.0952789 0.38868207 0
4.6470003 -1.1031868 0.38867846 0
4.6480002 -1.1110983 0.38867486 0
4.6490002 -1.1190133 0.38867125 0
4.6500001 -1.126932 0.38866764 0
4.6510005 -1.1348544 0.38866404 0
4.6530004 -1.1430383 0.38865682 0
4.6540003 -1.1509696 0.38865322 0
4.6550002 -1.1589046 0.38864961 0
4.6560001 -1.1668431 0.38864601 0
4.6570001 -1.1747853 0.3886424 0
4.6580005 -1.1827312 0.38863879 0
4.6590004 -1.1906805 0.38863519 0
4.6610003 -1.198904 0.38862795 0
4.6620002 -1.2068624 0.38862434 0
4.9550004 -1.3113173 0.38756731 0
4.9560003 -1.3198134 0.38756371 0
4.9600005 -1.329157 0.38754928 0
4.7350001 -1.2971213 0.38836101 0
4.7270002 -1.3026175 0.38838986 0
4.7200003 -1.3083771 0.3884151 0
4.7150002 -1.3146995 0.38843316 0
4.7110004 -1.3212997 0.38844758 0
4.7090001 -1.3284805 0.38845479 0
4.7070003 -1.3356544 0.38846201 0
4.7070003 -1.3434234 0.38846201 0
4.7080002 -1.3514954 0.3884584 0
4.7100005 -1.3598759 0.38845119 0
4.7150002 -1.3691834 0.38843316 0
4.6240001 -0.83078641 0.38114217 0
4.6090002 -0.83559179 0.38122332 0
4.6100001 -0.84337342 0.38121793 0
4.6110001 -0.85115862 0.3812125 0
4.6120005 -0.85894758 0.38120708 0
4.6130004 -0.86673999 0.38120168 0
4.6350002 -0.87866491 0.38108262 0
4.6370001 -0.88670087 0.38107181 0
4.6430001 -0.89554495 0.38103935 0
4.6860003 -1.1515504 0.38080665 0
4.6810002 -1.1579828 0.38083372 0
4.6780005 -1.1649203 0.38084993 0
4.6770005 -1.1723737 0.38085535 0
4.6790004 -1.1806189 0.38084453 0
4.6830001 -1.1894051 0.3808229 0
4.9560003 -1.2951589 0.37934557 0
4.9540005 -1.3028251 0.37935638 0
4.9550004 -1.3113173 0.37935096 0
4.9560003 -1.3198134 0.37934557 0
4.9600005 -1.329157 0.37932393 0
4.9660001 -1.3390815 0.37929145 0
4.7350001 -1.2971213 0.3805415 0
4.7270002 -1.3026175 0.38058478 0
4.7200003 -1.3083771 0.38062266 0
4.7150002 -1.3146995 0.38064972 0
4.7110004 -1.3212997 0.38067135 0
4.7090001 -1.3284805 0.38068217 0
4.7070003 -1.3356544 0.38069302 0
4.7070003 -1.3434234 0.38069302 0
4.7080002 -1.3514954 0.38068759 0
4.7100005 -1.3598759 0.38067678 0
4.7150002 -1.3691834 0.38064972 0
4.6240001 -0.83078641 0.37352288 0
4.6090002 -0.83559179 0.37363109 0
4.6100001 -0.84337342 0.37362388 0
4.6110001 -0.85115862 0.37361667 0
4.6120005 -0.85894758 0.37360945 0
4.6130004 -0.86673999 0.37360224 0
4.6350002 -0.87866491 0.37344351 0
4.6370001 -0.88670087 0.37342906 0
4.6430001 -0.89554495 0.37338579 0
4.6860003 -1.1515504 0.37307552 0
4.6810002 -1.1579828 0.37311161 0
4.6780005 -1.1649203 0.37313324 0
4.6770005 -1.1723737 0.37314045 0
4.6790004 -1.1806189 0.37312603 0
4.6830001 -1.1894051 0.37309718 0
4.9580002 -1.2874854 0.37111297 0
4.9560003 -1.2951589 0.37112743 0
4.9540005 -1.3028251 0.37114185 0
4.9550004 -1.3113173 0.37113464 0
4.9560003 -1.3198134 0.37112743 0
4.9600005 -1.329157 0.37109855 0
4.9660001 -1.3390815 0.37105528 0
4.7350001 -1.2971213 0.37272197 0
4.7270002 -1.3026175 0.3727797 0
4.7200003 -1.3083771 0.37283021 0
4.7150002 -1.3146995 0.37286627 0
4.7110004 -1.3212997 0.37289515 0
4.7090001 -1.3284805 0.37290958 0
4.7070003 -1.3356544 0.372924 0
4.7070003 -1.3434234 0.372924 0
4.7080002 -1.3514954 0.37291679 0
4.7100005 -1.3598759 0.37290236 0
4.7150002 -1.3691834 0.37286627 0
4.6240001 -0.83078641 0.36590359 0
4.6090002 -0.83559179 0.36603886 0
4.6100001 -0.84337342 0.36602986 0
4.6110001 -0.85115862 0.36602083 0
4.6120005 -0.85894758 0.3660118 0
4.6130004 -0.86673999 0.3660028 0
4.6350002 -0.87866491 0.36580437 0
4.6370001 -0.88670087 0.36578634 0
4.6430001 -0.89554495 0.36573222 0
4.9750004 -1.1270673 0.36273789 0
4.6940002 -1.1458685 0.36527225 0
4.6860003 -1.1515504 0.36534441 0
4.6810002 -1.1579828 0.3653895 0
4.6780005 -1.1649203 0.36541656 0
4.6770005 -1.1723737 0.36542559 0
4.6790004 -1.1806189 0.36540753 0
4.6830001 -1.1894051 0.36537147 0
4.9620004 -1.280346 0.36285514 0
4.9580002 -1.2874854 0.36289123 0
4.9560003 -1.2951589 0.36290926 0
4.9540005 -1.3028251 0.36292729 0
4.9550004 -1.3113173 0.36291829 0
4.9560003 -1.3198134 0.36290926 0
4.9600005 -1.329157 0.3628732 0
4.9660001 -1.3390815 0.36281908 0
4.7350001 -1.2971213 0.36490247 0
4.7270002 -1.3026175 0.36497462 0
4.7200003 -1.3083771 0.36503777 0
4.7150002 -1.3146995 0.36508286 0
4.7110004 -1.3212997 0.36511892 0
4.7090001 -1.3284805 0.36513698 0
4.7070003 -1.3356544 0.36515501 0
4.7070003 -1.3434234 0.36515501 0
4.7080002 -1.3514954 0.36514598 0
4.7100005 -1.3598759 0.36512795 0
4.7150002 -1.3691834 0.36508286 0
4.6240001 -0.83078641 0.35828429 0
4.6100001 -0.84337342 0.35843581 0
4.6110001 -0.85115862 0.35842499 0
4.6120005 -0.85894758 0.35841417 0
4.6130004 -0.86673999 0.35840335 0
4.6350002 -0.87866491 0.35816526 0
4.6370001 -0.88670087 0.3581436 0
4.6430001 -0.89554495 0.35807866 0
4.9870005 -1.1050808 0.3543556 0
4.9800005 -1.111726 0.35443136 0
4.9760003 -1.1190494 0.35447466 0
4.9750004 -1.1270673 0.35448548 0
4.9750004 -1.1353198 0.35448548 0
4.9780002 -1.1442919 0.35445303 0
4.6940002 -1.1458685 0.35752669 0
4.6860003 -1.1515504 0.35761327 0
4.6810002 -1.1579828 0.35766739 0
4.6780005 -1.1649203 0.35769987 0
4.6770005 -1.1723737 0.35771069 0
4.6790004 -1.1806189 0.35768905 0
4.6830001 -1.1894051 0.35764575 0
4.9620004 -1.280346 0.35462618 0
4.9580002 -1.2874854 0.35466948 0
4.9560003 -1.2951589 0.35469112 0
4.9540005 -1.3028251 0.35471275 0
4.9550004 -1.3113173 0.35470194 0
4.9560003 -1.3198134 0.35469112 0
4.9600005 -1.329157 0.35464782 0
4.9660001 -1.3390815 0.35458288 0
4.7350001 -1.2971213 0.35708296 0
4.7270002 -1.3026175 0.35716954 0
4.7200003 -1.3083771 0.3572453 0
4.7150002 -1.3146995 0.35729942 0
4.7110004 -1.3212997 0.35734272 0
4.7090001 -1.3284805 0.35736436 0
4.7070003 -1.3356544 0.35738599 0
4.7070003 -1.3434234 0.35738599 0
4.7080002 -1.3514954 0.35737517 0
4.7100005 -1.3598759 0.35735354 0
4.7150002 -1.3691834 0.35729942 0
4.9380002 -0.81545407 0.34670025 0
4.9340005 -0.82295436 0.34675074 0
4.6480002 -0.85057062 0.35036197 0
4.6410003 -0.85689479 0.35045037 0
4.6370001 -0.86377269 0.35050088 0
4.6350002 -0.8710258 0.35052612 0
4.6350002 -0.87866491 0.35052612 0
4.6370001 -0.88670087 0.35050088 0
4.6430001 -0.89554495 0.35042512 0
4.9870005 -1.1050808 0.34608153 0
4.9800005 -1.111726 0.34616992 0
4.9760003 -1.1190494 0.34622043 0
4.9750004 -1.1270673 0.34623307 0
4.9750004 -1.1353198 0.34623307 0
4.9780002 -1.1442919 0.34619516 0
4.6940002 -1.1458685 0.34978116 0
4.6860003 -1.1515504 0.34988216 0
4.6810002 -1.1579828 0.34994531 0
4.6780005 -1.1649203 0.34998316 0
4.6770005 -1.1723737 0.34999579 0
4.6790004 -1.1806189 0.34997055 0
4.6830001 -1.1894051 0.34992003 0
4.9670005 -1.2734609 0.34633407 0
4.9620004 -1.280346 0.34639719 0
4.9580002 -1.2874854 0.34644771 0
4.9560003 -1.2951589 0.34647295 0
4.9540005 -1.3028251 0.34649822 0
4.9550004 -1.3113173 0.34648558 0
4.9560003 -1.3198134 0.34647295 0
4.9600005 -1.329157 0.34642246 0
4.9660001 -1.3390815 0.34634671 0
4.7350001 -1.2971213 0.34926346 0
4.7270002 -1.3026175 0.34936446 0
4.7200003 -1.3083771 0.34945285 0
4.7150002 -1.3146995 0.34951597 0
4.7110004 -1.3212997 0.34956649 0
4.7090001 -1.3284805 0.34959173 0
4.7070003 -1.3356544 0.349617 0
4.7070003 -1.3434234 0.349617 0
4.7080002 -1.3514954 0.34960437 0
4.7100005 -1.3598759 0.34957913 0
4.7150002 -1.3691834 0.34951597 0
4.9450002 -0.80844265 0.33841354 0
4.9380002 -0.81545407 0.33851457 0
4.9340005 -0.82295436 0.33857226 0
4.9320002 -0.83078647 0.33860114 0
4.9330001 -0.83913624 0.33858672 0
4.6480002 -0.85057062 0.34269941 0
4.6420002 -0.85708594 0.34278598 0
4.6370001 -0.86377269 0.34285814 0
4.6350002 -0.8710258 0.34288698 0
4.6350002 -0.87866491 0.34288698 0
4.6370001 -0.88670087 0.34285814 0
4.6430001 -0.89554495 0.34277156 0
4.9870005 -1.1050808 0.33780748 0
4.9800005 -1.111726 0.33790848 0
4.9760003 -1.1190494 0.3379662 0
4.9750004 -1.1270673 0.33798063 0
4.9750004 -1.1353198 0.33798063 0
4.9780002 -1.1442919 0.33793736 0
4.6940002 -1.1458685 0.34203559 0
4.6860003 -1.1515504 0.34215105 0
4.6810002 -1.1579828 0.3422232 0
4.6780005 -1.1649203 0.34226647 0
4.6770005 -1.1723737 0.34228092 0
4.6790004 -1.1806189 0.34225205 0
4.6830001 -1.1894051 0.34219432 0
4.9670005 -1.2734609 0.33809608 0
4.9620004 -1.280346 0.33816823 0
4.9580002 -1.2874854 0.33822596 0
4.9560003 -1.2951589 0.33825481 0
4.9540005 -1.3028251 0.33828366 0
4.9550004 -1.3113173 0.33826923 0
4.9560003 -1.3198134 0.33825481 0
4.9600005 -1.329157 0.33819708 0
4.9660001 -1.3390815 0.33811051 0
4.7350001 -1.2971213 0.34144396 0
4.7270002 -1.3026175 0.34155938 0
4.7200003 -1.3083771 0.34166041 0
4.7150002 -1.3146995 0.34173256 0
4.7110004 -1.3212997 0.34179026 0
4.7090001 -1.3284805 0.34181914 0
4.7070003 -1.3356544 0.34184799 0
4.7070003 -1.3434234 0.34184799 0
4.7080002 -1.3514954 0.34183356 0
4.7100005 -1.3598759 0.34180471 0
4.7150002 -1.3691834 0.34173256 0
4.9450002 -0.80844265 0.33021525 0
4.9380002 -0.81545407 0.33032888 0
4.9340005 -0.82295436 0.33039382 0
4.9320002 -0.83078647 0.33042628 0
4.9330001 -0.83913624 0.33041006 0
4.9360003 -0.84784323 0.33036137 0
4.6480002 -0.85057062 0.33503681 0
4.6420002 -0.85708594 0.33513421 0
4.6370001 -0.86377269 0.33521539 0
4.6350002 -0.8710258 0.33524787 0
4.6350002 -0.87866491 0.33524787 0
4.6370001 -0.88670087 0.33521539 0
4.6430001 -0.89554495 0.335118 0
4.9870005 -1.1050808 0.3295334 0
4.9800005 -1.111726 0.32964703 0
4.9760003 -1.1190494 0.32971197 0
4.9750004 -1.1270673 0.32972822 0
4.9750004 -1.1353198 0.32972822 0
4.9780002 -1.1442919 0.32967952 0
4.6940002 -1.1458685 0.33429003 0
4.6860003 -1.1515504 0.33441991 0
4.6810002 -1.1579828 0.33450109 0
4.6780005 -1.1649203 0.33454978 0
4.6770005 -1.1723737 0.33456603 0
4.6790004 -1.1806189 0.33453357 0
4.6830001 -1.1894051 0.3344686 0
4.9670005 -1.2734609 0.32985806 0
4.9620004 -1.280346 0.32993925 0
4.9580002 -1.2874854 0.33000422 0
4.9560003 -1.2951589 0.33003667 0
4.9540005 -1.3028251 0.33006912 0
4.9550004 -1.3113173 0.33005291 0
4.9560003 -1.3198134 0.33003667 0
4.9600005 -1.329157 0.32997173 0
4.9660001 -1.3390815 0.32987434 0
4.7350001 -1.2971213 0.33362442 0
4.7270002 -1.3026175 0.3337543 0
4.7200003 -1.3083771 0.33386797 0
4.7150002 -1.3146995 0.33394912 0
4.7110004 -1.3212997 0.33401406 0
4.7090001 -1.3284805 0.33404654 0
4.7070003 -1.3356544 0.334079 0
4.7070003 -1.3434234 0.334079 0
4.7080002 -1.3514954 0.33406276 0
4.7100005 -1.3598759 0.33403027 0
4.7150002 -1.3691834 0.33394912 0
4.9450002 -0.80844265 0.32201692 0
4.9380002 -0.81545407 0.3221432 0
4.9340005 -0.82295436 0.32221535 0
4.9320002 -0.83078647 0.32225144 0
4.9330001 -0.83913624 0.32223338 0
4.9360003 -0.84784323 0.32217926 0
4.6480002 -0.85057062 0.32737422 0
4.6420002 -0.85708594 0.32748246 0
4.6370001 -0.86377269 0.32757267 0
4.6350002 -0.8710258 0.32760873 0
4.6350002 -0.87866491 0.32760873 0
4.6370001 -0.88670087 0.32757267 0
4.6430001 -0.89554495 0.32746443 0
4.9870005 -1.1050808 0.32125932 0
4.9800005 -1.111726 0.32138559 0
4.9760003 -1.1190494 0.32145774 0
4.9750004 -1.1270673 0.32147577 0
4.9750004 -1.1353198 0.32147577 0
4.9780002 -1.1442919 0.32142168 0
4.6940002 -1.1458685 0.32654449 0
4.6860003 -1.1515504 0.3266888 0
4.6810002 -1.1579828 0.32677898 0
4.6780005 -1.1649203 0.3268331 0
4.6770005 -1.1723737 0.32685113 0
4.6790004 -1.1806189 0.32681507 0
4.6830001 -1.1894051 0.32674292 0
4.9670005 -1.2734609 0.32162008 0
4.9620004 -1.280346 0.32171029 0
4.9580002 -1.2874854 0.32178244 0
4.9560003 -1.2951589 0.32181853 0
4.9540005 -1.3028251 0.32185459 0
4.9550004 -1.3113173 0.32183653 0
4.9560003 -1.3198134 0.32181853 0
4.9600005 -1.329157 0.32174635 0
4.9660001 -1.3390815 0.32163814 0
4.7350001 -1.2971213 0.32580495 0
4.7270002 -1.3026175 0.32594925 0
4.7200003 -1.3083771 0.32607549 0
4.7150002 -1.3146995 0.32616568 0
4.7110004 -1.3212997 0.32623783 0
4.7090001 -1.3284805 0.32627392 0
4.7070003 -1.3356544 0.32631001 0
4.7070003 -1.3434234 0.32631001 0
4.7080002 -1.3514954 0.32629195 0
4.7100005 -1.3598759 0.32625586 0
4.7150002 -1.3691834 0.32616568 0
4.9450002 -0.80844265 0.31381863 0
4.9380002 -0.81545407 0.31395751 0
4.9340005 -0.82295436 0.31403688 0
4.9320002 -0.83078647 0.31407657 0
4.9330001 -0.83913624 0.31405672 0
4.9360003 -0.84784323 0.31399721 0
4.6480002 -0.85057062 0.31971166 0
4.6420002 -0.85708594 0.31983072 0
4.6370001 -0.86377269 0.31992993 0
4.6350002 -0.8710258 0.31996959 0
4.6350002 -0.87866491 0.31996959 0
4.6370001 -0.88670087 0.31992993 0
4.6430001 -0.89554495 0.31981087 0
4.9870005 -1.1050808 0.31298524 0
4.9800005 -1.111726 0.31312415 0
4.9760003 -1.1190494 0.31320351 0
4.9750004 -1.1270673 0.31322336 0
4.9750004 -1.1353198 0.31322336 0
4.9780002 -1.1442919 0.31316385 0
4.6940002 -1.1458685 0.31879893 0
4.6860003 -1.1515504 0.31895769 0
4.6810002 -1.1579828 0.31905687 0
4.6780005 -1.1649203 0.31911641 0
4.6770005 -1.1723737 0.31913626 0
4.6790004 -1.1806189 0.31909657 0
4.6830001 -1.1894051 0.3190172 0
4.9670005 -1.2734609 0.31338209 0
4.9620004 -1.280346 0.3134813 0
4.9580002 -1.2874854 0.31356066 0
4.9560003 -1.2951589 0.31360036 0
4.9540005 -1.3028251 0.31364003 0
4.9550004 -1.3113173 0.31362021 0
4.9560003 -1.3198134 0.31360036 0
4.9600005 -1.329157 0.313521 0
4.9660001 -1.3390815 0.31340194 0
4.7350001 -1.2971213 0.31798542 0
4.7270002 -1.3026175 0.31814414 0
4.7200003 -1.3083771 0.31828305 0
4.7150002 -1.3146995 0.31838226 0
4.7110004 -1.3212997 0.31846163 0
4.7090001 -1.3284805 0.31850129 0
4.7070003 -1.3356544 0.31854099 0
4.7070003 -1.3434234 0.31854099 0
4.7080002 -1.3514954 0.31852114 0
4.7100005 -1.3598759 0.31848145 0
4.7150002 -1.3691834 0.31838226 0
4.9450002 -0.80844265 0.30562031 0
4.9380002 -0.81545407 0.30577183 0
4.9340005 -0.82295436 0.3058584 0
4.9320002 -0.83078647 0.30590171 0
4.9330001 -0.83913624 0.30588007 0
4.9360003 -0.84784323 0.30581513 0
4.6630001 -0.84572196 0.31172442 0
4.6480002 -0.85057062 0.31204909 0
4.6420002 -0.85708594 0.31217897 0
4.6370001 -0.86377269 0.31228718 0
4.6350002 -0.8710258 0.31233048 0
4.6350002 -0.87866491 0.31233048 0
4.6370001 -0.88670087 0.31228718 0
4.6430001 -0.89554495 0.31215733 0
4.9870005 -1.1050808 0.30471119 0
4.9800005 -1.111726 0.30486271 0
4.9760003 -1.1190494 0.30494928 0
4.9750004 -1.1270673 0.30497095 0
4.9750004 -1.1353198 0.30497095 0
4.9780002 -1.1442919 0.30490601 0
4.6940002 -1.1458685 0.3110534 0
4.6860003 -1.1515504 0.31122655 0
4.6810002 -1.1579828 0.31133479 0
4.6780005 -1.1649203 0.3113997 0
4.6770005 -1.1723737 0.31142136 0
4.6790004 -1.1806189 0.31137806 0
4.6830001 -1.1894051 0.31129149 0
4.9670005 -1.2734609 0.3051441 0
4.9620004 -1.280346 0.30525234 0
4.9580002 -1.2874854 0.30533892 0
4.9560003 -1.2951589 0.30538219 0
4.9540005 -1.3028251 0.30542549 0
4.9550004 -1.3113173 0.30540386 0
4.9560003 -1.3198134 0.30538219 0
4.9600005 -1.329157 0.30529562 0
4.9660001 -1.3390815 0.30516577 0
4.7350001 -1.2971213 0.31016591 0
4.7270002 -1.3026175 0.31033906 0
4.7200003 -1.3083771 0.31049061 0
4.7150002 -1.3146995 0.31059882 0
4.7110004 -1.3212997 0.3106854 0
4.7090001 -1.3284805 0.3107287 0
4.7070003 -1.3356544 0.310772 0
4.7070003 -1.3434234 0.310772 0
4.7080002 -1.3514954 0.31075037 0
4.7100005 -1.3598759 0.31070703 0
4.7150002 -1.3691834 0.31059882 0
4.9450002 -0.80844265 0.29742202 0
4.9380002 -0.81545407 0.29758614 0
4.9340005 -0.82295436 0.29767996 0
4.9320002 -0.83078647 0.29772687 0
4.9330001 -0.83913624 0.29770339 0
4.9360003 -0.84784323 0.29763305 0
4.6630001 -0.84572196 0.30403477 0
4.6480002 -0.85057062 0.3043865 0
4.6420002 -0.85708594 0.30452722 0
4.6370001 -0.86377269 0.30464447 0
4.6350002 -0.8710258 0.30469137 0
4.6350002 -0.87866491 0.30469137 0
4.6370001 -0.88670087 0.30464447 0
4.6430001 -0.89554495 0.30450377 0
4.9870005 -1.1050808 0.29643711 0
4.9800005 -1.111726 0.29660127 0
4.9760003 -1.1190494 0.29669505 0
4.9750004 -1.1270673 0.29671854 0
4.9750004 -1.1353198 0.29671854 0
4.9780002 -1.1442919 0.29664817 0
4.6940002 -1.1458685 0.30330783 0
4.6860003 -1.1515504 0.30349544 0
4.6810002 -1.1579828 0.30361268 0
4.6780005 -1.1649203 0.30368301 0
4.6770005 -1.1723737 0.30370647 0
4.6790004 -1.1806189 0.30365956 0
4.6830001 -1.1894051 0.30356577 0
4.9670005 -1.2734609 0.29690611 0
4.9620004 -1.280346 0.29702336 0
4.9580002 -1.2874854 0.29711717 0
4.9560003 -1.2951589 0.29716405 0
4.9540005 -1.3028251 0.29721096 0
4.9550004 -1.3113173 0.29718751 0
4.9560003 -1.3198134 0.29716405 0
4.9600005 -1.329157 0.29707026 0
4.9660001 -1.3390815 0.29692957 0
4.7350001 -1.2971213 0.30234641 0
4.7270002 -1.3026175 0.30253398 0
4.7200003 -1.3083771 0.30269814 0
4.7150002 -1.3146995 0.30281538 0
4.7110004 -1.3212997 0.3029092 0
4.7090001 -1.3284805 0.3029561 0
4.7070003 -1.3356544 0.30300298 0
4.7070003 -1.3434234 0.30300298 0
4.7080002 -1.3514954 0.30297953 0
4.7100005 -1.3598759 0.30293262 0
4.7150002 -1.3691834 0.30281538 0
4.9450002 -0.80844265 0.2892237 0
4.9380002 -0.81545407 0.28940046 0
4.9340005 -0.82295436 0.28950149 0
4.9320002 -0.83078647 0.28955197 0
4.9330001 -0.83913624 0.28952676 0
4.9360003 -0.84784323 0.28945097 0
4.6630001 -0.84572196 0.29634514 0
4.6480002 -0.85057062 0.29672393 0
4.6420002 -0.85708594 0.29687545 0
4.6370001 -0.86377269 0.29700172 0
4.6350002 -0.8710258 0.29705223 0
4.6350002 -0.87866491 0.29705223 0
4.6370001 -0.88670087 0.29700172 0
4.6430001 -0.89554495 0.2968502 0
4.9870005 -1.1050808 0.28816307 0
4.9800005 -1.111726 0.28833982 0
4.9760003 -1.1190494 0.28844085 0
4.9750004 -1.1270673 0.2884661 0
4.9750004 -1.1353198 0.2884661 0
4.9780002 -1.1442919 0.28839034 0
4.6940002 -1.1458685 0.29556227 0
4.6860003 -1.1515504 0.2957643 0
4.6810002 -1.1579828 0.29589057 0
4.6780005 -1.1649203 0.29596633 0
4.6770005 -1.1723737 0.29599157 0
4.6790004 -1.1806189 0.29594105 0
4.6830001 -1.1894051 0.29584008 0
4.9670005 -1.2734609 0.28866813 0
4.9620004 -1.280346 0.2887944 0
4.9580002 -1.2874854 0.2888954 0
4.9560003 -1.2951589 0.28894591 0
4.9540005 -1.3028251 0.2889964 0
4.9550004 -1.3113173 0.28897116 0
4.9560003 -1.3198134 0.28894591 0
4.9600005 -1.329157 0.28884488 0
4.9660001 -1.3390815 0.28869337 0
4.7350001 -1.2971213 0.29452688 0
4.7270002 -1.3026175 0.29472893 0
4.7200003 -1.3083771 0.29490569 0
4.7150002 -1.3146995 0.29503196 0
4.7110004 -1.3212997 0.29513296 0
4.7090001 -1.3284805 0.29518348 0
4.7070003 -1.3356544 0.29523396 0
4.7070003 -1.3434234 0.29523396 0
4.7080002 -1.3514954 0.29520875 0
4.7100005 -1.3598759 0.29515821 0
4.7150002 -1.3691834 0.29503196 0
4.9450002 -0.80844265 0.28102538 0
4.9380002 -0.81545407 0.2812148 0
4.9340005 -0.82295436 0.28132302 0
4.9320002 -0.83078647 0.28137714 0
4.9330001 -0.83913624 0.28135008 0
4.9360003 -0.84784323 0.28126889 0
4.6630001 -0.84572196 0.28865552 0
4.6480002 -0.85057062 0.28906137 0
4.6420002 -0.85708594 0.2892237 0
4.6370001 -0.86377269 0.28935897 0
4.6350002 -0.8710258 0.28941309 0
4.6350002 -0.87866491 0.28941309 0
4.6370001 -0.88670087 0.28935897 0
4.6430001 -0.89554495 0.28919664 0
4.9870005 -1.1050808 0.27988899 0
4.9800005 -1.111726 0.28007838 0
4.9760003 -1.1190494 0.28018662 0
4.9750004 -1.1270673 0.28021365 0
4.9750004 -1.1353198 0.28021365 0
4.9780002 -1.1442919 0.2801325 0
4.6940002 -1.1458685 0.28781673 0
4.6860003 -1.1515504 0.28803319 0
4.6810002 -1.1579828 0.28816846 0
4.6780005 -1.1649203 0.28824964 0
4.6770005 -1.1723737 0.28827667 0
4.6790004 -1.1806189 0.28822258 0
4.6830001 -1.1894051 0.28811437 0
4.9670005 -1.2734609 0.28043014 0
4.9620004 -1.280346 0.28056541 0
4.9580002 -1.2874854 0.28067365 0
4.9560003 -1.2951589 0.28072774 0
4.9540005 -1.3028251 0.28078187 0
4.9550004 -1.3113173 0.2807548 0
4.9560003 -1.3198134 0.28072774 0
4.9600005 -1.329157 0.2806195 0
