# .PCD v0.7 - Point Cloud Data file format
VERSION 0.7
FIELDS x y z intensity
SIZE 4 4 4 4
TYPE F F F F
COUNT 1 1 1 1
WIDTH 1452
HEIGHT 1
VIEWPOINT 0 0 0 1 0 0 0
POINTS 1452
DATA ascii
6.6520004 3.4612741 0.44910964 0
6.6610003 3.4550292 0.44917458 0
6.6700006 3.4487524 0.44923952 0
6.6790004 3.4424424 0.44930446 0
6.6880002 3.4361002 0.4493694 0
6.6970005 3.4297256 0.44943434 0
6.7070003 3.4238684 0.44950649 0
6.7160006 3.4174273 0.44957143 0
6.7250004 3.4109533 0.44963637 0
6.7340002 3.4044468 0.44970131 0
6.7430005 3.3979084 0.44976625 0
6.7520003 3.3913369 0.44983119 0
6.7620006 3.3852727 0.44990334 0
6.7710004 3.3786347 0.44996828 0
6.7800002 3.371964 0.45003319 0
6.7900004 3.3657949 0.45010537 0
6.7990003 3.3590579 0.45017028 0
6.8080006 3.3522882 0.45023522 0
6.8180003 3.3460145 0.45030737 0
6.8270006 3.3391783 0.45037231 0
6.8370004 3.332834 0.45044446 0
6.8460002 3.3259308 0.4505094 0
6.8560004 3.3195164 0.45058155 0
6.8650002 3.3125465 0.45064649 0
6.8750005 3.306062 0.45071864 0
6.8850002 3.2995412 0.45079079 0
6.8940005 3.2924705 0.45085573 0
6.9040003 3.2858791 0.45092788 0
6.9140005 3.2792521 0.45100003 0
6.9230003 3.2720799 0.45106497 0
6.9330006 3.2653825 0.45113713 0
6.9430003 3.2586486 0.45120928 0
6.5990005 3.4986329 0.43754542 0
6.6080003 3.4925809 0.43759415 0
6.6170006 3.4864969 0.43764284 0
6.6260004 3.4803803 0.43769154 0
6.6350002 3.474231 0.43774024 0
6.6430006 3.4674866 0.43778354 0
6.6520004 3.4612741 0.43783224 0
6.6610003 3.4550292 0.43788093 0
6.6700006 3.4487524 0.43792966 0
6.6790004 3.4424424 0.43797836 0
6.6880002 3.4361002 0.43802705 0
6.6970005 3.4297256 0.43807575 0
6.7070003 3.4238684 0.43812987 0
6.7160006 3.4174273 0.43817857 0
6.7250004 3.4109533 0.43822727 0
6.7340002 3.4044468 0.43827599 0
6.7430005 3.3979084 0.43832469 0
6.7520003 3.3913369 0.43837339 0
6.7620006 3.3852727 0.43842751 0
6.7710004 3.3786347 0.4384762 0
6.7800002 3.371964 0.4385249 0
6.7900004 3.3657949 0.43857902 0
6.7990003 3.3590579 0.43862772 0
6.8080006 3.3522882 0.43867642 0
6.8180003 3.3460145 0.43873054 0
6.8270006 3.3391783 0.43877923 0
6.8370004 3.332834 0.43883336 0
6.8460002 3.3259308 0.43888205 0
6.8560004 3.3195164 0.43893617 0
6.8650002 3.3125465 0.43898487 0
6.8750005 3.306062 0.43903899 0
6.8850002 3.2995412 0.43909311 0
6.8940005 3.2924705 0.43914181 0
6.9040003 3.2858791 0.43919593 0
6.9140005 3.2792521 0.43925005 0
6.9230003 3.2720799 0.43929875 0
6.9330006 3.2653825 0.43935284 0
6.9430003 3.2586486 0.43940696 0
6.9530005 3.2518792 0.43946108 0
6.9630003 3.2450733 0.4395152 0
6.9720006 3.2377319 0.4395639 0
6.9820004 3.2308557 0.43961802 0
6.5990005 3.4986329 0.42636362 0
6.6080003 3.4925809 0.4263961 0
6.6170006 3.4864969 0.42642856 0
6.6260004 3.4803803 0.42646104 0
6.6350002 3.474231 0.4264935 0
6.6430006 3.4674866 0.42652237 0
6.6520004 3.4612741 0.42655483 0
6.6610003 3.4550292 0.42658731 0
6.6700006 3.4487524 0.42661977 0
6.6790004 3.4424424 0.42665225 0
6.6880002 3.4361002 0.42668471 0
6.6970005 3.4297256 0.42671716 0
6.7070003 3.4238684 0.42675325 0
6.7160006 3.4174273 0.42678571 0
6.7250004 3.4109533 0.42681819 0
6.7340002 3.4044468 0.42685065 0
6.7430005 3.3979084 0.42688313 0
6.7520003 3.3913369 0.42691559 0
6.7620006 3.3852727 0.42695168 0
6.7710004 3.3786347 0.42698413 0
6.7800002 3.371964 0.42701662 0
6.7900004 3.3657949 0.42705268 0
6.7990003 3.3590579 0.42708516 0
6.8080006 3.3522882 0.42711762 0
6.8180003 3.3460145 0.42715371 0
6.8270006 3.3391783 0.42718616 0
6.8370004 3.332834 0.42722225 0
6.8460002 3.3259308 0.42725471 0
6.8560004 3.3195164 0.4272908 0
6.8650002 3.3125465 0.42732325 0
6.8750005 3.306062 0.42735934 0
6.8850002 3.2995412 0.4273954 0
6.8940005 3.2924705 0.42742789 0
6.9040003 3.2858791 0.42746395 0
6.9140005 3.2792521 0.42750004 0
6.9230003 3.2720799 0.42753249 0
6.9330006 3.2653825 0.42756858 0
6.9430003 3.2586486 0.42760465 0
6.9530005 3.2518792 0.42764074 0
6.9630003 3.2450733 0.4276768 0
6.9720006 3.2377319 0.42770928 0
6.9820004 3.2308557 0.42774534 0
6.5990005 3.4986329 0.41518182 0
6.6080003 3.4925809 0.41519806 0
6.6170006 3.4864969 0.4152143 0
6.6260004 3.4803803 0.41523051 0
6.6350002 3.474231 0.41524675 0
6.6430006 3.4674866 0.41526118 0
6.6520004 3.4612741 0.41527742 0
6.6610003 3.4550292 0.41529366 0
6.6700006 3.4487524 0.41530991 0
6.6790004 3.4424424 0.41532612 0
6.6880002 3.4361002 0.41534236 0
6.6970005 3.4297256 0.4153586 0
6.7070003 3.4238684 0.41537663 0
6.7160006 3.4174273 0.41539288 0
6.7250004 3.4109533 0.41540909 0
6.7340002 3.4044468 0.41542533 0
6.7430005 3.3979084 0.41544157 0
6.7520003 3.3913369 0.41545781 0
6.7620006 3.3852727 0.41547585 0
6.7710004 3.3786347 0.41549209 0
6.7800002 3.371964 0.4155083 0
6.7900004 3.3657949 0.41552636 0
6.7990003 3.3590579 0.41554257 0
6.8080006 3.3522882 0.41555882 0
6.8180003 3.3460145 0.41557685 0
6.8270006 3.3391783 0.41559309 0
6.8370004 3.332834 0.41561112 0
6.8460002 3.3259308 0.41562736 0
6.8560004 3.3195164 0.41564539 0
6.8650002 3.3125465 0.41566163 0
6.8750005 3.306062 0.41567966 0
6.8850002 3.2995412 0.41569772 0
6.8940005 3.2924705 0.41571394 0
6.9040003 3.2858791 0.415732 0
6.9140005 3.2792521 0.41575003 0
6.9230003 3.2720799 0.41576627 0
6.9330006 3.2653825 0.4157843 0
6.9430003 3.2586486 0.41580233 0
6.9530005 3.2518792 0.41582036 0
6.9630003 3.2450733 0.41583842 0
6.9720006 3.2377319 0.41585463 0
6.9820004 3.2308557 0.41587269 0
6.5990005 3.4986329 0.40400001 0
6.6080003 3.4925809 0.40400001 0
6.6170006 3.4864969 0.40400001 0
6.6260004 3.4803803 0.40400001 0
6.6350002 3.474231 0.40400001 0
6.6430006 3.4674866 0.40400001 0
6.6520004 3.4612741 0.40400001 0
6.6610003 3.4550292 0.40400001 0
6.6700006 3.4487524 0.40400001 0
6.6790004 3.4424424 0.40400001 0
6.6880002 3.4361002 0.40400001 0
6.6970005 3.4297256 0.40400001 0
6.7070003 3.4238684 0.40400001 0
6.7160006 3.4174273 0.40400001 0
6.7250004 3.4109533 0.40400001 0
6.7340002 3.4044468 0.40400001 0
6.7430005 3.3979084 0.40400001 0
6.7520003 3.3913369 0.40400001 0
6.7620006 3.3852727 0.40400001 0
6.7710004 3.3786347 0.40400001 0
6.7800002 3.371964 0.40400001 0
6.7900004 3.3657949 0.40400001 0
6.7990003 3.3590579 0.40400001 0
6.8080006 3.3522882 0.40400001 0
6.8180003 3.3460145 0.40400001 0
6.8270006 3.3391783 0.40400001 0
6.8370004 3.332834 0.40400001 0
6.8460002 3.3259308 0.40400001 0
6.8560004 3.3195164 0.40400001 0
6.8650002 3.3125465 0.40400001 0
6.8750005 3.306062 0.40400001 0
6.8850002 3.2995412 0.40400001 0
6.8940005 3.2924705 0.40400001 0
6.9040003 3.2858791 0.40400001 0
6.9140005 3.2792521 0.40400001 0
6.9230003 3.2720799 0.40400001 0
6.9330006 3.2653825 0.40400001 0
6.9430003 3.2586486 0.40400001 0
6.9530005 3.2518792 0.40400001 0
6.9630003 3.2450733 0.40400001 0
6.9720006 3.2377319 0.40400001 0
6.9820004 3.2308557 0.40400001 0
6.5990005 3.4986329 0.39281821 0
6.6080003 3.4925809 0.39280197 0
6.6170006 3.4864969 0.39278573 0
6.6260004 3.4803803 0.39276952 0
6.6350002 3.474231 0.39275327 0
6.6430006 3.4674866 0.39273885 0
6.6520004 3.4612741 0.39272261 0
6.6610003 3.4550292 0.39270636 0
6.6700006 3.4487524 0.39269012 0
6.6790004 3.4424424 0.39267391 0
6.6880002 3.4361002 0.39265767 0
6.6970005 3.4297256 0.39264143 0
6.7070003 3.4238684 0.39262339 0
6.7160006 3.4174273 0.39260715 0
6.7250004 3.4109533 0.39259094 0
6.7340002 3.4044468 0.3925747 0
6.7430005 3.3979084 0.39255846 0
6.7520003 3.3913369 0.39254221 0
6.7620006 3.3852727 0.39252418 0
6.7710004 3.3786347 0.39250794 0
6.7800002 3.371964 0.39249173 0
6.7900004 3.3657949 0.39247367 0
6.7990003 3.3590579 0.39245746 0
6.8080006 3.3522882 0.39244121 0
6.8180003 3.3460145 0.39242318 0
6.8270006 3.3391783 0.39240694 0
6.8370004 3.332834 0.39238891 0
6.8460002 3.3259308 0.39237267 0
6.8560004 3.3195164 0.39235464 0
6.8650002 3.3125465 0.3923384 0
6.8750005 3.306062 0.39232036 0
6.8850002 3.2995412 0.3923023 0
6.8940005 3.2924705 0.39228609 0
6.9040003 3.2858791 0.39226803 0
6.9140005 3.2792521 0.39225 0
6.9230003 3.2720799 0.39223376 0
6.9330006 3.2653825 0.39221573 0
6.9430003 3.2586486 0.3921977 0
6.9530005 3.2518792 0.39217967 0
6.9630003 3.2450733 0.39216161 0
6.9720006 3.2377319 0.3921454 0
6.9820004 3.2308557 0.39212734 0
6.5990005 3.4986329 0.38163641 0
6.6080003 3.4925809 0.38160393 0
6.6170006 3.4864969 0.38157147 0
6.6260004 3.4803803 0.38153899 0
6.6350002 3.474231 0.38150653 0
6.6430006 3.4674866 0.38147765 0
6.6520004 3.4612741 0.3814452 0
6.6610003 3.4550292 0.38141271 0
6.6700006 3.4487524 0.38138026 0
6.6790004 3.4424424 0.38134778 0
6.6880002 3.4361002 0.38131532 0
6.6970005 3.4297256 0.38128287 0
6.7070003 3.4238684 0.38124678 0
6.7160006 3.4174273 0.38121432 0
6.7250004 3.4109533 0.38118184 0
6.7340002 3.4044468 0.38114938 0
6.7430005 3.3979084 0.3811169 0
6.7520003 3.3913369 0.38108444 0
6.7620006 3.3852727 0.38104835 0
6.7710004 3.3786347 0.3810159 0
6.7800002 3.371964 0.38098341 0
6.7900004 3.3657949 0.38094735 0
6.7990003 3.3590579 0.38091487 0
6.8080006 3.3522882 0.38088241 0
6.8180003 3.3460145 0.38084632 0
6.8270006 3.3391783 0.38081387 0
6.8370004 3.332834 0.38077778 0
6.8460002 3.3259308 0.38074532 0
6.8560004 3.3195164 0.38070923 0
6.8650002 3.3125465 0.38067678 0
6.8750005 3.306062 0.38064069 0
6.8850002 3.2995412 0.38060462 0
6.8940005 3.2924705 0.38057214 0
6.9040003 3.2858791 0.38053608 0
6.9140005 3.2792521 0.38049999 0
6.9230003 3.2720799 0.38046753 0
6.9330006 3.2653825 0.38043144 0
6.9430003 3.2586486 0.38039538 0
6.9530005 3.2518792 0.38035929 0
6.9630003 3.2450733 0.38032323 0
6.9720006 3.2377319 0.38029075 0
6.9820004 3.2308557 0.38025469 0
6.5990005 3.4986329 0.37045461 0
6.6080003 3.4925809 0.37040588 0
6.6170006 3.4864969 0.37035719 0
6.6260004 3.4803803 0.37030849 0
6.6350002 3.474231 0.37025979 0
6.6430006 3.4674866 0.37021649 0
6.6520004 3.4612741 0.37016779 0
6.6610003 3.4550292 0.37011909 0
6.6700006 3.4487524 0.37007037 0
6.6790004 3.4424424 0.37002167 0
6.6880002 3.4361002 0.36997297 0
6.6970005 3.4297256 0.36992428 0
6.7070003 3.4238684 0.36987016 0
6.7160006 3.4174273 0.36982146 0
6.7250004 3.4109533 0.36977276 0
6.7340002 3.4044468 0.36972404 0
6.7430005 3.3979084 0.36967534 0
6.7520003 3.3913369 0.36962664 0
6.7620006 3.3852727 0.36957252 0
6.7710004 3.3786347 0.36952382 0
6.7800002 3.371964 0.36947513 0
6.7900004 3.3657949 0.36942101 0
6.7990003 3.3590579 0.36937231 0
6.8080006 3.3522882 0.36932361 0
6.8180003 3.3460145 0.36926949 0
6.8270006 3.3391783 0.36922079 0
6.8370004 3.332834 0.36916667 0
6.8460002 3.3259308 0.36911798 0
6.8560004 3.3195164 0.36906385 0
6.8650002 3.3125465 0.36901516 0
6.8750005 3.306062 0.36896104 0
6.8850002 3.2995412 0.36890692 0
6.8940005 3.2924705 0.36885822 0
6.9040003 3.2858791 0.3688041 0
6.9140005 3.2792521 0.36874998 0
6.9230003 3.2720799 0.36870128 0
6.9330006 3.2653825 0.36864719 0
6.9430003 3.2586486 0.36859307 0
6.9530005 3.2518792 0.36853895 0
6.9630003 3.2450733 0.36848482 0
6.9720006 3.2377319 0.36843613 0
6.9820004 3.2308557 0.36838201 0
6.5990005 3.4986329 0.35927278 0
6.6080003 3.4925809 0.35920784 0
6.6170006 3.4864969 0.3591429 0
6.6260004 3.4803803 0.35907799 0
6.6350002 3.474231 0.35901305 0
6.6430006 3.4674866 0.35895532 0
6.6520004 3.4612741 0.35889038 0
6.6610003 3.4550292 0.35882545 0
6.6700006 3.4487524 0.35876051 0
6.6790004 3.4424424 0.35869557 0
6.6880002 3.4361002 0.35863063 0
6.6970005 3.4297256 0.35856569 0
6.7070003 3.4238684 0.35849354 0
6.7160006 3.4174273 0.3584286 0
6.7250004 3.4109533 0.35836366 0
6.7340002 3.4044468 0.35829872 0
6.7430005 3.3979084 0.35823378 0
6.7520003 3.3913369 0.35816884 0
6.7620006 3.3852727 0.35809669 0
6.7710004 3.3786347 0.35803175 0
6.7800002 3.371964 0.35796684 0
6.7900004 3.3657949 0.35789466 0
6.7990003 3.3590579 0.35782975 0
6.8080006 3.3522882 0.35776481 0
6.8180003 3.3460145 0.35769266 0
6.8270006 3.3391783 0.35762772 0
6.8370004 3.332834 0.35755557 0
6.8460002 3.3259308 0.35749063 0
6.8560004 3.3195164 0.35741848 0
6.8650002 3.3125465 0.35735354 0
6.8750005 3.306062 0.35728139 0
6.8850002 3.2995412 0.35720924 0
6.8940005 3.2924705 0.3571443 0
6.9040003 3.2858791 0.35707214 0
6.9140005 3.2792521 0.35699999 0
6.9230003 3.2720799 0.35693505 0
6.9330006 3.2653825 0.3568629 0
6.9430003 3.2586486 0.35679075 0
6.9530005 3.2518792 0.3567186 0
6.9630003 3.2450733 0.35664645 0
6.9720006 3.2377319 0.35658151 0
6.9820004 3.2308557 0.35650936 0
6.5990005 3.4986329 0.34809098 0
6.6080003 3.4925809 0.34800979 0
6.6170006 3.4864969 0.34792864 0
6.6260004 3.4803803 0.34784746 0
6.6350002 3.474231 0.34776628 0
6.6430006 3.4674866 0.34769413 0
6.6520004 3.4612741 0.34761298 0
6.6610003 3.4550292 0.3475318 0
6.6700006 3.4487524 0.34745061 0
6.6790004 3.4424424 0.34736946 0
6.6880002 3.4361002 0.34728828 0
6.6970005 3.4297256 0.3472071 0
6.7070003 3.4238684 0.34711692 0
6.7160006 3.4174273 0.34703577 0
6.7250004 3.4109533 0.34695458 0
6.7340002 3.4044468 0.3468734 0
6.7430005 3.3979084 0.34679222 0
6.7520003 3.3913369 0.34671107 0
6.7620006 3.3852727 0.34662086 0
6.7710004 3.3786347 0.34653971 0
6.7800002 3.371964 0.34645852 0
6.7900004 3.3657949 0.34636834 0
6.7990003 3.3590579 0.34628716 0
6.8080006 3.3522882 0.34620601 0
6.8180003 3.3460145 0.3461158 0
6.8270006 3.3391783 0.34603465 0
6.8370004 3.332834 0.34594443 0
6.8460002 3.3259308 0.34586328 0
6.8560004 3.3195164 0.34577307 0
6.8650002 3.3125465 0.34569192 0
6.8750005 3.306062 0.34560174 0
6.8850002 3.2995412 0.34551153 0
6.8940005 3.2924705 0.34543037 0
6.9040003 3.2858791 0.34534016 0
6.9140005 3.2792521 0.34524998 0
6.9230003 3.2720799 0.3451688 0
6.9330006 3.2653825 0.34507862 0
6.9430003 3.2586486 0.34498844 0
6.9530005 3.2518792 0.34489822 0
6.9630003 3.2450733 0.34480804 0
6.9720006 3.2377319 0.34472686 0
6.9820004 3.2308557 0.34463668 0
6.5990005 3.4986329 0.33690917 0
6.6080003 3.4925809 0.33681178 0
6.6170006 3.4864969 0.33671436 0
6.6260004 3.4803803 0.33661693 0
6.6350002 3.474231 0.33651954 0
6.6430006 3.4674866 0.33643296 0
6.6520004 3.4612741 0.33633557 0
6.6610003 3.4550292 0.33623815 0
6.6700006 3.4487524 0.33614075 0
6.6790004 3.4424424 0.33604336 0
6.6880002 3.4361002 0.33594593 0
6.6970005 3.4297256 0.33584854 0
6.7070003 3.4238684 0.3357403 0
6.7160006 3.4174273 0.3356429 0
6.7250004 3.4109533 0.33554548 0
6.7340002 3.4044468 0.33544809 0
6.7430005 3.3979084 0.33535069 0
6.7520003 3.3913369 0.33525327 0
6.7620006 3.3852727 0.33514506 0
6.7710004 3.3786347 0.33504763 0
6.7800002 3.371964 0.33495024 0
6.7900004 3.3657949 0.334842 0
6.7990003 3.3590579 0.3347446 0
6.8080006 3.3522882 0.33464718 0
6.8180003 3.3460145 0.33453897 0
6.8270006 3.3391783 0.33444154 0
6.8370004 3.332834 0.33433333 0
6.8460002 3.3259308 0.33423594 0
6.8560004 3.3195164 0.33412769 0
6.8650002 3.3125465 0.3340303 0
6.8750005 3.306062 0.33392206 0
6.8850002 3.2995412 0.33381385 0
6.8940005 3.2924705 0.33371642 0
6.9040003 3.2858791 0.33360821 0
6.9140005 3.2792521 0.33349997 0
6.9230003 3.2720799 0.33340257 0
6.9330006 3.2653825 0.33329433 0
6.9430003 3.2586486 0.33318609 0
6.9530005 3.2518792 0.33307788 0
6.9630003 3.2450733 0.33296967 0
6.9720006 3.2377319 0.33287224 0
6.9820004 3.2308557 0.33276403 0
6.5990005 3.4986329 0.32572737 0
6.6080003 3.4925809 0.32561374 0
6.6170006 3.4864969 0.32550007 0
6.6260004 3.4803803 0.32538646 0
6.6350002 3.474231 0.3252728 0
6.6430006 3.4674866 0.32517177 0
6.6520004 3.4612741 0.32505816 0
6.6610003 3.4550292 0.32494453 0
6.6700006 3.4487524 0.32483086 0
6.6790004 3.4424424 0.32471722 0
6.6880002 3.4361002 0.32460359 0
6.6970005 3.4297256 0.32448995 0
6.7070003 3.4238684 0.32436368 0
6.7160006 3.4174273 0.32425004 0
6.7250004 3.4109533 0.32413641 0
6.7340002 3.4044468 0.32402277 0
6.7430005 3.3979084 0.32390913 0
6.7520003 3.3913369 0.3237955 0
6.7620006 3.3852727 0.32366922 0
6.7710004 3.3786347 0.32355559 0
6.7800002 3.371964 0.32344195 0
6.7900004 3.3657949 0.32331568 0
6.7990003 3.3590579 0.32320204 0
6.8080006 3.3522882 0.32308841 0
6.8180003 3.3460145 0.32296214 0
6.8270006 3.3391783 0.3228485 0
6.8370004 3.332834 0.32272223 0
6.8460002 3.3259308 0.32260859 0
6.8560004 3.3195164 0.32248232 0
6.8650002 3.3125465 0.32236868 0
6.8750005 3.306062 0.32224241 0
6.8850002 3.2995412 0.32211614 0
6.8940005 3.2924705 0.3220025 0
6.9040003 3.2858791 0.32187623 0
6.9140005 3.2792521 0.32174996 0
6.9230003 3.2720799 0.32163632 0
6.9330006 3.2653825 0.32151008 0
6.9430003 3.2586486 0.32138377 0
6.9530005 3.2518792 0.32125753 0
6.9630003 3.2450733 0.32113126 0
6.9720006 3.2377319 0.32101762 0
6.9820004 3.2308557 0.32089135 0
6.5990005 3.4986329 0.31454557 0
6.6080003 3.4925809 0.31441569 0
6.6170006 3.4864969 0.31428581 0
6.6260004 3.4803803 0.31415594 0
6.6350002 3.474231 0.31402606 0
6.6430006 3.4674866 0.3139106 0
6.6520004 3.4612741 0.31378073 0
6.6610003 3.4550292 0.31365088 0
6.6700006 3.4487524 0.313521 0
6.6790004 3.4424424 0.31339112 0
6.6880002 3.4361002 0.31326124 0
6.6970005 3.4297256 0.31313136 0
6.7070003 3.4238684 0.31298706 0
6.7160006 3.4174273 0.31285718 0
6.7250004 3.4109533 0.31272733 0
6.7340002 3.4044468 0.31259745 0
6.7430005 3.3979084 0.31246758 0
6.7520003 3.3913369 0.3123377 0
6.7620006 3.3852727 0.31219339 0
6.7710004 3.3786347 0.31206352 0
6.7800002 3.371964 0.31193364 0
6.7900004 3.3657949 0.31178933 0
6.7990003 3.3590579 0.31165946 0
6.8080006 3.3522882 0.31152958 0
6.8180003 3.3460145 0.31138527 0
6.8270006 3.3391783 0.3112554 0
6.8370004 3.332834 0.31111109 0
6.8460002 3.3259308 0.31098124 0
6.8560004 3.3195164 0.31083691 0
6.8650002 3.3125465 0.31070706 0
6.8750005 3.306062 0.31056273 0
6.8850002 3.2995412 0.31041843 0
6.8940005 3.2924705 0.31028855 0
6.9040003 3.2858791 0.31014428 0
6.9140005 3.2792521 0.30999994 0
6.9230003 3.2720799 0.30987009 0
6.9330006 3.2653825 0.30972576 0
6.9430003 3.2586486 0.30958149 0
6.9530005 3.2518792 0.30943716 0
6.9630003 3.2450733 0.30929285 0
6.9720006 3.2377319 0.30916297 0
6.9820004 3.2308557 0.30901867 0
6.5990005 3.4986329 0.30336374 0
6.6080003 3.4925809 0.30321765 0
6.6170006 3.4864969 0.30307153 0
6.6260004 3.4803803 0.30292541 0
6.6350002 3.474231 0.30277932 0
6.6430006 3.4674866 0.30264944 0
6.6520004 3.4612741 0.30250335 0
6.6610003 3.4550292 0.30235723 0
6.6700006 3.4487524 0.30221111 0
6.6790004 3.4424424 0.30206501 0
6.6880002 3.4361002 0.30191889 0
6.6970005 3.4297256 0.30177277 0
6.7070003 3.4238684 0.30161047 0
6.7160006 3.4174273 0.30146432 0
6.7250004 3.4109533 0.30131823 0
6.7340002 3.4044468 0.30117214 0
6.7430005 3.3979084 0.30102602 0
6.7520003 3.3913369 0.3008799 0
6.7620006 3.3852727 0.30071756 0
6.7710004 3.3786347 0.30057144 0
6.7800002 3.371964 0.30042535 0
6.7900004 3.3657949 0.30026299 0
6.7990003 3.3590579 0.3001169 0
6.8080006 3.3522882 0.29997078 0
6.8180003 3.3460145 0.29980844 0
6.8270006 3.3391783 0.29966232 0
6.8370004 3.332834 0.29949999 0
6.8460002 3.3259308 0.2993539 0
6.8560004 3.3195164 0.29919153 0
6.8650002 3.3125465 0.29904544 0
6.8750005 3.306062 0.29888308 0
6.8850002 3.2995412 0.29872075 0
6.8940005 3.2924705 0.29857463 0
6.9040003 3.2858791 0.29841229 0
6.9140005 3.2792521 0.29824996 0
6.9230003 3.2720799 0.29810384 0
6.9330006 3.2653825 0.29794151 0
6.9430003 3.2586486 0.29777917 0
6.9530005 3.2518792 0.29761681 0
6.9630003 3.2450733 0.29745448 0
6.9720006 3.2377319 0.29730836 0
6.9820004 3.2308557 0.29714602 0
6.5990005 3.4986329 0.29218194 0
6.6080003 3.4925809 0.29201961 0
6.6170006 3.4864969 0.29185724 0
6.6260004 3.4803803 0.29169491 0
6.6350002 3.474231 0.29153258 0
6.6430006 3.4674866 0.29138827 0
6.6520004 3.4612741 0.29122591 0
6.6610003 3.4550292 0.29106358 0
6.6700006 3.4487524 0.29090124 0
6.6790004 3.4424424 0.29073888 0
6.6880002 3.4361002 0.29057655 0
6.6970005 3.4297256 0.29041421 0
6.7070003 3.4238684 0.29023385 0
6.7160006 3.4174273 0.29007149 0
6.7250004 3.4109533 0.28990912 0
6.7340002 3.4044468 0.28974682 0
6.7430005 3.3979084 0.28958446 0
6.7520003 3.3913369 0.28942209 0
6.7620006 3.3852727 0.28924173 0
6.7710004 3.3786347 0.2890794 0
6.7800002 3.371964 0.28891706 0
6.7900004 3.3657949 0.28873667 0
6.7990003 3.3590579 0.28857434 0
6.8080006 3.3522882 0.28841197 0
6.8180003 3.3460145 0.28823161 0
6.8270006 3.3391783 0.28806925 0
6.8370004 3.332834 0.28788888 0
6.8460002 3.3259308 0.28772655 0
6.8560004 3.3195164 0.28754616 0
6.8650002 3.3125465 0.28738382 0
6.8750005 3.306062 0.28720343 0
6.8850002 3.2995412 0.28702307 0
6.8940005 3.2924705 0.2868607 0
6.9040003 3.2858791 0.28668034 0
6.9140005 3.2792521 0.28649995 0
6.9230003 3.2720799 0.28633761 0
6.9330006 3.2653825 0.28615722 0
6.9430003 3.2586486 0.28597686 0
6.9530005 3.2518792 0.28579646 0
6.9630003 3.2450733 0.28561607 0
6.9720006 3.2377319 0.28545374 0
6.9820004 3.2308557 0.28527337 0
6.5990005 3.4986329 0.28100014 0
6.6080003 3.4925809 0.28082156 0
6.6170006 3.4864969 0.28064299 0
6.6260004 3.4803803 0.28046441 0
6.6350002 3.474231 0.28028584 0
6.6430006 3.4674866 0.28012711 0
6.6520004 3.4612741 0.27994853 0
6.6610003 3.4550292 0.27976996 0
6.6700006 3.4487524 0.27959138 0
6.6790004 3.4424424 0.27941281 0
6.6880002 3.4361002 0.27923423 0
6.6970005 3.4297256 0.27905563 0
6.7070003 3.4238684 0.27885723 0
6.7160006 3.4174273 0.27867863 0
6.7250004 3.4109533 0.27850005 0
6.7340002 3.4044468 0.27832147 0
6.7430005 3.3979084 0.2781429 0
6.7520003 3.3913369 0.27796432 0
6.7620006 3.3852727 0.27776593 0
6.7710004 3.3786347 0.27758735 0
6.7800002 3.371964 0.27740878 0
6.7900004 3.3657949 0.27721035 0
6.7990003 3.3590579 0.27703178 0
6.8080006 3.3522882 0.27685317 0
6.8180003 3.3460145 0.27665478 0
6.8270006 3.3391783 0.27647617 0
6.8370004 3.332834 0.27627778 0
6.8460002 3.3259308 0.27609921 0
6.8560004 3.3195164 0.27590078 0
6.8650002 3.3125465 0.27572221 0
6.8750005 3.306062 0.27552378 0
6.8850002 3.2995412 0.27532536 0
6.8940005 3.2924705 0.27514678 0
6.9040003 3.2858791 0.27494836 0
6.9140005 3.2792521 0.27474993 0
6.9230003 3.2720799 0.27457136 0
6.9330006 3.2653825 0.27437294 0
6.9430003 3.2586486 0.27417451 0
6.9530005 3.2518792 0.27397609 0
6.9630003 3.2450733 0.27377769 0
6.9720006 3.2377319 0.27359909 0
6.9820004 3.2308557 0.27340069 0
6.5990005 3.4986329 0.26981834 0
6.6080003 3.4925809 0.26962352 0
6.6170006 3.4864969 0.2694287 0
6.6260004 3.4803803 0.26923388 0
6.6350002 3.474231 0.26903909 0
6.6430006 3.4674866 0.26886591 0
6.6520004 3.4612741 0.2686711 0
6.6610003 3.4550292 0.26847631 0
6.6700006 3.4487524 0.26828146 0
6.6790004 3.4424424 0.26808667 0
6.6880002 3.4361002 0.26789188 0
6.6970005 3.4297256 0.26769704 0
6.7070003 3.4238684 0.26748058 0
6.7160006 3.4174273 0.26728576 0
6.7250004 3.4109533 0.26709098 0
6.7340002 3.4044468 0.26689616 0
6.7430005 3.3979084 0.26670134 0
6.7520003 3.3913369 0.26650655 0
6.7620006 3.3852727 0.26629007 0
6.7710004 3.3786347 0.26609528 0
6.7800002 3.371964 0.26590046 0
6.7900004 3.3657949 0.26568401 0
6.7990003 3.3590579 0.26548919 0
6.8080006 3.3522882 0.26529437 0
6.8180003 3.3460145 0.26507792 0
6.8270006 3.3391783 0.2648831 0
6.8370004 3.332834 0.26466665 0
6.8460002 3.3259308 0.26447183 0
6.8560004 3.3195164 0.2642554 0
6.8650002 3.3125465 0.26406056 0
6.8750005 3.306062 0.26384413 0
6.8850002 3.2995412 0.26362765 0
6.8940005 3.2924705 0.26343283 0
6.9040003 3.2858791 0.26321638 0
6.9140005 3.2792521 0.26299992 0
6.9230003 3.2720799 0.2628051 0
6.9330006 3.2653825 0.26258868 0
6.9430003 3.2586486 0.2623722 0
6.9530005 3.2518792 0.26215577 0
6.9630003 3.2450733 0.26193929 0
6.9720006 3.2377319 0.2617445 0
6.9820004 3.2308557 0.26152802 0
6.5990005 3.4986329 0.25863653 0
6.6080003 3.4925809 0.25842547 0
6.6170006 3.4864969 0.25821441 0
6.6260004 3.4803803 0.25800338 0
6.6350002 3.474231 0.25779235 0
6.6430006 3.4674866 0.25760475 0
6.6520004 3.4612741 0.25739372 0
6.6610003 3.4550292 0.25718266 0
6.6700006 3.4487524 0.2569716 0
6.6790004 3.4424424 0.25676054 0
6.6880002 3.4361002 0.25654954 0
6.6970005 3.4297256 0.25633848 0
6.7070003 3.4238684 0.25610399 0
6.7160006 3.4174273 0.25589293 0
6.7250004 3.4109533 0.25568187 0
6.7340002 3.4044468 0.25547084 0
6.7430005 3.3979084 0.25525978 0
6.7520003 3.3913369 0.25504875 0
6.7620006 3.3852727 0.25481424 0
6.7710004 3.3786347 0.25460321 0
6.7800002 3.371964 0.25439215 0
6.7900004 3.3657949 0.25415766 0
6.7990003 3.3590579 0.2539466 0
6.8080006 3.3522882 0.25373557 0
6.8180003 3.3460145 0.25350106 0
6.8270006 3.3391783 0.25329003 0
6.8370004 3.332834 0.25305554 0
6.8460002 3.3259308 0.25284451 0
6.8560004 3.3195164 0.25261 0
6.8650002 3.3125465 0.25239897 0
6.8750005 3.306062 0.25216445 0
6.8850002 3.2995412 0.25192997 0
6.8940005 3.2924705 0.25171891 0
6.9040003 3.2858791 0.25148442 0
6.9140005 3.2792521 0.25124991 0
6.9230003 3.2720799 0.25103888 0
6.9330006 3.2653825 0.25080436 0
6.9430003 3.2586486 0.25056988 0
6.9530005 3.2518792 0.2503354 0
6.9630003 3.2450733 0.25010091 0
6.9720006 3.2377319 0.24988985 0
6.9820004 3.2308557 0.24965537 0
6.5990005 3.4986329 0.24745472 0
6.6080003 3.4925809 0.24722743 0
6.6170006 3.4864969 0.24700014 0
6.6260004 3.4803803 0.24677289 0
6.6350002 3.474231 0.2465456 0
6.6430006 3.4674866 0.24634355 0
6.6520004 3.4612741 0.24611628 0
6.6610003 3.4550292 0.24588902 0
6.6700006 3.4487524 0.24566172 0
6.6790004 3.4424424 0.24543445 0
6.6880002 3.4361002 0.24520718 0
6.6970005 3.4297256 0.24497989 0
6.7070003 3.4238684 0.24472736 0
6.7160006 3.4174273 0.24450007 0
6.7250004 3.4109533 0.2442728 0
6.7340002 3.4044468 0.24404551 0
6.7430005 3.3979084 0.24381824 0
6.7520003 3.3913369 0.24359097 0
6.7620006 3.3852727 0.24333842 0
6.7710004 3.3786347 0.24311115 0
6.7800002 3.371964 0.24288388 0
6.7900004 3.3657949 0.24263133 0
6.7990003 3.3590579 0.24240406 0
6.8080006 3.3522882 0.24217677 0
6.8180003 3.3460145 0.24192424 0
6.8270006 3.3391783 0.24169695 0
6.8370004 3.332834 0.24144442 0
6.8460002 3.3259308 0.24121715 0
6.8560004 3.3195164 0.24096461 0
6.8650002 3.3125465 0.24073733 0
6.8750005 3.306062 0.24048479 0
6.8850002 3.2995412 0.24023227 0
6.8940005 3.2924705 0.24000497 0
6.9040003 3.2858791 0.23975246 0
6.9140005 3.2792521 0.23949991 0
6.9230003 3.2720799 0.23927264 0
6.9330006 3.2653825 0.23902011 0
6.9430003 3.2586486 0.23876756 0
6.9530005 3.2518792 0.23851503 0
6.9630003 3.2450733 0.2382625 0
6.9720006 3.2377319 0.23803522 0
6.9820004 3.2308557 0.2377827 0
6.5990005 3.4986329 0.2362729 0
6.6080003 3.4925809 0.2360294 0
6.6170006 3.4864969 0.23578587 0
6.6260004 3.4803803 0.23554236 0
6.6350002 3.474231 0.23529886 0
6.6430006 3.4674866 0.23508239 0
6.6520004 3.4612741 0.23483887 0
6.6610003 3.4550292 0.23459537 0
6.6700006 3.4487524 0.23435186 0
6.6790004 3.4424424 0.23410833 0
6.6880002 3.4361002 0.23386483 0
6.6970005 3.4297256 0.2336213 0
6.7070003 3.4238684 0.23335074 0
6.7160006 3.4174273 0.23310722 0
6.7250004 3.4109533 0.23286371 0
6.7340002 3.4044468 0.23262019 0
6.7430005 3.3979084 0.23237668 0
6.7520003 3.3913369 0.23213317 0
6.7620006 3.3852727 0.23186259 0
6.7710004 3.3786347 0.23161909 0
6.7800002 3.371964 0.23137556 0
6.7900004 3.3657949 0.23110498 0
6.7990003 3.3590579 0.23086149 0
6.8080006 3.3522882 0.23061796 0
6.8180003 3.3460145 0.23034739 0
6.8270006 3.3391783 0.23010388 0
6.8370004 3.332834 0.2298333 0
6.8460002 3.3259308 0.22958981 0
6.8560004 3.3195164 0.22931923 0
6.8650002 3.3125465 0.22907571 0
6.8750005 3.306062 0.22880514 0
6.8850002 3.2995412 0.22853458 0
6.8940005 3.2924705 0.22829105 0
6.9040003 3.2858791 0.22802049 0
6.9140005 3.2792521 0.22774991 0
6.9230003 3.2720799 0.2275064 0
6.9330006 3.2653825 0.22723581 0
6.9430003 3.2586486 0.22696525 0
6.9530005 3.2518792 0.22669469 0
6.9630003 3.2450733 0.22642413 0
6.9720006 3.2377319 0.22618058 0
6.9820004 3.2308557 0.22591002 0
6.5990005 3.4986329 0.2250911 0
6.6080003 3.4925809 0.22483136 0
6.6170006 3.4864969 0.2245716 0
6.6260004 3.4803803 0.22431186 0
6.6350002 3.474231 0.22405212 0
6.6430006 3.4674866 0.22382121 0
6.6520004 3.4612741 0.22356147 0
6.6610003 3.4550292 0.22330172 0
6.6700006 3.4487524 0.22304197 0
6.6790004 3.4424424 0.22278222 0
6.6880002 3.4361002 0.22252248 0
6.6970005 3.4297256 0.22226273 0
6.7070003 3.4238684 0.22197412 0
6.7160006 3.4174273 0.22171436 0
6.7250004 3.4109533 0.22145462 0
6.7340002 3.4044468 0.22119488 0
6.7430005 3.3979084 0.22093512 0
6.7520003 3.3913369 0.22067538 0
6.7620006 3.3852727 0.22038676 0
6.7710004 3.3786347 0.22012702 0
6.7800002 3.371964 0.21986727 0
6.7900004 3.3657949 0.21957865 0
6.7990003 3.3590579 0.21931891 0
6.8080006 3.3522882 0.21905915 0
6.8180003 3.3460145 0.21877056 0
6.8270006 3.3391783 0.21851081 0
6.8370004 3.332834 0.2182222 0
6.8460002 3.3259308 0.21796246 0
6.8560004 3.3195164 0.21767384 0
6.8650002 3.3125465 0.2174141 0
6.8750005 3.306062 0.21712548 0
6.8850002 3.2995412 0.21683687 0
6.8940005 3.2924705 0.21657711 0
6.9040003 3.2858791 0.21628852 0
6.9140005 3.2792521 0.2159999 0
6.9230003 3.2720799 0.21574016 0
6.9330006 3.2653825 0.21545154 0
6.9430003 3.2586486 0.21516295 0
6.9530005 3.2518792 0.21487433 0
6.9630003 3.2450733 0.21458572 0
6.9720006 3.2377319 0.21432596 0
6.9820004 3.2308557 0.21403736 0
6.5990005 3.4986329 0.2139093 0
6.6080003 3.4925809 0.21363331 0
6.6170006 3.4864969 0.21335731 0
6.6260004 3.4803803 0.21308134 0
6.6350002 3.474231 0.21280536 0
6.6430006 3.4674866 0.21256003 0
6.6520004 3.4612741 0.21228406 0
6.6610003 3.4550292 0.21200807 0
6.6700006 3.4487524 0.21173209 0
6.6790004 3.4424424 0.21145612 0
6.6880002 3.4361002 0.21118014 0
6.6970005 3.4297256 0.21090415 0
6.7070003 3.4238684 0.2105975 0
6.7160006 3.4174273 0.21032152 0
6.7250004 3.4109533 0.21004555 0
6.7340002 3.4044468 0.20976956 0
6.7430005 3.3979084 0.20949356 0
6.7520003 3.3913369 0.20921759 0
6.7620006 3.3852727 0.20891094 0
6.7710004 3.3786347 0.20863496 0
6.7800002 3.371964 0.20835899 0
6.7900004 3.3657949 0.20805232 0
6.7990003 3.3590579 0.20777634 0
6.8080006 3.3522882 0.20750037 0
6.8180003 3.3460145 0.20719372 0
6.8270006 3.3391783 0.20691772 0
6.8370004 3.332834 0.2066111 0
6.8460002 3.3259308 0.20633511 0
6.8560004 3.3195164 0.20602845 0
6.8650002 3.3125465 0.20575248 0
6.8750005 3.306062 0.20544583 0
6.8850002 3.2995412 0.20513918 0
6.8940005 3.2924705 0.20486319 0
6.9040003 3.2858791 0.20455655 0
6.9140005 3.2792521 0.20424989 0
6.9230003 3.2720799 0.20397392 0
6.9330006 3.2653825 0.20366727 0
6.9430003 3.2586486 0.20336063 0
6.9530005 3.2518792 0.20305397 0
6.9630003 3.2450733 0.20274733 0
6.9720006 3.2377319 0.20247135 0
6.9820004 3.2308557 0.20216469 0
6.5990005 3.4986329 0.20272748 0
6.6080003 3.4925809 0.20243527 0
6.6170006 3.4864969 0.20214304 0
6.6260004 3.4803803 0.20185083 0
6.6350002 3.474231 0.20155862 0
6.6430006 3.4674866 0.20129886 0
6.6520004 3.4612741 0.20100665 0
6.6610003 3.4550292 0.20071444 0
6.6700006 3.4487524 0.20042221 0
6.6790004 3.4424424 0.20013 0
6.6880002 3.4361002 0.19983779 0
6.6970005 3.4297256 0.19954556 0
6.7070003 3.4238684 0.1992209 0
6.7160006 3.4174273 0.19892865 0
6.7250004 3.4109533 0.19863644 0
6.7340002 3.4044468 0.19834423 0
6.7430005 3.3979084 0.198052 0
6.7520003 3.3913369 0.19775979 0
6.7620006 3.3852727 0.19743511 0
6.7710004 3.3786347 0.19714288 0
6.7800002 3.371964 0.19685067 0
6.7900004 3.3657949 0.19652599 0
6.7990003 3.3590579 0.19623376 0
6.8080006 3.3522882 0.19594155 0
6.8180003 3.3460145 0.19561687 0
6.8270006 3.3391783 0.19532464 0
6.8370004 3.332834 0.19499996 0
6.8460002 3.3259308 0.19470777 0
6.8560004 3.3195164 0.19438307 0
6.8650002 3.3125465 0.19409086 0
6.8750005 3.306062 0.19376616 0
6.8850002 3.2995412 0.19344148 0
6.8940005 3.2924705 0.19314927 0
6.9040003 3.2858791 0.19282457 0
6.9140005 3.2792521 0.19249989 0
6.9230003 3.2720799 0.19220768 0
6.9330006 3.2653825 0.19188298 0
6.9430003 3.2586486 0.19155832 0
6.9530005 3.2518792 0.19123361 0
6.9630003 3.2450733 0.19090894 0
6.9720006 3.2377319 0.19061671 0
6.9820004 3.2308557 0.19029203 0
6.5990005 3.4986329 0.19154568 0
6.6080003 3.4925809 0.19123723 0
6.6170006 3.4864969 0.19092877 0
6.6260004 3.4803803 0.19062032 0
6.6350002 3.474231 0.19031188 0
6.6430006 3.4674866 0.19003768 0
6.6520004 3.4612741 0.18972923 0
6.6610003 3.4550292 0.1894208 0
6.6700006 3.4487524 0.18911234 0
6.6790004 3.4424424 0.1888039 0
6.6880002 3.4361002 0.18849544 0
6.6970005 3.4297256 0.18818699 0
6.7070003 3.4238684 0.18784428 0
6.7160006 3.4174273 0.18753581 0
6.7250004 3.4109533 0.18722737 0
6.7340002 3.4044468 0.18691891 0
6.7430005 3.3979084 0.18661046 0
6.7520003 3.3913369 0.18630201 0
6.7620006 3.3852727 0.18595928 0
6.7710004 3.3786347 0.18565084 0
6.7800002 3.371964 0.18534239 0
6.7900004 3.3657949 0.18499966 0
6.7990003 3.3590579 0.18469122 0
6.8080006 3.3522882 0.18438275 0
6.8180003 3.3460145 0.18404004 0
6.8270006 3.3391783 0.18373157 0
6.8370004 3.332834 0.18338884 0
6.8460002 3.3259308 0.18308042 0
6.8560004 3.3195164 0.18273768 0
6.8650002 3.3125465 0.18242922 0
6.8750005 3.306062 0.1820865 0
6.8850002 3.2995412 0.18174379 0
6.8940005 3.2924705 0.18143533 0
6.9040003 3.2858791 0.1810926 0
6.9140005 3.2792521 0.18074988 0
6.9230003 3.2720799 0.18044144 0
6.9330006 3.2653825 0.18009871 0
6.9430003 3.2586486 0.179756 0
6.9530005 3.2518792 0.17941326 0
6.9630003 3.2450733 0.17907053 0
6.9720006 3.2377319 0.17876208 0
6.9820004 3.2308557 0.17841937 0
6.5990005 3.4986329 0.18036386 0
6.6080003 3.4925809 0.18003918 0
6.6170006 3.4864969 0.17971449 0
6.6260004 3.4803803 0.17938982 0
6.6350002 3.474231 0.17906512 0
6.6430006 3.4674866 0.17877652 0
6.6520004 3.4612741 0.17845182 0
6.6610003 3.4550292 0.17812715 0
6.6700006 3.4487524 0.17780246 0
6.6790004 3.4424424 0.17747778 0
6.6880002 3.4361002 0.1771531 0
6.6970005 3.4297256 0.1768284 0
6.7070003 3.4238684 0.17646766 0
6.7160006 3.4174273 0.17614296 0
6.7250004 3.4109533 0.17581826 0
6.7340002 3.4044468 0.1754936 0
6.7430005 3.3979084 0.1751689 0
6.7520003 3.3913369 0.17484421 0
6.7620006 3.3852727 0.17448345 0
6.7710004 3.3786347 0.17415877 0
6.7800002 3.371964 0.17383409 0
6.7900004 3.3657949 0.17347333 0
6.7990003 3.3590579 0.17314865 0
6.8080006 3.3522882 0.17282395 0
6.8180003 3.3460145 0.17246319 0
6.8270006 3.3391783 0.1721385 0
6.8370004 3.332834 0.17177774 0
6.8460002 3.3259308 0.17145307 0
6.8560004 3.3195164 0.17109229 0
6.8650002 3.3125465 0.17076762 0
6.8750005 3.306062 0.17040686 0
6.8850002 3.2995412 0.17004611 0
6.8940005 3.2924705 0.16972141 0
6.9040003 3.2858791 0.16936065 0
6.9140005 3.2792521 0.16899987 0
6.9230003 3.2720799 0.16867518 0
6.9330006 3.2653825 0.16831444 0
6.9430003 3.2586486 0.16795368 0
6.9530005 3.2518792 0.1675929 0
6.9630003 3.2450733 0.16723214 0
6.9720006 3.2377319 0.16690746 0
6.9820004 3.2308557 0.16654672 0
6.5990005 3.4986329 0.16918208 0
6.6080003 3.4925809 0.16884114 0
6.6170006 3.4864969 0.16850021 0
6.6260004 3.4803803 0.16815931 0
6.6350002 3.474231 0.1678184 0
6.6430006 3.4674866 0.16751534 0
6.6520004 3.4612741 0.16717443 0
6.6610003 3.4550292 0.16683351 0
6.6700006 3.4487524 0.16649257 0
6.6790004 3.4424424 0.16615166 0
6.6880002 3.4361002 0.16581075 0
6.6970005 3.4297256 0.16546981 0
6.7070003 3.4238684 0.16509102 0
6.7160006 3.4174273 0.16475008 0
6.7250004 3.4109533 0.16440918 0
6.7340002 3.4044468 0.16406827 0
6.7430005 3.3979084 0.16372736 0
6.7520003 3.3913369 0.16338643 0
6.7620006 3.3852727 0.16300763 0
6.7710004 3.3786347 0.16266672 0
6.7800002 3.371964 0.1623258 0
6.7900004 3.3657949 0.161947 0
6.7990003 3.3590579 0.16160609 0
6.8080006 3.3522882 0.16126515 0
6.8180003 3.3460145 0.16088636 0
6.8270006 3.3391783 0.16054542 0
6.8370004 3.332834 0.16016664 0
6.8460002 3.3259308 0.15982573 0
6.8560004 3.3195164 0.15944691 0
6.8650002 3.3125465 0.159106 0
6.8750005 3.306062 0.15872718 0
6.8850002 3.2995412 0.15834841 0
6.8940005 3.2924705 0.15800747 0
6.9040003 3.2858791 0.15762869 0
6.9140005 3.2792521 0.15724987 0
6.9230003 3.2720799 0.15690896 0
6.9330006 3.2653825 0.15653014 0
6.9430003 3.2586486 0.15615137 0
6.9530005 3.2518792 0.15577255 0
6.9630003 3.2450733 0.15539376 0
6.9720006 3.2377319 0.15505283 0
6.9820004 3.2308557 0.15467404 0
6.5990005 3.4986329 0.15800026 0
6.6080003 3.4925809 0.15764311 0
6.6170006 3.4864969 0.15728593 0
6.6260004 3.4803803 0.15692881 0
6.6350002 3.474231 0.15657166 0
6.6430006 3.4674866 0.15625417 0
6.6520004 3.4612741 0.15589702 0
6.6610003 3.4550292 0.15553987 0
6.6700006 3.4487524 0.15518272 0
6.6790004 3.4424424 0.15482557 0
6.6880002 3.4361002 0.15446842 0
6.6970005 3.4297256 0.15411124 0
6.7070003 3.4238684 0.15371442 0
6.7160006 3.4174273 0.15335724 0
6.7250004 3.4109533 0.15300009 0
6.7340002 3.4044468 0.15264294 0
6.7430005 3.3979084 0.15228578 0
6.7520003 3.3913369 0.15192863 0
6.7620006 3.3852727 0.15153182 0
6.7710004 3.3786347 0.15117466 0
6.7800002 3.371964 0.15081751 0
6.7900004 3.3657949 0.15042067 0
6.7990003 3.3590579 0.15006351 0
6.8080006 3.3522882 0.14970633 0
6.8180003 3.3460145 0.14930952 0
6.8270006 3.3391783 0.14895234 0
6.8370004 3.332834 0.14855552 0
6.8460002 3.3259308 0.14819837 0
6.8560004 3.3195164 0.14780152 0
6.8650002 3.3125465 0.14744437 0
6.8750005 3.306062 0.14704752 0
6.8850002 3.2995412 0.1466507 0
6.8940005 3.2924705 0.14629352 0
6.9040003 3.2858791 0.14589673 0
6.9140005 3.2792521 0.14549986 0
6.9230003 3.2720799 0.1451427 0
6.9330006 3.2653825 0.14474586 0
6.9430003 3.2586486 0.14434904 0
6.9530005 3.2518792 0.14395219 0
6.9630003 3.2450733 0.14355537 0
6.9720006 3.2377319 0.14319819 0
6.9820004 3.2308557 0.14280137 0
6.5990005 3.4986329 0.14681843 0
6.6080003 3.4925809 0.14644507 0
6.6170006 3.4864969 0.14607167 0
6.6260004 3.4803803 0.14569828 0
6.6350002 3.474231 0.14532492 0
6.6430006 3.4674866 0.14499301 0
6.6520004 3.4612741 0.14461961 0
6.6610003 3.4550292 0.14424622 0
6.6700006 3.4487524 0.14387283 0
6.6790004 3.4424424 0.14349943 0
6.6880002 3.4361002 0.14312604 0
6.6970005 3.4297256 0.14275265 0
6.7070003 3.4238684 0.1423378 0
6.7160006 3.4174273 0.14196441 0
6.7250004 3.4109533 0.14159101 0
6.7340002 3.4044468 0.14121762 0
6.7430005 3.3979084 0.14084423 0
6.7520003 3.3913369 0.14047083 0
6.7620006 3.3852727 0.14005598 0
6.7710004 3.3786347 0.13968259 0
6.7800002 3.371964 0.1393092 0
6.7900004 3.3657949 0.13889432 0
6.7990003 3.3590579 0.13852093 0
6.8080006 3.3522882 0.13814753 0
6.8180003 3.3460145 0.13773268 0
6.8270006 3.3391783 0.13735926 0
6.8370004 3.332834 0.13694438 0
6.8460002 3.3259308 0.13657102 0
6.8560004 3.3195164 0.13615614 0
6.8650002 3.3125465 0.13578275 0
6.8750005 3.306062 0.13536787 0
6.8850002 3.2995412 0.13495302 0
6.8940005 3.2924705 0.1345796 0
6.9040003 3.2858791 0.13416472 0
6.9140005 3.2792521 0.13374987 0
6.9230003 3.2720799 0.13337648 0
6.9330006 3.2653825 0.13296157 0
6.9430003 3.2586486 0.13254672 0
6.9530005 3.2518792 0.13213184 0
6.9630003 3.2450733 0.13171697 0
6.9720006 3.2377319 0.13134357 0
6.9820004 3.2308557 0.13092873 0
6.5990005 3.4986329 0.13563666 0
6.6080003 3.4925809 0.13524702 0
6.6170006 3.4864969 0.13485739 0
6.6260004 3.4803803 0.13446775 0
6.6350002 3.474231 0.13407817 0
6.6430006 3.4674866 0.13373181 0
6.6520004 3.4612741 0.13334221 0
6.6610003 3.4550292 0.13295257 0
6.6700006 3.4487524 0.13256294 0
6.6790004 3.4424424 0.13217333 0
6.6880002 3.4361002 0.13178372 0
6.6970005 3.4297256 0.13139409 0
6.7070003 3.4238684 0.13096115 0
6.7160006 3.4174273 0.13057154 0
6.7250004 3.4109533 0.13018194 0
6.7340002 3.4044468 0.1297923 0
6.7430005 3.3979084 0.12940267 0
6.7520003 3.3913369 0.12901306 0
6.7620006 3.3852727 0.12858012 0
6.7710004 3.3786347 0.12819052 0
6.7800002 3.371964 0.12780091 0
6.7900004 3.3657949 0.12736797 0
6.7990003 3.3590579 0.12697837 0
6.8080006 3.3522882 0.12658873 0
6.8180003 3.3460145 0.12615582 0
6.8270006 3.3391783 0.12576619 0
6.8370004 3.332834 0.12533328 0
6.8460002 3.3259308 0.12494367 0
6.8560004 3.3195164 0.12451077 0
6.8650002 3.3125465 0.12412113 0
6.8750005 3.306062 0.12368822 0
6.8850002 3.2995412 0.12325531 0
6.8940005 3.2924705 0.12286565 0
6.9040003 3.2858791 0.12243277 0
6.9140005 3.2792521 0.12199983 0
6.9230003 3.2720799 0.12161022 0
6.9330006 3.2653825 0.12117732 0
6.9430003 3.2586486 0.12074438 0
6.9530005 3.2518792 0.1203115 0
6.9630003 3.2450733 0.11987856 0
6.9720006 3.2377319 0.11948895 0
6.9820004 3.2308557 0.11905605 0
6.5990005 3.4986329 0.12445483 0
6.6080003 3.4925809 0.12404898 0
6.6170006 3.4864969 0.1236431 0
6.6260004 3.4803803 0.12323725 0
6.6350002 3.474231 0.12283143 0
6.6430006 3.4674866 0.12247065 0
6.6520004 3.4612741 0.1220648 0
6.6610003 3.4550292 0.12165892 0
6.6700006 3.4487524 0.12125307 0
6.6790004 3.4424424 0.12084723 0
6.6880002 3.4361002 0.12044138 0
6.6970005 3.4297256 0.1200355 0
6.7070003 3.4238684 0.11958456 0
6.7160006 3.4174273 0.11917868 0
6.7250004 3.4109533 0.11877286 0
6.7340002 3.4044468 0.11836699 0
6.7430005 3.3979084 0.11796111 0
6.7520003 3.3913369 0.11755526 0
6.7620006 3.3852727 0.11710429 0
6.7710004 3.3786347 0.11669844 0
6.7800002 3.371964 0.11629263 0
6.7900004 3.3657949 0.11584163 0
6.7990003 3.3590579 0.11543581 0
6.8080006 3.3522882 0.11502993 0
6.8180003 3.3460145 0.11457896 0
6.8270006 3.3391783 0.11417311 0
6.8370004 3.332834 0.11372218 0
6.8460002 3.3259308 0.11331633 0
6.8560004 3.3195164 0.11286536 0
6.8650002 3.3125465 0.11245951 0
6.8750005 3.306062 0.11200854 0
6.8850002 3.2995412 0.11155763 0
6.8940005 3.2924705 0.11115175 0
6.9040003 3.2858791 0.11070079 0
6.9140005 3.2792521 0.11024985 0
6.9230003 3.2720799 0.10984397 0
6.9330006 3.2653825 0.10939303 0
6.9430003 3.2586486 0.10894206 0
6.9530005 3.2518792 0.10849112 0
6.9630003 3.2450733 0.10804018 0
6.9720006 3.2377319 0.10763431 0
6.9820004 3.2308557 0.10718337 0
6.5990005 3.4986329 0.11327302 0
6.6080003 3.4925809 0.11285093 0
6.6170006 3.4864969 0.11242884 0
6.6260004 3.4803803 0.11200675 0
6.6350002 3.474231 0.11158466 0
6.6430006 3.4674866 0.11120948 0
6.6520004 3.4612741 0.11078739 0
6.6610003 3.4550292 0.11036527 0
6.6700006 3.4487524 0.10994318 0
6.6790004 3.4424424 0.10952109 0
6.6880002 3.4361002 0.10909903 0
6.6970005 3.4297256 0.10867691 0
6.7070003 3.4238684 0.10820794 0
6.7160006 3.4174273 0.10778582 0
6.7250004 3.4109533 0.10736373 0
6.7340002 3.4044468 0.10694167 0
6.7430005 3.3979084 0.10651955 0
6.7520003 3.3913369 0.10609749 0
6.7620006 3.3852727 0.10562846 0
6.7710004 3.3786347 0.1052064 0
6.7800002 3.371964 0.10478431 0
6.7900004 3.3657949 0.10431531 0
6.7990003 3.3590579 0.10389322 0
6.8080006 3.3522882 0.10347113 0
6.8180003 3.3460145 0.10300213 0
6.8270006 3.3391783 0.10258004 0
6.8370004 3.332834 0.10211107 0
6.8460002 3.3259308 0.10168898 0
6.8560004 3.3195164 0.10121998 0
6.8650002 3.3125465 0.10079792 0
6.8750005 3.306062 0.10032889 0
6.8850002 3.2995412 0.099859923 0
6.8940005 3.2924705 0.099437803 0
6.9040003 3.2858791 0.098968834 0
6.9140005 3.2792521 0.098499835 0
6.9230003 3.2720799 0.098077744 0
6.9330006 3.2653825 0.097608745 0
6.9430003 3.2586486 0.097139746 0
6.9530005 3.2518792 0.096670777 0
6.9630003 3.2450733 0.096201807 0
6.9720006 3.2377319 0.095779687 0
6.9820004 3.2308557 0.095310718 0
6.5990005 3.4986329 0.10209119 0
6.6080003 3.4925809 0.10165292 0
6.6170006 3.4864969 0.10121456 0
6.6260004 3.4803803 0.10077626 0
6.6350002 3.474231 0.10033792 0
6.6430006 3.4674866 0.099948287 0
6.6520004 3.4612741 0.099509954 0
6.6610003 3.4550292 0.099071652 0
6.6700006 3.4487524 0.098633319 0
6.6790004 3.4424424 0.098194987 0
6.6880002 3.4361002 0.097756684 0
6.6970005 3.4297256 0.097318321 0
6.7070003 3.4238684 0.096831322 0
6.7160006 3.4174273 0.096392989 0
6.7250004 3.4109533 0.095954657 0
6.7340002 3.4044468 0.095516354 0
6.7430005 3.3979084 0.095077991 0
6.7520003 3.3913369 0.094639689 0
6.7620006 3.3852727 0.094152629 0
6.7710004 3.3786347 0.093714327 0
6.7800002 3.371964 0.093275994 0
6.7900004 3.3657949 0.092788965 0
6.7990003 3.3590579 0.092350662 0
6.8080006 3.3522882 0.091912329 0
6.8180003 3.3460145 0.0914253 0
6.8270006 3.3391783 0.090986967 0
6.8370004 3.332834 0.090499938 0
6.8460002 3.3259308 0.090061635 0
6.8560004 3.3195164 0.089574575 0
6.8650002 3.3125465 0.089136273 0
6.8750005 3.306062 0.088649243 0
6.8850002 3.2995412 0.088162214 0
6.8940005 3.2924705 0.087723881 0
6.9040003 3.2858791 0.087236881 0
6.9140005 3.2792521 0.086749822 0
6.9230003 3.2720799 0.086311519 0
6.9330006 3.2653825 0.08582449 0
6.9430003 3.2586486 0.08533743 0
6.9530005 3.2518792 0.084850401 0
6.9630003 3.2450733 0.084363401 0
6.9720006 3.2377319 0.083925039 0
6.9820004 3.2308557 0.083438039 0
6.5990005 3.4986329 0.090909421 0
6.6080003 3.4925809 0.090454847 0
6.6170006 3.4864969 0.090000272 0
6.6260004 3.4803803 0.089545757 0
6.6350002 3.474231 0.089091182 0
6.6430006 3.4674866 0.088687092 0
6.6520004 3.4612741 0.088232547 0
6.6610003 3.4550292 0.087778032 0
6.6700006 3.4487524 0.087323427 0
6.6790004 3.4424424 0.086868882 0
6.6880002 3.4361002 0.086414337 0
6.6970005 3.4297256 0.085959762 0
6.7070003 3.4238684 0.085454702 0
6.7160006 3.4174273 0.085000128 0
6.7250004 3.4109533 0.084545583 0
6.7340002 3.4044468 0.084091008 0
6.7430005 3.3979084 0.083636463 0
6.7520003 3.3913369 0.083181918 0
6.7620006 3.3852727 0.082676828 0
6.7710004 3.3786347 0.082222283 0
6.7800002 3.371964 0.081767738 0
6.7900004 3.3657949 0.081262648 0
6.7990003 3.3590579 0.080808103 0
6.8080006 3.3522882 0.080353528 0
6.8180003 3.3460145 0.079848468 0
6.8270006 3.3391783 0.079393893 0
6.8370004 3.332834 0.078888834 0
6.8460002 3.3259308 0.078434289 0
6.8560004 3.3195164 0.077929199 0
6.8650002 3.3125465 0.077474654 0
6.8750005 3.306062 0.076969564 0
6.8850002 3.2995412 0.076464534 0
6.8940005 3.2924705 0.076009929 0
6.9040003 3.2858791 0.075504899 0
6.9140005 3.2792521 0.074999809 0
6.9230003 3.2720799 0.074545264 0
6.9330006 3.2653825 0.074040204 0
6.9430003 3.2586486 0.073535115 0
6.9530005 3.2518792 0.073030055 0
6.9630003 3.2450733 0.072524995 0
6.9720006 3.2377319 0.07207042 0
6.9820004 3.2308557 0.07156539 0
6.5990005 3.4986329 0.07972759 0
6.6080003 3.4925809 0.079256803 0
6.6170006 3.4864969 0.078786016 0
6.6260004 3.4803803 0.078315198 0
6.6350002 3.474231 0.077844441 0
6.6430006 3.4674866 0.077425927 0
6.6520004 3.4612741 0.07695514 0
6.6610003 3.4550292 0.076484382 0
6.6700006 3.4487524 0.076013535 0
6.6790004 3.4424424 0.075542778 0
6.6880002 3.4361002 0.07507199 0
6.6970005 3.4297256 0.074601173 0
6.7070003 3.4238684 0.074078083 0
6.7160006 3.4174273 0.073607266 0
6.7250004 3.4109533 0.073136508 0
6.7340002 3.4044468 0.072665691 0
6.7430005 3.3979084 0.072194904 0
6.7520003 3.3913369 0.071724117 0
6.7620006 3.3852727 0.071200997 0
6.7710004 3.3786347 0.070730209 0
6.7800002 3.371964 0.070259422 0
6.7900004 3.3657949 0.069736302 0
6.7990003 3.3590579 0.069265544 0
6.8080006 3.3522882 0.068794698 0
6.8180003 3.3460145 0.068271607 0
6.8270006 3.3391783 0.06780082 0
6.8370004 3.332834 0.06727773 0
6.8460002 3.3259308 0.066806942 0
6.8560004 3.3195164 0.066283822 0
6.8650002 3.3125465 0.065813035 0
6.8750005 3.306062 0.065289915 0
6.8850002 3.2995412 0.064766824 0
6.8940005 3.2924705 0.064296007 0
6.9040003 3.2858791 0.063772917 0
6.9140005 3.2792521 0.063249826 0
6.9230003 3.2720799 0.062779039 0
6.9330006 3.2653825 0.062255919 0
6.9430003 3.2586486 0.061732799 0
6.5990005 3.4986329 0.068545789 0
6.6080003 3.4925809 0.068058789 0
6.6170006 3.4864969 0.067571729 0
6.6260004 3.4803803 0.0670847 0
6.6350002 3.474231 0.0665977 0
6.6430006 3.4674866 0.066164762 0
6.6520004 3.4612741 0.065677732 0
6.6610003 3.4550292 0.065190732 0
6.6700006 3.4487524 0.064703703 0
6.6790004 3.4424424 0.064216644 0
6.6880002 3.4361002 0.063729644 0
6.6970005 3.4297256 0.063242584 0
6.7070003 3.4238684 0.062701464 0
6.7160006 3.4174273 0.062214434 0
6.7250004 3.4109533 0.061727405 0
6.7340002 3.4044468 0.061240375 0
6.7430005 3.3979084 0.060753345 0
6.7520003 3.3913369 0.060266316 0
6.7620006 3.3852727 0.059725165 0
6.7710004 3.3786347 0.059238166 0
6.7800002 3.371964 0.058751106 0
6.7900004 3.3657949 0.058209956 0
6.7990003 3.3590579 0.057722956 0
6.8080006 3.3522882 0.057235897 0
6.8180003 3.3460145 0.056694776 0
6.8270006 3.3391783 0.056207746 0
6.8370004 3.332834 0.055666596 0
6.8460002 3.3259308 0.055179596 0
6.8560004 3.3195164 0.054638445 0
6.5990005 3.4986329 0.057363987 0
6.6080003 3.4925809 0.056860745 0
6.6170006 3.4864969 0.056357443 0
6.6260004 3.4803803 0.055854201 0
6.6350002 3.474231 0.055350959 0
6.6430006 3.4674866 0.054903567 0
6.6520004 3.4612741 0.054400325 0
6.6610003 3.4550292 0.053897083 0
6.6700006 3.4487524 0.053393811 0
