# .PCD v0.7 - Point Cloud Data file format
VERSION 0.7
FIELDS x y z intensity
SIZE 4 4 4 4
TYPE F F F F
COUNT 1 1 1 1
WIDTH 1460
HEIGHT 1
VIEWPOINT 0 0 0 1 0 0 0
POINTS 1460
DATA ascii
3.1950002 -1.5131184 1.4425787 0
3.1880002 -1.514473 1.4399775 0
3.1820002 -1.516331 1.4377482 0
3.1760001 -1.5181671 1.4355186 0
3.1690001 -1.5194498 1.4329175 0
3.1630003 -1.5212411 1.430688 0
3.1570003 -1.5230105 1.4284585 0
3.1500003 -1.5242209 1.4258574 0
3.1440003 -1.5259453 1.423628 0
3.1380002 -1.5276481 1.4213984 0
3.1320002 -1.5293292 1.4191689 0
3.1260002 -1.5309887 1.4169394 0
3.1200001 -1.5326266 1.4147098 0
3.1140003 -1.5342429 1.4124804 0
3.1080003 -1.5358374 1.4102509 0
3.1020002 -1.5374104 1.4080213 0
3.0960002 -1.5389616 1.4057919 0
3.0900002 -1.5404912 1.4035623 0
3.0840001 -1.5419991 1.4013327 0
3.0780003 -1.5434855 1.3991033 0
3.0720003 -1.5449502 1.3968737 0
3.0660002 -1.5463933 1.3946443 0
3.0600002 -1.5478146 1.3924148 0
3.0540001 -1.5492144 1.3901852 0
3.0490003 -1.5511608 1.3883274 0
3.0430002 -1.552519 1.3860978 0
3.0370002 -1.5538555 1.3838683 0
3.0310001 -1.5551705 1.3816388 0
3.0260003 -1.5570394 1.379781 0
3.4550002 -1.4457011 1.5336801 0
3.4470003 -1.4475319 1.5307218 0
3.4390001 -1.4493339 1.5277635 0
3.4320002 -1.4515706 1.525175 0
3.4240003 -1.4533167 1.5222169 0
3.4170003 -1.4555012 1.5196284 0
3.4090002 -1.4571913 1.5166701 0
3.4020002 -1.4593234 1.5140817 0
3.3940003 -1.4609576 1.5111234 0
3.3870003 -1.4630375 1.5085349 0
3.3800004 -1.4650921 1.5059465 0
3.3720002 -1.4666432 1.5029882 0
3.3650002 -1.4686456 1.5003997 0
3.3580003 -1.4706225 1.4978113 0
3.3510003 -1.4725742 1.4952228 0
3.3440003 -1.4745007 1.4926344 0
3.3370001 -1.4764018 1.4900459 0
3.3290002 -1.477789 1.4870876 0
3.3220003 -1.479638 1.4844992 0
3.3150003 -1.4814616 1.4819107 0
3.3080003 -1.48326 1.4793223 0
3.3010001 -1.485033 1.4767338 0
3.2950003 -1.4872789 1.4745152 0
3.2880003 -1.4890034 1.4719267 0
3.2810001 -1.4907025 1.4693382 0
3.2740002 -1.4923763 1.4667498 0
3.2670002 -1.494025 1.4641613 0
3.2600002 -1.4956485 1.4615729 0
3.2540002 -1.4977553 1.459354 0
3.2470002 -1.4993302 1.4567657 0
3.2400002 -1.5008796 1.4541771 0
3.2340002 -1.5029178 1.4519585 0
3.2270002 -1.5044186 1.44937 0
3.2210002 -1.5064118 1.4471513 0
3.2140002 -1.5078639 1.4445629 0
3.2080002 -1.509812 1.4423442 0
3.2010002 -1.5112154 1.4397557 0
3.1950002 -1.5131184 1.4375371 0
3.1880002 -1.514473 1.4349486 0
3.1820002 -1.516331 1.4327298 0
3.1760001 -1.5181671 1.4305112 0
3.1690001 -1.5194498 1.4279227 0
3.1630003 -1.5212411 1.4257041 0
3.1570003 -1.5230105 1.4234854 0
3.1500003 -1.5242209 1.420897 0
3.1440003 -1.5259453 1.4186783 0
3.1380002 -1.5276481 1.4164596 0
3.1320002 -1.5293292 1.4142408 0
3.1260002 -1.5309887 1.4120222 0
3.1200001 -1.5326266 1.4098034 0
3.1140003 -1.5342429 1.4075849 0
3.1080003 -1.5358374 1.4053662 0
3.1020002 -1.5374104 1.4031475 0
3.0960002 -1.5389616 1.4009287 0
3.0900002 -1.5404912 1.39871 0
3.0840001 -1.5419991 1.3964914 0
3.0780003 -1.5434855 1.3942727 0
3.0720003 -1.5449502 1.392054 0
3.0660002 -1.5463933 1.3898354 0
3.0600002 -1.5478146 1.3876165 0
3.0540001 -1.5492144 1.3853979 0
3.0490003 -1.5511608 1.3835491 0
3.0430002 -1.552519 1.3813304 0
3.0370002 -1.5538555 1.3791116 0
3.0310001 -1.5551705 1.3768929 0
3.0260003 -1.5570394 1.3750441 0
3.4550002 -1.4457011 1.5281694 0
3.4470003 -1.4475319 1.5252255 0
3.4390001 -1.4493339 1.5222818 0
3.4320002 -1.4515706 1.5197059 0
3.4240003 -1.4533167 1.5167621 0
3.4170003 -1.4555012 1.5141863 0
3.4090002 -1.4571913 1.5112424 0
3.4020002 -1.4593234 1.5086666 0
3.3940003 -1.4609576 1.5057229 0
3.3870003 -1.4630375 1.503147 0
3.3800004 -1.4650921 1.5005711 0
3.3720002 -1.4666432 1.4976274 0
3.3650002 -1.4686456 1.4950515 0
3.3580003 -1.4706225 1.4924756 0
3.3510003 -1.4725742 1.4898999 0
3.3440003 -1.4745007 1.487324 0
3.3370001 -1.4764018 1.4847481 0
3.3290002 -1.477789 1.4818044 0
3.3220003 -1.479638 1.4792285 0
3.3150003 -1.4814616 1.4766526 0
3.3080003 -1.48326 1.4740769 0
3.3010001 -1.485033 1.471501 0
3.2950003 -1.4872789 1.4692931 0
3.2880003 -1.4890034 1.4667172 0
3.2810001 -1.4907025 1.4641414 0
3.2740002 -1.4923763 1.4615656 0
3.2670002 -1.494025 1.4589897 0
3.2600002 -1.4956485 1.4564139 0
3.2540002 -1.4977553 1.454206 0
3.2470002 -1.4993302 1.4516302 0
3.2400002 -1.5008796 1.4490544 0
3.2340002 -1.5029178 1.4468466 0
3.2270002 -1.5044186 1.4442706 0
3.2210002 -1.5064118 1.4420627 0
3.2140002 -1.5078639 1.439487 0
3.2080002 -1.509812 1.4372791 0
3.2010002 -1.5112154 1.4347034 0
3.1950002 -1.5131184 1.4324954 0
3.1880002 -1.514473 1.4299196 0
3.1820002 -1.516331 1.4277117 0
3.1760001 -1.5181671 1.4255038 0
3.1690001 -1.5194498 1.4229281 0
3.1630003 -1.5212411 1.4207202 0
3.1570003 -1.5230105 1.4185123 0
3.1500003 -1.5242209 1.4159365 0
3.1440003 -1.5259453 1.4137287 0
3.1380002 -1.5276481 1.4115207 0
3.1320002 -1.5293292 1.4093128 0
3.1260002 -1.5309887 1.407105 0
3.1200001 -1.5326266 1.4048971 0
3.1140003 -1.5342429 1.4026893 0
3.1080003 -1.5358374 1.4004813 0
3.1020002 -1.5374104 1.3982735 0
3.0960002 -1.5389616 1.3960656 0
3.0900002 -1.5404912 1.3938578 0
3.0840001 -1.5419991 1.39165 0
3.0780003 -1.5434855 1.3894422 0
3.0720003 -1.5449502 1.3872342 0
3.0660002 -1.5463933 1.3850263 0
3.0600002 -1.5478146 1.3828185 0
3.0540001 -1.5492144 1.3806106 0
3.0490003 -1.5511608 1.3787708 0
3.0430002 -1.552519 1.3765628 0
3.0370002 -1.5538555 1.374355 0
3.0310001 -1.5551705 1.3721471 0
3.0260003 -1.5570394 1.3703073 0
3.4550002 -1.4457011 1.5226588 0
3.4470003 -1.4475319 1.5197294 0
3.4390001 -1.4493339 1.5167999 0
3.4320002 -1.4515706 1.5142368 0
3.4240003 -1.4533167 1.5113074 0
3.4170003 -1.4555012 1.5087442 0
3.4090002 -1.4571913 1.5058148 0
3.4020002 -1.4593234 1.5032516 0
3.3940003 -1.4609576 1.5003222 0
3.3870003 -1.4630375 1.497759 0
3.3800004 -1.4650921 1.4951959 0
3.3720002 -1.4666432 1.4922664 0
3.3650002 -1.4686456 1.4897032 0
3.3580003 -1.4706225 1.4871401 0
3.3510003 -1.4725742 1.4845768 0
3.3440003 -1.4745007 1.4820137 0
3.3370001 -1.4764018 1.4794503 0
3.3290002 -1.477789 1.476521 0
3.3220003 -1.479638 1.4739578 0
3.3150003 -1.4814616 1.4713945 0
3.3080003 -1.48326 1.4688313 0
3.3010001 -1.485033 1.4662681 0
3.2950003 -1.4872789 1.4640712 0
3.2880003 -1.4890034 1.4615079 0
3.2810001 -1.4907025 1.4589447 0
3.2740002 -1.4923763 1.4563814 0
3.2670002 -1.494025 1.4538182 0
3.2600002 -1.4956485 1.451255 0
3.2540002 -1.4977553 1.4490579 0
3.2470002 -1.4993302 1.4464948 0
3.2400002 -1.5008796 1.4439316 0
3.2340002 -1.5029178 1.4417344 0
3.2270002 -1.5044186 1.4391713 0
3.2210002 -1.5064118 1.4369743 0
3.2140002 -1.5078639 1.434411 0
3.2080002 -1.509812 1.432214 0
3.2010002 -1.5112154 1.4296508 0
3.1950002 -1.5131184 1.4274538 0
3.1880002 -1.514473 1.4248906 0
3.1820002 -1.516331 1.4226935 0
3.1760001 -1.5181671 1.4204965 0
3.1690001 -1.5194498 1.4179332 0
3.1630003 -1.5212411 1.4157363 0
3.1570003 -1.5230105 1.4135392 0
3.1500003 -1.5242209 1.4109761 0
3.1440003 -1.5259453 1.408779 0
3.1380002 -1.5276481 1.4065819 0
3.1320002 -1.5293292 1.4043849 0
3.1260002 -1.5309887 1.4021877 0
3.1200001 -1.5326266 1.3999908 0
3.1140003 -1.5342429 1.3977938 0
3.1080003 -1.5358374 1.3955967 0
3.1020002 -1.5374104 1.3933997 0
3.0960002 -1.5389616 1.3912026 0
3.0900002 -1.5404912 1.3890055 0
3.0840001 -1.5419991 1.3868085 0
3.0780003 -1.5434855 1.3846115 0
3.0720003 -1.5449502 1.3824145 0
3.0660002 -1.5463933 1.3802173 0
3.0600002 -1.5478146 1.3780204 0
3.0540001 -1.5492144 1.3758234 0
3.0490003 -1.5511608 1.3739924 0
3.0430002 -1.552519 1.3717955 0
3.0370002 -1.5538555 1.3695984 0
3.0310001 -1.5551705 1.3674014 0
3.0260003 -1.5570394 1.3655705 0
3.4550002 -1.4457011 1.517148 0
3.4470003 -1.4475319 1.5142331 0
3.4390001 -1.4493339 1.5113182 0
3.4320002 -1.4515706 1.5087676 0
3.4240003 -1.4533167 1.5058527 0
3.4170003 -1.4555012 1.5033021 0
3.4090002 -1.4571913 1.5003871 0
3.4020002 -1.4593234 1.4978365 0
3.3940003 -1.4609576 1.4949216 0
3.3870003 -1.4630375 1.4923711 0
3.3800004 -1.4650921 1.4898205 0
3.3720002 -1.4666432 1.4869055 0
3.3650002 -1.4686456 1.484355 0
3.3580003 -1.4706225 1.4818044 0
3.3510003 -1.4725742 1.4792538 0
3.3440003 -1.4745007 1.4767032 0
3.3370001 -1.4764018 1.4741524 0
3.3290002 -1.477789 1.4712377 0
3.3220003 -1.479638 1.4686871 0
3.3150003 -1.4814616 1.4661365 0
3.3080003 -1.48326 1.463586 0
3.3010001 -1.485033 1.4610353 0
3.2950003 -1.4872789 1.4588491 0
3.2880003 -1.4890034 1.4562985 0
3.2810001 -1.4907025 1.4537479 0
3.2740002 -1.4923763 1.4511973 0
3.2670002 -1.494025 1.4486468 0
3.2600002 -1.4956485 1.4460962 0
3.2540002 -1.4977553 1.4439099 0
3.2470002 -1.4993302 1.4413593 0
3.2400002 -1.5008796 1.4388088 0
3.2340002 -1.5029178 1.4366225 0
3.2270002 -1.5044186 1.4340719 0
3.2210002 -1.5064118 1.4318857 0
3.2140002 -1.5078639 1.4293351 0
3.2080002 -1.509812 1.4271489 0
3.2010002 -1.5112154 1.4245983 0
3.1950002 -1.5131184 1.4224122 0
3.1880002 -1.514473 1.4198616 0
3.1820002 -1.516331 1.4176753 0
3.1760001 -1.5181671 1.4154891 0
3.1690001 -1.5194498 1.4129385 0
3.1630003 -1.5212411 1.4107523 0
3.1570003 -1.5230105 1.4085661 0
3.1500003 -1.5242209 1.4060156 0
3.1440003 -1.5259453 1.4038292 0
3.1380002 -1.5276481 1.4016432 0
3.1320002 -1.5293292 1.3994569 0
3.1260002 -1.5309887 1.3972707 0
3.1200001 -1.5326266 1.3950844 0
3.1140003 -1.5342429 1.3928982 0
3.1080003 -1.5358374 1.390712 0
3.1020002 -1.5374104 1.3885257 0
3.0960002 -1.5389616 1.3863395 0
3.0900002 -1.5404912 1.3841532 0
3.0840001 -1.5419991 1.3819671 0
3.0780003 -1.5434855 1.379781 0
3.0720003 -1.5449502 1.3775947 0
3.0660002 -1.5463933 1.3754085 0
3.0600002 -1.5478146 1.3732222 0
3.0540001 -1.5492144 1.3710361 0
3.0490003 -1.5511608 1.3692142 0
3.0430002 -1.552519 1.367028 0
3.0370002 -1.5538555 1.3648417 0
3.0310001 -1.5551705 1.3626555 0
3.0260003 -1.5570394 1.3608336 0
3.4620001 -1.443385 1.5141755 0
3.4550002 -1.4457011 1.5116374 0
3.4470003 -1.4475319 1.508737 0
3.4390001 -1.4493339 1.5058364 0
3.4320002 -1.4515706 1.5032985 0
3.4240003 -1.4533167 1.500398 0
3.4170003 -1.4555012 1.4978601 0
3.4090002 -1.4571913 1.4949595 0
3.4020002 -1.4593234 1.4924215 0
3.3940003 -1.4609576 1.489521 0
3.3870003 -1.4630375 1.4869831 0
3.3800004 -1.4650921 1.4844451 0
3.3720002 -1.4666432 1.4815445 0
3.3650002 -1.4686456 1.4790066 0
3.3580003 -1.4706225 1.4764687 0
3.3510003 -1.4725742 1.4739307 0
3.3440003 -1.4745007 1.4713928 0
3.3370001 -1.4764018 1.4688548 0
3.3290002 -1.477789 1.4659542 0
3.3220003 -1.479638 1.4634163 0
3.3150003 -1.4814616 1.4608784 0
3.3080003 -1.48326 1.4583404 0
3.3010001 -1.485033 1.4558024 0
3.2950003 -1.4872789 1.453627 0
3.2880003 -1.4890034 1.4510891 0
3.2810001 -1.4907025 1.4485511 0
3.2740002 -1.4923763 1.4460131 0
3.2670002 -1.494025 1.4434752 0
3.2600002 -1.4956485 1.4409373 0
3.2540002 -1.4977553 1.4387618 0
3.2470002 -1.4993302 1.4362239 0
3.2400002 -1.5008796 1.4336859 0
3.2340002 -1.5029178 1.4315106 0
3.2270002 -1.5044186 1.4289726 0
3.2210002 -1.5064118 1.4267972 0
3.2140002 -1.5078639 1.4242592 0
3.2080002 -1.509812 1.4220839 0
3.2010002 -1.5112154 1.4195459 0
3.1950002 -1.5131184 1.4173706 0
3.1880002 -1.514473 1.4148325 0
3.1820002 -1.516331 1.4126571 0
3.1760001 -1.5181671 1.4104817 0
3.1690001 -1.5194498 1.4079438 0
3.1630003 -1.5212411 1.4057684 0
3.1570003 -1.5230105 1.4035931 0
3.1500003 -1.5242209 1.4010551 0
3.1440003 -1.5259453 1.3988796 0
3.1380002 -1.5276481 1.3967042 0
3.1320002 -1.5293292 1.3945289 0
3.1260002 -1.5309887 1.3923534 0
3.1200001 -1.5326266 1.3901781 0
3.1140003 -1.5342429 1.3880026 0
3.1080003 -1.5358374 1.3858273 0
3.1020002 -1.5374104 1.383652 0
3.0960002 -1.5389616 1.3814764 0
3.0900002 -1.5404912 1.3793011 0
3.0840001 -1.5419991 1.3771256 0
3.0780003 -1.5434855 1.3749503 0
3.0720003 -1.5449502 1.372775 0
3.0660002 -1.5463933 1.3705995 0
3.0600002 -1.5478146 1.3684242 0
3.0540001 -1.5492144 1.3662486 0
3.0490003 -1.5511608 1.3644359 0
3.0430002 -1.552519 1.3622606 0
3.0370002 -1.5538555 1.360085 0
3.0310001 -1.5551705 1.3579097 0
3.0260003 -1.5570394 1.356097 0
3.4620001 -1.443385 1.5086522 0
3.4550002 -1.4457011 1.5061269 0
3.4470003 -1.4475319 1.5032408 0
3.4390001 -1.4493339 1.5003546 0
3.4320002 -1.4515706 1.4978293 0
3.4240003 -1.4533167 1.4949433 0
3.4170003 -1.4555012 1.4924179 0
3.4090002 -1.4571913 1.4895318 0
3.4020002 -1.4593234 1.4870065 0
3.3940003 -1.4609576 1.4841205 0
3.3870003 -1.4630375 1.481595 0
3.3800004 -1.4650921 1.4790698 0
3.3720002 -1.4666432 1.4761837 0
3.3650002 -1.4686456 1.4736583 0
3.3580003 -1.4706225 1.471133 0
3.3510003 -1.4725742 1.4686078 0
3.3440003 -1.4745007 1.4660823 0
3.3370001 -1.4764018 1.463557 0
3.3290002 -1.477789 1.4606709 0
3.3220003 -1.479638 1.4581456 0
3.3150003 -1.4814616 1.4556203 0
3.3080003 -1.48326 1.453095 0
3.3010001 -1.485033 1.4505695 0
3.2950003 -1.4872789 1.448405 0
3.2880003 -1.4890034 1.4458797 0
3.2810001 -1.4907025 1.4433544 0
3.2740002 -1.4923763 1.4408289 0
3.2670002 -1.494025 1.4383037 0
3.2600002 -1.4956485 1.4357783 0
3.2540002 -1.4977553 1.4336138 0
3.2470002 -1.4993302 1.4310884 0
3.2400002 -1.5008796 1.4285631 0
3.2340002 -1.5029178 1.4263986 0
3.2270002 -1.5044186 1.4238732 0
3.2210002 -1.5064118 1.4217086 0
3.2140002 -1.5078639 1.4191834 0
3.2080002 -1.509812 1.4170188 0
3.2010002 -1.5112154 1.4144934 0
3.1950002 -1.5131184 1.4123288 0
3.1880002 -1.514473 1.4098035 0
3.1820002 -1.516331 1.4076389 0
3.1760001 -1.5181671 1.4054743 0
3.1690001 -1.5194498 1.402949 0
3.1630003 -1.5212411 1.4007845 0
3.1570003 -1.5230105 1.3986199 0
3.1500003 -1.5242209 1.3960946 0
3.1440003 -1.5259453 1.39393 0
3.1380002 -1.5276481 1.3917655 0
3.1320002 -1.5293292 1.3896009 0
3.1260002 -1.5309887 1.3874363 0
3.1200001 -1.5326266 1.3852717 0
3.1140003 -1.5342429 1.3831072 0
3.1080003 -1.5358374 1.3809426 0
3.1020002 -1.5374104 1.378778 0
3.0960002 -1.5389616 1.3766134 0
3.0900002 -1.5404912 1.3744488 0
3.0840001 -1.5419991 1.3722842 0
3.0780003 -1.5434855 1.3701197 0
3.0720003 -1.5449502 1.3679551 0
3.0660002 -1.5463933 1.3657905 0
3.0600002 -1.5478146 1.363626 0
3.0540001 -1.5492144 1.3614614 0
3.0490003 -1.5511608 1.3596576 0
3.0430002 -1.552519 1.357493 0
3.0370002 -1.5538555 1.3553284 0
3.0310001 -1.5551705 1.3531638 0
3.0260003 -1.5570394 1.3513601 0
3.4620001 -1.443385 1.5031289 0
3.4550002 -1.4457011 1.5006162 0
3.4470003 -1.4475319 1.4977446 0
3.4390001 -1.4493339 1.4948728 0
3.4320002 -1.4515706 1.4923602 0
3.4240003 -1.4533167 1.4894886 0
3.4170003 -1.4555012 1.4869759 0
3.4090002 -1.4571913 1.4841042 0
3.4020002 -1.4593234 1.4815915 0
3.3940003 -1.4609576 1.4787198 0
3.3870003 -1.4630375 1.4762071 0
3.3800004 -1.4650921 1.4736944 0
3.3720002 -1.4666432 1.4708228 0
3.3650002 -1.4686456 1.46831 0
3.3580003 -1.4706225 1.4657973 0
3.3510003 -1.4725742 1.4632846 0
3.3440003 -1.4745007 1.460772 0
3.3370001 -1.4764018 1.4582592 0
3.3290002 -1.477789 1.4553876 0
3.3220003 -1.479638 1.4528749 0
3.3150003 -1.4814616 1.4503621 0
3.3080003 -1.48326 1.4478494 0
3.3010001 -1.485033 1.4453367 0
3.2950003 -1.4872789 1.4431831 0
3.2880003 -1.4890034 1.4406703 0
3.2810001 -1.4907025 1.4381576 0
3.2740002 -1.4923763 1.4356449 0
3.2670002 -1.494025 1.4331322 0
3.2600002 -1.4956485 1.4306195 0
3.2540002 -1.4977553 1.4284657 0
3.2470002 -1.4993302 1.425953 0
3.2400002 -1.5008796 1.4234403 0
3.2340002 -1.5029178 1.4212865 0
3.2270002 -1.5044186 1.4187738 0
3.2210002 -1.5064118 1.4166201 0
3.2140002 -1.5078639 1.4141074 0
3.2080002 -1.509812 1.4119536 0
3.2010002 -1.5112154 1.409441 0
3.1950002 -1.5131184 1.4072872 0
3.1880002 -1.514473 1.4047744 0
3.1820002 -1.516331 1.4026208 0
3.1760001 -1.5181671 1.4004669 0
3.1690001 -1.5194498 1.3979542 0
3.1630003 -1.5212411 1.3958006 0
3.1570003 -1.5230105 1.3936468 0
3.1500003 -1.5242209 1.3911341 0
3.1440003 -1.5259453 1.3889804 0
3.1380002 -1.5276481 1.3868266 0
3.1320002 -1.5293292 1.3846729 0
3.1260002 -1.5309887 1.382519 0
3.1200001 -1.5326266 1.3803654 0
3.1140003 -1.5342429 1.3782116 0
3.1080003 -1.5358374 1.3760579 0
3.1020002 -1.5374104 1.373904 0
3.0960002 -1.5389616 1.3717504 0
3.0900002 -1.5404912 1.3695966 0
3.0840001 -1.5419991 1.3674428 0
3.0780003 -1.5434855 1.3652892 0
3.0720003 -1.5449502 1.3631353 0
3.0660002 -1.5463933 1.3609816 0
3.0600002 -1.5478146 1.3588278 0
3.0540001 -1.5492144 1.3566741 0
3.0490003 -1.5511608 1.3548794 0
3.0430002 -1.552519 1.3527256 0
3.0370002 -1.5538555 1.3505718 0
3.0310001 -1.5551705 1.3484181 0
3.0260003 -1.5570394 1.3466233 0
3.4700003 -1.4414982 1.5004629 0
3.4620001 -1.443385 1.4976057 0
3.4550002 -1.4457011 1.4951056 0
3.4470003 -1.4475319 1.4922484 0
3.4390001 -1.4493339 1.4893911 0
3.4320002 -1.4515706 1.486891 0
3.4240003 -1.4533167 1.4840338 0
3.4170003 -1.4555012 1.4815338 0
3.4090002 -1.4571913 1.4786764 0
3.4020002 -1.4593234 1.4761764 0
3.3940003 -1.4609576 1.4733192 0
3.3870003 -1.4630375 1.4708191 0
3.3800004 -1.4650921 1.4683191 0
3.3720002 -1.4666432 1.4654619 0
3.3650002 -1.4686456 1.4629617 0
3.3580003 -1.4706225 1.4604616 0
3.3510003 -1.4725742 1.4579616 0
3.3440003 -1.4745007 1.4554615 0
3.3370001 -1.4764018 1.4529613 0
3.3290002 -1.477789 1.4501042 0
3.3220003 -1.479638 1.4476042 0
3.3150003 -1.4814616 1.4451041 0
3.3080003 -1.48326 1.4426041 0
3.3010001 -1.485033 1.4401039 0
3.2950003 -1.4872789 1.437961 0
3.2880003 -1.4890034 1.4354609 0
3.2810001 -1.4907025 1.4329607 0
3.2740002 -1.4923763 1.4304607 0
3.2670002 -1.494025 1.4279606 0
3.2600002 -1.4956485 1.4254606 0
3.2540002 -1.4977553 1.4233177 0
3.2470002 -1.4993302 1.4208176 0
3.2400002 -1.5008796 1.4183174 0
3.2340002 -1.5029178 1.4161745 0
3.2270002 -1.5044186 1.4136745 0
3.2210002 -1.5064118 1.4115316 0
3.2140002 -1.5078639 1.4090314 0
3.2080002 -1.509812 1.4068885 0
3.2010002 -1.5112154 1.4043884 0
3.1950002 -1.5131184 1.4022455 0
3.1880002 -1.514473 1.3997455 0
3.1820002 -1.516331 1.3976024 0
3.1760001 -1.5181671 1.3954595 0
3.1690001 -1.5194498 1.3929595 0
3.1630003 -1.5212411 1.3908166 0
3.1570003 -1.5230105 1.3886737 0
3.1500003 -1.5242209 1.3861736 0
3.1440003 -1.5259453 1.3840307 0
3.1380002 -1.5276481 1.3818878 0
3.1320002 -1.5293292 1.3797449 0
3.1260002 -1.5309887 1.3776019 0
3.1200001 -1.5326266 1.375459 0
3.1140003 -1.5342429 1.3733162 0
3.1080003 -1.5358374 1.3711731 0
3.1020002 -1.5374104 1.3690302 0
3.0960002 -1.5389616 1.3668873 0
3.0900002 -1.5404912 1.3647443 0
3.0840001 -1.5419991 1.3626014 0
3.0780003 -1.5434855 1.3604585 0
3.0720003 -1.5449502 1.3583156 0
3.0660002 -1.5463933 1.3561727 0
3.0600002 -1.5478146 1.3540297 0
3.0540001 -1.5492144 1.3518867 0
3.0490003 -1.5511608 1.350101 0
3.0430002 -1.552519 1.3479581 0
3.0370002 -1.5538555 1.3458152 0
3.0310001 -1.5551705 1.3436722 0
3.0260003 -1.5570394 1.3418865 0
3.4700003 -1.4414982 1.4949253 0
3.4620001 -1.443385 1.4920824 0
3.4550002 -1.4457011 1.4895949 0
3.4470003 -1.4475319 1.4867522 0
3.4390001 -1.4493339 1.4839092 0
3.4320002 -1.4515706 1.4814219 0
3.4240003 -1.4533167 1.4785792 0
3.4170003 -1.4555012 1.4760917 0
3.4090002 -1.4571913 1.4732488 0
3.4020002 -1.4593234 1.4707614 0
3.3940003 -1.4609576 1.4679186 0
3.3870003 -1.4630375 1.4654311 0
3.3800004 -1.4650921 1.4629438 0
3.3720002 -1.4666432 1.4601009 0
3.3650002 -1.4686456 1.4576135 0
3.3580003 -1.4706225 1.4551259 0
3.3510003 -1.4725742 1.4526386 0
3.3440003 -1.4745007 1.4501511 0
3.3370001 -1.4764018 1.4476635 0
3.3290002 -1.477789 1.4448208 0
3.3220003 -1.479638 1.4423335 0
3.3150003 -1.4814616 1.439846 0
3.3080003 -1.48326 1.4373585 0
3.3010001 -1.485033 1.434871 0
3.2950003 -1.4872789 1.432739 0
3.2880003 -1.4890034 1.4302515 0
3.2810001 -1.4907025 1.4277639 0
3.2740002 -1.4923763 1.4252766 0
3.2670002 -1.494025 1.4227891 0
3.2600002 -1.4956485 1.4203017 0
3.2540002 -1.4977553 1.4181696 0
3.2470002 -1.4993302 1.4156821 0
3.2400002 -1.5008796 1.4131947 0
3.2340002 -1.5029178 1.4110626 0
3.2270002 -1.5044186 1.4085751 0
3.2210002 -1.5064118 1.406443 0
3.2140002 -1.5078639 1.4039556 0
3.2080002 -1.509812 1.4018234 0
3.2010002 -1.5112154 1.399336 0
3.1950002 -1.5131184 1.3972038 0
3.1880002 -1.514473 1.3947164 0
3.1820002 -1.516331 1.3925843 0
3.1760001 -1.5181671 1.3904521 0
3.1690001 -1.5194498 1.3879647 0
3.1630003 -1.5212411 1.3858327 0
3.1570003 -1.5230105 1.3837006 0
3.1500003 -1.5242209 1.3812132 0
3.1440003 -1.5259453 1.3790811 0
3.1380002 -1.5276481 1.376949 0
3.1320002 -1.5293292 1.3748169 0
3.1260002 -1.5309887 1.3726847 0
3.1200001 -1.5326266 1.3705527 0
3.1140003 -1.5342429 1.3684205 0
3.1080003 -1.5358374 1.3662884 0
3.1020002 -1.5374104 1.3641562 0
3.0960002 -1.5389616 1.3620242 0
3.0900002 -1.5404912 1.359892 0
3.0840001 -1.5419991 1.35776 0
3.0780003 -1.5434855 1.3556279 0
3.0720003 -1.5449502 1.3534958 0
3.0660002 -1.5463933 1.3513637 0
3.0600002 -1.5478146 1.3492316 0
3.0540001 -1.5492144 1.3470994 0
3.0490003 -1.5511608 1.3453227 0
3.0430002 -1.552519 1.3431907 0
3.0370002 -1.5538555 1.3410585 0
3.0310001 -1.5551705 1.3389264 0
3.0260003 -1.5570394 1.3371497 0
3.4700003 -1.4414982 1.4893875 0
3.4620001 -1.443385 1.486559 0
3.4550002 -1.4457011 1.4840844 0
3.4470003 -1.4475319 1.481256 0
3.4390001 -1.4493339 1.4784275 0
3.4320002 -1.4515706 1.4759527 0
3.4240003 -1.4533167 1.4731244 0
3.4170003 -1.4555012 1.4706496 0
3.4090002 -1.4571913 1.4678212 0
3.4020002 -1.4593234 1.4653463 0
3.3940003 -1.4609576 1.462518 0
3.3870003 -1.4630375 1.4600432 0
3.3800004 -1.4650921 1.4575684 0
3.3720002 -1.4666432 1.4547399 0
3.3650002 -1.4686456 1.4522651 0
3.3580003 -1.4706225 1.4497904 0
3.3510003 -1.4725742 1.4473156 0
3.3440003 -1.4745007 1.4448407 0
3.3370001 -1.4764018 1.4423658 0
3.3290002 -1.477789 1.4395375 0
3.3220003 -1.479638 1.4370626 0
3.3150003 -1.4814616 1.4345878 0
3.3080003 -1.48326 1.4321131 0
3.3010001 -1.485033 1.4296381 0
3.2950003 -1.4872789 1.4275169 0
3.2880003 -1.4890034 1.4250422 0
3.2810001 -1.4907025 1.4225672 0
3.2740002 -1.4923763 1.4200925 0
3.2670002 -1.494025 1.4176176 0
3.2600002 -1.4956485 1.4151428 0
3.2540002 -1.4977553 1.4130216 0
3.2470002 -1.4993302 1.4105467 0
3.2400002 -1.5008796 1.4080719 0
3.2340002 -1.5029178 1.4059507 0
3.2270002 -1.5044186 1.4034758 0
3.2210002 -1.5064118 1.4013544 0
3.2140002 -1.5078639 1.3988795 0
3.2080002 -1.509812 1.3967583 0
3.2010002 -1.5112154 1.3942835 0
3.1950002 -1.5131184 1.3921622 0
3.1880002 -1.514473 1.3896874 0
3.1820002 -1.516331 1.3875662 0
3.1760001 -1.5181671 1.3854449 0
3.1690001 -1.5194498 1.38297 0
3.1630003 -1.5212411 1.3808488 0
3.1570003 -1.5230105 1.3787276 0
3.1500003 -1.5242209 1.3762528 0
3.1440003 -1.5259453 1.3741314 0
3.1380002 -1.5276481 1.3720101 0
3.1320002 -1.5293292 1.3698889 0
3.1260002 -1.5309887 1.3677676 0
3.1200001 -1.5326266 1.3656462 0
3.1140003 -1.5342429 1.363525 0
3.1080003 -1.5358374 1.3614038 0
3.1020002 -1.5374104 1.3592825 0
3.0960002 -1.5389616 1.3571612 0
3.0900002 -1.5404912 1.3550398 0
3.0840001 -1.5419991 1.3529186 0
3.0780003 -1.5434855 1.3507974 0
3.0720003 -1.5449502 1.3486761 0
3.0660002 -1.5463933 1.3465548 0
3.0600002 -1.5478146 1.3444335 0
3.0540001 -1.5492144 1.3423122 0
3.0490003 -1.5511608 1.3405445 0
3.0430002 -1.552519 1.3384231 0
3.0370002 -1.5538555 1.3363018 0
3.0310001 -1.5551705 1.3341806 0
3.0260003 -1.5570394 1.332413 0
3.4700003 -1.4414982 1.4838499 0
3.4620001 -1.443385 1.4810359 0
3.4550002 -1.4457011 1.4785737 0
3.4470003 -1.4475319 1.4757597 0
3.4390001 -1.4493339 1.4729457 0
3.4320002 -1.4515706 1.4704835 0
3.4240003 -1.4533167 1.4676697 0
3.4170003 -1.4555012 1.4652076 0
3.4090002 -1.4571913 1.4623935 0
3.4020002 -1.4593234 1.4599314 0
3.3940003 -1.4609576 1.4571174 0
3.3870003 -1.4630375 1.4546552 0
3.3800004 -1.4650921 1.452193 0
3.3720002 -1.4666432 1.4493791 0
3.3650002 -1.4686456 1.4469169 0
3.3580003 -1.4706225 1.4444547 0
3.3510003 -1.4725742 1.4419925 0
3.3440003 -1.4745007 1.4395304 0
3.3370001 -1.4764018 1.4370681 0
3.3290002 -1.477789 1.4342542 0
3.3220003 -1.479638 1.4317919 0
3.3150003 -1.4814616 1.4293298 0
3.3080003 -1.48326 1.4268676 0
3.3010001 -1.485033 1.4244053 0
3.2950003 -1.4872789 1.4222949 0
3.2880003 -1.4890034 1.4198327 0
3.2810001 -1.4907025 1.4173704 0
3.2740002 -1.4923763 1.4149083 0
3.2670002 -1.494025 1.412446 0
3.2600002 -1.4956485 1.4099839 0
3.2540002 -1.4977553 1.4078734 0
3.2470002 -1.4993302 1.4054112 0
3.2400002 -1.5008796 1.4029491 0
3.2340002 -1.5029178 1.4008385 0
3.2270002 -1.5044186 1.3983763 0
3.2210002 -1.5064118 1.3962659 0
3.2140002 -1.5078639 1.3938037 0
3.2080002 -1.509812 1.3916932 0
3.2010002 -1.5112154 1.389231 0
3.1950002 -1.5131184 1.3871206 0
3.1880002 -1.514473 1.3846585 0
3.1820002 -1.516331 1.3825479 0
3.1760001 -1.5181671 1.3804375 0
3.1690001 -1.5194498 1.3779752 0
3.1630003 -1.5212411 1.3758649 0
3.1570003 -1.5230105 1.3737544 0
3.1500003 -1.5242209 1.3712922 0
3.1440003 -1.5259453 1.3691818 0
3.1380002 -1.5276481 1.3670713 0
3.1320002 -1.5293292 1.3649609 0
3.1260002 -1.5309887 1.3628503 0
3.1200001 -1.5326266 1.3607399 0
3.1140003 -1.5342429 1.3586295 0
3.1080003 -1.5358374 1.3565191 0
3.1020002 -1.5374104 1.3544085 0
3.0960002 -1.5389616 1.3522981 0
3.0900002 -1.5404912 1.3501875 0
3.0840001 -1.5419991 1.3480772 0
3.0780003 -1.5434855 1.3459667 0
3.0720003 -1.5449502 1.3438563 0
3.0660002 -1.5463933 1.3417457 0
3.0600002 -1.5478146 1.3396354 0
3.0540001 -1.5492144 1.3375249 0
3.0490003 -1.5511608 1.3357662 0
3.0430002 -1.552519 1.3336557 0
3.0370002 -1.5538555 1.3315452 0
3.0310001 -1.5551705 1.3294348 0
3.0260003 -1.5570394 1.3276761 0
3.4700003 -1.4414982 1.4783121 0
3.4620001 -1.443385 1.4755126 0
3.4550002 -1.4457011 1.473063 0
3.4470003 -1.4475319 1.4702636 0
3.4390001 -1.4493339 1.467464 0
3.4320002 -1.4515706 1.4650145 0
3.4240003 -1.4533167 1.4622149 0
3.4170003 -1.4555012 1.4597654 0
3.4090002 -1.4571913 1.4569659 0
3.4020002 -1.4593234 1.4545163 0
3.3940003 -1.4609576 1.4517169 0
3.3870003 -1.4630375 1.4492673 0
3.3800004 -1.4650921 1.4468178 0
3.3720002 -1.4666432 1.4440181 0
3.3650002 -1.4686456 1.4415686 0
3.3580003 -1.4706225 1.4391191 0
3.3510003 -1.4725742 1.4366695 0
3.3440003 -1.4745007 1.43422 0
3.3370001 -1.4764018 1.4317703 0
3.3290002 -1.477789 1.4289708 0
3.3220003 -1.479638 1.4265212 0
3.3150003 -1.4814616 1.4240716 0
3.3080003 -1.48326 1.421622 0
3.3010001 -1.485033 1.4191724 0
3.2950003 -1.4872789 1.4170729 0
3.2880003 -1.4890034 1.4146233 0
3.2810001 -1.4907025 1.4121736 0
3.2740002 -1.4923763 1.4097241 0
3.2670002 -1.494025 1.4072745 0
3.2600002 -1.4956485 1.404825 0
3.2540002 -1.4977553 1.4027253 0
3.2470002 -1.4993302 1.4002757 0
3.2400002 -1.5008796 1.3978262 0
3.2340002 -1.5029178 1.3957266 0
3.2270002 -1.5044186 1.393277 0
3.2210002 -1.5064118 1.3911774 0
3.2140002 -1.5078639 1.3887278 0
3.2080002 -1.509812 1.3866282 0
3.2010002 -1.5112154 1.3841786 0
3.1950002 -1.5131184 1.382079 0
3.1880002 -1.514473 1.3796294 0
3.1820002 -1.516331 1.3775297 0
3.1760001 -1.5181671 1.3754301 0
3.1690001 -1.5194498 1.3729806 0
3.1630003 -1.5212411 1.370881 0
3.1570003 -1.5230105 1.3687813 0
3.1500003 -1.5242209 1.3663318 0
3.1440003 -1.5259453 1.3642322 0
3.1380002 -1.5276481 1.3621325 0
3.1320002 -1.5293292 1.3600328 0
3.1260002 -1.5309887 1.3579332 0
3.1200001 -1.5326266 1.3558335 0
3.1140003 -1.5342429 1.353734 0
3.1080003 -1.5358374 1.3516343 0
3.1020002 -1.5374104 1.3495346 0
3.0960002 -1.5389616 1.347435 0
3.0900002 -1.5404912 1.3453354 0
3.0840001 -1.5419991 1.3432357 0
3.0780003 -1.5434855 1.3411361 0
3.0720003 -1.5449502 1.3390365 0
3.0660002 -1.5463933 1.3369368 0
3.0600002 -1.5478146 1.3348372 0
3.0540001 -1.5492144 1.3327376 0
3.0490003 -1.5511608 1.3309878 0
3.0430002 -1.552519 1.3288882 0
3.0370002 -1.5538555 1.3267885 0
3.0310001 -1.5551705 1.3246889 0
3.0260003 -1.5570394 1.3229393 0
3.4700003 -1.4414982 1.4727744 0
3.4620001 -1.443385 1.4699893 0
3.4550002 -1.4457011 1.4675524 0
3.4470003 -1.4475319 1.4647673 0
3.4390001 -1.4493339 1.4619821 0
3.4320002 -1.4515706 1.4595454 0
3.4240003 -1.4533167 1.4567603 0
3.4170003 -1.4555012 1.4543234 0
3.4090002 -1.4571913 1.4515382 0
3.4020002 -1.4593234 1.4491013 0
3.3940003 -1.4609576 1.4463162 0
3.3870003 -1.4630375 1.4438792 0
3.3800004 -1.4650921 1.4414424 0
3.3720002 -1.4666432 1.4386572 0
3.3650002 -1.4686456 1.4362203 0
3.3580003 -1.4706225 1.4337834 0
3.3510003 -1.4725742 1.4313464 0
3.3440003 -1.4745007 1.4289094 0
3.3370001 -1.4764018 1.4264724 0
3.3290002 -1.477789 1.4236873 0
3.3220003 -1.479638 1.4212505 0
3.3150003 -1.4814616 1.4188136 0
3.3080003 -1.48326 1.4163766 0
3.3010001 -1.485033 1.4139396 0
3.2950003 -1.4872789 1.4118509 0
3.2880003 -1.4890034 1.4094139 0
3.2810001 -1.4907025 1.4069769 0
3.2740002 -1.4923763 1.4045399 0
3.2670002 -1.494025 1.4021029 0
3.2600002 -1.4956485 1.3996661 0
3.2540002 -1.4977553 1.3975773 0
3.2470002 -1.4993302 1.3951403 0
3.2400002 -1.5008796 1.3927034 0
3.2340002 -1.5029178 1.3906146 0
3.2270002 -1.5044186 1.3881776 0
3.2210002 -1.5064118 1.3860887 0
3.2140002 -1.5078639 1.383652 0
3.2080002 -1.509812 1.3815631 0
3.2010002 -1.5112154 1.3791261 0
3.1950002 -1.5131184 1.3770373 0
3.1880002 -1.514473 1.3746004 0
3.1820002 -1.516331 1.3725115 0
3.1760001 -1.5181671 1.3704227 0
3.1690001 -1.5194498 1.3679857 0
3.1630003 -1.5212411 1.3658971 0
3.1570003 -1.5230105 1.3638082 0
3.1500003 -1.5242209 1.3613713 0
3.1440003 -1.5259453 1.3592825 0
3.1380002 -1.5276481 1.3571936 0
3.1320002 -1.5293292 1.3551048 0
3.1260002 -1.5309887 1.353016 0
3.1200001 -1.5326266 1.3509272 0
3.1140003 -1.5342429 1.3488384 0
3.1080003 -1.5358374 1.3467495 0
3.1020002 -1.5374104 1.3446608 0
3.0960002 -1.5389616 1.3425719 0
3.0900002 -1.5404912 1.3404831 0
3.0840001 -1.5419991 1.3383943 0
3.0780003 -1.5434855 1.3363056 0
3.0720003 -1.5449502 1.3342167 0
3.0660002 -1.5463933 1.3321279 0
3.0600002 -1.5478146 1.330039 0
3.0540001 -1.5492144 1.3279502 0
3.0490003 -1.5511608 1.3262095 0
3.0430002 -1.552519 1.3241208 0
3.0370002 -1.5538555 1.322032 0
3.0310001 -1.5551705 1.3199432 0
3.0260003 -1.5570394 1.3182025 0
3.4700003 -1.4414982 1.4672369 0
3.4620001 -1.443385 1.4644661 0
3.4550002 -1.4457011 1.4620417 0
3.4470003 -1.4475319 1.4592712 0
3.4390001 -1.4493339 1.4565005 0
3.4320002 -1.4515706 1.4540762 0
3.4240003 -1.4533167 1.4513055 0
3.4170003 -1.4555012 1.4488813 0
3.4090002 -1.4571913 1.4461106 0
3.4020002 -1.4593234 1.4436862 0
3.3940003 -1.4609576 1.4409156 0
3.3870003 -1.4630375 1.4384912 0
3.3800004 -1.4650921 1.436067 0
3.3720002 -1.4666432 1.4332963 0
3.3650002 -1.4686456 1.430872 0
3.3580003 -1.4706225 1.4284477 0
3.3510003 -1.4725742 1.4260234 0
3.3440003 -1.4745007 1.4235991 0
3.3370001 -1.4764018 1.4211746 0
3.3290002 -1.477789 1.4184041 0
3.3220003 -1.479638 1.4159797 0
3.3150003 -1.4814616 1.4135555 0
3.3080003 -1.48326 1.4111311 0
3.3010001 -1.485033 1.4087068 0
3.2950003 -1.4872789 1.4066288 0
3.2880003 -1.4890034 1.4042045 0
3.2810001 -1.4907025 1.40178 0
3.2740002 -1.4923763 1.3993558 0
3.2670002 -1.494025 1.3969314 0
3.2600002 -1.4956485 1.3945072 0
3.2540002 -1.4977553 1.3924292 0
3.2470002 -1.4993302 1.3900049 0
3.2400002 -1.5008796 1.3875805 0
3.2340002 -1.5029178 1.3855026 0
3.2270002 -1.5044186 1.3830783 0
3.2210002 -1.5064118 1.3810003 0
3.2140002 -1.5078639 1.3785759 0
3.2080002 -1.509812 1.3764979 0
3.2010002 -1.5112154 1.3740736 0
3.1950002 -1.5131184 1.3719957 0
3.1880002 -1.514473 1.3695713 0
3.1820002 -1.516331 1.3674934 0
3.1760001 -1.5181671 1.3654153 0
3.1690001 -1.5194498 1.362991 0
3.1630003 -1.5212411 1.360913 0
3.1570003 -1.5230105 1.3588351 0
3.1500003 -1.5242209 1.3564109 0
3.1440003 -1.5259453 1.3543328 0
3.1380002 -1.5276481 1.3522549 0
3.1320002 -1.5293292 1.3501768 0
3.1260002 -1.5309887 1.3480989 0
3.1200001 -1.5326266 1.3460208 0
3.1140003 -1.5342429 1.3439428 0
3.1080003 -1.5358374 1.3418648 0
3.1020002 -1.5374104 1.3397869 0
3.0960002 -1.5389616 1.3377088 0
3.0900002 -1.5404912 1.3356308 0
3.0840001 -1.5419991 1.3335528 0
3.0780003 -1.5434855 1.3314749 0
3.0720003 -1.5449502 1.329397 0
3.0660002 -1.5463933 1.3273189 0
3.0600002 -1.5478146 1.325241 0
3.0540001 -1.5492144 1.3231629 0
3.0490003 -1.5511608 1.3214313 0
3.0430002 -1.552519 1.3193533 0
3.0370002 -1.5538555 1.3172753 0
3.0310001 -1.5551705 1.3151973 0
3.0260003 -1.5570394 1.3134657 0
3.4620001 -1.443385 1.4589428 0
3.4550002 -1.4457011 1.4565312 0
3.4470003 -1.4475319 1.453775 0
3.4390001 -1.4493339 1.4510187 0
3.4320002 -1.4515706 1.448607 0
3.4240003 -1.4533167 1.4458508 0
3.4170003 -1.4555012 1.4434391 0
3.4090002 -1.4571913 1.4406829 0
3.4020002 -1.4593234 1.4382712 0
3.3940003 -1.4609576 1.435515 0
3.3870003 -1.4630375 1.4331033 0
3.3800004 -1.4650921 1.4306917 0
3.3720002 -1.4666432 1.4279354 0
3.3650002 -1.4686456 1.4255236 0
3.3580003 -1.4706225 1.423112 0
3.3510003 -1.4725742 1.4207003 0
3.3440003 -1.4745007 1.4182887 0
3.3370001 -1.4764018 1.4158769 0
3.3290002 -1.477789 1.4131207 0
3.3220003 -1.479638 1.410709 0
3.3150003 -1.4814616 1.4082973 0
3.3080003 -1.48326 1.4058857 0
3.3010001 -1.485033 1.4034739 0
3.2950003 -1.4872789 1.4014069 0
3.2880003 -1.4890034 1.398995 0
3.2810001 -1.4907025 1.3965833 0
3.2740002 -1.4923763 1.3941717 0
3.2670002 -1.494025 1.39176 0
3.2600002 -1.4956485 1.3893483 0
3.2540002 -1.4977553 1.3872811 0
3.2470002 -1.4993302 1.3848695 0
3.2400002 -1.5008796 1.3824577 0
3.2340002 -1.5029178 1.3803905 0
3.2270002 -1.5044186 1.3779789 0
3.2210002 -1.5064118 1.3759117 0
3.2140002 -1.5078639 1.3735 0
3.2080002 -1.509812 1.3714328 0
3.2010002 -1.5112154 1.3690212 0
3.1950002 -1.5131184 1.3669541 0
3.1880002 -1.514473 1.3645422 0
3.1820002 -1.516331 1.3624752 0
3.1760001 -1.5181671 1.3604079 0
3.1690001 -1.5194498 1.3579963 0
3.1630003 -1.5212411 1.3559291 0
3.1570003 -1.5230105 1.353862 0
3.1500003 -1.5242209 1.3514503 0
3.1440003 -1.5259453 1.3493832 0
3.1380002 -1.5276481 1.3473159 0
3.1320002 -1.5293292 1.3452488 0
3.1260002 -1.5309887 1.3431816 0
3.1200001 -1.5326266 1.3411144 0
3.1140003 -1.5342429 1.3390473 0
3.1080003 -1.5358374 1.3369801 0
3.1020002 -1.5374104 1.334913 0
3.0960002 -1.5389616 1.3328458 0
3.0900002 -1.5404912 1.3307787 0
3.0840001 -1.5419991 1.3287114 0
3.0780003 -1.5434855 1.3266443 0
3.0720003 -1.5449502 1.3245771 0
3.0660002 -1.5463933 1.32251 0
3.0600002 -1.5478146 1.3204428 0
3.0540001 -1.5492144 1.3183756 0
3.0490003 -1.5511608 1.316653 0
3.0430002 -1.552519 1.3145858 0
3.0370002 -1.5538555 1.3125187 0
3.0310001 -1.5551705 1.3104515 0
3.0260003 -1.5570394 1.3087289 0
3.4550002 -1.4457011 1.4510205 0
3.4470003 -1.4475319 1.4482788 0
3.4390001 -1.4493339 1.445537 0
3.4320002 -1.4515706 1.4431379 0
3.4240003 -1.4533167 1.4403962 0
3.4170003 -1.4555012 1.4379971 0
3.4090002 -1.4571913 1.4352553 0
3.4020002 -1.4593234 1.4328562 0
3.3940003 -1.4609576 1.4301144 0
3.3870003 -1.4630375 1.4277153 0
3.3800004 -1.4650921 1.4253163 0
3.3720002 -1.4666432 1.4225745 0
3.3650002 -1.4686456 1.4201754 0
3.3580003 -1.4706225 1.4177763 0
3.3510003 -1.4725742 1.4153774 0
3.3440003 -1.4745007 1.4129783 0
3.3370001 -1.4764018 1.4105792 0
3.3290002 -1.477789 1.4078374 0
3.3220003 -1.479638 1.4054383 0
3.3150003 -1.4814616 1.4030392 0
3.3080003 -1.48326 1.4006401 0
3.3010001 -1.485033 1.398241 0
3.2950003 -1.4872789 1.3961848 0
3.2880003 -1.4890034 1.3937857 0
3.2810001 -1.4907025 1.3913866 0
3.2740002 -1.4923763 1.3889875 0
3.2670002 -1.494025 1.3865885 0
3.2600002 -1.4956485 1.3841894 0
3.2540002 -1.4977553 1.382133 0
3.2470002 -1.4993302 1.379734 0
3.2400002 -1.5008796 1.377335 0
3.2340002 -1.5029178 1.3752786 0
3.2270002 -1.5044186 1.3728795 0
3.2210002 -1.5064118 1.3708231 0
3.2140002 -1.5078639 1.3684242 0
3.2080002 -1.509812 1.3663678 0
3.2010002 -1.5112154 1.3639687 0
3.1950002 -1.5131184 1.3619123 0
3.1880002 -1.514473 1.3595133 0
3.1820002 -1.516331 1.3574569 0
3.1760001 -1.5181671 1.3554006 0
3.1690001 -1.5194498 1.3530015 0
3.1630003 -1.5212411 1.3509452 0
3.1570003 -1.5230105 1.3488889 0
3.1500003 -1.5242209 1.3464899 0
3.1440003 -1.5259453 1.3444335 0
3.1380002 -1.5276481 1.3423772 0
3.1320002 -1.5293292 1.3403208 0
3.1260002 -1.5309887 1.3382645 0
3.1200001 -1.5326266 1.336208 0
3.1140003 -1.5342429 1.3341517 0
3.1080003 -1.5358374 1.3320954 0
3.1020002 -1.5374104 1.330039 0
3.0960002 -1.5389616 1.3279827 0
3.0900002 -1.5404912 1.3259264 0
3.0840001 -1.5419991 1.3238699 0
3.0780003 -1.5434855 1.3218137 0
3.0720003 -1.5449502 1.3197573 0
3.0660002 -1.5463933 1.3177011 0
3.0600002 -1.5478146 1.3156447 0
3.0540001 -1.5492144 1.3135884 0
3.0490003 -1.5511608 1.3118747 0
3.0430002 -1.552519 1.3098184 0
3.0370002 -1.5538555 1.307762 0
3.0310001 -1.5551705 1.3057057 0
3.0260003 -1.5570394 1.3039922 0
3.4470003 -1.4475319 1.4427826 0
3.4390001 -1.4493339 1.4400553 0
3.4320002 -1.4515706 1.4376688 0
3.4240003 -1.4533167 1.4349414 0
3.4170003 -1.4555012 1.432555 0
3.4090002 -1.4571913 1.4298276 0
3.4020002 -1.4593234 1.4274411 0
3.3940003 -1.4609576 1.4247139 0
3.3870003 -1.4630375 1.4223274 0
3.3800004 -1.4650921 1.4199409 0
3.3720002 -1.4666432 1.4172136 0
3.3650002 -1.4686456 1.4148271 0
3.3580003 -1.4706225 1.4124407 0
3.3510003 -1.4725742 1.4100542 0
3.3440003 -1.4745007 1.4076678 0
3.3370001 -1.4764018 1.4052813 0
3.3290002 -1.477789 1.402554 0
3.3220003 -1.479638 1.4001676 0
3.3150003 -1.4814616 1.3977811 0
3.3080003 -1.48326 1.3953947 0
3.3010001 -1.485033 1.3930082 0
3.2950003 -1.4872789 1.3909627 0
3.2880003 -1.4890034 1.3885763 0
3.2810001 -1.4907025 1.3861898 0
3.2740002 -1.4923763 1.3838034 0
3.2670002 -1.494025 1.3814169 0
3.2600002 -1.4956485 1.3790306 0
3.2540002 -1.4977553 1.376985 0
3.2470002 -1.4993302 1.3745985 0
3.2400002 -1.5008796 1.3722121 0
3.2340002 -1.5029178 1.3701667 0
3.2270002 -1.5044186 1.3677802 0
3.2210002 -1.5064118 1.3657346 0
3.2140002 -1.5078639 1.3633481 0
3.2080002 -1.509812 1.3613027 0
3.2010002 -1.5112154 1.3589163 0
3.1950002 -1.5131184 1.3568707 0
3.1880002 -1.514473 1.3544843 0
3.1820002 -1.516331 1.3524388 0
3.1760001 -1.5181671 1.3503932 0
3.1690001 -1.5194498 1.3480067 0
3.1630003 -1.5212411 1.3459613 0
3.1570003 -1.5230105 1.3439158 0
3.1500003 -1.5242209 1.3415294 0
3.1440003 -1.5259453 1.3394839 0
3.1380002 -1.5276481 1.3374383 0
3.1320002 -1.5293292 1.3353928 0
3.1260002 -1.5309887 1.3333472 0
3.1200001 -1.5326266 1.3313017 0
3.1140003 -1.5342429 1.3292563 0
3.1080003 -1.5358374 1.3272108 0
3.1020002 -1.5374104 1.3251653 0
3.0960002 -1.5389616 1.3231196 0
3.0900002 -1.5404912 1.3210741 0
3.0840001 -1.5419991 1.3190286 0
3.0780003 -1.5434855 1.3169831 0
3.0720003 -1.5449502 1.3149376 0
3.0660002 -1.5463933 1.3128921 0
3.0600002 -1.5478146 1.3108466 0
3.0540001 -1.5492144 1.3088011 0
3.0490003 -1.5511608 1.3070965 0
3.0430002 -1.552519 1.305051 0
3.0370002 -1.5538555 1.3030053 0
3.0310001 -1.5551705 1.3009598 0
3.0260003 -1.5570394 1.2992553 0
3.4390001 -1.4493339 1.4345734 0
3.4320002 -1.4515706 1.4321995 0
3.4240003 -1.4533167 1.4294866 0
3.4170003 -1.4555012 1.4271129 0
3.4090002 -1.4571913 1.4243999 0
3.4020002 -1.4593234 1.4220262 0
3.3940003 -1.4609576 1.4193132 0
3.3870003 -1.4630375 1.4169394 0
3.3800004 -1.4650921 1.4145656 0
3.3720002 -1.4666432 1.4118526 0
3.3650002 -1.4686456 1.4094789 0
3.3580003 -1.4706225 1.407105 0
3.3510003 -1.4725742 1.4047312 0
3.3440003 -1.4745007 1.4023575 0
3.3370001 -1.4764018 1.3999835 0
3.3290002 -1.477789 1.3972707 0
3.3220003 -1.479638 1.3948969 0
3.3150003 -1.4814616 1.3925229 0
3.3080003 -1.48326 1.3901492 0
3.3010001 -1.485033 1.3877753 0
3.2950003 -1.4872789 1.3857408 0
3.2880003 -1.4890034 1.3833668 0
3.2810001 -1.4907025 1.380993 0
3.2740002 -1.4923763 1.3786192 0
3.2670002 -1.494025 1.3762455 0
3.2600002 -1.4956485 1.3738717 0
3.2540002 -1.4977553 1.3718369 0
3.2470002 -1.4993302 1.3694631 0
3.2400002 -1.5008796 1.3670894 0
3.2340002 -1.5029178 1.3650546 0
3.2270002 -1.5044186 1.3626808 0
3.2210002 -1.5064118 1.3606461 0
3.2140002 -1.5078639 1.3582723 0
3.2080002 -1.509812 1.3562375 0
3.2010002 -1.5112154 1.3538637 0
3.1950002 -1.5131184 1.3518291 0
3.1880002 -1.514473 1.3494554 0
3.1820002 -1.516331 1.3474206 0
3.1760001 -1.5181671 1.3453858 0
3.1690001 -1.5194498 1.3430121 0
3.1630003 -1.5212411 1.3409774 0
3.1570003 -1.5230105 1.3389428 0
3.1500003 -1.5242209 1.336569 0
3.1440003 -1.5259453 1.3345342 0
3.1380002 -1.5276481 1.3324995 0
3.1320002 -1.5293292 1.3304648 0
3.1260002 -1.5309887 1.3284301 0
3.1200001 -1.5326266 1.3263954 0
3.1140003 -1.5342429 1.3243607 0
3.1080003 -1.5358374 1.3223261 0
3.1020002 -1.5374104 1.3202913 0
3.0960002 -1.5389616 1.3182566 0
3.0900002 -1.5404912 1.3162218 0
3.0840001 -1.5419991 1.3141872 0
3.0780003 -1.5434855 1.3121526 0
3.0720003 -1.5449502 1.3101178 0
3.0660002 -1.5463933 1.3080832 0
3.0600002 -1.5478146 1.3060484 0
3.0540001 -1.5492144 1.3040137 0
3.0490003 -1.5511608 1.3023182 0
3.0430002 -1.552519 1.3002834 0
3.0370002 -1.5538555 1.2982488 0
3.0310001 -1.5551705 1.2962141 0
3.0260003 -1.5570394 1.2945185 0
3.4320002 -1.4515706 1.4267304 0
3.4240003 -1.4533167 1.424032 0
3.4170003 -1.4555012 1.4216708 0
3.4090002 -1.4571913 1.4189721 0
3.4020002 -1.4593234 1.4166111 0
3.3940003 -1.4609576 1.4139127 0
3.3870003 -1.4630375 1.4115514 0
3.3800004 -1.4650921 1.4091903 0
3.3720002 -1.4666432 1.4064918 0
3.3650002 -1.4686456 1.4041306 0
3.3580003 -1.4706225 1.4017694 0
3.3510003 -1.4725742 1.3994081 0
3.3440003 -1.4745007 1.397047 0
3.3370001 -1.4764018 1.3946857 0
3.3290002 -1.477789 1.3919873 0
3.3220003 -1.479638 1.389626 0
3.3150003 -1.4814616 1.387265 0
3.3080003 -1.48326 1.3849037 0
3.3010001 -1.485033 1.3825425 0
3.2950003 -1.4872789 1.3805187 0
3.2880003 -1.4890034 1.3781575 0
3.2810001 -1.4907025 1.3757963 0
3.2740002 -1.4923763 1.373435 0
3.2670002 -1.494025 1.371074 0
3.2600002 -1.4956485 1.3687127 0
3.2540002 -1.4977553 1.3666888 0
3.2470002 -1.4993302 1.3643277 0
3.2400002 -1.5008796 1.3619665 0
3.2340002 -1.5029178 1.3599426 0
3.2270002 -1.5044186 1.3575815 0
3.2210002 -1.5064118 1.3555576 0
3.2140002 -1.5078639 1.3531964 0
3.2080002 -1.509812 1.3511724 0
3.2010002 -1.5112154 1.3488114 0
3.1950002 -1.5131184 1.3467875 0
3.1880002 -1.514473 1.3444263 0
3.1820002 -1.516331 1.3424023 0
3.1760001 -1.5181671 1.3403785 0
3.1690001 -1.5194498 1.3380173 0
3.1630003 -1.5212411 1.3359934 0
3.1570003 -1.5230105 1.3339696 0
3.1500003 -1.5242209 1.3316084 0
3.1440003 -1.5259453 1.3295846 0
3.1380002 -1.5276481 1.3275607 0
3.1320002 -1.5293292 1.3255368 0
3.1260002 -1.5309887 1.3235129 0
3.1200001 -1.5326266 1.321489 0
3.1140003 -1.5342429 1.3194652 0
3.1080003 -1.5358374 1.3174413 0
3.1020002 -1.5374104 1.3154174 0
3.0960002 -1.5389616 1.3133935 0
3.0900002 -1.5404912 1.3113697 0
3.0840001 -1.5419991 1.3093457 0
3.0780003 -1.5434855 1.3073219 0
3.0720003 -1.5449502 1.3052981 0
3.0660002 -1.5463933 1.3032742 0
3.0600002 -1.5478146 1.3012503 0
3.0540001 -1.5492144 1.2992264 0
3.0490003 -1.5511608 1.2975399 0
3.0430002 -1.552519 1.295516 0
3.0370002 -1.5538555 1.2934921 0
3.0310001 -1.5551705 1.2914683 0
3.0260003 -1.5570394 1.2897817 0
3.4240003 -1.4533167 1.4185773 0
3.4170003 -1.4555012 1.4162288 0
3.4090002 -1.4571913 1.4135445 0
3.4020002 -1.4593234 1.411196 0
3.3940003 -1.4609576 1.408512 0
3.3870003 -1.4630375 1.4061635 0
3.3800004 -1.4650921 1.4038148 0
3.3720002 -1.4666432 1.4011307 0
3.3650002 -1.4686456 1.3987823 0
3.3580003 -1.4706225 1.3964337 0
3.3510003 -1.4725742 1.3940852 0
3.3440003 -1.4745007 1.3917366 0
3.3370001 -1.4764018 1.3893878 0
3.3290002 -1.477789 1.3867038 0
3.3220003 -1.479638 1.3843553 0
3.3150003 -1.4814616 1.3820069 0
3.3080003 -1.48326 1.3796583 0
3.3010001 -1.485033 1.3773097 0
3.2950003 -1.4872789 1.3752966 0
3.2880003 -1.4890034 1.3729481 0
3.2810001 -1.4907025 1.3705995 0
3.2740002 -1.4923763 1.368251 0
3.2670002 -1.494025 1.3659024 0
3.2600002 -1.4956485 1.3635539 0
3.2540002 -1.4977553 1.3615408 0
3.2470002 -1.4993302 1.3591921 0
3.2400002 -1.5008796 1.3568437 0
3.2340002 -1.5029178 1.3548306 0
3.2270002 -1.5044186 1.3524821 0
3.2210002 -1.5064118 1.350469 0
3.2140002 -1.5078639 1.3481205 0
3.2080002 -1.509812 1.3461074 0
3.2010002 -1.5112154 1.3437588 0
3.1950002 -1.5131184 1.3417457 0
3.1880002 -1.514473 1.3393972 0
3.1820002 -1.516331 1.3373842 0
3.1760001 -1.5181671 1.3353711 0
3.1690001 -1.5194498 1.3330225 0
3.1630003 -1.5212411 1.3310095 0
3.1570003 -1.5230105 1.3289965 0
3.1500003 -1.5242209 1.3266479 0
3.1440003 -1.5259453 1.3246349 0
3.1380002 -1.5276481 1.3226218 0
3.1320002 -1.5293292 1.3206087 0
3.1260002 -1.5309887 1.3185956 0
3.1200001 -1.5326266 1.3165827 0
3.1140003 -1.5342429 1.3145697 0
3.1080003 -1.5358374 1.3125566 0
3.1020002 -1.5374104 1.3105435 0
3.0960002 -1.5389616 1.3085304 0
3.0900002 -1.5404912 1.3065174 0
3.0840001 -1.5419991 1.3045043 0
3.0780003 -1.5434855 1.3024913 0
3.0720003 -1.5449502 1.3004783 0
3.0660002 -1.5463933 1.2984653 0
3.0600002 -1.5478146 1.2964522 0
3.0540001 -1.5492144 1.2944391 0
3.0490003 -1.5511608 1.2927616 0
3.0430002 -1.552519 1.2907485 0
3.0370002 -1.5538555 1.2887355 0
3.0310001 -1.5551705 1.2867224 0
3.0260003 -1.5570394 1.2850449 0
3.4170003 -1.4555012 1.4107866 0
3.4090002 -1.4571913 1.4081169 0
3.4020002 -1.4593234 1.4057809 0
3.3940003 -1.4609576 1.4031113 0
3.3870003 -1.4630375 1.4007754 0
3.3800004 -1.4650921 1.3984395 0
3.3720002 -1.4666432 1.3957698 0
3.3650002 -1.4686456 1.3934339 0
3.3580003 -1.4706225 1.391098 0
3.3510003 -1.4725742 1.3887621 0
3.3440003 -1.4745007 1.3864261 0
3.3370001 -1.4764018 1.3840902 0
3.3290002 -1.477789 1.3814206 0
3.3220003 -1.479638 1.3790846 0
3.3150003 -1.4814616 1.3767487 0
3.3080003 -1.48326 1.3744128 0
3.3010001 -1.485033 1.3720767 0
3.2950003 -1.4872789 1.3700746 0
3.2880003 -1.4890034 1.3677387 0
3.2810001 -1.4907025 1.3654027 0
3.2740002 -1.4923763 1.3630668 0
3.2670002 -1.494025 1.3607309 0
3.2600002 -1.4956485 1.358395 0
3.2540002 -1.4977553 1.3563926 0
3.2470002 -1.4993302 1.3540567 0
3.2400002 -1.5008796 1.3517208 0
3.2340002 -1.5029178 1.3497187 0
3.2270002 -1.5044186 1.3473828 0
3.2210002 -1.5064118 1.3453804 0
3.2140002 -1.5078639 1.3430445 0
3.2080002 -1.509812 1.3410424 0
3.2010002 -1.5112154 1.3387064 0
3.1950002 -1.5131184 1.3367041 0
3.1880002 -1.514473 1.3343682 0
3.1820002 -1.516331 1.3323659 0
3.1760001 -1.5181671 1.3303638 0
3.1690001 -1.5194498 1.3280278 0
3.1630003 -1.5212411 1.3260257 0
3.1570003 -1.5230105 1.3240234 0
3.1500003 -1.5242209 1.3216875 0
3.1440003 -1.5259453 1.3196852 0
3.1380002 -1.5276481 1.317683 0
3.1320002 -1.5293292 1.3156807 0
3.1260002 -1.5309887 1.3136785 0
3.1200001 -1.5326266 1.3116763 0
3.1140003 -1.5342429 1.3096741 0
3.1080003 -1.5358374 1.3076719 0
3.1020002 -1.5374104 1.3056697 0
3.0960002 -1.5389616 1.3036674 0
3.0900002 -1.5404912 1.3016652 0
3.0840001 -1.5419991 1.2996629 0
3.0780003 -1.5434855 1.2976608 0
3.0720003 -1.5449502 1.2956585 0
3.0660002 -1.5463933 1.2936562 0
3.0600002 -1.5478146 1.291654 0
3.0540001 -1.5492144 1.2896519 0
3.0490003 -1.5511608 1.2879833 0
3.0430002 -1.552519 1.2859811 0
3.0370002 -1.5538555 1.2839788 0
3.0310001 -1.5551705 1.2819766 0
3.0260003 -1.5570394 1.2803081 0
3.4170003 -1.4555012 1.4053446 0
3.4090002 -1.4571913 1.4026892 0
3.4020002 -1.4593234 1.4003659 0
3.3940003 -1.4609576 1.3977108 0
3.3870003 -1.4630375 1.3953874 0
3.3800004 -1.4650921 1.3930643 0
3.3720002 -1.4666432 1.3904089 0
3.3650002 -1.4686456 1.3880857 0
3.3580003 -1.4706225 1.3857623 0
3.3510003 -1.4725742 1.3834389 0
3.3440003 -1.4745007 1.3811158 0
3.3370001 -1.4764018 1.3787924 0
3.3290002 -1.477789 1.3761373 0
3.3220003 -1.479638 1.3738139 0
3.3150003 -1.4814616 1.3714906 0
3.3080003 -1.48326 1.3691673 0
3.3010001 -1.485033 1.3668439 0
3.2950003 -1.4872789 1.3648527 0
3.2880003 -1.4890034 1.3625293 0
3.2810001 -1.4907025 1.3602059 0
3.2740002 -1.4923763 1.3578827 0
3.2670002 -1.494025 1.3555593 0
3.2600002 -1.4956485 1.3532361 0
3.2540002 -1.4977553 1.3512446 0
3.2470002 -1.4993302 1.3489213 0
3.2400002 -1.5008796 1.3465981 0
3.2340002 -1.5029178 1.3446066 0
3.2270002 -1.5044186 1.3422834 0
3.2210002 -1.5064118 1.340292 0
3.2140002 -1.5078639 1.3379686 0
3.2080002 -1.509812 1.3359772 0
3.2010002 -1.5112154 1.3336539 0
3.1950002 -1.5131184 1.3316625 0
3.1880002 -1.514473 1.3293391 0
3.1820002 -1.516331 1.3273478 0
3.1760001 -1.5181671 1.3253564 0
3.1690001 -1.5194498 1.3230331 0
3.1630003 -1.5212411 1.3210417 0
3.1570003 -1.5230105 1.3190503 0
3.1500003 -1.5242209 1.316727 0
3.1440003 -1.5259453 1.3147355 0
3.1380002 -1.5276481 1.3127441 0
