# .PCD v0.7 - Point Cloud Data file format
VERSION 0.7
FIELDS x y z intensity
SIZE 4 4 4 4
TYPE F F F F
COUNT 1 1 1 1
WIDTH 1369
HEIGHT 1
VIEWPOINT 0 0 0 1 0 0 0
POINTS 1369
DATA ascii
2.7300003 -0.016579887 0.76124424 0
2.7300003 -0.020782759 0.76124424 0
2.7300003 -0.024985634 0.76124424 0
2.7300003 -0.029188506 0.76124424 0
2.7300003 -0.033391379 0.76124424 0
2.7300003 -0.037594251 0.76124424 0
2.7300003 -0.041797128 0.76124424 0
2.7300003 -0.046 0.76124424 0
2.7300003 -0.050202873 0.76124424 0
2.7300003 -0.054405749 0.76124424 0
2.7900002 -0.16671085 0.77044368 0
2.7810001 -0.17055115 0.76906371 0
2.7750001 -0.17452133 0.76814377 0
2.7700002 -0.17852579 0.7673772 0
2.7670002 -0.18262765 0.76691723 0
2.7640002 -0.18671869 0.7664572 0
2.7620003 -0.19086024 0.76615059 0
2.7590003 -0.19493145 0.76569062 0
2.7580001 -0.19912167 0.76553726 0
2.7570002 -0.20330833 0.76538396 0
2.7560003 -0.20749135 0.76523066 0
2.7560003 -0.21174113 0.76523066 0
2.7560003 -0.21599089 0.76523066 0
2.7560003 -0.22024067 0.76523066 0
2.7570002 -0.22456619 0.76538396 0
2.7580001 -0.22889534 0.76553726 0
2.7590003 -0.23322809 0.76569062 0
2.7620003 -0.23772679 0.76615059 0
2.7640002 -0.24215332 0.7664572 0
2.7680001 -0.24675664 0.76707053 0
2.7720003 -0.25137439 0.76768386 0
2.7700002 -0.25547624 0.7673772 0
2.7670002 -0.25948071 0.76691723 0
2.7650001 -0.26356632 0.7666105 0
2.7630002 -0.26764473 0.7663039 0
2.7610002 -0.27171594 0.76599729 0
2.7590003 -0.2757799 0.76569062 0
2.7580001 -0.27993587 0.76553726 0
2.7570002 -0.28408825 0.76538396 0
2.7570002 -0.28833982 0.76538396 0
2.7560003 -0.29248679 0.76523066 0
2.7560003 -0.29673657 0.76523066 0
2.7560003 -0.30098635 0.76523066 0
2.7570002 -0.30534613 0.76538396 0
2.7570002 -0.3095977 0.76538396 0
2.7580001 -0.31396291 0.76553726 0
2.7600002 -0.3184472 0.76584393 0
2.7620003 -0.32293868 0.76615059 0
2.7640002 -0.32743737 0.7664572 0
2.7670002 -0.33206415 0.76691723 0
2.7710001 -0.33682439 0.7675305 0
2.7770002 -0.34184799 0.7684505 0
2.7300003 -0.016579887 0.75704134 0
2.7300003 -0.020782759 0.75704134 0
2.7300003 -0.024985634 0.75704134 0
2.7300003 -0.029188506 0.75704134 0
2.7300003 -0.033391379 0.75704134 0
2.7300003 -0.037594251 0.75704134 0
2.7300003 -0.041797128 0.75704134 0
2.7300003 -0.046 0.75704134 0
2.7300003 -0.050202873 0.75704134 0
2.7300003 -0.054405749 0.75704134 0
2.7900002 -0.16671085 0.76613259 0
2.7810001 -0.17055115 0.76476884 0
2.7750001 -0.17452133 0.76385975 0
2.7700002 -0.17852579 0.76310217 0
2.7670002 -0.18262765 0.76264763 0
2.7640002 -0.18671869 0.76219302 0
2.7620003 -0.19086024 0.76189005 0
2.7590003 -0.19493145 0.76143545 0
2.7580001 -0.19912167 0.76128387 0
2.7570002 -0.20330833 0.76113236 0
2.7560003 -0.20749135 0.7609809 0
2.7560003 -0.21174113 0.7609809 0
2.7560003 -0.21599089 0.7609809 0
2.7560003 -0.22024067 0.7609809 0
2.7570002 -0.22456619 0.76113236 0
2.7580001 -0.22889534 0.76128387 0
2.7590003 -0.23322809 0.76143545 0
2.7620003 -0.23772679 0.76189005 0
2.7640002 -0.24215332 0.76219302 0
2.7680001 -0.24675664 0.76279914 0
2.7720003 -0.25137439 0.7634052 0
2.7720003 -0.25565302 0.7634052 0
2.7690003 -0.25966111 0.76295066 0
2.7660003 -0.26365831 0.76249611 0
2.7640002 -0.26773852 0.76219302 0
2.7620003 -0.27181154 0.76189005 0
2.7600002 -0.27587733 0.76158696 0
2.7590003 -0.28003511 0.76143545 0
2.7580001 -0.28418925 0.76128387 0
2.7570002 -0.28833982 0.76113236 0
2.7560003 -0.29248679 0.7609809 0
2.7560003 -0.29673657 0.7609809 0
2.7560003 -0.30098635 0.7609809 0
2.7560003 -0.30523613 0.7609809 0
2.7570002 -0.3095977 0.76113236 0
2.7580001 -0.31396291 0.76128387 0
2.7590003 -0.31833178 0.76143545 0
2.7600002 -0.3227042 0.76158696 0
2.7630002 -0.32731834 0.76204157 0
2.7650001 -0.33182243 0.76234454 0
2.7690003 -0.33657908 0.76295066 0
2.7730002 -0.34135017 0.76355672 0
2.7800002 -0.34651446 0.76461732 0
2.7300003 -0.016579887 0.75283849 0
2.7300003 -0.020782759 0.75283849 0
2.7300003 -0.024985634 0.75283849 0
2.7300003 -0.029188506 0.75283849 0
2.7300003 -0.033391379 0.75283849 0
2.7300003 -0.037594251 0.75283849 0
2.7300003 -0.041797128 0.75283849 0
2.7300003 -0.046 0.75283849 0
2.7300003 -0.050202873 0.75283849 0
2.7300003 -0.054405749 0.75283849 0
2.7900002 -0.16671085 0.76182145 0
2.7810001 -0.17055115 0.76047397 0
2.7750001 -0.17452133 0.75957572 0
2.7700002 -0.17852579 0.75882709 0
2.7670002 -0.18262765 0.75837803 0
2.7640002 -0.18671869 0.75792885 0
2.7620003 -0.19086024 0.75762939 0
2.7590003 -0.19493145 0.75718027 0
2.7580001 -0.19912167 0.75703049 0
2.7570002 -0.20330833 0.75688082 0
2.7560003 -0.20749135 0.75673115 0
2.7560003 -0.21174113 0.75673115 0
2.7560003 -0.21599089 0.75673115 0
2.7560003 -0.22024067 0.75673115 0
2.7570002 -0.22456619 0.75688082 0
2.7580001 -0.22889534 0.75703049 0
2.7590003 -0.23322809 0.75718027 0
2.7620003 -0.23772679 0.75762939 0
2.7640002 -0.24215332 0.75792885 0
2.7680001 -0.24675664 0.7585277 0
2.7720003 -0.25137439 0.75912654 0
2.7740002 -0.25582978 0.759426 0
2.7700002 -0.25975129 0.75882709 0
2.7680001 -0.26384231 0.7585277 0
2.7650001 -0.26783234 0.75807858 0
2.7630002 -0.27190712 0.75777912 0
2.7610002 -0.27597472 0.75747967 0
2.7590003 -0.28003511 0.75718027 0
2.7580001 -0.28418925 0.75703049 0
2.7570002 -0.28833982 0.75688082 0
2.7570002 -0.29259142 0.75688082 0
2.7560003 -0.29673657 0.75673115 0
2.7560003 -0.30098635 0.75673115 0
2.7560003 -0.30523613 0.75673115 0
2.7560003 -0.30948588 0.75673115 0
2.7570002 -0.3138493 0.75688082 0
2.7580001 -0.31821629 0.75703049 0
2.7590003 -0.32258692 0.75718027 0
2.7610002 -0.32708022 0.75747967 0
2.7640002 -0.33170158 0.75792885 0
2.7670002 -0.33633375 0.75837803 0
2.7700002 -0.34097677 0.75882709 0
2.7760003 -0.34600937 0.75972545 0
2.7300003 -0.016579887 0.74863565 0
2.7300003 -0.020782759 0.74863565 0
2.7300003 -0.024985634 0.74863565 0
2.7300003 -0.029188506 0.74863565 0
2.7300003 -0.033391379 0.74863565 0
2.7300003 -0.037594251 0.74863565 0
2.7300003 -0.041797128 0.74863565 0
2.7300003 -0.046 0.74863565 0
2.7300003 -0.050202873 0.74863565 0
2.7300003 -0.054405749 0.74863565 0
2.7900002 -0.16671085 0.75751036 0
2.7810001 -0.17055115 0.75617909 0
2.7750001 -0.17452133 0.75529164 0
2.7700002 -0.17852579 0.75455213 0
2.7670002 -0.18262765 0.75410837 0
2.7640002 -0.18671869 0.75366461 0
2.7620003 -0.19086024 0.75336885 0
2.7590003 -0.19493145 0.7529251 0
2.7580001 -0.19912167 0.75277716 0
2.7570002 -0.20330833 0.75262922 0
2.7560003 -0.20749135 0.75248134 0
2.7560003 -0.21174113 0.75248134 0
2.7560003 -0.21599089 0.75248134 0
2.7560003 -0.22024067 0.75248134 0
2.7570002 -0.22456619 0.75262922 0
2.7580001 -0.22889534 0.75277716 0
2.7590003 -0.23322809 0.7529251 0
2.7620003 -0.23772679 0.75336885 0
2.7640002 -0.24215332 0.75366461 0
2.7680001 -0.24675664 0.75425625 0
2.7720003 -0.25137439 0.75484794 0
2.7760003 -0.25600657 0.75543958 0
2.7730002 -0.26002184 0.75499582 0
2.7690003 -0.26393431 0.75440419 0
2.7670002 -0.26801994 0.75410837 0
2.7640002 -0.27200273 0.75366461 0
2.7620003 -0.27607214 0.75336885 0
2.7600002 -0.28013429 0.75307298 0
2.7590003 -0.28429028 0.7529251 0
2.7580001 -0.28844264 0.75277716 0
2.7570002 -0.29259142 0.75262922 0
2.7560003 -0.29673657 0.75248134 0
2.7560003 -0.30098635 0.75248134 0
2.7560003 -0.30523613 0.75248134 0
2.7560003 -0.30948588 0.75248134 0
2.7570002 -0.3138493 0.75262922 0
2.7580001 -0.31821629 0.75277716 0
2.7590003 -0.32258692 0.7529251 0
2.7600002 -0.32696119 0.75307298 0
2.7620003 -0.33145988 0.75336885 0
2.7650001 -0.33608845 0.75381255 0
2.7680001 -0.34072784 0.75425625 0
2.7720003 -0.34550431 0.75484794 0
2.7780001 -0.35055137 0.7557354 0
2.7300003 -0.016579887 0.74443275 0
2.7300003 -0.020782759 0.74443275 0
2.7300003 -0.024985634 0.74443275 0
2.7300003 -0.029188506 0.74443275 0
2.7300003 -0.033391379 0.74443275 0
2.7300003 -0.037594251 0.74443275 0
2.7300003 -0.041797128 0.74443275 0
2.7300003 -0.046 0.74443275 0
2.7300003 -0.050202873 0.74443275 0
2.7300003 -0.054405749 0.74443275 0
2.7900002 -0.16671085 0.75319922 0
2.7810001 -0.17055115 0.75188428 0
2.7750001 -0.17452133 0.75100762 0
2.7700002 -0.17852579 0.7502771 0
2.7670002 -0.18262765 0.74983871 0
2.7640002 -0.18671869 0.74940044 0
2.7620003 -0.19086024 0.7491082 0
2.7590003 -0.19493145 0.74866986 0
2.7580001 -0.19912167 0.74852377 0
2.7570002 -0.20330833 0.74837768 0
2.7560003 -0.20749135 0.74823153 0
2.7560003 -0.21174113 0.74823153 0
2.7560003 -0.21599089 0.74823153 0
2.7560003 -0.22024067 0.74823153 0
2.7570002 -0.22456619 0.74837768 0
2.7580001 -0.22889534 0.74852377 0
2.7590003 -0.23322809 0.74866986 0
2.7620003 -0.23772679 0.7491082 0
2.7640002 -0.24215332 0.74940044 0
2.7680001 -0.24675664 0.74998486 0
2.7720003 -0.25137439 0.75056934 0
2.7790003 -0.25627172 0.75159204 0
2.7750001 -0.2602022 0.75100762 0
2.7710001 -0.26411828 0.75042319 0
2.7680001 -0.26811373 0.74998486 0
2.7650001 -0.27209833 0.74954653 0
2.7630002 -0.27616954 0.74925435 0
2.7610002 -0.28023353 0.74896204 0
2.7600002 -0.28439128 0.74881601 0
2.7590003 -0.28854546 0.74866986 0
2.7580001 -0.29269603 0.74852377 0
2.7570002 -0.29684299 0.74837768 0
2.7560003 -0.30098635 0.74823153 0
2.7560003 -0.30523613 0.74823153 0
2.7560003 -0.30948588 0.74823153 0
2.7560003 -0.31373566 0.74823153 0
2.7570002 -0.31810087 0.74837768 0
2.7580001 -0.32246968 0.74852377 0
2.7590003 -0.32684213 0.74866986 0
2.7610002 -0.33133903 0.74896204 0
2.7630002 -0.33584312 0.74925435 0
2.7660003 -0.34047893 0.74969268 0
2.7700002 -0.3452518 0.7502771 0
2.7750001 -0.35016716 0.75100762 0
2.7830002 -0.35549021 0.75217652 0
2.7300003 -0.016579887 0.74022985 0
2.7300003 -0.020782759 0.74022985 0
2.7300003 -0.024985634 0.74022985 0
2.7300003 -0.029188506 0.74022985 0
2.7300003 -0.033391379 0.74022985 0
2.7300003 -0.037594251 0.74022985 0
2.7300003 -0.041797128 0.74022985 0
2.7300003 -0.046 0.74022985 0
2.7300003 -0.050202873 0.74022985 0
2.7300003 -0.054405749 0.74022985 0
2.7900002 -0.16671085 0.74888813 0
2.7810001 -0.17055115 0.74758941 0
2.7750001 -0.17452133 0.74672353 0
2.7700002 -0.17852579 0.74600208 0
2.7670002 -0.18262765 0.74556911 0
2.7640002 -0.18671869 0.74513626 0
2.7620003 -0.19086024 0.74484766 0
2.7590003 -0.19493145 0.74441469 0
2.7580001 -0.19912167 0.74427038 0
2.7570002 -0.20330833 0.74412608 0
2.7560003 -0.20749135 0.74398178 0
2.7560003 -0.21174113 0.74398178 0
2.7560003 -0.21599089 0.74398178 0
2.7560003 -0.22024067 0.74398178 0
2.7570002 -0.22456619 0.74412608 0
2.7580001 -0.22889534 0.74427038 0
2.7590003 -0.23322809 0.74441469 0
2.7620003 -0.23772679 0.74484766 0
2.7640002 -0.24215332 0.74513626 0
2.7680001 -0.24675664 0.74571347 0
2.7720003 -0.25137439 0.74629068 0
2.7790003 -0.25627172 0.7473008 0
2.7770002 -0.26038259 0.74701214 0
2.7730002 -0.26430228 0.74643499 0
2.7700002 -0.26830131 0.74600208 0
2.7670002 -0.27228954 0.74556911 0
2.7640002 -0.27626693 0.74513626 0
2.7620003 -0.28033274 0.74484766 0
2.7610002 -0.28449231 0.74470329 0
2.7590003 -0.28854546 0.74441469 0
2.7580001 -0.29269603 0.74427038 0
2.7570002 -0.29684299 0.74412608 0
2.7570002 -0.30109456 0.74412608 0
2.7560003 -0.30523613 0.74398178 0
2.7560003 -0.30948588 0.74398178 0
2.7560003 -0.31373566 0.74398178 0
2.7570002 -0.31810087 0.74412608 0
2.7570002 -0.32235244 0.74412608 0
2.7590003 -0.32684213 0.74441469 0
2.7600002 -0.33121815 0.74455905 0
2.7620003 -0.33572048 0.74484766 0
2.7640002 -0.34022999 0.74513626 0
2.7680001 -0.34499925 0.74571347 0
2.7720003 -0.34978297 0.74629068 0
2.7770002 -0.35471097 0.74701214 0
2.7300003 -0.016579887 0.736027 0
2.7300003 -0.020782759 0.736027 0
2.7300003 -0.024985634 0.736027 0
2.7300003 -0.029188506 0.736027 0
2.7300003 -0.033391379 0.736027 0
2.7300003 -0.037594251 0.736027 0
2.7300003 -0.041797128 0.736027 0
2.7300003 -0.046 0.736027 0
2.7300003 -0.050202873 0.736027 0
2.7300003 -0.054405749 0.736027 0
2.7900002 -0.16671085 0.74457705 0
2.7810001 -0.17055115 0.74329448 0
2.7750001 -0.17452133 0.74243951 0
2.7700002 -0.17852579 0.74172699 0
2.7670002 -0.18262765 0.74129951 0
2.7640002 -0.18671869 0.74087203 0
2.7620003 -0.19086024 0.74058706 0
2.7590003 -0.19493145 0.74015951 0
2.7580001 -0.19912167 0.740017 0
2.7570002 -0.20330833 0.73987448 0
2.7560003 -0.20749135 0.73973203 0
2.7560003 -0.21174113 0.73973203 0
2.7560003 -0.21599089 0.73973203 0
2.7560003 -0.22024067 0.73973203 0
2.7570002 -0.22456619 0.73987448 0
2.7580001 -0.22889534 0.740017 0
2.7590003 -0.23322809 0.74015951 0
2.7620003 -0.23772679 0.74058706 0
2.7640002 -0.24215332 0.74087203 0
2.7680001 -0.24675664 0.74144202 0
2.7720003 -0.25137439 0.74201202 0
2.7790003 -0.25627172 0.74300957 0
2.7800002 -0.26065317 0.74315202 0
2.7750001 -0.26448625 0.74243951 0
2.7720003 -0.26848891 0.74201202 0
2.7690003 -0.27248076 0.74158454 0
2.7660003 -0.27646175 0.74115705 0
2.7640002 -0.28053114 0.74087203 0
2.7620003 -0.28459334 0.74058706 0
2.7600002 -0.28864828 0.74030203 0
2.7590003 -0.29280064 0.74015951 0
2.7580001 -0.29694942 0.740017 0
2.7570002 -0.30109456 0.73987448 0
2.7560003 -0.30523613 0.73973203 0
2.7560003 -0.30948588 0.73973203 0
2.7560003 -0.31373566 0.73973203 0
2.7560003 -0.31798545 0.73973203 0
2.7570002 -0.32235244 0.73987448 0
2.7580001 -0.32672307 0.740017 0
2.7590003 -0.3310973 0.74015951 0
2.7610002 -0.33559781 0.74044454 0
2.7630002 -0.34010553 0.74072957 0
2.7660003 -0.34474674 0.74115705 0
2.7690003 -0.34939876 0.74158454 0
2.7740002 -0.35432133 0.74229705 0
2.7810001 -0.35952532 0.74329448 0
2.7300003 -0.016579887 0.73182416 0
2.7300003 -0.020782759 0.73182416 0
2.7300003 -0.024985634 0.73182416 0
2.7300003 -0.029188506 0.73182416 0
2.7300003 -0.033391379 0.73182416 0
2.7300003 -0.037594251 0.73182416 0
2.7300003 -0.041797128 0.73182416 0
2.7300003 -0.046 0.73182416 0
2.7300003 -0.050202873 0.73182416 0
2.7300003 -0.054405749 0.73182416 0
2.7900002 -0.16671085 0.74026597 0
2.7810001 -0.17055115 0.73899966 0
2.7750001 -0.17452133 0.73815548 0
2.7700002 -0.17852579 0.73745203 0
2.7670002 -0.18262765 0.73702991 0
2.7640002 -0.18671869 0.73660779 0
2.7620003 -0.19086024 0.73632646 0
2.7590003 -0.19493145 0.73590434 0
2.7580001 -0.19912167 0.73576361 0
2.7570002 -0.20330833 0.73562294 0
2.7560003 -0.20749135 0.73548228 0
2.7560003 -0.21174113 0.73548228 0
2.7560003 -0.21599089 0.73548228 0
2.7560003 -0.22024067 0.73548228 0
2.7570002 -0.22456619 0.73562294 0
2.7580001 -0.22889534 0.73576361 0
2.7590003 -0.23322809 0.73590434 0
2.7620003 -0.23772679 0.73632646 0
2.7640002 -0.24215332 0.73660779 0
2.7680001 -0.24675664 0.73717058 0
2.7720003 -0.25137439 0.73773342 0
2.7790003 -0.25627172 0.73871827 0
2.7830002 -0.26092374 0.73928106 0
2.7780001 -0.26476225 0.7385776 0
2.7740002 -0.26867652 0.73801482 0
2.7700002 -0.27257636 0.73745203 0
2.7670002 -0.27655917 0.73702991 0
2.7650001 -0.28063035 0.73674852 0
2.7630002 -0.28469431 0.73646712 0
2.7610002 -0.28875107 0.73618573 0
2.7590003 -0.29280064 0.73590434 0
2.7580001 -0.29694942 0.73576361 0
2.7570002 -0.30109456 0.73562294 0
2.7570002 -0.30534613 0.73562294 0
2.7560003 -0.30948588 0.73548228 0
2.7560003 -0.31373566 0.73548228 0
2.7560003 -0.31798545 0.73548228 0
2.7570002 -0.32235244 0.73562294 0
2.7570002 -0.32660404 0.73562294 0
2.7580001 -0.33097646 0.73576361 0
2.7600002 -0.33547515 0.73604506 0
2.7620003 -0.33998108 0.73632646 0
2.7640002 -0.34449419 0.73660779 0
2.7670002 -0.34914261 0.73702991 0
2.7710001 -0.35393173 0.7375927 0
2.7770002 -0.35899863 0.73843688 0
2.7300003 -0.016579887 0.72762126 0
2.7300003 -0.020782759 0.72762126 0
2.7300003 -0.024985634 0.72762126 0
2.7300003 -0.029188506 0.72762126 0
2.7300003 -0.033391379 0.72762126 0
2.7300003 -0.037594251 0.72762126 0
2.7300003 -0.041797128 0.72762126 0
2.7300003 -0.046 0.72762126 0
2.7300003 -0.050202873 0.72762126 0
2.7300003 -0.054405749 0.72762126 0
2.7900002 -0.16671085 0.73595488 0
2.7810001 -0.17055115 0.73470479 0
2.7750001 -0.17452133 0.73387146 0
2.7700002 -0.17852579 0.73317695 0
2.7670002 -0.18262765 0.73276031 0
2.7640002 -0.18671869 0.73234361 0
2.7620003 -0.19086024 0.73206586 0
2.7590003 -0.19493145 0.73164916 0
2.7580001 -0.19912167 0.73151028 0
2.7570002 -0.20330833 0.7313714 0
2.7560003 -0.20749135 0.73123252 0
2.7560003 -0.21174113 0.73123252 0
2.7560003 -0.21599089 0.73123252 0
2.7560003 -0.22024067 0.73123252 0
2.7570002 -0.22456619 0.7313714 0
2.7580001 -0.22889534 0.73151028 0
2.7590003 -0.23322809 0.73164916 0
2.7620003 -0.23772679 0.73206586 0
2.7640002 -0.24215332 0.73234361 0
2.7680001 -0.24675664 0.73289919 0
2.7720003 -0.25137439 0.73345476 0
2.7790003 -0.25627172 0.73442703 0
2.7860003 -0.26119432 0.73539925 0
2.7810001 -0.26503822 0.73470479 0
2.7760003 -0.26886413 0.73401034 0
2.7720003 -0.27276757 0.73345476 0
2.7690003 -0.27675396 0.73303807 0
2.7660003 -0.28072956 0.73262143 0
2.7640002 -0.28479534 0.73234361 0
2.7620003 -0.28885394 0.73206586 0
2.7600002 -0.29290527 0.73178804 0
2.7590003 -0.29705584 0.73164916 0
2.7580001 -0.30120277 0.73151028 0
2.7570002 -0.30534613 0.7313714 0
2.7560003 -0.30948588 0.73123252 0
2.7560003 -0.31373566 0.73123252 0
2.7560003 -0.31798545 0.73123252 0
2.7560003 -0.3222352 0.73123252 0
2.7570002 -0.32660404 0.7313714 0
2.7580001 -0.33097646 0.73151028 0
2.7590003 -0.33535251 0.73164916 0
2.7600002 -0.33973214 0.73178804 0
2.7630002 -0.34436792 0.73220474 0
2.7650001 -0.34888643 0.73248249 0
2.7690003 -0.35367197 0.73303807 0
2.7730002 -0.3584719 0.73359364 0
2.7800002 -0.36368671 0.73456591 0
2.7300003 -0.016579887 0.72341835 0
2.7300003 -0.020782759 0.72341835 0
2.7300003 -0.024985634 0.72341835 0
2.7300003 -0.029188506 0.72341835 0
2.7300003 -0.033391379 0.72341835 0
2.7300003 -0.037594251 0.72341835 0
2.7300003 -0.041797128 0.72341835 0
2.7300003 -0.046 0.72341835 0
2.7300003 -0.050202873 0.72341835 0
2.7300003 -0.054405749 0.72341835 0
2.7900002 -0.16671085 0.7316438 0
2.7810001 -0.17055115 0.73040998 0
2.7750001 -0.17452133 0.72958738 0
2.7700002 -0.17852579 0.72890198 0
2.7670002 -0.18262765 0.72849071 0
2.7640002 -0.18671869 0.72807944 0
2.7620003 -0.19086024 0.72780526 0
2.7590003 -0.19493145 0.72739398 0
2.7580001 -0.19912167 0.72725689 0
2.7570002 -0.20330833 0.7271198 0
2.7560003 -0.20749135 0.72698271 0
2.7560003 -0.21174113 0.72698271 0
2.7560003 -0.21599089 0.72698271 0
2.7560003 -0.22024067 0.72698271 0
2.7570002 -0.22456619 0.7271198 0
2.7580001 -0.22889534 0.72725689 0
2.7590003 -0.23322809 0.72739398 0
2.7620003 -0.23772679 0.72780526 0
2.7640002 -0.24215332 0.72807944 0
2.7680001 -0.24675664 0.7286278 0
2.7720003 -0.25137439 0.72917616 0
2.7790003 -0.25627172 0.7301358 0
2.7900002 -0.26155508 0.7316438 0
2.7840002 -0.26531419 0.73082119 0
2.7780001 -0.2690517 0.72999865 0
2.7740002 -0.27295876 0.72945035 0
2.7710001 -0.27694875 0.72903901 0
2.7680001 -0.28092799 0.7286278 0
2.7650001 -0.28489634 0.72821653 0
2.7630002 -0.28895673 0.72794235 0
2.7610002 -0.29300988 0.72766817 0
2.7600002 -0.29716226 0.72753108 0
2.7580001 -0.30120277 0.72725689 0
2.7570002 -0.30534613 0.7271198 0
2.7570002 -0.3095977 0.7271198 0
2.7560003 -0.31373566 0.72698271 0
2.7560003 -0.31798545 0.72698271 0
2.7560003 -0.3222352 0.72698271 0
2.7570002 -0.32660404 0.7271198 0
2.7570002 -0.33085561 0.7271198 0
2.7580001 -0.33522984 0.72725689 0
2.7590003 -0.33960769 0.72739398 0
2.7610002 -0.34411538 0.72766817 0
2.7640002 -0.3487584 0.72807944 0
2.7670002 -0.35341221 0.72849071 0
2.7700002 -0.35807687 0.72890198 0
2.7760003 -0.36315277 0.72972453 0
2.7840002 -0.36852092 0.73082119 0
2.7300003 -0.016579887 0.71921551 0
2.7300003 -0.020782759 0.71921551 0
2.7300003 -0.024985634 0.71921551 0
2.7300003 -0.029188506 0.71921551 0
2.7300003 -0.033391379 0.71921551 0
2.7300003 -0.037594251 0.71921551 0
2.7300003 -0.041797128 0.71921551 0
2.7300003 -0.046 0.71921551 0
2.7300003 -0.050202873 0.71921551 0
2.7300003 -0.054405749 0.71921551 0
2.7900002 -0.16671085 0.72733265 0
2.7810001 -0.17055115 0.72611505 0
2.7750001 -0.17452133 0.72530335 0
2.7700002 -0.17852579 0.7246269 0
2.7670002 -0.18262765 0.72422111 0
2.7640002 -0.18671869 0.7238152 0
2.7620003 -0.19086024 0.72354466 0
2.7590003 -0.19493145 0.72313881 0
2.7580001 -0.19912167 0.72300351 0
2.7570002 -0.20330833 0.7228682 0
2.7560003 -0.20749135 0.7227329 0
2.7560003 -0.21174113 0.7227329 0
2.7560003 -0.21599089 0.7227329 0
2.7560003 -0.22024067 0.7227329 0
2.7570002 -0.22456619 0.7228682 0
2.7580001 -0.22889534 0.72300351 0
2.7590003 -0.23322809 0.72313881 0
2.7620003 -0.23772679 0.72354466 0
2.7640002 -0.24215332 0.7238152 0
2.7680001 -0.24675664 0.72435635 0
2.7720003 -0.25137439 0.7248975 0
2.7790003 -0.25627172 0.7258445 0
2.7900002 -0.26155508 0.72733265 0
2.7870002 -0.26559019 0.7269268 0
2.7810001 -0.26933309 0.72611505 0
2.7770002 -0.27324554 0.7255739 0
2.7730002 -0.2771436 0.72503281 0
2.7690003 -0.2810272 0.72449166 0
2.7670002 -0.28509837 0.72422111 0
2.7640002 -0.28905955 0.7238152 0
2.7620003 -0.29311454 0.72354466 0
2.7610002 -0.29726869 0.72340935 0
2.7590003 -0.30131102 0.72313881 0
2.7580001 -0.30545616 0.72300351 0
2.7570002 -0.3095977 0.7228682 0
2.7570002 -0.3138493 0.7228682 0
2.7560003 -0.31798545 0.7227329 0
2.7560003 -0.3222352 0.7227329 0
2.7560003 -0.32648498 0.7227329 0
2.7570002 -0.33085561 0.7228682 0
2.7580001 -0.33522984 0.72300351 0
2.7590003 -0.33960769 0.72313881 0
2.7600002 -0.34398913 0.72327411 0
2.7620003 -0.34850225 0.72354466 0
2.7640002 -0.35302261 0.7238152 0
2.7680001 -0.35781351 0.72435635 0
2.7720003 -0.36261886 0.7248975 0
2.7780001 -0.36770919 0.7257092 0
2.7300003 -0.016579887 0.71501267 0
2.7300003 -0.020782759 0.71501267 0
2.7300003 -0.024985634 0.71501267 0
2.7300003 -0.029188506 0.71501267 0
2.7300003 -0.033391379 0.71501267 0
2.7300003 -0.037594251 0.71501267 0
2.7300003 -0.041797128 0.71501267 0
2.7300003 -0.046 0.71501267 0
2.7300003 -0.050202873 0.71501267 0
2.7300003 -0.054405749 0.71501267 0
2.7900002 -0.16671085 0.72302151 0
2.7810001 -0.17055115 0.72182018 0
2.7750001 -0.17452133 0.72101927 0
2.7700002 -0.17852579 0.72035193 0
2.7670002 -0.18262765 0.71995145 0
2.7640002 -0.18671869 0.71955097 0
2.7620003 -0.19086024 0.71928406 0
2.7590003 -0.19493145 0.71888363 0
2.7580001 -0.19912167 0.71875012 0
2.7570002 -0.20330833 0.71861666 0
2.7560003 -0.20749135 0.71848315 0
2.7560003 -0.21174113 0.71848315 0
2.7560003 -0.21599089 0.71848315 0
2.7560003 -0.22024067 0.71848315 0
2.7570002 -0.22456619 0.71861666 0
2.7580001 -0.22889534 0.71875012 0
2.7590003 -0.23322809 0.71888363 0
2.7620003 -0.23772679 0.71928406 0
2.7640002 -0.24215332 0.71955097 0
2.7680001 -0.24675664 0.72008491 0
2.7720003 -0.25137439 0.72061884 0
2.7790003 -0.25627172 0.72155327 0
2.7900002 -0.26155508 0.72302151 0
2.7920003 -0.26605019 0.72328854 0
2.7850003 -0.26970831 0.72235417 0
2.7790003 -0.27343678 0.72155327 0
2.7750001 -0.27733839 0.72101927 0
2.7710001 -0.28122559 0.72048539 0
2.7680001 -0.2851994 0.72008491 0
2.7660003 -0.28926519 0.719818 0
2.7630002 -0.29321915 0.71941757 0
2.7620003 -0.29737514 0.71928406 0
2.7600002 -0.30141926 0.71901709 0
2.7590003 -0.30556622 0.71888363 0
2.7580001 -0.30970955 0.71875012 0
2.7570002 -0.3138493 0.71861666 0
2.7560003 -0.31798545 0.71848315 0
2.7560003 -0.3222352 0.71848315 0
2.7560003 -0.32648498 0.71848315 0
2.7570002 -0.33085561 0.71861666 0
2.7570002 -0.33510715 0.71861666 0
2.7580001 -0.3394832 0.71875012 0
2.7590003 -0.34386289 0.71888363 0
2.7610002 -0.34837419 0.71915054 0
2.7630002 -0.35289273 0.71941757 0
2.7660003 -0.35755017 0.719818 0
2.7700002 -0.36235189 0.72035193 0
2.7750001 -0.36730334 0.72101927 0
2.7830002 -0.37268412 0.72208714 0
2.7300003 -0.016579887 0.71080977 0
2.7300003 -0.020782759 0.71080977 0
2.7300003 -0.024985634 0.71080977 0
2.7300003 -0.029188506 0.71080977 0
2.7300003 -0.033391379 0.71080977 0
2.7300003 -0.037594251 0.71080977 0
2.7300003 -0.041797128 0.71080977 0
2.7300003 -0.046 0.71080977 0
2.7300003 -0.050202873 0.71080977 0
2.7300003 -0.054405749 0.71080977 0
2.7900002 -0.16671085 0.71871042 0
2.7810001 -0.17055115 0.71752536 0
2.7750001 -0.17452133 0.71673524 0
2.7700002 -0.17852579 0.71607685 0
2.7670002 -0.18262765 0.71568179 0
2.7640002 -0.18671869 0.71528679 0
2.7620003 -0.19086024 0.71502346 0
2.7590003 -0.19493145 0.71462846 0
2.7580001 -0.19912167 0.71449673 0
2.7570002 -0.20330833 0.71436507 0
2.7560003 -0.20749135 0.7142334 0
2.7560003 -0.21174113 0.7142334 0
2.7560003 -0.21599089 0.7142334 0
2.7560003 -0.22024067 0.7142334 0
2.7570002 -0.22456619 0.71436507 0
2.7580001 -0.22889534 0.71449673 0
2.7590003 -0.23322809 0.71462846 0
2.7620003 -0.23772679 0.71502346 0
2.7640002 -0.24215332 0.71528679 0
2.7680001 -0.24675664 0.71581352 0
2.7720003 -0.25137439 0.71634024 0
2.7790003 -0.25627172 0.71726197 0
2.7900002 -0.26155508 0.71871042 0
2.7970002 -0.26651013 0.71963215 0
2.7880001 -0.26998967 0.71844709 0
2.7820003 -0.27372357 0.71765703 0
2.7770002 -0.2775332 0.71699864 0
2.7730002 -0.28142405 0.71647191 0
2.7700002 -0.2854014 0.71607685 0
2.7670002 -0.289368 0.71568179 0
2.7650001 -0.29342836 0.71541846 0
2.7630002 -0.29748154 0.71515512 0
2.7610002 -0.30152747 0.71489179 0
2.7590003 -0.30556622 0.71462846 0
2.7580001 -0.30970955 0.71449673 0
2.7570002 -0.3138493 0.71436507 0
2.7570002 -0.31810087 0.71436507 0
2.7560003 -0.3222352 0.7142334 0
2.7560003 -0.32648498 0.7142334 0
2.7560003 -0.33073473 0.7142334 0
2.7570002 -0.33510715 0.71436507 0
2.7570002 -0.33935875 0.71436507 0
2.7590003 -0.34386289 0.71462846 0
2.7600002 -0.34824613 0.71476007 0
2.7620003 -0.35276285 0.71502346 0
2.7640002 -0.35728678 0.71528679 0
2.7680001 -0.3620849 0.71581352 0
2.7710001 -0.36676219 0.71620858 0
2.7770002 -0.37186158 0.71699864 0
2.7300003 -0.016579887 0.70660686 0
2.7300003 -0.020782759 0.70660686 0
2.7300003 -0.024985634 0.70660686 0
2.7300003 -0.029188506 0.70660686 0
2.7300003 -0.033391379 0.70660686 0
2.7300003 -0.037594251 0.70660686 0
2.7300003 -0.041797128 0.70660686 0
2.7300003 -0.046 0.70660686 0
2.7300003 -0.050202873 0.70660686 0
2.7300003 -0.054405749 0.70660686 0
2.7900002 -0.16671085 0.71439934 0
2.7810001 -0.17055115 0.71323049 0
2.7750001 -0.17452133 0.71245122 0
2.7700002 -0.17852579 0.71180189 0
2.7670002 -0.18262765 0.71141219 0
2.7640002 -0.18671869 0.71102262 0
2.7620003 -0.19086024 0.71076286 0
2.7590003 -0.19493145 0.71037328 0
2.7580001 -0.19912167 0.71024334 0
2.7570002 -0.20330833 0.71011353 0
2.7560003 -0.20749135 0.70998365 0
2.7560003 -0.21174113 0.70998365 0
2.7560003 -0.21599089 0.70998365 0
2.7560003 -0.22024067 0.70998365 0
2.7570002 -0.22456619 0.71011353 0
2.7580001 -0.22889534 0.71024334 0
2.7590003 -0.23322809 0.71037328 0
2.7620003 -0.23772679 0.71076286 0
2.7640002 -0.24215332 0.71102262 0
2.7680001 -0.24675664 0.71154213 0
2.7720003 -0.25137439 0.71206164 0
2.7790003 -0.25627172 0.71297073 0
2.7900002 -0.26155508 0.71439934 0
2.7930002 -0.27045867 0.71478891 0
2.7850003 -0.27401039 0.71375 0
2.7800002 -0.27782542 0.71310061 0
2.7760003 -0.28172165 0.7125811 0
2.7720003 -0.28560346 0.71206164 0
2.7690003 -0.28957364 0.71167195 0
2.7660003 -0.293533 0.71128237 0
2.7640002 -0.29758793 0.71102262 0
2.7620003 -0.30163571 0.71076286 0
2.7600002 -0.30567625 0.7105031 0
2.7590003 -0.3098214 0.71037328 0
2.7580001 -0.31396291 0.71024334 0
2.7570002 -0.31810087 0.71011353 0
2.7560003 -0.3222352 0.70998365 0
2.7560003 -0.32648498 0.70998365 0
2.7560003 -0.33073473 0.70998365 0
2.7560003 -0.33498451 0.70998365 0
2.7570002 -0.33935875 0.71011353 0
2.7580001 -0.34373656 0.71024334 0
2.7590003 -0.34811804 0.71037328 0
2.7610002 -0.35263297 0.71063298 0
2.7630002 -0.35715511 0.71089274 0
2.7650001 -0.36168447 0.71115243 0
2.7690003 -0.36649165 0.71167195 0
2.7740002 -0.3714503 0.71232134 0
2.7810001 -0.37670478 0.71323049 0
2.7300003 -0.016579887 0.70240402 0
2.7300003 -0.020782759 0.70240402 0
2.7300003 -0.024985634 0.70240402 0
2.7300003 -0.029188506 0.70240402 0
2.7300003 -0.033391379 0.70240402 0
2.7300003 -0.037594251 0.70240402 0
2.7300003 -0.041797128 0.70240402 0
2.7300003 -0.046 0.70240402 0
2.7300003 -0.050202873 0.70240402 0
2.7300003 -0.054405749 0.70240402 0
2.7900002 -0.16671085 0.71008825 0
2.7810001 -0.17055115 0.70893562 0
2.7750001 -0.17452133 0.7081672 0
2.7700002 -0.17852579 0.7075268 0
2.7670002 -0.18262765 0.70714259 0
2.7640002 -0.18671869 0.70675838 0
2.7620003 -0.19086024 0.70650226 0
2.7590003 -0.19493145 0.70611805 0
2.7580001 -0.19912167 0.70598996 0
2.7570002 -0.20330833 0.70586193 0
2.7560003 -0.20749135 0.7057339 0
2.7560003 -0.21174113 0.7057339 0
2.7560003 -0.21599089 0.7057339 0
2.7560003 -0.22024067 0.7057339 0
2.7570002 -0.22456619 0.70586193 0
2.7580001 -0.22889534 0.70598996 0
2.7590003 -0.23322809 0.70611805 0
2.7620003 -0.23772679 0.70650226 0
2.7640002 -0.24215332 0.70675838 0
2.7680001 -0.24675664 0.70727068 0
2.7720003 -0.25137439 0.70778298 0
2.7790003 -0.25627172 0.70867944 0
2.7900002 -0.26155508 0.71008825 0
2.7990003 -0.27102149 0.71124089 0
2.7900002 -0.27448839 0.71008825 0
2.7830002 -0.27811766 0.70919174 0
2.7780001 -0.28192008 0.70855141 0
2.7740002 -0.28580546 0.7080391 0
2.7700002 -0.28967646 0.7075268 0
2.7680001 -0.29374221 0.70727068 0
2.7650001 -0.29769439 0.70688641 0
2.7630002 -0.30174395 0.70663035 0
2.7610002 -0.30578625 0.70637417 0
2.7590003 -0.3098214 0.70611805 0
2.7580001 -0.31396291 0.70598996 0
2.7570002 -0.31810087 0.70586193 0
2.7570002 -0.32235244 0.70586193 0
2.7560003 -0.32648498 0.7057339 0
2.7560003 -0.33073473 0.7057339 0
2.7560003 -0.33498451 0.7057339 0
2.7570002 -0.33935875 0.70586193 0
2.7570002 -0.34361032 0.70586193 0
2.7580001 -0.34798995 0.70598996 0
2.7600002 -0.35250312 0.70624614 0
2.7620003 -0.35702345 0.70650226 0
2.7640002 -0.36155099 0.70675838 0
2.7670002 -0.36622107 0.70714259 0
2.7710001 -0.371039 0.70765489 0
2.7760003 -0.37601033 0.70829523 0
2.7860003 -0.38170317 0.70957595 0
2.7770002 -0.38901216 0.70842332 0
2.7810001 -0.39388427 0.70893562 0
2.7300003 -0.016579887 0.69820112 0
2.7300003 -0.020782759 0.69820112 0
2.7300003 -0.024985634 0.69820112 0
2.7300003 -0.029188506 0.69820112 0
2.7300003 -0.033391379 0.69820112 0
2.7300003 -0.037594251 0.69820112 0
2.7300003 -0.041797128 0.69820112 0
2.7300003 -0.046 0.69820112 0
2.7300003 -0.050202873 0.69820112 0
2.7300003 -0.054405749 0.69820112 0
2.7900002 -0.16671085 0.70577711 0
2.7810001 -0.17055115 0.70464075 0
2.7750001 -0.17452133 0.70388311 0
2.7700002 -0.17852579 0.70325184 0
2.7670002 -0.18262765 0.70287299 0
2.7640002 -0.18671869 0.7024942 0
2.7620003 -0.19086024 0.70224166 0
2.7590003 -0.19493145 0.70186293 0
2.7580001 -0.19912167 0.70173657 0
2.7570002 -0.20330833 0.70161033 0
2.7560003 -0.20749135 0.70148408 0
2.7560003 -0.21174113 0.70148408 0
2.7560003 -0.21599089 0.70148408 0
2.7560003 -0.22024067 0.70148408 0
2.7570002 -0.22456619 0.70161033 0
2.7580001 -0.22889534 0.70173657 0
2.7590003 -0.23322809 0.70186293 0
2.7620003 -0.23772679 0.70224166 0
2.7640002 -0.24215332 0.7024942 0
2.7680001 -0.24675664 0.70299923 0
2.7720003 -0.25137439 0.70350432 0
2.7790003 -0.25627172 0.7043882 0
2.7900002 -0.26155508 0.70577711 0
2.7940001 -0.27487078 0.7062822 0
2.7860003 -0.27840987 0.70527208 0
2.7810001 -0.28221768 0.70464075 0
2.7760003 -0.28600752 0.70400941 0
2.7720003 -0.28988209 0.70350432 0
2.7690003 -0.29384685 0.70312554 0
2.7670002 -0.29790723 0.70287299 0
2.7640002 -0.30185217 0.7024942 0
2.7620003 -0.30589631 0.70224166 0
2.7600002 -0.30993322 0.70198917 0
2.7590003 -0.3140766 0.70186293 0
2.7580001 -0.31821629 0.70173657 0
2.7570002 -0.32235244 0.70161033 0
2.7570002 -0.32660404 0.70161033 0
2.7560003 -0.33073473 0.70148408 0
2.7560003 -0.33498451 0.70148408 0
2.7560003 -0.33923429 0.70148408 0
2.7570002 -0.34361032 0.70161033 0
2.7580001 -0.34798995 0.70173657 0
2.7590003 -0.35237324 0.70186293 0
2.7600002 -0.35676008 0.70198917 0
2.7620003 -0.36128405 0.70224166 0
2.7650001 -0.36595047 0.70262045 0
2.7680001 -0.37062776 0.70299923 0
2.7730002 -0.37559363 0.70363063 0
2.7800002 -0.38085899 0.7045145 0
2.7690003 -0.38358453 0.70312554 0
2.7710001 -0.38814634 0.70337808 0
2.7740002 -0.39286149 0.70375687 0
2.7780001 -0.39773539 0.7042619 0
2.7830002 -0.40277344 0.70489323 0
2.7300003 -0.016579887 0.69399822 0
2.7300003 -0.020782759 0.69399822 0
2.7300003 -0.024985634 0.69399822 0
2.7300003 -0.029188506 0.69399822 0
2.7300003 -0.033391379 0.69399822 0
2.7300003 -0.037594251 0.69399822 0
2.7300003 -0.041797128 0.69399822 0
2.7300003 -0.046 0.69399822 0
2.7300003 -0.050202873 0.69399822 0
2.7300003 -0.054405749 0.69399822 0
2.7900002 -0.16671085 0.70146602 0
2.7810001 -0.17055115 0.70034587 0
2.7750001 -0.17452133 0.69959909 0
2.7700002 -0.17852579 0.69897676 0
2.7670002 -0.18262765 0.69860339 0
2.7640002 -0.18671869 0.69823003 0
2.7620003 -0.19086024 0.69798112 0
2.7590003 -0.19493145 0.6976077 0
2.7580001 -0.19912167 0.69748318 0
2.7570002 -0.20330833 0.69735873 0
2.7560003 -0.20749135 0.69723427 0
2.7560003 -0.21174113 0.69723427 0
2.7560003 -0.21599089 0.69723427 0
2.7560003 -0.22024067 0.69723427 0
2.7570002 -0.22456619 0.69735873 0
2.7580001 -0.22889534 0.69748318 0
2.7590003 -0.23322809 0.6976077 0
2.7620003 -0.23772679 0.69798112 0
2.7640002 -0.24215332 0.69823003 0
2.7680001 -0.24675664 0.69872785 0
2.7720003 -0.25137439 0.69922572 0
2.7790003 -0.25627172 0.70009696 0
2.7900002 -0.26155508 0.70146602 0
2.8020003 -0.2756356 0.70295954 0
2.7910001 -0.27889687 0.70159048 0
2.7840002 -0.28251535 0.70071924 0
2.7790003 -0.28631055 0.70009696 0
2.7750001 -0.29019052 0.69959909 0
2.7710001 -0.29405609 0.69910121 0
2.7680001 -0.29801366 0.69872785 0
2.7650001 -0.30196038 0.69835448 0
2.7630002 -0.30600634 0.69810557 0
2.7610002 -0.31004506 0.69785655 0
2.7600002 -0.31419021 0.69773215 0
2.7590003 -0.31833178 0.6976077 0
2.7580001 -0.32246968 0.69748318 0
2.7570002 -0.32660404 0.69735873 0
2.7560003 -0.33073473 0.69723427 0
2.7560003 -0.33498451 0.69723427 0
2.7560003 -0.33923429 0.69723427 0
2.7570002 -0.34361032 0.69735873 0
2.7570002 -0.34786192 0.69735873 0
2.7580001 -0.35224333 0.69748318 0
2.7590003 -0.35662842 0.6976077 0
2.7610002 -0.36115056 0.69785655 0
2.7640002 -0.36581519 0.69823003 0
2.7670002 -0.37049067 0.69860339 0
2.7710001 -0.37531585 0.69910121 0
2.7770002 -0.38043687 0.699848 0
2.7650001 -0.3830145 0.69835448 0
2.7670002 -0.38756913 0.69860339 0
2.7690003 -0.392131 0.6988523 0
2.7720003 -0.39684793 0.69922572 0
2.7750001 -0.40157568 0.69959909 0
2.7790003 -0.40646583 0.70009696 0
2.7300003 -0.016579887 0.68979537 0
2.7300003 -0.020782759 0.68979537 0
2.7300003 -0.024985634 0.68979537 0
2.7300003 -0.029188506 0.68979537 0
2.7300003 -0.033391379 0.68979537 0
2.7300003 -0.037594251 0.68979537 0
2.7300003 -0.041797128 0.68979537 0
2.7300003 -0.046 0.68979537 0
2.7300003 -0.050202873 0.68979537 0
2.7300003 -0.054405749 0.68979537 0
2.7900002 -0.16671085 0.69715488 0
2.7810001 -0.17055115 0.696051 0
2.7750001 -0.17452133 0.695315 0
2.7700002 -0.17852579 0.69470173 0
2.7670002 -0.18262765 0.69433379 0
2.7640002 -0.18671869 0.69396579 0
2.7620003 -0.19086024 0.69372046 0
2.7590003 -0.19493145 0.69335252 0
2.7580001 -0.19912167 0.69322985 0
2.7570002 -0.20330833 0.69310713 0
2.7560003 -0.20749135 0.69298452 0
2.7560003 -0.21174113 0.69298452 0
2.7560003 -0.21599089 0.69298452 0
2.7560003 -0.22024067 0.69298452 0
2.7570002 -0.22456619 0.69310713 0
2.7580001 -0.22889534 0.69322985 0
2.7590003 -0.23322809 0.69335252 0
2.7620003 -0.23772679 0.69372046 0
2.7640002 -0.24215332 0.69396579 0
2.7680001 -0.24675664 0.69445646 0
2.7720003 -0.25137439 0.69494712 0
2.7790003 -0.25627172 0.69580567 0
2.7900002 -0.26155508 0.69715488 0
2.7960002 -0.27938393 0.69789088 0
2.7870002 -0.28281295 0.69678694 0
2.7820003 -0.28661358 0.69617367 0
2.7770002 -0.29039615 0.69556034 0
2.7730002 -0.29426533 0.69506973 0
2.7700002 -0.29822651 0.69470173 0
2.7670002 -0.30217683 0.69433379 0
2.7640002 -0.30611637 0.69396579 0
2.7620003 -0.31015691 0.69372046 0
2.7610002 -0.31430385 0.69359779 0
2.7590003 -0.31833178 0.69335252 0
2.7580001 -0.32246968 0.69322985 0
2.7570002 -0.32660404 0.69310713 0
2.7570002 -0.33085561 0.69310713 0
2.7560003 -0.33498451 0.69298452 0
2.7560003 -0.33923429 0.69298452 0
2.7560003 -0.34348407 0.69298452 0
2.7570002 -0.34786192 0.69310713 0
2.7570002 -0.35211349 0.69310713 0
2.7590003 -0.35662842 0.69335252 0
2.7600002 -0.36101708 0.69347513 0
2.7630002 -0.36567992 0.69384313 0
2.7660003 -0.37035358 0.69421113 0
2.7700002 -0.37517697 0.69470173 0
2.7610002 -0.37818572 0.69359779 0
2.7630002 -0.38272953 0.69384313 0
2.7640002 -0.38713622 0.69396579 0
2.7660003 -0.39169264 0.69421113 0
2.7680001 -0.39625624 0.69445646 0
2.7700002 -0.40082711 0.69470173 0
2.7730002 -0.40555671 0.69506973 0
2.7760003 -0.4102971 0.69543767 0
2.7800002 -0.41520348 0.69592834 0
2.7300003 -0.016579887 0.68559253 0
2.7300003 -0.020782759 0.68559253 0
2.7300003 -0.024985634 0.68559253 0
2.7300003 -0.029188506 0.68559253 0
2.7300003 -0.033391379 0.68559253 0
2.7300003 -0.037594251 0.68559253 0
2.7300003 -0.041797128 0.68559253 0
2.7300003 -0.046 0.68559253 0
2.7300003 -0.050202873 0.68559253 0
2.7300003 -0.054405749 0.68559253 0
2.7900002 -0.16671085 0.69284379 0
2.7810001 -0.17055115 0.69175613 0
2.7750001 -0.17452133 0.69103098 0
2.7700002 -0.17852579 0.69042671 0
2.7670002 -0.18262765 0.69006419 0
2.7640002 -0.18671869 0.68970156 0
2.7620003 -0.19086024 0.68945992 0
2.7590003 -0.19493145 0.68909729 0
2.7580001 -0.19912167 0.68897647 0
2.7570002 -0.20330833 0.68885565 0
2.7560003 -0.20749135 0.68873477 0
2.7560003 -0.21174113 0.68873477 0
2.7560003 -0.21599089 0.68873477 0
2.7560003 -0.22024067 0.68873477 0
2.7570002 -0.22456619 0.68885565 0
2.7580001 -0.22889534 0.68897647 0
2.7590003 -0.23322809 0.68909729 0
2.7620003 -0.23772679 0.68945992 0
2.7640002 -0.24215332 0.68970156 0
2.7680001 -0.24675664 0.69018501 0
2.7720003 -0.25137439 0.69066846 0
2.7790003 -0.25627172 0.69151437 0
2.7900002 -0.26155508 0.69284379 0
2.7920003 -0.28330901 0.69308555 0
2.7850003 -0.28691664 0.69223952 0
2.7790003 -0.29060182 0.69151437 0
2.7750001 -0.29447457 0.69103098 0
2.7710001 -0.29833293 0.69054759 0
2.7680001 -0.30228508 0.69018501 0
2.7660003 -0.30633643 0.68994331 0
2.7640002 -0.31038058 0.68970156 0
2.7620003 -0.31441751 0.68945992 0
2.7600002 -0.3184472 0.68921816 0
2.7590003 -0.32258692 0.68909729 0
2.7580001 -0.32672307 0.68897647 0
2.7570002 -0.33085561 0.68885565 0
2.7560003 -0.33498451 0.68873477 0
2.7560003 -0.33923429 0.68873477 0
2.7560003 -0.34348407 0.68873477 0
2.7560003 -0.34773386 0.68873477 0
2.7570002 -0.35211349 0.68885565 0
2.7580001 -0.35649672 0.68897647 0
2.7600002 -0.36101708 0.68921816 0
2.7620003 -0.36554465 0.68945992 0
2.7650001 -0.37021649 0.68982244 0
2.7690003 -0.37503809 0.69030583 0
2.7600002 -0.37804505 0.68921816 0
2.7610002 -0.38244453 0.68933904 0
2.7620003 -0.38684765 0.68945992 0
2.7630002 -0.39125434 0.68958074 0
2.7640002 -0.39566463 0.68970156 0
2.7660003 -0.40022829 0.68994331 0
2.7680001 -0.4047991 0.69018501 0
2.7710001 -0.40953049 0.69054759 0
2.7740002 -0.4142727 0.6909101 0
2.7770002 -0.41902575 0.69127274 0
2.7820003 -0.42410707 0.69187701 0
2.7300003 -0.016579887 0.68138969 0
2.7300003 -0.020782759 0.68138969 0
2.7300003 -0.024985634 0.68138969 0
2.7300003 -0.029188506 0.68138969 0
2.7300003 -0.033391379 0.68138969 0
2.7300003 -0.037594251 0.68138969 0
2.7300003 -0.041797128 0.68138969 0
2.7300003 -0.046 0.68138969 0
2.7300003 -0.050202873 0.68138969 0
2.7300003 -0.054405749 0.68138969 0
2.7900002 -0.16671085 0.68853271 0
2.7810001 -0.17055115 0.68746126 0
2.7750001 -0.17452133 0.68674695 0
2.7700002 -0.17852579 0.68615174 0
2.7670002 -0.18262765 0.68579453 0
2.7640002 -0.18671869 0.68543738 0
2.7620003 -0.19086024 0.68519926 0
2.7590003 -0.19493145 0.68484211 0
2.7580001 -0.19912167 0.68472308 0
2.7570002 -0.20330833 0.68460405 0
2.7560003 -0.20749135 0.68448496 0
2.7560003 -0.21174113 0.68448496 0
2.7560003 -0.21599089 0.68448496 0
2.7560003 -0.22024067 0.68448496 0
2.7570002 -0.22456619 0.68460405 0
2.7580001 -0.22889534 0.68472308 0
2.7590003 -0.23322809 0.68484211 0
2.7620003 -0.23772679 0.68519926 0
2.7640002 -0.24215332 0.68543738 0
2.7680001 -0.24675664 0.68591356 0
2.7720003 -0.25137439 0.6863898 0
2.7790003 -0.25627172 0.6872232 0
2.7900002 -0.26155508 0.68853271 0
2.7980001 -0.28390425 0.68948513 0
2.7890003 -0.28732067 0.68841368 0
2.7830002 -0.29101306 0.68769938 0
2.7770002 -0.29468384 0.68698502 0
2.7740002 -0.2986522 0.68662786 0
2.7700002 -0.30250153 0.68615174 0
2.7670002 -0.30644646 0.68579453 0
2.7650001 -0.3104924 0.68555641 0
2.7630002 -0.31453112 0.68531835 0
2.7610002 -0.31856263 0.68508023 0
2.7590003 -0.32258692 0.68484211 0
2.7580001 -0.32672307 0.68472308 0
2.7570002 -0.33085561 0.68460405 0
2.7570002 -0.33510715 0.68460405 0
2.7560003 -0.33923429 0.68448496 0
2.7560003 -0.34348407 0.68448496 0
2.7570002 -0.34786192 0.68460405 0
2.7570002 -0.35211349 0.68460405 0
2.7580001 -0.35649672 0.68472308 0
2.7600002 -0.36101708 0.6849612 0
2.7620003 -0.36554465 0.68519926 0
2.7650001 -0.37021649 0.68555641 0
2.7580001 -0.37351024 0.68472308 0
2.7580001 -0.3777636 0.68472308 0
2.7590003 -0.38215953 0.68484211 0
2.7600002 -0.38655901 0.6849612 0
2.7610002 -0.39096206 0.68508023 0
2.7620003 -0.39536881 0.68519926 0
2.7630002 -0.39977911 0.68531835 0
2.7650001 -0.40434453 0.68555641 0
2.7670002 -0.40891719 0.68579453 0
2.7690003 -0.41349709 0.68603265 0
2.7710001 -0.41808414 0.68627071 0
2.7750001 -0.4229959 0.68674695 0
2.7780001 -0.42776155 0.68710411 0
2.7840002 -0.43302509 0.68781841 0
2.7300003 -0.016579887 0.67718679 0
2.7300003 -0.020782759 0.67718679 0
2.7300003 -0.024985634 0.67718679 0
2.7300003 -0.029188506 0.67718679 0
2.7300003 -0.033391379 0.67718679 0
2.7300003 -0.037594251 0.67718679 0
2.7300003 -0.041797128 0.67718679 0
2.7300003 -0.046 0.67718679 0
2.7300003 -0.050202873 0.67718679 0
2.7300003 -0.054405749 0.67718679 0
2.7900002 -0.16671085 0.68422163 0
2.7810001 -0.17055115 0.68316638 0
2.7750001 -0.17452133 0.68246293 0
2.7700002 -0.17852579 0.68187666 0
2.7670002 -0.18262765 0.68152493 0
2.7640002 -0.18671869 0.68117321 0
2.7620003 -0.19086024 0.68093872 0
2.7590003 -0.19493145 0.68058693 0
2.7580001 -0.19912167 0.68046969 0
2.7570002 -0.20330833 0.68035245 0
2.7560003 -0.20749135 0.68023521 0
2.7560003 -0.21174113 0.68023521 0
2.7560003 -0.21599089 0.68023521 0
2.7560003 -0.22024067 0.68023521 0
2.7570002 -0.22456619 0.68035245 0
2.7580001 -0.22889534 0.68046969 0
2.7590003 -0.23322809 0.68058693 0
2.7620003 -0.23772679 0.68093872 0
2.7640002 -0.24215332 0.68117321 0
2.7680001 -0.24675664 0.68164217 0
2.7720003 -0.25137439 0.68211114 0
2.7790003 -0.25627172 0.6829319 0
2.7900002 -0.26155508 0.68422163 0
2.7930002 -0.28772473 0.68457341 0
2.7860003 -0.29132155 0.68375266 0
2.7800002 -0.29499769 0.68304914 0
2.7760003 -0.29886505 0.68258017 0
2.7720003 -0.30271798 0.68211114 0
2.7690003 -0.30666655 0.68175948 0
2.7660003 -0.31060424 0.68140769 0
2.7640002 -0.31464478 0.68117321 0
2.7620003 -0.31867811 0.68093872 0
2.7600002 -0.3227042 0.68070424 0
2.7590003 -0.32684213 0.68058693 0
2.7580001 -0.33097646 0.68046969 0
2.7570002 -0.33510715 0.68035245 0
2.7570002 -0.33935875 0.68035245 0
2.7570002 -0.34361032 0.68035245 0
2.7570002 -0.34786192 0.68035245 0
2.7580001 -0.35224333 0.68046969 0
2.7590003 -0.35662842 0.68058693 0
2.7610002 -0.36115056 0.68082142 0
2.7630002 -0.36567992 0.68105596 0
2.7640002 -0.3700794 0.68117321 0
2.7570002 -0.37337136 0.68035245 0
2.7570002 -0.37762293 0.68035245 0
2.7580001 -0.38201699 0.68046969 0
2.7590003 -0.38641471 0.68058693 0
2.7590003 -0.39066988 0.68058693 0
2.7600002 -0.39507297 0.68070424 0
2.7610002 -0.39947969 0.68082142 0
2.7630002 -0.40404153 0.68105596 0
2.7640002 -0.40845722 0.68117321 0
2.7650001 -0.41287655 0.68129039 0
2.7680001 -0.41761336 0.68164217 0
2.7700002 -0.42220226 0.68187666 0
2.7720003 -0.42679837 0.68211114 0
2.7760003 -0.43172637 0.68258017 0
2.7790003 -0.43650466 0.6829319 0
2.7300003 -0.016579887 0.67298388 0
2.7300003 -0.020782759 0.67298388 0
2.7300003 -0.024985634 0.67298388 0
2.7300003 -0.029188506 0.67298388 0
2.7300003 -0.033391379 0.67298388 0
2.7300003 -0.037594251 0.67298388 0
2.7300003 -0.041797128 0.67298388 0
2.7300003 -0.046 0.67298388 0
2.7300003 -0.050202873 0.67298388 0
2.7300003 -0.054405749 0.67298388 0
2.7900002 -0.16671085 0.67991054 0
2.7810001 -0.17055115 0.67887151 0
2.7750001 -0.17452133 0.67817885 0
2.7700002 -0.17852579 0.67760164 0
2.7670002 -0.18262765 0.67725527 0
2.7640002 -0.18671869 0.67690897 0
2.7620003 -0.19086024 0.67667812 0
2.7590003 -0.19493145 0.67633176 0
2.7580001 -0.19912167 0.6762163 0
2.7570002 -0.20330833 0.67610085 0
2.7560003 -0.20749135 0.67598546 0
2.7560003 -0.21174113 0.67598546 0
2.7560003 -0.21599089 0.67598546 0
2.7560003 -0.22024067 0.67598546 0
2.7570002 -0.22456619 0.67610085 0
2.7580001 -0.22889534 0.6762163 0
2.7590003 -0.23322809 0.67633176 0
2.7620003 -0.23772679 0.67667812 0
2.7640002 -0.24215332 0.67690897 0
2.7680001 -0.24675664 0.67737079 0
2.7720003 -0.25137439 0.67783254 0
2.7790003 -0.25627172 0.67864066 0
2.7900002 -0.26155508 0.67991054 0
3.0160003 -0.29609442 0.7060008 0
3.0130002 -0.30052096 0.7056545 0
3.0110002 -0.30503589 0.70542359 0
2.8000002 -0.28843182 0.68106496 0
2.7900002 -0.29173279 0.67991054 0
2.7830002 -0.29531154 0.67910242 0
2.7780001 -0.2990779 0.67852521 0
2.7740002 -0.30293444 0.67806339 0
2.7700002 -0.30677655 0.67760164 0
2.7680001 -0.31082791 0.67737079 0
2.7650001 -0.31475839 0.67702442 0
2.7630002 -0.31879354 0.67679358 0
2.7610002 -0.32282141 0.67656267 0
2.7600002 -0.32696119 0.67644721 0
2.7590003 -0.3310973 0.67633176 0
2.7580001 -0.33522984 0.6762163 0
2.7570002 -0.33935875 0.67610085 0
2.7570002 -0.34361032 0.67610085 0
2.7580001 -0.34798995 0.6762163 0
2.7590003 -0.35237324 0.67633176 0
2.7600002 -0.35676008 0.67644721 0
2.7610002 -0.36115056 0.67656267 0
2.7640002 -0.36581519 0.67690897 0
2.7560003 -0.3689827 0.67598546 0
2.7570002 -0.37337136 0.67610085 0
2.7570002 -0.37762293 0.67610085 0
2.7570002 -0.3818745 0.67610085 0
2.7570002 -0.3861261 0.67610085 0
2.7580001 -0.39052376 0.6762163 0
2.7590003 -0.39492509 0.67633176 0
2.7600002 -0.39932996 0.67644721 0
2.7600002 -0.40358695 0.67644721 0
2.7620003 -0.40815061 0.67667812 0
2.7630002 -0.41256633 0.67679358 0
2.7640002 -0.41698563 0.67690897 0
2.7660003 -0.42156729 0.67713988 0
2.7680001 -0.42615616 0.67737079 0
2.7700002 -0.43075231 0.67760164 0
2.7730002 -0.43551975 0.677948 0
2.7760003 -0.44029805 0.6782943 0
2.7810001 -0.44542265 0.67887151 0
2.7300003 -0.016579887 0.66878104 0
2.7300003 -0.020782759 0.66878104 0
2.7300003 -0.024985634 0.66878104 0
2.7300003 -0.029188506 0.66878104 0
2.7300003 -0.033391379 0.66878104 0
2.7300003 -0.037594251 0.66878104 0
2.7300003 -0.041797128 0.66878104 0
2.7300003 -0.046 0.66878104 0
2.7300003 -0.050202873 0.66878104 0
2.7300003 -0.054405749 0.66878104 0
2.7900002 -0.16671085 0.67559946 0
2.7820003 -0.17060347 0.67469031 0
2.7750001 -0.17452133 0.67389482 0
2.7700002 -0.17852579 0.67332661 0
2.7670002 -0.18262765 0.67298567 0
2.7640002 -0.18671869 0.67264479 0
2.7620003 -0.19086024 0.67241752 0
2.7590003 -0.19493145 0.67207658 0
2.7580001 -0.19912167 0.67196292 0
2.7570002 -0.20330833 0.67184931 0
2.7560003 -0.20749135 0.67173564 0
2.7560003 -0.21174113 0.67173564 0
2.7560003 -0.21599089 0.67173564 0
2.7560003 -0.22024067 0.67173564 0
2.7570002 -0.22456619 0.67184931 0
2.7580001 -0.22889534 0.67196292 0
2.7590003 -0.23322809 0.67207658 0
2.7620003 -0.23772679 0.67241752 0
2.7640002 -0.24215332 0.67264479 0
2.7680001 -0.24675664 0.67309934 0
2.7720003 -0.25137439 0.67355394 0
2.7790003 -0.25627172 0.67434943 0
2.7900002 -0.26155508 0.67559946 0
3.0200002 -0.29175082 0.70173657 0
3.0170002 -0.29618999 0.70139563 0
3.0140002 -0.30061835 0.70105475 0
3.0120003 -0.30513513 0.70082748 0
3.0100002 -0.30964461 0.70060021 0
2.7950003 -0.29224688 0.67616761 0
2.7870002 -0.29573002 0.67525852 0
2.7810001 -0.29939717 0.67457664 0
2.7760003 -0.30315092 0.67400849 0
2.7730002 -0.30710664 0.67366755 0
2.7690003 -0.31093976 0.67321301 0
2.7670002 -0.31498569 0.67298567 0
2.7640002 -0.31890896 0.67264479 0
2.7620003 -0.32293868 0.67241752 0
2.7610002 -0.32708022 0.67230386 0
2.7600002 -0.33121815 0.67219019 0
