# .PCD v0.7 - Point Cloud Data file format
VERSION 0.7
FIELDS x y z intensity
SIZE 4 4 4 4
TYPE F F F F
COUNT 1 1 1 1
WIDTH 1413
HEIGHT 1
VIEWPOINT 0 0 0 1 0 0 0
POINTS 1413
DATA ascii
3.0030003 -1.3325157 0.96274221 0
3.0000002 -1.3357229 0.96209824 0
2.9970002 -1.3389193 0.96145439 0
2.9940002 -1.3421048 0.9608103 0
2.9910002 -1.3452795 0.96016634 0
2.9890003 -1.3489467 0.95973718 0
2.9860003 -1.3521016 0.95909321 0
2.9830003 -1.3552456 0.95844913 0
2.9800003 -1.3583788 0.95780528 0
2.9770002 -1.3615011 0.95716131 0
2.9740002 -1.3646127 0.95651722 0
2.9710002 -1.3677135 0.95587337 0
2.9680002 -1.3708032 0.9552294 0
2.9650002 -1.3738824 0.95458543 0
2.9630003 -1.3774703 0.95415616 0
2.9600003 -1.3805295 0.95351219 0
2.9570003 -1.3835779 0.95286822 0
2.9540002 -1.3866155 0.95222425 0
2.9510002 -1.3896424 0.95158029 0
2.9480002 -1.3926582 0.95093632 0
2.9460001 -1.3961936 0.95050693 0
2.9430003 -1.3991899 0.94986308 0
2.9400003 -1.4021753 0.94921911 0
2.9370003 -1.4051497 0.94857514 0
2.9340003 -1.4081132 0.94793117 0
2.9320002 -1.4116055 0.9475019 0
2.9290001 -1.4145492 0.94685793 0
2.9260001 -1.4174823 0.94621396 0
2.9230001 -1.4204044 0.94556999 0
2.9210002 -1.4238623 0.94514072 0
2.9180002 -1.4267647 0.94449675 0
2.9150002 -1.4296561 0.94385278 0
2.9120002 -1.4325368 0.94320881 0
2.9100003 -1.4359605 0.94277954 0
2.9070003 -1.4388214 0.94213557 0
2.9040003 -1.4416715 0.9414916 0
2.9010003 -1.4445106 0.94084764 0
2.8990002 -1.4478999 0.94041836 0
2.8960001 -1.4507192 0.93977439 0
2.8930001 -1.4535278 0.93913031 0
2.8910003 -1.456892 0.93870103 0
2.8880002 -1.4596806 0.93805718 0
2.8850002 -1.4624585 0.93741322 0
2.8820002 -1.4652255 0.93676913 0
2.8800001 -1.4685553 0.93633986 0
2.8770003 -1.4713026 0.93569601 0
3.1010003 -1.2250448 0.97890615 0
3.0980003 -1.2286021 0.97826767 0
3.0950003 -1.2321482 0.97762907 0
3.0910003 -1.2352418 0.97677767 0
3.0880003 -1.2387646 0.97613919 0
3.0850003 -1.2422767 0.97550058 0
3.0820003 -1.2457778 0.97486198 0
3.0790002 -1.2492682 0.97422349 0
3.0760002 -1.2527477 0.97358489 0
3.0730002 -1.2562164 0.97294641 0
3.0700002 -1.2596743 0.9723078 0
3.0670002 -1.2631214 0.9716692 0
3.0630002 -1.2660995 0.97081792 0
3.0600002 -1.2695231 0.97017932 0
3.0570002 -1.2729359 0.96954072 0
3.0540001 -1.2763379 0.96890223 0
3.0510001 -1.279729 0.96826363 0
3.0480003 -1.2831095 0.96762514 0
3.0450003 -1.286479 0.96698666 0
3.0420003 -1.2898377 0.96634805 0
3.0390003 -1.2931855 0.96570945 0
3.0360003 -1.2965226 0.96507096 0
3.0330002 -1.2998488 0.96443248 0
3.0300002 -1.3031641 0.96379387 0
3.0270002 -1.3064687 0.96315527 0
3.0240002 -1.3097625 0.96251678 0
3.0210001 -1.3130454 0.96187818 0
3.0180001 -1.3163174 0.9612397 0
3.0150001 -1.3195788 0.96060109 0
3.0120003 -1.3228292 0.95996261 0
3.0090003 -1.326069 0.959324 0
3.0060003 -1.3292978 0.95868552 0
3.0030003 -1.3325157 0.95804691 0
3.0000002 -1.3357229 0.95740843 0
2.9970002 -1.3389193 0.95676982 0
2.9940002 -1.3421048 0.95613122 0
2.9910002 -1.3452795 0.95549273 0
2.9890003 -1.3489467 0.95506704 0
2.9860003 -1.3521016 0.95442843 0
2.9830003 -1.3552456 0.95378995 0
2.9800003 -1.3583788 0.95315146 0
2.9770002 -1.3615011 0.95251286 0
2.9740002 -1.3646127 0.95187426 0
2.9710002 -1.3677135 0.95123577 0
2.9680002 -1.3708032 0.95059717 0
2.9650002 -1.3738824 0.94995868 0
2.9630003 -1.3774703 0.94953299 0
2.9600003 -1.3805295 0.94889438 0
2.9570003 -1.3835779 0.9482559 0
2.9540002 -1.3866155 0.94761729 0
2.9510002 -1.3896424 0.94697869 0
2.9480002 -1.3926582 0.9463402 0
2.9460001 -1.3961936 0.94591451 0
2.9430003 -1.3991899 0.94527602 0
2.9400003 -1.4021753 0.94463742 0
2.9370003 -1.4051497 0.94399893 0
2.9340003 -1.4081132 0.94336033 0
2.9320002 -1.4116055 0.94293463 0
2.9290001 -1.4145492 0.94229603 0
2.9260001 -1.4174823 0.94165754 0
2.9230001 -1.4204044 0.94101894 0
2.9210002 -1.4238623 0.94059336 0
2.9180002 -1.4267647 0.93995476 0
2.9150002 -1.4296561 0.93931615 0
2.9120002 -1.4325368 0.93867767 0
2.9100003 -1.4359605 0.93825197 0
2.9070003 -1.4388214 0.93761337 0
2.9040003 -1.4416715 0.93697488 0
2.9010003 -1.4445106 0.93633628 0
2.8990002 -1.4478999 0.93591058 0
2.8960001 -1.4507192 0.9352721 0
2.8930001 -1.4535278 0.93463349 0
2.8910003 -1.456892 0.9342078 0
2.8880002 -1.4596806 0.93356919 0
2.8850002 -1.4624585 0.93293071 0
2.8820002 -1.4652255 0.9322921 0
2.8800001 -1.4685553 0.93186641 0
2.8770003 -1.4713026 0.93122792 0
3.1010003 -1.2250448 0.97403407 0
3.0980003 -1.2286021 0.97340095 0
3.0950003 -1.2321482 0.97276783 0
3.0910003 -1.2352418 0.97192359 0
3.0880003 -1.2387646 0.97129047 0
3.0850003 -1.2422767 0.97065735 0
3.0820003 -1.2457778 0.97002423 0
3.0790002 -1.2492682 0.96939111 0
3.0760002 -1.2527477 0.96875799 0
3.0730002 -1.2562164 0.96812475 0
3.0700002 -1.2596743 0.96749163 0
3.0670002 -1.2631214 0.96685851 0
3.0630002 -1.2660995 0.96601439 0
3.0600002 -1.2695231 0.96538115 0
3.0570002 -1.2729359 0.96474802 0
3.0540001 -1.2763379 0.9641149 0
3.0510001 -1.279729 0.96348178 0
3.0480003 -1.2831095 0.96284866 0
3.0450003 -1.286479 0.96221554 0
3.0420003 -1.2898377 0.96158242 0
3.0390003 -1.2931855 0.9609493 0
3.0360003 -1.2965226 0.96031618 0
3.0330002 -1.2998488 0.95968294 0
3.0300002 -1.3031641 0.95904982 0
3.0270002 -1.3064687 0.9584167 0
3.0240002 -1.3097625 0.95778358 0
3.0210001 -1.3130454 0.95715046 0
3.0180001 -1.3163174 0.95651722 0
3.0150001 -1.3195788 0.9558841 0
3.0120003 -1.3228292 0.9552511 0
3.0090003 -1.326069 0.95461786 0
3.0060003 -1.3292978 0.95398474 0
3.0030003 -1.3325157 0.95335162 0
3.0000002 -1.3357229 0.9527185 0
2.9970002 -1.3389193 0.95208526 0
2.9940002 -1.3421048 0.95145226 0
2.9910002 -1.3452795 0.95081902 0
2.9890003 -1.3489467 0.95039701 0
2.9860003 -1.3521016 0.94976389 0
2.9830003 -1.3552456 0.94913077 0
2.9800003 -1.3583788 0.94849753 0
2.9770002 -1.3615011 0.94786441 0
2.9740002 -1.3646127 0.94723129 0
2.9710002 -1.3677135 0.94659817 0
2.9680002 -1.3708032 0.94596505 0
2.9650002 -1.3738824 0.94533193 0
2.9630003 -1.3774703 0.94490981 0
2.9600003 -1.3805295 0.94427669 0
2.9570003 -1.3835779 0.94364345 0
2.9540002 -1.3866155 0.94301045 0
2.9510002 -1.3896424 0.94237721 0
2.9480002 -1.3926582 0.94174409 0
2.9460001 -1.3961936 0.94132197 0
2.9430003 -1.3991899 0.94068897 0
2.9400003 -1.4021753 0.94005573 0
2.9370003 -1.4051497 0.93942261 0
2.9340003 -1.4081132 0.93878949 0
2.9320002 -1.4116055 0.93836737 0
2.9290001 -1.4145492 0.93773425 0
2.9260001 -1.4174823 0.93710113 0
2.9230001 -1.4204044 0.93646801 0
2.9210002 -1.4238623 0.93604589 0
2.9180002 -1.4267647 0.93541276 0
2.9150002 -1.4296561 0.93477964 0
2.9120002 -1.4325368 0.93414652 0
2.9100003 -1.4359605 0.9337244 0
2.9070003 -1.4388214 0.93309128 0
2.9040003 -1.4416715 0.93245816 0
2.9010003 -1.4445106 0.93182492 0
2.8990002 -1.4478999 0.9314028 0
2.8960001 -1.4507192 0.93076968 0
2.8930001 -1.4535278 0.93013656 0
2.8910003 -1.456892 0.92971456 0
2.8880002 -1.4596806 0.92908132 0
2.8850002 -1.4624585 0.92844832 0
2.8820002 -1.4652255 0.92781508 0
2.8800001 -1.4685553 0.92739296 0
2.8770003 -1.4713026 0.92675984 0
3.1010003 -1.2250448 0.96916199 0
3.0980003 -1.2286021 0.96853423 0
3.0950003 -1.2321482 0.96790659 0
3.0910003 -1.2352418 0.96706963 0
3.0880003 -1.2387646 0.96644187 0
3.0850003 -1.2422767 0.96581411 0
3.0820003 -1.2457778 0.96518648 0
3.0790002 -1.2492682 0.96455872 0
3.0760002 -1.2527477 0.96393096 0
3.0730002 -1.2562164 0.96330321 0
3.0700002 -1.2596743 0.96267545 0
3.0670002 -1.2631214 0.96204782 0
3.0630002 -1.2660995 0.96121085 0
3.0600002 -1.2695231 0.96058309 0
3.0570002 -1.2729359 0.95995533 0
3.0540001 -1.2763379 0.95932758 0
3.0510001 -1.279729 0.95869982 0
3.0480003 -1.2831095 0.95807219 0
3.0450003 -1.286479 0.95744455 0
3.0420003 -1.2898377 0.95681667 0
3.0390003 -1.2931855 0.95618904 0
3.0360003 -1.2965226 0.95556128 0
3.0330002 -1.2998488 0.95493352 0
3.0300002 -1.3031641 0.95430589 0
3.0270002 -1.3064687 0.95367813 0
3.0240002 -1.3097625 0.95305037 0
3.0210001 -1.3130454 0.95242262 0
3.0180001 -1.3163174 0.95179486 0
3.0150001 -1.3195788 0.95116723 0
3.0120003 -1.3228292 0.95053947 0
3.0090003 -1.326069 0.94991171 0
3.0060003 -1.3292978 0.94928408 0
3.0030003 -1.3325157 0.94865632 0
3.0000002 -1.3357229 0.94802856 0
2.9970002 -1.3389193 0.94740081 0
2.9940002 -1.3421048 0.94677317 0
2.9910002 -1.3452795 0.94614542 0
2.9890003 -1.3489467 0.94572699 0
2.9860003 -1.3521016 0.94509923 0
2.9830003 -1.3552456 0.94447148 0
2.9800003 -1.3583788 0.94384372 0
2.9770002 -1.3615011 0.94321597 0
2.9740002 -1.3646127 0.94258833 0
2.9710002 -1.3677135 0.94196057 0
2.9680002 -1.3708032 0.94133282 0
2.9650002 -1.3738824 0.94070506 0
2.9630003 -1.3774703 0.94028664 0
2.9600003 -1.3805295 0.93965888 0
2.9570003 -1.3835779 0.93903124 0
2.9540002 -1.3866155 0.93840349 0
2.9510002 -1.3896424 0.93777573 0
2.9480002 -1.3926582 0.93714797 0
2.9460001 -1.3961936 0.93672955 0
2.9430003 -1.3991899 0.93610179 0
2.9400003 -1.4021753 0.93547404 0
2.9370003 -1.4051497 0.9348464 0
2.9340003 -1.4081132 0.93421865 0
2.9320002 -1.4116055 0.9338001 0
2.9290001 -1.4145492 0.93317246 0
2.9260001 -1.4174823 0.93254459 0
2.9230001 -1.4204044 0.93191695 0
2.9210002 -1.4238623 0.93149841 0
2.9180002 -1.4267647 0.93087077 0
2.9150002 -1.4296561 0.93024302 0
2.9120002 -1.4325368 0.92961526 0
2.9100003 -1.4359605 0.92919683 0
2.9070003 -1.4388214 0.92856908 0
2.9040003 -1.4416715 0.92794132 0
2.9010003 -1.4445106 0.92731369 0
2.8990002 -1.4478999 0.92689514 0
2.8960001 -1.4507192 0.92626739 0
2.8930001 -1.4535278 0.92563963 0
2.8910003 -1.456892 0.9252212 0
2.8880002 -1.4596806 0.92459357 0
2.8850002 -1.4624585 0.92396581 0
2.8820002 -1.4652255 0.92333806 0
2.8800001 -1.4685553 0.92291951 0
2.8770003 -1.4713026 0.92229187 0
3.1010003 -1.2250448 0.9642899 0
3.0980003 -1.2286021 0.96366763 0
3.0950003 -1.2321482 0.96304524 0
3.0910003 -1.2352418 0.96221554 0
3.0880003 -1.2387646 0.96159327 0
3.0850003 -1.2422767 0.96097088 0
3.0820003 -1.2457778 0.96034861 0
3.0790002 -1.2492682 0.95972633 0
3.0760002 -1.2527477 0.95910394 0
3.0730002 -1.2562164 0.95848167 0
3.0700002 -1.2596743 0.9578594 0
3.0670002 -1.2631214 0.95723701 0
3.0630002 -1.2660995 0.95640731 0
3.0600002 -1.2695231 0.95578492 0
3.0570002 -1.2729359 0.95516264 0
3.0540001 -1.2763379 0.95454025 0
3.0510001 -1.279729 0.95391798 0
3.0480003 -1.2831095 0.95329571 0
3.0450003 -1.286479 0.95267344 0
3.0420003 -1.2898377 0.95205104 0
3.0390003 -1.2931855 0.95142877 0
3.0360003 -1.2965226 0.9508065 0
3.0330002 -1.2998488 0.95018411 0
3.0300002 -1.3031641 0.94956183 0
3.0270002 -1.3064687 0.94893944 0
3.0240002 -1.3097625 0.94831717 0
3.0210001 -1.3130454 0.9476949 0
3.0180001 -1.3163174 0.94707251 0
3.0150001 -1.3195788 0.94645023 0
3.0120003 -1.3228292 0.94582796 0
3.0090003 -1.326069 0.94520569 0
3.0060003 -1.3292978 0.9445833 0
3.0030003 -1.3325157 0.94396102 0
3.0000002 -1.3357229 0.94333875 0
2.9970002 -1.3389193 0.94271636 0
2.9940002 -1.3421048 0.94209397 0
2.9910002 -1.3452795 0.9414717 0
2.9890003 -1.3489467 0.94105685 0
2.9860003 -1.3521016 0.94043458 0
2.9830003 -1.3552456 0.93981218 0
2.9800003 -1.3583788 0.93918991 0
2.9770002 -1.3615011 0.93856764 0
2.9740002 -1.3646127 0.93794525 0
2.9710002 -1.3677135 0.93732297 0
2.9680002 -1.3708032 0.9367007 0
2.9650002 -1.3738824 0.93607831 0
2.9630003 -1.3774703 0.93566346 0
2.9600003 -1.3805295 0.93504119 0
2.9570003 -1.3835779 0.93441892 0
2.9540002 -1.3866155 0.93379653 0
2.9510002 -1.3896424 0.93317425 0
2.9480002 -1.3926582 0.93255186 0
2.9460001 -1.3961936 0.93213701 0
2.9430003 -1.3991899 0.93151474 0
2.9400003 -1.4021753 0.93089247 0
2.9370003 -1.4051497 0.93027008 0
2.9340003 -1.4081132 0.9296478 0
2.9320002 -1.4116055 0.92923284 0
2.9290001 -1.4145492 0.92861056 0
2.9260001 -1.4174823 0.92798817 0
2.9230001 -1.4204044 0.9273659 0
2.9210002 -1.4238623 0.92695105 0
2.9180002 -1.4267647 0.92632878 0
2.9150002 -1.4296561 0.92570639 0
2.9120002 -1.4325368 0.92508411 0
2.9100003 -1.4359605 0.92466927 0
2.9070003 -1.4388214 0.92404699 0
2.9040003 -1.4416715 0.9234246 0
2.9010003 -1.4445106 0.92280233 0
2.8990002 -1.4478999 0.92238748 0
2.8960001 -1.4507192 0.92176509 0
2.8930001 -1.4535278 0.92114282 0
2.8910003 -1.456892 0.92072797 0
2.8880002 -1.4596806 0.9201057 0
2.8850002 -1.4624585 0.9194833 0
2.8820002 -1.4652255 0.91886103 0
2.8800001 -1.4685553 0.91844606 0
2.8770003 -1.4713026 0.91782391 0
3.1010003 -1.2250448 0.95941782 0
3.0980003 -1.2286021 0.95880091 0
3.0950003 -1.2321482 0.958184 0
3.0910003 -1.2352418 0.95736146 0
3.0880003 -1.2387646 0.95674467 0
3.0850003 -1.2422767 0.95612764 0
3.0820003 -1.2457778 0.95551074 0
3.0790002 -1.2492682 0.95489383 0
3.0760002 -1.2527477 0.95427704 0
3.0730002 -1.2562164 0.95366001 0
3.0700002 -1.2596743 0.9530431 0
3.0670002 -1.2631214 0.9524262 0
3.0630002 -1.2660995 0.95160365 0
3.0600002 -1.2695231 0.95098686 0
3.0570002 -1.2729359 0.95036995 0
3.0540001 -1.2763379 0.94975305 0
3.0510001 -1.279729 0.94913602 0
3.0480003 -1.2831095 0.94851923 0
3.0450003 -1.286479 0.94790232 0
3.0420003 -1.2898377 0.94728541 0
3.0390003 -1.2931855 0.94666851 0
3.0360003 -1.2965226 0.9460516 0
3.0330002 -1.2998488 0.94543469 0
3.0300002 -1.3031641 0.94481778 0
3.0270002 -1.3064687 0.94420087 0
3.0240002 -1.3097625 0.94358397 0
3.0210001 -1.3130454 0.94296706 0
3.0180001 -1.3163174 0.94235015 0
3.0150001 -1.3195788 0.94173324 0
3.0120003 -1.3228292 0.94111645 0
3.0090003 -1.326069 0.94049954 0
3.0060003 -1.3292978 0.93988264 0
3.0030003 -1.3325157 0.93926561 0
3.0000002 -1.3357229 0.93864882 0
2.9970002 -1.3389193 0.93803191 0
2.9940002 -1.3421048 0.937415 0
2.9910002 -1.3452795 0.9367981 0
2.9890003 -1.3489467 0.93638682 0
2.9860003 -1.3521016 0.93576992 0
2.9830003 -1.3552456 0.93515301 0
2.9800003 -1.3583788 0.9345361 0
2.9770002 -1.3615011 0.93391919 0
2.9740002 -1.3646127 0.93330228 0
2.9710002 -1.3677135 0.93268538 0
2.9680002 -1.3708032 0.93206847 0
2.9650002 -1.3738824 0.93145156 0
2.9630003 -1.3774703 0.93104041 0
2.9600003 -1.3805295 0.93042338 0
2.9570003 -1.3835779 0.92980647 0
2.9540002 -1.3866155 0.92918956 0
2.9510002 -1.3896424 0.92857277 0
2.9480002 -1.3926582 0.92795575 0
2.9460001 -1.3961936 0.92754447 0
2.9430003 -1.3991899 0.92692769 0
2.9400003 -1.4021753 0.92631078 0
2.9370003 -1.4051497 0.92569387 0
2.9340003 -1.4081132 0.92507696 0
2.9320002 -1.4116055 0.92466569 0
2.9290001 -1.4145492 0.92404878 0
2.9260001 -1.4174823 0.92343175 0
2.9230001 -1.4204044 0.92281497 0
2.9210002 -1.4238623 0.92240369 0
2.9180002 -1.4267647 0.92178679 0
2.9150002 -1.4296561 0.92116988 0
2.9120002 -1.4325368 0.92055297 0
2.9100003 -1.4359605 0.9201417 0
2.9070003 -1.4388214 0.91952479 0
2.9040003 -1.4416715 0.91890788 0
2.9010003 -1.4445106 0.91829097 0
2.8990002 -1.4478999 0.9178797 0
2.8960001 -1.4507192 0.91726279 0
2.8930001 -1.4535278 0.91664588 0
2.8910003 -1.456892 0.91623473 0
2.8880002 -1.4596806 0.9156177 0
2.8850002 -1.4624585 0.9150008 0
2.8820002 -1.4652255 0.91438389 0
2.8800001 -1.4685553 0.91397262 0
2.8770003 -1.4713026 0.91335583 0
3.1010003 -1.2250448 0.95454574 0
3.0980003 -1.2286021 0.95393431 0
3.0950003 -1.2321482 0.95332277 0
3.0910003 -1.2352418 0.9525075 0
3.0880003 -1.2387646 0.95189595 0
3.0850003 -1.2422767 0.95128453 0
3.0820003 -1.2457778 0.95067298 0
3.0790002 -1.2492682 0.95006144 0
3.0760002 -1.2527477 0.9494499 0
3.0730002 -1.2562164 0.94883847 0
3.0700002 -1.2596743 0.94822705 0
3.0670002 -1.2631214 0.9476155 0
3.0630002 -1.2660995 0.94680011 0
3.0600002 -1.2695231 0.94618869 0
3.0570002 -1.2729359 0.94557714 0
3.0540001 -1.2763379 0.94496572 0
3.0510001 -1.279729 0.94435418 0
3.0480003 -1.2831095 0.94374275 0
3.0450003 -1.286479 0.94313121 0
3.0420003 -1.2898377 0.94251978 0
3.0390003 -1.2931855 0.94190824 0
3.0360003 -1.2965226 0.94129682 0
3.0330002 -1.2998488 0.94068527 0
3.0300002 -1.3031641 0.94007373 0
3.0270002 -1.3064687 0.9394623 0
3.0240002 -1.3097625 0.93885076 0
3.0210001 -1.3130454 0.93823934 0
3.0180001 -1.3163174 0.93762779 0
3.0150001 -1.3195788 0.93701625 0
3.0120003 -1.3228292 0.93640482 0
3.0090003 -1.326069 0.9357934 0
3.0060003 -1.3292978 0.93518186 0
3.0030003 -1.3325157 0.93457031 0
3.0000002 -1.3357229 0.93395889 0
2.9970002 -1.3389193 0.93334734 0
2.9940002 -1.3421048 0.93273592 0
2.9910002 -1.3452795 0.93212438 0
2.9890003 -1.3489467 0.9317168 0
2.9860003 -1.3521016 0.93110526 0
2.9830003 -1.3552456 0.93049383 0
2.9800003 -1.3583788 0.92988229 0
2.9770002 -1.3615011 0.92927074 0
2.9740002 -1.3646127 0.9286592 0
2.9710002 -1.3677135 0.92804778 0
2.9680002 -1.3708032 0.92743635 0
2.9650002 -1.3738824 0.92682481 0
2.9630003 -1.3774703 0.92641711 0
2.9600003 -1.3805295 0.92580569 0
2.9570003 -1.3835779 0.92519414 0
2.9540002 -1.3866155 0.92458272 0
2.9510002 -1.3896424 0.92397118 0
2.9480002 -1.3926582 0.92335963 0
2.9460001 -1.3961936 0.92295206 0
2.9430003 -1.3991899 0.92234063 0
2.9400003 -1.4021753 0.92172909 0
2.9370003 -1.4051497 0.92111754 0
2.9340003 -1.4081132 0.92050612 0
2.9320002 -1.4116055 0.92009842 0
2.9290001 -1.4145492 0.91948688 0
2.9260001 -1.4174823 0.91887534 0
2.9230001 -1.4204044 0.91826391 0
2.9210002 -1.4238623 0.91785634 0
2.9180002 -1.4267647 0.91724479 0
2.9150002 -1.4296561 0.91663325 0
2.9120002 -1.4325368 0.91602182 0
2.9100003 -1.4359605 0.91561413 0
2.9070003 -1.4388214 0.9150027 0
2.9040003 -1.4416715 0.91439116 0
2.9010003 -1.4445106 0.91377962 0
2.8990002 -1.4478999 0.91337192 0
2.8960001 -1.4507192 0.9127605 0
2.8930001 -1.4535278 0.91214907 0
2.8910003 -1.456892 0.91174138 0
2.8880002 -1.4596806 0.91112983 0
2.8850002 -1.4624585 0.91051841 0
2.8820002 -1.4652255 0.90990686 0
2.8800001 -1.4685553 0.90949917 0
2.8770003 -1.4713026 0.90888774 0
3.1010003 -1.2250448 0.94967365 0
3.0980003 -1.2286021 0.94906759 0
3.0950003 -1.2321482 0.94846153 0
3.0910003 -1.2352418 0.94765341 0
3.0880003 -1.2387646 0.94704735 0
3.0850003 -1.2422767 0.94644129 0
3.0820003 -1.2457778 0.94583523 0
3.0790002 -1.2492682 0.94522905 0
3.0760002 -1.2527477 0.94462299 0
3.0730002 -1.2562164 0.94401693 0
3.0700002 -1.2596743 0.94341087 0
3.0670002 -1.2631214 0.94280469 0
3.0630002 -1.2660995 0.94199669 0
3.0600002 -1.2695231 0.94139051 0
3.0570002 -1.2729359 0.94078445 0
3.0540001 -1.2763379 0.94017839 0
3.0510001 -1.279729 0.93957233 0
3.0480003 -1.2831095 0.93896627 0
3.0450003 -1.286479 0.93836021 0
3.0420003 -1.2898377 0.93775415 0
3.0390003 -1.2931855 0.93714797 0
3.0360003 -1.2965226 0.93654191 0
3.0330002 -1.2998488 0.93593585 0
3.0300002 -1.3031641 0.93532979 0
3.0270002 -1.3064687 0.93472362 0
3.0240002 -1.3097625 0.93411756 0
3.0210001 -1.3130454 0.9335115 0
3.0180001 -1.3163174 0.93290544 0
3.0150001 -1.3195788 0.93229938 0
3.0120003 -1.3228292 0.93169332 0
3.0090003 -1.326069 0.93108726 0
3.0060003 -1.3292978 0.93048108 0
3.0030003 -1.3325157 0.92987502 0
3.0000002 -1.3357229 0.92926896 0
2.9970002 -1.3389193 0.9286629 0
2.9940002 -1.3421048 0.92805684 0
2.9910002 -1.3452795 0.92745078 0
2.9890003 -1.3489467 0.92704666 0
2.9860003 -1.3521016 0.9264406 0
2.9830003 -1.3552456 0.92583454 0
2.9800003 -1.3583788 0.92522848 0
2.9770002 -1.3615011 0.92462242 0
2.9740002 -1.3646127 0.92401636 0
2.9710002 -1.3677135 0.92341018 0
2.9680002 -1.3708032 0.92280412 0
2.9650002 -1.3738824 0.92219806 0
2.9630003 -1.3774703 0.92179406 0
2.9600003 -1.3805295 0.921188 0
2.9570003 -1.3835779 0.92058182 0
2.9540002 -1.3866155 0.91997576 0
2.9510002 -1.3896424 0.9193697 0
2.9480002 -1.3926582 0.91876364 0
2.9460001 -1.3961936 0.91835952 0
2.9430003 -1.3991899 0.91775346 0
2.9400003 -1.4021753 0.9171474 0
2.9370003 -1.4051497 0.91654134 0
2.9340003 -1.4081132 0.91593528 0
2.9320002 -1.4116055 0.91553116 0
2.9290001 -1.4145492 0.9149251 0
2.9260001 -1.4174823 0.91431892 0
2.9230001 -1.4204044 0.91371286 0
2.9210002 -1.4238623 0.91330886 0
2.9180002 -1.4267647 0.9127028 0
2.9150002 -1.4296561 0.91209674 0
2.9120002 -1.4325368 0.91149056 0
2.9100003 -1.4359605 0.91108656 0
2.9070003 -1.4388214 0.9104805 0
2.9040003 -1.4416715 0.90987444 0
2.9010003 -1.4445106 0.90926838 0
2.8990002 -1.4478999 0.90886426 0
2.8960001 -1.4507192 0.9082582 0
2.8930001 -1.4535278 0.90765214 0
2.8910003 -1.456892 0.90724802 0
2.8880002 -1.4596806 0.90664196 0
2.8850002 -1.4624585 0.9060359 0
2.8820002 -1.4652255 0.90542984 0
2.8800001 -1.4685553 0.90502584 0
2.8770003 -1.4713026 0.90441966 0
3.1010003 -1.2250448 0.94480157 0
3.0980003 -1.2286021 0.94420087 0
3.0950003 -1.2321482 0.9436003 0
3.0910003 -1.2352418 0.94279933 0
3.0880003 -1.2387646 0.94219863 0
3.0850003 -1.2422767 0.94159806 0
3.0820003 -1.2457778 0.94099736 0
3.0790002 -1.2492682 0.94039667 0
3.0760002 -1.2527477 0.93979597 0
3.0730002 -1.2562164 0.93919528 0
3.0700002 -1.2596743 0.93859458 0
3.0670002 -1.2631214 0.937994 0
3.0630002 -1.2660995 0.93719316 0
3.0600002 -1.2695231 0.93659246 0
3.0570002 -1.2729359 0.93599176 0
3.0540001 -1.2763379 0.93539107 0
3.0510001 -1.279729 0.93479049 0
3.0480003 -1.2831095 0.9341898 0
3.0450003 -1.286479 0.9335891 0
3.0420003 -1.2898377 0.93298841 0
3.0390003 -1.2931855 0.93238771 0
3.0360003 -1.2965226 0.93178713 0
3.0330002 -1.2998488 0.93118644 0
3.0300002 -1.3031641 0.93058574 0
3.0270002 -1.3064687 0.92998505 0
3.0240002 -1.3097625 0.92938435 0
3.0210001 -1.3130454 0.92878377 0
3.0180001 -1.3163174 0.92818308 0
3.0150001 -1.3195788 0.92758238 0
3.0120003 -1.3228292 0.92698181 0
3.0090003 -1.326069 0.92638111 0
3.0060003 -1.3292978 0.92578042 0
3.0030003 -1.3325157 0.92517972 0
3.0000002 -1.3357229 0.92457902 0
2.9970002 -1.3389193 0.92397845 0
2.9940002 -1.3421048 0.92337775 0
2.9910002 -1.3452795 0.92277706 0
2.9890003 -1.3489467 0.92237663 0
2.9860003 -1.3521016 0.92177594 0
2.9830003 -1.3552456 0.92117524 0
2.9800003 -1.3583788 0.92057455 0
2.9770002 -1.3615011 0.91997397 0
2.9740002 -1.3646127 0.91937327 0
2.9710002 -1.3677135 0.91877258 0
2.9680002 -1.3708032 0.91817188 0
2.9650002 -1.3738824 0.91757119 0
2.9630003 -1.3774703 0.91717088 0
2.9600003 -1.3805295 0.91657019 0
2.9570003 -1.3835779 0.91596949 0
2.9540002 -1.3866155 0.9153688 0
2.9510002 -1.3896424 0.9147681 0
2.9480002 -1.3926582 0.91416752 0
2.9460001 -1.3961936 0.91376698 0
2.9430003 -1.3991899 0.9131664 0
2.9400003 -1.4021753 0.91256571 0
2.9370003 -1.4051497 0.91196501 0
2.9340003 -1.4081132 0.91136444 0
2.9320002 -1.4116055 0.91096389 0
2.9290001 -1.4145492 0.9103632 0
2.9260001 -1.4174823 0.90976262 0
2.9230001 -1.4204044 0.90916193 0
2.9210002 -1.4238623 0.9087615 0
2.9180002 -1.4267647 0.90816081 0
2.9150002 -1.4296561 0.90756011 0
2.9120002 -1.4325368 0.90695941 0
2.9100003 -1.4359605 0.90655899 0
2.9070003 -1.4388214 0.90595829 0
2.9040003 -1.4416715 0.90535772 0
2.9010003 -1.4445106 0.90475702 0
2.8990002 -1.4478999 0.9043566 0
2.8960001 -1.4507192 0.9037559 0
2.8930001 -1.4535278 0.90315521 0
2.8910003 -1.456892 0.90275478 0
2.8880002 -1.4596806 0.90215415 0
2.8850002 -1.4624585 0.90155351 0
2.8820002 -1.4652255 0.90095282 0
2.8800001 -1.4685553 0.90055233 0
2.8770003 -1.4713026 0.8999517 0
3.1010003 -1.2250448 0.93992949 0
3.0980003 -1.2286021 0.93933427 0
3.0950003 -1.2321482 0.93873894 0
3.0910003 -1.2352418 0.93794525 0
3.0880003 -1.2387646 0.93735003 0
3.0850003 -1.2422767 0.9367547 0
3.0820003 -1.2457778 0.93615949 0
3.0790002 -1.2492682 0.93556428 0
3.0760002 -1.2527477 0.93496907 0
3.0730002 -1.2562164 0.93437374 0
3.0700002 -1.2596743 0.93377852 0
3.0670002 -1.2631214 0.93318319 0
3.0630002 -1.2660995 0.93238962 0
3.0600002 -1.2695231 0.93179429 0
3.0570002 -1.2729359 0.93119907 0
3.0540001 -1.2763379 0.93060374 0
3.0510001 -1.279729 0.93000853 0
3.0480003 -1.2831095 0.92941332 0
3.0450003 -1.286479 0.92881799 0
3.0420003 -1.2898377 0.92822278 0
3.0390003 -1.2931855 0.92762744 0
3.0360003 -1.2965226 0.92703223 0
3.0330002 -1.2998488 0.92643702 0
3.0300002 -1.3031641 0.92584169 0
3.0270002 -1.3064687 0.92524648 0
3.0240002 -1.3097625 0.92465127 0
3.0210001 -1.3130454 0.92405593 0
3.0180001 -1.3163174 0.92346072 0
3.0150001 -1.3195788 0.92286539 0
3.0120003 -1.3228292 0.9222703 0
3.0090003 -1.326069 0.92167497 0
3.0060003 -1.3292978 0.92107975 0
3.0030003 -1.3325157 0.92048442 0
3.0000002 -1.3357229 0.91988921 0
2.9970002 -1.3389193 0.91929388 0
2.9940002 -1.3421048 0.91869867 0
2.9910002 -1.3452795 0.91810334 0
2.9890003 -1.3489467 0.91770661 0
2.9860003 -1.3521016 0.91711128 0
2.9830003 -1.3552456 0.91651607 0
2.9800003 -1.3583788 0.91592085 0
2.9770002 -1.3615011 0.91532552 0
2.9740002 -1.3646127 0.91473031 0
2.9710002 -1.3677135 0.91413498 0
2.9680002 -1.3708032 0.91353977 0
2.9650002 -1.3738824 0.91294444 0
2.9630003 -1.3774703 0.91254771 0
2.9600003 -1.3805295 0.91195238 0
2.9570003 -1.3835779 0.91135716 0
2.9540002 -1.3866155 0.91076183 0
2.9510002 -1.3896424 0.91016662 0
2.9480002 -1.3926582 0.90957141 0
2.9460001 -1.3961936 0.90917456 0
2.9430003 -1.3991899 0.90857923 0
2.9400003 -1.4021753 0.90798402 0
2.9370003 -1.4051497 0.90738881 0
2.9340003 -1.4081132 0.90679348 0
2.9320002 -1.4116055 0.90639675 0
2.9290001 -1.4145492 0.90580142 0
2.9260001 -1.4174823 0.9052062 0
2.9230001 -1.4204044 0.90461087 0
2.9210002 -1.4238623 0.90421414 0
2.9180002 -1.4267647 0.90361881 0
2.9150002 -1.4296561 0.9030236 0
2.9120002 -1.4325368 0.90242827 0
2.9100003 -1.4359605 0.90203154 0
2.9070003 -1.4388214 0.90143621 0
2.9040003 -1.4416715 0.900841 0
2.9010003 -1.4445106 0.90024567 0
2.8990002 -1.4478999 0.89984882 0
2.8960001 -1.4507192 0.89925361 0
2.8930001 -1.4535278 0.89865834 0
2.8910003 -1.456892 0.89826149 0
2.8880002 -1.4596806 0.89766628 0
2.8850002 -1.4624585 0.897071 0
2.8820002 -1.4652255 0.89647579 0
2.8800001 -1.4685553 0.89607882 0
2.8770003 -1.4713026 0.89548367 0
3.1010003 -1.2250448 0.9350574 0
3.0980003 -1.2286021 0.93446755 0
3.0950003 -1.2321482 0.93387771 0
3.0910003 -1.2352418 0.93309128 0
3.0880003 -1.2387646 0.93250144 0
3.0850003 -1.2422767 0.93191159 0
3.0820003 -1.2457778 0.93132174 0
3.0790002 -1.2492682 0.93073189 0
3.0760002 -1.2527477 0.93014205 0
3.0730002 -1.2562164 0.9295522 0
3.0700002 -1.2596743 0.92896235 0
3.0670002 -1.2631214 0.9283725 0
3.0630002 -1.2660995 0.92758596 0
3.0600002 -1.2695231 0.92699611 0
3.0570002 -1.2729359 0.92640626 0
3.0540001 -1.2763379 0.92581654 0
3.0510001 -1.279729 0.92522669 0
3.0480003 -1.2831095 0.92463684 0
3.0450003 -1.286479 0.92404699 0
3.0420003 -1.2898377 0.92345715 0
3.0390003 -1.2931855 0.9228673 0
3.0360003 -1.2965226 0.92227745 0
3.0330002 -1.2998488 0.9216876 0
3.0300002 -1.3031641 0.92109776 0
3.0270002 -1.3064687 0.92050791 0
3.0240002 -1.3097625 0.91991806 0
3.0210001 -1.3130454 0.91932809 0
3.0180001 -1.3163174 0.91873837 0
3.0150001 -1.3195788 0.91814852 0
3.0120003 -1.3228292 0.91755867 0
3.0090003 -1.326069 0.91696882 0
3.0060003 -1.3292978 0.91637897 0
3.0030003 -1.3325157 0.91578913 0
3.0000002 -1.3357229 0.91519928 0
2.9970002 -1.3389193 0.91460943 0
2.9940002 -1.3421048 0.91401958 0
2.9910002 -1.3452795 0.91342974 0
2.9890003 -1.3489467 0.91303647 0
2.9860003 -1.3521016 0.91244662 0
2.9830003 -1.3552456 0.91185689 0
2.9800003 -1.3583788 0.91126704 0
2.9770002 -1.3615011 0.91067708 0
2.9740002 -1.3646127 0.91008723 0
2.9710002 -1.3677135 0.90949738 0
2.9680002 -1.3708032 0.90890753 0
2.9650002 -1.3738824 0.90831769 0
2.9630003 -1.3774703 0.90792453 0
2.9600003 -1.3805295 0.90733469 0
2.9570003 -1.3835779 0.90674484 0
2.9540002 -1.3866155 0.90615499 0
2.9510002 -1.3896424 0.90556514 0
2.9480002 -1.3926582 0.9049753 0
2.9460001 -1.3961936 0.90458202 0
2.9430003 -1.3991899 0.90399218 0
2.9400003 -1.4021753 0.90340233 0
2.9370003 -1.4051497 0.90281254 0
2.9340003 -1.4081132 0.90222269 0
2.9320002 -1.4116055 0.90182942 0
2.9290001 -1.4145492 0.90123963 0
2.9260001 -1.4174823 0.90064979 0
2.9230001 -1.4204044 0.90005982 0
2.9210002 -1.4238623 0.89966667 0
2.9180002 -1.4267647 0.89907682 0
2.9150002 -1.4296561 0.89848697 0
2.9120002 -1.4325368 0.89789712 0
2.9100003 -1.4359605 0.89750397 0
2.9070003 -1.4388214 0.89691412 0
2.9040003 -1.4416715 0.89632428 0
2.9010003 -1.4445106 0.89573437 0
2.8990002 -1.4478999 0.89534116 0
2.8960001 -1.4507192 0.89475125 0
2.8930001 -1.4535278 0.89416146 0
2.8910003 -1.456892 0.89376819 0
2.8880002 -1.4596806 0.89317834 0
2.8850002 -1.4624585 0.89258856 0
2.8820002 -1.4652255 0.89199871 0
2.8800001 -1.4685553 0.89160544 0
2.8770003 -1.4713026 0.89101565 0
3.1010003 -1.2250448 0.93018532 0
3.0980003 -1.2286021 0.92960095 0
3.0950003 -1.2321482 0.92901647 0
3.0910003 -1.2352418 0.9282372 0
3.0880003 -1.2387646 0.92765272 0
3.0850003 -1.2422767 0.92706835 0
3.0820003 -1.2457778 0.92648387 0
3.0790002 -1.2492682 0.92589939 0
3.0760002 -1.2527477 0.92531502 0
3.0730002 -1.2562164 0.92473066 0
3.0700002 -1.2596743 0.92414618 0
3.0670002 -1.2631214 0.92356169 0
3.0630002 -1.2660995 0.92278242 0
3.0600002 -1.2695231 0.92219806 0
3.0570002 -1.2729359 0.92161357 0
3.0540001 -1.2763379 0.92102921 0
3.0510001 -1.279729 0.92044473 0
3.0480003 -1.2831095 0.91986036 0
3.0450003 -1.286479 0.91927588 0
3.0420003 -1.2898377 0.91869152 0
3.0390003 -1.2931855 0.91810703 0
3.0360003 -1.2965226 0.91752255 0
3.0330002 -1.2998488 0.91693819 0
3.0300002 -1.3031641 0.9163537 0
3.0270002 -1.3064687 0.91576922 0
3.0240002 -1.3097625 0.91518486 0
3.0210001 -1.3130454 0.91460037 0
3.0180001 -1.3163174 0.91401601 0
3.0150001 -1.3195788 0.91343153 0
3.0120003 -1.3228292 0.91284716 0
3.0090003 -1.326069 0.91226268 0
3.0060003 -1.3292978 0.91167831 0
3.0030003 -1.3325157 0.91109383 0
3.0000002 -1.3357229 0.91050935 0
2.9970002 -1.3389193 0.90992498 0
2.9940002 -1.3421048 0.9093405 0
2.9910002 -1.3452795 0.90875602 0
2.9890003 -1.3489467 0.90836644 0
2.9860003 -1.3521016 0.90778208 0
2.9830003 -1.3552456 0.90719759 0
2.9800003 -1.3583788 0.90661311 0
2.9770002 -1.3615011 0.90602875 0
2.9740002 -1.3646127 0.90544426 0
2.9710002 -1.3677135 0.90485978 0
2.9680002 -1.3708032 0.90427542 0
2.9650002 -1.3738824 0.90369099 0
2.9630003 -1.3774703 0.90330136 0
2.9600003 -1.3805295 0.90271688 0
2.9570003 -1.3835779 0.90213251 0
2.9540002 -1.3866155 0.90154803 0
2.9510002 -1.3896424 0.90096366 0
2.9480002 -1.3926582 0.90037918 0
2.9460001 -1.3961936 0.89998949 0
2.9430003 -1.3991899 0.89940512 0
2.9400003 -1.4021753 0.89882064 0
2.9370003 -1.4051497 0.89823627 0
2.9340003 -1.4081132 0.89765185 0
2.9320002 -1.4116055 0.89726216 0
2.9290001 -1.4145492 0.89667773 0
2.9260001 -1.4174823 0.89609337 0
2.9230001 -1.4204044 0.89550889 0
2.9210002 -1.4238623 0.89511925 0
2.9180002 -1.4267647 0.89453483 0
2.9150002 -1.4296561 0.89395046 0
2.9120002 -1.4325368 0.89336598 0
2.9100003 -1.4359605 0.89297634 0
2.9070003 -1.4388214 0.89239192 0
2.9040003 -1.4416715 0.89180744 0
2.9010003 -1.4445106 0.89122307 0
2.8990002 -1.4478999 0.89083338 0
2.8960001 -1.4507192 0.89024895 0
2.8930001 -1.4535278 0.88966453 0
2.8910003 -1.456892 0.88927495 0
2.8880002 -1.4596806 0.88869047 0
2.8850002 -1.4624585 0.88810605 0
2.8820002 -1.4652255 0.88752162 0
2.8800001 -1.4685553 0.88713199 0
2.8770003 -1.4713026 0.88654757 0
3.1010003 -1.2250448 0.92531323 0
3.0980003 -1.2286021 0.92473423 0
3.0950003 -1.2321482 0.92415524 0
3.0910003 -1.2352418 0.92338312 0
3.0880003 -1.2387646 0.92280412 0
3.0850003 -1.2422767 0.92222512 0
3.0820003 -1.2457778 0.92164612 0
3.0790002 -1.2492682 0.921067 0
3.0760002 -1.2527477 0.920488 0
3.0730002 -1.2562164 0.919909 0
3.0700002 -1.2596743 0.91933 0
3.0670002 -1.2631214 0.918751 0
3.0630002 -1.2660995 0.91797888 0
3.0600002 -1.2695231 0.91739988 0
3.0570002 -1.2729359 0.91682088 0
3.0540001 -1.2763379 0.91624188 0
3.0510001 -1.279729 0.91566288 0
3.0480003 -1.2831095 0.91508389 0
3.0450003 -1.286479 0.91450477 0
3.0420003 -1.2898377 0.91392577 0
3.0390003 -1.2931855 0.91334677 0
3.0360003 -1.2965226 0.91276777 0
3.0330002 -1.2998488 0.91218877 0
3.0300002 -1.3031641 0.91160965 0
3.0270002 -1.3064687 0.91103065 0
3.0240002 -1.3097625 0.91045165 0
3.0210001 -1.3130454 0.90987253 0
3.0180001 -1.3163174 0.90929353 0
3.0150001 -1.3195788 0.90871453 0
3.0120003 -1.3228292 0.90813565 0
3.0090003 -1.326069 0.90755653 0
3.0060003 -1.3292978 0.90697753 0
3.0030003 -1.3325157 0.90639853 0
3.0000002 -1.3357229 0.90581942 0
2.9970002 -1.3389193 0.90524042 0
2.9940002 -1.3421048 0.90466142 0
2.9910002 -1.3452795 0.90408242 0
2.9890003 -1.3489467 0.90369642 0
2.9860003 -1.3521016 0.90311742 0
2.9830003 -1.3552456 0.9025383 0
2.9800003 -1.3583788 0.9019593 0
2.9770002 -1.3615011 0.9013803 0
2.9740002 -1.3646127 0.90080124 0
2.9710002 -1.3677135 0.90022224 0
2.9680002 -1.3708032 0.89964318 0
2.9650002 -1.3738824 0.89906418 0
2.9630003 -1.3774703 0.89867818 0
2.9600003 -1.3805295 0.89809918 0
2.9570003 -1.3835779 0.89752018 0
2.9540002 -1.3866155 0.89694113 0
2.9510002 -1.3896424 0.89636207 0
2.9480002 -1.3926582 0.89578307 0
2.9460001 -1.3961936 0.89539707 0
2.9430003 -1.3991899 0.89481807 0
2.9400003 -1.4021753 0.89423907 0
2.9370003 -1.4051497 0.89366001 0
2.9340003 -1.4081132 0.89308101 0
2.9320002 -1.4116055 0.89269495 0
2.9290001 -1.4145492 0.89211589 0
2.9260001 -1.4174823 0.89153695 0
2.9230001 -1.4204044 0.89095783 0
2.9210002 -1.4238623 0.89057183 0
2.9180002 -1.4267647 0.88999283 0
2.9150002 -1.4296561 0.88941383 0
2.9120002 -1.4325368 0.88883477 0
2.9100003 -1.4359605 0.88844883 0
2.9070003 -1.4388214 0.88786978 0
2.9040003 -1.4416715 0.88729072 0
2.9010003 -1.4445106 0.88671172 0
2.8990002 -1.4478999 0.88632572 0
2.8960001 -1.4507192 0.88574666 0
2.8930001 -1.4535278 0.88516766 0
2.8910003 -1.456892 0.88478166 0
2.8880002 -1.4596806 0.8842026 0
2.8850002 -1.4624585 0.8836236 0
2.8820002 -1.4652255 0.8830446 0
2.8800001 -1.4685553 0.8826586 0
2.8770003 -1.4713026 0.8820796 0
3.1010003 -1.2250448 0.92044115 0
3.0980003 -1.2286021 0.91986752 0
3.0950003 -1.2321482 0.91929388 0
3.0910003 -1.2352418 0.91852915 0
3.0880003 -1.2387646 0.91795552 0
3.0850003 -1.2422767 0.91738188 0
3.0820003 -1.2457778 0.91680825 0
3.0790002 -1.2492682 0.91623473 0
3.0760002 -1.2527477 0.91566098 0
3.0730002 -1.2562164 0.91508746 0
3.0700002 -1.2596743 0.91451383 0
3.0670002 -1.2631214 0.91394019 0
3.0630002 -1.2660995 0.91317534 0
3.0600002 -1.2695231 0.91260183 0
3.0570002 -1.2729359 0.91202819 0
3.0540001 -1.2763379 0.91145456 0
3.0510001 -1.279729 0.91088092 0
3.0480003 -1.2831095 0.91030741 0
3.0450003 -1.286479 0.90973377 0
3.0420003 -1.2898377 0.90916014 0
3.0390003 -1.2931855 0.9085865 0
3.0360003 -1.2965226 0.90801287 0
3.0330002 -1.2998488 0.90743935 0
3.0300002 -1.3031641 0.9068656 0
3.0270002 -1.3064687 0.90629208 0
3.0240002 -1.3097625 0.90571845 0
3.0210001 -1.3130454 0.90514481 0
3.0180001 -1.3163174 0.90457118 0
3.0150001 -1.3195788 0.9039976 0
3.0120003 -1.3228292 0.90342402 0
3.0090003 -1.326069 0.90285039 0
3.0060003 -1.3292978 0.90227681 0
3.0030003 -1.3325157 0.90170324 0
3.0000002 -1.3357229 0.90112954 0
2.9970002 -1.3389193 0.90055597 0
2.9940002 -1.3421048 0.89998233 0
2.9910002 -1.3452795 0.8994087 0
2.9890003 -1.3489467 0.89902633 0
2.9860003 -1.3521016 0.89845276 0
2.9830003 -1.3552456 0.89787912 0
2.9800003 -1.3583788 0.89730549 0
2.9770002 -1.3615011 0.89673185 0
2.9740002 -1.3646127 0.89615828 0
2.9710002 -1.3677135 0.89558464 0
2.9680002 -1.3708032 0.89501107 0
2.9650002 -1.3738824 0.89443743 0
2.9630003 -1.3774703 0.89405501 0
2.9600003 -1.3805295 0.89348143 0
2.9570003 -1.3835779 0.89290786 0
2.9540002 -1.3866155 0.89233422 0
2.9510002 -1.3896424 0.89176059 0
2.9480002 -1.3926582 0.89118695 0
2.9460001 -1.3961936 0.89080453 0
2.9430003 -1.3991899 0.89023095 0
2.9400003 -1.4021753 0.88965738 0
2.9370003 -1.4051497 0.88908374 0
2.9340003 -1.4081132 0.88851011 0
2.9320002 -1.4116055 0.88812768 0
2.9290001 -1.4145492 0.88755405 0
2.9260001 -1.4174823 0.88698053 0
2.9230001 -1.4204044 0.88640684 0
2.9210002 -1.4238623 0.88602448 0
2.9180002 -1.4267647 0.88545084 0
2.9150002 -1.4296561 0.8848772 0
2.9120002 -1.4325368 0.88430363 0
2.9100003 -1.4359605 0.88392127 0
2.9070003 -1.4388214 0.88334763 0
2.9040003 -1.4416715 0.882774 0
2.9010003 -1.4445106 0.88220042 0
2.8990002 -1.4478999 0.881818 0
2.8960001 -1.4507192 0.88124442 0
2.8930001 -1.4535278 0.88067073 0
2.8910003 -1.456892 0.88028836 0
2.8880002 -1.4596806 0.87971479 0
2.8850002 -1.4624585 0.87914109 0
2.8820002 -1.4652255 0.87856752 0
2.8800001 -1.4685553 0.87818515 0
2.8770003 -1.4713026 0.87761152 0
3.1010003 -1.2250448 0.91556907 0
3.0980003 -1.2286021 0.9150008 0
3.0950003 -1.2321482 0.91443264 0
3.0910003 -1.2352418 0.91367507 0
3.0880003 -1.2387646 0.91310692 0
3.0850003 -1.2422767 0.91253865 0
3.0820003 -1.2457778 0.9119705 0
3.0790002 -1.2492682 0.91140223 0
3.0760002 -1.2527477 0.91083407 0
3.0730002 -1.2562164 0.9102658 0
3.0700002 -1.2596743 0.90969765 0
3.0670002 -1.2631214 0.90912938 0
3.0630002 -1.2660995 0.90837193 0
3.0600002 -1.2695231 0.90780365 0
3.0570002 -1.2729359 0.9072355 0
3.0540001 -1.2763379 0.90666723 0
3.0510001 -1.279729 0.90609908 0
3.0480003 -1.2831095 0.90553093 0
3.0450003 -1.286479 0.90496266 0
3.0420003 -1.2898377 0.90439451 0
3.0390003 -1.2931855 0.9038263 0
3.0360003 -1.2965226 0.90325809 0
3.0330002 -1.2998488 0.90268987 0
3.0300002 -1.3031641 0.90212166 0
3.0270002 -1.3064687 0.90155351 0
3.0240002 -1.3097625 0.90098524 0
3.0210001 -1.3130454 0.90041709 0
3.0180001 -1.3163174 0.89984882 0
3.0150001 -1.3195788 0.89928067 0
3.0120003 -1.3228292 0.89871246 0
3.0090003 -1.326069 0.89814425 0
3.0060003 -1.3292978 0.89757603 0
3.0030003 -1.3325157 0.89700782 0
3.0000002 -1.3357229 0.89643967 0
2.9970002 -1.3389193 0.8958714 0
2.9940002 -1.3421048 0.89530325 0
2.9910002 -1.3452795 0.8947351 0
2.9890003 -1.3489467 0.89435631 0
2.9860003 -1.3521016 0.8937881 0
2.9830003 -1.3552456 0.89321989 0
2.9800003 -1.3583788 0.89265168 0
2.9770002 -1.3615011 0.89208353 0
2.9740002 -1.3646127 0.89151525 0
2.9710002 -1.3677135 0.8909471 0
2.9680002 -1.3708032 0.89037883 0
2.9650002 -1.3738824 0.88981068 0
2.9630003 -1.3774703 0.88943189 0
2.9600003 -1.3805295 0.88886368 0
2.9570003 -1.3835779 0.88829547 0
2.9540002 -1.3866155 0.88772726 0
2.9510002 -1.3896424 0.88715911 0
2.9480002 -1.3926582 0.88659084 0
2.9460001 -1.3961936 0.88621199 0
2.9430003 -1.3991899 0.88564384 0
2.9400003 -1.4021753 0.88507569 0
2.9370003 -1.4051497 0.88450748 0
2.9340003 -1.4081132 0.88393927 0
2.9320002 -1.4116055 0.88356048 0
2.9290001 -1.4145492 0.88299227 0
2.9260001 -1.4174823 0.88242406 0
2.9230001 -1.4204044 0.88185585 0
2.9210002 -1.4238623 0.88147712 0
2.9180002 -1.4267647 0.88090885 0
2.9150002 -1.4296561 0.8803407 0
2.9120002 -1.4325368 0.87977242 0
2.9100003 -1.4359605 0.8793937 0
2.9070003 -1.4388214 0.87882549 0
2.9040003 -1.4416715 0.87825727 0
2.9010003 -1.4445106 0.87768906 0
2.8990002 -1.4478999 0.87731028 0
2.8960001 -1.4507192 0.87674212 0
2.8930001 -1.4535278 0.87617385 0
2.8910003 -1.456892 0.87579513 0
2.8880002 -1.4596806 0.87522686 0
2.8850002 -1.4624585 0.8746587 0
2.8820002 -1.4652255 0.87409049 0
2.8800001 -1.4685553 0.87371165 0
2.8770003 -1.4713026 0.87314349 0
3.1010003 -1.2250448 0.91069698 0
3.0980003 -1.2286021 0.9101342 0
3.0950003 -1.2321482 0.90957141 0
3.0910003 -1.2352418 0.90882099 0
3.0880003 -1.2387646 0.9082582 0
3.0850003 -1.2422767 0.90769541 0
3.0820003 -1.2457778 0.90713263 0
3.0790002 -1.2492682 0.90656984 0
3.0760002 -1.2527477 0.90600705 0
3.0730002 -1.2562164 0.90544426 0
3.0700002 -1.2596743 0.90488148 0
3.0670002 -1.2631214 0.90431869 0
3.0630002 -1.2660995 0.90356833 0
3.0600002 -1.2695231 0.90300554 0
3.0570002 -1.2729359 0.90244269 0
3.0540001 -1.2763379 0.90187991 0
3.0510001 -1.279729 0.90131712 0
3.0480003 -1.2831095 0.90075439 0
3.0450003 -1.286479 0.90019155 0
3.0420003 -1.2898377 0.89962876 0
3.0390003 -1.2931855 0.89906603 0
3.0360003 -1.2965226 0.89850318 0
3.0330002 -1.2998488 0.8979404 0
3.0300002 -1.3031641 0.89737761 0
3.0270002 -1.3064687 0.89681482 0
3.0240002 -1.3097625 0.89625204 0
3.0210001 -1.3130454 0.89568925 0
3.0180001 -1.3163174 0.89512646 0
3.0150001 -1.3195788 0.89456367 0
3.0120003 -1.3228292 0.89400089 0
3.0090003 -1.326069 0.89343816 0
3.0060003 -1.3292978 0.89287531 0
3.0030003 -1.3325157 0.89231253 0
3.0000002 -1.3357229 0.89174974 0
2.9970002 -1.3389193 0.89118695 0
2.9940002 -1.3421048 0.89062417 0
2.9910002 -1.3452795 0.89006138 0
2.9890003 -1.3489467 0.88968623 0
2.9860003 -1.3521016 0.88912344 0
2.9830003 -1.3552456 0.88856065 0
2.9800003 -1.3583788 0.88799787 0
2.9770002 -1.3615011 0.88743508 0
2.9740002 -1.3646127 0.88687229 0
2.9710002 -1.3677135 0.88630944 0
2.9680002 -1.3708032 0.88574672 0
2.9650002 -1.3738824 0.88518393 0
2.9630003 -1.3774703 0.88480878 0
2.9600003 -1.3805295 0.88424593 0
2.9570003 -1.3835779 0.88368309 0
2.9540002 -1.3866155 0.88312036 0
2.9510002 -1.3896424 0.88255757 0
2.9480002 -1.3926582 0.88199472 0
2.9460001 -1.3961936 0.88161957 0
2.9430003 -1.3991899 0.88105679 0
2.9400003 -1.4021753 0.880494 0
2.9370003 -1.4051497 0.87993121 0
2.9340003 -1.4081132 0.87936842 0
2.9320002 -1.4116055 0.87899321 0
2.9290001 -1.4145492 0.87843037 0
2.9260001 -1.4174823 0.87786764 0
2.9230001 -1.4204044 0.87730485 0
2.9210002 -1.4238623 0.8769297 0
2.9180002 -1.4267647 0.87636685 0
2.9150002 -1.4296561 0.87580407 0
2.9120002 -1.4325368 0.87524128 0
2.9100003 -1.4359605 0.87486613 0
2.9070003 -1.4388214 0.87430334 0
2.9040003 -1.4416715 0.87374055 0
2.9010003 -1.4445106 0.87317777 0
2.8990002 -1.4478999 0.8728025 0
2.8960001 -1.4507192 0.87223977 0
2.8930001 -1.4535278 0.87167692 0
2.8910003 -1.456892 0.87130177 0
2.8880002 -1.4596806 0.87073898 0
2.8850002 -1.4624585 0.8701762 0
2.8820002 -1.4652255 0.86961341 0
2.8800001 -1.4685553 0.86923826 0
2.8770003 -1.4713026 0.86867547 0
3.1010003 -1.2250448 0.9058249 0
3.0980003 -1.2286021 0.90526748 0
3.0950003 -1.2321482 0.90471017 0
3.0910003 -1.2352418 0.90396702 0
3.0880003 -1.2387646 0.9034096 0
3.0850003 -1.2422767 0.90285218 0
3.0820003 -1.2457778 0.90229481 0
3.0790002 -1.2492682 0.90173745 0
3.0760002 -1.2527477 0.90118009 0
3.0730002 -1.2562164 0.90062267 0
3.0700002 -1.2596743 0.9000653 0
3.0670002 -1.2631214 0.89950794 0
3.0630002 -1.2660995 0.89876473 0
3.0600002 -1.2695231 0.89820743 0
3.0570002 -1.2729359 0.89765 0
3.0540001 -1.2763379 0.89709258 0
3.0510001 -1.279729 0.89653528 0
3.0480003 -1.2831095 0.89597785 0
3.0450003 -1.286479 0.89542055 0
3.0420003 -1.2898377 0.89486313 0
3.0390003 -1.2931855 0.89430577 0
3.0360003 -1.2965226 0.8937484 0
3.0330002 -1.2998488 0.89319098 0
3.0300002 -1.3031641 0.89263362 0
3.0270002 -1.3064687 0.89207625 0
3.0240002 -1.3097625 0.89151883 0
3.0210001 -1.3130454 0.89096153 0
3.0180001 -1.3163174 0.89040411 0
3.0150001 -1.3195788 0.88984668 0
3.0120003 -1.3228292 0.88928938 0
3.0090003 -1.326069 0.88873202 0
3.0060003 -1.3292978 0.88817465 0
3.0030003 -1.3325157 0.88761723 0
3.0000002 -1.3357229 0.88705987 0
2.9970002 -1.3389193 0.8865025 0
2.9940002 -1.3421048 0.88594508 0
2.9910002 -1.3452795 0.88538778 0
2.9890003 -1.3489467 0.8850162 0
2.9860003 -1.3521016 0.88445878 0
2.9830003 -1.3552456 0.88390136 0
2.9800003 -1.3583788 0.88334405 0
2.9770002 -1.3615011 0.88278663 0
2.9740002 -1.3646127 0.88222927 0
2.9710002 -1.3677135 0.88167191 0
2.9680002 -1.3708032 0.88111448 0
2.9650002 -1.3738824 0.88055712 0
2.9630003 -1.3774703 0.88018554 0
2.9600003 -1.3805295 0.87962818 0
2.9570003 -1.3835779 0.87907076 0
2.9540002 -1.3866155 0.87851346 0
2.9510002 -1.3896424 0.87795603 0
2.9480002 -1.3926582 0.87739861 0
2.9460001 -1.3961936 0.87702703 0
2.9430003 -1.3991899 0.87646973 0
2.9400003 -1.4021753 0.87591231 0
2.9370003 -1.4051497 0.87535495 0
2.9340003 -1.4081132 0.87479758 0
2.9320002 -1.4116055 0.87442601 0
2.9290001 -1.4145492 0.87386858 0
2.9260001 -1.4174823 0.87331122 0
2.9230001 -1.4204044 0.8727538 0
2.9210002 -1.4238623 0.87238228 0
2.9180002 -1.4267647 0.87182486 0
2.9150002 -1.4296561 0.87126756 0
2.9120002 -1.4325368 0.87071013 0
2.9100003 -1.4359605 0.87033856 0
2.9070003 -1.4388214 0.86978114 0
2.9040003 -1.4416715 0.86922383 0
2.9010003 -1.4445106 0.86866641 0
2.8990002 -1.4478999 0.86829484 0
2.8960001 -1.4507192 0.86773747 0
2.8930001 -1.4535278 0.86718005 0
2.8910003 -1.456892 0.86680853 0
2.8880002 -1.4596806 0.86625111 0
2.8850002 -1.4624585 0.86569375 0
2.8820002 -1.4652255 0.86513638 0
2.8800001 -1.4685553 0.86476481 0
2.8770003 -1.4713026 0.86420745 0
3.1010003 -1.2250448 0.90095282 0
3.0980003 -1.2286021 0.90040082 0
3.0950003 -1.2321482 0.89984882 0
3.0910003 -1.2352418 0.89911294 0
3.0880003 -1.2387646 0.898561 0
3.0850003 -1.2422767 0.898009 0
3.0820003 -1.2457778 0.897457 0
3.0790002 -1.2492682 0.89690506 0
3.0760002 -1.2527477 0.89635313 0
3.0730002 -1.2562164 0.89580107 0
3.0700002 -1.2596743 0.89524913 0
3.0670002 -1.2631214 0.89469719 0
3.0630002 -1.2660995 0.89396119 0
3.0600002 -1.2695231 0.89340925 0
3.0570002 -1.2729359 0.89285731 0
3.0540001 -1.2763379 0.89230531 0
3.0510001 -1.279729 0.89175332 0
3.0480003 -1.2831095 0.89120144 0
3.0450003 -1.286479 0.89064944 0
3.0420003 -1.2898377 0.8900975 0
3.0390003 -1.2931855 0.8895455 0
3.0360003 -1.2965226 0.8889935 0
3.0330002 -1.2998488 0.88844156 0
3.0300002 -1.3031641 0.88788962 0
3.0270002 -1.3064687 0.88733768 0
3.0240002 -1.3097625 0.88678569 0
3.0210001 -1.3130454 0.88623369 0
3.0180001 -1.3163174 0.88568175 0
3.0150001 -1.3195788 0.88512981 0
3.0120003 -1.3228292 0.88457781 0
3.0090003 -1.326069 0.88402581 0
3.0060003 -1.3292978 0.88347387 0
3.0030003 -1.3325157 0.88292193 0
3.0000002 -1.3357229 0.88237 0
2.9970002 -1.3389193 0.881818 0
2.9940002 -1.3421048 0.881266 0
2.9910002 -1.3452795 0.88071406 0
2.9890003 -1.3489467 0.88034612 0
2.9860003 -1.3521016 0.87979412 0
2.9830003 -1.3552456 0.87924218 0
2.9800003 -1.3583788 0.87869018 0
2.9770002 -1.3615011 0.87813818 0
2.9740002 -1.3646127 0.87758625 0
2.9710002 -1.3677135 0.87703431 0
2.9680002 -1.3708032 0.87648231 0
2.9650002 -1.3738824 0.87593031 0
2.9630003 -1.3774703 0.87556243 0
2.9600003 -1.3805295 0.87501043 0
2.9570003 -1.3835779 0.87445849 0
2.9540002 -1.3866155 0.87390649 0
2.9510002 -1.3896424 0.87335455 0
2.9480002 -1.3926582 0.8728025 0
2.9460001 -1.3961936 0.8724345 0
2.9430003 -1.3991899 0.87188262 0
2.9400003 -1.4021753 0.87133062 0
2.9370003 -1.4051497 0.87077868 0
2.9340003 -1.4081132 0.87022674 0
2.9320002 -1.4116055 0.86985874 0
2.9290001 -1.4145492 0.8693068 0
2.9260001 -1.4174823 0.8687548 0
2.9230001 -1.4204044 0.86820281 0
2.9210002 -1.4238623 0.86783493 0
2.9180002 -1.4267647 0.86728287 0
2.9150002 -1.4296561 0.86673093 0
2.9120002 -1.4325368 0.86617899 0
2.9100003 -1.4359605 0.86581099 0
2.9070003 -1.4388214 0.86525905 0
2.9040003 -1.4416715 0.86470711 0
2.9010003 -1.4445106 0.86415511 0
2.8990002 -1.4478999 0.86378711 0
2.8960001 -1.4507192 0.86323512 0
2.8930001 -1.4535278 0.86268318 0
2.8910003 -1.456892 0.86231524 0
2.8880002 -1.4596806 0.86176324 0
2.8850002 -1.4624585 0.8612113 0
2.8820002 -1.4652255 0.86065936 0
2.8800001 -1.4685553 0.86029136 0
2.8770003 -1.4713026 0.85973942 0
3.1010003 -1.2250448 0.89608073 0
3.0980003 -1.2286021 0.89553416 0
3.0950003 -1.2321482 0.89498758 0
3.0910003 -1.2352418 0.89425886 0
3.0880003 -1.2387646 0.89371228 0
3.0850003 -1.2422767 0.89316577 0
3.0820003 -1.2457778 0.89261919 0
3.0790002 -1.2492682 0.89207268 0
3.0760002 -1.2527477 0.8915261 0
3.0730002 -1.2562164 0.89097953 0
3.0700002 -1.2596743 0.89043295 0
3.0670002 -1.2631214 0.88988638 0
3.0630002 -1.2660995 0.88915765 0
3.0600002 -1.2695231 0.88861108 0
3.0570002 -1.2729359 0.8880645 0
3.0540001 -1.2763379 0.88751805 0
3.0510001 -1.279729 0.88697147 0
3.0480003 -1.2831095 0.88642496 0
3.0450003 -1.286479 0.88587838 0
3.0420003 -1.2898377 0.88533181 0
3.0390003 -1.2931855 0.88478529 0
3.0360003 -1.2965226 0.88423872 0
3.0330002 -1.2998488 0.88369215 0
3.0300002 -1.3031641 0.88314557 0
3.0270002 -1.3064687 0.882599 0
3.0240002 -1.3097625 0.88205248 0
3.0210001 -1.3130454 0.88150597 0
3.0180001 -1.3163174 0.88095939 0
3.0150001 -1.3195788 0.88041282 0
3.0120003 -1.3228292 0.87986624 0
3.0090003 -1.326069 0.87931979 0
3.0060003 -1.3292978 0.87877321 0
3.0030003 -1.3325157 0.87822664 0
3.0000002 -1.3357229 0.87768006 0
2.9970002 -1.3389193 0.87713349 0
2.9940002 -1.3421048 0.87658697 0
2.9910002 -1.3452795 0.8760404 0
2.9890003 -1.3489467 0.87567604 0
2.9860003 -1.3521016 0.87512952 0
2.9830003 -1.3552456 0.87458295 0
2.9800003 -1.3583788 0.87403637 0
