# .PCD v0.7 - Point Cloud Data file format
VERSION 0.7
FIELDS x y z intensity
SIZE 4 4 4 4
TYPE F F F F
COUNT 1 1 1 1
WIDTH 1488
HEIGHT 1
VIEWPOINT 0 0 0 1 0 0 0
POINTS 1488
DATA ascii
4.4130001 1.503078 1.1278682 0
4.4120002 1.4954551 1.1276878 0
4.4120002 1.4882182 1.1276878 0
4.4120002 1.4809813 1.1276878 0
4.4130001 1.4741232 1.1278682 0
4.4140005 1.4672617 1.1280487 0
4.4160004 1.4607716 1.1284094 0
4.4180002 1.4542742 1.1287701 0
4.4200001 1.4477696 1.1291308 0
4.4240003 1.4419975 1.1298524 0
4.4270005 1.4358429 1.1303936 0
4.4320002 1.4304098 1.1312954 0
4.4370003 1.4249587 1.1321974 0
4.4420004 1.4194896 1.1330993 0
4.4480004 1.4143633 1.1341816 0
4.4560003 1.409933 1.1356246 0
4.4190001 1.5343921 1.121701 0
4.4140005 1.5251856 1.1208082 0
4.4110003 1.5167762 1.1202724 0
4.4090004 1.5087655 1.1199152 0
4.4080005 1.5011481 1.1197367 0
4.4070001 1.493534 1.1195581 0
4.4070001 1.4863062 1.1195581 0
4.4070001 1.4790783 1.1195581 0
4.4080005 1.4722294 1.1197367 0
4.4090004 1.4653766 1.1199152 0
4.4110003 1.4588956 1.1202724 0
4.4130001 1.4524071 1.1206295 0
4.4160004 1.4462835 1.1211653 0
4.4190001 1.4401486 1.121701 0
4.4220004 1.434003 1.1222368 0
4.4260001 1.4282128 1.122951 0
4.4310002 1.4227725 1.1238439 0
4.4360003 1.4173142 1.1247369 0
4.4420004 1.4121987 1.1258084 0
4.4490004 1.4074203 1.1270584 0
4.4560003 1.4026169 1.1283084 0
4.4650002 1.3984985 1.1299156 0
4.4130001 1.5320326 1.1133908 0
4.4090004 1.5232284 1.1126838 0
4.4060001 1.514828 1.1121534 0
4.4040003 1.5068264 1.1118 0
4.4030004 1.4992179 1.1116232 0
4.4030004 1.4919972 1.1116232 0
4.4030004 1.4847766 1.1116232 0
4.4030004 1.477556 1.1116232 0
4.4040003 1.4707141 1.1118 0
4.4050002 1.4638686 1.1119767 0
4.4070001 1.4573947 1.1123302 0
4.4090004 1.4509137 1.1126838 0
4.4120002 1.444797 1.1132141 0
4.4140005 1.4382997 1.1135677 0
4.4180002 1.432531 1.1142747 0
4.4220004 1.4267482 1.1149819 0
4.4260001 1.4209507 1.1156889 0
4.4310002 1.4155014 1.1165729 0
4.4370003 1.4103948 1.1176335 0
4.4430003 1.4052666 1.1186941 0
4.4500003 1.4004738 1.1199315 0
4.4580002 1.3960112 1.1213456 0
4.4670005 1.3918734 1.1229367 0
4.4120002 1.5388763 1.1059772 0
4.4080005 1.5300667 1.1052774 0
4.4050002 1.5216626 1.1047524 0
4.4030004 1.5136592 1.1044025 0
4.4010005 1.505663 1.1040527 0
4.4000001 1.4980597 1.1038775 0
4.3990002 1.4904603 1.1037027 0
4.3990002 1.4832469 1.1037027 0
4.3990002 1.4760334 1.1037027 0
4.4010005 1.4695778 1.1040527 0
4.4020004 1.4627378 1.1042275 0
4.4030004 1.455894 1.1044025 0
4.4060001 1.4497935 1.1049274 0
4.4080005 1.4433107 1.1052774 0
4.4110003 1.4371903 1.1058023 0
4.4150004 1.4314272 1.1065022 0
4.4180002 1.4252834 1.1070271 0
4.4230003 1.4198576 1.1079019 0
4.4270005 1.4140512 1.1086018 0
4.4330001 1.4089516 1.1096516 0
4.4390001 1.4038306 1.1107013 0
4.4450002 1.3986881 1.1117512 0
4.4530001 1.3942343 1.113151 0
4.4620004 1.3901055 1.1147257 0
4.4710002 1.3859441 1.1163005 0
4.4140005 1.5469071 1.0990868 0
4.4080005 1.5372963 1.0980477 0
4.4040003 1.5284938 1.097355 0
4.4010005 1.5200971 1.0968356 0
4.3990002 1.5121006 1.0964892 0
4.3980002 1.5044994 1.096316 0
4.3970003 1.4969018 1.0961429 0
4.3960004 1.4893079 1.0959697 0
4.3960004 1.4820998 1.0959697 0
4.3970003 1.4752724 1.0961429 0
4.3970003 1.4680625 1.0961429 0
4.3990002 1.4616066 1.0964892 0
4.4010005 1.4551437 1.0968356 0
4.4030004 1.4486734 1.0971819 0
4.4050002 1.4421959 1.0975282 0
4.4080005 1.4360811 1.0980477 0
4.4120002 1.4303231 1.0987403 0
4.4150004 1.4241849 1.0992599 0
4.4200001 1.4187644 1.1001257 0
4.4240003 1.4129634 1.1008184 0
4.4290004 1.4075087 1.1016842 0
4.4350004 1.402395 1.1027232 0
4.4420004 1.3976166 1.1039354 0
4.4480004 1.3924577 1.1049744 0
4.4570003 1.3883379 1.1065328 0
4.4660001 1.3841853 1.1080912 0
4.4100003 1.5453197 1.0911608 0
4.4050002 1.5361111 1.0903039 0
4.4020004 1.5277073 1.0897899 0
4.3990002 1.5193141 1.0892757 0
4.3970003 1.5113214 1.0889331 0
4.395 1.503336 1.0885904 0
4.3940001 1.4957438 1.088419 0
4.3940001 1.4885393 1.088419 0
4.3940001 1.4813349 1.088419 0
4.395 1.474511 1.0885904 0
4.3960004 1.4676837 1.0887617 0
4.3970003 1.4608527 1.0889331 0
4.3990002 1.4543931 1.0892757 0
4.4010005 1.4479266 1.0896186 0
4.4030004 1.4414527 1.0899613 0
4.4060001 1.4353414 1.0904753 0
4.4090004 1.4292194 1.0909895 0
4.4130001 1.4234524 1.0916748 0
4.4170003 1.4176713 1.0923603 0
4.4210005 1.4118757 1.0930457 0
4.4270005 1.4067873 1.0940739 0
4.4320002 1.401318 1.0949306 0
4.4380002 1.396188 1.0959588 0
4.4450002 1.3913915 1.0971584 0
4.4530001 1.3869236 1.0985293 0
4.4620004 1.3827784 1.1000715 0
4.4720001 1.3789507 1.1017852 0
4.4130001 1.5537487 1.0844362 0
4.4070001 1.544129 1.0834187 0
4.4030004 1.5353211 1.0827405 0
4.3990002 1.5265275 1.0820624 0
4.3970003 1.5185313 1.0817232 0
4.395 1.5105422 1.0813841 0
4.3930001 1.5025604 1.081045 0
4.3930001 1.4953578 1.081045 0
4.3920002 1.4877709 1.0808754 0
4.3930001 1.4809525 1.081045 0
4.3930001 1.47375 1.081045 0
4.3940001 1.4669261 1.0812145 0
4.395 1.4600986 1.0813841 0
4.3970003 1.4536428 1.0817232 0
4.3990002 1.4471798 1.0820624 0
4.4020004 1.4410812 1.082571 0
4.4040003 1.4346019 1.0829102 0
4.4080005 1.4288514 1.0835885 0
4.4110003 1.4227202 1.084097 0
4.4150004 1.4169427 1.0847753 0
4.4200001 1.4115131 1.085623 0
4.4250002 1.4060656 1.0864708 0
4.4300003 1.4006001 1.0873187 0
4.4360003 1.3954737 1.088336 0
4.4420004 1.3903257 1.0893533 0
4.4500003 1.3858629 1.0907098 0
4.4580002 1.3813714 1.0920663 0
4.4680004 1.3775511 1.0937619 0
4.4790001 1.3740425 1.095627 0
4.4110003 1.5529515 1.076862 0
4.4050002 1.5433354 1.0758554 0
4.4010005 1.5345312 1.0751845 0
4.3980002 1.5261343 1.0746812 0
4.395 1.5177484 1.0741779 0
4.3930001 1.509763 1.0738424 0
4.3920002 1.5021725 1.0736747 0
4.3910003 1.4945858 1.073507 0
4.3910003 1.4873867 1.073507 0
4.3910003 1.4801877 1.073507 0
4.3920002 1.4733692 1.0736747 0
4.3930001 1.4665473 1.0738424 0
4.3940001 1.4597217 1.0740101 0
4.3960004 1.4532678 1.0743457 0
4.3980002 1.4468064 1.0746812 0
4.4000001 1.4403379 1.0750166 0
4.4030004 1.4342321 1.0755199 0
4.4060001 1.4281152 1.0760232 0
4.4100003 1.422354 1.0766943 0
4.4140005 1.4165783 1.0773653 0
4.4180002 1.4107881 1.0780362 0
4.4230003 1.4053441 1.0788749 0
4.4280005 1.3998822 1.0797138 0
4.4340005 1.3947594 1.0807204 0
4.4400001 1.3896148 1.0817268 0
4.4480004 1.3851559 1.0830688 0
4.4560003 1.380668 1.0844109 0
4.4650002 1.3765011 1.0859207 0
4.4750004 1.37265 1.0875983 0
4.4170003 1.5625893 1.0706226 0
4.4100003 1.5525528 1.069461 0
4.4040003 1.5429386 1.0684652 0
4.4000001 1.5341359 1.0678014 0
4.3970003 1.5257411 1.0673037 0
4.3940001 1.517357 1.0668057 0
4.3930001 1.509763 1.0666398 0
4.3910003 1.5017848 1.0663079 0
4.3910003 1.4945858 1.0663079 0
4.3900003 1.4870025 1.066142 0
4.3910003 1.4801877 1.0663079 0
4.3910003 1.4729886 1.0663079 0
4.3920002 1.4661684 1.0664738 0
4.3930001 1.4593447 1.0666398 0
4.395 1.4528924 1.0669717 0
4.3970003 1.4464331 1.0673037 0
4.3990002 1.4399663 1.0676355 0
4.4020004 1.4338624 1.0681334 0
4.4050002 1.4277474 1.0686312 0
4.4090004 1.4219879 1.069295 0
4.4130001 1.4162138 1.0699588 0
4.4170003 1.4104254 1.0706226 0
4.4220004 1.4049834 1.0714524 0
4.4270005 1.3995234 1.0722822 0
4.4330001 1.3944021 1.0732778 0
4.4390001 1.3892595 1.0742735 0
4.4460001 1.3844486 1.0754352 0
4.4540005 1.3799646 1.0767628 0
4.4620004 1.3754514 1.0780904 0
4.4730005 1.371954 1.0799159 0
4.4160004 1.5621889 1.0632125 0
4.4090004 1.5521543 1.0620636 0
4.4030004 1.5425417 1.0610787 0
4.3990002 1.5337409 1.0604221 0
4.3960004 1.5253478 1.0599296 0
4.3940001 1.517357 1.0596013 0
4.3920002 1.5093733 1.059273 0
4.3910003 1.5017848 1.059109 0
4.3900003 1.4941998 1.0589448 0
4.3900003 1.4870025 1.0589448 0
4.3900003 1.4798054 1.0589448 0
4.3910003 1.4729886 1.059109 0
4.3920002 1.4661684 1.059273 0
4.3930001 1.4593447 1.0594373 0
4.395 1.4528924 1.0597655 0
4.3970003 1.4464331 1.0600938 0
4.3990002 1.4399663 1.0604221 0
4.4020004 1.4338624 1.0609145 0
4.4050002 1.4277474 1.061407 0
4.4080005 1.4216218 1.0618994 0
4.4120002 1.4158494 1.0625559 0
4.4170003 1.4104254 1.0633767 0
4.4210005 1.4046227 1.0640334 0
4.4260001 1.3991642 1.064854 0
4.4320002 1.394045 1.0658389 0
4.4380002 1.3889042 1.0668237 0
4.4450002 1.3840952 1.0679728 0
4.4530001 1.3796128 1.069286 0
4.4610004 1.3751014 1.0705992 0
4.4710002 1.3712574 1.0722406 0
4.4820004 1.3677238 1.0740463 0
4.4150004 1.5617884 1.0558062 0
4.4080005 1.5517557 1.0546697 0
4.4030004 1.5425417 1.053858 0
4.3990002 1.5337409 1.0532086 0
4.3960004 1.5253478 1.0527216 0
4.3940001 1.517357 1.0523969 0
4.3920002 1.5093733 1.0520722 0
4.3910003 1.5017848 1.0519099 0
4.3900003 1.4941998 1.0517476 0
4.3900003 1.4870025 1.0517476 0
4.3900003 1.4798054 1.0517476 0
4.3910003 1.4729886 1.0519099 0
4.3920002 1.4661684 1.0520722 0
4.3930001 1.4593447 1.0522346 0
4.395 1.4528924 1.0525593 0
4.3970003 1.4464331 1.052884 0
4.3990002 1.4399663 1.0532086 0
4.4020004 1.4338624 1.0536957 0
4.4050002 1.4277474 1.0541826 0
4.4080005 1.4216218 1.0546697 0
4.4120002 1.4158494 1.0553191 0
4.4160004 1.4100629 1.0559685 0
4.4210005 1.4046227 1.0567802 0
4.4260001 1.3991642 1.0575918 0
4.4320002 1.394045 1.058566 0
4.4380002 1.3889042 1.05954 0
4.4450002 1.3840952 1.0606765 0
4.4520001 1.379261 1.0618128 0
4.4610004 1.3751014 1.0632739 0
4.4700003 1.3709093 1.0647349 0
4.4810004 1.3673776 1.0665208 0
4.4160004 1.5621889 1.0487244 0
4.4090004 1.5521543 1.0476006 0
4.4040003 1.5429386 1.0467979 0
4.4000001 1.5341359 1.0461557 0
4.3970003 1.5257411 1.0456742 0
4.395 1.5177484 1.0453531 0
4.3930001 1.509763 1.045032 0
4.3920002 1.5021725 1.0448714 0
4.3910003 1.4945858 1.0447109 0
4.3910003 1.4873867 1.0447109 0
4.3910003 1.4801877 1.0447109 0
4.3910003 1.4729886 1.0447109 0
4.3920002 1.4661684 1.0448714 0
4.3940001 1.4597217 1.0451925 0
4.395 1.4528924 1.0453531 0
4.3970003 1.4464331 1.0456742 0
4.4000001 1.4403379 1.0461557 0
4.4020004 1.4338624 1.0464768 0
4.4050002 1.4277474 1.0469584 0
4.4090004 1.4219879 1.0476006 0
4.4120002 1.4158494 1.0480821 0
4.4170003 1.4104254 1.048885 0
4.4210005 1.4046227 1.0495272 0
4.4260001 1.3991642 1.0503297 0
4.4320002 1.394045 1.0512929 0
4.4380002 1.3889042 1.0522562 0
4.4450002 1.3840952 1.05338 0
4.4520001 1.379261 1.0545037 0
4.4600005 1.3747516 1.055788 0
4.4700003 1.3709093 1.0573934 0
4.4800005 1.3670313 1.0589988 0
4.4170003 1.5625893 1.0416391 0
4.4100003 1.5525528 1.0405278 0
4.4050002 1.5433354 1.0397341 0
4.4010005 1.5345312 1.0390993 0
4.3980002 1.5261343 1.038623 0
4.395 1.5177484 1.0381469 0
4.3940001 1.5101526 1.0379881 0
4.3930001 1.5025604 1.0378294 0
4.3920002 1.4949718 1.0376706 0
4.3920002 1.4877709 1.0376706 0
4.3920002 1.4805701 1.0376706 0
4.3920002 1.4733692 1.0376706 0
4.3930001 1.4665473 1.0378294 0
4.3940001 1.4597217 1.0379881 0
4.3960004 1.4532678 1.0383055 0
4.3980002 1.4468064 1.038623 0
4.4000001 1.4403379 1.0389404 0
4.4030004 1.4342321 1.0394168 0
4.4060001 1.4281152 1.0398929 0
4.4090004 1.4219879 1.0403692 0
4.4130001 1.4162138 1.0410041 0
4.4170003 1.4104254 1.0416391 0
4.4220004 1.4049834 1.0424327 0
4.4270005 1.3995234 1.0432264 0
4.4320002 1.394045 1.0440201 0
4.4380002 1.3889042 1.0449724 0
4.4450002 1.3840952 1.0460836 0
4.4520001 1.379261 1.0471947 0
4.4610004 1.3751014 1.0486234 0
4.4700003 1.3709093 1.0500519 0
4.4810004 1.3673776 1.0517981 0
4.4190001 1.5633901 1.034707 0
4.4120002 1.5533502 1.0336084 0
4.4070001 1.544129 1.0328238 0
4.4030004 1.5353211 1.032196 0
4.4000001 1.5269207 1.0317253 0
4.3970003 1.5185313 1.0312545 0
4.395 1.5105422 1.0309407 0
4.3940001 1.5029482 1.0307837 0
4.3930001 1.4953578 1.0306268 0
4.3930001 1.4881551 1.0306268 0
4.3930001 1.4809525 1.0306268 0
4.3930001 1.47375 1.0306268 0
4.3940001 1.4669261 1.0307837 0
4.3960004 1.4604757 1.0310977 0
4.3970003 1.4536428 1.0312545 0
4.3990002 1.4471798 1.0315683 0
4.4020004 1.4410812 1.0320392 0
4.4040003 1.4346019 1.032353 0
4.4070001 1.4284832 1.0328238 0
4.4110003 1.4227202 1.0334514 0
4.4140005 1.4165783 1.0339224 0
4.4180002 1.4107881 1.0345501 0
4.4230003 1.4053441 1.0353347 0
4.4280005 1.3998822 1.0361193 0
4.4340005 1.3947594 1.037061 0
4.4390001 1.3892595 1.0378456 0
4.4460001 1.3844486 1.0389441 0
4.4530001 1.3796128 1.0400426 0
4.4620004 1.3754514 1.041455 0
4.4710002 1.3712574 1.0428674 0
4.4820004 1.3677238 1.0445937 0
4.4220004 1.5645916 1.0279229 0
4.4150004 1.5545461 1.026837 0
4.4090004 1.5449228 1.0259062 0
4.4050002 1.5361111 1.0252857 0
4.4020004 1.5277073 1.0248203 0
4.3990002 1.5193141 1.0243549 0
4.3970003 1.5113214 1.0240446 0
4.3960004 1.5037239 1.0238895 0
4.395 1.4961298 1.0237345 0
4.395 1.4889234 1.0237345 0
4.395 1.4817172 1.0237345 0
4.395 1.474511 1.0237345 0
4.3960004 1.4676837 1.0238895 0
4.3970003 1.4608527 1.0240446 0
4.3990002 1.4543931 1.0243549 0
4.4010005 1.4479266 1.0246652 0
4.4030004 1.4414527 1.0249754 0
4.4060001 1.4353414 1.0254408 0
4.4090004 1.4292194 1.0259062 0
4.4120002 1.4230864 1.0263716 0
4.4160004 1.417307 1.0269921 0
4.4200001 1.4115131 1.0276126 0
4.4250002 1.4060656 1.0283881 0
4.4300003 1.4006001 1.0291638 0
4.4350004 1.3951166 1.0299395 0
4.4410005 1.3899703 1.0308703 0
4.4480004 1.3851559 1.0319562 0
4.4550004 1.3803163 1.0330421 0
4.4630003 1.3758013 1.0342832 0
4.4730005 1.371954 1.0358344 0
4.4830003 1.3680702 1.0373856 0
4.4180002 1.555742 1.0200546 0
4.4120002 1.5461133 1.0191348 0
4.4080005 1.5372963 1.0185214 0
4.4040003 1.5284938 1.0179081 0
4.4010005 1.5200971 1.0174482 0
4.3990002 1.5121006 1.0171415 0
4.3980002 1.5044994 1.0169882 0
4.3970003 1.4969018 1.0168349 0
4.3970003 1.489692 1.0168349 0
4.3970003 1.4824822 1.0168349 0
4.3970003 1.4752724 1.0168349 0
4.3980002 1.4684412 1.0169882 0
4.3990002 1.4616066 1.0171415 0
4.4010005 1.4551437 1.0174482 0
4.4030004 1.4486734 1.0177548 0
4.4050002 1.4421959 1.0180614 0
4.4080005 1.4360811 1.0185214 0
4.4110003 1.4299552 1.0189813 0
4.4140005 1.4238188 1.0194414 0
4.4180002 1.4180357 1.0200546 0
4.4220004 1.4122382 1.0206679 0
4.4260001 1.4064263 1.0212812 0
4.4310002 1.400959 1.0220479 0
4.4370003 1.3958309 1.0229678 0
4.4430003 1.390681 1.0238878 0
4.4500003 1.3858629 1.024961 0
4.4570003 1.3810197 1.0260342 0
4.4650002 1.3765011 1.0272608 0
4.4750004 1.37265 1.0287942 0
4.4850001 1.3687629 1.0303273 0
4.4220004 1.5573366 1.0134131 0
4.4150004 1.5473038 1.0123525 0
4.4110003 1.5384814 1.0117463 0
4.4070001 1.5296733 1.0111402 0
4.4050002 1.5216626 1.0108372 0
4.4030004 1.5136592 1.0105342 0
4.4010005 1.505663 1.0102311 0
4.4000001 1.4980597 1.0100795 0
4.3990002 1.4904603 1.0099281 0
4.3990002 1.4832469 1.0099281 0
4.4000001 1.4764141 1.0100795 0
4.4010005 1.4695778 1.0102311 0
4.4020004 1.4627378 1.0103827 0
4.4030004 1.455894 1.0105342 0
4.4050002 1.4494201 1.0108372 0
4.4070001 1.442939 1.0111402 0
4.4100003 1.4368206 1.0115948 0
4.4130001 1.4306911 1.0120493 0
4.4160004 1.424551 1.0125039 0
4.4200001 1.4187644 1.0131099 0
4.4240003 1.4129634 1.0137161 0
4.4290004 1.4075087 1.0144737 0
4.4340005 1.402036 1.0152313 0
4.4390001 1.3965451 1.0159888 0
4.4460001 1.391747 1.0170494 0
4.4520001 1.38657 1.0179586 0
4.4600005 1.3820751 1.0191708 0
4.4680004 1.3775511 1.020383 0
4.4780002 1.3736944 1.0218982 0
4.4890003 1.3701482 1.0235648 0
4.4260001 1.5589311 1.0067569 0
4.4200001 1.5492879 1.0058587 0
4.4150004 1.5400616 1.0051101 0
4.4110003 1.5312463 1.0045112 0
4.4080005 1.522837 1.0040621 0
4.4060001 1.514828 1.0037626 0
4.4040003 1.5068264 1.0034631 0
4.4030004 1.4992179 1.0033135 0
4.4030004 1.4919972 1.0033135 0
4.4030004 1.4847766 1.0033135 0
4.4030004 1.477556 1.0033135 0
4.4030004 1.4703354 1.0033135 0
4.4050002 1.4638686 1.0036129 0
4.4060001 1.4570194 1.0037626 0
4.4080005 1.4505404 1.0040621 0
4.4100003 1.4440539 1.0043615 0
4.4130001 1.4379297 1.0048107 0
4.4160004 1.4317951 1.0052599 0
4.4190001 1.4256495 1.0057089 0
4.4230003 1.4198576 1.0063078 0
4.4270005 1.4140512 1.0069067 0
4.4320002 1.4085909 1.0076553 0
4.4370003 1.4031128 1.0084039 0
4.4420004 1.3976166 1.0091524 0
4.4480004 1.3924577 1.0100508 0
4.4550004 1.3876307 1.0110987 0
4.4630003 1.3831302 1.0122964 0
4.4710002 1.3786008 1.0134941 0
4.4810004 1.3747389 1.0149914 0
4.4260001 1.551669 0.99949479 0
4.4200001 1.5420367 0.99860728 0
4.4150004 1.5328193 0.99786782 0
4.4120002 1.5244026 0.99742401 0
4.4100003 1.5163865 0.99712825 0
4.4080005 1.5083777 0.99683249 0
4.4070001 1.5007619 0.99668443 0
4.4060001 1.4931499 0.99653661 0
4.4060001 1.4859238 0.99653661 0
4.4060001 1.4786977 0.99653661 0
4.4070001 1.4718504 0.99668443 0
4.4080005 1.4649997 0.99683249 0
4.4090004 1.4581453 0.99698031 0
4.4110003 1.4516605 0.99727619 0
4.4140005 1.4455403 0.99771988 0
4.4160004 1.4390392 0.99801576 0
4.4190001 1.4328991 0.99845946 0
4.4220004 1.4267482 0.99890316 0
4.4260001 1.4209507 0.99949479 0
4.4300003 1.4151387 1.0000865 0
4.4350004 1.4096733 1.0008261 0
4.4400001 1.4041896 1.0015656 0
4.4460001 1.3990451 1.0024531 0
4.4520001 1.3938791 1.0033405 0
4.4590001 1.3890449 1.0043759 0
4.4670005 1.3845372 1.0055592 0
4.4750004 1.3800006 1.0067426 0
4.4860001 1.3764795 1.0083696 0
4.4320002 1.5540501 0.99310935 0
4.4250002 1.5440118 0.99208653 0
4.4200001 1.5347853 0.99135602 0
4.4170003 1.5263598 0.99091768 0
4.4140005 1.5179452 0.99047947 0
4.4130001 1.5103166 0.99033332 0
4.4110003 1.502306 0.99004114 0
4.4100003 1.4946867 0.98989499 0
4.4100003 1.4874535 0.98989499 0
4.4100003 1.4802202 0.98989499 0
4.4110003 1.4733658 0.99004114 0
4.4120002 1.4665076 0.99018717 0
4.4130001 1.4596459 0.99033332 0
4.4150004 1.4531541 0.9906255 0
4.4170003 1.4466549 0.99091768 0
4.4200001 1.4405183 0.99135602 0
4.4230003 1.434371 0.99179435 0
4.4260001 1.4282128 0.99223268 0
4.4300003 1.4224081 0.99281716 0
4.4340005 1.4165891 0.99340165 0
4.4390001 1.4111162 0.99413204 0
4.4440002 1.4056255 0.99486268 0
4.4500003 1.4004738 0.99573934 0
4.4560003 1.3953005 0.99661601 0
4.4630003 1.3904591 0.9976387 0
4.4710002 1.3859441 0.99880755 0
4.4800005 1.3817503 1.0001225 0
4.4910002 1.3782202 1.0017297 0
4.4320002 1.546777 0.98583639 0
4.4270005 1.5375381 0.98511493 0
4.4230003 1.5287083 0.98453772 0
4.4200001 1.5202827 0.98410475 0
4.4170003 1.511868 0.98367178 0
4.4160004 1.5042361 0.98352754 0
4.4150004 1.4966078 0.98338318 0
4.4150004 1.4893655 0.98338318 0
4.4150004 1.4821233 0.98338318 0
4.4150004 1.4748809 0.98338318 0
4.4160004 1.4680157 0.98352754 0
4.4180002 1.4615219 0.98381615 0
4.4190001 1.4546475 0.98396039 0
4.4210005 1.4481412 0.98424911 0
4.4240003 1.4419975 0.98468196 0
4.4270005 1.4358429 0.98511493 0
4.4300003 1.4296775 0.98554778 0
4.4340005 1.4238657 0.98612499 0
4.4390001 1.4184018 0.98684645 0
4.4430003 1.4125593 0.98742378 0
4.4490004 1.4074203 0.98828959 0
4.4540005 1.4019026 0.98901117 0
4.4610004 1.3970773 0.99002123 0
4.4680004 1.3922268 0.99103141 0
4.4770002 1.3880546 0.99233007 0
4.4860001 1.3838499 0.99362886 0
4.4410005 1.5503324 0.979846 0
4.4350004 1.5406839 0.97899091 0
4.4300003 1.5314484 0.97827852 0
4.4260001 1.5226204 0.97770846 0
4.4230003 1.514195 0.97728097 0
4.4220004 1.5065522 0.97713852 0
4.4210005 1.4989132 0.97699594 0
4.4200001 1.4912775 0.97685337 0
4.4200001 1.4840261 0.97685337 0
4.4200001 1.4767748 0.97685337 0
4.4210005 1.4699007 0.97699594 0
4.4220004 1.4630227 0.97713852 0
4.4240003 1.4565145 0.97742343 0
4.4260001 1.4499991 0.97770846 0
4.4290004 1.4438465 0.97813594 0
4.4320002 1.4376827 0.97856343 0
4.4350004 1.4315083 0.97899091 0
4.4390001 1.4256873 0.97956085 0
4.4430003 1.4198521 0.98013091 0
4.4480004 1.4143633 0.98084342 0
4.4540005 1.4092152 0.98169851 0
4.4600005 1.4040455 0.98255348 0
4.4670005 1.3992095 0.98355103 0
4.4740005 1.3943481 0.98454857 0
4.4830003 1.3901651 0.98583102 0
4.4430003 1.5438297 0.97283816 0
4.4370003 1.5341884 0.97199392 0
4.4330001 1.5253477 0.97143114 0
4.4300003 1.5169097 0.97100914 0
4.4280005 1.5088683 0.97072768 0
4.4270005 1.5012184 0.97058702 0
4.4260001 1.493572 0.97044635 0
4.4250002 1.4859293 0.97030556 0
4.4260001 1.4790477 0.97044635 0
4.4270005 1.4721626 0.97058702 0
4.4280005 1.465274 0.97072768 0
4.4300003 1.4587548 0.97100914 0
4.4320002 1.4522287 0.97129047 0
4.4340005 1.4456954 0.97157192 0
4.4370003 1.4395226 0.97199392 0
4.4410005 1.4337054 0.97255683 0
4.4450002 1.4278736 0.9731195 0
4.4490004 1.4220276 0.9736824 0
4.4540005 1.4165277 0.97438586 0
4.4600005 1.4113688 0.97522998 0
4.4660001 1.4061882 0.97607422 0
4.4730005 1.4013416 0.97705913 0
4.4810004 1.3968229 0.9781847 0
4.4910002 1.3929789 0.97959161 0
4.4470005 1.5381026 0.96610093 0
4.4420004 1.5288545 0.96540642 0
4.4390001 1.5203999 0.96498978 0
4.4360003 1.5119563 0.96457314 0
4.4340005 1.5039078 0.96429539 0
4.4330001 1.4962487 0.96415639 0
4.4330001 1.488974 0.96415639 0
4.4330001 1.4816992 0.96415639 0
4.4330001 1.4744245 0.96415639 0
4.4340005 1.467525 0.96429539 0
4.4360003 1.4609952 0.96457314 0
4.4380002 1.4544581 0.9648509 0
4.4400001 1.4479139 0.96512866 0
4.4440002 1.4420985 0.96568418 0
4.4470005 1.4359025 0.96610093 0
4.4510002 1.4300598 0.96665645 0
4.4560003 1.4245654 0.96735096 0
4.4610004 1.4190531 0.96804547 0
4.4670005 1.4138815 0.96887887 0
4.4730005 1.4086884 0.96971214 0
4.4810004 1.4041843 0.97082329 0
4.4900002 1.4000047 0.97207332 0
4.4530001 1.5331402 0.95962346 0
4.4480004 1.5238904 0.958938 0
4.4440002 1.5150445 0.95838964 0
4.4420004 1.5069815 0.95811546 0
4.4410005 1.4993081 0.95797837 0
4.4400001 1.4916382 0.95784128 0
4.4400001 1.4843508 0.95784128 0
4.4400001 1.4770634 0.95784128 0
4.4420004 1.4705266 0.95811546 0
4.4430003 1.463609 0.95825255 0
4.4450002 1.4570593 0.95852673 0
4.4480004 1.4508723 0.958938 0
4.4510002 1.4446744 0.95934927 0
4.4540005 1.4384657 0.95976055 0
4.4590001 1.4329748 0.960446 0
4.4630003 1.4271034 0.96099436 0
4.4690003 1.4219391 0.96181691 0
4.4750004 1.4167532 0.96263945 0
4.4820004 1.4119027 0.96359909 0
4.4910002 1.4077377 0.9648329 0
4.5000005 1.4035404 0.96606672 0
4.4080005 1.5734447 0.94622481 0
4.4120002 1.5678239 0.9467659 0
4.4170003 1.5625893 0.94744241 0
4.4220004 1.5573366 0.94811881 0
4.4270005 1.5520658 0.9487952 0
4.4330001 1.5471721 0.9496069 0
4.4390001 1.5422567 0.95041859 0
4.4450002 1.5373197 0.95123029 0
4.4510002 1.532361 0.9520421 0
4.4560003 1.5269929 0.9527185 0
4.4560003 1.5196767 0.9527185 0
4.4530001 1.5112077 0.95231259 0
4.4510002 1.5031321 0.9520421 0
4.4490004 1.4950638 0.9517715 0
4.4490004 1.4877601 0.9517715 0
4.4490004 1.4804565 0.9517715 0
4.4500003 1.473528 0.95190668 0
4.4510002 1.466596 0.9520421 0
4.4530001 1.4600319 0.95231259 0
4.4560003 1.4538305 0.9527185 0
4.4590001 1.4476181 0.95312428 0
4.4630003 1.4417613 0.95366549 0
4.4670005 1.4358898 0.95420659 0
4.4720001 1.4303664 0.95488298 0
4.4780002 1.425186 0.95569479 0
4.4850001 1.4203427 0.95664179 0
4.4920001 1.4154742 0.95758867 0
4.5030003 1.412002 0.95907688 0
4.5140004 1.4084899 0.96056509 0
4.3980002 1.5910389 0.93766034 0
4.3970003 1.5834196 0.93752682 0
4.3980002 1.5766157 0.93766034 0
4.4010005 1.5706164 0.93806076 0
4.4040003 1.564606 0.93846118 0
4.4080005 1.5589854 0.93899512 0
4.4130001 1.5537487 0.93966246 0
4.4180002 1.5484943 0.94032991 0
4.4230003 1.5432218 0.94099736 0
4.4280005 1.5379312 0.9416647 0
4.4330001 1.5326226 0.94233215 0
4.4380002 1.5272959 0.9429996 0
4.4430003 1.5219513 0.94366693 0
4.4490004 1.5169747 0.9444679 0
4.4540005 1.511592 0.94513535 0
4.4590001 1.5061914 0.94580269 0
4.4600005 1.4992504 0.9459362 0
4.4600005 1.491927 0.9459362 0
4.4600005 1.4846035 0.9459362 0
4.4600005 1.4772801 0.9459362 0
4.4610004 1.47033 0.94606972 0
4.4640002 1.4641193 0.94647014 0
4.4660001 1.4575281 0.94673705 0
4.4690003 1.4512979 0.94713748 0
4.4730005 1.445423 0.94767141 0
4.4780002 1.4398979 0.94833887 0
4.4830003 1.4343548 0.94900632 0
4.4900002 1.429515 0.94994056 0
4.4980001 1.4250091 0.95100844 0
4.5070004 1.4208317 0.95220983 0
4.5210004 1.4183983 0.95407856 0
4.3940001 1.5966054 0.92992198 0
4.3930001 1.5889916 0.92979026 0
4.3930001 1.5817891 0.92979026 0
4.3940001 1.5749922 0.92992198 0
4.3960004 1.568596 0.93018532 0
4.3990002 1.5625947 0.93058038 0
4.4030004 1.5569831 0.93110704 0
4.4080005 1.5517557 0.93176544 0
4.4130001 1.54651 0.93242383 0
4.4170003 1.5408516 0.93295062 0
4.4220004 1.5355719 0.93360889 0
4.4270005 1.5302742 0.9342674 0
4.4310002 1.5245686 0.93479407 0
4.4360003 1.5192366 0.93545246 0
4.4410005 1.5138865 0.93611085 0
4.4460001 1.5085182 0.93676913 0
4.4510002 1.5031321 0.93742764 0
4.4560003 1.497728 0.93808603 0
4.4610004 1.4923058 0.93874443 0
4.4660001 1.4868654 0.9394027 0
4.4710002 1.481407 0.94006121 0
4.4740005 1.475184 0.94045627 0
4.4760003 1.4685785 0.94071949 0
4.4780002 1.4619656 0.94098282 0
4.4820004 1.4560816 0.9415096 0
4.4860001 1.4501832 0.94203627 0
4.4910002 1.4446346 0.94269466 0
4.4980001 1.4397931 0.94361639 0
4.5060005 1.4352874 0.94466996 0
4.5160003 1.4314705 0.94598663 0
4.5240002 1.4269031 0.94704008 0
4.5290003 1.421241 0.94769847 0
4.3930001 1.6033968 0.92258775 0
4.3910003 1.5953717 0.92232788 0
4.3889999 1.5873537 0.92206812 0
4.3900003 1.580566 0.92219806 0
4.3910003 1.5737747 0.92232788 0
4.3930001 1.5673839 0.92258775 0
4.3960004 1.561388 0.92297733 0
4.4000001 1.5557816 0.92349672 0
4.4050002 1.5505596 0.92414618 0
4.4090004 1.5449228 0.92466569 0
4.4140005 1.5396665 0.92531502 0
4.4180002 1.5339988 0.92583454 0
4.4230003 1.5287083 0.92648387 0
4.4270005 1.5230103 0.92700338 0
4.4320002 1.5176852 0.92765272 0
4.4370003 1.5123423 0.92830205 0
4.4420004 1.5069815 0.9289515 0
4.4460001 1.5012201 0.92947102 0
4.4510002 1.4958249 0.93012035 0
4.4560003 1.4904118 0.93076968 0
4.4610004 1.4849805 0.93141913 0
4.4660001 1.479531 0.93206847 0
4.4700003 1.4736904 0.93258798 0
4.4750004 1.4682069 0.93323731 0
4.4800005 1.4627053 0.93388677 0
4.4850001 1.4571855 0.9345361 0
4.4900002 1.4516479 0.93518543 0
4.4950004 1.4460921 0.93583488 0
4.5000005 1.4405185 0.93648422 0
4.5050001 1.4349265 0.93713355 0
4.5100002 1.4293166 0.937783 0
4.5150003 1.4236888 0.93843234 0
4.5210004 1.4183983 0.93921161 0
4.5260005 1.4127326 0.93986094 0
4.5310001 1.4070486 0.94051027 0
4.5360003 1.4013468 0.94115973 0
4.5410004 1.395627 0.94180906 0
4.5460005 1.3898892 0.94245839 0
4.5520005 1.3844777 0.94323766 0
4.5570002 1.3787018 0.943887 0
4.3910003 1.6025707 0.91512895 0
4.3889999 1.5945491 0.91487277 0
4.388 1.5869443 0.91474473 0
4.388 1.5797507 0.91474473 0
4.3889999 1.572963 0.91487277 0
4.3910003 1.5665756 0.91512895 0
4.3940001 1.5605835 0.91551316 0
4.3980002 1.5549808 0.9160254 0
4.4020004 1.5493639 0.91653776 0
4.4070001 1.544129 0.91717803 0
4.4110003 1.5384814 0.91769028 0
4.4160004 1.5332124 0.91833067 0
4.4200001 1.5275339 0.91884291 0
4.4250002 1.5222309 0.9194833 0
4.4300003 1.5169097 0.9201237 0
4.4340005 1.5111843 0.92063594 0
4.4390001 1.5058287 0.92127633 0
4.4430003 1.5000728 0.92178857 0
4.4480004 1.4946831 0.92242897 0
4.4530001 1.4892752 0.92306924 0
4.4570003 1.4834725 0.92358148 0
4.4620004 1.4780304 0.92422187 0
4.4670005 1.4725703 0.92486227 0
4.4710002 1.4667205 0.92537451 0
4.4760003 1.461226 0.9260149 0
4.4810004 1.4557136 0.92665529 0
4.4860001 1.4501832 0.92729557 0
4.4910002 1.4446346 0.92793596 0
4.4950004 1.4387056 0.92844832 0
4.5000005 1.4331228 0.92908859 0
4.5050001 1.4275219 0.92972887 0
4.5100002 1.421903 0.93036926 0
4.5150003 1.4162661 0.93100965 0
4.5200005 1.4106113 0.93165004 0
4.5250001 1.4049382 0.93229032 0
4.5300002 1.3992472 0.93293071 0
4.5350003 1.3935382 0.9335711 0
4.5400004 1.3878112 0.93421149 0
4.5450001 1.3820659 0.93485177 0
4.5500002 1.3763027 0.93549204 0
4.5550003 1.3705215 0.93613243 0
4.5600004 1.3647224 0.93677282 0
4.395 1.6114292 0.90843499 0
4.3900003 1.6021577 0.90780365 0
4.388 1.5941379 0.90755105 0
4.3870001 1.5865349 0.90742493 0
4.3870001 1.5793431 0.90742493 0
4.3889999 1.572963 0.90767741 0
4.3910003 1.5665756 0.9079299 0
4.3940001 1.5605835 0.90830874 0
4.3970003 1.5545803 0.90868747 0
4.4020004 1.5493639 0.9093188 0
4.4060001 1.5437322 0.90982389 0
4.4110003 1.5384814 0.91045523 0
4.4150004 1.5328193 0.91096032 0
4.4190001 1.5271425 0.91146541 0
4.4240003 1.5218412 0.91209674 0
4.4280005 1.516134 0.91260183 0
4.4330001 1.5107983 0.91323304 0
4.4370003 1.5050604 0.91373825 0
4.4420004 1.4996905 0.91436958 0
4.4460001 1.4939219 0.91487455 0
4.4510002 1.4885176 0.91550589 0
4.4550004 1.4827185 0.91601098 0
4.4600005 1.4772801 0.91664231 0
4.4640002 1.4714501 0.9171474 0
4.4690003 1.4659773 0.91777873 0
4.4740005 1.4604865 0.91841006 0
4.4790001 1.4549776 0.9190414 0
4.4830003 1.4490846 0.91954637 0
4.4880004 1.4435415 0.92017782 0
4.4930005 1.4379804 0.92080915 0
4.4970002 1.4320405 0.92131412 0
4.5020003 1.426445 0.92194545 0
4.5070004 1.4208317 0.9225769 0
4.5120001 1.4152001 0.92320812 0
4.5160003 1.409197 0.92371321 0
4.5210004 1.4035313 0.92434466 0
4.5260005 1.3978475 0.92497599 0
4.5310001 1.3921456 0.9256072 0
4.5360003 1.3864259 0.92623854 0
4.5410004 1.3806878 0.92686987 0
4.5460005 1.3749319 0.92750132 0
4.5510001 1.3691578 0.92813253 0
4.5560002 1.3633658 0.92876387 0
4.5610003 1.3575559 0.9293952 0
4.395 1.6114292 0.90122879 0
4.3900003 1.6021577 0.90060651 0
4.388 1.5941379 0.90035748 0
4.3870001 1.5865349 0.90023309 0
4.3870001 1.5793431 0.90023309 0
4.3889999 1.572963 0.90048194 0
4.3910003 1.5665756 0.90073091 0
4.3940001 1.5605835 0.90110427 0
4.3970003 1.5545803 0.90147769 0
4.4020004 1.5493639 0.90210009 0
4.4060001 1.5437322 0.90259784 0
4.4100003 1.5380864 0.90309572 0
4.4150004 1.5328193 0.90371805 0
4.4190001 1.5271425 0.90421581 0
4.4230003 1.5214517 0.90471375 0
4.4280005 1.516134 0.90533614 0
4.4320002 1.5104123 0.90583384 0
4.4370003 1.5050604 0.90645623 0
4.4410005 1.4993081 0.90695405 0
4.4460001 1.4939219 0.90757632 0
4.4500003 1.4881389 0.90807426 0
4.4550004 1.4827185 0.90869653 0
4.4590001 1.4769046 0.90919435 0
4.4640002 1.4714501 0.90981674 0
4.4680004 1.4656057 0.91031456 0
4.4730005 1.4601169 0.91093683 0
4.4770002 1.4542416 0.91143477 0
4.4820004 1.4487185 0.91205704 0
4.4870005 1.4431772 0.91267931 0
4.4910002 1.4372553 0.91317713 0
4.4960003 1.4316796 0.91379952 0
4.5000005 1.4257272 0.91429734 0
4.5050001 1.4201171 0.91491961 0
4.5100002 1.4144894 0.91554201 0
4.5140004 1.4084899 0.91603982 0
4.5190001 1.4028277 0.9166621 0
4.5240002 1.3971475 0.91728449 0
4.5290003 1.3914493 0.91790676 0
4.5330005 1.3853868 0.9184047 0
4.5380001 1.3796543 0.91902697 0
4.5430002 1.3739038 0.91964924 0
4.5480003 1.3681352 0.92027152 0
4.5530005 1.3623486 0.92089391 0
4.5580001 1.3565439 0.92151618 0
4.5640001 1.3510567 0.92226303 0
4.395 1.6114292 0.89402258 0
4.3900003 1.6021577 0.89340925 0
4.388 1.5941379 0.89316392 0
4.3870001 1.5865349 0.89304131 0
4.3870001 1.5793431 0.89304131 0
4.3889999 1.572963 0.89328659 0
4.3910003 1.5665756 0.89353192 0
4.3940001 1.5605835 0.89389992 0
4.3970003 1.5545803 0.89426792 0
4.4020004 1.5493639 0.89488119 0
4.4060001 1.5437322 0.89537179 0
4.4100003 1.5380864 0.89586246 0
4.4150004 1.5328193 0.89647579 0
4.4190001 1.5271425 0.89696634 0
4.4230003 1.5214517 0.897457 0
4.4280005 1.516134 0.89807034 0
4.4320002 1.5104123 0.89856088 0
4.4370003 1.5050604 0.89917421 0
4.4410005 1.4993081 0.89966488 0
4.4460001 1.4939219 0.90027809 0
4.4500003 1.4881389 0.90076882 0
4.4550004 1.4827185 0.90138209 0
4.4590001 1.4769046 0.90187269 0
4.4640002 1.4714501 0.90248603 0
4.4680004 1.4656057 0.90297669 0
4.4730005 1.4601169 0.90358996 0
4.4770002 1.4542416 0.90408063 0
4.4820004 1.4487185 0.90469384 0
4.4860001 1.4428128 0.90518451 0
4.4910002 1.4372553 0.90579784 0
4.4950004 1.431319 0.9062885 0
4.5000005 1.4257272 0.90690172 0
4.5040002 1.4197601 0.90739238 0
4.5090003 1.414134 0.90800571 0
4.5140004 1.4084899 0.90861893 0
4.5180001 1.402476 0.90910959 0
4.5230002 1.3967975 0.90972292 0
4.5280004 1.3911012 0.91033614 0
4.5320001 1.3850404 0.9108268 0
4.5370002 1.3793097 0.91144013 0
4.5420003 1.373561 0.91205347 0
4.5470004 1.3677943 0.9126668 0
4.5510001 1.3616703 0.91315734 0
4.5560002 1.3558692 0.91377068 0
4.5620003 1.3503857 0.91450667 0
4.5700002 1.3455478 0.91548789 0
4.395 1.6114292 0.88681632 0
4.3900003 1.6021577 0.88621211 0
4.388 1.5941379 0.88597035 0
4.3870001 1.5865349 0.88584954 0
4.3870001 1.5793431 0.88584954 0
4.3889999 1.572963 0.88609123 0
4.3910003 1.5665756 0.88633287 0
4.3940001 1.5605835 0.8866955 0
4.3970003 1.5545803 0.88705802 0
4.4020004 1.5493639 0.88766241 0
4.4060001 1.5437322 0.88814574 0
4.4100003 1.5380864 0.8886292 0
4.4150004 1.5328193 0.88923347 0
4.4190001 1.5271425 0.88971686 0
4.4230003 1.5214517 0.89020026 0
4.4280005 1.516134 0.89080465 0
4.4320002 1.5104123 0.89128798 0
4.4370003 1.5050604 0.89189225 0
4.4410005 1.4993081 0.89237571 0
4.4460001 1.4939219 0.89297998 0
4.4500003 1.4881389 0.89346337 0
4.4550004 1.4827185 0.89406765 0
4.4590001 1.4769046 0.89455104 0
4.4640002 1.4714501 0.89515531 0
4.4680004 1.4656057 0.89563882 0
4.4730005 1.4601169 0.8962431 0
4.4770002 1.4542416 0.89672643 0
4.4820004 1.4487185 0.89733076 0
4.4860001 1.4428128 0.89781415 0
4.4910002 1.4372553 0.89841843 0
4.4950004 1.431319 0.89890188 0
4.5000005 1.4257272 0.89950609 0
4.5040002 1.4197601 0.8999896 0
4.5090003 1.414134 0.90059382 0
4.5140004 1.4084899 0.90119815 0
4.5180001 1.402476 0.90168154 0
4.5230002 1.3967975 0.90228581 0
4.5270004 1.3907531 0.90276927 0
4.5320001 1.3850404 0.90337348 0
4.5370002 1.3793097 0.90397775 0
4.5410004 1.3732183 0.90446126 0
4.5460005 1.3674533 0.90506542 0
4.5510001 1.3616703 0.90566969 0
4.5560002 1.3558692 0.90627396 0
4.5620003 1.3503857 0.90699911 0
4.5690002 1.3452141 0.90784514 0
4.395 1.6114292 0.87961012 0
4.3900003 1.6021577 0.87901491 0
4.388 1.5941379 0.87877679 0
4.3870001 1.5865349 0.87865776 0
4.3870001 1.5793431 0.87865776 0
4.3889999 1.572963 0.87889582 0
4.3910003 1.5665756 0.87913394 0
4.3940001 1.5605835 0.87949109 0
4.3970003 1.5545803 0.87984824 0
4.4020004 1.5493639 0.88044351 0
4.4060001 1.5437322 0.88091969 0
4.4100003 1.5380864 0.88139588 0
4.4150004 1.5328193 0.88199115 0
4.4190001 1.5271425 0.88246733 0
4.4230003 1.5214517 0.88294351 0
4.4280005 1.516134 0.88353884 0
4.4320002 1.5104123 0.88401496 0
4.4370003 1.5050604 0.8846103 0
4.4410005 1.4993081 0.88508654 0
4.4460001 1.4939219 0.88568175 0
4.4500003 1.4881389 0.88615799 0
4.4550004 1.4827185 0.8867532 0
4.4590001 1.4769046 0.88722944 0
4.4640002 1.4714501 0.88782465 0
4.4680004 1.4656057 0.8883009 0
4.4730005 1.4601169 0.88889617 0
4.4770002 1.4542416 0.88937235 0
4.4820004 1.4487185 0.88996762 0
4.4860001 1.4428128 0.8904438 0
4.4910002 1.4372553 0.89103901 0
4.4950004 1.431319 0.89151525 0
4.5000005 1.4257272 0.89211059 0
4.5040002 1.4197601 0.89258671 0
4.5090003 1.414134 0.89318192 0
4.5140004 1.4084899 0.89377725 0
4.5180001 1.402476 0.89425337 0
4.5230002 1.3967975 0.8948487 0
4.5270004 1.3907531 0.89532495 0
4.5320001 1.3850404 0.89592016 0
4.5370002 1.3793097 0.89651537 0
4.5410004 1.3732183 0.89699167 0
4.5460005 1.3674533 0.89758688 0
4.5510001 1.3616703 0.89818215 0
4.5560002 1.3558692 0.89877743 0
4.5620003 1.3503857 0.89949167 0
4.5690002 1.3452141 0.90032506 0
4.3900003 1.6021577 0.87181771 0
4.243 1.5067759 0.85458231 0
4.2480001 1.5018551 0.85516858 0
4.2520003 1.4965158 0.85563755 0
4.256 1.4911621 0.85610652 0
4.2600002 1.4857939 0.85657549 0
4.2639999 1.4804113 0.85704446 0
4.4150004 1.5328193 0.87474895 0
4.4190001 1.5271425 0.87521785 0
4.4230003 1.5214517 0.87568688 0
4.4280005 1.516134 0.87627316 0
4.4320002 1.5104123 0.87674212 0
4.4370003 1.5050604 0.87732828 0
4.4410005 1.4993081 0.87779737 0
4.4460001 1.4939219 0.87838352 0
4.4500003 1.4881389 0.87885249 0
4.4550004 1.4827185 0.87943876 0
4.4590001 1.4769046 0.87990773 0
4.4640002 1.4714501 0.880494 0
4.4680004 1.4656057 0.88096297 0
4.4730005 1.4601169 0.88154924 0
4.4770002 1.4542416 0.88201821 0
4.4820004 1.4487185 0.88260448 0
4.4860001 1.4428128 0.88307345 0
4.4910002 1.4372553 0.88365966 0
4.4950004 1.431319 0.88412869 0
4.5000005 1.4257272 0.88471496 0
4.5040002 1.4197601 0.88518393 0
4.5090003 1.414134 0.88577014 0
4.5140004 1.4084899 0.88635641 0
4.5180001 1.402476 0.88682532 0
4.5230002 1.3967975 0.88741159 0
4.5270004 1.3907531 0.88788062 0
4.5320001 1.3850404 0.88846678 0
4.5370002 1.3793097 0.88905305 0
4.5410004 1.3732183 0.88952208 0
4.5460005 1.3674533 0.89010835 0
4.5510001 1.3616703 0.8906945 0
4.5560002 1.3558692 0.89128077 0
4.5620003 1.3503857 0.89198422 0
4.2350001 1.5173787 0.84672672 0
4.2390003 1.5120844 0.84718847 0
4.243 1.5067759 0.84765029 0
4.2480001 1.5018551 0.8482275 0
4.2520003 1.4965158 0.84868926 0
4.256 1.4911621 0.84915102 0
4.2600002 1.4857939 0.84961283 0
4.2639999 1.4804113 0.85007453 0
4.2690001 1.4754076 0.8506518 0
4.2730002 1.4699944 0.85111356 0
4.277 1.4645667 0.85157537 0
4.2810001 1.4591247 0.85203713 0
4.2860003 1.4540541 0.85261434 0
4.29 1.4485813 0.8530761 0
4.2940001 1.4430943 0.85353792 0
4.2980003 1.4375925 0.85399967 0
4.303 1.4324553 0.85457689 0
4.3070002 1.426923 0.85503864 0
4.3110003 1.4213763 0.85550046 0
4.316 1.4161885 0.85607767 0
4.3200002 1.4106112 0.85653937 0
4.3240004 1.4050194 0.85700119 0
4.4820004 1.4487185 0.87524128 0
4.4860001 1.4428128 0.8757031 0
4.4910002 1.4372553 0.87628031 0
4.4950004 1.431319 0.87674212 0
4.5000005 1.4257272 0.87731934 0
4.5040002 1.4197601 0.87778103 0
4.5090003 1.414134 0.87835824 0
4.5140004 1.4084899 0.87893552 0
4.5180001 1.402476 0.87939727 0
4.5230002 1.3967975 0.87997448 0
4.5270004 1.3907531 0.8804363 0
4.5320001 1.3850404 0.88101345 0
4.5370002 1.3793097 0.88159072 0
4.5410004 1.3732183 0.88205248 0
4.5460005 1.3674533 0.88262975 0
4.5510001 1.3616703 0.8832069 0
4.5560002 1.3558692 0.88378417 0
4.2460003 1.5288004 0.84105915 0
4.2350001 1.5173787 0.83980906 0
4.2390003 1.5120844 0.84026366 0
4.243 1.5067759 0.84071821 0
4.2480001 1.5018551 0.84128642 0
4.2520003 1.4965158 0.84174097 0
4.256 1.4911621 0.84219551 0
4.2600002 1.4857939 0.84265006 0
4.2639999 1.4804113 0.84310466 0
4.2690001 1.4754076 0.84367287 0
4.2730002 1.4699944 0.84412742 0
4.277 1.4645667 0.84458196 0
4.2810001 1.4591247 0.84503657 0
4.2860003 1.4540541 0.84560472 0
4.29 1.4485813 0.84605932 0
4.2940001 1.4430943 0.84651387 0
4.2980003 1.4375925 0.84696841 0
4.303 1.4324553 0.84753662 0
4.3070002 1.426923 0.84799123 0
4.3110003 1.4213763 0.84844577 0
4.316 1.4161885 0.84901392 0
4.3200002 1.4106112 0.84946847 0
4.3240004 1.4050194 0.84992307 0
4.329 1.3997812 0.85049129 0
4.3330002 1.3941587 0.85094583 0
4.3370004 1.3885218 0.85140038 0
4.342 1.3832331 0.85196853 0
4.3460002 1.3775654 0.85242313 0
4.3510003 1.3722423 0.85299134 0
4.355 1.3665441 0.85344589 0
4.3590002 1.3608315 0.85390043 0
4.3640003 1.355458 0.85446864 0
4.368 1.3497146 0.85492325 0
4.3730001 1.3443069 0.8554914 0
4.3770003 1.3385328 0.85594594 0
4.382 1.3330907 0.85651422 0
4.3860002 1.3272861 0.85696876 0
4.2460003 1.5288004 0.8341217 0
4.2350001 1.5173787 0.83289152 0
4.2390003 1.5120844 0.83333886 0
4.243 1.5067759 0.83378619 0
4.2480001 1.5018551 0.83434534 0
4.2520003 1.4965158 0.83479273 0
4.256 1.4911621 0.83524001 0
4.2600002 1.4857939 0.8356874 0
4.2639999 1.4804113 0.83613473 0
4.2690001 1.4754076 0.83669388 0
4.2730002 1.4699944 0.83714128 0
4.277 1.4645667 0.83758861 0
4.2810001 1.4591247 0.83803594 0
4.2860003 1.4540541 0.83859515 0
4.29 1.4485813 0.83904248 0
4.2940001 1.4430943 0.83948982 0
4.2980003 1.4375925 0.83993721 0
4.303 1.4324553 0.8404963 0
4.3070002 1.426923 0.84094369 0
4.3110003 1.4213763 0.84139103 0
4.316 1.4161885 0.84195018 0
4.3200002 1.4106112 0.84239757 0
4.3240004 1.4050194 0.8428449 0
4.329 1.3997812 0.84340405 0
4.3330002 1.3941587 0.84385145 0
4.3370004 1.3885218 0.84429884 0
4.342 1.3832331 0.84485793 0
4.3460002 1.3775654 0.84530532 0
4.3510003 1.3722423 0.84586447 0
4.355 1.3665441 0.84631181 0
4.3590002 1.3608315 0.8467592 0
4.3640003 1.355458 0.84731841 0
4.368 1.3497146 0.84776568 0
4.3730001 1.3443069 0.84832489 0
4.3770003 1.3385328 0.84877223 0
4.382 1.3330907 0.84933138 0
4.3860002 1.3272861 0.84977877 0
4.3910003 1.3218098 0.85033798 0
4.395 1.3159745 0.85078526 0
4.4000001 1.3104637 0.85134447 0
4.4040003 1.3045979 0.8517918 0
4.4090004 1.299053 0.85235095 0
4.4130001 1.2931563 0.85279834 0
4.4180002 1.287577 0.85335749 0
4.4220004 1.2816498 0.85380483 0
4.4270005 1.2760364 0.85436404 0
4.4320002 1.2704047 0.85492325 0
4.4360003 1.2644306 0.85537052 0
4.4410005 1.2587649 0.85592973 0
4.4450002 1.2527599 0.85637707 0
4.2460003 1.5288004 0.82718426 0
4.2350001 1.5173787 0.82597387 0
4.2390003 1.5120844 0.82641399 0
4.243 1.5067759 0.82685411 0
4.2480001 1.5018551 0.82740432 0
4.2520003 1.4965158 0.82784444 0
4.256 1.4911621 0.82828462 0
4.2600002 1.4857939 0.82872468 0
4.2639999 1.4804113 0.82916486 0
4.2690001 1.4754076 0.82971501 0
4.2730002 1.4699944 0.83015513 0
4.277 1.4645667 0.83059525 0
4.2810001 1.4591247 0.83103538 0
4.2860003 1.4540541 0.83158553 0
4.29 1.4485813 0.83202565 0
4.2940001 1.4430943 0.83246577 0
4.2980003 1.4375925 0.83290595 0
4.303 1.4324553 0.83345604 0
4.3070002 1.426923 0.83389622 0
4.3110003 1.4213763 0.83433634 0
4.316 1.4161885 0.83488649 0
4.3200002 1.4106112 0.83532667 0
4.3240004 1.4050194 0.83576679 0
4.329 1.3997812 0.83631694 0
4.3330002 1.3941587 0.83675706 0
4.3370004 1.3885218 0.83719718 0
4.342 1.3832331 0.83774734 0
4.3460002 1.3775654 0.83818746 0
4.3510003 1.3722423 0.83873761 0
4.355 1.3665441 0.83917773 0
4.3590002 1.3608315 0.83961785 0
4.3640003 1.355458 0.84016806 0
4.368 1.3497146 0.84060818 0
4.3730001 1.3443069 0.84115839 0
4.3770003 1.3385328 0.84159851 0
4.382 1.3330907 0.84214866 0
4.3860002 1.3272861 0.84258878 0
4.3910003 1.3218098 0.84313893 0
4.395 1.3159745 0.84357905 0
4.4000001 1.3104637 0.8441292 0
4.4040003 1.3045979 0.84456933 0
4.4090004 1.299053 0.84511948 0
4.4130001 1.2931563 0.8455596 0
4.4180002 1.287577 0.84610981 0
4.4220004 1.2816498 0.84654999 0
4.4270005 1.2760364 0.84710014 0
4.4320002 1.2704047 0.84765029 0
4.4360003 1.2644306 0.84809041 0
4.4410005 1.2587649 0.84864056 0
4.4450002 1.2527599 0.84908068 0
4.4500003 1.2470599 0.84963083 0
4.4550004 1.2413419 0.85018098 0
4.4590001 1.2352901 0.8506211 0
4.2460003 1.5288004 0.82024682 0
4.2350001 1.5173787 0.81905627 0
4.2390003 1.5120844 0.81948924 0
4.243 1.5067759 0.81992209 0
4.2480001 1.5018551 0.8204633 0
4.2520003 1.4965158 0.82089615 0
4.256 1.4911621 0.82132912 0
4.2600002 1.4857939 0.82176197 0
4.2639999 1.4804113 0.82219493 0
4.2690001 1.4754076 0.82273602 0
4.2730002 1.4699944 0.82316899 0
4.277 1.4645667 0.82360184 0
4.2810001 1.4591247 0.82403481 0
4.2860003 1.4540541 0.8245759 0
4.29 1.4485813 0.82500887 0
4.2940001 1.4430943 0.82544178 0
4.2980003 1.4375925 0.82587469 0
4.303 1.4324553 0.82641578 0
4.3070002 1.426923 0.82684875 0
4.3110003 1.4213763 0.82728165 0
4.316 1.4161885 0.8278228 0
4.3200002 1.4106112 0.82825571 0
4.3240004 1.4050194 0.82868862 0
4.329 1.3997812 0.82922971 0
4.3330002 1.3941587 0.82966268 0
4.3370004 1.3885218 0.83009565 0
4.342 1.3832331 0.83063674 0
4.3460002 1.3775654 0.83106965 0
4.3510003 1.3722423 0.8316108 0
4.355 1.3665441 0.83204371 0
4.3590002 1.3608315 0.83247662 0
4.3640003 1.355458 0.83301777 0
4.368 1.3497146 0.83345068 0
4.3730001 1.3443069 0.83399183 0
4.3770003 1.3385328 0.83442473 0
4.382 1.3330907 0.83496588 0
4.3860002 1.3272861 0.83539879 0
4.3910003 1.3218098 0.83593988 0
4.395 1.3159745 0.83637285 0
4.4000001 1.3104637 0.83691394 0
4.4040003 1.3045979 0.83734691 0
4.4090004 1.299053 0.83788806 0
4.4130001 1.2931563 0.83832097 0
4.4180002 1.287577 0.83886206 0
4.4220004 1.2816498 0.83929503 0
4.4270005 1.2760364 0.83983618 0
4.4320002 1.2704047 0.84037727 0
4.4360003 1.2644306 0.84081024 0
4.4410005 1.2587649 0.84135139 0
4.4450002 1.2527599 0.84178424 0
4.4500003 1.2470599 0.84232545 0
4.4550004 1.2413419 0.84286654 0
4.4590001 1.2352901 0.84329951 0
4.4640002 1.2295377 0.8438406 0
4.2460003 1.5288004 0.81330937 0
4.2350001 1.5173787 0.81213868 0
4.2390003 1.5120844 0.81256437 0
4.243 1.5067759 0.81299007 0
4.2480001 1.5018551 0.81352222 0
4.2520003 1.4965158 0.81394792 0
4.256 1.4911621 0.81437361 0
4.2600002 1.4857939 0.81479931 0
4.2639999 1.4804113 0.81522501 0
4.2690001 1.4754076 0.81575716 0
4.2730002 1.4699944 0.81618285 0
4.277 1.4645667 0.81660855 0
4.2810001 1.4591247 0.81703424 0
4.2860003 1.4540541 0.81756634 0
4.29 1.4485813 0.81799203 0
4.2940001 1.4430943 0.81841779 0
4.2980003 1.4375925 0.81884342 0
4.303 1.4324553 0.81937551 0
4.3070002 1.426923 0.81980127 0
4.3110003 1.4213763 0.82022697 0
4.316 1.4161885 0.82075906 0
4.3200002 1.4106112 0.82118475 0
4.3240004 1.4050194 0.82161051 0
4.329 1.3997812 0.8221426 0
4.3330002 1.3941587 0.8225683 0
4.3370004 1.3885218 0.82299399 0
4.342 1.3832331 0.82352614 0
4.3460002 1.3775654 0.82395184 0
4.3510003 1.3722423 0.82448393 0
4.355 1.3665441 0.82490969 0
4.3590002 1.3608315 0.82533538 0
4.3640003 1.355458 0.82586747 0
4.368 1.3497146 0.82629317 0
4.3730001 1.3443069 0.82682526 0
4.3770003 1.3385328 0.82725102 0
4.382 1.3330907 0.82778311 0
4.3860002 1.3272861 0.8282088 0
4.3910003 1.3218098 0.82874095 0
4.395 1.3159745 0.82916665 0
4.4000001 1.3104637 0.82969874 0
4.4040003 1.3045979 0.83012444 0
4.4090004 1.299053 0.83065659 0
4.4130001 1.2931563 0.83108222 0
4.4180002 1.287577 0.83161438 0
4.4220004 1.2816498 0.83204007 0
4.4270005 1.2760364 0.83257222 0
4.4320002 1.2704047 0.83310437 0
4.4360003 1.2644306 0.83353007 0
4.4410005 1.2587649 0.83406222 0
4.4450002 1.2527599 0.83448786 0
4.4500003 1.2470599 0.83502001 0
4.4550004 1.2413419 0.8355521 0
4.4590001 1.2352901 0.83597779 0
4.4640002 1.2295377 0.83650994 0
4.4690003 1.2237673 0.83704209 0
4.2460003 1.5288004 0.80637193 0
4.2350001 1.5173787 0.80522108 0
4.2390003 1.5120844 0.80563956 0
4.243 1.5067759 0.80605805 0
4.2480001 1.5018551 0.80658114 0
4.2520003 1.4965158 0.80699968 0
4.256 1.4911621 0.80741811 0
4.2600002 1.4857939 0.80783659 0
4.2639999 1.4804113 0.80825508 0
4.2690001 1.4754076 0.80877817 0
4.2730002 1.4699944 0.80919665 0
4.277 1.4645667 0.80961514 0
4.2810001 1.4591247 0.81003368 0
4.2860003 1.4540541 0.81055677 0
4.29 1.4485813 0.81097519 0
4.2940001 1.4430943 0.81139374 0
4.2980003 1.4375925 0.81181216 0
4.303 1.4324553 0.81233525 0
4.3070002 1.426923 0.8127538 0
4.3110003 1.4213763 0.81317228 0
4.316 1.4161885 0.81369537 0
4.3200002 1.4106112 0.81411386 0
4.3240004 1.4050194 0.81453234 0
4.329 1.3997812 0.81505543 0
4.3330002 1.3941587 0.81547391 0
4.3370004 1.3885218 0.8158924 0
4.342 1.3832331 0.81641549 0
4.3460002 1.3775654 0.81683397 0
4.3510003 1.3722423 0.81735712 0
4.355 1.3665441 0.81777561 0
4.3590002 1.3608315 0.81819403 0
4.3640003 1.355458 0.81871718 0
4.368 1.3497146 0.81913567 0
4.3730001 1.3443069 0.81965876 0
4.3770003 1.3385328 0.82007724 0
4.382 1.3330907 0.82060033 0
4.3860002 1.3272861 0.82101882 0
4.3910003 1.3218098 0.82154191 0
4.395 1.3159745 0.82196045 0
4.4000001 1.3104637 0.82248354 0
4.4040003 1.3045979 0.82290196 0
4.4090004 1.299053 0.82342511 0
4.4130001 1.2931563 0.8238436 0
4.4180002 1.287577 0.82436669 0
4.4220004 1.2816498 0.82478523 0
4.4270005 1.2760364 0.82530832 0
4.4320002 1.2704047 0.82583141 0
4.4360003 1.2644306 0.82624984 0
4.4410005 1.2587649 0.82677299 0
4.4450002 1.2527599 0.82719147 0
4.4500003 1.2470599 0.82771456 0
4.4550004 1.2413419 0.82823765 0
4.4590001 1.2352901 0.82865614 0
4.4640002 1.2295377 0.82917929 0
4.4690003 1.2237673 0.82970238 0
4.4730005 1.2176688 0.83012086 0
4.2460003 1.5288004 0.79943448 0
4.2350001 1.5173787 0.79830348 0
4.2390003 1.5120844 0.79871476 0
4.243 1.5067759 0.79912603 0
4.2480001 1.5018551 0.79964006 0
4.2520003 1.4965158 0.80005133 0
4.256 1.4911621 0.8004626 0
4.2600002 1.4857939 0.80087388 0
4.2639999 1.4804113 0.80128515 0
4.2690001 1.4754076 0.80179924 0
4.2730002 1.4699944 0.80221051 0
4.277 1.4645667 0.80262178 0
4.2810001 1.4591247 0.80303305 0
4.2860003 1.4540541 0.80354714 0
4.29 1.4485813 0.80395842 0
4.2940001 1.4430943 0.80436969 0
4.2980003 1.4375925 0.80478096 0
4.303 1.4324553 0.80529499 0
4.3070002 1.426923 0.80570632 0
4.3110003 1.4213763 0.80611759 0
4.316 1.4161885 0.80663168 0
4.3200002 1.4106112 0.8070429 0
4.3240004 1.4050194 0.80745423 0
4.329 1.3997812 0.80796826 0
4.3330002 1.3941587 0.80837953 0
4.3370004 1.3885218 0.8087908 0
4.342 1.3832331 0.80930495 0
