# .PCD v0.7 - Point Cloud Data file format
VERSION 0.7
FIELDS x y z intensity
SIZE 4 4 4 4
TYPE F F F F
COUNT 1 1 1 1
WIDTH 1426
HEIGHT 1
VIEWPOINT 0 0 0 1 0 0 0
POINTS 1426
DATA ascii
3.8120003 -1.2646096 0.8040486 0
3.8120003 -1.2707641 0.8040486 0
3.8130002 -1.2772795 0.80416584 0
3.8150003 -1.2841611 0.80440032 0
3.9320002 -1.3584365 0.81811833 0
3.9360003 -1.3663011 0.8185873 0
3.9400003 -1.3741802 0.81905627 0
3.9440002 -1.3820735 0.8195253 0
3.9480002 -1.3899814 0.81999427 0
3.9530003 -1.3982844 0.82058048 0
3.9570003 -1.4062229 0.82104951 0
3.9610002 -1.414176 0.82151848 0
3.9660003 -1.4225293 0.82210469 0
3.9700003 -1.430513 0.82257372 0
3.9680002 -1.4361733 0.82233918 0
3.9610002 -1.4398693 0.82151848 0
3.9560003 -1.4443266 0.82093227 0
3.9520004 -1.4491608 0.8204633 0
3.9480002 -1.4539804 0.81999427 0
3.9440002 -1.4587859 0.8195253 0
3.9420002 -1.4643778 0.81929076 0
3.9390004 -1.4695601 0.81893909 0
3.9380002 -1.4755397 0.81882179 0
3.9370003 -1.4815156 0.81870455 0
3.9370003 -1.4878958 0.81870455 0
3.9380002 -1.4946853 0.81882179 0
3.9400003 -1.5018897 0.81905627 0
4.0510001 -1.0799555 0.82548511 0
4.0430002 -1.0842612 0.82456148 0
4.0350003 -1.0885381 0.82363796 0
4.0290003 -1.0933632 0.8229453 0
4.033 -1.1010709 0.82340705 0
4.0370002 -1.108793 0.82386887 0
4.0410004 -1.1165296 0.82433063 0
4.0450001 -1.1242805 0.82479239 0
4.0490003 -1.1320459 0.8252542 0
4.053 -1.1398257 0.8257159 0
4.0580001 -1.1479212 0.82629317 0
4.0620003 -1.1557317 0.82675493 0
4.066 -1.1635566 0.82721674 0
4.0700002 -1.1713959 0.82767844 0
4.0740004 -1.1792498 0.82814026 0
4.079 -1.1874282 0.82871747 0
4.0830002 -1.1953126 0.82917929 0
4.0870004 -1.2032115 0.82964104 0
4.0910001 -1.2111249 0.8301028 0
3.9090002 -1.1853213 0.80909204 0
3.9000003 -1.1887126 0.80805308 0
3.8930004 -1.1927279 0.80724496 0
3.8880002 -1.197378 0.80666775 0
3.8830004 -1.2020103 0.80609053 0
3.8800004 -1.2072917 0.80574417 0
3.8710003 -1.2105494 0.8047052 0
3.8590002 -1.2127626 0.80331987 0
3.8500001 -1.21595 0.8022809 0
3.8420002 -1.2194458 0.80135733 0
3.8360002 -1.2235981 0.80066466 0
3.8300002 -1.2277288 0.799972 0
3.8250003 -1.2321843 0.79939479 0
3.8210003 -1.2369698 0.79893303 0
3.8170002 -1.2417408 0.79847121 0
3.8150003 -1.2472011 0.7982403 0
3.8120003 -1.2523004 0.797894 0
3.8100002 -1.2577442 0.79766309 0
3.8090003 -1.2635381 0.7975477 0
3.8090003 -1.2696873 0.7975477 0
3.8090003 -1.2758365 0.7975477 0
3.8110003 -1.2827108 0.79777861 0
3.8140004 -1.2899567 0.79812491 0
3.9320002 -1.3584365 0.81174725 0
3.9360003 -1.3663011 0.81220901 0
3.9400003 -1.3741802 0.81267083 0
3.9440002 -1.3820735 0.81313258 0
3.9480002 -1.3899814 0.81359434 0
3.9530003 -1.3982844 0.81417155 0
3.9570003 -1.4062229 0.81463337 0
3.9610002 -1.414176 0.81509513 0
3.9660003 -1.4225293 0.81567234 0
3.9700003 -1.430513 0.8161341 0
3.9670002 -1.4357837 0.81578779 0
3.9610002 -1.4398693 0.81509513 0
3.9550002 -1.4439332 0.81440246 0
3.9500003 -1.4483707 0.81382525 0
3.9460003 -1.4531869 0.81336349 0
3.9420002 -1.4579885 0.81290168 0
3.9390004 -1.4631765 0.81255537 0
3.9370003 -1.4687556 0.81232446 0
3.9350002 -1.4743274 0.81209362 0
3.9340003 -1.480298 0.8119781 0
3.9330003 -1.4862652 0.81186271 0
3.9340003 -1.4930474 0.8119781 0
3.9350002 -1.4998333 0.81209362 0
4.0510001 -1.0799555 0.81889939 0
4.0430002 -1.0842612 0.81799018 0
4.0350003 -1.0885381 0.81708109 0
4.0290003 -1.0933632 0.81639928 0
4.033 -1.1010709 0.81685388 0
4.0370002 -1.108793 0.81730843 0
4.0410004 -1.1165296 0.81776297 0
4.0450001 -1.1242805 0.81821752 0
4.0490003 -1.1320459 0.81867206 0
4.053 -1.1398257 0.81912661 0
4.0580001 -1.1479212 0.81969488 0
4.0620003 -1.1557317 0.82014942 0
4.066 -1.1635566 0.82060397 0
4.0700002 -1.1713959 0.82105851 0
4.0740004 -1.1792498 0.82151306 0
4.079 -1.1874282 0.82208127 0
4.0830002 -1.1953126 0.82253581 0
4.0870004 -1.2032115 0.82299042 0
4.0910001 -1.2111249 0.82344496 0
3.9090002 -1.1853213 0.80276251 0
3.9000003 -1.1887126 0.80173975 0
3.8930004 -1.1927279 0.80094427 0
3.8880002 -1.197378 0.80037606 0
3.8830004 -1.2020103 0.79980785 0
3.8800004 -1.2072917 0.79946697 0
3.8750002 -1.2118914 0.7988987 0
3.8600004 -1.2131001 0.79719412 0
3.8500001 -1.21595 0.7960577 0
3.8420002 -1.2194458 0.79514861 0
3.8350003 -1.2232554 0.79435313 0
3.8290002 -1.2273843 0.79367125 0
3.8240004 -1.2318381 0.7931031 0
3.8200002 -1.2366216 0.79264855 0
3.8160002 -1.2413909 0.79219401 0
3.8130002 -1.2464975 0.79185307 0
3.8100002 -1.2515934 0.79151213 0
3.8080003 -1.2570336 0.79128486 0
3.8060002 -1.2624665 0.79105759 0
3.8060002 -1.2686104 0.79105759 0
3.8050003 -1.2743934 0.79094398 0
3.8070002 -1.2812605 0.79117119 0
3.8090003 -1.2881348 0.79139853 0
3.9360003 -1.3663011 0.80583078 0
3.9400003 -1.3741802 0.80628538 0
3.9440002 -1.3820735 0.80673987 0
3.9480002 -1.3899814 0.80719447 0
3.9530003 -1.3982844 0.80776262 0
3.9570003 -1.4062229 0.80821717 0
3.9610002 -1.414176 0.80867171 0
3.9660003 -1.4225293 0.80923998 0
3.9700003 -1.430513 0.80969453 0
3.9670002 -1.4357837 0.80935359 0
3.9610002 -1.4398693 0.80867171 0
3.9540002 -1.4435401 0.80787629 0
3.9490004 -1.4479758 0.80730808 0
3.9450002 -1.45279 0.80685353 0
3.9410002 -1.45759 0.80639899 0
3.9370003 -1.4623755 0.80594444 0
3.9350002 -1.4679509 0.80571711 0
3.9320002 -1.4731153 0.80537617 0
3.9310002 -1.4790806 0.80526257 0
3.9300003 -1.4850421 0.80514896 0
3.9300003 -1.4914097 0.80514896 0
3.9310002 -1.4981884 0.80526257 0
3.9330003 -1.5053837 0.80548984 0
4.0510001 -1.0799555 0.81231368 0
4.0430002 -1.0842612 0.81141901 0
4.0350003 -1.0885381 0.81052428 0
4.0290003 -1.0933632 0.80985326 0
4.033 -1.1010709 0.81030059 0
4.0370002 -1.108793 0.81074792 0
4.0410004 -1.1165296 0.81119531 0
4.0450001 -1.1242805 0.81164265 0
4.0490003 -1.1320459 0.81208998 0
4.053 -1.1398257 0.81253731 0
4.0580001 -1.1479212 0.81309652 0
4.0620003 -1.1557317 0.81354386 0
4.066 -1.1635566 0.81399119 0
4.0700002 -1.1713959 0.81443852 0
4.0740004 -1.1792498 0.81488585 0
4.079 -1.1874282 0.81544507 0
4.0830002 -1.1953126 0.8158924 0
4.0870004 -1.2032115 0.81633979 0
4.0910001 -1.2111249 0.81678712 0
4.0960002 -1.21937 0.81734627 0
3.9090002 -1.1853213 0.79643291 0
3.9000003 -1.1887126 0.79542637 0
3.8930004 -1.1927279 0.79464352 0
3.8880002 -1.197378 0.79408437 0
3.8830004 -1.2020103 0.79352522 0
3.8800004 -1.2072917 0.79318964 0
3.8770003 -1.2125624 0.79285419 0
3.8630002 -1.2141119 0.7912885 0
3.8510003 -1.2162892 0.78994644 0
3.8420002 -1.2194458 0.78893989 0
3.8350003 -1.2232554 0.78815711 0
3.8290002 -1.2273843 0.78748602 0
3.8230002 -1.2314916 0.78681505 0
3.8180003 -1.2359254 0.78625584 0
3.8140004 -1.2406911 0.7858085 0
3.8110003 -1.2457941 0.78547299 0
3.8080003 -1.2508862 0.78513753 0
3.8050003 -1.2559675 0.78480196 0
3.8040001 -1.2617522 0.78469014 0
3.8030002 -1.2675335 0.78457832 0
3.8020003 -1.2733111 0.78446651 0
3.8030002 -1.2798103 0.78457832 0
3.8040001 -1.2863129 0.78469014 0
3.8070002 -1.2935517 0.7850256 0
3.9360003 -1.3663011 0.79945254 0
3.9400003 -1.3741802 0.79989982 0
3.9440002 -1.3820735 0.80034721 0
3.9480002 -1.3899814 0.80079454 0
3.9530003 -1.3982844 0.80135369 0
3.9570003 -1.4062229 0.80180109 0
3.9610002 -1.414176 0.80224842 0
3.9660003 -1.4225293 0.80280757 0
3.9700003 -1.430513 0.80325496 0
3.9680002 -1.4361733 0.80303121 0
3.9600003 -1.4394779 0.80213654 0
3.9540002 -1.4435401 0.80146551 0
3.9480002 -1.4475806 0.80079454 0
3.9430003 -1.4519963 0.80023539 0
3.9390004 -1.4567927 0.799788 0
3.9350002 -1.4615746 0.79934061 0
3.9330003 -1.4671466 0.79911697 0
3.9300003 -1.4723072 0.79878151 0
3.9280002 -1.477863 0.79855782 0
3.9270003 -1.4838191 0.79844594 0
3.9260004 -1.4897717 0.79833412 0
3.9270003 -1.4965433 0.79844594 0
3.9280002 -1.5033183 0.79855782 0
4.0510001 -1.0799555 0.80572796 0
4.0430002 -1.0842612 0.80484772 0
4.0350003 -1.0885381 0.80396748 0
4.0290003 -1.0933632 0.80330729 0
4.033 -1.1010709 0.80374736 0
4.0370002 -1.108793 0.80418754 0
4.0410004 -1.1165296 0.80462766 0
4.0450001 -1.1242805 0.80506778 0
4.0490003 -1.1320459 0.8055079 0
4.053 -1.1398257 0.80594802 0
4.0580001 -1.1479212 0.80649817 0
4.0620003 -1.1557317 0.80693829 0
4.066 -1.1635566 0.80737841 0
4.0700002 -1.1713959 0.80781853 0
4.0740004 -1.1792498 0.80825871 0
4.079 -1.1874282 0.8088088 0
4.0830002 -1.1953126 0.80924898 0
4.0870004 -1.2032115 0.8096891 0
4.0910001 -1.2111249 0.81012928 0
4.0960002 -1.21937 0.81067944 0
3.9090002 -1.1853213 0.79010338 0
3.9000003 -1.1887126 0.78911304 0
3.8930004 -1.1927279 0.78834283 0
3.8880002 -1.197378 0.78779268 0
3.8830004 -1.2020103 0.78724253 0
3.8800004 -1.2072917 0.78691244 0
3.8770003 -1.2125624 0.78658235 0
3.8670003 -1.2154613 0.78548205 0
3.8530002 -1.2169673 0.78394157 0
3.8430002 -1.2197866 0.78284121 0
3.8350003 -1.2232554 0.78196096 0
3.8280003 -1.2270398 0.78119075 0
3.8220003 -1.2311454 0.78053057 0
3.8170002 -1.2355772 0.77998036 0
3.8130002 -1.2403411 0.7795403 0
3.8090003 -1.2450905 0.77910012 0
3.8060002 -1.2501792 0.77877003 0
3.8030002 -1.2552569 0.77843994 0
3.8010004 -1.2606809 0.77821988 0
3.8000002 -1.2664566 0.77810985 0
3.7990003 -1.2722288 0.77799976 0
3.7990003 -1.27836 0.77799976 0
3.8000002 -1.2848555 0.77810985 0
3.8020003 -1.2917207 0.77832991 0
3.9400003 -1.3741802 0.79351437 0
3.9440002 -1.3820735 0.79395449 0
3.9480002 -1.3899814 0.79439461 0
3.9530003 -1.3982844 0.79494476 0
3.9570003 -1.4062229 0.79538488 0
3.9610002 -1.414176 0.795825 0
3.9660003 -1.4225293 0.79637522 0
3.9700003 -1.430513 0.79681534 0
3.9680002 -1.4361733 0.79659528 0
3.9600003 -1.4394779 0.79571497 0
3.9540002 -1.4435401 0.79505479 0
3.9470003 -1.4471856 0.79428458 0
3.9420002 -1.4515995 0.79373443 0
3.9380002 -1.456394 0.79329431 0
3.9340003 -1.4611741 0.79285419 0
3.9310002 -1.4663421 0.7925241 0
3.9280002 -1.4714991 0.79219401 0
3.9260004 -1.4770513 0.79197395 0
3.9240003 -1.4825962 0.79175383 0
3.9230003 -1.4885434 0.79164386 0
3.9230003 -1.4948982 0.79164386 0
3.9240003 -1.5016661 0.79175383 0
3.9260004 -1.5088524 0.79197395 0
4.0510001 -1.0799555 0.79914224 0
4.0430002 -1.0842612 0.79827642 0
4.0350003 -1.0885381 0.79741061 0
4.0290003 -1.0933632 0.79676121 0
4.033 -1.1010709 0.79719412 0
4.0370002 -1.108793 0.79762703 0
4.0410004 -1.1165296 0.79805994 0
4.0450001 -1.1242805 0.79849291 0
4.0490003 -1.1320459 0.79892576 0
4.053 -1.1398257 0.79935873 0
4.0580001 -1.1479212 0.79989982 0
4.0620003 -1.1557317 0.80033278 0
4.066 -1.1635566 0.80076563 0
4.0700002 -1.1713959 0.8011986 0
4.0740004 -1.1792498 0.80163151 0
4.079 -1.1874282 0.80217266 0
4.0830002 -1.1953126 0.80260557 0
4.0870004 -1.2032115 0.80303848 0
4.0910001 -1.2111249 0.80347139 0
4.0960002 -1.21937 0.80401254 0
3.9090002 -1.1853213 0.78377378 0
3.9000003 -1.1887126 0.78279972 0
3.8930004 -1.1927279 0.78204215 0
3.8880002 -1.197378 0.781501 0
3.8830004 -1.2020103 0.78095984 0
3.8800004 -1.2072917 0.78063518 0
3.8770003 -1.2125624 0.78031051 0
3.8740003 -1.2178224 0.77998579 0
3.8550003 -1.2176456 0.77792943 0
3.8440003 -1.2201276 0.77673894 0
3.8350003 -1.2232554 0.77576488 0
3.8280003 -1.2270398 0.77500725 0
3.8220003 -1.2311454 0.77435791 0
3.8160002 -1.2352291 0.77370858 0
3.8110003 -1.2396413 0.77316743 0
3.8080003 -1.2447388 0.77284276 0
3.8040001 -1.249472 0.7724098 0
3.8010004 -1.2545462 0.77208513 0
3.7990003 -1.2599665 0.77186865 0
3.7970002 -1.2653797 0.77165222 0
3.7960002 -1.2711465 0.77154398 0
3.7960002 -1.2772722 0.77154398 0
3.7960002 -1.2833979 0.77154398 0
3.7980003 -1.2902561 0.77176046 0
3.8010004 -1.2974894 0.77208513 0
3.9400003 -1.3741802 0.78712893 0
3.9440002 -1.3820735 0.78756177 0
3.9480002 -1.3899814 0.78799474 0
3.9530003 -1.3982844 0.78853583 0
3.9570003 -1.4062229 0.7889688 0
3.9610002 -1.414176 0.78940165 0
3.9660003 -1.4225293 0.78994286 0
3.9700003 -1.430513 0.79037571 0
3.9700003 -1.4369526 0.79037571 0
3.9610002 -1.4398693 0.78940165 0
3.9530003 -1.4431468 0.78853583 0
3.9470003 -1.4471856 0.7878865 0
3.9410002 -1.4512026 0.78723711 0
3.9370003 -1.4559954 0.7868042 0
3.9320002 -1.4603732 0.78626299 0
3.9290004 -1.4655375 0.78593838 0
3.9260004 -1.4706911 0.78561366 0
3.9230003 -1.4758338 0.78528905 0
3.9210002 -1.4813732 0.78507257 0
3.9200003 -1.4873149 0.78496432 0
3.9200003 -1.4936644 0.78496432 0
3.9200003 -1.5000138 0.78496432 0
3.9210002 -1.506778 0.78507257 0
4.0510001 -1.0799555 0.79255652 0
4.0430002 -1.0842612 0.79170513 0
4.0350003 -1.0885381 0.79085374 0
4.0290003 -1.0933632 0.79021519 0
4.033 -1.1010709 0.79064095 0
4.0370002 -1.108793 0.79106659 0
4.0410004 -1.1165296 0.79149234 0
4.0450001 -1.1242805 0.79191798 0
4.0490003 -1.1320459 0.79234374 0
4.053 -1.1398257 0.79276937 0
4.0580001 -1.1479212 0.79330146 0
4.0620003 -1.1557317 0.79372722 0
4.066 -1.1635566 0.79415292 0
4.0700002 -1.1713959 0.79457855 0
4.0740004 -1.1792498 0.79500437 0
4.079 -1.1874282 0.7955364 0
4.0830002 -1.1953126 0.7959621 0
4.0870004 -1.2032115 0.79638785 0
4.0910001 -1.2111249 0.79681355 0
4.0960002 -1.21937 0.79734564 0
3.9090002 -1.1853213 0.77744424 0
3.9000003 -1.1887126 0.7764864 0
3.8930004 -1.1927279 0.77574146 0
3.8880002 -1.197378 0.77520931 0
3.8830004 -1.2020103 0.77467716 0
3.8800004 -1.2072917 0.77435791 0
3.8770003 -1.2125624 0.77403867 0
3.8740003 -1.2178224 0.77371943 0
3.8590002 -1.219002 0.77212298 0
3.8460002 -1.2208095 0.7707395 0
3.8360002 -1.2235981 0.76967525 0
3.8280003 -1.2270398 0.76882386 0
3.8210003 -1.230799 0.76807892 0
3.8150003 -1.234881 0.76744032 0
3.8100002 -1.2392913 0.76690817 0
3.8060002 -1.2440354 0.76648247 0
3.8020003 -1.248765 0.76605678 0
3.7990003 -1.2538354 0.76573753 0
3.7960002 -1.258895 0.76541829 0
3.7950003 -1.2646619 0.76531184 0
3.7930002 -1.2700642 0.76509899 0
3.7920003 -1.275822 0.76499254 0
3.7920003 -1.2819406 0.76499254 0
3.7930002 -1.2884253 0.76509899 0
3.7960002 -1.2956495 0.76541829 0
3.9440002 -1.3820735 0.78116906 0
3.9480002 -1.3899814 0.78159475 0
3.9530003 -1.3982844 0.7821269 0
3.9570003 -1.4062229 0.7825526 0
3.9610002 -1.414176 0.7829783 0
3.9660003 -1.4225293 0.78351045 0
3.9700003 -1.430513 0.78393614 0
3.9710002 -1.4373422 0.7840426 0
3.9610002 -1.4398693 0.7829783 0
3.9530003 -1.4431468 0.7821269 0
3.9470003 -1.4471856 0.78148842 0
3.9410002 -1.4512026 0.78084981 0
3.9360003 -1.4555968 0.78031766 0
3.9310002 -1.4599727 0.77978557 0
3.9270003 -1.4647331 0.77935994 0
3.9240003 -1.469883 0.77904058 0
3.9210002 -1.475022 0.77872133 0
3.9190001 -1.4805578 0.77850842 0
3.9170003 -1.4860866 0.77829564 0
3.9160004 -1.4920193 0.77818918 0
3.9160004 -1.4983615 0.77818918 0
3.9170003 -1.5051185 0.77829564 0
3.9200003 -1.5127126 0.77861488 0
4.0510001 -1.0799555 0.78597081 0
4.0430002 -1.0842612 0.78513384 0
4.0350003 -1.0885381 0.78429693 0
4.0290003 -1.0933632 0.78366917 0
4.033 -1.1010709 0.78408766 0
4.0370002 -1.108793 0.78450608 0
4.0410004 -1.1165296 0.78492463 0
4.0450001 -1.1242805 0.78534317 0
4.0490003 -1.1320459 0.78576159 0
4.053 -1.1398257 0.78618008 0
4.0580001 -1.1479212 0.78670323 0
4.0620003 -1.1557317 0.78712165 0
4.066 -1.1635566 0.78754014 0
4.0700002 -1.1713959 0.78795862 0
4.0740004 -1.1792498 0.78837711 0
4.079 -1.1874282 0.7889002 0
4.0830002 -1.1953126 0.78931868 0
4.0870004 -1.2032115 0.78973722 0
4.0910001 -1.2111249 0.79015565 0
4.0960002 -1.21937 0.79067874 0
3.9090002 -1.1853213 0.77111465 0
3.9000003 -1.1887126 0.77017307 0
3.8930004 -1.1927279 0.76944077 0
3.8880002 -1.197378 0.76891768 0
3.8830004 -1.2020103 0.76839459 0
3.8800004 -1.2072917 0.76808071 0
3.8770003 -1.2125624 0.76776683 0
3.8740003 -1.2178224 0.76745296 0
3.8660002 -1.2213758 0.76661599 0
3.8480003 -1.2214913 0.76473284 0
3.8370004 -1.2239408 0.76358199 0
3.8280003 -1.2270398 0.76264036 0
3.8210003 -1.230799 0.76190805 0
3.8150003 -1.234881 0.7612803 0
3.8090003 -1.2389413 0.7606526 0
3.8050003 -1.2436836 0.76023412 0
3.8010004 -1.2484114 0.75981563 0
3.7970002 -1.2531246 0.75939715 0
3.7940001 -1.2581807 0.75908327 0
3.7920003 -1.2635851 0.75887406 0
3.7900002 -1.2689819 0.75866479 0
3.7890003 -1.2747344 0.75856018 0
3.7890003 -1.2808475 0.75856018 0
3.7900002 -1.2873267 0.75866479 0
3.7910004 -1.2938097 0.75876939 0
3.7940001 -1.3010356 0.75908327 0
3.9440002 -1.3820735 0.7747764 0
3.9480002 -1.3899814 0.77519488 0
3.9530003 -1.3982844 0.77571797 0
3.9570003 -1.4062229 0.77613652 0
3.9610002 -1.414176 0.77655494 0
3.9660003 -1.4225293 0.77707809 0
3.9700003 -1.430513 0.77749658 0
3.9740002 -1.438511 0.777915 0
3.9630003 -1.4406521 0.77676415 0
3.9540002 -1.4435401 0.77582264 0
3.9460003 -1.4467906 0.77498567 0
3.9400003 -1.4508059 0.77435791 0
3.9350002 -1.4551982 0.77383482 0
3.9300003 -1.4595723 0.77331173 0
3.9260004 -1.4643308 0.77289319 0
3.9220002 -1.4690748 0.77247477 0
3.9190001 -1.4742103 0.77216089 0
3.9160004 -1.479335 0.77184701 0
3.9150002 -1.4852676 0.7717424 0
3.9130003 -1.4907855 0.77153313 0
3.9130003 -1.4971223 0.77153313 0
3.9130003 -1.5034591 0.77153313 0
3.9140003 -1.5102125 0.7716378 0
4.0510001 -1.0799555 0.77938509 0
4.0430002 -1.0842612 0.77856255 0
4.0350003 -1.0885381 0.77774006 0
4.0290003 -1.0933632 0.77712315 0
4.033 -1.1010709 0.77753443 0
4.0370002 -1.108793 0.7779457 0
4.0410004 -1.1165296 0.77835697 0
4.0450001 -1.1242805 0.77876824 0
4.0490003 -1.1320459 0.77917951 0
4.053 -1.1398257 0.77959073 0
4.0580001 -1.1479212 0.78010488 0
4.0620003 -1.1557317 0.78051615 0
4.066 -1.1635566 0.78092742 0
4.0700002 -1.1713959 0.78133863 0
4.0740004 -1.1792498 0.78174996 0
4.079 -1.1874282 0.78226399 0
4.0830002 -1.1953126 0.78267527 0
4.0870004 -1.2032115 0.78308654 0
4.0910001 -1.2111249 0.78349781 0
4.0960002 -1.21937 0.7840119 0
3.9090002 -1.1853213 0.76478505 0
3.9000003 -1.1887126 0.76385975 0
3.8930004 -1.1927279 0.76314008 0
3.8880002 -1.197378 0.76262593 0
3.8830004 -1.2020103 0.7621119 0
3.8800004 -1.2072917 0.76180339 0
3.8770003 -1.2125624 0.76149499 0
3.8740003 -1.2178224 0.76118648 0
3.8730001 -1.2237496 0.76108366 0
3.8510003 -1.222514 0.75882173 0
3.8380003 -1.2242836 0.75748515 0
3.8290002 -1.2273843 0.75655973 0
3.8210003 -1.230799 0.75573719 0
3.8140004 -1.2345328 0.75501752 0
3.8080003 -1.2385914 0.75440061 0
3.8040001 -1.2433318 0.75398934 0
3.7990003 -1.2477043 0.75347525 0
3.7950003 -1.2524141 0.75306398 0
3.7920003 -1.2574664 0.75275552 0
3.7900002 -1.2628671 0.75254989 0
3.7880003 -1.2682605 0.75234425 0
3.7860003 -1.2736467 0.75213861 0
3.7860003 -1.2797544 0.75213861 0
3.7860003 -1.285862 0.75213861 0
3.7870002 -1.2923377 0.75224143 0
3.7890003 -1.2991868 0.75244701 0
3.9480002 -1.3899814 0.76879501 0
3.9530003 -1.3982844 0.76930904 0
3.9570003 -1.4062229 0.76972032 0
3.9610002 -1.414176 0.77013159 0
3.9660003 -1.4225293 0.77064568 0
3.9700003 -1.430513 0.77105695 0
3.9740002 -1.438511 0.77146816 0
3.9640002 -1.4410436 0.77044004 0
3.9540002 -1.4435401 0.76941186 0
3.9470003 -1.4471856 0.76869214 0
3.9400003 -1.4508059 0.76797247 0
3.9340003 -1.4547995 0.76735556 0
3.9290004 -1.4591719 0.76684147 0
3.9240003 -1.4635264 0.76632738 0
3.9200003 -1.4682667 0.76591611 0
3.9170003 -1.4733986 0.76560766 0
3.9140003 -1.4785196 0.7652992 0
3.9120002 -1.4840392 0.76509356 0
3.9100003 -1.4895517 0.76488793 0
3.9100003 -1.495883 0.76488793 0
3.9090002 -1.5017995 0.76478505 0
3.9100003 -1.5085458 0.76488793 0
3.9130003 -1.5161326 0.76519638 0
4.0510001 -1.0799555 0.77279943 0
4.0430002 -1.0842612 0.77199131 0
4.0350003 -1.0885381 0.77118325 0
4.0290003 -1.0933632 0.77057713 0
4.033 -1.1010709 0.77098119 0
4.0370002 -1.108793 0.77138519 0
4.0410004 -1.1165296 0.77178931 0
4.0450001 -1.1242805 0.77219331 0
4.0490003 -1.1320459 0.77259743 0
4.053 -1.1398257 0.77300143 0
4.0580001 -1.1479212 0.77350652 0
4.0620003 -1.1557317 0.77391058 0
4.066 -1.1635566 0.77431464 0
4.0700002 -1.1713959 0.77471864 0
4.0740004 -1.1792498 0.77512276 0
4.079 -1.1874282 0.77562779 0
4.0830002 -1.1953126 0.77603185 0
4.0870004 -1.2032115 0.77643591 0
4.0910001 -1.2111249 0.77683997 0
4.0960002 -1.21937 0.77734506 0
3.9090002 -1.1853213 0.75845551 0
3.9000003 -1.1887126 0.75754642 0
3.8930004 -1.1927279 0.75683933 0
3.8880002 -1.197378 0.75633425 0
3.8830004 -1.2020103 0.75582922 0
3.8800004 -1.2072917 0.75552619 0
3.8770003 -1.2125624 0.75522316 0
3.8740003 -1.2178224 0.75492007 0
3.8730001 -1.2237496 0.75481904 0
3.8580003 -1.2249005 0.75330389 0
3.8400002 -1.224969 0.75148559 0
3.8300002 -1.2277288 0.75047553 0
3.8210003 -1.230799 0.74956644 0
3.8140004 -1.2345328 0.74885929 0
3.8080003 -1.2385914 0.74825323 0
3.8030002 -1.2429801 0.74774814 0
3.7980003 -1.2473508 0.74724305 0
3.7940001 -1.2520585 0.74683899 0
3.7900002 -1.2567521 0.74643499 0
3.7880003 -1.2621492 0.74623299 0
3.7850003 -1.2671782 0.7459299 0
3.7840002 -1.2729214 0.74582887 0
3.7830002 -1.2786613 0.7457279 0
3.7820003 -1.2843974 0.74562687 0
3.7830002 -1.2908658 0.7457279 0
3.7850003 -1.2977077 0.7459299 0
3.7880003 -1.3049283 0.74623299 0
3.9530003 -1.3982844 0.76290011 0
3.9570003 -1.4062229 0.76330423 0
3.9610002 -1.414176 0.76370823 0
3.9660003 -1.4225293 0.76421332 0
3.9700003 -1.430513 0.76461732 0
3.9740002 -1.438511 0.76502144 0
3.9670002 -1.4422179 0.76431429 0
3.9560003 -1.4443266 0.76320314 0
3.9470003 -1.4471856 0.76229405 0
3.9390004 -1.4504091 0.76148593 0
3.9330003 -1.4544008 0.76087987 0
3.9280002 -1.4587715 0.76037478 0
3.9230003 -1.463124 0.75986969 0
3.9190001 -1.4678626 0.75946569 0
3.9150002 -1.4725868 0.75906163 0
3.9120002 -1.4777043 0.75875854 0
3.9090002 -1.4828109 0.75845551 0
3.9080002 -1.4887291 0.75835454 0
3.9060004 -1.4942309 0.75815248 0
3.9060004 -1.5005549 0.75815248 0
3.9060004 -1.5068791 0.75815248 0
3.9080002 -1.5140401 0.75835454 0
4.0510001 -1.0799555 0.76621372 0
4.0430002 -1.0842612 0.76542008 0
4.0350003 -1.0885381 0.76462638 0
4.0290003 -1.0933632 0.76403117 0
4.033 -1.1010709 0.7644279 0
4.0370002 -1.108793 0.76482475 0
4.0410004 -1.1165296 0.76522166 0
4.0450001 -1.1242805 0.76561844 0
4.0490003 -1.1320459 0.76601529 0
4.053 -1.1398257 0.76641214 0
4.0580001 -1.1479212 0.76690817 0
4.0620003 -1.1557317 0.76730502 0
4.066 -1.1635566 0.76770186 0
4.0700002 -1.1713959 0.76809871 0
4.0740004 -1.1792498 0.76849556 0
4.079 -1.1874282 0.76899159 0
4.0830002 -1.1953126 0.76938844 0
4.0870004 -1.2032115 0.76978528 0
4.0910001 -1.2111249 0.77018213 0
4.0960002 -1.21937 0.77067816 0
3.9090002 -1.1853213 0.75212598 0
3.9000003 -1.1887126 0.7512331 0
3.8930004 -1.1927279 0.75053865 0
3.8880002 -1.197378 0.75004256 0
3.8830004 -1.2020103 0.74954653 0
3.8800004 -1.2072917 0.74924892 0
3.8770003 -1.2125624 0.74895132 0
3.8740003 -1.2178224 0.74865365 0
3.8730001 -1.2237496 0.74855447 0
3.8720002 -1.2296734 0.74845523 0
3.8440003 -1.2263399 0.74567735 0
3.8310003 -1.2280735 0.74438763 0
3.8220003 -1.2311454 0.74349475 0
3.8140004 -1.2345328 0.74270111 0
3.8070002 -1.2382414 0.74200666 0
3.8020003 -1.2426283 0.74151063 0
3.7970002 -1.2469971 0.74101448 0
3.7920003 -1.251348 0.74051845 0
3.7890003 -1.256395 0.74022084 0
3.7860003 -1.2614312 0.73992324 0
3.7830002 -1.2664566 0.73962557 0
3.7810001 -1.2718338 0.73942715 0
3.7800002 -1.2775681 0.73932797 0
3.7790003 -1.2832987 0.73922873 0
3.7790003 -1.2893939 0.73922873 0
3.7800002 -1.2958587 0.73932797 0
3.7830002 -1.3030703 0.73962557 0
3.9530003 -1.3982844 0.75649118 0
3.9570003 -1.4062229 0.75688803 0
3.9610002 -1.414176 0.75728488 0
3.9660003 -1.4225293 0.75778091 0
3.9700003 -1.430513 0.75817776 0
3.9740002 -1.438511 0.7585746 0
3.9700003 -1.4433923 0.75817776 0
3.9570003 -1.4447198 0.75688803 0
3.9470003 -1.4471856 0.75589597 0
3.9400003 -1.4508059 0.75520146 0
3.9330003 -1.4544008 0.75450706 0
3.9270003 -1.458371 0.75391173 0
3.9220002 -1.4627217 0.7534157 0
3.9170003 -1.4670546 0.75291967 0
3.9130003 -1.4717752 0.75252283 0
3.9100003 -1.476889 0.75222522 0
3.9070003 -1.4819919 0.75192755 0
3.9050002 -1.4874953 0.75172913 0
3.9040003 -1.4934045 0.75162995 0
3.9030004 -1.4993103 0.75153077 0
3.9020002 -1.5052123 0.75143147 0
3.9030004 -1.5119478 0.75153077 0
3.9060004 -1.5195274 0.75182837 0
4.0510001 -1.0799555 0.75962806 0
4.0430002 -1.0842612 0.75884879 0
4.0350003 -1.0885381 0.75806952 0
4.0290003 -1.0933632 0.75748509 0
4.033 -1.1010709 0.75787473 0
4.0370002 -1.108793 0.7582643 0
4.0410004 -1.1165296 0.758654 0
4.0450001 -1.1242805 0.75904357 0
4.0490003 -1.1320459 0.75943321 0
4.053 -1.1398257 0.75982285 0
4.0580001 -1.1479212 0.76030988 0
4.0620003 -1.1557317 0.76069951 0
4.066 -1.1635566 0.76108909 0
4.0700002 -1.1713959 0.76147872 0
4.0740004 -1.1792498 0.76186836 0
4.079 -1.1874282 0.76235533 0
4.0830002 -1.1953126 0.76274502 0
4.0870004 -1.2032115 0.76313466 0
4.0910001 -1.2111249 0.76352429 0
4.0960002 -1.21937 0.76401126 0
3.9090002 -1.1853213 0.74579644 0
3.9000003 -1.1887126 0.74491978 0
3.8930004 -1.1927279 0.7442379 0
3.8880002 -1.197378 0.74375093 0
3.8830004 -1.2020103 0.7432639 0
3.8800004 -1.2072917 0.74297166 0
3.8770003 -1.2125624 0.74267948 0
3.8740003 -1.2178224 0.74238724 0
3.8730001 -1.2237496 0.74228978 0
3.8720002 -1.2296734 0.74219239 0
3.8500001 -1.2283963 0.74004948 0
3.8220003 -1.2311454 0.73732209 0
3.8140004 -1.2345328 0.73654294 0
3.8070002 -1.2382414 0.73586106 0
3.8010004 -1.2422767 0.73527658 0
3.7960002 -1.2466437 0.73478961 0
3.7910004 -1.2509927 0.73430252 0
3.7870002 -1.2556807 0.73391294 0
3.7840002 -1.2607133 0.7336207 0
3.7810001 -1.2657351 0.73332846 0
3.7790003 -1.2711086 0.73313367 0
3.7770002 -1.276475 0.73293889 0
3.7760003 -1.2822003 0.73284149 0
3.7760003 -1.2882899 0.73284149 0
3.7760003 -1.2943796 0.73284149 0
3.7780004 -1.3012124 0.73303628 0
3.9570003 -1.4062229 0.75047189 0
3.9610002 -1.414176 0.75086153 0
3.9660003 -1.4225293 0.75134856 0
3.9700003 -1.430513 0.75173819 0
3.9740002 -1.438511 0.75212777 0
3.9770002 -1.4461322 0.75242001 0
3.9600003 -1.4458995 0.75076413 0
3.9490004 -1.4479758 0.74969268 0
3.9400003 -1.4508059 0.74881601 0
3.9330003 -1.4544008 0.74813414 0
3.9260004 -1.4579706 0.74745232 0
3.9210002 -1.4623196 0.74696529 0
3.9160004 -1.4666505 0.74647826 0
3.9120002 -1.4713693 0.74608862 0
3.9080002 -1.4760736 0.74569905 0
3.9050002 -1.4811729 0.74540675 0
3.9030004 -1.4866729 0.74521196 0
3.9010003 -1.4921654 0.74501717 0
3.9000003 -1.4980657 0.74491978 0
3.8990002 -1.5039623 0.74482238 0
3.9000003 -1.5106924 0.74491978 0
3.9010003 -1.5174259 0.74501717 0
4.0510001 -1.0799555 0.75304234 0
4.0430002 -1.0842612 0.75227749 0
4.0350003 -1.0885381 0.75151271 0
4.0290003 -1.0933632 0.75093907 0
4.033 -1.1010709 0.75132149 0
4.0370002 -1.108793 0.75170386 0
4.0410004 -1.1165296 0.75208628 0
4.0450001 -1.1242805 0.75246871 0
4.0490003 -1.1320459 0.75285113 0
4.053 -1.1398257 0.75323355 0
4.0580001 -1.1479212 0.75371152 0
4.0620003 -1.1557317 0.75409395 0
4.066 -1.1635566 0.75447631 0
4.0700002 -1.1713959 0.75485873 0
4.0740004 -1.1792498 0.75524116 0
4.079 -1.1874282 0.75571918 0
4.0830002 -1.1953126 0.75610161 0
4.0870004 -1.2032115 0.75648403 0
4.0910001 -1.2111249 0.7568664 0
4.0960002 -1.21937 0.75734437 0
3.9090002 -1.1853213 0.73946685 0
3.9000003 -1.1887126 0.73860645 0
3.8930004 -1.1927279 0.73793721 0
3.8880002 -1.197378 0.73745924 0
3.8830004 -1.2020103 0.73698121 0
3.8800004 -1.2072917 0.73669446 0
3.8770003 -1.2125624 0.73640764 0
3.8740003 -1.2178224 0.73612082 0
3.8730001 -1.2237496 0.73602521 0
3.8720002 -1.2296734 0.73592961 0
3.8720002 -1.2359363 0.73592961 0
3.8240004 -1.2318381 0.73134071 0
3.8140004 -1.2345328 0.73038471 0
3.8070002 -1.2382414 0.72971547 0
3.8000002 -1.2419248 0.72904623 0
3.7950003 -1.2462901 0.72856826 0
3.7900002 -1.2506372 0.72809023 0
3.7860003 -1.2553235 0.72770786 0
3.7820003 -1.2599955 0.72732544 0
3.7790003 -1.2650137 0.72703862 0
3.7760003 -1.270021 0.7267518 0
3.7750003 -1.2757463 0.7266562 0
3.7730002 -1.2811018 0.72646499 0
3.7730002 -1.287186 0.72646499 0
3.7730002 -1.2932702 0.72646499 0
3.7740002 -1.299726 0.72656059 0
3.7760003 -1.306559 0.7267518 0
3.9610002 -1.414176 0.74443817 0
3.9660003 -1.4225293 0.7449162 0
3.9700003 -1.430513 0.74529856 0
3.9740002 -1.438511 0.74568099 0
3.9780002 -1.4465235 0.74606335 0
3.9630003 -1.4470793 0.74462938 0
3.9500003 -1.4483707 0.74338651 0
3.9400003 -1.4508059 0.74243051 0
3.9330003 -1.4544008 0.74176133 0
3.9260004 -1.4579706 0.74109209 0
3.9200003 -1.4619173 0.74051845 0
3.9150002 -1.4662465 0.74004042 0
3.9100003 -1.4705576 0.73956251 0
3.9070003 -1.4756659 0.73927569 0
3.9030004 -1.4803541 0.73889327 0
3.9010003 -1.4858502 0.73870206 0
3.8980002 -1.4909261 0.73841524 0
3.8970003 -1.496821 0.73831964 0
3.8960001 -1.5027121 0.73822403 0
3.8960001 -1.5090183 0.73822403 0
3.8970003 -1.5157447 0.73831964 0
3.8990002 -1.5228968 0.73851085 0
4.0510001 -1.0799555 0.74645662 0
4.0430002 -1.0842612 0.7457062 0
4.0350003 -1.0885381 0.7449559 0
4.0290003 -1.0933632 0.74439305 0
4.033 -1.1010709 0.74476826 0
4.0370002 -1.108793 0.74514341 0
4.0410004 -1.1165296 0.74551868 0
4.0450001 -1.1242805 0.74589384 0
4.0490003 -1.1320459 0.74626899 0
4.053 -1.1398257 0.7466442 0
4.0580001 -1.1479212 0.74711323 0
4.0620003 -1.1557317 0.74748838 0
4.066 -1.1635566 0.74786353 0
4.0700002 -1.1713959 0.74823874 0
4.0740004 -1.1792498 0.74861395 0
4.079 -1.1874282 0.74908298 0
4.0830002 -1.1953126 0.74945813 0
4.0870004 -1.2032115 0.74983335 0
4.0910001 -1.2111249 0.7502085 0
4.0960002 -1.21937 0.75067753 0
3.9090002 -1.1853213 0.73313725 0
3.9000003 -1.1887126 0.73229313 0
3.8930004 -1.1927279 0.73163652 0
3.8880002 -1.197378 0.73116755 0
3.8830004 -1.2020103 0.73069859 0
3.8800004 -1.2072917 0.73041713 0
3.8770003 -1.2125624 0.7301358 0
3.8740003 -1.2178224 0.72985435 0
3.8730001 -1.2237496 0.72976053 0
3.8720002 -1.2296734 0.72966677 0
3.8720002 -1.2359363 0.72966677 0
3.8150003 -1.234881 0.72432029 0
3.8070002 -1.2382414 0.72356987 0
3.8000002 -1.2419248 0.72291327 0
3.7940001 -1.2459365 0.72235048 0
3.7890003 -1.2502819 0.72188151 0
3.7840002 -1.2546091 0.72141254 0
3.7810001 -1.2596364 0.72113109 0
3.7770002 -1.2642921 0.72075593 0
3.7740002 -1.2692958 0.72047454 0
3.7720003 -1.2746532 0.72028697 0
3.7710001 -1.2803694 0.72019315 0
3.7700002 -1.2860821 0.72009933 0
3.7690003 -1.2917911 0.72000557 0
3.7700002 -1.2982397 0.72009933 0
3.7720003 -1.3050654 0.72028697 0
3.9610002 -1.414176 0.73801482 0
3.9660003 -1.4225293 0.73848379 0
3.9700003 -1.430513 0.738859 0
3.9740002 -1.438511 0.73923415 0
3.9780002 -1.4465235 0.73960936 0
3.9700003 -1.4498317 0.738859 0
3.9530003 -1.4495559 0.73726439 0
3.9420002 -1.4515995 0.73623264 0
3.9330003 -1.4544008 0.73538846 0
3.9260004 -1.4579706 0.73473191 0
3.9200003 -1.4619173 0.73416907 0
3.9140003 -1.4658424 0.73360628 0
3.9090002 -1.4701517 0.73313725 0
3.9050002 -1.4748505 0.7327621 0
3.9010003 -1.4795351 0.73238689 0
3.8990002 -1.4850277 0.73219931 0
3.8960001 -1.4900999 0.73191792 0
3.8940003 -1.4955764 0.73173034 0
3.8930004 -1.5014622 0.73163652 0
3.8920002 -1.5073445 0.73154271 0
3.8930004 -1.5140637 0.73163652 0
3.8940003 -1.5207864 0.73173034 0
4.0510001 -1.0799555 0.73987091 0
4.0430002 -1.0842612 0.73913491 0
4.0350003 -1.0885381 0.73839903 0
4.0290003 -1.0933632 0.73784703 0
4.033 -1.1010709 0.73821497 0
4.0370002 -1.108793 0.73858297 0
4.0410004 -1.1165296 0.73895097 0
4.0450001 -1.1242805 0.73931897 0
4.0490003 -1.1320459 0.73968697 0
4.053 -1.1398257 0.74005491 0
4.0580001 -1.1479212 0.74051487 0
4.0620003 -1.1557317 0.74088287 0
4.066 -1.1635566 0.74125081 0
4.0700002 -1.1713959 0.74161875 0
4.0740004 -1.1792498 0.74198675 0
4.079 -1.1874282 0.74244678 0
4.0830002 -1.1953126 0.74281472 0
4.0870004 -1.2032115 0.74318272 0
4.0910001 -1.2111249 0.74355066 0
4.0960002 -1.21937 0.74401063 0
3.9090002 -1.1853213 0.72680771 0
3.9000003 -1.1887126 0.7259798 0
3.8930004 -1.1927279 0.72533584 0
3.8880002 -1.197378 0.72487581 0
3.8830004 -1.2020103 0.7244159 0
3.8800004 -1.2072917 0.72413993 0
3.8770003 -1.2125624 0.72386396 0
3.8740003 -1.2178224 0.72358793 0
3.8730001 -1.2237496 0.72349596 0
3.8720002 -1.2296734 0.72340393 0
3.8720002 -1.2359363 0.72340393 0
3.8730001 -1.2425436 0.72349596 0
3.8170002 -1.2355772 0.71834421 0
3.8070002 -1.2382414 0.71742427 0
3.8000002 -1.2419248 0.71678036 0
3.7940001 -1.2459365 0.71622837 0
3.7880003 -1.2499266 0.71567643 0
3.7830002 -1.2542521 0.71521646 0
3.7790003 -1.2589185 0.71484852 0
3.7750003 -1.2635707 0.71448052 0
3.7720003 -1.2685707 0.71420455 0
3.7700002 -1.2739245 0.71402055 0
3.7680004 -1.2792709 0.71383655 0
3.7670002 -1.2849782 0.71374452 0
3.7660003 -1.2906818 0.71365261 0
3.7560003 -1.2930377 0.71273261 0
3.7540002 -1.2983444 0.71254861 0
3.7530003 -1.3040191 0.71245664 0
3.9660003 -1.4225293 0.73205137 0
3.9700003 -1.430513 0.73241937 0
3.9740002 -1.438511 0.73278737 0
3.9560003 -1.4507409 0.73113143 0
3.9430003 -1.4519963 0.72993553 0
3.9340003 -1.4547995 0.72910762 0
3.9260004 -1.4579706 0.72837162 0
3.9190001 -1.4615149 0.72772765 0
3.9130003 -1.4654384 0.72717571 0
3.9080002 -1.4697459 0.72671574 0
3.9040003 -1.474443 0.7263478 0
3.9000003 -1.4791257 0.7259798 0
3.8970003 -1.4842051 0.72570384 0
3.8940003 -1.4892739 0.72542787 0
3.8920002 -1.4947466 0.72524381 0
3.8900003 -1.5002122 0.72505987 0
3.8890002 -1.5060889 0.72496784 0
3.8890002 -1.5123824 0.72496784 0
3.8900003 -1.519098 0.72505987 0
4.0510001 -1.0799555 0.73328519 0
4.0430002 -1.0842612 0.73256367 0
4.0350003 -1.0885381 0.73184216 0
4.0290003 -1.0933632 0.73130101 0
4.033 -1.1010709 0.7316618 0
4.0370002 -1.108793 0.73202252 0
4.0410004 -1.1165296 0.73238331 0
4.0450001 -1.1242805 0.7327441 0
4.0490003 -1.1320459 0.73310483 0
4.053 -1.1398257 0.73346555 0
4.0580001 -1.1479212 0.73391652 0
4.0620003 -1.1557317 0.73427731 0
4.066 -1.1635566 0.73463809 0
4.0700002 -1.1713959 0.73499882 0
4.0740004 -1.1792498 0.73535955 0
4.079 -1.1874282 0.73581052 0
4.0830002 -1.1953126 0.73617131 0
4.0870004 -1.2032115 0.73653209 0
4.0910001 -1.2111249 0.73689282 0
4.0960002 -1.21937 0.73734379 0
3.9090002 -1.1853213 0.72047818 0
3.9000003 -1.1887126 0.71966648 0
3.8930004 -1.1927279 0.71903515 0
3.8880002 -1.197378 0.71858418 0
3.8830004 -1.2020103 0.71813321 0
3.8800004 -1.2072917 0.71786267 0
3.8770003 -1.2125624 0.71759206 0
3.8740003 -1.2178224 0.71732152 0
3.8730001 -1.2237496 0.71723127 0
3.8720002 -1.2296734 0.71714115 0
3.8720002 -1.2359363 0.71714115 0
3.8730001 -1.2425436 0.71723127 0
3.8080003 -1.2385914 0.71136892 0
3.8000002 -1.2419248 0.7106474 0
3.7930002 -1.2455829 0.71001607 0
3.7870002 -1.2495712 0.70947492 0
3.7820003 -1.2538949 0.70902395 0
3.7780004 -1.2585596 0.70866323 0
3.7740002 -1.2632097 0.70830244 0
3.7700002 -1.2678455 0.70794165 0
3.7680004 -1.2731957 0.70776129 0
3.7660003 -1.2785386 0.70758092 0
3.7640002 -1.2838743 0.70740056 0
3.7530003 -1.2858747 0.7064085 0
3.7500002 -1.2908081 0.7061379 0
3.7470002 -1.2957307 0.70586729 0
3.7450004 -1.3010176 0.70568693 0
3.7430003 -1.3062973 0.70550656 0
3.9460003 -1.4531869 0.7238152 0
3.9350002 -1.4551982 0.72282314 0
3.9260004 -1.4579706 0.72201145 0
3.9190001 -1.4615149 0.72138005 0
3.9130003 -1.4654384 0.7208389 0
3.9070003 -1.4693401 0.72029781 0
3.9030004 -1.4740353 0.71993703 0
3.8980002 -1.4783067 0.71948612 0
3.8950002 -1.4833827 0.71921551 0
3.8920002 -1.4884477 0.71894491 0
3.8890002 -1.493502 0.7186743 0
3.8880002 -1.4993788 0.71858418 0
3.8860002 -1.5048335 0.71840382 0
3.8860002 -1.5111216 0.71840382 0
3.8860002 -1.5174096 0.71840382 0
3.8870003 -1.5241216 0.71849394 0
4.0510001 -1.0799555 0.72669953 0
4.0430002 -1.0842612 0.72599244 0
4.0350003 -1.0885381 0.72528529 0
4.0290003 -1.0933632 0.72475505 0
4.033 -1.1010709 0.72510856 0
4.0370002 -1.108793 0.72546208 0
4.0410004 -1.1165296 0.72581565 0
4.0450001 -1.1242805 0.72616923 0
4.0490003 -1.1320459 0.72652274 0
4.053 -1.1398257 0.72687626 0
4.0580001 -1.1479212 0.72731817 0
4.0620003 -1.1557317 0.72767174 0
4.066 -1.1635566 0.72802532 0
4.0700002 -1.1713959 0.72837883 0
4.0740004 -1.1792498 0.72873241 0
4.079 -1.1874282 0.72917438 0
4.0830002 -1.1953126 0.72952789 0
4.0870004 -1.2032115 0.72988141 0
4.0910001 -1.2111249 0.73023498 0
4.0960002 -1.21937 0.73067689 0
3.9090002 -1.1853213 0.71414864 0
3.9000003 -1.1887126 0.71335316 0
3.8930004 -1.1927279 0.71273446 0
3.8880002 -1.197378 0.71229243 0
3.8830004 -1.2020103 0.71185052 0
3.8800004 -1.2072917 0.7115854 0
3.8770003 -1.2125624 0.71132028 0
3.8740003 -1.2178224 0.71105504 0
3.8730001 -1.2237496 0.71096671 0
3.8720002 -1.2296734 0.71087825 0
3.8720002 -1.2359363 0.71087825 0
3.8730001 -1.2425436 0.71096671 0
3.8090003 -1.2389413 0.70530993 0
3.8000002 -1.2419248 0.7045145 0
3.7930002 -1.2455829 0.70389575 0
3.7870002 -1.2495712 0.70336545 0
3.7810001 -1.2535377 0.70283508 0
3.7760003 -1.2578417 0.70239317 0
3.7720003 -1.2624882 0.70203966 0
3.7690003 -1.2674831 0.70177448 0
3.7660003 -1.2724669 0.70150936 0
3.7640002 -1.2778062 0.70133257 0
3.7520003 -1.2794585 0.70027196 0
3.7480001 -1.2840258 0.69991839 0
3.7440002 -1.2885785 0.69956481 0
3.7410002 -1.2934903 0.69929963 0
3.7380002 -1.2983912 0.69903445 0
3.7350004 -1.3032814 0.69876933 0
3.7330003 -1.3085395 0.69859254 0
3.7310002 -1.3137903 0.69841576 0
3.9360003 -1.4555968 0.71653503 0
3.9270003 -1.458371 0.71573961 0
3.9190001 -1.4615149 0.71503246 0
3.9120002 -1.4650342 0.71441376 0
3.9060004 -1.4689342 0.7138834 0
3.9020002 -1.4736276 0.71352988 0
3.8970003 -1.4778973 0.71308798 0
3.8930004 -1.4825602 0.71273446 0
3.8900003 -1.4876217 0.71246922 0
3.8870003 -1.4926723 0.7122041 0
3.8850002 -1.4981288 0.71202731 0
3.8830004 -1.5035782 0.71185052 0
3.8820002 -1.5094404 0.71176219 0
3.8720002 -1.5115004 0.71087825 0
3.8700004 -1.5169154 0.71070153 0
3.8670003 -1.5218976 0.71043634 0
4.0510001 -1.0799555 0.72011381 0
4.0430002 -1.0842612 0.71942115 0
4.0350003 -1.0885381 0.71872848 0
4.0290003 -1.0933632 0.71820903 0
4.033 -1.1010709 0.71855533 0
4.0370002 -1.108793 0.71890163 0
4.0410004 -1.1165296 0.71924794 0
4.0450001 -1.1242805 0.7195943 0
4.0490003 -1.1320459 0.71994066 0
4.053 -1.1398257 0.72028697 0
4.0580001 -1.1479212 0.72071993 0
4.0620003 -1.1557317 0.72106624 0
4.066 -1.1635566 0.72141254 0
4.0700002 -1.1713959 0.72175884 0
4.0740004 -1.1792498 0.72210526 0
4.079 -1.1874282 0.72253811 0
4.0830002 -1.1953126 0.72288442 0
4.0870004 -1.2032115 0.72323078 0
4.0910001 -1.2111249 0.72357714 0
4.0960002 -1.21937 0.72400999 0
3.9090002 -1.1853213 0.70781904 0
3.9000003 -1.1887126 0.70703983 0
3.8930004 -1.1927279 0.70643377 0
3.8880002 -1.197378 0.7060008 0
3.8830004 -1.2020103 0.70556796 0
3.8800004 -1.2072917 0.70530814 0
3.8770003 -1.2125624 0.70504844 0
3.8740003 -1.2178224 0.70478868 0
3.8730001 -1.2237496 0.70470208 0
3.8720002 -1.2296734 0.70461547 0
3.8720002 -1.2359363 0.70461547 0
3.8730001 -1.2425436 0.70470208 0
3.8750002 -1.2495009 0.70487523 0
3.8110003 -1.2396413 0.69933391 0
3.8010004 -1.2422767 0.69846809 0
3.7930002 -1.2455829 0.69777548 0
3.7860003 -1.2492158 0.69716936 0
3.7800002 -1.2531806 0.69664985 0
3.7750003 -1.2574828 0.69621694 0
3.7710001 -1.2621275 0.69587064 0
3.7670002 -1.2667578 0.69552428 0
3.7650003 -1.2721026 0.69535112 0
3.7530003 -1.2737783 0.6943121 0
3.7480001 -1.2779865 0.69387925 0
3.7440002 -1.2825466 0.69353288 0
3.7400002 -1.2870922 0.69318652 0
3.7360003 -1.2916235 0.69284022 0
3.7320004 -1.2961401 0.69249392 0
3.7290003 -1.3010194 0.69223416 0
3.7260003 -1.3058879 0.6919744 0
3.7240002 -1.3111261 0.69180119 0
3.7220004 -1.3163573 0.6916281 0
3.7210002 -1.3219652 0.69154143 0
3.9280002 -1.4587715 0.70946407 0
3.9200003 -1.4619173 0.70877147 0
3.9120002 -1.4650342 0.70807874 0
3.9060004 -1.4689342 0.70755929 0
3.9010003 -1.47322 0.70712638 0
3.8960001 -1.4774878 0.70669341 0
3.8920002 -1.4821488 0.70634711 0
3.8880002 -1.4867954 0.7060008 0
3.8850002 -1.4918425 0.70574105 0
3.8830004 -1.4972955 0.70556796 0
3.8810003 -1.5027411 0.70539474 0
3.8690002 -1.5039767 0.70435572 0
3.8660002 -1.5089678 0.70409596 0
3.8630002 -1.5139481 0.7038362 0
3.8600004 -1.5189177 0.70357651 0
3.8580003 -1.5243038 0.70340335 0
3.8560002 -1.5296828 0.70323014 0
4.0510001 -1.0799555 0.7135281 0
4.0430002 -1.0842612 0.71284986 0
4.0350003 -1.0885381 0.71217167 0
4.0290003 -1.0933632 0.71166295 0
4.033 -1.1010709 0.71200204 0
4.0370002 -1.108793 0.71234119 0
4.0410004 -1.1165296 0.71268034 0
4.0450001 -1.1242805 0.71301943 0
4.0490003 -1.1320459 0.71335852 0
4.053 -1.1398257 0.71369767 0
4.0580001 -1.1479212 0.71412158 0
4.0620003 -1.1557317 0.71446067 0
4.066 -1.1635566 0.71479976 0
4.0700002 -1.1713959 0.71513891 0
4.0740004 -1.1792498 0.715478 0
4.079 -1.1874282 0.71590191 0
4.0830002 -1.1953126 0.716241 0
4.0870004 -1.2032115 0.71658015 0
4.0910001 -1.2111249 0.71691924 0
4.0960002 -1.21937 0.71734315 0
3.9090002 -1.1853213 0.70148945 0
3.9000003 -1.1887126 0.70072651 0
3.8930004 -1.1927279 0.70013303 0
3.8880002 -1.197378 0.69970912 0
3.8830004 -1.2020103 0.69928527 0
3.8800004 -1.2072917 0.69903088 0
3.8770003 -1.2125624 0.69877654 0
3.8740003 -1.2178224 0.69852221 0
3.8730001 -1.2237496 0.69843745 0
3.8720002 -1.2296734 0.69835269 0
3.8720002 -1.2359363 0.69835269 0
3.8730001 -1.2425436 0.69843745 0
3.8750002 -1.2495009 0.69860697 0
3.8020003 -1.2426283 0.6924181 0
3.7930002 -1.2455829 0.69165516 0
3.7860003 -1.2492158 0.69106168 0
3.7800002 -1.2531806 0.69055295 0
3.7750003 -1.2574828 0.6901291 0
3.7700002 -1.2617667 0.68970519 0
3.7670002 -1.2667578 0.68945086 0
3.7560003 -1.2688233 0.68851829 0
3.7500002 -1.2726798 0.68800962 0
3.7450004 -1.2768828 0.68758571 0
3.7400002 -1.2810675 0.6871618 0
3.7360003 -1.2856059 0.68682271 0
3.7310002 -1.2897564 0.6863988 0
3.7270002 -1.2942642 0.68605971 0
3.7230003 -1.2987574 0.68572056 0
3.7200003 -1.3036151 0.68546629 0
3.7170002 -1.3084619 0.6852119 0
3.7140002 -1.313298 0.68495762 0
3.7120004 -1.3185074 0.68478805 0
3.7100003 -1.3237095 0.68461847 0
3.7100003 -1.3296801 0.68461847 0
3.9200003 -1.4619173 0.70242202 0
3.9120002 -1.4650342 0.70174384 0
3.9060004 -1.4689342 0.70123518 0
3.9000003 -1.4728124 0.70072651 0
3.8950002 -1.4770783 0.7003026 0
3.8900003 -1.4813262 0.69987869 0
3.8860002 -1.4859692 0.69953954 0
3.8830004 -1.4910128 0.69928527 0
3.8810003 -1.496462 0.69911563 0
3.8690002 -1.4977193 0.6980983 0
3.8650002 -1.5022955 0.69775921 0
3.8610003 -1.5068574 0.69742012 0
3.8570004 -1.5114049 0.69708097 0
3.8540003 -1.5163635 0.69682664 0
3.8510003 -1.5213113 0.6965723 0
3.8480003 -1.5262483 0.69631797 0
3.8460002 -1.5316056 0.6961484 0
3.8450003 -1.5373887 0.69606364 0
4.0510001 -1.0799555 0.70694244 0
4.0430002 -1.0842612 0.70627856 0
4.0350003 -1.0885381 0.70561481 0
4.0290003 -1.0933632 0.70511693 0
4.033 -1.1010709 0.70544887 0
4.0370002 -1.108793 0.70578074 0
4.0410004 -1.1165296 0.70611262 0
4.0450001 -1.1242805 0.70644456 0
4.0490003 -1.1320459 0.70677644 0
4.053 -1.1398257 0.70710838 0
4.0580001 -1.1479212 0.70752323 0
4.0620003 -1.1557317 0.70785511 0
4.066 -1.1635566 0.70818698 0
4.0700002 -1.1713959 0.70851892 0
4.0740004 -1.1792498 0.70885086 0
4.079 -1.1874282 0.70926571 0
4.0830002 -1.1953126 0.70959759 0
4.0870004 -1.2032115 0.70992953 0
4.0910001 -1.2111249 0.7102614 0
4.0960002 -1.21937 0.71067631 0
3.9090002 -1.1853213 0.69515991 0
3.9000003 -1.1887126 0.69441319 0
3.8930004 -1.1927279 0.69383228 0
3.8880002 -1.197378 0.69341743 0
3.8830004 -1.2020103 0.69300258 0
3.8800004 -1.2072917 0.69275367 0
3.8770003 -1.2125624 0.69250476 0
3.8740003 -1.2178224 0.6922558 0
3.8730001 -1.2237496 0.69217277 0
3.8720002 -1.2296734 0.6920898 0
3.8720002 -1.2359363 0.6920898 0
3.8730001 -1.2425436 0.69217277 0
3.8750002 -1.2495009 0.69233876 0
3.8040001 -1.2433318 0.6864475 0
3.7940001 -1.2459365 0.6856178 0
3.7860003 -1.2492158 0.68495399 0
3.7800002 -1.2531806 0.68445611 0
3.7750003 -1.2574828 0.68404126 0
3.7710001 -1.2621275 0.68370938 0
3.7600002 -1.26422 0.6827966 0
3.7540002 -1.2680944 0.68229878 0
3.7480001 -1.2719474 0.6818009 0
3.7430003 -1.2761468 0.68138605 0
3.7370002 -1.2799581 0.68088818 0
3.7330003 -1.2844911 0.6805563 0
3.7280002 -1.2886362 0.68014139 0
3.7230003 -1.2927634 0.67972648 0
3.7190003 -1.2972494 0.6793946 0
3.7150002 -1.3017211 0.67906272 0
3.7120004 -1.306559 0.67881382 0
3.7090003 -1.311386 0.67856491 0
3.7060003 -1.316202 0.67831594 0
3.7030003 -1.3210075 0.67806703 0
3.7010002 -1.3261898 0.67790109 0
3.7000003 -1.3317546 0.67781806 0
3.9130003 -1.4654384 0.69549179 0
3.9050002 -1.4685282 0.69482803 0
3.8990002 -1.4724046 0.69433016 0
3.8940003 -1.476669 0.69391531 0
3.8890002 -1.480915 0.6935004 0
3.8860002 -1.4859692 0.69325149 0
3.8820002 -1.4905978 0.69291961 0
3.8710003 -1.4922953 0.69200689 0
3.8660002 -1.4964638 0.69159198 0
3.8610003 -1.5006144 0.69117713 0
3.8570004 -1.505169 0.69084525 0
3.8530002 -1.5097091 0.69051325 0
3.8490002 -1.514235 0.69018137 0
3.8450003 -1.5187463 0.6898495 0
3.8420002 -1.5236725 0.68960059 0
3.8390002 -1.5285878 0.68935168 0
3.8370004 -1.5339254 0.68918574 0
3.8350003 -1.5392556 0.6890198 0
4.0510001 -1.0799555 0.70035672 0
4.0430002 -1.0842612 0.69970733 0
4.0350003 -1.0885381 0.69905794 0
4.0290003 -1.0933632 0.69857091 0
4.033 -1.1010709 0.69889557 0
4.0370002 -1.108793 0.6992203 0
4.0410004 -1.1165296 0.69954503 0
4.0450001 -1.1242805 0.69986963 0
4.0490003 -1.1320459 0.70019436 0
4.053 -1.1398257 0.70051903 0
4.0580001 -1.1479212 0.70092487 0
4.0620003 -1.1557317 0.7012496 0
4.066 -1.1635566 0.70157421 0
4.0700002 -1.1713959 0.70189893 0
4.0740004 -1.1792498 0.70222366 0
4.079 -1.1874282 0.70262945 0
4.0830002 -1.1953126 0.70295417 0
4.0870004 -1.2032115 0.7032789 0
4.0910001 -1.2111249 0.70360357 0
4.0960002 -1.21937 0.70400941 0
3.9090002 -1.1853213 0.68883038 0
3.9000003 -1.1887126 0.68809986 0
3.8930004 -1.1927279 0.68753159 0
3.8880002 -1.197378 0.68712574 0
3.8830004 -1.2020103 0.68671989 0
3.8800004 -1.2072917 0.68647635 0
3.8770003 -1.2125624 0.68623286 0
3.8740003 -1.2178224 0.68598938 0
3.8730001 -1.2237496 0.6859082 0
3.8720002 -1.2296734 0.68582702 0
3.8720002 -1.2359363 0.68582702 0
3.8730001 -1.2425436 0.6859082 0
3.8750002 -1.2495009 0.6860705 0
3.8780003 -1.2568135 0.68631405 0
3.7950003 -1.2462901 0.67957681 0
3.7870002 -1.2495712 0.67892742 0
3.7810001 -1.2535377 0.67844045 0
3.7760003 -1.2578417 0.67803454 0
3.7720003 -1.2624882 0.67770988 0
3.7590003 -1.2638574 0.6766547 0
3.7530003 -1.2677301 0.67616761 0
3.7460003 -1.2712151 0.67559946 0
3.7410002 -1.2754108 0.67519355 0
3.7350004 -1.2792187 0.67470658 0
3.7300003 -1.2833763 0.67430067 0
3.7250001 -1.2875161 0.67389482 0
3.7200003 -1.2916379 0.67348897 0
3.7150002 -1.2957414 0.67308307 0
3.7110002 -1.3002058 0.67275846 0
3.7070003 -1.3046559 0.67243373 0
3.7030003 -1.3090914 0.67210907 0
3.7000003 -1.3138968 0.67186558 0
3.6970003 -1.3186914 0.67162204 0
3.6940002 -1.323475 0.67137849 0
3.6920002 -1.3286375 0.67121613 0
3.6900003 -1.3337928 0.67105383 0
3.6890004 -1.3393341 0.67097265 0
3.9130003 -1.4654384 0.68915504 0
3.9050002 -1.4685282 0.68850565 0
3.8990002 -1.4724046 0.68801862 0
3.8940003 -1.476669 0.68761277 0
3.8890002 -1.480915 0.68720692 0
3.8850002 -1.4855561 0.68688226 0
3.8740003 -1.4872788 0.68598938 0
3.8690002 -1.4914619 0.68558347 0
3.8630002 -1.4952084 0.6850965 0
3.8580003 -1.4993535 0.68469059 0
3.8540003 -1.5039028 0.68436593 0
3.8490002 -1.5080136 0.68396008 0
3.8450003 -1.5125321 0.68363535 0
3.8410003 -1.5170363 0.68331075 0
3.8370004 -1.521526 0.68298602 0
3.8330002 -1.5260011 0.68266129 0
3.8300002 -1.5308949 0.68241781 0
3.8270001 -1.5357777 0.68217432 0
3.8250003 -1.5410864 0.68201196 0
3.8230002 -1.5463878 0.6818496 0
4.0510001 -1.0799555 0.693771 0
4.0430002 -1.0842612 0.69313604 0
4.0350003 -1.0885381 0.69250107 0
4.0290003 -1.0933632 0.69202495 0
4.033 -1.1010709 0.6923424 0
4.0370002 -1.108793 0.69265985 0
4.0410004 -1.1165296 0.69297731 0
4.0450001 -1.1242805 0.69329476 0
4.0490003 -1.1320459 0.69361222 0
4.053 -1.1398257 0.69392973 0
4.0580001 -1.1479212 0.69432652 0
4.0620003 -1.1557317 0.69464403 0
4.066 -1.1635566 0.69496149 0
4.0700002 -1.1713959 0.695279 0
4.0740004 -1.1792498 0.69559646 0
4.079 -1.1874282 0.6959933 0
4.0830002 -1.1953126 0.69631076 0
4.0870004 -1.2032115 0.69662821 0
4.0910001 -1.2111249 0.69694567 0
4.0960002 -1.21937 0.69734251 0
3.9090002 -1.1853213 0.68250078 0
3.9000003 -1.1887126 0.68178654 0
3.8930004 -1.1927279 0.6812309 0
3.8880002 -1.197378 0.68083405 0
3.8830004 -1.2020103 0.68043721 0
3.8800004 -1.2072917 0.68019915 0
3.8770003 -1.2125624 0.67996103 0
3.8740003 -1.2178224 0.67972291 0
