# .PCD v0.7 - Point Cloud Data file format
VERSION 0.7
FIELDS x y z intensity
SIZE 4 4 4 4
TYPE F F F F
COUNT 1 1 1 1
WIDTH 1456
HEIGHT 1
VIEWPOINT 0 0 0 1 0 0 0
POINTS 1456
DATA ascii
2.7980001 -1.2225447 1.4291511 0
2.7960002 -1.2258854 1.4282962 0
2.7950003 -1.2297131 1.4278687 0
2.7940001 -1.2335372 1.4274411 0
2.7930002 -1.2373576 1.4270136 0
2.7920003 -1.2411745 1.4265862 0
2.7900002 -1.2444863 1.4257312 0
2.7890003 -1.2482941 1.4253037 0
2.7880001 -1.2520983 1.4248761 0
2.7870002 -1.255899 1.4244486 0
2.7850003 -1.2591873 1.4235936 0
2.7840002 -1.2629788 1.423166 0
2.7830002 -1.2667669 1.4227387 0
2.7820003 -1.2705513 1.4223112 0
2.7810001 -1.274332 1.4218836 0
2.7790003 -1.2775916 1.4210286 0
2.7780001 -1.2813632 1.420601 0
2.7770002 -1.2851315 1.4201735 0
2.7760003 -1.2888961 1.4197462 0
2.7750001 -1.2926569 1.4193186 0
2.7730002 -1.2958876 1.4184637 0
2.7720003 -1.2996396 1.4180361 0
2.7710001 -1.3033879 1.4176085 0
2.7700002 -1.3071325 1.417181 0
2.7690003 -1.3108736 1.4167536 0
2.7680001 -1.3146111 1.416326 0
2.7660003 -1.3178076 1.4154712 0
2.7650001 -1.3215359 1.4150436 0
2.7640002 -1.3252608 1.414616 0
2.7630002 -1.3289821 1.4141886 0
2.7620003 -1.3326998 1.4137611 0
2.7600002 -1.3358672 1.4129061 0
2.7590003 -1.3395759 1.4124787 0
2.7580001 -1.3432808 1.4120511 0
2.7570002 -1.3469822 1.4116235 0
2.7560003 -1.3506801 1.4111961 0
2.7550001 -1.3543743 1.4107685 0
2.7530003 -1.3575075 1.4099135 0
2.7520001 -1.3611926 1.4094861 0
2.7510002 -1.3648742 1.4090586 0
2.7500002 -1.3685523 1.408631 0
2.7490003 -1.3722266 1.4082036 0
2.7470002 -1.3753308 1.4073485 0
2.7460003 -1.3789963 1.4069211 0
2.8560002 -1.0427845 1.4495162 0
2.8550003 -1.0468069 1.4490905 0
2.8540003 -1.0508258 1.4486648 0
2.8520002 -1.0544298 1.4478134 0
2.8510003 -1.0584397 1.4473877 0
2.8500001 -1.0624459 1.4469619 0
2.8490002 -1.0664487 1.4465363 0
2.8470001 -1.070029 1.4456848 0
2.8460002 -1.0740228 1.4452592 0
2.8450003 -1.0780128 1.4448334 0
2.8440001 -1.0819992 1.4444077 0
2.8420002 -1.0855563 1.4435563 0
2.8410003 -1.0895337 1.4431307 0
2.8400002 -1.0935075 1.442705 0
2.8390002 -1.0974777 1.4422792 0
2.8370001 -1.1010113 1.4414278 0
2.8360002 -1.1049726 1.4410021 0
2.8350003 -1.1089301 1.4405766 0
2.8330002 -1.1124456 1.4397252 0
2.8320003 -1.1163943 1.4392993 0
2.8310003 -1.1203392 1.4388738 0
2.8300002 -1.1242805 1.4384481 0
2.8280003 -1.1277727 1.4375967 0
2.8270001 -1.1317049 1.4371709 0
2.8260002 -1.1356337 1.4367452 0
2.8250003 -1.1395588 1.4363196 0
2.8230002 -1.1430274 1.4354681 0
2.8220003 -1.1469436 1.4350424 0
2.8210001 -1.1508559 1.4346167 0
2.8200002 -1.1547648 1.434191 0
2.8190002 -1.1586701 1.4337653 0
2.8170002 -1.16211 1.4329138 0
2.8160002 -1.1660062 1.4324882 0
2.8150003 -1.1698989 1.4320626 0
2.8140001 -1.1737878 1.4316367 0
2.8120003 -1.1772043 1.4307854 0
2.8110001 -1.1810842 1.4303597 0
2.8100002 -1.1849606 1.429934 0
2.8090003 -1.1888334 1.4295083 0
2.8070002 -1.1922263 1.4286568 0
2.8060002 -1.1960901 1.4282312 0
2.8050003 -1.1999502 1.4278057 0
2.8040001 -1.2038068 1.4273797 0
2.8020003 -1.2071763 1.4265285 0
2.8010001 -1.2110238 1.4261026 0
2.8000002 -1.2148677 1.4256771 0
2.7990003 -1.218708 1.4252514 0
2.7980001 -1.2225447 1.4248255 0
2.7960002 -1.2258854 1.4239743 0
2.7950003 -1.2297131 1.4235486 0
2.7940001 -1.2335372 1.4231228 0
2.7930002 -1.2373576 1.4226972 0
2.7920003 -1.2411745 1.4222715 0
2.7900002 -1.2444863 1.4214201 0
2.7890003 -1.2482941 1.4209943 0
2.7880001 -1.2520983 1.4205686 0
2.7870002 -1.255899 1.420143 0
2.7850003 -1.2591873 1.4192916 0
2.7840002 -1.2629788 1.4188658 0
2.7830002 -1.2667669 1.4184402 0
2.7820003 -1.2705513 1.4180145 0
2.7810001 -1.274332 1.4175887 0
2.7790003 -1.2775916 1.4167373 0
2.7780001 -1.2813632 1.4163116 0
2.7770002 -1.2851315 1.415886 0
2.7760003 -1.2888961 1.4154602 0
2.7750001 -1.2926569 1.4150345 0
2.7730002 -1.2958876 1.4141831 0
2.7720003 -1.2996396 1.4137576 0
2.7710001 -1.3033879 1.4133317 0
2.7700002 -1.3071325 1.4129061 0
2.7690003 -1.3108736 1.4124804 0
2.7680001 -1.3146111 1.4120547 0
2.7660003 -1.3178076 1.4112033 0
2.7650001 -1.3215359 1.4107776 0
2.7640002 -1.3252608 1.4103518 0
2.7630002 -1.3289821 1.4099262 0
2.7620003 -1.3326998 1.4095006 0
2.7600002 -1.3358672 1.4086491 0
2.7590003 -1.3395759 1.4082234 0
2.7580001 -1.3432808 1.4077977 0
2.7570002 -1.3469822 1.407372 0
2.7560003 -1.3506801 1.4069463 0
2.7550001 -1.3543743 1.4065206 0
2.7530003 -1.3575075 1.4056692 0
2.7520001 -1.3611926 1.4052435 0
2.7510002 -1.3648742 1.4048177 0
2.7500002 -1.3685523 1.4043921 0
2.7490003 -1.3722266 1.4039664 0
2.7470002 -1.3753308 1.4031149 0
2.7460003 -1.3789963 1.4026893 0
2.7450001 -1.382658 1.4022635 0
2.8650002 -1.0153124 1.4489011 0
2.8640003 -1.0193638 1.4484771 0
2.8630002 -1.0234114 1.4480532 0
2.8610003 -1.0270571 1.4472054 0
2.8600001 -1.0310956 1.4467816 0
2.8590002 -1.0351307 1.4463577 0
2.8580003 -1.0391624 1.4459338 0
2.8560002 -1.0427845 1.445086 0
2.8550003 -1.0468069 1.4446621 0
2.8540003 -1.0508258 1.4442383 0
2.8520002 -1.0544298 1.4433905 0
2.8510003 -1.0584397 1.4429666 0
2.8500001 -1.0624459 1.4425426 0
2.8490002 -1.0664487 1.4421188 0
2.8470001 -1.070029 1.4412708 0
2.8460002 -1.0740228 1.440847 0
2.8450003 -1.0780128 1.4404231 0
2.8440001 -1.0819992 1.4399992 0
2.8420002 -1.0855563 1.4391515 0
2.8410003 -1.0895337 1.4387276 0
2.8400002 -1.0935075 1.4383037 0
2.8390002 -1.0974777 1.4378798 0
2.8370001 -1.1010113 1.437032 0
2.8360002 -1.1049726 1.4366081 0
2.8350003 -1.1089301 1.4361842 0
2.8330002 -1.1124456 1.4353364 0
2.8320003 -1.1163943 1.4349126 0
2.8310003 -1.1203392 1.4344887 0
2.8300002 -1.1242805 1.4340646 0
2.8280003 -1.1277727 1.433217 0
2.8270001 -1.1317049 1.432793 0
2.8260002 -1.1356337 1.4323692 0
2.8250003 -1.1395588 1.4319453 0
2.8230002 -1.1430274 1.4310975 0
2.8220003 -1.1469436 1.4306736 0
2.8210001 -1.1508559 1.4302496 0
2.8200002 -1.1547648 1.4298258 0
2.8190002 -1.1586701 1.4294019 0
2.8170002 -1.16211 1.4285541 0
2.8160002 -1.1660062 1.4281301 0
2.8150003 -1.1698989 1.4277064 0
2.8140001 -1.1737878 1.4272823 0
2.8120003 -1.1772043 1.4264348 0
2.8110001 -1.1810842 1.4260107 0
2.8100002 -1.1849606 1.4255868 0
2.8090003 -1.1888334 1.425163 0
2.8070002 -1.1922263 1.4243151 0
2.8060002 -1.1960901 1.4238913 0
2.8050003 -1.1999502 1.4234674 0
2.8040001 -1.2038068 1.4230434 0
2.8020003 -1.2071763 1.4221957 0
2.8010001 -1.2110238 1.4217718 0
2.8000002 -1.2148677 1.4213479 0
2.7990003 -1.218708 1.4209239 0
2.7980001 -1.2225447 1.4205002 0
2.7960002 -1.2258854 1.4196523 0
2.7950003 -1.2297131 1.4192286 0
2.7940001 -1.2335372 1.4188045 0
2.7930002 -1.2373576 1.4183806 0
2.7920003 -1.2411745 1.4179568 0
2.7900002 -1.2444863 1.4171089 0
2.7890003 -1.2482941 1.4166851 0
2.7880001 -1.2520983 1.4162611 0
2.7870002 -1.255899 1.4158372 0
2.7850003 -1.2591873 1.4149895 0
2.7840002 -1.2629788 1.4145654 0
2.7830002 -1.2667669 1.4141417 0
2.7820003 -1.2705513 1.4137177 0
2.7810001 -1.274332 1.4132938 0
2.7790003 -1.2775916 1.4124461 0
2.7780001 -1.2813632 1.4120222 0
2.7770002 -1.2851315 1.4115983 0
2.7760003 -1.2888961 1.4111744 0
2.7750001 -1.2926569 1.4107505 0
2.7730002 -1.2958876 1.4099027 0
2.7720003 -1.2996396 1.4094789 0
2.7710001 -1.3033879 1.4090549 0
2.7700002 -1.3071325 1.408631 0
2.7690003 -1.3108736 1.4082072 0
2.7680001 -1.3146111 1.4077832 0
2.7660003 -1.3178076 1.4069356 0
2.7650001 -1.3215359 1.4065115 0
2.7640002 -1.3252608 1.4060876 0
2.7630002 -1.3289821 1.4056638 0
2.7620003 -1.3326998 1.4052399 0
2.7600002 -1.3358672 1.4043921 0
2.7590003 -1.3395759 1.4039682 0
2.7580001 -1.3432808 1.4035442 0
2.7570002 -1.3469822 1.4031204 0
2.7560003 -1.3506801 1.4026965 0
2.7550001 -1.3543743 1.4022725 0
2.7530003 -1.3575075 1.4014248 0
2.7520001 -1.3611926 1.4010009 0
2.7510002 -1.3648742 1.4005771 0
2.7500002 -1.3685523 1.4001532 0
2.7490003 -1.3722266 1.3997293 0
2.7470002 -1.3753308 1.3988814 0
2.7460003 -1.3789963 1.3984576 0
2.7450001 -1.382658 1.3980336 0
2.8650002 -1.0153124 1.4444547 0
2.8640003 -1.0193638 1.4440327 0
2.8630002 -1.0234114 1.4436105 0
2.8610003 -1.0270571 1.4427663 0
2.8600001 -1.0310956 1.4423442 0
2.8590002 -1.0351307 1.4419221 0
2.8580003 -1.0391624 1.4415001 0
2.8560002 -1.0427845 1.4406558 0
2.8550003 -1.0468069 1.4402338 0
2.8540003 -1.0508258 1.4398118 0
2.8520002 -1.0544298 1.4389675 0
2.8510003 -1.0584397 1.4385455 0
2.8500001 -1.0624459 1.4381232 0
2.8490002 -1.0664487 1.4377012 0
2.8470001 -1.070029 1.436857 0
2.8460002 -1.0740228 1.4364349 0
2.8450003 -1.0780128 1.4360129 0
2.8440001 -1.0819992 1.4355907 0
2.8420002 -1.0855563 1.4347466 0
2.8410003 -1.0895337 1.4343245 0
2.8400002 -1.0935075 1.4339024 0
2.8390002 -1.0974777 1.4334803 0
2.8370001 -1.1010113 1.432636 0
2.8360002 -1.1049726 1.432214 0
2.8350003 -1.1089301 1.4317919 0
2.8330002 -1.1124456 1.4309478 0
2.8320003 -1.1163943 1.4305257 0
2.8310003 -1.1203392 1.4301037 0
2.8300002 -1.1242805 1.4296814 0
2.8280003 -1.1277727 1.4288373 0
2.8270001 -1.1317049 1.4284152 0
2.8260002 -1.1356337 1.4279931 0
2.8250003 -1.1395588 1.4275711 0
2.8230002 -1.1430274 1.4267268 0
2.8220003 -1.1469436 1.4263048 0
2.8210001 -1.1508559 1.4258826 0
2.8200002 -1.1547648 1.4254606 0
2.8190002 -1.1586701 1.4250385 0
2.8170002 -1.16211 1.4241942 0
2.8160002 -1.1660062 1.4237722 0
2.8150003 -1.1698989 1.4233501 0
2.8140001 -1.1737878 1.4229281 0
2.8120003 -1.1772043 1.4220839 0
2.8110001 -1.1810842 1.4216617 0
2.8100002 -1.1849606 1.4212396 0
2.8090003 -1.1888334 1.4208176 0
2.8070002 -1.1922263 1.4199734 0
2.8060002 -1.1960901 1.4195513 0
2.8050003 -1.1999502 1.4191291 0
2.8040001 -1.2038068 1.4187071 0
2.8020003 -1.2071763 1.417863 0
2.8010001 -1.2110238 1.4174408 0
2.8000002 -1.2148677 1.4170188 0
2.7990003 -1.218708 1.4165967 0
2.7980001 -1.2225447 1.4161745 0
2.7960002 -1.2258854 1.4153304 0
2.7950003 -1.2297131 1.4149083 0
2.7940001 -1.2335372 1.4144862 0
2.7930002 -1.2373576 1.4140642 0
2.7920003 -1.2411745 1.413642 0
2.7900002 -1.2444863 1.4127978 0
2.7890003 -1.2482941 1.4123758 0
2.7880001 -1.2520983 1.4119536 0
2.7870002 -1.255899 1.4115316 0
2.7850003 -1.2591873 1.4106873 0
2.7840002 -1.2629788 1.4102653 0
2.7830002 -1.2667669 1.4098432 0
2.7820003 -1.2705513 1.4094212 0
2.7810001 -1.274332 1.408999 0
2.7790003 -1.2775916 1.4081548 0
2.7780001 -1.2813632 1.4077327 0
2.7770002 -1.2851315 1.4073106 0
2.7760003 -1.2888961 1.4068885 0
2.7750001 -1.2926569 1.4064664 0
2.7730002 -1.2958876 1.4056224 0
2.7720003 -1.2996396 1.4052002 0
2.7710001 -1.3033879 1.4047781 0
2.7700002 -1.3071325 1.404356 0
2.7690003 -1.3108736 1.403934 0
2.7680001 -1.3146111 1.4035118 0
2.7660003 -1.3178076 1.4026676 0
2.7650001 -1.3215359 1.4022454 0
2.7640002 -1.3252608 1.4018234 0
2.7630002 -1.3289821 1.4014013 0
2.7620003 -1.3326998 1.4009793 0
2.7600002 -1.3358672 1.4001352 0
2.7590003 -1.3395759 1.399713 0
2.7580001 -1.3432808 1.3992909 0
2.7570002 -1.3469822 1.3988688 0
2.7560003 -1.3506801 1.3984467 0
2.7550001 -1.3543743 1.3980246 0
2.7530003 -1.3575075 1.3971804 0
2.7520001 -1.3611926 1.3967583 0
2.7510002 -1.3648742 1.3963363 0
2.7500002 -1.3685523 1.3959142 0
2.7490003 -1.3722266 1.3954922 0
2.7470002 -1.3753308 1.3946478 0
2.7460003 -1.3789963 1.3942258 0
2.7450001 -1.382658 1.3938036 0
2.8650002 -1.0153124 1.4400083 0
2.8640003 -1.0193638 1.4395881 0
2.8630002 -1.0234114 1.4391677 0
2.8610003 -1.0270571 1.4383271 0
2.8600001 -1.0310956 1.4379067 0
2.8590002 -1.0351307 1.4374865 0
2.8580003 -1.0391624 1.4370663 0
2.8560002 -1.0427845 1.4362258 0
2.8550003 -1.0468069 1.4358054 0
2.8540003 -1.0508258 1.4353851 0
2.8520002 -1.0544298 1.4345446 0
2.8510003 -1.0584397 1.4341244 0
2.8500001 -1.0624459 1.433704 0
2.8490002 -1.0664487 1.4332837 0
2.8470001 -1.070029 1.432443 0
2.8460002 -1.0740228 1.4320228 0
2.8450003 -1.0780128 1.4316026 0
2.8440001 -1.0819992 1.4311823 0
2.8420002 -1.0855563 1.4303417 0
2.8410003 -1.0895337 1.4299214 0
2.8400002 -1.0935075 1.4295011 0
2.8390002 -1.0974777 1.4290808 0
2.8370001 -1.1010113 1.4282402 0
2.8360002 -1.1049726 1.42782 0
2.8350003 -1.1089301 1.4273996 0
2.8330002 -1.1124456 1.4265591 0
2.8320003 -1.1163943 1.4261389 0
2.8310003 -1.1203392 1.4257185 0
2.8300002 -1.1242805 1.4252982 0
2.8280003 -1.1277727 1.4244577 0
2.8270001 -1.1317049 1.4240373 0
2.8260002 -1.1356337 1.4236171 0
2.8250003 -1.1395588 1.4231968 0
2.8230002 -1.1430274 1.4223562 0
2.8220003 -1.1469436 1.4219359 0
2.8210001 -1.1508559 1.4215156 0
2.8200002 -1.1547648 1.4210954 0
2.8190002 -1.1586701 1.420675 0
2.8170002 -1.16211 1.4198345 0
2.8160002 -1.1660062 1.4194143 0
2.8150003 -1.1698989 1.4189939 0
2.8140001 -1.1737878 1.4185736 0
2.8120003 -1.1772043 1.4177331 0
2.8110001 -1.1810842 1.4173127 0
2.8100002 -1.1849606 1.4168925 0
2.8090003 -1.1888334 1.4164722 0
2.8070002 -1.1922263 1.4156315 0
2.8060002 -1.1960901 1.4152113 0
2.8050003 -1.1999502 1.4147911 0
2.8040001 -1.2038068 1.4143708 0
2.8020003 -1.2071763 1.4135301 0
2.8010001 -1.2110238 1.4131098 0
2.8000002 -1.2148677 1.4126896 0
2.7990003 -1.218708 1.4122694 0
2.7980001 -1.2225447 1.411849 0
2.7960002 -1.2258854 1.4110085 0
2.7950003 -1.2297131 1.4105881 0
2.7940001 -1.2335372 1.4101678 0
2.7930002 -1.2373576 1.4097476 0
2.7920003 -1.2411745 1.4093274 0
2.7900002 -1.2444863 1.4084867 0
2.7890003 -1.2482941 1.4080664 0
2.7880001 -1.2520983 1.4076461 0
2.7870002 -1.255899 1.4072258 0
2.7850003 -1.2591873 1.4063854 0
2.7840002 -1.2629788 1.405965 0
2.7830002 -1.2667669 1.4055448 0
2.7820003 -1.2705513 1.4051244 0
2.7810001 -1.274332 1.4047041 0
2.7790003 -1.2775916 1.4038637 0
2.7780001 -1.2813632 1.4034432 0
2.7770002 -1.2851315 1.4030229 0
2.7760003 -1.2888961 1.4026027 0
2.7750001 -1.2926569 1.4021823 0
2.7730002 -1.2958876 1.4013419 0
2.7720003 -1.2996396 1.4009216 0
2.7710001 -1.3033879 1.4005011 0
2.7700002 -1.3071325 1.4000809 0
2.7690003 -1.3108736 1.3996607 0
2.7680001 -1.3146111 1.3992404 0
2.7660003 -1.3178076 1.3983998 0
2.7650001 -1.3215359 1.3979795 0
2.7640002 -1.3252608 1.3975592 0
2.7630002 -1.3289821 1.397139 0
2.7620003 -1.3326998 1.3967187 0
2.7600002 -1.3358672 1.3958781 0
2.7590003 -1.3395759 1.3954579 0
2.7580001 -1.3432808 1.3950374 0
2.7570002 -1.3469822 1.3946172 0
2.7560003 -1.3506801 1.394197 0
2.7550001 -1.3543743 1.3937767 0
2.7530003 -1.3575075 1.3929361 0
2.7520001 -1.3611926 1.3925158 0
2.7510002 -1.3648742 1.3920954 0
2.7500002 -1.3685523 1.3916752 0
2.7490003 -1.3722266 1.391255 0
2.7470002 -1.3753308 1.3904144 0
2.7460003 -1.3789963 1.3899941 0
2.7450001 -1.382658 1.3895737 0
2.8650002 -1.0153124 1.4355619 0
2.8640003 -1.0193638 1.4351435 0
2.8630002 -1.0234114 1.4347249 0
2.8610003 -1.0270571 1.433888 0
2.8600001 -1.0310956 1.4334695 0
2.8590002 -1.0351307 1.433051 0
2.8580003 -1.0391624 1.4326326 0
2.8560002 -1.0427845 1.4317955 0
2.8550003 -1.0468069 1.4313772 0
2.8540003 -1.0508258 1.4309586 0
2.8520002 -1.0544298 1.4301215 0
2.8510003 -1.0584397 1.4297032 0
2.8500001 -1.0624459 1.4292847 0
2.8490002 -1.0664487 1.4288661 0
2.8470001 -1.070029 1.4280291 0
2.8460002 -1.0740228 1.4276108 0
2.8450003 -1.0780128 1.4271922 0
2.8440001 -1.0819992 1.4267737 0
2.8420002 -1.0855563 1.4259367 0
2.8410003 -1.0895337 1.4255184 0
2.8400002 -1.0935075 1.4250998 0
2.8390002 -1.0974777 1.4246813 0
2.8370001 -1.1010113 1.4238443 0
2.8360002 -1.1049726 1.4234259 0
2.8350003 -1.1089301 1.4230074 0
2.8330002 -1.1124456 1.4221704 0
2.8320003 -1.1163943 1.421752 0
2.8310003 -1.1203392 1.4213336 0
2.8300002 -1.1242805 1.4209149 0
2.8280003 -1.1277727 1.420078 0
2.8270001 -1.1317049 1.4196595 0
2.8260002 -1.1356337 1.4192411 0
2.8250003 -1.1395588 1.4188225 0
2.8230002 -1.1430274 1.4179857 0
2.8220003 -1.1469436 1.4175671 0
2.8210001 -1.1508559 1.4171486 0
2.8200002 -1.1547648 1.41673 0
2.8190002 -1.1586701 1.4163116 0
2.8170002 -1.16211 1.4154747 0
2.8160002 -1.1660062 1.4150562 0
2.8150003 -1.1698989 1.4146377 0
2.8140001 -1.1737878 1.4142193 0
2.8120003 -1.1772043 1.4133823 0
2.8110001 -1.1810842 1.4129637 0
2.8100002 -1.1849606 1.4125452 0
2.8090003 -1.1888334 1.4121269 0
2.8070002 -1.1922263 1.4112898 0
2.8060002 -1.1960901 1.4108714 0
2.8050003 -1.1999502 1.4104528 0
2.8040001 -1.2038068 1.4100344 0
2.8020003 -1.2071763 1.4091974 0
2.8010001 -1.2110238 1.4087789 0
2.8000002 -1.2148677 1.4083605 0
2.7990003 -1.218708 1.4079421 0
2.7980001 -1.2225447 1.4075234 0
2.7960002 -1.2258854 1.4066865 0
2.7950003 -1.2297131 1.4062681 0
2.7940001 -1.2335372 1.4058496 0
2.7930002 -1.2373576 1.405431 0
2.7920003 -1.2411745 1.4050126 0
2.7900002 -1.2444863 1.4041756 0
2.7890003 -1.2482941 1.4037572 0
2.7880001 -1.2520983 1.4033386 0
2.7870002 -1.255899 1.4029201 0
2.7850003 -1.2591873 1.4020833 0
2.7840002 -1.2629788 1.4016647 0
2.7830002 -1.2667669 1.4012462 0
2.7820003 -1.2705513 1.4008278 0
2.7810001 -1.274332 1.4004092 0
2.7790003 -1.2775916 1.3995723 0
2.7780001 -1.2813632 1.3991537 0
2.7770002 -1.2851315 1.3987354 0
2.7760003 -1.2888961 1.3983169 0
2.7750001 -1.2926569 1.3978983 0
2.7730002 -1.2958876 1.3970613 0
2.7720003 -1.2996396 1.396643 0
2.7710001 -1.3033879 1.3962244 0
2.7700002 -1.3071325 1.395806 0
2.7690003 -1.3108736 1.3953874 0
2.7680001 -1.3146111 1.3949689 0
2.7660003 -1.3178076 1.394132 0
2.7650001 -1.3215359 1.3937135 0
2.7640002 -1.3252608 1.3932949 0
2.7630002 -1.3289821 1.3928766 0
2.7620003 -1.3326998 1.3924582 0
2.7600002 -1.3358672 1.3916211 0
2.7590003 -1.3395759 1.3912026 0
2.7580001 -1.3432808 1.3907841 0
2.7570002 -1.3469822 1.3903657 0
2.7560003 -1.3506801 1.3899472 0
2.7550001 -1.3543743 1.3895286 0
2.7530003 -1.3575075 1.3886918 0
2.7520001 -1.3611926 1.3882732 0
2.7510002 -1.3648742 1.3878547 0
2.7500002 -1.3685523 1.3874363 0
2.7490003 -1.3722266 1.3870178 0
2.7470002 -1.3753308 1.3861808 0
2.7460003 -1.3789963 1.3857623 0
2.7450001 -1.382658 1.3853438 0
2.8650002 -1.0153124 1.4311155 0
2.8640003 -1.0193638 1.4306989 0
2.8630002 -1.0234114 1.4302821 0
2.8610003 -1.0270571 1.4294488 0
2.8600001 -1.0310956 1.4290321 0
2.8590002 -1.0351307 1.4286155 0
2.8580003 -1.0391624 1.4281988 0
2.8560002 -1.0427845 1.4273653 0
2.8550003 -1.0468069 1.4269488 0
2.8540003 -1.0508258 1.4265321 0
2.8520002 -1.0544298 1.4256988 0
2.8510003 -1.0584397 1.425282 0
2.8500001 -1.0624459 1.4248652 0
2.8490002 -1.0664487 1.4244487 0
2.8470001 -1.070029 1.4236152 0
2.8460002 -1.0740228 1.4231986 0
2.8450003 -1.0780128 1.4227819 0
2.8440001 -1.0819992 1.4223652 0
2.8420002 -1.0855563 1.4215319 0
2.8410003 -1.0895337 1.4211152 0
2.8400002 -1.0935075 1.4206985 0
2.8390002 -1.0974777 1.4202819 0
2.8370001 -1.1010113 1.4194485 0
2.8360002 -1.1049726 1.4190317 0
2.8350003 -1.1089301 1.4186151 0
2.8330002 -1.1124456 1.4177817 0
2.8320003 -1.1163943 1.4173651 0
2.8310003 -1.1203392 1.4169484 0
2.8300002 -1.1242805 1.4165317 0
2.8280003 -1.1277727 1.4156984 0
2.8270001 -1.1317049 1.4152817 0
2.8260002 -1.1356337 1.414865 0
2.8250003 -1.1395588 1.4144484 0
2.8230002 -1.1430274 1.413615 0
2.8220003 -1.1469436 1.4131984 0
2.8210001 -1.1508559 1.4127815 0
2.8200002 -1.1547648 1.412365 0
2.8190002 -1.1586701 1.4119483 0
2.8170002 -1.16211 1.4111149 0
2.8160002 -1.1660062 1.4106982 0
2.8150003 -1.1698989 1.4102815 0
2.8140001 -1.1737878 1.4098649 0
2.8120003 -1.1772043 1.4090315 0
2.8110001 -1.1810842 1.4086148 0
2.8100002 -1.1849606 1.4081981 0
2.8090003 -1.1888334 1.4077815 0
2.8070002 -1.1922263 1.4069481 0
2.8060002 -1.1960901 1.4065313 0
2.8050003 -1.1999502 1.4061148 0
2.8040001 -1.2038068 1.4056981 0
2.8020003 -1.2071763 1.4048648 0
2.8010001 -1.2110238 1.4044479 0
2.8000002 -1.2148677 1.4040313 0
2.7990003 -1.218708 1.4036146 0
2.7980001 -1.2225447 1.4031979 0
2.7960002 -1.2258854 1.4023646 0
2.7950003 -1.2297131 1.401948 0
2.7940001 -1.2335372 1.4015312 0
2.7930002 -1.2373576 1.4011146 0
2.7920003 -1.2411745 1.4006979 0
2.7900002 -1.2444863 1.3998646 0
2.7890003 -1.2482941 1.3994479 0
2.7880001 -1.2520983 1.399031 0
2.7870002 -1.255899 1.3986145 0
2.7850003 -1.2591873 1.3977811 0
2.7840002 -1.2629788 1.3973645 0
2.7830002 -1.2667669 1.3969477 0
2.7820003 -1.2705513 1.3965311 0
2.7810001 -1.274332 1.3961143 0
2.7790003 -1.2775916 1.3952811 0
2.7780001 -1.2813632 1.3948643 0
2.7770002 -1.2851315 1.3944477 0
2.7760003 -1.2888961 1.3940309 0
2.7750001 -1.2926569 1.3936143 0
2.7730002 -1.2958876 1.3927809 0
2.7720003 -1.2996396 1.3923644 0
2.7710001 -1.3033879 1.3919475 0
2.7700002 -1.3071325 1.3915309 0
2.7690003 -1.3108736 1.3911144 0
2.7680001 -1.3146111 1.3906975 0
2.7660003 -1.3178076 1.3898642 0
2.7650001 -1.3215359 1.3894475 0
2.7640002 -1.3252608 1.3890308 0
2.7630002 -1.3289821 1.3886142 0
2.7620003 -1.3326998 1.3881975 0
2.7600002 -1.3358672 1.3873641 0
2.7590003 -1.3395759 1.3869475 0
2.7580001 -1.3432808 1.3865308 0
2.7570002 -1.3469822 1.3861141 0
2.7560003 -1.3506801 1.3856974 0
2.7550001 -1.3543743 1.3852807 0
2.7530003 -1.3575075 1.3844473 0
2.7520001 -1.3611926 1.3840307 0
2.7510002 -1.3648742 1.3836139 0
2.7500002 -1.3685523 1.3831973 0
2.7490003 -1.3722266 1.3827807 0
2.7470002 -1.3753308 1.3819473 0
2.7460003 -1.3789963 1.3815306 0
2.7450001 -1.382658 1.3811139 0
2.8650002 -1.0153124 1.4266691 0
2.8640003 -1.0193638 1.4262543 0
2.8630002 -1.0234114 1.4258393 0
2.8610003 -1.0270571 1.4250096 0
2.8600001 -1.0310956 1.4245946 0
2.8590002 -1.0351307 1.4241798 0
2.8580003 -1.0391624 1.4237649 0
2.8560002 -1.0427845 1.4229352 0
2.8550003 -1.0468069 1.4225204 0
2.8540003 -1.0508258 1.4221056 0
2.8520002 -1.0544298 1.4212757 0
2.8510003 -1.0584397 1.4208609 0
2.8500001 -1.0624459 1.4204459 0
2.8490002 -1.0664487 1.4200311 0
2.8470001 -1.070029 1.4192013 0
2.8460002 -1.0740228 1.4187864 0
2.8450003 -1.0780128 1.4183717 0
2.8440001 -1.0819992 1.4179567 0
2.8420002 -1.0855563 1.417127 0
2.8410003 -1.0895337 1.4167122 0
2.8400002 -1.0935075 1.4162972 0
2.8390002 -1.0974777 1.4158823 0
2.8370001 -1.1010113 1.4150525 0
2.8360002 -1.1049726 1.4146377 0
2.8350003 -1.1089301 1.4142228 0
2.8330002 -1.1124456 1.4133931 0
2.8320003 -1.1163943 1.4129783 0
2.8310003 -1.1203392 1.4125634 0
2.8300002 -1.1242805 1.4121485 0
2.8280003 -1.1277727 1.4113188 0
2.8270001 -1.1317049 1.4109038 0
2.8260002 -1.1356337 1.410489 0
2.8250003 -1.1395588 1.4100741 0
2.8230002 -1.1430274 1.4092443 0
2.8220003 -1.1469436 1.4088296 0
2.8210001 -1.1508559 1.4084146 0
2.8200002 -1.1547648 1.4079998 0
2.8190002 -1.1586701 1.4075849 0
2.8170002 -1.16211 1.4067551 0
2.8160002 -1.1660062 1.4063402 0
2.8150003 -1.1698989 1.4059254 0
2.8140001 -1.1737878 1.4055104 0
2.8120003 -1.1772043 1.4046807 0
2.8110001 -1.1810842 1.4042659 0
2.8100002 -1.1849606 1.4038509 0
2.8090003 -1.1888334 1.4034361 0
2.8070002 -1.1922263 1.4026062 0
2.8060002 -1.1960901 1.4021914 0
2.8050003 -1.1999502 1.4017766 0
2.8040001 -1.2038068 1.4013616 0
2.8020003 -1.2071763 1.4005319 0
2.8010001 -1.2110238 1.4001169 0
2.8000002 -1.2148677 1.3997021 0
2.7990003 -1.218708 1.3992872 0
2.7980001 -1.2225447 1.3988724 0
2.7960002 -1.2258854 1.3980427 0
2.7950003 -1.2297131 1.3976278 0
2.7940001 -1.2335372 1.3972129 0
2.7930002 -1.2373576 1.396798 0
2.7920003 -1.2411745 1.3963832 0
2.7900002 -1.2444863 1.3955534 0
2.7890003 -1.2482941 1.3951385 0
2.7880001 -1.2520983 1.3947235 0
2.7870002 -1.255899 1.3943087 0
2.7850003 -1.2591873 1.3934791 0
2.7840002 -1.2629788 1.3930641 0
2.7830002 -1.2667669 1.3926493 0
2.7820003 -1.2705513 1.3922344 0
2.7810001 -1.274332 1.3918195 0
2.7790003 -1.2775916 1.3909898 0
2.7780001 -1.2813632 1.3905748 0
2.7770002 -1.2851315 1.39016 0
2.7760003 -1.2888961 1.3897451 0
2.7750001 -1.2926569 1.3893303 0
2.7730002 -1.2958876 1.3885006 0
2.7720003 -1.2996396 1.3880857 0
2.7710001 -1.3033879 1.3876708 0
2.7700002 -1.3071325 1.3872559 0
2.7690003 -1.3108736 1.3868411 0
2.7680001 -1.3146111 1.3864261 0
2.7660003 -1.3178076 1.3855964 0
2.7650001 -1.3215359 1.3851814 0
2.7640002 -1.3252608 1.3847666 0
2.7630002 -1.3289821 1.3843518 0
2.7620003 -1.3326998 1.383937 0
2.7600002 -1.3358672 1.3831072 0
2.7590003 -1.3395759 1.3826923 0
2.7580001 -1.3432808 1.3822774 0
2.7570002 -1.3469822 1.3818625 0
2.7560003 -1.3506801 1.3814477 0
2.7550001 -1.3543743 1.3810327 0
2.7530003 -1.3575075 1.380203 0
2.7520001 -1.3611926 1.3797882 0
2.7510002 -1.3648742 1.3793733 0
2.7500002 -1.3685523 1.3789585 0
2.7490003 -1.3722266 1.3785435 0
2.7470002 -1.3753308 1.3777138 0
2.7460003 -1.3789963 1.3772988 0
2.7450001 -1.382658 1.376884 0
2.8650002 -1.0153124 1.4222227 0
2.8640003 -1.0193638 1.4218097 0
2.8630002 -1.0234114 1.4213966 0
2.8610003 -1.0270571 1.4205705 0
2.8600001 -1.0310956 1.4201574 0
2.8590002 -1.0351307 1.4197443 0
2.8580003 -1.0391624 1.4193312 0
2.8560002 -1.0427845 1.4185051 0
2.8550003 -1.0468069 1.418092 0
2.8540003 -1.0508258 1.417679 0
2.8520002 -1.0544298 1.4168528 0
2.8510003 -1.0584397 1.4164398 0
2.8500001 -1.0624459 1.4160266 0
2.8490002 -1.0664487 1.4156137 0
2.8470001 -1.070029 1.4147873 0
2.8460002 -1.0740228 1.4143744 0
2.8450003 -1.0780128 1.4139613 0
2.8440001 -1.0819992 1.4135482 0
2.8420002 -1.0855563 1.4127221 0
2.8410003 -1.0895337 1.4123091 0
2.8400002 -1.0935075 1.4118959 0
2.8390002 -1.0974777 1.4114828 0
2.8370001 -1.1010113 1.4106567 0
2.8360002 -1.1049726 1.4102437 0
2.8350003 -1.1089301 1.4098306 0
2.8330002 -1.1124456 1.4090044 0
2.8320003 -1.1163943 1.4085914 0
2.8310003 -1.1203392 1.4081783 0
2.8300002 -1.1242805 1.4077653 0
2.8280003 -1.1277727 1.406939 0
2.8270001 -1.1317049 1.406526 0
2.8260002 -1.1356337 1.4061129 0
2.8250003 -1.1395588 1.4057 0
2.8230002 -1.1430274 1.4048736 0
2.8220003 -1.1469436 1.4044607 0
2.8210001 -1.1508559 1.4040475 0
2.8200002 -1.1547648 1.4036344 0
2.8190002 -1.1586701 1.4032215 0
2.8170002 -1.16211 1.4023952 0
2.8160002 -1.1660062 1.4019822 0
2.8150003 -1.1698989 1.4015691 0
2.8140001 -1.1737878 1.4011561 0
2.8120003 -1.1772043 1.4003298 0
2.8110001 -1.1810842 1.3999168 0
2.8100002 -1.1849606 1.3995037 0
2.8090003 -1.1888334 1.3990906 0
2.8070002 -1.1922263 1.3982645 0
2.8060002 -1.1960901 1.3978515 0
2.8050003 -1.1999502 1.3974384 0
2.8040001 -1.2038068 1.3970252 0
2.8020003 -1.2071763 1.3961992 0
2.8010001 -1.2110238 1.395786 0
2.8000002 -1.2148677 1.395373 0
2.7990003 -1.218708 1.3949599 0
2.7980001 -1.2225447 1.3945469 0
2.7960002 -1.2258854 1.3937207 0
2.7950003 -1.2297131 1.3933078 0
2.7940001 -1.2335372 1.3928945 0
2.7930002 -1.2373576 1.3924814 0
2.7920003 -1.2411745 1.3920685 0
2.7900002 -1.2444863 1.3912423 0
2.7890003 -1.2482941 1.3908293 0
2.7880001 -1.2520983 1.3904161 0
2.7870002 -1.255899 1.3900031 0
2.7850003 -1.2591873 1.389177 0
2.7840002 -1.2629788 1.3887639 0
2.7830002 -1.2667669 1.3883508 0
2.7820003 -1.2705513 1.3879377 0
2.7810001 -1.274332 1.3875246 0
2.7790003 -1.2775916 1.3866985 0
2.7780001 -1.2813632 1.3862854 0
2.7770002 -1.2851315 1.3858724 0
2.7760003 -1.2888961 1.3854593 0
2.7750001 -1.2926569 1.3850461 0
2.7730002 -1.2958876 1.3842201 0
2.7720003 -1.2996396 1.3838071 0
2.7710001 -1.3033879 1.3833939 0
2.7700002 -1.3071325 1.3829809 0
2.7690003 -1.3108736 1.3825678 0
2.7680001 -1.3146111 1.3821547 0
2.7660003 -1.3178076 1.3813286 0
2.7650001 -1.3215359 1.3809155 0
2.7640002 -1.3252608 1.3805025 0
2.7630002 -1.3289821 1.3800893 0
2.7620003 -1.3326998 1.3796763 0
2.7600002 -1.3358672 1.3788501 0
2.7590003 -1.3395759 1.3784372 0
2.7580001 -1.3432808 1.378024 0
2.7570002 -1.3469822 1.3776109 0
2.7560003 -1.3506801 1.3771979 0
2.7550001 -1.3543743 1.3767847 0
2.7530003 -1.3575075 1.3759587 0
2.7520001 -1.3611926 1.3755455 0
2.7510002 -1.3648742 1.3751324 0
2.7500002 -1.3685523 1.3747194 0
2.7490003 -1.3722266 1.3743063 0
2.7470002 -1.3753308 1.3734802 0
2.7460003 -1.3789963 1.3730673 0
2.7450001 -1.382658 1.372654 0
2.8650002 -1.0153124 1.4177763 0
2.8640003 -1.0193638 1.4173651 0
2.8630002 -1.0234114 1.4169538 0
2.8610003 -1.0270571 1.4161313 0
2.8600001 -1.0310956 1.41572 0
2.8590002 -1.0351307 1.4153087 0
2.8580003 -1.0391624 1.4148976 0
2.8560002 -1.0427845 1.4140749 0
2.8550003 -1.0468069 1.4136637 0
2.8540003 -1.0508258 1.4132524 0
2.8520002 -1.0544298 1.4124298 0
2.8510003 -1.0584397 1.4120187 0
2.8500001 -1.0624459 1.4116074 0
2.8490002 -1.0664487 1.411196 0
2.8470001 -1.070029 1.4103734 0
2.8460002 -1.0740228 1.4099623 0
2.8450003 -1.0780128 1.409551 0
2.8440001 -1.0819992 1.4091396 0
2.8420002 -1.0855563 1.4083172 0
2.8410003 -1.0895337 1.4079059 0
2.8400002 -1.0935075 1.4074947 0
2.8390002 -1.0974777 1.4070834 0
2.8370001 -1.1010113 1.4062607 0
2.8360002 -1.1049726 1.4058496 0
2.8350003 -1.1089301 1.4054383 0
2.8330002 -1.1124456 1.4046158 0
2.8320003 -1.1163943 1.4042045 0
2.8310003 -1.1203392 1.4037932 0
2.8300002 -1.1242805 1.4033819 0
2.8280003 -1.1277727 1.4025594 0
2.8270001 -1.1317049 1.4021481 0
2.8260002 -1.1356337 1.4017369 0
2.8250003 -1.1395588 1.4013256 0
2.8230002 -1.1430274 1.400503 0
2.8220003 -1.1469436 1.4000919 0
2.8210001 -1.1508559 1.3996804 0
2.8200002 -1.1547648 1.3992692 0
2.8190002 -1.1586701 1.398858 0
2.8170002 -1.16211 1.3980354 0
2.8160002 -1.1660062 1.3976241 0
2.8150003 -1.1698989 1.397213 0
2.8140001 -1.1737878 1.3968016 0
2.8120003 -1.1772043 1.3959792 0
2.8110001 -1.1810842 1.3955678 0
2.8100002 -1.1849606 1.3951566 0
2.8090003 -1.1888334 1.3947452 0
2.8070002 -1.1922263 1.3939228 0
2.8060002 -1.1960901 1.3935115 0
2.8050003 -1.1999502 1.3931003 0
2.8040001 -1.2038068 1.3926889 0
2.8020003 -1.2071763 1.3918664 0
2.8010001 -1.2110238 1.3914551 0
2.8000002 -1.2148677 1.3910439 0
2.7990003 -1.218708 1.3906326 0
2.7980001 -1.2225447 1.3902214 0
2.7960002 -1.2258854 1.3893988 0
2.7950003 -1.2297131 1.3889875 0
2.7940001 -1.2335372 1.3885763 0
2.7930002 -1.2373576 1.388165 0
2.7920003 -1.2411745 1.3877537 0
2.7900002 -1.2444863 1.3869312 0
2.7890003 -1.2482941 1.3865199 0
2.7880001 -1.2520983 1.3861086 0
2.7870002 -1.255899 1.3856974 0
2.7850003 -1.2591873 1.3848748 0
2.7840002 -1.2629788 1.3844635 0
2.7830002 -1.2667669 1.3840523 0
2.7820003 -1.2705513 1.3836411 0
2.7810001 -1.274332 1.3832297 0
2.7790003 -1.2775916 1.3824073 0
2.7780001 -1.2813632 1.3819959 0
2.7770002 -1.2851315 1.3815846 0
2.7760003 -1.2888961 1.3811735 0
2.7750001 -1.2926569 1.3807621 0
2.7730002 -1.2958876 1.3799396 0
2.7720003 -1.2996396 1.3795284 0
2.7710001 -1.3033879 1.3791171 0
2.7700002 -1.3071325 1.3787059 0
2.7690003 -1.3108736 1.3782946 0
2.7680001 -1.3146111 1.3778832 0
2.7660003 -1.3178076 1.3770608 0
2.7650001 -1.3215359 1.3766495 0
2.7640002 -1.3252608 1.3762382 0
2.7630002 -1.3289821 1.375827 0
2.7620003 -1.3326998 1.3754158 0
2.7600002 -1.3358672 1.3745931 0
2.7590003 -1.3395759 1.3741819 0
2.7580001 -1.3432808 1.3737706 0
2.7570002 -1.3469822 1.3733593 0
2.7560003 -1.3506801 1.3729481 0
2.7550001 -1.3543743 1.3725368 0
2.7530003 -1.3575075 1.3717142 0
2.7520001 -1.3611926 1.371303 0
2.7510002 -1.3648742 1.3708917 0
2.7500002 -1.3685523 1.3704805 0
2.7490003 -1.3722266 1.3700691 0
2.7470002 -1.3753308 1.3692467 0
2.7460003 -1.3789963 1.3688354 0
2.7450001 -1.382658 1.3684242 0
2.8650002 -1.0153124 1.41333 0
2.8640003 -1.0193638 1.4129206 0
2.8630002 -1.0234114 1.412511 0
2.8610003 -1.0270571 1.4116921 0
2.8600001 -1.0310956 1.4112825 0
2.8590002 -1.0351307 1.4108732 0
2.8580003 -1.0391624 1.4104638 0
2.8560002 -1.0427845 1.4096447 0
2.8550003 -1.0468069 1.4092354 0
2.8540003 -1.0508258 1.4088259 0
2.8520002 -1.0544298 1.4080069 0
2.8510003 -1.0584397 1.4075975 0
2.8500001 -1.0624459 1.4071879 0
2.8490002 -1.0664487 1.4067786 0
2.8470001 -1.070029 1.4059595 0
2.8460002 -1.0740228 1.4055501 0
2.8450003 -1.0780128 1.4051406 0
2.8440001 -1.0819992 1.4047312 0
2.8420002 -1.0855563 1.4039123 0
2.8410003 -1.0895337 1.4035028 0
2.8400002 -1.0935075 1.4030933 0
2.8390002 -1.0974777 1.4026839 0
2.8370001 -1.1010113 1.4018649 0
2.8360002 -1.1049726 1.4014555 0
2.8350003 -1.1089301 1.401046 0
2.8330002 -1.1124456 1.4002271 0
2.8320003 -1.1163943 1.3998176 0
2.8310003 -1.1203392 1.3994081 0
2.8300002 -1.1242805 1.3989986 0
2.8280003 -1.1277727 1.3981798 0
2.8270001 -1.1317049 1.3977703 0
2.8260002 -1.1356337 1.3973608 0
2.8250003 -1.1395588 1.3969513 0
2.8230002 -1.1430274 1.3961323 0
2.8220003 -1.1469436 1.395723 0
2.8210001 -1.1508559 1.3953135 0
2.8200002 -1.1547648 1.394904 0
2.8190002 -1.1586701 1.3944945 0
2.8170002 -1.16211 1.3936756 0
2.8160002 -1.1660062 1.3932661 0
2.8150003 -1.1698989 1.3928567 0
2.8140001 -1.1737878 1.3924472 0
2.8120003 -1.1772043 1.3916284 0
2.8110001 -1.1810842 1.3912188 0
2.8100002 -1.1849606 1.3908093 0
2.8090003 -1.1888334 1.3903999 0
2.8070002 -1.1922263 1.389581 0
2.8060002 -1.1960901 1.3891716 0
2.8050003 -1.1999502 1.3887621 0
2.8040001 -1.2038068 1.3883525 0
2.8020003 -1.2071763 1.3875337 0
2.8010001 -1.2110238 1.3871241 0
2.8000002 -1.2148677 1.3867148 0
2.7990003 -1.218708 1.3863053 0
2.7980001 -1.2225447 1.3858957 0
2.7960002 -1.2258854 1.3850769 0
2.7950003 -1.2297131 1.3846674 0
2.7940001 -1.2335372 1.3842579 0
2.7930002 -1.2373576 1.3838484 0
2.7920003 -1.2411745 1.3834391 0
2.7900002 -1.2444863 1.3826201 0
2.7890003 -1.2482941 1.3822106 0
2.7880001 -1.2520983 1.3818011 0
2.7870002 -1.255899 1.3813916 0
2.7850003 -1.2591873 1.3805729 0
2.7840002 -1.2629788 1.3801633 0
2.7830002 -1.2667669 1.3797538 0
2.7820003 -1.2705513 1.3793445 0
2.7810001 -1.274332 1.3789349 0
2.7790003 -1.2775916 1.378116 0
2.7780001 -1.2813632 1.3777065 0
2.7770002 -1.2851315 1.377297 0
2.7760003 -1.2888961 1.3768877 0
2.7750001 -1.2926569 1.3764781 0
2.7730002 -1.2958876 1.3756592 0
2.7720003 -1.2996396 1.3752497 0
2.7710001 -1.3033879 1.3748403 0
2.7700002 -1.3071325 1.3744309 0
2.7690003 -1.3108736 1.3740214 0
2.7680001 -1.3146111 1.3736118 0
2.7660003 -1.3178076 1.372793 0
2.7650001 -1.3215359 1.3723834 0
2.7640002 -1.3252608 1.371974 0
2.7630002 -1.3289821 1.3715646 0
2.7620003 -1.3326998 1.3711551 0
2.7600002 -1.3358672 1.3703362 0
2.7590003 -1.3395759 1.3699267 0
2.7580001 -1.3432808 1.3695172 0
2.7570002 -1.3469822 1.3691077 0
2.7560003 -1.3506801 1.3686982 0
2.7550001 -1.3543743 1.3682889 0
2.7530003 -1.3575075 1.3674699 0
2.7520001 -1.3611926 1.3670604 0
2.7510002 -1.3648742 1.3666509 0
2.7500002 -1.3685523 1.3662415 0
2.7490003 -1.3722266 1.3658321 0
2.7470002 -1.3753308 1.3650131 0
2.7460003 -1.3789963 1.3646038 0
2.7450001 -1.382658 1.3641942 0
2.8650002 -1.0153124 1.4088836 0
2.8640003 -1.0193638 1.408476 0
2.8630002 -1.0234114 1.4080682 0
2.8610003 -1.0270571 1.4072529 0
2.8600001 -1.0310956 1.4068452 0
2.8590002 -1.0351307 1.4064376 0
2.8580003 -1.0391624 1.4060301 0
2.8560002 -1.0427845 1.4052147 0
2.8550003 -1.0468069 1.404807 0
2.8540003 -1.0508258 1.4043994 0
2.8520002 -1.0544298 1.403584 0
2.8510003 -1.0584397 1.4031763 0
2.8500001 -1.0624459 1.4027686 0
2.8490002 -1.0664487 1.4023609 0
2.8470001 -1.070029 1.4015456 0
2.8460002 -1.0740228 1.4011379 0
2.8450003 -1.0780128 1.4007304 0
2.8440001 -1.0819992 1.4003226 0
2.8420002 -1.0855563 1.3995074 0
2.8410003 -1.0895337 1.3990998 0
2.8400002 -1.0935075 1.398692 0
2.8390002 -1.0974777 1.3982844 0
2.8370001 -1.1010113 1.397469 0
2.8360002 -1.1049726 1.3970613 0
2.8350003 -1.1089301 1.3966538 0
2.8330002 -1.1124456 1.3958384 0
2.8320003 -1.1163943 1.3954307 0
2.8310003 -1.1203392 1.3950231 0
2.8300002 -1.1242805 1.3946154 0
2.8280003 -1.1277727 1.3938001 0
2.8270001 -1.1317049 1.3933924 0
2.8260002 -1.1356337 1.3929847 0
2.8250003 -1.1395588 1.3925772 0
2.8230002 -1.1430274 1.3917618 0
2.8220003 -1.1469436 1.3913541 0
2.8210001 -1.1508559 1.3909464 0
2.8200002 -1.1547648 1.3905388 0
2.8190002 -1.1586701 1.3901311 0
2.8170002 -1.16211 1.3893158 0
2.8160002 -1.1660062 1.3889083 0
2.8150003 -1.1698989 1.3885006 0
2.8140001 -1.1737878 1.3880929 0
2.8120003 -1.1772043 1.3872776 0
2.8110001 -1.1810842 1.3868698 0
2.8100002 -1.1849606 1.3864622 0
2.8090003 -1.1888334 1.3860545 0
2.8070002 -1.1922263 1.3852391 0
2.8060002 -1.1960901 1.3848315 0
2.8050003 -1.1999502 1.3844239 0
2.8040001 -1.2038068 1.3840163 0
2.8020003 -1.2071763 1.383201 0
2.8010001 -1.2110238 1.3827932 0
2.8000002 -1.2148677 1.3823856 0
2.7990003 -1.218708 1.3819779 0
2.7980001 -1.2225447 1.3815702 0
2.7960002 -1.2258854 1.3807549 0
2.7950003 -1.2297131 1.3803473 0
2.7940001 -1.2335372 1.3799396 0
2.7930002 -1.2373576 1.379532 0
2.7920003 -1.2411745 1.3791243 0
2.7900002 -1.2444863 1.378309 0
2.7890003 -1.2482941 1.3779014 0
2.7880001 -1.2520983 1.3774936 0
2.7870002 -1.255899 1.377086 0
2.7850003 -1.2591873 1.3762708 0
2.7840002 -1.2629788 1.375863 0
2.7830002 -1.2667669 1.3754554 0
2.7820003 -1.2705513 1.3750477 0
2.7810001 -1.274332 1.37464 0
2.7790003 -1.2775916 1.3738247 0
2.7780001 -1.2813632 1.373417 0
2.7770002 -1.2851315 1.3730094 0
2.7760003 -1.2888961 1.3726017 0
2.7750001 -1.2926569 1.3721941 0
2.7730002 -1.2958876 1.3713788 0
2.7720003 -1.2996396 1.3709711 0
2.7710001 -1.3033879 1.3705634 0
2.7700002 -1.3071325 1.3701558 0
2.7690003 -1.3108736 1.3697481 0
2.7680001 -1.3146111 1.3693404 0
2.7660003 -1.3178076 1.3685253 0
2.7650001 -1.3215359 1.3681175 0
2.7640002 -1.3252608 1.3677099 0
2.7630002 -1.3289821 1.3673022 0
2.7620003 -1.3326998 1.3668946 0
2.7600002 -1.3358672 1.3660792 0
2.7590003 -1.3395759 1.3656715 0
2.7580001 -1.3432808 1.3652638 0
2.7570002 -1.3469822 1.3648561 0
2.7560003 -1.3506801 1.3644485 0
2.7550001 -1.3543743 1.3640407 0
2.7530003 -1.3575075 1.3632256 0
2.7520001 -1.3611926 1.3628179 0
2.7510002 -1.3648742 1.3624102 0
2.7500002 -1.3685523 1.3620026 0
2.7490003 -1.3722266 1.3615949 0
2.7470002 -1.3753308 1.3607795 0
2.7460003 -1.3789963 1.3603719 0
2.7450001 -1.382658 1.3599643 0
2.8650002 -1.0153124 1.4044373 0
2.8640003 -1.0193638 1.4040313 0
2.8630002 -1.0234114 1.4036254 0
2.8610003 -1.0270571 1.4028138 0
2.8600001 -1.0310956 1.4024078 0
2.8590002 -1.0351307 1.402002 0
2.8580003 -1.0391624 1.4015962 0
2.8560002 -1.0427845 1.4007845 0
2.8550003 -1.0468069 1.4003787 0
2.8540003 -1.0508258 1.3999727 0
2.8520002 -1.0544298 1.399161 0
2.8510003 -1.0584397 1.3987552 0
2.8500001 -1.0624459 1.3983493 0
2.8490002 -1.0664487 1.3979435 0
2.8470001 -1.070029 1.3971317 0
2.8460002 -1.0740228 1.3967259 0
2.8450003 -1.0780128 1.3963201 0
2.8440001 -1.0819992 1.3959142 0
2.8420002 -1.0855563 1.3951024 0
2.8410003 -1.0895337 1.3946966 0
2.8400002 -1.0935075 1.3942907 0
2.8390002 -1.0974777 1.3938849 0
2.8370001 -1.1010113 1.3930731 0
2.8360002 -1.1049726 1.3926673 0
2.8350003 -1.1089301 1.3922615 0
2.8330002 -1.1124456 1.3914498 0
2.8320003 -1.1163943 1.3910439 0
2.8310003 -1.1203392 1.390638 0
2.8300002 -1.1242805 1.3902321 0
2.8280003 -1.1277727 1.3894205 0
2.8270001 -1.1317049 1.3890146 0
2.8260002 -1.1356337 1.3886088 0
2.8250003 -1.1395588 1.3882029 0
2.8230002 -1.1430274 1.3873912 0
2.8220003 -1.1469436 1.3869853 0
2.8210001 -1.1508559 1.3865794 0
2.8200002 -1.1547648 1.3861736 0
2.8190002 -1.1586701 1.3857677 0
2.8170002 -1.16211 1.384956 0
2.8160002 -1.1660062 1.3845502 0
2.8150003 -1.1698989 1.3841444 0
2.8140001 -1.1737878 1.3837384 0
2.8120003 -1.1772043 1.3829267 0
2.8110001 -1.1810842 1.3825208 0
2.8100002 -1.1849606 1.382115 0
2.8090003 -1.1888334 1.3817092 0
2.8070002 -1.1922263 1.3808974 0
2.8060002 -1.1960901 1.3804916 0
2.8050003 -1.1999502 1.3800858 0
2.8040001 -1.2038068 1.3796799 0
2.8020003 -1.2071763 1.3788681 0
2.8010001 -1.2110238 1.3784622 0
2.8000002 -1.2148677 1.3780564 0
2.7990003 -1.218708 1.3776506 0
2.7980001 -1.2225447 1.3772447 0
2.7960002 -1.2258854 1.376433 0
2.7950003 -1.2297131 1.3760272 0
2.7940001 -1.2335372 1.3756213 0
2.7930002 -1.2373576 1.3752155 0
2.7920003 -1.2411745 1.3748097 0
2.7900002 -1.2444863 1.3739978 0
2.7890003 -1.2482941 1.373592 0
2.7880001 -1.2520983 1.3731861 0
2.7870002 -1.255899 1.3727803 0
2.7850003 -1.2591873 1.3719686 0
2.7840002 -1.2629788 1.3715627 0
2.7830002 -1.2667669 1.3711569 0
2.7820003 -1.2705513 1.3707511 0
2.7810001 -1.274332 1.3703452 0
2.7790003 -1.2775916 1.3695334 0
2.7780001 -1.2813632 1.3691275 0
2.7770002 -1.2851315 1.3687217 0
2.7760003 -1.2888961 1.3683159 0
2.7750001 -1.2926569 1.36791 0
2.7730002 -1.2958876 1.3670983 0
2.7720003 -1.2996396 1.3666925 0
2.7710001 -1.3033879 1.3662866 0
2.7700002 -1.3071325 1.3658807 0
2.7690003 -1.3108736 1.3654749 0
2.7680001 -1.3146111 1.365069 0
2.7660003 -1.3178076 1.3642573 0
2.7650001 -1.3215359 1.3638514 0
2.7640002 -1.3252608 1.3634456 0
2.7630002 -1.3289821 1.3630399 0
2.7620003 -1.3326998 1.3626339 0
2.7600002 -1.3358672 1.3618221 0
2.7590003 -1.3395759 1.3614163 0
2.7580001 -1.3432808 1.3610104 0
2.7570002 -1.3469822 1.3606046 0
2.7560003 -1.3506801 1.3601987 0
2.7550001 -1.3543743 1.3597928 0
2.7530003 -1.3575075 1.3589813 0
2.7520001 -1.3611926 1.3585753 0
2.7510002 -1.3648742 1.3581694 0
2.7500002 -1.3685523 1.3577636 0
2.7490003 -1.3722266 1.3573577 0
2.7470002 -1.3753308 1.356546 0
2.7460003 -1.3789963 1.3561403 0
2.7450001 -1.382658 1.3557342 0
2.8650002 -1.0153124 1.3999908 0
2.8640003 -1.0193638 1.3995867 0
2.8630002 -1.0234114 1.3991827 0
2.8610003 -1.0270571 1.3983746 0
2.8600001 -1.0310956 1.3979706 0
2.8590002 -1.0351307 1.3975664 0
2.8580003 -1.0391624 1.3971624 0
2.8560002 -1.0427845 1.3963543 0
2.8550003 -1.0468069 1.3959503 0
2.8540003 -1.0508258 1.3955462 0
2.8520002 -1.0544298 1.3947381 0
2.8510003 -1.0584397 1.3943341 0
2.8500001 -1.0624459 1.39393 0
2.8490002 -1.0664487 1.393526 0
2.8470001 -1.070029 1.3927177 0
2.8460002 -1.0740228 1.3923138 0
2.8450003 -1.0780128 1.3919097 0
2.8440001 -1.0819992 1.3915056 0
2.8420002 -1.0855563 1.3906976 0
2.8410003 -1.0895337 1.3902936 0
2.8400002 -1.0935075 1.3898894 0
2.8390002 -1.0974777 1.3894855 0
2.8370001 -1.1010113 1.3886772 0
2.8360002 -1.1049726 1.3882732 0
2.8350003 -1.1089301 1.3878692 0
2.8330002 -1.1124456 1.387061 0
2.8320003 -1.1163943 1.3866571 0
2.8310003 -1.1203392 1.386253 0
2.8300002 -1.1242805 1.3858489 0
2.8280003 -1.1277727 1.3850409 0
2.8270001 -1.1317049 1.3846368 0
2.8260002 -1.1356337 1.3842326 0
2.8250003 -1.1395588 1.3838288 0
2.8230002 -1.1430274 1.3830205 0
2.8220003 -1.1469436 1.3826165 0
2.8210001 -1.1508559 1.3822124 0
2.8200002 -1.1547648 1.3818084 0
2.8190002 -1.1586701 1.3814043 0
2.8170002 -1.16211 1.3805962 0
2.8160002 -1.1660062 1.3801922 0
2.8150003 -1.1698989 1.3797882 0
2.8140001 -1.1737878 1.379384 0
2.8120003 -1.1772043 1.3785759 0
2.8110001 -1.1810842 1.3781719 0
2.8100002 -1.1849606 1.3777678 0
2.8090003 -1.1888334 1.3773638 0
2.8070002 -1.1922263 1.3765557 0
2.8060002 -1.1960901 1.3761517 0
2.8050003 -1.1999502 1.3757476 0
2.8040001 -1.2038068 1.3753436 0
2.8020003 -1.2071763 1.3745354 0
2.8010001 -1.2110238 1.3741313 0
2.8000002 -1.2148677 1.3737273 0
2.7990003 -1.218708 1.3733233 0
2.7980001 -1.2225447 1.3729191 0
2.7960002 -1.2258854 1.3721111 0
2.7950003 -1.2297131 1.3717071 0
2.7940001 -1.2335372 1.371303 0
2.7930002 -1.2373576 1.370899 0
2.7920003 -1.2411745 1.370495 0
2.7900002 -1.2444863 1.3696868 0
2.7890003 -1.2482941 1.3692827 0
2.7880001 -1.2520983 1.3688786 0
2.7870002 -1.255899 1.3684746 0
2.7850003 -1.2591873 1.3676666 0
2.7840002 -1.2629788 1.3672624 0
2.7830002 -1.2667669 1.3668585 0
2.7820003 -1.2705513 1.3664544 0
2.7810001 -1.274332 1.3660502 0
2.7790003 -1.2775916 1.3652422 0
2.7780001 -1.2813632 1.3648381 0
2.7770002 -1.2851315 1.364434 0
2.7760003 -1.2888961 1.3640301 0
2.7750001 -1.2926569 1.363626 0
2.7730002 -1.2958876 1.3628179 0
2.7720003 -1.2996396 1.3624139 0
2.7710001 -1.3033879 1.3620098 0
2.7700002 -1.3071325 1.3616056 0
2.7690003 -1.3108736 1.3612018 0
2.7680001 -1.3146111 1.3607976 0
2.7660003 -1.3178076 1.3599895 0
2.7650001 -1.3215359 1.3595854 0
2.7640002 -1.3252608 1.3591814 0
2.7630002 -1.3289821 1.3587773 0
2.7620003 -1.3326998 1.3583734 0
2.7600002 -1.3358672 1.3575652 0
2.7590003 -1.3395759 1.3571612 0
2.7580001 -1.3432808 1.356757 0
2.7570002 -1.3469822 1.356353 0
2.7560003 -1.3506801 1.3559489 0
2.7550001 -1.3543743 1.3555449 0
2.7530003 -1.3575075 1.3547368 0
2.7520001 -1.3611926 1.3543328 0
2.7510002 -1.3648742 1.3539287 0
2.7500002 -1.3685523 1.3535247 0
2.7490003 -1.3722266 1.3531206 0
2.7470002 -1.3753308 1.3523126 0
2.7460003 -1.3789963 1.3519084 0
2.7450001 -1.382658 1.3515044 0
2.8650002 -1.0153124 1.3955443 0
2.8640003 -1.0193638 1.3951422 0
2.8630002 -1.0234114 1.3947399 0
2.8610003 -1.0270571 1.3939354 0
2.8600001 -1.0310956 1.3935331 0
2.8590002 -1.0351307 1.3931308 0
2.8580003 -1.0391624 1.3927287 0
2.8560002 -1.0427845 1.3919241 0
2.8550003 -1.0468069 1.3915219 0
2.8540003 -1.0508258 1.3911197 0
2.8520002 -1.0544298 1.3903152 0
2.8510003 -1.0584397 1.389913 0
2.8500001 -1.0624459 1.3895106 0
2.8490002 -1.0664487 1.3891084 0
2.8470001 -1.070029 1.3883039 0
2.8460002 -1.0740228 1.3879017 0
2.8450003 -1.0780128 1.3874995 0
2.8440001 -1.0819992 1.3870971 0
2.8420002 -1.0855563 1.3862927 0
2.8410003 -1.0895337 1.3858905 0
2.8400002 -1.0935075 1.3854882 0
2.8390002 -1.0974777 1.3850859 0
2.8370001 -1.1010113 1.3842813 0
2.8360002 -1.1049726 1.3838792 0
2.8350003 -1.1089301 1.383477 0
2.8330002 -1.1124456 1.3826724 0
2.8320003 -1.1163943 1.3822702 0
2.8310003 -1.1203392 1.3818679 0
2.8300002 -1.1242805 1.3814657 0
2.8280003 -1.1277727 1.3806611 0
2.8270001 -1.1317049 1.3802589 0
2.8260002 -1.1356337 1.3798567 0
2.8250003 -1.1395588 1.3794544 0
2.8230002 -1.1430274 1.37865 0
2.8220003 -1.1469436 1.3782476 0
2.8210001 -1.1508559 1.3778454 0
2.8200002 -1.1547648 1.3774432 0
2.8190002 -1.1586701 1.3770409 0
2.8170002 -1.16211 1.3762364 0
2.8160002 -1.1660062 1.3758341 0
2.8150003 -1.1698989 1.3754319 0
2.8140001 -1.1737878 1.3750297 0
2.8120003 -1.1772043 1.3742251 0
2.8110001 -1.1810842 1.3738229 0
2.8100002 -1.1849606 1.3734206 0
2.8090003 -1.1888334 1.3730184 0
2.8070002 -1.1922263 1.3722138 0
2.8060002 -1.1960901 1.3718116 0
2.8050003 -1.1999502 1.3714095 0
2.8040001 -1.2038068 1.3710071 0
2.8020003 -1.2071763 1.3702028 0
2.8010001 -1.2110238 1.3698004 0
2.8000002 -1.2148677 1.3693981 0
2.7990003 -1.218708 1.368996 0
2.7980001 -1.2225447 1.3685937 0
2.7960002 -1.2258854 1.3677893 0
2.7950003 -1.2297131 1.3673869 0
2.7940001 -1.2335372 1.3669846 0
2.7930002 -1.2373576 1.3665825 0
2.7920003 -1.2411745 1.3661802 0
2.7900002 -1.2444863 1.3653758 0
2.7890003 -1.2482941 1.3649734 0
2.7880001 -1.2520983 1.3645711 0
2.7870002 -1.255899 1.3641689 0
2.7850003 -1.2591873 1.3633645 0
2.7840002 -1.2629788 1.3629621 0
2.7830002 -1.2667669 1.36256 0
2.7820003 -1.2705513 1.3621577 0
2.7810001 -1.274332 1.3617554 0
2.7790003 -1.2775916 1.3609509 0
2.7780001 -1.2813632 1.3605486 0
2.7770002 -1.2851315 1.3601465 0
2.7760003 -1.2888961 1.3597442 0
2.7750001 -1.2926569 1.3593419 0
2.7730002 -1.2958876 1.3585374 0
2.7720003 -1.2996396 1.3581352 0
2.7710001 -1.3033879 1.357733 0
2.7700002 -1.3071325 1.3573307 0
2.7690003 -1.3108736 1.3569285 0
2.7680001 -1.3146111 1.3565263 0
2.7660003 -1.3178076 1.3557217 0
2.7650001 -1.3215359 1.3553195 0
2.7640002 -1.3252608 1.3549172 0
2.7630002 -1.3289821 1.354515 0
2.7620003 -1.3326998 1.3541127 0
2.7600002 -1.3358672 1.3533082 0
2.7590003 -1.3395759 1.352906 0
2.7580001 -1.3432808 1.3525037 0
2.7570002 -1.3469822 1.3521014 0
2.7560003 -1.3506801 1.3516992 0
2.7550001 -1.3543743 1.3512969 0
2.7530003 -1.3575075 1.3504925 0
2.7520001 -1.3611926 1.3500901 0
2.7510002 -1.3648742 1.3496879 0
2.7500002 -1.3685523 1.3492857 0
2.7490003 -1.3722266 1.3488835 0
2.7470002 -1.3753308 1.348079 0
2.7460003 -1.3789963 1.3476768 0
2.7450001 -1.382658 1.3472744 0
2.8650002 -1.0153124 1.391098 0
2.8640003 -1.0193638 1.3906976 0
2.8630002 -1.0234114 1.3902971 0
2.8610003 -1.0270571 1.3894962 0
2.8600001 -1.0310956 1.3890957 0
2.8590002 -1.0351307 1.3886952 0
2.8580003 -1.0391624 1.3882948 0
2.8560002 -1.0427845 1.387494 0
2.8550003 -1.0468069 1.3870935 0
2.8540003 -1.0508258 1.3866931 0
2.8520002 -1.0544298 1.3858923 0
2.8510003 -1.0584397 1.3854918 0
2.8500001 -1.0624459 1.3850913 0
2.8490002 -1.0664487 1.3846909 0
2.8470001 -1.070029 1.3838899 0
2.8460002 -1.0740228 1.3834895 0
2.8450003 -1.0780128 1.3830891 0
2.8440001 -1.0819992 1.3826885 0
2.8420002 -1.0855563 1.3818878 0
2.8410003 -1.0895337 1.3814874 0
2.8400002 -1.0935075 1.3810868 0
2.8390002 -1.0974777 1.3806864 0
2.8370001 -1.1010113 1.3798856 0
2.8360002 -1.1049726 1.3794851 0
2.8350003 -1.1089301 1.3790847 0
2.8330002 -1.1124456 1.3782837 0
2.8320003 -1.1163943 1.3778833 0
2.8310003 -1.1203392 1.3774829 0
2.8300002 -1.1242805 1.3770823 0
2.8280003 -1.1277727 1.3762816 0
2.8270001 -1.1317049 1.3758811 0
2.8260002 -1.1356337 1.3754807 0
2.8250003 -1.1395588 1.3750802 0
