# .PCD v0.7 - Point Cloud Data file format
VERSION 0.7
FIELDS x y z intensity
SIZE 4 4 4 4
TYPE F F F F
COUNT 1 1 1 1
WIDTH 1480
HEIGHT 1
VIEWPOINT 0 0 0 1 0 0 0
POINTS 1480
DATA ascii
3.0730002 1.4727975 1.5322496 0
3.0780003 1.470808 1.5343601 0
3.0830002 1.4688003 1.5364705 0
3.0880003 1.4667746 1.538581 0
3.0680003 1.4747691 1.5253266 0
3.0730002 1.4727975 1.527428 0
3.0780003 1.470808 1.5295296 0
3.0830002 1.4688003 1.531631 0
3.0880003 1.4667746 1.5337324 0
3.0680003 1.4747691 1.5205141 0
3.0730002 1.4727975 1.5226065 0
3.0780003 1.470808 1.5246989 0
3.0830002 1.4688003 1.5267912 0
3.0880003 1.4667746 1.5288837 0
3.0680003 1.4747691 1.5157015 0
3.0730002 1.4727975 1.5177848 0
3.0780003 1.470808 1.5198683 0
3.0830002 1.4688003 1.5219517 0
3.0880003 1.4667746 1.5240351 0
3.0680003 1.4747691 1.5108891 0
3.0730002 1.4727975 1.5129633 0
3.0780003 1.470808 1.5150378 0
3.0830002 1.4688003 1.517112 0
3.0880003 1.4667746 1.5191865 0
3.0680003 1.4747691 1.5060765 0
3.0730002 1.4727975 1.5081416 0
3.0780003 1.470808 1.5102071 0
3.0830002 1.4688003 1.5122725 0
3.0880003 1.4667746 1.5143379 0
3.0680003 1.4747691 1.5012639 0
3.0730002 1.4727975 1.5033201 0
3.0780003 1.470808 1.5053766 0
3.0830002 1.4688003 1.5074328 0
3.0880003 1.4667746 1.5094893 0
3.0680003 1.4747691 1.4964513 0
3.0730002 1.4727975 1.4984986 0
3.0780003 1.470808 1.500546 0
3.0830002 1.4688003 1.5025932 0
3.0880003 1.4667746 1.5046406 0
3.0680003 1.4747691 1.4916388 0
3.0730002 1.4727975 1.493677 0
3.0780003 1.470808 1.4957153 0
3.0830002 1.4688003 1.4977536 0
3.0880003 1.4667746 1.4997919 0
3.0680003 1.4747691 1.4868262 0
3.0730002 1.4727975 1.4888555 0
3.0780003 1.470808 1.4908848 0
3.0830002 1.4688003 1.492914 0
3.0880003 1.4667746 1.4949433 0
3.0680003 1.4747691 1.4820137 0
3.0730002 1.4727975 1.4840338 0
3.0780003 1.470808 1.4860542 0
3.0830002 1.4688003 1.4880743 0
3.0880003 1.4667746 1.4900947 0
3.0680003 1.4747691 1.4772011 0
3.0730002 1.4727975 1.4792123 0
3.0780003 1.470808 1.4812235 0
3.0830002 1.4688003 1.4832348 0
3.0880003 1.4667746 1.4852461 0
3.0680003 1.4747691 1.4723884 0
3.0730002 1.4727975 1.4743906 0
3.0780003 1.470808 1.476393 0
3.0830002 1.4688003 1.4783951 0
3.0880003 1.4667746 1.4803973 0
3.0680003 1.4747691 1.4675759 0
3.0730002 1.4727975 1.4695691 0
3.0780003 1.470808 1.4715624 0
3.0830002 1.4688003 1.4735554 0
3.0880003 1.4667746 1.4755487 0
3.0680003 1.4747691 1.4627633 0
3.0730002 1.4727975 1.4647474 0
3.0780003 1.470808 1.4667317 0
3.0830002 1.4688003 1.4687159 0
3.0880003 1.4667746 1.4707001 0
3.0680003 1.4747691 1.4579508 0
3.0730002 1.4727975 1.4599259 0
3.0780003 1.470808 1.4619012 0
3.0830002 1.4688003 1.4638762 0
3.0880003 1.4667746 1.4658515 0
3.0680003 1.4747691 1.4531382 0
3.0730002 1.4727975 1.4551044 0
3.0780003 1.470808 1.4570705 0
3.0830002 1.4688003 1.4590367 0
3.0880003 1.4667746 1.4610028 0
3.0680003 1.4747691 1.4483256 0
3.0730002 1.4727975 1.4502828 0
3.0780003 1.470808 1.4522399 0
3.0830002 1.4688003 1.4541969 0
3.0880003 1.4667746 1.4561541 0
3.0680003 1.4747691 1.443513 0
3.0730002 1.4727975 1.4454613 0
3.0780003 1.470808 1.4474094 0
3.0830002 1.4688003 1.4493574 0
3.0880003 1.4667746 1.4513055 0
3.0680003 1.4747691 1.4387006 0
3.0730002 1.4727975 1.4406396 0
3.0780003 1.470808 1.4425787 0
3.0830002 1.4688003 1.4445179 0
3.0880003 1.4667746 1.4464569 0
3.0680003 1.4747691 1.433888 0
3.0730002 1.4727975 1.4358181 0
3.0780003 1.470808 1.4377482 0
3.0830002 1.4688003 1.4396782 0
3.0880003 1.4667746 1.4416083 0
3.0680003 1.4747691 1.4290755 0
3.0730002 1.4727975 1.4309964 0
3.0780003 1.470808 1.4329176 0
3.0830002 1.4688003 1.4348385 0
3.0880003 1.4667746 1.4367597 0
3.0680003 1.4747691 1.4242629 0
3.0730002 1.4727975 1.4261749 0
3.0780003 1.470808 1.4280869 0
3.0830002 1.4688003 1.429999 0
3.0880003 1.4667746 1.431911 0
3.0680003 1.4747691 1.4194503 0
3.0730002 1.4727975 1.4213532 0
3.0780003 1.470808 1.4232564 0
3.0830002 1.4688003 1.4251593 0
3.0880003 1.4667746 1.4270624 0
3.0680003 1.4747691 1.4146377 0
3.0730002 1.4727975 1.4165317 0
3.0780003 1.470808 1.4184258 0
3.0830002 1.4688003 1.4203197 0
3.0880003 1.4667746 1.4222138 0
3.0680003 1.4747691 1.4098252 0
3.0730002 1.4727975 1.4117101 0
3.0780003 1.470808 1.4135951 0
3.0830002 1.4688003 1.41548 0
3.0880003 1.4667746 1.4173651 0
3.0680003 1.4747691 1.4050126 0
3.0730002 1.4727975 1.4068885 0
3.0780003 1.470808 1.4087646 0
3.0830002 1.4688003 1.4106405 0
3.0880003 1.4667746 1.4125165 0
3.0680003 1.4747691 1.4002001 0
3.0730002 1.4727975 1.4020669 0
3.0780003 1.470808 1.403934 0
3.0830002 1.4688003 1.4058009 0
3.0880003 1.4667746 1.4076678 0
3.0680003 1.4747691 1.3953874 0
3.0730002 1.4727975 1.3972453 0
3.0780003 1.470808 1.3991033 0
3.0830002 1.4688003 1.4009612 0
3.0880003 1.4667746 1.4028192 0
3.0680003 1.4747691 1.3905749 0
3.0730002 1.4727975 1.3924237 0
3.0780003 1.470808 1.3942727 0
3.0830002 1.4688003 1.3961216 0
3.0880003 1.4667746 1.3979706 0
3.0680003 1.4747691 1.3857623 0
3.0730002 1.4727975 1.3876022 0
3.0780003 1.470808 1.3894422 0
3.0830002 1.4688003 1.391282 0
3.0880003 1.4667746 1.393122 0
3.0680003 1.4747691 1.3809499 0
3.0730002 1.4727975 1.3827807 0
3.0780003 1.470808 1.3846115 0
3.0830002 1.4688003 1.3864424 0
3.0880003 1.4667746 1.3882732 0
3.0680003 1.4747691 1.3761373 0
3.0730002 1.4727975 1.3779591 0
3.0780003 1.470808 1.379781 0
3.0830002 1.4688003 1.3816028 0
3.0880003 1.4667746 1.3834245 0
3.0680003 1.4747691 1.3713248 0
3.0730002 1.4727975 1.3731375 0
3.0780003 1.470808 1.3749503 0
3.0830002 1.4688003 1.3767631 0
3.0880003 1.4667746 1.3785759 0
3.0680003 1.4747691 1.3665121 0
3.0730002 1.4727975 1.3683159 0
3.0780003 1.470808 1.3701197 0
3.0830002 1.4688003 1.3719236 0
3.0880003 1.4667746 1.3737273 0
3.0680003 1.4747691 1.3616996 0
3.0730002 1.4727975 1.3634943 0
3.0780003 1.470808 1.3652892 0
3.0830002 1.4688003 1.3670838 0
3.0880003 1.4667746 1.3688787 0
3.0680003 1.4747691 1.356887 0
3.0730002 1.4727975 1.3586727 0
3.0780003 1.470808 1.3604585 0
3.0830002 1.4688003 1.3622442 0
3.0880003 1.4667746 1.3640301 0
3.0680003 1.4747691 1.3520745 0
3.0730002 1.4727975 1.3538511 0
3.0780003 1.470808 1.3556279 0
3.0830002 1.4688003 1.3574047 0
3.0880003 1.4667746 1.3591814 0
3.0680003 1.4747691 1.3472619 0
3.0730002 1.4727975 1.3490295 0
3.0780003 1.470808 1.3507974 0
3.0830002 1.4688003 1.3525651 0
3.0880003 1.4667746 1.3543328 0
3.0680003 1.4747691 1.3424494 0
3.0730002 1.4727975 1.344208 0
3.0780003 1.470808 1.3459667 0
3.0830002 1.4688003 1.3477254 0
3.0880003 1.4667746 1.3494842 0
3.0680003 1.4747691 1.3376367 0
3.0730002 1.4727975 1.3393863 0
3.0780003 1.470808 1.3411361 0
3.0830002 1.4688003 1.3428857 0
3.0880003 1.4667746 1.3446355 0
3.0680003 1.4747691 1.3328242 0
3.0730002 1.4727975 1.3345648 0
3.0780003 1.470808 1.3363056 0
3.0830002 1.4688003 1.3380462 0
3.0880003 1.4667746 1.3397869 0
3.0680003 1.4747691 1.3280116 0
3.0730002 1.4727975 1.3297433 0
3.0780003 1.470808 1.3314749 0
3.0830002 1.4688003 1.3332065 0
3.0880003 1.4667746 1.3349383 0
3.0680003 1.4747691 1.323199 0
3.0730002 1.4727975 1.3249217 0
3.0780003 1.470808 1.3266443 0
3.0830002 1.4688003 1.3283669 0
3.0880003 1.4667746 1.3300896 0
3.0680003 1.4747691 1.3183866 0
3.0730002 1.4727975 1.3201001 0
3.0780003 1.470808 1.3218137 0
3.0830002 1.4688003 1.3235273 0
3.0880003 1.4667746 1.325241 0
3.0680003 1.4747691 1.313574 0
3.0730002 1.4727975 1.3152785 0
3.0780003 1.470808 1.3169831 0
3.0830002 1.4688003 1.3186877 0
3.0880003 1.4667746 1.3203924 0
3.0680003 1.4747691 1.3087614 0
3.0730002 1.4727975 1.3104569 0
3.0780003 1.470808 1.3121526 0
3.0830002 1.4688003 1.3138481 0
3.0880003 1.4667746 1.3155437 0
3.0680003 1.4747691 1.3039489 0
3.0730002 1.4727975 1.3056353 0
3.0780003 1.470808 1.3073219 0
3.0830002 1.4688003 1.3090085 0
3.0880003 1.4667746 1.3106951 0
3.0680003 1.4747691 1.2991363 0
3.0730002 1.4727975 1.3008138 0
3.0780003 1.470808 1.3024913 0
3.0830002 1.4688003 1.3041688 0
3.0880003 1.4667746 1.3058465 0
3.0680003 1.4747691 1.2943237 0
3.0730002 1.4727975 1.2959921 0
3.0780003 1.470808 1.2976608 0
3.0830002 1.4688003 1.2993293 0
3.0880003 1.4667746 1.3009977 0
3.0680003 1.4747691 1.2895112 0
3.0730002 1.4727975 1.2911706 0
3.0780003 1.470808 1.2928301 0
3.0830002 1.4688003 1.2944896 0
3.0880003 1.4667746 1.2961491 0
3.0680003 1.4747691 1.2846986 0
3.0730002 1.4727975 1.2863491 0
3.0780003 1.470808 1.2879995 0
3.0830002 1.4688003 1.28965 0
3.0880003 1.4667746 1.2913005 0
3.0680003 1.4747691 1.279886 0
3.0730002 1.4727975 1.2815275 0
3.0780003 1.470808 1.2831689 0
3.0830002 1.4688003 1.2848104 0
3.0880003 1.4667746 1.2864519 0
3.0680003 1.4747691 1.2750735 0
3.0730002 1.4727975 1.2767059 0
3.0780003 1.470808 1.2783384 0
3.0830002 1.4688003 1.2799708 0
3.0880003 1.4667746 1.2816032 0
3.0680003 1.4747691 1.2702609 0
3.0730002 1.4727975 1.2718843 0
3.0780003 1.470808 1.2735077 0
3.0830002 1.4688003 1.2751311 0
3.0880003 1.4667746 1.2767546 0
3.0680003 1.4747691 1.2654483 0
3.0730002 1.4727975 1.2670627 0
3.0780003 1.470808 1.2686771 0
3.0830002 1.4688003 1.2702916 0
3.0880003 1.4667746 1.271906 0
3.0680003 1.4747691 1.2606359 0
3.0730002 1.4727975 1.2622411 0
3.0780003 1.470808 1.2638466 0
3.0830002 1.4688003 1.2654519 0
3.0880003 1.4667746 1.2670574 0
3.0680003 1.4747691 1.2558233 0
3.0730002 1.4727975 1.2574196 0
3.0780003 1.470808 1.2590159 0
3.0830002 1.4688003 1.2606122 0
3.0880003 1.4667746 1.2622087 0
3.0680003 1.4747691 1.2510107 0
3.0730002 1.4727975 1.252598 0
3.0780003 1.470808 1.2541853 0
3.0830002 1.4688003 1.2557727 0
3.0880003 1.4667746 1.2573601 0
3.0680003 1.4747691 1.2461981 0
3.0730002 1.4727975 1.2477764 0
3.0780003 1.470808 1.2493547 0
3.0830002 1.4688003 1.2509331 0
3.0880003 1.4667746 1.2525114 0
3.0680003 1.4747691 1.2413856 0
3.0730002 1.4727975 1.2429549 0
3.0780003 1.470808 1.2445242 0
3.0830002 1.4688003 1.2460934 0
3.0880003 1.4667746 1.2476628 0
3.0680003 1.4747691 1.236573 0
3.0730002 1.4727975 1.2381332 0
3.0780003 1.470808 1.2396935 0
3.0830002 1.4688003 1.2412539 0
3.0880003 1.4667746 1.2428142 0
3.0680003 1.4747691 1.2317604 0
3.0730002 1.4727975 1.2333117 0
3.0780003 1.470808 1.2348629 0
3.0830002 1.4688003 1.2364142 0
3.0880003 1.4667746 1.2379655 0
3.0680003 1.4747691 1.2269479 0
3.0730002 1.4727975 1.2284901 0
3.0780003 1.470808 1.2300324 0
3.0830002 1.4688003 1.2315747 0
3.0880003 1.4667746 1.2331169 0
3.0680003 1.4747691 1.2221353 0
3.0730002 1.4727975 1.2236685 0
3.0780003 1.470808 1.2252017 0
3.0830002 1.4688003 1.226735 0
3.0880003 1.4667746 1.2282683 0
3.0680003 1.4747691 1.2173227 0
3.0730002 1.4727975 1.2188469 0
3.0780003 1.470808 1.2203711 0
3.0830002 1.4688003 1.2218953 0
3.0880003 1.4667746 1.2234197 0
3.0680003 1.4747691 1.2125102 0
3.0730002 1.4727975 1.2140254 0
3.0780003 1.470808 1.2155405 0
3.0830002 1.4688003 1.2170558 0
3.0880003 1.4667746 1.2185709 0
3.0680003 1.4747691 1.2076976 0
3.0730002 1.4727975 1.2092037 0
3.0780003 1.470808 1.21071 0
3.0830002 1.4688003 1.2122161 0
3.0880003 1.4667746 1.2137223 0
3.0680003 1.4747691 1.202885 0
3.0730002 1.4727975 1.2043822 0
3.0780003 1.470808 1.2058793 0
3.0830002 1.4688003 1.2073765 0
3.0880003 1.4667746 1.2088737 0
3.0680003 1.4747691 1.1980726 0
3.0730002 1.4727975 1.1995606 0
3.0780003 1.470808 1.2010487 0
3.0830002 1.4688003 1.2025368 0
3.0880003 1.4667746 1.204025 0
3.0680003 1.4747691 1.19326 0
3.0730002 1.4727975 1.194739 0
3.0780003 1.470808 1.1962183 0
3.0830002 1.4688003 1.1976973 0
3.0880003 1.4667746 1.1991764 0
3.0680003 1.4747691 1.1884474 0
3.0730002 1.4727975 1.1899174 0
3.0780003 1.470808 1.1913875 0
3.0830002 1.4688003 1.1928576 0
3.0880003 1.4667746 1.1943278 0
3.0680003 1.4747691 1.1836348 0
3.0730002 1.4727975 1.1850958 0
3.0780003 1.470808 1.1865569 0
3.0830002 1.4688003 1.1880181 0
3.0880003 1.4667746 1.1894791 0
3.0680003 1.4747691 1.1788223 0
3.0730002 1.4727975 1.1802744 0
3.0780003 1.470808 1.1817263 0
3.0830002 1.4688003 1.1831784 0
3.0880003 1.4667746 1.1846305 0
3.0680003 1.4747691 1.1740097 0
3.0730002 1.4727975 1.1754527 0
3.0780003 1.470808 1.1768959 0
3.0830002 1.4688003 1.1783389 0
3.0880003 1.4667746 1.1797818 0
3.0680003 1.4747691 1.1691971 0
3.0730002 1.4727975 1.1706312 0
3.0780003 1.470808 1.1720651 0
3.0830002 1.4688003 1.1734992 0
3.0880003 1.4667746 1.1749332 0
3.0680003 1.4747691 1.1643846 0
3.0730002 1.4727975 1.1658095 0
3.0780003 1.470808 1.1672345 0
3.0830002 1.4688003 1.1686596 0
3.0880003 1.4667746 1.1700846 0
3.0680003 1.4747691 1.159572 0
3.0730002 1.4727975 1.160988 0
3.0780003 1.470808 1.1624041 0
3.0830002 1.4688003 1.1638199 0
3.0880003 1.4667746 1.165236 0
3.0680003 1.4747691 1.1547594 0
3.0730002 1.4727975 1.1561664 0
3.0780003 1.470808 1.1575733 0
3.0830002 1.4688003 1.1589804 0
3.0880003 1.4667746 1.1603873 0
3.0680003 1.4747691 1.1499469 0
3.0730002 1.4727975 1.1513448 0
3.0780003 1.470808 1.1527427 0
3.0830002 1.4688003 1.1541407 0
3.0880003 1.4667746 1.1555387 0
3.0680003 1.4747691 1.1451343 0
3.0730002 1.4727975 1.1465232 0
3.0780003 1.470808 1.1479121 0
3.0830002 1.4688003 1.1493011 0
3.0880003 1.4667746 1.1506901 0
3.0680003 1.4747691 1.1403217 0
3.0730002 1.4727975 1.1417017 0
3.0780003 1.470808 1.1430817 0
3.0830002 1.4688003 1.1444615 0
3.0880003 1.4667746 1.1458415 0
3.0680003 1.4747691 1.1355093 0
3.0730002 1.4727975 1.13688 0
3.0780003 1.470808 1.1382509 0
3.0830002 1.4688003 1.1396219 0
3.0880003 1.4667746 1.1409928 0
3.0680003 1.4747691 1.1306967 0
3.0730002 1.4727975 1.1320585 0
3.0780003 1.470808 1.1334203 0
3.0830002 1.4688003 1.1347823 0
3.0880003 1.4667746 1.1361442 0
3.0680003 1.4747691 1.1258841 0
3.0730002 1.4727975 1.127237 0
3.0780003 1.470808 1.1285899 0
3.0830002 1.4688003 1.1299427 0
3.0880003 1.4667746 1.1312956 0
3.0680003 1.4747691 1.1210716 0
3.0730002 1.4727975 1.1224153 0
3.0780003 1.470808 1.1237592 0
3.0830002 1.4688003 1.125103 0
3.0880003 1.4667746 1.1264468 0
3.0680003 1.4747691 1.116259 0
3.0730002 1.4727975 1.1175938 0
3.0780003 1.470808 1.1189286 0
3.0830002 1.4688003 1.1202633 0
3.0880003 1.4667746 1.1215982 0
3.0680003 1.4747691 1.1114464 0
3.0730002 1.4727975 1.1127721 0
3.0780003 1.470808 1.1140981 0
3.0830002 1.4688003 1.1154238 0
3.0880003 1.4667746 1.1167495 0
3.0680003 1.4747691 1.1066339 0
3.0730002 1.4727975 1.1079506 0
3.0780003 1.470808 1.1092675 0
3.0830002 1.4688003 1.1105841 0
3.0880003 1.4667746 1.1119009 0
3.0680003 1.4747691 1.1018213 0
3.0730002 1.4727975 1.103129 0
3.0780003 1.470808 1.1044368 0
3.0830002 1.4688003 1.1057445 0
3.0880003 1.4667746 1.1070523 0
3.0680003 1.4747691 1.0970087 0
3.0730002 1.4727975 1.0983075 0
3.0780003 1.470808 1.0996062 0
3.0830002 1.4688003 1.1009049 0
3.0880003 1.4667746 1.1022037 0
3.0680003 1.4747691 1.0921961 0
3.0730002 1.4727975 1.0934858 0
3.0780003 1.470808 1.0947757 0
3.0830002 1.4688003 1.0960653 0
3.0880003 1.4667746 1.097355 0
3.0680003 1.4747691 1.0873836 0
3.0730002 1.4727975 1.0886643 0
3.0780003 1.470808 1.089945 0
3.0830002 1.4688003 1.0912257 0
3.0880003 1.4667746 1.0925064 0
3.0680003 1.4747691 1.082571 0
3.0730002 1.4727975 1.0838426 0
3.0780003 1.470808 1.0851144 0
3.0830002 1.4688003 1.0863861 0
3.0880003 1.4667746 1.0876578 0
3.0680003 1.4747691 1.0777584 0
3.0730002 1.4727975 1.0790211 0
3.0780003 1.470808 1.0802839 0
3.0830002 1.4688003 1.0815464 0
3.0880003 1.4667746 1.0828092 0
3.0680003 1.4747691 1.072946 0
3.0730002 1.4727975 1.0741996 0
3.0780003 1.470808 1.0754533 0
3.0830002 1.4688003 1.0767069 0
3.0880003 1.4667746 1.0779605 0
3.0680003 1.4747691 1.0681334 0
3.0730002 1.4727975 1.069378 0
3.0780003 1.470808 1.0706226 0
3.0830002 1.4688003 1.0718672 0
3.0880003 1.4667746 1.0731119 0
3.0680003 1.4747691 1.0633208 0
3.0730002 1.4727975 1.0645564 0
3.0780003 1.470808 1.065792 0
3.0830002 1.4688003 1.0670276 0
3.0880003 1.4667746 1.0682633 0
3.0680003 1.4747691 1.0585083 0
3.0730002 1.4727975 1.0597348 0
3.0780003 1.470808 1.0609615 0
3.0830002 1.4688003 1.0621879 0
3.0880003 1.4667746 1.0634146 0
3.0680003 1.4747691 1.0536957 0
3.0730002 1.4727975 1.0549133 0
3.0780003 1.470808 1.0561308 0
3.0830002 1.4688003 1.0573484 0
3.0880003 1.4667746 1.058566 0
3.0680003 1.4747691 1.0488831 0
3.0730002 1.4727975 1.0500916 0
3.0780003 1.470808 1.0513002 0
3.0830002 1.4688003 1.0525087 0
3.0880003 1.4667746 1.0537173 0
3.0680003 1.4747691 1.0440706 0
3.0730002 1.4727975 1.0452701 0
3.0780003 1.470808 1.0464697 0
3.0830002 1.4688003 1.0476692 0
3.0880003 1.4667746 1.0488687 0
3.0680003 1.4747691 1.039258 0
3.0730002 1.4727975 1.0404484 0
3.0780003 1.470808 1.0416391 0
3.0830002 1.4688003 1.0428295 0
3.0880003 1.4667746 1.0440201 0
3.0680003 1.4747691 1.0344454 0
3.0730002 1.4727975 1.0356269 0
3.0780003 1.470808 1.0368084 0
3.0830002 1.4688003 1.03799 0
3.0880003 1.4667746 1.0391715 0
3.0680003 1.4747691 1.0296329 0
3.0730002 1.4727975 1.0308053 0
3.0780003 1.470808 1.0319778 0
3.0830002 1.4688003 1.0331503 0
3.0880003 1.4667746 1.0343227 0
3.0680003 1.4747691 1.0248203 0
3.0730002 1.4727975 1.0259838 0
3.0780003 1.470808 1.0271473 0
3.0830002 1.4688003 1.0283107 0
3.0880003 1.4667746 1.0294741 0
3.0680003 1.4747691 1.0200077 0
3.0730002 1.4727975 1.0211622 0
3.0780003 1.470808 1.0223167 0
3.0830002 1.4688003 1.023471 0
3.0880003 1.4667746 1.0246255 0
3.0680003 1.4747691 1.0151953 0
3.0730002 1.4727975 1.0163406 0
3.0780003 1.470808 1.017486 0
3.0830002 1.4688003 1.0186315 0
3.0880003 1.4667746 1.0197769 0
3.0680003 1.4747691 1.0103827 0
3.0730002 1.4727975 1.011519 0
3.0780003 1.470808 1.0126555 0
3.0830002 1.4688003 1.0137918 0
3.0880003 1.4667746 1.0149282 0
3.0680003 1.4747691 1.0055701 0
3.0730002 1.4727975 1.0066974 0
3.0780003 1.470808 1.0078249 0
3.0830002 1.4688003 1.0089521 0
3.0880003 1.4667746 1.0100796 0
3.0680003 1.4747691 1.0007576 0
3.0730002 1.4727975 1.0018759 0
3.0780003 1.470808 1.0029942 0
3.0830002 1.4688003 1.0041126 0
3.0880003 1.4667746 1.0052309 0
3.0680003 1.4747691 0.99594498 0
3.0730002 1.4727975 0.99705434 0
3.0780003 1.470808 0.99816358 0
3.0830002 1.4688003 0.99927294 0
3.0880003 1.4667746 1.0003823 0
3.0680003 1.4747691 0.99113238 0
3.0730002 1.4727975 0.99223268 0
3.0780003 1.470808 0.9933331 0
3.0830002 1.4688003 0.9944334 0
3.0880003 1.4667746 0.9955337 0
3.0680003 1.4747691 0.9863199 0
3.0730002 1.4727975 0.98741114 0
3.0780003 1.470808 0.9885025 0
3.0830002 1.4688003 0.98959374 0
3.0880003 1.4667746 0.99068499 0
3.0680003 1.4747691 0.9815073 0
3.0730002 1.4727975 0.98258948 0
3.0780003 1.470808 0.98367178 0
3.0830002 1.4688003 0.98475409 0
3.0880003 1.4667746 0.98583639 0
3.0680003 1.4747691 0.9766947 0
3.0730002 1.4727975 0.97776794 0
3.0780003 1.470808 0.9788413 0
3.0830002 1.4688003 0.97991443 0
3.0880003 1.4667746 0.98098779 0
3.0680003 1.4747691 0.97188222 0
3.0730002 1.4727975 0.97294641 0
3.0780003 1.470808 0.97401071 0
3.0830002 1.4688003 0.97507489 0
3.0880003 1.4667746 0.97613919 0
3.0680003 1.4747691 0.96706963 0
3.0730002 1.4727975 0.96812475 0
3.0780003 1.470808 0.96917999 0
3.0830002 1.4688003 0.97023523 0
3.0880003 1.4667746 0.97129047 0
3.0680003 1.4747691 0.96225703 0
3.0730002 1.4727975 0.96330321 0
3.0780003 1.470808 0.96434939 0
3.0830002 1.4688003 0.96539557 0
3.0880003 1.4667746 0.96644187 0
3.0680003 1.4747691 0.95744455 0
3.0730002 1.4727975 0.95848167 0
3.0780003 1.470808 0.95951891 0
3.0830002 1.4688003 0.96055603 0
3.0880003 1.4667746 0.96159327 0
3.0680003 1.4747691 0.95263195 0
3.0730002 1.4727975 0.95366001 0
3.0780003 1.470808 0.95468831 0
3.0830002 1.4688003 0.95571637 0
3.0880003 1.4667746 0.95674467 0
3.0680003 1.4747691 0.94781935 0
3.0730002 1.4727975 0.94883847 0
3.0780003 1.470808 0.94985759 0
3.0830002 1.4688003 0.95087683 0
3.0880003 1.4667746 0.95189595 0
3.0680003 1.4747691 0.94300687 0
3.0730002 1.4727975 0.94401693 0
3.0780003 1.470808 0.94502711 0
3.0830002 1.4688003 0.94603717 0
3.0880003 1.4667746 0.94704735 0
3.0680003 1.4747691 0.93819416 0
3.0730002 1.4727975 0.93919528 0
3.0780003 1.470808 0.94019651 0
3.0830002 1.4688003 0.94119751 0
3.0880003 1.4667746 0.94219863 0
3.0680003 1.4747691 0.93338168 0
3.0730002 1.4727975 0.93437374 0
3.0780003 1.470808 0.9353658 0
3.0830002 1.4688003 0.93635798 0
3.0880003 1.4667746 0.93735003 0
3.0680003 1.4747691 0.92856908 0
3.0730002 1.4727975 0.9295522 0
3.0780003 1.470808 0.9305352 0
3.0830002 1.4688003 0.93151832 0
3.0880003 1.4667746 0.93250144 0
3.0680003 1.4747691 0.92375648 0
3.0730002 1.4727975 0.92473066 0
3.0780003 1.470808 0.92570472 0
3.0830002 1.4688003 0.92667866 0
3.0880003 1.4667746 0.92765272 0
3.0680003 1.4747691 0.918944 0
3.0730002 1.4727975 0.919909 0
3.0780003 1.470808 0.92087412 0
3.0830002 1.4688003 0.92183912 0
3.0880003 1.4667746 0.92280412 0
3.0680003 1.4747691 0.9141314 0
3.0730002 1.4727975 0.91508746 0
3.0780003 1.470808 0.9160434 0
3.0830002 1.4688003 0.91699946 0
3.0880003 1.4667746 0.91795552 0
3.0680003 1.4747691 0.9093188 0
3.0730002 1.4727975 0.9102658 0
3.0780003 1.470808 0.91121292 0
3.0830002 1.4688003 0.9121598 0
3.0880003 1.4667746 0.91310692 0
3.0680003 1.4747691 0.90450633 0
3.0730002 1.4727975 0.90544426 0
3.0780003 1.470808 0.90638232 0
3.0830002 1.4688003 0.90732026 0
3.0880003 1.4667746 0.9082582 0
3.0680003 1.4747691 0.89969373 0
3.0730002 1.4727975 0.90062267 0
3.0780003 1.470808 0.90155166 0
3.0830002 1.4688003 0.9024806 0
3.0880003 1.4667746 0.9034096 0
3.0680003 1.4747691 0.89488119 0
3.0730002 1.4727975 0.89580107 0
3.0780003 1.470808 0.89672112 0
3.0830002 1.4688003 0.897641 0
3.0880003 1.4667746 0.898561 0
3.0680003 1.4747691 0.89006865 0
3.0730002 1.4727975 0.89097953 0
3.0780003 1.470808 0.89189053 0
3.0830002 1.4688003 0.8928014 0
3.0880003 1.4667746 0.89371228 0
3.0680003 1.4747691 0.88525605 0
3.0730002 1.4727975 0.88615799 0
3.0780003 1.470808 0.88705987 0
3.0830002 1.4688003 0.88796175 0
3.0880003 1.4667746 0.88886368 0
3.0680003 1.4747691 0.88044351 0
3.0730002 1.4727975 0.88133639 0
3.0780003 1.470808 0.88222927 0
3.0830002 1.4688003 0.88312209 0
3.0880003 1.4667746 0.88401508 0
3.0680003 1.4747691 0.87563097 0
3.0730002 1.4727975 0.87651479 0
3.0780003 1.470808 0.87739873 0
3.0830002 1.4688003 0.87828255 0
3.0880003 1.4667746 0.87916636 0
3.0680003 1.4747691 0.87081838 0
3.0730002 1.4727975 0.87169319 0
3.0780003 1.470808 0.87256807 0
3.0830002 1.4688003 0.87344289 0
3.0880003 1.4667746 0.87431777 0
3.0680003 1.4747691 0.86600584 0
3.0730002 1.4727975 0.8668716 0
3.0780003 1.470808 0.86773747 0
3.0830002 1.4688003 0.86860323 0
3.0880003 1.4667746 0.86946917 0
3.0680003 1.4747691 0.8611933 0
3.0730002 1.4727975 0.86205006 0
3.0780003 1.470808 0.86290687 0
3.0830002 1.4688003 0.86376369 0
3.0880003 1.4667746 0.86462045 0
3.0680003 1.4747691 0.8563807 0
3.0730002 1.4727975 0.85722846 0
3.0780003 1.470808 0.85807633 0
3.0830002 1.4688003 0.85892403 0
3.0880003 1.4667746 0.85977185 0
3.0680003 1.4747691 0.85156816 0
3.0730002 1.4727975 0.85240686 0
3.0780003 1.470808 0.85324568 0
3.0830002 1.4688003 0.85408443 0
3.0880003 1.4667746 0.85492325 0
3.0680003 1.4747691 0.84675562 0
3.0730002 1.4727975 0.84758532 0
3.0780003 1.470808 0.84841508 0
3.0830002 1.4688003 0.84924483 0
3.0880003 1.4667746 0.85007459 0
3.0680003 1.4747691 0.84194303 0
3.0730002 1.4727975 0.84276378 0
3.0780003 1.470808 0.84358448 0
3.0830002 1.4688003 0.84440517 0
3.0880003 1.4667746 0.84522593 0
3.0680003 1.4747691 0.83713049 0
3.0730002 1.4727975 0.83794212 0
3.0780003 1.470808 0.83875388 0
3.0830002 1.4688003 0.83956558 0
3.0880003 1.4667746 0.84037733 0
3.0680003 1.4747691 0.83231795 0
3.0730002 1.4727975 0.83312058 0
3.0780003 1.470808 0.83392334 0
3.0830002 1.4688003 0.83472598 0
3.0880003 1.4667746 0.83552873 0
3.0680003 1.4747691 0.82750535 0
3.0730002 1.4727975 0.82829905 0
3.0780003 1.470808 0.82909268 0
3.0830002 1.4688003 0.82988632 0
3.0880003 1.4667746 0.83068001 0
3.0680003 1.4747691 0.82269275 0
3.0730002 1.4727975 0.82347739 0
3.0780003 1.470808 0.82426214 0
3.0830002 1.4688003 0.82504672 0
3.0880003 1.4667746 0.82583141 0
3.0680003 1.4747691 0.81788021 0
3.0730002 1.4727975 0.81865585 0
3.0780003 1.470808 0.81943148 0
3.0830002 1.4688003 0.82020712 0
3.0880003 1.4667746 0.82098275 0
3.0680003 1.4747691 0.81306767 0
3.0730002 1.4727975 0.81383425 0
3.0780003 1.470808 0.81460088 0
3.0830002 1.4688003 0.81536746 0
3.0880003 1.4667746 0.8161341 0
3.0680003 1.4747691 0.80825508 0
3.0730002 1.4727975 0.80901265 0
3.0780003 1.470808 0.80977029 0
3.0830002 1.4688003 0.81052792 0
3.0880003 1.4667746 0.8112855 0
3.0680003 1.4747691 0.80344254 0
3.0730002 1.4727975 0.80419111 0
3.0780003 1.470808 0.80493969 0
3.0830002 1.4688003 0.80568826 0
3.0880003 1.4667746 0.8064369 0
3.0680003 1.4747691 0.79863 0
3.0730002 1.4727975 0.79936951 0
3.0780003 1.470808 0.80010915 0
3.0830002 1.4688003 0.80084866 0
3.0880003 1.4667746 0.80158818 0
3.0680003 1.4747691 0.7938174 0
3.0730002 1.4727975 0.79454792 0
3.0780003 1.470808 0.79527849 0
3.0830002 1.4688003 0.79600906 0
3.0880003 1.4667746 0.79673958 0
3.0680003 1.4747691 0.78900486 0
3.0730002 1.4727975 0.78972638 0
3.0780003 1.470808 0.79044795 0
3.0830002 1.4688003 0.7911694 0
3.0880003 1.4667746 0.79189092 0
3.0680003 1.4747691 0.78419232 0
3.0730002 1.4727975 0.78490478 0
3.0780003 1.470808 0.78561729 0
3.0830002 1.4688003 0.78632975 0
3.0880003 1.4667746 0.78704232 0
3.0680003 1.4747691 0.77937973 0
3.0730002 1.4727975 0.78008318 0
3.0780003 1.470808 0.78078669 0
3.0830002 1.4688003 0.78149021 0
3.0880003 1.4667746 0.78219366 0
3.0680003 1.4747691 0.77456719 0
3.0730002 1.4727975 0.77526164 0
3.0780003 1.470808 0.77595609 0
3.0830002 1.4688003 0.77665055 0
3.0880003 1.4667746 0.77734506 0
3.0680003 1.4747691 0.76975465 0
3.0730002 1.4727975 0.77044004 0
3.0780003 1.470808 0.7711255 0
3.0830002 1.4688003 0.77181095 0
3.0880003 1.4667746 0.7724964 0
3.0680003 1.4747691 0.76494205 0
3.0730002 1.4727975 0.76561844 0
3.0780003 1.470808 0.76629496 0
3.0830002 1.4688003 0.76697135 0
3.0880003 1.4667746 0.76764774 0
3.0680003 1.4747691 0.76012951 0
3.0730002 1.4727975 0.7607969 0
3.0780003 1.470808 0.7614643 0
3.0830002 1.4688003 0.76213169 0
3.0880003 1.4667746 0.76279914 0
3.0680003 1.4747691 0.75531697 0
3.0730002 1.4727975 0.75597531 0
3.0780003 1.470808 0.75663376 0
3.0830002 1.4688003 0.75729209 0
3.0880003 1.4667746 0.75795048 0
3.0680003 1.4747691 0.75050437 0
3.0730002 1.4727975 0.75115371 0
3.0780003 1.470808 0.7518031 0
3.0830002 1.4688003 0.75245249 0
3.0880003 1.4667746 0.75310183 0
3.0680003 1.4747691 0.74569178 0
3.0730002 1.4727975 0.74633217 0
3.0780003 1.470808 0.7469725 0
3.0830002 1.4688003 0.74761283 0
3.0880003 1.4667746 0.74825323 0
3.0680003 1.4747691 0.74087924 0
3.0730002 1.4727975 0.74151057 0
3.0780003 1.470808 0.74214196 0
3.0830002 1.4688003 0.74277323 0
3.0880003 1.4667746 0.74340463 0
3.0680003 1.4747691 0.7360667 0
3.0730002 1.4727975 0.73668897 0
3.0780003 1.470808 0.7373113 0
3.0830002 1.4688003 0.73793364 0
3.0880003 1.4667746 0.73855591 0
3.0680003 1.4747691 0.7312541 0
3.0730002 1.4727975 0.73186743 0
3.0780003 1.470808 0.73248076 0
3.0830002 1.4688003 0.73309398 0
3.0880003 1.4667746 0.73370731 0
3.0680003 1.4747691 0.72644156 0
3.0730002 1.4727975 0.72704583 0
3.0780003 1.470808 0.72765011 0
3.0830002 1.4688003 0.72825438 0
3.0880003 1.4667746 0.72885865 0
3.0680003 1.4747691 0.72162902 0
3.0730002 1.4727975 0.72222424 0
3.0780003 1.470808 0.72281957 0
3.0830002 1.4688003 0.72341478 0
3.0880003 1.4667746 0.72401005 0
3.0680003 1.4747691 0.71681643 0
3.0730002 1.4727975 0.7174027 0
3.0780003 1.470808 0.71798891 0
3.0830002 1.4688003 0.71857512 0
3.0880003 1.4667746 0.71916139 0
3.0680003 1.4747691 0.71200389 0
3.0730002 1.4727975 0.7125811 0
3.0780003 1.470808 0.71315837 0
3.0830002 1.4688003 0.71373552 0
3.0880003 1.4667746 0.71431279 0
3.0680003 1.4747691 0.70719135 0
3.0730002 1.4727975 0.7077595 0
3.0780003 1.470808 0.70832777 0
3.0830002 1.4688003 0.70889592 0
3.0880003 1.4667746 0.70946407 0
3.0680003 1.4747691 0.70237875 0
3.0730002 1.4727975 0.70293796 0
3.0780003 1.470808 0.70349711 0
3.0830002 1.4688003 0.70405626 0
3.0880003 1.4667746 0.70461547 0
3.0680003 1.4747691 0.69756621 0
3.0730002 1.4727975 0.69811636 0
3.0780003 1.470808 0.69866657 0
3.0830002 1.4688003 0.69921672 0
3.0880003 1.4667746 0.69976687 0
3.0680003 1.4747691 0.69275367 0
3.0730002 1.4727975 0.69329476 0
3.0780003 1.470808 0.69383591 0
3.0830002 1.4688003 0.69437706 0
3.0880003 1.4667746 0.69491822 0
3.0680003 1.4747691 0.68794107 0
3.0730002 1.4727975 0.68847322 0
3.0780003 1.470808 0.68900537 0
3.0830002 1.4688003 0.68953747 0
3.0880003 1.4667746 0.69006956 0
3.0680003 1.4747691 0.68312854 0
3.0730002 1.4727975 0.68365163 0
3.0780003 1.470808 0.68417472 0
3.0830002 1.4688003 0.68469781 0
3.0880003 1.4667746 0.68522096 0
3.0680003 1.4747691 0.678316 0
3.0730002 1.4727975 0.67883003 0
3.0780003 1.470808 0.67934418 0
3.0830002 1.4688003 0.67985821 0
3.0880003 1.4667746 0.68037236 0
3.0680003 1.4747691 0.6735034 0
3.0730002 1.4727975 0.67400849 0
3.0780003 1.470808 0.67451358 0
3.0830002 1.4688003 0.67501855 0
3.0880003 1.4667746 0.67552364 0
3.0680003 1.4747691 0.6686908 0
3.0730002 1.4727975 0.66918683 0
3.0780003 1.470808 0.66968292 0
3.0830002 1.4688003 0.67017901 0
3.0880003 1.4667746 0.67067504 0
3.0680003 1.4747691 0.66387826 0
3.0730002 1.4727975 0.66436529 0
3.0780003 1.470808 0.66485238 0
3.0830002 1.4688003 0.66533935 0
3.0880003 1.4667746 0.66582638 0
3.0680003 1.4747691 0.65906572 0
3.0730002 1.4727975 0.65954375 0
3.0780003 1.470808 0.66002172 0
3.0830002 1.4688003 0.66049975 0
3.0880003 1.4667746 0.66097772 0
3.0680003 1.4747691 0.65425313 0
3.0730002 1.4727975 0.65472209 0
3.0780003 1.470808 0.65519118 0
3.0830002 1.4688003 0.65566015 0
3.0880003 1.4667746 0.65612912 0
3.0680003 1.4747691 0.64944059 0
3.0730002 1.4727975 0.64990056 0
3.0780003 1.470808 0.65036058 0
3.0830002 1.4688003 0.65082049 0
3.0880003 1.4667746 0.65128052 0
3.0680003 1.4747691 0.64462805 0
3.0730002 1.4727975 0.64507902 0
3.0780003 1.470808 0.64552993 0
3.0830002 1.4688003 0.64598089 0
3.0880003 1.4667746 0.64643186 0
3.0680003 1.4747691 0.63981545 0
3.0730002 1.4727975 0.64025742 0
3.0780003 1.470808 0.64069939 0
3.0830002 1.4688003 0.6411413 0
3.0880003 1.4667746 0.6415832 0
3.0680003 1.4747691 0.63500291 0
3.0730002 1.4727975 0.63543582 0
3.0780003 1.470808 0.63586873 0
3.0830002 1.4688003 0.63630164 0
3.0880003 1.4667746 0.6367346 0
3.0680003 1.4747691 0.63019037 0
3.0730002 1.4727975 0.63061422 0
3.0780003 1.470808 0.63103819 0
3.0830002 1.4688003 0.63146204 0
3.0880003 1.4667746 0.63188595 0
3.0680003 1.4747691 0.62537777 0
3.0730002 1.4727975 0.62579268 0
3.0780003 1.470808 0.62620753 0
3.0830002 1.4688003 0.62662244 0
3.0880003 1.4667746 0.62703729 0
3.0680003 1.4747691 0.62056524 0
3.0730002 1.4727975 0.62097108 0
3.0780003 1.470808 0.62137693 0
3.0830002 1.4688003 0.62178278 0
3.0880003 1.4667746 0.62218869 0
3.0680003 1.4747691 0.6157527 0
3.0730002 1.4727975 0.61614954 0
3.0780003 1.470808 0.61654633 0
3.0830002 1.4688003 0.61694318 0
3.0880003 1.4667746 0.61734003 0
3.0680003 1.4747691 0.6109401 0
3.0730002 1.4727975 0.61132795 0
3.0780003 1.470808 0.61171573 0
3.0830002 1.4688003 0.61210358 0
3.0880003 1.4667746 0.61249137 0
3.0680003 1.4747691 0.60612756 0
3.0730002 1.4727975 0.60650635 0
3.0780003 1.470808 0.60688514 0
3.0830002 1.4688003 0.60726392 0
3.0880003 1.4667746 0.60764277 0
3.0680003 1.4747691 0.60131502 0
3.0730002 1.4727975 0.60168475 0
3.0780003 1.470808 0.6020546 0
3.0830002 1.4688003 0.60242432 0
3.0880003 1.4667746 0.60279411 0
3.0680003 1.4747691 0.59650242 0
3.0730002 1.4727975 0.59686321 0
3.0780003 1.470808 0.597224 0
3.0830002 1.4688003 0.59758472 0
3.0880003 1.4667746 0.59794545 0
3.0680003 1.4747691 0.59168988 0
3.0730002 1.4727975 0.59204161 0
3.0780003 1.470808 0.59239334 0
3.0830002 1.4688003 0.59274507 0
3.0880003 1.4667746 0.59309685 0
3.0680003 1.4747691 0.58687735 0
3.0730002 1.4727975 0.58722001 0
3.0780003 1.470808 0.58756274 0
3.0830002 1.4688003 0.58790547 0
3.0880003 1.4667746 0.58824819 0
3.0680003 1.4747691 0.58206475 0
3.0730002 1.4727975 0.58239841 0
3.0780003 1.470808 0.58273214 0
3.0830002 1.4688003 0.58306587 0
3.0880003 1.4667746 0.58339959 0
3.0680003 1.4747691 0.57725215 0
3.0730002 1.4727975 0.57757688 0
3.0780003 1.470808 0.57790154 0
3.0830002 1.4688003 0.57822621 0
3.0880003 1.4667746 0.57855093 0
3.0680003 1.4747691 0.57243961 0
3.0730002 1.4727975 0.57275528 0
3.0780003 1.470808 0.573071 0
3.0830002 1.4688003 0.57338661 0
3.0880003 1.4667746 0.57370234 0
3.0680003 1.4747691 0.56762707 0
3.0730002 1.4727975 0.56793368 0
3.0780003 1.470808 0.5682404 0
3.0830002 1.4688003 0.56854701 0
3.0880003 1.4667746 0.56885368 0
3.0680003 1.4747691 0.56281447 0
3.0730002 1.4727975 0.56311214 0
3.0780003 1.470808 0.56340981 0
3.0830002 1.4688003 0.56370735 0
3.0880003 1.4667746 0.56400502 0
3.0680003 1.4747691 0.55800194 0
3.0730002 1.4727975 0.55829054 0
3.0780003 1.470808 0.55857921 0
3.0830002 1.4688003 0.55886775 0
3.0880003 1.4667746 0.55915642 0
3.0680003 1.4747691 0.5531894 0
3.0730002 1.4727975 0.553469 0
3.0780003 1.470808 0.55374855 0
3.0830002 1.4688003 0.55402815 0
3.0880003 1.4667746 0.55430776 0
3.0680003 1.4747691 0.5483768 0
3.0730002 1.4727975 0.5486474 0
3.0780003 1.470808 0.54891795 0
3.0830002 1.4688003 0.54918855 0
3.0880003 1.4667746 0.5494591 0
3.0680003 1.4747691 0.54356426 0
3.0730002 1.4727975 0.54382581 0
3.0780003 1.470808 0.54408735 0
3.0830002 1.4688003 0.5443489 0
3.0880003 1.4667746 0.5446105 0
3.0680003 1.4747691 0.53875172 0
3.0730002 1.4727975 0.53900421 0
3.0780003 1.470808 0.53925681 0
3.0830002 1.4688003 0.5395093 0
3.0880003 1.4667746 0.53976184 0
3.0680003 1.4747691 0.53393912 0
3.0730002 1.4727975 0.53418267 0
3.0780003 1.470808 0.53442621 0
3.0830002 1.4688003 0.5346697 0
3.0880003 1.4667746 0.53491318 0
3.0680003 1.4747691 0.52912658 0
3.0730002 1.4727975 0.52936107 0
3.0780003 1.470808 0.52959561 0
3.0830002 1.4688003 0.5298301 0
3.0880003 1.4667746 0.53006458 0
3.0680003 1.4747691 0.52431405 0
3.0730002 1.4727975 0.52453947 0
3.0780003 1.470808 0.52476496 0
3.0830002 1.4688003 0.52499044 0
3.0880003 1.4667746 0.52521592 0
3.0680003 1.4747691 0.51950145 0
3.0730002 1.4727975 0.51971793 0
3.0780003 1.470808 0.51993436 0
3.0830002 1.4688003 0.52015084 0
3.0880003 1.4667746 0.52036732 0
3.0680003 1.4747691 0.51468891 0
3.0730002 1.4727975 0.51489633 0
3.0780003 1.470808 0.51510376 0
3.0830002 1.4688003 0.51531124 0
3.0880003 1.4667746 0.51551867 0
3.0680003 1.4747691 0.50987637 0
3.0730002 1.4727975 0.51007473 0
3.0780003 1.470808 0.51027316 0
3.0830002 1.4688003 0.51047158 0
3.0880003 1.4667746 0.51067001 0
3.0680003 1.4747691 0.50506377 0
3.0730002 1.4727975 0.5052532 0
3.0780003 1.470808 0.50544256 0
3.0830002 1.4688003 0.50563198 0
3.0880003 1.4667746 0.50582141 0
3.0680003 1.4747691 0.50025123 0
3.0730002 1.4727975 0.5004316 0
3.0780003 1.470808 0.50061202 0
3.0830002 1.4688003 0.50079238 0
3.0880003 1.4667746 0.50097275 0
3.0680003 1.4747691 0.49543867 0
3.0730002 1.4727975 0.49561003 0
3.0780003 1.470808 0.49578139 0
3.0830002 1.4688003 0.49595276 0
3.0880003 1.4667746 0.49612412 0
3.0680003 1.4747691 0.4906261 0
3.0730002 1.4727975 0.49078846 0
3.0780003 1.470808 0.49095079 0
3.0830002 1.4688003 0.49111313 0
3.0880003 1.4667746 0.49127549 0
3.0680003 1.4747691 0.48581356 0
3.0730002 1.4727975 0.48596686 0
3.0780003 1.470808 0.48612019 0
3.0830002 1.4688003 0.4862735 0
3.0880003 1.4667746 0.48642683 0
3.0680003 1.4747691 0.48100099 0
3.0730002 1.4727975 0.48114529 0
3.0780003 1.470808 0.4812896 0
3.0830002 1.4688003 0.4814339 0
3.0880003 1.4667746 0.4815782 0
3.0680003 1.4747691 0.47618842 0
3.0730002 1.4727975 0.47632369 0
3.0780003 1.470808 0.476459 0
3.0830002 1.4688003 0.47659427 0
3.0880003 1.4667746 0.47672957 0
3.0680003 1.4747691 0.47137588 0
3.0730002 1.4727975 0.47150213 0
3.0780003 1.470808 0.4716284 0
3.0830002 1.4688003 0.47175467 0
3.0880003 1.4667746 0.47188091 0
3.0680003 1.4747691 0.46656328 0
3.0730002 1.4727975 0.46668053 0
3.0780003 1.470808 0.4667978 0
3.0830002 1.4688003 0.46691504 0
3.0880003 1.4667746 0.46703228 0
3.0680003 1.4747691 0.46175075 0
3.0730002 1.4727975 0.46185896 0
3.0780003 1.470808 0.4619672 0
3.0830002 1.4688003 0.46207541 0
3.0880003 1.4667746 0.46218365 0
3.0680003 1.4747691 0.45693818 0
3.0730002 1.4727975 0.45703739 0
3.0780003 1.470808 0.4571366 0
3.0830002 1.4688003 0.45723581 0
3.0880003 1.4667746 0.45733503 0
3.0680003 1.4747691 0.45212561 0
3.0730002 1.4727975 0.45221582 0
3.0780003 1.470808 0.452306 0
3.0830002 1.4688003 0.45239618 0
3.0880003 1.4667746 0.45248637 0
3.0680003 1.4747691 0.44731307 0
3.0730002 1.4727975 0.44739422 0
3.0780003 1.470808 0.4474754 0
3.0830002 1.4688003 0.44755656 0
3.0880003 1.4667746 0.44763774 0
3.0680003 1.4747691 0.4425005 0
3.0730002 1.4727975 0.44257265 0
3.0780003 1.470808 0.4426448 0
3.0830002 1.4688003 0.44271696 0
3.0880003 1.4667746 0.44278911 0
3.0680003 1.4747691 0.43768793 0
3.0730002 1.4727975 0.43775105 0
3.0780003 1.470808 0.43781421 0
3.0830002 1.4688003 0.43787733 0
3.0880003 1.4667746 0.43794048 0
3.0680003 1.4747691 0.43287537 0
3.0730002 1.4727975 0.43292949 0
3.0780003 1.470808 0.43298361 0
3.0830002 1.4688003 0.43303773 0
3.0880003 1.4667746 0.43309185 0
3.0680003 1.4747691 0.42806283 0
3.0730002 1.4727975 0.42810792 0
3.0780003 1.470808 0.42815301 0
3.0830002 1.4688003 0.4281981 0
3.0880003 1.4667746 0.42824319 0
3.0680003 1.4747691 0.42325026 0
3.0730002 1.4727975 0.42328632 0
3.0780003 1.470808 0.42332241 0
3.0830002 1.4688003 0.42335847 0
3.0880003 1.4667746 0.42339456 0
3.0680003 1.4747691 0.41843769 0
3.0730002 1.4727975 0.41846475 0
3.0780003 1.470808 0.41849181 0
3.0830002 1.4688003 0.41851887 0
3.0880003 1.4667746 0.41854593 0
3.0680003 1.4747691 0.41362512 0
3.0730002 1.4727975 0.41364318 0
3.0780003 1.470808 0.41366121 0
3.0830002 1.4688003 0.41367924 0
3.0880003 1.4667746 0.4136973 0
3.0680003 1.4747691 0.40881258 0
3.0730002 1.4727975 0.40882158 0
3.0780003 1.470808 0.40883061 0
3.0830002 1.4688003 0.40883964 0
3.0880003 1.4667746 0.40884864 0
3.0680003 1.4747691 0.40400001 0
3.0730002 1.4727975 0.40400001 0
3.0780003 1.470808 0.40400001 0
3.0830002 1.4688003 0.40400001 0
3.0880003 1.4667746 0.40400001 0
3.0680003 1.4747691 0.39918745 0
3.0730002 1.4727975 0.39917845 0
3.0780003 1.470808 0.39916942 0
3.0830002 1.4688003 0.39916039 0
3.0880003 1.4667746 0.39915138 0
3.0680003 1.4747691 0.39437491 0
3.0730002 1.4727975 0.39435685 0
3.0780003 1.470808 0.39433882 0
3.0830002 1.4688003 0.39432079 0
3.0880003 1.4667746 0.39430273 0
3.0680003 1.4747691 0.38956234 0
3.0730002 1.4727975 0.38953528 0
3.0780003 1.470808 0.38950822 0
3.0830002 1.4688003 0.38948116 0
3.0880003 1.4667746 0.3894541 0
3.0680003 1.4747691 0.38474977 0
3.0730002 1.4727975 0.38471371 0
3.0780003 1.470808 0.38467762 0
3.0830002 1.4688003 0.38464156 0
3.0880003 1.4667746 0.38460547 0
3.0680003 1.4747691 0.3799372 0
3.0730002 1.4727975 0.37989211 0
3.0780003 1.470808 0.37984702 0
3.0830002 1.4688003 0.37980193 0
3.0880003 1.4667746 0.37975684 0
3.0680003 1.4747691 0.37512466 0
3.0730002 1.4727975 0.37507054 0
3.0780003 1.470808 0.37501642 0
3.0830002 1.4688003 0.3749623 0
3.0880003 1.4667746 0.37490818 0
3.0680003 1.4747691 0.37031209 0
3.0730002 1.4727975 0.37024897 0
3.0780003 1.470808 0.37018582 0
3.0830002 1.4688003 0.3701227 0
3.0880003 1.4667746 0.37005955 0
3.0680003 1.4747691 0.36549953 0
3.0730002 1.4727975 0.36542737 0
3.0780003 1.470808 0.36535522 0
3.0830002 1.4688003 0.36528307 0
3.0880003 1.4667746 0.36521092 0
3.0680003 1.4747691 0.36068696 0
3.0730002 1.4727975 0.36060581 0
3.0780003 1.470808 0.36052462 0
3.0830002 1.4688003 0.36044347 0
3.0880003 1.4667746 0.36036229 0
3.0680003 1.4747691 0.35587442 0
3.0730002 1.4727975 0.35578421 0
3.0780003 1.470808 0.35569403 0
3.0830002 1.4688003 0.35560384 0
3.0880003 1.4667746 0.35551366 0
3.0680003 1.4747691 0.35106185 0
3.0730002 1.4727975 0.35096264 0
3.0780003 1.470808 0.35086343 0
3.0830002 1.4688003 0.35076421 0
3.0880003 1.4667746 0.350665 0
3.0680003 1.4747691 0.34624928 0
3.0730002 1.4727975 0.34614107 0
3.0780003 1.470808 0.34603283 0
3.0830002 1.4688003 0.34592462 0
3.0880003 1.4667746 0.34581637 0
3.0680003 1.4747691 0.34143674 0
3.0730002 1.4727975 0.3413195 0
3.0780003 1.470808 0.34120223 0
3.0830002 1.4688003 0.34108499 0
3.0880003 1.4667746 0.34096774 0
3.0680003 1.4747691 0.33662415 0
3.0730002 1.4727975 0.3364979 0
3.0780003 1.470808 0.33637163 0
3.0830002 1.4688003 0.33624536 0
3.0880003 1.4667746 0.33611912 0
3.0680003 1.4747691 0.33181161 0
3.0730002 1.4727975 0.33167633 0
3.0780003 1.470808 0.33154103 0
3.0830002 1.4688003 0.33140576 0
3.0880003 1.4667746 0.33127046 0
3.0680003 1.4747691 0.32699904 0
3.0730002 1.4727975 0.32685474 0
3.0780003 1.470808 0.32671043 0
3.0830002 1.4688003 0.32656613 0
3.0880003 1.4667746 0.32642183 0
3.0680003 1.4747691 0.32218647 0
3.0730002 1.4727975 0.32203317 0
3.0780003 1.470808 0.32187983 0
3.0830002 1.4688003 0.32172653 0
3.0880003 1.4667746 0.3215732 0
3.0680003 1.4747691 0.31737393 0
3.0730002 1.4727975 0.31721157 0
3.0780003 1.470808 0.31704924 0
3.0830002 1.4688003 0.3168869 0
3.0880003 1.4667746 0.31672454 0
3.0680003 1.4747691 0.31256136 0
3.0730002 1.4727975 0.31239 0
3.0780003 1.470808 0.31221864 0
3.0830002 1.4688003 0.31204727 0
3.0880003 1.4667746 0.31187591 0
3.0680003 1.4747691 0.30774879 0
3.0730002 1.4727975 0.30756843 0
3.0780003 1.470808 0.30738804 0
3.0830002 1.4688003 0.30720764 0
3.0880003 1.4667746 0.30702728 0
3.0680003 1.4747691 0.30293626 0
3.0730002 1.4727975 0.30274683 0
3.0780003 1.470808 0.30255744 0
3.0830002 1.4688003 0.30236804 0
3.0880003 1.4667746 0.30217865 0
3.0680003 1.4747691 0.29812369 0
3.0730002 1.4727975 0.29792526 0
3.0780003 1.470808 0.29772684 0
3.0830002 1.4688003 0.29752845 0
3.0880003 1.4667746 0.29733002 0
3.0680003 1.4747691 0.29331112 0
3.0730002 1.4727975 0.29310369 0
3.0780003 1.470808 0.29289624 0
3.0830002 1.4688003 0.29268882 0
3.0880003 1.4667746 0.29248136 0
3.0680003 1.4747691 0.28849855 0
3.0730002 1.4727975 0.2882821 0
3.0780003 1.470808 0.28806564 0
3.0830002 1.4688003 0.28784919 0
3.0880003 1.4667746 0.28763273 0
3.0680003 1.4747691 0.28368601 0
3.0730002 1.4727975 0.28346053 0
3.0780003 1.470808 0.28323504 0
3.0830002 1.4688003 0.28300959 0
3.0880003 1.4667746 0.2827841 0
3.0680003 1.4747691 0.27887344 0
3.0730002 1.4727975 0.27863896 0
3.0780003 1.470808 0.27840444 0
3.0830002 1.4688003 0.27816996 0
3.0880003 1.4667746 0.27793545 0
3.0680003 1.4747691 0.2740609 0
3.0730002 1.4727975 0.27381736 0
3.0780003 1.470808 0.27357385 0
3.0830002 1.4688003 0.27333033 0
3.0880003 1.4667746 0.27308685 0
3.0680003 1.4747691 0.26924831 0
3.0730002 1.4727975 0.26899579 0
3.0780003 1.470808 0.26874325 0
3.0830002 1.4688003 0.26849073 0
3.0880003 1.4667746 0.26823819 0
3.0680003 1.4747691 0.26443577 0
3.0730002 1.4727975 0.26417422 0
3.0780003 1.470808 0.26391268 0
3.0830002 1.4688003 0.26365113 0
3.0880003 1.4667746 0.26338956 0
3.0680003 1.4747691 0.2596232 0
3.0730002 1.4727975 0.25935262 0
3.0780003 1.470808 0.25908208 0
3.0830002 1.4688003 0.25881147 0
3.0880003 1.4667746 0.25854093 0
3.0680003 1.4747691 0.25481063 0
3.0730002 1.4727975 0.25453103 0
3.0780003 1.470808 0.25425148 0
3.0830002 1.4688003 0.25397187 0
3.0880003 1.4667746 0.25369227 0
3.0680003 1.4747691 0.24999808 0
3.0730002 1.4727975 0.24970947 0
3.0780003 1.470808 0.24942085 0
3.0830002 1.4688003 0.24913226 0
3.0880003 1.4667746 0.24884364 0
3.0680003 1.4747691 0.24518552 0
3.0730002 1.4727975 0.2448879 0
3.0780003 1.470808 0.24459025 0
3.0830002 1.4688003 0.24429265 0
3.0880003 1.4667746 0.243995 0
3.0680003 1.4747691 0.24037296 0
3.0730002 1.4727975 0.24006632 0
3.0780003 1.470808 0.23975965 0
3.0830002 1.4688003 0.23945303 0
3.0880003 1.4667746 0.23914637 0
3.0680003 1.4747691 0.2355604 0
3.0730002 1.4727975 0.23524474 0
3.0780003 1.470808 0.23492905 0
3.0830002 1.4688003 0.2346134 0
3.0880003 1.4667746 0.23429772 0
3.0680003 1.4747691 0.23074785 0
3.0730002 1.4727975 0.23042315 0
3.0780003 1.470808 0.23009847 0
3.0830002 1.4688003 0.22977379 0
3.0880003 1.4667746 0.22944909 0
3.0680003 1.4747691 0.22593527 0
3.0730002 1.4727975 0.22560158 0
3.0780003 1.470808 0.22526787 0
3.0830002 1.4688003 0.22493418 0
3.0880003 1.4667746 0.22460045 0
3.0680003 1.4747691 0.22112271 0
3.0730002 1.4727975 0.22078 0
3.0780003 1.470808 0.22043727 0
3.0830002 1.4688003 0.22009455 0
3.0880003 1.4667746 0.21975182 0
3.0680003 1.4747691 0.21631016 0
3.0730002 1.4727975 0.21595842 0
3.0780003 1.470808 0.21560667 0
3.0830002 1.4688003 0.21525493 0
3.0880003 1.4667746 0.21490319 0
3.0680003 1.4747691 0.21149759 0
3.0730002 1.4727975 0.21113683 0
3.0780003 1.470808 0.21077606 0
3.0830002 1.4688003 0.2104153 0
3.0880003 1.4667746 0.21005456 0
3.0680003 1.4747691 0.20668504 0
3.0730002 1.4727975 0.20631526 0
3.0780003 1.470808 0.20594546 0
3.0830002 1.4688003 0.20557569 0
3.0880003 1.4667746 0.20520592 0
3.0680003 1.4747691 0.20187247 0
3.0730002 1.4727975 0.20149368 0
3.0780003 1.470808 0.20111488 0
3.0830002 1.4688003 0.20073608 0
3.0880003 1.4667746 0.20035727 0
3.0680003 1.4747691 0.19705991 0
3.0730002 1.4727975 0.1966721 0
3.0780003 1.470808 0.19628428 0
3.0830002 1.4688003 0.19589646 0
3.0880003 1.4667746 0.19550864 0
3.0680003 1.4747691 0.19224735 0
3.0730002 1.4727975 0.19185051 0
3.0780003 1.470808 0.19145368 0
3.0830002 1.4688003 0.19105685 0
3.0880003 1.4667746 0.19066 0
3.0680003 1.4747691 0.18743478 0
3.0730002 1.4727975 0.18702894 0
3.0780003 1.470808 0.18662308 0
3.0830002 1.4688003 0.18621723 0
3.0880003 1.4667746 0.18581137 0
3.0680003 1.4747691 0.18262222 0
3.0730002 1.4727975 0.18220736 0
3.0780003 1.470808 0.18179248 0
3.0830002 1.4688003 0.1813776 0
3.0880003 1.4667746 0.18096273 0
3.0680003 1.4747691 0.17780967 0
3.0730002 1.4727975 0.17738579 0
3.0780003 1.470808 0.17696187 0
3.0830002 1.4688003 0.17653799 0
3.0880003 1.4667746 0.1761141 0
3.0680003 1.4747691 0.1729971 0
3.0730002 1.4727975 0.17256421 0
3.0780003 1.470808 0.17213129 0
3.0830002 1.4688003 0.17169839 0
3.0880003 1.4667746 0.17126544 0
3.0680003 1.4747691 0.16818455 0
3.0730002 1.4727975 0.16774262 0
3.0780003 1.470808 0.16730067 0
3.0830002 1.4688003 0.16685875 0
3.0880003 1.4667746 0.16641682 0
3.0680003 1.4747691 0.163372 0
3.0730002 1.4727975 0.16292104 0
3.0780003 1.470808 0.16247009 0
3.0830002 1.4688003 0.16201913 0
3.0880003 1.4667746 0.16156818 0
3.0680003 1.4747691 0.15855943 0
3.0730002 1.4727975 0.15809947 0
3.0780003 1.470808 0.15763947 0
3.0830002 1.4688003 0.15717952 0
3.0880003 1.4667746 0.15671954 0
3.0680003 1.4747691 0.15374687 0
3.0730002 1.4727975 0.1532779 0
3.0780003 1.470808 0.15280887 0
3.0830002 1.4688003 0.15233991 0
3.0880003 1.4667746 0.15187091 0
3.0680003 1.4747691 0.1489343 0
3.0730002 1.4727975 0.14845631 0
3.0780003 1.470808 0.14797831 0
3.0830002 1.4688003 0.14750028 0
3.0880003 1.4667746 0.14702228 0
3.0680003 1.4747691 0.14412177 0
3.0730002 1.4727975 0.14363471 0
3.0780003 1.470808 0.14314768 0
3.0830002 1.4688003 0.14266068 0
3.0880003 1.4667746 0.14217365 0
3.0680003 1.4747691 0.1393092 0
3.0730002 1.4727975 0.13881317 0
3.0780003 1.470808 0.13831711 0
3.0830002 1.4688003 0.13782105 0
3.0880003 1.4667746 0.13732499 0
3.0680003 1.4747691 0.1344966 0
3.0730002 1.4727975 0.13399157 0
3.0780003 1.470808 0.13348648 0
3.0830002 1.4688003 0.13298145 0
3.0880003 1.4667746 0.13247636 0
3.0680003 1.4747691 0.12968406 0
3.0730002 1.4727975 0.12917 0
3.0780003 1.470808 0.12865588 0
3.0830002 1.4688003 0.12814182 0
3.0880003 1.4667746 0.1276277 0
3.0680003 1.4747691 0.12487149 0
3.0730002 1.4727975 0.1243484 0
3.0780003 1.470808 0.12382531 0
3.0830002 1.4688003 0.12330222 0
3.0880003 1.4667746 0.1227791 0
3.0680003 1.4747691 0.12005892 0
3.0730002 1.4727975 0.11952683 0
3.0780003 1.470808 0.11899468 0
3.0830002 1.4688003 0.11846256 0
3.0880003 1.4667746 0.11793044 0
3.0680003 1.4747691 0.11524639 0
3.0730002 1.4727975 0.11470526 0
3.0780003 1.470808 0.11416411 0
3.0830002 1.4688003 0.11362296 0
3.0880003 1.4667746 0.11308181 0
3.0680003 1.4747691 0.11043382 0
3.0730002 1.4727975 0.10988367 0
3.0780003 1.470808 0.10933349 0
3.0830002 1.4688003 0.10878333 0
3.0880003 1.4667746 0.10823315 0
3.0680003 1.4747691 0.10562125 0
