# .PCD v0.7 - Point Cloud Data file format
VERSION 0.7
FIELDS x y z intensity
SIZE 4 4 4 4
TYPE F F F F
COUNT 1 1 1 1
WIDTH 1413
HEIGHT 1
VIEWPOINT 0 0 0 1 0 0 0
POINTS 1413
DATA ascii
5.1880002 0.77448022 0.78401184 0
5.1930003 0.76669139 0.78440875 0
5.1980004 0.75888449 0.7848056 0
5.2030005 0.75105959 0.78520238 0
4.9570003 0.61159629 0.76567799 0
4.9550004 0.60309142 0.76551926 0
4.9540005 0.59473437 0.76543993 0
4.9550004 0.58665866 0.76551926 0
5.1000004 0.53049707 0.77702761 0
5.1050005 0.52262348 0.77742445 0
5.1100001 0.51473182 0.77782118 0
5.1160002 0.50693935 0.77829742 0
5.1210003 0.49900985 0.77869427 0
5.1260004 0.49106222 0.77909112 0
5.1320004 0.48320848 0.7795673 0
5.1370001 0.475223 0.77996409 0
5.1430001 0.46732777 0.78044033 0
5.1770005 0.78982884 0.77452207 0
5.1820002 0.78207785 0.77490985 0
5.1880002 0.77448022 0.77537525 0
5.1930003 0.76669139 0.77576309 0
5.1980004 0.75888449 0.77615094 0
5.2030005 0.75105959 0.77653873 0
4.9510002 0.60252136 0.7569927 0
4.9500003 0.59417152 0.75691509 0
4.9500003 0.5859642 0.75691509 0
5.1000004 0.53049707 0.76854968 0
5.1050005 0.52262348 0.76893747 0
5.1100001 0.51473182 0.76932526 0
5.1160002 0.50693935 0.76979065 0
5.1210003 0.49900985 0.7701785 0
5.1260004 0.49106222 0.77056634 0
5.1320004 0.48320848 0.77103174 0
5.1370001 0.475223 0.77141953 0
5.1430001 0.46732777 0.77188492 0
5.1770005 0.78982884 0.76590526 0
5.1820002 0.78207785 0.76628411 0
5.1880002 0.77448022 0.76673865 0
5.1930003 0.76669139 0.76711744 0
5.1980004 0.75888449 0.76749623 0
5.2030005 0.75105959 0.76787508 0
4.9470005 0.60195142 0.7484805 0
4.9460001 0.59360874 0.74840474 0
4.9460001 0.58540857 0.74840474 0
5.1000004 0.53049707 0.76007175 0
5.1050005 0.52262348 0.7604506 0
5.1100001 0.51473182 0.76082933 0
5.1160002 0.50693935 0.76128387 0
5.1210003 0.49900985 0.76166272 0
5.1260004 0.49106222 0.76204157 0
5.1320004 0.48320848 0.76249611 0
5.1370001 0.475223 0.76287484 0
5.1430001 0.46732777 0.76332939 0
5.1770005 0.78982884 0.75728852 0
5.1820002 0.78207785 0.75765824 0
5.1880002 0.77448022 0.75810194 0
5.1930003 0.76669139 0.75847179 0
5.1980004 0.75888449 0.75884157 0
5.2030005 0.75105959 0.75921136 0
4.9420004 0.59304601 0.73990881 0
5.1050005 0.52262348 0.75196362 0
5.1100001 0.51473182 0.7523334 0
5.1160002 0.50693935 0.75277716 0
5.1210003 0.49900985 0.75314689 0
5.1260004 0.49106222 0.75351667 0
5.1320004 0.48320848 0.75396049 0
5.1370001 0.475223 0.75433022 0
5.1430001 0.46732777 0.75477397 0
5.1770005 0.78982884 0.74867171 0
5.1820002 0.78207785 0.74903244 0
5.1880002 0.77448022 0.74946535 0
5.1930003 0.76669139 0.74982607 0
5.1980004 0.75888449 0.75018692 0
5.2030005 0.75105959 0.75054765 0
5.1050005 0.52262348 0.74347675 0
5.1100001 0.51473182 0.74383748 0
5.1160002 0.50693935 0.74427038 0
5.1210003 0.49900985 0.74463117 0
5.1260004 0.49106222 0.7449919 0
5.1320004 0.48320848 0.74542487 0
5.1370001 0.475223 0.74578559 0
5.1430001 0.46732777 0.7462185 0
5.1770005 0.78982884 0.74005491 0
5.1820002 0.78207785 0.74040663 0
5.1880002 0.77448022 0.74082875 0
5.1930003 0.76669139 0.74118042 0
5.1980004 0.75888449 0.74153221 0
5.2030005 0.75105959 0.74188399 0
5.1100001 0.51473182 0.73534155 0
5.1160002 0.50693935 0.73576361 0
5.1210003 0.49900985 0.73611534 0
5.1260004 0.49106222 0.73646712 0
5.1320004 0.48320848 0.73688924 0
5.1370001 0.475223 0.73724091 0
5.1430001 0.46732777 0.73766303 0
5.1770005 0.78982884 0.73143816 0
5.1820002 0.78207785 0.73178083 0
5.1880002 0.77448022 0.73219204 0
5.1930003 0.76669139 0.73253483 0
5.1980004 0.75888449 0.73287755 0
5.2030005 0.75105959 0.73322034 0
5.1160002 0.50693935 0.72725689 0
5.1210003 0.49900985 0.72759962 0
5.1260004 0.49106222 0.72794235 0
5.1320004 0.48320848 0.72835362 0
5.1370001 0.475223 0.72869629 0
5.1430001 0.46732777 0.72910762 0
5.1770005 0.78982884 0.72282135 0
5.1820002 0.78207785 0.72315502 0
5.1880002 0.77448022 0.72355545 0
5.1930003 0.76669139 0.72388917 0
5.1980004 0.75888449 0.7242229 0
5.2030005 0.75105959 0.72455657 0
5.1210003 0.49900985 0.71908379 0
5.1260004 0.49106222 0.71941757 0
5.1320004 0.48320848 0.719818 0
5.1370001 0.475223 0.72015166 0
5.1430001 0.46732777 0.72055209 0
5.1770005 0.78982884 0.71420455 0
5.1820002 0.78207785 0.71452922 0
5.1880002 0.77448022 0.71491885 0
5.1930003 0.76669139 0.71524352 0
5.1980004 0.75888449 0.71556818 0
5.2030005 0.75105959 0.71589291 0
5.1260004 0.49106222 0.71089274 0
5.1320004 0.48320848 0.71128237 0
5.1370001 0.475223 0.71160698 0
5.1430001 0.46732777 0.71199667 0
5.1770005 0.78982884 0.70558774 0
5.1820002 0.78207785 0.70590341 0
5.1880002 0.77448022 0.7062822 0
5.1930003 0.76669139 0.70659786 0
5.1980004 0.75888449 0.70691353 0
5.2030005 0.75105959 0.7072292 0
5.1320004 0.48320848 0.70274675 0
5.1370001 0.475223 0.70306242 0
5.1430001 0.46732777 0.7034412 0
5.1770005 0.78982884 0.69697094 0
5.1820002 0.78207785 0.69727755 0
5.1880002 0.77448022 0.69764555 0
5.1930003 0.76669139 0.69795221 0
5.1980004 0.75888449 0.69825888 0
5.2030005 0.75105959 0.69856548 0
5.1370001 0.475223 0.69451773 0
5.1430001 0.46732777 0.69488573 0
5.1480002 0.45930439 0.6951924 0
5.1770005 0.78982884 0.68835413 0
5.1820002 0.78207785 0.6886518 0
5.1880002 0.77448022 0.68900895 0
5.1930003 0.76669139 0.68930656 0
5.1980004 0.75888449 0.68960416 0
5.2030005 0.75105959 0.68990183 0
5.1430001 0.46732777 0.68633026 0
5.1770005 0.78982884 0.67973733 0
5.1820002 0.78207785 0.68002594 0
5.1880002 0.77448022 0.6803723 0
5.1930003 0.76669139 0.6806609 0
5.1980004 0.75888449 0.68094951 0
5.2030005 0.75105959 0.68123817 0
5.1770005 0.78982884 0.67112052 0
5.1820002 0.78207785 0.67140019 0
5.1880002 0.77448022 0.67173564 0
5.1930003 0.76669139 0.67201525 0
5.1980004 0.75888449 0.67229486 0
5.2030005 0.75105959 0.67257446 0
5.0290003 0.65538561 0.66284466 0
5.1770005 0.78982884 0.66250378 0
5.1820002 0.78207785 0.66277432 0
5.1880002 0.77448022 0.66309905 0
5.1930003 0.76669139 0.6633696 0
5.1980004 0.75888449 0.66364014 0
5.2030005 0.75105959 0.66391075 0
5.0310001 0.66404206 0.65460312 0
5.0290003 0.65538561 0.65449488 0
5.0290003 0.64703572 0.65449488 0
5.1770005 0.78982884 0.65388703 0
5.1820002 0.78207785 0.65414858 0
5.1880002 0.77448022 0.6544624 0
5.1930003 0.76669139 0.65472394 0
5.1980004 0.75888449 0.65498555 0
5.2030005 0.75105959 0.65524709 0
5.0310001 0.66404206 0.64624965 0
5.0290003 0.65538561 0.64614505 0
5.0290003 0.64703572 0.64614505 0
5.0300002 0.63883382 0.64619732 0
5.1770005 0.78982884 0.64527023 0
5.1820002 0.78207785 0.64552271 0
5.1880002 0.77448022 0.64582574 0
5.1930003 0.76669139 0.64607829 0
5.1980004 0.75888449 0.64633083 0
5.2030005 0.75105959 0.64658338 0
5.0310001 0.66404206 0.63789618 0
5.0290003 0.65538561 0.63779521 0
5.0290003 0.64703572 0.63779521 0
5.0300002 0.63883382 0.6378457 0
5.0320005 0.63077444 0.63794672 0
5.1770005 0.78982884 0.63665342 0
5.1820002 0.78207785 0.63689691 0
5.1880002 0.77448022 0.63718915 0
5.1930003 0.76669139 0.63743263 0
5.1980004 0.75888449 0.63767612 0
5.2030005 0.75105959 0.63791966 0
5.0310001 0.66404206 0.62954277 0
5.0290003 0.65538561 0.62944537 0
5.0290003 0.64703572 0.62944537 0
5.0300002 0.63883382 0.62949407 0
5.0320005 0.63077444 0.62959146 0
5.1770005 0.78982884 0.62803662 0
5.1820002 0.78207785 0.6282711 0
5.1880002 0.77448022 0.6285525 0
5.1930003 0.76669139 0.62878698 0
5.1980004 0.75888449 0.62902153 0
5.2030005 0.75105959 0.62925601 0
5.0310001 0.66404206 0.62118936 0
5.0290003 0.65538561 0.62109554 0
5.0290003 0.64703572 0.62109554 0
5.0300002 0.63883382 0.62114245 0
5.0320005 0.63077444 0.62123626 0
5.0370002 0.62314069 0.62147075 0
4.7550001 0.48032415 0.60824525 0
4.7530003 0.47223049 0.60815144 0
4.7530003 0.46437848 0.60815144 0
4.7540002 0.45664197 0.60819829 0
4.7560005 0.44901553 0.6082921 0
4.7590003 0.44149363 0.60843283 0
5.1770005 0.78982884 0.61941981 0
5.1820002 0.78207785 0.6196453 0
5.1880002 0.77448022 0.61991584 0
5.1930003 0.76669139 0.62014133 0
5.1980004 0.75888449 0.62036681 0
5.2030005 0.75105959 0.6205923 0
5.0310001 0.66404206 0.61283588 0
5.0290003 0.65538561 0.6127457 0
5.0290003 0.64703572 0.6127457 0
5.0300002 0.63883382 0.61279082 0
5.0320005 0.63077444 0.612881 0
5.0370002 0.62314069 0.61310649 0
5.0420003 0.61548895 0.61333197 0
4.7530003 0.48793441 0.60029948 0
4.7510004 0.47984082 0.60020924 0
4.7490001 0.47175425 0.60011905 0
4.7490001 0.46390951 0.60011905 0
4.7500005 0.45618021 0.60016418 0
4.7520003 0.44856095 0.60025436 0
4.7550001 0.44104624 0.6003896 0
4.7590003 0.43363082 0.60057002 0
4.8940005 0.27014628 0.60665786 0
4.8930001 0.26197138 0.60661274 0
4.8930001 0.25386685 0.60661274 0
4.8950005 0.24589226 0.60670298 0
5.1770005 0.78982884 0.61080301 0
5.1820002 0.78207785 0.61101949 0
5.1880002 0.77448022 0.61127925 0
5.1930003 0.76669139 0.61149567 0
5.1980004 0.75888449 0.61171216 0
5.2030005 0.75105959 0.61192858 0
5.0310001 0.66404206 0.60448247 0
5.0290003 0.65538561 0.60439587 0
5.0290003 0.64703572 0.60439587 0
5.0300002 0.63883382 0.6044392 0
5.0320005 0.63077444 0.6045258 0
5.0370002 0.62314069 0.60474223 0
5.0420003 0.61548895 0.60495865 0
4.7540002 0.49591088 0.59249073 0
4.7500005 0.48756647 0.59231758 0
4.7480001 0.47947818 0.59223104 0
4.7470002 0.47151619 0.5921877 0
4.7470002 0.46367502 0.5921877 0
4.7470002 0.45583385 0.5921877 0
4.7490001 0.44821998 0.59227431 0
4.7520003 0.44071072 0.59240419 0
4.7560005 0.43330073 0.59257734 0
4.7620001 0.42609265 0.5928371 0
4.8920002 0.27810827 0.59846497 0
4.8900003 0.26986486 0.59837842 0
4.8890004 0.26169723 0.59833509 0
4.8900003 0.25366664 0.59837842 0
4.8910003 0.2456325 0.59842169 0
4.8940005 0.237721 0.59855157 0
5.1770005 0.78982884 0.6021862 0
5.1820002 0.78207785 0.60239363 0
5.1880002 0.77448022 0.6026426 0
5.1930003 0.76669139 0.60285002 0
5.1980004 0.75888449 0.60305744 0
5.2030005 0.75105959 0.60326493 0
5.0310001 0.66404206 0.59612906 0
5.0290003 0.65538561 0.59604609 0
5.0290003 0.64703572 0.59604609 0
5.0300002 0.63883382 0.59608757 0
5.0320005 0.63077444 0.59617054 0
5.0370002 0.62314069 0.59637797 0
5.0420003 0.61548895 0.59658539 0
5.0470004 0.6078192 0.59679282 0
4.7520003 0.49566197 0.58455402 0
4.7490001 0.4874438 0.5844295 0
4.7470002 0.47935736 0.58434653 0
4.7460003 0.4713971 0.58430505 0
4.7450004 0.46344054 0.58426356 0
4.7460003 0.45571846 0.58430505 0
4.7480001 0.44810635 0.58438802 0
4.7510004 0.44059893 0.58451253 0
4.7550001 0.43319064 0.58467847 0
4.7600002 0.42587623 0.5848859 0
4.8930001 0.28628489 0.59040374 0
4.8900003 0.27796394 0.59027928 0
4.8880005 0.26972416 0.59019631 0
4.8870001 0.26156011 0.59015483 0
4.8870001 0.25346643 0.59015483 0
4.8890004 0.24550262 0.5902378 0
4.8910003 0.2375316 0.59032077 0
4.8950005 0.22967604 0.59048676 0
5.1770005 0.78982884 0.59356946 0
5.1820002 0.78207785 0.59376788 0
5.1880002 0.77448022 0.59400594 0
5.1930003 0.76669139 0.59420437 0
5.1980004 0.75888449 0.59440279 0
5.2030005 0.75105959 0.59460121 0
5.0310001 0.66404206 0.58777559 0
5.0290003 0.65538561 0.58769625 0
5.0290003 0.64703572 0.58769625 0
5.0300002 0.63883382 0.58773589 0
5.0320005 0.63077444 0.58781528 0
5.0370002 0.62314069 0.58801371 0
5.0420003 0.61548895 0.58821213 0
5.0470004 0.6078192 0.58841056 0
5.0520005 0.60013139 0.58860898 0
4.7520003 0.49566197 0.57670385 0
4.7480001 0.48732114 0.57654512 0
4.7460003 0.47923648 0.57646573 0
4.7450004 0.47127807 0.57642603 0
4.7450004 0.46344054 0.57642603 0
4.7460003 0.45571846 0.57646573 0
4.7480001 0.44810635 0.57654512 0
4.7500005 0.44048709 0.57662451 0
4.7540002 0.43308061 0.57678318 0
4.7590003 0.42576799 0.5769816 0
4.8910003 0.28613701 0.58221984 0
4.8880005 0.27781966 0.58210081 0
4.8870001 0.2696538 0.58206111 0
4.8860002 0.26149157 0.58202147 0
4.8860002 0.25339967 0.58202147 0
4.8870001 0.24537274 0.58206111 0
4.8900003 0.23746845 0.5821802 0
4.8930001 0.22955331 0.58229923 0
5.1770005 0.78982884 0.58495265 0
5.1820002 0.78207785 0.58514202 0
5.1880002 0.77448022 0.58536935 0
5.1930003 0.76669139 0.58555871 0
5.1980004 0.75888449 0.58574814 0
5.2030005 0.75105959 0.5859375 0
5.0310001 0.66404206 0.57942218 0
5.0290003 0.65538561 0.57934642 0
5.0290003 0.64703572 0.57934642 0
5.0300002 0.63883382 0.57938427 0
5.0320005 0.63077444 0.57946002 0
5.0370002 0.62314069 0.57964945 0
5.0420003 0.61548895 0.57983887 0
5.0470004 0.6078192 0.58002824 0
5.0520005 0.60013139 0.58021766 0
4.7520003 0.49566197 0.56885368 0
4.7490001 0.4874438 0.56874001 0
4.7470002 0.47935736 0.56866425 0
4.7460003 0.4713971 0.5686264 0
4.7450004 0.46344054 0.5685885 0
4.7460003 0.45571846 0.5686264 0
4.7480001 0.44810635 0.5687021 0
4.7510004 0.44059893 0.56881577 0
4.7550001 0.43319064 0.56896728 0
4.7600002 0.42587623 0.56915671 0
4.8910003 0.28613701 0.57411897 0
4.8880005 0.27781966 0.57400537 0
4.8860002 0.26958346 0.57392955 0
4.8860002 0.26149157 0.57392955 0
4.8860002 0.25339967 0.57392955 0
4.8880005 0.24543768 0.57400537 0
4.8900003 0.23746845 0.57408106 0
4.8930001 0.22955331 0.57419473 0
5.1770005 0.78982884 0.57633585 0
5.1820002 0.78207785 0.57651621 0
5.1880002 0.77448022 0.5767327 0
5.1930003 0.76669139 0.57691306 0
5.1980004 0.75888449 0.57709348 0
5.2030005 0.75105959 0.57727385 0
5.0310001 0.66404206 0.57106876 0
5.0290003 0.65538561 0.57099658 0
5.0290003 0.64703572 0.57099658 0
5.0300002 0.63883382 0.57103264 0
5.0320005 0.63077444 0.57110482 0
5.0370002 0.62314069 0.57128519 0
5.0420003 0.61548895 0.57146555 0
5.0470004 0.6078192 0.57164598 0
5.0520005 0.60013139 0.57182634 0
4.7540002 0.49591088 0.56107563 0
4.7510004 0.48768914 0.56096739 0
4.7480001 0.47947818 0.5608592 0
4.7470002 0.47151619 0.56082308 0
4.7470002 0.46367502 0.56082308 0
4.7480001 0.45594931 0.5608592 0
4.7500005 0.44833365 0.56093132 0
4.7530003 0.4408226 0.56103957 0
4.7570004 0.43341073 0.56118387 0
4.7620001 0.42609265 0.56136423 0
4.8920002 0.28621095 0.56605417 0
4.8890004 0.27789181 0.56594592 0
4.8870001 0.2696538 0.56587374 0
4.8870001 0.26156011 0.56587374 0
4.8870001 0.25346643 0.56587374 0
4.8880005 0.24543768 0.56590986 0
4.8910003 0.2375316 0.5660181 0
4.8940005 0.2296147 0.56612629 0
5.1770005 0.78982884 0.5677191 0
5.1820002 0.78207785 0.56789041 0
5.1880002 0.77448022 0.56809604 0
5.1930003 0.76669139 0.56826741 0
5.1980004 0.75888449 0.56843877 0
5.2030005 0.75105959 0.56861019 0
5.0310001 0.66404206 0.56271529 0
5.0290003 0.65538561 0.56264675 0
5.0290003 0.64703572 0.56264675 0
5.0300002 0.63883382 0.56268102 0
5.0320005 0.63077444 0.56274956 0
5.0370002 0.62314069 0.56292093 0
5.0420003 0.61548895 0.56309229 0
5.0470004 0.6078192 0.56326365 0
5.0520005 0.60013139 0.56343502 0
4.7530003 0.48793441 0.55318761 0
4.7510004 0.47984082 0.55311906 0
4.7500005 0.4718734 0.55308479 0
4.7500005 0.46402681 0.55308479 0
4.7500005 0.45618021 0.55308479 0
4.7520003 0.44856095 0.55315328 0
4.7550001 0.44104624 0.55325615 0
4.7590003 0.43363082 0.55339324 0
4.7650003 0.42641738 0.55359888 0
4.8940005 0.28635889 0.55802 0
4.8910003 0.27803612 0.55791718 0
4.8890004 0.26979452 0.55784863 0
4.8890004 0.26169723 0.55784863 0
4.8890004 0.25359994 0.55784863 0
4.8900003 0.24556756 0.55788291 0
4.8930001 0.23765785 0.55798572 0
4.8960004 0.22973734 0.55808854 0
5.1770005 0.78982884 0.5591023 0
5.1820002 0.78207785 0.5592646 0
5.1880002 0.77448022 0.55945945 0
5.1930003 0.76669139 0.55962175 0
5.1980004 0.75888449 0.55978411 0
5.2030005 0.75105959 0.55994648 0
5.0310001 0.66404206 0.55436182 0
5.0290003 0.65538561 0.55429691 0
5.0290003 0.64703572 0.55429691 0
5.0300002 0.63883382 0.5543294 0
5.0320005 0.63077444 0.55439436 0
5.0370002 0.62314069 0.55455667 0
5.0420003 0.61548895 0.55471897 0
4.7570004 0.48842514 0.54546547 0
4.7550001 0.48032415 0.5454005 0
4.7530003 0.47223049 0.54533559 0
4.7530003 0.46437848 0.54533559 0
4.7540002 0.45664197 0.54536808 0
4.7560005 0.44901553 0.54543304 0
4.7590003 0.44149363 0.54553044 0
4.7630005 0.43407097 0.54566026 0
4.8940005 0.27825257 0.54991364 0
4.8920002 0.27000555 0.54984874 0
4.8920002 0.26190284 0.54984874 0
4.8920002 0.25380015 0.54984874 0
4.8940005 0.24582732 0.54991364 0
4.8960004 0.23784727 0.54997861 0
4.9000001 0.22998264 0.55010849 0
5.1770005 0.78982884 0.55048549 0
5.1820002 0.78207785 0.55063879 0
5.1880002 0.77448022 0.55082279 0
5.1930003 0.76669139 0.5509761 0
5.1980004 0.75888449 0.55112946 0
5.2030005 0.75105959 0.55128276 0
5.0310001 0.66404206 0.54600841 0
5.0290003 0.65538561 0.54594707 0
5.0290003 0.64703572 0.54594707 0
5.0300002 0.63883382 0.54597777 0
4.7630005 0.48916107 0.5377903 0
4.7600002 0.48092842 0.53769827 0
4.7590003 0.4729448 0.53766763 0
4.7580004 0.46496475 0.53763694 0
4.7590003 0.45721918 0.53766763 0
4.7610002 0.44958368 0.53772891 0
4.7640004 0.44205281 0.53782094 0
4.7690005 0.43473116 0.53797424 0
4.8990002 0.27861333 0.54196066 0
4.8970003 0.27035731 0.54189932 0
4.8960004 0.26217702 0.54186869 0
4.8960004 0.25406709 0.54186869 0
4.8980002 0.24608704 0.54193002 0
4.9010005 0.23816293 0.54202199 0
5.1770005 0.78982884 0.54186869 0
5.1820002 0.78207785 0.54201299 0
5.1880002 0.77448022 0.54218614 0
5.1930003 0.76669139 0.54233044 0
5.1980004 0.75888449 0.54247475 0
5.2030005 0.75105959 0.54261911 0
5.0290003 0.65538561 0.5375973 0
4.7680001 0.48189527 0.53006458 0
4.7660003 0.47377813 0.53000683 0
4.7650003 0.4657855 0.52997798 0
4.7660003 0.4580273 0.53000683 0
4.7680001 0.45037913 0.53006458 0
4.7720003 0.44294751 0.53017998 0
4.7770004 0.43561137 0.53032434 0
4.9060001 0.27911839 0.53404737 0
4.9030004 0.27077937 0.53396082 0
4.9020004 0.26258832 0.53393191 0
4.9030004 0.2545343 0.53396082 0
4.9040003 0.24647668 0.53398967 0
4.9070005 0.23854172 0.53407621 0
5.1770005 0.78982884 0.53325188 0
5.1820002 0.78207785 0.53338718 0
5.1880002 0.77448022 0.53354955 0
5.1930003 0.76669139 0.53368479 0
5.1980004 0.75888449 0.53382009 0
5.2030005 0.75105959 0.5339554 0
4.7790003 0.48322469 0.52248317 0
4.7760005 0.47496873 0.52240199 0
4.7750001 0.46695793 0.52237493 0
4.7760005 0.45918179 0.52240199 0
4.7780004 0.45151559 0.52245611 0
4.7830005 0.44417772 0.52259135 0
4.9120002 0.27141252 0.52608174 0
4.9110003 0.26320517 0.52605468 0
4.9110003 0.25506821 0.52605468 0
4.9130001 0.2470611 0.5261088 0
4.9160004 0.23910993 0.52618998 0
5.1770005 0.78982884 0.52463508 0
5.1820002 0.78207785 0.52476138 0
5.1880002 0.77448022 0.52491289 0
5.1930003 0.76669139 0.52503914 0
5.1980004 0.75888449 0.52516544 0
5.2030005 0.75105959 0.52529168 0
4.7750001 0.48274124 0.51448327 0
4.7720003 0.47449243 0.51440752 0
4.7710004 0.46648896 0.51438224 0
4.7720003 0.45871997 0.51440752 0
4.7750001 0.45117462 0.51448327 0
4.7790003 0.44373032 0.5145843 0
4.9170003 0.27176428 0.51806927 0
4.9150004 0.26347938 0.51801872 0
4.9160004 0.25540194 0.51804399 0
4.9180002 0.2473858 0.51809448 0
5.1770005 0.78982884 0.51601833 0
5.1820002 0.78207785 0.51613557 0
5.1880002 0.77448022 0.51627624 0
5.1930003 0.76669139 0.51639348 0
5.1980004 0.75888449 0.51651073 0
5.2030005 0.75105959 0.51662803 0
4.7730002 0.49038762 0.50654471 0
4.7690005 0.48201615 0.50645089 0
4.7670002 0.47389722 0.50640398 0
4.7660003 0.46590275 0.50638056 0
4.7670002 0.45814276 0.50640398 0
4.7690005 0.45049286 0.50645089 0
4.7730002 0.4430593 0.50654471 0
4.7790003 0.43583146 0.50668538 0
4.9130001 0.27962345 0.50982761 0
4.9100003 0.27127182 0.50975728 0
4.9090004 0.26306811 0.50973386 0
4.9090004 0.25493473 0.50973386 0
4.9110003 0.24693125 0.50978076 0
4.9140005 0.23898369 0.5098511 0
5.1770005 0.78982884 0.50740153 0
5.1820002 0.78207785 0.50750977 0
5.1880002 0.77448022 0.50763965 0
5.1930003 0.76669139 0.50774783 0
5.1980004 0.75888449 0.50785607 0
5.2030005 0.75105959 0.50796431 0
4.7690005 0.48989701 0.49857008 0
4.7650003 0.48153275 0.49848348 0
4.7630005 0.47342104 0.49844021 0
4.7630005 0.46555102 0.49844021 0
4.7640004 0.45779645 0.49846184 0
4.7660003 0.45015189 0.49850515 0
4.7690005 0.44261199 0.49857008 0
4.7750001 0.43539131 0.49869993 0
4.9090004 0.27933487 0.50160044 0
4.9060001 0.27099043 0.50153553 0
4.9050002 0.26279393 0.5015139 0
4.9050002 0.25466776 0.5015139 0
4.9060001 0.24660656 0.50153553 0
4.9100003 0.23873112 0.50162214 0
5.1770005 0.78982884 0.49878472 0
5.1820002 0.78207785 0.49888393 0
5.1880002 0.77448022 0.49900299 0
5.1930003 0.76669139 0.49910221 0
5.1980004 0.75888449 0.49920142 0
5.2030005 0.75105959 0.4993006 0
4.7660003 0.48952901 0.4906297 0
4.7630005 0.481291 0.49057019 0
4.7610002 0.47318286 0.49053049 0
4.7610002 0.46531647 0.49053049 0
4.7620001 0.45756549 0.49055034 0
4.7640004 0.44992459 0.49059004 0
4.7670002 0.44238827 0.49064955 0
4.7720003 0.43506122 0.49074876 0
4.9060001 0.27911839 0.49340758 0
4.9030004 0.27077937 0.49334806 0
4.9020004 0.26258832 0.49332821 0
4.9020004 0.25446755 0.49332821 0
4.9040003 0.24647668 0.49336788 0
4.9070005 0.23854172 0.49342743 0
5.1770005 0.78982884 0.49016795 0
5.1820002 0.78207785 0.49025813 0
5.1880002 0.77448022 0.49036634 0
5.1930003 0.76669139 0.49045652 0
5.1980004 0.75888449 0.49054673 0
5.2030005 0.75105959 0.49063694 0
4.7660003 0.48952901 0.48275429 0
4.7620001 0.48117012 0.48268211 0
4.7610002 0.47318286 0.48266408 0
4.7600002 0.46519923 0.48264605 0
4.7610002 0.45745009 0.48266408 0
4.7630005 0.44981098 0.48270017 0
4.7660003 0.44227645 0.48275429 0
4.7710004 0.43495119 0.48284447 0
4.9050002 0.27904624 0.48526156 0
4.9020004 0.27070907 0.48520747 0
4.9010005 0.26251975 0.48518944 0
4.9010005 0.25440082 0.48518944 0
4.9030004 0.24641174 0.4852255 0
4.9060001 0.2384786 0.48527962 0
5.1770005 0.78982884 0.48155114 0
5.1820002 0.78207785 0.48163232 0
5.1880002 0.77448022 0.48172972 0
5.1930003 0.76669139 0.4818109 0
5.1980004 0.75888449 0.48189205 0
5.2030005 0.75105959 0.48197323 0
4.7660003 0.48952901 0.47487885 0
4.7620001 0.48117012 0.47481391 0
4.7610002 0.47318286 0.47479767 0
4.7600002 0.46519923 0.47478145 0
4.7610002 0.45745009 0.47479767 0
4.7630005 0.44981098 0.47483015 0
4.7670002 0.44238827 0.47489509 0
4.7720003 0.43506122 0.47497627 0
4.9040003 0.27897409 0.47711918 0
4.9020004 0.27070907 0.47708672 0
4.9010005 0.26251975 0.47707048 0
4.9010005 0.25440082 0.47707048 0
4.9030004 0.24641174 0.47710294 0
4.9060001 0.2384786 0.47715166 0
5.1770005 0.78982884 0.47293437 0
5.1820002 0.78207785 0.47300649 0
5.1880002 0.77448022 0.47309309 0
5.1930003 0.76669139 0.47316524 0
5.1980004 0.75888449 0.4732374 0
5.2030005 0.75105959 0.47330955 0
4.7660003 0.48952901 0.46700343 0
4.7620001 0.48117012 0.46694571 0
4.7610002 0.47318286 0.46693128 0
4.7600002 0.46519923 0.46691686 0
4.7610002 0.45745009 0.46693128 0
4.7630005 0.44981098 0.46696013 0
4.7670002 0.44238827 0.46701786 0
4.7720003 0.43506122 0.46709001 0
4.9090004 0.28746822 0.46906698 0
4.9040003 0.27897409 0.46899483 0
4.9020004 0.27070907 0.46896598 0
4.9010005 0.26251975 0.46895155 0
4.9010005 0.25440082 0.46895155 0
4.9030004 0.24641174 0.4689804 0
4.9060001 0.2384786 0.4690237 0
4.9110003 0.23065728 0.46909583 0
5.1820002 0.78207785 0.46438068 0
5.1880002 0.77448022 0.46445644 0
5.1930003 0.76669139 0.46451959 0
5.1980004 0.75888449 0.46458271 0
4.7660003 0.48952901 0.45912799 0
4.7620001 0.48117012 0.45907748 0
4.7610002 0.47318286 0.45906487 0
4.7600002 0.46519923 0.45905223 0
4.7610002 0.45745009 0.45906487 0
4.7630005 0.44981098 0.45909011 0
4.7670002 0.44238827 0.45914063 0
4.7720003 0.43506122 0.45920375 0
4.9090004 0.28746822 0.46093363 0
4.9040003 0.27897409 0.46087047 0
4.9020004 0.27070907 0.46084523 0
4.9010005 0.26251975 0.4608326 0
4.9010005 0.25440082 0.4608326 0
4.9030004 0.24641174 0.46085787 0
4.9060001 0.2384786 0.46089572 0
4.9110003 0.23065728 0.46095887 0
5.1880002 0.77448022 0.45581982 0
5.1930003 0.76669139 0.45587394 0
4.7660003 0.48952901 0.45125258 0
4.7620001 0.48117012 0.45120928 0
4.7610002 0.47318286 0.45119846 0
4.7600002 0.46519923 0.45118764 0
4.7610002 0.45745009 0.45119846 0
4.7630005 0.44981098 0.4512201 0
4.7670002 0.44238827 0.4512634 0
4.7720003 0.43506122 0.45131752 0
4.9090004 0.28746822 0.45280024 0
4.9040003 0.27897409 0.45274612 0
4.9020004 0.27070907 0.45272449 0
4.9010005 0.26251975 0.45271367 0
4.9010005 0.25440082 0.45271367 0
4.9030004 0.24641174 0.4527353 0
4.9060001 0.2384786 0.45276776 0
4.9110003 0.23065728 0.45282188 0
4.7660003 0.48952901 0.44337714 0
4.7620001 0.48117012 0.44334108 0
4.7610002 0.47318286 0.44333205 0
4.7600002 0.46519923 0.44332305 0
4.7610002 0.45745009 0.44333205 0
4.7630005 0.44981098 0.44335008 0
4.7670002 0.44238827 0.44338617 0
4.7720003 0.43506122 0.44343126 0
4.9090004 0.28746822 0.44466686 0
4.9040003 0.27897409 0.44462177 0
4.9020004 0.27070907 0.44460374 0
4.9010005 0.26251975 0.44459471 0
4.9010005 0.25440082 0.44459471 0
4.9030004 0.24641174 0.44461274 0
4.9060001 0.2384786 0.4446398 0
4.9110003 0.23065728 0.44468492 0
4.7660003 0.48952901 0.43550172 0
4.7620001 0.48117012 0.43547285 0
4.7610002 0.47318286 0.43546563 0
4.7600002 0.46519923 0.43545842 0
4.7610002 0.45745009 0.43546563 0
4.7630005 0.44981098 0.43548009 0
4.7670002 0.44238827 0.43550894 0
4.7720003 0.43506122 0.43554503 0
4.9040003 0.27897409 0.43649742 0
4.9020004 0.27070907 0.436483 0
4.9010005 0.26251975 0.43647578 0
4.9010005 0.25440082 0.43647578 0
4.9030004 0.24641174 0.43649021 0
4.9060001 0.2384786 0.43651184 0
4.9110003 0.23065728 0.43654794 0
4.7660003 0.48952901 0.42762628 0
4.7620001 0.48117012 0.42760465 0
4.7610002 0.47318286 0.42759925 0
4.7600002 0.46519923 0.42759383 0
4.7610002 0.45745009 0.42759925 0
4.7630005 0.44981098 0.42761007 0
4.7670002 0.44238827 0.42763171 0
4.7720003 0.43506122 0.42765877 0
4.9040003 0.27897409 0.42837307 0
4.9020004 0.27070907 0.42836225 0
4.9010005 0.26251975 0.42835683 0
4.9010005 0.25440082 0.42835683 0
4.9030004 0.24641174 0.42836767 0
4.9060001 0.2384786 0.42838389 0
4.9110003 0.23065728 0.42841095 0
4.7660003 0.48952901 0.41975087 0
4.7620001 0.48117012 0.41973644 0
4.7610002 0.47318286 0.41973284 0
4.7600002 0.46519923 0.41972923 0
4.7610002 0.45745009 0.41973284 0
4.7630005 0.44981098 0.41974005 0
4.7670002 0.44238827 0.41975448 0
4.7720003 0.43506122 0.41977251 0
4.9040003 0.27897409 0.42024872 0
4.9020004 0.27070907 0.4202415 0
4.9010005 0.26251975 0.4202379 0
4.9010005 0.25440082 0.4202379 0
4.9030004 0.24641174 0.42024511 0
4.9060001 0.2384786 0.42025593 0
4.9110003 0.23065728 0.42027396 0
4.7660003 0.48952901 0.41187543 0
4.7620001 0.48117012 0.41186821 0
4.7610002 0.47318286 0.41186643 0
4.7600002 0.46519923 0.41186461 0
4.7610002 0.45745009 0.41186643 0
4.7630005 0.44981098 0.41187003 0
4.7670002 0.44238827 0.41187724 0
4.7720003 0.43506122 0.41188627 0
4.9040003 0.27897409 0.41212437 0
4.9020004 0.27070907 0.41212076 0
4.9010005 0.26251975 0.41211894 0
4.9010005 0.25440082 0.41211894 0
4.9030004 0.24641174 0.41212255 0
4.9060001 0.2384786 0.41212797 0
4.9110003 0.23065728 0.412137 0
4.7660003 0.48952901 0.40400001 0
4.7620001 0.48117012 0.40400001 0
4.7610002 0.47318286 0.40400001 0
4.7600002 0.46519923 0.40400001 0
4.7610002 0.45745009 0.40400001 0
4.7630005 0.44981098 0.40400001 0
4.7670002 0.44238827 0.40400001 0
4.7720003 0.43506122 0.40400001 0
4.9040003 0.27897409 0.40400001 0
4.9020004 0.27070907 0.40400001 0
4.9010005 0.26251975 0.40400001 0
4.9010005 0.25440082 0.40400001 0
4.9030004 0.24641174 0.40400001 0
4.9060001 0.2384786 0.40400001 0
4.9110003 0.23065728 0.40400001 0
4.7660003 0.48952901 0.3961246 0
4.7620001 0.48117012 0.39613181 0
4.7610002 0.47318286 0.3961336 0
4.7600002 0.46519923 0.39613542 0
4.7610002 0.45745009 0.3961336 0
4.7630005 0.44981098 0.39613 0
4.7670002 0.44238827 0.39612278 0
4.7720003 0.43506122 0.39611375 0
4.9040003 0.27897409 0.39587566 0
4.9020004 0.27070907 0.39587927 0
4.9010005 0.26251975 0.39588109 0
4.9010005 0.25440082 0.39588109 0
4.9030004 0.24641174 0.39587748 0
4.9060001 0.2384786 0.39587206 0
4.9110003 0.23065728 0.39586303 0
4.7660003 0.48952901 0.38824916 0
4.7620001 0.48117012 0.38826358 0
4.7610002 0.47318286 0.38826719 0
4.7600002 0.46519923 0.3882708 0
4.7610002 0.45745009 0.38826719 0
4.7630005 0.44981098 0.38825998 0
4.7670002 0.44238827 0.38824555 0
4.7720003 0.43506122 0.38822752 0
4.9040003 0.27897409 0.38775131 0
4.9020004 0.27070907 0.38775852 0
4.9010005 0.26251975 0.38776213 0
4.9010005 0.25440082 0.38776213 0
4.9030004 0.24641174 0.38775492 0
4.9060001 0.2384786 0.3877441 0
4.9110003 0.23065728 0.38772607 0
4.7660003 0.48952901 0.38037375 0
4.7620001 0.48117012 0.38039538 0
4.7610002 0.47318286 0.38040078 0
4.7600002 0.46519923 0.3804062 0
4.7610002 0.45745009 0.38040078 0
4.7630005 0.44981098 0.38038996 0
4.7670002 0.44238827 0.38036832 0
4.7720003 0.43506122 0.38034126 0
4.9040003 0.27897409 0.37962696 0
4.9020004 0.27070907 0.37963778 0
4.9010005 0.26251975 0.3796432 0
4.9010005 0.25440082 0.3796432 0
4.9030004 0.24641174 0.37963235 0
4.9060001 0.2384786 0.37961614 0
4.9110003 0.23065728 0.37958908 0
4.7660003 0.48952901 0.3724983 0
4.7620001 0.48117012 0.37252718 0
4.7610002 0.47318286 0.37253439 0
4.7600002 0.46519923 0.37254161 0
4.7610002 0.45745009 0.37253439 0
4.7630005 0.44981098 0.37251994 0
4.7670002 0.44238827 0.37249109 0
4.7720003 0.43506122 0.372455 0
4.9040003 0.27897409 0.37150261 0
4.9020004 0.27070907 0.37151703 0
4.9010005 0.26251975 0.37152424 0
4.9010005 0.25440082 0.37152424 0
4.9030004 0.24641174 0.37150982 0
4.9060001 0.2384786 0.37148818 0
4.9110003 0.23065728 0.37145209 0
4.7660003 0.48952901 0.36462289 0
4.7620001 0.48117012 0.36465895 0
4.7610002 0.47318286 0.36466798 0
4.7600002 0.46519923 0.36467698 0
4.7610002 0.45745009 0.36466798 0
4.7630005 0.44981098 0.36464995 0
4.7670002 0.44238827 0.36461386 0
4.7720003 0.43506122 0.36456877 0
4.9040003 0.27897409 0.36337826 0
4.9020004 0.27070907 0.36339629 0
4.9010005 0.26251975 0.36340532 0
4.9010005 0.25440082 0.36340532 0
4.9030004 0.24641174 0.36338729 0
4.9060001 0.2384786 0.36336023 0
4.9110003 0.23065728 0.36331511 0
4.7660003 0.48952901 0.35674745 0
4.7620001 0.48117012 0.35679075 0
4.7610002 0.47318286 0.35680157 0
4.7600002 0.46519923 0.35681239 0
4.7610002 0.45745009 0.35680157 0
4.7630005 0.44981098 0.35677993 0
4.7670002 0.44238827 0.35673663 0
4.7720003 0.43506122 0.35668251 0
4.9040003 0.27897409 0.35525391 0
4.9020004 0.27070907 0.35527554 0
4.9010005 0.26251975 0.35528636 0
4.9010005 0.25440082 0.35528636 0
4.9030004 0.24641174 0.35526472 0
4.9060001 0.2384786 0.35523227 0
4.9110003 0.23065728 0.35517815 0
4.7660003 0.48952901 0.34887204 0
4.7620001 0.48117012 0.34892255 0
4.7610002 0.47318286 0.34893516 0
4.7600002 0.46519923 0.34894779 0
4.7610002 0.45745009 0.34893516 0
4.7630005 0.44981098 0.34890991 0
4.7670002 0.44238827 0.3488594 0
4.7720003 0.43506122 0.34879628 0
4.9040003 0.27897409 0.34712955 0
4.9020004 0.27070907 0.3471548 0
4.9010005 0.26251975 0.34716743 0
4.9010005 0.25440082 0.34716743 0
4.9030004 0.24641174 0.34714216 0
4.9060001 0.2384786 0.34710431 0
4.9110003 0.23065728 0.34704116 0
4.9110003 0.58054739 0.3389042 0
4.7660003 0.48952901 0.34099659 0
4.7620001 0.48117012 0.34105432 0
4.7610002 0.47318286 0.34106874 0
4.7600002 0.46519923 0.34108317 0
4.7610002 0.45745009 0.34106874 0
4.7630005 0.44981098 0.3410399 0
4.7670002 0.44238827 0.34098217 0
4.7720003 0.43506122 0.34091002 0
4.9040003 0.27897409 0.3390052 0
4.9020004 0.27070907 0.33903405 0
4.9010005 0.26251975 0.33904848 0
4.9010005 0.25440082 0.33904848 0
4.9030004 0.24641174 0.33901963 0
4.9060001 0.2384786 0.33897632 0
4.9110003 0.23065728 0.3389042 0
4.9110003 0.58054739 0.33076721 0
4.7660003 0.48952901 0.33312118 0
4.7620001 0.48117012 0.33318612 0
4.7610002 0.47318286 0.33320236 0
4.7600002 0.46519923 0.33321857 0
4.7610002 0.45745009 0.33320236 0
4.7630005 0.44981098 0.33316988 0
4.7670002 0.44238827 0.33310494 0
4.7720003 0.43506122 0.33302376 0
4.9040003 0.27897409 0.33088085 0
4.9020004 0.27070907 0.33091331 0
4.9010005 0.26251975 0.33092955 0
4.9010005 0.25440082 0.33092955 0
4.9030004 0.24641174 0.33089709 0
4.9060001 0.2384786 0.33084837 0
4.9110003 0.23065728 0.33076721 0
4.9110003 0.58054739 0.32263023 0
4.7660003 0.48952901 0.32524574 0
4.7620001 0.48117012 0.32531792 0
4.7610002 0.47318286 0.32533595 0
4.7600002 0.46519923 0.32535398 0
4.7610002 0.45745009 0.32533595 0
4.7630005 0.44981098 0.32529986 0
4.7670002 0.44238827 0.32522771 0
4.7720003 0.43506122 0.32513753 0
4.9040003 0.27897409 0.3227565 0
4.9020004 0.27070907 0.32279256 0
4.9010005 0.26251975 0.32281059 0
4.9010005 0.25440082 0.32281059 0
4.9030004 0.24641174 0.32277453 0
4.9060001 0.2384786 0.32272041 0
4.9110003 0.23065728 0.32263023 0
4.9110003 0.58054739 0.31449324 0
4.7660003 0.48952901 0.31737033 0
4.7620001 0.48117012 0.31744969 0
4.7610002 0.47318286 0.31746954 0
4.7600002 0.46519923 0.31748939 0
4.7610002 0.45745009 0.31746954 0
4.7630005 0.44981098 0.31742984 0
4.7670002 0.44238827 0.31735048 0
4.7720003 0.43506122 0.31725127 0
4.9040003 0.27897409 0.31463215 0
4.9020004 0.27070907 0.31467181 0
4.9010005 0.26251975 0.31469166 0
4.9010005 0.25440082 0.31469166 0
4.9030004 0.24641174 0.31465197 0
4.9060001 0.2384786 0.31459245 0
4.9110003 0.23065728 0.31449324 0
4.9110003 0.58054739 0.30635625 0
4.7660003 0.48952901 0.30949488 0
4.7620001 0.48117012 0.30958149 0
4.7610002 0.47318286 0.30960312 0
4.7600002 0.46519923 0.30962476 0
4.7610002 0.45745009 0.30960312 0
4.7630005 0.44981098 0.30955982 0
4.7670002 0.44238827 0.30947325 0
4.7720003 0.43506122 0.309365 0
4.9040003 0.27897409 0.30650777 0
4.9020004 0.27070907 0.30655107 0
4.9010005 0.26251975 0.30657274 0
4.9010005 0.25440082 0.30657274 0
4.9030004 0.24641174 0.30652943 0
4.9060001 0.2384786 0.30646449 0
4.9110003 0.23065728 0.30635625 0
4.9110003 0.58054739 0.29821929 0
4.7660003 0.48952901 0.30161947 0
4.7620001 0.48117012 0.30171326 0
4.7610002 0.47318286 0.30173671 0
4.7600002 0.46519923 0.30176017 0
4.7610002 0.45745009 0.30173671 0
4.7630005 0.44981098 0.3016898 0
4.7670002 0.44238827 0.30159602 0
4.7720003 0.43506122 0.30147877 0
4.9040003 0.27897409 0.29838344 0
4.9020004 0.27070907 0.29843032 0
4.9010005 0.26251975 0.29845378 0
4.9010005 0.25440082 0.29845378 0
4.9030004 0.24641174 0.2984069 0
4.9060001 0.2384786 0.29833654 0
4.9110003 0.23065728 0.29821929 0
4.9110003 0.58054739 0.29008231 0
4.7660003 0.48952901 0.29374403 0
4.7620001 0.48117012 0.29384506 0
4.7610002 0.47318286 0.2938703 0
4.7600002 0.46519923 0.29389557 0
4.7610002 0.45745009 0.2938703 0
4.7630005 0.44981098 0.29381979 0
4.7670002 0.44238827 0.29371879 0
4.7720003 0.43506122 0.29359251 0
4.9040003 0.27897409 0.29025906 0
4.9020004 0.27070907 0.29030958 0
4.9010005 0.26251975 0.29033482 0
4.9010005 0.25440082 0.29033482 0
4.9030004 0.24641174 0.29028434 0
4.9060001 0.2384786 0.29020858 0
4.9110003 0.23065728 0.29008231 0
4.9110003 0.58054739 0.28194535 0
4.7660003 0.48952901 0.28586861 0
4.7620001 0.48117012 0.28597686 0
4.7610002 0.47318286 0.28600389 0
4.7600002 0.46519923 0.28603095 0
4.7610002 0.45745009 0.28600389 0
4.7630005 0.44981098 0.28594977 0
4.7670002 0.44238827 0.28584155 0
4.7720003 0.43506122 0.28570628 0
4.9040003 0.27897409 0.28213471 0
4.9020004 0.27070907 0.28218883 0
4.9010005 0.26251975 0.28221589 0
4.9010005 0.25440082 0.28221589 0
4.9030004 0.24641174 0.28216177 0
4.9060001 0.2384786 0.28208062 0
4.9110003 0.23065728 0.28194535 0
4.9110003 0.58054739 0.27380836 0
4.7660003 0.48952901 0.2779932 0
4.7620001 0.48117012 0.27810866 0
4.7610002 0.47318286 0.27813751 0
4.7600002 0.46519923 0.27816635 0
4.7610002 0.45745009 0.27813751 0
4.7630005 0.44981098 0.27807975 0
4.7670002 0.44238827 0.27796432 0
4.7720003 0.43506122 0.27782002 0
4.9040003 0.27897409 0.27401036 0
4.9020004 0.27070907 0.27406812 0
4.9010005 0.26251975 0.27409697 0
4.9010005 0.25440082 0.27409697 0
4.9030004 0.24641174 0.27403924 0
4.9060001 0.2384786 0.27395266 0
4.9110003 0.23065728 0.27380836 0
4.9110003 0.58054739 0.26567137 0
4.7660003 0.48952901 0.27011776 0
4.7620001 0.48117012 0.27024043 0
4.7610002 0.47318286 0.27027109 0
4.7600002 0.46519923 0.27030176 0
4.7610002 0.45745009 0.27027109 0
4.7630005 0.44981098 0.27020973 0
4.7670002 0.44238827 0.27008712 0
4.7720003 0.43506122 0.26993376 0
4.9040003 0.27897409 0.26588601 0
4.9020004 0.27070907 0.26594734 0
4.9010005 0.26251975 0.26597801 0
4.9010005 0.25440082 0.26597801 0
4.9030004 0.24641174 0.26591671 0
4.9060001 0.2384786 0.26582471 0
4.9110003 0.23065728 0.26567137 0
4.9110003 0.58054739 0.25753438 0
4.7660003 0.48952901 0.26224232 0
4.7620001 0.48117012 0.2623722 0
4.7610002 0.47318286 0.26240468 0
4.7600002 0.46519923 0.26243716 0
4.7610002 0.45745009 0.26240468 0
4.7630005 0.44981098 0.26233974 0
4.7670002 0.44238827 0.26220986 0
4.7720003 0.43506122 0.26204753 0
4.9040003 0.27897409 0.25776166 0
4.9020004 0.27070907 0.25782663 0
4.9010005 0.26251975 0.25785908 0
4.9010005 0.25440082 0.25785908 0
4.9030004 0.24641174 0.25779414 0
4.9060001 0.2384786 0.25769675 0
4.9110003 0.23065728 0.25753438 0
4.9110003 0.58054739 0.24939743 0
4.7660003 0.48952901 0.2543669 0
4.7620001 0.48117012 0.25450402 0
4.7610002 0.47318286 0.25453827 0
4.7600002 0.46519923 0.25457254 0
4.7610002 0.45745009 0.25453827 0
4.7630005 0.44981098 0.25446969 0
4.7670002 0.44238827 0.25433266 0
4.7720003 0.43506122 0.2541613 0
4.9040003 0.27897409 0.24963732 0
4.9020004 0.27070907 0.24970585 0
4.9010005 0.26251975 0.24974014 0
4.9010005 0.25440082 0.24974014 0
4.9030004 0.24641174 0.24967159 0
4.9060001 0.2384786 0.24956879 0
4.9110003 0.23065728 0.24939743 0
4.9110003 0.58054739 0.24126044 0
4.7660003 0.48952901 0.24649148 0
4.7620001 0.48117012 0.24663579 0
4.7610002 0.47318286 0.24667187 0
4.7600002 0.46519923 0.24670793 0
4.7610002 0.45745009 0.24667187 0
4.7630005 0.44981098 0.2465997 0
4.7670002 0.44238827 0.2464554 0
4.7720003 0.43506122 0.24627502 0
4.9040003 0.27897409 0.24151297 0
4.9020004 0.27070907 0.24158511 0
4.9010005 0.26251975 0.2416212 0
4.9010005 0.25440082 0.2416212 0
4.9030004 0.24641174 0.24154904 0
4.9060001 0.2384786 0.24144082 0
4.9110003 0.23065728 0.24126044 0
4.9110003 0.58054739 0.23312347 0
4.7660003 0.48952901 0.23861605 0
4.7620001 0.48117012 0.23876758 0
4.7610002 0.47318286 0.23880546 0
4.7600002 0.46519923 0.23884334 0
4.7610002 0.45745009 0.23880546 0
4.7630005 0.44981098 0.23872969 0
4.7670002 0.44238827 0.23857819 0
4.7720003 0.43506122 0.23838878 0
4.9040003 0.27897409 0.23338862 0
4.9020004 0.27070907 0.23346438 0
4.9010005 0.26251975 0.23350224 0
4.9010005 0.25440082 0.23350224 0
4.9030004 0.24641174 0.2334265 0
4.9060001 0.2384786 0.23331286 0
4.9110003 0.23065728 0.23312347 0
4.9110003 0.58054739 0.22498648 0
4.7660003 0.48952901 0.23074064 0
4.7620001 0.48117012 0.23089938 0
4.7610002 0.47318286 0.23093905 0
4.7600002 0.46519923 0.23097873 0
4.7610002 0.45745009 0.23093905 0
4.7630005 0.44981098 0.23085967 0
4.7670002 0.44238827 0.23070094 0
4.7720003 0.43506122 0.23050252 0
4.9040003 0.27897409 0.22526427 0
4.9020004 0.27070907 0.22534363 0
4.9010005 0.26251975 0.22538331 0
4.9010005 0.25440082 0.22538331 0
4.9030004 0.24641174 0.22530393 0
4.9060001 0.2384786 0.2251849 0
4.9110003 0.23065728 0.22498648 0
4.9110003 0.58054739 0.21684949 0
4.7660003 0.48952901 0.22286519 0
4.7620001 0.48117012 0.22303116 0
4.7610002 0.47318286 0.22307265 0
4.7600002 0.46519923 0.22311412 0
4.7610002 0.45745009 0.22307265 0
4.7630005 0.44981098 0.22298966 0
4.7670002 0.44238827 0.22282371 0
4.7720003 0.43506122 0.22261627 0
4.9040003 0.27897409 0.21713991 0
4.9020004 0.27070907 0.21722288 0
4.9010005 0.26251975 0.21726437 0
4.9010005 0.25440082 0.21726437 0
4.9030004 0.24641174 0.2171814 0
4.9060001 0.2384786 0.21705694 0
4.9110003 0.23065728 0.21684949 0
4.9110003 0.58054739 0.20871252 0
4.7660003 0.48952901 0.21498977 0
4.7620001 0.48117012 0.21516295 0
4.7610002 0.47318286 0.21520624 0
4.7600002 0.46519923 0.21524952 0
4.7610002 0.45745009 0.21520624 0
4.7630005 0.44981098 0.21511964 0
4.7670002 0.44238827 0.21494649 0
4.7720003 0.43506122 0.21473001 0
4.9040003 0.27897409 0.20901555 0
4.9020004 0.27070907 0.20910214 0
4.9010005 0.26251975 0.20914543 0
4.9010005 0.25440082 0.20914543 0
4.9030004 0.24641174 0.20905885 0
4.9060001 0.2384786 0.20892899 0
4.9110003 0.23065728 0.20871252 0
4.9110003 0.58054739 0.20057555 0
4.7660003 0.48952901 0.20711435 0
4.7620001 0.48117012 0.20729473 0
4.7610002 0.47318286 0.20733982 0
4.7600002 0.46519923 0.20738493 0
4.7610002 0.45745009 0.20733982 0
4.7630005 0.44981098 0.20724961 0
4.7670002 0.44238827 0.20706925 0
4.7720003 0.43506122 0.20684378 0
4.9040003 0.27897409 0.20089121 0
4.9020004 0.27070907 0.20098139 0
4.9010005 0.26251975 0.20102648 0
4.9010005 0.25440082 0.20102648 0
4.9030004 0.24641174 0.2009363 0
4.9060001 0.2384786 0.20080103 0
4.9110003 0.23065728 0.20057555 0
4.9110003 0.58054739 0.19243857 0
4.7660003 0.48952901 0.19923891 0
4.7620001 0.48117012 0.19942652 0
4.7610002 0.47318286 0.19947343 0
4.7600002 0.46519923 0.19952032 0
4.7610002 0.45745009 0.19947343 0
4.7630005 0.44981098 0.19937961 0
4.7670002 0.44238827 0.19919203 0
4.7720003 0.43506122 0.19895753 0
4.9040003 0.27897409 0.19276686 0
4.9020004 0.27070907 0.19286065 0
4.9010005 0.26251975 0.19290754 0
4.9010005 0.25440082 0.19290754 0
4.9030004 0.24641174 0.19281375 0
4.9060001 0.2384786 0.19267307 0
4.9110003 0.23065728 0.19243857 0
4.9110003 0.58054739 0.18430158 0
4.7660003 0.48952901 0.1913635 0
4.7620001 0.48117012 0.19155832 0
4.7610002 0.47318286 0.19160701 0
4.7600002 0.46519923 0.19165571 0
4.7610002 0.45745009 0.19160701 0
4.7630005 0.44981098 0.19150959 0
4.7670002 0.44238827 0.19131479 0
4.7720003 0.43506122 0.19107127 0
4.9040003 0.27897409 0.18464251 0
4.9020004 0.27070907 0.1847399 0
4.9010005 0.26251975 0.1847886 0
4.9010005 0.25440082 0.1847886 0
4.9030004 0.24641174 0.18469121 0
4.9060001 0.2384786 0.1845451 0
4.9110003 0.23065728 0.18430158 0
4.9110003 0.58054739 0.1761646 0
4.7660003 0.48952901 0.18348807 0
4.7620001 0.48117012 0.1836901 0
4.7610002 0.47318286 0.1837406 0
4.7600002 0.46519923 0.18379112 0
4.7610002 0.45745009 0.1837406 0
4.7630005 0.44981098 0.18363959 0
4.7670002 0.44238827 0.18343757 0
4.7720003 0.43506122 0.18318503 0
4.9040003 0.27897409 0.17651814 0
4.9020004 0.27070907 0.17661916 0
4.9010005 0.26251975 0.17666966 0
4.9010005 0.25440082 0.17666966 0
4.9030004 0.24641174 0.17656866 0
4.9060001 0.2384786 0.17641714 0
4.9110003 0.23065728 0.1761646 0
4.9110003 0.58054739 0.16802764 0
4.7660003 0.48952901 0.17561264 0
4.7620001 0.48117012 0.17582189 0
4.7610002 0.47318286 0.1758742 0
4.7600002 0.46519923 0.17592651 0
4.7610002 0.45745009 0.1758742 0
4.7630005 0.44981098 0.17576957 0
4.7670002 0.44238827 0.17556033 0
4.7720003 0.43506122 0.17529877 0
4.9040003 0.27897409 0.16839379 0
4.9020004 0.27070907 0.16849841 0
4.9010005 0.26251975 0.16855073 0
4.9010005 0.25440082 0.16855073 0
4.9030004 0.24641174 0.16844611 0
4.9060001 0.2384786 0.1682892 0
4.9110003 0.23065728 0.16802764 0
4.9110003 0.58054739 0.15989065 0
4.7660003 0.48952901 0.1677372 0
4.7620001 0.48117012 0.16795368 0
4.7610002 0.47318286 0.16800779 0
4.7600002 0.46519923 0.1680619 0
4.7610002 0.45745009 0.16800779 0
4.7630005 0.44981098 0.16789953 0
4.7670002 0.44238827 0.16768309 0
4.7720003 0.43506122 0.16741253 0
4.9040003 0.27897409 0.16026944 0
4.9020004 0.27070907 0.16037767 0
4.9010005 0.26251975 0.16043177 0
4.9010005 0.25440082 0.16043177 0
4.9030004 0.24641174 0.16032355 0
4.9060001 0.2384786 0.16016121 0
4.9110003 0.23065728 0.15989065 0
4.9110003 0.58054739 0.15175366 0
4.7660003 0.48952901 0.15986179 0
4.7620001 0.48117012 0.16008547 0
4.7610002 0.47318286 0.16014136 0
4.7600002 0.46519923 0.1601973 0
4.7610002 0.45745009 0.16014136 0
4.7630005 0.44981098 0.16002955 0
4.7670002 0.44238827 0.15980588 0
4.7720003 0.43506122 0.15952626 0
4.9040003 0.27897409 0.15214509 0
4.9020004 0.27070907 0.15225691 0
4.9010005 0.26251975 0.15231284 0
4.9010005 0.25440082 0.15231284 0
4.9030004 0.24641174 0.15220103 0
4.9060001 0.2384786 0.15203327 0
4.9110003 0.23065728 0.15175366 0
4.9110003 0.58054739 0.14361671 0
4.7660003 0.48952901 0.15198636 0
4.7620001 0.48117012 0.15221727 0
4.7610002 0.47318286 0.15227497 0
4.7600002 0.46519923 0.15233269 0
4.7610002 0.45745009 0.15227497 0
4.7630005 0.44981098 0.15215951 0
4.7670002 0.44238827 0.15192863 0
4.7720003 0.43506122 0.15164003 0
4.9040003 0.27897409 0.14402074 0
4.9020004 0.27070907 0.14413619 0
4.9010005 0.26251975 0.14419389 0
4.9010005 0.25440082 0.14419389 0
4.9030004 0.24641174 0.14407846 0
4.9060001 0.2384786 0.14390531 0
4.9110003 0.23065728 0.14361671 0
4.9110003 0.58054739 0.13547972 0
4.7660003 0.48952901 0.14411095 0
4.7620001 0.48117012 0.14434904 0
4.7610002 0.47318286 0.14440858 0
4.7600002 0.46519923 0.1444681 0
4.7610002 0.45745009 0.14440858 0
4.7630005 0.44981098 0.14428949 0
4.7670002 0.44238827 0.1440514 0
4.7720003 0.43506122 0.1437538 0
4.9040003 0.27897409 0.13589638 0
4.9020004 0.27070907 0.13601544 0
4.9010005 0.26251975 0.13607493 0
4.9010005 0.25440082 0.13607493 0
4.9030004 0.24641174 0.1359559 0
4.9060001 0.2384786 0.13577735 0
4.9110003 0.23065728 0.13547972 0
4.9110003 0.58054739 0.12734273 0
4.7660003 0.48952901 0.13623551 0
4.7620001 0.48117012 0.13648084 0
4.7610002 0.47318286 0.13654217 0
4.7600002 0.46519923 0.13660347 0
4.7610002 0.45745009 0.13654217 0
4.7630005 0.44981098 0.13641948 0
4.7670002 0.44238827 0.1361742 0
4.7720003 0.43506122 0.13586754 0
4.9040003 0.27897409 0.12777203 0
4.9020004 0.27070907 0.1278947 0
4.9010005 0.26251975 0.127956 0
4.9010005 0.25440082 0.127956 0
4.9030004 0.24641174 0.12783337 0
4.9060001 0.2384786 0.1276494 0
4.9110003 0.23065728 0.12734273 0
4.9110003 0.58054739 0.11920574 0
4.7660003 0.48952901 0.12836006 0
4.7620001 0.48117012 0.12861264 0
4.7610002 0.47318286 0.12867573 0
4.7600002 0.46519923 0.12873888 0
4.7610002 0.45745009 0.12867573 0
4.7630005 0.44981098 0.12854946 0
4.7670002 0.44238827 0.12829694 0
4.7720003 0.43506122 0.12798128 0
4.9040003 0.27897409 0.11964771 0
4.9020004 0.27070907 0.11977395 0
4.9010005 0.26251975 0.11983708 0
4.9010005 0.25440082 0.11983708 0
4.9030004 0.24641174 0.1197108 0
4.9060001 0.2384786 0.11952141 0
4.9110003 0.23065728 0.11920574 0
4.9110003 0.58054739 0.11106876 0
4.7660003 0.48952901 0.12048465 0
4.7620001 0.48117012 0.12074441 0
4.7610002 0.47318286 0.12080935 0
4.7600002 0.46519923 0.12087429 0
4.7610002 0.45745009 0.12080935 0
4.7630005 0.44981098 0.12067947 0
4.7670002 0.44238827 0.12041971 0
4.7720003 0.43506122 0.12009501 0
4.9040003 0.27897409 0.11152333 0
4.9020004 0.27070907 0.11165321 0
4.9010005 0.26251975 0.11171815 0
4.9010005 0.25440082 0.11171815 0
4.9030004 0.24641174 0.11158827 0
4.9060001 0.2384786 0.11139345 0
4.9110003 0.58054739 0.1029318 0
4.7660003 0.48952901 0.11260924 0
4.7620001 0.48117012 0.11287621 0
4.7610002 0.47318286 0.11294296 0
4.7600002 0.46519923 0.11300966 0
4.7610002 0.45745009 0.11294296 0
4.7630005 0.44981098 0.11280942 0
4.7670002 0.44238827 0.11254248 0
4.7720003 0.43506122 0.11220878 0
4.9040003 0.27897409 0.10339898 0
4.9020004 0.27070907 0.10353246 0
4.9010005 0.26251975 0.10359919 0
4.9010005 0.25440082 0.10359919 0
4.9030004 0.24641174 0.10346571 0
4.9060001 0.2384786 0.10326552 0
4.9110003 0.58054739 0.09479484 0
4.7660003 0.48952901 0.10473379 0
4.7620001 0.48117012 0.10500801 0
4.7610002 0.47318286 0.10507652 0
4.7600002 0.46519923 0.10514507 0
4.7610002 0.45745009 0.10507652 0
4.7630005 0.44981098 0.1049394 0
4.7670002 0.44238827 0.10466528 0
4.7720003 0.43506122 0.10432255 0
4.9040003 0.27897409 0.095274627 0
4.9020004 0.27070907 0.095411688 0
4.9010005 0.26251975 0.095480263 0
4.9010005 0.25440082 0.095480263 0
4.9030004 0.24641174 0.095343173 0
4.9110003 0.58054739 0.086657852 0
4.7660003 0.48952901 0.096858382 0
4.7620001 0.48117012 0.097139776 0
4.7610002 0.47318286 0.097210109 0
4.7600002 0.46519923 0.097280473 0
4.7610002 0.45745009 0.097210109 0
4.7630005 0.44981098 0.097069412 0
4.7670002 0.44238827 0.096788019 0
4.9020004 0.27070907 0.087290943 0
4.9010005 0.26251975 0.087361306 0
4.9010005 0.25440082 0.087361306 0
4.9110003 0.58054739 0.078520864 0
4.7620001 0.48117012 0.089271575 0
4.7610002 0.47318286 0.089343727 0
4.7600002 0.46519923 0.089415848 0
4.7610002 0.45745009 0.089343727 0
4.7630005 0.44981098 0.089199394 0
4.9110003 0.58054739 0.070383877 0
