# .PCD v0.7 - Point Cloud Data file format
VERSION 0.7
FIELDS x y z intensity
SIZE 4 4 4 4
TYPE F F F F
COUNT 1 1 1 1
WIDTH 1432
HEIGHT 1
VIEWPOINT 0 0 0 1 0 0 0
POINTS 1432
DATA ascii
2.8770003 -1.1540723 1.3959033 0
2.8770003 -1.1585402 1.3959033 0
2.8760002 -1.1625572 1.3955028 0
2.8750002 -1.1665708 1.3951024 0
2.8750002 -1.1710352 1.3951024 0
2.8740003 -1.1750433 1.394702 0
2.8730001 -1.1790477 1.3943015 0
2.8720002 -1.1830486 1.3939011 0
2.8720002 -1.1875076 1.3939011 0
2.8710003 -1.191503 1.3935008 0
2.8700001 -1.1954948 1.3931003 0
2.8700001 -1.1999501 1.3931003 0
2.8690002 -1.2039366 1.3926998 0
2.8680003 -1.2079196 1.3922994 0
2.8670001 -1.2118986 1.3918989 0
2.8670001 -1.2163485 1.3918989 0
2.8660002 -1.2203225 1.3914984 0
2.8650002 -1.2242926 1.391098 0
2.8650002 -1.228739 1.391098 0
2.8640003 -1.2327038 1.3906976 0
2.8630002 -1.236665 1.3902971 0
2.8620002 -1.2406225 1.3898966 0
2.8620002 -1.2450635 1.3898966 0
2.8610003 -1.2490157 1.3894962 0
2.8600001 -1.2529641 1.3890957 0
2.8600001 -1.2574015 1.3890957 0
2.8590002 -1.2613447 1.3886952 0
2.8580003 -1.2652843 1.3882948 0
2.8580003 -1.2697181 1.3882948 0
2.8570001 -1.273652 1.3878944 0
2.8560002 -1.2775825 1.387494 0
2.8550003 -1.2815095 1.3870935 0
2.8550003 -1.2859378 1.3870935 0
2.8540003 -1.2898593 1.3866931 0
2.8530002 -1.2937771 1.3862927 0
2.8530002 -1.2982019 1.3862927 0
2.8520002 -1.3021144 1.3858923 0
2.8510003 -1.3060232 1.3854918 0
2.8510003 -1.3104444 1.3854918 0
2.8500001 -1.3143477 1.3850913 0
2.8490002 -1.3182476 1.3846909 0
2.8480003 -1.3221438 1.3842905 0
2.8480003 -1.3265595 1.3842905 0
2.8470001 -1.3304503 1.3838899 0
2.8460002 -1.3343376 1.3834895 0
2.8460002 -1.3387496 1.3834895 0
2.8450003 -1.3426316 1.3830891 0
2.8440001 -1.3465096 1.3826885 0
2.8440001 -1.3509182 1.3826885 0
2.8430002 -1.3547909 1.3822882 0
2.8420002 -1.3586602 1.3818878 0
2.8410003 -1.3625257 1.3814874 0
2.8410003 -1.3669288 1.3814874 0
2.8400002 -1.3707888 1.3810868 0
2.8390002 -1.3746455 1.3806864 0
2.8390002 -1.3790449 1.3806864 0
2.8380003 -1.3828961 1.380286 0
2.8370001 -1.3867435 1.3798856 0
2.8370001 -1.3911394 1.3798856 0
2.8360002 -1.3949816 1.3794851 0
2.8350003 -1.3988202 1.3790847 0
2.8350003 -1.4032124 1.3790847 0
2.8340001 -1.4070454 1.3786842 0
2.8330002 -1.410875 1.3782837 0
2.8320003 -1.4147009 1.3778833 0
2.8320003 -1.4190878 1.3778833 0
2.8310003 -1.4229082 1.3774829 0
2.8300002 -1.426725 1.3770823 0
2.8300002 -1.4311082 1.3770823 0
2.8290002 -1.4349197 1.3766819 0
3.0040002 -0.42176932 1.4420627 0
3.0030003 -0.42632034 1.4416642 0
3.0020003 -0.43086776 1.4412656 0
3.0010002 -0.43541154 1.4408669 0
3.0000002 -0.43995172 1.4404683 0
3.0000002 -0.44464162 1.4404683 0
2.9990003 -0.44917643 1.4400696 0
2.9980001 -0.45370755 1.4396709 0
2.9970002 -0.45823511 1.4392723 0
2.9960003 -0.46275908 1.4388738 0
2.9960003 -0.46744177 1.4388738 0
2.9950001 -0.47196028 1.438475 0
2.9940002 -0.47647524 1.4380765 0
2.9930003 -0.48098657 1.4376777 0
2.9930003 -0.48566383 1.4376777 0
2.9920001 -0.49016973 1.4372791 0
2.9910002 -0.49467203 1.4368805 0
2.9900002 -0.49917075 1.4364818 0
2.9890003 -0.5036658 1.4360833 0
2.9890003 -0.50833595 1.4360833 0
2.9880002 -0.51282555 1.4356846 0
2.9870002 -0.51731163 1.4352859 0
2.9860003 -0.52179414 1.4348873 0
2.9850001 -0.52627295 1.4344887 0
2.9850001 -0.53093576 1.4344887 0
2.9840002 -0.53540921 1.43409 0
2.9830003 -0.53987914 1.4336914 0
2.9820001 -0.54434526 1.4332926 0
2.9820001 -0.54900271 1.4332926 0
2.9810002 -0.55346358 1.432894 0
2.9800003 -0.55792081 1.4324955 0
2.9790003 -0.56237435 1.4320968 0
2.9790003 -0.56702644 1.4320968 0
2.9780002 -0.57147455 1.4316982 0
2.9770002 -0.57591915 1.4312994 0
2.9760003 -0.58036017 1.4309008 0
2.9750001 -0.5847975 1.4305022 0
2.9750001 -0.58944231 1.4305022 0
2.9740002 -0.59387428 1.4301035 0
2.9730003 -0.5983026 1.429705 0
2.9720001 -0.60272735 1.4293063 0
2.9720001 -0.60736674 1.4293063 0
2.9710002 -0.61178613 1.4289076 0
2.9700003 -0.61620182 1.428509 0
2.9690001 -0.62061393 1.4281104 0
2.9680002 -0.62502241 1.4277117 0
2.9680002 -0.62965465 1.4277117 0
2.9670002 -0.63405776 1.4273131 0
2.9660003 -0.63845724 1.4269145 0
2.9650002 -0.64285308 1.4265157 0
2.9650002 -0.64747983 1.4265157 0
2.9640002 -0.65187031 1.4261172 0
2.9630003 -0.65625721 1.4257185 0
2.9620001 -0.66064042 1.4253199 0
2.9620001 -0.66526181 1.4253199 0
2.9610002 -0.66963965 1.4249213 0
2.9600003 -0.67401391 1.4245225 0
2.9590001 -0.67838448 1.4241239 0
2.9590001 -0.68300045 1.4241239 0
2.9580002 -0.68736565 1.4237252 0
2.9570003 -0.69172728 1.4233267 0
2.9560003 -0.69608527 1.4229281 0
2.9550002 -0.70043963 1.4225293 0
2.9550002 -0.70504838 1.4225293 0
2.9540002 -0.70939744 1.4221307 0
2.9530003 -0.71374279 1.4217322 0
2.9520001 -0.71808451 1.4213334 0
2.9520001 -0.72268784 1.4213334 0
2.9510002 -0.7270242 1.4209348 0
2.9500003 -0.73135698 1.4205362 0
2.9490001 -0.73568606 1.4201374 0
2.9490001 -0.74028397 1.4201374 0
2.9480002 -0.74460775 1.4197389 0
2.9470003 -0.74892789 1.4193403 0
2.9460001 -0.75324434 1.4189416 0
2.9460001 -0.75783682 1.4189416 0
2.9450002 -0.76214796 1.418543 0
2.9440002 -0.76645547 1.4181443 0
2.9430003 -0.77075934 1.4177457 0
2.9430003 -0.77534646 1.4177457 0
2.9420002 -0.77964485 1.417347 0
2.9410002 -0.78393972 1.4169484 0
2.9400003 -0.78823107 1.4165498 0
2.9400003 -0.79281271 1.4165498 0
2.9390001 -0.79709852 1.416151 0
2.9380002 -0.80138075 1.4157524 0
2.9370003 -0.80565941 1.4153539 0
2.9370003 -0.81023568 1.4153539 0
2.9360001 -0.81450886 1.4149551 0
2.9350002 -0.81877851 1.4145566 0
2.9340003 -0.82304454 1.414158 0
2.9340003 -0.82761538 1.414158 0
2.9330003 -0.83187598 1.4137592 0
2.9320002 -0.83613294 1.4133606 0
2.9310002 -0.84038633 1.412962 0
2.9310002 -0.84495175 1.412962 0
2.9300003 -0.84919977 1.4125634 0
2.9290001 -0.85344404 1.4121647 0
2.9280002 -0.85768485 1.4117661 0
2.9280002 -0.8622449 1.4117661 0
2.9270003 -0.86648029 1.4113674 0
2.9260001 -0.87071192 1.4109688 0
2.9250002 -0.8749401 1.4105701 0
2.9250002 -0.87949467 1.4105701 0
2.9240003 -0.88371742 1.4101715 0
2.9230001 -0.88793647 1.4097729 0
2.9220002 -0.89215201 1.4093741 0
2.9220002 -0.89670122 1.4093741 0
2.9210002 -0.90091133 1.4089756 0
2.9200003 -0.90511781 1.408577 0
2.9200003 -0.90966344 1.408577 0
2.9190001 -0.91386443 1.4081783 0
2.9180002 -0.91806191 1.4077797 0
2.9170003 -0.92225581 1.4073809 0
2.9170003 -0.92679596 1.4073809 0
2.9160001 -0.93098438 1.4069823 0
2.9150002 -0.93516928 1.4065837 0
2.9140003 -0.93935049 1.4061852 0
2.9140003 -0.94388527 1.4061852 0
2.9130001 -0.94806099 1.4057864 0
2.9120002 -0.95223325 1.4053878 0
2.9110003 -0.95640188 1.4049891 0
2.9110003 -0.96093124 1.4049891 0
2.9100003 -0.96509445 1.4045905 0
2.9090002 -0.96925396 1.4041919 0
2.9080002 -0.97340995 1.4037932 0
2.9080002 -0.97793388 1.4037932 0
2.9070003 -0.98208451 1.4033946 0
2.9060001 -0.98623139 1.4029958 0
2.9060001 -0.9907518 1.4029958 0
2.9050002 -0.99489337 1.4025973 0
2.9040003 -0.99903131 1.4021987 0
2.9030001 -1.0031655 1.4018 0
2.9030001 -1.0076804 1.4018 0
2.9020002 -1.0118095 1.4014013 0
2.9010003 -1.0159347 1.4010026 0
2.9000001 -1.0200564 1.400604 0
2.9000001 -1.0245659 1.400604 0
2.8990002 -1.0286822 1.4002054 0
2.8980002 -1.0327948 1.3998069 0
2.8980002 -1.0373009 1.3998069 0
2.8970003 -1.0414081 1.3994081 0
2.8960001 -1.0455117 1.3990095 0
2.8950002 -1.0496118 1.3986108 0
2.8950002 -1.0541123 1.3986108 0
2.8940003 -1.058207 1.3982123 0
2.8930001 -1.0622981 1.3978136 0
2.8920002 -1.0663855 1.3974149 0
2.8920002 -1.0708805 1.3974149 0
2.8910003 -1.0749626 1.3970163 0
2.8900001 -1.079041 1.3966175 0
2.8900001 -1.0835325 1.3966175 0
2.8890002 -1.0876054 1.396219 0
2.8880002 -1.0916749 1.3958204 0
2.8870003 -1.0957407 1.3954219 0
2.8870003 -1.1002268 1.3954219 0
2.8860002 -1.1042871 1.395023 0
2.8850002 -1.1083438 1.3946245 0
2.8850002 -1.1128263 1.3946245 0
2.8840003 -1.1168777 1.3942258 0
2.8830001 -1.1209253 1.3938271 0
2.8820002 -1.1249696 1.3934286 0
2.8820002 -1.1294466 1.3934286 0
2.8810003 -1.1334853 1.3930299 0
2.8800001 -1.1375204 1.3926312 0
2.8800001 -1.1419938 1.3926312 0
2.8790002 -1.1460236 1.3922325 0
2.8780003 -1.1500497 1.391834 0
2.8770003 -1.1540723 1.3914354 0
2.8770003 -1.1585402 1.3914354 0
2.8760002 -1.1625572 1.3910367 0
2.8750002 -1.1665708 1.390638 0
2.8750002 -1.1710352 1.390638 0
2.8740003 -1.1750433 1.3902394 0
2.8730001 -1.1790477 1.3898407 0
2.8720002 -1.1830486 1.3894421 0
2.8720002 -1.1875076 1.3894421 0
2.8710003 -1.191503 1.3890436 0
2.8700001 -1.1954948 1.3886448 0
2.8700001 -1.1999501 1.3886448 0
2.8690002 -1.2039366 1.3882462 0
2.8680003 -1.2079196 1.3878475 0
2.8670001 -1.2118986 1.3874489 0
2.8670001 -1.2163485 1.3874489 0
2.8660002 -1.2203225 1.3870503 0
2.8650002 -1.2242926 1.3866516 0
2.8650002 -1.228739 1.3866516 0
2.8640003 -1.2327038 1.386253 0
2.8630002 -1.236665 1.3858542 0
2.8620002 -1.2406225 1.3854557 0
2.8620002 -1.2450635 1.3854557 0
2.8610003 -1.2490157 1.3850571 0
2.8600001 -1.2529641 1.3846585 0
2.8600001 -1.2574015 1.3846585 0
2.8590002 -1.2613447 1.3842597 0
2.8580003 -1.2652843 1.3838611 0
2.8580003 -1.2697181 1.3838611 0
2.8570001 -1.273652 1.3834624 0
2.8560002 -1.2775825 1.3830638 0
2.8550003 -1.2815095 1.3826653 0
2.8550003 -1.2859378 1.3826653 0
2.8540003 -1.2898593 1.3822666 0
2.8530002 -1.2937771 1.3818679 0
2.8530002 -1.2982019 1.3818679 0
2.8520002 -1.3021144 1.3814692 0
2.8510003 -1.3060232 1.3810706 0
2.8510003 -1.3104444 1.3810706 0
2.8500001 -1.3143477 1.380672 0
2.8490002 -1.3182476 1.3802733 0
2.8480003 -1.3221438 1.3798747 0
2.8480003 -1.3265595 1.3798747 0
2.8470001 -1.3304503 1.379476 0
2.8460002 -1.3343376 1.3790774 0
2.8460002 -1.3387496 1.3790774 0
2.8450003 -1.3426316 1.3786788 0
2.8440001 -1.3465096 1.3782802 0
2.8440001 -1.3509182 1.3782802 0
2.8430002 -1.3547909 1.3778815 0
2.8420002 -1.3586602 1.3774828 0
2.8410003 -1.3625257 1.3770843 0
2.8410003 -1.3669288 1.3770843 0
2.8400002 -1.3707888 1.3766855 0
2.8390002 -1.3746455 1.376287 0
2.8390002 -1.3790449 1.376287 0
2.8380003 -1.3828961 1.3758883 0
2.8370001 -1.3867435 1.3754896 0
2.8370001 -1.3911394 1.3754896 0
2.8360002 -1.3949816 1.375091 0
2.8350003 -1.3988202 1.3746923 0
2.8350003 -1.4032124 1.3746923 0
2.8340001 -1.4070454 1.3742937 0
2.8330002 -1.410875 1.373895 0
2.8320003 -1.4147009 1.3734964 0
2.8320003 -1.4190878 1.3734964 0
2.8310003 -1.4229082 1.3730978 0
2.8300002 -1.426725 1.3726991 0
2.8300002 -1.4311082 1.3726991 0
2.8290002 -1.4349197 1.3723005 0
3.0040002 -0.42176932 1.4373657 0
3.0030003 -0.42632034 1.4369689 0
3.0020003 -0.43086776 1.4365721 0
3.0010002 -0.43541154 1.4361752 0
3.0000002 -0.43995172 1.4357784 0
3.0000002 -0.44464162 1.4357784 0
2.9990003 -0.44917643 1.4353815 0
2.9980001 -0.45370755 1.4349846 0
2.9970002 -0.45823511 1.4345878 0
2.9960003 -0.46275908 1.4341911 0
2.9960003 -0.46744177 1.4341911 0
2.9950001 -0.47196028 1.4337941 0
2.9940002 -0.47647524 1.4333973 0
2.9930003 -0.48098657 1.4330004 0
2.9930003 -0.48566383 1.4330004 0
2.9920001 -0.49016973 1.4326036 0
2.9910002 -0.49467203 1.4322067 0
2.9900002 -0.49917075 1.43181 0
2.9890003 -0.5036658 1.4314132 0
2.9890003 -0.50833595 1.4314132 0
2.9880002 -0.51282555 1.4310162 0
2.9870002 -0.51731163 1.4306195 0
2.9860003 -0.52179414 1.4302226 0
2.9850001 -0.52627295 1.4298258 0
2.9850001 -0.53093576 1.4298258 0
2.9840002 -0.53540921 1.4294289 0
2.9830003 -0.53987914 1.4290321 0
2.9820001 -0.54434526 1.4286352 0
2.9820001 -0.54900271 1.4286352 0
2.9810002 -0.55346358 1.4282384 0
2.9800003 -0.55792081 1.4278417 0
2.9790003 -0.56237435 1.4274448 0
2.9790003 -0.56702644 1.4274448 0
2.9780002 -0.57147455 1.427048 0
2.9770002 -0.57591915 1.426651 0
2.9760003 -0.58036017 1.4262543 0
2.9750001 -0.5847975 1.4258573 0
2.9750001 -0.58944231 1.4258573 0
2.9740002 -0.59387428 1.4254606 0
2.9730003 -0.5983026 1.4250638 0
2.9720001 -0.60272735 1.4246669 0
2.9720001 -0.60736674 1.4246669 0
2.9710002 -0.61178613 1.42427 0
2.9700003 -0.61620182 1.4238732 0
2.9690001 -0.62061393 1.4234763 0
2.9680002 -0.62502241 1.4230795 0
2.9680002 -0.62965465 1.4230795 0
2.9670002 -0.63405776 1.4226828 0
2.9660003 -0.63845724 1.4222858 0
2.9650002 -0.64285308 1.4218889 0
2.9650002 -0.64747983 1.4218889 0
2.9640002 -0.65187031 1.4214922 0
2.9630003 -0.65625721 1.4210954 0
2.9620001 -0.66064042 1.4206985 0
2.9620001 -0.66526181 1.4206985 0
2.9610002 -0.66963965 1.4203017 0
2.9600003 -0.67401391 1.4199048 0
2.9590001 -0.67838448 1.4195079 0
2.9590001 -0.68300045 1.4195079 0
2.9580002 -0.68736565 1.4191111 0
2.9570003 -0.69172728 1.4187144 0
2.9560003 -0.69608527 1.4183176 0
2.9550002 -0.70043963 1.4179207 0
2.9550002 -0.70504838 1.4179207 0
2.9540002 -0.70939744 1.4175237 0
2.9530003 -0.71374279 1.417127 0
2.9520001 -0.71808451 1.41673 0
2.9520001 -0.72268784 1.41673 0
2.9510002 -0.7270242 1.4163333 0
2.9500003 -0.73135698 1.4159365 0
2.9490001 -0.73568606 1.4155396 0
2.9490001 -0.74028397 1.4155396 0
2.9480002 -0.74460775 1.4151428 0
2.9470003 -0.74892789 1.4147459 0
2.9460001 -0.75324434 1.4143491 0
2.9460001 -0.75783682 1.4143491 0
2.9450002 -0.76214796 1.4139522 0
2.9440002 -0.76645547 1.4135555 0
2.9430003 -0.77075934 1.4131585 0
2.9430003 -0.77534646 1.4131585 0
2.9420002 -0.77964485 1.4127617 0
2.9410002 -0.78393972 1.412365 0
2.9400003 -0.78823107 1.4119681 0
2.9400003 -0.79281271 1.4119681 0
2.9390001 -0.79709852 1.4115713 0
2.9380002 -0.80138075 1.4111744 0
2.9370003 -0.80565941 1.4107776 0
2.9370003 -0.81023568 1.4107776 0
2.9360001 -0.81450886 1.4103806 0
2.9350002 -0.81877851 1.4099839 0
2.9340003 -0.82304454 1.409587 0
2.9340003 -0.82761538 1.409587 0
2.9330003 -0.83187598 1.4091903 0
2.9320002 -0.83613294 1.4087934 0
2.9310002 -0.84038633 1.4083965 0
2.9310002 -0.84495175 1.4083965 0
2.9300003 -0.84919977 1.4079998 0
2.9290001 -0.85344404 1.4076028 0
2.9280002 -0.85768485 1.4072061 0
2.9280002 -0.8622449 1.4072061 0
2.9270003 -0.86648029 1.4068092 0
2.9260001 -0.87071192 1.4064124 0
2.9250002 -0.8749401 1.4060155 0
2.9250002 -0.87949467 1.4060155 0
2.9240003 -0.88371742 1.4056187 0
2.9230001 -0.88793647 1.4052218 0
2.9220002 -0.89215201 1.404825 0
2.9220002 -0.89670122 1.404825 0
2.9210002 -0.90091133 1.4044282 0
2.9200003 -0.90511781 1.4040313 0
2.9200003 -0.90966344 1.4040313 0
2.9190001 -0.91386443 1.4036344 0
2.9180002 -0.91806191 1.4032376 0
2.9170003 -0.92225581 1.4028409 0
2.9170003 -0.92679596 1.4028409 0
2.9160001 -0.93098438 1.4024439 0
2.9150002 -0.93516928 1.4020472 0
2.9140003 -0.93935049 1.4016503 0
2.9140003 -0.94388527 1.4016503 0
2.9130001 -0.94806099 1.4012533 0
2.9120002 -0.95223325 1.4008566 0
2.9110003 -0.95640188 1.4004598 0
2.9110003 -0.96093124 1.4004598 0
2.9100003 -0.96509445 1.400063 0
2.9090002 -0.96925396 1.3996661 0
2.9080002 -0.97340995 1.3992692 0
2.9080002 -0.97793388 1.3992692 0
2.9070003 -0.98208451 1.3988724 0
2.9060001 -0.98623139 1.3984755 0
2.9060001 -0.9907518 1.3984755 0
2.9050002 -0.99489337 1.3980788 0
2.9040003 -0.99903131 1.397682 0
2.9030001 -1.0031655 1.3972851 0
2.9030001 -1.0076804 1.3972851 0
2.9020002 -1.0118095 1.3968881 0
2.9010003 -1.0159347 1.3964914 0
2.9000001 -1.0200564 1.3960944 0
2.9000001 -1.0245659 1.3960944 0
2.8990002 -1.0286822 1.3956977 0
2.8980002 -1.0327948 1.395301 0
2.8980002 -1.0373009 1.395301 0
2.8970003 -1.0414081 1.394904 0
2.8960001 -1.0455117 1.3945072 0
2.8950002 -1.0496118 1.3941103 0
2.8950002 -1.0541123 1.3941103 0
2.8940003 -1.058207 1.3937136 0
2.8930001 -1.0622981 1.3933166 0
2.8920002 -1.0663855 1.3929199 0
2.8920002 -1.0708805 1.3929199 0
2.8910003 -1.0749626 1.3925229 0
2.8900001 -1.079041 1.3921261 0
2.8900001 -1.0835325 1.3921261 0
2.8890002 -1.0876054 1.3917294 0
2.8880002 -1.0916749 1.3913325 0
2.8870003 -1.0957407 1.3909358 0
2.8870003 -1.1002268 1.3909358 0
2.8860002 -1.1042871 1.3905388 0
2.8850002 -1.1083438 1.390142 0
2.8850002 -1.1128263 1.390142 0
2.8840003 -1.1168777 1.3897451 0
2.8830001 -1.1209253 1.3893483 0
2.8820002 -1.1249696 1.3889515 0
2.8820002 -1.1294466 1.3889515 0
2.8810003 -1.1334853 1.3885547 0
2.8800001 -1.1375204 1.3881577 0
2.8800001 -1.1419938 1.3881577 0
2.8790002 -1.1460236 1.3877609 0
2.8780003 -1.1500497 1.3873641 0
2.8770003 -1.1540723 1.3869673 0
2.8770003 -1.1585402 1.3869673 0
2.8760002 -1.1625572 1.3865705 0
2.8750002 -1.1665708 1.3861736 0
2.8750002 -1.1710352 1.3861736 0
2.8740003 -1.1750433 1.3857768 0
2.8730001 -1.1790477 1.3853799 0
2.8720002 -1.1830486 1.3849831 0
2.8720002 -1.1875076 1.3849831 0
2.8710003 -1.191503 1.3845863 0
2.8700001 -1.1954948 1.3841894 0
2.8700001 -1.1999501 1.3841894 0
2.8690002 -1.2039366 1.3837925 0
2.8680003 -1.2079196 1.3833957 0
2.8670001 -1.2118986 1.3829988 0
2.8670001 -1.2163485 1.3829988 0
2.8660002 -1.2203225 1.3826021 0
2.8650002 -1.2242926 1.3822052 0
2.8650002 -1.228739 1.3822052 0
2.8640003 -1.2327038 1.3818085 0
2.8630002 -1.236665 1.3814114 0
2.8620002 -1.2406225 1.3810147 0
2.8620002 -1.2450635 1.3810147 0
2.8610003 -1.2490157 1.3806179 0
2.8600001 -1.2529641 1.380221 0
2.8600001 -1.2574015 1.380221 0
2.8590002 -1.2613447 1.3798242 0
2.8580003 -1.2652843 1.3794273 0
2.8580003 -1.2697181 1.3794273 0
2.8570001 -1.273652 1.3790305 0
2.8560002 -1.2775825 1.3786336 0
2.8550003 -1.2815095 1.3782369 0
2.8550003 -1.2859378 1.3782369 0
2.8540003 -1.2898593 1.37784 0
2.8530002 -1.2937771 1.3774432 0
2.8530002 -1.2982019 1.3774432 0
2.8520002 -1.3021144 1.3770462 0
2.8510003 -1.3060232 1.3766495 0
2.8510003 -1.3104444 1.3766495 0
2.8500001 -1.3143477 1.3762527 0
2.8490002 -1.3182476 1.3758558 0
2.8480003 -1.3221438 1.3754591 0
2.8480003 -1.3265595 1.3754591 0
2.8470001 -1.3304503 1.3750621 0
2.8460002 -1.3343376 1.3746653 0
2.8460002 -1.3387496 1.3746653 0
2.8450003 -1.3426316 1.3742684 0
2.8440001 -1.3465096 1.3738716 0
2.8440001 -1.3509182 1.3738716 0
2.8430002 -1.3547909 1.3734748 0
2.8420002 -1.3586602 1.373078 0
2.8410003 -1.3625257 1.3726811 0
2.8410003 -1.3669288 1.3726811 0
2.8400002 -1.3707888 1.3722842 0
2.8390002 -1.3746455 1.3718874 0
2.8390002 -1.3790449 1.3718874 0
2.8380003 -1.3828961 1.3714906 0
2.8370001 -1.3867435 1.3710938 0
2.8370001 -1.3911394 1.3710938 0
2.8360002 -1.3949816 1.3706969 0
2.8350003 -1.3988202 1.3703001 0
2.8350003 -1.4032124 1.3703001 0
2.8340001 -1.4070454 1.3699032 0
2.8330002 -1.410875 1.3695064 0
2.8320003 -1.4147009 1.3691096 0
2.8320003 -1.4190878 1.3691096 0
2.8310003 -1.4229082 1.3687128 0
2.8300002 -1.426725 1.3683159 0
2.8300002 -1.4311082 1.3683159 0
2.8290002 -1.4349197 1.367919 0
3.0040002 -0.42176932 1.4326686 0
3.0030003 -0.42632034 1.4322735 0
3.0020003 -0.43086776 1.4318786 0
3.0010002 -0.43541154 1.4314835 0
3.0000002 -0.43995172 1.4310884 0
3.0000002 -0.44464162 1.4310884 0
2.9990003 -0.44917643 1.4306934 0
2.9980001 -0.45370755 1.4302984 0
2.9970002 -0.45823511 1.4299034 0
2.9960003 -0.46275908 1.4295083 0
2.9960003 -0.46744177 1.4295083 0
2.9950001 -0.47196028 1.4291133 0
2.9940002 -0.47647524 1.4287182 0
2.9930003 -0.48098657 1.4283233 0
2.9930003 -0.48566383 1.4283233 0
2.9920001 -0.49016973 1.4279281 0
2.9910002 -0.49467203 1.4275331 0
2.9900002 -0.49917075 1.4271381 0
2.9890003 -0.5036658 1.426743 0
2.9890003 -0.50833595 1.426743 0
2.9880002 -0.51282555 1.4263481 0
2.9870002 -0.51731163 1.425953 0
2.9860003 -0.52179414 1.425558 0
2.9850001 -0.52627295 1.4251629 0
2.9850001 -0.53093576 1.4251629 0
2.9840002 -0.53540921 1.4247679 0
2.9830003 -0.53987914 1.4243729 0
2.9820001 -0.54434526 1.4239779 0
2.9820001 -0.54900271 1.4239779 0
2.9810002 -0.55346358 1.4235828 0
2.9800003 -0.55792081 1.4231877 0
2.9790003 -0.56237435 1.4227928 0
2.9790003 -0.56702644 1.4227928 0
2.9780002 -0.57147455 1.4223977 0
2.9770002 -0.57591915 1.4220027 0
2.9760003 -0.58036017 1.4216076 0
2.9750001 -0.5847975 1.4212126 0
2.9750001 -0.58944231 1.4212126 0
2.9740002 -0.59387428 1.4208176 0
2.9730003 -0.5983026 1.4204226 0
2.9720001 -0.60272735 1.4200275 0
2.9720001 -0.60736674 1.4200275 0
2.9710002 -0.61178613 1.4196324 0
2.9700003 -0.61620182 1.4192374 0
2.9690001 -0.62061393 1.4188424 0
2.9680002 -0.62502241 1.4184474 0
2.9680002 -0.62965465 1.4184474 0
2.9670002 -0.63405776 1.4180523 0
2.9660003 -0.63845724 1.4176574 0
2.9650002 -0.64285308 1.4172622 0
2.9650002 -0.64747983 1.4172622 0
2.9640002 -0.65187031 1.4168673 0
2.9630003 -0.65625721 1.4164722 0
2.9620001 -0.66064042 1.4160771 0
2.9620001 -0.66526181 1.4160771 0
2.9610002 -0.66963965 1.4156821 0
2.9600003 -0.67401391 1.415287 0
2.9590001 -0.67838448 1.4148921 0
2.9590001 -0.68300045 1.4148921 0
2.9580002 -0.68736565 1.414497 0
2.9570003 -0.69172728 1.414102 0
2.9560003 -0.69608527 1.413707 0
2.9550002 -0.70043963 1.413312 0
2.9550002 -0.70504838 1.413312 0
2.9540002 -0.70939744 1.4129169 0
2.9530003 -0.71374279 1.412522 0
2.9520001 -0.71808451 1.4121268 0
2.9520001 -0.72268784 1.4121268 0
2.9510002 -0.7270242 1.4117317 0
2.9500003 -0.73135698 1.4113368 0
2.9490001 -0.73568606 1.4109417 0
2.9490001 -0.74028397 1.4109417 0
2.9480002 -0.74460775 1.4105467 0
2.9470003 -0.74892789 1.4101516 0
2.9460001 -0.75324434 1.4097565 0
2.9460001 -0.75783682 1.4097565 0
2.9450002 -0.76214796 1.4093616 0
2.9440002 -0.76645547 1.4089665 0
2.9430003 -0.77075934 1.4085716 0
2.9430003 -0.77534646 1.4085716 0
2.9420002 -0.77964485 1.4081764 0
2.9410002 -0.78393972 1.4077814 0
2.9400003 -0.78823107 1.4073865 0
2.9400003 -0.79281271 1.4073865 0
2.9390001 -0.79709852 1.4069914 0
2.9380002 -0.80138075 1.4065963 0
2.9370003 -0.80565941 1.4062014 0
2.9370003 -0.81023568 1.4062014 0
2.9360001 -0.81450886 1.4058063 0
2.9350002 -0.81877851 1.4054112 0
2.9340003 -0.82304454 1.4050162 0
2.9340003 -0.82761538 1.4050162 0
2.9330003 -0.83187598 1.4046212 0
2.9320002 -0.83613294 1.4042261 0
2.9310002 -0.84038633 1.403831 0
2.9310002 -0.84495175 1.403831 0
2.9300003 -0.84919977 1.4034361 0
2.9290001 -0.85344404 1.403041 0
2.9280002 -0.85768485 1.4026459 0
2.9280002 -0.8622449 1.4026459 0
2.9270003 -0.86648029 1.4022509 0
2.9260001 -0.87071192 1.4018559 0
2.9250002 -0.8749401 1.4014609 0
2.9250002 -0.87949467 1.4014609 0
2.9240003 -0.88371742 1.4010658 0
2.9230001 -0.88793647 1.4006708 0
2.9220002 -0.89215201 1.4002757 0
2.9220002 -0.89670122 1.4002757 0
2.9210002 -0.90091133 1.3998808 0
2.9200003 -0.90511781 1.3994858 0
2.9200003 -0.90966344 1.3994858 0
2.9190001 -0.91386443 1.3990906 0
2.9180002 -0.91806191 1.3986956 0
2.9170003 -0.92225581 1.3983006 0
2.9170003 -0.92679596 1.3983006 0
2.9160001 -0.93098438 1.3979056 0
2.9150002 -0.93516928 1.3975105 0
2.9140003 -0.93935049 1.3971155 0
2.9140003 -0.94388527 1.3971155 0
2.9130001 -0.94806099 1.3967204 0
2.9120002 -0.95223325 1.3963253 0
2.9110003 -0.95640188 1.3959304 0
2.9110003 -0.96093124 1.3959304 0
2.9100003 -0.96509445 1.3955355 0
2.9090002 -0.96925396 1.3951403 0
2.9080002 -0.97340995 1.3947452 0
2.9080002 -0.97793388 1.3947452 0
2.9070003 -0.98208451 1.3943503 0
2.9060001 -0.98623139 1.3939552 0
2.9060001 -0.9907518 1.3939552 0
2.9050002 -0.99489337 1.3935602 0
2.9040003 -0.99903131 1.3931652 0
2.9030001 -1.0031655 1.3927701 0
2.9030001 -1.0076804 1.3927701 0
2.9020002 -1.0118095 1.3923751 0
2.9010003 -1.0159347 1.3919801 0
2.9000001 -1.0200564 1.391585 0
2.9000001 -1.0245659 1.391585 0
2.8990002 -1.0286822 1.3911899 0
2.8980002 -1.0327948 1.3907949 0
2.8980002 -1.0373009 1.3907949 0
2.8970003 -1.0414081 1.3903999 0
2.8960001 -1.0455117 1.3900049 0
2.8950002 -1.0496118 1.3896098 0
2.8950002 -1.0541123 1.3896098 0
2.8940003 -1.058207 1.3892149 0
2.8930001 -1.0622981 1.3888197 0
2.8920002 -1.0663855 1.3884248 0
2.8920002 -1.0708805 1.3884248 0
2.8910003 -1.0749626 1.3880298 0
2.8900001 -1.079041 1.3876346 0
2.8900001 -1.0835325 1.3876346 0
2.8890002 -1.0876054 1.3872396 0
2.8880002 -1.0916749 1.3868446 0
2.8870003 -1.0957407 1.3864497 0
2.8870003 -1.1002268 1.3864497 0
2.8860002 -1.1042871 1.3860545 0
2.8850002 -1.1083438 1.3856595 0
2.8850002 -1.1128263 1.3856595 0
2.8840003 -1.1168777 1.3852645 0
2.8830001 -1.1209253 1.3848695 0
2.8820002 -1.1249696 1.3844744 0
2.8820002 -1.1294466 1.3844744 0
2.8810003 -1.1334853 1.3840795 0
2.8800001 -1.1375204 1.3836843 0
2.8800001 -1.1419938 1.3836843 0
2.8790002 -1.1460236 1.3832892 0
2.8780003 -1.1500497 1.3828943 0
2.8770003 -1.1540723 1.3824993 0
2.8770003 -1.1585402 1.3824993 0
2.8760002 -1.1625572 1.3821042 0
2.8750002 -1.1665708 1.3817092 0
2.8750002 -1.1710352 1.3817092 0
2.8740003 -1.1750433 1.3813142 0
2.8730001 -1.1790477 1.3809191 0
2.8720002 -1.1830486 1.380524 0
2.8720002 -1.1875076 1.380524 0
2.8710003 -1.191503 1.3801291 0
2.8700001 -1.1954948 1.3797339 0
2.8700001 -1.1999501 1.3797339 0
2.8690002 -1.2039366 1.3793389 0
2.8680003 -1.2079196 1.378944 0
2.8670001 -1.2118986 1.3785489 0
2.8670001 -1.2163485 1.3785489 0
2.8660002 -1.2203225 1.3781538 0
2.8650002 -1.2242926 1.3777589 0
2.8650002 -1.228739 1.3777589 0
2.8640003 -1.2327038 1.3773638 0
2.8630002 -1.236665 1.3769687 0
2.8620002 -1.2406225 1.3765738 0
2.8620002 -1.2450635 1.3765738 0
2.8610003 -1.2490157 1.3761787 0
2.8600001 -1.2529641 1.3757836 0
2.8600001 -1.2574015 1.3757836 0
2.8590002 -1.2613447 1.3753886 0
2.8580003 -1.2652843 1.3749937 0
2.8580003 -1.2697181 1.3749937 0
2.8570001 -1.273652 1.3745985 0
2.8560002 -1.2775825 1.3742036 0
2.8550003 -1.2815095 1.3738085 0
2.8550003 -1.2859378 1.3738085 0
2.8540003 -1.2898593 1.3734134 0
2.8530002 -1.2937771 1.3730184 0
2.8530002 -1.2982019 1.3730184 0
2.8520002 -1.3021144 1.3726234 0
2.8510003 -1.3060232 1.3722284 0
2.8510003 -1.3104444 1.3722284 0
2.8500001 -1.3143477 1.3718332 0
2.8490002 -1.3182476 1.3714384 0
2.8480003 -1.3221438 1.3710433 0
2.8480003 -1.3265595 1.3710433 0
2.8470001 -1.3304503 1.3706481 0
2.8460002 -1.3343376 1.3702532 0
2.8460002 -1.3387496 1.3702532 0
2.8450003 -1.3426316 1.3698581 0
2.8440001 -1.3465096 1.3694631 0
2.8440001 -1.3509182 1.3694631 0
2.8430002 -1.3547909 1.3690681 0
2.8420002 -1.3586602 1.3686731 0
2.8410003 -1.3625257 1.368278 0
2.8410003 -1.3669288 1.368278 0
2.8400002 -1.3707888 1.367883 0
2.8390002 -1.3746455 1.367488 0
2.8390002 -1.3790449 1.367488 0
2.8380003 -1.3828961 1.367093 0
2.8370001 -1.3867435 1.3666978 0
2.8370001 -1.3911394 1.3666978 0
2.8360002 -1.3949816 1.3663028 0
2.8350003 -1.3988202 1.3659078 0
2.8350003 -1.4032124 1.3659078 0
2.8340001 -1.4070454 1.3655127 0
2.8330002 -1.410875 1.3651178 0
2.8320003 -1.4147009 1.3647227 0
2.8320003 -1.4190878 1.3647227 0
2.8310003 -1.4229082 1.3643277 0
2.8300002 -1.426725 1.3639327 0
2.8300002 -1.4311082 1.3639327 0
2.8290002 -1.4349197 1.3635377 0
3.0040002 -0.42176932 1.4279714 0
3.0030003 -0.42632034 1.4275782 0
3.0020003 -0.43086776 1.4271851 0
3.0010002 -0.43541154 1.4267918 0
3.0000002 -0.43995172 1.4263986 0
3.0000002 -0.44464162 1.4263986 0
2.9990003 -0.44917643 1.4260054 0
2.9980001 -0.45370755 1.4256121 0
2.9970002 -0.45823511 1.4252188 0
2.9960003 -0.46275908 1.4248257 0
2.9960003 -0.46744177 1.4248257 0
2.9950001 -0.47196028 1.4244324 0
2.9940002 -0.47647524 1.4240391 0
2.9930003 -0.48098657 1.423646 0
2.9930003 -0.48566383 1.423646 0
2.9920001 -0.49016973 1.4232527 0
2.9910002 -0.49467203 1.4228594 0
2.9900002 -0.49917075 1.4224663 0
2.9890003 -0.5036658 1.422073 0
2.9890003 -0.50833595 1.422073 0
2.9880002 -0.51282555 1.4216797 0
2.9870002 -0.51731163 1.4212865 0
2.9860003 -0.52179414 1.4208933 0
2.9850001 -0.52627295 1.4205002 0
2.9850001 -0.53093576 1.4205002 0
2.9840002 -0.53540921 1.4201069 0
2.9830003 -0.53987914 1.4197137 0
2.9820001 -0.54434526 1.4193203 0
2.9820001 -0.54900271 1.4193203 0
2.9810002 -0.55346358 1.4189272 0
2.9800003 -0.55792081 1.418534 0
2.9790003 -0.56237435 1.4181408 0
2.9790003 -0.56702644 1.4181408 0
2.9780002 -0.57147455 1.4177475 0
2.9770002 -0.57591915 1.4173542 0
2.9760003 -0.58036017 1.4169611 0
2.9750001 -0.5847975 1.4165678 0
2.9750001 -0.58944231 1.4165678 0
2.9740002 -0.59387428 1.4161745 0
2.9730003 -0.5983026 1.4157814 0
2.9720001 -0.60272735 1.415388 0
2.9720001 -0.60736674 1.415388 0
2.9710002 -0.61178613 1.4149948 0
2.9700003 -0.61620182 1.4146016 0
2.9690001 -0.62061393 1.4142083 0
2.9680002 -0.62502241 1.4138151 0
2.9680002 -0.62965465 1.4138151 0
2.9670002 -0.63405776 1.413422 0
2.9660003 -0.63845724 1.4130288 0
2.9650002 -0.64285308 1.4126354 0
2.9650002 -0.64747983 1.4126354 0
2.9640002 -0.65187031 1.4122423 0
2.9630003 -0.65625721 1.4118491 0
2.9620001 -0.66064042 1.4114558 0
2.9620001 -0.66526181 1.4114558 0
2.9610002 -0.66963965 1.4110626 0
2.9600003 -0.67401391 1.4106693 0
2.9590001 -0.67838448 1.4102761 0
2.9590001 -0.68300045 1.4102761 0
2.9580002 -0.68736565 1.4098829 0
2.9570003 -0.69172728 1.4094896 0
2.9560003 -0.69608527 1.4090965 0
2.9550002 -0.70043963 1.4087031 0
2.9550002 -0.70504838 1.4087031 0
2.9540002 -0.70939744 1.4083099 0
2.9530003 -0.71374279 1.4079167 0
2.9520001 -0.71808451 1.4075234 0
2.9520001 -0.72268784 1.4075234 0
2.9510002 -0.7270242 1.4071302 0
2.9500003 -0.73135698 1.4067371 0
2.9490001 -0.73568606 1.4063438 0
2.9490001 -0.74028397 1.4063438 0
2.9480002 -0.74460775 1.4059507 0
2.9470003 -0.74892789 1.4055574 0
2.9460001 -0.75324434 1.4051641 0
2.9460001 -0.75783682 1.4051641 0
2.9450002 -0.76214796 1.4047709 0
2.9440002 -0.76645547 1.4043777 0
2.9430003 -0.77075934 1.4039844 0
2.9430003 -0.77534646 1.4039844 0
2.9420002 -0.77964485 1.4035912 0
2.9410002 -0.78393972 1.403198 0
2.9400003 -0.78823107 1.4028047 0
2.9400003 -0.79281271 1.4028047 0
2.9390001 -0.79709852 1.4024115 0
2.9380002 -0.80138075 1.4020182 0
2.9370003 -0.80565941 1.401625 0
2.9370003 -0.81023568 1.401625 0
2.9360001 -0.81450886 1.4012318 0
2.9350002 -0.81877851 1.4008385 0
2.9340003 -0.82304454 1.4004453 0
2.9340003 -0.82761538 1.4004453 0
2.9330003 -0.83187598 1.4000521 0
2.9320002 -0.83613294 1.3996588 0
2.9310002 -0.84038633 1.3992656 0
2.9310002 -0.84495175 1.3992656 0
2.9300003 -0.84919977 1.3988724 0
2.9290001 -0.85344404 1.3984792 0
2.9280002 -0.85768485 1.398086 0
2.9280002 -0.8622449 1.398086 0
2.9270003 -0.86648029 1.3976928 0
2.9260001 -0.87071192 1.3972995 0
2.9250002 -0.8749401 1.3969063 0
2.9250002 -0.87949467 1.3969063 0
2.9240003 -0.88371742 1.3965131 0
2.9230001 -0.88793647 1.3961197 0
2.9220002 -0.89215201 1.3957266 0
2.9220002 -0.89670122 1.3957266 0
2.9210002 -0.90091133 1.3953333 0
2.9200003 -0.90511781 1.3949401 0
2.9200003 -0.90966344 1.3949401 0
2.9190001 -0.91386443 1.3945469 0
2.9180002 -0.91806191 1.3941536 0
2.9170003 -0.92225581 1.3937604 0
2.9170003 -0.92679596 1.3937604 0
2.9160001 -0.93098438 1.3933672 0
2.9150002 -0.93516928 1.3929739 0
2.9140003 -0.93935049 1.3925807 0
2.9140003 -0.94388527 1.3925807 0
2.9130001 -0.94806099 1.3921875 0
2.9120002 -0.95223325 1.3917943 0
2.9110003 -0.95640188 1.3914011 0
2.9110003 -0.96093124 1.3914011 0
2.9100003 -0.96509445 1.3910079 0
2.9090002 -0.96925396 1.3906146 0
2.9080002 -0.97340995 1.3902214 0
2.9080002 -0.97793388 1.3902214 0
2.9070003 -0.98208451 1.3898282 0
2.9060001 -0.98623139 1.3894348 0
2.9060001 -0.9907518 1.3894348 0
2.9050002 -0.99489337 1.3890417 0
2.9040003 -0.99903131 1.3886485 0
2.9030001 -1.0031655 1.3882551 0
2.9030001 -1.0076804 1.3882551 0
2.9020002 -1.0118095 1.387862 0
2.9010003 -1.0159347 1.3874687 0
2.9000001 -1.0200564 1.3870754 0
2.9000001 -1.0245659 1.3870754 0
2.8990002 -1.0286822 1.3866823 0
2.8980002 -1.0327948 1.386289 0
2.8980002 -1.0373009 1.386289 0
2.8970003 -1.0414081 1.3858958 0
2.8960001 -1.0455117 1.3855025 0
2.8950002 -1.0496118 1.3851094 0
2.8950002 -1.0541123 1.3851094 0
2.8940003 -1.058207 1.3847162 0
2.8930001 -1.0622981 1.3843229 0
2.8920002 -1.0663855 1.3839297 0
2.8920002 -1.0708805 1.3839297 0
2.8910003 -1.0749626 1.3835365 0
2.8900001 -1.079041 1.3831432 0
2.8900001 -1.0835325 1.3831432 0
2.8890002 -1.0876054 1.3827499 0
2.8880002 -1.0916749 1.3823568 0
2.8870003 -1.0957407 1.3819636 0
2.8870003 -1.1002268 1.3819636 0
2.8860002 -1.1042871 1.3815702 0
2.8850002 -1.1083438 1.3811771 0
2.8850002 -1.1128263 1.3811771 0
2.8840003 -1.1168777 1.3807838 0
2.8830001 -1.1209253 1.3803905 0
2.8820002 -1.1249696 1.3799974 0
2.8820002 -1.1294466 1.3799974 0
2.8810003 -1.1334853 1.3796041 0
2.8800001 -1.1375204 1.3792108 0
2.8800001 -1.1419938 1.3792108 0
2.8790002 -1.1460236 1.3788176 0
2.8780003 -1.1500497 1.3784244 0
2.8770003 -1.1540723 1.3780313 0
2.8770003 -1.1585402 1.3780313 0
2.8760002 -1.1625572 1.377638 0
2.8750002 -1.1665708 1.3772448 0
2.8750002 -1.1710352 1.3772448 0
2.8740003 -1.1750433 1.3768516 0
2.8730001 -1.1790477 1.3764583 0
2.8720002 -1.1830486 1.376065 0
2.8720002 -1.1875076 1.376065 0
2.8710003 -1.191503 1.3756719 0
2.8700001 -1.1954948 1.3752786 0
2.8700001 -1.1999501 1.3752786 0
2.8690002 -1.2039366 1.3748853 0
2.8680003 -1.2079196 1.3744922 0
2.8670001 -1.2118986 1.3740989 0
2.8670001 -1.2163485 1.3740989 0
2.8660002 -1.2203225 1.3737056 0
2.8650002 -1.2242926 1.3733125 0
2.8650002 -1.228739 1.3733125 0
2.8640003 -1.2327038 1.3729192 0
2.8630002 -1.236665 1.3725259 0
2.8620002 -1.2406225 1.3721327 0
2.8620002 -1.2450635 1.3721327 0
2.8610003 -1.2490157 1.3717395 0
2.8600001 -1.2529641 1.3713464 0
2.8600001 -1.2574015 1.3713464 0
2.8590002 -1.2613447 1.3709531 0
2.8580003 -1.2652843 1.3705599 0
2.8580003 -1.2697181 1.3705599 0
2.8570001 -1.273652 1.3701665 0
2.8560002 -1.2775825 1.3697734 0
2.8550003 -1.2815095 1.3693802 0
2.8550003 -1.2859378 1.3693802 0
2.8540003 -1.2898593 1.368987 0
2.8530002 -1.2937771 1.3685937 0
2.8530002 -1.2982019 1.3685937 0
2.8520002 -1.3021144 1.3682004 0
2.8510003 -1.3060232 1.3678073 0
2.8510003 -1.3104444 1.3678073 0
2.8500001 -1.3143477 1.367414 0
2.8490002 -1.3182476 1.3670207 0
2.8480003 -1.3221438 1.3666276 0
2.8480003 -1.3265595 1.3666276 0
2.8470001 -1.3304503 1.3662342 0
2.8460002 -1.3343376 1.365841 0
2.8460002 -1.3387496 1.365841 0
2.8450003 -1.3426316 1.3654478 0
2.8440001 -1.3465096 1.3650546 0
2.8440001 -1.3509182 1.3650546 0
2.8430002 -1.3547909 1.3646615 0
2.8420002 -1.3586602 1.3642682 0
2.8410003 -1.3625257 1.363875 0
2.8410003 -1.3669288 1.363875 0
2.8400002 -1.3707888 1.3634816 0
2.8390002 -1.3746455 1.3630885 0
2.8390002 -1.3790449 1.3630885 0
2.8380003 -1.3828961 1.3626953 0
2.8370001 -1.3867435 1.3623019 0
2.8370001 -1.3911394 1.3623019 0
2.8360002 -1.3949816 1.3619088 0
2.8350003 -1.3988202 1.3615155 0
2.8350003 -1.4032124 1.3615155 0
2.8340001 -1.4070454 1.3611223 0
2.8330002 -1.410875 1.3607291 0
2.8320003 -1.4147009 1.3603358 0
2.8320003 -1.4190878 1.3603358 0
2.8310003 -1.4229082 1.3599427 0
2.8300002 -1.426725 1.3595493 0
2.8300002 -1.4311082 1.3595493 0
2.8290002 -1.4349197 1.3591561 0
3.0040002 -0.42176932 1.4232743 0
3.0030003 -0.42632034 1.4228829 0
3.0020003 -0.43086776 1.4224916 0
3.0010002 -0.43541154 1.4221001 0
3.0000002 -0.43995172 1.4217086 0
3.0000002 -0.44464162 1.4217086 0
2.9990003 -0.44917643 1.4213172 0
2.9980001 -0.45370755 1.4209257 0
2.9970002 -0.45823511 1.4205344 0
2.9960003 -0.46275908 1.420143 0
2.9960003 -0.46744177 1.420143 0
2.9950001 -0.47196028 1.4197514 0
2.9940002 -0.47647524 1.41936 0
2.9930003 -0.48098657 1.4189687 0
2.9930003 -0.48566383 1.4189687 0
2.9920001 -0.49016973 1.4185772 0
2.9910002 -0.49467203 1.4181858 0
2.9900002 -0.49917075 1.4177943 0
2.9890003 -0.5036658 1.417403 0
2.9890003 -0.50833595 1.417403 0
2.9880002 -0.51282555 1.4170115 0
2.9870002 -0.51731163 1.4166201 0
2.9860003 -0.52179414 1.4162288 0
2.9850001 -0.52627295 1.4158372 0
2.9850001 -0.53093576 1.4158372 0
2.9840002 -0.53540921 1.4154458 0
2.9830003 -0.53987914 1.4150544 0
2.9820001 -0.54434526 1.414663 0
2.9820001 -0.54900271 1.414663 0
2.9810002 -0.55346358 1.4142716 0
2.9800003 -0.55792081 1.4138801 0
2.9790003 -0.56237435 1.4134887 0
2.9790003 -0.56702644 1.4134887 0
2.9780002 -0.57147455 1.4130973 0
2.9770002 -0.57591915 1.4127059 0
2.9760003 -0.58036017 1.4123145 0
2.9750001 -0.5847975 1.4119229 0
2.9750001 -0.58944231 1.4119229 0
2.9740002 -0.59387428 1.4115316 0
2.9730003 -0.5983026 1.4111402 0
2.9720001 -0.60272735 1.4107487 0
2.9720001 -0.60736674 1.4107487 0
2.9710002 -0.61178613 1.4103574 0
2.9700003 -0.61620182 1.4099659 0
2.9690001 -0.62061393 1.4095744 0
2.9680002 -0.62502241 1.409183 0
2.9680002 -0.62965465 1.409183 0
2.9670002 -0.63405776 1.4087917 0
2.9660003 -0.63845724 1.4084002 0
2.9650002 -0.64285308 1.4080087 0
2.9650002 -0.64747983 1.4080087 0
2.9640002 -0.65187031 1.4076172 0
2.9630003 -0.65625721 1.4072258 0
2.9620001 -0.66064042 1.4068344 0
2.9620001 -0.66526181 1.4068344 0
2.9610002 -0.66963965 1.406443 0
2.9600003 -0.67401391 1.4060516 0
2.9590001 -0.67838448 1.40566 0
2.9590001 -0.68300045 1.40566 0
2.9580002 -0.68736565 1.4052687 0
2.9570003 -0.69172728 1.4048773 0
2.9560003 -0.69608527 1.4044859 0
2.9550002 -0.70043963 1.4040945 0
2.9550002 -0.70504838 1.4040945 0
2.9540002 -0.70939744 1.403703 0
2.9530003 -0.71374279 1.4033116 0
2.9520001 -0.71808451 1.4029201 0
2.9520001 -0.72268784 1.4029201 0
2.9510002 -0.7270242 1.4025288 0
2.9500003 -0.73135698 1.4021373 0
2.9490001 -0.73568606 1.4017458 0
2.9490001 -0.74028397 1.4017458 0
2.9480002 -0.74460775 1.4013544 0
2.9470003 -0.74892789 1.4009631 0
2.9460001 -0.75324434 1.4005716 0
2.9460001 -0.75783682 1.4005716 0
2.9450002 -0.76214796 1.4001801 0
2.9440002 -0.76645547 1.3997887 0
2.9430003 -0.77075934 1.3993974 0
2.9430003 -0.77534646 1.3993974 0
2.9420002 -0.77964485 1.3990059 0
2.9410002 -0.78393972 1.3986145 0
2.9400003 -0.78823107 1.398223 0
2.9400003 -0.79281271 1.398223 0
2.9390001 -0.79709852 1.3978316 0
2.9380002 -0.80138075 1.3974402 0
2.9370003 -0.80565941 1.3970488 0
2.9370003 -0.81023568 1.3970488 0
2.9360001 -0.81450886 1.3966573 0
2.9350002 -0.81877851 1.3962659 0
2.9340003 -0.82304454 1.3958745 0
2.9340003 -0.82761538 1.3958745 0
2.9330003 -0.83187598 1.3954831 0
2.9320002 -0.83613294 1.3950917 0
2.9310002 -0.84038633 1.3947003 0
2.9310002 -0.84495175 1.3947003 0
2.9300003 -0.84919977 1.3943088 0
2.9290001 -0.85344404 1.3939173 0
2.9280002 -0.85768485 1.393526 0
2.9280002 -0.8622449 1.393526 0
2.9270003 -0.86648029 1.3931346 0
2.9260001 -0.87071192 1.3927431 0
2.9250002 -0.8749401 1.3923516 0
2.9250002 -0.87949467 1.3923516 0
2.9240003 -0.88371742 1.3919601 0
2.9230001 -0.88793647 1.3915688 0
2.9220002 -0.89215201 1.3911773 0
2.9220002 -0.89670122 1.3911773 0
2.9210002 -0.90091133 1.3907859 0
2.9200003 -0.90511781 1.3903946 0
2.9200003 -0.90966344 1.3903946 0
2.9190001 -0.91386443 1.390003 0
2.9180002 -0.91806191 1.3896116 0
2.9170003 -0.92225581 1.3892202 0
2.9170003 -0.92679596 1.3892202 0
2.9160001 -0.93098438 1.3888288 0
2.9150002 -0.93516928 1.3884374 0
2.9140003 -0.93935049 1.3880459 0
2.9140003 -0.94388527 1.3880459 0
2.9130001 -0.94806099 1.3876544 0
2.9120002 -0.95223325 1.3872631 0
2.9110003 -0.95640188 1.3868717 0
2.9110003 -0.96093124 1.3868717 0
2.9100003 -0.96509445 1.3864803 0
2.9090002 -0.96925396 1.3860887 0
2.9080002 -0.97340995 1.3856974 0
2.9080002 -0.97793388 1.3856974 0
2.9070003 -0.98208451 1.385306 0
2.9060001 -0.98623139 1.3849145 0
2.9060001 -0.9907518 1.3849145 0
2.9050002 -0.99489337 1.3845232 0
2.9040003 -0.99903131 1.3841317 0
2.9030001 -1.0031655 1.3837402 0
2.9030001 -1.0076804 1.3837402 0
2.9020002 -1.0118095 1.3833488 0
2.9010003 -1.0159347 1.3829575 0
2.9000001 -1.0200564 1.382566 0
2.9000001 -1.0245659 1.382566 0
2.8990002 -1.0286822 1.3821745 0
2.8980002 -1.0327948 1.3817831 0
2.8980002 -1.0373009 1.3817831 0
2.8970003 -1.0414081 1.3813918 0
2.8960001 -1.0455117 1.3810003 0
2.8950002 -1.0496118 1.3806089 0
2.8950002 -1.0541123 1.3806089 0
2.8940003 -1.058207 1.3802174 0
2.8930001 -1.0622981 1.3798259 0
2.8920002 -1.0663855 1.3794346 0
2.8920002 -1.0708805 1.3794346 0
2.8910003 -1.0749626 1.3790432 0
2.8900001 -1.079041 1.3786517 0
2.8900001 -1.0835325 1.3786517 0
2.8890002 -1.0876054 1.3782603 0
2.8880002 -1.0916749 1.3778689 0
2.8870003 -1.0957407 1.3774775 0
2.8870003 -1.1002268 1.3774775 0
2.8860002 -1.1042871 1.377086 0
2.8850002 -1.1083438 1.3766947 0
2.8850002 -1.1128263 1.3766947 0
2.8840003 -1.1168777 1.3763032 0
2.8830001 -1.1209253 1.3759117 0
2.8820002 -1.1249696 1.3755202 0
2.8820002 -1.1294466 1.3755202 0
2.8810003 -1.1334853 1.3751289 0
2.8800001 -1.1375204 1.3747375 0
2.8800001 -1.1419938 1.3747375 0
2.8790002 -1.1460236 1.374346 0
2.8780003 -1.1500497 1.3739545 0
2.8770003 -1.1540723 1.3735632 0
2.8770003 -1.1585402 1.3735632 0
2.8760002 -1.1625572 1.3731717 0
2.8750002 -1.1665708 1.3727803 0
2.8750002 -1.1710352 1.3727803 0
2.8740003 -1.1750433 1.372389 0
2.8730001 -1.1790477 1.3719974 0
2.8720002 -1.1830486 1.371606 0
2.8720002 -1.1875076 1.371606 0
2.8710003 -1.191503 1.3712146 0
2.8700001 -1.1954948 1.3708231 0
2.8700001 -1.1999501 1.3708231 0
2.8690002 -1.2039366 1.3704318 0
2.8680003 -1.2079196 1.3700403 0
2.8670001 -1.2118986 1.3696488 0
2.8670001 -1.2163485 1.3696488 0
2.8660002 -1.2203225 1.3692575 0
2.8650002 -1.2242926 1.3688661 0
2.8650002 -1.228739 1.3688661 0
2.8640003 -1.2327038 1.3684747 0
2.8630002 -1.236665 1.3680831 0
2.8620002 -1.2406225 1.3676918 0
2.8620002 -1.2450635 1.3676918 0
2.8610003 -1.2490157 1.3673004 0
2.8600001 -1.2529641 1.3669089 0
2.8600001 -1.2574015 1.3669089 0
2.8590002 -1.2613447 1.3665175 0
2.8580003 -1.2652843 1.3661261 0
2.8580003 -1.2697181 1.3661261 0
2.8570001 -1.273652 1.3657346 0
2.8560002 -1.2775825 1.3653432 0
2.8550003 -1.2815095 1.3649518 0
2.8550003 -1.2859378 1.3649518 0
2.8540003 -1.2898593 1.3645605 0
2.8530002 -1.2937771 1.3641689 0
2.8530002 -1.2982019 1.3641689 0
2.8520002 -1.3021144 1.3637775 0
2.8510003 -1.3060232 1.3633862 0
2.8510003 -1.3104444 1.3633862 0
2.8500001 -1.3143477 1.3629947 0
2.8490002 -1.3182476 1.3626033 0
2.8480003 -1.3221438 1.3622118 0
2.8480003 -1.3265595 1.3622118 0
2.8470001 -1.3304503 1.3618203 0
2.8460002 -1.3343376 1.361429 0
2.8460002 -1.3387496 1.361429 0
2.8450003 -1.3426316 1.3610376 0
2.8440001 -1.3465096 1.3606461 0
2.8440001 -1.3509182 1.3606461 0
2.8430002 -1.3547909 1.3602548 0
2.8420002 -1.3586602 1.3598633 0
2.8410003 -1.3625257 1.3594718 0
2.8410003 -1.3669288 1.3594718 0
2.8400002 -1.3707888 1.3590804 0
2.8390002 -1.3746455 1.358689 0
2.8390002 -1.3790449 1.358689 0
2.8380003 -1.3828961 1.3582976 0
2.8370001 -1.3867435 1.357906 0
2.8370001 -1.3911394 1.357906 0
2.8360002 -1.3949816 1.3575146 0
2.8350003 -1.3988202 1.3571233 0
2.8350003 -1.4032124 1.3571233 0
2.8340001 -1.4070454 1.3567318 0
2.8330002 -1.410875 1.3563404 0
2.8320003 -1.4147009 1.3559489 0
2.8320003 -1.4190878 1.3559489 0
2.8310003 -1.4229082 1.3555576 0
2.8300002 -1.426725 1.3551661 0
2.8300002 -1.4311082 1.3551661 0
2.8290002 -1.4349197 1.3547747 0
3.0040002 -0.42176932 1.4185772 0
3.0030003 -0.42632034 1.4181876 0
3.0020003 -0.43086776 1.417798 0
3.0010002 -0.43541154 1.4174083 0
3.0000002 -0.43995172 1.4170188 0
3.0000002 -0.44464162 1.4170188 0
2.9990003 -0.44917643 1.4166292 0
2.9980001 -0.45370755 1.4162395 0
2.9970002 -0.45823511 1.4158499 0
2.9960003 -0.46275908 1.4154602 0
2.9960003 -0.46744177 1.4154602 0
2.9950001 -0.47196028 1.4150707 0
2.9940002 -0.47647524 1.414681 0
2.9930003 -0.48098657 1.4142914 0
2.9930003 -0.48566383 1.4142914 0
2.9920001 -0.49016973 1.4139017 0
2.9910002 -0.49467203 1.4135121 0
2.9900002 -0.49917075 1.4131225 0
2.9890003 -0.5036658 1.412733 0
2.9890003 -0.50833595 1.412733 0
2.9880002 -0.51282555 1.4123433 0
2.9870002 -0.51731163 1.4119537 0
2.9860003 -0.52179414 1.4115641 0
2.9850001 -0.52627295 1.4111743 0
2.9850001 -0.53093576 1.4111743 0
2.9840002 -0.53540921 1.4107848 0
2.9830003 -0.53987914 1.4103951 0
2.9820001 -0.54434526 1.4100055 0
2.9820001 -0.54900271 1.4100055 0
2.9810002 -0.55346358 1.4096159 0
2.9800003 -0.55792081 1.4092263 0
2.9790003 -0.56237435 1.4088367 0
2.9790003 -0.56702644 1.4088367 0
2.9780002 -0.57147455 1.408447 0
2.9770002 -0.57591915 1.4080575 0
2.9760003 -0.58036017 1.4076678 0
2.9750001 -0.5847975 1.4072782 0
2.9750001 -0.58944231 1.4072782 0
2.9740002 -0.59387428 1.4068885 0
2.9730003 -0.5983026 1.406499 0
2.9720001 -0.60272735 1.4061092 0
2.9720001 -0.60736674 1.4061092 0
2.9710002 -0.61178613 1.4057196 0
2.9700003 -0.61620182 1.4053302 0
2.9690001 -0.62061393 1.4049404 0
2.9680002 -0.62502241 1.4045508 0
2.9680002 -0.62965465 1.4045508 0
2.9670002 -0.63405776 1.4041612 0
2.9660003 -0.63845724 1.4037715 0
2.9650002 -0.64285308 1.4033819 0
2.9650002 -0.64747983 1.4033819 0
2.9640002 -0.65187031 1.4029924 0
2.9630003 -0.65625721 1.4026027 0
2.9620001 -0.66064042 1.4022131 0
2.9620001 -0.66526181 1.4022131 0
2.9610002 -0.66963965 1.4018234 0
2.9600003 -0.67401391 1.4014338 0
2.9590001 -0.67838448 1.4010441 0
2.9590001 -0.68300045 1.4010441 0
2.9580002 -0.68736565 1.4006546 0
2.9570003 -0.69172728 1.400265 0
2.9560003 -0.69608527 1.3998754 0
2.9550002 -0.70043963 1.3994857 0
2.9550002 -0.70504838 1.3994857 0
2.9540002 -0.70939744 1.399096 0
2.9530003 -0.71374279 1.3987066 0
2.9520001 -0.71808451 1.3983167 0
2.9520001 -0.72268784 1.3983167 0
2.9510002 -0.7270242 1.3979273 0
2.9500003 -0.73135698 1.3975376 0
2.9490001 -0.73568606 1.3971479 0
2.9490001 -0.74028397 1.3971479 0
2.9480002 -0.74460775 1.3967583 0
2.9470003 -0.74892789 1.3963687 0
2.9460001 -0.75324434 1.395979 0
2.9460001 -0.75783682 1.395979 0
2.9450002 -0.76214796 1.3955895 0
2.9440002 -0.76645547 1.3951999 0
2.9430003 -0.77075934 1.3948102 0
2.9430003 -0.77534646 1.3948102 0
2.9420002 -0.77964485 1.3944206 0
2.9410002 -0.78393972 1.3940309 0
2.9400003 -0.78823107 1.3936414 0
2.9400003 -0.79281271 1.3936414 0
2.9390001 -0.79709852 1.3932517 0
2.9380002 -0.80138075 1.3928621 0
2.9370003 -0.80565941 1.3924726 0
2.9370003 -0.81023568 1.3924726 0
2.9360001 -0.81450886 1.3920828 0
2.9350002 -0.81877851 1.3916932 0
2.9340003 -0.82304454 1.3913037 0
2.9340003 -0.82761538 1.3913037 0
2.9330003 -0.83187598 1.3909141 0
2.9320002 -0.83613294 1.3905243 0
2.9310002 -0.84038633 1.3901348 0
2.9310002 -0.84495175 1.3901348 0
2.9300003 -0.84919977 1.3897451 0
2.9290001 -0.85344404 1.3893555 0
2.9280002 -0.85768485 1.388966 0
2.9280002 -0.8622449 1.388966 0
2.9270003 -0.86648029 1.3885763 0
2.9260001 -0.87071192 1.3881867 0
2.9250002 -0.8749401 1.387797 0
2.9250002 -0.87949467 1.387797 0
2.9240003 -0.88371742 1.3874074 0
2.9230001 -0.88793647 1.3870177 0
2.9220002 -0.89215201 1.3866282 0
2.9220002 -0.89670122 1.3866282 0
2.9210002 -0.90091133 1.3862385 0
2.9200003 -0.90511781 1.385849 0
2.9200003 -0.90966344 1.385849 0
2.9190001 -0.91386443 1.3854593 0
2.9180002 -0.91806191 1.3850696 0
2.9170003 -0.92225581 1.3846802 0
2.9170003 -0.92679596 1.3846802 0
2.9160001 -0.93098438 1.3842903 0
2.9150002 -0.93516928 1.3839009 0
2.9140003 -0.93935049 1.3835112 0
2.9140003 -0.94388527 1.3835112 0
2.9130001 -0.94806099 1.3831215 0
2.9120002 -0.95223325 1.3827319 0
2.9110003 -0.95640188 1.3823423 0
2.9110003 -0.96093124 1.3823423 0
2.9100003 -0.96509445 1.3819526 0
2.9090002 -0.96925396 1.3815631 0
2.9080002 -0.97340995 1.3811735 0
2.9080002 -0.97793388 1.3811735 0
2.9070003 -0.98208451 1.3807838 0
2.9060001 -0.98623139 1.3803942 0
2.9060001 -0.9907518 1.3803942 0
2.9050002 -0.99489337 1.3800045 0
2.9040003 -0.99903131 1.3796149 0
2.9030001 -1.0031655 1.3792253 0
2.9030001 -1.0076804 1.3792253 0
2.9020002 -1.0118095 1.3788357 0
2.9010003 -1.0159347 1.3784461 0
2.9000001 -1.0200564 1.3780564 0
2.9000001 -1.0245659 1.3780564 0
2.8990002 -1.0286822 1.3776668 0
2.8980002 -1.0327948 1.3772773 0
2.8980002 -1.0373009 1.3772773 0
2.8970003 -1.0414081 1.3768877 0
2.8960001 -1.0455117 1.3764979 0
2.8950002 -1.0496118 1.3761084 0
2.8950002 -1.0541123 1.3761084 0
2.8940003 -1.058207 1.3757187 0
2.8930001 -1.0622981 1.3753291 0
2.8920002 -1.0663855 1.3749394 0
2.8920002 -1.0708805 1.3749394 0
2.8910003 -1.0749626 1.3745499 0
2.8900001 -1.079041 1.3741603 0
2.8900001 -1.0835325 1.3741603 0
2.8890002 -1.0876054 1.3737706 0
2.8880002 -1.0916749 1.373381 0
2.8870003 -1.0957407 1.3729914 0
2.8870003 -1.1002268 1.3729914 0
2.8860002 -1.1042871 1.3726017 0
2.8850002 -1.1083438 1.3722121 0
2.8850002 -1.1128263 1.3722121 0
2.8840003 -1.1168777 1.3718226 0
2.8830001 -1.1209253 1.3714328 0
2.8820002 -1.1249696 1.3710432 0
2.8820002 -1.1294466 1.3710432 0
2.8810003 -1.1334853 1.3706536 0
2.8800001 -1.1375204 1.3702639 0
2.8800001 -1.1419938 1.3702639 0
2.8790002 -1.1460236 1.3698744 0
2.8780003 -1.1500497 1.3694848 0
2.8770003 -1.1540723 1.3690952 0
2.8770003 -1.1585402 1.3690952 0
2.8760002 -1.1625572 1.3687055 0
2.8750002 -1.1665708 1.3683159 0
