# .PCD v0.7 - Point Cloud Data file format
VERSION 0.7
FIELDS x y z intensity
SIZE 4 4 4 4
TYPE F F F F
COUNT 1 1 1 1
WIDTH 1413
HEIGHT 1
VIEWPOINT 0 0 0 1 0 0 0
POINTS 1413
DATA ascii
2.125 -0.56563205 0.92052054 0
2.1220002 -0.5678345 0.91962218 0
2.1000001 -0.56730056 0.91303468 0
2.0990002 -0.57005864 0.91273534 0
2.0970001 -0.57250273 0.91213632 0
2.0960002 -0.57525176 0.91183698 0
2.095 -0.57799721 0.91153753 0
2.0940001 -0.58073896 0.91123807 0
2.0930002 -0.58347714 0.91093874 0
2.092 -0.58621168 0.91063929 0
2.0910001 -0.58894271 0.91033983 0
2.0900002 -0.59167004 0.91004038 0
2.0880001 -0.59406912 0.90944147 0
2.085 -0.59613448 0.90854323 0
2.082 -0.59818894 0.90764487 0
2.0800002 -0.60056281 0.90704608 0
2.0770001 -0.60259748 0.90614772 0
2.0740001 -0.60462135 0.90524948 0
2.072 -0.60696989 0.90465057 0
2.069 -0.60897392 0.90375233 0
2.0660002 -0.61096722 0.90285403 0
2.0640001 -0.61329043 0.90225512 0
2.0610001 -0.61526388 0.90135682 0
2.0580001 -0.61722636 0.90045857 0
2.0560002 -0.61952448 0.89985967 0
2.0530002 -0.62146717 0.89896142 0
2.0500002 -0.62339902 0.89806312 0
2.0480001 -0.6256718 0.89746428 0
2.0450001 -0.62758386 0.89656591 0
2.0420001 -0.62948507 0.89566767 0
2.0400002 -0.63173264 0.89506876 0
2.0370002 -0.633614 0.89417046 0
2.0350001 -0.6358453 0.89357162 0
2.0320001 -0.63770682 0.89267331 0
2.029 -0.63955754 0.89177501 0
2.0310001 -0.64322829 0.89237386 0
2.0340002 -0.6472742 0.89327216 0
2.0370002 -0.65133101 0.89417046 0
2.0410001 -0.65577018 0.89536822 0
2.0440001 -0.65985036 0.89626652 0
2.0470002 -0.66394144 0.89716482 0
2.0500002 -0.66804326 0.89806312 0
2.0540001 -0.6725347 0.89926076 0
2.0550001 -0.67589885 0.89956021 0
2.0540001 -0.67850173 0.89926076 0
2.0530002 -0.68110102 0.89896142 0
2.052 -0.68369675 0.89866197 0
2.0510001 -0.68628877 0.89836252 0
2.0500002 -0.68887728 0.89806312 0
2.049 -0.6914621 0.89776361 0
2.0480001 -0.6940434 0.89746428 0
2.0470002 -0.696621 0.89716482 0
2.046 -0.69919503 0.89686537 0
2.0450001 -0.70176548 0.89656591 0
2.0440001 -0.70433229 0.89626652 0
2.108 -0.74228442 0.91543019 0
2.1120002 -0.7470032 0.91662788 0
2.115 -0.75132513 0.91752613 0
2.1420002 -0.55189967 0.92246866 0
2.1390002 -0.55416524 0.92157578 0
2.1360002 -0.55642003 0.92068279 0
2.1330001 -0.55866396 0.91978991 0
2.1300001 -0.56089705 0.91889703 0
2.128 -0.56341881 0.91830182 0
2.125 -0.56563205 0.91740894 0
2.1220002 -0.5678345 0.91651607 0
2.1000001 -0.56730056 0.90996826 0
2.0990002 -0.57005864 0.90967059 0
2.0970001 -0.57250273 0.90907538 0
2.0960002 -0.57525176 0.90877771 0
2.095 -0.57799721 0.90848005 0
2.0940001 -0.58073896 0.9081825 0
2.0930002 -0.58347714 0.90788484 0
2.092 -0.58621168 0.90758717 0
2.0910001 -0.58894271 0.90728962 0
2.0900002 -0.59167004 0.90699196 0
2.0880001 -0.59406912 0.90639675 0
2.085 -0.59613448 0.90550387 0
2.082 -0.59818894 0.90461087 0
2.0800002 -0.60056281 0.90401566 0
2.0770001 -0.60259748 0.90312278 0
2.0740001 -0.60462135 0.90222985 0
2.072 -0.60696989 0.90163457 0
2.069 -0.60897392 0.9007417 0
2.0660002 -0.61096722 0.89984882 0
2.0640001 -0.61329043 0.89925361 0
2.0610001 -0.61526388 0.89836073 0
2.0580001 -0.61722636 0.89746785 0
2.0560002 -0.61952448 0.89687258 0
2.0530002 -0.62146717 0.8959797 0
2.0500002 -0.62339902 0.89508682 0
2.0480001 -0.6256718 0.89449155 0
2.0450001 -0.62758386 0.89359868 0
2.0420001 -0.62948507 0.8927058 0
2.0400002 -0.63173264 0.89211047 0
2.0370002 -0.633614 0.89121759 0
2.0350001 -0.6358453 0.89062238 0
2.0320001 -0.63770682 0.8897295 0
2.029 -0.63955754 0.88883662 0
2.0310001 -0.64322829 0.88943189 0
2.0340002 -0.6472742 0.89032477 0
2.0370002 -0.65133101 0.89121759 0
2.0410001 -0.65577018 0.89240813 0
2.0440001 -0.65985036 0.89330101 0
2.0470002 -0.66394144 0.89419389 0
2.0500002 -0.66804326 0.89508682 0
2.0540001 -0.6725347 0.89627731 0
2.0550001 -0.67589885 0.89657497 0
2.0540001 -0.67850173 0.89627731 0
2.0530002 -0.68110102 0.8959797 0
2.052 -0.68369675 0.8956821 0
2.0510001 -0.68628877 0.89538443 0
2.0500002 -0.68887728 0.89508682 0
2.049 -0.6914621 0.89478922 0
2.0480001 -0.6940434 0.89449155 0
2.0470002 -0.696621 0.89419389 0
2.046 -0.69919503 0.89389622 0
2.0450001 -0.70176548 0.89359868 0
2.0440001 -0.70433229 0.89330101 0
2.108 -0.74228442 0.91234922 0
2.1120002 -0.7470032 0.91353977 0
2.115 -0.75132513 0.91443264 0
2.1420002 -0.55189967 0.91932642 0
2.1390002 -0.55416524 0.91843891 0
2.1360002 -0.55642003 0.9175514 0
2.1330001 -0.55866396 0.916664 0
2.1300001 -0.56089705 0.91577649 0
2.128 -0.56341881 0.91518486 0
2.125 -0.56563205 0.91429734 0
2.1220002 -0.5678345 0.91340995 0
2.1000001 -0.56730056 0.90690172 0
2.0990002 -0.57005864 0.90660596 0
2.0970001 -0.57250273 0.90601432 0
2.0960002 -0.57525176 0.90571845 0
2.095 -0.57799721 0.90542257 0
2.0940001 -0.58073896 0.90512681 0
2.0930002 -0.58347714 0.90483093 0
2.092 -0.58621168 0.90453517 0
2.0910001 -0.58894271 0.9042393 0
2.0900002 -0.59167004 0.90394348 0
2.0880001 -0.59406912 0.90335184 0
2.085 -0.59613448 0.90246439 0
2.082 -0.59818894 0.90157688 0
2.0800002 -0.60056281 0.90098524 0
2.0770001 -0.60259748 0.90009779 0
2.0740001 -0.60462135 0.89921033 0
2.072 -0.60696989 0.89861864 0
2.069 -0.60897392 0.89773118 0
2.0660002 -0.61096722 0.89684373 0
2.0640001 -0.61329043 0.89625204 0
2.0610001 -0.61526388 0.89536464 0
2.0580001 -0.61722636 0.89447713 0
2.0560002 -0.61952448 0.89388549 0
2.0530002 -0.62146717 0.89299798 0
2.0500002 -0.62339902 0.89211047 0
2.0480001 -0.6256718 0.89151895 0
2.0450001 -0.62758386 0.89063144 0
2.0420001 -0.62948507 0.88974392 0
2.0400002 -0.63173264 0.88915229 0
2.0370002 -0.633614 0.88826478 0
2.0350001 -0.6358453 0.88767314 0
2.0320001 -0.63770682 0.88678569 0
2.029 -0.63955754 0.88589823 0
2.0310001 -0.64322829 0.88648987 0
2.0340002 -0.6472742 0.88737732 0
2.0370002 -0.65133101 0.88826478 0
2.0410001 -0.65577018 0.88944805 0
2.0440001 -0.65985036 0.89033556 0
2.0470002 -0.66394144 0.89122301 0
2.0500002 -0.66804326 0.89211047 0
2.0540001 -0.6725347 0.89329386 0
2.0550001 -0.67589885 0.89358962 0
2.0540001 -0.67850173 0.89329386 0
2.0530002 -0.68110102 0.89299798 0
2.052 -0.68369675 0.89270216 0
2.0510001 -0.68628877 0.89240634 0
2.0500002 -0.68887728 0.89211047 0
2.049 -0.6914621 0.89181471 0
2.0480001 -0.6940434 0.89151895 0
2.0470002 -0.696621 0.89122301 0
2.046 -0.69919503 0.8909272 0
2.0450001 -0.70176548 0.89063144 0
2.0440001 -0.70433229 0.89033556 0
2.108 -0.74228442 0.90926838 0
2.1120002 -0.7470032 0.91045165 0
2.115 -0.75132513 0.91133916 0
2.1420002 -0.55189967 0.91618419 0
2.1390002 -0.55416524 0.91530204 0
2.1360002 -0.55642003 0.91442001 0
2.1330001 -0.55866396 0.91353798 0
2.1300001 -0.56089705 0.91265595 0
2.128 -0.56341881 0.91206789 0
2.125 -0.56563205 0.91118586 0
2.1220002 -0.5678345 0.91030371 0
2.1000001 -0.56730056 0.9038353 0
2.0990002 -0.57005864 0.90354127 0
2.0970001 -0.57250273 0.90295315 0
2.0960002 -0.57525176 0.90265918 0
2.095 -0.57799721 0.90236515 0
2.0940001 -0.58073896 0.90207112 0
2.0930002 -0.58347714 0.90177715 0
2.092 -0.58621168 0.90148306 0
2.0910001 -0.58894271 0.90118909 0
2.0900002 -0.59167004 0.90089506 0
2.0880001 -0.59406912 0.90030706 0
2.085 -0.59613448 0.89942491 0
2.082 -0.59818894 0.89854288 0
2.0800002 -0.60056281 0.89795482 0
2.0770001 -0.60259748 0.89707279 0
2.0740001 -0.60462135 0.8961907 0
2.072 -0.60696989 0.8956027 0
2.069 -0.60897392 0.89472061 0
2.0660002 -0.61096722 0.89383858 0
2.0640001 -0.61329043 0.89325047 0
2.0610001 -0.61526388 0.89236844 0
2.0580001 -0.61722636 0.89148641 0
2.0560002 -0.61952448 0.89089835 0
2.0530002 -0.62146717 0.89001632 0
2.0500002 -0.62339902 0.88913423 0
2.0480001 -0.6256718 0.88854623 0
2.0450001 -0.62758386 0.88766414 0
2.0420001 -0.62948507 0.88678211 0
2.0400002 -0.63173264 0.88619399 0
2.0370002 -0.633614 0.88531196 0
2.0350001 -0.6358453 0.8847239 0
2.0320001 -0.63770682 0.88384187 0
2.029 -0.63955754 0.88295978 0
2.0310001 -0.64322829 0.88354778 0
2.0340002 -0.6472742 0.88442993 0
2.0370002 -0.65133101 0.88531196 0
2.0410001 -0.65577018 0.88648802 0
2.0440001 -0.65985036 0.88737011 0
2.0470002 -0.66394144 0.88825214 0
2.0500002 -0.66804326 0.88913423 0
2.0540001 -0.6725347 0.89031035 0
2.0550001 -0.67589885 0.89060438 0
2.0540001 -0.67850173 0.89031035 0
2.0530002 -0.68110102 0.89001632 0
2.052 -0.68369675 0.88972223 0
2.0510001 -0.68628877 0.88942826 0
2.0500002 -0.68887728 0.88913423 0
2.049 -0.6914621 0.8888402 0
2.0480001 -0.6940434 0.88854623 0
2.0470002 -0.696621 0.88825214 0
2.046 -0.69919503 0.88795817 0
2.0450001 -0.70176548 0.88766414 0
2.0440001 -0.70433229 0.88737011 0
2.108 -0.74228442 0.90618742 0
2.1120002 -0.7470032 0.90736353 0
2.115 -0.75132513 0.90824556 0
2.1420002 -0.55189967 0.91304195 0
2.1390002 -0.55416524 0.91216528 0
2.1360002 -0.55642003 0.91128862 0
2.1330001 -0.55866396 0.91041195 0
2.1300001 -0.56089705 0.90953529 0
2.128 -0.56341881 0.90895081 0
2.125 -0.56563205 0.90807426 0
2.1220002 -0.5678345 0.90719759 0
2.1000001 -0.56730056 0.90076876 0
2.0990002 -0.57005864 0.90047657 0
2.0970001 -0.57250273 0.89989209 0
2.0960002 -0.57525176 0.89959991 0
2.095 -0.57799721 0.89930773 0
2.0940001 -0.58073896 0.89901549 0
2.0930002 -0.58347714 0.8987233 0
2.092 -0.58621168 0.89843106 0
2.0910001 -0.58894271 0.89813888 0
2.0900002 -0.59167004 0.89784658 0
2.0880001 -0.59406912 0.89726222 0
2.085 -0.59613448 0.89638555 0
2.082 -0.59818894 0.89550889 0
2.0800002 -0.60056281 0.8949244 0
2.0770001 -0.60259748 0.8940478 0
2.0740001 -0.60462135 0.89317119 0
2.072 -0.60696989 0.89258671 0
2.069 -0.60897392 0.89171004 0
2.0660002 -0.61096722 0.8908335 0
2.0640001 -0.61329043 0.89024895 0
2.0610001 -0.61526388 0.88937235 0
2.0580001 -0.61722636 0.88849568 0
2.0560002 -0.61952448 0.88791132 0
2.0530002 -0.62146717 0.8870346 0
2.0500002 -0.62339902 0.88615799 0
2.0480001 -0.6256718 0.88557351 0
2.0450001 -0.62758386 0.88469684 0
2.0420001 -0.62948507 0.88382018 0
2.0400002 -0.63173264 0.88323581 0
2.0370002 -0.633614 0.88235915 0
2.0350001 -0.6358453 0.88177472 0
2.0320001 -0.63770682 0.880898 0
2.029 -0.63955754 0.88002139 0
2.0310001 -0.64322829 0.88060582 0
2.0340002 -0.6472742 0.88148248 0
2.0370002 -0.65133101 0.88235915 0
2.0410001 -0.65577018 0.88352799 0
2.0440001 -0.65985036 0.88440466 0
2.0470002 -0.66394144 0.88528132 0
2.0500002 -0.66804326 0.88615799 0
2.0540001 -0.6725347 0.88732684 0
2.0550001 -0.67589885 0.88761902 0
2.0540001 -0.67850173 0.88732684 0
2.0530002 -0.68110102 0.8870346 0
2.052 -0.68369675 0.88674241 0
2.0510001 -0.68628877 0.88645017 0
2.0500002 -0.68887728 0.88615799 0
2.049 -0.6914621 0.88586569 0
2.0480001 -0.6940434 0.88557351 0
2.0470002 -0.696621 0.88528132 0
2.046 -0.69919503 0.88498908 0
2.0450001 -0.70176548 0.88469684 0
2.0440001 -0.70433229 0.88440466 0
2.108 -0.74228442 0.90310657 0
2.1120002 -0.7470032 0.90427542 0
2.115 -0.75132513 0.90515208 0
2.1420002 -0.55189967 0.90989971 0
2.1390002 -0.55416524 0.90902841 0
2.1360002 -0.55642003 0.90815723 0
2.1330001 -0.55866396 0.90728593 0
2.1300001 -0.56089705 0.90641475 0
2.128 -0.56341881 0.90583384 0
2.125 -0.56563205 0.90496266 0
2.1220002 -0.5678345 0.90409136 0
2.1000001 -0.56730056 0.89770234 0
2.0990002 -0.57005864 0.89741194 0
2.0970001 -0.57250273 0.8968311 0
2.0960002 -0.57525176 0.8965407 0
2.095 -0.57799721 0.89625025 0
2.0940001 -0.58073896 0.89595985 0
2.0930002 -0.58347714 0.8956694 0
2.092 -0.58621168 0.89537907 0
2.0910001 -0.58894271 0.89508861 0
2.0900002 -0.59167004 0.89479816 0
2.0880001 -0.59406912 0.89421737 0
2.085 -0.59613448 0.89334607 0
2.082 -0.59818894 0.89247489 0
2.0800002 -0.60056281 0.8918941 0
2.0770001 -0.60259748 0.8910228 0
2.0740001 -0.60462135 0.89015162 0
2.072 -0.60696989 0.88957077 0
2.069 -0.60897392 0.88869953 0
2.0660002 -0.61096722 0.88782829 0
2.0640001 -0.61329043 0.88724744 0
2.0610001 -0.61526388 0.88637626 0
2.0580001 -0.61722636 0.88550496 0
2.0560002 -0.61952448 0.88492417 0
2.0530002 -0.62146717 0.88405293 0
2.0500002 -0.62339902 0.88318169 0
2.0480001 -0.6256718 0.8826009 0
2.0450001 -0.62758386 0.8817296 0
2.0420001 -0.62948507 0.8808583 0
2.0400002 -0.63173264 0.88027751 0
2.0370002 -0.633614 0.87940633 0
2.0350001 -0.6358453 0.87882549 0
2.0320001 -0.63770682 0.87795424 0
2.029 -0.63955754 0.877083 0
2.0310001 -0.64322829 0.87766379 0
2.0340002 -0.6472742 0.87853503 0
2.0370002 -0.65133101 0.87940633 0
2.0410001 -0.65577018 0.88056797 0
2.0440001 -0.65985036 0.88143921 0
2.0470002 -0.66394144 0.88231045 0
2.0500002 -0.66804326 0.88318169 0
2.0540001 -0.6725347 0.88434333 0
2.0550001 -0.67589885 0.88463378 0
2.0540001 -0.67850173 0.88434333 0
2.0530002 -0.68110102 0.88405293 0
2.052 -0.68369675 0.88376248 0
2.0510001 -0.68628877 0.88347208 0
2.0500002 -0.68887728 0.88318169 0
2.049 -0.6914621 0.8828913 0
2.0480001 -0.6940434 0.8826009 0
2.0470002 -0.696621 0.88231045 0
2.046 -0.69919503 0.88202 0
2.0450001 -0.70176548 0.8817296 0
2.0440001 -0.70433229 0.88143921 0
2.108 -0.74228442 0.90002561 0
2.1120002 -0.7470032 0.9011873 0
2.115 -0.75132513 0.90205848 0
2.1420002 -0.55189967 0.90675747 0
2.1390002 -0.55416524 0.90589166 0
2.1360002 -0.55642003 0.90502584 0
2.1330001 -0.55866396 0.9041599 0
2.1300001 -0.56089705 0.90329415 0
2.128 -0.56341881 0.90271688 0
2.125 -0.56563205 0.90185106 0
2.1220002 -0.5678345 0.90098524 0
2.1000001 -0.56730056 0.8946358 0
2.0990002 -0.57005864 0.89434731 0
2.0970001 -0.57250273 0.89377004 0
2.0960002 -0.57525176 0.89348143 0
2.095 -0.57799721 0.89319277 0
2.0940001 -0.58073896 0.89290416 0
2.0930002 -0.58347714 0.89261556 0
2.092 -0.58621168 0.89232695 0
2.0910001 -0.58894271 0.8920384 0
2.0900002 -0.59167004 0.89174974 0
2.0880001 -0.59406912 0.89117253 0
2.085 -0.59613448 0.89030671 0
2.082 -0.59818894 0.88944089 0
2.0800002 -0.60056281 0.88886368 0
2.0770001 -0.60259748 0.88799787 0
2.0740001 -0.60462135 0.88713199 0
2.072 -0.60696989 0.88655484 0
2.069 -0.60897392 0.88568896 0
2.0660002 -0.61096722 0.8848232 0
2.0640001 -0.61329043 0.88424587 0
2.0610001 -0.61526388 0.88338006 0
2.0580001 -0.61722636 0.8825143 0
2.0560002 -0.61952448 0.88193703 0
2.0530002 -0.62146717 0.88107121 0
2.0500002 -0.62339902 0.88020539 0
2.0480001 -0.6256718 0.87962818 0
2.0450001 -0.62758386 0.87876236 0
2.0420001 -0.62948507 0.87789649 0
2.0400002 -0.63173264 0.87731934 0
2.0370002 -0.633614 0.87645346 0
2.0350001 -0.6358453 0.87587625 0
2.0320001 -0.63770682 0.87501043 0
2.029 -0.63955754 0.87414455 0
2.0310001 -0.64322829 0.87472183 0
2.0340002 -0.6472742 0.87558758 0
2.0370002 -0.65133101 0.87645346 0
2.0410001 -0.65577018 0.87760788 0
2.0440001 -0.65985036 0.87847376 0
2.0470002 -0.66394144 0.87933958 0
2.0500002 -0.66804326 0.88020539 0
2.0540001 -0.6725347 0.88135982 0
2.0550001 -0.67589885 0.88164842 0
2.0540001 -0.67850173 0.88135982 0
2.0530002 -0.68110102 0.88107121 0
2.052 -0.68369675 0.8807826 0
2.0510001 -0.68628877 0.880494 0
2.0500002 -0.68887728 0.88020539 0
2.049 -0.6914621 0.87991679 0
2.0480001 -0.6940434 0.87962818 0
2.0470002 -0.696621 0.87933958 0
2.046 -0.69919503 0.87905097 0
2.0450001 -0.70176548 0.87876236 0
2.0440001 -0.70433229 0.87847376 0
2.108 -0.74228442 0.8969447 0
2.1120002 -0.7470032 0.89809918 0
2.115 -0.75132513 0.898965 0
2.1420002 -0.55189967 0.90361524 0
2.1390002 -0.55416524 0.90275478 0
2.1360002 -0.55642003 0.90189439 0
2.1330001 -0.55866396 0.90103394 0
2.1300001 -0.56089705 0.90017354 0
2.128 -0.56341881 0.89959991 0
2.125 -0.56563205 0.89873946 0
2.1220002 -0.5678345 0.89787912 0
2.1000001 -0.56730056 0.89156938 0
2.0990002 -0.57005864 0.89128256 0
2.0970001 -0.57250273 0.89070892 0
2.0960002 -0.57525176 0.89042211 0
2.095 -0.57799721 0.89013535 0
2.0940001 -0.58073896 0.88984853 0
2.0930002 -0.58347714 0.88956177 0
2.092 -0.58621168 0.88927495 0
2.0910001 -0.58894271 0.88898814 0
2.0900002 -0.59167004 0.88870132 0
2.0880001 -0.59406912 0.88812768 0
2.085 -0.59613448 0.88726729 0
2.082 -0.59818894 0.8864069 0
2.0800002 -0.60056281 0.88583326 0
2.0770001 -0.60259748 0.88497281 0
2.0740001 -0.60462135 0.88411248 0
2.072 -0.60696989 0.88353884 0
2.069 -0.60897392 0.88267839 0
2.0660002 -0.61096722 0.881818 0
2.0640001 -0.61329043 0.88124442 0
2.0610001 -0.61526388 0.88038397 0
2.0580001 -0.61722636 0.87952352 0
2.0560002 -0.61952448 0.87894994 0
2.0530002 -0.62146717 0.87808955 0
2.0500002 -0.62339902 0.87722909 0
2.0480001 -0.6256718 0.87665546 0
2.0450001 -0.62758386 0.87579513 0
2.0420001 -0.62948507 0.87493467 0
2.0400002 -0.63173264 0.87436104 0
2.0370002 -0.633614 0.87350065 0
2.0350001 -0.6358453 0.87292707 0
2.0320001 -0.63770682 0.87206662 0
2.029 -0.63955754 0.87120616 0
2.0310001 -0.64322829 0.8717798 0
2.0340002 -0.6472742 0.87264019 0
2.0370002 -0.65133101 0.87350065 0
2.0410001 -0.65577018 0.87464786 0
2.0440001 -0.65985036 0.87550825 0
2.0470002 -0.66394144 0.8763687 0
2.0500002 -0.66804326 0.87722909 0
2.0540001 -0.6725347 0.87837625 0
2.0550001 -0.67589885 0.87866318 0
2.0540001 -0.67850173 0.87837625 0
2.0530002 -0.68110102 0.87808955 0
2.052 -0.68369675 0.87780273 0
2.0510001 -0.68628877 0.87751591 0
2.0500002 -0.68887728 0.87722909 0
2.049 -0.6914621 0.87694228 0
2.0480001 -0.6940434 0.87665546 0
2.0470002 -0.696621 0.8763687 0
2.046 -0.69919503 0.87608182 0
2.0450001 -0.70176548 0.87579513 0
2.0440001 -0.70433229 0.87550825 0
2.108 -0.74228442 0.8938638 0
2.1120002 -0.7470032 0.89501107 0
2.115 -0.75132513 0.8958714 0
2.1420002 -0.55189967 0.900473 0
2.1390002 -0.55416524 0.89961803 0
2.1360002 -0.55642003 0.898763 0
2.1330001 -0.55866396 0.89790797 0
2.1300001 -0.56089705 0.897053 0
2.128 -0.56341881 0.89648294 0
2.125 -0.56563205 0.89562798 0
2.1220002 -0.5678345 0.89477295 0
2.1000001 -0.56730056 0.8885029 0
2.0990002 -0.57005864 0.88821793 0
2.0970001 -0.57250273 0.88764787 0
2.0960002 -0.57525176 0.8873629 0
2.095 -0.57799721 0.88707787 0
2.0940001 -0.58073896 0.8867929 0
2.0930002 -0.58347714 0.88650787 0
2.092 -0.58621168 0.88622284 0
2.0910001 -0.58894271 0.88593787 0
2.0900002 -0.59167004 0.8856529 0
2.0880001 -0.59406912 0.88508284 0
2.085 -0.59613448 0.88422787 0
2.082 -0.59818894 0.8833729 0
2.0800002 -0.60056281 0.88280284 0
2.0770001 -0.60259748 0.88194788 0
2.0740001 -0.60462135 0.88109285 0
2.072 -0.60696989 0.88052285 0
2.069 -0.60897392 0.87966782 0
2.0660002 -0.61096722 0.87881291 0
2.0640001 -0.61329043 0.87824285 0
2.0610001 -0.61526388 0.87738788 0
2.0580001 -0.61722636 0.87653285 0
2.0560002 -0.61952448 0.87596285 0
2.0530002 -0.62146717 0.87510782 0
2.0500002 -0.62339902 0.8742528 0
2.0480001 -0.6256718 0.87368286 0
2.0450001 -0.62758386 0.87282777 0
2.0420001 -0.62948507 0.8719728 0
2.0400002 -0.63173264 0.87140286 0
2.0370002 -0.633614 0.87054783 0
2.0350001 -0.6358453 0.86997783 0
2.0320001 -0.63770682 0.8691228 0
2.029 -0.63955754 0.86826777 0
2.0310001 -0.64322829 0.86883777 0
2.0340002 -0.6472742 0.8696928 0
2.0370002 -0.65133101 0.87054783 0
2.0410001 -0.65577018 0.87168777 0
2.0440001 -0.65985036 0.87254286 0
2.0470002 -0.66394144 0.87339783 0
2.0500002 -0.66804326 0.8742528 0
2.0540001 -0.6725347 0.87539279 0
2.0550001 -0.67589885 0.87567782 0
2.0540001 -0.67850173 0.87539279 0
2.0530002 -0.68110102 0.87510782 0
2.052 -0.68369675 0.87482285 0
2.0510001 -0.68628877 0.87453783 0
2.0500002 -0.68887728 0.8742528 0
2.049 -0.6914621 0.87396783 0
2.0480001 -0.6940434 0.87368286 0
2.0470002 -0.696621 0.87339783 0
2.046 -0.69919503 0.8731128 0
2.0450001 -0.70176548 0.87282777 0
2.0440001 -0.70433229 0.87254286 0
2.108 -0.74228442 0.89078295 0
2.1120002 -0.7470032 0.89192295 0
2.115 -0.75132513 0.89277792 0
2.1420002 -0.55189967 0.89733076 0
2.1390002 -0.55416524 0.89648116 0
2.1360002 -0.55642003 0.89563155 0
2.1330001 -0.55866396 0.89478195 0
2.1300001 -0.56089705 0.89393234 0
2.128 -0.56341881 0.89336598 0
2.125 -0.56563205 0.89251637 0
2.1220002 -0.5678345 0.89166677 0
2.1000001 -0.56730056 0.88543642 0
2.0990002 -0.57005864 0.88515323 0
2.0970001 -0.57250273 0.88458681 0
2.0960002 -0.57525176 0.88430363 0
2.095 -0.57799721 0.88402045 0
2.0940001 -0.58073896 0.88373721 0
2.0930002 -0.58347714 0.88345408 0
2.092 -0.58621168 0.88317084 0
2.0910001 -0.58894271 0.88288772 0
2.0900002 -0.59167004 0.88260448 0
2.0880001 -0.59406912 0.88203812 0
2.085 -0.59613448 0.88118845 0
2.082 -0.59818894 0.88033885 0
2.0800002 -0.60056281 0.87977242 0
2.0770001 -0.60259748 0.87892282 0
2.0740001 -0.60462135 0.87807322 0
2.072 -0.60696989 0.87750685 0
2.069 -0.60897392 0.87665725 0
2.0660002 -0.61096722 0.8758077 0
2.0640001 -0.61329043 0.87524128 0
2.0610001 -0.61526388 0.87439167 0
2.0580001 -0.61722636 0.87354219 0
2.0560002 -0.61952448 0.87297577 0
2.0530002 -0.62146717 0.87212616 0
2.0500002 -0.62339902 0.87127656 0
2.0480001 -0.6256718 0.87071013 0
2.0450001 -0.62758386 0.86986053 0
2.0420001 -0.62948507 0.86901093 0
2.0400002 -0.63173264 0.86844456 0
2.0370002 -0.633614 0.86759496 0
2.0350001 -0.6358453 0.86702859 0
2.0320001 -0.63770682 0.86617899 0
2.029 -0.63955754 0.86532938 0
2.0310001 -0.64322829 0.86589575 0
2.0340002 -0.6472742 0.86674535 0
2.0370002 -0.65133101 0.86759496 0
2.0410001 -0.65577018 0.86872768 0
2.0440001 -0.65985036 0.86957729 0
2.0470002 -0.66394144 0.87042695 0
2.0500002 -0.66804326 0.87127656 0
2.0540001 -0.6725347 0.87240934 0
2.0550001 -0.67589885 0.87269258 0
2.0540001 -0.67850173 0.87240934 0
2.0530002 -0.68110102 0.87212616 0
2.052 -0.68369675 0.87184292 0
2.0510001 -0.68628877 0.87155974 0
2.0500002 -0.68887728 0.87127656 0
2.049 -0.6914621 0.87099332 0
2.0480001 -0.6940434 0.87071013 0
2.0470002 -0.696621 0.87042695 0
2.046 -0.69919503 0.87014371 0
2.0450001 -0.70176548 0.86986053 0
2.0440001 -0.70433229 0.86957729 0
2.108 -0.74228442 0.88770199 0
2.1120002 -0.7470032 0.88883483 0
2.115 -0.75132513 0.88968438 0
2.1420002 -0.55189967 0.89418852 0
2.1390002 -0.55416524 0.89334434 0
2.1360002 -0.55642003 0.89250016 0
2.1330001 -0.55866396 0.89165592 0
2.1300001 -0.56089705 0.8908118 0
2.128 -0.56341881 0.89024895 0
2.125 -0.56563205 0.88940477 0
2.1220002 -0.5678345 0.88856065 0
2.1000001 -0.56730056 0.88237 0
2.0990002 -0.57005864 0.88208854 0
2.0970001 -0.57250273 0.88152575 0
2.0960002 -0.57525176 0.88124442 0
2.095 -0.57799721 0.88096297 0
2.0940001 -0.58073896 0.88068157 0
2.0930002 -0.58347714 0.88040018 0
2.092 -0.58621168 0.88011879 0
2.0910001 -0.58894271 0.87983739 0
2.0900002 -0.59167004 0.87955606 0
2.0880001 -0.59406912 0.87899321 0
2.085 -0.59613448 0.87814903 0
2.082 -0.59818894 0.87730485 0
2.0800002 -0.60056281 0.87674212 0
2.0770001 -0.60259748 0.87589788 0
2.0740001 -0.60462135 0.8750537 0
2.072 -0.60696989 0.87449092 0
2.069 -0.60897392 0.87364674 0
2.0660002 -0.61096722 0.87280262 0
2.0640001 -0.61329043 0.87223977 0
2.0610001 -0.61526388 0.87139559 0
2.0580001 -0.61722636 0.87055141 0
2.0560002 -0.61952448 0.86998868 0
2.0530002 -0.62146717 0.86914444 0
2.0500002 -0.62339902 0.86830032 0
2.0480001 -0.6256718 0.86773747 0
2.0450001 -0.62758386 0.86689329 0
2.0420001 -0.62948507 0.86604905 0
2.0400002 -0.63173264 0.86548632 0
2.0370002 -0.633614 0.86464214 0
2.0350001 -0.6358453 0.86407936 0
2.0320001 -0.63770682 0.86323512 0
2.029 -0.63955754 0.862391 0
2.0310001 -0.64322829 0.86295378 0
2.0340002 -0.6472742 0.8637979 0
2.0370002 -0.65133101 0.86464214 0
2.0410001 -0.65577018 0.86576772 0
2.0440001 -0.65985036 0.8666119 0
2.0470002 -0.66394144 0.86745608 0
2.0500002 -0.66804326 0.86830032 0
2.0540001 -0.6725347 0.86942583 0
2.0550001 -0.67589885 0.86970723 0
2.0540001 -0.67850173 0.86942583 0
2.0530002 -0.68110102 0.86914444 0
2.052 -0.68369675 0.86886299 0
2.0510001 -0.68628877 0.86858165 0
2.0500002 -0.68887728 0.86830032 0
2.049 -0.6914621 0.86801887 0
2.0480001 -0.6940434 0.86773747 0
2.0470002 -0.696621 0.86745608 0
2.046 -0.69919503 0.86717463 0
2.0450001 -0.70176548 0.86689329 0
2.0440001 -0.70433229 0.8666119 0
2.108 -0.74228442 0.88462108 0
2.1120002 -0.7470032 0.88574672 0
2.115 -0.75132513 0.88659084 0
2.1420002 -0.55189967 0.89104629 0
2.1390002 -0.55416524 0.89020753 0
2.1360002 -0.55642003 0.88936877 0
2.1330001 -0.55866396 0.88853002 0
2.1300001 -0.56089705 0.8876912 0
2.128 -0.56341881 0.88713199 0
2.125 -0.56563205 0.88629317 0
2.1220002 -0.5678345 0.88545454 0
2.1000001 -0.56730056 0.87930346 0
2.0990002 -0.57005864 0.87902391 0
2.0970001 -0.57250273 0.8784647 0
2.0960002 -0.57525176 0.87818515 0
2.095 -0.57799721 0.87790549 0
2.0940001 -0.58073896 0.87762594 0
2.0930002 -0.58347714 0.87734634 0
2.092 -0.58621168 0.87706673 0
2.0910001 -0.58894271 0.87678719 0
2.0900002 -0.59167004 0.87650758 0
2.0880001 -0.59406912 0.87594843 0
2.085 -0.59613448 0.87510967 0
2.082 -0.59818894 0.8742708 0
2.0800002 -0.60056281 0.87371171 0
2.0770001 -0.60259748 0.87287289 0
2.0740001 -0.60462135 0.87203407 0
2.072 -0.60696989 0.87147498 0
2.069 -0.60897392 0.87063617 0
2.0660002 -0.61096722 0.86979741 0
2.0640001 -0.61329043 0.86923826 0
2.0610001 -0.61526388 0.8683995 0
2.0580001 -0.61722636 0.86756074 0
2.0560002 -0.61952448 0.86700153 0
2.0530002 -0.62146717 0.86616278 0
2.0500002 -0.62339902 0.86532396 0
2.0480001 -0.6256718 0.86476481 0
2.0450001 -0.62758386 0.86392605 0
2.0420001 -0.62948507 0.86308724 0
2.0400002 -0.63173264 0.86252809 0
2.0370002 -0.633614 0.86168933 0
2.0350001 -0.6358453 0.86113012 0
2.0320001 -0.63770682 0.86029136 0
2.029 -0.63955754 0.85945261 0
2.0310001 -0.64322829 0.86001176 0
2.0340002 -0.6472742 0.86085051 0
2.0370002 -0.65133101 0.86168933 0
2.0410001 -0.65577018 0.86280763 0
2.0440001 -0.65985036 0.86364639 0
2.0470002 -0.66394144 0.8644852 0
2.0500002 -0.66804326 0.86532396 0
2.0540001 -0.6725347 0.86644232 0
2.0550001 -0.67589885 0.86672199 0
2.0540001 -0.67850173 0.86644232 0
2.0530002 -0.68110102 0.86616278 0
2.052 -0.68369675 0.86588311 0
2.0510001 -0.68628877 0.86560357 0
2.0500002 -0.68887728 0.86532396 0
2.049 -0.6914621 0.86504436 0
2.0480001 -0.6940434 0.86476481 0
2.0470002 -0.696621 0.8644852 0
2.046 -0.69919503 0.8642056 0
2.0450001 -0.70176548 0.86392605 0
2.0440001 -0.70433229 0.86364639 0
2.108 -0.74228442 0.88154018 0
2.1120002 -0.7470032 0.8826586 0
2.115 -0.75132513 0.88349736 0
2.1420002 -0.55189967 0.88790405 0
2.1390002 -0.55416524 0.88707066 0
2.1360002 -0.55642003 0.88623726 0
2.1330001 -0.55866396 0.88540399 0
2.1300001 -0.56089705 0.8845706 0
2.128 -0.56341881 0.88401496 0
2.125 -0.56563205 0.88318163 0
2.1220002 -0.5678345 0.8823483 0
2.1000001 -0.56730056 0.87623703 0
2.0990002 -0.57005864 0.87595928 0
2.0970001 -0.57250273 0.87540364 0
2.0960002 -0.57525176 0.87512589 0
2.095 -0.57799721 0.87484801 0
2.0940001 -0.58073896 0.87457025 0
2.0930002 -0.58347714 0.87429249 0
2.092 -0.58621168 0.87401468 0
2.0910001 -0.58894271 0.87373692 0
2.0900002 -0.59167004 0.8734591 0
2.0880001 -0.59406912 0.87290359 0
2.085 -0.59613448 0.87207019 0
2.082 -0.59818894 0.87123686 0
2.0800002 -0.60056281 0.87068129 0
2.0770001 -0.60259748 0.86984789 0
2.0740001 -0.60462135 0.8690145 0
2.072 -0.60696989 0.86845899 0
2.069 -0.60897392 0.86762559 0
2.0660002 -0.61096722 0.86679232 0
2.0640001 -0.61329043 0.86623669 0
2.0610001 -0.61526388 0.86540335 0
2.0580001 -0.61722636 0.86457002 0
2.0560002 -0.61952448 0.86401439 0
2.0530002 -0.62146717 0.86318105 0
2.0500002 -0.62339902 0.86234772 0
2.0480001 -0.6256718 0.86179215 0
2.0450001 -0.62758386 0.86095876 0
2.0420001 -0.62948507 0.86012542 0
2.0400002 -0.63173264 0.85956979 0
2.0370002 -0.633614 0.85873646 0
2.0350001 -0.6358453 0.85818088 0
2.0320001 -0.63770682 0.85734755 0
2.029 -0.63955754 0.85651422 0
2.0310001 -0.64322829 0.85706973 0
2.0340002 -0.6472742 0.85790312 0
2.0370002 -0.65133101 0.85873646 0
2.0410001 -0.65577018 0.85984761 0
2.0440001 -0.65985036 0.86068094 0
2.0470002 -0.66394144 0.86151433 0
2.0500002 -0.66804326 0.86234772 0
2.0540001 -0.6725347 0.86345881 0
2.0550001 -0.67589885 0.86373663 0
2.0540001 -0.67850173 0.86345881 0
2.0530002 -0.68110102 0.86318105 0
2.052 -0.68369675 0.86290324 0
2.0510001 -0.68628877 0.86262548 0
2.0500002 -0.68887728 0.86234772 0
2.049 -0.6914621 0.8620699 0
2.0480001 -0.6940434 0.86179215 0
2.0470002 -0.696621 0.86151433 0
2.046 -0.69919503 0.86123657 0
2.0450001 -0.70176548 0.86095876 0
2.0440001 -0.70433229 0.86068094 0
2.108 -0.74228442 0.87845933 0
2.1120002 -0.7470032 0.87957048 0
2.115 -0.75132513 0.88040382 0
2.1420002 -0.55189967 0.88476181 0
2.1390002 -0.55416524 0.8839339 0
2.1360002 -0.55642003 0.88310587 0
2.1330001 -0.55866396 0.88227797 0
2.1300001 -0.56089705 0.88145006 0
2.128 -0.56341881 0.880898 0
2.125 -0.56563205 0.88007009 0
2.1220002 -0.5678345 0.87924218 0
2.1000001 -0.56730056 0.8731705 0
2.0990002 -0.57005864 0.87289453 0
2.0970001 -0.57250273 0.87234259 0
2.0960002 -0.57525176 0.87206662 0
2.095 -0.57799721 0.87179065 0
2.0940001 -0.58073896 0.87151462 0
2.0930002 -0.58347714 0.87123871 0
2.092 -0.58621168 0.87096268 0
2.0910001 -0.58894271 0.87068671 0
2.0900002 -0.59167004 0.87041068 0
2.0880001 -0.59406912 0.86985874 0
2.085 -0.59613448 0.86903083 0
2.082 -0.59818894 0.86820281 0
2.0800002 -0.60056281 0.86765087 0
2.0770001 -0.60259748 0.8668229 0
2.0740001 -0.60462135 0.86599499 0
2.072 -0.60696989 0.86544299 0
2.069 -0.60897392 0.86461508 0
2.0660002 -0.61096722 0.86378717 0
2.0640001 -0.61329043 0.86323512 0
2.0610001 -0.61526388 0.86240721 0
2.0580001 -0.61722636 0.8615793 0
2.0560002 -0.61952448 0.86102736 0
2.0530002 -0.62146717 0.86019933 0
2.0500002 -0.62339902 0.85937142 0
2.0480001 -0.6256718 0.85881943 0
2.0450001 -0.62758386 0.85799146 0
2.0420001 -0.62948507 0.85716355 0
2.0400002 -0.63173264 0.85661161 0
2.0370002 -0.633614 0.85578364 0
2.0350001 -0.6358453 0.85523164 0
2.0320001 -0.63770682 0.85440373 0
2.029 -0.63955754 0.85357577 0
2.0310001 -0.64322829 0.85412771 0
2.0340002 -0.6472742 0.85495567 0
2.0370002 -0.65133101 0.85578364 0
2.0410001 -0.65577018 0.85688752 0
2.0440001 -0.65985036 0.85771549 0
2.0470002 -0.66394144 0.85854346 0
2.0500002 -0.66804326 0.85937142 0
2.0540001 -0.6725347 0.8604753 0
2.0550001 -0.67589885 0.86075127 0
2.0540001 -0.67850173 0.8604753 0
2.0530002 -0.68110102 0.86019933 0
2.052 -0.68369675 0.85992336 0
2.0510001 -0.68628877 0.85964739 0
2.0500002 -0.68887728 0.85937142 0
2.049 -0.6914621 0.85909545 0
2.0480001 -0.6940434 0.85881943 0
2.0470002 -0.696621 0.85854346 0
2.046 -0.69919503 0.85826743 0
2.0450001 -0.70176548 0.85799146 0
2.0440001 -0.70433229 0.85771549 0
2.108 -0.74228442 0.87537837 0
2.1120002 -0.7470032 0.87648237 0
2.115 -0.75132513 0.87731028 0
2.1420002 -0.55189967 0.88161957 0
2.1390002 -0.55416524 0.88079703 0
2.1360002 -0.55642003 0.87997448 0
2.1330001 -0.55866396 0.87915194 0
2.1300001 -0.56089705 0.87832946 0
2.128 -0.56341881 0.87778103 0
2.125 -0.56563205 0.87695849 0
2.1220002 -0.5678345 0.876136 0
2.1000001 -0.56730056 0.87010401 0
2.0990002 -0.57005864 0.86982989 0
2.0970001 -0.57250273 0.86928153 0
2.0960002 -0.57525176 0.86900735 0
2.095 -0.57799721 0.86873317 0
2.0940001 -0.58073896 0.86845899 0
2.0930002 -0.58347714 0.8681848 0
2.092 -0.58621168 0.86791062 0
2.0910001 -0.58894271 0.86763644 0
2.0900002 -0.59167004 0.86736226 0
2.0880001 -0.59406912 0.8668139 0
2.085 -0.59613448 0.86599135 0
2.082 -0.59818894 0.86516881 0
2.0800002 -0.60056281 0.86462045 0
2.0770001 -0.60259748 0.8637979 0
2.0740001 -0.60462135 0.86297536 0
2.072 -0.60696989 0.86242706 0
2.069 -0.60897392 0.86160451 0
2.0660002 -0.61096722 0.86078203 0
2.0640001 -0.61329043 0.8602336 0
2.0610001 -0.61526388 0.85941112 0
2.0580001 -0.61722636 0.85858858 0
2.0560002 -0.61952448 0.85804021 0
2.0530002 -0.62146717 0.85721767 0
2.0500002 -0.62339902 0.85639513 0
2.0480001 -0.6256718 0.85584676 0
2.0450001 -0.62758386 0.85502422 0
2.0420001 -0.62948507 0.85420167 0
2.0400002 -0.63173264 0.85365331 0
2.0370002 -0.633614 0.85283077 0
2.0350001 -0.6358453 0.85228246 0
2.0320001 -0.63770682 0.85145986 0
2.029 -0.63955754 0.85063738 0
2.0310001 -0.64322829 0.85118568 0
2.0340002 -0.6472742 0.85200822 0
2.0370002 -0.65133101 0.85283077 0
2.0410001 -0.65577018 0.85392749 0
2.0440001 -0.65985036 0.85475004 0
2.0470002 -0.66394144 0.85557258 0
2.0500002 -0.66804326 0.85639513 0
2.0540001 -0.6725347 0.85749185 0
2.0550001 -0.67589885 0.85776603 0
2.0540001 -0.67850173 0.85749185 0
2.0530002 -0.68110102 0.85721767 0
2.052 -0.68369675 0.85694349 0
2.0510001 -0.68628877 0.85666931 0
2.0500002 -0.68887728 0.85639513 0
2.049 -0.6914621 0.85612094 0
2.0480001 -0.6940434 0.85584676 0
2.0470002 -0.696621 0.85557258 0
2.046 -0.69919503 0.8552984 0
2.0450001 -0.70176548 0.85502422 0
2.0440001 -0.70433229 0.85475004 0
2.108 -0.74228442 0.87229747 0
2.1120002 -0.7470032 0.87339425 0
2.115 -0.75132513 0.87421668 0
2.1420002 -0.55189967 0.87847733 0
2.1390002 -0.55416524 0.87766021 0
2.1360002 -0.55642003 0.87684309 0
2.1330001 -0.55866396 0.87602597 0
2.1300001 -0.56089705 0.87520885 0
2.128 -0.56341881 0.87466407 0
2.125 -0.56563205 0.87384695 0
2.1220002 -0.5678345 0.87302989 0
2.1000001 -0.56730056 0.86703759 0
2.0990002 -0.57005864 0.8667652 0
2.0970001 -0.57250273 0.86622047 0
2.0960002 -0.57525176 0.86594808 0
2.095 -0.57799721 0.86567569 0
2.0940001 -0.58073896 0.86540335 0
2.0930002 -0.58347714 0.86513096 0
2.092 -0.58621168 0.86485857 0
2.0910001 -0.58894271 0.86458623 0
2.0900002 -0.59167004 0.86431384 0
2.0880001 -0.59406912 0.86376905 0
2.085 -0.59613448 0.86295199 0
2.082 -0.59818894 0.86213481 0
2.0800002 -0.60056281 0.86159009 0
2.0770001 -0.60259748 0.86077297 0
2.0740001 -0.60462135 0.85995579 0
2.072 -0.60696989 0.85941106 0
2.069 -0.60897392 0.85859394 0
2.0660002 -0.61096722 0.85777688 0
2.0640001 -0.61329043 0.85723209 0
2.0610001 -0.61526388 0.85641497 0
2.0580001 -0.61722636 0.85559785 0
2.0560002 -0.61952448 0.85505307 0
2.0530002 -0.62146717 0.85423595 0
2.0500002 -0.62339902 0.85341883 0
2.0480001 -0.6256718 0.8528741 0
2.0450001 -0.62758386 0.85205698 0
2.0420001 -0.62948507 0.8512398 0
2.0400002 -0.63173264 0.85069513 0
2.0370002 -0.633614 0.84987795 0
2.0350001 -0.6358453 0.84933317 0
2.0320001 -0.63770682 0.84851611 0
2.029 -0.63955754 0.84769893 0
2.0310001 -0.64322829 0.84824371 0
2.0340002 -0.6472742 0.84906083 0
2.0370002 -0.65133101 0.84987795 0
2.0410001 -0.65577018 0.85096741 0
2.0440001 -0.65985036 0.85178459 0
2.0470002 -0.66394144 0.85260171 0
2.0500002 -0.66804326 0.85341883 0
2.0540001 -0.6725347 0.85450834 0
2.0550001 -0.67589885 0.85478067 0
2.0540001 -0.67850173 0.85450834 0
2.0530002 -0.68110102 0.85423595 0
2.052 -0.68369675 0.85396361 0
2.0510001 -0.68628877 0.85369122 0
2.0500002 -0.68887728 0.85341883 0
2.049 -0.6914621 0.85314643 0
2.0480001 -0.6940434 0.8528741 0
2.0470002 -0.696621 0.85260171 0
2.046 -0.69919503 0.85232931 0
2.0450001 -0.70176548 0.85205698 0
2.0440001 -0.70433229 0.85178459 0
2.108 -0.74228442 0.86921656 0
2.1120002 -0.7470032 0.87030613 0
2.115 -0.75132513 0.87112319 0
2.1420002 -0.55189967 0.8753351 0
2.1390002 -0.55416524 0.8745234 0
2.1360002 -0.55642003 0.87371171 0
2.1330001 -0.55866396 0.87289995 0
2.1300001 -0.56089705 0.87208831 0
2.128 -0.56341881 0.8715471 0
2.125 -0.56563205 0.87073541 0
2.1220002 -0.5678345 0.86992371 0
2.1000001 -0.56730056 0.86397111 0
2.0990002 -0.57005864 0.86370057 0
2.0970001 -0.57250273 0.86315942 0
2.0960002 -0.57525176 0.86288881 0
2.095 -0.57799721 0.86261827 0
2.0940001 -0.58073896 0.86234772 0
2.0930002 -0.58347714 0.86207712 0
2.092 -0.58621168 0.86180651 0
2.0910001 -0.58894271 0.86153597 0
2.0900002 -0.59167004 0.86126542 0
2.0880001 -0.59406912 0.86072427 0
2.085 -0.59613448 0.85991251 0
2.082 -0.59818894 0.85910082 0
2.0800002 -0.60056281 0.85855973 0
2.0770001 -0.60259748 0.85774797 0
2.0740001 -0.60462135 0.85693622 0
2.072 -0.60696989 0.85639513 0
2.069 -0.60897392 0.85558343 0
2.0660002 -0.61096722 0.85477173 0
2.0640001 -0.61329043 0.85423052 0
2.0610001 -0.61526388 0.85341883 0
2.0580001 -0.61722636 0.85260713 0
2.0560002 -0.61952448 0.85206604 0
2.0530002 -0.62146717 0.85125422 0
2.0500002 -0.62339902 0.85044253 0
2.0480001 -0.6256718 0.84990144 0
2.0450001 -0.62758386 0.84908974 0
2.0420001 -0.62948507 0.84827799 0
2.0400002 -0.63173264 0.84773684 0
2.0370002 -0.633614 0.84692514 0
2.0350001 -0.6358453 0.84638399 0
2.0320001 -0.63770682 0.84557229 0
2.029 -0.63955754 0.84476054 0
2.0310001 -0.64322829 0.84530169 0
2.0340002 -0.6472742 0.84611344 0
2.0370002 -0.65133101 0.84692514 0
2.0410001 -0.65577018 0.84800744 0
2.0440001 -0.65985036 0.84881914 0
2.0470002 -0.66394144 0.84963083 0
2.0500002 -0.66804326 0.85044253 0
2.0540001 -0.6725347 0.85152483 0
2.0550001 -0.67589885 0.85179543 0
2.0540001 -0.67850173 0.85152483 0
2.0530002 -0.68110102 0.85125422 0
2.052 -0.68369675 0.85098368 0
2.0510001 -0.68628877 0.85071313 0
2.0500002 -0.68887728 0.85044253 0
2.049 -0.6914621 0.85017198 0
2.0480001 -0.6940434 0.84990144 0
2.0470002 -0.696621 0.84963083 0
2.046 -0.69919503 0.84936023 0
2.0450001 -0.70176548 0.84908974 0
2.0440001 -0.70433229 0.84881914 0
2.108 -0.74228442 0.86613572 0
2.1120002 -0.7470032 0.86721802 0
2.115 -0.75132513 0.86802965 0
2.1420002 -0.55189967 0.87219286 0
2.1390002 -0.55416524 0.87138659 0
2.1360002 -0.55642003 0.87058026 0
2.1330001 -0.55866396 0.86977398 0
2.1300001 -0.56089705 0.86896765 0
2.128 -0.56341881 0.86843014 0
2.125 -0.56563205 0.86762381 0
2.1220002 -0.5678345 0.86681747 0
2.1000001 -0.56730056 0.86090463 0
2.0990002 -0.57005864 0.86063588 0
2.0970001 -0.57250273 0.8600983 0
2.0960002 -0.57525176 0.85982955 0
2.095 -0.57799721 0.85956079 0
2.0940001 -0.58073896 0.85929203 0
2.0930002 -0.58347714 0.85902327 0
2.092 -0.58621168 0.85875452 0
2.0910001 -0.58894271 0.8584857 0
2.0900002 -0.59167004 0.858217 0
2.0880001 -0.59406912 0.85767943 0
2.085 -0.59613448 0.85687315 0
2.082 -0.59818894 0.85606682 0
2.0800002 -0.60056281 0.85552931 0
2.0770001 -0.60259748 0.85472298 0
2.0740001 -0.60462135 0.85391665 0
2.072 -0.60696989 0.85337913 0
2.069 -0.60897392 0.8525728 0
2.0660002 -0.61096722 0.85176659 0
2.0640001 -0.61329043 0.85122901 0
2.0610001 -0.61526388 0.85042274 0
2.0580001 -0.61722636 0.84961641 0
2.0560002 -0.61952448 0.84907889 0
2.0530002 -0.62146717 0.84827256 0
2.0500002 -0.62339902 0.84746629 0
2.0480001 -0.6256718 0.84692872 0
2.0450001 -0.62758386 0.84612244 0
2.0420001 -0.62948507 0.84531611 0
2.0400002 -0.63173264 0.8447786 0
2.0370002 -0.633614 0.84397233 0
2.0350001 -0.6358453 0.84343481 0
2.0320001 -0.63770682 0.84262848 0
2.029 -0.63955754 0.84182215 0
2.0310001 -0.64322829 0.84235966 0
2.0340002 -0.6472742 0.84316599 0
2.0370002 -0.65133101 0.84397233 0
2.0410001 -0.65577018 0.84504735 0
2.0440001 -0.65985036 0.84585369 0
2.0470002 -0.66394144 0.84665996 0
2.0500002 -0.66804326 0.84746629 0
2.0540001 -0.6725347 0.84854132 0
2.0550001 -0.67589885 0.84881008 0
2.0540001 -0.67850173 0.84854132 0
2.0530002 -0.68110102 0.84827256 0
2.052 -0.68369675 0.8480038 0
2.0510001 -0.68628877 0.84773505 0
2.0500002 -0.68887728 0.84746629 0
2.049 -0.6914621 0.84719747 0
2.0480001 -0.6940434 0.84692872 0
2.0470002 -0.696621 0.84665996 0
2.046 -0.69919503 0.8463912 0
2.0450001 -0.70176548 0.84612244 0
2.0440001 -0.70433229 0.84585369 0
2.108 -0.74228442 0.86305475 0
2.1120002 -0.7470032 0.86412984 0
2.115 -0.75132513 0.86493611 0
2.1420002 -0.55189967 0.86905062 0
2.1390002 -0.55416524 0.86824977 0
2.1360002 -0.55642003 0.86744881 0
2.1330001 -0.55866396 0.86664796 0
2.1300001 -0.56089705 0.86584711 0
2.128 -0.56341881 0.86531317 0
2.125 -0.56563205 0.86451221 0
2.1220002 -0.5678345 0.86371136 0
2.1000001 -0.56730056 0.85783815 0
2.0990002 -0.57005864 0.85757124 0
2.0970001 -0.57250273 0.85703731 0
2.0960002 -0.57525176 0.85677028 0
2.095 -0.57799721 0.85650337 0
2.0940001 -0.58073896 0.8562364 0
2.0930002 -0.58347714 0.85596943 0
2.092 -0.58621168 0.8557024 0
2.0910001 -0.58894271 0.85543549 0
2.0900002 -0.59167004 0.85516852 0
2.0880001 -0.59406912 0.85463458 0
2.085 -0.59613448 0.85383368 0
2.082 -0.59818894 0.85303283 0
2.0800002 -0.60056281 0.85249889 0
2.0770001 -0.60259748 0.85169804 0
2.0740001 -0.60462135 0.85089707 0
2.072 -0.60696989 0.85036314 0
2.069 -0.60897392 0.84956229 0
2.0660002 -0.61096722 0.84876144 0
2.0640001 -0.61329043 0.8482275 0
2.0610001 -0.61526388 0.84742659 0
2.0580001 -0.61722636 0.84662569 0
2.0560002 -0.61952448 0.84609175 0
2.0530002 -0.62146717 0.8452909 0
2.0500002 -0.62339902 0.84448999 0
2.0480001 -0.6256718 0.84395611 0
2.0450001 -0.62758386 0.84315515 0
2.0420001 -0.62948507 0.8423543 0
2.0400002 -0.63173264 0.84182036 0
2.0370002 -0.633614 0.84101945 0
2.0350001 -0.6358453 0.84048557 0
2.0320001 -0.63770682 0.83968461 0
2.029 -0.63955754 0.83888376 0
2.0310001 -0.64322829 0.8394177 0
2.0340002 -0.6472742 0.84021854 0
2.0370002 -0.65133101 0.84101945 0
2.0410001 -0.65577018 0.84208727 0
2.0440001 -0.65985036 0.84288824 0
2.0470002 -0.66394144 0.84368908 0
2.0500002 -0.66804326 0.84448999 0
2.0540001 -0.6725347 0.84555781 0
2.0550001 -0.67589885 0.84582484 0
2.0540001 -0.67850173 0.84555781 0
2.0530002 -0.68110102 0.8452909 0
2.052 -0.68369675 0.84502393 0
2.0510001 -0.68628877 0.84475696 0
2.0500002 -0.68887728 0.84448999 0
2.049 -0.6914621 0.84422302 0
2.0480001 -0.6940434 0.84395611 0
2.0470002 -0.696621 0.84368908 0
2.046 -0.69919503 0.84342211 0
2.0450001 -0.70176548 0.84315515 0
2.0440001 -0.70433229 0.84288824 0
2.108 -0.74228442 0.85997391 0
2.1120002 -0.7470032 0.86104178 0
2.115 -0.75132513 0.86184263 0
2.1420002 -0.55189967 0.86590838 0
2.1390002 -0.55416524 0.8651129 0
2.1360002 -0.55642003 0.86431742 0
2.1330001 -0.55866396 0.86352193 0
2.1300001 -0.56089705 0.86272645 0
2.128 -0.56341881 0.86219615 0
2.125 -0.56563205 0.86140066 0
2.1220002 -0.5678345 0.86060524 0
2.1000001 -0.56730056 0.85477167 0
2.0990002 -0.57005864 0.85450655 0
2.0970001 -0.57250273 0.85397619 0
2.0960002 -0.57525176 0.85371101 0
2.095 -0.57799721 0.85344589 0
2.0940001 -0.58073896 0.85318077 0
2.0930002 -0.58347714 0.85291559 0
2.092 -0.58621168 0.8526504 0
2.0910001 -0.58894271 0.85238528 0
2.0900002 -0.59167004 0.85212004 0
2.0880001 -0.59406912 0.8515898 0
2.085 -0.59613448 0.85079432 0
2.082 -0.59818894 0.84999883 0
2.0800002 -0.60056281 0.84946847 0
2.0770001 -0.60259748 0.84867299 0
2.0740001 -0.60462135 0.8478775 0
2.072 -0.60696989 0.84734726 0
2.069 -0.60897392 0.84655172 0
2.0660002 -0.61096722 0.84575629 0
2.0640001 -0.61329043 0.84522593 0
2.0610001 -0.61526388 0.84443045 0
2.0580001 -0.61722636 0.84363496 0
2.0560002 -0.61952448 0.84310472 0
2.0530002 -0.62146717 0.84230918 0
2.0500002 -0.62339902 0.84151375 0
2.0480001 -0.6256718 0.84098339 0
2.0450001 -0.62758386 0.84018791 0
2.0420001 -0.62948507 0.83939242 0
2.0400002 -0.63173264 0.83886212 0
2.0370002 -0.633614 0.83806658 0
2.0350001 -0.6358453 0.83753633 0
2.0320001 -0.63770682 0.83674085 0
2.029 -0.63955754 0.83594537 0
2.0310001 -0.64322829 0.83647561 0
2.0340002 -0.6472742 0.83727115 0
2.0370002 -0.65133101 0.83806658 0
2.0410001 -0.65577018 0.83912724 0
2.0440001 -0.65985036 0.83992279 0
2.0470002 -0.66394144 0.84071821 0
2.0500002 -0.66804326 0.84151375 0
2.0540001 -0.6725347 0.84257436 0
2.0550001 -0.67589885 0.84283948 0
2.0540001 -0.67850173 0.84257436 0
2.0530002 -0.68110102 0.84230918 0
2.052 -0.68369675 0.842044 0
2.0510001 -0.68628877 0.84177887 0
2.0500002 -0.68887728 0.84151375 0
2.049 -0.6914621 0.84124851 0
2.0480001 -0.6940434 0.84098339 0
2.0470002 -0.696621 0.84071821 0
2.046 -0.69919503 0.84045303 0
2.0450001 -0.70176548 0.84018791 0
2.0440001 -0.70433229 0.83992279 0
2.108 -0.74228442 0.85689294 0
2.1120002 -0.7470032 0.85795361 0
2.115 -0.75132513 0.85874909 0
2.1420002 -0.55189967 0.86276615 0
2.1390002 -0.55416524 0.86197615 0
2.1360002 -0.55642003 0.86118603 0
2.1330001 -0.55866396 0.86039597 0
2.1300001 -0.56089705 0.85960591 0
2.128 -0.56341881 0.85907918 0
2.125 -0.56563205 0.85828912 0
2.1220002 -0.5678345 0.85749906 0
2.1000001 -0.56730056 0.85170519 0
2.0990002 -0.57005864 0.85144186 0
2.0970001 -0.57250273 0.85091513 0
2.0960002 -0.57525176 0.8506518 0
2.095 -0.57799721 0.85038841 0
2.0940001 -0.58073896 0.85012507 0
2.0930002 -0.58347714 0.84986174 0
2.092 -0.58621168 0.84959835 0
2.0910001 -0.58894271 0.84933501 0
2.0900002 -0.59167004 0.84907162 0
2.0880001 -0.59406912 0.84854496 0
2.085 -0.59613448 0.84775484 0
2.082 -0.59818894 0.84696484 0
2.0800002 -0.60056281 0.84643811 0
2.0770001 -0.60259748 0.84564805 0
2.0740001 -0.60462135 0.84485793 0
2.072 -0.60696989 0.84433126 0
2.069 -0.60897392 0.84354115 0
2.0660002 -0.61096722 0.84275115 0
2.0640001 -0.61329043 0.84222436 0
2.0610001 -0.61526388 0.84143436 0
2.0580001 -0.61722636 0.8406443 0
2.0560002 -0.61952448 0.84011757 0
2.0530002 -0.62146717 0.83932745 0
2.0500002 -0.62339902 0.83853745 0
2.0480001 -0.6256718 0.83801073 0
2.0450001 -0.62758386 0.83722067 0
2.0420001 -0.62948507 0.83643055 0
2.0400002 -0.63173264 0.83590388 0
2.0370002 -0.633614 0.83511376 0
2.0350001 -0.6358453 0.8345871 0
2.0320001 -0.63770682 0.83379698 0
2.029 -0.63955754 0.83300698 0
2.0310001 -0.64322829 0.83353364 0
2.0340002 -0.6472742 0.83432376 0
2.0370002 -0.65133101 0.83511376 0
2.0410001 -0.65577018 0.83616722 0
2.0440001 -0.65985036 0.83695728 0
2.0470002 -0.66394144 0.83774734 0
2.0500002 -0.66804326 0.83853745 0
2.0540001 -0.6725347 0.83959085 0
2.0550001 -0.67589885 0.83985424 0
2.0540001 -0.67850173 0.83959085 0
2.0530002 -0.68110102 0.83932745 0
2.052 -0.68369675 0.83906412 0
2.0510001 -0.68628877 0.83880079 0
2.0500002 -0.68887728 0.83853745 0
2.049 -0.6914621 0.83827406 0
2.0480001 -0.6940434 0.83801073 0
2.0470002 -0.696621 0.83774734 0
2.046 -0.69919503 0.837484 0
2.0450001 -0.70176548 0.83722067 0
2.0440001 -0.70433229 0.83695728 0
2.108 -0.74228442 0.8538121 0
2.1120002 -0.7470032 0.85486555 0
2.115 -0.75132513 0.85565555 0
2.1420002 -0.55189967 0.85962391 0
2.1390002 -0.55416524 0.85883927 0
2.1360002 -0.55642003 0.85805464 0
2.1330001 -0.55866396 0.85726994 0
2.1300001 -0.56089705 0.85648537 0
2.128 -0.56341881 0.85596222 0
2.125 -0.56563205 0.85517752 0
2.1220002 -0.5678345 0.85439289 0
2.1000001 -0.56730056 0.84863871 0
2.0990002 -0.57005864 0.84837723 0
2.0970001 -0.57250273 0.84785408 0
2.0960002 -0.57525176 0.84759253 0
2.095 -0.57799721 0.84733099 0
2.0940001 -0.58073896 0.84706944 0
2.0930002 -0.58347714 0.8468079 0
2.092 -0.58621168 0.84654629 0
2.0910001 -0.58894271 0.84628481 0
2.0900002 -0.59167004 0.8460232 0
2.0880001 -0.59406912 0.84550011 0
2.085 -0.59613448 0.84471548 0
2.082 -0.59818894 0.84393078 0
2.0800002 -0.60056281 0.84340769 0
2.0770001 -0.60259748 0.842623 0
2.0740001 -0.60462135 0.84183836 0
2.072 -0.60696989 0.84131527 0
2.069 -0.60897392 0.84053063 0
2.0660002 -0.61096722 0.839746 0
2.0640001 -0.61329043 0.83922285 0
2.0610001 -0.61526388 0.83843821 0
2.0580001 -0.61722636 0.83765358 0
2.0560002 -0.61952448 0.83713049 0
2.0530002 -0.62146717 0.83634579 0
2.0500002 -0.62339902 0.83556116 0
2.0480001 -0.6256718 0.83503807 0
2.0450001 -0.62758386 0.83425337 0
2.0420001 -0.62948507 0.83346868 0
2.0400002 -0.63173264 0.83294559 0
2.0370002 -0.633614 0.83216095 0
2.0350001 -0.6358453 0.83163786 0
2.0320001 -0.63770682 0.83085322 0
2.029 -0.63955754 0.83006859 0
2.0310001 -0.64322829 0.83059168 0
2.0340002 -0.6472742 0.83137631 0
2.0370002 -0.65133101 0.83216095 0
2.0410001 -0.65577018 0.83320713 0
2.0440001 -0.65985036 0.83399177 0
2.0470002 -0.66394144 0.83477652 0
2.0500002 -0.66804326 0.83556116 0
2.0540001 -0.6725347 0.83660734 0
2.0550001 -0.67589885 0.83686888 0
2.0540001 -0.67850173 0.83660734 0
2.0530002 -0.68110102 0.83634579 0
2.052 -0.68369675 0.83608425 0
2.0510001 -0.68628877 0.8358227 0
2.0500002 -0.68887728 0.83556116 0
2.049 -0.6914621 0.83529961 0
2.0480001 -0.6940434 0.83503807 0
2.0470002 -0.696621 0.83477652 0
2.046 -0.69919503 0.83451492 0
2.0450001 -0.70176548 0.83425337 0
2.0440001 -0.70433229 0.83399177 0
2.108 -0.74228442 0.85073113 0
2.1120002 -0.7470032 0.85177737 0
2.115 -0.75132513 0.85256201 0
2.1420002 -0.55189967 0.85648173 0
2.1390002 -0.55416524 0.85570246 0
2.1360002 -0.55642003 0.85492325 0
2.1330001 -0.55866396 0.85414398 0
2.1300001 -0.56089705 0.85336471 0
2.128 -0.56341881 0.85284519 0
2.125 -0.56563205 0.85206598 0
2.1220002 -0.5678345 0.85128677 0
2.1000001 -0.56730056 0.84557223 0
2.0990002 -0.57005864 0.84531254 0
2.0970001 -0.57250273 0.84479302 0
