# .PCD v0.7 - Point Cloud Data file format
VERSION 0.7
FIELDS x y z intensity
SIZE 4 4 4 4
TYPE F F F F
COUNT 1 1 1 1
WIDTH 1463
HEIGHT 1
VIEWPOINT 0 0 0 1 0 0 0
POINTS 1463
DATA ascii
4.3270001 -2.1427324 1.4594498 0
4.3270001 -2.1498158 1.4594498 0
4.3270001 -2.1568995 1.4594498 0
4.3270001 -2.1639831 1.4594498 0
4.3270001 -2.1710665 1.4594498 0
4.3270001 -2.1781502 1.4594498 0
4.3270001 -2.1852336 1.4594498 0
4.3270001 -2.1923172 1.4594498 0
4.3270001 -2.1994009 1.4594498 0
4.3270001 -2.2064843 1.4594498 0
4.3270001 -2.213568 1.4594498 0
4.3270001 -2.2206514 1.4594498 0
4.3270001 -2.227735 1.4594498 0
4.3270001 -2.2348187 1.4594498 0
4.3270001 -2.2419021 1.4594498 0
4.3270001 -2.2489858 1.4594498 0
4.3270001 -2.2560692 1.4594498 0
4.3270001 -2.2631528 1.4594498 0
4.3270001 -2.2702363 1.4594498 0
4.3270001 -2.2773199 1.4594498 0
4.3270001 -2.2844036 1.4594498 0
4.3270001 -2.291487 1.4594498 0
4.3270001 -2.2985706 1.4594498 0
4.3270001 -2.305654 1.4594498 0
4.7520003 -2.1027455 1.5658257 0
4.7360005 -2.1030054 1.5615544 0
4.7190003 -2.102731 1.5570159 0
4.7030001 -2.1028736 1.5527444 0
4.6870003 -2.1029582 1.548473 0
4.6710005 -2.1029854 1.5442016 0
4.6550002 -2.1029546 1.5399302 0
4.6390004 -2.1028664 1.5356588 0
4.6240001 -2.1032071 1.5316542 0
4.6080003 -2.1030052 1.527383 0
4.5930004 -2.1032362 1.5233785 0
4.5770001 -2.1029203 1.519107 0
4.5620003 -2.1030412 1.5151026 0
4.5470004 -2.1031079 1.5110981 0
4.5320001 -2.1031206 1.5070937 0
4.5170002 -2.1030791 1.5030893 0
4.5020003 -2.1029835 1.4990847 0
4.4880004 -2.1033373 1.4953474 0
4.4730005 -2.1031351 1.4913429 0
4.4590001 -2.1033857 1.4876053 0
4.4450002 -2.103586 1.4838679 0
4.4300003 -2.1032255 1.4798634 0
4.4160004 -2.1033227 1.476126 0
4.4020004 -2.1033695 1.4723884 0
4.388 -2.1033659 1.4686509 0
4.3740001 -2.1033118 1.4649135 0
4.3610001 -2.1037266 1.4614429 0
4.3470001 -2.1035736 1.4577055 0
4.3330002 -2.1033695 1.4539679 0
4.3270001 -2.1073146 1.4523662 0
4.3270001 -2.114398 1.4523662 0
4.3270001 -2.1214817 1.4523662 0
4.3270001 -2.1285653 1.4523662 0
4.3270001 -2.1356487 1.4523662 0
4.3270001 -2.1427324 1.4523662 0
4.3270001 -2.1498158 1.4523662 0
4.3270001 -2.1568995 1.4523662 0
4.3270001 -2.1639831 1.4523662 0
4.3270001 -2.1710665 1.4523662 0
4.3270001 -2.1781502 1.4523662 0
4.3270001 -2.1852336 1.4523662 0
4.3270001 -2.1923172 1.4523662 0
4.3270001 -2.1994009 1.4523662 0
4.3270001 -2.2064843 1.4523662 0
4.3270001 -2.213568 1.4523662 0
4.3270001 -2.2206514 1.4523662 0
4.3270001 -2.227735 1.4523662 0
4.3270001 -2.2348187 1.4523662 0
4.3270001 -2.2419021 1.4523662 0
4.3270001 -2.2489858 1.4523662 0
4.3270001 -2.2560692 1.4523662 0
4.3270001 -2.2631528 1.4523662 0
4.3270001 -2.2702363 1.4523662 0
4.3270001 -2.2773199 1.4523662 0
4.3270001 -2.2844036 1.4523662 0
4.3270001 -2.291487 1.4523662 0
4.3270001 -2.2985706 1.4523662 0
4.3270001 -2.305654 1.4523662 0
4.7520003 -2.1027455 1.5579755 0
4.7360005 -2.1030054 1.5537331 0
4.7190003 -2.102731 1.5492253 0
4.7030001 -2.1028736 1.5449827 0
4.6870003 -2.1029582 1.5407401 0
4.6710005 -2.1029854 1.5364976 0
4.6550002 -2.1029546 1.5322551 0
4.6390004 -2.1028664 1.5280125 0
4.6240001 -2.1032071 1.524035 0
4.6080003 -2.1030052 1.5197926 0
4.5930004 -2.1032362 1.5158151 0
4.5770001 -2.1029203 1.5115725 0
4.5620003 -2.1030412 1.5075952 0
4.5470004 -2.1031079 1.5036179 0
4.5320001 -2.1031206 1.4996403 0
4.5170002 -2.1030791 1.495663 0
4.5020003 -2.1029835 1.4916855 0
4.4880004 -2.1033373 1.4879733 0
4.4730005 -2.1031351 1.483996 0
4.4590001 -2.1033857 1.4802836 0
4.4450002 -2.103586 1.4765714 0
4.4300003 -2.1032255 1.4725941 0
4.4160004 -2.1033227 1.4688818 0
4.4020004 -2.1033695 1.4651697 0
4.388 -2.1033659 1.4614574 0
4.3740001 -2.1033118 1.4577452 0
4.3610001 -2.1037266 1.454298 0
4.3470001 -2.1035736 1.4505858 0
4.3330002 -2.1033695 1.4468735 0
4.3270001 -2.1073146 1.4452827 0
4.3270001 -2.114398 1.4452827 0
4.3270001 -2.1214817 1.4452827 0
4.3270001 -2.1285653 1.4452827 0
4.3270001 -2.1356487 1.4452827 0
4.3270001 -2.1427324 1.4452827 0
4.3270001 -2.1498158 1.4452827 0
4.3270001 -2.1568995 1.4452827 0
4.3270001 -2.1639831 1.4452827 0
4.3270001 -2.1710665 1.4452827 0
4.3270001 -2.1781502 1.4452827 0
4.3270001 -2.1852336 1.4452827 0
4.3270001 -2.1923172 1.4452827 0
4.3270001 -2.1994009 1.4452827 0
4.3270001 -2.2064843 1.4452827 0
4.3270001 -2.213568 1.4452827 0
4.3270001 -2.2206514 1.4452827 0
4.3270001 -2.227735 1.4452827 0
4.3270001 -2.2348187 1.4452827 0
4.3270001 -2.2419021 1.4452827 0
4.3270001 -2.2489858 1.4452827 0
4.3270001 -2.2560692 1.4452827 0
4.3270001 -2.2631528 1.4452827 0
4.3270001 -2.2702363 1.4452827 0
4.3270001 -2.2773199 1.4452827 0
4.3270001 -2.2844036 1.4452827 0
4.3270001 -2.291487 1.4452827 0
4.3270001 -2.2985706 1.4452827 0
4.3270001 -2.305654 1.4452827 0
4.7520003 -2.1027455 1.5501254 0
4.7360005 -2.1030054 1.5459118 0
4.7190003 -2.102731 1.5414346 0
4.7030001 -2.1028736 1.5372208 0
4.6870003 -2.1029582 1.5330073 0
4.6710005 -2.1029854 1.5287936 0
4.6550002 -2.1029546 1.5245799 0
4.6390004 -2.1028664 1.5203662 0
4.6240001 -2.1032071 1.5164157 0
4.6080003 -2.1030052 1.5122021 0
4.5930004 -2.1032362 1.5082518 0
4.5770001 -2.1029203 1.504038 0
4.5620003 -2.1030412 1.5000877 0
4.5470004 -2.1031079 1.4961374 0
4.5320001 -2.1031206 1.4921869 0
4.5170002 -2.1030791 1.4882367 0
4.5020003 -2.1029835 1.4842863 0
4.4880004 -2.1033373 1.4805994 0
4.4730005 -2.1031351 1.4766492 0
4.4590001 -2.1033857 1.472962 0
4.4450002 -2.103586 1.469275 0
4.4300003 -2.1032255 1.4653246 0
4.4160004 -2.1033227 1.4616379 0
4.4020004 -2.1033695 1.4579508 0
4.388 -2.1033659 1.4542638 0
4.3740001 -2.1033118 1.4505768 0
4.3610001 -2.1037266 1.4471532 0
4.3470001 -2.1035736 1.4434662 0
4.3330002 -2.1033695 1.4397792 0
4.3270001 -2.1073146 1.438199 0
4.3270001 -2.114398 1.438199 0
4.3270001 -2.1214817 1.438199 0
4.3270001 -2.1285653 1.438199 0
4.3270001 -2.1356487 1.438199 0
4.3270001 -2.1427324 1.438199 0
4.3270001 -2.1498158 1.438199 0
4.3270001 -2.1568995 1.438199 0
4.3270001 -2.1639831 1.438199 0
4.3270001 -2.1710665 1.438199 0
4.3270001 -2.1781502 1.438199 0
4.3270001 -2.1852336 1.438199 0
4.3270001 -2.1923172 1.438199 0
4.3270001 -2.1994009 1.438199 0
4.3270001 -2.2064843 1.438199 0
4.3270001 -2.213568 1.438199 0
4.3270001 -2.2206514 1.438199 0
4.3270001 -2.227735 1.438199 0
4.3270001 -2.2348187 1.438199 0
4.3270001 -2.2419021 1.438199 0
4.3270001 -2.2489858 1.438199 0
4.3270001 -2.2560692 1.438199 0
4.3270001 -2.2631528 1.438199 0
4.3270001 -2.2702363 1.438199 0
4.3270001 -2.2773199 1.438199 0
4.3270001 -2.2844036 1.438199 0
4.3270001 -2.291487 1.438199 0
4.3270001 -2.2985706 1.438199 0
4.3270001 -2.305654 1.438199 0
4.7520003 -2.1027455 1.5422752 0
4.7360005 -2.1030054 1.5380905 0
4.7190003 -2.102731 1.533644 0
4.7030001 -2.1028736 1.5294591 0
4.6870003 -2.1029582 1.5252744 0
4.6710005 -2.1029854 1.5210894 0
4.6550002 -2.1029546 1.5169046 0
4.6390004 -2.1028664 1.5127198 0
4.6240001 -2.1032071 1.5087965 0
4.6080003 -2.1030052 1.5046117 0
4.5930004 -2.1032362 1.5006884 0
4.5770001 -2.1029203 1.4965035 0
4.5620003 -2.1030412 1.4925803 0
4.5470004 -2.1031079 1.488657 0
4.5320001 -2.1031206 1.4847337 0
4.5170002 -2.1030791 1.4808104 0
4.5020003 -2.1029835 1.4768871 0
4.4880004 -2.1033373 1.4732255 0
4.4730005 -2.1031351 1.4693022 0
4.4590001 -2.1033857 1.4656403 0
4.4450002 -2.103586 1.4619787 0
4.4300003 -2.1032255 1.4580554 0
4.4160004 -2.1033227 1.4543937 0
4.4020004 -2.1033695 1.450732 0
4.388 -2.1033659 1.4470701 0
4.3740001 -2.1033118 1.4434085 0
4.3610001 -2.1037266 1.4400083 0
4.3470001 -2.1035736 1.4363467 0
4.3330002 -2.1033695 1.4326848 0
4.3270001 -2.1073146 1.4311155 0
4.3270001 -2.114398 1.4311155 0
4.3270001 -2.1214817 1.4311155 0
4.3270001 -2.1285653 1.4311155 0
4.3270001 -2.1356487 1.4311155 0
4.3270001 -2.1427324 1.4311155 0
4.3270001 -2.1498158 1.4311155 0
4.3270001 -2.1568995 1.4311155 0
4.3270001 -2.1639831 1.4311155 0
4.3270001 -2.1710665 1.4311155 0
4.3270001 -2.1781502 1.4311155 0
4.3270001 -2.1852336 1.4311155 0
4.3270001 -2.1923172 1.4311155 0
4.3270001 -2.1994009 1.4311155 0
4.3270001 -2.2064843 1.4311155 0
4.3270001 -2.213568 1.4311155 0
4.3270001 -2.2206514 1.4311155 0
4.3270001 -2.227735 1.4311155 0
4.3270001 -2.2348187 1.4311155 0
4.3270001 -2.2419021 1.4311155 0
4.3270001 -2.2489858 1.4311155 0
4.3270001 -2.2560692 1.4311155 0
4.3270001 -2.2631528 1.4311155 0
4.3270001 -2.2702363 1.4311155 0
4.3270001 -2.2773199 1.4311155 0
4.3270001 -2.2844036 1.4311155 0
4.3270001 -2.291487 1.4311155 0
4.3270001 -2.2985706 1.4311155 0
4.3270001 -2.305654 1.4311155 0
4.7520003 -2.1027455 1.534425 0
4.7360005 -2.1030054 1.530269 0
4.7190003 -2.102731 1.5258533 0
4.7030001 -2.1028736 1.5216973 0
4.6870003 -2.1029582 1.5175413 0
4.6710005 -2.1029854 1.5133854 0
4.6550002 -2.1029546 1.5092294 0
4.6390004 -2.1028664 1.5050734 0
4.6240001 -2.1032071 1.5011772 0
4.6080003 -2.1030052 1.4970212 0
4.5930004 -2.1032362 1.4931251 0
4.5770001 -2.1029203 1.4889691 0
4.5620003 -2.1030412 1.4850727 0
4.5470004 -2.1031079 1.4811766 0
4.5320001 -2.1031206 1.4772803 0
4.5170002 -2.1030791 1.4733841 0
4.5020003 -2.1029835 1.4694879 0
4.4880004 -2.1033373 1.4658515 0
4.4730005 -2.1031351 1.4619553 0
4.4590001 -2.1033857 1.4583186 0
4.4450002 -2.103586 1.4546822 0
4.4300003 -2.1032255 1.450786 0
4.4160004 -2.1033227 1.4471495 0
4.4020004 -2.1033695 1.443513 0
4.388 -2.1033659 1.4398767 0
4.3740001 -2.1033118 1.4362402 0
4.3610001 -2.1037266 1.4328634 0
4.3470001 -2.1035736 1.429227 0
4.3330002 -2.1033695 1.4255904 0
4.3270001 -2.1073146 1.424032 0
4.3270001 -2.114398 1.424032 0
4.3270001 -2.1214817 1.424032 0
4.3270001 -2.1285653 1.424032 0
4.3270001 -2.1356487 1.424032 0
4.3270001 -2.1427324 1.424032 0
4.3270001 -2.1498158 1.424032 0
4.3270001 -2.1568995 1.424032 0
4.3270001 -2.1639831 1.424032 0
4.3270001 -2.1710665 1.424032 0
4.3270001 -2.1781502 1.424032 0
4.3270001 -2.1852336 1.424032 0
4.3270001 -2.1923172 1.424032 0
4.3270001 -2.1994009 1.424032 0
4.3270001 -2.2064843 1.424032 0
4.3270001 -2.213568 1.424032 0
4.3270001 -2.2206514 1.424032 0
4.3270001 -2.227735 1.424032 0
4.3270001 -2.2348187 1.424032 0
4.3270001 -2.2419021 1.424032 0
4.3270001 -2.2489858 1.424032 0
4.3270001 -2.2560692 1.424032 0
4.3270001 -2.2631528 1.424032 0
4.3270001 -2.2702363 1.424032 0
4.3270001 -2.2773199 1.424032 0
4.3270001 -2.2844036 1.424032 0
4.3270001 -2.291487 1.424032 0
4.3270001 -2.2985706 1.424032 0
4.3270001 -2.305654 1.424032 0
4.7520003 -2.1027455 1.5265749 0
4.7360005 -2.1030054 1.5224477 0
4.7190003 -2.102731 1.5180627 0
4.7030001 -2.1028736 1.5139354 0
4.6870003 -2.1029582 1.5098084 0
4.6710005 -2.1029854 1.5056814 0
4.6550002 -2.1029546 1.5015543 0
4.6390004 -2.1028664 1.4974272 0
4.6240001 -2.1032071 1.4935578 0
4.6080003 -2.1030052 1.4894308 0
4.5930004 -2.1032362 1.4855617 0
4.5770001 -2.1029203 1.4814346 0
4.5620003 -2.1030412 1.4775654 0
4.5470004 -2.1031079 1.4736962 0
4.5320001 -2.1031206 1.4698269 0
4.5170002 -2.1030791 1.4659579 0
4.5020003 -2.1029835 1.4620887 0
4.4880004 -2.1033373 1.4584775 0
4.4730005 -2.1031351 1.4546084 0
4.4590001 -2.1033857 1.450997 0
4.4450002 -2.103586 1.4473858 0
4.4300003 -2.1032255 1.4435167 0
4.4160004 -2.1033227 1.4399054 0
4.4020004 -2.1033695 1.4362943 0
4.388 -2.1033659 1.432683 0
4.3740001 -2.1033118 1.4290718 0
4.3610001 -2.1037266 1.4257185 0
4.3470001 -2.1035736 1.4221072 0
4.3330002 -2.1033695 1.418496 0
4.3270001 -2.1073146 1.4169484 0
4.3270001 -2.114398 1.4169484 0
4.3270001 -2.1214817 1.4169484 0
4.3270001 -2.1285653 1.4169484 0
4.3270001 -2.1356487 1.4169484 0
4.3270001 -2.1427324 1.4169484 0
4.3270001 -2.1498158 1.4169484 0
4.3270001 -2.1568995 1.4169484 0
4.3270001 -2.1639831 1.4169484 0
4.3270001 -2.1710665 1.4169484 0
4.3270001 -2.1781502 1.4169484 0
4.3270001 -2.1852336 1.4169484 0
4.3270001 -2.1923172 1.4169484 0
4.3270001 -2.1994009 1.4169484 0
4.3270001 -2.2064843 1.4169484 0
4.3270001 -2.213568 1.4169484 0
4.3270001 -2.2206514 1.4169484 0
4.3270001 -2.227735 1.4169484 0
4.3270001 -2.2348187 1.4169484 0
4.3270001 -2.2419021 1.4169484 0
4.3270001 -2.2489858 1.4169484 0
4.3270001 -2.2560692 1.4169484 0
4.3270001 -2.2631528 1.4169484 0
4.3270001 -2.2702363 1.4169484 0
4.3270001 -2.2773199 1.4169484 0
4.3270001 -2.2844036 1.4169484 0
4.3270001 -2.291487 1.4169484 0
4.3270001 -2.2985706 1.4169484 0
4.3270001 -2.305654 1.4169484 0
4.7520003 -2.1027455 1.5187247 0
4.7360005 -2.1030054 1.5146264 0
4.7190003 -2.102731 1.510272 0
4.7030001 -2.1028736 1.5061737 0
4.6870003 -2.1029582 1.5020756 0
4.6710005 -2.1029854 1.4979774 0
4.6550002 -2.1029546 1.493879 0
4.6390004 -2.1028664 1.4897808 0
4.6240001 -2.1032071 1.4859385 0
4.6080003 -2.1030052 1.4818404 0
4.5930004 -2.1032362 1.4779984 0
4.5770001 -2.1029203 1.4739001 0
4.5620003 -2.1030412 1.470058 0
4.5470004 -2.1031079 1.4662158 0
4.5320001 -2.1031206 1.4623737 0
4.5170002 -2.1030791 1.4585316 0
4.5020003 -2.1029835 1.4546895 0
4.4880004 -2.1033373 1.4511036 0
4.4730005 -2.1031351 1.4472615 0
4.4590001 -2.1033857 1.4436754 0
4.4450002 -2.103586 1.4400895 0
4.4300003 -2.1032255 1.4362473 0
4.4160004 -2.1033227 1.4326614 0
4.4020004 -2.1033695 1.4290755 0
4.388 -2.1033659 1.4254894 0
4.3740001 -2.1033118 1.4219035 0
4.3610001 -2.1037266 1.4185736 0
4.3470001 -2.1035736 1.4149877 0
4.3330002 -2.1033695 1.4114016 0
4.3270001 -2.1073146 1.4098649 0
4.3270001 -2.114398 1.4098649 0
4.3270001 -2.1214817 1.4098649 0
4.3270001 -2.1285653 1.4098649 0
4.3270001 -2.1356487 1.4098649 0
4.3270001 -2.1427324 1.4098649 0
4.3270001 -2.1498158 1.4098649 0
4.3270001 -2.1568995 1.4098649 0
4.3270001 -2.1639831 1.4098649 0
4.3270001 -2.1710665 1.4098649 0
4.3270001 -2.1781502 1.4098649 0
4.3270001 -2.1852336 1.4098649 0
4.3270001 -2.1923172 1.4098649 0
4.3270001 -2.1994009 1.4098649 0
4.3270001 -2.2064843 1.4098649 0
4.3270001 -2.213568 1.4098649 0
4.3270001 -2.2206514 1.4098649 0
4.3270001 -2.227735 1.4098649 0
4.3270001 -2.2348187 1.4098649 0
4.3270001 -2.2419021 1.4098649 0
4.3270001 -2.2489858 1.4098649 0
4.3270001 -2.2560692 1.4098649 0
4.3270001 -2.2631528 1.4098649 0
4.3270001 -2.2702363 1.4098649 0
4.3270001 -2.2773199 1.4098649 0
4.3270001 -2.2844036 1.4098649 0
4.3270001 -2.291487 1.4098649 0
4.3270001 -2.2985706 1.4098649 0
4.3270001 -2.305654 1.4098649 0
4.7520003 -2.1027455 1.5108745 0
4.7360005 -2.1030054 1.5068051 0
4.7190003 -2.102731 1.5024813 0
4.7030001 -2.1028736 1.498412 0
4.6870003 -2.1029582 1.4943426 0
4.6710005 -2.1029854 1.4902732 0
4.6550002 -2.1029546 1.4862038 0
4.6390004 -2.1028664 1.4821345 0
4.6240001 -2.1032071 1.4783193 0
4.6080003 -2.1030052 1.47425 0
4.5930004 -2.1032362 1.470435 0
4.5770001 -2.1029203 1.4663656 0
4.5620003 -2.1030412 1.4625505 0
4.5470004 -2.1031079 1.4587355 0
4.5320001 -2.1031206 1.4549203 0
4.5170002 -2.1030791 1.4511052 0
4.5030003 -2.1034849 1.4475446 0
4.4880004 -2.1033373 1.4437295 0
4.4730005 -2.1031351 1.4399146 0
4.4590001 -2.1033857 1.4363538 0
4.4450002 -2.103586 1.432793 0
4.4300003 -2.1032255 1.428978 0
4.4160004 -2.1033227 1.4254173 0
4.4020004 -2.1033695 1.4218566 0
4.388 -2.1033659 1.4182959 0
4.3740001 -2.1033118 1.4147352 0
4.3610001 -2.1037266 1.4114288 0
4.3470001 -2.1035736 1.407868 0
4.3330002 -2.1033695 1.4043074 0
4.3270001 -2.1073146 1.4027812 0
4.3270001 -2.114398 1.4027812 0
4.3270001 -2.1214817 1.4027812 0
4.3270001 -2.1285653 1.4027812 0
4.3270001 -2.1356487 1.4027812 0
4.3270001 -2.1427324 1.4027812 0
4.3270001 -2.1498158 1.4027812 0
4.3270001 -2.1568995 1.4027812 0
4.3270001 -2.1639831 1.4027812 0
4.3270001 -2.1710665 1.4027812 0
4.3270001 -2.1781502 1.4027812 0
4.3270001 -2.1852336 1.4027812 0
4.3270001 -2.1923172 1.4027812 0
4.3270001 -2.1994009 1.4027812 0
4.3270001 -2.2064843 1.4027812 0
4.3270001 -2.213568 1.4027812 0
4.3270001 -2.2206514 1.4027812 0
4.3270001 -2.227735 1.4027812 0
4.3270001 -2.2348187 1.4027812 0
4.3270001 -2.2419021 1.4027812 0
4.3270001 -2.2489858 1.4027812 0
4.3270001 -2.2560692 1.4027812 0
4.3270001 -2.2631528 1.4027812 0
4.3270001 -2.2702363 1.4027812 0
4.3270001 -2.2773199 1.4027812 0
4.3270001 -2.2844036 1.4027812 0
4.3270001 -2.291487 1.4027812 0
4.3270001 -2.2985706 1.4027812 0
4.3270001 -2.305654 1.4027812 0
4.7520003 -2.1027455 1.5030243 0
4.7360005 -2.1030054 1.4989839 0
4.7190003 -2.102731 1.4946908 0
4.7030001 -2.1028736 1.4906501 0
4.6870003 -2.1029582 1.4866097 0
4.6710005 -2.1029854 1.4825692 0
4.6550002 -2.1029546 1.4785286 0
4.6390004 -2.1028664 1.474488 0
4.6240001 -2.1032071 1.4707 0
4.6080003 -2.1030052 1.4666595 0
4.5930004 -2.1032362 1.4628716 0
4.5770001 -2.1029203 1.4588311 0
4.5620003 -2.1030412 1.4550431 0
4.5470004 -2.1031079 1.451255 0
4.5320001 -2.1031206 1.447467 0
4.5170002 -2.1030791 1.443679 0
4.5030003 -2.1034849 1.4401436 0
4.4880004 -2.1033373 1.4363556 0
4.4730005 -2.1031351 1.4325676 0
4.4590001 -2.1033857 1.4290321 0
4.4450002 -2.103586 1.4254966 0
4.4300003 -2.1032255 1.4217086 0
4.4160004 -2.1033227 1.4181732 0
4.4020004 -2.1033695 1.4146377 0
4.388 -2.1033659 1.4111022 0
4.3740001 -2.1033118 1.4075668 0
4.3610001 -2.1037266 1.4042839 0
4.3470001 -2.1035736 1.4007484 0
4.3330002 -2.1033695 1.3972129 0
4.3270001 -2.1073146 1.3956977 0
4.3270001 -2.114398 1.3956977 0
4.3270001 -2.1214817 1.3956977 0
4.3270001 -2.1285653 1.3956977 0
4.3270001 -2.1356487 1.3956977 0
4.3270001 -2.1427324 1.3956977 0
4.3270001 -2.1498158 1.3956977 0
4.3270001 -2.1568995 1.3956977 0
4.3270001 -2.1639831 1.3956977 0
4.3270001 -2.1710665 1.3956977 0
4.3270001 -2.1781502 1.3956977 0
4.3270001 -2.1852336 1.3956977 0
4.3270001 -2.1923172 1.3956977 0
4.3270001 -2.1994009 1.3956977 0
4.3270001 -2.2064843 1.3956977 0
4.3270001 -2.213568 1.3956977 0
4.3270001 -2.2206514 1.3956977 0
4.3270001 -2.227735 1.3956977 0
4.3270001 -2.2348187 1.3956977 0
4.3270001 -2.2419021 1.3956977 0
4.3270001 -2.2489858 1.3956977 0
4.3270001 -2.2560692 1.3956977 0
4.3270001 -2.2631528 1.3956977 0
4.3270001 -2.2702363 1.3956977 0
4.3270001 -2.2773199 1.3956977 0
4.3270001 -2.2844036 1.3956977 0
4.3270001 -2.291487 1.3956977 0
4.3270001 -2.2985706 1.3956977 0
4.3270001 -2.305654 1.3956977 0
4.7520003 -2.1027455 1.4951742 0
4.7360005 -2.1030054 1.4911625 0
4.7190003 -2.102731 1.4869001 0
4.7030001 -2.1028736 1.4828883 0
4.6870003 -2.1029582 1.4788767 0
4.6710005 -2.1029854 1.4748652 0
4.6550002 -2.1029546 1.4708533 0
4.6390004 -2.1028664 1.4668418 0
4.6240001 -2.1032071 1.4630808 0
4.6080003 -2.1030052 1.4590691 0
4.5930004 -2.1032362 1.4553082 0
4.5770001 -2.1029203 1.4512966 0
4.5620003 -2.1030412 1.4475355 0
4.5470004 -2.1031079 1.4437747 0
4.5320001 -2.1031206 1.4400136 0
4.5170002 -2.1030791 1.4362527 0
4.5030003 -2.1034849 1.4327425 0
4.4880004 -2.1033373 1.4289817 0
4.4730005 -2.1031351 1.4252207 0
4.4590001 -2.1033857 1.4217104 0
4.4450002 -2.103586 1.4182003 0
4.4300003 -2.1032255 1.4144393 0
4.4160004 -2.1033227 1.4109292 0
4.4020004 -2.1033695 1.407419 0
4.388 -2.1033659 1.4039086 0
4.3740001 -2.1033118 1.4003985 0
4.3610001 -2.1037266 1.397139 0
4.3470001 -2.1035736 1.3936288 0
4.3330002 -2.1033695 1.3901185 0
4.3270001 -2.1073146 1.3886142 0
4.3270001 -2.114398 1.3886142 0
4.3270001 -2.1214817 1.3886142 0
4.3270001 -2.1285653 1.3886142 0
4.3270001 -2.1356487 1.3886142 0
4.3270001 -2.1427324 1.3886142 0
4.3270001 -2.1498158 1.3886142 0
4.3270001 -2.1568995 1.3886142 0
4.3270001 -2.1639831 1.3886142 0
4.3270001 -2.1710665 1.3886142 0
4.3270001 -2.1781502 1.3886142 0
4.3270001 -2.1852336 1.3886142 0
4.3270001 -2.1923172 1.3886142 0
4.3270001 -2.1994009 1.3886142 0
4.3270001 -2.2064843 1.3886142 0
4.3270001 -2.213568 1.3886142 0
4.3270001 -2.2206514 1.3886142 0
4.3270001 -2.227735 1.3886142 0
4.3270001 -2.2348187 1.3886142 0
4.3270001 -2.2419021 1.3886142 0
4.3270001 -2.2489858 1.3886142 0
4.3270001 -2.2560692 1.3886142 0
4.3270001 -2.2631528 1.3886142 0
4.3270001 -2.2702363 1.3886142 0
4.3270001 -2.2773199 1.3886142 0
4.3270001 -2.2844036 1.3886142 0
4.3270001 -2.291487 1.3886142 0
4.3270001 -2.2985706 1.3886142 0
4.3270001 -2.305654 1.3886142 0
4.7520003 -2.1027455 1.487324 0
4.7360005 -2.1030054 1.4833412 0
4.7190003 -2.102731 1.4791094 0
4.7030001 -2.1028736 1.4751266 0
4.6870003 -2.1029582 1.4711438 0
4.6710005 -2.1029854 1.4671611 0
4.6550002 -2.1029546 1.4631782 0
4.6390004 -2.1028664 1.4591955 0
4.6240001 -2.1032071 1.4554614 0
4.6080003 -2.1030052 1.4514787 0
4.5930004 -2.1032362 1.4477448 0
4.5770001 -2.1029203 1.4437621 0
4.5620003 -2.1030412 1.4400281 0
4.5470004 -2.1031079 1.4362943 0
4.5320001 -2.1031206 1.4325603 0
4.5170002 -2.1030791 1.4288265 0
4.5030003 -2.1034849 1.4253416 0
4.4880004 -2.1033373 1.4216076 0
4.4730005 -2.1031351 1.4178737 0
4.4590001 -2.1033857 1.4143888 0
4.4450002 -2.103586 1.4109038 0
4.4300003 -2.1032255 1.4071699 0
4.4160004 -2.1033227 1.403685 0
4.4020004 -2.1033695 1.4002001 0
4.388 -2.1033659 1.396715 0
4.3740001 -2.1033118 1.3932301 0
4.3610001 -2.1037266 1.3899941 0
4.3470001 -2.1035736 1.3865092 0
4.3330002 -2.1033695 1.3830241 0
4.3270001 -2.1073146 1.3815306 0
4.3270001 -2.114398 1.3815306 0
4.3270001 -2.1214817 1.3815306 0
4.3270001 -2.1285653 1.3815306 0
4.3270001 -2.1356487 1.3815306 0
4.3270001 -2.1427324 1.3815306 0
4.3270001 -2.1498158 1.3815306 0
4.3270001 -2.1568995 1.3815306 0
4.3270001 -2.1639831 1.3815306 0
4.3270001 -2.1710665 1.3815306 0
4.3270001 -2.1781502 1.3815306 0
4.3270001 -2.1852336 1.3815306 0
4.3270001 -2.1923172 1.3815306 0
4.3270001 -2.1994009 1.3815306 0
4.3270001 -2.2064843 1.3815306 0
4.3270001 -2.213568 1.3815306 0
4.3270001 -2.2206514 1.3815306 0
4.3270001 -2.227735 1.3815306 0
4.3270001 -2.2348187 1.3815306 0
4.3270001 -2.2419021 1.3815306 0
4.3270001 -2.2489858 1.3815306 0
4.3270001 -2.2560692 1.3815306 0
4.3270001 -2.2631528 1.3815306 0
4.3270001 -2.2702363 1.3815306 0
4.3270001 -2.2773199 1.3815306 0
4.3270001 -2.2844036 1.3815306 0
4.3270001 -2.291487 1.3815306 0
4.3270001 -2.2985706 1.3815306 0
4.3270001 -2.305654 1.3815306 0
4.7520003 -2.1027455 1.4794738 0
4.7360005 -2.1030054 1.4755199 0
4.7190003 -2.102731 1.4713187 0
4.7030001 -2.1028736 1.4673648 0
4.6870003 -2.1029582 1.4634109 0
4.6710005 -2.1029854 1.459457 0
4.6550002 -2.1029546 1.455503 0
4.6390004 -2.1028664 1.4515491 0
4.6240001 -2.1032071 1.4478421 0
4.6080003 -2.1030052 1.4438883 0
4.5930004 -2.1032362 1.4401815 0
4.5770001 -2.1029203 1.4362274 0
4.5620003 -2.1030412 1.4325206 0
4.5470004 -2.1031079 1.4288138 0
4.5320001 -2.1031206 1.425107 0
4.5170002 -2.1030791 1.4214002 0
4.5030003 -2.1034849 1.4179405 0
4.4880004 -2.1033373 1.4142337 0
4.4730005 -2.1031351 1.4105269 0
4.4590001 -2.1033857 1.4070671 0
4.4450002 -2.103586 1.4036074 0
4.4300003 -2.1032255 1.3999006 0
4.4160004 -2.1033227 1.3964409 0
4.4020004 -2.1033695 1.3929812 0
4.388 -2.1033659 1.3895215 0
4.3740001 -2.1033118 1.3860618 0
4.3610001 -2.1037266 1.3828492 0
4.3470001 -2.1035736 1.3793894 0
4.3330002 -2.1033695 1.3759297 0
4.3270001 -2.1073146 1.374447 0
4.3270001 -2.114398 1.374447 0
4.3270001 -2.1214817 1.374447 0
4.3270001 -2.1285653 1.374447 0
4.3270001 -2.1356487 1.374447 0
4.3270001 -2.1427324 1.374447 0
4.3270001 -2.1498158 1.374447 0
4.3270001 -2.1568995 1.374447 0
4.3270001 -2.1639831 1.374447 0
4.3270001 -2.1710665 1.374447 0
4.3270001 -2.1781502 1.374447 0
4.3270001 -2.1852336 1.374447 0
4.3270001 -2.1923172 1.374447 0
4.3270001 -2.1994009 1.374447 0
4.3270001 -2.2064843 1.374447 0
4.3270001 -2.213568 1.374447 0
4.3270001 -2.2206514 1.374447 0
4.3270001 -2.227735 1.374447 0
4.3270001 -2.2348187 1.374447 0
4.3270001 -2.2419021 1.374447 0
4.3270001 -2.2489858 1.374447 0
4.3270001 -2.2560692 1.374447 0
4.3270001 -2.2631528 1.374447 0
4.3270001 -2.2702363 1.374447 0
4.3270001 -2.2773199 1.374447 0
4.3270001 -2.2844036 1.374447 0
4.3270001 -2.291487 1.374447 0
4.3270001 -2.2985706 1.374447 0
4.3270001 -2.305654 1.374447 0
4.7520003 -2.1027455 1.4716235 0
4.7360005 -2.1030054 1.4676986 0
4.7190003 -2.102731 1.4635282 0
4.7030001 -2.1028736 1.4596031 0
4.6870003 -2.1029582 1.455678 0
4.6710005 -2.1029854 1.451753 0
4.6550002 -2.1029546 1.4478277 0
4.6390004 -2.1028664 1.4439027 0
4.6240001 -2.1032071 1.4402229 0
4.6080003 -2.1030052 1.4362979 0
4.5930004 -2.1032362 1.4326181 0
4.5770001 -2.1029203 1.4286929 0
4.5620003 -2.1030412 1.4250133 0
4.5470004 -2.1031079 1.4213336 0
4.5320001 -2.1031206 1.4176537 0
4.5170002 -2.1030791 1.4139738 0
4.5030003 -2.1034849 1.4105394 0
4.4880004 -2.1033373 1.4068596 0
4.4730005 -2.1031351 1.4031799 0
4.4590001 -2.1033857 1.3997453 0
4.4450002 -2.103586 1.3963109 0
4.4300003 -2.1032255 1.3926312 0
4.4160004 -2.1033227 1.3891968 0
4.4020004 -2.1033695 1.3857623 0
4.388 -2.1033659 1.3823279 0
4.3740001 -2.1033118 1.3788935 0
4.3610001 -2.1037266 1.3757043 0
4.3470001 -2.1035736 1.3722699 0
4.3330002 -2.1033695 1.3688353 0
4.3270001 -2.1073146 1.3673635 0
4.3270001 -2.114398 1.3673635 0
4.3270001 -2.1214817 1.3673635 0
4.3270001 -2.1285653 1.3673635 0
4.3270001 -2.1356487 1.3673635 0
4.3270001 -2.1427324 1.3673635 0
4.3270001 -2.1498158 1.3673635 0
4.3270001 -2.1568995 1.3673635 0
4.3270001 -2.1639831 1.3673635 0
4.3270001 -2.1710665 1.3673635 0
4.3270001 -2.1781502 1.3673635 0
4.3270001 -2.1852336 1.3673635 0
4.3270001 -2.1923172 1.3673635 0
4.3270001 -2.1994009 1.3673635 0
4.3270001 -2.2064843 1.3673635 0
4.3270001 -2.213568 1.3673635 0
4.3270001 -2.2206514 1.3673635 0
4.3270001 -2.227735 1.3673635 0
4.3270001 -2.2348187 1.3673635 0
4.3270001 -2.2419021 1.3673635 0
4.3270001 -2.2489858 1.3673635 0
4.3270001 -2.2560692 1.3673635 0
4.3270001 -2.2631528 1.3673635 0
4.3270001 -2.2702363 1.3673635 0
4.3270001 -2.2773199 1.3673635 0
4.3270001 -2.2844036 1.3673635 0
4.3270001 -2.291487 1.3673635 0
4.3270001 -2.2985706 1.3673635 0
4.3270001 -2.305654 1.3673635 0
4.7520003 -2.1027455 1.4637735 0
4.7360005 -2.1030054 1.4598773 0
4.7190003 -2.102731 1.4557376 0
4.7030001 -2.1028736 1.4518411 0
4.6870003 -2.1029582 1.447945 0
4.6710005 -2.1029854 1.4440488 0
4.6550002 -2.1029546 1.4401525 0
4.6390004 -2.1028664 1.4362563 0
4.6240001 -2.1032071 1.4326036 0
4.6080003 -2.1030052 1.4287074 0
4.5930004 -2.1032362 1.4250548 0
4.5770001 -2.1029203 1.4211584 0
4.5620003 -2.1030412 1.4175057 0
4.5470004 -2.1031079 1.413853 0
4.5320001 -2.1031206 1.4102004 0
4.5170002 -2.1030791 1.4065477 0
4.5030003 -2.1034849 1.4031384 0
4.4880004 -2.1033373 1.3994858 0
4.4730005 -2.1031351 1.395833 0
4.4590001 -2.1033857 1.3924237 0
4.4450002 -2.103586 1.3890146 0
4.4300003 -2.1032255 1.3853619 0
4.4160004 -2.1033227 1.3819526 0
4.4020004 -2.1033695 1.3785435 0
4.388 -2.1033659 1.3751342 0
4.3740001 -2.1033118 1.3717251 0
4.3610001 -2.1037266 1.3685595 0
4.3470001 -2.1035736 1.3651502 0
4.3330002 -2.1033695 1.3617409 0
4.3270001 -2.1073146 1.3602799 0
4.3270001 -2.114398 1.3602799 0
4.3270001 -2.1214817 1.3602799 0
4.3270001 -2.1285653 1.3602799 0
4.3270001 -2.1356487 1.3602799 0
4.3270001 -2.1427324 1.3602799 0
4.3270001 -2.1498158 1.3602799 0
4.3270001 -2.1568995 1.3602799 0
4.3270001 -2.1639831 1.3602799 0
4.3270001 -2.1710665 1.3602799 0
4.3270001 -2.1781502 1.3602799 0
4.3270001 -2.1852336 1.3602799 0
4.3270001 -2.1923172 1.3602799 0
4.3270001 -2.1994009 1.3602799 0
4.3270001 -2.2064843 1.3602799 0
4.3270001 -2.213568 1.3602799 0
4.3270001 -2.2206514 1.3602799 0
4.3270001 -2.227735 1.3602799 0
4.3270001 -2.2348187 1.3602799 0
4.3270001 -2.2419021 1.3602799 0
4.3270001 -2.2489858 1.3602799 0
4.3270001 -2.2560692 1.3602799 0
4.3270001 -2.2631528 1.3602799 0
4.3270001 -2.2702363 1.3602799 0
4.3270001 -2.2773199 1.3602799 0
4.3270001 -2.2844036 1.3602799 0
4.3270001 -2.291487 1.3602799 0
4.3270001 -2.2985706 1.3602799 0
4.3270001 -2.305654 1.3602799 0
4.7520003 -2.1027455 1.4559233 0
4.7360005 -2.1030054 1.4520559 0
4.7190003 -2.102731 1.4479469 0
4.7030001 -2.1028736 1.4440794 0
4.6870003 -2.1029582 1.4402121 0
4.6710005 -2.1029854 1.4363447 0
4.6550002 -2.1029546 1.4324774 0
4.6390004 -2.1028664 1.4286101 0
4.6240001 -2.1032071 1.4249843 0
4.6080003 -2.1030052 1.4211169 0
4.5930004 -2.1032362 1.4174914 0
4.5770001 -2.1029203 1.4136239 0
4.5620003 -2.1030412 1.4099983 0
4.5470004 -2.1031079 1.4063728 0
4.5320001 -2.1031206 1.4027469 0
4.5170002 -2.1030791 1.3991214 0
4.5030003 -2.1034849 1.3957373 0
4.4880004 -2.1033373 1.3921118 0
4.4730005 -2.1031351 1.3884861 0
4.4590001 -2.1033857 1.3851022 0
4.4450002 -2.103586 1.3817182 0
4.4300003 -2.1032255 1.3780925 0
4.4160004 -2.1033227 1.3747087 0
4.4020004 -2.1033695 1.3713248 0
4.388 -2.1033659 1.3679407 0
4.3740001 -2.1033118 1.3645568 0
4.3610001 -2.1037266 1.3614146 0
4.3470001 -2.1035736 1.3580306 0
4.3330002 -2.1033695 1.3546467 0
4.3270001 -2.1073146 1.3531964 0
4.3270001 -2.114398 1.3531964 0
4.3270001 -2.1214817 1.3531964 0
4.3270001 -2.1285653 1.3531964 0
4.3270001 -2.1356487 1.3531964 0
4.3270001 -2.1427324 1.3531964 0
4.3270001 -2.1498158 1.3531964 0
4.3270001 -2.1568995 1.3531964 0
4.3270001 -2.1639831 1.3531964 0
4.3270001 -2.1710665 1.3531964 0
4.3270001 -2.1781502 1.3531964 0
4.3270001 -2.1852336 1.3531964 0
4.3270001 -2.1923172 1.3531964 0
4.3270001 -2.1994009 1.3531964 0
4.3270001 -2.2064843 1.3531964 0
4.3270001 -2.213568 1.3531964 0
4.3270001 -2.2206514 1.3531964 0
4.3270001 -2.227735 1.3531964 0
4.3270001 -2.2348187 1.3531964 0
4.3270001 -2.2419021 1.3531964 0
4.3270001 -2.2489858 1.3531964 0
4.3270001 -2.2560692 1.3531964 0
4.3270001 -2.2631528 1.3531964 0
4.3270001 -2.2702363 1.3531964 0
4.3270001 -2.2773199 1.3531964 0
4.3270001 -2.2844036 1.3531964 0
4.3270001 -2.291487 1.3531964 0
4.3270001 -2.2985706 1.3531964 0
4.3270001 -2.305654 1.3531964 0
4.7520003 -2.1027455 1.4480731 0
4.7360005 -2.1030054 1.4442346 0
4.7190003 -2.102731 1.4401561 0
4.7030001 -2.1028736 1.4363177 0
4.6870003 -2.1029582 1.4324791 0
4.6710005 -2.1029854 1.4286407 0
4.6550002 -2.1029546 1.4248022 0
4.6390004 -2.1028664 1.4209638 0
4.6240001 -2.1032071 1.4173651 0
4.6080003 -2.1030052 1.4135265 0
4.5930004 -2.1032362 1.4099281 0
4.5770001 -2.1029203 1.4060894 0
4.5620003 -2.1030412 1.4024909 0
4.5470004 -2.1031079 1.3988923 0
4.5320001 -2.1031206 1.3952936 0
4.5170002 -2.1030791 1.391695 0
4.5030003 -2.1034849 1.3883364 0
4.4880004 -2.1033373 1.3847378 0
4.4730005 -2.1031351 1.3811392 0
4.4590001 -2.1033857 1.3777804 0
4.4450002 -2.103586 1.3744217 0
4.4300003 -2.1032255 1.3708233 0
4.4160004 -2.1033227 1.3674645 0
4.4020004 -2.1033695 1.3641058 0
4.388 -2.1033659 1.3607471 0
4.3740001 -2.1033118 1.3573885 0
4.3610001 -2.1037266 1.3542697 0
4.3470001 -2.1035736 1.350911 0
4.3330002 -2.1033695 1.3475522 0
4.3270001 -2.1073146 1.3461128 0
4.3270001 -2.114398 1.3461128 0
4.3270001 -2.1214817 1.3461128 0
4.3270001 -2.1285653 1.3461128 0
4.3270001 -2.1356487 1.3461128 0
4.3270001 -2.1427324 1.3461128 0
4.3270001 -2.1498158 1.3461128 0
4.3270001 -2.1568995 1.3461128 0
4.3270001 -2.1639831 1.3461128 0
4.3270001 -2.1710665 1.3461128 0
4.3270001 -2.1781502 1.3461128 0
4.3270001 -2.1852336 1.3461128 0
4.3270001 -2.1923172 1.3461128 0
4.3270001 -2.1994009 1.3461128 0
4.3270001 -2.2064843 1.3461128 0
4.3270001 -2.213568 1.3461128 0
4.3270001 -2.2206514 1.3461128 0
4.3270001 -2.227735 1.3461128 0
4.3270001 -2.2348187 1.3461128 0
4.3270001 -2.2419021 1.3461128 0
4.3270001 -2.2489858 1.3461128 0
4.3270001 -2.2560692 1.3461128 0
4.3270001 -2.2631528 1.3461128 0
4.3270001 -2.2702363 1.3461128 0
4.3270001 -2.2773199 1.3461128 0
4.3270001 -2.2844036 1.3461128 0
4.3270001 -2.291487 1.3461128 0
4.3270001 -2.2985706 1.3461128 0
4.3270001 -2.305654 1.3461128 0
4.7520003 -2.1027455 1.440223 0
4.7360005 -2.1030054 1.4364133 0
4.7190003 -2.102731 1.4323655 0
4.7030001 -2.1028736 1.4285558 0
4.6870003 -2.1029582 1.4247463 0
4.6710005 -2.1029854 1.4209366 0
4.6550002 -2.1029546 1.417127 0
4.6390004 -2.1028664 1.4133173 0
4.6240001 -2.1032071 1.4097457 0
4.6080003 -2.1030052 1.4059362 0
4.5930004 -2.1032362 1.4023646 0
4.5770001 -2.1029203 1.3985549 0
4.5620003 -2.1030412 1.3949834 0
4.5470004 -2.1031079 1.3914119 0
4.5320001 -2.1031206 1.3878403 0
4.5170002 -2.1030791 1.3842688 0
4.5030003 -2.1034849 1.3809353 0
4.4880004 -2.1033373 1.3773638 0
4.4730005 -2.1031351 1.3737923 0
4.4590001 -2.1033857 1.3704588 0
4.4450002 -2.103586 1.3671254 0
4.4300003 -2.1032255 1.3635539 0
4.4160004 -2.1033227 1.3602204 0
4.4020004 -2.1033695 1.356887 0
4.388 -2.1033659 1.3535535 0
4.3740001 -2.1033118 1.3502202 0
4.3610001 -2.1037266 1.3471248 0
4.3470001 -2.1035736 1.3437914 0
4.3330002 -2.1033695 1.3404578 0
4.3270001 -2.1073146 1.3390292 0
4.3270001 -2.114398 1.3390292 0
4.3270001 -2.1214817 1.3390292 0
4.3270001 -2.1285653 1.3390292 0
4.3270001 -2.1356487 1.3390292 0
4.3270001 -2.1427324 1.3390292 0
4.3270001 -2.1498158 1.3390292 0
4.3270001 -2.1568995 1.3390292 0
4.3270001 -2.1639831 1.3390292 0
4.3270001 -2.1710665 1.3390292 0
4.3270001 -2.1781502 1.3390292 0
4.3270001 -2.1852336 1.3390292 0
4.3270001 -2.1923172 1.3390292 0
4.3270001 -2.1994009 1.3390292 0
4.3270001 -2.2064843 1.3390292 0
4.3270001 -2.213568 1.3390292 0
4.3270001 -2.2206514 1.3390292 0
4.3270001 -2.227735 1.3390292 0
4.3270001 -2.2348187 1.3390292 0
4.3270001 -2.2419021 1.3390292 0
4.3270001 -2.2489858 1.3390292 0
4.3270001 -2.2560692 1.3390292 0
4.3270001 -2.2631528 1.3390292 0
4.3270001 -2.2702363 1.3390292 0
4.3270001 -2.2773199 1.3390292 0
4.3270001 -2.2844036 1.3390292 0
4.3270001 -2.291487 1.3390292 0
4.3270001 -2.2985706 1.3390292 0
4.3270001 -2.305654 1.3390292 0
4.7520003 -2.1027455 1.4323728 0
4.7360005 -2.1030054 1.4285921 0
4.7190003 -2.102731 1.424575 0
4.7030001 -2.1028736 1.420794 0
4.6870003 -2.1029582 1.4170134 0
4.6710005 -2.1029854 1.4132326 0
4.6550002 -2.1029546 1.4094517 0
4.6390004 -2.1028664 1.405671 0
4.6240001 -2.1032071 1.4021264 0
4.6080003 -2.1030052 1.3983457 0
4.5930004 -2.1032362 1.3948013 0
4.5770001 -2.1029203 1.3910204 0
4.5620003 -2.1030412 1.387476 0
4.5470004 -2.1031079 1.3839314 0
4.5320001 -2.1031206 1.3803869 0
4.5170002 -2.1030791 1.3768425 0
4.5030003 -2.1034849 1.3735343 0
4.4880004 -2.1033373 1.3699898 0
4.4730005 -2.1031351 1.3664454 0
4.4590001 -2.1033857 1.3631371 0
4.4450002 -2.103586 1.3598289 0
4.4300003 -2.1032255 1.3562845 0
4.4160004 -2.1033227 1.3529763 0
4.4020004 -2.1033695 1.3496681 0
4.388 -2.1033659 1.34636 0
4.3740001 -2.1033118 1.3430518 0
4.3610001 -2.1037266 1.3399799 0
4.3470001 -2.1035736 1.3366717 0
4.3330002 -2.1033695 1.3333635 0
4.3270001 -2.1073146 1.3319457 0
4.3270001 -2.114398 1.3319457 0
4.3270001 -2.1214817 1.3319457 0
4.3270001 -2.1285653 1.3319457 0
4.3270001 -2.1356487 1.3319457 0
4.3270001 -2.1427324 1.3319457 0
4.3270001 -2.1498158 1.3319457 0
4.3270001 -2.1568995 1.3319457 0
4.3270001 -2.1639831 1.3319457 0
4.3270001 -2.1710665 1.3319457 0
4.3270001 -2.1781502 1.3319457 0
4.3270001 -2.1852336 1.3319457 0
4.3270001 -2.1923172 1.3319457 0
4.3270001 -2.1994009 1.3319457 0
4.3270001 -2.2064843 1.3319457 0
4.3270001 -2.213568 1.3319457 0
4.3270001 -2.2206514 1.3319457 0
4.3270001 -2.227735 1.3319457 0
4.3270001 -2.2348187 1.3319457 0
4.3270001 -2.2419021 1.3319457 0
4.3270001 -2.2489858 1.3319457 0
4.3270001 -2.2560692 1.3319457 0
4.3270001 -2.2631528 1.3319457 0
4.3270001 -2.2702363 1.3319457 0
4.3270001 -2.2773199 1.3319457 0
4.3270001 -2.2844036 1.3319457 0
4.3270001 -2.291487 1.3319457 0
4.3270001 -2.2985706 1.3319457 0
4.3270001 -2.305654 1.3319457 0
4.7520003 -2.1027455 1.4245225 0
4.7360005 -2.1030054 1.4207708 0
4.7190003 -2.102731 1.4167843 0
4.7030001 -2.1028736 1.4130323 0
4.6870003 -2.1029582 1.4092803 0
4.6710005 -2.1029854 1.4055285 0
4.6550002 -2.1029546 1.4017766 0
4.6390004 -2.1028664 1.3980247 0
4.6240001 -2.1032071 1.3945072 0
4.6080003 -2.1030052 1.3907553 0
4.5930004 -2.1032362 1.3872378 0
4.5770001 -2.1029203 1.3834859 0
4.5620003 -2.1030412 1.3799684 0
4.5470004 -2.1031079 1.3764511 0
4.5320001 -2.1031206 1.3729335 0
4.5170002 -2.1030791 1.3694162 0
4.5030003 -2.1034849 1.3661332 0
4.4880004 -2.1033373 1.3626159 0
4.4730005 -2.1031351 1.3590984 0
4.4590001 -2.1033857 1.3558154 0
4.4450002 -2.103586 1.3525326 0
4.4300003 -2.1032255 1.3490151 0
4.4160004 -2.1033227 1.3457322 0
4.4020004 -2.1033695 1.3424494 0
4.388 -2.1033659 1.3391663 0
4.3740001 -2.1033118 1.3358835 0
4.3610001 -2.1037266 1.3328351 0
4.3470001 -2.1035736 1.3295521 0
4.3330002 -2.1033695 1.3262691 0
4.3270001 -2.1073146 1.3248622 0
4.3270001 -2.114398 1.3248622 0
4.3270001 -2.1214817 1.3248622 0
4.3270001 -2.1285653 1.3248622 0
4.3270001 -2.1356487 1.3248622 0
4.3270001 -2.1427324 1.3248622 0
4.3270001 -2.1498158 1.3248622 0
4.3270001 -2.1568995 1.3248622 0
4.3270001 -2.1639831 1.3248622 0
4.3270001 -2.1710665 1.3248622 0
4.3270001 -2.1781502 1.3248622 0
4.3270001 -2.1852336 1.3248622 0
4.3270001 -2.1923172 1.3248622 0
4.3270001 -2.1994009 1.3248622 0
4.3270001 -2.2064843 1.3248622 0
4.3270001 -2.213568 1.3248622 0
4.3270001 -2.2206514 1.3248622 0
4.3270001 -2.227735 1.3248622 0
4.3270001 -2.2348187 1.3248622 0
4.3270001 -2.2419021 1.3248622 0
4.3270001 -2.2489858 1.3248622 0
4.3270001 -2.2560692 1.3248622 0
4.3270001 -2.2631528 1.3248622 0
4.3270001 -2.2702363 1.3248622 0
4.3270001 -2.2773199 1.3248622 0
4.3270001 -2.2844036 1.3248622 0
4.3270001 -2.291487 1.3248622 0
4.3270001 -2.2985706 1.3248622 0
4.3270001 -2.305654 1.3248622 0
4.7520003 -2.1027455 1.4166723 0
4.7360005 -2.1030054 1.4129494 0
4.7190003 -2.102731 1.4089936 0
4.7030001 -2.1028736 1.4052705 0
4.6870003 -2.1029582 1.4015474 0
4.6710005 -2.1029854 1.3978244 0
4.6550002 -2.1029546 1.3941014 0
4.6390004 -2.1028664 1.3903784 0
4.6240001 -2.1032071 1.3868879 0
4.6080003 -2.1030052 1.3831649 0
4.5930004 -2.1032362 1.3796744 0
4.5770001 -2.1029203 1.3759514 0
4.5620003 -2.1030412 1.372461 0
4.5470004 -2.1031079 1.3689706 0
4.5320001 -2.1031206 1.3654803 0
4.5170002 -2.1030791 1.36199 0
4.5030003 -2.1034849 1.3587323 0
4.4880004 -2.1033373 1.3552419 0
4.4730005 -2.1031351 1.3517516 0
4.4590001 -2.1033857 1.3484938 0
4.4450002 -2.103586 1.3452361 0
4.4300003 -2.1032255 1.3417459 0
4.4160004 -2.1033227 1.3384881 0
4.4020004 -2.1033695 1.3352305 0
4.388 -2.1033659 1.3319727 0
4.3740001 -2.1033118 1.3287152 0
4.3610001 -2.1037266 1.3256902 0
4.3470001 -2.1035736 1.3224324 0
4.3330002 -2.1033695 1.3191748 0
4.3270001 -2.1073146 1.3177786 0
4.3270001 -2.114398 1.3177786 0
4.3270001 -2.1214817 1.3177786 0
4.3270001 -2.1285653 1.3177786 0
4.3270001 -2.1356487 1.3177786 0
4.3270001 -2.1427324 1.3177786 0
4.3270001 -2.1498158 1.3177786 0
4.3270001 -2.1568995 1.3177786 0
4.3270001 -2.1639831 1.3177786 0
4.3270001 -2.1710665 1.3177786 0
4.3270001 -2.1781502 1.3177786 0
4.3270001 -2.1852336 1.3177786 0
4.3270001 -2.1923172 1.3177786 0
4.3270001 -2.1994009 1.3177786 0
4.3270001 -2.2064843 1.3177786 0
4.3270001 -2.213568 1.3177786 0
4.3270001 -2.2206514 1.3177786 0
4.3270001 -2.227735 1.3177786 0
4.3270001 -2.2348187 1.3177786 0
4.3270001 -2.2419021 1.3177786 0
4.3270001 -2.2489858 1.3177786 0
4.3270001 -2.2560692 1.3177786 0
4.3270001 -2.2631528 1.3177786 0
4.3270001 -2.2702363 1.3177786 0
4.3270001 -2.2773199 1.3177786 0
4.3270001 -2.2844036 1.3177786 0
4.3270001 -2.291487 1.3177786 0
4.3270001 -2.2985706 1.3177786 0
4.3270001 -2.305654 1.3177786 0
4.7520003 -2.1027455 1.4088223 0
4.7360005 -2.1030054 1.4051281 0
4.7190003 -2.102731 1.4012029 0
4.7030001 -2.1028736 1.3975086 0
4.6870003 -2.1029582 1.3938146 0
4.6710005 -2.1029854 1.3901204 0
4.6550002 -2.1029546 1.3864261 0
4.6390004 -2.1028664 1.3827319 0
4.6240001 -2.1032071 1.3792685 0
4.6080003 -2.1030052 1.3755745 0
4.5930004 -2.1032362 1.3721111 0
4.5770001 -2.1029203 1.3684169 0
4.5620003 -2.1030412 1.3649536 0
4.5470004 -2.1031079 1.3614904 0
4.5320001 -2.1031206 1.3580269 0
4.5170002 -2.1030791 1.3545636 0
4.5030003 -2.1034849 1.3513312 0
4.4880004 -2.1033373 1.347868 0
4.4730005 -2.1031351 1.3444047 0
4.4590001 -2.1033857 1.3411721 0
4.4450002 -2.103586 1.3379397 0
4.4300003 -2.1032255 1.3344765 0
4.4160004 -2.1033227 1.331244 0
4.4020004 -2.1033695 1.3280116 0
4.388 -2.1033659 1.3247792 0
4.3740001 -2.1033118 1.3215468 0
4.3610001 -2.1037266 1.3185452 0
4.3470001 -2.1035736 1.3153129 0
4.3330002 -2.1033695 1.3120804 0
4.3270001 -2.1073146 1.3106951 0
4.3270001 -2.114398 1.3106951 0
4.3270001 -2.1214817 1.3106951 0
4.3270001 -2.1285653 1.3106951 0
4.3270001 -2.1356487 1.3106951 0
4.3270001 -2.1427324 1.3106951 0
4.3270001 -2.1498158 1.3106951 0
4.3270001 -2.1568995 1.3106951 0
4.3270001 -2.1639831 1.3106951 0
4.3270001 -2.1710665 1.3106951 0
4.3270001 -2.1781502 1.3106951 0
4.3270001 -2.1852336 1.3106951 0
4.3270001 -2.1923172 1.3106951 0
4.3270001 -2.1994009 1.3106951 0
4.3270001 -2.2064843 1.3106951 0
4.3270001 -2.213568 1.3106951 0
4.3270001 -2.2206514 1.3106951 0
4.3270001 -2.227735 1.3106951 0
4.3270001 -2.2348187 1.3106951 0
4.3270001 -2.2419021 1.3106951 0
4.3270001 -2.2489858 1.3106951 0
4.3270001 -2.2560692 1.3106951 0
4.3270001 -2.2631528 1.3106951 0
4.3270001 -2.2702363 1.3106951 0
4.3270001 -2.2773199 1.3106951 0
4.3270001 -2.2844036 1.3106951 0
4.3270001 -2.291487 1.3106951 0
4.3270001 -2.2985706 1.3106951 0
4.3270001 -2.305654 1.3106951 0
4.7520003 -2.1027455 1.400972 0
4.7360005 -2.1030054 1.3973068 0
4.7190003 -2.102731 1.3934124 0
4.7030001 -2.1028736 1.3897469 0
4.6870003 -2.1029582 1.3860816 0
4.6710005 -2.1029854 1.3824164 0
4.6550002 -2.1029546 1.3787509 0
4.6390004 -2.1028664 1.3750856 0
4.6240001 -2.1032071 1.3716493 0
4.6080003 -2.1030052 1.3679839 0
4.5930004 -2.1032362 1.3645477 0
4.5770001 -2.1029203 1.3608824 0
4.5620003 -2.1030412 1.3574462 0
4.5470004 -2.1031079 1.35401 0
4.5320001 -2.1031206 1.3505735 0
4.5170002 -2.1030791 1.3471373 0
4.5030003 -2.1034849 1.3439301 0
4.4880004 -2.1033373 1.3404939 0
4.4730005 -2.1031351 1.3370577 0
4.4590001 -2.1033857 1.3338505 0
4.4450002 -2.103586 1.3306434 0
4.4300003 -2.1032255 1.3272071 0
4.4160004 -2.1033227 1.324 0
4.4020004 -2.1033695 1.3207928 0
4.388 -2.1033659 1.3175856 0
4.3740001 -2.1033118 1.3143784 0
4.3610001 -2.1037266 1.3114003 0
4.3470001 -2.1035736 1.3081932 0
4.3330002 -2.1033695 1.304986 0
4.3270001 -2.1073146 1.3036115 0
4.3270001 -2.114398 1.3036115 0
4.3270001 -2.1214817 1.3036115 0
4.3270001 -2.1285653 1.3036115 0
4.3270001 -2.1356487 1.3036115 0
4.3270001 -2.1427324 1.3036115 0
4.3270001 -2.1498158 1.3036115 0
4.3270001 -2.1568995 1.3036115 0
4.3270001 -2.1639831 1.3036115 0
4.3270001 -2.1710665 1.3036115 0
4.3270001 -2.1781502 1.3036115 0
4.3270001 -2.1852336 1.3036115 0
4.3270001 -2.1923172 1.3036115 0
4.3270001 -2.1994009 1.3036115 0
4.3270001 -2.2064843 1.3036115 0
4.3270001 -2.213568 1.3036115 0
4.3270001 -2.2206514 1.3036115 0
4.3270001 -2.227735 1.3036115 0
4.3270001 -2.2348187 1.3036115 0
4.3270001 -2.2419021 1.3036115 0
4.3270001 -2.2489858 1.3036115 0
4.3270001 -2.2560692 1.3036115 0
4.3270001 -2.2631528 1.3036115 0
4.3270001 -2.2702363 1.3036115 0
4.3270001 -2.2773199 1.3036115 0
4.3270001 -2.2844036 1.3036115 0
4.3270001 -2.291487 1.3036115 0
4.3270001 -2.2985706 1.3036115 0
4.3270001 -2.305654 1.3036115 0
4.7520003 -2.1027455 1.393122 0
4.7360005 -2.1030054 1.3894855 0
4.7190003 -2.102731 1.3856217 0
4.7030001 -2.1028736 1.3819851 0
4.6870003 -2.1029582 1.3783487 0
4.6710005 -2.1029854 1.3747122 0
4.6550002 -2.1029546 1.3710756 0
4.6390004 -2.1028664 1.3674393 0
4.6240001 -2.1032071 1.36403 0
4.6080003 -2.1030052 1.3603935 0
4.5930004 -2.1032362 1.3569844 0
4.5770001 -2.1029203 1.3533479 0
4.5620003 -2.1030412 1.3499388 0
4.5470004 -2.1031079 1.3465295 0
4.5320001 -2.1031206 1.3431203 0
4.5170002 -2.1030791 1.3397111 0
4.5030003 -2.1034849 1.3365291 0
4.4880004 -2.1033373 1.33312 0
4.4730005 -2.1031351 1.3297108 0
4.4590001 -2.1033857 1.3265288 0
4.4450002 -2.103586 1.323347 0
4.4300003 -2.1032255 1.3199378 0
4.4160004 -2.1033227 1.3167559 0
4.4020004 -2.1033695 1.313574 0
4.388 -2.1033659 1.310392 0
4.3740001 -2.1033118 1.3072101 0
4.3610001 -2.1037266 1.3042555 0
4.3470001 -2.1035736 1.3010736 0
4.3330002 -2.1033695 1.2978916 0
4.3270001 -2.1073146 1.296528 0
4.3270001 -2.114398 1.296528 0
4.3270001 -2.1214817 1.296528 0
4.3270001 -2.1285653 1.296528 0
4.3270001 -2.1356487 1.296528 0
4.3270001 -2.1427324 1.296528 0
4.3270001 -2.1498158 1.296528 0
4.3270001 -2.1568995 1.296528 0
4.3270001 -2.1639831 1.296528 0
4.3270001 -2.1710665 1.296528 0
4.3270001 -2.1781502 1.296528 0
4.3270001 -2.1852336 1.296528 0
4.3270001 -2.1923172 1.296528 0
4.3270001 -2.1994009 1.296528 0
4.3270001 -2.2064843 1.296528 0
4.3270001 -2.213568 1.296528 0
4.3270001 -2.2206514 1.296528 0
4.3270001 -2.227735 1.296528 0
4.3270001 -2.2348187 1.296528 0
4.3270001 -2.2419021 1.296528 0
4.3270001 -2.2489858 1.296528 0
4.3270001 -2.2560692 1.296528 0
4.3270001 -2.2631528 1.296528 0
4.3270001 -2.2702363 1.296528 0
4.3270001 -2.2773199 1.296528 0
4.3270001 -2.2844036 1.296528 0
4.3270001 -2.291487 1.296528 0
4.3270001 -2.2985706 1.296528 0
4.3270001 -2.305654 1.296528 0
4.7520003 -2.1027455 1.3852717 0
4.7360005 -2.1030054 1.3816642 0
4.7190003 -2.102731 1.377831 0
4.7030001 -2.1028736 1.3742234 0
4.6870003 -2.1029582 1.3706157 0
4.6710005 -2.1029854 1.3670082 0
4.6550002 -2.1029546 1.3634005 0
4.6390004 -2.1028664 1.3597929 0
4.6240001 -2.1032071 1.3564107 0
4.6080003 -2.1030052 1.3528031 0
4.5930004 -2.1032362 1.349421 0
4.5770001 -2.1029203 1.3458134 0
4.5620003 -2.1030412 1.3424312 0
4.5470004 -2.1031079 1.3390492 0
4.5320001 -2.1031206 1.3356669 0
4.5170002 -2.1030791 1.3322848 0
4.5030003 -2.1034849 1.3291281 0
4.4880004 -2.1033373 1.3257461 0
4.4730005 -2.1031351 1.322364 0
4.4590001 -2.1033857 1.3192072 0
4.4450002 -2.103586 1.3160505 0
4.4300003 -2.1032255 1.3126684 0
4.4160004 -2.1033227 1.3095118 0
4.4020004 -2.1033695 1.3063551 0
4.388 -2.1033659 1.3031985 0
4.3740001 -2.1033118 1.3000418 0
4.3610001 -2.1037266 1.2971106 0
4.3470001 -2.1035736 1.2939539 0
4.3330002 -2.1033695 1.2907972 0
4.3270001 -2.1073146 1.2894444 0
4.3270001 -2.114398 1.2894444 0
4.3270001 -2.1214817 1.2894444 0
4.3270001 -2.1285653 1.2894444 0
4.3270001 -2.1356487 1.2894444 0
4.3270001 -2.1427324 1.2894444 0
4.3270001 -2.1498158 1.2894444 0
4.3270001 -2.1568995 1.2894444 0
4.3270001 -2.1639831 1.2894444 0
4.3270001 -2.1710665 1.2894444 0
4.3270001 -2.1781502 1.2894444 0
4.3270001 -2.1852336 1.2894444 0
4.3270001 -2.1923172 1.2894444 0
4.3270001 -2.1994009 1.2894444 0
4.3270001 -2.2064843 1.2894444 0
4.3270001 -2.213568 1.2894444 0
4.3270001 -2.2206514 1.2894444 0
4.3270001 -2.227735 1.2894444 0
4.3270001 -2.2348187 1.2894444 0
4.3270001 -2.2419021 1.2894444 0
4.3270001 -2.2489858 1.2894444 0
4.3270001 -2.2560692 1.2894444 0
4.3270001 -2.2631528 1.2894444 0
4.3270001 -2.2702363 1.2894444 0
4.3270001 -2.2773199 1.2894444 0
4.3270001 -2.2844036 1.2894444 0
4.3270001 -2.291487 1.2894444 0
4.3270001 -2.2985706 1.2894444 0
4.3270001 -2.305654 1.2894444 0
4.7520003 -2.1027455 1.3774215 0
4.7360005 -2.1030054 1.3738428 0
4.7190003 -2.102731 1.3700403 0
4.7030001 -2.1028736 1.3664615 0
4.6870003 -2.1029582 1.3628829 0
4.6710005 -2.1029854 1.3593042 0
4.6550002 -2.1029546 1.3557253 0
4.6390004 -2.1028664 1.3521466 0
4.6240001 -2.1032071 1.3487915 0
4.6080003 -2.1030052 1.3452127 0
4.5930004 -2.1032362 1.3418577 0
4.5770001 -2.1029203 1.3382789 0
4.5620003 -2.1030412 1.3349237 0
4.5470004 -2.1031079 1.3315687 0
4.5320001 -2.1031206 1.3282136 0
4.5170002 -2.1030791 1.3248585 0
4.5030003 -2.1034849 1.3217272 0
4.4880004 -2.1033373 1.3183721 0
4.4730005 -2.1031351 1.315017 0
4.4590001 -2.1033857 1.3118855 0
4.4450002 -2.103586 1.3087541 0
4.4300003 -2.1032255 1.3053991 0
4.4160004 -2.1033227 1.3022677 0
4.4020004 -2.1033695 1.2991363 0
4.388 -2.1033659 1.2960048 0
4.3740001 -2.1033118 1.2928734 0
4.3610001 -2.1037266 1.2899657 0
4.3470001 -2.1035736 1.2868342 0
4.3330002 -2.1033695 1.2837029 0
4.3270001 -2.1073146 1.2823608 0
4.3270001 -2.114398 1.2823608 0
4.3270001 -2.1214817 1.2823608 0
4.3270001 -2.1285653 1.2823608 0
4.3270001 -2.1356487 1.2823608 0
4.3270001 -2.1427324 1.2823608 0
4.3270001 -2.1498158 1.2823608 0
4.3270001 -2.1568995 1.2823608 0
4.3270001 -2.1639831 1.2823608 0
4.3270001 -2.1710665 1.2823608 0
4.3270001 -2.1781502 1.2823608 0
4.3270001 -2.1852336 1.2823608 0
4.3270001 -2.1923172 1.2823608 0
4.3270001 -2.1994009 1.2823608 0
4.3270001 -2.2064843 1.2823608 0
4.3270001 -2.213568 1.2823608 0
4.3270001 -2.2206514 1.2823608 0
4.3270001 -2.227735 1.2823608 0
