# .PCD v0.7 - Point Cloud Data file format
VERSION 0.7
FIELDS x y z intensity
SIZE 4 4 4 4
TYPE F F F F
COUNT 1 1 1 1
WIDTH 1505
HEIGHT 1
VIEWPOINT 0 0 0 1 0 0 0
POINTS 1505
DATA ascii
5.7270002 2.4619193 1.3937154 0
5.7360005 2.4565315 1.3953874 0
5.7440004 2.4506438 1.3968737 0
5.7540002 2.445658 1.3987317 0
5.7630005 2.4401727 1.4004039 0
5.7720003 2.4346547 1.402076 0
5.7810001 2.4291043 1.403748 0
5.7900004 2.4235218 1.4054203 0
5.7990003 2.4179063 1.4070925 0
5.8080006 2.4122589 1.4087646 0
5.8170004 2.4065785 1.4104367 0
5.8270001 2.4013166 1.4122945 0
5.8360004 2.39557 1.4139667 0
5.8450003 2.3897903 1.4156388 0
5.8550005 2.3844242 1.4174968 0
5.8640003 2.3785779 1.4191689 0
5.8740005 2.3731415 1.4210268 0
5.8830004 2.3672285 1.422699 0
5.8920002 2.3612831 1.4243711 0
5.9020004 2.355742 1.426229 0
5.9120002 2.3501642 1.4280869 0
5.9210005 2.3441181 1.429759 0
5.9310002 2.3384702 1.4316169 0
5.9400005 2.3323574 1.4332892 0
5.9500003 2.3266392 1.435147 0
5.9600005 2.3208852 1.437005 0
5.9700003 2.3150947 1.4388628 0
5.9790006 2.3088465 1.4405349 0
5.9890003 2.3029859 1.4423929 0
5.9990005 2.2970893 1.4442508 0
6.0090003 2.2911565 1.4461088 0
6.0190005 2.2851877 1.4479667 0
6.0290003 2.2791827 1.4498247 0
6.0390005 2.2731419 1.4516826 0
6.0490003 2.2670646 1.4535404 0
6.0590005 2.2609518 1.4553983 0
6.0690002 2.2548025 1.4572563 0
6.0790005 2.2486172 1.4591142 0
5.2540002 2.7470634 1.2970799 0
5.2610002 2.7423229 1.2983679 0
5.2690005 2.7381294 1.2998397 0
5.2760005 2.7333367 1.3011277 0
5.2840004 2.7290869 1.3025995 0
5.2910004 2.7242417 1.3038875 0
5.2990003 2.7199361 1.3053594 0
5.3070002 2.7156014 1.3068312 0
5.3140001 2.7106771 1.3081192 0
5.3220005 2.7062867 1.3095912 0
5.3290005 2.7013102 1.310879 0
5.3370004 2.6968637 1.312351 0
5.3450003 2.6923883 1.3138229 0
5.3520002 2.6873322 1.3151107 0
5.3600001 2.682801 1.3165827 0
5.3680005 2.678241 1.3180547 0
5.3760004 2.6736524 1.3195266 0
5.3840003 2.6690345 1.3209984 0
5.3910003 2.6638448 1.3222864 0
5.3990002 2.6591711 1.3237582 0
5.4070005 2.6544688 1.3252301 0
5.4150004 2.6497374 1.326702 0
5.4230003 2.6449771 1.3281739 0
5.4310002 2.6401877 1.3296458 0
5.4390001 2.6353698 1.3311177 0
5.4470005 2.6305232 1.3325897 0
5.4550004 2.6256475 1.3340616 0
5.4630003 2.620743 1.3355335 0
5.4710002 2.6158094 1.3370054 0
5.4790006 2.6108472 1.3384774 0
5.4870005 2.6058559 1.3399493 0
5.4960003 2.6013556 1.3416051 0
5.5040002 2.5963049 1.3430771 0
5.5120006 2.5912254 1.3445491 0
5.5200005 2.586117 1.3460208 0
5.5290003 2.5814922 1.3476768 0
5.5370002 2.576324 1.3491486 0
5.5450006 2.5711274 1.3506205 0
5.5540004 2.5664086 1.3522764 0
5.5620003 2.5611522 1.3537484 0
5.5700002 2.5558672 1.3552202 0
5.5790005 2.5510545 1.3568763 0
5.5870004 2.5457098 1.358348 0
5.5960002 2.5408342 1.3600039 0
5.6040006 2.53543 1.3614759 0
5.6130004 2.5304911 1.3631318 0
5.6210003 2.5250273 1.3646036 0
5.6300001 2.5200255 1.3662596 0
5.6390004 2.514991 1.3679155 0
5.6470003 2.5094371 1.3693874 0
5.6560001 2.5043395 1.3710432 0
5.6650004 2.4992096 1.3726991 0
5.6730003 2.4935656 1.374171 0
5.6820002 2.4883721 1.3758268 0
5.6910005 2.4831467 1.3774828 0
5.7000003 2.4778886 1.3791387 0
5.7090001 2.4725978 1.3807946 0
5.7180004 2.4672749 1.3824506 0
5.7270002 2.4619193 1.3841064 0
5.7360005 2.4565315 1.3857623 0
5.7440004 2.4506438 1.3872342 0
5.7540002 2.445658 1.3890741 0
5.7630005 2.4401727 1.39073 0
5.7720003 2.4346547 1.392386 0
5.7810001 2.4291043 1.3940418 0
5.7900004 2.4235218 1.3956977 0
5.7990003 2.4179063 1.3973535 0
5.8080006 2.4122589 1.3990095 0
5.8170004 2.4065785 1.4006654 0
5.8270001 2.4013166 1.4025053 0
5.8360004 2.39557 1.4041612 0
5.8450003 2.3897903 1.405817 0
5.8550005 2.3844242 1.407657 0
5.8640003 2.3785779 1.4093128 0
5.8740005 2.3731415 1.4111527 0
5.8830004 2.3672285 1.4128087 0
5.8920002 2.3612831 1.4144646 0
5.9020004 2.355742 1.4163045 0
5.9120002 2.3501642 1.4181442 0
5.9210005 2.3441181 1.4198003 0
5.9310002 2.3384702 1.42164 0
5.9400005 2.3323574 1.423296 0
5.9500003 2.3266392 1.4251359 0
5.9600005 2.3208852 1.4269758 0
5.9700003 2.3150947 1.4288156 0
5.9790006 2.3088465 1.4304715 0
5.9890003 2.3029859 1.4323114 0
5.9990005 2.2970893 1.4341513 0
6.0090003 2.2911565 1.4359913 0
6.0190005 2.2851877 1.4378312 0
6.0290003 2.2791827 1.4396709 0
6.0390005 2.2731419 1.4415109 0
6.0490003 2.2670646 1.4433507 0
6.0590005 2.2609518 1.4451905 0
6.0690002 2.2548025 1.4470305 0
6.0790005 2.2486172 1.4488704 0
5.2540002 2.7470634 1.2883241 0
5.2610002 2.7423229 1.2895994 0
5.2690005 2.7381294 1.291057 0
5.2760005 2.7333367 1.2923323 0
5.2840004 2.7290869 1.2937897 0
5.2910004 2.7242417 1.295065 0
5.2990003 2.7199361 1.2965225 0
5.3070002 2.7156014 1.29798 0
5.3140001 2.7106771 1.2992553 0
5.3220005 2.7062867 1.3007128 0
5.3290005 2.7013102 1.3019881 0
5.3370004 2.6968637 1.3034456 0
5.3450003 2.6923883 1.304903 0
5.3520002 2.6873322 1.3061783 0
5.3600001 2.682801 1.3076358 0
5.3680005 2.678241 1.3090932 0
5.3760004 2.6736524 1.3105507 0
5.3840003 2.6690345 1.3120083 0
5.3910003 2.6638448 1.3132834 0
5.3990002 2.6591711 1.314741 0
5.4070005 2.6544688 1.3161985 0
5.4150004 2.6497374 1.3176559 0
5.4230003 2.6449771 1.3191134 0
5.4310002 2.6401877 1.3205708 0
5.4390001 2.6353698 1.3220283 0
5.4470005 2.6305232 1.3234859 0
5.4550004 2.6256475 1.3249433 0
5.4630003 2.620743 1.3264008 0
5.4710002 2.6158094 1.3278583 0
5.4790006 2.6108472 1.3293158 0
5.4870005 2.6058559 1.3307732 0
5.4960003 2.6013556 1.332413 0
5.5040002 2.5963049 1.3338704 0
5.5120006 2.5912254 1.335328 0
5.5200005 2.586117 1.3367854 0
5.5290003 2.5814922 1.3384249 0
5.5370002 2.576324 1.3398825 0
5.5450006 2.5711274 1.3413399 0
5.5540004 2.5664086 1.3429796 0
5.5620003 2.5611522 1.344437 0
5.5700002 2.5558672 1.3458945 0
5.5790005 2.5510545 1.3475343 0
5.5870004 2.5457098 1.3489918 0
5.5960002 2.5408342 1.3506314 0
5.6040006 2.53543 1.3520889 0
5.6130004 2.5304911 1.3537284 0
5.6210003 2.5250273 1.355186 0
5.6300001 2.5200255 1.3568256 0
5.6390004 2.514991 1.3584653 0
5.6470003 2.5094371 1.3599228 0
5.6560001 2.5043395 1.3615624 0
5.6650004 2.4992096 1.3632021 0
5.6730003 2.4935656 1.3646595 0
5.6820002 2.4883721 1.3662992 0
5.6910005 2.4831467 1.367939 0
5.7000003 2.4778886 1.3695786 0
5.7090001 2.4725978 1.3712182 0
5.7180004 2.4672749 1.3728579 0
5.7270002 2.4619193 1.3744975 0
5.7360005 2.4565315 1.3761373 0
5.7440004 2.4506438 1.3775947 0
5.7540002 2.445658 1.3794166 0
5.7630005 2.4401727 1.3810562 0
5.7720003 2.4346547 1.3826958 0
5.7810001 2.4291043 1.3843355 0
5.7900004 2.4235218 1.3859751 0
5.7990003 2.4179063 1.3876148 0
5.8080006 2.4122589 1.3892546 0
5.8170004 2.4065785 1.3908942 0
5.8270001 2.4013166 1.3927159 0
5.8360004 2.39557 1.3943557 0
5.8450003 2.3897903 1.3959953 0
5.8550005 2.3844242 1.3978171 0
5.8640003 2.3785779 1.3994569 0
5.8740005 2.3731415 1.4012787 0
5.8830004 2.3672285 1.4029183 0
5.8920002 2.3612831 1.4045581 0
5.9020004 2.355742 1.4063799 0
5.9120002 2.3501642 1.4082017 0
5.9210005 2.3441181 1.4098414 0
5.9310002 2.3384702 1.4116633 0
5.9400005 2.3323574 1.4133029 0
5.9500003 2.3266392 1.4151248 0
5.9600005 2.3208852 1.4169466 0
5.9700003 2.3150947 1.4187684 0
5.9790006 2.3088465 1.4204081 0
5.9890003 2.3029859 1.4222299 0
5.9990005 2.2970893 1.4240518 0
6.0090003 2.2911565 1.4258736 0
6.0190005 2.2851877 1.4276955 0
6.0290003 2.2791827 1.4295173 0
6.0390005 2.2731419 1.4313393 0
6.0490003 2.2670646 1.433161 0
6.0590005 2.2609518 1.4349829 0
6.0690002 2.2548025 1.4368048 0
6.0790005 2.2486172 1.4386266 0
5.2540002 2.7470634 1.2795686 0
5.2610002 2.7423229 1.2808312 0
5.2690005 2.7381294 1.2822742 0
5.2760005 2.7333367 1.2835369 0
5.2840004 2.7290869 1.2849799 0
5.2910004 2.7242417 1.2862426 0
5.2990003 2.7199361 1.2876856 0
5.3070002 2.7156014 1.2891287 0
5.3140001 2.7106771 1.2903913 0
5.3220005 2.7062867 1.2918345 0
5.3290005 2.7013102 1.2930971 0
5.3370004 2.6968637 1.2945402 0
5.3450003 2.6923883 1.2959832 0
5.3520002 2.6873322 1.2972459 0
5.3600001 2.682801 1.2986889 0
5.3680005 2.678241 1.300132 0
5.3760004 2.6736524 1.3015751 0
5.3840003 2.6690345 1.3030181 0
5.3910003 2.6638448 1.3042806 0
5.3990002 2.6591711 1.3057237 0
5.4070005 2.6544688 1.3071668 0
5.4150004 2.6497374 1.3086098 0
5.4230003 2.6449771 1.3100529 0
5.4310002 2.6401877 1.3114959 0
5.4390001 2.6353698 1.3129389 0
5.4470005 2.6305232 1.3143821 0
5.4550004 2.6256475 1.3158251 0
5.4630003 2.620743 1.3172681 0
5.4710002 2.6158094 1.3187112 0
5.4790006 2.6108472 1.3201543 0
5.4870005 2.6058559 1.3215973 0
5.4960003 2.6013556 1.3232206 0
5.5040002 2.5963049 1.3246638 0
5.5120006 2.5912254 1.3261068 0
5.5200005 2.586117 1.3275499 0
5.5290003 2.5814922 1.3291732 0
5.5370002 2.576324 1.3306162 0
5.5450006 2.5711274 1.3320594 0
5.5540004 2.5664086 1.3336828 0
5.5620003 2.5611522 1.3351258 0
5.5700002 2.5558672 1.3365688 0
5.5790005 2.5510545 1.3381923 0
5.5870004 2.5457098 1.3396354 0
5.5960002 2.5408342 1.3412588 0
5.6040006 2.53543 1.3427018 0
5.6130004 2.5304911 1.3443253 0
5.6210003 2.5250273 1.3457683 0
5.6300001 2.5200255 1.3473917 0
5.6390004 2.514991 1.3490151 0
5.6470003 2.5094371 1.3504581 0
5.6560001 2.5043395 1.3520815 0
5.6650004 2.4992096 1.3537052 0
5.6730003 2.4935656 1.3551482 0
5.6820002 2.4883721 1.3567715 0
5.6910005 2.4831467 1.358395 0
5.7000003 2.4778886 1.3600184 0
5.7090001 2.4725978 1.3616418 0
5.7180004 2.4672749 1.3632653 0
5.7270002 2.4619193 1.3648887 0
5.7360005 2.4565315 1.3665121 0
5.7440004 2.4506438 1.3679551 0
5.7540002 2.445658 1.369759 0
5.7630005 2.4401727 1.3713824 0
5.7720003 2.4346547 1.3730057 0
5.7810001 2.4291043 1.3746291 0
5.7900004 2.4235218 1.3762528 0
5.7990003 2.4179063 1.377876 0
5.8080006 2.4122589 1.3794996 0
5.8170004 2.4065785 1.3811229 0
5.8270001 2.4013166 1.3829267 0
5.8360004 2.39557 1.3845502 0
5.8450003 2.3897903 1.3861736 0
5.8550005 2.3844242 1.3879775 0
5.8640003 2.3785779 1.3896009 0
5.8740005 2.3731415 1.3914046 0
5.8830004 2.3672285 1.3930281 0
5.8920002 2.3612831 1.3946514 0
5.9020004 2.355742 1.3964553 0
5.9120002 2.3501642 1.398259 0
5.9210005 2.3441181 1.3998826 0
5.9310002 2.3384702 1.4016863 0
5.9400005 2.3323574 1.4033098 0
5.9500003 2.3266392 1.4051136 0
5.9600005 2.3208852 1.4069175 0
5.9700003 2.3150947 1.4087212 0
5.9790006 2.3088465 1.4103446 0
5.9890003 2.3029859 1.4121485 0
5.9990005 2.2970893 1.4139522 0
6.0090003 2.2911565 1.4157561 0
6.0190005 2.2851877 1.4175599 0
6.0290003 2.2791827 1.4193637 0
6.0390005 2.2731419 1.4211675 0
6.0490003 2.2670646 1.4229714 0
6.0590005 2.2609518 1.4247751 0
6.0690002 2.2548025 1.4265789 0
6.0790005 2.2486172 1.4283828 0
5.2540002 2.7470634 1.2708129 0
5.2610002 2.7423229 1.2720629 0
5.2690005 2.7381294 1.2734915 0
5.2760005 2.7333367 1.2747415 0
5.2840004 2.7290869 1.2761701 0
5.2910004 2.7242417 1.2774202 0
5.2990003 2.7199361 1.2788488 0
5.3070002 2.7156014 1.2802774 0
5.3140001 2.7106771 1.2815274 0
5.3220005 2.7062867 1.2829561 0
5.3290005 2.7013102 1.2842062 0
5.3370004 2.6968637 1.2856348 0
5.3450003 2.6923883 1.2870634 0
5.3520002 2.6873322 1.2883134 0
5.3600001 2.682801 1.289742 0
5.3680005 2.678241 1.2911706 0
5.3760004 2.6736524 1.2925992 0
5.3840003 2.6690345 1.2940278 0
5.3910003 2.6638448 1.2952778 0
5.3990002 2.6591711 1.2967064 0
5.4070005 2.6544688 1.2981352 0
5.4150004 2.6497374 1.2995638 0
5.4230003 2.6449771 1.3009924 0
5.4310002 2.6401877 1.302421 0
5.4390001 2.6353698 1.3038496 0
5.4470005 2.6305232 1.3052783 0
5.4550004 2.6256475 1.3067069 0
5.4630003 2.620743 1.3081355 0
5.4710002 2.6158094 1.3095641 0
5.4790006 2.6108472 1.3109927 0
5.4870005 2.6058559 1.3124213 0
5.4960003 2.6013556 1.3140285 0
5.5040002 2.5963049 1.3154571 0
5.5120006 2.5912254 1.3168857 0
5.5200005 2.586117 1.3183143 0
5.5290003 2.5814922 1.3199215 0
5.5370002 2.576324 1.3213501 0
5.5450006 2.5711274 1.3227788 0
5.5540004 2.5664086 1.324386 0
5.5620003 2.5611522 1.3258146 0
5.5700002 2.5558672 1.3272432 0
5.5790005 2.5510545 1.3288504 0
5.5870004 2.5457098 1.330279 0
5.5960002 2.5408342 1.3318862 0
5.6040006 2.53543 1.3333149 0
5.6130004 2.5304911 1.334922 0
5.6210003 2.5250273 1.3363506 0
5.6300001 2.5200255 1.3379577 0
5.6390004 2.514991 1.3395649 0
5.6470003 2.5094371 1.3409935 0
5.6560001 2.5043395 1.3426007 0
5.6650004 2.4992096 1.344208 0
5.6730003 2.4935656 1.3456366 0
5.6820002 2.4883721 1.3472438 0
5.6910005 2.4831467 1.348851 0
5.7000003 2.4778886 1.3504581 0
5.7090001 2.4725978 1.3520653 0
5.7180004 2.4672749 1.3536726 0
5.7270002 2.4619193 1.3552797 0
5.7360005 2.4565315 1.356887 0
5.7440004 2.4506438 1.3583156 0
5.7540002 2.445658 1.3601013 0
5.7630005 2.4401727 1.3617085 0
5.7720003 2.4346547 1.3633157 0
5.7810001 2.4291043 1.3649229 0
5.7900004 2.4235218 1.3665302 0
5.7990003 2.4179063 1.3681374 0
5.8080006 2.4122589 1.3697445 0
5.8170004 2.4065785 1.3713517 0
5.8270001 2.4013166 1.3731375 0
5.8360004 2.39557 1.3747448 0
5.8450003 2.3897903 1.3763518 0
5.8550005 2.3844242 1.3781377 0
5.8640003 2.3785779 1.3797449 0
5.8740005 2.3731415 1.3815306 0
5.8830004 2.3672285 1.3831378 0
5.8920002 2.3612831 1.384745 0
5.9020004 2.355742 1.3865308 0
5.9120002 2.3501642 1.3883165 0
5.9210005 2.3441181 1.3899237 0
5.9310002 2.3384702 1.3917094 0
5.9400005 2.3323574 1.3933166 0
5.9500003 2.3266392 1.3951024 0
5.9600005 2.3208852 1.3968883 0
5.9700003 2.3150947 1.3986739 0
5.9790006 2.3088465 1.4002812 0
5.9890003 2.3029859 1.4020669 0
5.9990005 2.2970893 1.4038527 0
6.0090003 2.2911565 1.4056385 0
6.0190005 2.2851877 1.4074243 0
6.0290003 2.2791827 1.40921 0
6.0390005 2.2731419 1.4109958 0
6.0490003 2.2670646 1.4127816 0
6.0590005 2.2609518 1.4145674 0
6.0690002 2.2548025 1.4163531 0
6.0790005 2.2486172 1.4181389 0
5.2540002 2.7470634 1.2620572 0
5.2610002 2.7423229 1.2632945 0
5.2690005 2.7381294 1.2647088 0
5.2760005 2.7333367 1.2659463 0
5.2840004 2.7290869 1.2673603 0
5.2910004 2.7242417 1.2685977 0
5.2990003 2.7199361 1.2700119 0
5.3070002 2.7156014 1.2714261 0
5.3140001 2.7106771 1.2726635 0
5.3220005 2.7062867 1.2740778 0
5.3290005 2.7013102 1.2753152 0
5.3370004 2.6968637 1.2767293 0
5.3450003 2.6923883 1.2781435 0
5.3520002 2.6873322 1.2793809 0
5.3600001 2.682801 1.2807951 0
5.3680005 2.678241 1.2822094 0
5.3760004 2.6736524 1.2836236 0
5.3840003 2.6690345 1.2850376 0
5.3910003 2.6638448 1.286275 0
5.3990002 2.6591711 1.2876892 0
5.4070005 2.6544688 1.2891035 0
5.4150004 2.6497374 1.2905177 0
5.4230003 2.6449771 1.2919319 0
5.4310002 2.6401877 1.293346 0
5.4390001 2.6353698 1.2947601 0
5.4470005 2.6305232 1.2961744 0
5.4550004 2.6256475 1.2975886 0
5.4630003 2.620743 1.2990028 0
5.4710002 2.6158094 1.3004169 0
5.4790006 2.6108472 1.3018311 0
5.4870005 2.6058559 1.3032453 0
5.4960003 2.6013556 1.3048363 0
5.5040002 2.5963049 1.3062505 0
5.5120006 2.5912254 1.3076646 0
5.5200005 2.586117 1.3090788 0
5.5290003 2.5814922 1.3106698 0
5.5370002 2.576324 1.312084 0
5.5450006 2.5711274 1.3134983 0
5.5540004 2.5664086 1.3150891 0
5.5620003 2.5611522 1.3165033 0
5.5700002 2.5558672 1.3179175 0
5.5790005 2.5510545 1.3195084 0
5.5870004 2.5457098 1.3209226 0
5.5960002 2.5408342 1.3225136 0
5.6040006 2.53543 1.3239278 0
5.6130004 2.5304911 1.3255187 0
5.6210003 2.5250273 1.3269329 0
5.6300001 2.5200255 1.3285238 0
5.6390004 2.514991 1.330115 0
5.6470003 2.5094371 1.331529 0
5.6560001 2.5043395 1.33312 0
5.6650004 2.4992096 1.334711 0
5.6730003 2.4935656 1.3361251 0
5.6820002 2.4883721 1.337716 0
5.6910005 2.4831467 1.3393071 0
5.7000003 2.4778886 1.340898 0
5.7090001 2.4725978 1.3424889 0
5.7180004 2.4672749 1.3440799 0
5.7270002 2.4619193 1.3456709 0
5.7360005 2.4565315 1.3472619 0
5.7440004 2.4506438 1.3486761 0
5.7540002 2.445658 1.3504437 0
5.7630005 2.4401727 1.3520347 0
5.7720003 2.4346547 1.3536257 0
5.7810001 2.4291043 1.3552166 0
5.7900004 2.4235218 1.3568076 0
5.7990003 2.4179063 1.3583984 0
5.8080006 2.4122589 1.3599896 0
5.8170004 2.4065785 1.3615805 0
5.8270001 2.4013166 1.3633481 0
5.8360004 2.39557 1.3649392 0
5.8450003 2.3897903 1.3665302 0
5.8550005 2.3844242 1.3682978 0
5.8640003 2.3785779 1.3698889 0
5.8740005 2.3731415 1.3716565 0
5.8830004 2.3672285 1.3732475 0
5.8920002 2.3612831 1.3748385 0
5.9020004 2.355742 1.3766062 0
5.9120002 2.3501642 1.378374 0
5.9210005 2.3441181 1.3799649 0
5.9310002 2.3384702 1.3817326 0
5.9400005 2.3323574 1.3833237 0
5.9500003 2.3266392 1.3850913 0
5.9600005 2.3208852 1.3868591 0
5.9700003 2.3150947 1.3886268 0
5.9790006 2.3088465 1.3902178 0
5.9890003 2.3029859 1.3919855 0
5.9990005 2.2970893 1.3937532 0
6.0090003 2.2911565 1.3955209 0
6.0190005 2.2851877 1.3972887 0
6.0290003 2.2791827 1.3990564 0
6.0390005 2.2731419 1.4008242 0
6.0490003 2.2670646 1.4025918 0
6.0590005 2.2609518 1.4043596 0
6.0690002 2.2548025 1.4061273 0
6.0790005 2.2486172 1.4078951 0
5.2540002 2.7470634 1.2533015 0
5.2610002 2.7423229 1.2545263 0
5.2690005 2.7381294 1.255926 0
5.2760005 2.7333367 1.2571509 0
5.2840004 2.7290869 1.2585505 0
5.2910004 2.7242417 1.2597754 0
5.2990003 2.7199361 1.261175 0
5.3070002 2.7156014 1.2625748 0
5.3140001 2.7106771 1.2637995 0
5.3220005 2.7062867 1.2651994 0
5.3290005 2.7013102 1.2664242 0
5.3370004 2.6968637 1.2678239 0
5.3450003 2.6923883 1.2692237 0
5.3520002 2.6873322 1.2704484 0
5.3600001 2.682801 1.2718482 0
5.3680005 2.678241 1.273248 0
5.3760004 2.6736524 1.2746477 0
5.3840003 2.6690345 1.2760475 0
5.3910003 2.6638448 1.2772722 0
5.3990002 2.6591711 1.278672 0
5.4070005 2.6544688 1.2800719 0
5.4150004 2.6497374 1.2814716 0
5.4230003 2.6449771 1.2828712 0
5.4310002 2.6401877 1.284271 0
5.4390001 2.6353698 1.2856708 0
5.4470005 2.6305232 1.2870706 0
5.4550004 2.6256475 1.2884703 0
5.4630003 2.620743 1.28987 0
5.4710002 2.6158094 1.2912698 0
5.4790006 2.6108472 1.2926697 0
5.4870005 2.6058559 1.2940693 0
5.4960003 2.6013556 1.295644 0
5.5040002 2.5963049 1.2970438 0
5.5120006 2.5912254 1.2984437 0
5.5200005 2.586117 1.2998434 0
5.5290003 2.5814922 1.3014181 0
5.5370002 2.576324 1.3028178 0
5.5450006 2.5711274 1.3042176 0
5.5540004 2.5664086 1.3057923 0
5.5620003 2.5611522 1.3071921 0
5.5700002 2.5558672 1.3085918 0
5.5790005 2.5510545 1.3101666 0
5.5870004 2.5457098 1.3115664 0
5.5960002 2.5408342 1.313141 0
5.6040006 2.53543 1.3145409 0
5.6130004 2.5304911 1.3161155 0
5.6210003 2.5250273 1.3175153 0
5.6300001 2.5200255 1.3190899 0
5.6390004 2.514991 1.3206648 0
5.6470003 2.5094371 1.3220644 0
5.6560001 2.5043395 1.3236392 0
5.6650004 2.4992096 1.3252139 0
5.6730003 2.4935656 1.3266137 0
5.6820002 2.4883721 1.3281883 0
5.6910005 2.4831467 1.3297632 0
5.7000003 2.4778886 1.3313378 0
5.7090001 2.4725978 1.3329126 0
5.7180004 2.4672749 1.3344872 0
5.7270002 2.4619193 1.336062 0
5.7360005 2.4565315 1.3376367 0
5.7440004 2.4506438 1.3390365 0
5.7540002 2.445658 1.3407861 0
5.7630005 2.4401727 1.342361 0
5.7720003 2.4346547 1.3439356 0
5.7810001 2.4291043 1.3455104 0
5.7900004 2.4235218 1.347085 0
5.7990003 2.4179063 1.3486598 0
5.8080006 2.4122589 1.3502345 0
5.8170004 2.4065785 1.3518093 0
5.8270001 2.4013166 1.3535589 0
5.8360004 2.39557 1.3551338 0
5.8450003 2.3897903 1.3567084 0
5.8550005 2.3844242 1.358458 0
5.8640003 2.3785779 1.3600328 0
5.8740005 2.3731415 1.3617826 0
5.8830004 2.3672285 1.3633572 0
5.8920002 2.3612831 1.3649319 0
5.9020004 2.355742 1.3666817 0
5.9120002 2.3501642 1.3684313 0
5.9210005 2.3441181 1.3700061 0
5.9310002 2.3384702 1.3717557 0
5.9400005 2.3323574 1.3733306 0
5.9500003 2.3266392 1.3750802 0
5.9600005 2.3208852 1.37683 0
5.9700003 2.3150947 1.3785796 0
5.9790006 2.3088465 1.3801543 0
5.9890003 2.3029859 1.3819039 0
5.9990005 2.2970893 1.3836536 0
6.0090003 2.2911565 1.3854033 0
6.0190005 2.2851877 1.387153 0
6.0290003 2.2791827 1.3889027 0
6.0390005 2.2731419 1.3906524 0
6.0490003 2.2670646 1.3924021 0
6.0590005 2.2609518 1.3941518 0
6.0690002 2.2548025 1.3959014 0
6.0790005 2.2486172 1.3976512 0
5.2540002 2.7470634 1.2445458 0
5.2610002 2.7423229 1.2457579 0
5.2690005 2.7381294 1.2471433 0
5.2760005 2.7333367 1.2483555 0
5.2840004 2.7290869 1.2497407 0
5.2910004 2.7242417 1.2509528 0
5.2990003 2.7199361 1.2523382 0
5.3070002 2.7156014 1.2537236 0
5.3140001 2.7106771 1.2549357 0
5.3220005 2.7062867 1.2563211 0
5.3290005 2.7013102 1.2575332 0
5.3370004 2.6968637 1.2589185 0
5.3450003 2.6923883 1.2603039 0
5.3520002 2.6873322 1.261516 0
5.3600001 2.682801 1.2629013 0
5.3680005 2.678241 1.2642868 0
5.3760004 2.6736524 1.2656721 0
5.3840003 2.6690345 1.2670573 0
5.3910003 2.6638448 1.2682694 0
5.3990002 2.6591711 1.2696548 0
5.4070005 2.6544688 1.2710402 0
5.4150004 2.6497374 1.2724254 0
5.4230003 2.6449771 1.2738107 0
5.4310002 2.6401877 1.2751961 0
5.4390001 2.6353698 1.2765814 0
5.4470005 2.6305232 1.2779667 0
5.4550004 2.6256475 1.2793521 0
5.4630003 2.620743 1.2807374 0
5.4710002 2.6158094 1.2821227 0
5.4790006 2.6108472 1.2835081 0
5.4870005 2.6058559 1.2848934 0
5.4960003 2.6013556 1.2864518 0
5.5040002 2.5963049 1.2878371 0
5.5120006 2.5912254 1.2892226 0
5.5200005 2.586117 1.2906078 0
5.5290003 2.5814922 1.2921664 0
5.5370002 2.576324 1.2935517 0
5.5450006 2.5711274 1.294937 0
5.5540004 2.5664086 1.2964954 0
5.5620003 2.5611522 1.2978808 0
5.5700002 2.5558672 1.2992661 0
5.5790005 2.5510545 1.3008246 0
5.5870004 2.5457098 1.30221 0
5.5960002 2.5408342 1.3037684 0
5.6040006 2.53543 1.3051537 0
5.6130004 2.5304911 1.3067123 0
5.6210003 2.5250273 1.3080975 0
5.6300001 2.5200255 1.309656 0
5.6390004 2.514991 1.3112146 0
5.6470003 2.5094371 1.3125999 0
5.6560001 2.5043395 1.3141583 0
5.6650004 2.4992096 1.3157169 0
5.6730003 2.4935656 1.3171022 0
5.6820002 2.4883721 1.3186606 0
5.6910005 2.4831467 1.3202192 0
5.7000003 2.4778886 1.3217776 0
5.7090001 2.4725978 1.3233361 0
5.7180004 2.4672749 1.3248947 0
5.7270002 2.4619193 1.3264531 0
5.7360005 2.4565315 1.3280116 0
5.7440004 2.4506438 1.329397 0
5.7540002 2.445658 1.3311286 0
5.7630005 2.4401727 1.332687 0
5.7720003 2.4346547 1.3342456 0
5.7810001 2.4291043 1.335804 0
5.7900004 2.4235218 1.3373626 0
5.7990003 2.4179063 1.3389211 0
5.8080006 2.4122589 1.3404795 0
5.8170004 2.4065785 1.342038 0
5.8270001 2.4013166 1.3437697 0
5.8360004 2.39557 1.3453281 0
5.8450003 2.3897903 1.3468866 0
5.8550005 2.3844242 1.3486184 0
5.8640003 2.3785779 1.3501768 0
5.8740005 2.3731415 1.3519084 0
5.8830004 2.3672285 1.353467 0
5.8920002 2.3612831 1.3550254 0
5.9020004 2.355742 1.356757 0
5.9120002 2.3501642 1.3584887 0
5.9210005 2.3441181 1.3600473 0
5.9310002 2.3384702 1.3617789 0
5.9400005 2.3323574 1.3633374 0
5.9500003 2.3266392 1.365069 0
5.9600005 2.3208852 1.3668007 0
5.9700003 2.3150947 1.3685324 0
5.9790006 2.3088465 1.3700908 0
5.9890003 2.3029859 1.3718225 0
5.9990005 2.2970893 1.3735541 0
6.0090003 2.2911565 1.3752857 0
6.0190005 2.2851877 1.3770175 0
6.0290003 2.2791827 1.3787491 0
6.0390005 2.2731419 1.3804809 0
6.0490003 2.2670646 1.3822124 0
6.0590005 2.2609518 1.3839442 0
6.0690002 2.2548025 1.3856757 0
6.0790005 2.2486172 1.3874074 0
5.2540002 2.7470634 1.23579 0
5.2610002 2.7423229 1.2369896 0
5.2690005 2.7381294 1.2383606 0
5.2760005 2.7333367 1.2395601 0
5.2840004 2.7290869 1.240931 0
5.2910004 2.7242417 1.2421305 0
5.2990003 2.7199361 1.2435014 0
5.3070002 2.7156014 1.2448722 0
5.3140001 2.7106771 1.2460718 0
5.3220005 2.7062867 1.2474427 0
5.3290005 2.7013102 1.2486422 0
5.3370004 2.6968637 1.2500131 0
5.3450003 2.6923883 1.251384 0
5.3520002 2.6873322 1.2525835 0
5.3600001 2.682801 1.2539544 0
5.3680005 2.678241 1.2553254 0
5.3760004 2.6736524 1.2566962 0
5.3840003 2.6690345 1.2580671 0
5.3910003 2.6638448 1.2592666 0
5.3990002 2.6591711 1.2606375 0
5.4070005 2.6544688 1.2620084 0
5.4150004 2.6497374 1.2633793 0
5.4230003 2.6449771 1.2647502 0
5.4310002 2.6401877 1.2661211 0
5.4390001 2.6353698 1.2674921 0
5.4470005 2.6305232 1.268863 0
5.4550004 2.6256475 1.2702339 0
5.4630003 2.620743 1.2716047 0
5.4710002 2.6158094 1.2729756 0
5.4790006 2.6108472 1.2743465 0
5.4870005 2.6058559 1.2757175 0
5.4960003 2.6013556 1.2772597 0
5.5040002 2.5963049 1.2786305 0
5.5120006 2.5912254 1.2800015 0
5.5200005 2.586117 1.2813723 0
5.5290003 2.5814922 1.2829145 0
5.5370002 2.576324 1.2842854 0
5.5450006 2.5711274 1.2856565 0
5.5540004 2.5664086 1.2871987 0
5.5620003 2.5611522 1.2885696 0
5.5700002 2.5558672 1.2899404 0
5.5790005 2.5510545 1.2914827 0
5.5870004 2.5457098 1.2928536 0
5.5960002 2.5408342 1.2943958 0
5.6040006 2.53543 1.2957667 0
5.6130004 2.5304911 1.2973089 0
5.6210003 2.5250273 1.2986798 0
5.6300001 2.5200255 1.3002222 0
5.6390004 2.514991 1.3017644 0
5.6470003 2.5094371 1.3031353 0
5.6560001 2.5043395 1.3046775 0
5.6650004 2.4992096 1.3062198 0
5.6730003 2.4935656 1.3075907 0
5.6820002 2.4883721 1.3091329 0
5.6910005 2.4831467 1.3106751 0
5.7000003 2.4778886 1.3122175 0
5.7090001 2.4725978 1.3137597 0
5.7180004 2.4672749 1.315302 0
5.7270002 2.4619193 1.3168442 0
5.7360005 2.4565315 1.3183866 0
5.7440004 2.4506438 1.3197573 0
5.7540002 2.445658 1.321471 0
5.7630005 2.4401727 1.3230133 0
5.7720003 2.4346547 1.3245555 0
5.7810001 2.4291043 1.3260977 0
5.7900004 2.4235218 1.3276401 0
5.7990003 2.4179063 1.3291823 0
5.8080006 2.4122589 1.3307246 0
5.8170004 2.4065785 1.3322668 0
5.8270001 2.4013166 1.3339803 0
5.8360004 2.39557 1.3355227 0
5.8450003 2.3897903 1.3370649 0
5.8550005 2.3844242 1.3387786 0
5.8640003 2.3785779 1.3403208 0
5.8740005 2.3731415 1.3420345 0
5.8830004 2.3672285 1.3435767 0
5.8920002 2.3612831 1.3451189 0
5.9020004 2.355742 1.3468325 0
5.9120002 2.3501642 1.3485461 0
5.9210005 2.3441181 1.3500885 0
5.9310002 2.3384702 1.351802 0
5.9400005 2.3323574 1.3533443 0
5.9500003 2.3266392 1.3550578 0
5.9600005 2.3208852 1.3567715 0
5.9700003 2.3150947 1.3584851 0
5.9790006 2.3088465 1.3600274 0
5.9890003 2.3029859 1.3617409 0
5.9990005 2.2970893 1.3634546 0
6.0090003 2.2911565 1.3651683 0
6.0190005 2.2851877 1.366882 0
6.0290003 2.2791827 1.3685955 0
6.0390005 2.2731419 1.3703091 0
6.0490003 2.2670646 1.3720227 0
6.0590005 2.2609518 1.3737364 0
6.0690002 2.2548025 1.3754499 0
6.0790005 2.2486172 1.3771636 0
5.2540002 2.7470634 1.2270343 0
5.2610002 2.7423229 1.2282213 0
5.2690005 2.7381294 1.2295778 0
5.2760005 2.7333367 1.2307647 0
5.2840004 2.7290869 1.2321212 0
5.2910004 2.7242417 1.2333081 0
5.2990003 2.7199361 1.2346646 0
5.3070002 2.7156014 1.2360209 0
5.3140001 2.7106771 1.2372079 0
5.3220005 2.7062867 1.2385644 0
5.3290005 2.7013102 1.2397513 0
5.3370004 2.6968637 1.2411077 0
5.3450003 2.6923883 1.2424642 0
5.3520002 2.6873322 1.243651 0
5.3600001 2.682801 1.2450075 0
5.3680005 2.678241 1.246364 0
5.3760004 2.6736524 1.2477205 0
5.3840003 2.6690345 1.249077 0
5.3910003 2.6638448 1.2502638 0
5.3990002 2.6591711 1.2516203 0
5.4070005 2.6544688 1.2529769 0
5.4150004 2.6497374 1.2543333 0
5.4230003 2.6449771 1.2556897 0
5.4310002 2.6401877 1.2570461 0
5.4390001 2.6353698 1.2584026 0
5.4470005 2.6305232 1.2597591 0
5.4550004 2.6256475 1.2611156 0
5.4630003 2.620743 1.262472 0
5.4710002 2.6158094 1.2638285 0
5.4790006 2.6108472 1.265185 0
5.4870005 2.6058559 1.2665415 0
5.4960003 2.6013556 1.2680675 0
5.5040002 2.5963049 1.2694238 0
5.5120006 2.5912254 1.2707804 0
5.5200005 2.586117 1.2721368 0
5.5290003 2.5814922 1.2736628 0
5.5370002 2.576324 1.2750193 0
5.5450006 2.5711274 1.2763758 0
5.5540004 2.5664086 1.2779018 0
5.5620003 2.5611522 1.2792583 0
5.5700002 2.5558672 1.2806147 0
5.5790005 2.5510545 1.2821409 0
5.5870004 2.5457098 1.2834972 0
5.5960002 2.5408342 1.2850232 0
5.6040006 2.53543 1.2863798 0
5.6130004 2.5304911 1.2879057 0
5.6210003 2.5250273 1.2892622 0
5.6300001 2.5200255 1.2907882 0
5.6390004 2.514991 1.2923143 0
5.6470003 2.5094371 1.2936707 0
5.6560001 2.5043395 1.2951967 0
5.6650004 2.4992096 1.2967228 0
5.6730003 2.4935656 1.2980793 0
5.6820002 2.4883721 1.2996051 0
5.6910005 2.4831467 1.3011312 0
5.7000003 2.4778886 1.3026572 0
5.7090001 2.4725978 1.3041832 0
5.7180004 2.4672749 1.3057094 0
5.7270002 2.4619193 1.3072354 0
5.7360005 2.4565315 1.3087614 0
5.7450004 2.4511111 1.3102874 0
5.7540002 2.445658 1.3118134 0
5.7630005 2.4401727 1.3133395 0
5.7720003 2.4346547 1.3148655 0
5.7810001 2.4291043 1.3163915 0
5.7900004 2.4235218 1.3179175 0
5.7990003 2.4179063 1.3194435 0
5.8080006 2.4122589 1.3209696 0
5.8170004 2.4065785 1.3224956 0
5.8270001 2.4013166 1.3241911 0
5.8360004 2.39557 1.3257172 0
5.8450003 2.3897903 1.3272432 0
5.8550005 2.3844242 1.3289387 0
5.8640003 2.3785779 1.3304648 0
5.8740005 2.3731415 1.3321604 0
5.8830004 2.3672285 1.3336864 0
5.8920002 2.3612831 1.3352123 0
5.9020004 2.355742 1.336908 0
5.9120002 2.3501642 1.3386035 0
5.9210005 2.3441181 1.3401296 0
5.9310002 2.3384702 1.3418251 0
5.9400005 2.3323574 1.3433512 0
5.9500003 2.3266392 1.3450468 0
5.9600005 2.3208852 1.3467423 0
5.9700003 2.3150947 1.3484379 0
5.9790006 2.3088465 1.3499639 0
5.9890003 2.3029859 1.3516595 0
5.9990005 2.2970893 1.3533552 0
6.0090003 2.2911565 1.3550507 0
6.0190005 2.2851877 1.3567463 0
6.0290003 2.2791827 1.3584418 0
6.0390005 2.2731419 1.3601375 0
6.0490003 2.2670646 1.3618331 0
6.0590005 2.2609518 1.3635286 0
6.0690002 2.2548025 1.3652241 0
6.0790005 2.2486172 1.3669198 0
5.2540002 2.7470634 1.2182786 0
5.2610002 2.7423229 1.219453 0
5.2690005 2.7381294 1.220795 0
5.2760005 2.7333367 1.2219694 0
5.2840004 2.7290869 1.2233114 0
5.2910004 2.7242417 1.2244856 0
5.2990003 2.7199361 1.2258277 0
5.3070002 2.7156014 1.2271696 0
5.3140001 2.7106771 1.228344 0
5.3220005 2.7062867 1.229686 0
5.3290005 2.7013102 1.2308604 0
5.3370004 2.6968637 1.2322023 0
5.3450003 2.6923883 1.2335443 0
5.3520002 2.6873322 1.2347187 0
5.3600001 2.682801 1.2360606 0
5.3680005 2.678241 1.2374028 0
5.3760004 2.6736524 1.2387447 0
5.3840003 2.6690345 1.2400868 0
5.3910003 2.6638448 1.241261 0
5.3990002 2.6591711 1.2426031 0
5.4070005 2.6544688 1.2439451 0
5.4150004 2.6497374 1.2452872 0
5.4230003 2.6449771 1.2466291 0
5.4310002 2.6401877 1.2479712 0
5.4390001 2.6353698 1.2493132 0
5.4470005 2.6305232 1.2506553 0
5.4550004 2.6256475 1.2519974 0
5.4630003 2.620743 1.2533393 0
5.4710002 2.6158094 1.2546813 0
5.4790006 2.6108472 1.2560234 0
5.4870005 2.6058559 1.2573655 0
5.4960003 2.6013556 1.2588753 0
5.5040002 2.5963049 1.2602172 0
5.5120006 2.5912254 1.2615594 0
5.5200005 2.586117 1.2629013 0
5.5290003 2.5814922 1.2644111 0
5.5370002 2.576324 1.2657531 0
5.5450006 2.5711274 1.2670952 0
5.5540004 2.5664086 1.268605 0
5.5620003 2.5611522 1.2699471 0
5.5700002 2.5558672 1.271289 0
5.5790005 2.5510545 1.2727989 0
5.5870004 2.5457098 1.2741408 0
5.5960002 2.5408342 1.2756506 0
5.6040006 2.53543 1.2769927 0
5.6130004 2.5304911 1.2785025 0
5.6210003 2.5250273 1.2798445 0
5.6300001 2.5200255 1.2813543 0
5.6390004 2.514991 1.2828641 0
5.6470003 2.5094371 1.2842062 0
5.6560001 2.5043395 1.2857159 0
5.6650004 2.4992096 1.2872257 0
5.6730003 2.4935656 1.2885677 0
5.6820002 2.4883721 1.2900774 0
5.6910005 2.4831467 1.2915874 0
5.7000003 2.4778886 1.2930971 0
5.7090001 2.4725978 1.2946068 0
5.7180004 2.4672749 1.2961167 0
5.7270002 2.4619193 1.2976264 0
5.7360005 2.4565315 1.2991363 0
5.7450004 2.4511111 1.3006461 0
5.7540002 2.445658 1.3021557 0
5.7630005 2.4401727 1.3036656 0
5.7720003 2.4346547 1.3051754 0
5.7810001 2.4291043 1.3066852 0
5.7900004 2.4235218 1.308195 0
5.7990003 2.4179063 1.3097048 0
5.8080006 2.4122589 1.3112146 0
5.8170004 2.4065785 1.3127244 0
5.8270001 2.4013166 1.3144019 0
5.8360004 2.39557 1.3159117 0
5.8450003 2.3897903 1.3174214 0
5.8550005 2.3844242 1.3190989 0
5.8640003 2.3785779 1.3206087 0
5.8740005 2.3731415 1.3222864 0
5.8830004 2.3672285 1.3237962 0
5.8920002 2.3612831 1.3253058 0
5.9020004 2.355742 1.3269835 0
5.9120002 2.3501642 1.328661 0
5.9210005 2.3441181 1.3301709 0
5.9310002 2.3384702 1.3318483 0
5.9400005 2.3323574 1.333358 0
5.9500003 2.3266392 1.3350357 0
5.9600005 2.3208852 1.3367132 0
5.9700003 2.3150947 1.3383907 0
5.9790006 2.3088465 1.3399005 0
5.9890003 2.3029859 1.3415781 0
5.9990005 2.2970893 1.3432556 0
6.0090003 2.2911565 1.3449332 0
6.0190005 2.2851877 1.3466107 0
6.0290003 2.2791827 1.3482882 0
6.0390005 2.2731419 1.3499658 0
6.0490003 2.2670646 1.3516432 0
6.0590005 2.2609518 1.3533208 0
6.0690002 2.2548025 1.3549984 0
6.0790005 2.2486172 1.356676 0
5.2540002 2.7470634 1.209523 0
5.2610002 2.7423229 1.2106847 0
5.2690005 2.7381294 1.2120123 0
5.2760005 2.7333367 1.213174 0
5.2840004 2.7290869 1.2145016 0
5.2910004 2.7242417 1.2156632 0
5.2990003 2.7199361 1.2169908 0
5.3070002 2.7156014 1.2183183 0
5.3140001 2.7106771 1.21948 0
5.3220005 2.7062867 1.2208077 0
5.3290005 2.7013102 1.2219694 0
5.3370004 2.6968637 1.223297 0
5.3450003 2.6923883 1.2246245 0
5.3520002 2.6873322 1.2257862 0
5.3600001 2.682801 1.2271137 0
5.3680005 2.678241 1.2284414 0
5.3760004 2.6736524 1.229769 0
5.3840003 2.6690345 1.2310966 0
5.3910003 2.6638448 1.2322582 0
5.3990002 2.6591711 1.2335858 0
5.4070005 2.6544688 1.2349135 0
5.4150004 2.6497374 1.2362411 0
5.4230003 2.6449771 1.2375686 0
5.4310002 2.6401877 1.2388963 0
5.4390001 2.6353698 1.2402239 0
5.4470005 2.6305232 1.2415515 0
5.4550004 2.6256475 1.242879 0
5.4630003 2.620743 1.2442067 0
5.4710002 2.6158094 1.2455343 0
5.4790006 2.6108472 1.2468619 0
5.4870005 2.6058559 1.2481894 0
5.4960003 2.6013556 1.249683 0
5.5040002 2.5963049 1.2510105 0
5.5120006 2.5912254 1.2523383 0
5.5200005 2.586117 1.2536659 0
5.5290003 2.5814922 1.2551594 0
5.5370002 2.576324 1.256487 0
5.5450006 2.5711274 1.2578146 0
5.5540004 2.5664086 1.2593082 0
5.5620003 2.5611522 1.2606357 0
5.5700002 2.5558672 1.2619634 0
5.5790005 2.5510545 1.2634569 0
5.5870004 2.5457098 1.2647846 0
5.5960002 2.5408342 1.266278 0
5.6040006 2.53543 1.2676057 0
5.6130004 2.5304911 1.2690992 0
5.6210003 2.5250273 1.2704269 0
5.6300001 2.5200255 1.2719203 0
5.6390004 2.514991 1.273414 0
5.6470003 2.5094371 1.2747415 0
5.6560001 2.5043395 1.2762351 0
5.6650004 2.4992096 1.2777287 0
5.6730003 2.4935656 1.2790563 0
5.6820002 2.4883721 1.2805498 0
5.6910005 2.4831467 1.2820433 0
5.7000003 2.4778886 1.2835369 0
5.7090001 2.4725978 1.2850305 0
5.7180004 2.4672749 1.2865241 0
5.7270002 2.4619193 1.2880175 0
5.7360005 2.4565315 1.2895112 0
5.7450004 2.4511111 1.2910047 0
5.7540002 2.445658 1.2924982 0
5.7630005 2.4401727 1.2939918 0
5.7720003 2.4346547 1.2954854 0
5.7810001 2.4291043 1.2969788 0
5.7900004 2.4235218 1.2984724 0
5.7990003 2.4179063 1.299966 0
5.8080006 2.4122589 1.3014596 0
5.8170004 2.4065785 1.3029531 0
5.8270001 2.4013166 1.3046125 0
5.8360004 2.39557 1.3061062 0
5.8450003 2.3897903 1.3075997 0
5.8550005 2.3844242 1.3092593 0
5.8640003 2.3785779 1.3107527 0
5.8740005 2.3731415 1.3124123 0
5.8830004 2.3672285 1.3139058 0
5.8920002 2.3612831 1.3153993 0
5.9020004 2.355742 1.3170589 0
5.9120002 2.3501642 1.3187183 0
5.9210005 2.3441181 1.320212 0
5.9310002 2.3384702 1.3218714 0
5.9400005 2.3323574 1.3233651 0
5.9500003 2.3266392 1.3250245 0
5.9600005 2.3208852 1.326684 0
5.9700003 2.3150947 1.3283435 0
5.9790006 2.3088465 1.3298371 0
5.9890003 2.3029859 1.3314966 0
5.9990005 2.2970893 1.3331561 0
6.0090003 2.2911565 1.3348155 0
6.0190005 2.2851877 1.3364751 0
6.0290003 2.2791827 1.3381346 0
6.0390005 2.2731419 1.339794 0
6.0490003 2.2670646 1.3414536 0
6.0590005 2.2609518 1.3431132 0
6.0690002 2.2548025 1.3447726 0
6.0790005 2.2486172 1.3464321 0
5.2540002 2.7470634 1.2007674 0
5.2610002 2.7423229 1.2019163 0
5.2690005 2.7381294 1.2032295 0
5.2760005 2.7333367 1.2043786 0
5.2840004 2.7290869 1.2056918 0
5.2910004 2.7242417 1.2068408 0
5.2990003 2.7199361 1.208154 0
5.3070002 2.7156014 1.2094672 0
5.3140001 2.7106771 1.2106161 0
5.3220005 2.7062867 1.2119293 0
5.3290005 2.7013102 1.2130784 0
5.3370004 2.6968637 1.2143916 0
5.3450003 2.6923883 1.2157047 0
5.3530002 2.6878841 1.2170178 0
5.3600001 2.682801 1.2181669 0
5.3680005 2.678241 1.2194802 0
5.3760004 2.6736524 1.2207932 0
5.3840003 2.6690345 1.2221063 0
5.3910003 2.6638448 1.2232555 0
5.3990002 2.6591711 1.2245686 0
5.4070005 2.6544688 1.2258818 0
5.4150004 2.6497374 1.2271949 0
5.4230003 2.6449771 1.2285081 0
5.4310002 2.6401877 1.2298213 0
5.4390001 2.6353698 1.2311344 0
5.4470005 2.6305232 1.2324476 0
5.4550004 2.6256475 1.2337608 0
5.4630003 2.620743 1.235074 0
5.4710002 2.6158094 1.2363871 0
5.4790006 2.6108472 1.2377003 0
5.4870005 2.6058559 1.2390136 0
5.4960003 2.6013556 1.2404908 0
5.5040002 2.5963049 1.241804 0
5.5120006 2.5912254 1.2431172 0
5.5200005 2.586117 1.2444304 0
5.5290003 2.5814922 1.2459077 0
5.5370002 2.576324 1.2472209 0
5.5450006 2.5711274 1.2485341 0
5.5540004 2.5664086 1.2500113 0
5.5620003 2.5611522 1.2513244 0
5.5700002 2.5558672 1.2526376 0
5.5790005 2.5510545 1.254115 0
5.5870004 2.5457098 1.2554282 0
5.5960002 2.5408342 1.2569054 0
5.6040006 2.53543 1.2582188 0
5.6130004 2.5304911 1.259696 0
5.6210003 2.5250273 1.2610091 0
5.6300001 2.5200255 1.2624865 0
5.6390004 2.514991 1.2639638 0
5.6470003 2.5094371 1.2652769 0
5.6560001 2.5043395 1.2667543 0
5.6650004 2.4992096 1.2682316 0
5.6730003 2.4935656 1.2695447 0
5.6820002 2.4883721 1.2710221 0
5.6910005 2.4831467 1.2724994 0
5.7000003 2.4778886 1.2739767 0
5.7090001 2.4725978 1.2754539 0
5.7180004 2.4672749 1.2769314 0
5.7270002 2.4619193 1.2784086 0
5.7360005 2.4565315 1.279886 0
5.7450004 2.4511111 1.2813634 0
5.7540002 2.445658 1.2828406 0
5.7630005 2.4401727 1.284318 0
5.7720003 2.4346547 1.2857952 0
5.7810001 2.4291043 1.2872726 0
5.7900004 2.4235218 1.2887499 0
5.7990003 2.4179063 1.2902272 0
5.8080006 2.4122589 1.2917047 0
5.8170004 2.4065785 1.2931819 0
5.8270001 2.4013166 1.2948233 0
5.8360004 2.39557 1.2963006 0
5.8450003 2.3897903 1.297778 0
5.8550005 2.3844242 1.2994194 0
5.8640003 2.3785779 1.3008968 0
5.8740005 2.3731415 1.3025383 0
5.8830004 2.3672285 1.3040155 0
5.8920002 2.3612831 1.3054929 0
5.9020004 2.355742 1.3071344 0
5.9120002 2.3501642 1.3087758 0
5.9210005 2.3441181 1.3102531 0
5.9310002 2.3384702 1.3118945 0
5.9400005 2.3323574 1.3133719 0
5.9500003 2.3266392 1.3150134 0
5.9600005 2.3208852 1.3166549 0
5.9700003 2.3150947 1.3182963 0
5.9790006 2.3088465 1.3197737 0
5.9890003 2.3029859 1.3214151 0
5.9990005 2.2970893 1.3230566 0
6.0090003 2.2911565 1.324698 0
6.0190005 2.2851877 1.3263395 0
6.0290003 2.2791827 1.3279809 0
6.0390005 2.2731419 1.3296224 0
6.0490003 2.2670646 1.3312639 0
6.0590005 2.2609518 1.3329054 0
6.0690002 2.2548025 1.3345468 0
6.0790005 2.2486172 1.3361883 0
5.2540002 2.7470634 1.1920117 0
5.2610002 2.7423229 1.193148 0
5.2690005 2.7381294 1.1944469 0
5.2760005 2.7333367 1.1955832 0
5.2840004 2.7290869 1.196882 0
5.2910004 2.7242417 1.1980184 0
5.2990003 2.7199361 1.1993171 0
5.3070002 2.7156014 1.2006158 0
5.3140001 2.7106771 1.2017522 0
5.3220005 2.7062867 1.203051 0
5.3290005 2.7013102 1.2041874 0
5.3370004 2.6968637 1.2054862 0
5.3450003 2.6923883 1.2067848 0
5.3530002 2.6878841 1.2080836 0
5.3600001 2.682801 1.2092199 0
5.3680005 2.678241 1.2105187 0
5.3760004 2.6736524 1.2118175 0
5.3840003 2.6690345 1.2131163 0
5.3910003 2.6638448 1.2142526 0
5.3990002 2.6591711 1.2155514 0
5.4070005 2.6544688 1.2168502 0
5.4150004 2.6497374 1.2181489 0
5.4230003 2.6449771 1.2194476 0
5.4310002 2.6401877 1.2207463 0
5.4390001 2.6353698 1.2220451 0
5.4470005 2.6305232 1.2233438 0
5.4550004 2.6256475 1.2246425 0
5.4630003 2.620743 1.2259413 0
5.4710002 2.6158094 1.2272401 0
5.4790006 2.6108472 1.2285389 0
5.4870005 2.6058559 1.2298375 0
5.4960003 2.6013556 1.2312986 0
5.5040002 2.5963049 1.2325974 0
5.5120006 2.5912254 1.2338961 0
5.5200005 2.586117 1.2351948 0
5.5290003 2.5814922 1.236656 0
5.5370002 2.576324 1.2379546 0
5.5450006 2.5711274 1.2392535 0
5.5540004 2.5664086 1.2407144 0
5.5620003 2.5611522 1.2420132 0
5.5700002 2.5558672 1.243312 0
5.5790005 2.5510545 1.2447731 0
5.5870004 2.5457098 1.2460718 0
5.5960002 2.5408342 1.2475328 0
5.6040006 2.53543 1.2488316 0
5.6130004 2.5304911 1.2502927 0
5.6210003 2.5250273 1.2515914 0
5.6300001 2.5200255 1.2530525 0
5.6390004 2.514991 1.2545136 0
5.6470003 2.5094371 1.2558124 0
5.6560001 2.5043395 1.2572734 0
5.6650004 2.4992096 1.2587346 0
5.6730003 2.4935656 1.2600332 0
5.6820002 2.4883721 1.2614944 0
5.6910005 2.4831467 1.2629554 0
5.7000003 2.4778886 1.2644166 0
5.7090001 2.4725978 1.2658776 0
5.7180004 2.4672749 1.2673388 0
5.7270002 2.4619193 1.2687998 0
5.7360005 2.4565315 1.2702609 0
5.7450004 2.4511111 1.271722 0
5.7540002 2.445658 1.273183 0
5.7630005 2.4401727 1.2746441 0
5.7720003 2.4346547 1.2761052 0
5.7810001 2.4291043 1.2775663 0
5.7900004 2.4235218 1.2790275 0
5.7990003 2.4179063 1.2804885 0
5.8080006 2.4122589 1.2819495 0
5.8170004 2.4065785 1.2834107 0
5.8270001 2.4013166 1.2850341 0
5.8360004 2.39557 1.2864952 0
5.8450003 2.3897903 1.2879562 0
5.8550005 2.3844242 1.2895797 0
5.8640003 2.3785779 1.2910408 0
5.8740005 2.3731415 1.2926642 0
5.8830004 2.3672285 1.2941253 0
5.8930001 2.3617213 1.2957486 0
5.9020004 2.355742 1.2972097 0
5.9120002 2.3501642 1.2988331 0
5.9210005 2.3441181 1.3002943 0
5.9310002 2.3384702 1.3019177 0
5.9400005 2.3323574 1.3033788 0
5.9500003 2.3266392 1.3050022 0
5.9600005 2.3208852 1.3066256 0
5.9700003 2.3150947 1.3082491 0
5.9790006 2.3088465 1.3097103 0
5.9890003 2.3029859 1.3113335 0
5.9990005 2.2970893 1.312957 0
6.0090003 2.2911565 1.3145804 0
6.0190005 2.2851877 1.316204 0
6.0290003 2.2791827 1.3178273 0
6.0390005 2.2731419 1.3194507 0
6.0490003 2.2670646 1.3210741 0
6.0590005 2.2609518 1.3226976 0
6.0690002 2.2548025 1.324321 0
6.0790005 2.2486172 1.3259444 0
5.2540002 2.7470634 1.183256 0
5.2610002 2.7423229 1.1843797 0
5.2690005 2.7381294 1.1856641 0
5.2760005 2.7333367 1.186788 0
5.2840004 2.7290869 1.1880722 0
5.2910004 2.7242417 1.1891959 0
5.2990003 2.7199361 1.1904802 0
5.3070002 2.7156014 1.1917645 0
5.3140001 2.7106771 1.1928883 0
5.3220005 2.7062867 1.1941727 0
5.3290005 2.7013102 1.1952964 0
5.3370004 2.6968637 1.1965808 0
5.3450003 2.6923883 1.197865 0
5.3530002 2.6878841 1.1991494 0
5.3600001 2.682801 1.200273 0
5.3680005 2.678241 1.2015575 0
5.3760004 2.6736524 1.2028418 0
5.3840003 2.6690345 1.204126 0
5.3910003 2.6638448 1.2052498 0
5.3990002 2.6591711 1.2065341 0
5.4070005 2.6544688 1.2078185 0
5.4150004 2.6497374 1.2091027 0
5.4230003 2.6449771 1.2103871 0
5.4310002 2.6401877 1.2116714 0
5.4390001 2.6353698 1.2129557 0
5.4470005 2.6305232 1.2142401 0
5.4550004 2.6256475 1.2155243 0
5.4630003 2.620743 1.2168087 0
5.4710002 2.6158094 1.2180929 0
5.4790006 2.6108472 1.2193773 0
5.4870005 2.6058559 1.2206616 0
5.4960003 2.6013556 1.2221063 0
5.5040002 2.5963049 1.2233907 0
5.5120006 2.5912254 1.2246751 0
5.5200005 2.586117 1.2259593 0
5.5290003 2.5814922 1.2274042 0
5.5370002 2.576324 1.2286885 0
5.5450006 2.5711274 1.2299728 0
5.5540004 2.5664086 1.2314177 0
5.5620003 2.5611522 1.232702 0
5.5700002 2.5558672 1.2339863 0
5.5790005 2.5510545 1.2354312 0
5.5870004 2.5457098 1.2367154 0
5.5960002 2.5408342 1.2381603 0
5.6040006 2.53543 1.2394446 0
5.6130004 2.5304911 1.2408894 0
5.6210003 2.5250273 1.2421738 0
5.6300001 2.5200255 1.2436186 0
5.6390004 2.514991 1.2450635 0
5.6470003 2.5094371 1.2463478 0
5.6560001 2.5043395 1.2477926 0
5.6650004 2.4992096 1.2492375 0
5.6730003 2.4935656 1.2505218 0
5.6820002 2.4883721 1.2519666 0
5.6910005 2.4831467 1.2534115 0
5.7000003 2.4778886 1.2548563 0
5.7090001 2.4725978 1.2563012 0
5.7180004 2.4672749 1.2577461 0
5.7270002 2.4619193 1.2591909 0
5.7360005 2.4565315 1.2606359 0
5.7450004 2.4511111 1.2620806 0
5.7540002 2.445658 1.2635255 0
5.7630005 2.4401727 1.2649703 0
5.7720003 2.4346547 1.2664151 0
5.7810001 2.4291043 1.2678599 0
5.7900004 2.4235218 1.2693049 0
5.7990003 2.4179063 1.2707497 0
5.8080006 2.4122589 1.2721946 0
5.8170004 2.4065785 1.2736394 0
5.8270001 2.4013166 1.2752447 0
5.8360004 2.39557 1.2766896 0
5.8450003 2.3897903 1.2781345 0
5.8550005 2.3844242 1.2797399 0
5.8640003 2.3785779 1.2811848 0
5.8740005 2.3731415 1.2827902 0
5.8830004 2.3672285 1.284235 0
5.8930001 2.3617213 1.2858404 0
5.9020004 2.355742 1.2872852 0
5.9120002 2.3501642 1.2888906 0
5.9210005 2.3441181 1.2903355 0
5.9310002 2.3384702 1.2919408 0
5.9400005 2.3323574 1.2933857 0
5.9500003 2.3266392 1.294991 0
5.9600005 2.3208852 1.2965965 0
5.9700003 2.3150947 1.2982018 0
5.9790006 2.3088465 1.2996467 0
5.9890003 2.3029859 1.3012521 0
5.9990005 2.2970893 1.3028575 0
6.0090003 2.2911565 1.3044629 0
6.0190005 2.2851877 1.3060683 0
6.0290003 2.2791827 1.3076737 0
6.0390005 2.2731419 1.3092791 0
6.0490003 2.2670646 1.3108845 0
6.0590005 2.2609518 1.3124899 0
6.0690002 2.2548025 1.3140953 0
6.0790005 2.2486172 1.3157007 0
5.2540002 2.7470634 1.1745002 0
5.2610002 2.7423229 1.1756114 0
5.2690005 2.7381294 1.1768814 0
5.2760005 2.7333367 1.1779925 0
5.2840004 2.7290869 1.1792624 0
5.2910004 2.7242417 1.1803735 0
5.2990003 2.7199361 1.1816434 0
5.3070002 2.7156014 1.1829133 0
5.3140001 2.7106771 1.1840243 0
5.3220005 2.7062867 1.1852944 0
5.3290005 2.7013102 1.1864055 0
5.3370004 2.6968637 1.1876754 0
5.3450003 2.6923883 1.1889452 0
5.3530002 2.6878841 1.1902151 0
5.3600001 2.682801 1.1913263 0
5.3680005 2.678241 1.1925961 0
5.3760004 2.6736524 1.193866 0
5.3840003 2.6690345 1.1951358 0
5.3910003 2.6638448 1.196247 0
5.3990002 2.6591711 1.1975169 0
5.4070005 2.6544688 1.1987867 0
5.4150004 2.6497374 1.2000567 0
5.4230003 2.6449771 1.2013265 0
5.4310002 2.6401877 1.2025964 0
5.4390001 2.6353698 1.2038662 0
5.4470005 2.6305232 1.2051362 0
5.4550004 2.6256475 1.2064061 0
5.4630003 2.620743 1.2076759 0
5.4710002 2.6158094 1.2089459 0
5.4790006 2.6108472 1.2102157 0
5.4870005 2.6058559 1.2114856 0
5.4960003 2.6013556 1.2129142 0
5.5040002 2.5963049 1.214184 0
5.5120006 2.5912254 1.215454 0
5.5200005 2.586117 1.2167239 0
5.5290003 2.5814922 1.2181525 0
5.5370002 2.576324 1.2194223 0
5.5450006 2.5711274 1.2206923 0
5.5540004 2.5664086 1.2221209 0
5.5620003 2.5611522 1.2233907 0
5.5700002 2.5558672 1.2246606 0
5.5790005 2.5510545 1.2260892 0
5.5870004 2.5457098 1.2273591 0
5.5960002 2.5408342 1.2287877 0
5.6040006 2.53543 1.2300576 0
5.6130004 2.5304911 1.2314862 0
5.6210003 2.5250273 1.2327561 0
5.6300001 2.5200255 1.2341846 0
5.6390004 2.514991 1.2356133 0
5.6470003 2.5094371 1.2368832 0
5.6560001 2.5043395 1.2383118 0
5.6650004 2.4992096 1.2397405 0
5.6730003 2.4935656 1.2410103 0
5.6820002 2.4883721 1.2424389 0
5.6910005 2.4831467 1.2438675 0
5.7000003 2.4778886 1.2452961 0
5.7090001 2.4725978 1.2467247 0
5.7180004 2.4672749 1.2481534 0
5.7270002 2.4619193 1.2495819 0
5.7360005 2.4565315 1.2510107 0
5.7450004 2.4511111 1.2524393 0
5.7540002 2.445658 1.2538679 0
5.7630005 2.4401727 1.2552965 0
5.7720003 2.4346547 1.2567251 0
5.7810001 2.4291043 1.2581537 0
5.7900004 2.4235218 1.2595824 0
5.7990003 2.4179063 1.2610109 0
5.8080006 2.4122589 1.2624396 0
5.8170004 2.4065785 1.2638682 0
5.8270001 2.4013166 1.2654555 0
5.8360004 2.39557 1.2668842 0
5.8450003 2.3897903 1.2683127 0
5.8550005 2.3844242 1.2699002 0
5.8640003 2.3785779 1.2713288 0
5.8740005 2.3731415 1.2729161 0
5.8830004 2.3672285 1.2743447 0
5.8930001 2.3617213 1.2759321 0
5.9020004 2.355742 1.2773607 0
5.9120002 2.3501642 1.2789479 0
5.9210005 2.3441181 1.2803767 0
5.9310002 2.3384702 1.2819639 0
5.9400005 2.3323574 1.2833927 0
5.9500003 2.3266392 1.2849799 0
5.9600005 2.3208852 1.2865673 0
5.9700003 2.3150947 1.2881546 0
5.9790006 2.3088465 1.2895833 0
5.9890003 2.3029859 1.2911706 0
5.9990005 2.2970893 1.292758 0
6.0090003 2.2911565 1.2943453 0
6.0190005 2.2851877 1.2959328 0
6.0290003 2.2791827 1.29752 0
6.0390005 2.2731419 1.2991074 0
6.0490003 2.2670646 1.3006947 0
6.0590005 2.2609518 1.3022821 0
6.0690002 2.2548025 1.3038694 0
6.0790005 2.2486172 1.3054569 0
5.2540002 2.7470634 1.1657445 0
5.2610002 2.7423229 1.1668432 0
5.2690005 2.7381294 1.1680986 0
5.2760005 2.7333367 1.1691971 0
5.2840004 2.7290869 1.1704526 0
5.2910004 2.7242417 1.1715511 0
5.2990003 2.7199361 1.1728065 0
5.3070002 2.7156014 1.1740619 0
5.3140001 2.7106771 1.1751605 0
5.3220005 2.7062867 1.176416 0
5.3290005 2.7013102 1.1775144 0
5.3370004 2.6968637 1.1787699 0
5.3450003 2.6923883 1.1800253 0
5.3530002 2.6878841 1.1812809 0
5.3600001 2.682801 1.1823792 0
5.3680005 2.678241 1.1836348 0
5.3760004 2.6736524 1.1848903 0
5.3840003 2.6690345 1.1861457 0
5.3910003 2.6638448 1.1872442 0
5.3990002 2.6591711 1.1884996 0
5.4070005 2.6544688 1.1897552 0
5.4150004 2.6497374 1.1910106 0
5.4230003 2.6449771 1.192266 0
5.4310002 2.6401877 1.1935215 0
5.4390001 2.6353698 1.1947769 0
5.4470005 2.6305232 1.1960324 0
5.4550004 2.6256475 1.1972878 0
