# .PCD v0.7 - Point Cloud Data file format
VERSION 0.7
FIELDS x y z intensity
SIZE 4 4 4 4
TYPE F F F F
COUNT 1 1 1 1
WIDTH 1415
HEIGHT 1
VIEWPOINT 0 0 0 1 0 0 0
POINTS 1415
DATA ascii
3.4730003 -1.7865343 0.54257756 0
3.4750001 -1.7932137 0.54266775 0
3.4800003 -1.8016105 0.54289329 0
3.4880002 -1.8117405 0.54325402 0
3.5320003 -1.7182602 0.53958869 0
3.5220003 -1.7185524 0.53915578 0
3.5140002 -1.7198836 0.53880942 0
3.5080001 -1.7222645 0.53854966 0
3.5020003 -1.724624 0.5382899 0
3.4970002 -1.7275046 0.53807348 0
3.4930003 -1.7309121 0.53790033 0
3.4890003 -1.734305 0.53772712 0
3.4860003 -1.7382319 0.5375973 0
3.4830003 -1.7421479 0.53746736 0
3.4810002 -1.746605 0.53738081 0
3.4790003 -1.7510551 0.53729421 0
3.4770002 -1.7554979 0.53720766 0
3.4760003 -1.7604909 0.53716433 0
3.4750001 -1.7654802 0.53712106 0
3.4750001 -1.7710268 0.53712106 0
3.4750001 -1.7765735 0.53712106 0
3.4760003 -1.782685 0.53716433 0
3.4780002 -1.7893661 0.53725094 0
3.4810002 -1.7966229 0.53738081 0
3.4870002 -1.8056005 0.53764057 0
3.5440001 -1.7246672 0.534437 0
3.5290003 -1.7223024 0.53381467 0
3.5200002 -1.7231086 0.53344131 0
3.5130002 -1.7249613 0.53315091 0
3.5070002 -1.7273296 0.53290194 0
3.5020003 -1.7302195 0.53269452 0
3.4970002 -1.7330911 0.53248709 0
3.4940002 -1.7370378 0.53236258 0
3.4900002 -1.7404253 0.53219664 0
3.4870002 -1.7443485 0.53207219 0
3.4850001 -1.7488129 0.53198922 0
3.4830003 -1.7532703 0.53190625 0
3.4810002 -1.7577201 0.53182328 0
3.4800003 -1.7627203 0.53178179 0
3.4790003 -1.7677169 0.53174031 0
3.4790003 -1.773271 0.53174031 0
3.4800003 -1.7793875 0.53178179 0
3.4810002 -1.7855078 0.53182328 0
3.4840002 -1.7927645 0.53194773 0
3.4890003 -1.8011687 0.53215516 0
3.5280004 -1.7274091 0.52813089 0
3.5200002 -1.7287366 0.52781343 0
3.5130002 -1.7305765 0.52753562 0
3.5070002 -1.7329341 0.5272975 0
3.5030003 -1.7363596 0.52713877 0
3.4990003 -1.7397705 0.52698004 0
3.4950001 -1.743167 0.52682132 0
3.4920003 -1.7470994 0.52670228 0
3.4900002 -1.7515728 0.52662289 0
3.4880002 -1.756039 0.52654356 0
3.4860003 -1.760498 0.52646416 0
3.4850001 -1.7655072 0.52642447 0
3.4850001 -1.771072 0.52642447 0
3.4850001 -1.7766367 0.52642447 0
3.4860003 -1.7827644 0.52646416 0
3.4890003 -1.7900246 0.52658319 0
3.4900002 -1.7961631 0.52662289 0
3.4880002 -1.8006003 0.52654356 0
3.4860003 -1.8050306 0.52646416 0
3.4830003 -1.8088816 0.52634513 0
3.4810002 -1.8132956 0.52626574 0
3.4790003 -1.8177023 0.52618641 0
3.5310001 -1.7346693 0.5226022 0
3.5220003 -1.7354468 0.52226126 0
3.5150003 -1.7372776 0.52199614 0
3.5100002 -1.7401727 0.52180672 0
3.5050004 -1.7430499 0.52161735 0
3.5020003 -1.7470056 0.52150369 0
3.4980001 -1.7504003 0.52135217 0
3.4960003 -1.7548846 0.52127641 0
3.4940002 -1.7593616 0.52120066 0
3.4930003 -1.7643871 0.52116275 0
3.4920003 -1.7694089 0.5211249 0
3.4910002 -1.7744271 0.52108699 0
3.4890003 -1.7788807 0.52101123 0
3.4870002 -1.7833271 0.52093548 0
3.4840002 -1.7872016 0.52082187 0
3.4820004 -1.7916319 0.52074611 0
3.4800003 -1.7960548 0.52067029 0
3.4780002 -1.8004704 0.5205946 0
3.4750001 -1.8043071 0.52048093 0
3.4730003 -1.8087066 0.52040517 0
3.4710002 -1.8130989 0.52032942 0
3.5390003 -1.738984 0.51724309 0
3.5240002 -1.736529 0.51670194 0
3.5160003 -1.7378206 0.51641333 0
3.5100002 -1.7401727 0.51619691 0
3.5050004 -1.7430499 0.51601648 0
3.5010002 -1.7464572 0.51587218 0
3.4970002 -1.7498502 0.51572788 0
3.4950001 -1.7543325 0.51565576 0
3.4920003 -1.7582542 0.51554751 0
3.4900002 -1.7627203 0.51547539 0
3.4880002 -1.7671794 0.51540321 0
3.4860003 -1.7716311 0.51533103 0
3.4840002 -1.7760757 0.51525891 0
3.4810002 -1.7799504 0.51515067 0
3.4790003 -1.7843788 0.51507854 0
3.4770002 -1.7887999 0.51500636 0
3.4750001 -1.7932137 0.51493418 0
3.4720001 -1.7970504 0.514826 0
3.4700003 -1.8014482 0.51475382 0
3.4680002 -1.8058386 0.5146817 0
3.4660003 -1.8102219 0.51460952 0
3.5260003 -1.7319727 0.5111354 0
3.5170002 -1.7327411 0.51082695 0
3.5100002 -1.7345629 0.51058704 0
3.5050004 -1.737449 0.51041567 0
3.5000002 -1.7403171 0.51024431 0
3.4970002 -1.7442638 0.51014149 0
3.4930003 -1.7476496 0.5100044 0
3.4910002 -1.7521248 0.50993586 0
3.4880002 -1.756039 0.50983304 0
3.4860003 -1.760498 0.50976449 0
3.4840002 -1.7649499 0.50969595 0
3.4820004 -1.7693945 0.5096274 0
3.4790003 -1.773271 0.50952458 0
3.4770002 -1.7776992 0.50945604 0
3.4750001 -1.7821203 0.50938749 0
3.4730003 -1.7865343 0.50931895 0
3.4710002 -1.790941 0.5092504 0
3.4680002 -1.7947705 0.50914758 0
3.4660003 -1.799161 0.50907904 0
3.4640002 -1.8035442 0.50901049 0
3.4620001 -1.8079201 0.50894195 0
3.5300002 -1.7284842 0.50562656 0
3.5200002 -1.7287366 0.50530189 0
3.5120003 -1.7300354 0.50504214 0
3.5060003 -1.7323912 0.50484735 0
3.5010002 -1.73527 0.50468498 0
3.4970002 -1.7386774 0.50455511 0
3.4940002 -1.7426188 0.50445771 0
3.4900002 -1.7459991 0.50432783 0
3.4880002 -1.7504689 0.50426286 0
3.4860003 -1.7549316 0.50419796 0
3.4830003 -1.7588314 0.50410056 0
3.4810002 -1.7632778 0.50403559 0
3.4790003 -1.7677169 0.50397068 0
3.4770002 -1.7721488 0.50390571 0
3.4750001 -1.7765735 0.5038408 0
3.4720001 -1.7804265 0.50374341 0
3.4700003 -1.7848351 0.50367844 0
3.4680002 -1.7892363 0.50361353 0
3.4660003 -1.7936305 0.50354856 0
3.4640002 -1.7980173 0.50348365 0
3.4610002 -1.8018233 0.50338626 0
3.4590003 -1.8061941 0.50332129 0
3.5370002 -1.7265882 0.50019532 0
3.5240002 -1.7252588 0.49979666 0
3.5160003 -1.7265793 0.49955136 0
3.5090003 -1.728412 0.49933669 0
3.5040002 -1.7313052 0.49918336 0
3.4990003 -1.7341806 0.49903005 0
3.4950001 -1.7375842 0.49890739 0
3.4910002 -1.7409736 0.49878472 0
3.4880002 -1.7448987 0.49869272 0
3.4860003 -1.749365 0.49863142 0
3.4830003 -1.7532703 0.49853942 0
3.4810002 -1.7577201 0.49847808 0
3.4790003 -1.762163 0.49841675 0
3.4770002 -1.7665986 0.49835542 0
3.4750001 -1.7710268 0.49829409 0
3.4720001 -1.7748852 0.49820209 0
3.4700003 -1.7792974 0.49814075 0
3.4680002 -1.7837023 0.49807942 0
3.4660003 -1.7881 0.49801812 0
3.4640002 -1.7924905 0.49795678 0
3.4620001 -1.7968736 0.49789545 0
3.4590003 -1.8006762 0.49780345 0
3.4570003 -1.8050431 0.49774212 0
3.5320003 -1.7239096 0.49439245 0
3.5220003 -1.7241839 0.49410385 0
3.5140002 -1.7255005 0.49387294 0
3.5070002 -1.7273296 0.49367094 0
3.5020003 -1.7302195 0.49352664 0
3.4970002 -1.7330911 0.49338233 0
3.4930003 -1.7364912 0.49326688 0
3.4900002 -1.7404253 0.49318027 0
3.4870002 -1.7443485 0.4930937 0
3.4840002 -1.7482611 0.49300712 0
3.4820004 -1.7527165 0.49294943 0
3.4800003 -1.7571647 0.49289167 0
3.4780002 -1.7616056 0.49283397 0
3.4750001 -1.7654802 0.49274737 0
3.4730003 -1.769905 0.49268967 0
3.4710002 -1.7743225 0.49263194 0
3.4690003 -1.7787328 0.49257421 0
3.4670002 -1.7831359 0.49251649 0
3.4640002 -1.7869636 0.49242991 0
3.4620001 -1.7913504 0.49237218 0
3.4600003 -1.7957301 0.49231446 0
3.4580002 -1.8001025 0.49225673 0
3.4560003 -1.8044678 0.49219903 0
3.5300002 -1.7228382 0.48868883 0
3.5200002 -1.7231086 0.48841825 0
3.5120003 -1.724422 0.4882018 0
3.5060003 -1.7267885 0.48803943 0
3.5010002 -1.7296764 0.48790413 0
3.4960003 -1.7325463 0.48776886 0
3.4920003 -1.7359447 0.48766065 0
3.4890003 -1.739877 0.48757946 0
3.4860003 -1.7437984 0.48749828 0
3.4830003 -1.7477092 0.48741713 0
3.4810002 -1.7521626 0.48736301 0
3.4790003 -1.7566092 0.48730892 0
3.4770002 -1.7610482 0.4872548 0
3.4750001 -1.7654802 0.48720068 0
3.4720001 -1.769344 0.4871195 0
3.4700003 -1.7737596 0.48706537 0
3.4680002 -1.7781681 0.48701125 0
3.4660003 -1.7825695 0.48695716 0
3.4640002 -1.7869636 0.48690304 0
3.4620001 -1.7913504 0.48684892 0
3.4600003 -1.7957301 0.48679483 0
3.4570003 -1.7995288 0.48671365 0
3.4550002 -1.8038923 0.48665953 0
3.5290003 -1.7223024 0.48301762 0
3.5190003 -1.7225713 0.48276511 0
3.5120003 -1.724422 0.48258835 0
3.5060003 -1.7267885 0.48243681 0
3.5010002 -1.7296764 0.48231053 0
3.4960003 -1.7325463 0.48218429 0
3.4920003 -1.7359447 0.48208326 0
3.4890003 -1.739877 0.4820075 0
3.4860003 -1.7437984 0.48193175 0
3.4830003 -1.7477092 0.48185599 0
3.4810002 -1.7521626 0.48180547 0
3.4790003 -1.7566092 0.48175496 0
3.4760003 -1.7604909 0.4816792 0
3.4740002 -1.7649211 0.48162872 0
3.4720001 -1.769344 0.4815782 0
3.4700003 -1.7737596 0.48152769 0
3.4680002 -1.7781681 0.48147717 0
3.4660003 -1.7825695 0.48142669 0
3.4630003 -1.7863954 0.48135093 0
3.4610002 -1.7907804 0.48130041 0
3.4590003 -1.7951583 0.4812499 0
3.4570003 -1.7995288 0.48119941 0
3.4550002 -1.8038923 0.4811489 0
3.5480003 -1.7268029 0.47781906 0
3.5290003 -1.7223024 0.47737351 0
3.5190003 -1.7225713 0.47713903 0
3.5120003 -1.724422 0.47697487 0
3.5060003 -1.7267885 0.47683418 0
3.5010002 -1.7296764 0.47671694 0
3.4960003 -1.7325463 0.47659969 0
3.4920003 -1.7359447 0.47650588 0
3.4890003 -1.739877 0.47643554 0
3.4860003 -1.7437984 0.47636521 0
3.4830003 -1.7477092 0.47629485 0
3.4810002 -1.7521626 0.47624794 0
3.4790003 -1.7566092 0.47620106 0
3.4770002 -1.7610482 0.47615415 0
3.4750001 -1.7654802 0.47610724 0
3.4730003 -1.769905 0.47606033 0
3.4700003 -1.7737596 0.47599 0
3.4680002 -1.7781681 0.47594309 0
3.4660003 -1.7825695 0.47589621 0
3.4640002 -1.7869636 0.4758493 0
3.4620001 -1.7913504 0.47580239 0
3.4600003 -1.7957301 0.47575551 0
3.4570003 -1.7995288 0.47568515 0
3.4550002 -1.8038923 0.47563827 0
3.5480003 -1.7268029 0.47214067 0
3.5290003 -1.7223024 0.4717294 0
3.5190003 -1.7225713 0.47151294 0
3.5120003 -1.724422 0.47136143 0
3.5060003 -1.7267885 0.47123155 0
3.5010002 -1.7296764 0.47112334 0
3.4960003 -1.7325463 0.4710151 0
3.4920003 -1.7359447 0.47092852 0
3.4890003 -1.739877 0.47086358 0
3.4860003 -1.7437984 0.47079864 0
3.4830003 -1.7477092 0.4707337 0
3.4810002 -1.7521626 0.4706904 0
3.4790003 -1.7566092 0.47064713 0
3.4780002 -1.7616056 0.47062546 0
3.4750001 -1.7654802 0.47056055 0
3.4730003 -1.769905 0.47051725 0
3.4710002 -1.7743225 0.47047395 0
3.4690003 -1.7787328 0.47043067 0
3.4670002 -1.7831359 0.47038737 0
3.4650002 -1.7875317 0.47034407 0
3.4620001 -1.7913504 0.47027916 0
3.4600003 -1.7957301 0.47023585 0
3.4580002 -1.8001025 0.47019255 0
3.4560003 -1.8044678 0.47014928 0
3.5480003 -1.7268029 0.46646228 0
3.5290003 -1.7223024 0.46608528 0
3.5190003 -1.7225713 0.46588686 0
3.5120003 -1.724422 0.46574798 0
3.5060003 -1.7267885 0.46562892 0
3.5010002 -1.7296764 0.46552971 0
3.4960003 -1.7325463 0.4654305 0
3.4920003 -1.7359447 0.46535113 0
3.4890003 -1.739877 0.46529162 0
3.4860003 -1.7437984 0.46523207 0
3.4830003 -1.7477092 0.46517256 0
3.4810002 -1.7521626 0.46513289 0
3.4790003 -1.7566092 0.4650932 0
3.4780002 -1.7616056 0.46507335 0
3.4770002 -1.7665986 0.4650535 0
3.4750001 -1.7710268 0.46501383 0
3.4730003 -1.7754481 0.46497414 0
3.4700003 -1.7792974 0.46491462 0
3.4680002 -1.7837023 0.46487492 0
3.4660003 -1.7881 0.46483526 0
3.4640002 -1.7924905 0.46479556 0
3.4620001 -1.7968736 0.46475589 0
3.4600003 -1.8012497 0.4647162 0
3.4580002 -1.8056185 0.4646765 0
3.5480003 -1.7268029 0.4607839 0
3.5290003 -1.7223024 0.46044117 0
3.5190003 -1.7225713 0.46026081 0
3.5120003 -1.724422 0.46013454 0
3.5060003 -1.7267885 0.46002629 0
3.5010002 -1.7296764 0.45993611 0
3.4960003 -1.7325463 0.45984593 0
3.4920003 -1.7359447 0.45977378 0
3.4890003 -1.739877 0.45971966 0
3.4860003 -1.7437984 0.45966554 0
3.4830003 -1.7477092 0.45961142 0
3.4810002 -1.7521626 0.45957536 0
3.4790003 -1.7566092 0.45953926 0
3.4780002 -1.7616056 0.45952123 0
3.4770002 -1.7665986 0.4595032 0
3.4770002 -1.7721488 0.4595032 0
3.4750001 -1.7765735 0.45946711 0
3.4720001 -1.7804265 0.45941299 0
3.4700003 -1.7848351 0.45937693 0
3.4680002 -1.7892363 0.45934084 0
3.4660003 -1.7936305 0.45930478 0
3.4640002 -1.7980173 0.45926869 0
3.4620001 -1.8023969 0.45923263 0
3.4600003 -1.8067694 0.45919654 0
3.5480003 -1.7268029 0.45510551 0
3.5290003 -1.7223024 0.45479706 0
3.5190003 -1.7225713 0.45463473 0
3.5120003 -1.724422 0.45452106 0
3.5060003 -1.7267885 0.45442367 0
3.5010002 -1.7296764 0.45434248 0
3.4960003 -1.7325463 0.45426133 0
3.4920003 -1.7359447 0.45419639 0
3.4890003 -1.739877 0.4541477 0
3.4860003 -1.7437984 0.454099 0
3.4830003 -1.7477092 0.45405027 0
3.4810002 -1.7521626 0.45401782 0
3.4790003 -1.7566092 0.45398533 0
3.4780002 -1.7616056 0.45396912 0
3.4770002 -1.7665986 0.45395288 0
3.4770002 -1.7721488 0.45395288 0
3.4770002 -1.7776992 0.45395288 0
3.4750001 -1.7821203 0.45392039 0
3.4730003 -1.7865343 0.45388794 0
3.4710002 -1.790941 0.45385545 0
3.4690003 -1.7953405 0.453823 0
3.4660003 -1.799161 0.4537743 0
3.4640002 -1.8035442 0.45374182 0
3.4620001 -1.8079201 0.45370936 0
3.5480003 -1.7268029 0.44942713 0
3.5290003 -1.7223024 0.44915295 0
3.5190003 -1.7225713 0.44900864 0
3.5120003 -1.724422 0.44890761 0
3.5060003 -1.7267885 0.44882104 0
3.5010002 -1.7296764 0.44874889 0
3.4960003 -1.7325463 0.44867674 0
3.4920003 -1.7359447 0.44861901 0
3.4890003 -1.739877 0.44857574 0
3.4860003 -1.7437984 0.44853243 0
3.4830003 -1.7477092 0.44848913 0
3.4810002 -1.7521626 0.44846028 0
3.4790003 -1.7566092 0.44843143 0
3.4780002 -1.7616056 0.44841698 0
3.4770002 -1.7665986 0.44840255 0
3.4770002 -1.7721488 0.44840255 0
3.4770002 -1.7776992 0.44840255 0
3.4780002 -1.7838141 0.44841698 0
3.4770002 -1.7887999 0.44840255 0
3.4750001 -1.7932137 0.44837371 0
3.4730003 -1.7976204 0.44834483 0
3.4700003 -1.8014482 0.44830155 0
3.4680002 -1.8058386 0.44827268 0
3.4660003 -1.8102219 0.44824383 0
3.5480003 -1.7268029 0.44374874 0
3.5290003 -1.7223024 0.44350883 0
3.5190003 -1.7225713 0.44338256 0
3.5120003 -1.724422 0.44329417 0
3.5060003 -1.7267885 0.44321841 0
3.5010002 -1.7296764 0.44315529 0
3.4960003 -1.7325463 0.44309214 0
3.4920003 -1.7359447 0.44304165 0
3.4890003 -1.739877 0.44300377 0
3.4860003 -1.7437984 0.44296587 0
3.4830003 -1.7477092 0.44292802 0
3.4810002 -1.7521626 0.44290274 0
3.4790003 -1.7566092 0.4428775 0
3.4780002 -1.7616056 0.44286487 0
3.4770002 -1.7665986 0.44285223 0
3.4770002 -1.7721488 0.44285223 0
3.4770002 -1.7776992 0.44285223 0
3.4780002 -1.7838141 0.44286487 0
3.4810002 -1.7910653 0.44290274 0
3.4800003 -1.7960548 0.44289011 0
3.4780002 -1.8004704 0.44286487 0
3.4760003 -1.804879 0.44283962 0
3.4730003 -1.8087066 0.44280174 0
3.4710002 -1.8130989 0.44277647 0
3.5480003 -1.7268029 0.43807036 0
3.5290003 -1.7223024 0.43786472 0
3.5190003 -1.7225713 0.43775648 0
3.5120003 -1.724422 0.43768072 0
3.5060003 -1.7267885 0.43761578 0
3.5010002 -1.7296764 0.43756166 0
3.4960003 -1.7325463 0.43750757 0
3.4920003 -1.7359447 0.43746427 0
3.4890003 -1.739877 0.43743178 0
3.4860003 -1.7437984 0.43739933 0
3.4830003 -1.7477092 0.43736684 0
3.4810002 -1.7521626 0.43734521 0
3.4790003 -1.7566092 0.43732357 0
3.4780002 -1.7616056 0.43731275 0
3.4770002 -1.7665986 0.43730193 0
3.4770002 -1.7721488 0.43730193 0
3.4770002 -1.7776992 0.43730193 0
3.4780002 -1.7838141 0.43731275 0
3.4810002 -1.7910653 0.43734521 0
3.4850001 -1.7988957 0.43738851 0
3.4850001 -1.8044604 0.43738851 0
3.4830003 -1.8088816 0.43736684 0
3.4810002 -1.8132956 0.43734521 0
3.4790003 -1.8177023 0.43732357 0
3.5480003 -1.7268029 0.43239194 0
3.5290003 -1.7223024 0.43222058 0
3.5190003 -1.7225713 0.4321304 0
3.5120003 -1.724422 0.43206728 0
3.5060003 -1.7267885 0.43201315 0
3.5010002 -1.7296764 0.43196806 0
3.4960003 -1.7325463 0.43192297 0
3.4920003 -1.7359447 0.43188688 0
3.4890003 -1.739877 0.43185982 0
3.4860003 -1.7437984 0.43183279 0
3.4830003 -1.7477092 0.43180573 0
3.4810002 -1.7521626 0.43178767 0
3.4790003 -1.7566092 0.43176964 0
3.4780002 -1.7616056 0.43176061 0
3.4770002 -1.7665986 0.43175161 0
3.4770002 -1.7721488 0.43175161 0
3.4770002 -1.7776992 0.43175161 0
3.4780002 -1.7838141 0.43176061 0
3.4810002 -1.7910653 0.43178767 0
3.4850001 -1.7988957 0.43182376 0
3.4940002 -1.8095905 0.43190491 0
3.5000002 -1.8186024 0.43195903 0
3.5480003 -1.7268029 0.42671356 0
3.5290003 -1.7223024 0.42657647 0
3.5190003 -1.7225713 0.42650431 0
3.5120003 -1.724422 0.42645383 0
3.5060003 -1.7267885 0.42641053 0
3.5010002 -1.7296764 0.42637444 0
3.4960003 -1.7325463 0.42633837 0
3.4920003 -1.7359447 0.42630953 0
3.4890003 -1.739877 0.42628786 0
3.4860003 -1.7437984 0.42626622 0
3.4830003 -1.7477092 0.42624459 0
3.4810002 -1.7521626 0.42623013 0
3.4790003 -1.7566092 0.42621571 0
3.4780002 -1.7616056 0.4262085 0
3.4770002 -1.7665986 0.42620128 0
3.4770002 -1.7721488 0.42620128 0
3.4770002 -1.7776992 0.42620128 0
3.4780002 -1.7838141 0.4262085 0
3.4810002 -1.7910653 0.42623013 0
3.4850001 -1.7988957 0.42625901 0
3.4940002 -1.8095905 0.42632395 0
3.5480003 -1.7268029 0.42103517 0
3.5290003 -1.7223024 0.42093235 0
3.5190003 -1.7225713 0.42087826 0
3.5120003 -1.724422 0.42084038 0
3.5060003 -1.7267885 0.4208079 0
3.5010002 -1.7296764 0.42078084 0
3.4960003 -1.7325463 0.42075378 0
3.4920003 -1.7359447 0.42073214 0
3.4890003 -1.739877 0.4207159 0
3.4860003 -1.7437984 0.42069966 0
3.4830003 -1.7477092 0.42068344 0
3.4810002 -1.7521626 0.42067263 0
3.4790003 -1.7566092 0.42066178 0
3.4780002 -1.7616056 0.42065638 0
3.4770002 -1.7665986 0.42065096 0
3.4770002 -1.7721488 0.42065096 0
3.4770002 -1.7776992 0.42065096 0
3.4780002 -1.7838141 0.42065638 0
3.4810002 -1.7910653 0.42067263 0
3.4850001 -1.7988957 0.42069426 0
3.4940002 -1.8095905 0.42074296 0
3.5480003 -1.7268029 0.41535679 0
3.5290003 -1.7223024 0.41528824 0
3.5190003 -1.7225713 0.41525218 0
3.5120003 -1.724422 0.41522691 0
3.5060003 -1.7267885 0.41520527 0
3.5010002 -1.7296764 0.41518724 0
3.4960003 -1.7325463 0.41516921 0
3.4920003 -1.7359447 0.41515476 0
3.4890003 -1.739877 0.41514394 0
3.4860003 -1.7437984 0.41513312 0
3.4830003 -1.7477092 0.4151223 0
3.4810002 -1.7521626 0.41511509 0
3.4790003 -1.7566092 0.41510788 0
3.4780002 -1.7616056 0.41510427 0
3.4770002 -1.7665986 0.41510066 0
3.4770002 -1.7721488 0.41510066 0
3.4770002 -1.7776992 0.41510066 0
3.4780002 -1.7838141 0.41510427 0
3.4810002 -1.7910653 0.41511509 0
3.4850001 -1.7988957 0.41512951 0
3.4940002 -1.8095905 0.41516197 0
3.5480003 -1.7268029 0.4096784 0
3.5290003 -1.7223024 0.40964413 0
3.5190003 -1.7225713 0.4096261 0
3.5120003 -1.724422 0.40961346 0
3.5060003 -1.7267885 0.40960264 0
3.5010002 -1.7296764 0.40959361 0
3.4960003 -1.7325463 0.40958461 0
3.4920003 -1.7359447 0.4095774 0
3.4890003 -1.739877 0.40957198 0
3.4860003 -1.7437984 0.40956658 0
3.4830003 -1.7477092 0.40956116 0
3.4810002 -1.7521626 0.40955755 0
3.4790003 -1.7566092 0.40955395 0
3.4780002 -1.7616056 0.40955213 0
3.4770002 -1.7665986 0.40955034 0
3.4770002 -1.7721488 0.40955034 0
3.4770002 -1.7776992 0.40955034 0
3.4780002 -1.7838141 0.40955213 0
3.4810002 -1.7910653 0.40955755 0
3.4850001 -1.7988957 0.40956476 0
3.4940002 -1.8095905 0.40958101 0
3.5480003 -1.7268029 0.40400001 0
3.5290003 -1.7223024 0.40400001 0
3.5190003 -1.7225713 0.40400001 0
3.5120003 -1.724422 0.40400001 0
3.5060003 -1.7267885 0.40400001 0
3.5010002 -1.7296764 0.40400001 0
3.4960003 -1.7325463 0.40400001 0
3.4920003 -1.7359447 0.40400001 0
3.4890003 -1.739877 0.40400001 0
3.4860003 -1.7437984 0.40400001 0
3.4830003 -1.7477092 0.40400001 0
3.4810002 -1.7521626 0.40400001 0
3.4790003 -1.7566092 0.40400001 0
3.4780002 -1.7616056 0.40400001 0
3.4770002 -1.7665986 0.40400001 0
3.4770002 -1.7721488 0.40400001 0
3.4770002 -1.7776992 0.40400001 0
3.4780002 -1.7838141 0.40400001 0
3.4810002 -1.7910653 0.40400001 0
3.4850001 -1.7988957 0.40400001 0
3.4940002 -1.8095905 0.40400001 0
3.5480003 -1.7268029 0.39832163 0
3.5290003 -1.7223024 0.3983559 0
3.5190003 -1.7225713 0.39837393 0
3.5120003 -1.724422 0.39838657 0
3.5060003 -1.7267885 0.39839739 0
3.5010002 -1.7296764 0.39840642 0
3.4960003 -1.7325463 0.39841542 0
3.4920003 -1.7359447 0.39842263 0
3.4890003 -1.739877 0.39842805 0
3.4860003 -1.7437984 0.39843345 0
3.4830003 -1.7477092 0.39843887 0
3.4810002 -1.7521626 0.39844248 0
3.4790003 -1.7566092 0.39844608 0
3.4780002 -1.7616056 0.3984479 0
3.4770002 -1.7665986 0.39844969 0
3.4770002 -1.7721488 0.39844969 0
3.4770002 -1.7776992 0.39844969 0
3.4780002 -1.7838141 0.3984479 0
3.4810002 -1.7910653 0.39844248 0
3.4850001 -1.7988957 0.39843526 0
3.4940002 -1.8095905 0.39841902 0
3.5480003 -1.7268029 0.39264324 0
3.5290003 -1.7223024 0.39271179 0
3.5190003 -1.7225713 0.39274785 0
3.5120003 -1.724422 0.39277312 0
3.5060003 -1.7267885 0.39279476 0
3.5010002 -1.7296764 0.39281279 0
3.4960003 -1.7325463 0.39283082 0
3.4920003 -1.7359447 0.39284527 0
3.4890003 -1.739877 0.39285609 0
3.4860003 -1.7437984 0.39286691 0
3.4830003 -1.7477092 0.39287773 0
3.4810002 -1.7521626 0.39288494 0
3.4790003 -1.7566092 0.39289215 0
3.4780002 -1.7616056 0.39289576 0
3.4770002 -1.7665986 0.39289936 0
3.4770002 -1.7721488 0.39289936 0
3.4770002 -1.7776992 0.39289936 0
3.4780002 -1.7838141 0.39289576 0
3.4810002 -1.7910653 0.39288494 0
3.4850001 -1.7988957 0.39287052 0
3.4940002 -1.8095905 0.39283806 0
3.5480003 -1.7268029 0.38696486 0
3.5290003 -1.7223024 0.38706768 0
3.5190003 -1.7225713 0.38712177 0
3.5120003 -1.724422 0.38715965 0
3.5060003 -1.7267885 0.38719213 0
3.5010002 -1.7296764 0.38721919 0
3.4960003 -1.7325463 0.38724625 0
3.4920003 -1.7359447 0.38726789 0
3.4890003 -1.739877 0.38728413 0
3.4860003 -1.7437984 0.38730037 0
3.4830003 -1.7477092 0.38731658 0
3.4810002 -1.7521626 0.3873274 0
3.4790003 -1.7566092 0.38733825 0
3.4780002 -1.7616056 0.38734365 0
3.4770002 -1.7665986 0.38734907 0
3.4770002 -1.7721488 0.38734907 0
3.4770002 -1.7776992 0.38734907 0
3.4780002 -1.7838141 0.38734365 0
3.4810002 -1.7910653 0.3873274 0
3.4850001 -1.7988957 0.38730577 0
3.4940002 -1.8095905 0.38725707 0
3.5480003 -1.7268029 0.38128647 0
3.5290003 -1.7223024 0.38142356 0
3.5190003 -1.7225713 0.38149571 0
3.5120003 -1.724422 0.3815462 0
3.5060003 -1.7267885 0.3815895 0
3.5010002 -1.7296764 0.38162559 0
3.4960003 -1.7325463 0.38166165 0
3.4920003 -1.7359447 0.3816905 0
3.4890003 -1.739877 0.38171217 0
3.4860003 -1.7437984 0.3817338 0
3.4830003 -1.7477092 0.38175544 0
3.4810002 -1.7521626 0.3817699 0
3.4790003 -1.7566092 0.38178432 0
3.4780002 -1.7616056 0.38179153 0
3.4770002 -1.7665986 0.38179874 0
3.4770002 -1.7721488 0.38179874 0
3.4770002 -1.7776992 0.38179874 0
3.4780002 -1.7838141 0.38179153 0
3.4810002 -1.7910653 0.3817699 0
3.4850001 -1.7988957 0.38174102 0
3.4940002 -1.8095905 0.38167608 0
3.5480003 -1.7268029 0.37560809 0
3.5290003 -1.7223024 0.37577945 0
3.5190003 -1.7225713 0.37586963 0
3.5120003 -1.724422 0.37593275 0
3.5060003 -1.7267885 0.37598687 0
3.5010002 -1.7296764 0.37603197 0
3.4960003 -1.7325463 0.37607706 0
3.4920003 -1.7359447 0.37611315 0
3.4890003 -1.739877 0.37614021 0
3.4860003 -1.7437984 0.37616724 0
3.4830003 -1.7477092 0.3761943 0
3.4810002 -1.7521626 0.37621236 0
3.4790003 -1.7566092 0.37623039 0
3.4780002 -1.7616056 0.37623942 0
3.4770002 -1.7665986 0.37624842 0
3.4770002 -1.7721488 0.37624842 0
3.4770002 -1.7776992 0.37624842 0
3.4780002 -1.7838141 0.37623942 0
3.4810002 -1.7910653 0.37621236 0
3.4850001 -1.7988957 0.37617627 0
3.4940002 -1.8095905 0.37609512 0
3.5480003 -1.7268029 0.36992967 0
3.5290003 -1.7223024 0.37013531 0
3.5190003 -1.7225713 0.37024355 0
3.5120003 -1.724422 0.37031931 0
3.5060003 -1.7267885 0.37038425 0
3.5010002 -1.7296764 0.37043837 0
3.4960003 -1.7325463 0.37049246 0
3.4920003 -1.7359447 0.37053576 0
3.4890003 -1.739877 0.37056825 0
3.4860003 -1.7437984 0.3706007 0
3.4830003 -1.7477092 0.37063318 0
3.4810002 -1.7521626 0.37065482 0
3.4790003 -1.7566092 0.37067646 0
3.4780002 -1.7616056 0.37068728 0
3.4770002 -1.7665986 0.37069809 0
3.4770002 -1.7721488 0.37069809 0
3.4770002 -1.7776992 0.37069809 0
3.4780002 -1.7838141 0.37068728 0
3.4810002 -1.7910653 0.37065482 0
3.4850001 -1.7988957 0.37061152 0
3.4940002 -1.8095905 0.37051412 0
3.5480003 -1.7268029 0.36425129 0
3.5290003 -1.7223024 0.36449119 0
3.5190003 -1.7225713 0.36461747 0
3.5120003 -1.724422 0.36470586 0
3.5060003 -1.7267885 0.36478162 0
3.5010002 -1.7296764 0.36484474 0
3.4960003 -1.7325463 0.36490789 0
3.4920003 -1.7359447 0.36495838 0
3.4890003 -1.739877 0.36499625 0
3.4860003 -1.7437984 0.36503416 0
3.4830003 -1.7477092 0.36507201 0
3.4810002 -1.7521626 0.36509728 0
3.4790003 -1.7566092 0.36512253 0
3.4780002 -1.7616056 0.36513516 0
3.4770002 -1.7665986 0.3651478 0
3.4770002 -1.7721488 0.3651478 0
3.4770002 -1.7776992 0.3651478 0
3.4780002 -1.7838141 0.36513516 0
3.4810002 -1.7910653 0.36509728 0
3.4850001 -1.7988957 0.36504677 0
3.4940002 -1.8095905 0.36493313 0
3.5480003 -1.7268029 0.3585729 0
3.5290003 -1.7223024 0.35884708 0
3.5190003 -1.7225713 0.35899138 0
3.5120003 -1.724422 0.35909241 0
3.5060003 -1.7267885 0.35917899 0
3.5010002 -1.7296764 0.35925114 0
3.4960003 -1.7325463 0.35932329 0
3.4920003 -1.7359447 0.35938102 0
3.4890003 -1.739877 0.35942429 0
3.4860003 -1.7437984 0.3594676 0
3.4830003 -1.7477092 0.3595109 0
3.4810002 -1.7521626 0.35953975 0
3.4790003 -1.7566092 0.3595686 0
3.4780002 -1.7616056 0.35958305 0
3.4770002 -1.7665986 0.35959747 0
3.4770002 -1.7721488 0.35959747 0
3.4770002 -1.7776992 0.35959747 0
3.4780002 -1.7838141 0.35958305 0
3.4810002 -1.7910653 0.35953975 0
3.4850001 -1.7988957 0.35948202 0
3.4940002 -1.8095905 0.35935214 0
3.5480003 -1.7268029 0.35289451 0
3.5290003 -1.7223024 0.35320297 0
3.5190003 -1.7225713 0.3533653 0
3.5120003 -1.724422 0.35347897 0
3.5060003 -1.7267885 0.35357636 0
3.5010002 -1.7296764 0.35365754 0
3.4960003 -1.7325463 0.3537387 0
3.4920003 -1.7359447 0.35380363 0
3.4890003 -1.739877 0.35385233 0
3.4860003 -1.7437984 0.35390103 0
3.4830003 -1.7477092 0.35394976 0
3.4810002 -1.7521626 0.35398221 0
3.4790003 -1.7566092 0.35401469 0
3.4780002 -1.7616056 0.35403091 0
3.4770002 -1.7665986 0.35404715 0
3.4770002 -1.7721488 0.35404715 0
3.4770002 -1.7776992 0.35404715 0
3.4780002 -1.7838141 0.35403091 0
3.4810002 -1.7910653 0.35398221 0
3.4850001 -1.7988957 0.35391727 0
3.4940002 -1.8095905 0.35377118 0
3.5480003 -1.7268029 0.34721613 0
3.5290003 -1.7223024 0.34755886 0
3.5190003 -1.7225713 0.34773922 0
3.5120003 -1.724422 0.34786549 0
3.5060003 -1.7267885 0.34797373 0
3.5010002 -1.7296764 0.34806392 0
3.4960003 -1.7325463 0.3481541 0
3.4920003 -1.7359447 0.34822625 0
3.4890003 -1.739877 0.34828037 0
3.4860003 -1.7437984 0.34833449 0
3.4830003 -1.7477092 0.34838861 0
3.4810002 -1.7521626 0.34842467 0
3.4790003 -1.7566092 0.34846076 0
3.4780002 -1.7616056 0.34847879 0
3.4770002 -1.7665986 0.34849682 0
3.4770002 -1.7721488 0.34849682 0
3.4770002 -1.7776992 0.34849682 0
3.4780002 -1.7838141 0.34847879 0
3.4810002 -1.7910653 0.34842467 0
3.4850001 -1.7988957 0.34835252 0
3.4940002 -1.8095905 0.34819019 0
3.5480003 -1.7268029 0.34153774 0
3.5290003 -1.7223024 0.34191474 0
3.5190003 -1.7225713 0.34211317 0
3.5120003 -1.724422 0.34225205 0
3.5060003 -1.7267885 0.34237111 0
3.5010002 -1.7296764 0.34247032 0
3.4960003 -1.7325463 0.34256953 0
3.4920003 -1.7359447 0.34264889 0
3.4890003 -1.739877 0.34270841 0
3.4860003 -1.7437984 0.34276795 0
3.4830003 -1.7477092 0.34282747 0
3.4810002 -1.7521626 0.34286714 0
3.4790003 -1.7566092 0.34290683 0
3.4780002 -1.7616056 0.34292668 0
3.4770002 -1.7665986 0.34294653 0
3.4770002 -1.7721488 0.34294653 0
3.4770002 -1.7776992 0.34294653 0
3.4780002 -1.7838141 0.34292668 0
3.4810002 -1.7910653 0.34286714 0
3.4850001 -1.7988957 0.34278777 0
3.4940002 -1.8095905 0.3426092 0
3.5480003 -1.7268029 0.33585936 0
3.5290003 -1.7223024 0.33627063 0
3.5190003 -1.7225713 0.33648708 0
3.5120003 -1.724422 0.3366386 0
3.5060003 -1.7267885 0.33676848 0
3.5010002 -1.7296764 0.33687669 0
3.4960003 -1.7325463 0.33698493 0
3.4920003 -1.7359447 0.33707151 0
3.4890003 -1.739877 0.33713645 0
3.4860003 -1.7437984 0.33720139 0
3.4830003 -1.7477092 0.33726633 0
3.4810002 -1.7521626 0.33730963 0
3.4790003 -1.7566092 0.3373529 0
3.4780002 -1.7616056 0.33737457 0
3.4770002 -1.7665986 0.3373962 0
3.4770002 -1.7721488 0.3373962 0
3.4770002 -1.7776992 0.3373962 0
3.4780002 -1.7838141 0.33737457 0
3.4810002 -1.7910653 0.33730963 0
3.4850001 -1.7988957 0.33722305 0
3.4940002 -1.8095905 0.33702821 0
3.5480003 -1.7268029 0.33018097 0
3.5290003 -1.7223024 0.33062652 0
3.5190003 -1.7225713 0.330861 0
3.5120003 -1.724422 0.33102515 0
3.5060003 -1.7267885 0.33116585 0
3.5010002 -1.7296764 0.33128309 0
3.4960003 -1.7325463 0.33140033 0
3.4920003 -1.7359447 0.33149415 0
3.4890003 -1.739877 0.33156449 0
3.4860003 -1.7437984 0.33163482 0
3.4830003 -1.7477092 0.33170518 0
3.4810002 -1.7521626 0.33175209 0
3.4790003 -1.7566092 0.33179897 0
3.4780002 -1.7616056 0.33182243 0
3.4770002 -1.7665986 0.33184588 0
3.4770002 -1.7721488 0.33184588 0
3.4770002 -1.7776992 0.33184588 0
3.4780002 -1.7838141 0.33182243 0
3.4810002 -1.7910653 0.33175209 0
3.4850001 -1.7988957 0.3316583 0
3.4940002 -1.8095905 0.33144724 0
3.5480003 -1.7268029 0.32450259 0
3.5290003 -1.7223024 0.3249824 0
3.5190003 -1.7225713 0.32523492 0
3.5120003 -1.724422 0.32541168 0
3.5060003 -1.7267885 0.32556322 0
3.5010002 -1.7296764 0.32568949 0
3.4960003 -1.7325463 0.32581574 0
3.4920003 -1.7359447 0.32591677 0
3.4890003 -1.739877 0.32599252 0
3.4860003 -1.7437984 0.32606828 0
3.4830003 -1.7477092 0.32614404 0
3.4810002 -1.7521626 0.32619455 0
3.4790003 -1.7566092 0.32624507 0
3.4780002 -1.7616056 0.32627031 0
3.4770002 -1.7665986 0.32629555 0
3.4770002 -1.7721488 0.32629555 0
3.4770002 -1.7776992 0.32629555 0
3.4780002 -1.7838141 0.32627031 0
3.4810002 -1.7910653 0.32619455 0
3.4850001 -1.7988957 0.32609352 0
3.4940002 -1.8095905 0.32586625 0
3.5480003 -1.7268029 0.31882417 0
3.5290003 -1.7223024 0.31933826 0
3.5190003 -1.7225713 0.31960884 0
3.5120003 -1.724422 0.31979823 0
3.5060003 -1.7267885 0.31996059 0
3.5010002 -1.7296764 0.3200959 0
3.4960003 -1.7325463 0.32023117 0
3.4920003 -1.7359447 0.32033938 0
3.4890003 -1.739877 0.32042056 0
3.4860003 -1.7437984 0.32050174 0
3.4830003 -1.7477092 0.3205829 0
3.4810002 -1.7521626 0.32063702 0
3.4790003 -1.7566092 0.32069111 0
3.4780002 -1.7616056 0.3207182 0
3.4770002 -1.7665986 0.32074523 0
3.4770002 -1.7721488 0.32074523 0
3.4770002 -1.7776992 0.32074523 0
3.4780002 -1.7838141 0.3207182 0
3.4810002 -1.7910653 0.32063702 0
3.4850001 -1.7988957 0.32052881 0
3.4940002 -1.8095905 0.32028526 0
3.5480003 -1.7268029 0.31314582 0
3.5290003 -1.7223024 0.31369415 0
3.5190003 -1.7225713 0.31398278 0
3.5120003 -1.724422 0.31418478 0
3.5060003 -1.7267885 0.31435797 0
3.5010002 -1.7296764 0.31450227 0
3.4960003 -1.7325463 0.31464657 0
3.4920003 -1.7359447 0.314762 0
3.4890003 -1.739877 0.3148486 0
3.4860003 -1.7437984 0.31493518 0
3.4830003 -1.7477092 0.31502175 0
3.4810002 -1.7521626 0.31507948 0
3.4790003 -1.7566092 0.31513721 0
3.4780002 -1.7616056 0.31516606 0
3.4770002 -1.7665986 0.31519493 0
3.4770002 -1.7721488 0.31519493 0
3.4770002 -1.7776992 0.31519493 0
3.4780002 -1.7838141 0.31516606 0
3.4810002 -1.7910653 0.31507948 0
3.4850001 -1.7988957 0.31496406 0
3.4940002 -1.8095905 0.3147043 0
3.5480003 -1.7268029 0.3074674 0
3.5290003 -1.7223024 0.30805004 0
3.5190003 -1.7225713 0.3083567 0
3.5120003 -1.724422 0.30857134 0
3.5060003 -1.7267885 0.30875534 0
3.5010002 -1.7296764 0.30890864 0
3.4960003 -1.7325463 0.30906197 0
3.4920003 -1.7359447 0.30918464 0
3.4890003 -1.739877 0.30927664 0
3.4860003 -1.7437984 0.30936861 0
3.4830003 -1.7477092 0.30946061 0
3.4810002 -1.7521626 0.30952194 0
3.4790003 -1.7566092 0.30958328 0
3.4780002 -1.7616056 0.30961394 0
3.4770002 -1.7665986 0.30964461 0
3.4770002 -1.7721488 0.30964461 0
3.4770002 -1.7776992 0.30964461 0
3.4780002 -1.7838141 0.30961394 0
3.4810002 -1.7910653 0.30952194 0
3.4850001 -1.7988957 0.30939931 0
3.4940002 -1.8095905 0.30912331 0
3.5480003 -1.7268029 0.30178902 0
3.5290003 -1.7223024 0.30240592 0
3.5190003 -1.7225713 0.30273062 0
3.5120003 -1.724422 0.30295789 0
3.5060003 -1.7267885 0.30315271 0
3.5010002 -1.7296764 0.30331504 0
3.4960003 -1.7325463 0.30347738 0
3.4920003 -1.7359447 0.30360726 0
3.4890003 -1.739877 0.30370468 0
3.4860003 -1.7437984 0.30380207 0
3.4830003 -1.7477092 0.30389947 0
3.4810002 -1.7521626 0.30396444 0
3.4790003 -1.7566092 0.30402935 0
3.4780002 -1.7616056 0.30406183 0
3.4770002 -1.7665986 0.30409428 0
3.4770002 -1.7721488 0.30409428 0
3.4770002 -1.7776992 0.30409428 0
3.4780002 -1.7838141 0.30406183 0
3.4810002 -1.7910653 0.30396444 0
3.4850001 -1.7988957 0.30383456 0
3.4940002 -1.8095905 0.30354232 0
3.5480003 -1.7268029 0.29611063 0
3.5290003 -1.7223024 0.29676181 0
3.5190003 -1.7225713 0.29710454 0
3.5120003 -1.724422 0.29734445 0
3.5060003 -1.7267885 0.29755008 0
3.5010002 -1.7296764 0.29772145 0
3.4960003 -1.7325463 0.29789281 0
3.4920003 -1.7359447 0.2980299 0
3.4890003 -1.739877 0.29813272 0
3.4860003 -1.7437984 0.29823554 0
3.4830003 -1.7477092 0.29833835 0
3.4810002 -1.7521626 0.2984069 0
3.4790003 -1.7566092 0.29847544 0
3.4780002 -1.7616056 0.29850972 0
3.4770002 -1.7665986 0.29854399 0
3.4770002 -1.7721488 0.29854399 0
3.4770002 -1.7776992 0.29854399 0
3.4780002 -1.7838141 0.29850972 0
3.4810002 -1.7910653 0.2984069 0
3.4850001 -1.7988957 0.29826981 0
3.4940002 -1.8095905 0.29796135 0
3.5480003 -1.7268029 0.29043224 0
3.5290003 -1.7223024 0.2911177 0
3.5190003 -1.7225713 0.29147846 0
3.5120003 -1.724422 0.291731 0
3.5060003 -1.7267885 0.29194745 0
3.5010002 -1.7296764 0.29212785 0
3.4960003 -1.7325463 0.29230821 0
3.4920003 -1.7359447 0.29245251 0
3.4890003 -1.739877 0.29256073 0
3.4860003 -1.7437984 0.29266897 0
3.4830003 -1.7477092 0.29277718 0
3.4810002 -1.7521626 0.29284936 0
3.4790003 -1.7566092 0.29292148 0
3.4780002 -1.7616056 0.29295757 0
3.4770002 -1.7665986 0.29299366 0
3.4770002 -1.7721488 0.29299366 0
3.4770002 -1.7776992 0.29299366 0
3.4780002 -1.7838141 0.29295757 0
3.4810002 -1.7910653 0.29284936 0
3.4850001 -1.7988957 0.29270506 0
3.4940002 -1.8095905 0.29238036 0
3.5480003 -1.7268029 0.28475386 0
3.5290003 -1.7223024 0.28547359 0
3.5190003 -1.7225713 0.28585237 0
3.5120003 -1.724422 0.28611752 0
3.5060003 -1.7267885 0.28634483 0
3.5010002 -1.7296764 0.28653422 0
3.4960003 -1.7325463 0.28672361 0
3.4920003 -1.7359447 0.28687513 0
3.4890003 -1.739877 0.28698879 0
3.4860003 -1.7437984 0.2871024 0
3.4830003 -1.7477092 0.28721607 0
3.4810002 -1.7521626 0.28729182 0
3.4790003 -1.7566092 0.28736758 0
3.4780002 -1.7616056 0.28740546 0
3.4770002 -1.7665986 0.28744334 0
3.4770002 -1.7721488 0.28744334 0
3.4770002 -1.7776992 0.28744334 0
3.4780002 -1.7838141 0.28740546 0
3.4810002 -1.7910653 0.28729182 0
3.4850001 -1.7988957 0.28714031 0
3.4940002 -1.8095905 0.28679937 0
3.5480003 -1.7268029 0.27907547 0
3.5290003 -1.7223024 0.27982944 0
3.5190003 -1.7225713 0.28022629 0
3.5120003 -1.724422 0.28050408 0
3.5060003 -1.7267885 0.2807422 0
3.5010002 -1.7296764 0.28094062 0
3.4960003 -1.7325463 0.28113902 0
3.4920003 -1.7359447 0.28129777 0
3.4890003 -1.739877 0.2814168 0
3.4860003 -1.7437984 0.28153586 0
3.4830003 -1.7477092 0.28165492 0
3.4810002 -1.7521626 0.28173429 0
3.4790003 -1.7566092 0.28181365 0
3.4780002 -1.7616056 0.28185332 0
3.4770002 -1.7665986 0.28189301 0
3.4770002 -1.7721488 0.28189301 0
3.4770002 -1.7776992 0.28189301 0
3.4780002 -1.7838141 0.28185332 0
3.4810002 -1.7910653 0.28173429 0
3.4850001 -1.7988957 0.28157556 0
3.4940002 -1.8095905 0.28121841 0
3.5480003 -1.7268029 0.27339709 0
3.5290003 -1.7223024 0.27418536 0
3.5190003 -1.7225713 0.27460021 0
3.5120003 -1.724422 0.27489063 0
3.5060003 -1.7267885 0.27513957 0
3.5010002 -1.7296764 0.27534699 0
3.4960003 -1.7325463 0.27555442 0
3.4920003 -1.7359447 0.27572039 0
3.4890003 -1.739877 0.27584484 0
3.4860003 -1.7437984 0.27596933 0
3.4830003 -1.7477092 0.27609378 0
3.4810002 -1.7521626 0.27617675 0
3.4790003 -1.7566092 0.27625972 0
3.4780002 -1.7616056 0.27630121 0
3.4770002 -1.7665986 0.27634269 0
3.4770002 -1.7721488 0.27634269 0
3.4770002 -1.7776992 0.27634269 0
3.4780002 -1.7838141 0.27630121 0
3.4810002 -1.7910653 0.27617675 0
3.4850001 -1.7988957 0.27601081 0
3.4940002 -1.8095905 0.27563742 0
3.5480003 -1.7268029 0.2677187 0
3.5290003 -1.7223024 0.26854122 0
3.5190003 -1.7225713 0.26897413 0
3.5120003 -1.724422 0.26927719 0
3.5060003 -1.7267885 0.26953691 0
3.5010002 -1.7296764 0.2697534 0
3.4960003 -1.7325463 0.26996985 0
3.4920003 -1.7359447 0.270143 0
3.4890003 -1.739877 0.27027291 0
3.4860003 -1.7437984 0.27040276 0
3.4830003 -1.7477092 0.27053264 0
3.4810002 -1.7521626 0.27061921 0
3.4790003 -1.7566092 0.27070582 0
3.4780002 -1.7616056 0.27074909 0
3.4770002 -1.7665986 0.27079237 0
3.4770002 -1.7721488 0.27079237 0
3.4770002 -1.7776992 0.27079237 0
3.4780002 -1.7838141 0.27074909 0
3.4810002 -1.7910653 0.27061921 0
3.4850001 -1.7988957 0.27044606 0
3.4940002 -1.8095905 0.27005643 0
3.5480003 -1.7268029 0.26204032 0
3.5290003 -1.7223024 0.2628971 0
3.5190003 -1.7225713 0.26334804 0
3.5120003 -1.724422 0.26366374 0
3.5060003 -1.7267885 0.26393431 0
3.5010002 -1.7296764 0.2641598 0
3.4960003 -1.7325463 0.26438528 0
3.4920003 -1.7359447 0.26456565 0
3.4890003 -1.739877 0.26470092 0
3.4860003 -1.7437984 0.26483619 0
3.4830003 -1.7477092 0.26497149 0
3.4810002 -1.7521626 0.26506168 0
3.4790003 -1.7566092 0.26515186 0
3.4780002 -1.7616056 0.26519698 0
3.4770002 -1.7665986 0.26524207 0
3.4770002 -1.7721488 0.26524207 0
3.4770002 -1.7776992 0.26524207 0
3.4780002 -1.7838141 0.26519698 0
3.4810002 -1.7910653 0.26506168 0
3.4850001 -1.7988957 0.26488131 0
3.4940002 -1.8095905 0.26447546 0
3.5480003 -1.7268029 0.2563619 0
3.5290003 -1.7223024 0.25725299 0
3.5190003 -1.7225713 0.25772199 0
3.5120003 -1.724422 0.25805026 0
3.5060003 -1.7267885 0.25833166 0
3.5010002 -1.7296764 0.2585662 0
3.4960003 -1.7325463 0.25880069 0
3.4920003 -1.7359447 0.25898826 0
3.4890003 -1.739877 0.25912896 0
3.4860003 -1.7437984 0.25926965 0
3.4830003 -1.7477092 0.25941035 0
3.4810002 -1.7521626 0.25950414 0
3.4790003 -1.7566092 0.25959796 0
3.4780002 -1.7616056 0.25964487 0
3.4770002 -1.7665986 0.25969175 0
3.4770002 -1.7721488 0.25969175 0
3.4770002 -1.7776992 0.25969175 0
3.4780002 -1.7838141 0.25964487 0
3.4810002 -1.7910653 0.25950414 0
3.4850001 -1.7988957 0.25931656 0
3.4940002 -1.8095905 0.25889447 0
3.5480003 -1.7268029 0.25068352 0
3.5290003 -1.7223024 0.25160891 0
3.5190003 -1.7225713 0.25209591 0
3.5120003 -1.724422 0.25243682 0
3.5060003 -1.7267885 0.25272906 0
3.5010002 -1.7296764 0.25297254 0
3.4960003 -1.7325463 0.25321609 0
3.4920003 -1.7359447 0.25341088 0
3.4890003 -1.739877 0.253557 0
3.4860003 -1.7437984 0.25370312 0
3.4830003 -1.7477092 0.25384921 0
3.4810002 -1.7521626 0.2539466 0
3.4790003 -1.7566092 0.25404403 0
3.4780002 -1.7616056 0.25409272 0
3.4770002 -1.7665986 0.25414145 0
3.4770002 -1.7721488 0.25414145 0
3.4770002 -1.7776992 0.25414145 0
3.4780002 -1.7838141 0.25409272 0
3.4810002 -1.7910653 0.2539466 0
3.4850001 -1.7988957 0.25375181 0
3.4940002 -1.8095905 0.25331348 0
3.5480003 -1.7268029 0.24500515 0
3.5290003 -1.7223024 0.24596477 0
3.5190003 -1.7225713 0.24646983 0
3.5120003 -1.724422 0.24682337 0
3.5060003 -1.7267885 0.24712643 0
3.5010002 -1.7296764 0.24737896 0
3.4960003 -1.7325463 0.24763149 0
3.4920003 -1.7359447 0.24783351 0
3.4890003 -1.739877 0.24798504 0
3.4860003 -1.7437984 0.24813655 0
3.4830003 -1.7477092 0.24828807 0
3.4810002 -1.7521626 0.24838908 0
3.4790003 -1.7566092 0.2484901 0
3.4780002 -1.7616056 0.2485406 0
3.4770002 -1.7665986 0.24859111 0
3.4770002 -1.7721488 0.24859111 0
3.4770002 -1.7776992 0.24859111 0
3.4780002 -1.7838141 0.2485406 0
3.4810002 -1.7910653 0.24838908 0
3.4850001 -1.7988957 0.24818705 0
3.4940002 -1.8095905 0.24773251 0
3.5480003 -1.7268029 0.23932675 0
3.5290003 -1.7223024 0.24032065 0
3.5190003 -1.7225713 0.24084376 0
3.5120003 -1.724422 0.24120992 0
3.5060003 -1.7267885 0.24152379 0
3.5010002 -1.7296764 0.24178535 0
3.4960003 -1.7325463 0.24204689 0
3.4920003 -1.7359447 0.24225613 0
3.4890003 -1.739877 0.24241306 0
3.4860003 -1.7437984 0.24257 0
3.4830003 -1.7477092 0.24272692 0
3.4810002 -1.7521626 0.24283156 0
3.4790003 -1.7566092 0.24293616 0
3.4780002 -1.7616056 0.24298848 0
3.4770002 -1.7665986 0.2430408 0
3.4770002 -1.7721488 0.2430408 0
3.4770002 -1.7776992 0.2430408 0
3.4780002 -1.7838141 0.24298848 0
3.4810002 -1.7910653 0.24283156 0
3.4850001 -1.7988957 0.24262232 0
3.4940002 -1.8095905 0.24215151 0
3.5480003 -1.7268029 0.23364836 0
3.5290003 -1.7223024 0.23467654 0
3.5190003 -1.7225713 0.23521768 0
3.5120003 -1.724422 0.23559648 0
3.5060003 -1.7267885 0.23592116 0
3.5010002 -1.7296764 0.23619175 0
3.4960003 -1.7325463 0.23646231 0
3.4920003 -1.7359447 0.23667875 0
3.4890003 -1.739877 0.2368411 0
3.4860003 -1.7437984 0.23700345 0
3.4830003 -1.7477092 0.23716579 0
3.4810002 -1.7521626 0.23727402 0
3.4790003 -1.7566092 0.23738223 0
3.4780002 -1.7616056 0.23743637 0
3.4770002 -1.7665986 0.23749048 0
3.4770002 -1.7721488 0.23749048 0
3.4770002 -1.7776992 0.23749048 0
3.4780002 -1.7838141 0.23743637 0
3.4810002 -1.7910653 0.23727402 0
3.4850001 -1.7988957 0.23705757 0
3.4940002 -1.8095905 0.23657054 0
3.5480003 -1.7268029 0.22796997 0
3.5290003 -1.7223024 0.22903241 0
3.5190003 -1.7225713 0.22959161 0
3.5120003 -1.724422 0.22998302 0
3.5060003 -1.7267885 0.23031853 0
3.5010002 -1.7296764 0.23059812 0
3.4960003 -1.7325463 0.23087771 0
3.4920003 -1.7359447 0.23110139 0
3.4890003 -1.739877 0.23126914 0
3.4860003 -1.7437984 0.23143689 0
3.4830003 -1.7477092 0.23160465 0
3.4810002 -1.7521626 0.23171648 0
3.4790003 -1.7566092 0.23182832 0
3.4780002 -1.7616056 0.23188426 0
3.4770002 -1.7665986 0.23194017 0
3.4770002 -1.7721488 0.23194017 0
3.4770002 -1.7776992 0.23194017 0
3.4780002 -1.7838141 0.23188426 0
3.4810002 -1.7910653 0.23171648 0
3.4850001 -1.7988957 0.23149282 0
3.4940002 -1.8095905 0.23098956 0
3.5480003 -1.7268029 0.22229159 0
3.5290003 -1.7223024 0.2233883 0
3.5190003 -1.7225713 0.22396553 0
3.5120003 -1.724422 0.22436957 0
3.5060003 -1.7267885 0.2247159 0
3.5010002 -1.7296764 0.22500452 0
3.4960003 -1.7325463 0.22529311 0
3.4920003 -1.7359447 0.22552401 0
3.4890003 -1.739877 0.22569717 0
3.4860003 -1.7437984 0.22587034 0
3.4830003 -1.7477092 0.22604351 0
3.4810002 -1.7521626 0.22615896 0
3.4790003 -1.7566092 0.22627439 0
3.4780002 -1.7616056 0.22633213 0
3.4770002 -1.7665986 0.22638984 0
3.4770002 -1.7721488 0.22638984 0
3.4770002 -1.7776992 0.22638984 0
3.4780002 -1.7838141 0.22633213 0
3.4810002 -1.7910653 0.22615896 0
3.4850001 -1.7988957 0.22592807 0
3.4940002 -1.8095905 0.22540857 0
3.5480003 -1.7268029 0.21661319 0
3.5290003 -1.7223024 0.21774419 0
3.5190003 -1.7225713 0.21833943 0
3.5120003 -1.724422 0.21875612 0
3.5060003 -1.7267885 0.21911328 0
3.5010002 -1.7296764 0.21941091 0
3.4960003 -1.7325463 0.21970853 0
3.4920003 -1.7359447 0.21994662 0
3.4890003 -1.739877 0.22012521 0
3.4860003 -1.7437984 0.22030379 0
3.4830003 -1.7477092 0.22048236 0
3.4810002 -1.7521626 0.22060142 0
3.4790003 -1.7566092 0.22072046 0
3.4780002 -1.7616056 0.22078 0
3.4770002 -1.7665986 0.22083952 0
3.4770002 -1.7721488 0.22083952 0
3.4770002 -1.7776992 0.22083952 0
3.4780002 -1.7838141 0.22078 0
3.4810002 -1.7910653 0.22060142 0
3.4850001 -1.7988957 0.22036332 0
3.4940002 -1.8095905 0.21982759 0
3.5480003 -1.7268029 0.21093482 0
3.5290003 -1.7223024 0.21210006 0
3.5190003 -1.7225713 0.21271336 0
3.5120003 -1.724422 0.21314266 0
3.5060003 -1.7267885 0.21351065 0
3.5010002 -1.7296764 0.2138173 0
3.4960003 -1.7325463 0.21412393 0
3.4920003 -1.7359447 0.21436927 0
3.4890003 -1.739877 0.21455324 0
3.4860003 -1.7437984 0.21473724 0
3.4830003 -1.7477092 0.21492122 0
3.4810002 -1.7521626 0.21504389 0
3.4790003 -1.7566092 0.21516654 0
3.4780002 -1.7616056 0.21522789 0
3.4770002 -1.7665986 0.21528921 0
3.4770002 -1.7721488 0.21528921 0
3.4770002 -1.7776992 0.21528921 0
3.4780002 -1.7838141 0.21522789 0
3.4810002 -1.7910653 0.21504389 0
3.4850001 -1.7988957 0.21479858 0
3.4940002 -1.8095905 0.2142466 0
3.5480003 -1.7268029 0.20525642 0
3.5290003 -1.7223024 0.20645595 0
3.5190003 -1.7225713 0.20708728 0
3.5120003 -1.724422 0.20752922 0
3.5060003 -1.7267885 0.20790802 0
3.5010002 -1.7296764 0.20822369 0
3.4960003 -1.7325463 0.20853935 0
3.4920003 -1.7359447 0.20879188 0
3.4890003 -1.739877 0.20898129 0
3.4860003 -1.7437984 0.20917068 0
3.4830003 -1.7477092 0.20936008 0
3.4810002 -1.7521626 0.20948635 0
3.4790003 -1.7566092 0.20961262 0
3.4780002 -1.7616056 0.20967576 0
3.4770002 -1.7665986 0.20973888 0
3.4770002 -1.7721488 0.20973888 0
3.4770002 -1.7776992 0.20973888 0
3.4780002 -1.7838141 0.20967576 0
3.4810002 -1.7910653 0.20948635 0
3.4850001 -1.7988957 0.20923384 0
3.4940002 -1.8095905 0.20866562 0
3.5480003 -1.7268029 0.19957803 0
3.5290003 -1.7223024 0.20081183 0
3.5190003 -1.7225713 0.20146121 0
3.5120003 -1.724422 0.20191577 0
3.5060003 -1.7267885 0.20230539 0
3.5010002 -1.7296764 0.20263009 0
3.4960003 -1.7325463 0.20295475 0
3.4920003 -1.7359447 0.2032145 0
3.4890003 -1.739877 0.20340931 0
3.4860003 -1.7437984 0.20360413 0
3.4830003 -1.7477092 0.20379895 0
3.4810002 -1.7521626 0.20392883 0
3.4790003 -1.7566092 0.20405869 0
3.4780002 -1.7616056 0.20412365 0
3.4770002 -1.7665986 0.20418857 0
3.4770002 -1.7721488 0.20418857 0
3.4770002 -1.7776992 0.20418857 0
3.4780002 -1.7838141 0.20412365 0
3.4810002 -1.7910653 0.20392883 0
3.4850001 -1.7988957 0.20366909 0
3.4940002 -1.8095905 0.20308465 0
3.5480003 -1.7268029 0.19389965 0
3.5290003 -1.7223024 0.19516772 0
3.5190003 -1.7225713 0.19583513 0
3.5120003 -1.724422 0.19630232 0
3.5060003 -1.7267885 0.19670276 0
3.5010002 -1.7296764 0.19703647 0
3.4960003 -1.7325463 0.19737017 0
3.4920003 -1.7359447 0.19763714 0
3.4890003 -1.739877 0.19783735 0
3.4860003 -1.7437984 0.19803758 0
3.4830003 -1.7477092 0.19823781 0
3.4810002 -1.7521626 0.19837129 0
3.4790003 -1.7566092 0.19850476 0
3.4780002 -1.7616056 0.19857152 0
3.4770002 -1.7665986 0.19863825 0
3.4770002 -1.7721488 0.19863825 0
3.4770002 -1.7776992 0.19863825 0
3.4780002 -1.7838141 0.19857152 0
3.4810002 -1.7910653 0.19837129 0
3.4850001 -1.7988957 0.19810432 0
3.4940002 -1.8095905 0.19750366 0
3.5480003 -1.7268029 0.18822126 0
3.5290003 -1.7223024 0.18952361 0
3.5190003 -1.7225713 0.19020905 0
3.5120003 -1.724422 0.19068886 0
3.5060003 -1.7267885 0.19110014 0
3.5010002 -1.7296764 0.19144286 0
3.4960003 -1.7325463 0.19178557 0
3.4920003 -1.7359447 0.19205976 0
3.4890003 -1.739877 0.19226539 0
3.4860003 -1.7437984 0.19247103 0
3.4830003 -1.7477092 0.19267666 0
3.4810002 -1.7521626 0.19281375 0
3.4790003 -1.7566092 0.19295084 0
3.4780002 -1.7616056 0.19301939 0
3.4770002 -1.7665986 0.19308794 0
3.4770002 -1.7721488 0.19308794 0
3.4770002 -1.7776992 0.19308794 0
3.4780002 -1.7838141 0.19301939 0
3.4810002 -1.7910653 0.19281375 0
3.4850001 -1.7988957 0.19253957 0
3.4940002 -1.8095905 0.19192266 0
3.5480003 -1.7268029 0.18254286 0
3.5290003 -1.7223024 0.18387949 0
3.5190003 -1.7225713 0.18458298 0
3.5120003 -1.724422 0.1850754 0
3.5060003 -1.7267885 0.18549749 0
3.5010002 -1.7296764 0.18584925 0
3.4960003 -1.7325463 0.18620098 0
3.4920003 -1.7359447 0.18648237 0
3.4890003 -1.739877 0.18669343 0
3.4860003 -1.7437984 0.18690446 0
3.4830003 -1.7477092 0.18711552 0
3.4810002 -1.7521626 0.18725622 0
3.4790003 -1.7566092 0.18739691 0
3.4780002 -1.7616056 0.18746728 0
3.4770002 -1.7665986 0.18753761 0
3.4770002 -1.7721488 0.18753761 0
3.4770002 -1.7776992 0.18753761 0
3.4780002 -1.7838141 0.18746728 0
3.4810002 -1.7910653 0.18725622 0
3.4850001 -1.7988957 0.18697484 0
3.4940002 -1.8095905 0.1863417 0
3.5480003 -1.7268029 0.17686448 0
3.5290003 -1.7223024 0.17823538 0
3.5190003 -1.7225713 0.1789569 0
3.5120003 -1.724422 0.17946196 0
3.5060003 -1.7267885 0.17989488 0
3.5010002 -1.7296764 0.18025565 0
3.4960003 -1.7325463 0.18061639 0
3.4920003 -1.7359447 0.18090501 0
3.4890003 -1.739877 0.18112145 0
3.4860003 -1.7437984 0.18133792 0
3.4830003 -1.7477092 0.18155438 0
3.4810002 -1.7521626 0.18169869 0
3.4790003 -1.7566092 0.18184298 0
3.4780002 -1.7616056 0.18191515 0
3.4770002 -1.7665986 0.1819873 0
3.4770002 -1.7721488 0.1819873 0
3.4770002 -1.7776992 0.1819873 0
3.4780002 -1.7838141 0.18191515 0
3.4810002 -1.7910653 0.18169869 0
3.4850001 -1.7988957 0.18141009 0
3.4940002 -1.8095905 0.18076071 0
3.5480003 -1.7268029 0.17118609 0
3.5290003 -1.7223024 0.17259127 0
3.5190003 -1.7225713 0.17333083 0
3.5120003 -1.724422 0.17384851 0
3.5060003 -1.7267885 0.17429225 0
3.5010002 -1.7296764 0.17466202 0
3.4960003 -1.7325463 0.17503181 0
3.4920003 -1.7359447 0.17532763 0
3.4890003 -1.739877 0.17554949 0
3.4860003 -1.7437984 0.17577137 0
3.4830003 -1.7477092 0.17599323 0
3.4810002 -1.7521626 0.17614116 0
