# .PCD v0.7 - Point Cloud Data file format
VERSION 0.7
FIELDS x y z intensity
SIZE 4 4 4 4
TYPE F F F F
COUNT 1 1 1 1
WIDTH 1381
HEIGHT 1
VIEWPOINT 0 0 0 1 0 0 0
POINTS 1381
DATA ascii
3.7920003 -0.93318504 0.7282815 0
3.7890003 -0.93851352 0.72799462 0
3.7870002 -0.94409627 0.72780341 0
3.7860003 -0.94993883 0.72770786 0
3.7850003 -0.95577776 0.72761226 0
3.7850003 -0.96188366 0.72761226 0
3.7860003 -0.9682619 0.72770786 0
3.7880003 -0.97491795 0.72789907 0
3.7920003 -0.98213315 0.7282815 0
3.7970002 -0.98964059 0.72875941 0
3.8060002 -0.9982844 0.72961986 0
3.7350004 -1.1047633 0.7228322 0
3.7350004 -1.110779 0.7228322 0
3.7340002 -1.1164736 0.72273654 0
3.7330003 -1.1221647 0.72264099 0
3.7320004 -1.1278521 0.72254533 0
3.7310002 -1.1335357 0.72244972 0
3.7300003 -1.1392161 0.72235411 0
3.8430002 -0.79747188 0.72694659 0
3.8320003 -0.80126172 0.72591484 0
3.8250003 -0.80589932 0.72525823 0
3.8190002 -0.81073534 0.72469544 0
3.8150003 -0.81600064 0.72432029 0
3.8110003 -0.82125157 0.72394508 0
3.8080003 -0.82671708 0.72366369 0
3.8060002 -0.83240265 0.72347605 0
3.8040001 -0.838081 0.72328848 0
3.8030002 -0.84398669 0.72319472 0
3.8020003 -0.8498888 0.7231009 0
3.8020003 -0.85602534 0.7231009 0
3.8030002 -0.86240184 0.72319472 0
3.8040001 -0.86878186 0.72328848 0
3.8060002 -0.87540907 0.72347605 0
3.8090003 -0.88228881 0.72375751 0
3.8130002 -0.88942647 0.72413266 0
3.8200002 -0.89732534 0.72478926 0
3.8320003 -0.90650314 0.72591484 0
3.8210003 -0.90991592 0.72488308 0
3.8120003 -0.91379768 0.7240389 0
3.8050003 -0.91815937 0.72338229 0
3.7990003 -0.92275363 0.72281957 0
3.7950003 -0.92784578 0.7224443 0
3.7920003 -0.93318504 0.7221629 0
3.7890003 -0.93851352 0.72188151 0
3.7870002 -0.94409627 0.72169393 0
3.7860003 -0.94993883 0.72160017 0
3.7850003 -0.95577776 0.72150636 0
3.7850003 -0.96188366 0.72150636 0
3.7860003 -0.9682619 0.72160017 0
3.7880003 -0.97491795 0.72178775 0
3.7920003 -0.98213315 0.7221629 0
3.7970002 -0.98964059 0.72263193 0
3.8060002 -0.9982844 0.72347605 0
3.7350004 -1.1047633 0.71681643 0
3.7350004 -1.110779 0.71681643 0
3.7340002 -1.1164736 0.71672261 0
3.7330003 -1.1221647 0.71662885 0
3.7320004 -1.1278521 0.71653503 0
3.7310002 -1.1335357 0.71644127 0
3.7300003 -1.1392161 0.71634746 0
3.8370004 -0.79616243 0.72018421 0
3.8280003 -0.80038148 0.71935618 0
3.8220003 -0.80523366 0.71880424 0
3.8170002 -0.81028795 0.71834421 0
3.8130002 -0.81554967 0.71797627 0
3.8100002 -0.82102424 0.7177003 0
3.8070002 -0.82648796 0.71742427 0
3.8050003 -0.8321718 0.71724033 0
3.8040001 -0.838081 0.7171483 0
3.8030002 -0.84398669 0.71705633 0
3.8030002 -0.85012507 0.71705633 0
3.8030002 -0.85626346 0.71705633 0
3.8040001 -0.86264169 0.7171483 0
3.8060002 -0.86926532 0.71733236 0
3.8080003 -0.8758961 0.7175163 0
3.8110003 -0.88277942 0.71779227 0
3.8170002 -0.89041489 0.71834421 0
3.8260002 -0.89881891 0.71917224 0
3.8380003 -0.9080075 0.72027612 0
3.8210003 -0.90991592 0.71871221 0
3.8120003 -0.91379768 0.7178843 0
3.8050003 -0.91815937 0.71724033 0
3.7990003 -0.92275363 0.71668839 0
3.7950003 -0.92784578 0.7163204 0
3.7920003 -0.93318504 0.71604443 0
3.7890003 -0.93851352 0.71576846 0
3.7870002 -0.94409627 0.7155844 0
3.7860003 -0.94993883 0.71549243 0
3.7850003 -0.95577776 0.71540046 0
3.7850003 -0.96188366 0.71540046 0
3.7860003 -0.9682619 0.71549243 0
3.7880003 -0.97491795 0.71567643 0
3.7920003 -0.98213315 0.71604443 0
3.7970002 -0.98964059 0.7165044 0
3.8060002 -0.9982844 0.71733236 0
3.7350004 -1.1047633 0.71080077 0
3.7350004 -1.110779 0.71080077 0
3.7340002 -1.1164736 0.71070874 0
3.7330003 -1.1221647 0.71061671 0
3.7320004 -1.1278521 0.71052474 0
3.7310002 -1.1335357 0.71043277 0
3.7300003 -1.1392161 0.71034074 0
3.8440003 -0.77905327 0.71461582 0
3.8420002 -0.79104495 0.7144354 0
3.8320003 -0.79507107 0.71353352 0
3.8250003 -0.7997213 0.71290219 0
3.8190002 -0.80456811 0.71236104 0
3.8150003 -0.80984062 0.71200025 0
3.8110003 -0.81509876 0.71163952 0
3.8090003 -0.82079697 0.71145916 0
3.8070002 -0.82648796 0.71127874 0
3.8050003 -0.8321718 0.71109837 0
3.8040001 -0.838081 0.71100819 0
3.8030002 -0.84398669 0.71091795 0
3.8030002 -0.85012507 0.71091795 0
3.8040001 -0.85650152 0.71100819 0
3.8050003 -0.8628816 0.71109837 0
3.8070002 -0.86950696 0.71127874 0
3.8110003 -0.87662667 0.71163952 0
3.8150003 -0.88376069 0.71200025 0
3.8220003 -0.89165056 0.71263158 0
3.8440003 -0.90329957 0.71461582 0
3.8380003 -0.9080075 0.71407461 0
3.8210003 -0.90991592 0.71254146 0
3.8120003 -0.91379768 0.71172971 0
3.8050003 -0.91815937 0.71109837 0
3.7990003 -0.92275363 0.71055722 0
3.7950003 -0.92784578 0.7101965 0
3.7920003 -0.93318504 0.70992589 0
3.7890003 -0.93851352 0.70965528 0
3.7870002 -0.94409627 0.70947492 0
3.7860003 -0.94993883 0.70938474 0
3.7850003 -0.95577776 0.70929456 0
3.7850003 -0.96188366 0.70929456 0
3.7860003 -0.9682619 0.70938474 0
3.7880003 -0.97491795 0.70956516 0
3.7920003 -0.98213315 0.70992589 0
3.7970002 -0.98964059 0.71037686 0
3.8060002 -0.9982844 0.71118855 0
3.7350004 -1.1047633 0.70478505 0
3.7350004 -1.110779 0.70478505 0
3.7340002 -1.1164736 0.70469487 0
3.7330003 -1.1221647 0.70460463 0
3.7320004 -1.1278521 0.7045145 0
3.7310002 -1.1335357 0.70442426 0
3.7300003 -1.1392161 0.70433414 0
3.8480003 -0.76746559 0.70875704 0
3.8400002 -0.77199674 0.70804989 0
3.8340003 -0.77692479 0.70751965 0
3.8290002 -0.78204578 0.70707768 0
3.8360002 -0.78974617 0.70769638 0
3.8280003 -0.79419804 0.70698929 0
3.8220003 -0.79906106 0.70645899 0
3.8170002 -0.80412436 0.70601702 0
3.8140004 -0.80961698 0.7057519 0
3.8100002 -0.81487322 0.70539832 0
3.8080003 -0.82056969 0.70522153 0
3.8060002 -0.8262589 0.70504481 0
3.8050003 -0.8321718 0.70495641 0
3.8040001 -0.838081 0.70486802 0
3.8040001 -0.84422123 0.70486802 0
3.8040001 -0.85036135 0.70486802 0
3.8050003 -0.85673964 0.70495641 0
3.8070002 -0.86336142 0.7051332 0
3.8100002 -0.87023211 0.70539832 0
3.8130002 -0.87711364 0.70566344 0
3.8190002 -0.88474196 0.7061938 0
3.8300002 -0.89362752 0.70716608 0
3.8380003 -0.9080075 0.70787317 0
3.8210003 -0.90991592 0.70637059 0
3.8120003 -0.91379768 0.70557511 0
3.8050003 -0.91815937 0.70495641 0
3.7990003 -0.92275363 0.70442605 0
3.7950003 -0.92784578 0.70407254 0
3.7920003 -0.93318504 0.70380735 0
3.7890003 -0.93851352 0.70354223 0
3.7870002 -0.94409627 0.70336545 0
3.7860003 -0.94993883 0.70327705 0
3.7850003 -0.95577776 0.70318866 0
3.7850003 -0.96188366 0.70318866 0
3.7860003 -0.9682619 0.70327705 0
3.7880003 -0.97491795 0.70345384 0
3.7920003 -0.98213315 0.70380735 0
3.7970002 -0.98964059 0.70424926 0
3.8060002 -0.9982844 0.70504481 0
3.7350004 -1.1047633 0.69876933 0
3.7350004 -1.110779 0.69876933 0
3.7340002 -1.1164736 0.698681 0
3.7330003 -1.1221647 0.69859254 0
3.7320004 -1.1278521 0.69850421 0
3.7310002 -1.1335357 0.69841576 0
3.7300003 -1.1392161 0.69832742 0
3.8440003 -0.76041633 0.70219117 0
3.8370004 -0.7651639 0.70158505 0
3.8320003 -0.77030838 0.70115221 0
3.8280003 -0.77564764 0.70080584 0
3.8240004 -0.78097248 0.70045954 0
3.8210003 -0.78649938 0.70019972 0
3.8250003 -0.79354322 0.70054609 0
3.8200002 -0.79862094 0.70011318 0
3.8150003 -0.8036806 0.69968027 0
3.8120003 -0.80916959 0.69942051 0
3.8100002 -0.81487322 0.69924736 0
3.8070002 -0.82034242 0.6989876 0
3.8060002 -0.8262589 0.698901 0
3.8050003 -0.8321718 0.69881439 0
3.8040001 -0.838081 0.69872785 0
3.8050003 -0.84445572 0.69881439 0
3.8050003 -0.85059768 0.69881439 0
3.8070002 -0.85721582 0.6989876 0
3.8090003 -0.8638413 0.69916075 0
3.8120003 -0.87071556 0.69942051 0
3.8170002 -0.8780877 0.69985342 0
3.8250003 -0.8862139 0.70054609 0
3.8380003 -0.9080075 0.70167172 0
3.8210003 -0.90991592 0.70019972 0
3.8120003 -0.91379768 0.69942051 0
3.8050003 -0.91815937 0.69881439 0
3.7990003 -0.92275363 0.69829494 0
3.7950003 -0.92784578 0.69794858 0
3.7920003 -0.93318504 0.69768882 0
3.7890003 -0.93851352 0.69742912 0
3.7870002 -0.94409627 0.69725597 0
3.7860003 -0.94993883 0.69716936 0
3.7850003 -0.95577776 0.69708276 0
3.7850003 -0.96188366 0.69708276 0
3.7860003 -0.9682619 0.69716936 0
3.7880003 -0.97491795 0.69734251 0
3.7920003 -0.98213315 0.69768882 0
3.7970002 -0.98964059 0.69812179 0
3.8060002 -0.9982844 0.698901 0
3.7350004 -1.1047633 0.69275367 0
3.7350004 -1.110779 0.69275367 0
3.7340002 -1.1164736 0.69266707 0
3.7330003 -1.1221647 0.69258046 0
3.7320004 -1.1278521 0.69249392 0
3.7310002 -1.1335357 0.69240725 0
3.7300003 -1.1392161 0.6923207 0
3.8470004 -0.74860317 0.69623321 0
3.8400002 -0.75338143 0.69563973 0
3.8350003 -0.75854933 0.69521582 0
3.8300002 -0.76369917 0.69479191 0
3.8270001 -0.76925313 0.69453758 0
3.8230002 -0.7745834 0.69419849 0
3.8200002 -0.78011388 0.69394416 0
3.8180003 -0.78584999 0.69377458 0
3.8240004 -0.79332501 0.69428325 0
3.8190002 -0.79840088 0.69385934 0
3.8140004 -0.80345875 0.69343549 0
3.8110003 -0.80894595 0.69318116 0
3.8090003 -0.81464779 0.69301158 0
3.8070002 -0.82034242 0.69284201 0
3.8060002 -0.8262589 0.69275725 0
3.8050003 -0.8321718 0.69267249 0
3.8050003 -0.83831376 0.69267249 0
3.8060002 -0.8446902 0.69275725 0
3.8070002 -0.85107028 0.69284201 0
3.8080003 -0.85745394 0.69292676 0
3.8110003 -0.86432105 0.69318116 0
3.8160002 -0.87168241 0.69360507 0
3.8220003 -0.8793053 0.69411373 0
3.8340003 -0.88842177 0.69513106 0
3.8380003 -0.9080075 0.69547021 0
3.8210003 -0.90991592 0.69402897 0
3.8120003 -0.91379768 0.69326591 0
3.8050003 -0.91815937 0.69267249 0
3.7990003 -0.92275363 0.69216383 0
3.7950003 -0.92784578 0.69182467 0
3.7920003 -0.93318504 0.69157034 0
3.7890003 -0.93851352 0.69131601 0
3.7870002 -0.94409627 0.69114649 0
3.7860003 -0.94993883 0.69106168 0
3.7850003 -0.95577776 0.69097686 0
3.7850003 -0.96188366 0.69097686 0
3.7860003 -0.9682619 0.69106168 0
3.7880003 -0.97491795 0.69123125 0
3.7920003 -0.98213315 0.69157034 0
3.7970002 -0.98964059 0.69199419 0
3.8060002 -0.9982844 0.69275725 0
3.7350004 -1.1047633 0.68673795 0
3.7350004 -1.110779 0.68673795 0
3.7340002 -1.1164736 0.68665314 0
3.7330003 -1.1221647 0.68656838 0
3.7320004 -1.1278521 0.68648362 0
3.7310002 -1.1335357 0.6863988 0
3.7300003 -1.1392161 0.68631405 0
3.8510003 -0.73696864 0.69034731 0
3.8440003 -0.74177939 0.68976653 0
3.8380003 -0.74676865 0.68926871 0
3.8330002 -0.75194198 0.6888538 0
3.8290002 -0.75730473 0.68852186 0
3.8260002 -0.76286227 0.68827295 0
3.8230002 -0.76840895 0.68802404 0
3.8200002 -0.7739448 0.68777514 0
3.8170002 -0.77946991 0.68752623 0
3.8150003 -0.7852006 0.68736029 0
3.8140004 -0.79114234 0.68727726 0
3.8180003 -0.79818082 0.6876092 0
3.8140004 -0.80345875 0.68727726 0
3.8110003 -0.80894595 0.68702835 0
3.8090003 -0.81464779 0.68686241 0
3.8070002 -0.82034242 0.68669641 0
3.8060002 -0.8262589 0.68661344 0
3.8050003 -0.8321718 0.68653047 0
3.8060002 -0.83854645 0.68661344 0
3.8060002 -0.8446902 0.68661344 0
3.8080003 -0.85130662 0.68677938 0
3.8110003 -0.8581683 0.68702835 0
3.8140004 -0.86504084 0.68727726 0
3.8190002 -0.87240756 0.68769217 0
3.8280003 -0.88076639 0.68843889 0
3.8380003 -0.9080075 0.68926871 0
3.8210003 -0.90991592 0.6878581 0
3.8120003 -0.91379768 0.68711132 0
3.8050003 -0.91815937 0.68653047 0
3.7990003 -0.92275363 0.68603265 0
3.7950003 -0.92784578 0.68570077 0
3.7920003 -0.93318504 0.68545187 0
3.7890003 -0.93851352 0.6852029 0
3.7870002 -0.94409627 0.6850369 0
3.7860003 -0.94993883 0.68495399 0
3.7850003 -0.95577776 0.68487096 0
3.7850003 -0.96188366 0.68487096 0
3.7860003 -0.9682619 0.68495399 0
3.7880003 -0.97491795 0.68511993 0
3.7920003 -0.98213315 0.68545187 0
3.7970002 -0.98964059 0.68586671 0
3.8060002 -0.9982844 0.68661344 0
3.7350004 -1.1047633 0.68072224 0
3.7350004 -1.110779 0.68072224 0
3.7340002 -1.1164736 0.68063927 0
3.7330003 -1.1221647 0.6805563 0
3.7320004 -1.1278521 0.68047333 0
3.7310002 -1.1335357 0.68039036 0
3.7300003 -1.1392161 0.68030739 0
3.8480003 -0.73014843 0.6838789 0
3.8410003 -0.73496634 0.68331075 0
3.8360002 -0.74016309 0.68290484 0
3.8320003 -0.74554569 0.68258011 0
3.8280003 -0.75091386 0.68225551 0
3.8250003 -0.75647497 0.68201196 0
3.8220003 -0.7620253 0.68176842 0
3.8200002 -0.76777583 0.68160611 0
3.8180003 -0.77351916 0.68144381 0
3.8160002 -0.77925527 0.68128145 0
3.8140004 -0.78498417 0.68111908 0
3.8120003 -0.79070586 0.68095672 0
3.8110003 -0.7966404 0.68087554 0
3.8150003 -0.8036806 0.68120027 0
3.8120003 -0.80916959 0.68095672 0
3.8090003 -0.81464779 0.68071324 0
3.8070002 -0.82034242 0.68055087 0
3.8060002 -0.8262589 0.68046969 0
3.8060002 -0.83240265 0.68046969 0
3.8070002 -0.83877915 0.68055087 0
3.8080003 -0.84515923 0.68063205 0
3.8100002 -0.85177916 0.68079436 0
3.8130002 -0.85864449 0.6810379 0
3.8180003 -0.86600041 0.68144381 0
3.8240004 -0.8736161 0.68193078 0
3.8380003 -0.9080075 0.6830672 0
3.8210003 -0.90991592 0.68168724 0
3.8120003 -0.91379768 0.68095672 0
3.8050003 -0.91815937 0.68038857 0
3.7990003 -0.92275363 0.67990148 0
3.7950003 -0.92784578 0.67957681 0
3.7920003 -0.93318504 0.67933333 0
3.7890003 -0.93851352 0.67908978 0
3.7870002 -0.94409627 0.67892742 0
3.7860003 -0.94993883 0.67884624 0
3.7850003 -0.95577776 0.67876512 0
3.7850003 -0.96188366 0.67876512 0
3.7860003 -0.9682619 0.67884624 0
3.7880003 -0.97491795 0.6790086 0
3.7920003 -0.98213315 0.67933333 0
3.7970002 -0.98964059 0.67973912 0
3.8060002 -0.9982844 0.68046969 0
3.7350004 -1.1047633 0.67470658 0
3.7350004 -1.110779 0.67470658 0
3.7340002 -1.1164736 0.67462534 0
3.7330003 -1.1221647 0.67454422 0
3.7320004 -1.1278521 0.67446303 0
3.7310002 -1.1335357 0.67438185 0
3.7300003 -1.1392161 0.67430067 0
3.8510003 -0.71829373 0.67789745 0
3.8440003 -0.72314239 0.67734194 0
3.8390002 -0.72836262 0.67694509 0
3.8350003 -0.73376507 0.67662764 0
3.8310003 -0.73915303 0.67631012 0
3.8280003 -0.74473035 0.676072 0
3.8250003 -0.75029689 0.67583394 0
3.8220003 -0.7558527 0.67559582 0
3.8200002 -0.76160675 0.67543709 0
3.8180003 -0.76735377 0.67527837 0
3.8160002 -0.77309346 0.67511964 0
3.8140004 -0.77882594 0.67496085 0
3.8130002 -0.78476769 0.67488146 0
3.8120003 -0.79070586 0.67480212 0
3.8100002 -0.79642028 0.6746434 0
3.8160002 -0.80390251 0.67511964 0
3.8130002 -0.80939329 0.67488146 0
3.8110003 -0.81509876 0.67472279 0
3.8090003 -0.82079697 0.674564 0
3.8080003 -0.82671708 0.67448467 0
3.8080003 -0.83286446 0.67448467 0
3.8080003 -0.83901185 0.67448467 0
3.8100002 -0.8456282 0.6746434 0
3.8120003 -0.85225177 0.67480212 0
3.8160002 -0.85935879 0.67511964 0
3.8210003 -0.86672014 0.67551649 0
3.8320003 -0.87554979 0.67638946 0
3.8380003 -0.9080075 0.6768657 0
3.8210003 -0.90991592 0.67551649 0
3.8120003 -0.91379768 0.67480212 0
3.8050003 -0.91815937 0.67424655 0
3.7990003 -0.92275363 0.67377031 0
3.7950003 -0.92784578 0.67345285 0
3.7920003 -0.93318504 0.67321479 0
3.7890003 -0.93851352 0.67297673 0
3.7870002 -0.94409627 0.67281795 0
3.7860003 -0.94993883 0.67273855 0
3.7850003 -0.95577776 0.67265922 0
3.7850003 -0.96188366 0.67265922 0
3.7860003 -0.9682619 0.67273855 0
3.7880003 -0.97491795 0.67289734 0
3.7920003 -0.98213315 0.67321479 0
3.7970002 -0.98964059 0.67361164 0
3.8060002 -0.9982844 0.67432594 0
3.7350004 -1.1047633 0.6686908 0
3.7350004 -1.110779 0.6686908 0
3.7340002 -1.1164736 0.66861147 0
3.7330003 -1.1221647 0.66853213 0
3.7320004 -1.1278521 0.66845274 0
3.7310002 -1.1335357 0.66837335 0
3.7300003 -1.1392161 0.66829395 0
3.8550003 -0.70660865 0.67198277 0
3.8480003 -0.71148986 0.67143983 0
3.8420002 -0.71654046 0.67097449 0
3.8370004 -0.72176611 0.67058665 0
3.8340003 -0.72737056 0.67035401 0
3.8300002 -0.73276389 0.67004371 0
3.8270001 -0.73834485 0.66981101 0
3.8250003 -0.74411887 0.66965592 0
3.8220003 -0.74968004 0.66942322 0
3.8200002 -0.75543779 0.66926801 0
3.8180003 -0.76118833 0.66911292 0
3.8160002 -0.76693165 0.66895783 0
3.8150003 -0.77288061 0.66888022 0
3.8140004 -0.77882594 0.66880268 0
3.8120003 -0.78455126 0.66864753 0
3.8120003 -0.79070586 0.66864753 0
3.8110003 -0.7966404 0.66856998 0
3.8100002 -0.8025713 0.66849244 0
3.8150003 -0.80984062 0.66888022 0
3.8130002 -0.81554967 0.66872513 0
3.8110003 -0.82125157 0.66856998 0
3.8100002 -0.8271752 0.66849244 0
3.8100002 -0.83332622 0.66849244 0
3.8110003 -0.83970994 0.66856998 0
3.8120003 -0.84609717 0.66864753 0
3.8150003 -0.85296065 0.66888022 0
3.8190002 -0.86007309 0.66919053 0
3.8270001 -0.86815953 0.66981101 0
3.8380003 -0.9080075 0.67066419 0
3.8210003 -0.90991592 0.66934562 0
3.8120003 -0.91379768 0.66864753 0
3.8050003 -0.91815937 0.66810459 0
3.7990003 -0.92275363 0.66763926 0
3.7950003 -0.92784578 0.66732895 0
3.7920003 -0.93318504 0.66709626 0
3.7890003 -0.93851352 0.66686356 0
3.7870002 -0.94409627 0.66670847 0
3.7860003 -0.94993883 0.66663086 0
3.7850003 -0.95577776 0.66655332 0
3.7850003 -0.96188366 0.66655332 0
3.7860003 -0.9682619 0.66663086 0
3.7880003 -0.97491795 0.66678602 0
3.7920003 -0.98213315 0.66709626 0
3.7970002 -0.98964059 0.66748405 0
3.8060002 -0.9982844 0.66818213 0
3.7350004 -1.1047633 0.66267514 0
3.7350004 -1.110779 0.66267514 0
3.7340002 -1.1164736 0.66259754 0
3.7330003 -1.1221647 0.66251999 0
3.7320004 -1.1278521 0.66244245 0
3.7310002 -1.1335357 0.66236484 0
3.7300003 -1.1392161 0.66228729 0
3.8590002 -0.69489479 0.66605365 0
3.8510003 -0.69961894 0.66544759 0
3.8450003 -0.70469666 0.66499305 0
3.8400002 -0.70994574 0.6646142 0
3.8360002 -0.71537161 0.66431117 0
3.8330002 -0.72097963 0.6640839 0
3.8300002 -0.72657686 0.66385663 0
3.8270001 -0.73216319 0.66362935 0
3.8240004 -0.73773885 0.66340208 0
3.8220003 -0.74350739 0.66325057 0
3.8200002 -0.74926871 0.66309905 0
3.8180003 -0.75502294 0.66294754 0
3.8170002 -0.76097906 0.66287172 0
3.8160002 -0.76693165 0.66279602 0
3.8140004 -0.77266777 0.66264451 0
3.8130002 -0.7786113 0.66256869 0
3.8130002 -0.78476769 0.66256869 0
3.8120003 -0.79070586 0.66249293 0
3.8120003 -0.7968604 0.66249293 0
3.8120003 -0.80301505 0.66249293 0
3.8190002 -0.81073534 0.66302323 0
3.8160002 -0.81622612 0.66279602 0
3.8140004 -0.82193339 0.66264451 0
3.8130002 -0.8278625 0.66256869 0
3.8130002 -0.83401889 0.66256869 0
3.8140004 -0.84040803 0.66264451 0
3.8160002 -0.84703517 0.66279602 0
3.8190002 -0.85390586 0.66302323 0
3.8250003 -0.86150175 0.66347784 0
3.8360002 -0.87031871 0.66431117 0
3.8380003 -0.9080075 0.66446269 0
3.8210003 -0.90991592 0.66317475 0
3.8120003 -0.91379768 0.66249293 0
3.8050003 -0.91815937 0.66196263 0
3.7990003 -0.92275363 0.66150808 0
3.7950003 -0.92784578 0.66120505 0
3.7920003 -0.93318504 0.66097772 0
3.7890003 -0.93851352 0.66075051 0
3.7870002 -0.94409627 0.66059893 0
3.7860003 -0.94993883 0.66052318 0
3.7850003 -0.95577776 0.66044748 0
3.7850003 -0.96188366 0.66044748 0
3.7860003 -0.9682619 0.66052318 0
3.7880003 -0.97491795 0.66067469 0
3.7920003 -0.98213315 0.66097772 0
3.7970002 -0.98964059 0.66135657 0
3.8060002 -0.9982844 0.66203839 0
3.7350004 -1.1047633 0.65665942 0
3.7350004 -1.110779 0.65665942 0
3.7340002 -1.1164736 0.65658367 0
3.7330003 -1.1221647 0.65650791 0
3.7320004 -1.1278521 0.65643215 0
3.7310002 -1.1335357 0.65635639 0
3.7300003 -1.1392161 0.65628064 0
3.8550003 -0.68791223 0.65951848 0
3.8480003 -0.69283122 0.65900075 0
3.8430002 -0.69810373 0.65863097 0
3.8390002 -0.70354944 0.65833521 0
3.8350003 -0.70898068 0.65803933 0
3.8320003 -0.71459234 0.65781748 0
3.8290002 -0.72019315 0.65759563 0
3.8270001 -0.72598153 0.6574477 0
3.8240004 -0.73156261 0.65722585 0
3.8220003 -0.73733473 0.65707791 0
3.8210003 -0.7433036 0.657004 0
3.8190002 -0.74906313 0.65685606 0
3.8180003 -0.75502294 0.65678215 0
3.8160002 -0.76076984 0.65663421 0
3.8150003 -0.76672059 0.65656024 0
3.8150003 -0.77288061 0.65656024 0
3.8140004 -0.77882594 0.65648627 0
3.8130002 -0.78476769 0.6564123 0
3.8130002 -0.79092413 0.6564123 0
3.8130002 -0.79708052 0.6564123 0
3.8130002 -0.8032369 0.6564123 0
3.8140004 -0.80961698 0.65648627 0
3.8200002 -0.817128 0.65692997 0
3.8190002 -0.82306975 0.65685606 0
3.8180003 -0.82900792 0.65678215 0
3.8180003 -0.83517331 0.65678215 0
3.8190002 -0.84157145 0.65685606 0
3.8210003 -0.84820765 0.657004 0
3.8250003 -0.85532367 0.65729976 0
3.8330002 -0.86340648 0.65789139 0
3.8380003 -0.9080075 0.65826118 0
3.8210003 -0.90991592 0.657004 0
3.8120003 -0.91379768 0.65633833 0
3.8050003 -0.91815937 0.65582067 0
3.7990003 -0.92275363 0.65537691 0
3.7950003 -0.92784578 0.65508109 0
3.7920003 -0.93318504 0.65485924 0
3.7890003 -0.93851352 0.65463734 0
3.7870002 -0.94409627 0.65448946 0
3.7860003 -0.94993883 0.65441549 0
3.7850003 -0.95577776 0.65434158 0
3.7850003 -0.96188366 0.65434158 0
3.7860003 -0.9682619 0.65441549 0
3.7880003 -0.97491795 0.65456343 0
3.7920003 -0.98213315 0.65485924 0
3.7970002 -0.98964059 0.65522897 0
3.8060002 -0.9982844 0.65589464 0
3.7350004 -1.1047633 0.65064377 0
3.7350004 -1.110779 0.65064377 0
3.7340002 -1.1164736 0.6505698 0
3.7330003 -1.1221647 0.65049583 0
3.7320004 -1.1278521 0.65042186 0
3.7310002 -1.1335357 0.65034789 0
3.7300003 -1.1392161 0.65027398 0
3.8590002 -0.67617661 0.65357494 0
3.8510003 -0.68094409 0.65299773 0
3.8460002 -0.68624008 0.65263689 0
3.8420002 -0.69170564 0.65234834 0
3.8380003 -0.69715673 0.65205973 0
3.8350003 -0.7027846 0.65184325 0
3.8320003 -0.70840168 0.65162683 0
3.8290002 -0.71400785 0.65141034 0
3.8270001 -0.71979994 0.65126604 0
3.8250003 -0.72558481 0.65112174 0
3.8230002 -0.73136234 0.65097743 0
3.8210003 -0.73713279 0.65083313 0
3.8200002 -0.74309975 0.65076101 0
3.8180003 -0.7488575 0.65061665 0
3.8170002 -0.75481546 0.65054452 0
3.8160002 -0.76076984 0.65047234 0
3.8160002 -0.76693165 0.65047234 0
3.8150003 -0.77288061 0.65040022 0
3.8150003 -0.77904058 0.65040022 0
3.8150003 -0.7852006 0.65040022 0
3.8150003 -0.79136062 0.65040022 0
3.8150003 -0.79752064 0.65040022 0
3.8160002 -0.80390251 0.65047234 0
3.8160002 -0.81006432 0.65047234 0
3.8260002 -0.81848085 0.65119392 0
3.8240004 -0.82420623 0.65104961 0
3.8230002 -0.83015329 0.65097743 0
3.8240004 -0.83655864 0.65104961 0
3.8250003 -0.84296757 0.65112174 0
3.8290002 -0.85008359 0.65141034 0
3.8210003 -0.90991592 0.65083313 0
3.8120003 -0.91379768 0.6501838 0
3.8050003 -0.91815937 0.64967871 0
3.7990003 -0.92275363 0.6492458 0
3.7950003 -0.92784578 0.64895713 0
3.7920003 -0.93318504 0.64874071 0
3.7890003 -0.93851352 0.64852428 0
3.7870002 -0.94409627 0.64837998 0
3.7860003 -0.94993883 0.6483078 0
3.7850003 -0.95577776 0.64823568 0
3.7850003 -0.96188366 0.64823568 0
3.7860003 -0.9682619 0.6483078 0
3.7880003 -0.97491795 0.6484521 0
3.7920003 -0.98213315 0.64874071 0
3.7970002 -0.98964059 0.6491015 0
3.8060002 -0.9982844 0.64975083 0
3.7350004 -1.1047633 0.64462805 0
3.7350004 -1.110779 0.64462805 0
3.7340002 -1.1164736 0.64455587 0
3.7330003 -1.1221647 0.64448375 0
3.7320004 -1.1278521 0.64441156 0
3.7310002 -1.1335357 0.64433944 0
3.7300003 -1.1392161 0.64426726 0
3.8620002 -0.66423362 0.64754659 0
3.8550003 -0.6692158 0.6470542 0
3.8490002 -0.67435479 0.64663208 0
3.8450003 -0.67984015 0.64635068 0
3.8410003 -0.68531114 0.64606929 0
3.8370004 -0.69076765 0.64578789 0
3.8340003 -0.69639915 0.64557683 0
3.8310003 -0.70201981 0.64536577 0
3.8290002 -0.70782268 0.64522511 0
3.8270001 -0.71361828 0.64508438 0
3.8250003 -0.71940672 0.64494371 0
3.8230002 -0.7251879 0.64480299 0
3.8220003 -0.73116213 0.64473265 0
3.8200002 -0.73693067 0.64459193 0
3.8190002 -0.7428959 0.64452159 0
3.8180003 -0.7488575 0.64445126 0
3.8180003 -0.75502294 0.64445126 0
3.8170002 -0.76097906 0.64438093 0
3.8170002 -0.76714265 0.64438093 0
3.8170002 -0.77330625 0.64438093 0
3.8160002 -0.77925527 0.64431053 0
3.8170002 -0.7856335 0.64438093 0
3.8170002 -0.7917971 0.64438093 0
3.8180003 -0.79818082 0.64445126 0
3.8190002 -0.80456811 0.64452159 0
3.8200002 -0.81095898 0.64459193 0
3.8220003 -0.81757897 0.64473265 0
3.8320003 -0.82602435 0.64543617 0
3.8320003 -0.83221507 0.64543617 0
3.8330002 -0.83863664 0.6455065 0
3.8360002 -0.84552717 0.6457175 0
3.8210003 -0.90991592 0.64466232 0
3.8120003 -0.91379768 0.64402914 0
3.8050003 -0.91815937 0.64353675 0
3.7990003 -0.92275363 0.64311463 0
3.7950003 -0.92784578 0.64283323 0
3.7920003 -0.93318504 0.64262223 0
3.7890003 -0.93851352 0.64241117 0
3.7870002 -0.94409627 0.64227045 0
3.7860003 -0.94993883 0.64220011 0
3.7850003 -0.95577776 0.64212978 0
3.7850003 -0.96188366 0.64212978 0
3.7860003 -0.9682619 0.64220011 0
3.7880003 -0.97491795 0.64234078 0
3.7920003 -0.98213315 0.64262223 0
3.7970002 -0.98964059 0.6429739 0
3.8060002 -0.9982844 0.64360708 0
3.7350004 -1.1047633 0.63861239 0
3.7350004 -1.110779 0.63861239 0
3.7340002 -1.1164736 0.63854194 0
3.7330003 -1.1221647 0.6384716 0
3.7320004 -1.1278521 0.63840127 0
3.7310002 -1.1335357 0.63833094 0
3.7300003 -1.1392161 0.6382606 0
3.8590002 -0.65745854 0.64109617 0
3.8520002 -0.66244787 0.64061636 0
3.8480003 -0.66795307 0.64034218 0
3.8430002 -0.6732617 0.63999945 0
3.8400002 -0.67892021 0.63979381 0
3.8370004 -0.68456799 0.63958824 0
3.8340003 -0.69020486 0.63938254 0
3.8310003 -0.695831 0.63917691 0
3.8290002 -0.70163745 0.63903981 0
3.8270001 -0.70743662 0.63890272 0
3.8250003 -0.7132287 0.63876569 0
3.8240004 -0.71921015 0.63869715 0
3.8220003 -0.72498947 0.63856006 0
3.8210003 -0.73096192 0.63849151 0
3.8200002 -0.73693067 0.63842297 0
3.8190002 -0.7428959 0.63835442 0
3.8190002 -0.74906313 0.63835442 0
3.8180003 -0.75502294 0.63828582 0
3.8180003 -0.76118833 0.63828582 0
3.8180003 -0.76735377 0.63828582 0
3.8180003 -0.77351916 0.63828582 0
3.8190002 -0.77989924 0.63835442 0
3.8190002 -0.78606647 0.63835442 0
3.8200002 -0.79245192 0.63842297 0
3.8220003 -0.79906106 0.63856006 0
3.8230002 -0.80545557 0.63862854 0
3.8260002 -0.81230098 0.63883418 0
3.8280003 -0.81893188 0.63897133 0
3.8210003 -0.90991592 0.63849151 0
3.8120003 -0.91379768 0.6378746 0
3.8050003 -0.91815937 0.63739479 0
3.7990003 -0.92275363 0.63698351 0
3.7950003 -0.92784578 0.63670933 0
3.7920003 -0.93318504 0.6365037 0
3.7890003 -0.93851352 0.63629806 0
3.7870002 -0.94409627 0.63616097 0
3.7860003 -0.94993883 0.63609242 0
3.7850003 -0.95577776 0.63602388 0
3.7850003 -0.96188366 0.63602388 0
3.7860003 -0.9682619 0.63609242 0
3.7880003 -0.97491795 0.63622952 0
3.7920003 -0.98213315 0.6365037 0
3.7970002 -0.98964059 0.63684642 0
3.8060002 -0.9982844 0.63746333 0
3.7350004 -1.1047633 0.63259661 0
3.7350004 -1.110779 0.63259661 0
3.7340002 -1.1164736 0.63252807 0
3.7330003 -1.1221647 0.63245952 0
3.7320004 -1.1278521 0.63239098 0
3.7310002 -1.1335357 0.63232243 0
3.7300003 -1.1392161 0.63225389 0
3.8610003 -0.62659717 0.63499027 0
3.8590002 -0.63250101 0.63485682 0
3.8590002 -0.63874042 0.63485682 0
3.8600004 -0.64515299 0.63492358 0
3.8560002 -0.65069419 0.63465655 0
3.8510003 -0.65604436 0.63432288 0
3.8460002 -0.66137642 0.63398916 0
3.8420002 -0.66687077 0.63372219 0
3.8390002 -0.67253298 0.63352197 0
3.8360002 -0.67818427 0.63332176 0
3.8340003 -0.68401062 0.63318825 0
3.8310003 -0.68964213 0.6329881 0
3.8290002 -0.69545215 0.63285458 0
3.8270001 -0.70125496 0.63272107 0
3.8260002 -0.70724362 0.63265431 0
3.8240004 -0.71303385 0.63252091 0
3.8230002 -0.71901351 0.63245416 0
3.8220003 -0.72498947 0.6323874 0
3.8210003 -0.73096192 0.63232064 0
3.8210003 -0.73713279 0.63232064 0
3.8200002 -0.74309975 0.63225389 0
3.8200002 -0.74926871 0.63225389 0
3.8200002 -0.75543779 0.63225389 0
3.8200002 -0.76160675 0.63225389 0
3.8200002 -0.76777583 0.63225389 0
3.8210003 -0.77415776 0.63232064 0
3.8220003 -0.78054321 0.6323874 0
3.8230002 -0.78693223 0.63245416 0
3.8250003 -0.79354322 0.63258761 0
3.8270001 -0.80016136 0.63272107 0
3.8290002 -0.80678684 0.63285458 0
3.8330002 -0.81386673 0.63312155 0
3.8370004 -0.82096112 0.63338852 0
3.8210003 -0.90991592 0.63232064 0
3.8120003 -0.91379768 0.63171995 0
3.8050003 -0.91815937 0.63125277 0
3.7990003 -0.92275363 0.63085234 0
3.7950003 -0.92784578 0.63058537 0
3.7920003 -0.93318504 0.63038516 0
3.7890003 -0.93851352 0.63018495 0
3.7870002 -0.94409627 0.63005143 0
3.7860003 -0.94993883 0.62998474 0
3.7850003 -0.95577776 0.62991798 0
3.7850003 -0.96188366 0.62991798 0
3.7860003 -0.9682619 0.62998474 0
3.7880003 -0.97491795 0.63011819 0
3.7920003 -0.98213315 0.63038516 0
3.7970002 -0.98964059 0.63071883 0
3.8060002 -0.9982844 0.63131952 0
3.7350004 -1.1047633 0.62658095 0
3.7350004 -1.110779 0.62658095 0
3.7340002 -1.1164736 0.6265142 0
3.7330003 -1.1221647 0.62644744 0
3.7320004 -1.1278521 0.62638068 0
3.7310002 -1.1335357 0.62631392 0
3.7300003 -1.1392161 0.62624723 0
3.8620002 -0.60803056 0.62881225 0
3.8560002 -0.61329043 0.62842262 0
3.8520002 -0.61886066 0.62816286 0
3.8490002 -0.62458414 0.62796807 0
3.8480003 -0.63063592 0.6279031 0
3.8470004 -0.63668406 0.62783819 0
3.8480003 -0.64307499 0.6279031 0
3.8490002 -0.64946944 0.62796807 0
3.8450003 -0.6549837 0.62770832 0
3.8420002 -0.66066211 0.62751353 0
3.8390002 -0.66632968 0.62731868 0
3.8360002 -0.6719864 0.62712389 0
3.8330002 -0.67763233 0.62692904 0
3.8310003 -0.68345326 0.62679923 0
3.8300002 -0.68945444 0.62673426 0
3.8280003 -0.69526279 0.62660438 0
3.8260002 -0.70106375 0.6264745 0
3.8250003 -0.70705062 0.62640953 0
3.8240004 -0.71303385 0.62634462 0
3.8230002 -0.71901351 0.62627971 0
3.8220003 -0.72498947 0.62621474 0
3.8220003 -0.73116213 0.62621474 0
3.8220003 -0.73733473 0.62621474 0
3.8220003 -0.74350739 0.62621474 0
3.8210003 -0.74947441 0.62614983 0
3.8220003 -0.7558527 0.62621474 0
3.8220003 -0.7620253 0.62621474 0
3.8230002 -0.76840895 0.62627971 0
3.8240004 -0.77479631 0.62634462 0
3.8260002 -0.78140175 0.6264745 0
3.8280003 -0.78801453 0.62660438 0
3.8300002 -0.79463452 0.62673426 0
3.8330002 -0.80148178 0.62692904 0
3.8370004 -0.80856174 0.6271888 0
3.8440003 -0.81632715 0.62764335 0
3.8210003 -0.90991592 0.62614983 0
3.8120003 -0.91379768 0.62556541 0
3.8050003 -0.91815937 0.62511086 0
3.7990003 -0.92275363 0.62472117 0
3.7950003 -0.92784578 0.62446147 0
3.7920003 -0.93318504 0.62426662 0
3.7890003 -0.93851352 0.62407184 0
3.7870002 -0.94409627 0.62394196 0
3.7860003 -0.94993883 0.62387705 0
3.7850003 -0.95577776 0.62381208 0
3.7850003 -0.96188366 0.62381208 0
3.7860003 -0.9682619 0.62387705 0
3.7880003 -0.97491795 0.62400687 0
3.7920003 -0.98213315 0.62426662 0
3.7970002 -0.98964059 0.62459135 0
3.8060002 -0.9982844 0.62517577 0
3.7350004 -1.1047633 0.62056524 0
3.7350004 -1.110779 0.62056524 0
3.7340002 -1.1164736 0.62050027 0
3.7330003 -1.1221647 0.62043536 0
3.7320004 -1.1278521 0.62037045 0
3.7310002 -1.1335357 0.62030548 0
3.7300003 -1.1392161 0.62024057 0
3.8580003 -0.60114366 0.62231493 0
3.8520002 -0.60640717 0.62193614 0
3.8470004 -0.61181319 0.62162048 0
3.8440003 -0.61753303 0.62143105 0
3.8420002 -0.62340987 0.62130481 0
3.8400002 -0.62927943 0.62117851 0
3.8400002 -0.63548452 0.62117851 0
3.8400002 -0.6416896 0.62117851 0
3.8410003 -0.64806968 0.62124169 0
3.8410003 -0.65427661 0.62124169 0
3.8380003 -0.65994781 0.62105227 0
3.8360002 -0.66578847 0.62092602 0
3.8340003 -0.67162204 0.62079972 0
3.8320003 -0.67744833 0.62067342 0
3.8300002 -0.68326741 0.62054718 0
3.8280003 -0.68907928 0.62042093 0
3.8270001 -0.69507331 0.62035775 0
3.8260002 -0.70106375 0.62029469 0
3.8250003 -0.70705062 0.62023151 0
3.8240004 -0.71303385 0.62016839 0
3.8240004 -0.71921015 0.62016839 0
3.8230002 -0.7251879 0.62010527 0
3.8230002 -0.73136234 0.62010527 0
3.8230002 -0.73753679 0.62010527 0
3.8230002 -0.74371123 0.62010527 0
3.8240004 -0.75009131 0.62016839 0
3.8250003 -0.75647497 0.62023151 0
3.8260002 -0.76286227 0.62029469 0
3.8270001 -0.76925313 0.62035775 0
3.8290002 -0.77586049 0.62048405 0
3.8310003 -0.78247511 0.62061036 0
3.8340003 -0.78931332 0.62079972 0
3.8380003 -0.79638064 0.62105227 0
3.8440003 -0.80390251 0.62143105 0
3.8210003 -0.90991592 0.61997902 0
3.8120003 -0.91379768 0.61941081 0
3.8050003 -0.91815937 0.61896884 0
3.7990003 -0.92275363 0.61859006 0
3.7950003 -0.92784578 0.61833751 0
3.7920003 -0.93318504 0.61814815 0
3.7890003 -0.93851352 0.61795872 0
3.7870002 -0.94409627 0.61783248 0
3.7860003 -0.94993883 0.6177693 0
3.7850003 -0.95577776 0.61770618 0
3.7850003 -0.96188366 0.61770618 0
3.7860003 -0.9682619 0.6177693 0
3.7880003 -0.97491795 0.6178956 0
3.7920003 -0.98213315 0.61814815 0
3.7970002 -0.98964059 0.61846375 0
3.8060002 -0.9982844 0.61903203 0
3.7350004 -1.1047633 0.61454952 0
3.7350004 -1.110779 0.61454952 0
3.7340002 -1.1164736 0.6144864 0
3.7330003 -1.1221647 0.61442327 0
3.7320004 -1.1278521 0.61436015 0
3.7310002 -1.1335357 0.61429703 0
3.7300003 -1.1392161 0.61423385 0
3.8570004 -0.59474736 0.61601603 0
3.8500001 -0.59985936 0.6155867 0
3.8450003 -0.60527074 0.61528009 0
3.8410003 -0.61082828 0.61503476 0
3.8380003 -0.61653733 0.61485076 0
3.8360002 -0.62240332 0.61472809 0
3.8350003 -0.62843162 0.61466682 0
3.8340003 -0.63445634 0.61460543 0
3.8350003 -0.64082378 0.61466682 0
3.8350003 -0.64701986 0.61466682 0
3.8370004 -0.65356952 0.61478943 0
3.8360002 -0.6595906 0.61472809 0
3.8340003 -0.66542774 0.61460543 0
3.8320003 -0.67125767 0.61448276 0
3.8300002 -0.67708033 0.61436009 0
3.8290002 -0.68308163 0.61429882 0
3.8280003 -0.68907928 0.61423749 0
3.8270001 -0.69507331 0.61417615 0
3.8260002 -0.70106375 0.61411482 0
3.8260002 -0.70724362 0.61411482 0
3.8250003 -0.7132287 0.61405349 0
3.8250003 -0.71940672 0.61405349 0
3.8250003 -0.72558481 0.61405349 0
3.8250003 -0.73176283 0.61405349 0
3.8250003 -0.73794085 0.61405349 0
3.8260002 -0.74432266 0.61411482 0
3.8270001 -0.75070816 0.61417615 0
3.8280003 -0.7570973 0.61423749 0
3.8300002 -0.76369917 0.61436009 0
3.8320003 -0.77030838 0.61448276 0
3.8350003 -0.77713758 0.61466682 0
3.8390002 -0.78419232 0.61491209 0
3.8430002 -0.79126137 0.61515743 0
3.8210003 -0.90991592 0.61380816 0
3.8120003 -0.91379768 0.61325622 0
3.8050003 -0.91815937 0.61282688 0
3.7990003 -0.92275363 0.61245894 0
3.7950003 -0.92784578 0.61221361 0
3.7920003 -0.93318504 0.61202961 0
3.7890003 -0.93851352 0.61184561 0
3.7870002 -0.94409627 0.61172295 0
3.7860003 -0.94993883 0.61166167 0
3.7850003 -0.95577776 0.61160028 0
3.7850003 -0.96188366 0.61160028 0
3.7860003 -0.9682619 0.61166167 0
3.7880003 -0.97491795 0.61178428 0
3.7920003 -0.98213315 0.61202961 0
3.7970002 -0.98964059 0.61233628 0
3.8060002 -0.9982844 0.61288822 0
3.7350004 -1.1047633 0.60853386 0
3.7350004 -1.110779 0.60853386 0
3.7340002 -1.1164736 0.60847247 0
3.7330003 -1.1221647 0.60841119 0
3.7320004 -1.1278521 0.60834986 0
3.7310002 -1.1335357 0.60828853 0
3.7300003 -1.1392161 0.60822719 0
3.8580003 -0.58866847 0.6098398 0
3.8510003 -0.59379494 0.6094231 0
3.8450003 -0.5990566 0.60906595 0
3.8410003 -0.60462141 0.60882783 0
3.8370004 -0.61017174 0.60858977 0
3.8340003 -0.61587352 0.60841119 0
3.8320003 -0.62173229 0.6082921 0
3.8310003 -0.62775338 0.60823262 0
3.8300002 -0.63377088 0.60817307 0
3.8300002 -0.63995796 0.60817307 0
3.8310003 -0.64632004 0.60823262 0
3.8330002 -0.65286243 0.60835165 0
3.8340003 -0.65923351 0.60841119 0
3.8320003 -0.66506696 0.6082921 0
3.8310003 -0.67107552 0.60823262 0
3.8300002 -0.67708033 0.60817307 0
3.8290002 -0.68308163 0.60811353 0
3.8280003 -0.68907928 0.60805404 0
3.8270001 -0.69507331 0.6079945 0
3.8270001 -0.70125496 0.6079945 0
3.8270001 -0.70743662 0.6079945 0
3.8270001 -0.71361828 0.6079945 0
3.8260002 -0.71960336 0.60793495 0
3.8270001 -0.72598153 0.6079945 0
3.8280003 -0.73236346 0.60805404 0
3.8280003 -0.73854697 0.60805404 0
3.8300002 -0.74513799 0.60817307 0
3.8310003 -0.75153077 0.60823262 0
3.8330002 -0.75813448 0.60835165 0
3.8360002 -0.76495469 0.60853022 0
3.8390002 -0.77178568 0.6087088 0
3.8430002 -0.77884036 0.60894692 0
3.8210003 -0.90991592 0.60763735 0
3.8120003 -0.91379768 0.60710162 0
3.8050003 -0.91815937 0.60668492 0
3.7990003 -0.92275363 0.60632777 0
3.7950003 -0.92784578 0.60608965 0
3.7920003 -0.93318504 0.60591108 0
3.7890003 -0.93851352 0.6057325 0
3.7870002 -0.94409627 0.60561347 0
3.7860003 -0.94993883 0.60555393 0
3.7850003 -0.95577776 0.60549444 0
3.7850003 -0.96188366 0.60549444 0
3.7860003 -0.9682619 0.60555393 0
3.7880003 -0.97491795 0.60567302 0
3.7920003 -0.98213315 0.60591108 0
3.7970002 -0.98964059 0.60620874 0
3.8060002 -0.9982844 0.60674447 0
3.7350004 -1.1047633 0.60251814 0
3.7350004 -1.110779 0.60251814 0
3.7340002 -1.1164736 0.6024586 0
3.7330003 -1.1221647 0.60239911 0
3.7320004 -1.1278521 0.60233957 0
3.7310002 -1.1335357 0.60228002 0
3.7300003 -1.1392161 0.60222054 0
3.8620002 -0.58305144 0.60383308 0
3.8530002 -0.58788383 0.60331362 0
3.8470004 -0.59316003 0.60296726 0
3.8410003 -0.59841448 0.60262096 0
3.8370004 -0.60397202 0.60239005 0
3.8340003 -0.60967928 0.6022169 0
3.8310003 -0.61537564 0.60204375 0
3.8290002 -0.62122899 0.60192829 0
3.8280003 -0.62724477 0.60187054 0
3.8270001 -0.63325679 0.60181284 0
3.8270001 -0.63943845 0.60181284 0
3.8280003 -0.64579511 0.60187054 0
3.8290002 -0.65215534 0.60192829 0
3.8310003 -0.65869778 0.60204375 0
3.8320003 -0.66506696 0.60210145 0
3.8310003 -0.67107552 0.60204375 0
3.8300002 -0.67708033 0.60198599 0
3.8290002 -0.68308163 0.60192829 0
3.8290002 -0.68926692 0.60192829 0
3.8280003 -0.69526279 0.60187054 0
3.8280003 -0.70144618 0.60187054 0
3.8280003 -0.70762968 0.60187054 0
3.8280003 -0.71381313 0.60187054 0
3.8290002 -0.72019315 0.60192829 0
3.8300002 -0.72657686 0.60198599 0
3.8310003 -0.73296416 0.60204375 0
3.8320003 -0.73935503 0.60210145 0
3.8340003 -0.74595338 0.6022169 0
3.8370004 -0.75276452 0.60239005 0
3.8400002 -0.75958651 0.6025632 0
3.8440003 -0.76662862 0.60279411 0
3.8510003 -0.77431828 0.60319817 0
3.8210003 -0.90991592 0.60146654 0
3.8120003 -0.91379768 0.60094702 0
3.8050003 -0.91815937 0.60054296 0
3.7990003 -0.92275363 0.6001966 0
3.7950003 -0.92784578 0.59996575 0
3.7920003 -0.93318504 0.5997926 0
3.7890003 -0.93851352 0.59961939 0
3.7870002 -0.94409627 0.59950399 0
3.7860003 -0.94993883 0.59944624 0
3.7850003 -0.95577776 0.59938854 0
3.7850003 -0.96188366 0.59938854 0
3.7860003 -0.9682619 0.59944624 0
3.7880003 -0.97491795 0.59956169 0
3.7920003 -0.98213315 0.5997926 0
3.7970002 -0.98964059 0.60008121 0
3.8060002 -0.9982844 0.60060066 0
3.7350004 -1.1047633 0.59650242 0
3.7350004 -1.110779 0.59650242 0
3.7340002 -1.1164736 0.59644473 0
3.7330003 -1.1221647 0.59638697 0
3.7320004 -1.1278521 0.59632927 0
3.7310002 -1.1335357 0.59627151 0
3.7300003 -1.1392161 0.59621382 0
3.8700004 -0.57803327 0.59803569 0
3.8580003 -0.5824309 0.59736466 0
3.8500001 -0.58741301 0.59691727 0
3.8430002 -0.59252501 0.59652591 0
3.8380003 -0.59793288 0.5962463 0
3.8340003 -0.60348499 0.59602261 0
3.8310003 -0.60918683 0.59585488 0
3.8290002 -0.61504376 0.595743 0
3.8270001 -0.62089348 0.59563118 0
3.8250003 -0.62673604 0.59551936 0
3.8250003 -0.63291413 0.59551936 0
3.8250003 -0.63909215 0.59551936 0
3.8250003 -0.64527017 0.59551936 0
3.8270001 -0.65180176 0.59563118 0
3.8290002 -0.65834057 0.595743 0
3.8320003 -0.66506696 0.59591079 0
3.8310003 -0.67107552 0.59585488 0
3.8300002 -0.67708033 0.59579897 0
3.8300002 -0.68326741 0.59579897 0
3.8300002 -0.68945444 0.59579897 0
3.8300002 -0.69564152 0.59579897 0
3.8300002 -0.7018286 0.59579897 0
3.8310003 -0.70820868 0.59585488 0
3.8310003 -0.71439755 0.59585488 0
3.8320003 -0.720783 0.59591079 0
3.8340003 -0.72737056 0.59602261 0
3.8350003 -0.73376507 0.59607852 0
3.8380003 -0.74056721 0.5962463 0
3.8400002 -0.74717629 0.59635812 0
3.8450003 -0.75440961 0.59663773 0
3.8500001 -0.76166087 0.59691727 0
3.8210003 -0.90991592 0.59529567 0
3.8120003 -0.91379768 0.59479243 0
3.8050003 -0.91815937 0.594401 0
3.7990003 -0.92275363 0.59406549 0
3.7950003 -0.92784578 0.59384179 0
3.7920003 -0.93318504 0.59367406 0
3.7890003 -0.93851352 0.59350634 0
3.7870002 -0.94409627 0.59339446 0
3.7860003 -0.94993883 0.59333855 0
3.7850003 -0.95577776 0.59328264 0
3.7850003 -0.96188366 0.59328264 0
3.7860003 -0.9682619 0.59333855 0
3.7880003 -0.97491795 0.59345037 0
3.7920003 -0.98213315 0.59367406 0
3.7970002 -0.98964059 0.59395361 0
3.8060002 -0.9982844 0.59445691 0
3.7350004 -1.1047633 0.59048676 0
3.7350004 -1.110779 0.59048676 0
3.7340002 -1.1164736 0.5904308 0
3.7330003 -1.1221647 0.59037489 0
3.7320004 -1.1278521 0.59031898 0
3.7310002 -1.1335357 0.59026307 0
3.7300003 -1.1392161 0.5902071 0
3.8650002 -0.57726663 0.59150589 0
3.8550003 -0.58196551 0.59096473 0
3.8470004 -0.58694232 0.59053183 0
3.8410003 -0.59220755 0.5902071 0
3.8370004 -0.59777236 0.58999068 0
3.8330002 -0.60332263 0.58977425 0
3.8300002 -0.60902268 0.58961189 0
3.8270001 -0.61471182 0.58944952 0
3.8250003 -0.62055802 0.58934128 0
3.8240004 -0.62656653 0.58928722 0
3.8230002 -0.63257134 0.58923304 0
3.8230002 -0.63874578 0.58923304 0
3.8240004 -0.64509523 0.58928722 0
3.8250003 -0.65144825 0.58934128 0
3.8270001 -0.65798342 0.58944952 0
3.8300002 -0.66470617 0.58961189 0
3.8320003 -0.67125767 0.58972013 0
3.8320003 -0.67744833 0.58972013 0
3.8320003 -0.68363899 0.58972013 0
3.8320003 -0.68982965 0.58972013 0
3.8320003 -0.69602036 0.58972013 0
3.8330002 -0.70240217 0.58977425 0
3.8340003 -0.70878768 0.58982837 0
3.8350003 -0.71517676 0.58988243 0
3.8360002 -0.72156948 0.58993655 0
3.8390002 -0.72836262 0.59009892 0
3.8410003 -0.73496634 0.5902071 0
3.8450003 -0.74198139 0.59042358 0
3.8500001 -0.74921465 0.59069419 0
3.8210003 -0.90991592 0.58912486 0
3.8120003 -0.91379768 0.58863783 0
3.8050003 -0.91815937 0.58825904 0
3.7990003 -0.92275363 0.58793432 0
3.7950003 -0.92784578 0.58771789 0
3.7920003 -0.93318504 0.58755553 0
3.7890003 -0.93851352 0.58739316 0
3.7870002 -0.94409627 0.58728498 0
3.7860003 -0.94993883 0.58723086 0
3.7850003 -0.95577776 0.58717674 0
3.7850003 -0.96188366 0.58717674 0
3.7860003 -0.9682619 0.58723086 0
3.7880003 -0.97491795 0.5873391 0
3.7920003 -0.98213315 0.58755553 0
3.7970002 -0.98964059 0.58782613 0
3.8060002 -0.9982844 0.58831316 0
3.7350004 -1.1047633 0.58447105 0
3.7350004 -1.110779 0.58447105 0
3.7340002 -1.1164736 0.58441693 0
3.7330003 -1.1221647 0.5843628 0
3.7320004 -1.1278521 0.58430868 0
3.7310002 -1.1335357 0.58425456 0
3.7300003 -1.1392161 0.58420044 0
3.8630002 -0.57695997 0.58515108 0
3.8530002 -0.58165526 0.58462799 0
3.8460002 -0.58678532 0.58426178 0
3.8400002 -0.59204882 0.5839479 0
3.8350003 -0.59745127 0.58368635 0
3.8320003 -0.60316026 0.58352947 0
3.8290002 -0.60885853 0.58337247 0
3.8260002 -0.61454594 0.58321559 0
3.8240004 -0.6203903 0.58311093 0
3.8230002 -0.62639695 0.58305866 0
3.8220003 -0.63240004 0.58300632 0
3.8220003 -0.63857269 0.58300632 0
3.8230002 -0.64492023 0.58305866 0
3.8240004 -0.65127152 0.58311093 0
3.8260002 -0.65780485 0.58321559 0
3.8290002 -0.66452587 0.58337247 0
3.8330002 -0.67143983 0.58358175 0
3.8330002 -0.67763233 0.58358175 0
3.8340003 -0.68401062 0.58363408 0
3.8340003 -0.69020486 0.58363408 0
3.8350003 -0.69658852 0.58368635 0
3.8360002 -0.70297581 0.58373868 0
3.8380003 -0.70955974 0.58384329 0
3.8400002 -0.71615082 0.5839479 0
3.8420002 -0.72274917 0.58405256 0
3.8460002 -0.72975153 0.58426178 0
3.8500001 -0.73676836 0.58447105 0
3.8210003 -0.90991592 0.58295405 0
3.8120003 -0.91379768 0.58248323 0
3.8050003 -0.91815937 0.58211708 0
3.7990003 -0.92275363 0.5818032 0
3.7950003 -0.92784578 0.58159399 0
3.7920003 -0.93318504 0.58143699 0
3.7890003 -0.93851352 0.58128011 0
3.7870002 -0.94409627 0.58117545 0
3.7860003 -0.94993883 0.58112317 0
3.7850003 -0.95577776 0.58107084 0
3.7850003 -0.96188366 0.58107084 0
3.7860003 -0.9682619 0.58112317 0
3.7880003 -0.97491795 0.58122778 0
3.7920003 -0.98213315 0.58143699 0
3.7970002 -0.98964059 0.58169854 0
3.8060002 -0.9982844 0.58216935 0
3.7350004 -1.1047633 0.57845533 0
3.7350004 -1.110779 0.57845533 0
3.7340002 -1.1164736 0.578403 0
3.7330003 -1.1221647 0.57835072 0
3.7320004 -1.1278521 0.57829839 0
3.7310002 -1.1335357 0.57824606 0
3.7300003 -1.1392161 0.57819378 0
3.8620002 -0.57680666 0.57885396 0
3.8520002 -0.58150017 0.57834888 0
3.8450003 -0.58662844 0.57799536 0
3.8400002 -0.59204882 0.57774282 0
3.8350003 -0.59745127 0.57749033 0
3.8310003 -0.60299796 0.57728827 0
3.8280003 -0.60869437 0.57713675 0
3.8260002 -0.61454594 0.57703573 0
3.8240004 -0.6203903 0.5769347 0
3.8230002 -0.62639695 0.57688421 0
3.8220003 -0.63240004 0.57683372 0
3.8220003 -0.63857269 0.57683372 0
3.8220003 -0.64474529 0.57683372 0
3.8240004 -0.65127152 0.5769347 0
3.8250003 -0.65762627 0.57698524 0
3.8280003 -0.66434544 0.57713675 0
3.8320003 -0.67125767 0.57733876 0
3.8360002 -0.67818427 0.57754076 0
3.8360002 -0.6843822 0.57754076 0
3.8380003 -0.69095528 0.57764184 0
3.8390002 -0.69734609 0.57769233 0
3.8410003 -0.70393187 0.57779336 0
3.8430002 -0.71052474 0.57789433 0
3.8460002 -0.71731967 0.57804585 0
3.8510003 -0.72451872 0.57829839 0
3.8570004 -0.73193419 0.57860142 0
3.8210003 -0.90991592 0.57678318 0
3.8120003 -0.91379768 0.57632864 0
3.8050003 -0.91815937 0.57597506 0
3.7990003 -0.92275363 0.57567203 0
3.7950003 -0.92784578 0.57547003 0
3.7920003 -0.93318504 0.57531852 0
3.7890003 -0.93851352 0.575167 0
3.7870002 -0.94409627 0.57506597 0
3.7860003 -0.94993883 0.57501549 0
3.7850003 -0.95577776 0.57496494 0
3.7850003 -0.96188366 0.57496494 0
3.7860003 -0.9682619 0.57501549 0
3.7880003 -0.97491795 0.57511652 0
3.7920003 -0.98213315 0.57531852 0
3.7970002 -0.98964059 0.57557106 0
3.8060002 -0.9982844 0.57602561 0
3.7350004 -1.1047633 0.57243961 0
3.7350004 -1.110779 0.57243961 0
3.7340002 -1.1164736 0.57238913 0
3.7330003 -1.1221647 0.57233858 0
3.7320004 -1.1278521 0.5722881 0
3.7310002 -1.1335357 0.57223761 0
3.7300003 -1.1392161 0.57218707 0
3.8620002 -0.57680666 0.57260919 0
3.8530002 -0.58165526 0.57217085 0
3.8460002 -0.58678532 0.57182992 0
3.8400002 -0.59204882 0.57153773 0
3.8350003 -0.59745127 0.57129419 0
3.8310003 -0.60299796 0.5710994 0
3.8280003 -0.60869437 0.57095331 0
3.8260002 -0.61454594 0.57085586 0
3.8240004 -0.6203903 0.57075846 0
3.8230002 -0.62639695 0.57070976 0
3.8220003 -0.63240004 0.57066107 0
3.8220003 -0.63857269 0.57066107 0
3.8230002 -0.64492023 0.57070976 0
3.8240004 -0.65127152 0.57075846 0
3.8260002 -0.65780485 0.57085586 0
3.8290002 -0.66452587 0.57100201 0
3.8320003 -0.67125767 0.5711481 0
3.8380003 -0.67855227 0.57144034 0
3.8400002 -0.68512529 0.57153773 0
3.8420002 -0.69170564 0.57163513 0
3.8440003 -0.69829315 0.57173252 0
3.8470004 -0.70507908 0.57187867 0
3.8510003 -0.7120688 0.57207346 0
3.8570004 -0.71946263 0.57236564 0
3.8210003 -0.90991592 0.57061237 0
3.8120003 -0.91379768 0.57017404 0
3.8050003 -0.91815937 0.56983316 0
3.7990003 -0.92275363 0.56954092 0
3.7950003 -0.92784578 0.56934607 0
3.7920003 -0.93318504 0.56919998 0
3.7890003 -0.93851352 0.56905389 0
3.7870002 -0.94409627 0.56895649 0
3.7860003 -0.94993883 0.56890774 0
3.7850003 -0.95577776 0.5688591 0
3.7850003 -0.96188366 0.5688591 0
3.7860003 -0.9682619 0.56890774 0
3.7880003 -0.97491795 0.56900519 0
3.7920003 -0.98213315 0.56919998 0
3.7970002 -0.98964059 0.56944346 0
3.8060002 -0.9982844 0.5698818 0
3.7350004 -1.1047633 0.56642389 0
3.7350004 -1.110779 0.56642389 0
3.7340002 -1.1164736 0.56637526 0
3.7330003 -1.1221647 0.5663265 0
3.7320004 -1.1278521 0.5662778 0
3.7310002 -1.1335357 0.5662291 0
3.7300003 -1.1392161 0.56618041 0
3.8630002 -0.57695997 0.56641132 0
3.8540003 -0.58181041 0.5659892 0
3.8470004 -0.58694232 0.56566095 0
3.8410003 -0.59220755 0.5653795 0
3.8360002 -0.59761178 0.56514502 0
3.8320003 -0.60316026 0.56495744 0
3.8290002 -0.60885853 0.56481671 0
3.8270001 -0.61471182 0.56472296 0
3.8250003 -0.62055802 0.56462914 0
3.8240004 -0.62656653 0.56458223 0
3.8230002 -0.63257134 0.56453532 0
3.8230002 -0.63874578 0.56453532 0
3.8240004 -0.64509523 0.56458223 0
3.8250003 -0.65144825 0.56462914 0
3.8270001 -0.65798342 0.56472296 0
3.8300002 -0.66470617 0.56486362 0
3.8330002 -0.67143983 0.56500435 0
3.8390002 -0.67873627 0.56528568 0
3.8450003 -0.68605429 0.56556714 0
3.8480003 -0.69283122 0.5657078 0
3.8520002 -0.69980836 0.56589544 0
3.8560002 -0.70679986 0.56608301 0
3.8210003 -0.90991592 0.56444156 0
3.8120003 -0.91379768 0.56401944 0
3.8050003 -0.91815937 0.56369114 0
3.7990003 -0.92275363 0.56340981 0
3.7950003 -0.92784578 0.56322217 0
3.7920003 -0.93318504 0.56308144 0
3.7890003 -0.93851352 0.56294078 0
3.7870002 -0.94409627 0.56284696 0
3.7860003 -0.94993883 0.56280005 0
3.7850003 -0.95577776 0.5627532 0
3.7850003 -0.96188366 0.5627532 0
3.7860003 -0.9682619 0.56280005 0
3.7880003 -0.97491795 0.56289387 0
3.7920003 -0.98213315 0.56308144 0
3.7970002 -0.98964059 0.56331599 0
3.8060002 -0.9982844 0.56373805 0
3.7350004 -1.1047633 0.56040823 0
