# .PCD v0.7 - Point Cloud Data file format
VERSION 0.7
FIELDS x y z intensity
SIZE 4 4 4 4
TYPE F F F F
COUNT 1 1 1 1
WIDTH 1417
HEIGHT 1
VIEWPOINT 0 0 0 1 0 0 0
POINTS 1417
DATA ascii
3.6570003 -1.8555011 1.0032504 0
3.6540003 -1.859704 1.0026984 0
3.6520002 -1.8644552 1.0023304 0
3.6500003 -1.8691992 1.0019624 0
3.6480002 -1.8739359 1.0015944 0
3.6460001 -1.8786654 1.0012264 0
3.6440003 -1.883388 1.0008585 0
3.6430004 -1.8886714 1.0006746 0
3.6420002 -1.8939511 1.0004905 0
3.6410003 -1.8992273 1.0003066 0
3.6400003 -1.9044998 1.0001225 0
3.6400003 -1.910344 1.0001225 0
3.7550004 -1.8010153 1.0152295 0
3.7450004 -1.801818 1.0134076 0
3.7360003 -1.8031113 1.011768 0
3.7280002 -1.8049005 1.0103105 0
3.7210002 -1.8071914 1.0090352 0
3.7140002 -1.8094571 1.0077599 0
3.7080002 -1.8122313 1.0066668 0
3.7030003 -1.8155197 1.0057559 0
3.6970003 -1.8182524 1.0046628 0
3.6920002 -1.8215029 1.0037518 0
3.6880002 -1.8252764 1.003023 0
3.6830003 -1.8284926 1.0021122 0
3.6790001 -1.8322355 1.0013834 0
3.6750002 -1.835964 1.0006547 0
3.6720002 -1.8402264 1.0001081 0
3.6680002 -1.8439279 0.9993794 0
3.6650002 -1.8481667 0.99883282 0
3.6620002 -1.8523948 0.99828625 0
3.6590002 -1.8566122 0.99773967 0
3.6570003 -1.8613762 0.99737537 0
3.6540003 -1.8655735 0.99682879 0
3.6520002 -1.870321 0.99646437 0
3.6510003 -1.8756244 0.99628222 0
3.6490002 -1.8803593 0.99591792 0
3.6470003 -1.8850871 0.99555349 0
3.6460001 -1.8903757 0.99537134 0
3.6450002 -1.895661 0.99518919 0
3.6440003 -1.9009426 0.99500692 0
3.6430004 -1.9062206 0.99482477 0
3.6420002 -1.9114947 0.99464262 0
3.7600002 -1.8036307 1.0100795 0
3.7490003 -1.8039176 1.0080954 0
3.7400002 -1.8052181 1.006472 0
3.7320004 -1.8070147 1.005029 0
3.7240002 -1.8087825 1.0035859 0
3.7170002 -1.8110534 1.0023232 0
3.7110002 -1.813833 1.0012408 0
3.7060003 -1.8171269 1.000339 0
3.7000003 -1.8198651 0.99925673 0
3.6950002 -1.8231208 0.99835479 0
3.6900003 -1.8263588 0.99745297 0
3.6860003 -1.8301215 0.9967314 0
3.6820002 -1.8338697 0.99600983 0
3.6780002 -1.8376036 0.99528837 0
3.6750002 -1.8418715 0.99474716 0
3.6710002 -1.8455783 0.99402571 0
3.6680002 -1.8498226 0.9934845 0
3.6650002 -1.8540562 0.99294341 0
3.6620002 -1.8582789 0.9924022 0
3.6600003 -1.8630483 0.99204147 0
3.6570003 -1.867251 0.99150038 0
3.6550002 -1.8720042 0.99113953 0
3.6530004 -1.87675 0.9907788 0
3.6510003 -1.8814886 0.99041808 0
3.6500003 -1.8867863 0.99023771 0
3.6490002 -1.8920804 0.99005723 0
3.6480002 -1.8973711 0.98987699 0
3.6470003 -1.9026581 0.9896965 0
3.6460001 -1.9079413 0.98951614 0
3.6460001 -1.9137964 0.98951614 0
3.7540002 -1.806542 1.0029473 0
3.7440002 -1.807325 1.0011616 0
3.7350004 -1.8086003 0.9995544 0
3.7280002 -1.8109037 0.99830437 0
3.7210002 -1.8131819 0.99705434 0
3.7150002 -1.8159688 0.99598277 0
3.7090003 -1.818734 0.99491143 0
3.7030003 -1.8214777 0.99383986 0
3.6980002 -1.8247389 0.99294698 0
3.6940002 -1.8285234 0.99223268 0
3.6890004 -1.8317504 0.9913398 0
3.6850002 -1.8355039 0.9906255 0
3.6810002 -1.8392434 0.9899112 0
3.6780002 -1.8435165 0.98937547 0
3.6740003 -1.8472289 0.98866117 0
3.6710002 -1.8514786 0.98812544 0
3.6680002 -1.8557175 0.98758972 0
3.6650002 -1.8599457 0.98705399 0
3.6630003 -1.8647203 0.98669684 0
3.6600003 -1.8689287 0.98616111 0
3.6580002 -1.873687 0.98580396 0
3.6560001 -1.8784382 0.98544669 0
3.6540003 -1.8831823 0.98508966 0
3.6530004 -1.8884856 0.98491108 0
3.6520002 -1.893785 0.98473239 0
3.6510003 -1.899081 0.98455393 0
3.6500003 -1.9043735 0.98437536 0
3.6500003 -1.910236 0.98437536 0
3.6490002 -1.9155227 0.98419666 0
3.7590003 -1.8091667 0.99778116 0
3.7490003 -1.8099586 0.99601352 0
3.7400002 -1.8112428 0.99442255 0
3.7320004 -1.8130251 0.99300838 0
3.7250001 -1.8153104 0.99177086 0
3.7180002 -1.8175706 0.99053347 0
3.7130003 -1.820877 0.98964965 0
3.7070003 -1.8236277 0.98858905 0
3.7020001 -1.8268962 0.98770511 0
3.6970003 -1.8301467 0.98682129 0
3.6930003 -1.8339221 0.98611414 0
3.6890004 -1.8376831 0.98540711 0
3.6850002 -1.8414296 0.98469996 0
3.6810002 -1.8451617 0.98399293 0
3.6770003 -1.8488792 0.98328578 0
3.6740003 -1.8531345 0.98275554 0
3.6710002 -1.8573787 0.98222518 0
3.6680002 -1.8616124 0.98169482 0
3.6660004 -1.8663925 0.98134136 0
3.6640003 -1.8711653 0.98098779 0
3.6620002 -1.875931 0.98063421 0
3.6600003 -1.8806895 0.98028064 0
3.6580002 -1.8854406 0.97992718 0
3.6570003 -1.8907511 0.97975039 0
3.6550002 -1.8954897 0.97939682 0
3.6540003 -1.900791 0.97922003 0
3.6540003 -1.9066607 0.97922003 0
3.6530004 -1.9119568 0.97904325 0
3.6530004 -1.9178244 0.97904325 0
3.7550004 -1.8131188 0.99102235 0
3.7450004 -1.8138855 0.98927271 0
3.7370002 -1.8156766 0.98787296 0
3.7300003 -1.817971 0.98664808 0
3.7230003 -1.8202401 0.98542333 0
3.7170002 -1.8230199 0.98437357 0
3.7110002 -1.8257779 0.98332369 0
3.7060003 -1.8290536 0.98244894 0
3.7010002 -1.8323113 0.98157406 0
3.6960003 -1.835551 0.98069918 0
3.6920002 -1.8393172 0.9799993 0
3.6880002 -1.8430692 0.97929943 0
3.6850002 -1.847355 0.97877455 0
3.6810002 -1.8510798 0.97807467 0
3.6780002 -1.8553424 0.97754967 0
3.6750002 -1.8595939 0.97702479 0
3.6720002 -1.8638346 0.97649992 0
3.6700003 -1.8686219 0.97615004 0
3.6670003 -1.8728429 0.97562504 0
3.6650002 -1.8776139 0.97527516 0
3.6640003 -1.8829405 0.97510016 0
3.6620002 -1.887699 0.97475016 0
3.6610003 -1.8930167 0.97457528 0
3.6590002 -1.8977623 0.97422528 0
3.6580002 -1.9030712 0.97405028 0
3.6580002 -1.9089478 0.97405028 0
3.6570003 -1.9142511 0.9738754 0
3.6570003 -1.9201261 0.9738754 0
3.7510002 -1.8170564 0.98427796 0
3.7430003 -1.8188585 0.98289251 0
3.7350004 -1.8206317 0.9815073 0
3.7280002 -1.8229098 0.98029506 0
3.7210002 -1.8251628 0.97908294 0
3.7160003 -1.8284657 0.97821712 0
3.7100003 -1.831211 0.9771781 0
3.7050002 -1.8344758 0.97631228 0
3.7010002 -1.8382657 0.97561955 0
3.6960003 -1.8414963 0.97475386 0
3.6920002 -1.8452554 0.97406113 0
3.6890004 -1.8495486 0.97354162 0
3.6850002 -1.8532805 0.97284901 0
3.6820002 -1.85755 0.9723295 0
3.6790001 -1.8618089 0.97180998 0
3.6760004 -1.8660569 0.97129047 0
3.6740003 -1.8708515 0.97094417 0
3.6720002 -1.8756387 0.97059774 0
3.6690001 -1.8798578 0.97007835 0
3.6680002 -1.8851917 0.96990514 0
3.6660004 -1.8899574 0.96955884 0
3.6650002 -1.8952823 0.96938562 0
3.6640003 -1.9006034 0.96921253 0
3.6630003 -1.9059211 0.96903932 0
3.6630003 -1.9118071 0.96903932 0
3.6620002 -1.9171191 0.96886611 0
3.6620002 -1.9230031 0.96886611 0
3.7490003 -1.8220404 0.97789061 0
3.7410002 -1.8238244 0.9765197 0
3.7340002 -1.8261133 0.97532022 0
3.7270002 -1.8283771 0.97412062 0
3.7210002 -1.8311532 0.97309244 0
3.7160003 -1.834447 0.97223568 0
3.7100003 -1.8371816 0.9712075 0
3.7060003 -1.8409804 0.97052205 0
3.7010002 -1.84422 0.96966529 0
3.6970003 -1.8479881 0.96897984 0
3.6930003 -1.851742 0.96829438 0
3.6900003 -1.8560314 0.96778023 0
3.6870003 -1.8603101 0.9672662 0
3.6830003 -1.864024 0.96658075 0
3.6810002 -1.8688347 0.96623802 0
3.6780002 -1.873081 0.96572387 0
3.6760004 -1.8778756 0.96538126 0
3.6740003 -1.8826628 0.96503854 0
3.6720002 -1.8874428 0.96469569 0
3.6710002 -1.8927804 0.96452439 0
3.6690001 -1.8975478 0.96418166 0
3.6690001 -1.9034444 0.96418166 0
3.6680002 -1.908771 0.96401036 0
3.6680002 -1.9146659 0.96401036 0
3.6680002 -1.9205607 0.96401036 0
3.6680002 -1.9264557 0.96401036 0
3.7480001 -1.8275492 0.97168005 0
3.7410002 -1.8298509 0.9704932 0
3.7330003 -1.8315916 0.96913671 0
3.7270002 -1.8343785 0.96811938 0
3.7210002 -1.8371437 0.96710205 0
3.7160003 -1.8404285 0.96625423 0
3.7110002 -1.843695 0.96540642 0
3.7070003 -1.8474885 0.96472824 0
3.7020001 -1.850721 0.96388042 0
3.6980002 -1.8544837 0.96320224 0
3.6950002 -1.8587822 0.96269357 0
3.6920002 -1.8630698 0.96218479 0
3.6890004 -1.8673468 0.96167624 0
3.6860003 -1.8716127 0.96116757 0
3.6830003 -1.875868 0.96065891 0
3.6810002 -1.8806714 0.96031976 0
3.6790001 -1.8854678 0.95998061 0
3.6780002 -1.8908195 0.95981109 0
3.6760004 -1.8956033 0.95947194 0
3.6750002 -1.900946 0.95930231 0
3.6740003 -1.9062855 0.95913279 0
3.6730003 -1.9116212 0.95896327 0
3.6730003 -1.9175249 0.95896327 0
3.6740003 -1.9240025 0.95913279 0
3.6740003 -1.929908 0.95913279 0
3.7480001 -1.8335882 0.9656409 0
3.7410002 -1.8358774 0.96446669 0
3.7340002 -1.8381412 0.96329236 0
3.7280002 -1.840919 0.96228588 0
3.7220004 -1.8436754 0.96127939 0
3.7170002 -1.8469528 0.96044064 0
3.7130003 -1.8507571 0.95976961 0
3.7080002 -1.8540002 0.95893073 0
3.7040002 -1.8577738 0.9582597 0
3.7000003 -1.861533 0.95758879 0
3.6970003 -1.8658297 0.95708549 0
3.6950002 -1.8706692 0.95674992 0
3.6920002 -1.8749461 0.95624673 0
3.6890004 -1.8792121 0.95574343 0
3.6860003 -1.8834674 0.95524025 0
3.6850002 -1.8888335 0.9550724 0
3.6840003 -1.8941963 0.95490468 0
3.6820002 -1.8989908 0.95456922 0
3.6810002 -1.9043446 0.95440149 0
3.6800003 -1.9096947 0.95423365 0
3.6800003 -1.9156113 0.95423365 0
3.6800003 -1.9215276 0.95423365 0
3.6800003 -1.9274441 0.95423365 0
3.7500002 -1.840699 0.95993376 0
3.7420003 -1.8424416 0.95860612 0
3.7350004 -1.8446945 0.95744455 0
3.7300003 -1.8480045 0.95661473 0
3.7240002 -1.8507534 0.95561898 0
3.7190003 -1.8540256 0.95478928 0
3.7150002 -1.8578261 0.9541254 0
3.7110002 -1.8616123 0.95346165 0
3.7070003 -1.8653842 0.95279789 0
3.7030003 -1.8691415 0.95213401 0
3.7010002 -1.8739918 0.95180213 0
3.6980002 -1.8782796 0.95130432 0
3.6960003 -1.8831137 0.95097244 0
3.6940002 -1.8879408 0.95064044 0
3.6910002 -1.8921995 0.95014262 0
3.6900003 -1.8975732 0.94997668 0
3.6890004 -1.902943 0.94981074 0
3.6880002 -1.9083092 0.9496448 0
3.6880002 -1.9142404 0.9496448 0
3.6870003 -1.9196011 0.94947886 0
3.6790001 -1.9209558 0.94815123 0
3.6720002 -1.9228551 0.94698954 0
3.6650002 -1.9247293 0.94582796 0
3.7610002 -1.8465921 0.95569658 0
3.7530003 -1.8483543 0.95438337 0
3.7450004 -1.8500879 0.95307028 0
3.7380002 -1.8523335 0.95192111 0
3.7330003 -1.8556399 0.95110047 0
3.7280002 -1.8589282 0.95027971 0
3.7220004 -1.8616521 0.94929492 0
3.7190003 -1.8659992 0.94880247 0
3.7150002 -1.8697853 0.94814587 0
3.7110002 -1.8735571 0.94748926 0
3.7080002 -1.8778683 0.94699681 0
3.7050002 -1.8821685 0.94650435 0
3.7030003 -1.8870155 0.94617605 0
3.7010002 -1.891855 0.94584775 0
3.6990004 -1.8966875 0.94551945 0
3.6980002 -1.9020754 0.9453553 0
3.6960003 -1.9068952 0.94502711 0
3.6910002 -1.9100084 0.94420636 0
3.6840003 -1.9119675 0.9430573 0
3.6770003 -1.9139012 0.94190824 0
3.6710002 -1.9163815 0.94092333 0
3.6640003 -1.9182663 0.93977439 0
3.6580002 -1.9207014 0.93878949 0
3.7670002 -1.8558798 0.95060802 0
3.7580004 -1.8570993 0.94914699 0
3.7500002 -1.8588274 0.9478482 0
3.7430003 -1.8610694 0.94671178 0
3.7380002 -1.8643757 0.94590008 0
3.7320004 -1.8671176 0.94492602 0
3.7270002 -1.870386 0.94411433 0
3.7240002 -1.8747368 0.94362724 0
3.7200003 -1.8785249 0.94297791 0
3.7170002 -1.8828522 0.94249082 0
3.7140002 -1.8871686 0.94200385 0
3.7110002 -1.8914744 0.94151688 0
3.7100003 -1.8968878 0.94135451 0
3.7040002 -1.8994924 0.94038045 0
3.6980002 -1.9020754 0.93940639 0
3.6910002 -1.9040722 0.93826997 0
3.6840003 -1.9060438 0.93713355 0
3.6780002 -1.9085582 0.93615949 0
3.6710002 -1.910481 0.93502307 0
3.6650002 -1.9129505 0.93404901 0
3.6590002 -1.9153984 0.93307495 0
3.6530004 -1.9178244 0.93210101 0
3.7670002 -1.8680267 0.94453454 0
3.7580004 -1.8692136 0.94308972 0
3.7500002 -1.8709128 0.94180548 0
3.7450004 -1.8742229 0.94100273 0
3.7400002 -1.8775147 0.94020009 0
3.7350004 -1.8807888 0.93939734 0
3.7310002 -1.8845965 0.93875515 0
3.7250001 -1.8872823 0.93779194 0
3.7180002 -1.8893909 0.93666816 0
3.7120004 -1.8920318 0.93570495 0
3.7050002 -1.8940917 0.93458116 0
3.6990004 -1.8966875 0.93361795 0
3.6920002 -1.8986986 0.93249416 0
3.6860003 -1.9012493 0.93153095 0
3.6800003 -1.9037782 0.93056774 0
3.6740003 -1.9062855 0.92960453 0
3.6670003 -1.9082011 0.92848074 0
3.6610003 -1.9106634 0.92751741 0
3.6550002 -1.9131039 0.9265542 0
3.6490002 -1.9155227 0.92559099 0
3.8030002 -1.8568159 0.9441756 0
3.7950003 -1.858683 0.94290578 0
3.7880003 -1.8610568 0.94179463 0
3.7810001 -1.8634053 0.94068348 0
3.7740002 -1.8657286 0.93957233 0
3.7670002 -1.8680267 0.93846118 0
3.7600002 -1.8702995 0.93735003 0
3.7530003 -1.8725471 0.93623888 0
3.7460003 -1.8747693 0.93512774 0
3.7390003 -1.8769665 0.93401659 0
3.7330003 -1.8796884 0.93306422 0
3.7270002 -1.8823887 0.93211174 0
3.7200003 -1.8845135 0.93100059 0
3.7140002 -1.8871686 0.93004823 0
3.7080002 -1.8898022 0.92909575 0
3.7010002 -1.891855 0.9279846 0
3.6950002 -1.8944434 0.92703223 0
3.6890004 -1.8970103 0.92607987 0
3.6830003 -1.8995556 0.92512739 0
3.6770003 -1.902079 0.92417502 0
3.6710002 -1.9045807 0.92322266 0
3.6650002 -1.907061 0.92227018 0
3.6590002 -1.9095197 0.9213177 0
3.6530004 -1.9119568 0.92036545 0
3.8240004 -1.8432858 0.94133282 0
3.8170002 -1.8457749 0.9402343 0
3.8100002 -1.8482388 0.93913579 0
3.8020003 -1.8501474 0.9378804 0
3.7950003 -1.8525591 0.93678188 0
3.7880003 -1.8549455 0.93568325 0
3.7810001 -1.8573066 0.93458474 0
3.7750003 -1.8601801 0.93364322 0
3.7680004 -1.8624927 0.93254471 0
3.7620003 -1.865321 0.93160307 0
3.7550004 -1.8675848 0.93050456 0
3.7490003 -1.8703681 0.92956293 0
3.7420003 -1.8725833 0.92846453 0
3.7360003 -1.8753213 0.9275229 0
3.7290003 -1.8774878 0.92642438 0
3.7230003 -1.8801808 0.92548275 0
3.7170002 -1.8828522 0.92454123 0
3.7110002 -1.885502 0.9235996 0
3.7050002 -1.8881301 0.92265797 0
3.6990004 -1.8907367 0.92171645 0
3.6930003 -1.8933215 0.92077482 0
3.6870003 -1.8958848 0.9198333 0
3.6810002 -1.8984262 0.91889167 0
3.6750002 -1.900946 0.91795003 0
3.6690001 -1.9034444 0.91700852 0
3.6630003 -1.9059211 0.91606688 0
3.6570003 -1.9083762 0.91512525 0
3.6520002 -1.9113829 0.91434062 0
3.8390002 -1.8325493 0.93748343 0
3.8320003 -1.8351035 0.93639755 0
3.8240004 -1.8371094 0.93515658 0
3.8180003 -1.8401363 0.93422592 0
3.8110003 -1.8426148 0.93313992 0
3.8040001 -1.8450677 0.93205404 0
3.7970002 -1.8474957 0.93096817 0
3.7910004 -1.8504306 0.93003738 0
3.7840002 -1.8528097 0.9289515 0
3.7770002 -1.8551638 0.92786562 0
3.7710001 -1.85803 0.92693484 0
3.7640002 -1.8603352 0.92584896 0
3.7580004 -1.8631564 0.92491817 0
3.7520003 -1.8659559 0.92398751 0
3.7460003 -1.8687339 0.9230566 0
3.7390003 -1.8709434 0.92197073 0
3.7330003 -1.8736763 0.92103994 0
3.7270002 -1.8763874 0.92010927 0
3.7210002 -1.8790767 0.91917849 0
3.7150002 -1.8817446 0.9182477 0
3.7090003 -1.8843908 0.91731703 0
3.7030003 -1.8870155 0.91638613 0
3.6970003 -1.8896183 0.91545546 0
3.6910002 -1.8921995 0.91452467 0
3.6850002 -1.8947592 0.91359389 0
3.6800003 -1.8978616 0.91281819 0
3.6740003 -1.9003798 0.91188753 0
3.6680002 -1.9028763 0.91095674 0
3.6620002 -1.905351 0.91002595 0
3.6570003 -1.9083762 0.90925038 0
3.6510003 -1.9108093 0.90831959 0
3.8410003 -1.8273815 0.93158686 0
3.8340003 -1.829952 0.93051362 0
3.8270001 -1.832497 0.92944038 0
3.8200002 -1.835017 0.92836702 0
3.8140004 -1.8380367 0.9274472 0
3.8070002 -1.8405077 0.92637384 0
3.8000002 -1.8429537 0.9253006 0
3.7940001 -1.8459047 0.92438066 0
3.7880003 -1.8488343 0.92346072 0
3.7810001 -1.8512079 0.92238748 0
3.7750003 -1.8540924 0.92146754 0
3.7690003 -1.8569549 0.9205476 0
3.7620003 -1.8592566 0.91947424 0
3.7560003 -1.8620741 0.91855431 0
3.7500002 -1.8648701 0.91763437 0
3.7440002 -1.8676442 0.91671443 0
3.7380002 -1.8703969 0.91579449 0
3.7320004 -1.8731279 0.91487467 0
3.7260003 -1.8758372 0.91395462 0
3.7200003 -1.8785249 0.91303468 0
3.7140002 -1.8811908 0.91211474 0
3.7080002 -1.8838352 0.9111948 0
3.7020001 -1.8864579 0.91027486 0
3.6960003 -1.8890592 0.90935493 0
3.6900003 -1.8916385 0.90843499 0
3.6850002 -1.8947592 0.90766835 0
3.6790001 -1.897297 0.90674841 0
3.6730003 -1.8998134 0.90582848 0
3.6680002 -1.9028763 0.90506184 0
3.6620002 -1.905351 0.9041419 0
3.6560001 -1.9078041 0.90322196 0
3.6510003 -1.9108093 0.90245539 0
3.8440003 -1.8227223 0.92583454 0
3.8370004 -1.8253107 0.92477381 0
3.8310003 -1.8283935 0.92386472 0
3.8240004 -1.8309332 0.92280412 0
3.8180003 -1.8339709 0.92189503 0
3.8110003 -1.8364619 0.92083442 0
3.8050003 -1.8394544 0.91992521 0
3.7980003 -1.8418968 0.91886461 0
3.7920003 -1.8448441 0.91795552 0
3.7850003 -1.8472378 0.91689491 0
3.7790003 -1.8501402 0.9159857 0
3.7730002 -1.8530209 0.91507661 0
3.7670002 -1.8558798 0.91416752 0
3.7610002 -1.8587172 0.91325831 0
3.7550004 -1.861533 0.91234922 0
3.7490003 -1.8643272 0.91144013 0
3.7430003 -1.8670995 0.91053104 0
3.7370002 -1.8698503 0.90962183 0
3.7310002 -1.8725795 0.90871274 0
3.7250001 -1.8752869 0.90780365 0
3.7190003 -1.877973 0.90689456 0
3.7130003 -1.8806372 0.90598547 0
3.7080002 -1.8838352 0.90522778 0
3.7020001 -1.8864579 0.90431869 0
3.6960003 -1.8890592 0.9034096 0
3.6900003 -1.8916385 0.90250045 0
3.6850002 -1.8947592 0.90174282 0
3.6790001 -1.897297 0.90083373 0
3.6730003 -1.8998134 0.89992464 0
3.6680002 -1.9028763 0.89916706 0
3.6620002 -1.905351 0.89825785 0
3.6560001 -1.9078041 0.89734876 0
3.6510003 -1.9108093 0.89659119 0
3.8490002 -1.8190804 0.92037082 0
3.8410003 -1.8211746 0.91917312 0
3.8350003 -1.8242753 0.91827476 0
3.8280003 -1.8268349 0.91722679 0
3.8220003 -1.8298906 0.91632843 0
3.8160002 -1.8329245 0.91543019 0
3.8090003 -1.835412 0.9143821 0
3.8030002 -1.838401 0.91348386 0
3.7970002 -1.8413682 0.91258562 0
3.7910004 -1.844314 0.91168725 0
3.7850003 -1.8472378 0.91078901 0
3.7790003 -1.8501402 0.90989065 0
3.7720003 -1.8524852 0.90884268 0
3.7660003 -1.8553424 0.90794432 0
3.7600002 -1.8581779 0.90704608 0
3.7540002 -1.8609918 0.90614772 0
3.7480001 -1.8637841 0.90524948 0
3.7430003 -1.8670995 0.90450084 0
3.7370002 -1.8698503 0.9036026 0
3.7310002 -1.8725795 0.9027043 0
3.7250001 -1.8752869 0.901806 0
3.7190003 -1.877973 0.9009077 0
3.7130003 -1.8806372 0.90000939 0
3.7080002 -1.8838352 0.89926076 0
3.7020001 -1.8864579 0.89836252 0
3.6960003 -1.8890592 0.89746428 0
3.6900003 -1.8916385 0.89656591 0
3.6850002 -1.8947592 0.89581728 0
3.6790001 -1.897297 0.89491904 0
3.6730003 -1.8998134 0.8940208 0
3.6680002 -1.9028763 0.89327216 0
3.6620002 -1.905351 0.89237386 0
3.6560001 -1.9078041 0.89147556 0
3.8470004 -1.8180523 0.91385365 0
3.8400002 -1.8206587 0.91281819 0
3.8340003 -1.8237576 0.9119308 0
3.8280003 -1.8268349 0.91104329 0
3.8210003 -1.8293693 0.91000795 0
3.8150003 -1.8324015 0.90912044 0
3.8090003 -1.835412 0.90823293 0
3.8030002 -1.838401 0.90734553 0
3.7960002 -1.8408396 0.90631008 0
3.7900002 -1.8437835 0.90542257 0
3.7840002 -1.8467057 0.90453517 0
3.7780004 -1.8496063 0.90364772 0
3.7720003 -1.8524852 0.90276027 0
3.7660003 -1.8553424 0.90187275 0
3.7600002 -1.8581779 0.90098524 0
3.7540002 -1.8609918 0.90009779 0
3.7480001 -1.8637841 0.89921033 0
3.7430003 -1.8670995 0.89847076 0
3.7370002 -1.8698503 0.89758325 0
3.7310002 -1.8725795 0.89669573 0
3.7250001 -1.8752869 0.89580828 0
3.7190003 -1.877973 0.89492083 0
3.7130003 -1.8806372 0.89403337 0
3.7080002 -1.8838352 0.89329386 0
3.7020001 -1.8864579 0.89240634 0
3.6960003 -1.8890592 0.89151895 0
3.6900003 -1.8916385 0.89063144 0
3.6850002 -1.8947592 0.8898918 0
3.6790001 -1.897297 0.88900435 0
3.6730003 -1.8998134 0.8881169 0
3.6680002 -1.9028763 0.88737732 0
3.6620002 -1.905351 0.88648987 0
3.8460002 -1.8175381 0.90748978 0
3.8400002 -1.8206587 0.90661311 0
3.8330002 -1.8232398 0.9055903 0
3.8270001 -1.8263154 0.90471375 0
3.8210003 -1.8293693 0.90383708 0
3.8150003 -1.8324015 0.90296042 0
3.8090003 -1.835412 0.90208375 0
3.8030002 -1.838401 0.90120709 0
3.7960002 -1.8408396 0.90018439 0
3.7900002 -1.8437835 0.89930773 0
3.7840002 -1.8467057 0.89843106 0
3.7780004 -1.8496063 0.8975544 0
3.7720003 -1.8524852 0.89667773 0
3.7660003 -1.8553424 0.89580113 0
3.7600002 -1.8581779 0.8949244 0
3.7540002 -1.8609918 0.8940478 0
3.7480001 -1.8637841 0.89317119 0
3.7430003 -1.8670995 0.89244062 0
3.7370002 -1.8698503 0.89156395 0
3.7310002 -1.8725795 0.89068735 0
3.7250001 -1.8752869 0.88981068 0
3.7190003 -1.877973 0.88893402 0
3.7130003 -1.8806372 0.88805735 0
3.7080002 -1.8838352 0.88732684 0
3.7020001 -1.8864579 0.88645017 0
3.6960003 -1.8890592 0.88557351 0
3.6900003 -1.8916385 0.88469684 0
3.6850002 -1.8947592 0.88396633 0
3.6790001 -1.897297 0.88308966 0
3.6730003 -1.8998134 0.882213 0
3.6680002 -1.9028763 0.88148248 0
3.8460002 -1.8175381 0.90127385 0
3.8400002 -1.8206587 0.90040803 0
3.8330002 -1.8232398 0.89939791 0
3.8270001 -1.8263154 0.89853203 0
3.8210003 -1.8293693 0.89766628 0
3.8150003 -1.8324015 0.8968004 0
3.8090003 -1.835412 0.89593458 0
3.8030002 -1.838401 0.89506876 0
3.7960002 -1.8408396 0.89405864 0
3.7900002 -1.8437835 0.89319277 0
3.7840002 -1.8467057 0.89232695 0
3.7780004 -1.8496063 0.89146113 0
3.7720003 -1.8524852 0.89059532 0
3.7660003 -1.8553424 0.8897295 0
3.7600002 -1.8581779 0.88886368 0
3.7540002 -1.8609918 0.88799787 0
3.7480001 -1.8637841 0.88713199 0
3.7430003 -1.8670995 0.88641047 0
3.7370002 -1.8698503 0.88554466 0
3.7310002 -1.8725795 0.88467884 0
3.7250001 -1.8752869 0.88381302 0
3.7190003 -1.877973 0.88294721 0
3.7130003 -1.8806372 0.88208133 0
3.7080002 -1.8838352 0.88135982 0
3.7020001 -1.8864579 0.880494 0
3.5360003 -1.7995902 0.85653937 0
3.5300002 -1.8018811 0.85567355 0
3.5250003 -1.804713 0.8549521 0
3.5200002 -1.8075269 0.85423052 0
3.5140002 -1.8097564 0.85336471 0
3.5090003 -1.8125327 0.85264319 0
3.5030003 -1.8147205 0.85177737 0
3.4980001 -1.8174587 0.85105586 0
3.8460002 -1.8175381 0.89505792 0
3.8400002 -1.8206587 0.89420295 0
3.8330002 -1.8232398 0.8932054 0
3.8270001 -1.8263154 0.89235044 0
3.8210003 -1.8293693 0.89149547 0
3.8150003 -1.8324015 0.89064038 0
3.8090003 -1.835412 0.88978541 0
3.8030002 -1.838401 0.88893038 0
3.7960002 -1.8408396 0.8879329 0
3.7900002 -1.8437835 0.88707787 0
3.7840002 -1.8467057 0.88622284 0
3.7780004 -1.8496063 0.88536793 0
3.7720003 -1.8524852 0.8845129 0
3.7660003 -1.8553424 0.88365781 0
3.7600002 -1.8581779 0.88280284 0
3.7540002 -1.8609918 0.88194788 0
3.7480001 -1.8637841 0.88109285 0
3.7430003 -1.8670995 0.88038039 0
3.5740004 -1.7807622 0.85629773 0
3.5690002 -1.7837455 0.85558522 0
3.5630002 -1.7861608 0.85473025 0
3.5580003 -1.7891066 0.85401773 0
3.5520003 -1.7914803 0.85316271 0
3.5470002 -1.7943879 0.85245019 0
3.5410001 -1.7967204 0.85159516 0
3.5360003 -1.7995902 0.85088265 0
3.5300002 -1.8018811 0.85002768 0
3.5250003 -1.804713 0.84931517 0
3.5200002 -1.8075269 0.84860265 0
3.5140002 -1.8097564 0.84774768 0
3.5090003 -1.8125327 0.84703517 0
3.5030003 -1.8147205 0.84618014 0
3.4980001 -1.8174587 0.84546763 0
3.4930003 -1.8201789 0.84475517 0
3.8330002 -1.8232398 0.88701296 0
3.8270001 -1.8263154 0.88616872 0
3.8210003 -1.8293693 0.8853246 0
3.8150003 -1.8324015 0.88448048 0
3.8090003 -1.835412 0.88363624 0
3.8030002 -1.838401 0.88279206 0
3.7960002 -1.8408396 0.88180715 0
3.7900002 -1.8437835 0.88096297 0
3.6140003 -1.7620422 0.85620034 0
3.6080003 -1.7646252 0.8553561 0
3.6030002 -1.767724 0.85465264 0
3.5970004 -1.7702658 0.85380852 0
3.5910003 -1.7727857 0.85296428 0
3.5860002 -1.7758268 0.85226083 0
3.5800002 -1.7783053 0.85141659 0
3.5740004 -1.7807622 0.85057247 0
3.5690002 -1.7837455 0.84986889 0
3.5630002 -1.7861608 0.84902477 0
3.5580003 -1.7891066 0.84832132 0
3.5520003 -1.7914803 0.84747708 0
3.5470002 -1.7943879 0.84677362 0
3.5410001 -1.7967204 0.84592938 0
3.5360003 -1.7995902 0.84522593 0
3.5300002 -1.8018811 0.84438175 0
3.5250003 -1.804713 0.84367824 0
3.5200002 -1.8075269 0.84297478 0
3.5140002 -1.8097564 0.8421306 0
3.5090003 -1.8125327 0.84142709 0
3.5030003 -1.8147205 0.84058297 0
3.4980001 -1.8174587 0.83987939 0
3.4930003 -1.8201789 0.83917594 0
3.4880002 -1.822881 0.83847249 0
3.6610003 -1.7400789 0.85693085 0
3.6550002 -1.7428334 0.85609746 0
3.6490002 -1.7455661 0.85526413 0
3.6430004 -1.7482773 0.85443079 0
3.6370003 -1.7509668 0.8535974 0
3.6310003 -1.7536346 0.85276407 0
3.6260002 -1.756811 0.85206962 0
3.6200004 -1.7594376 0.85123622 0
3.6140003 -1.7620422 0.85040283 0
3.6080003 -1.7646252 0.84956956 0
3.6030002 -1.767724 0.84887505 0
3.5970004 -1.7702658 0.84804171 0
3.5910003 -1.7727857 0.84720832 0
3.5860002 -1.7758268 0.84651387 0
3.5800002 -1.7783053 0.84568048 0
3.5740004 -1.7807622 0.8448472 0
3.5690002 -1.7837455 0.84415269 0
3.5630002 -1.7861608 0.8433193 0
3.5580003 -1.7891066 0.84262484 0
3.5520003 -1.7914803 0.84179151 0
3.5470002 -1.7943879 0.841097 0
3.5410001 -1.7967204 0.84026366 0
3.5360003 -1.7995902 0.83956921 0
3.5300002 -1.8018811 0.83873582 0
3.5250003 -1.804713 0.83804137 0
3.5200002 -1.8075269 0.83734691 0
3.5140002 -1.8097564 0.83651352 0
3.5090003 -1.8125327 0.83581913 0
3.5030003 -1.8147205 0.83498573 0
3.4980001 -1.8174587 0.83429122 0
3.4930003 -1.8201789 0.83359683 0
3.4880002 -1.822881 0.83290231 0
3.7020001 -1.7196851 0.85666931 0
3.6960003 -1.7225893 0.85584676 0
3.6900003 -1.7254717 0.85502422 0
3.6840003 -1.7283326 0.85420167 0
3.6780002 -1.7311717 0.85337913 0
3.6720002 -1.7339892 0.85255659 0
3.6660004 -1.7367853 0.8517341 0
3.6610003 -1.7400789 0.85104865 0
3.6550002 -1.7428334 0.85022604 0
3.6490002 -1.7455661 0.84940356 0
3.6430004 -1.7482773 0.84858108 0
3.6370003 -1.7509668 0.84775853 0
3.6310003 -1.7536346 0.84693599 0
3.6260002 -1.756811 0.84625053 0
3.6200004 -1.7594376 0.84542799 0
3.6140003 -1.7620422 0.84460545 0
3.6080003 -1.7646252 0.8437829 0
3.6030002 -1.767724 0.84309745 0
3.5970004 -1.7702658 0.8422749 0
3.5910003 -1.7727857 0.84145236 0
3.5860002 -1.7758268 0.84076691 0
3.5800002 -1.7783053 0.83994436 0
3.5740004 -1.7807622 0.83912182 0
3.5690002 -1.7837455 0.83843637 0
3.5630002 -1.7861608 0.83761382 0
3.5580003 -1.7891066 0.83692843 0
3.5520003 -1.7914803 0.83610588 0
3.5470002 -1.7943879 0.83542043 0
3.5410001 -1.7967204 0.83459789 0
3.5360003 -1.7995902 0.83391249 0
3.5300002 -1.8018811 0.83308995 0
3.5250003 -1.804713 0.83240449 0
3.5200002 -1.8075269 0.83171904 0
3.5140002 -1.8097564 0.8308965 0
3.5090003 -1.8125327 0.83021104 0
3.5030003 -1.8147205 0.8293885 0
3.4980001 -1.8174587 0.82870305 0
3.4930003 -1.8201789 0.82801759 0
3.4880002 -1.822881 0.82733214 0
3.7390003 -1.7023019 0.85571873 0
3.7330003 -1.7053376 0.85490698 0
3.7270002 -1.7083517 0.85409522 0
3.7210002 -1.7113442 0.85328352 0
3.7150002 -1.7143152 0.85247183 0
3.7080002 -1.7167593 0.85152483 0
3.7020001 -1.7196851 0.85071313 0
3.6960003 -1.7225893 0.84990144 0
3.6900003 -1.7254717 0.84908974 0
3.6840003 -1.7283326 0.84827799 0
3.6780002 -1.7311717 0.84746623 0
3.6720002 -1.7339892 0.84665453 0
3.6660004 -1.7367853 0.84584284 0
3.6610003 -1.7400789 0.84516644 0
3.6550002 -1.7428334 0.84435475 0
3.6490002 -1.7455661 0.84354293 0
3.6430004 -1.7482773 0.8427313 0
3.6370003 -1.7509668 0.84191954 0
3.6310003 -1.7536346 0.84110785 0
3.6260002 -1.756811 0.84043145 0
3.6200004 -1.7594376 0.8396197 0
3.6140003 -1.7620422 0.838808 0
3.6080003 -1.7646252 0.83799624 0
3.6030002 -1.767724 0.83731985 0
3.5970004 -1.7702658 0.83650815 0
3.5910003 -1.7727857 0.83569646 0
3.5860002 -1.7758268 0.83502001 0
3.5800002 -1.7783053 0.83420825 0
3.5740004 -1.7807622 0.83339655 0
3.5690002 -1.7837455 0.83272016 0
3.5630002 -1.7861608 0.8319084 0
3.5580003 -1.7891066 0.83123201 0
3.5520003 -1.7914803 0.83042026 0
3.5470002 -1.7943879 0.82974386 0
3.5410001 -1.7967204 0.82893211 0
3.5360003 -1.7995902 0.82825571 0
3.5300002 -1.8018811 0.82744402 0
3.5250003 -1.804713 0.82676756 0
3.5200002 -1.8075269 0.82609117 0
3.5140002 -1.8097564 0.82527941 0
3.5090003 -1.8125327 0.82460302 0
3.5030003 -1.8147205 0.82379127 0
3.4980001 -1.8174587 0.82311487 0
3.4930003 -1.8201789 0.82243842 0
3.4880002 -1.822881 0.82176197 0
3.7770002 -1.6846029 0.85476804 0
3.7700002 -1.6872851 0.85383368 0
3.7640002 -1.690431 0.85303283 0
3.7580004 -1.6935552 0.85223198 0
3.7510002 -1.6961652 0.8512975 0
3.7450004 -1.6992445 0.85049665 0
3.7390003 -1.7023019 0.8496958 0
3.7330003 -1.7053376 0.84889489 0
3.7270002 -1.7083517 0.84809399 0
3.7210002 -1.7113442 0.84729314 0
3.7150002 -1.7143152 0.84649217 0
3.7080002 -1.7167593 0.84555781 0
3.7020001 -1.7196851 0.84475696 0
3.6960003 -1.7225893 0.84395611 0
3.6900003 -1.7254717 0.84315515 0
3.6840003 -1.7283326 0.8423543 0
3.6780002 -1.7311717 0.84155339 0
3.6720002 -1.7339892 0.84075248 0
3.6660004 -1.7367853 0.83995163 0
3.6610003 -1.7400789 0.83928418 0
3.6550002 -1.7428334 0.83848333 0
3.6490002 -1.7455661 0.83768237 0
3.6430004 -1.7482773 0.83688152 0
3.6370003 -1.7509668 0.83608067 0
3.6310003 -1.7536346 0.8352797 0
3.6260002 -1.756811 0.83461231 0
3.6200004 -1.7594376 0.8338114 0
3.6140003 -1.7620422 0.83301055 0
3.6080003 -1.7646252 0.83220971 0
3.6030002 -1.767724 0.83154225 0
3.5970004 -1.7702658 0.83074141 0
3.5910003 -1.7727857 0.82994044 0
3.5860002 -1.7758268 0.82927305 0
3.5800002 -1.7783053 0.82847214 0
3.5740004 -1.7807622 0.82767129 0
3.5690002 -1.7837455 0.82700384 0
3.5630002 -1.7861608 0.82620299 0
3.5580003 -1.7891066 0.82553554 0
3.5520003 -1.7914803 0.82473469 0
3.5470002 -1.7943879 0.82406723 0
3.5410001 -1.7967204 0.82326639 0
3.5360003 -1.7995902 0.82259893 0
3.5300002 -1.8018811 0.82179809 0
3.5250003 -1.804713 0.82113063 0
3.5200002 -1.8075269 0.82046324 0
3.5140002 -1.8097564 0.81966233 0
3.5090003 -1.8125327 0.818995 0
3.5030003 -1.8147205 0.81819403 0
3.4980001 -1.8174587 0.81752664 0
3.4930003 -1.8201789 0.81685925 0
3.4880002 -1.822881 0.81619179 0
3.8080003 -1.6689079 0.85275865 0
3.8020003 -1.6721872 0.85196853 0
3.7960002 -1.675445 0.85117853 0
3.7890003 -1.6781993 0.8502568 0
3.7830002 -1.6814119 0.84946668 0
3.7770002 -1.6846029 0.84867662 0
3.7700002 -1.6872851 0.84775484 0
3.7640002 -1.690431 0.84696484 0
3.7580004 -1.6935552 0.84617472 0
3.7510002 -1.6961652 0.84525299 0
3.7450004 -1.6992445 0.84446293 0
3.7390003 -1.7023019 0.84367287 0
3.7330003 -1.7053376 0.84288281 0
3.7270002 -1.7083517 0.84209275 0
3.7210002 -1.7113442 0.84130263 0
3.7150002 -1.7143152 0.84051257 0
3.7080002 -1.7167593 0.83959085 0
3.7020001 -1.7196851 0.83880079 0
3.6960003 -1.7225893 0.83801073 0
3.6900003 -1.7254717 0.83722067 0
3.6840003 -1.7283326 0.83643055 0
3.6780002 -1.7311717 0.83564049 0
3.6720002 -1.7339892 0.83485043 0
3.6660004 -1.7367853 0.83406037 0
3.6610003 -1.7400789 0.83340198 0
3.6550002 -1.7428334 0.83261192 0
3.6490002 -1.7455661 0.8318218 0
3.6430004 -1.7482773 0.8310318 0
3.6370003 -1.7509668 0.83024168 0
3.6310003 -1.7536346 0.82945162 0
3.6260002 -1.756811 0.82879323 0
3.6200004 -1.7594376 0.82800317 0
3.6140003 -1.7620422 0.82721311 0
3.6080003 -1.7646252 0.82642305 0
3.6030002 -1.767724 0.82576466 0
3.5970004 -1.7702658 0.8249746 0
3.5910003 -1.7727857 0.82418454 0
3.5860002 -1.7758268 0.82352614 0
3.5800002 -1.7783053 0.82273602 0
3.5740004 -1.7807622 0.82194602 0
3.5690002 -1.7837455 0.82128763 0
3.5630002 -1.7861608 0.82049751 0
3.5580003 -1.7891066 0.81983912 0
3.5520003 -1.7914803 0.81904906 0
3.5470002 -1.7943879 0.81839067 0
3.5410001 -1.7967204 0.81760061 0
3.5360003 -1.7995902 0.81694221 0
3.5300002 -1.8018811 0.81615216 0
3.5250003 -1.804713 0.81549376 0
3.5200002 -1.8075269 0.81483537 0
3.5140002 -1.8097564 0.81404531 0
3.5090003 -1.8125327 0.81338692 0
3.5030003 -1.8147205 0.81259686 0
3.4980001 -1.8174587 0.81193846 0
3.4930003 -1.8201789 0.81128007 0
3.4880002 -1.822881 0.81062168 0
3.8210003 -1.6627569 0.84829962 0
3.8150003 -1.6660814 0.84752041 0
3.8080003 -1.6689079 0.84661126 0
3.8020003 -1.6721872 0.84583199 0
3.7960002 -1.675445 0.84505278 0
3.7890003 -1.6781993 0.84414363 0
3.7830002 -1.6814119 0.84336436 0
3.7770002 -1.6846029 0.84258521 0
3.7700002 -1.6872851 0.84167606 0
3.7640002 -1.690431 0.84089679 0
3.7580004 -1.6935552 0.84011757 0
3.7510002 -1.6961652 0.83920842 0
3.7450004 -1.6992445 0.83842921 0
3.7390003 -1.7023019 0.83764994 0
3.7330003 -1.7053376 0.83687067 0
3.7270002 -1.7083517 0.83609146 0
3.7210002 -1.7113442 0.83531219 0
3.7150002 -1.7143152 0.83453298 0
3.7080002 -1.7167593 0.83362389 0
3.7020001 -1.7196851 0.83284461 0
3.6960003 -1.7225893 0.83206534 0
3.6900003 -1.7254717 0.83128613 0
3.6840003 -1.7283326 0.83050686 0
3.6780002 -1.7311717 0.82972765 0
3.6720002 -1.7339892 0.82894838 0
3.6660004 -1.7367853 0.82816911 0
3.6610003 -1.7400789 0.82751977 0
3.6550002 -1.7428334 0.8267405 0
3.6490002 -1.7455661 0.82596123 0
3.6430004 -1.7482773 0.82518202 0
3.6370003 -1.7509668 0.82440281 0
3.6310003 -1.7536346 0.82362354 0
3.6260002 -1.756811 0.82297415 0
3.6200004 -1.7594376 0.82219493 0
3.6140003 -1.7620422 0.82141566 0
3.6080003 -1.7646252 0.82063639 0
3.6030002 -1.767724 0.81998706 0
3.5970004 -1.7702658 0.81920779 0
3.5910003 -1.7727857 0.81842858 0
3.5860002 -1.7758268 0.81777918 0
3.5800002 -1.7783053 0.81699991 0
3.5740004 -1.7807622 0.8162207 0
3.5690002 -1.7837455 0.81557131 0
3.5630002 -1.7861608 0.81479204 0
3.5580003 -1.7891066 0.8141427 0
3.5520003 -1.7914803 0.81336349 0
3.5470002 -1.7943879 0.8127141 0
3.5410001 -1.7967204 0.81193483 0
3.5360003 -1.7995902 0.8112855 0
3.5300002 -1.8018811 0.81050622 0
3.5250003 -1.804713 0.80985689 0
3.5200002 -1.8075269 0.8092075 0
3.5140002 -1.8097564 0.80842829 0
3.5090003 -1.8125327 0.80777889 0
3.5030003 -1.8147205 0.80699968 0
3.4980001 -1.8174587 0.80635023 0
3.4930003 -1.8201789 0.8057009 0
3.4880002 -1.822881 0.80505151 0
3.8280003 -1.6598817 0.84302533 0
3.8210003 -1.6627569 0.84212881 0
3.8150003 -1.6660814 0.84136039 0
3.8080003 -1.6689079 0.84046388 0
3.8020003 -1.6721872 0.83969545 0
3.7960002 -1.675445 0.83892703 0
3.7890003 -1.6781993 0.83803058 0
3.7830002 -1.6814119 0.83726215 0
3.7770002 -1.6846029 0.83649373 0
3.7700002 -1.6872851 0.83559716 0
3.7640002 -1.690431 0.83482879 0
3.7580004 -1.6935552 0.83406037 0
3.7510002 -1.6961652 0.83316386 0
3.7450004 -1.6992445 0.83239543 0
3.7390003 -1.7023019 0.83162701 0
3.7330003 -1.7053376 0.83085859 0
3.7270002 -1.7083517 0.83009017 0
3.7210002 -1.7113442 0.82932174 0
3.7150002 -1.7143152 0.82855332 0
3.7080002 -1.7167593 0.82765687 0
3.7020001 -1.7196851 0.82688844 0
3.6960003 -1.7225893 0.82612002 0
3.6900003 -1.7254717 0.8253516 0
3.6840003 -1.7283326 0.82458317 0
3.6780002 -1.7311717 0.82381475 0
3.6720002 -1.7339892 0.82304633 0
3.6660004 -1.7367853 0.8222779 0
3.6610003 -1.7400789 0.82163751 0
3.6550002 -1.7428334 0.82086909 0
3.6490002 -1.7455661 0.82010067 0
3.6430004 -1.7482773 0.8193323 0
3.6370003 -1.7509668 0.81856382 0
3.6310003 -1.7536346 0.8177954 0
3.6260002 -1.756811 0.81715506 0
3.6200004 -1.7594376 0.8163867 0
3.6140003 -1.7620422 0.81561828 0
3.6080003 -1.7646252 0.81484979 0
3.6030002 -1.767724 0.81420946 0
3.5970004 -1.7702658 0.81344104 0
3.5910003 -1.7727857 0.81267262 0
3.5860002 -1.7758268 0.81203222 0
3.5800002 -1.7783053 0.8112638 0
3.5740004 -1.7807622 0.81049544 0
3.5690002 -1.7837455 0.80985504 0
3.5630002 -1.7861608 0.80908668 0
3.5580003 -1.7891066 0.80844629 0
3.5520003 -1.7914803 0.80767787 0
3.5470002 -1.7943879 0.80703747 0
3.5410001 -1.7967204 0.80626905 0
3.5360003 -1.7995902 0.80562872 0
3.5300002 -1.8018811 0.80486035 0
3.5250003 -1.804713 0.80421996 0
3.5200002 -1.8075269 0.80357957 0
3.5140002 -1.8097564 0.80281115 0
3.5090003 -1.8125327 0.80217087 0
3.5030003 -1.8147205 0.80140245 0
3.4980001 -1.8174587 0.80076206 0
3.4930003 -1.8201789 0.80012172 0
3.4880002 -1.822881 0.79948133 0
3.8340003 -1.6565123 0.83759946 0
3.8280003 -1.6598817 0.83684182 0
3.8210003 -1.6627569 0.835958 0
3.8150003 -1.6660814 0.83520043 0
3.8080003 -1.6689079 0.83431649 0
3.8020003 -1.6721872 0.83355892 0
3.7960002 -1.675445 0.83280134 0
3.7890003 -1.6781993 0.83191741 0
3.7830002 -1.6814119 0.83115983 0
3.7770002 -1.6846029 0.83040226 0
3.7700002 -1.6872851 0.82951838 0
3.7640002 -1.690431 0.82876074 0
3.7580004 -1.6935552 0.82800317 0
3.7510002 -1.6961652 0.82711929 0
3.7450004 -1.6992445 0.82636178 0
3.7390003 -1.7023019 0.82560408 0
3.7330003 -1.7053376 0.82484651 0
3.7270002 -1.7083517 0.82408893 0
3.7210002 -1.7113442 0.8233313 0
3.7150002 -1.7143152 0.82257366 0
3.7080002 -1.7167593 0.82168984 0
3.7020001 -1.7196851 0.82093227 0
3.6960003 -1.7225893 0.82017469 0
3.6900003 -1.7254717 0.81941706 0
3.6840003 -1.7283326 0.81865942 0
3.6780002 -1.7311717 0.81790185 0
3.6720002 -1.7339892 0.81714427 0
3.6660004 -1.7367853 0.8163867 0
3.6610003 -1.7400789 0.81575531 0
3.6550002 -1.7428334 0.81499767 0
3.6490002 -1.7455661 0.8142401 0
3.6430004 -1.7482773 0.81348252 0
3.6370003 -1.7509668 0.81272495 0
3.6310003 -1.7536346 0.81196731 0
3.6260002 -1.756811 0.81133598 0
3.6200004 -1.7594376 0.81057841 0
3.6140003 -1.7620422 0.80982077 0
3.6080003 -1.7646252 0.8090632 0
3.6030002 -1.767724 0.80843186 0
3.5970004 -1.7702658 0.80767429 0
3.5910003 -1.7727857 0.80691665 0
3.5860002 -1.7758268 0.80628532 0
3.5800002 -1.7783053 0.80552769 0
3.5740004 -1.7807622 0.80477011 0
3.5690002 -1.7837455 0.80413878 0
3.5630002 -1.7861608 0.8033812 0
3.5580003 -1.7891066 0.80274987 0
3.5520003 -1.7914803 0.8019923 0
3.5470002 -1.7943879 0.80136096 0
3.5410001 -1.7967204 0.80060327 0
3.5360003 -1.7995902 0.799972 0
3.5300002 -1.8018811 0.79921436 0
3.5250003 -1.804713 0.79858303 0
3.5200002 -1.8075269 0.7979517 0
3.5140002 -1.8097564 0.79719412 0
3.5090003 -1.8125327 0.79656279 0
3.5030003 -1.8147205 0.79580522 0
3.4980001 -1.8174587 0.79517388 0
3.4930003 -1.8201789 0.79454255 0
3.4880002 -1.822881 0.79391122 0
3.8340003 -1.6565123 0.83140516 0
3.8280003 -1.6598817 0.83065838 0
3.8210003 -1.6627569 0.82978714 0
3.8150003 -1.6660814 0.82904041 0
3.8080003 -1.6689079 0.82816911 0
3.8020003 -1.6721872 0.82742238 0
3.7960002 -1.675445 0.82667553 0
3.7890003 -1.6781993 0.82580435 0
3.7830002 -1.6814119 0.82505751 0
3.7770002 -1.6846029 0.82431078 0
3.7700002 -1.6872851 0.82343954 0
3.7640002 -1.690431 0.82269275 0
3.7580004 -1.6935552 0.82194602 0
3.7510002 -1.6961652 0.82107472 0
3.7450004 -1.6992445 0.820328 0
3.7390003 -1.7023019 0.81958121 0
3.7330003 -1.7053376 0.81883442 0
3.7270002 -1.7083517 0.81808764 0
3.7210002 -1.7113442 0.81734085 0
3.7150002 -1.7143152 0.81659406 0
3.7080002 -1.7167593 0.81572282 0
3.7020001 -1.7196851 0.81497604 0
3.6960003 -1.7225893 0.81422931 0
3.6900003 -1.7254717 0.81348252 0
3.6840003 -1.7283326 0.81273574 0
3.6780002 -1.7311717 0.81198895 0
3.6720002 -1.7339892 0.81124222 0
3.6660004 -1.7367853 0.81049544 0
3.6610003 -1.7400789 0.8098731 0
3.6550002 -1.7428334 0.80912632 0
3.6490002 -1.7455661 0.80837953 0
3.6430004 -1.7482773 0.8076328 0
3.6370003 -1.7509668 0.80688596 0
3.6310003 -1.7536346 0.80613923 0
3.6260002 -1.756811 0.8055169 0
3.6200004 -1.7594376 0.80477011 0
3.6140003 -1.7620422 0.80402339 0
3.6080003 -1.7646252 0.8032766 0
3.6030002 -1.767724 0.80265427 0
3.5970004 -1.7702658 0.80190754 0
3.5910003 -1.7727857 0.80116069 0
3.5860002 -1.7758268 0.80053842 0
3.5800002 -1.7783053 0.79979157 0
3.5740004 -1.7807622 0.79904485 0
3.5690002 -1.7837455 0.79842252 0
3.5630002 -1.7861608 0.79767573 0
3.5580003 -1.7891066 0.79705346 0
3.5520003 -1.7914803 0.79630661 0
3.5470002 -1.7943879 0.79568434 0
3.5410001 -1.7967204 0.79493755 0
3.5360003 -1.7995902 0.79431528 0
3.5300002 -1.8018811 0.79356849 0
3.5250003 -1.804713 0.79294616 0
3.5200002 -1.8075269 0.79232383 0
3.5140002 -1.8097564 0.7915771 0
3.5090003 -1.8125327 0.79095477 0
3.5030003 -1.8147205 0.79020798 0
3.4980001 -1.8174587 0.78958571 0
3.4930003 -1.8201789 0.78896332 0
3.4880002 -1.822881 0.78834105 0
3.8340003 -1.6565123 0.82521093 0
3.8280003 -1.6598817 0.82447493 0
3.8210003 -1.6627569 0.82361633 0
3.8150003 -1.6660814 0.82288039 0
3.8080003 -1.6689079 0.82202172 0
3.8020003 -1.6721872 0.82128584 0
3.7960002 -1.675445 0.82054985 0
3.7890003 -1.6781993 0.81969124 0
3.7830002 -1.6814119 0.8189553 0
3.7770002 -1.6846029 0.8182193 0
3.7700002 -1.6872851 0.8173607 0
3.7640002 -1.690431 0.81662476 0
3.7580004 -1.6935552 0.81588882 0
3.7510002 -1.6961652 0.81503022 0
3.7450004 -1.6992445 0.81429422 0
3.7390003 -1.7023019 0.81355828 0
3.7330003 -1.7053376 0.81282234 0
3.7270002 -1.7083517 0.81208634 0
3.7210002 -1.7113442 0.81135041 0
3.7150002 -1.7143152 0.81061447 0
3.7080002 -1.7167593 0.8097558 0
3.7020001 -1.7196851 0.80901992 0
3.6960003 -1.7225893 0.80828393 0
3.6900003 -1.7254717 0.80754805 0
3.6840003 -1.7283326 0.80681205 0
3.6780002 -1.7311717 0.80607605 0
3.6720002 -1.7339892 0.80534011 0
3.6660004 -1.7367853 0.80460417 0
3.6610003 -1.7400789 0.8039909 0
3.6550002 -1.7428334 0.80325496 0
3.6490002 -1.7455661 0.80251896 0
3.6430004 -1.7482773 0.80178303 0
3.6370003 -1.7509668 0.80104709 0
3.6310003 -1.7536346 0.80031109 0
3.6260002 -1.756811 0.79969782 0
3.6200004 -1.7594376 0.79896188 0
3.6140003 -1.7620422 0.79822588 0
3.6080003 -1.7646252 0.79749 0
3.6030002 -1.767724 0.79687667 0
3.5970004 -1.7702658 0.79614067 0
3.5910003 -1.7727857 0.79540479 0
3.5860002 -1.7758268 0.79479146 0
3.5800002 -1.7783053 0.79405546 0
3.5740004 -1.7807622 0.79331958 0
3.5690002 -1.7837455 0.79270625 0
3.5630002 -1.7861608 0.79197031 0
3.5580003 -1.7891066 0.79135704 0
3.5520003 -1.7914803 0.79062104 0
3.5470002 -1.7943879 0.79000771 0
3.5410001 -1.7967204 0.78927177 0
3.5360003 -1.7995902 0.7886585 0
3.5300002 -1.8018811 0.78792256 0
3.5250003 -1.804713 0.78730929 0
3.5200002 -1.8075269 0.78669596 0
3.5140002 -1.8097564 0.78595996 0
3.5090003 -1.8125327 0.78534675 0
3.5030003 -1.8147205 0.78461075 0
3.4980001 -1.8174587 0.78399742 0
3.4930003 -1.8201789 0.7833842 0
3.4880002 -1.822881 0.78277087 0
3.8340003 -1.6565123 0.81901658 0
3.8280003 -1.6598817 0.81829149 0
3.8210003 -1.6627569 0.81744552 0
3.8150003 -1.6660814 0.81672037 0
3.8080003 -1.6689079 0.81587434 0
3.8020003 -1.6721872 0.81514919 0
3.7960002 -1.675445 0.81442416 0
3.7890003 -1.6781993 0.81357813 0
3.7830002 -1.6814119 0.81285298 0
3.7770002 -1.6846029 0.81212783 0
3.7700002 -1.6872851 0.81128186 0
3.7640002 -1.690431 0.81055677 0
3.7580004 -1.6935552 0.80983162 0
3.7510002 -1.6961652 0.80898559 0
3.7450004 -1.6992445 0.8082605 0
3.7390003 -1.7023019 0.80753541 0
3.7330003 -1.7053376 0.80681026 0
3.7270002 -1.7083517 0.80608511 0
3.7210002 -1.7113442 0.80535996 0
3.7150002 -1.7143152 0.80463481 0
3.7080002 -1.7167593 0.80378884 0
3.7020001 -1.7196851 0.80306375 0
3.6960003 -1.7225893 0.8023386 0
3.6900003 -1.7254717 0.80161345 0
3.6840003 -1.7283326 0.8008883 0
3.6780002 -1.7311717 0.80016321 0
3.6720002 -1.7339892 0.79943806 0
3.6660004 -1.7367853 0.79871297 0
3.6610003 -1.7400789 0.7981087 0
3.6550002 -1.7428334 0.79738355 0
3.6490002 -1.7455661 0.7966584 0
3.6430004 -1.7482773 0.79593325 0
3.6370003 -1.7509668 0.79520816 0
3.6310003 -1.7536346 0.79448301 0
3.6260002 -1.756811 0.79387867 0
3.6200004 -1.7594376 0.79315364 0
3.6140003 -1.7620422 0.79242849 0
3.6080003 -1.7646252 0.79170334 0
3.6030002 -1.767724 0.79109907 0
3.5970004 -1.7702658 0.79037392 0
3.5910003 -1.7727857 0.78964877 0
3.5860002 -1.7758268 0.7890445 0
3.5800002 -1.7783053 0.78831935 0
3.5740004 -1.7807622 0.78759432 0
3.5690002 -1.7837455 0.78698999 0
3.5630002 -1.7861608 0.78626484 0
3.5580003 -1.7891066 0.78566062 0
3.5520003 -1.7914803 0.78493547 0
3.5470002 -1.7943879 0.78433114 0
3.5410001 -1.7967204 0.78360605 0
3.5360003 -1.7995902 0.78300178 0
3.5300002 -1.8018811 0.78227663 0
3.5250003 -1.804713 0.78167236 0
3.5200002 -1.8075269 0.78106809 0
3.5140002 -1.8097564 0.78034294 0
3.5090003 -1.8125327 0.77973866 0
3.5030003 -1.8147205 0.77901357 0
3.4980001 -1.8174587 0.77840924 0
3.4930003 -1.8201789 0.77780497 0
3.4880002 -1.822881 0.7772007 0
3.8410003 -1.6535882 0.81365573 0
3.8340003 -1.6565123 0.81282234 0
3.8280003 -1.6598817 0.81210804 0
3.8210003 -1.6627569 0.81127465 0
3.8150003 -1.6660814 0.81056035 0
3.8090003 -1.6693841 0.80984604 0
3.8020003 -1.6721872 0.80901265 0
3.7960002 -1.675445 0.80829835 0
3.7890003 -1.6781993 0.80746502 0
3.7830002 -1.6814119 0.80675071 0
3.7770002 -1.6846029 0.80603635 0
3.7700002 -1.6872851 0.80520308 0
3.7640002 -1.690431 0.80448872 0
3.7580004 -1.6935552 0.80377448 0
3.7510002 -1.6961652 0.80294108 0
3.7450004 -1.6992445 0.80222678 0
3.7390003 -1.7023019 0.80151248 0
3.7330003 -1.7053376 0.80079818 0
3.7270002 -1.7083517 0.80008388 0
3.7210002 -1.7113442 0.79936951 0
3.7150002 -1.7143152 0.79865521 0
3.7080002 -1.7167593 0.79782188 0
3.7020001 -1.7196851 0.79710758 0
3.6960003 -1.7225893 0.79639328 0
3.6900003 -1.7254717 0.79567897 0
3.6840003 -1.7283326 0.79496461 0
3.6780002 -1.7311717 0.79425031 0
3.6720002 -1.7339892 0.79353601 0
3.6660004 -1.7367853 0.79282171 0
3.6610003 -1.7400789 0.79222643 0
3.6550002 -1.7428334 0.79151213 0
3.6490002 -1.7455661 0.79079783 0
3.6430004 -1.7482773 0.79008353 0
3.6370003 -1.7509668 0.78936923 0
3.6310003 -1.7536346 0.78865492 0
3.6260002 -1.756811 0.78805959 0
3.6200004 -1.7594376 0.78734535 0
3.6140003 -1.7620422 0.78663099 0
3.6080003 -1.7646252 0.78591669 0
3.6030002 -1.767724 0.78532147 0
3.5970004 -1.7702658 0.78460717 0
3.5910003 -1.7727857 0.78389287 0
3.5860002 -1.7758268 0.78329754 0
3.5800002 -1.7783053 0.78258324 0
3.5740004 -1.7807622 0.78186899 0
3.5690002 -1.7837455 0.78127372 0
3.5630002 -1.7861608 0.78055942 0
3.5580003 -1.7891066 0.77996415 0
3.5520003 -1.7914803 0.77924985 0
3.5470002 -1.7943879 0.77865458 0
3.5410001 -1.7967204 0.77794027 0
3.5360003 -1.7995902 0.77734506 0
3.5300002 -1.8018811 0.7766307 0
3.5250003 -1.804713 0.77603543 0
3.5200002 -1.8075269 0.77544022 0
3.5140002 -1.8097564 0.77472591 0
3.5090003 -1.8125327 0.77413064 0
3.5030003 -1.8147205 0.77341628 0
3.4980001 -1.8174587 0.77282107 0
3.4930003 -1.8201789 0.77222586 0
3.4880002 -1.822881 0.77163053 0
3.8410003 -1.6535882 0.80744874 0
3.8340003 -1.6565123 0.80662811 0
3.8280003 -1.6598817 0.80592453 0
3.8210003 -1.6627569 0.80510384 0
3.8150003 -1.6660814 0.80440032 0
3.8090003 -1.6693841 0.80369687 0
3.8020003 -1.6721872 0.80287611 0
3.7960002 -1.675445 0.80217266 0
3.7890003 -1.6781993 0.8013519 0
3.7830002 -1.6814119 0.80064845 0
3.7770002 -1.6846029 0.79994494 0
3.7700002 -1.6872851 0.79912418 0
3.7640002 -1.690431 0.79842067 0
3.7580004 -1.6935552 0.79771721 0
3.7510002 -1.6961652 0.79689646 0
3.7450004 -1.6992445 0.796193 0
3.7390003 -1.7023019 0.79548955 0
3.7330003 -1.7053376 0.7947861 0
3.7270002 -1.7083517 0.79408252 0
3.7210002 -1.7113442 0.79337907 0
3.7150002 -1.7143152 0.79267561 0
3.7080002 -1.7167593 0.79185486 0
3.7020001 -1.7196851 0.7911514 0
3.6960003 -1.7225893 0.79044795 0
3.6900003 -1.7254717 0.78974438 0
3.6840003 -1.7283326 0.78904092 0
3.6780002 -1.7311717 0.78833747 0
3.6720002 -1.7339892 0.78763396 0
3.6660004 -1.7367853 0.7869305 0
3.6610003 -1.7400789 0.78634423 0
3.6550002 -1.7428334 0.78564072 0
3.6490002 -1.7455661 0.78493726 0
3.6430004 -1.7482773 0.78423381 0
3.6370003 -1.7509668 0.78353029 0
3.6310003 -1.7536346 0.78282678 0
3.6260002 -1.756811 0.78224051 0
3.6200004 -1.7594376 0.78153706 0
3.6140003 -1.7620422 0.7808336 0
3.6080003 -1.7646252 0.78013015 0
3.6030002 -1.767724 0.77954388 0
3.5970004 -1.7702658 0.77884042 0
3.5910003 -1.7727857 0.77813691 0
3.5860002 -1.7758268 0.7775507 0
3.5800002 -1.7783053 0.77684712 0
3.5740004 -1.7807622 0.77614367 0
3.5690002 -1.7837455 0.77555746 0
3.5630002 -1.7861608 0.77485394 0
3.5580003 -1.7891066 0.77426773 0
3.5520003 -1.7914803 0.77356422 0
3.5470002 -1.7943879 0.77297801 0
3.5410001 -1.7967204 0.77227449 0
3.5360003 -1.7995902 0.77168828 0
3.5300002 -1.8018811 0.77098477 0
3.5250003 -1.804713 0.77039856 0
3.5200002 -1.8075269 0.76981235 0
3.5140002 -1.8097564 0.76910883 0
3.5090003 -1.8125327 0.76852262 0
3.5030003 -1.8147205 0.76781911 0
3.4980001 -1.8174587 0.76723289 0
3.4930003 -1.8201789 0.76664662 0
3.4880002 -1.822881 0.76606035 0
3.8410003 -1.6535882 0.80124187 0
3.8340003 -1.6565123 0.80043375 0
3.8280003 -1.6598817 0.79974115 0
3.8210003 -1.6627569 0.79893303 0
3.8150003 -1.6660814 0.7982403 0
3.8090003 -1.6693841 0.7975477 0
3.8020003 -1.6721872 0.79673958 0
3.7960002 -1.675445 0.79604691 0
3.7890003 -1.6781993 0.79523879 0
3.7830002 -1.6814119 0.79454613 0
3.7770002 -1.6846029 0.79385346 0
3.7700002 -1.6872851 0.7930454 0
3.7640002 -1.690431 0.79235268 0
3.7580004 -1.6935552 0.79166007 0
3.7510002 -1.6961652 0.79085195 0
3.7450004 -1.6992445 0.79015929 0
3.7390003 -1.7023019 0.78946662 0
3.7330003 -1.7053376 0.78877395 0
3.7270002 -1.7083517 0.78808129 0
3.7210002 -1.7113442 0.78738862 0
3.7150002 -1.7143152 0.78669596 0
3.7080002 -1.7167593 0.78588784 0
3.7020001 -1.7196851 0.78519523 0
3.6960003 -1.7225893 0.78450251 0
3.6900003 -1.7254717 0.7838099 0
