# .PCD v0.7 - Point Cloud Data file format
VERSION 0.7
FIELDS x y z intensity
SIZE 4 4 4 4
TYPE F F F F
COUNT 1 1 1 1
WIDTH 1503
HEIGHT 1
VIEWPOINT 0 0 0 1 0 0 0
POINTS 1503
DATA ascii
5.6420002 2.7623022 2.2478347 0
5.6510005 2.757652 2.2510004 0
5.6600003 2.7529693 2.2541661 0
5.6690001 2.7482541 2.2573316 0
5.6780005 2.7435064 2.2604976 0
5.6870003 2.7387264 2.2636633 0
5.6960006 2.7339139 2.266829 0
5.7050004 2.7290688 2.2699945 0
5.7140002 2.7241914 2.27316 0
5.7230005 2.7192814 2.2763259 0
5.7320004 2.7143388 2.2794914 0
5.7410002 2.7093639 2.2826571 0
5.7510004 2.7048707 2.2861748 0
5.7600002 2.6998289 2.2893405 0
5.7690005 2.6947551 2.292506 0
5.7780004 2.6896484 2.2956717 0
5.7880006 2.6850162 2.2991893 0
5.7970004 2.6798427 2.3023548 0
5.8060002 2.6746371 2.3055205 0
5.8160005 2.6699002 2.3090382 0
5.8250003 2.6646278 2.3122036 0
5.8350005 2.6598206 2.315721 0
5.8440003 2.6544814 2.3188868 0
5.8540006 2.6496038 2.3224044 0
5.8630004 2.6441977 2.3255699 0
5.8730001 2.6392498 2.3290873 0
5.8830004 2.6342659 2.3326046 0
5.8920002 2.6287591 2.3357704 0
5.9020004 2.6237047 2.3392878 0
5.9120002 2.6186144 2.3428051 0
5.9220004 2.613488 2.3463225 0
5.9320002 2.6083252 2.3498399 0
6.0730004 2.532717 2.399436 0
5.4630003 2.8581924 2.17574 0
5.4710002 2.8536344 2.1785395 0
5.4790006 2.8490474 2.1813393 0
5.4880004 2.8449996 2.1844885 0
5.4960003 2.8403528 2.187288 0
5.5040002 2.8356774 2.1900876 0
5.5130005 2.8315361 2.1932371 0
5.5210004 2.8268011 2.1960366 0
5.5300002 2.8225961 2.1991861 0
5.5380001 2.8178015 2.2019854 0
5.5470004 2.813534 2.2051351 0
5.5550003 2.8086798 2.2079346 0
5.5640001 2.8043487 2.2110839 0
5.5720005 2.7994354 2.2138836 0
5.5810003 2.7950413 2.2170329 0
5.5900002 2.7906146 2.2201822 0
5.5980005 2.7856112 2.2229819 0
5.6070004 2.7811213 2.2261312 0
5.6160002 2.7765992 2.2292807 0
5.6250005 2.7720447 2.2324302 0
5.6330004 2.7669199 2.2352297 0
5.6420002 2.7623022 2.238379 0
5.6510005 2.757652 2.2415287 0
5.6600003 2.7529693 2.244678 0
5.6690001 2.7482541 2.2478275 0
5.6780005 2.7435064 2.250977 0
5.6870003 2.7387264 2.2541263 0
5.6960006 2.7339139 2.2572758 0
5.7050004 2.7290688 2.2604253 0
5.7140002 2.7241914 2.2635746 0
5.7230005 2.7192814 2.2667243 0
5.7320004 2.7143388 2.2698736 0
5.7410002 2.7093639 2.2730231 0
5.7510004 2.7048707 2.2765226 0
5.7600002 2.6998289 2.2796717 0
5.7690005 2.6947551 2.2828214 0
5.7780004 2.6896484 2.2859707 0
5.7880006 2.6850162 2.2894702 0
5.7970004 2.6798427 2.2926197 0
5.8060002 2.6746371 2.2957692 0
5.8160005 2.6699002 2.2992685 0
5.8250003 2.6646278 2.302418 0
5.8350005 2.6598206 2.3059175 0
5.8440003 2.6544814 2.3090668 0
5.8540006 2.6496038 2.3125663 0
5.8630004 2.6441977 2.3157156 0
5.8730001 2.6392498 2.3192148 0
5.8830004 2.6342659 2.3227143 0
5.8920002 2.6287591 2.3258638 0
5.9020004 2.6237047 2.3293633 0
5.9120002 2.6186144 2.3328626 0
5.9220004 2.613488 2.3363621 0
5.9320002 2.6083252 2.3398614 0
6.0730004 2.532717 2.3892026 0
5.4630003 2.8581924 2.1666074 0
5.4710002 2.8536344 2.1693923 0
5.4790006 2.8490474 2.1721776 0
5.4880004 2.8449996 2.1753109 0
5.4960003 2.8403528 2.1780958 0
5.5040002 2.8356774 2.180881 0
5.5130005 2.8315361 2.1840143 0
5.5210004 2.8268011 2.1867993 0
5.5300002 2.8225961 2.1899323 0
5.5380001 2.8178015 2.1927173 0
5.5470004 2.813534 2.1958508 0
5.5550003 2.8086798 2.1986358 0
5.5640001 2.8043487 2.2017689 0
5.5720005 2.7994354 2.2045543 0
5.5810003 2.7950413 2.2076874 0
5.5900002 2.7906146 2.2108204 0
5.5980005 2.7856112 2.2136059 0
5.6070004 2.7811213 2.2167389 0
5.6160002 2.7765992 2.219872 0
5.6250005 2.7720447 2.2230053 0
5.6330004 2.7669199 2.2257905 0
5.6420002 2.7623022 2.2289236 0
5.6510005 2.757652 2.2320569 0
5.6600003 2.7529693 2.2351902 0
5.6690001 2.7482541 2.2383232 0
5.6780005 2.7435064 2.2414565 0
5.6870003 2.7387264 2.2445896 0
5.6960006 2.7339139 2.2477231 0
5.7050004 2.7290688 2.2508562 0
5.7140002 2.7241914 2.2539892 0
5.7230005 2.7192814 2.2571228 0
5.7320004 2.7143388 2.2602558 0
5.7410002 2.7093639 2.2633889 0
5.7510004 2.7048707 2.2668703 0
5.7600002 2.6998289 2.2700033 0
5.7690005 2.6947551 2.2731366 0
5.7780004 2.6896484 2.2762702 0
5.7880006 2.6850162 2.2797513 0
5.7970004 2.6798427 2.2828846 0
5.8060002 2.6746371 2.2860177 0
5.8160005 2.6699002 2.289499 0
5.8250003 2.6646278 2.2926323 0
5.8350005 2.6598206 2.2961137 0
5.8440003 2.6544814 2.2992468 0
5.8540006 2.6496038 2.3027282 0
5.8630004 2.6441977 2.3058615 0
5.8730001 2.6392498 2.3093429 0
5.8830004 2.6342659 2.312824 0
5.8920002 2.6287591 2.3159573 0
5.9020004 2.6237047 2.3194387 0
5.9120002 2.6186144 2.3229201 0
5.9220004 2.613488 2.3264015 0
5.9320002 2.6083252 2.3298826 0
6.0730004 2.532717 2.3789697 0
5.4630003 2.8581924 2.1574748 0
5.4710002 2.8536344 2.1602454 0
5.4790006 2.8490474 2.1630161 0
5.4880004 2.8449996 2.1661332 0
5.4960003 2.8403528 2.1689036 0
5.5040002 2.8356774 2.1716743 0
5.5130005 2.8315361 2.1747913 0
5.5210004 2.8268011 2.177562 0
5.5300002 2.8225961 2.1806788 0
5.5380001 2.8178015 2.1834495 0
5.5470004 2.813534 2.1865666 0
5.5550003 2.8086798 2.1893373 0
5.5640001 2.8043487 2.1924541 0
5.5720005 2.7994354 2.1952248 0
5.5810003 2.7950413 2.1983418 0
5.5900002 2.7906146 2.2014587 0
5.5980005 2.7856112 2.2042296 0
5.6070004 2.7811213 2.2073464 0
5.6160002 2.7765992 2.2104635 0
5.6250005 2.7720447 2.2135804 0
5.6330004 2.7669199 2.216351 0
5.6420002 2.7623022 2.2194679 0
5.6510005 2.757652 2.222585 0
5.6600003 2.7529693 2.225702 0
5.6690001 2.7482541 2.2288189 0
5.6780005 2.7435064 2.231936 0
5.6870003 2.7387264 2.2350528 0
5.6960006 2.7339139 2.2381699 0
5.7050004 2.7290688 2.241287 0
5.7140002 2.7241914 2.2444038 0
5.7230005 2.7192814 2.2475209 0
5.7320004 2.7143388 2.2506378 0
5.7410002 2.7093639 2.2537549 0
5.7510004 2.7048707 2.2572181 0
5.7600002 2.6998289 2.260335 0
5.7690005 2.6947551 2.2634523 0
5.7780004 2.6896484 2.2665691 0
5.7880006 2.6850162 2.2700324 0
5.7970004 2.6798427 2.2731495 0
5.8060002 2.6746371 2.2762663 0
5.8160005 2.6699002 2.2797296 0
5.8250003 2.6646278 2.2828467 0
5.8350005 2.6598206 2.28631 0
5.8440003 2.6544814 2.289427 0
5.8540006 2.6496038 2.2928903 0
5.8630004 2.6441977 2.2960072 0
5.8730001 2.6392498 2.2994704 0
5.8830004 2.6342659 2.3029339 0
5.8920002 2.6287591 2.3060508 0
5.9020004 2.6237047 2.309514 0
5.9120002 2.6186144 2.3129773 0
5.9220004 2.613488 2.3164408 0
5.9320002 2.6083252 2.3199041 0
6.0730004 2.532717 2.3687367 0
5.4630003 2.8581924 2.1483421 0
5.4710002 2.8536344 2.1510983 0
5.4790006 2.8490474 2.1538546 0
5.4880004 2.8449996 2.1569552 0
5.4960003 2.8403528 2.1597116 0
5.5040002 2.8356774 2.1624677 0
5.5130005 2.8315361 2.1655686 0
5.5210004 2.8268011 2.1683247 0
5.5300002 2.8225961 2.1714253 0
5.5380001 2.8178015 2.1741817 0
5.5470004 2.813534 2.1772823 0
5.5550003 2.8086798 2.1800387 0
5.5640001 2.8043487 2.1831393 0
5.5720005 2.7994354 2.1858954 0
5.5810003 2.7950413 2.1889963 0
5.5900002 2.7906146 2.1920969 0
5.5980005 2.7856112 2.1948533 0
5.6070004 2.7811213 2.1979539 0
5.6160002 2.7765992 2.2010548 0
5.6250005 2.7720447 2.2041557 0
5.6330004 2.7669199 2.2069118 0
5.6420002 2.7623022 2.2100124 0
5.6510005 2.757652 2.2131133 0
5.6600003 2.7529693 2.2162139 0
5.6690001 2.7482541 2.2193146 0
5.6780005 2.7435064 2.2224154 0
5.6870003 2.7387264 2.2255161 0
5.6960006 2.7339139 2.228617 0
5.7050004 2.7290688 2.2317178 0
5.7140002 2.7241914 2.2348185 0
5.7230005 2.7192814 2.2379191 0
5.7320004 2.7143388 2.24102 0
5.7410002 2.7093639 2.2441206 0
5.7510004 2.7048707 2.247566 0
5.7600002 2.6998289 2.2506666 0
5.7690005 2.6947551 2.2537675 0
5.7780004 2.6896484 2.2568681 0
5.7880006 2.6850162 2.2603137 0
5.7970004 2.6798427 2.2634141 0
5.8060002 2.6746371 2.266515 0
5.8160005 2.6699002 2.2699602 0
5.8250003 2.6646278 2.273061 0
5.8350005 2.6598206 2.2765064 0
5.8440003 2.6544814 2.2796071 0
5.8540006 2.6496038 2.2830524 0
5.8630004 2.6441977 2.2861531 0
5.8730001 2.6392498 2.2895982 0
5.8830004 2.6342659 2.2930436 0
5.8920002 2.6287591 2.2961442 0
5.9020004 2.6237047 2.2995896 0
5.9120002 2.6186144 2.3030348 0
5.9220004 2.613488 2.3064802 0
5.9320002 2.6083252 2.3099253 0
6.0730004 2.532717 2.3585038 0
5.4630003 2.8581924 2.1392093 0
5.4710002 2.8536344 2.1419511 0
5.4790006 2.8490474 2.1446929 0
5.4880004 2.8449996 2.1477776 0
5.4960003 2.8403528 2.1505194 0
5.5040002 2.8356774 2.1532609 0
5.5130005 2.8315361 2.1563456 0
5.5210004 2.8268011 2.1590874 0
5.5300002 2.8225961 2.1621718 0
5.5380001 2.8178015 2.1649137 0
5.5470004 2.813534 2.1679981 0
5.5550003 2.8086798 2.1707399 0
5.5640001 2.8043487 2.1738245 0
5.5720005 2.7994354 2.1765664 0
5.5810003 2.7950413 2.1796508 0
5.5900002 2.7906146 2.1827352 0
5.5980005 2.7856112 2.185477 0
5.6070004 2.7811213 2.1885617 0
5.6160002 2.7765992 2.1916461 0
5.6250005 2.7720447 2.1947305 0
5.6330004 2.7669199 2.1974726 0
5.6420002 2.7623022 2.200557 0
5.6510005 2.757652 2.2036414 0
5.6600003 2.7529693 2.2067258 0
5.6690001 2.7482541 2.2098103 0
5.6780005 2.7435064 2.2128949 0
5.6870003 2.7387264 2.2159793 0
5.6960006 2.7339139 2.219064 0
5.7050004 2.7290688 2.2221487 0
5.7140002 2.7241914 2.2252331 0
5.7230005 2.7192814 2.2283175 0
5.7320004 2.7143388 2.2314022 0
5.7410002 2.7093639 2.2344866 0
5.7510004 2.7048707 2.2379138 0
5.7600002 2.6998289 2.2409983 0
5.7690005 2.6947551 2.2440829 0
5.7780004 2.6896484 2.2471673 0
5.7880006 2.6850162 2.2505946 0
5.7970004 2.6798427 2.253679 0
5.8060002 2.6746371 2.2567635 0
5.8160005 2.6699002 2.2601907 0
5.8250003 2.6646278 2.2632751 0
5.8350005 2.6598206 2.2667024 0
5.8440003 2.6544814 2.2697871 0
5.8540006 2.6496038 2.2732143 0
5.8630004 2.6441977 2.276299 0
5.8730001 2.6392498 2.279726 0
5.8830004 2.6342659 2.2831533 0
5.8920002 2.6287591 2.2862377 0
5.9020004 2.6237047 2.289665 0
5.9120002 2.6186144 2.2930923 0
5.9220004 2.613488 2.2965195 0
5.9320002 2.6083252 2.2999465 0
6.0730004 2.532717 2.3482709 0
5.4630003 2.8581924 2.1300766 0
5.4710002 2.8536344 2.1328039 0
5.4790006 2.8490474 2.1355314 0
5.4880004 2.8449996 2.1385999 0
5.4960003 2.8403528 2.1413271 0
5.5040002 2.8356774 2.1440544 0
5.5130005 2.8315361 2.1471226 0
5.5210004 2.8268011 2.1498501 0
5.5300002 2.8225961 2.1529183 0
5.5380001 2.8178015 2.1556456 0
5.5470004 2.813534 2.1587141 0
5.5550003 2.8086798 2.1614413 0
5.5640001 2.8043487 2.1645095 0
5.5720005 2.7994354 2.167237 0
5.5810003 2.7950413 2.1703053 0
5.5900002 2.7906146 2.1733735 0
5.5980005 2.7856112 2.176101 0
5.6070004 2.7811213 2.1791692 0
5.6160002 2.7765992 2.1822374 0
5.6250005 2.7720447 2.1853058 0
5.6330004 2.7669199 2.1880331 0
5.6420002 2.7623022 2.1911013 0
5.6510005 2.757652 2.1941698 0
5.6600003 2.7529693 2.1972377 0
5.6690001 2.7482541 2.2003062 0
5.6780005 2.7435064 2.2033744 0
5.6870003 2.7387264 2.2064428 0
5.6960006 2.7339139 2.209511 0
5.7050004 2.7290688 2.2125793 0
5.7140002 2.7241914 2.2156475 0
5.7230005 2.7192814 2.2187159 0
5.7320004 2.7143388 2.2217841 0
5.7410002 2.7093639 2.2248523 0
5.7510004 2.7048707 2.2282617 0
5.7600002 2.6998289 2.2313299 0
5.7690005 2.6947551 2.2343981 0
5.7780004 2.6896484 2.2374666 0
5.7880006 2.6850162 2.2408757 0
5.7970004 2.6798427 2.2439439 0
5.8060002 2.6746371 2.2470121 0
5.8160005 2.6699002 2.2504215 0
5.8250003 2.6646278 2.2534897 0
5.8350005 2.6598206 2.2568989 0
5.8440003 2.6544814 2.2599671 0
5.8540006 2.6496038 2.2633762 0
5.8630004 2.6441977 2.2664447 0
5.8730001 2.6392498 2.2698536 0
5.8830004 2.6342659 2.2732632 0
5.8920002 2.6287591 2.2763312 0
5.9020004 2.6237047 2.2797406 0
5.9120002 2.6186144 2.2831497 0
5.9220004 2.613488 2.2865589 0
5.9320002 2.6083252 2.289968 0
6.0730004 2.532717 2.3380377 0
5.4630003 2.8581924 2.120944 0
5.4710002 2.8536344 2.123657 0
5.4790006 2.8490474 2.12637 0
5.4880004 2.8449996 2.1294219 0
5.4960003 2.8403528 2.1321349 0
5.5040002 2.8356774 2.1348476 0
5.5130005 2.8315361 2.1378999 0
5.5210004 2.8268011 2.1406128 0
5.5300002 2.8225961 2.1436648 0
5.5380001 2.8178015 2.1463778 0
5.5470004 2.813534 2.1494298 0
5.5550003 2.8086798 2.1521425 0
5.5640001 2.8043487 2.1551948 0
5.5720005 2.7994354 2.1579077 0
5.5810003 2.7950413 2.1609597 0
5.5900002 2.7906146 2.1640117 0
5.5980005 2.7856112 2.1667247 0
5.6070004 2.7811213 2.1697767 0
5.6160002 2.7765992 2.1728287 0
5.6250005 2.7720447 2.1758809 0
5.6330004 2.7669199 2.1785939 0
5.6420002 2.7623022 2.1816459 0
5.6510005 2.757652 2.1846979 0
5.6600003 2.7529693 2.1877499 0
5.6690001 2.7482541 2.1908019 0
5.6780005 2.7435064 2.1938539 0
5.6870003 2.7387264 2.1969061 0
5.6960006 2.7339139 2.1999581 0
5.7050004 2.7290688 2.2030101 0
5.7140002 2.7241914 2.2060621 0
5.7230005 2.7192814 2.2091143 0
5.7320004 2.7143388 2.2121663 0
5.7410002 2.7093639 2.2152183 0
5.7510004 2.7048707 2.2186093 0
5.7600002 2.6998289 2.2216616 0
5.7690005 2.6947551 2.2247136 0
5.7780004 2.6896484 2.2277656 0
5.7880006 2.6850162 2.2311568 0
5.7970004 2.6798427 2.2342088 0
5.8060002 2.6746371 2.2372608 0
5.8160005 2.6699002 2.2406521 0
5.8250003 2.6646278 2.2437038 0
5.8350005 2.6598206 2.2470953 0
5.8440003 2.6544814 2.2501471 0
5.8540006 2.6496038 2.2535384 0
5.8630004 2.6441977 2.2565904 0
5.8730001 2.6392498 2.2599814 0
5.8830004 2.6342659 2.2633727 0
5.8920002 2.6287591 2.2664247 0
5.9020004 2.6237047 2.2698159 0
5.9120002 2.6186144 2.2732069 0
5.9220004 2.613488 2.2765985 0
5.9320002 2.6083252 2.2799892 0
6.0730004 2.532717 2.3278048 0
5.4630003 2.8581924 2.1118114 0
5.4710002 2.8536344 2.1145098 0
5.4790006 2.8490474 2.1172085 0
5.4880004 2.8449996 2.1202443 0
5.4960003 2.8403528 2.1229427 0
5.5040002 2.8356774 2.1256411 0
5.5130005 2.8315361 2.1286771 0
5.5210004 2.8268011 2.1313756 0
5.5300002 2.8225961 2.1344111 0
5.5380001 2.8178015 2.1371098 0
5.5470004 2.813534 2.1401455 0
5.5550003 2.8086798 2.142844 0
5.5640001 2.8043487 2.1458797 0
5.5720005 2.7994354 2.1485784 0
5.5810003 2.7950413 2.1516142 0
5.5900002 2.7906146 2.15465 0
5.5980005 2.7856112 2.1573486 0
5.6070004 2.7811213 2.1603842 0
5.6160002 2.7765992 2.16342 0
5.6250005 2.7720447 2.166456 0
5.6330004 2.7669199 2.1691544 0
5.6420002 2.7623022 2.1721902 0
5.6510005 2.757652 2.175226 0
5.6600003 2.7529693 2.1782618 0
5.6690001 2.7482541 2.1812975 0
5.6780005 2.7435064 2.1843336 0
5.6870003 2.7387264 2.1873691 0
5.6960006 2.7339139 2.1904051 0
5.7050004 2.7290688 2.1934409 0
5.7140002 2.7241914 2.1964767 0
5.7230005 2.7192814 2.1995125 0
5.7320004 2.7143388 2.2025483 0
5.7410002 2.7093639 2.205584 0
5.7510004 2.7048707 2.2089572 0
5.7600002 2.6998289 2.211993 0
5.7690005 2.6947551 2.2150288 0
5.7780004 2.6896484 2.2180645 0
5.7880006 2.6850162 2.2214379 0
5.7970004 2.6798427 2.2244737 0
5.8060002 2.6746371 2.2275093 0
5.8160005 2.6699002 2.2308826 0
5.8250003 2.6646278 2.2339184 0
5.8350005 2.6598206 2.2372916 0
5.8440003 2.6544814 2.2403274 0
5.8540006 2.6496038 2.2437005 0
5.8630004 2.6441977 2.2467363 0
5.8730001 2.6392498 2.2501092 0
5.8830004 2.6342659 2.2534823 0
5.8920002 2.6287591 2.2565181 0
5.9020004 2.6237047 2.2598913 0
5.9120002 2.6186144 2.2632644 0
5.9220004 2.613488 2.2666376 0
5.9320002 2.6083252 2.2700107 0
6.0730004 2.532717 2.3175719 0
5.4630003 2.8581924 2.1026785 0
5.4710002 2.8536344 2.1053627 0
5.4790006 2.8490474 2.1080468 0
5.4880004 2.8449996 2.1110663 0
5.4960003 2.8403528 2.1137505 0
5.5040002 2.8356774 2.1164343 0
5.5130005 2.8315361 2.1194541 0
5.5210004 2.8268011 2.1221383 0
5.5300002 2.8225961 2.1251576 0
5.5380001 2.8178015 2.1278417 0
5.5470004 2.813534 2.1308613 0
5.5550003 2.8086798 2.1335454 0
5.5640001 2.8043487 2.136565 0
5.5720005 2.7994354 2.1392491 0
5.5810003 2.7950413 2.1422687 0
5.5900002 2.7906146 2.1452882 0
5.5980005 2.7856112 2.1479723 0
5.6070004 2.7811213 2.1509919 0
5.6160002 2.7765992 2.1540115 0
5.6250005 2.7720447 2.1570311 0
5.6330004 2.7669199 2.1597152 0
5.6420002 2.7623022 2.1627345 0
5.6510005 2.757652 2.1657543 0
5.6600003 2.7529693 2.1687739 0
5.6690001 2.7482541 2.1717932 0
5.6780005 2.7435064 2.174813 0
5.6870003 2.7387264 2.1778324 0
5.6960006 2.7339139 2.1808522 0
5.7050004 2.7290688 2.1838717 0
5.7140002 2.7241914 2.1868913 0
5.7230005 2.7192814 2.1899109 0
5.7320004 2.7143388 2.1929305 0
5.7410002 2.7093639 2.19595 0
5.7510004 2.7048707 2.1993051 0
5.7600002 2.6998289 2.2023246 0
5.7690005 2.6947551 2.2053442 0
5.7780004 2.6896484 2.2083638 0
5.7880006 2.6850162 2.211719 0
5.7970004 2.6798427 2.2147384 0
5.8060002 2.6746371 2.2177579 0
5.8160005 2.6699002 2.2211132 0
5.8250003 2.6646278 2.2241328 0
5.8350005 2.6598206 2.2274878 0
5.8440003 2.6544814 2.2305074 0
5.8540006 2.6496038 2.2338624 0
5.8630004 2.6441977 2.236882 0
5.8730001 2.6392498 2.240237 0
5.8830004 2.6342659 2.2435923 0
5.8920002 2.6287591 2.2466116 0
5.9020004 2.6237047 2.2499669 0
5.9120002 2.6186144 2.2533219 0
5.9220004 2.613488 2.2566769 0
5.9320002 2.6083252 2.2600319 0
6.0730004 2.532717 2.307339 0
5.4630003 2.8581924 2.0935459 0
5.4710002 2.8536344 2.0962155 0
5.4790006 2.8490474 2.0988853 0
5.4880004 2.8449996 2.1018887 0
5.4960003 2.8403528 2.1045582 0
5.5040002 2.8356774 2.1072278 0
5.5130005 2.8315361 2.1102314 0
5.5210004 2.8268011 2.112901 0
5.5300002 2.8225961 2.1159041 0
5.5380001 2.8178015 2.1185739 0
5.5470004 2.813534 2.1215773 0
5.5550003 2.8086798 2.1242468 0
5.5640001 2.8043487 2.1272502 0
5.5720005 2.7994354 2.1299198 0
5.5810003 2.7950413 2.1329231 0
5.5900002 2.7906146 2.1359265 0
5.5980005 2.7856112 2.1385961 0
5.6070004 2.7811213 2.1415994 0
5.6160002 2.7765992 2.1446028 0
5.6250005 2.7720447 2.1476061 0
5.6330004 2.7669199 2.1502757 0
5.6420002 2.7623022 2.1532791 0
5.6510005 2.757652 2.1562824 0
5.6600003 2.7529693 2.1592858 0
5.6690001 2.7482541 2.1622891 0
5.6780005 2.7435064 2.1652925 0
5.6870003 2.7387264 2.1682959 0
5.6960006 2.7339139 2.1712992 0
5.7050004 2.7290688 2.1743026 0
5.7140002 2.7241914 2.1773057 0
5.7230005 2.7192814 2.1803093 0
5.7320004 2.7143388 2.1833124 0
5.7410002 2.7093639 2.1863158 0
5.7510004 2.7048707 2.1896529 0
5.7600002 2.6998289 2.1926563 0
5.7690005 2.6947551 2.1956596 0
5.7780004 2.6896484 2.198663 0
5.7880006 2.6850162 2.2020001 0
5.7970004 2.6798427 2.2050033 0
5.8060002 2.6746371 2.2080066 0
5.8160005 2.6699002 2.2113438 0
5.8250003 2.6646278 2.2143471 0
5.8350005 2.6598206 2.2176843 0
5.8440003 2.6544814 2.2206874 0
5.8540006 2.6496038 2.2240245 0
5.8630004 2.6441977 2.2270277 0
5.8730001 2.6392498 2.2303648 0
5.8830004 2.6342659 2.2337019 0
5.8920002 2.6287591 2.2367051 0
5.9020004 2.6237047 2.2400422 0
5.9120002 2.6186144 2.2433794 0
5.9220004 2.613488 2.2467165 0
5.9320002 2.6083252 2.2500534 0
6.0730004 2.532717 2.2971056 0
5.4630003 2.8581924 2.0844133 0
5.4710002 2.8536344 2.0870686 0
5.4790006 2.8490474 2.0897238 0
5.4880004 2.8449996 2.092711 0
5.4960003 2.8403528 2.095366 0
5.5040002 2.8356774 2.098021 0
5.5130005 2.8315361 2.1010084 0
5.5210004 2.8268011 2.1036634 0
5.5300002 2.8225961 2.1066506 0
5.5380001 2.8178015 2.1093059 0
5.5470004 2.813534 2.112293 0
5.5550003 2.8086798 2.114948 0
5.5640001 2.8043487 2.1179352 0
5.5720005 2.7994354 2.1205904 0
5.5810003 2.7950413 2.1235776 0
5.5900002 2.7906146 2.1265647 0
5.5980005 2.7856112 2.12922 0
5.6070004 2.7811213 2.1322072 0
5.6160002 2.7765992 2.1351941 0
5.6250005 2.7720447 2.1381812 0
5.6330004 2.7669199 2.1408365 0
5.6420002 2.7623022 2.1438234 0
5.6510005 2.757652 2.1468108 0
5.6600003 2.7529693 2.1497977 0
5.6690001 2.7482541 2.1527848 0
5.6780005 2.7435064 2.155772 0
5.6870003 2.7387264 2.1587591 0
5.6960006 2.7339139 2.1617463 0
5.7050004 2.7290688 2.1647334 0
5.7140002 2.7241914 2.1677203 0
5.7230005 2.7192814 2.1707075 0
5.7320004 2.7143388 2.1736946 0
5.7410002 2.7093639 2.1766818 0
5.7510004 2.7048707 2.1800008 0
5.7600002 2.6998289 2.1829879 0
5.7690005 2.6947551 2.1859748 0
5.7780004 2.6896484 2.188962 0
5.7880006 2.6850162 2.192281 0
5.7970004 2.6798427 2.1952682 0
5.8060002 2.6746371 2.1982553 0
5.8160005 2.6699002 2.2015743 0
5.8250003 2.6646278 2.2045612 0
5.8350005 2.6598206 2.2078805 0
5.8440003 2.6544814 2.2108674 0
5.8540006 2.6496038 2.2141864 0
5.8630004 2.6441977 2.2171736 0
5.8730001 2.6392498 2.2204924 0
5.8830004 2.6342659 2.2238116 0
5.8920002 2.6287591 2.2267985 0
5.9020004 2.6237047 2.2301178 0
5.9120002 2.6186144 2.2334366 0
5.9220004 2.613488 2.2367556 0
5.9320002 2.6083252 2.2400746 0
6.0730004 2.532717 2.2868726 0
5.4630003 2.8581924 2.0752807 0
5.4710002 2.8536344 2.0779214 0
5.4790006 2.8490474 2.0805624 0
5.4880004 2.8449996 2.083533 0
5.4960003 2.8403528 2.0861738 0
5.5040002 2.8356774 2.0888145 0
5.5130005 2.8315361 2.0917854 0
5.5210004 2.8268011 2.0944264 0
5.5300002 2.8225961 2.0973971 0
5.5380001 2.8178015 2.1000378 0
5.5470004 2.813534 2.1030087 0
5.5550003 2.8086798 2.1056495 0
5.5640001 2.8043487 2.1086204 0
5.5720005 2.7994354 2.1112611 0
5.5810003 2.7950413 2.1142321 0
5.5900002 2.7906146 2.117203 0
5.5980005 2.7856112 2.1198437 0
5.6070004 2.7811213 2.1228147 0
5.6160002 2.7765992 2.1257854 0
5.6250005 2.7720447 2.1287563 0
5.6330004 2.7669199 2.131397 0
5.6420002 2.7623022 2.1343679 0
5.6510005 2.757652 2.1373389 0
5.6600003 2.7529693 2.1403096 0
5.6690001 2.7482541 2.1432805 0
5.6780005 2.7435064 2.1462514 0
5.6870003 2.7387264 2.1492224 0
5.6960006 2.7339139 2.1521933 0
5.7050004 2.7290688 2.155164 0
5.7140002 2.7241914 2.1581349 0
5.7230005 2.7192814 2.1611059 0
5.7320004 2.7143388 2.1640766 0
5.7410002 2.7093639 2.1670475 0
5.7510004 2.7048707 2.1703484 0
5.7600002 2.6998289 2.1733193 0
5.7690005 2.6947551 2.1762903 0
5.7780004 2.6896484 2.1792612 0
5.7880006 2.6850162 2.1825621 0
5.7970004 2.6798427 2.185533 0
5.8060002 2.6746371 2.1885037 0
5.8160005 2.6699002 2.1918049 0
5.8250003 2.6646278 2.1947756 0
5.8350005 2.6598206 2.1980767 0
5.8440003 2.6544814 2.2010477 0
5.8540006 2.6496038 2.2043486 0
5.8630004 2.6441977 2.2073195 0
5.8730001 2.6392498 2.2106204 0
5.8830004 2.6342659 2.2139213 0
5.8920002 2.6287591 2.2168922 0
5.9020004 2.6237047 2.2201931 0
5.9120002 2.6186144 2.2234941 0
5.9220004 2.613488 2.2267952 0
5.9320002 2.6083252 2.2300961 0
6.0730004 2.532717 2.2766397 0
5.4630003 2.8581924 2.066148 0
5.4710002 2.8536344 2.0687742 0
5.4790006 2.8490474 2.0714006 0
5.4880004 2.8449996 2.0743554 0
5.4960003 2.8403528 2.0769815 0
5.5040002 2.8356774 2.079608 0
5.5130005 2.8315361 2.0825627 0
5.5210004 2.8268011 2.0851889 0
5.5300002 2.8225961 2.0881436 0
5.5380001 2.8178015 2.09077 0
5.5470004 2.813534 2.0937245 0
5.5550003 2.8086798 2.0963509 0
5.5640001 2.8043487 2.0993054 0
5.5720005 2.7994354 2.101932 0
5.5810003 2.7950413 2.1048865 0
5.5900002 2.7906146 2.107841 0
5.5980005 2.7856112 2.1104677 0
5.6070004 2.7811213 2.1134222 0
5.6160002 2.7765992 2.1163766 0
5.6250005 2.7720447 2.1193314 0
5.6330004 2.7669199 2.1219578 0
5.6420002 2.7623022 2.1249123 0
5.6510005 2.757652 2.127867 0
5.6600003 2.7529693 2.1308217 0
5.6690001 2.7482541 2.1337762 0
5.6780005 2.7435064 2.1367309 0
5.6870003 2.7387264 2.1396856 0
5.6960006 2.7339139 2.1426404 0
5.7050004 2.7290688 2.1455948 0
5.7140002 2.7241914 2.1485496 0
5.7230005 2.7192814 2.1515043 0
5.7320004 2.7143388 2.1544588 0
5.7410002 2.7093639 2.1574132 0
5.7510004 2.7048707 2.1606965 0
5.7600002 2.6998289 2.163651 0
5.7690005 2.6947551 2.1666057 0
5.7780004 2.6896484 2.1695602 0
5.7880006 2.6850162 2.1728432 0
5.7970004 2.6798427 2.1757977 0
5.8060002 2.6746371 2.1787524 0
5.8160005 2.6699002 2.1820354 0
5.8250003 2.6646278 2.1849899 0
5.8350005 2.6598206 2.1882732 0
5.8440003 2.6544814 2.1912277 0
5.8540006 2.6496038 2.1945107 0
5.8630004 2.6441977 2.1974652 0
5.8730001 2.6392498 2.200748 0
5.8830004 2.6342659 2.204031 0
5.8920002 2.6287591 2.2069857 0
5.9020004 2.6237047 2.2102687 0
5.9120002 2.6186144 2.2135515 0
5.9220004 2.613488 2.2168345 0
5.9320002 2.6083252 2.2201173 0
6.0730004 2.532717 2.2664068 0
5.4630003 2.8581924 2.0570152 0
5.4710002 2.8536344 2.0596271 0
5.4790006 2.8490474 2.0622392 0
5.4880004 2.8449996 2.0651774 0
5.4960003 2.8403528 2.0677893 0
5.5040002 2.8356774 2.0704012 0
5.5130005 2.8315361 2.0733397 0
5.5210004 2.8268011 2.0759516 0
5.5300002 2.8225961 2.0788901 0
5.5380001 2.8178015 2.081502 0
5.5470004 2.813534 2.0844405 0
5.5550003 2.8086798 2.0870523 0
5.5640001 2.8043487 2.0899906 0
5.5720005 2.7994354 2.0926027 0
5.5810003 2.7950413 2.095541 0
5.5900002 2.7906146 2.0984793 0
5.5980005 2.7856112 2.1010914 0
5.6070004 2.7811213 2.1040297 0
5.6160002 2.7765992 2.1069682 0
5.6250005 2.7720447 2.1099067 0
5.6330004 2.7669199 2.1125183 0
5.6420002 2.7623022 2.1154568 0
5.6510005 2.757652 2.1183953 0
5.6600003 2.7529693 2.1213336 0
5.6690001 2.7482541 2.1242721 0
5.6780005 2.7435064 2.1272104 0
5.6870003 2.7387264 2.1301489 0
5.6960006 2.7339139 2.1330874 0
5.7050004 2.7290688 2.1360257 0
5.7140002 2.7241914 2.1389642 0
5.7230005 2.7192814 2.1419024 0
5.7320004 2.7143388 2.144841 0
5.7410002 2.7093639 2.1477792 0
5.7510004 2.7048707 2.1510441 0
5.7600002 2.6998289 2.1539826 0
5.7690005 2.6947551 2.1569209 0
5.7780004 2.6896484 2.1598594 0
5.7880006 2.6850162 2.1631243 0
5.7970004 2.6798427 2.1660626 0
5.8060002 2.6746371 2.1690011 0
5.8160005 2.6699002 2.172266 0
5.8250003 2.6646278 2.1752043 0
5.8350005 2.6598206 2.1784692 0
5.8440003 2.6544814 2.1814077 0
5.8540006 2.6496038 2.1846726 0
5.8630004 2.6441977 2.1876109 0
5.8730001 2.6392498 2.1908758 0
5.8830004 2.6342659 2.1941407 0
5.8920002 2.6287591 2.1970792 0
5.9020004 2.6237047 2.2003441 0
5.9120002 2.6186144 2.2036088 0
5.9220004 2.613488 2.2068739 0
5.9320002 2.6083252 2.2101386 0
6.0730004 2.532717 2.2561738 0
5.4630003 2.8581924 2.0478826 0
5.4710002 2.8536344 2.0504801 0
5.4790006 2.8490474 2.0530777 0
5.4880004 2.8449996 2.0559998 0
5.4960003 2.8403528 2.0585971 0
5.5040002 2.8356774 2.0611947 0
5.5130005 2.8315361 2.064117 0
5.5210004 2.8268011 2.0667143 0
5.5300002 2.8225961 2.0696366 0
5.5380001 2.8178015 2.0722339 0
5.5470004 2.813534 2.0751562 0
5.5550003 2.8086798 2.0777535 0
5.5640001 2.8043487 2.0806758 0
5.5720005 2.7994354 2.0832734 0
5.5810003 2.7950413 2.0861955 0
5.5900002 2.7906146 2.0891175 0
5.5980005 2.7856112 2.0917151 0
5.6070004 2.7811213 2.0946374 0
5.6160002 2.7765992 2.0975595 0
5.6250005 2.7720447 2.1004817 0
5.6330004 2.7669199 2.1030791 0
5.6420002 2.7623022 2.1060011 0
5.6510005 2.757652 2.1089234 0
5.6600003 2.7529693 2.1118457 0
5.6690001 2.7482541 2.1147678 0
5.6780005 2.7435064 2.1176898 0
5.6870003 2.7387264 2.1206121 0
5.6960006 2.7339139 2.1235344 0
5.7050004 2.7290688 2.1264565 0
5.7140002 2.7241914 2.1293786 0
5.7230005 2.7192814 2.1323009 0
5.7320004 2.7143388 2.1352229 0
5.7410002 2.7093639 2.138145 0
5.7510004 2.7048707 2.141392 0
5.7600002 2.6998289 2.1443143 0
5.7690005 2.6947551 2.1472363 0
5.7780004 2.6896484 2.1501584 0
5.7880006 2.6850162 2.1534054 0
5.7970004 2.6798427 2.1563275 0
5.8060002 2.6746371 2.1592495 0
5.8160005 2.6699002 2.1624966 0
5.8250003 2.6646278 2.1654189 0
5.8350005 2.6598206 2.1686656 0
5.8440003 2.6544814 2.1715877 0
5.8540006 2.6496038 2.1748347 0
5.8630004 2.6441977 2.1777568 0
5.8730001 2.6392498 2.1810036 0
5.8830004 2.6342659 2.1842506 0
5.8920002 2.6287591 2.1871727 0
5.9020004 2.6237047 2.1904194 0
5.9120002 2.6186144 2.1936662 0
5.9220004 2.613488 2.1969132 0
5.9320002 2.6083252 2.20016 0
6.0730004 2.532717 2.2459407 0
5.4630003 2.8581924 2.0387499 0
5.4710002 2.8536344 2.041333 0
5.4790006 2.8490474 2.0439162 0
5.4880004 2.8449996 2.0468221 0
5.4960003 2.8403528 2.0494049 0
5.5040002 2.8356774 2.0519881 0
5.5130005 2.8315361 2.054894 0
5.5210004 2.8268011 2.057477 0
5.5300002 2.8225961 2.0603828 0
5.5380001 2.8178015 2.0629661 0
5.5470004 2.813534 2.065872 0
5.5550003 2.8086798 2.068455 0
5.5640001 2.8043487 2.0713608 0
5.5720005 2.7994354 2.0739441 0
5.5810003 2.7950413 2.0768499 0
5.5900002 2.7906146 2.0797558 0
5.5980005 2.7856112 2.082339 0
5.6070004 2.7811213 2.0852449 0
5.6160002 2.7765992 2.0881507 0
5.6250005 2.7720447 2.0910568 0
5.6330004 2.7669199 2.0936399 0
5.6420002 2.7623022 2.0965457 0
5.6510005 2.757652 2.0994518 0
5.6600003 2.7529693 2.1023576 0
5.6690001 2.7482541 2.1052635 0
5.6780005 2.7435064 2.1081696 0
5.6870003 2.7387264 2.1110754 0
5.6960006 2.7339139 2.1139815 0
5.7050004 2.7290688 2.1168873 0
5.7140002 2.7241914 2.1197932 0
5.7230005 2.7192814 2.1226993 0
5.7320004 2.7143388 2.1256051 0
5.7410002 2.7093639 2.128511 0
5.7510004 2.7048707 2.1317399 0
5.7600002 2.6998289 2.1346457 0
5.7690005 2.6947551 2.1375518 0
5.7780004 2.6896484 2.1404576 0
5.7880006 2.6850162 2.1436865 0
5.7970004 2.6798427 2.1465924 0
5.8060002 2.6746371 2.1494982 0
5.8160005 2.6699002 2.1527271 0
5.8250003 2.6646278 2.155633 0
5.8350005 2.6598206 2.1588619 0
5.8440003 2.6544814 2.161768 0
5.8540006 2.6496038 2.1649969 0
5.8630004 2.6441977 2.1679027 0
5.8730001 2.6392498 2.1711314 0
5.8830004 2.6342659 2.1743603 0
5.8920002 2.6287591 2.1772661 0
5.9020004 2.6237047 2.180495 0
5.9120002 2.6186144 2.1837237 0
5.9220004 2.613488 2.1869526 0
5.9320002 2.6083252 2.1901813 0
6.0730004 2.532717 2.2357078 0
5.4630003 2.8581924 2.0296173 0
5.4710002 2.8536344 2.0321858 0
5.4790006 2.8490474 2.0347545 0
5.4880004 2.8449996 2.0376441 0
5.4960003 2.8403528 2.0402126 0
5.5040002 2.8356774 2.0427814 0
5.5130005 2.8315361 2.0456712 0
5.5210004 2.8268011 2.0482397 0
5.5300002 2.8225961 2.0511293 0
5.5380001 2.8178015 2.0536981 0
5.5470004 2.813534 2.0565879 0
5.5550003 2.8086798 2.0591564 0
5.5640001 2.8043487 2.0620461 0
5.5720005 2.7994354 2.0646148 0
5.5810003 2.7950413 2.0675044 0
5.5900002 2.7906146 2.070394 0
5.5980005 2.7856112 2.0729628 0
5.6070004 2.7811213 2.0758524 0
5.6160002 2.7765992 2.078742 0
5.6250005 2.7720447 2.0816319 0
5.6330004 2.7669199 2.0842004 0
5.6420002 2.7623022 2.08709 0
5.6510005 2.757652 2.0899799 0
5.6600003 2.7529693 2.0928695 0
5.6690001 2.7482541 2.0957592 0
5.6780005 2.7435064 2.098649 0
5.6870003 2.7387264 2.1015387 0
5.6960006 2.7339139 2.1044285 0
5.7050004 2.7290688 2.1073182 0
5.7140002 2.7241914 2.1102078 0
5.7230005 2.7192814 2.1130974 0
5.7320004 2.7143388 2.1159873 0
5.7410002 2.7093639 2.1188767 0
5.7510004 2.7048707 2.1220877 0
5.7600002 2.6998289 2.1249774 0
5.7690005 2.6947551 2.127867 0
5.7780004 2.6896484 2.1307569 0
5.7880006 2.6850162 2.1339676 0
5.7970004 2.6798427 2.1368573 0
5.8060002 2.6746371 2.1397469 0
5.8160005 2.6699002 2.1429577 0
5.8250003 2.6646278 2.1458473 0
5.8350005 2.6598206 2.1490581 0
5.8440003 2.6544814 2.151948 0
5.8540006 2.6496038 2.1551588 0
5.8630004 2.6441977 2.1580484 0
5.8730001 2.6392498 2.1612592 0
5.8830004 2.6342659 2.16447 0
5.8920002 2.6287591 2.1673596 0
5.9020004 2.6237047 2.1705704 0
5.9120002 2.6186144 2.1737812 0
5.9220004 2.613488 2.1769919 0
5.9320002 2.6083252 2.1802027 0
6.0730004 2.532717 2.2254748 0
5.4630003 2.8581924 2.0204847 0
5.4710002 2.8536344 2.0230386 0
5.4790006 2.8490474 2.025593 0
5.4880004 2.8449996 2.0284665 0
5.4960003 2.8403528 2.0310204 0
5.5040002 2.8356774 2.0335748 0
5.5130005 2.8315361 2.0364482 0
5.5210004 2.8268011 2.0390024 0
5.5300002 2.8225961 2.0418758 0
5.5380001 2.8178015 2.04443 0
5.5470004 2.813534 2.0473034 0
5.5550003 2.8086798 2.0498579 0
5.5640001 2.8043487 2.0527313 0
5.5720005 2.7994354 2.0552855 0
5.5810003 2.7950413 2.0581589 0
5.5900002 2.7906146 2.0610323 0
5.5980005 2.7856112 2.0635867 0
5.6070004 2.7811213 2.0664599 0
5.6160002 2.7765992 2.0693333 0
5.6250005 2.7720447 2.072207 0
5.6330004 2.7669199 2.0747612 0
5.6420002 2.7623022 2.0776346 0
5.6510005 2.757652 2.080508 0
5.6600003 2.7529693 2.0833814 0
5.6690001 2.7482541 2.0862551 0
5.6780005 2.7435064 2.0891285 0
5.6870003 2.7387264 2.0920019 0
5.6960006 2.7339139 2.0948756 0
5.7050004 2.7290688 2.0977488 0
5.7140002 2.7241914 2.1006222 0
5.7230005 2.7192814 2.1034958 0
5.7320004 2.7143388 2.1063693 0
5.7410002 2.7093639 2.1092427 0
5.7510004 2.7048707 2.1124356 0
5.7600002 2.6998289 2.115309 0
5.7690005 2.6947551 2.1181824 0
5.7780004 2.6896484 2.1210558 0
5.7880006 2.6850162 2.1242487 0
5.7970004 2.6798427 2.1271222 0
5.8060002 2.6746371 2.1299953 0
5.8160005 2.6699002 2.1331882 0
5.8250003 2.6646278 2.1360617 0
5.8350005 2.6598206 2.1392546 0
5.8440003 2.6544814 2.142128 0
5.8540006 2.6496038 2.1453209 0
5.8630004 2.6441977 2.1481941 0
5.8730001 2.6392498 2.1513867 0
5.8830004 2.6342659 2.1545796 0
5.8920002 2.6287591 2.1574531 0
5.9020004 2.6237047 2.160646 0
5.9120002 2.6186144 2.1638386 0
5.9220004 2.613488 2.1670313 0
5.9320002 2.6083252 2.170224 0
6.0730004 2.532717 2.2152417 0
5.4630003 2.8581924 2.0113518 0
5.4710002 2.8536344 2.0138917 0
5.4790006 2.8490474 2.0164313 0
5.4880004 2.8449996 2.0192885 0
5.4960003 2.8403528 2.0218284 0
5.5040002 2.8356774 2.024368 0
5.5130005 2.8315361 2.0272255 0
5.5210004 2.8268011 2.0297651 0
5.5300002 2.8225961 2.0326223 0
5.5380001 2.8178015 2.035162 0
5.5470004 2.813534 2.0380194 0
5.5550003 2.8086798 2.0405591 0
5.5640001 2.8043487 2.0434163 0
5.5720005 2.7994354 2.0459561 0
5.5810003 2.7950413 2.0488133 0
5.5900002 2.7906146 2.0516706 0
5.5980005 2.7856112 2.0542104 0
5.6070004 2.7811213 2.0570676 0
5.6160002 2.7765992 2.0599246 0
5.6250005 2.7720447 2.062782 0
5.6330004 2.7669199 2.0653219 0
5.6420002 2.7623022 2.0681791 0
5.6510005 2.757652 2.0710363 0
5.6600003 2.7529693 2.0738935 0
5.6690001 2.7482541 2.0767505 0
5.6780005 2.7435064 2.079608 0
5.6870003 2.7387264 2.0824652 0
5.6960006 2.7339139 2.0853224 0
5.7050004 2.7290688 2.0881796 0
5.7140002 2.7241914 2.0910368 0
5.7230005 2.7192814 2.0938942 0
5.7320004 2.7143388 2.0967515 0
5.7410002 2.7093639 2.0996084 0
5.7510004 2.7048707 2.1027832 0
5.7600002 2.6998289 2.1056404 0
5.7690005 2.6947551 2.1084979 0
5.7780004 2.6896484 2.1113551 0
5.7880006 2.6850162 2.1145298 0
5.7970004 2.6798427 2.1173871 0
5.8060002 2.6746371 2.1202443 0
5.8160005 2.6699002 2.1234188 0
5.8250003 2.6646278 2.126276 0
5.8350005 2.6598206 2.1294508 0
5.8440003 2.6544814 2.132308 0
5.8540006 2.6496038 2.1354828 0
5.8630004 2.6441977 2.13834 0
5.8730001 2.6392498 2.1415145 0
5.8830004 2.6342659 2.1446893 0
5.8920002 2.6287591 2.1475465 0
5.9020004 2.6237047 2.1507213 0
5.9120002 2.6186144 2.1538959 0
5.9220004 2.613488 2.1570706 0
5.9320002 2.6083252 2.1602454 0
6.0730004 2.532717 2.2050087 0
5.4630003 2.8581924 2.0022192 0
5.4710002 2.8536344 2.0047443 0
5.4790006 2.8490474 2.0072699 0
5.4880004 2.8449996 2.0101109 0
5.4960003 2.8403528 2.0126362 0
5.5040002 2.8356774 2.0151615 0
5.5130005 2.8315361 2.0180025 0
5.5210004 2.8268011 2.0205278 0
5.5300002 2.8225961 2.0233688 0
5.5380001 2.8178015 2.0258942 0
5.5470004 2.813534 2.0287352 0
5.5550003 2.8086798 2.0312605 0
5.5640001 2.8043487 2.0341015 0
5.5720005 2.7994354 2.0366268 0
5.5810003 2.7950413 2.0394678 0
5.5900002 2.7906146 2.0423088 0
5.5980005 2.7856112 2.0448341 0
5.6070004 2.7811213 2.0476751 0
5.6160002 2.7765992 2.0505161 0
5.6250005 2.7720447 2.0533571 0
5.6330004 2.7669199 2.0558825 0
5.6420002 2.7623022 2.0587234 0
5.6510005 2.757652 2.0615644 0
5.6600003 2.7529693 2.0644054 0
5.6690001 2.7482541 2.0672464 0
5.6780005 2.7435064 2.0700874 0
5.6870003 2.7387264 2.0729284 0
5.6960006 2.7339139 2.0757697 0
5.7050004 2.7290688 2.0786104 0
5.7140002 2.7241914 2.0814514 0
5.7230005 2.7192814 2.0842924 0
5.7320004 2.7143388 2.0871334 0
5.7410002 2.7093639 2.0899744 0
5.7510004 2.7048707 2.0931311 0
5.7600002 2.6998289 2.0959721 0
5.7690005 2.6947551 2.0988131 0
5.7780004 2.6896484 2.1016541 0
5.7880006 2.6850162 2.104811 0
5.7970004 2.6798427 2.1076517 0
5.8060002 2.6746371 2.1104927 0
5.8160005 2.6699002 2.1136494 0
5.8250003 2.6646278 2.1164904 0
5.8350005 2.6598206 2.119647 0
5.8440003 2.6544814 2.122488 0
5.8540006 2.6496038 2.1256447 0
5.8630004 2.6441977 2.1284857 0
5.8730001 2.6392498 2.1316423 0
5.8830004 2.6342659 2.134799 0
5.8920002 2.6287591 2.13764 0
5.9020004 2.6237047 2.1407967 0
5.9120002 2.6186144 2.1439533 0
5.9220004 2.613488 2.14711 0
5.9320002 2.6083252 2.1502666 0
6.0730004 2.532717 2.1947758 0
5.4630003 2.8581924 1.9930866 0
5.4710002 2.8536344 1.9955974 0
5.4790006 2.8490474 1.9981085 0
5.4880004 2.8449996 2.0009332 0
5.4960003 2.8403528 2.003444 0
5.5040002 2.8356774 2.0059547 0
5.5130005 2.8315361 2.0087795 0
5.5210004 2.8268011 2.0112906 0
5.5300002 2.8225961 2.0141151 0
5.5380001 2.8178015 2.0166261 0
5.5470004 2.813534 2.0194509 0
5.5550003 2.8086798 2.0219619 0
5.5640001 2.8043487 2.0247865 0
5.5720005 2.7994354 2.0272977 0
5.5810003 2.7950413 2.0301223 0
5.5900002 2.7906146 2.0329471 0
5.5980005 2.7856112 2.0354581 0
5.6070004 2.7811213 2.0382829 0
5.6160002 2.7765992 2.0411074 0
5.6250005 2.7720447 2.0439322 0
5.6330004 2.7669199 2.0464432 0
5.6420002 2.7623022 2.0492678 0
5.6510005 2.757652 2.0520928 0
5.6600003 2.7529693 2.0549173 0
5.6690001 2.7482541 2.0577421 0
5.6780005 2.7435064 2.0605669 0
5.6870003 2.7387264 2.0633917 0
5.6960006 2.7339139 2.0662165 0
5.7050004 2.7290688 2.0690413 0
5.7140002 2.7241914 2.071866 0
5.7230005 2.7192814 2.0746908 0
5.7320004 2.7143388 2.0775156 0
5.7410002 2.7093639 2.0803401 0
5.7510004 2.7048707 2.0834789 0
5.7600002 2.6998289 2.0863037 0
5.7690005 2.6947551 2.0891285 0
5.7780004 2.6896484 2.0919533 0
5.7880006 2.6850162 2.0950918 0
5.7970004 2.6798427 2.0979166 0
5.8060002 2.6746371 2.1007414 0
5.8160005 2.6699002 2.1038799 0
5.8250003 2.6646278 2.1067047 0
5.8350005 2.6598206 2.1098435 0
5.8440003 2.6544814 2.112668 0
5.8540006 2.6496038 2.1158068 0
5.8630004 2.6441977 2.1186316 0
5.8730001 2.6392498 2.1217701 0
5.8830004 2.6342659 2.1249089 0
5.8920002 2.6287591 2.1277335 0
5.9020004 2.6237047 2.1308722 0
5.9120002 2.6186144 2.1340108 0
5.9220004 2.613488 2.1371496 0
5.9320002 2.6083252 2.1402879 0
6.0730004 2.532717 2.1845427 0
5.4630003 2.8581924 1.9839538 0
5.4710002 2.8536344 1.9864503 0
5.4790006 2.8490474 1.9889468 0
5.4880004 2.8449996 1.9917554 0
5.4960003 2.8403528 1.9942518 0
5.5040002 2.8356774 1.9967482 0
5.5130005 2.8315361 1.9995569 0
5.5210004 2.8268011 2.0020533 0
5.5300002 2.8225961 2.0048616 0
5.5380001 2.8178015 2.0073581 0
5.5470004 2.813534 2.0101666 0
5.5550003 2.8086798 2.0126634 0
5.5640001 2.8043487 2.0154717 0
5.5720005 2.7994354 2.0179682 0
5.5810003 2.7950413 2.0207767 0
5.5900002 2.7906146 2.0235851 0
5.5980005 2.7856112 2.0260818 0
5.6070004 2.7811213 2.0288904 0
5.6160002 2.7765992 2.0316987 0
5.6250005 2.7720447 2.0345073 0
5.6330004 2.7669199 2.0370038 0
5.6420002 2.7623022 2.0398123 0
5.6510005 2.757652 2.0426209 0
5.6600003 2.7529693 2.0454295 0
5.6690001 2.7482541 2.0482378 0
5.6780005 2.7435064 2.0510464 0
5.6870003 2.7387264 2.0538549 0
5.6960006 2.7339139 2.0566635 0
5.7050004 2.7290688 2.0594721 0
5.7140002 2.7241914 2.0622807 0
5.7230005 2.7192814 2.0650892 0
5.7320004 2.7143388 2.0678976 0
5.7410002 2.7093639 2.0707061 0
5.7510004 2.7048707 2.0738268 0
5.7600002 2.6998289 2.0766354 0
5.7690005 2.6947551 2.0794439 0
5.7780004 2.6896484 2.0822523 0
5.7880006 2.6850162 2.0853729 0
5.7970004 2.6798427 2.0881815 0
5.8060002 2.6746371 2.0909901 0
5.8160005 2.6699002 2.0941107 0
5.8250003 2.6646278 2.0969191 0
5.8350005 2.6598206 2.1000397 0
5.8440003 2.6544814 2.1028481 0
5.8540006 2.6496038 2.1059687 0
5.8630004 2.6441977 2.1087773 0
5.8730001 2.6392498 2.1118977 0
5.8830004 2.6342659 2.1150184 0
5.8920002 2.6287591 2.1178269 0
5.9020004 2.6237047 2.1209476 0
5.9120002 2.6186144 2.124068 0
5.9220004 2.613488 2.1271887 0
5.9320002 2.6083252 2.1303093 0
6.0730004 2.532717 2.1743097 0
5.4630003 2.8581924 1.9748212 0
5.4710002 2.8536344 1.9773033 0
5.4790006 2.8490474 1.9797853 0
5.4880004 2.8449996 1.9825776 0
5.4960003 2.8403528 1.9850596 0
5.5040002 2.8356774 1.9875416 0
5.5130005 2.8315361 1.990334 0
5.5210004 2.8268011 1.9928161 0
5.5300002 2.8225961 1.9956083 0
5.5380001 2.8178015 1.9980903 0
5.5470004 2.813534 2.0008826 0
5.5550003 2.8086798 2.0033646 0
5.5640001 2.8043487 2.0061569 0
5.5720005 2.7994354 2.0086389 0
5.5810003 2.7950413 2.0114312 0
5.5900002 2.7906146 2.0142233 0
5.5980005 2.7856112 2.0167058 0
5.6070004 2.7811213 2.0194979 0
5.6160002 2.7765992 2.0222902 0
5.6250005 2.7720447 2.0250826 0
5.6330004 2.7669199 2.0275645 0
5.6420002 2.7623022 2.0303566 0
5.6510005 2.757652 2.033149 0
5.6600003 2.7529693 2.0359414 0
5.6690001 2.7482541 2.0387335 0
5.6780005 2.7435064 2.0415258 0
5.6870003 2.7387264 2.0443182 0
5.6960006 2.7339139 2.0471106 0
5.7050004 2.7290688 2.0499029 0
5.7140002 2.7241914 2.052695 0
5.7230005 2.7192814 2.0554876 0
5.7320004 2.7143388 2.0582798 0
5.7410002 2.7093639 2.0610721 0
5.7510004 2.7048707 2.0641747 0
5.7600002 2.6998289 2.0669668 0
5.7690005 2.6947551 2.0697591 0
5.7780004 2.6896484 2.0725515 0
5.7880006 2.6850162 2.075654 0
5.7970004 2.6798427 2.0784464 0
5.8060002 2.6746371 2.0812385 0
5.8160005 2.6699002 2.0843413 0
5.8250003 2.6646278 2.0871334 0
5.8350005 2.6598206 2.0902359 0
5.8440003 2.6544814 2.0930283 0
5.8540006 2.6496038 2.0961308 0
5.8630004 2.6441977 2.0989232 0
5.8730001 2.6392498 2.1020257 0
5.8830004 2.6342659 2.1051283 0
5.8920002 2.6287591 2.1079204 0
5.9020004 2.6237047 2.1110232 0
5.9120002 2.6186144 2.1141255 0
5.9220004 2.613488 2.1172283 0
5.9320002 2.6083252 2.1203308 0
6.0730004 2.532717 2.1640766 0
5.4630003 2.8581924 1.9656885 0
5.4710002 2.8536344 1.968156 0
5.4790006 2.8490474 1.9706239 0
5.4880004 2.8449996 1.9733998 0
5.4960003 2.8403528 1.9758674 0
5.5040002 2.8356774 1.9783349 0
5.5130005 2.8315361 1.981111 0
5.5210004 2.8268011 1.9835787 0
5.5300002 2.8225961 1.9863547 0
5.5380001 2.8178015 1.9888223 0
5.5470004 2.813534 1.9915984 0
5.5550003 2.8086798 1.9940661 0
5.5640001 2.8043487 1.996842 0
5.5720005 2.7994354 1.9993097 0
5.5810003 2.7950413 2.0020857 0
5.5900002 2.7906146 2.0048616 0
5.5980005 2.7856112 2.0073295 0
5.6070004 2.7811213 2.0101054 0
5.6160002 2.7765992 2.0128815 0
5.6250005 2.7720447 2.0156574 0
5.6330004 2.7669199 2.0181251 0
5.6420002 2.7623022 2.0209012 0
5.6510005 2.757652 2.0236773 0
5.6600003 2.7529693 2.0264533 0
5.6690001 2.7482541 2.0292294 0
5.6780005 2.7435064 2.0320055 0
5.6870003 2.7387264 2.0347815 0
5.6960006 2.7339139 2.0375576 0
5.7050004 2.7290688 2.0403335 0
5.7140002 2.7241914 2.0431097 0
5.7230005 2.7192814 2.0458858 0
5.7320004 2.7143388 2.0486617 0
5.7410002 2.7093639 2.0514379 0
5.7510004 2.7048707 2.0545225 0
5.7600002 2.6998289 2.0572984 0
5.7690005 2.6947551 2.0600746 0
5.7780004 2.6896484 2.0628507 0
5.7880006 2.6850162 2.0659351 0
5.7970004 2.6798427 2.068711 0
5.8060002 2.6746371 2.0714872 0
5.8160005 2.6699002 2.0745718 0
5.8250003 2.6646278 2.0773478 0
5.8350005 2.6598206 2.0804324 0
5.8440003 2.6544814 2.0832083 0
5.8540006 2.6496038 2.086293 0
5.8630004 2.6441977 2.0890689 0
5.8730001 2.6392498 2.0921533 0
5.8830004 2.6342659 2.095238 0
5.8920002 2.6287591 2.0980139 0
5.9020004 2.6237047 2.1010985 0
5.9120002 2.6186144 2.104183 0
5.9220004 2.613488 2.1072676 0
5.9320002 2.6083252 2.110352 0
6.0730004 2.532717 2.1538436 0
5.4630003 2.8581924 1.9565558 0
5.4710002 2.8536344 1.9590089 0
5.4790006 2.8490474 1.9614623 0
5.4880004 2.8449996 1.964222 0
5.4960003 2.8403528 1.9666752 0
5.5040002 2.8356774 1.9691283 0
5.5130005 2.8315361 1.9718883 0
5.5210004 2.8268011 1.9743414 0
5.5300002 2.8225961 1.9771012 0
5.5380001 2.8178015 1.9795543 0
5.5470004 2.813534 1.9823142 0
5.5550003 2.8086798 1.9847674 0
5.5640001 2.8043487 1.9875271 0
5.5720005 2.7994354 1.9899805 0
5.5810003 2.7950413 1.9927402 0
5.5900002 2.7906146 1.9955 0
5.5980005 2.7856112 1.9979533 0
5.6070004 2.7811213 2.0007131 0
5.6160002 2.7765992 2.0034728 0
5.6250005 2.7720447 2.0062327 0
5.6330004 2.7669199 2.0086858 0
5.6420002 2.7623022 2.0114455 0
5.6510005 2.757652 2.0142055 0
5.6600003 2.7529693 2.0169652 0
5.6690001 2.7482541 2.0197251 0
5.6780005 2.7435064 2.022485 0
5.6870003 2.7387264 2.0252447 0
5.6960006 2.7339139 2.0280046 0
5.7050004 2.7290688 2.0307643 0
5.7140002 2.7241914 2.0335243 0
5.7230005 2.7192814 2.0362842 0
5.7320004 2.7143388 2.0390439 0
5.7410002 2.7093639 2.0418038 0
5.7510004 2.7048707 2.0448701 0
5.7600002 2.6998289 2.0476301 0
5.7690005 2.6947551 2.05039 0
5.7780004 2.6896484 2.0531497 0
5.7880006 2.6850162 2.0562162 0
5.7970004 2.6798427 2.0589759 0
5.8060002 2.6746371 2.0617359 0
5.8160005 2.6699002 2.0648024 0
5.8250003 2.6646278 2.0675621 0
5.8350005 2.6598206 2.0706286 0
5.8440003 2.6544814 2.0733883 0
5.8540006 2.6496038 2.0764549 0
5.8630004 2.6441977 2.0792146 0
5.8730001 2.6392498 2.0822811 0
5.8830004 2.6342659 2.0853477 0
5.8920002 2.6287591 2.0881073 0
5.9020004 2.6237047 2.0911739 0
5.9120002 2.6186144 2.0942404 0
5.9220004 2.613488 2.097307 0
5.9320002 2.6083252 2.1003733 0
6.0730004 2.532717 2.1436107 0
5.4630003 2.8581924 1.9474231 0
5.4710002 2.8536344 1.9498619 0
5.4790006 2.8490474 1.9523007 0
5.4880004 2.8449996 1.9550443 0
5.4960003 2.8403528 1.9574831 0
5.5040002 2.8356774 1.9599216 0
5.5130005 2.8315361 1.9626653 0
5.5210004 2.8268011 1.9651041 0
5.5300002 2.8225961 1.9678477 0
5.5380001 2.8178015 1.9702864 0
5.5470004 2.813534 1.9730301 0
5.5550003 2.8086798 1.9754688 0
5.5640001 2.8043487 1.9782122 0
5.5720005 2.7994354 1.9806511 0
5.5810003 2.7950413 1.9833947 0
5.5900002 2.7906146 1.9861382 0
5.5980005 2.7856112 1.9885771 0
5.6070004 2.7811213 1.9913206 0
5.6160002 2.7765992 1.9940642 0
5.6250005 2.7720447 1.9968079 0
5.6330004 2.7669199 1.9992466 0
5.6420002 2.7623022 2.0019901 0
5.6510005 2.757652 2.0047338 0
5.6600003 2.7529693 2.0074773 0
5.6690001 2.7482541 2.0102208 0
5.6780005 2.7435064 2.0129645 0
5.6870003 2.7387264 2.015708 0
5.6960006 2.7339139 2.0184517 0
5.7050004 2.7290688 2.0211952 0
5.7140002 2.7241914 2.0239389 0
5.7230005 2.7192814 2.0266826 0
5.7320004 2.7143388 2.0294261 0
5.7410002 2.7093639 2.0321696 0
5.7510004 2.7048707 2.035218 0
5.7600002 2.6998289 2.0379617 0
5.7690005 2.6947551 2.0407052 0
5.7780004 2.6896484 2.0434487 0
5.7880006 2.6850162 2.0464973 0
5.7970004 2.6798427 2.0492408 0
5.8060002 2.6746371 2.0519843 0
5.8160005 2.6699002 2.055033 0
5.8250003 2.6646278 2.0577765 0
5.8350005 2.6598206 2.0608249 0
5.8440003 2.6544814 2.0635684 0
5.8540006 2.6496038 2.066617 0
5.8630004 2.6441977 2.0693605 0
5.8730001 2.6392498 2.0724089 0
5.8830004 2.6342659 2.0754573 0
5.8920002 2.6287591 2.0782008 0
5.9020004 2.6237047 2.0812495 0
5.9120002 2.6186144 2.0842979 0
5.9220004 2.613488 2.0873463 0
5.9320002 2.6083252 2.0903947 0
6.0730004 2.532717 2.1333778 0
5.4630003 2.8581924 1.9382905 0
5.4710002 2.8536344 1.9407148 0
5.4790006 2.8490474 1.9431392 0
5.4880004 2.8449996 1.9458665 0
5.4960003 2.8403528 1.9482908 0
5.5040002 2.8356774 1.9507151 0
5.5130005 2.8315361 1.9534425 0
5.5210004 2.8268011 1.9558668 0
5.5300002 2.8225961 1.9585941 0
5.5380001 2.8178015 1.9610184 0
5.5470004 2.813534 1.9637458 0
5.5550003 2.8086798 1.9661701 0
5.5640001 2.8043487 1.9688975 0
5.5720005 2.7994354 1.9713218 0
5.5810003 2.7950413 1.9740491 0
5.5900002 2.7906146 1.9767764 0
5.5980005 2.7856112 1.979201 0
5.6070004 2.7811213 1.9819282 0
5.6160002 2.7765992 1.9846555 0
5.6250005 2.7720447 1.9873829 0
5.6330004 2.7669199 1.9898072 0
5.6420002 2.7623022 1.9925345 0
5.6510005 2.757652 1.995262 0
5.6600003 2.7529693 1.9979893 0
5.6690001 2.7482541 2.0007164 0
5.6780005 2.7435064 2.003444 0
5.6870003 2.7387264 2.0061712 0
5.6960006 2.7339139 2.0088987 0
5.7050004 2.7290688 2.011626 0
5.7140002 2.7241914 2.0143533 0
5.7230005 2.7192814 2.0170808 0
5.7320004 2.7143388 2.0198081 0
5.7410002 2.7093639 2.0225353 0
5.7510004 2.7048707 2.0255659 0
5.7600002 2.6998289 2.0282931 0
5.7690005 2.6947551 2.0310206 0
5.7780004 2.6896484 2.0337479 0
5.7880006 2.6850162 2.0367785 0
5.7970004 2.6798427 2.0395057 0
5.8060002 2.6746371 2.042233 0
5.8160005 2.6699002 2.0452635 0
5.8250003 2.6646278 2.0479908 0
5.8350005 2.6598206 2.0510213 0
5.8440003 2.6544814 2.0537486 0
5.8540006 2.6496038 2.0567791 0
5.8630004 2.6441977 2.0595064 0
5.8730001 2.6392498 2.0625367 0
5.8830004 2.6342659 2.065567 0
5.8920002 2.6287591 2.0682943 0
5.9020004 2.6237047 2.0713248 0
5.9120002 2.6186144 2.0743551 0
5.9220004 2.613488 2.0773857 0
5.9320002 2.6083252 2.080416 0
6.0730004 2.532717 2.1231449 0
5.4630003 2.8581924 1.9291579 0
5.4710002 2.8536344 1.9315675 0
5.4790006 2.8490474 1.9339776 0
5.4880004 2.8449996 1.9366887 0
5.4960003 2.8403528 1.9390986 0
5.5040002 2.8356774 1.9415084 0
5.5130005 2.8315361 1.9442197 0
5.5210004 2.8268011 1.9466294 0
5.5300002 2.8225961 1.9493406 0
5.5380001 2.8178015 1.9517504 0
5.5470004 2.813534 1.9544617 0
5.5550003 2.8086798 1.9568714 0
