# .PCD v0.7 - Point Cloud Data file format
VERSION 0.7
FIELDS x y z intensity
SIZE 4 4 4 4
TYPE F F F F
COUNT 1 1 1 1
WIDTH 1393
HEIGHT 1
VIEWPOINT 0 0 0 1 0 0 0
POINTS 1393
DATA ascii
4.7630005 0.18223044 0.41974005 0
4.7660003 0.17451194 0.41975087 0
4.7700005 0.16683134 0.41976529 0
4.7730002 0.15908939 0.41977611 0
4.7770004 0.15138172 0.41979057 0
4.7800002 0.14361632 0.41980138 0
4.7840004 0.13588159 0.41981581 0
4.7870002 0.12809274 0.41982663 0
4.7910004 0.12033096 0.41984105 0
4.7940001 0.11251867 0.41985187 0
4.7980003 0.10472982 0.41986632 0
4.8010001 0.096894071 0.41987714 0
4.8050003 0.089078173 0.41989157 0
4.9020004 0.018965956 0.4202415 0
4.8950005 0.010756828 0.42021626 0
4.8900003 0.0025945976 0.4201982 0
4.8870001 -0.0055315644 0.42018738 0
4.8860002 -0.013632465 0.42018378 0
4.8860002 -0.021724349 0.42018378 0
4.8870001 -0.029812627 0.42018738 0
4.8890004 -0.037902705 0.4201946 0
4.8940005 -0.046 0.42021266 0
4.9010005 -0.054118942 0.4202379 0
4.6740003 0.43969703 0.41170949 0
4.6510005 0.42941529 0.411668 0
4.6540003 0.42207742 0.41167343 0
4.6580005 0.41483694 0.41168064 0
4.6610003 0.40747556 0.41168603 0
4.6640005 0.40010345 0.41169146 0
4.6680002 0.39282322 0.41169867 0
4.6710005 0.38542765 0.41170409 0
4.6740003 0.37802118 0.41170949 0
4.6780005 0.37070137 0.4117167 0
4.6810002 0.36327145 0.41172212 0
4.6840005 0.35583076 0.41172752 0
4.6880002 0.34847119 0.41173473 0
4.6910005 0.34100705 0.41174015 0
4.6940002 0.33353207 0.41174558 0
4.6980004 0.32613286 0.41175279 0
4.7010002 0.31863442 0.41175818 0
4.7050004 0.31120816 0.4117654 0
4.7080002 0.30368623 0.41177082 0
4.7110004 0.29615358 0.41177624 0
4.7150002 0.28868759 0.41178346 0
4.7180004 0.28113145 0.41178885 0
4.7210002 0.27356446 0.41179428 0
4.7250004 0.26605883 0.41180149 0
4.7280002 0.25846839 0.41180688 0
4.7320004 0.2509357 0.41181412 0
4.7350001 0.24332181 0.41181952 0
4.7390003 0.23576206 0.41182673 0
4.7420001 0.22812471 0.41183215 0
4.7450004 0.2204766 0.41183755 0
4.7490001 0.21287712 0.41184479 0
4.7520003 0.20520556 0.41185018 0
4.7560005 0.19757906 0.4118574 0
4.7590003 0.18988399 0.41186282 0
4.7630005 0.18223044 0.41187003 0
4.7660003 0.17451194 0.41187543 0
4.7700005 0.16683134 0.41188267 0
4.7730002 0.15908939 0.41188806 0
4.7770004 0.15138172 0.41189528 0
4.7800002 0.14361632 0.4119007 0
4.7840004 0.13588159 0.41190791 0
4.7870002 0.12809274 0.41191334 0
4.7910004 0.12033096 0.41192055 0
4.7940001 0.11251867 0.41192594 0
4.7980003 0.10472982 0.41193315 0
4.8010001 0.096894071 0.41193858 0
4.8050003 0.089078173 0.41194579 0
4.9020004 0.018965956 0.41212076 0
4.8950005 0.010756828 0.41210812 0
4.8900003 0.0025945976 0.41209912 0
4.8870001 -0.0055315644 0.4120937 0
4.8860002 -0.013632465 0.41209191 0
4.8860002 -0.021724349 0.41209191 0
4.8870001 -0.029812627 0.4120937 0
4.8890004 -0.037902705 0.41209731 0
4.8940005 -0.046 0.41210634 0
4.9010005 -0.054118942 0.41211894 0
4.6740003 0.43969703 0.40400001 0
4.6510005 0.42941529 0.40400001 0
4.6540003 0.42207742 0.40400001 0
4.6580005 0.41483694 0.40400001 0
4.6610003 0.40747556 0.40400001 0
4.6640005 0.40010345 0.40400001 0
4.6680002 0.39282322 0.40400001 0
4.6710005 0.38542765 0.40400001 0
4.6740003 0.37802118 0.40400001 0
4.6780005 0.37070137 0.40400001 0
4.6810002 0.36327145 0.40400001 0
4.6840005 0.35583076 0.40400001 0
4.6880002 0.34847119 0.40400001 0
4.6910005 0.34100705 0.40400001 0
4.6940002 0.33353207 0.40400001 0
4.6980004 0.32613286 0.40400001 0
4.7010002 0.31863442 0.40400001 0
4.7050004 0.31120816 0.40400001 0
4.7080002 0.30368623 0.40400001 0
4.7110004 0.29615358 0.40400001 0
4.7150002 0.28868759 0.40400001 0
4.7180004 0.28113145 0.40400001 0
4.7210002 0.27356446 0.40400001 0
4.7250004 0.26605883 0.40400001 0
4.7280002 0.25846839 0.40400001 0
4.7320004 0.2509357 0.40400001 0
4.7350001 0.24332181 0.40400001 0
4.7390003 0.23576206 0.40400001 0
4.7420001 0.22812471 0.40400001 0
4.7450004 0.2204766 0.40400001 0
4.7490001 0.21287712 0.40400001 0
4.7520003 0.20520556 0.40400001 0
4.7560005 0.19757906 0.40400001 0
4.7590003 0.18988399 0.40400001 0
4.7630005 0.18223044 0.40400001 0
4.7660003 0.17451194 0.40400001 0
4.7700005 0.16683134 0.40400001 0
4.7730002 0.15908939 0.40400001 0
4.7770004 0.15138172 0.40400001 0
4.7800002 0.14361632 0.40400001 0
4.7840004 0.13588159 0.40400001 0
4.7870002 0.12809274 0.40400001 0
4.7910004 0.12033096 0.40400001 0
4.7940001 0.11251867 0.40400001 0
4.7980003 0.10472982 0.40400001 0
4.8010001 0.096894071 0.40400001 0
4.8050003 0.089078173 0.40400001 0
4.9020004 0.018965956 0.40400001 0
4.8950005 0.010756828 0.40400001 0
4.8900003 0.0025945976 0.40400001 0
4.8870001 -0.0055315644 0.40400001 0
4.8860002 -0.013632465 0.40400001 0
4.8860002 -0.021724349 0.40400001 0
4.8870001 -0.029812627 0.40400001 0
4.8890004 -0.037902705 0.40400001 0
4.8940005 -0.046 0.40400001 0
4.9010005 -0.054118942 0.40400001 0
4.6740003 0.43969703 0.39629054 0
4.6510005 0.42941529 0.39633203 0
4.6540003 0.42207742 0.3963266 0
4.6580005 0.41483694 0.39631939 0
4.6610003 0.40747556 0.396314 0
4.6640005 0.40010345 0.39630857 0
4.6680002 0.39282322 0.39630136 0
4.6710005 0.38542765 0.39629593 0
4.6740003 0.37802118 0.39629054 0
4.6780005 0.37070137 0.39628333 0
4.6810002 0.36327145 0.3962779 0
4.6840005 0.35583076 0.39627251 0
4.6880002 0.34847119 0.3962653 0
4.6910005 0.34100705 0.39625987 0
4.6940002 0.33353207 0.39625445 0
4.6980004 0.32613286 0.39624724 0
4.7010002 0.31863442 0.39624184 0
4.7050004 0.31120816 0.39623463 0
4.7080002 0.30368623 0.39622921 0
4.7110004 0.29615358 0.39622378 0
4.7150002 0.28868759 0.39621657 0
4.7180004 0.28113145 0.39621118 0
4.7210002 0.27356446 0.39620575 0
4.7250004 0.26605883 0.39619854 0
4.7280002 0.25846839 0.39619315 0
4.7320004 0.2509357 0.3961859 0
4.7350001 0.24332181 0.39618051 0
4.7390003 0.23576206 0.3961733 0
4.7420001 0.22812471 0.39616787 0
4.7450004 0.2204766 0.39616248 0
4.7490001 0.21287712 0.39615524 0
4.7520003 0.20520556 0.39614984 0
4.7560005 0.19757906 0.39614263 0
4.7590003 0.18988399 0.39613721 0
4.7630005 0.18223044 0.39613 0
4.7660003 0.17451194 0.3961246 0
4.7700005 0.16683134 0.39611736 0
4.7730002 0.15908939 0.39611197 0
4.7770004 0.15138172 0.39610475 0
4.7800002 0.14361632 0.39609933 0
4.7840004 0.13588159 0.39609212 0
4.7870002 0.12809274 0.39608669 0
4.7910004 0.12033096 0.39607948 0
4.7940001 0.11251867 0.39607409 0
4.7980003 0.10472982 0.39606687 0
4.8010001 0.096894071 0.39606145 0
4.8050003 0.089078173 0.39605424 0
4.9020004 0.018965956 0.39587927 0
4.8950005 0.010756828 0.3958919 0
4.8900003 0.0025945976 0.39590091 0
4.8870001 -0.0055315644 0.39590633 0
4.8860002 -0.013632465 0.39590812 0
4.8860002 -0.021724349 0.39590812 0
4.8870001 -0.029812627 0.39590633 0
4.8890004 -0.037902705 0.39590272 0
4.8940005 -0.046 0.39589369 0
4.9010005 -0.054118942 0.39588109 0
4.6740003 0.43969703 0.38858107 0
4.6510005 0.42941529 0.38866404 0
4.6540003 0.42207742 0.38865322 0
4.6580005 0.41483694 0.38863879 0
4.6610003 0.40747556 0.38862795 0
4.6640005 0.40010345 0.38861713 0
4.6680002 0.39282322 0.3886027 0
4.6710005 0.38542765 0.38859189 0
4.6740003 0.37802118 0.38858107 0
4.6780005 0.37070137 0.38856664 0
4.6810002 0.36327145 0.38855579 0
4.6840005 0.35583076 0.38854498 0
4.6880002 0.34847119 0.38853055 0
4.6910005 0.34100705 0.38851973 0
4.6940002 0.33353207 0.38850892 0
4.6980004 0.32613286 0.38849449 0
4.7250004 0.26605883 0.38839707 0
4.7280002 0.25846839 0.38838625 0
4.7320004 0.2509357 0.38837183 0
4.7350001 0.24332181 0.38836101 0
4.7700005 0.16683134 0.38823473 0
4.7730002 0.15908939 0.38822392 0
4.7770004 0.15138172 0.38820946 0
4.7800002 0.14361632 0.38819864 0
4.7840004 0.13588159 0.38818422 0
4.7870002 0.12809274 0.3881734 0
4.7910004 0.12033096 0.38815898 0
4.7940001 0.11251867 0.38814816 0
4.7980003 0.10472982 0.3881337 0
4.8010001 0.096894071 0.38812289 0
4.8050003 0.089078173 0.38810846 0
4.9020004 0.018965956 0.38775852 0
4.8950005 0.010756828 0.38778377 0
4.8900003 0.0025945976 0.38780183 0
4.8870001 -0.0055315644 0.38781264 0
4.8860002 -0.013632465 0.38781625 0
4.8860002 -0.021724349 0.38781625 0
4.8870001 -0.029812627 0.38781264 0
4.8890004 -0.037902705 0.38780543 0
4.8940005 -0.046 0.38778737 0
4.9010005 -0.054118942 0.38776213 0
4.6740003 0.43969703 0.38087159 0
4.6510005 0.42941529 0.38099605 0
4.6540003 0.42207742 0.38097981 0
4.6580005 0.41483694 0.38095817 0
4.6610003 0.40747556 0.38094193 0
4.6640005 0.40010345 0.38092569 0
4.6890001 0.3949824 0.38079041 0
4.6930003 0.38764995 0.38076878 0
4.6990004 0.38050142 0.38073629 0
4.8140001 0.14508823 0.38011399 0
4.8110003 0.13700175 0.38013023 0
4.8110003 0.12904516 0.38013023 0
4.8120003 0.12112643 0.38012481 0
4.8170004 0.11334841 0.38009775 0
4.8250003 0.10565518 0.38005447 0
5.1150002 0.073069379 0.37848514 0
5.1180005 0.064634785 0.3784689 0
5.1220002 0.056210991 0.37844726 0
4.9020004 0.018965956 0.37963778 0
4.8950005 0.010756828 0.37967566 0
4.8900003 0.0025945976 0.37970272 0
4.8870001 -0.0055315644 0.37971896 0
4.8860002 -0.013632465 0.37972435 0
4.8860002 -0.021724349 0.37972435 0
4.8870001 -0.029812627 0.37971896 0
4.8890004 -0.037902705 0.37970814 0
4.8940005 -0.046 0.37968108 0
4.9010005 -0.054118942 0.3796432 0
4.6540003 0.42207742 0.37330642 0
4.6580005 0.41483694 0.37327754 0
4.6610003 0.40747556 0.37325591 0
4.6640005 0.40010345 0.37323427 0
4.6890001 0.3949824 0.37305388 0
4.6930003 0.38764995 0.37302503 0
4.6990004 0.38050142 0.37298173 0
4.8140001 0.14508823 0.37215197 0
4.8110003 0.13700175 0.37217361 0
4.8110003 0.12904516 0.37217361 0
4.8120003 0.12112643 0.3721664 0
4.8170004 0.11334841 0.37213033 0
4.8250003 0.10565518 0.37207261 0
5.1130004 0.08152023 0.36999461 0
5.1150002 0.073069379 0.36998019 0
5.1180005 0.064634785 0.36995855 0
5.1220002 0.056210991 0.36992967 0
4.9020004 0.018965956 0.37151703 0
4.8950005 0.010756828 0.37156755 0
4.8900003 0.0025945976 0.37160361 0
4.8870001 -0.0055315644 0.37162527 0
4.8860002 -0.013632465 0.37163249 0
4.8860002 -0.021724349 0.37163249 0
4.8870001 -0.029812627 0.37162527 0
4.8890004 -0.037902705 0.37161082 0
4.8940005 -0.046 0.37157476 0
4.9010005 -0.054118942 0.37152424 0
4.6540003 0.42207742 0.36563301 0
4.6580005 0.41483694 0.36559695 0
4.6610003 0.40747556 0.36556989 0
4.6640005 0.40010345 0.36554283 0
4.6890001 0.3949824 0.36531734 0
4.6930003 0.38764995 0.36528128 0
4.6990004 0.38050142 0.36522716 0
4.8140001 0.14508823 0.36418998 0
4.8110003 0.13700175 0.36421701 0
4.8110003 0.12904516 0.36421701 0
4.8120003 0.12112643 0.36420801 0
4.8170004 0.11334841 0.36416292 0
4.8250003 0.10565518 0.36409077 0
5.1140003 0.090050429 0.36148426 0
5.1130004 0.08152023 0.36149326 0
5.1150002 0.073069379 0.36147523 0
5.1180005 0.064634785 0.36144817 0
5.1220002 0.056210991 0.36141211 0
5.1300001 0.047852132 0.36133996 0
4.9020004 0.018965956 0.36339629 0
4.8950005 0.010756828 0.36345941 0
4.8900003 0.0025945976 0.36350453 0
4.8870001 -0.0055315644 0.36353159 0
4.8860002 -0.013632465 0.36354059 0
4.8860002 -0.021724349 0.36354059 0
4.8870001 -0.029812627 0.36353159 0
4.8890004 -0.037902705 0.36351353 0
4.8940005 -0.046 0.36346844 0
4.9010005 -0.054118942 0.36340532 0
4.6580005 0.41483694 0.35791633 0
4.6610003 0.40747556 0.35788384 0
4.6870003 0.40250969 0.35760248 0
4.6890001 0.3949824 0.35758081 0
4.6930003 0.38764995 0.35753751 0
4.6990004 0.38050142 0.3574726 0
4.8140001 0.14508823 0.35622796 0
4.8110003 0.13700175 0.35626042 0
4.8110003 0.12904516 0.35626042 0
4.8120003 0.12112643 0.3562496 0
4.8170004 0.11334841 0.35619548 0
4.8250003 0.10565518 0.3561089 0
5.1140003 0.090050429 0.35298109 0
5.1130004 0.08152023 0.35299194 0
5.1150002 0.073069379 0.35297027 0
5.1180005 0.064634785 0.35293782 0
5.1220002 0.056210991 0.35289451 0
5.1300001 0.047852132 0.35280794 0
4.9020004 0.018965956 0.35527554 0
4.8950005 0.010756828 0.3553513 0
4.8900003 0.0025945976 0.35540542 0
4.8870001 -0.0055315644 0.35543787 0
4.8860002 -0.013632465 0.35544872 0
4.8860002 -0.021724349 0.35544872 0
4.8870001 -0.029812627 0.35543787 0
4.8890004 -0.037902705 0.35541624 0
4.8940005 -0.046 0.35536212 0
4.9010005 -0.054118942 0.35528636 0
4.6910005 0.41840848 0.34981903 0
4.6880002 0.41034904 0.34985691 0
4.6870003 0.40250969 0.34986955 0
4.6890001 0.3949824 0.34984428 0
4.6930003 0.38764995 0.34979376 0
4.6990004 0.38050142 0.349718 0
5.0840001 0.25816533 0.34485674 0
5.0850005 0.24977946 0.34484413 0
5.0870004 0.24145126 0.34481886 0
4.8140001 0.14508823 0.34826595 0
4.8110003 0.13700175 0.34830382 0
4.8110003 0.12904516 0.34830382 0
4.8120003 0.12112643 0.34829122 0
4.8170004 0.11334841 0.34822807 0
5.1150002 0.098584235 0.34446532 0
5.1140003 0.090050429 0.34447795 0
5.1130004 0.08152023 0.34449059 0
5.1150002 0.073069379 0.34446532 0
5.1180005 0.064634785 0.34442744 0
5.1220002 0.056210991 0.34437692 0
5.1300001 0.047852132 0.34427592 0
4.9020004 0.018965956 0.3471548 0
4.8950005 0.010756828 0.34724319 0
4.8900003 0.0025945976 0.34730631 0
4.8870001 -0.0055315644 0.34734422 0
4.8860002 -0.013632465 0.34735683 0
4.8860002 -0.021724349 0.34735683 0
4.8870001 -0.029812627 0.34734422 0
4.8890004 -0.037902705 0.34731895 0
4.8940005 -0.046 0.34725583 0
4.9010005 -0.054118942 0.34716743 0
4.6970005 0.42680883 0.34199229 0
4.6910005 0.41840848 0.34207889 0
4.6880002 0.41034904 0.34212217 0
4.6870003 0.40250969 0.34213662 0
4.6890001 0.3949824 0.34210774 0
4.6930003 0.38764995 0.34205002 0
4.6990004 0.38050142 0.34196344 0
5.0870004 0.26681462 0.33636442 0
5.0840001 0.25816533 0.33640772 0
5.0850005 0.24977946 0.3363933 0
5.0870004 0.24145126 0.33636442 0
5.0930004 0.23335397 0.33627784 0
4.8140001 0.14508823 0.34030396 0
4.8110003 0.13700175 0.34034723 0
4.8110003 0.12904516 0.34034723 0
4.8120003 0.12112643 0.34033281 0
4.8170004 0.11334841 0.34026065 0
5.1150002 0.098584235 0.33596036 0
5.1140003 0.090050429 0.33597481 0
5.1130004 0.08152023 0.33598924 0
5.1150002 0.073069379 0.33596036 0
5.1180005 0.064634785 0.33591706 0
5.1220002 0.056210991 0.33585936 0
5.1300001 0.047852132 0.3357439 0
4.9020004 0.018965956 0.33903405 0
4.8950005 0.010756828 0.33913505 0
4.8900003 0.0025945976 0.33920723 0
4.8870001 -0.0055315644 0.3392505 0
4.8860002 -0.013632465 0.33926493 0
4.8860002 -0.021724349 0.33926493 0
4.8870001 -0.029812627 0.3392505 0
4.8890004 -0.037902705 0.33922166 0
4.8940005 -0.046 0.3391495 0
4.9010005 -0.054118942 0.33904848 0
4.9610004 0.52990186 0.32995549 0
4.9620004 0.52179915 0.32993925 0
4.6970005 0.42680883 0.33424133 0
4.6910005 0.41840848 0.33433872 0
4.6880002 0.41034904 0.33438745 0
4.6870003 0.40250969 0.33440369 0
4.6890001 0.3949824 0.33437121 0
4.6930003 0.38764995 0.33430627 0
4.6990004 0.38050142 0.33420888 0
5.0870004 0.26681462 0.32790998 0
5.0840001 0.25816533 0.32795867 0
5.0850005 0.24977946 0.32794243 0
5.0870004 0.24145126 0.32790998 0
5.0930004 0.23335397 0.32781255 0
4.8210001 0.1533659 0.3322283 0
4.8140001 0.14508823 0.33234194 0
4.8110003 0.13700175 0.33239064 0
4.8110003 0.12904516 0.33239064 0
4.8120003 0.12112643 0.33237439 0
4.8170004 0.11334841 0.33229321 0
5.1150002 0.098584235 0.3274554 0
5.1140003 0.090050429 0.32747164 0
5.1130004 0.08152023 0.32748789 0
5.1150002 0.073069379 0.3274554 0
5.1180005 0.064634785 0.3274067 0
5.1220002 0.056210991 0.32734177 0
5.1300001 0.047852132 0.32721192 0
4.9020004 0.018965956 0.33091331 0
4.8950005 0.010756828 0.33102694 0
4.8900003 0.0025945976 0.33110812 0
4.8870001 -0.0055315644 0.33115682 0
4.8860002 -0.013632465 0.33117306 0
4.8860002 -0.021724349 0.33117306 0
4.8870001 -0.029812627 0.33115682 0
4.8890004 -0.037902705 0.33112437 0
4.8940005 -0.046 0.33104318 0
4.9010005 -0.054118942 0.33092955 0
4.9630003 0.53838515 0.32169223 0
4.9610004 0.52990186 0.32172832 0
4.9620004 0.52179915 0.32171029 0
4.9640002 0.51381552 0.32167423 0
4.6970005 0.42680883 0.32649037 0
4.6910005 0.41840848 0.32659858 0
4.6880002 0.41034904 0.32665271 0
4.6870003 0.40250969 0.32667077 0
4.6890001 0.3949824 0.32663468 0
4.6930003 0.38764995 0.32656252 0
4.6990004 0.38050142 0.32645428 0
5.0870004 0.26681462 0.3194555 0
5.0840001 0.25816533 0.31950963 0
5.0850005 0.24977946 0.3194916 0
5.0870004 0.24145126 0.3194555 0
5.0930004 0.23335397 0.31934729 0
4.8210001 0.1533659 0.32425365 0
4.8140001 0.14508823 0.32437992 0
4.8110003 0.13700175 0.32443404 0
4.8110003 0.12904516 0.32443404 0
4.8120003 0.12112643 0.32441598 0
4.8170004 0.11334841 0.3243258 0
4.8250003 0.10565518 0.3241815 0
5.1150002 0.098584235 0.31895047 0
5.1140003 0.090050429 0.31896847 0
5.1130004 0.08152023 0.31898654 0
5.1150002 0.073069379 0.31895047 0
5.1180005 0.064634785 0.31889635 0
5.1220002 0.056210991 0.3188242 0
5.1300001 0.047852132 0.3186799 0
4.9020004 0.018965956 0.32279256 0
4.8950005 0.010756828 0.32291883 0
4.8900003 0.0025945976 0.32300901 0
4.8870001 -0.0055315644 0.32306314 0
4.8860002 -0.013632465 0.3230812 0
4.8860002 -0.021724349 0.3230812 0
4.8870001 -0.029812627 0.32306314 0
4.8890004 -0.037902705 0.32302707 0
4.8940005 -0.046 0.32293686 0
4.9010005 -0.054118942 0.32281059 0
4.9630003 0.53838515 0.31346148 0
4.9610004 0.52990186 0.31350115 0
4.9620004 0.52179915 0.3134813 0
4.9640002 0.51381552 0.31344163 0
4.9700003 0.50630802 0.31332257 0
4.6970005 0.42680883 0.31873941 0
4.6910005 0.41840848 0.31885844 0
4.6880002 0.41034904 0.31891799 0
4.6870003 0.40250969 0.31893784 0
4.6890001 0.3949824 0.31889814 0
4.6930003 0.38764995 0.31881878 0
4.6990004 0.38050142 0.31869972 0
5.0870004 0.26681462 0.31100106 0
5.0840001 0.25816533 0.31106061 0
5.0850005 0.24977946 0.31104076 0
5.0870004 0.24145126 0.31100106 0
5.0930004 0.23335397 0.31088203 0
4.8210001 0.1533659 0.31627902 0
4.8140001 0.14508823 0.3164179 0
4.8110003 0.13700175 0.31647742 0
4.8110003 0.12904516 0.31647742 0
4.8120003 0.12112643 0.3164576 0
4.8170004 0.11334841 0.31635839 0
4.8250003 0.10565518 0.31619966 0
5.1150002 0.098584235 0.31044549 0
5.1140003 0.090050429 0.31046534 0
5.1130004 0.08152023 0.31048518 0
5.1150002 0.073069379 0.31044549 0
5.1180005 0.064634785 0.31038597 0
5.1220002 0.056210991 0.31030661 0
5.1300001 0.047852132 0.31014788 0
4.9020004 0.018965956 0.31467181 0
4.8950005 0.010756828 0.31481072 0
4.8900003 0.0025945976 0.31490993 0
4.8870001 -0.0055315644 0.31496945 0
4.8860002 -0.013632465 0.3149893 0
4.8860002 -0.021724349 0.3149893 0
4.8870001 -0.029812627 0.31496945 0
4.8890004 -0.037902705 0.31492975 0
4.8940005 -0.046 0.31483054 0
4.9010005 -0.054118942 0.31469166 0
4.9630003 0.53838515 0.30523068 0
4.9610004 0.52990186 0.30527398 0
4.9620004 0.52179915 0.30525234 0
4.9640002 0.51381552 0.30520904 0
4.9700003 0.50630802 0.30507916 0
4.6980004 0.42691883 0.31096679 0
4.6910005 0.41840848 0.3111183 0
4.6880002 0.41034904 0.31118327 0
4.6870003 0.40250969 0.31120491 0
4.6890001 0.3949824 0.31116161 0
4.6930003 0.38764995 0.31107503 0
4.6990004 0.38050142 0.31094515 0
5.0870004 0.26681462 0.30254662 0
5.0840001 0.25816533 0.30261156 0
5.0850005 0.24977946 0.30258989 0
5.0870004 0.24145126 0.30254662 0
5.0930004 0.23335397 0.30241674 0
4.8210001 0.1533659 0.30830437 0
4.8140001 0.14508823 0.30845588 0
4.8110003 0.13700175 0.30852085 0
4.8110003 0.12904516 0.30852085 0
4.8120003 0.12112643 0.30849919 0
4.8170004 0.11334841 0.30839097 0
4.8250003 0.10565518 0.30821779 0
5.1150002 0.098584235 0.30194056 0
5.1140003 0.090050429 0.3019622 0
5.1130004 0.08152023 0.30198383 0
5.1150002 0.073069379 0.30194056 0
5.1180005 0.064634785 0.30187559 0
5.1220002 0.056210991 0.30178902 0
5.1300001 0.047852132 0.30161586 0
4.9020004 0.018965956 0.30655107 0
4.8950005 0.010756828 0.30670261 0
4.8900003 0.0025945976 0.30681083 0
4.8870001 -0.0055315644 0.30687577 0
4.8860002 -0.013632465 0.3068974 0
4.8860002 -0.021724349 0.3068974 0
4.8870001 -0.029812627 0.30687577 0
4.8890004 -0.037902705 0.30683246 0
4.8940005 -0.046 0.30672425 0
4.9010005 -0.054118942 0.30657274 0
4.9630003 0.53838515 0.2969999 0
4.9610004 0.52990186 0.29704681 0
4.9620004 0.52179915 0.29702336 0
4.9640002 0.51381552 0.29697648 0
4.9700003 0.50630802 0.29683578 0
4.6980004 0.42691883 0.30321401 0
4.6910005 0.41840848 0.30337816 0
4.6880002 0.41034904 0.30344853 0
4.6870003 0.40250969 0.30347198 0
4.6890001 0.3949824 0.30342507 0
4.6930003 0.38764995 0.30333129 0
4.6990004 0.38050142 0.30319059 0
5.0870004 0.26681462 0.29409218 0
5.0840001 0.25816533 0.29416254 0
5.0850005 0.24977946 0.29413906 0
5.0870004 0.24145126 0.29409218 0
5.0930004 0.23335397 0.29395148 0
4.8210001 0.1533659 0.30032974 0
4.8140001 0.14508823 0.3004939 0
4.8110003 0.13700175 0.30056423 0
4.8110003 0.12904516 0.30056423 0
4.8120003 0.12112643 0.3005408 0
4.8170004 0.11334841 0.30042353 0
4.8250003 0.10565518 0.30023596 0
5.1150002 0.098584235 0.29343557 0
5.1140003 0.090050429 0.29345906 0
5.1130004 0.08152023 0.29348248 0
5.1150002 0.073069379 0.29343557 0
5.1180005 0.064634785 0.29336524 0
5.1220002 0.056210991 0.29327145 0
5.1300001 0.047852132 0.29308385 0
4.9020004 0.018965956 0.29843032 0
4.8950005 0.010756828 0.29859447 0
4.8900003 0.0025945976 0.29871172 0
4.8870001 -0.0055315644 0.29878208 0
4.8860002 -0.013632465 0.29880553 0
4.8860002 -0.021724349 0.29880553 0
4.8870001 -0.029812627 0.29878208 0
4.8890004 -0.037902705 0.29873517 0
4.8940005 -0.046 0.29861793 0
4.9010005 -0.054118942 0.29845378 0
4.9630003 0.53838515 0.28876913 0
4.9610004 0.52990186 0.28881964 0
4.9620004 0.52179915 0.2887944 0
4.9640002 0.51381552 0.28874388 0
4.9700003 0.50630802 0.28859237 0
4.6980004 0.42691883 0.29546127 0
4.6910005 0.41840848 0.29563802 0
4.6880002 0.41034904 0.29571378 0
4.6870003 0.40250969 0.29573905 0
4.6890001 0.3949824 0.29568854 0
4.6930003 0.38764995 0.29558754 0
4.6990004 0.38050142 0.29543602 0
5.0870004 0.26681462 0.28563774 0
5.0840001 0.25816533 0.28571349 0
5.0850005 0.24977946 0.28568822 0
5.0870004 0.24145126 0.28563774 0
5.0930004 0.23335397 0.28548622 0
4.8210001 0.1533659 0.29235512 0
4.8140001 0.14508823 0.29253188 0
4.8110003 0.13700175 0.29260764 0
4.8110003 0.12904516 0.29260764 0
4.8120003 0.12112643 0.29258239 0
4.8170004 0.11334841 0.29245612 0
4.8250003 0.10565518 0.29225409 0
5.1150002 0.098584235 0.28493065 0
5.1140003 0.090050429 0.28495589 0
5.1130004 0.08152023 0.28498113 0
5.1150002 0.073069379 0.28493065 0
5.1180005 0.064634785 0.28485489 0
5.1220002 0.056210991 0.28475386 0
5.1300001 0.047852132 0.28455183 0
4.9020004 0.018965956 0.29030958 0
4.8950005 0.010756828 0.29048637 0
4.8900003 0.0025945976 0.29061264 0
4.8870001 -0.0055315644 0.2906884 0
4.8860002 -0.013632465 0.29071364 0
4.8860002 -0.021724349 0.29071364 0
4.8870001 -0.029812627 0.2906884 0
4.8890004 -0.037902705 0.29063788 0
4.8940005 -0.046 0.29051161 0
4.9010005 -0.054118942 0.29033482 0
4.9630003 0.53838515 0.28053838 0
4.9610004 0.52990186 0.28059247 0
4.9620004 0.52179915 0.28056541 0
4.9640002 0.51381552 0.28051132 0
4.9700003 0.50630802 0.28034896 0
4.6980004 0.42691883 0.28770849 0
4.6910005 0.41840848 0.28789788 0
4.6880002 0.41034904 0.28797907 0
4.6870003 0.40250969 0.28800613 0
4.6890001 0.3949824 0.28795201 0
4.6930003 0.38764995 0.28784376 0
4.6990004 0.38050142 0.28768146 0
5.0870004 0.26681462 0.27718326 0
5.0840001 0.25816533 0.27726445 0
5.0850005 0.24977946 0.27723739 0
5.0870004 0.24145126 0.27718326 0
5.0930004 0.23335397 0.27702093 0
4.8210001 0.1533659 0.28438047 0
4.8140001 0.14508823 0.28456989 0
4.8110003 0.13700175 0.28465104 0
4.8110003 0.12904516 0.28465104 0
4.8120003 0.12112643 0.28462398 0
4.8170004 0.11334841 0.28448868 0
4.8250003 0.10565518 0.28427225 0
5.1150002 0.098584235 0.27642566 0
5.1140003 0.090050429 0.27645272 0
5.1130004 0.08152023 0.27647978 0
5.1150002 0.073069379 0.27642566 0
5.1180005 0.064634785 0.27634451 0
5.1220002 0.056210991 0.2762363 0
5.1300001 0.047852132 0.27601981 0
4.9020004 0.018965956 0.28218883 0
4.8950005 0.010756828 0.28237826 0
4.8900003 0.0025945976 0.28251353 0
4.8870001 -0.0055315644 0.28259471 0
4.8860002 -0.013632465 0.28262177 0
4.8860002 -0.021724349 0.28262177 0
4.8870001 -0.029812627 0.28259471 0
4.8890004 -0.037902705 0.28254059 0
4.8940005 -0.046 0.28240532 0
4.9010005 -0.054118942 0.28221589 0
4.9630003 0.53838515 0.27230757 0
4.9610004 0.52990186 0.2723653 0
4.9620004 0.52179915 0.27233642 0
4.9640002 0.51381552 0.27227873 0
4.9700003 0.50630802 0.27210557 0
4.6980004 0.42691883 0.27995571 0
4.6910005 0.41840848 0.28015774 0
4.6880002 0.41034904 0.28024435 0
4.6870003 0.40250969 0.2802732 0
4.6890001 0.3949824 0.28021547 0
4.6930003 0.38764995 0.28010005 0
4.6990004 0.38050142 0.27992687 0
5.0870004 0.26681462 0.26872882 0
5.0840001 0.25816533 0.2688154 0
5.0850005 0.24977946 0.26878655 0
5.0870004 0.24145126 0.26872882 0
5.0930004 0.23335397 0.26855564 0
4.8210001 0.1533659 0.27640584 0
4.8140001 0.14508823 0.27660787 0
4.8110003 0.13700175 0.27669445 0
4.8110003 0.12904516 0.27669445 0
4.8120003 0.12112643 0.27666557 0
4.8170004 0.11334841 0.27652127 0
4.8250003 0.10565518 0.27629039 0
5.1150002 0.098584235 0.26792073 0
5.1140003 0.090050429 0.26794958 0
5.1130004 0.08152023 0.26797843 0
5.1150002 0.073069379 0.26792073 0
5.1180005 0.064634785 0.26783413 0
5.1220002 0.056210991 0.2677187 0
5.1300001 0.047852132 0.26748782 0
4.9020004 0.018965956 0.27406812 0
4.8950005 0.010756828 0.27427012 0
4.8900003 0.0025945976 0.27441442 0
4.8870001 -0.0055315644 0.27450103 0
4.8860002 -0.013632465 0.27452987 0
4.8860002 -0.021724349 0.27452987 0
4.8870001 -0.029812627 0.27450103 0
4.8890004 -0.037902705 0.27444327 0
4.8940005 -0.046 0.27429897 0
4.9010005 -0.054118942 0.27409697 0
4.9630003 0.53838515 0.2640768 0
4.9610004 0.52990186 0.26413813 0
4.9620004 0.52179915 0.26410747 0
4.9640002 0.51381552 0.26404613 0
4.9700003 0.50630802 0.26386213 0
4.6980004 0.42691883 0.27220297 0
4.6910005 0.41840848 0.2724176 0
4.6880002 0.41034904 0.2725096 0
4.6870003 0.40250969 0.27254027 0
4.6890001 0.3949824 0.27247894 0
4.6930003 0.38764995 0.27235627 0
4.6990004 0.38050142 0.27217227 0
5.0870004 0.26681462 0.26027438 0
5.0840001 0.25816533 0.26036638 0
5.0850005 0.24977946 0.26033571 0
5.0870004 0.24145126 0.26027438 0
5.0930004 0.23335397 0.26009038 0
4.8210001 0.1533659 0.26843122 0
4.8140001 0.14508823 0.26864585 0
4.8110003 0.13700175 0.26873785 0
4.8110003 0.12904516 0.26873785 0
4.8120003 0.12112643 0.26870716 0
4.8170004 0.11334841 0.26855385 0
4.8250003 0.10565518 0.26830852 0
5.1150002 0.098584235 0.25941578 0
5.1140003 0.090050429 0.25944644 0
5.1130004 0.08152023 0.25947708 0
5.1150002 0.073069379 0.25941578 0
5.1180005 0.064634785 0.25932378 0
5.1220002 0.056210991 0.25920111 0
5.1300001 0.047852132 0.25895578 0
4.9020004 0.018965956 0.26594734 0
4.8950005 0.010756828 0.26616198 0
4.8900003 0.0025945976 0.26631534 0
4.8870001 -0.0055315644 0.26640734 0
4.8860002 -0.013632465 0.26643801 0
4.8860002 -0.021724349 0.26643801 0
4.8870001 -0.029812627 0.26640734 0
4.8890004 -0.037902705 0.26634598 0
4.8940005 -0.046 0.26619267 0
4.9010005 -0.054118942 0.26597801 0
4.9630003 0.53838515 0.25584602 0
4.9610004 0.52990186 0.25591096 0
4.9620004 0.52179915 0.25587851 0
4.9640002 0.51381552 0.25581357 0
4.9700003 0.50630802 0.25561875 0
4.6980004 0.42691883 0.26445019 0
4.6910005 0.41840848 0.26467746 0
4.6880002 0.41034904 0.26477486 0
4.6870003 0.40250969 0.26480734 0
4.6890001 0.3949824 0.2647424 0
4.6930003 0.38764995 0.26461256 0
4.6990004 0.38050142 0.26441771 0
5.0870004 0.26681462 0.25181991 0
5.0840001 0.25816533 0.25191736 0
5.0850005 0.24977946 0.25188488 0
5.0870004 0.24145126 0.25181991 0
5.0930004 0.23335397 0.25162512 0
4.8210001 0.1533659 0.26045656 0
4.8140001 0.14508823 0.26068383 0
4.8110003 0.13700175 0.26078123 0
4.8110003 0.12904516 0.26078123 0
4.8120003 0.12112643 0.2607488 0
4.8170004 0.11334841 0.26058644 0
4.8250003 0.10565518 0.26032668 0
5.1150002 0.098584235 0.25091082 0
5.1140003 0.090050429 0.25094327 0
5.1130004 0.08152023 0.25097573 0
5.1150002 0.073069379 0.25091082 0
5.1180005 0.064634785 0.25081339 0
5.1220002 0.056210991 0.25068355 0
5.1300001 0.047852132 0.25042379 0
4.9020004 0.018965956 0.25782663 0
4.8950005 0.010756828 0.2580539 0
4.8900003 0.0025945976 0.25821623 0
4.8870001 -0.0055315644 0.25831366 0
4.8860002 -0.013632465 0.25834611 0
4.8860002 -0.021724349 0.25834611 0
4.8870001 -0.029812627 0.25831366 0
4.8890004 -0.037902705 0.25824869 0
4.8940005 -0.046 0.25808635 0
4.9010005 -0.054118942 0.25785908 0
4.9630003 0.53838515 0.24761525 0
4.9610004 0.52990186 0.24768379 0
4.9620004 0.52179915 0.24764952 0
4.9640002 0.51381552 0.24758098 0
4.9700003 0.50630802 0.24737535 0
4.6980004 0.42691883 0.25669742 0
4.6910005 0.41840848 0.25693733 0
4.6880002 0.41034904 0.25704014 0
4.6870003 0.40250969 0.25707442 0
4.6890001 0.3949824 0.25700587 0
4.6930003 0.38764995 0.25686878 0
4.6990004 0.38050142 0.25666314 0
5.0870004 0.26681462 0.24336547 0
5.0840001 0.25816533 0.2434683 0
5.0850005 0.24977946 0.24343401 0
5.0870004 0.24145126 0.24336547 0
5.0930004 0.23335397 0.24315985 0
4.8210001 0.1533659 0.25248194 0
4.8140001 0.14508823 0.25272185 0
4.8110003 0.13700175 0.25282466 0
4.8110003 0.12904516 0.25282466 0
4.8120003 0.12112643 0.25279039 0
4.8170004 0.11334841 0.25261903 0
4.8250003 0.10565518 0.25234485 0
5.1150002 0.098584235 0.24240585 0
5.1140003 0.090050429 0.24244013 0
5.1130004 0.08152023 0.24247439 0
5.1150002 0.073069379 0.24240585 0
5.1180005 0.064634785 0.24230303 0
5.1220002 0.056210991 0.24216595 0
5.1300001 0.047852132 0.24189177 0
4.9020004 0.018965956 0.24970585 0
4.8950005 0.010756828 0.24994577 0
4.8900003 0.0025945976 0.25011712 0
4.8870001 -0.0055315644 0.25021994 0
4.8860002 -0.013632465 0.25025421 0
4.8860002 -0.021724349 0.25025421 0
4.8870001 -0.029812627 0.25021994 0
4.8890004 -0.037902705 0.2501514 0
4.8940005 -0.046 0.24998003 0
4.9010005 -0.054118942 0.24974014 0
4.9630003 0.53838515 0.23938447 0
4.9610004 0.52990186 0.23945662 0
4.9620004 0.52179915 0.23942055 0
4.9640002 0.51381552 0.23934841 0
4.9700003 0.50630802 0.23913194 0
4.6980004 0.42691883 0.24894466 0
4.6910005 0.41840848 0.24919719 0
4.6880002 0.41034904 0.24930543 0
4.6870003 0.40250969 0.24934149 0
4.6890001 0.3949824 0.24926935 0
4.6930003 0.38764995 0.24912505 0
4.6990004 0.38050142 0.24890858 0
5.0870004 0.26681462 0.23491102 0
5.0840001 0.25816533 0.23501927 0
5.0850005 0.24977946 0.23498318 0
5.0870004 0.24145126 0.23491102 0
5.0930004 0.23335397 0.23469457 0
4.8210001 0.1533659 0.2445073 0
4.8140001 0.14508823 0.24475983 0
4.8110003 0.13700175 0.24486805 0
4.8110003 0.12904516 0.24486805 0
4.8120003 0.12112643 0.24483198 0
4.8170004 0.11334841 0.2446516 0
4.8250003 0.10565518 0.244363 0
5.1150002 0.098584235 0.2339009 0
5.1140003 0.090050429 0.23393697 0
5.1130004 0.08152023 0.23397304 0
5.1150002 0.073069379 0.2339009 0
5.1180005 0.064634785 0.23379266 0
5.1220002 0.056210991 0.23364837 0
5.1300001 0.047852132 0.23335977 0
4.9020004 0.018965956 0.24158511 0
4.8950005 0.010756828 0.24183765 0
4.8900003 0.0025945976 0.24201804 0
4.8870001 -0.0055315644 0.24212627 0
4.8860002 -0.013632465 0.24216235 0
4.8860002 -0.021724349 0.24216235 0
4.8870001 -0.029812627 0.24212627 0
4.8890004 -0.037902705 0.2420541 0
4.8940005 -0.046 0.24187373 0
4.9010005 -0.054118942 0.2416212 0
4.9630003 0.53838515 0.2311537 0
4.9610004 0.52990186 0.23122945 0
4.9620004 0.52179915 0.23119158 0
4.9640002 0.51381552 0.23111582 0
4.9700003 0.50630802 0.23088855 0
4.6980004 0.42691883 0.24119188 0
4.6910005 0.41840848 0.24145705 0
4.6880002 0.41034904 0.2415707 0
4.6870003 0.40250969 0.24160857 0
4.6890001 0.3949824 0.24153282 0
4.6930003 0.38764995 0.24138129 0
4.6990004 0.38050142 0.241154 0
5.0870004 0.26681462 0.22645658 0
5.0840001 0.25816533 0.22657023 0
5.0850005 0.24977946 0.22653233 0
5.0870004 0.24145126 0.22645658 0
5.0930004 0.23335397 0.2262293 0
4.8210001 0.1533659 0.23653266 0
4.8140001 0.14508823 0.23679782 0
4.8110003 0.13700175 0.23691146 0
4.8110003 0.12904516 0.23691146 0
4.8120003 0.12112643 0.23687358 0
4.8170004 0.11334841 0.23668417 0
4.8250003 0.10565518 0.23638114 0
5.1150002 0.098584235 0.22539595 0
5.1140003 0.090050429 0.22543383 0
5.1130004 0.08152023 0.22547169 0
5.1150002 0.073069379 0.22539595 0
5.1180005 0.064634785 0.2252823 0
5.1220002 0.056210991 0.22513078 0
5.1300001 0.047852132 0.22482775 0
4.9020004 0.018965956 0.23346438 0
4.8950005 0.010756828 0.23372954 0
4.8900003 0.0025945976 0.23391894 0
4.8870001 -0.0055315644 0.23403259 0
4.8860002 -0.013632465 0.23407046 0
4.8860002 -0.021724349 0.23407046 0
4.8870001 -0.029812627 0.23403259 0
4.8890004 -0.037902705 0.23395681 0
4.8940005 -0.046 0.23376741 0
4.9010005 -0.054118942 0.23350224 0
4.9630003 0.53838515 0.22292292 0
4.9610004 0.52990186 0.22300228 0
4.9620004 0.52179915 0.2229626 0
4.9640002 0.51381552 0.22288324 0
4.9700003 0.50630802 0.22264515 0
4.6980004 0.42691883 0.23343912 0
4.6910005 0.41840848 0.23371691 0
4.6880002 0.41034904 0.23383597 0
4.6870003 0.40250969 0.23387565 0
4.6890001 0.3949824 0.23379628 0
4.6930003 0.38764995 0.23363754 0
4.6990004 0.38050142 0.23339944 0
5.0870004 0.26681462 0.21800213 0
5.0840001 0.25816533 0.21812119 0
5.0850005 0.24977946 0.21808149 0
5.0870004 0.24145126 0.21800213 0
5.0930004 0.23335397 0.21776402 0
4.8210001 0.1533659 0.22855802 0
4.8140001 0.14508823 0.22883581 0
4.8110003 0.13700175 0.22895485 0
4.8110003 0.12904516 0.22895485 0
4.8120003 0.12112643 0.22891517 0
4.8170004 0.11334841 0.22871676 0
4.8250003 0.10565518 0.22839928 0
5.1150002 0.098584235 0.21689099 0
5.1140003 0.090050429 0.21693066 0
5.1130004 0.08152023 0.21697035 0
5.1150002 0.073069379 0.21689099 0
5.1180005 0.064634785 0.21677193 0
5.1220002 0.056210991 0.2166132 0
5.1300001 0.047852132 0.21629575 0
4.9020004 0.018965956 0.22534363 0
4.8950005 0.010756828 0.22562142 0
4.8900003 0.0025945976 0.22581984 0
4.8870001 -0.0055315644 0.2259389 0
4.8860002 -0.013632465 0.22597858 0
4.8860002 -0.021724349 0.22597858 0
4.8870001 -0.029812627 0.2259389 0
4.8890004 -0.037902705 0.22585951 0
4.8940005 -0.046 0.22566108 0
4.9010005 -0.054118942 0.22538331 0
4.9630003 0.53838515 0.21469215 0
4.9610004 0.52990186 0.21477512 0
4.9620004 0.52179915 0.21473362 0
4.9640002 0.51381552 0.21465066 0
4.9700003 0.50630802 0.21440174 0
4.6980004 0.42691883 0.22568636 0
4.6910005 0.41840848 0.22597677 0
4.6880002 0.41034904 0.22610123 0
4.6870003 0.40250969 0.22614272 0
4.6890001 0.3949824 0.22605975 0
4.6930003 0.38764995 0.2258938 0
4.6990004 0.38050142 0.22564486 0
5.0870004 0.26681462 0.20954767 0
5.0840001 0.25816533 0.20967215 0
5.0850005 0.24977946 0.20963064 0
5.0870004 0.24145126 0.20954767 0
5.0930004 0.23335397 0.20929874 0
4.8210001 0.1533659 0.22058339 0
4.8140001 0.14508823 0.2208738 0
4.8110003 0.13700175 0.22099826 0
4.8110003 0.12904516 0.22099826 0
4.8120003 0.12112643 0.22095677 0
4.8170004 0.11334841 0.22074933 0
4.8250003 0.10565518 0.22041744 0
5.1150002 0.098584235 0.20838603 0
5.1140003 0.090050429 0.20842752 0
5.1130004 0.08152023 0.208469 0
5.1150002 0.073069379 0.20838603 0
5.1180005 0.064634785 0.20826156 0
5.1220002 0.056210991 0.20809563 0
5.1300001 0.047852132 0.20776373 0
4.9020004 0.018965956 0.21722288 0
4.8950005 0.010756828 0.21751329 0
4.8900003 0.0025945976 0.21772073 0
4.8870001 -0.0055315644 0.21784522 0
4.8860002 -0.013632465 0.2178867 0
4.8860002 -0.021724349 0.2178867 0
4.8870001 -0.029812627 0.21784522 0
4.8890004 -0.037902705 0.21776222 0
4.8940005 -0.046 0.21755478 0
4.9010005 -0.054118942 0.21726437 0
4.9630003 0.53838515 0.20646136 0
4.9610004 0.52990186 0.20654795 0
4.9620004 0.52179915 0.20650466 0
4.9640002 0.51381552 0.20641808 0
4.9700003 0.50630802 0.20615833 0
4.6980004 0.42691883 0.21793358 0
4.6910005 0.41840848 0.21823663 0
4.6880002 0.41034904 0.2183665 0
4.6870003 0.40250969 0.21840981 0
4.6890001 0.3949824 0.21832322 0
4.6930003 0.38764995 0.21815005 0
4.6990004 0.38050142 0.21789029 0
5.0870004 0.26681462 0.20109323 0
5.0840001 0.25816533 0.20122312 0
5.0850005 0.24977946 0.2011798 0
5.0870004 0.24145126 0.20109323 0
5.0930004 0.23335397 0.20083348 0
4.8210001 0.1533659 0.21260875 0
4.8140001 0.14508823 0.21291178 0
4.8110003 0.13700175 0.21304166 0
4.8110003 0.12904516 0.21304166 0
4.8120003 0.12112643 0.21299838 0
4.8170004 0.11334841 0.21278191 0
4.8250003 0.10565518 0.21243557 0
5.1150002 0.098584235 0.19988108 0
5.1140003 0.090050429 0.19992438 0
5.1130004 0.08152023 0.19996765 0
5.1150002 0.073069379 0.19988108 0
5.1180005 0.064634785 0.1997512 0
5.1220002 0.056210991 0.19957803 0
5.1300001 0.047852132 0.1992317 0
4.9020004 0.018965956 0.20910214 0
4.8950005 0.010756828 0.20940518 0
4.8900003 0.0025945976 0.20962162 0
4.8870001 -0.0055315644 0.20975152 0
4.8860002 -0.013632465 0.2097948 0
4.8860002 -0.021724349 0.2097948 0
4.8870001 -0.029812627 0.20975152 0
4.8890004 -0.037902705 0.20966493 0
4.8940005 -0.046 0.20944846 0
4.9010005 -0.054118942 0.20914543 0
4.9630003 0.53838515 0.19823059 0
4.9610004 0.52990186 0.19832078 0
4.9620004 0.52179915 0.19827569 0
4.9640002 0.51381552 0.19818549 0
4.9700003 0.50630802 0.19791491 0
4.6980004 0.42691883 0.2101808 0
4.6910005 0.41840848 0.21049649 0
4.6880002 0.41034904 0.21063177 0
4.6870003 0.40250969 0.21067686 0
4.6890001 0.3949824 0.21058668 0
4.6930003 0.38764995 0.2104063 0
4.6990004 0.38050142 0.21013573 0
5.0870004 0.26681462 0.19263878 0
5.0840001 0.25816533 0.19277409 0
5.0850005 0.24977946 0.19272897 0
5.0870004 0.24145126 0.19263878 0
5.0930004 0.23335397 0.19236821 0
4.8210001 0.1533659 0.20463412 0
4.8140001 0.14508823 0.20494978 0
4.8110003 0.13700175 0.20508505 0
4.8110003 0.12904516 0.20508505 0
4.8120003 0.12112643 0.20503996 0
4.8170004 0.11334841 0.20481448 0
4.8250003 0.10565518 0.20445372 0
5.1150002 0.098584235 0.19137613 0
5.1140003 0.090050429 0.19142121 0
5.1130004 0.08152023 0.19146632 0
5.1150002 0.073069379 0.19137613 0
5.1180005 0.064634785 0.19124082 0
5.1220002 0.056210991 0.19106045 0
5.1300001 0.047852132 0.1906997 0
4.9020004 0.018965956 0.20098139 0
4.8950005 0.010756828 0.20129706 0
4.8900003 0.0025945976 0.20152253 0
4.8870001 -0.0055315644 0.20165783 0
4.8860002 -0.013632465 0.20170292 0
4.8860002 -0.021724349 0.20170292 0
4.8870001 -0.029812627 0.20165783 0
4.8890004 -0.037902705 0.20156763 0
4.8940005 -0.046 0.20134215 0
4.9010005 -0.054118942 0.20102648 0
4.9630003 0.53838515 0.1899998 0
4.9610004 0.52990186 0.19009361 0
4.9620004 0.52179915 0.19004671 0
4.9640002 0.51381552 0.18995292 0
4.9700003 0.50630802 0.18967152 0
4.6980004 0.42691883 0.20242804 0
4.6910005 0.41840848 0.20275633 0
4.6880002 0.41034904 0.20289704 0
4.6870003 0.40250969 0.20294394 0
4.6890001 0.3949824 0.20285015 0
4.6930003 0.38764995 0.20266254 0
4.6990004 0.38050142 0.20238115 0
5.0870004 0.26681462 0.18418433 0
5.0840001 0.25816533 0.18432505 0
5.0850005 0.24977946 0.18427812 0
5.0870004 0.24145126 0.18418433 0
5.0930004 0.23335397 0.18390295 0
4.8210001 0.1533659 0.19665949 0
4.8140001 0.14508823 0.19698778 0
4.8110003 0.13700175 0.19712846 0
4.8110003 0.12904516 0.19712846 0
4.8120003 0.12112643 0.19708157 0
4.8170004 0.11334841 0.19684707 0
4.8250003 0.10565518 0.19647188 0
5.1150002 0.098584235 0.18287116 0
5.1140003 0.090050429 0.18291807 0
5.1130004 0.08152023 0.18296495 0
5.1150002 0.073069379 0.18287116 0
5.1180005 0.064634785 0.18273045 0
5.1220002 0.056210991 0.18254288 0
5.1300001 0.047852132 0.18216768 0
4.9020004 0.018965956 0.19286065 0
4.8950005 0.010756828 0.19318894 0
4.8900003 0.0025945976 0.19342344 0
4.8870001 -0.0055315644 0.19356415 0
4.8860002 -0.013632465 0.19361104 0
4.8860002 -0.021724349 0.19361104 0
4.8870001 -0.029812627 0.19356415 0
4.8890004 -0.037902705 0.19347034 0
4.8940005 -0.046 0.19323584 0
4.9010005 -0.054118942 0.19290754 0
4.9630003 0.53838515 0.18176904 0
4.9610004 0.52990186 0.18186644 0
4.9620004 0.52179915 0.18181773 0
4.9640002 0.51381552 0.18172033 0
4.9700003 0.50630802 0.18142812 0
4.6980004 0.42691883 0.19467528 0
4.6910005 0.41840848 0.19501619 0
4.6880002 0.41034904 0.19516233 0
4.6870003 0.40250969 0.19521101 0
4.6890001 0.3949824 0.19511361 0
4.6930003 0.38764995 0.1949188 0
4.6990004 0.38050142 0.19462658 0
5.0870004 0.26681462 0.17572987 0
5.0840001 0.25816533 0.17587601 0
5.0850005 0.24977946 0.17582728 0
5.0870004 0.24145126 0.17572987 0
5.0930004 0.23335397 0.17543767 0
4.8210001 0.1533659 0.18868485 0
4.8140001 0.14508823 0.18902576 0
4.8110003 0.13700175 0.18917187 0
4.8110003 0.12904516 0.18917187 0
4.8120003 0.12112643 0.18912315 0
4.8170004 0.11334841 0.18887964 0
4.8250003 0.10565518 0.18849002 0
5.1150002 0.098584235 0.17436621 0
5.1140003 0.090050429 0.1744149 0
5.1130004 0.08152023 0.17446361 0
5.1150002 0.073069379 0.17436621 0
5.1180005 0.064634785 0.1742201 0
5.1220002 0.056210991 0.1740253 0
5.1300001 0.047852132 0.17363568 0
4.9020004 0.018965956 0.1847399 0
4.8950005 0.010756828 0.18508081 0
4.8900003 0.0025945976 0.18532434 0
4.8870001 -0.0055315644 0.18547046 0
4.8860002 -0.013632465 0.18551916 0
4.8860002 -0.021724349 0.18551916 0
4.8870001 -0.029812627 0.18547046 0
4.8890004 -0.037902705 0.18537304 0
4.8940005 -0.046 0.18512952 0
4.9010005 -0.054118942 0.1847886 0
4.9630003 0.53838515 0.17353825 0
4.9610004 0.52990186 0.17363927 0
4.9620004 0.52179915 0.17358877 0
4.9640002 0.51381552 0.17348775 0
4.9700003 0.50630802 0.17318471 0
4.6980004 0.42691883 0.18692251 0
4.6910005 0.41840848 0.18727605 0
4.6880002 0.41034904 0.18742758 0
4.6870003 0.40250969 0.1874781 0
4.6890001 0.3949824 0.18737708 0
4.6930003 0.38764995 0.18717504 0
4.6990004 0.38050142 0.18687201 0
5.0870004 0.26681462 0.16727543 0
5.0840001 0.25816533 0.16742696 0
5.0850005 0.24977946 0.16737644 0
5.0870004 0.24145126 0.16727543 0
5.0930004 0.23335397 0.1669724 0
4.8210001 0.1533659 0.18071021 0
4.8140001 0.14508823 0.18106376 0
4.8110003 0.13700175 0.18121526 0
4.8110003 0.12904516 0.18121526 0
4.8120003 0.12112643 0.18116477 0
4.8170004 0.11334841 0.18091223 0
4.8250003 0.10565518 0.18050817 0
5.1150002 0.098584235 0.16586125 0
5.1140003 0.090050429 0.16591176 0
5.1130004 0.08152023 0.16596226 0
5.1150002 0.073069379 0.16586125 0
5.1180005 0.064634785 0.16570973 0
5.1220002 0.056210991 0.1655077 0
5.1300001 0.047852132 0.16510366 0
4.9020004 0.018965956 0.17661916 0
4.8950005 0.010756828 0.1769727 0
4.8900003 0.0025945976 0.17722523 0
4.8870001 -0.0055315644 0.17737678 0
4.8860002 -0.013632465 0.17742728 0
4.8860002 -0.021724349 0.17742728 0
4.8870001 -0.029812627 0.17737678 0
4.8890004 -0.037902705 0.17727575 0
4.8940005 -0.046 0.1770232 0
4.9010005 -0.054118942 0.17666966 0
4.9630003 0.53838515 0.16530748 0
4.9610004 0.52990186 0.1654121 0
4.9620004 0.52179915 0.1653598 0
4.9640002 0.51381552 0.16525517 0
4.9700003 0.50630802 0.16494133 0
4.6980004 0.42691883 0.17916973 0
4.6910005 0.41840848 0.17953591 0
4.6880002 0.41034904 0.17969285 0
4.6870003 0.40250969 0.17974517 0
4.6890001 0.3949824 0.17964055 0
4.6930003 0.38764995 0.17943129 0
4.6990004 0.38050142 0.17911744 0
5.0870004 0.26681462 0.15882099 0
5.0840001 0.25816533 0.15897794 0
5.0850005 0.24977946 0.15892561 0
5.0870004 0.24145126 0.15882099 0
5.0930004 0.23335397 0.15850711 0
4.8210001 0.1533659 0.17273557 0
4.8140001 0.14508823 0.17310175 0
4.8110003 0.13700175 0.17325866 0
4.8110003 0.12904516 0.17325866 0
4.8120003 0.12112643 0.17320636 0
4.8170004 0.11334841 0.17294481 0
4.8250003 0.10565518 0.17252631 0
5.1150002 0.098584235 0.15735631 0
5.1140003 0.090050429 0.1574086 0
5.1130004 0.08152023 0.15746093 0
5.1150002 0.073069379 0.15735631 0
5.1180005 0.064634785 0.15719937 0
5.1220002 0.056210991 0.15699013 0
5.1300001 0.047852132 0.15657166 0
4.9020004 0.018965956 0.16849841 0
4.8950005 0.010756828 0.16886458 0
4.8900003 0.0025945976 0.16912614 0
4.8870001 -0.0055315644 0.16928308 0
4.8860002 -0.013632465 0.16933541 0
4.8860002 -0.021724349 0.16933541 0
4.8870001 -0.029812627 0.16928308 0
4.8890004 -0.037902705 0.16917844 0
4.8940005 -0.046 0.16891688 0
4.9010005 -0.054118942 0.16855073 0
4.9630003 0.53838515 0.15707672 0
4.9610004 0.52990186 0.15718491 0
4.9620004 0.52179915 0.15713081 0
4.9640002 0.51381552 0.15702261 0
4.9700003 0.50630802 0.1566979 0
4.6980004 0.42691883 0.17141698 0
4.6910005 0.41840848 0.17179577 0
4.6880002 0.41034904 0.17195813 0
4.6870003 0.40250969 0.17201225 0
4.6890001 0.3949824 0.17190403 0
4.6930003 0.38764995 0.17168754 0
4.6990004 0.38050142 0.17136288 0
5.0870004 0.26681462 0.15036651 0
5.0840001 0.25816533 0.15052888 0
5.0850005 0.24977946 0.15047476 0
5.0870004 0.24145126 0.15036651 0
5.0930004 0.23335397 0.15004185 0
4.8210001 0.1533659 0.16476093 0
4.8140001 0.14508823 0.16513975 0
4.8110003 0.13700175 0.16530208 0
4.8110003 0.12904516 0.16530208 0
4.8120003 0.12112643 0.16524796 0
4.8170004 0.11334841 0.16497737 0
4.8250003 0.10565518 0.16454448 0
5.1150002 0.098584235 0.14885134 0
5.1140003 0.090050429 0.14890546 0
5.1130004 0.08152023 0.14895955 0
5.1150002 0.073069379 0.14885134 0
5.1180005 0.064634785 0.148689 0
5.1220002 0.056210991 0.14847255 0
5.1300001 0.047852132 0.14803964 0
4.9020004 0.018965956 0.16037767 0
4.8950005 0.010756828 0.16075647 0
4.8900003 0.0025945976 0.16102703 0
4.8870001 -0.0055315644 0.16118939 0
4.8860002 -0.013632465 0.16124351 0
4.8860002 -0.021724349 0.16124351 0
4.8870001 -0.029812627 0.16118939 0
4.8890004 -0.037902705 0.16108115 0
4.8940005 -0.046 0.16081059 0
4.9010005 -0.054118942 0.16043177 0
4.9630003 0.53838515 0.14884594 0
4.9610004 0.52990186 0.14895776 0
4.9620004 0.52179915 0.14890185 0
4.9640002 0.51381552 0.14879 0
4.9700003 0.50630802 0.14845452 0
4.6980004 0.42691883 0.16366421 0
4.6910005 0.41840848 0.16405563 0
4.6880002 0.41034904 0.16422339 0
4.6870003 0.40250969 0.16427931 0
4.6890001 0.3949824 0.16416749 0
4.6930003 0.38764995 0.1639438 0
4.6990004 0.38050142 0.16360828 0
5.0870004 0.26681462 0.14191207 0
5.0840001 0.25816533 0.14207986 0
5.0850005 0.24977946 0.14202392 0
5.0870004 0.24145126 0.14191207 0
5.0930004 0.23335397 0.14157656 0
4.8210001 0.1533659 0.15678631 0
4.8140001 0.14508823 0.15717773 0
4.8110003 0.13700175 0.15734546 0
4.8110003 0.12904516 0.15734546 0
4.8120003 0.12112643 0.15728956 0
4.8170004 0.11334841 0.15700997 0
4.8250003 0.10565518 0.15656263 0
5.1150002 0.098584235 0.14034638 0
5.1140003 0.090050429 0.14040232 0
5.1130004 0.08152023 0.1404582 0
5.1150002 0.073069379 0.14034638 0
5.1180005 0.064634785 0.14017862 0
5.1220002 0.056210991 0.13995495 0
5.1300001 0.047852132 0.13950762 0
4.9020004 0.018965956 0.15225691 0
4.8950005 0.010756828 0.15264833 0
4.8900003 0.0025945976 0.15292796 0
4.8870001 -0.0055315644 0.15309572 0
4.8860002 -0.013632465 0.1531516 0
4.8860002 -0.021724349 0.1531516 0
4.8870001 -0.029812627 0.15309572 0
4.8890004 -0.037902705 0.15298384 0
4.8940005 -0.046 0.15270427 0
4.9010005 -0.054118942 0.15231284 0
4.9630003 0.53838515 0.14061517 0
4.9610004 0.52990186 0.14073059 0
4.9620004 0.52179915 0.14067286 0
4.9640002 0.51381552 0.14055744 0
4.9700003 0.50630802 0.14021111 0
4.6980004 0.42691883 0.15591143 0
4.6910005 0.41840848 0.15631549 0
4.6880002 0.41034904 0.15648867 0
4.6870003 0.40250969 0.15654638 0
4.6890001 0.3949824 0.15643094 0
4.6930003 0.38764995 0.15620005 0
4.6990004 0.38050142 0.15585372 0
5.0870004 0.26681462 0.13345763 0
5.0840001 0.25816533 0.13363081 0
5.0850005 0.24977946 0.13357309 0
5.0870004 0.24145126 0.13345763 0
5.0930004 0.23335397 0.1331113 0
4.8210001 0.1533659 0.14881167 0
4.8140001 0.14508823 0.14921573 0
4.8110003 0.13700175 0.14938888 0
4.8110003 0.12904516 0.14938888 0
4.8120003 0.12112643 0.14933115 0
4.8170004 0.11334841 0.14904255 0
4.8250003 0.10565518 0.14858076 0
5.1150002 0.098584235 0.13184142 0
5.1140003 0.090050429 0.13189915 0
5.1130004 0.08152023 0.13195688 0
5.1150002 0.073069379 0.13184142 0
5.1180005 0.064634785 0.13166824 0
5.1220002 0.056210991 0.13143739 0
5.1300001 0.047852132 0.1309756 0
4.9020004 0.018965956 0.14413619 0
4.8950005 0.010756828 0.14454022 0
4.8900003 0.0025945976 0.14482886 0
4.8870001 -0.0055315644 0.14500204 0
4.8860002 -0.013632465 0.14505973 0
4.8860002 -0.021724349 0.14505973 0
4.8870001 -0.029812627 0.14500204 0
4.8890004 -0.037902705 0.14488655 0
4.8940005 -0.046 0.14459795 0
4.9010005 -0.054118942 0.14419389 0
4.9630003 0.53838515 0.13238436 0
4.9610004 0.52990186 0.13250342 0
