# .PCD v0.7 - Point Cloud Data file format
VERSION 0.7
FIELDS x y z intensity
SIZE 4 4 4 4
TYPE F F F F
COUNT 1 1 1 1
WIDTH 1487
HEIGHT 1
VIEWPOINT 0 0 0 1 0 0 0
POINTS 1487
DATA ascii
4.131 -1.8765622 1.2856311 0
4.1259999 -1.88083 1.2844496 0
4.1210003 -1.88508 1.2832681 0
4.1160002 -1.8893116 1.2820866 0
4.1100001 -1.8930275 1.2806689 0
4.105 -1.8972213 1.2794874 0
4.1000004 -1.9013972 1.2783059 0
4.0950003 -1.9055549 1.2771244 0
4.0900002 -1.9096947 1.2759428 0
4.085 -1.9138165 1.2747613 0
4.079 -1.9174113 1.2733436 0
4.0740004 -1.9214952 1.2721621 0
4.0690002 -1.9255611 1.2709806 0
4.0640001 -1.9296088 1.2697991 0
4.059 -1.9336383 1.2686176 0
4.0540004 -1.9376502 1.2674361 0
4.0490003 -1.9416438 1.2662545 0
4.0440001 -1.9456193 1.2650732 0
4.039 -1.9495769 1.2638916 0
4.0339999 -1.9535164 1.2627101 0
4.0290003 -1.957438 1.2615286 0
4.0240002 -1.9613413 1.2603471 0
4.0190001 -1.9652268 1.2591656 0
4.0139999 -1.969094 1.2579842 0
4.0090003 -1.9729434 1.2568027 0
4.0040002 -1.9767747 1.2556212 0
3.9990003 -1.980588 1.2544397 0
3.9950004 -1.9849224 1.2534945 0
3.9900002 -1.9887013 1.252313 0
3.9850004 -1.9924625 1.2511315 0
3.9800003 -1.9962053 1.2499499 0
3.9750004 -1.9999303 1.2487686 0
3.9700003 -2.0036368 1.247587 0
3.9650002 -2.0073259 1.2464055 0
3.9610002 -2.0115483 1.2454603 0
3.9560003 -2.015203 1.2442788 0
3.9510002 -2.0188394 1.2430973 0
3.9460003 -2.0224581 1.2419158 0
3.9420002 -2.0266173 1.2409706 0
3.9370003 -2.0302017 1.2397891 0
3.9320002 -2.0337677 1.2386076 0
3.9270003 -2.0373158 1.2374262 0
3.9230003 -2.0414124 1.236481 0
3.9180002 -2.0449262 1.2352995 0
3.9130003 -2.0484219 1.234118 0
3.9090002 -2.0524714 1.2331728 0
3.9040003 -2.055933 1.2319913 0
3.8990002 -2.0593765 1.2308098 0
4.2620001 -1.7736442 1.30962 0
4.2280002 -1.7653394 1.3016472 0
4.2260003 -1.7713426 1.3011782 0
4.224 -1.7773384 1.3007091 0
4.2210002 -1.7828724 1.3000057 0
4.2190003 -1.7888521 1.2995367 0
4.217 -1.7948246 1.2990677 0
4.2140002 -1.8003297 1.2983642 0
4.2120004 -1.806286 1.2978952 0
4.21 -1.8122349 1.2974262 0
4.2060003 -1.817246 1.2964883 0
4.2010002 -1.8217752 1.2953157 0
4.1960001 -1.8262867 1.2941433 0
4.1900001 -1.8303092 1.2927363 0
4.1849999 -1.8347825 1.2915639 0
4.1790004 -1.8387636 1.290157 0
4.1740003 -1.8431991 1.2889844 0
4.1680002 -1.8471385 1.2875774 0
4.1630001 -1.8515363 1.286405 0
4.158 -1.8559159 1.2852324 0
4.152 -1.859794 1.2838255 0
4.1470003 -1.8641359 1.282653 0
4.1420002 -1.8684596 1.2814806 0
4.1370001 -1.8727653 1.2803081 0
4.131 -1.8765622 1.2789011 0
4.1259999 -1.88083 1.2777286 0
4.1210003 -1.88508 1.2765561 0
4.1160002 -1.8893116 1.2753837 0
4.1100001 -1.8930275 1.2739768 0
4.105 -1.8972213 1.2728043 0
4.1000004 -1.9013972 1.2716318 0
4.0950003 -1.9055549 1.2704593 0
4.0900002 -1.9096947 1.2692868 0
4.085 -1.9138165 1.2681143 0
4.079 -1.9174113 1.2667074 0
4.0740004 -1.9214952 1.2655349 0
4.0690002 -1.9255611 1.2643625 0
4.0640001 -1.9296088 1.26319 0
4.059 -1.9336383 1.2620175 0
4.0540004 -1.9376502 1.2608451 0
4.0490003 -1.9416438 1.2596725 0
4.0440001 -1.9456193 1.2585001 0
4.039 -1.9495769 1.2573276 0
4.0339999 -1.9535164 1.2561551 0
4.0290003 -1.957438 1.2549826 0
4.0240002 -1.9613413 1.25381 0
4.0190001 -1.9652268 1.2526377 0
4.0139999 -1.969094 1.2514652 0
4.0090003 -1.9729434 1.2502927 0
4.0040002 -1.9767747 1.2491202 0
3.9990003 -1.980588 1.2479478 0
3.9950004 -1.9849224 1.2470099 0
3.9900002 -1.9887013 1.2458373 0
3.9850004 -1.9924625 1.2446649 0
3.9800003 -1.9962053 1.2434924 0
3.9750004 -1.9999303 1.2423199 0
3.9700003 -2.0036368 1.2411474 0
3.9650002 -2.0073259 1.239975 0
3.9610002 -2.0115483 1.2390369 0
3.9560003 -2.015203 1.2378645 0
3.9510002 -2.0188394 1.236692 0
3.9460003 -2.0224581 1.2355195 0
3.9420002 -2.0266173 1.2345816 0
3.9370003 -2.0302017 1.233409 0
3.9320002 -2.0337677 1.2322366 0
3.9270003 -2.0373158 1.2310641 0
3.9230003 -2.0414124 1.2301261 0
3.9180002 -2.0449262 1.2289537 0
3.9130003 -2.0484219 1.2277812 0
3.9090002 -2.0524714 1.2268432 0
3.9040003 -2.055933 1.2256707 0
3.8990002 -2.0593765 1.2244983 0
4.2280002 -1.7653394 1.2947421 0
4.2260003 -1.7713426 1.2942767 0
4.224 -1.7773384 1.2938114 0
4.2210002 -1.7828724 1.2931134 0
4.2190003 -1.7888521 1.292648 0
4.217 -1.7948246 1.2921826 0
4.2140002 -1.8003297 1.2914845 0
4.2120004 -1.806286 1.2910192 0
4.21 -1.8122349 1.2905537 0
4.2060003 -1.817246 1.289623 0
4.2010002 -1.8217752 1.2884594 0
4.1960001 -1.8262867 1.2872961 0
4.1900001 -1.8303092 1.2858999 0
4.1849999 -1.8347825 1.2847364 0
4.1790004 -1.8387636 1.2833403 0
4.1740003 -1.8431991 1.2821769 0
4.1680002 -1.8471385 1.2807807 0
4.1630001 -1.8515363 1.2796173 0
4.158 -1.8559159 1.2784537 0
4.152 -1.859794 1.2770576 0
4.1470003 -1.8641359 1.2758942 0
4.1420002 -1.8684596 1.2747307 0
4.1370001 -1.8727653 1.2735673 0
4.131 -1.8765622 1.2721711 0
4.1259999 -1.88083 1.2710077 0
4.1210003 -1.88508 1.2698442 0
4.1160002 -1.8893116 1.2686807 0
4.1100001 -1.8930275 1.2672846 0
4.105 -1.8972213 1.2661211 0
4.1000004 -1.9013972 1.2649578 0
4.0950003 -1.9055549 1.2637942 0
4.0900002 -1.9096947 1.2626307 0
4.085 -1.9138165 1.2614673 0
4.079 -1.9174113 1.2600712 0
4.0740004 -1.9214952 1.2589078 0
4.0690002 -1.9255611 1.2577443 0
4.0640001 -1.9296088 1.2565808 0
4.059 -1.9336383 1.2554173 0
4.0540004 -1.9376502 1.2542539 0
4.0490003 -1.9416438 1.2530904 0
4.0440001 -1.9456193 1.251927 0
4.039 -1.9495769 1.2507635 0
4.0339999 -1.9535164 1.2496001 0
4.0290003 -1.957438 1.2484366 0
4.0240002 -1.9613413 1.2472731 0
4.0190001 -1.9652268 1.2461097 0
4.0139999 -1.969094 1.2449462 0
4.0090003 -1.9729434 1.2437828 0
4.0040002 -1.9767747 1.2426193 0
3.9990003 -1.980588 1.2414559 0
3.9950004 -1.9849224 1.2405251 0
3.9900002 -1.9887013 1.2393616 0
3.9850004 -1.9924625 1.2381982 0
3.9800003 -1.9962053 1.2370347 0
3.9750004 -1.9999303 1.2358713 0
3.9700003 -2.0036368 1.2347078 0
3.9650002 -2.0073259 1.2335443 0
3.9610002 -2.0115483 1.2326136 0
3.9560003 -2.015203 1.2314502 0
3.9510002 -2.0188394 1.2302867 0
3.9460003 -2.0224581 1.2291232 0
3.9420002 -2.0266173 1.2281924 0
3.9370003 -2.0302017 1.227029 0
3.9320002 -2.0337677 1.2258656 0
3.9270003 -2.0373158 1.2247021 0
3.9230003 -2.0414124 1.2237713 0
3.9180002 -2.0449262 1.2226079 0
3.9130003 -2.0484219 1.2214445 0
3.9090002 -2.0524714 1.2205136 0
3.9040003 -2.055933 1.2193502 0
3.8990002 -2.0593765 1.2181867 0
4.2280002 -1.7653394 1.2878371 0
4.2260003 -1.7713426 1.2873755 0
4.224 -1.7773384 1.2869136 0
4.2210002 -1.7828724 1.2862209 0
4.2190003 -1.7888521 1.2857592 0
4.217 -1.7948246 1.2852974 0
4.2140002 -1.8003297 1.2846048 0
4.2120004 -1.806286 1.284143 0
4.21 -1.8122349 1.2836812 0
4.2060003 -1.817246 1.2827576 0
4.2010002 -1.8217752 1.2816032 0
4.1960001 -1.8262867 1.2804488 0
4.1900001 -1.8303092 1.2790635 0
4.1849999 -1.8347825 1.277909 0
4.1790004 -1.8387636 1.2765237 0
4.1740003 -1.8431991 1.2753693 0
4.1680002 -1.8471385 1.273984 0
4.1630001 -1.8515363 1.2728295 0
4.158 -1.8559159 1.2716751 0
4.152 -1.859794 1.2702898 0
4.1470003 -1.8641359 1.2691354 0
4.1420002 -1.8684596 1.2679808 0
4.1370001 -1.8727653 1.2668264 0
4.131 -1.8765622 1.2654411 0
4.1259999 -1.88083 1.2642866 0
4.1210003 -1.88508 1.2631322 0
4.1160002 -1.8893116 1.2619778 0
4.1100001 -1.8930275 1.2605925 0
4.105 -1.8972213 1.259438 0
4.1000004 -1.9013972 1.2582836 0
4.0950003 -1.9055549 1.2571292 0
4.0900002 -1.9096947 1.2559747 0
4.085 -1.9138165 1.2548202 0
4.079 -1.9174113 1.2534349 0
4.0740004 -1.9214952 1.2522806 0
4.0690002 -1.9255611 1.2511261 0
4.0640001 -1.9296088 1.2499716 0
4.059 -1.9336383 1.2488172 0
4.0540004 -1.9376502 1.2476628 0
4.0490003 -1.9416438 1.2465084 0
4.0440001 -1.9456193 1.2453539 0
4.039 -1.9495769 1.2441995 0
4.0339999 -1.9535164 1.243045 0
4.0290003 -1.957438 1.2418905 0
4.0240002 -1.9613413 1.2407361 0
4.0190001 -1.9652268 1.2395817 0
4.0139999 -1.969094 1.2384273 0
4.0090003 -1.9729434 1.2372729 0
4.0040002 -1.9767747 1.2361184 0
3.9990003 -1.980588 1.234964 0
3.9950004 -1.9849224 1.2340404 0
3.9900002 -1.9887013 1.232886 0
3.9850004 -1.9924625 1.2317315 0
3.9800003 -1.9962053 1.2305771 0
3.9750004 -1.9999303 1.2294227 0
3.9700003 -2.0036368 1.2282683 0
3.9650002 -2.0073259 1.2271137 0
3.9610002 -2.0115483 1.2261902 0
3.9560003 -2.015203 1.2250358 0
3.9510002 -2.0188394 1.2238814 0
3.9460003 -2.0224581 1.2227269 0
3.9420002 -2.0266173 1.2218033 0
3.9370003 -2.0302017 1.2206489 0
3.9320002 -2.0337677 1.2194945 0
3.9270003 -2.0373158 1.21834 0
3.9230003 -2.0414124 1.2174165 0
3.9180002 -2.0449262 1.2162621 0
3.9130003 -2.0484219 1.2151077 0
3.9090002 -2.0524714 1.214184 0
3.9040003 -2.055933 1.2130296 0
3.8990002 -2.0593765 1.2118752 0
4.2210002 -1.7828724 1.2793286 0
4.2190003 -1.7888521 1.2788705 0
4.217 -1.7948246 1.2784123 0
4.2140002 -1.8003297 1.277725 0
4.2120004 -1.806286 1.2772669 0
4.21 -1.8122349 1.2768087 0
4.2060003 -1.817246 1.2758924 0
4.2010002 -1.8217752 1.2747469 0
4.1960001 -1.8262867 1.2736015 0
4.1900001 -1.8303092 1.272227 0
4.1849999 -1.8347825 1.2710816 0
4.1790004 -1.8387636 1.2697072 0
4.1740003 -1.8431991 1.2685617 0
4.1680002 -1.8471385 1.2671871 0
4.1630001 -1.8515363 1.2660418 0
4.158 -1.8559159 1.2648964 0
4.152 -1.859794 1.2635218 0
4.1470003 -1.8641359 1.2623764 0
4.1420002 -1.8684596 1.2612309 0
4.1370001 -1.8727653 1.2600856 0
4.131 -1.8765622 1.2587111 0
4.1259999 -1.88083 1.2575656 0
4.1210003 -1.88508 1.2564203 0
4.1160002 -1.8893116 1.2552748 0
4.1100001 -1.8930275 1.2539004 0
4.105 -1.8972213 1.2527549 0
4.1000004 -1.9013972 1.2516096 0
4.0950003 -1.9055549 1.2504641 0
4.0900002 -1.9096947 1.2493186 0
4.085 -1.9138165 1.2481732 0
4.079 -1.9174113 1.2467988 0
4.0740004 -1.9214952 1.2456533 0
4.0690002 -1.9255611 1.2445079 0
4.0640001 -1.9296088 1.2433625 0
4.059 -1.9336383 1.2422171 0
4.0540004 -1.9376502 1.2410717 0
4.0490003 -1.9416438 1.2399262 0
4.0440001 -1.9456193 1.2387809 0
4.039 -1.9495769 1.2376354 0
4.0339999 -1.9535164 1.23649 0
4.0290003 -1.957438 1.2353445 0
4.0240002 -1.9613413 1.2341992 0
4.0190001 -1.9652268 1.2330538 0
4.0139999 -1.969094 1.2319083 0
4.0090003 -1.9729434 1.2307628 0
4.0040002 -1.9767747 1.2296175 0
3.9990003 -1.980588 1.2284721 0
3.9950004 -1.9849224 1.2275558 0
3.9900002 -1.9887013 1.2264103 0
3.9850004 -1.9924625 1.2252649 0
3.9800003 -1.9962053 1.2241195 0
3.9750004 -1.9999303 1.2229741 0
3.9700003 -2.0036368 1.2218286 0
3.9650002 -2.0073259 1.2206832 0
3.9610002 -2.0115483 1.2197669 0
3.9560003 -2.015203 1.2186215 0
3.9510002 -2.0188394 1.217476 0
3.9460003 -2.0224581 1.2163306 0
3.9420002 -2.0266173 1.2154143 0
3.9370003 -2.0302017 1.2142689 0
3.9320002 -2.0337677 1.2131234 0
3.9270003 -2.0373158 1.2119781 0
3.9230003 -2.0414124 1.2110617 0
3.9180002 -2.0449262 1.2099162 0
3.9130003 -2.0484219 1.2087709 0
3.9090002 -2.0524714 1.2078545 0
3.9040003 -2.055933 1.2067091 0
3.8990002 -2.0593765 1.2055637 0
4.217 -1.7948246 1.2715272 0
4.2140002 -1.8003297 1.2708453 0
4.2120004 -1.806286 1.2703907 0
4.21 -1.8122349 1.2699362 0
4.2060003 -1.817246 1.2690271 0
4.2010002 -1.8217752 1.2678907 0
4.1960001 -1.8262867 1.2667543 0
4.1900001 -1.8303092 1.2653906 0
4.1849999 -1.8347825 1.2642542 0
4.1790004 -1.8387636 1.2628906 0
4.1740003 -1.8431991 1.2617542 0
4.1680002 -1.8471385 1.2603904 0
4.1630001 -1.8515363 1.2592541 0
4.158 -1.8559159 1.2581177 0
4.152 -1.859794 1.2567539 0
4.1470003 -1.8641359 1.2556176 0
4.1420002 -1.8684596 1.2544811 0
4.1370001 -1.8727653 1.2533448 0
4.131 -1.8765622 1.251981 0
4.1259999 -1.88083 1.2508447 0
4.1210003 -1.88508 1.2497083 0
4.1160002 -1.8893116 1.2485719 0
4.1100001 -1.8930275 1.2472082 0
4.105 -1.8972213 1.2460718 0
4.1000004 -1.9013972 1.2449354 0
4.0950003 -1.9055549 1.243799 0
4.0900002 -1.9096947 1.2426625 0
4.085 -1.9138165 1.2415262 0
4.079 -1.9174113 1.2401625 0
4.0740004 -1.9214952 1.2390262 0
4.0690002 -1.9255611 1.2378898 0
4.0640001 -1.9296088 1.2367533 0
4.059 -1.9336383 1.2356169 0
4.0540004 -1.9376502 1.2344805 0
4.0490003 -1.9416438 1.2333441 0
4.0440001 -1.9456193 1.2322078 0
4.039 -1.9495769 1.2310714 0
4.0339999 -1.9535164 1.2299349 0
4.0290003 -1.957438 1.2287985 0
4.0240002 -1.9613413 1.2276622 0
4.0190001 -1.9652268 1.2265258 0
4.0139999 -1.969094 1.2253894 0
4.0090003 -1.9729434 1.2242529 0
4.0040002 -1.9767747 1.2231165 0
3.9990003 -1.980588 1.2219802 0
3.9950004 -1.9849224 1.221071 0
3.9900002 -1.9887013 1.2199346 0
3.9850004 -1.9924625 1.2187983 0
3.9800003 -1.9962053 1.2176619 0
3.9750004 -1.9999303 1.2165254 0
3.9700003 -2.0036368 1.215389 0
3.9650002 -2.0073259 1.2142526 0
3.9610002 -2.0115483 1.2133435 0
3.9560003 -2.015203 1.2122071 0
3.9510002 -2.0188394 1.2110708 0
3.9460003 -2.0224581 1.2099344 0
3.9420002 -2.0266173 1.2090251 0
3.9370003 -2.0302017 1.2078888 0
3.9320002 -2.0337677 1.2067524 0
3.9270003 -2.0373158 1.205616 0
3.9230003 -2.0414124 1.2047069 0
3.9180002 -2.0449262 1.2035705 0
3.9130003 -2.0484219 1.2024341 0
3.9090002 -2.0524714 1.201525 0
3.9040003 -2.055933 1.2003886 0
3.8990002 -2.0593765 1.1992521 0
4.2120004 -1.806286 1.2635146 0
4.21 -1.8122349 1.2630637 0
4.2060003 -1.817246 1.2621619 0
4.2010002 -1.8217752 1.2610344 0
4.1960001 -1.8262867 1.259907 0
4.1900001 -1.8303092 1.2585542 0
4.1849999 -1.8347825 1.2574267 0
4.1790004 -1.8387636 1.256074 0
4.1740003 -1.8431991 1.2549466 0
4.1680002 -1.8471385 1.2535937 0
4.1630001 -1.8515363 1.2524663 0
4.158 -1.8559159 1.251339 0
4.152 -1.859794 1.2499861 0
4.1470003 -1.8641359 1.2488587 0
4.1420002 -1.8684596 1.2477313 0
4.1370001 -1.8727653 1.246604 0
4.131 -1.8765622 1.2452511 0
4.1259999 -1.88083 1.2441237 0
4.1210003 -1.88508 1.2429963 0
4.1160002 -1.8893116 1.2418689 0
4.1100001 -1.8930275 1.2405161 0
4.105 -1.8972213 1.2393887 0
4.1000004 -1.9013972 1.2382613 0
4.0950003 -1.9055549 1.237134 0
4.0900002 -1.9096947 1.2360065 0
4.085 -1.9138165 1.2348793 0
4.079 -1.9174113 1.2335263 0
4.0740004 -1.9214952 1.232399 0
4.0690002 -1.9255611 1.2312716 0
4.0640001 -1.9296088 1.2301441 0
4.059 -1.9336383 1.2290168 0
4.0540004 -1.9376502 1.2278894 0
4.0490003 -1.9416438 1.2267621 0
4.0440001 -1.9456193 1.2256347 0
4.039 -1.9495769 1.2245073 0
4.0339999 -1.9535164 1.2233799 0
4.0290003 -1.957438 1.2222525 0
4.0240002 -1.9613413 1.2211251 0
4.0190001 -1.9652268 1.2199978 0
4.0139999 -1.969094 1.2188704 0
4.0090003 -1.9729434 1.217743 0
4.0040002 -1.9767747 1.2166156 0
3.9990003 -1.980588 1.2154883 0
3.9950004 -1.9849224 1.2145864 0
3.9900002 -1.9887013 1.213459 0
3.9850004 -1.9924625 1.2123317 0
3.9800003 -1.9962053 1.2112042 0
3.9750004 -1.9999303 1.2100768 0
3.9700003 -2.0036368 1.2089494 0
3.9650002 -2.0073259 1.207822 0
3.9610002 -2.0115483 1.2069201 0
3.9560003 -2.015203 1.2057928 0
3.9510002 -2.0188394 1.2046653 0
3.9460003 -2.0224581 1.2035381 0
3.9420002 -2.0266173 1.2026361 0
3.9370003 -2.0302017 1.2015088 0
3.9320002 -2.0337677 1.2003813 0
3.9270003 -2.0373158 1.199254 0
3.9230003 -2.0414124 1.1983521 0
3.9180002 -2.0449262 1.1972247 0
3.9130003 -2.0484219 1.1960974 0
3.9090002 -2.0524714 1.1951953 0
3.9040003 -2.055933 1.1940681 0
3.8990002 -2.0593765 1.1929406 0
4.21 -1.8122349 1.2561913 0
4.2060003 -1.817246 1.2552965 0
4.2010002 -1.8217752 1.254178 0
4.1960001 -1.8262867 1.2530597 0
4.1900001 -1.8303092 1.2517177 0
4.1849999 -1.8347825 1.2505993 0
4.1790004 -1.8387636 1.2492573 0
4.1740003 -1.8431991 1.2481389 0
4.1680002 -1.8471385 1.246797 0
4.1630001 -1.8515363 1.2456785 0
4.158 -1.8559159 1.2445602 0
4.152 -1.859794 1.2432182 0
4.1470003 -1.8641359 1.2420999 0
4.1420002 -1.8684596 1.2409815 0
4.1370001 -1.8727653 1.2398632 0
4.131 -1.8765622 1.2385211 0
4.1259999 -1.88083 1.2374027 0
4.1210003 -1.88508 1.2362844 0
4.1160002 -1.8893116 1.235166 0
4.1100001 -1.8930275 1.233824 0
4.105 -1.8972213 1.2327056 0
4.1000004 -1.9013972 1.2315873 0
4.0950003 -1.9055549 1.2304689 0
4.0900002 -1.9096947 1.2293504 0
4.085 -1.9138165 1.2282321 0
4.079 -1.9174113 1.2268901 0
4.0740004 -1.9214952 1.2257718 0
4.0690002 -1.9255611 1.2246534 0
4.0640001 -1.9296088 1.2235351 0
4.059 -1.9336383 1.2224166 0
4.0540004 -1.9376502 1.2212983 0
4.0490003 -1.9416438 1.2201799 0
4.0440001 -1.9456193 1.2190616 0
4.039 -1.9495769 1.2179432 0
4.0339999 -1.9535164 1.2168248 0
4.0290003 -1.957438 1.2157065 0
4.0240002 -1.9613413 1.2145882 0
4.0190001 -1.9652268 1.2134697 0
4.0139999 -1.969094 1.2123514 0
4.0090003 -1.9729434 1.211233 0
4.0040002 -1.9767747 1.2101146 0
3.9990003 -1.980588 1.2089963 0
3.9950004 -1.9849224 1.2081016 0
3.9900002 -1.9887013 1.2069833 0
3.9850004 -1.9924625 1.2058649 0
3.9800003 -1.9962053 1.2047466 0
3.9750004 -1.9999303 1.2036283 0
3.9700003 -2.0036368 1.2025099 0
3.9650002 -2.0073259 1.2013915 0
3.9610002 -2.0115483 1.2004968 0
3.9560003 -2.015203 1.1993785 0
3.9510002 -2.0188394 1.1982601 0
3.9460003 -2.0224581 1.1971418 0
3.9420002 -2.0266173 1.196247 0
3.9370003 -2.0302017 1.1951287 0
3.9320002 -2.0337677 1.1940103 0
3.9270003 -2.0373158 1.192892 0
3.9230003 -2.0414124 1.1919973 0
3.9180002 -2.0449262 1.1908789 0
3.9130003 -2.0484219 1.1897606 0
3.9090002 -2.0524714 1.1888658 0
3.9040003 -2.055933 1.1877475 0
3.8990002 -2.0593765 1.1866291 0
4.2060003 -1.817246 1.2484312 0
4.2010002 -1.8217752 1.2473218 0
4.1960001 -1.8262867 1.2462125 0
4.1900001 -1.8303092 1.2448813 0
4.1849999 -1.8347825 1.2437719 0
4.1790004 -1.8387636 1.2424408 0
4.1740003 -1.8431991 1.2413315 0
4.1680002 -1.8471385 1.2400002 0
4.1630001 -1.8515363 1.2388909 0
4.158 -1.8559159 1.2377815 0
4.152 -1.859794 1.2364503 0
4.1470003 -1.8641359 1.235341 0
4.1420002 -1.8684596 1.2342316 0
4.1370001 -1.8727653 1.2331223 0
4.131 -1.8765622 1.231791 0
4.1259999 -1.88083 1.2306817 0
4.1210003 -1.88508 1.2295724 0
4.1160002 -1.8893116 1.2284631 0
4.1100001 -1.8930275 1.2271318 0
4.105 -1.8972213 1.2260225 0
4.1000004 -1.9013972 1.2249131 0
4.0950003 -1.9055549 1.2238038 0
4.0900002 -1.9096947 1.2226944 0
4.085 -1.9138165 1.2215852 0
4.079 -1.9174113 1.2202539 0
4.0740004 -1.9214952 1.2191446 0
4.0690002 -1.9255611 1.2180352 0
4.0640001 -1.9296088 1.2169259 0
4.059 -1.9336383 1.2158165 0
4.0540004 -1.9376502 1.2147073 0
4.0490003 -1.9416438 1.2135979 0
4.0440001 -1.9456193 1.2124885 0
4.039 -1.9495769 1.2113792 0
4.0339999 -1.9535164 1.2102698 0
4.0290003 -1.957438 1.2091606 0
4.0240002 -1.9613413 1.2080511 0
4.0190001 -1.9652268 1.2069418 0
4.0139999 -1.969094 1.2058325 0
4.0090003 -1.9729434 1.2047231 0
4.0040002 -1.9767747 1.2036138 0
3.9990003 -1.980588 1.2025044 0
3.9950004 -1.9849224 1.201617 0
3.9900002 -1.9887013 1.2005076 0
3.9850004 -1.9924625 1.1993983 0
3.9800003 -1.9962053 1.1982889 0
3.9750004 -1.9999303 1.1971797 0
3.9700003 -2.0036368 1.1960702 0
3.9650002 -2.0073259 1.1949608 0
3.9610002 -2.0115483 1.1940734 0
3.9560003 -2.015203 1.1929641 0
3.9510002 -2.0188394 1.1918547 0
3.9460003 -2.0224581 1.1907454 0
3.9420002 -2.0266173 1.189858 0
3.9370003 -2.0302017 1.1887486 0
3.9320002 -2.0337677 1.1876392 0
3.9270003 -2.0373158 1.1865299 0
3.9230003 -2.0414124 1.1856425 0
3.9180002 -2.0449262 1.1845331 0
3.9130003 -2.0484219 1.1834238 0
3.9090002 -2.0524714 1.1825362 0
3.9040003 -2.055933 1.181427 0
3.8990002 -2.0593765 1.1803175 0
4.2010002 -1.8217752 1.2404655 0
4.1960001 -1.8262867 1.2393652 0
4.1900001 -1.8303092 1.2380449 0
4.1849999 -1.8347825 1.2369446 0
4.1790004 -1.8387636 1.2356242 0
4.1740003 -1.8431991 1.2345238 0
4.1680002 -1.8471385 1.2332034 0
4.1630001 -1.8515363 1.2321031 0
4.158 -1.8559159 1.2310028 0
4.152 -1.859794 1.2296824 0
4.1470003 -1.8641359 1.2285821 0
4.1420002 -1.8684596 1.2274817 0
4.1370001 -1.8727653 1.2263814 0
4.131 -1.8765622 1.2250611 0
4.1259999 -1.88083 1.2239608 0
4.1210003 -1.88508 1.2228605 0
4.1160002 -1.8893116 1.22176 0
4.1100001 -1.8930275 1.2204397 0
4.105 -1.8972213 1.2193394 0
4.1000004 -1.9013972 1.2182391 0
4.0950003 -1.9055549 1.2171386 0
4.0900002 -1.9096947 1.2160383 0
4.085 -1.9138165 1.214938 0
4.079 -1.9174113 1.2136177 0
4.0740004 -1.9214952 1.2125174 0
4.0690002 -1.9255611 1.2114171 0
4.0640001 -1.9296088 1.2103168 0
4.059 -1.9336383 1.2092164 0
4.0540004 -1.9376502 1.2081161 0
4.0490003 -1.9416438 1.2070158 0
4.0440001 -1.9456193 1.2059155 0
4.039 -1.9495769 1.204815 0
4.0339999 -1.9535164 1.2037148 0
4.0290003 -1.957438 1.2026145 0
4.0240002 -1.9613413 1.2015141 0
4.0190001 -1.9652268 1.2004138 0
4.0139999 -1.969094 1.1993135 0
4.0090003 -1.9729434 1.1982132 0
4.0040002 -1.9767747 1.1971128 0
3.9990003 -1.980588 1.1960125 0
3.9950004 -1.9849224 1.1951323 0
3.9900002 -1.9887013 1.194032 0
3.9850004 -1.9924625 1.1929317 0
3.9800003 -1.9962053 1.1918312 0
3.9750004 -1.9999303 1.1907309 0
3.9700003 -2.0036368 1.1896306 0
3.9650002 -2.0073259 1.1885303 0
3.9610002 -2.0115483 1.1876501 0
3.9560003 -2.015203 1.1865498 0
3.9510002 -2.0188394 1.1854494 0
3.9460003 -2.0224581 1.1843491 0
3.9420002 -2.0266173 1.1834688 0
3.9370003 -2.0302017 1.1823685 0
3.9320002 -2.0337677 1.1812682 0
3.9270003 -2.0373158 1.1801679 0
3.9230003 -2.0414124 1.1792877 0
3.9180002 -2.0449262 1.1781873 0
3.9130003 -2.0484219 1.1770869 0
3.9090002 -2.0524714 1.1762067 0
3.9040003 -2.055933 1.1751064 0
3.8990002 -2.0593765 1.1740061 0
4.1960001 -1.8262867 1.2325181 0
4.1900001 -1.8303092 1.2312084 0
4.1849999 -1.8347825 1.2301171 0
4.1790004 -1.8387636 1.2288076 0
4.1740003 -1.8431991 1.2277162 0
4.1680002 -1.8471385 1.2264067 0
4.1630001 -1.8515363 1.2253155 0
4.158 -1.8559159 1.2242241 0
4.152 -1.859794 1.2229145 0
4.1470003 -1.8641359 1.2218232 0
4.1420002 -1.8684596 1.2207319 0
4.1370001 -1.8727653 1.2196406 0
4.131 -1.8765622 1.2183311 0
4.1259999 -1.88083 1.2172397 0
4.1210003 -1.88508 1.2161485 0
4.1160002 -1.8893116 1.2150571 0
4.1100001 -1.8930275 1.2137476 0
4.105 -1.8972213 1.2126563 0
4.1000004 -1.9013972 1.211565 0
4.0950003 -1.9055549 1.2104737 0
4.0900002 -1.9096947 1.2093823 0
4.085 -1.9138165 1.2082911 0
4.079 -1.9174113 1.2069815 0
4.0740004 -1.9214952 1.2058902 0
4.0690002 -1.9255611 1.2047988 0
4.0640001 -1.9296088 1.2037076 0
4.059 -1.9336383 1.2026162 0
4.0540004 -1.9376502 1.201525 0
4.0490003 -1.9416438 1.2004336 0
4.0440001 -1.9456193 1.1993424 0
4.039 -1.9495769 1.1982511 0
4.0339999 -1.9535164 1.1971598 0
4.0290003 -1.957438 1.1960684 0
4.0240002 -1.9613413 1.194977 0
4.0190001 -1.9652268 1.1938858 0
4.0139999 -1.969094 1.1927946 0
4.0090003 -1.9729434 1.1917032 0
4.0040002 -1.9767747 1.190612 0
3.9990003 -1.980588 1.1895206 0
3.9950004 -1.9849224 1.1886476 0
3.9900002 -1.9887013 1.1875563 0
3.9850004 -1.9924625 1.186465 0
3.9800003 -1.9962053 1.1853737 0
3.9750004 -1.9999303 1.1842824 0
3.9700003 -2.0036368 1.1831911 0
3.9650002 -2.0073259 1.1820997 0
3.9610002 -2.0115483 1.1812267 0
3.9560003 -2.015203 1.1801354 0
3.9510002 -2.0188394 1.1790441 0
3.9460003 -2.0224581 1.1779529 0
3.9420002 -2.0266173 1.1770797 0
3.9370003 -2.0302017 1.1759884 0
3.9320002 -2.0337677 1.1748971 0
3.9270003 -2.0373158 1.1738058 0
3.9230003 -2.0414124 1.1729327 0
3.9180002 -2.0449262 1.1718415 0
3.9130003 -2.0484219 1.1707503 0
3.9090002 -2.0524714 1.1698772 0
3.9040003 -2.055933 1.1687858 0
3.8990002 -2.0593765 1.1676944 0
4.1900001 -1.8303092 1.224372 0
4.1849999 -1.8347825 1.2232897 0
4.1790004 -1.8387636 1.2219911 0
4.1740003 -1.8431991 1.2209086 0
4.1680002 -1.8471385 1.2196099 0
4.1630001 -1.8515363 1.2185277 0
4.158 -1.8559159 1.2174454 0
4.152 -1.859794 1.2161466 0
4.1470003 -1.8641359 1.2150643 0
4.1420002 -1.8684596 1.213982 0
4.1370001 -1.8727653 1.2128998 0
4.131 -1.8765622 1.211601 0
4.1259999 -1.88083 1.2105187 0
4.1210003 -1.88508 1.2094364 0
4.1160002 -1.8893116 1.2083541 0
4.1100001 -1.8930275 1.2070554 0
4.105 -1.8972213 1.2059731 0
4.1000004 -1.9013972 1.2048908 0
4.0950003 -1.9055549 1.2038085 0
4.0900002 -1.9096947 1.2027262 0
4.085 -1.9138165 1.2016439 0
4.079 -1.9174113 1.2003453 0
4.0740004 -1.9214952 1.199263 0
4.0690002 -1.9255611 1.1981807 0
4.0640001 -1.9296088 1.1970984 0
4.059 -1.9336383 1.1960161 0
4.0540004 -1.9376502 1.1949339 0
4.0490003 -1.9416438 1.1938516 0
4.0440001 -1.9456193 1.1927693 0
4.039 -1.9495769 1.191687 0
4.0339999 -1.9535164 1.1906047 0
4.0290003 -1.957438 1.1895224 0
4.0240002 -1.9613413 1.1884401 0
4.0190001 -1.9652268 1.1873579 0
4.0139999 -1.969094 1.1862756 0
4.0090003 -1.9729434 1.1851933 0
4.0040002 -1.9767747 1.184111 0
3.9990003 -1.980588 1.1830287 0
3.9950004 -1.9849224 1.1821629 0
3.9900002 -1.9887013 1.1810806 0
3.9850004 -1.9924625 1.1799984 0
3.9800003 -1.9962053 1.178916 0
3.9750004 -1.9999303 1.1778338 0
3.9700003 -2.0036368 1.1767515 0
3.9650002 -2.0073259 1.1756692 0
3.9610002 -2.0115483 1.1748034 0
3.9560003 -2.015203 1.1737211 0
3.9510002 -2.0188394 1.1726388 0
3.9460003 -2.0224581 1.1715565 0
3.9420002 -2.0266173 1.1706907 0
3.9370003 -2.0302017 1.1696084 0
3.9320002 -2.0337677 1.1685261 0
3.9270003 -2.0373158 1.1674438 0
3.9230003 -2.0414124 1.1665781 0
3.9180002 -2.0449262 1.1654956 0
3.9130003 -2.0484219 1.1644135 0
3.9090002 -2.0524714 1.1635476 0
3.9040003 -2.055933 1.1624653 0
3.8990002 -2.0593765 1.161383 0
4.1849999 -1.8347825 1.2164623 0
4.1790004 -1.8387636 1.2151743 0
4.1740003 -1.8431991 1.2141011 0
4.1680002 -1.8471385 1.2128133 0
4.1630001 -1.8515363 1.2117399 0
4.158 -1.8559159 1.2106667 0
4.152 -1.859794 1.2093787 0
4.1470003 -1.8641359 1.2083055 0
4.1420002 -1.8684596 1.2072322 0
4.1370001 -1.8727653 1.206159 0
4.131 -1.8765622 1.2048711 0
4.1259999 -1.88083 1.2037977 0
4.1210003 -1.88508 1.2027245 0
4.1160002 -1.8893116 1.2016512 0
4.1100001 -1.8930275 1.2003633 0
4.105 -1.8972213 1.19929 0
4.1000004 -1.9013972 1.1982168 0
4.0950003 -1.9055549 1.1971436 0
4.0900002 -1.9096947 1.1960702 0
4.085 -1.9138165 1.194997 0
4.079 -1.9174113 1.193709 0
4.0740004 -1.9214952 1.1926358 0
4.0690002 -1.9255611 1.1915625 0
4.0640001 -1.9296088 1.1904893 0
4.059 -1.9336383 1.1894161 0
4.0540004 -1.9376502 1.1883427 0
4.0490003 -1.9416438 1.1872694 0
4.0440001 -1.9456193 1.1861962 0
4.039 -1.9495769 1.185123 0
4.0339999 -1.9535164 1.1840496 0
4.0290003 -1.957438 1.1829764 0
4.0240002 -1.9613413 1.1819031 0
4.0190001 -1.9652268 1.1808299 0
4.0139999 -1.969094 1.1797566 0
4.0090003 -1.9729434 1.1786834 0
4.0040002 -1.9767747 1.17761 0
3.9990003 -1.980588 1.1765368 0
3.9940002 -1.9843832 1.1754636 0
3.9900002 -1.9887013 1.1746049 0
3.9850004 -1.9924625 1.1735317 0
3.9800003 -1.9962053 1.1724584 0
3.9750004 -1.9999303 1.1713852 0
3.9700003 -2.0036368 1.1703118 0
3.9650002 -2.0073259 1.1692386 0
3.9610002 -2.0115483 1.1683799 0
3.9560003 -2.015203 1.1673068 0
3.9510002 -2.0188394 1.1662334 0
3.9460003 -2.0224581 1.1651602 0
3.9420002 -2.0266173 1.1643015 0
3.9370003 -2.0302017 1.1632283 0
3.9320002 -2.0337677 1.162155 0
3.9270003 -2.0373158 1.1610818 0
3.9230003 -2.0414124 1.1602231 0
3.9180002 -2.0449262 1.1591499 0
3.9130003 -2.0484219 1.1580766 0
3.9090002 -2.0524714 1.157218 0
3.9040003 -2.055933 1.1561447 0
3.8990002 -2.0593765 1.1550715 0
4.1849999 -1.8347825 1.2096349 0
4.1790004 -1.8387636 1.2083578 0
4.1740003 -1.8431991 1.2072935 0
4.1680002 -1.8471385 1.2060164 0
4.1630001 -1.8515363 1.2049522 0
4.158 -1.8559159 1.2038879 0
4.152 -1.859794 1.2026109 0
4.1470003 -1.8641359 1.2015467 0
4.1420002 -1.8684596 1.2004824 0
4.1370001 -1.8727653 1.1994182 0
4.131 -1.8765622 1.198141 0
4.1259999 -1.88083 1.1970767 0
4.1210003 -1.88508 1.1960125 0
4.1160002 -1.8893116 1.1949482 0
4.1100001 -1.8930275 1.1936712 0
4.105 -1.8972213 1.1926069 0
4.1000004 -1.9013972 1.1915427 0
4.0950003 -1.9055549 1.1904784 0
4.0900002 -1.9096947 1.1894141 0
4.085 -1.9138165 1.18835 0
4.079 -1.9174113 1.1870729 0
4.0740004 -1.9214952 1.1860087 0
4.0690002 -1.9255611 1.1849444 0
4.0640001 -1.9296088 1.1838801 0
4.059 -1.9336383 1.1828159 0
4.0540004 -1.9376502 1.1817516 0
4.0490003 -1.9416438 1.1806874 0
4.0440001 -1.9456193 1.1796231 0
4.039 -1.9495769 1.1785588 0
4.0339999 -1.9535164 1.1774946 0
4.0290003 -1.957438 1.1764303 0
4.0240002 -1.9613413 1.1753662 0
4.0190001 -1.9652268 1.1743019 0
4.0139999 -1.969094 1.1732376 0
4.0090003 -1.9729434 1.1721734 0
4.0040002 -1.9767747 1.1711091 0
3.9990003 -1.980588 1.1700449 0
3.9940002 -1.9843832 1.1689806 0
3.9900002 -1.9887013 1.1681293 0
3.9850004 -1.9924625 1.167065 0
3.9800003 -1.9962053 1.1660008 0
3.9750004 -1.9999303 1.1649365 0
3.9700003 -2.0036368 1.1638722 0
3.9650002 -2.0073259 1.1628081 0
3.9610002 -2.0115483 1.1619565 0
3.9560003 -2.015203 1.1608924 0
3.9510002 -2.0188394 1.1598281 0
3.9460003 -2.0224581 1.1587639 0
3.9420002 -2.0266173 1.1579125 0
3.9370003 -2.0302017 1.1568483 0
3.9320002 -2.0337677 1.155784 0
3.9270003 -2.0373158 1.1547198 0
3.9230003 -2.0414124 1.1538683 0
3.9180002 -2.0449262 1.1528041 0
3.9130003 -2.0484219 1.1517398 0
3.9090002 -2.0524714 1.1508884 0
3.9040003 -2.055933 1.1498243 0
3.8990002 -2.0593765 1.14876 0
4.1790004 -1.8387636 1.2015412 0
4.1740003 -1.8431991 1.2004859 0
4.1680002 -1.8471385 1.1992197 0
4.1630001 -1.8515363 1.1981645 0
4.158 -1.8559159 1.1971092 0
4.152 -1.859794 1.195843 0
4.1470003 -1.8641359 1.1947877 0
4.1420002 -1.8684596 1.1937325 0
4.1370001 -1.8727653 1.1926773 0
4.131 -1.8765622 1.191411 0
4.1259999 -1.88083 1.1903558 0
4.1210003 -1.88508 1.1893005 0
4.1160002 -1.8893116 1.1882453 0
4.1100001 -1.8930275 1.1869791 0
4.105 -1.8972213 1.1859238 0
4.1000004 -1.9013972 1.1848686 0
4.0950003 -1.9055549 1.1838133 0
4.0900002 -1.9096947 1.1827581 0
4.085 -1.9138165 1.181703 0
4.079 -1.9174113 1.1804366 0
4.0740004 -1.9214952 1.1793815 0
4.0690002 -1.9255611 1.1783261 0
4.0640001 -1.9296088 1.177271 0
4.059 -1.9336383 1.1762158 0
4.0540004 -1.9376502 1.1751605 0
4.0490003 -1.9416438 1.1741053 0
4.0440001 -1.9456193 1.17305 0
4.039 -1.9495769 1.1719948 0
4.0339999 -1.9535164 1.1709396 0
4.0290003 -1.957438 1.1698843 0
4.0240002 -1.9613413 1.1688291 0
4.0190001 -1.9652268 1.167774 0
4.0139999 -1.969094 1.1667187 0
4.0090003 -1.9729434 1.1656635 0
4.0040002 -1.9767747 1.1646082 0
3.9990003 -1.980588 1.163553 0
3.9940002 -1.9843832 1.1624978 0
3.9900002 -1.9887013 1.1616536 0
3.9850004 -1.9924625 1.1605984 0
3.9800003 -1.9962053 1.1595432 0
3.9750004 -1.9999303 1.1584879 0
3.9700003 -2.0036368 1.1574327 0
3.9650002 -2.0073259 1.1563774 0
3.9610002 -2.0115483 1.1555333 0
3.9560003 -2.015203 1.1544781 0
3.9510002 -2.0188394 1.1534228 0
3.9460003 -2.0224581 1.1523676 0
3.9420002 -2.0266173 1.1515234 0
3.9370003 -2.0302017 1.1504681 0
3.9320002 -2.0337677 1.149413 0
3.9270003 -2.0373158 1.1483577 0
3.9230003 -2.0414124 1.1475136 0
3.9180002 -2.0449262 1.1464583 0
3.9130003 -2.0484219 1.1454031 0
3.9090002 -2.0524714 1.1445589 0
3.9040003 -2.055933 1.1435037 0
3.8990002 -2.0593765 1.1424484 0
4.1790004 -1.8387636 1.1947247 0
4.1740003 -1.8431991 1.1936784 0
4.1680002 -1.8471385 1.192423 0
4.1630001 -1.8515363 1.1913768 0
4.158 -1.8559159 1.1903305 0
4.152 -1.859794 1.1890751 0
4.1470003 -1.8641359 1.1880289 0
4.1420002 -1.8684596 1.1869826 0
4.1370001 -1.8727653 1.1859365 0
4.131 -1.8765622 1.1846811 0
4.1259999 -1.88083 1.1836348 0
4.1210003 -1.88508 1.1825886 0
4.1160002 -1.8893116 1.1815424 0
4.1100001 -1.8930275 1.180287 0
4.105 -1.8972213 1.1792407 0
4.1000004 -1.9013972 1.1781945 0
4.0950003 -1.9055549 1.1771483 0
4.0900002 -1.9096947 1.176102 0
4.085 -1.9138165 1.1750559 0
4.079 -1.9174113 1.1738003 0
4.0740004 -1.9214952 1.1727542 0
4.0690002 -1.9255611 1.171708 0
4.0640001 -1.9296088 1.1706618 0
4.059 -1.9336383 1.1696156 0
4.0540004 -1.9376502 1.1685694 0
4.0490003 -1.9416438 1.1675231 0
4.0440001 -1.9456193 1.166477 0
4.039 -1.9495769 1.1654308 0
4.0339999 -1.9535164 1.1643845 0
4.0290003 -1.957438 1.1633383 0
4.0240002 -1.9613413 1.1622921 0
4.0190001 -1.9652268 1.1612459 0
4.0139999 -1.969094 1.1601996 0
4.0090003 -1.9729434 1.1591535 0
4.0040002 -1.9767747 1.1581073 0
3.9990003 -1.980588 1.1570611 0
3.9940002 -1.9843832 1.1560149 0
3.9900002 -1.9887013 1.1551778 0
3.9850004 -1.9924625 1.1541318 0
3.9800003 -1.9962053 1.1530855 0
3.9750004 -1.9999303 1.1520393 0
3.9700003 -2.0036368 1.1509931 0
3.9650002 -2.0073259 1.1499468 0
3.9610002 -2.0115483 1.14911 0
3.9560003 -2.015203 1.1480637 0
3.9510002 -2.0188394 1.1470175 0
3.9460003 -2.0224581 1.1459713 0
3.9420002 -2.0266173 1.1451343 0
3.9370003 -2.0302017 1.1440881 0
3.9320002 -2.0337677 1.1430418 0
3.9270003 -2.0373158 1.1419957 0
3.9230003 -2.0414124 1.1411587 0
3.9180002 -2.0449262 1.1401125 0
3.9130003 -2.0484219 1.1390663 0
3.9090002 -2.0524714 1.1382293 0
3.9040003 -2.055933 1.1371831 0
3.8990002 -2.0593765 1.1361369 0
4.1740003 -1.8431991 1.1868708 0
4.1680002 -1.8471385 1.1856261 0
4.1630001 -1.8515363 1.184589 0
4.158 -1.8559159 1.1835518 0
4.152 -1.859794 1.1823071 0
4.1470003 -1.8641359 1.18127 0
4.1420002 -1.8684596 1.1802328 0
4.1370001 -1.8727653 1.1791956 0
4.131 -1.8765622 1.177951 0
4.1259999 -1.88083 1.1769139 0
4.1210003 -1.88508 1.1758766 0
4.1160002 -1.8893116 1.1748394 0
4.1100001 -1.8930275 1.1735948 0
4.105 -1.8972213 1.1725576 0
4.1000004 -1.9013972 1.1715205 0
4.0950003 -1.9055549 1.1704832 0
4.0900002 -1.9096947 1.169446 0
4.085 -1.9138165 1.1684089 0
4.079 -1.9174113 1.1671642 0
4.0740004 -1.9214952 1.1661271 0
4.0690002 -1.9255611 1.1650898 0
4.0640001 -1.9296088 1.1640527 0
4.059 -1.9336383 1.1630155 0
4.0540004 -1.9376502 1.1619782 0
4.0490003 -1.9416438 1.160941 0
4.0440001 -1.9456193 1.1599039 0
4.039 -1.9495769 1.1588666 0
4.0339999 -1.9535164 1.1578295 0
4.0290003 -1.957438 1.1567923 0
4.0240002 -1.9613413 1.1557552 0
4.0190001 -1.9652268 1.1547179 0
4.0139999 -1.969094 1.1536808 0
4.0090003 -1.9729434 1.1526436 0
4.0040002 -1.9767747 1.1516063 0
3.9990003 -1.980588 1.1505692 0
3.9940002 -1.9843832 1.149532 0
3.9900002 -1.9887013 1.1487023 0
3.9850004 -1.9924625 1.147665 0
3.9800003 -1.9962053 1.1466279 0
3.9750004 -1.9999303 1.1455907 0
3.9700003 -2.0036368 1.1445534 0
3.9650002 -2.0073259 1.1435163 0
3.9610002 -2.0115483 1.1426865 0
3.9560003 -2.015203 1.1416494 0
3.9510002 -2.0188394 1.1406121 0
3.9460003 -2.0224581 1.139575 0
3.9420002 -2.0266173 1.1387452 0
3.9370003 -2.0302017 1.1377081 0
3.9320002 -2.0337677 1.1366708 0
3.9270003 -2.0373158 1.1356336 0
3.9230003 -2.0414124 1.1348039 0
3.9180002 -2.0449262 1.1337667 0
3.9130003 -2.0484219 1.1327295 0
3.9090002 -2.0524714 1.1318997 0
3.9040003 -2.055933 1.1308626 0
3.8990002 -2.0593765 1.1298254 0
4.1740003 -1.8431991 1.1800632 0
4.1680002 -1.8471385 1.1788294 0
4.1630001 -1.8515363 1.1778013 0
4.158 -1.8559159 1.1767731 0
4.152 -1.859794 1.1755393 0
4.1470003 -1.8641359 1.1745111 0
4.1420002 -1.8684596 1.1734829 0
4.1370001 -1.8727653 1.1724548 0
4.131 -1.8765622 1.171221 0
4.1259999 -1.88083 1.1701928 0
4.1210003 -1.88508 1.1691647 0
4.1160002 -1.8893116 1.1681365 0
4.1100001 -1.8930275 1.1669027 0
4.105 -1.8972213 1.1658745 0
4.1000004 -1.9013972 1.1648463 0
4.0950003 -1.9055549 1.1638181 0
4.0900002 -1.9096947 1.1627899 0
4.085 -1.9138165 1.1617619 0
4.079 -1.9174113 1.1605279 0
4.0740004 -1.9214952 1.1594999 0
4.0690002 -1.9255611 1.1584717 0
4.0640001 -1.9296088 1.1574435 0
4.059 -1.9336383 1.1564153 0
4.0540004 -1.9376502 1.1553872 0
4.0490003 -1.9416438 1.154359 0
4.0440001 -1.9456193 1.1533309 0
4.039 -1.9495769 1.1523026 0
4.0339999 -1.9535164 1.1512744 0
4.0290003 -1.957438 1.1502463 0
4.0240002 -1.9613413 1.1492181 0
4.0190001 -1.9652268 1.1481899 0
4.0139999 -1.969094 1.1471617 0
4.0090003 -1.9729434 1.1461337 0
4.0040002 -1.9767747 1.1451055 0
3.9990003 -1.980588 1.1440773 0
3.9940002 -1.9843832 1.1430491 0
3.9900002 -1.9887013 1.1422266 0
3.9850004 -1.9924625 1.1411984 0
3.9800003 -1.9962053 1.1401702 0
3.9750004 -1.9999303 1.139142 0
3.9700003 -2.0036368 1.1381139 0
3.9650002 -2.0073259 1.1370857 0
3.9610002 -2.0115483 1.1362631 0
3.9560003 -2.015203 1.1352351 0
3.9510002 -2.0188394 1.1342069 0
3.9460003 -2.0224581 1.1331787 0
3.9420002 -2.0266173 1.132356 0
3.9370003 -2.0302017 1.131328 0
3.9320002 -2.0337677 1.1302998 0
3.9270003 -2.0373158 1.1292716 0
3.9230003 -2.0414124 1.1284491 0
3.9180002 -2.0449262 1.1274209 0
3.9130003 -2.0484219 1.1263927 0
3.9090002 -2.0524714 1.1255702 0
3.9040003 -2.055933 1.124542 0
3.8990002 -2.0593765 1.1235138 0
4.1740003 -1.8431991 1.1732557 0
4.1680002 -1.8471385 1.1720327 0
4.1630001 -1.8515363 1.1710136 0
4.158 -1.8559159 1.1699944 0
4.152 -1.859794 1.1687714 0
4.1470003 -1.8641359 1.1677523 0
4.1420002 -1.8684596 1.1667331 0
4.1370001 -1.8727653 1.165714 0
4.131 -1.8765622 1.1644909 0
4.1259999 -1.88083 1.1634718 0
4.1210003 -1.88508 1.1624527 0
4.1160002 -1.8893116 1.1614336 0
4.1100001 -1.8930275 1.1602106 0
4.105 -1.8972213 1.1591914 0
4.1000004 -1.9013972 1.1581722 0
4.0950003 -1.9055549 1.1571531 0
4.0900002 -1.9096947 1.1561339 0
4.085 -1.9138165 1.1551148 0
4.079 -1.9174113 1.1538918 0
4.0740004 -1.9214952 1.1528727 0
4.0690002 -1.9255611 1.1518534 0
4.0640001 -1.9296088 1.1508344 0
4.059 -1.9336383 1.1498152 0
4.0540004 -1.9376502 1.1487961 0
4.0490003 -1.9416438 1.1477768 0
4.0440001 -1.9456193 1.1467577 0
4.039 -1.9495769 1.1457386 0
4.0339999 -1.9535164 1.1447194 0
4.0290003 -1.957438 1.1437002 0
4.0240002 -1.9613413 1.1426811 0
4.0190001 -1.9652268 1.141662 0
4.0139999 -1.969094 1.1406429 0
4.0090003 -1.9729434 1.1396236 0
4.0040002 -1.9767747 1.1386045 0
3.9990003 -1.980588 1.1375854 0
3.9940002 -1.9843832 1.1365662 0
3.9900002 -1.9887013 1.1357509 0
3.9850004 -1.9924625 1.1347318 0
3.9800003 -1.9962053 1.1337125 0
3.9750004 -1.9999303 1.1326935 0
3.9700003 -2.0036368 1.1316743 0
3.9650002 -2.0073259 1.1306551 0
3.9610002 -2.0115483 1.1298398 0
3.9560003 -2.015203 1.1288207 0
3.9510002 -2.0188394 1.1278015 0
3.9460003 -2.0224581 1.1267824 0
3.9420002 -2.0266173 1.125967 0
3.9370003 -2.0302017 1.1249479 0
3.9320002 -2.0337677 1.1239287 0
3.9270003 -2.0373158 1.1229095 0
3.9230003 -2.0414124 1.1220943 0
3.9180002 -2.0449262 1.1210752 0
3.9130003 -2.0484219 1.120056 0
3.9090002 -2.0524714 1.1192406 0
3.9040003 -2.055933 1.1182215 0
3.8990002 -2.0593765 1.1172023 0
4.1740003 -1.8431991 1.1664481 0
4.1680002 -1.8471385 1.165236 0
4.1630001 -1.8515363 1.1642258 0
4.158 -1.8559159 1.1632156 0
4.152 -1.859794 1.1620035 0
4.1470003 -1.8641359 1.1609935 0
4.1420002 -1.8684596 1.1599833 0
4.1370001 -1.8727653 1.1589732 0
4.131 -1.8765622 1.157761 0
4.1259999 -1.88083 1.1567508 0
4.1210003 -1.88508 1.1557407 0
4.1160002 -1.8893116 1.1547306 0
4.1100001 -1.8930275 1.1535184 0
4.105 -1.8972213 1.1525083 0
4.1000004 -1.9013972 1.1514982 0
4.0950003 -1.9055549 1.150488 0
4.0900002 -1.9096947 1.1494778 0
4.085 -1.9138165 1.1484678 0
4.079 -1.9174113 1.1472555 0
4.0740004 -1.9214952 1.1462455 0
4.0690002 -1.9255611 1.1452353 0
4.0640001 -1.9296088 1.1442252 0
4.059 -1.9336383 1.1432151 0
4.0540004 -1.9376502 1.142205 0
4.0490003 -1.9416438 1.1411948 0
4.0440001 -1.9456193 1.1401846 0
4.039 -1.9495769 1.1391746 0
4.0339999 -1.9535164 1.1381644 0
4.0290003 -1.957438 1.1371542 0
4.0240002 -1.9613413 1.136144 0
4.0190001 -1.9652268 1.135134 0
4.0139999 -1.969094 1.1341238 0
4.0090003 -1.9729434 1.1331137 0
4.0040002 -1.9767747 1.1321036 0
3.9990003 -1.980588 1.1310935 0
3.9940002 -1.9843832 1.1300833 0
3.9900002 -1.9887013 1.1292752 0
3.9850004 -1.9924625 1.1282651 0
3.9800003 -1.9962053 1.127255 0
3.9750004 -1.9999303 1.1262448 0
3.9700003 -2.0036368 1.1252347 0
3.9650002 -2.0073259 1.1242245 0
3.9610002 -2.0115483 1.1234164 0
3.9560003 -2.015203 1.1224064 0
3.9510002 -2.0188394 1.1213962 0
3.9460003 -2.0224581 1.1203861 0
3.9420002 -2.0266173 1.1195779 0
3.9370003 -2.0302017 1.1185678 0
3.9320002 -2.0337677 1.1175576 0
3.9270003 -2.0373158 1.1165476 0
3.9230003 -2.0414124 1.1157395 0
3.9180002 -2.0449262 1.1147293 0
3.9130003 -2.0484219 1.1137192 0
3.9090002 -2.0524714 1.112911 0
3.9040003 -2.055933 1.1119009 0
3.8990002 -2.0593765 1.1108907 0
4.1740003 -1.8431991 1.1596406 0
4.1680002 -1.8471385 1.1584392 0
4.1630001 -1.8515363 1.157438 0
4.158 -1.8559159 1.1564369 0
4.152 -1.859794 1.1552356 0
4.1470003 -1.8641359 1.1542345 0
4.1420002 -1.8684596 1.1532334 0
4.1370001 -1.8727653 1.1522323 0
4.131 -1.8765622 1.151031 0
4.1259999 -1.88083 1.1500298 0
4.1210003 -1.88508 1.1490288 0
4.1160002 -1.8893116 1.1480277 0
4.1100001 -1.8930275 1.1468263 0
4.105 -1.8972213 1.1458251 0
4.1000004 -1.9013972 1.1448241 0
4.0950003 -1.9055549 1.1438229 0
4.0900002 -1.9096947 1.1428218 0
4.085 -1.9138165 1.1418208 0
4.079 -1.9174113 1.1406194 0
4.0740004 -1.9214952 1.1396183 0
4.0690002 -1.9255611 1.1386172 0
4.0640001 -1.9296088 1.137616 0
4.059 -1.9336383 1.1366149 0
4.0540004 -1.9376502 1.1356138 0
4.0490003 -1.9416438 1.1346127 0
4.0440001 -1.9456193 1.1336117 0
4.039 -1.9495769 1.1326104 0
4.0339999 -1.9535164 1.1316093 0
4.0290003 -1.957438 1.1306083 0
4.0240002 -1.9613413 1.1296071 0
4.0190001 -1.9652268 1.128606 0
4.0139999 -1.969094 1.127605 0
4.0090003 -1.9729434 1.1266038 0
4.0040002 -1.9767747 1.1256026 0
3.9990003 -1.980588 1.1246016 0
3.9940002 -1.9843832 1.1236005 0
3.9900002 -1.9887013 1.1227995 0
3.9850004 -1.9924625 1.1217985 0
3.9800003 -1.9962053 1.1207973 0
3.9750004 -1.9999303 1.1197963 0
3.9700003 -2.0036368 1.1187952 0
3.9650002 -2.0073259 1.1177939 0
3.9610002 -2.0115483 1.1169931 0
3.9560003 -2.015203 1.1159921 0
3.9510002 -2.0188394 1.1149908 0
3.9460003 -2.0224581 1.1139897 0
3.9420002 -2.0266173 1.1131889 0
3.9370003 -2.0302017 1.1121877 0
3.9320002 -2.0337677 1.1111866 0
3.9270003 -2.0373158 1.1101855 0
3.9230003 -2.0414124 1.1093847 0
3.9180002 -2.0449262 1.1083835 0
3.9130003 -2.0484219 1.1073824 0
3.9090002 -2.0524714 1.1065814 0
3.9040003 -2.055933 1.1055804 0
3.8990002 -2.0593765 1.1045793 0
4.1680002 -1.8471385 1.1516424 0
4.1630001 -1.8515363 1.1506504 0
4.158 -1.8559159 1.1496582 0
4.152 -1.859794 1.1484677 0
4.1470003 -1.8641359 1.1474756 0
4.1420002 -1.8684596 1.1464835 0
4.1370001 -1.8727653 1.1454915 0
4.131 -1.8765622 1.1443009 0
4.1259999 -1.88083 1.1433089 0
4.1210003 -1.88508 1.1423168 0
4.1160002 -1.8893116 1.1413246 0
4.1100001 -1.8930275 1.1401342 0
4.105 -1.8972213 1.139142 0
4.1000004 -1.9013972 1.13815 0
4.0950003 -1.9055549 1.1371579 0
4.0900002 -1.9096947 1.1361657 0
4.085 -1.9138165 1.1351737 0
4.079 -1.9174113 1.1339831 0
4.0740004 -1.9214952 1.1329911 0
4.0690002 -1.9255611 1.131999 0
4.0640001 -1.9296088 1.131007 0
4.059 -1.9336383 1.1300148 0
4.0540004 -1.9376502 1.1290227 0
4.0490003 -1.9416438 1.1280305 0
4.0440001 -1.9456193 1.1270385 0
4.039 -1.9495769 1.1260464 0
4.0339999 -1.9535164 1.1250544 0
4.0290003 -1.957438 1.1240623 0
4.0240002 -1.9613413 1.1230701 0
4.0190001 -1.9652268 1.1220781 0
4.0139999 -1.969094 1.1210859 0
4.0090003 -1.9729434 1.1200938 0
4.0040002 -1.9767747 1.1191018 0
3.9990003 -1.980588 1.1181097 0
3.9940002 -1.9843832 1.1171175 0
3.9900002 -1.9887013 1.1163239 0
3.9850004 -1.9924625 1.1153318 0
3.9800003 -1.9962053 1.1143397 0
3.9750004 -1.9999303 1.1133476 0
3.9700003 -2.0036368 1.1123555 0
3.9650002 -2.0073259 1.1113634 0
3.9610002 -2.0115483 1.1105697 0
3.9560003 -2.015203 1.1095777 0
3.9510002 -2.0188394 1.1085856 0
3.9460003 -2.0224581 1.1075934 0
3.9420002 -2.0266173 1.1067997 0
3.9370003 -2.0302017 1.1058077 0
3.9320002 -2.0337677 1.1048156 0
3.9270003 -2.0373158 1.1038235 0
3.9230003 -2.0414124 1.1030298 0
3.9180002 -2.0449262 1.1020377 0
3.9130003 -2.0484219 1.1010456 0
3.9090002 -2.0524714 1.1002519 0
3.9040003 -2.055933 1.0992599 0
3.8990002 -2.0593765 1.0982678 0
4.1680002 -1.8471385 1.1448457 0
4.1630001 -1.8515363 1.1438626 0
4.158 -1.8559159 1.1428795 0
4.152 -1.859794 1.1416999 0
4.1470003 -1.8641359 1.1407168 0
4.1420002 -1.8684596 1.1397337 0
4.1370001 -1.8727653 1.1387507 0
4.131 -1.8765622 1.137571 0
4.1259999 -1.88083 1.1365879 0
4.1210003 -1.88508 1.1356047 0
4.1160002 -1.8893116 1.1346217 0
4.1100001 -1.8930275 1.133442 0
4.105 -1.8972213 1.1324589 0
4.1000004 -1.9013972 1.1314759 0
4.0950003 -1.9055549 1.1304928 0
4.0900002 -1.9096947 1.1295097 0
4.085 -1.9138165 1.1285267 0
4.079 -1.9174113 1.127347 0
4.0740004 -1.9214952 1.1263639 0
4.0690002 -1.9255611 1.1253808 0
4.0640001 -1.9296088 1.1243978 0
4.059 -1.9336383 1.1234146 0
4.0540004 -1.9376502 1.1224316 0
4.0490003 -1.9416438 1.1214485 0
4.0440001 -1.9456193 1.1204655 0
4.039 -1.9495769 1.1194824 0
4.0339999 -1.9535164 1.1184993 0
4.0290003 -1.957438 1.1175163 0
4.0240002 -1.9613413 1.1165332 0
4.0190001 -1.9652268 1.11555 0
4.0139999 -1.969094 1.1145669 0
4.0090003 -1.9729434 1.1135839 0
4.0040002 -1.9767747 1.1126008 0
3.9990003 -1.980588 1.1116178 0
3.9940002 -1.9843832 1.1106347 0
3.9900002 -1.9887013 1.1098483 0
3.9850004 -1.9924625 1.1088651 0
3.9800003 -1.9962053 1.1078821 0
3.9750004 -1.9999303 1.106899 0
3.9700003 -2.0036368 1.1059159 0
3.9650002 -2.0073259 1.1049328 0
3.9610002 -2.0115483 1.1041464 0
3.9560003 -2.015203 1.1031634 0
3.9510002 -2.0188394 1.1021802 0
3.9460003 -2.0224581 1.1011972 0
3.9420002 -2.0266173 1.1004107 0
3.9370003 -2.0302017 1.0994276 0
3.9320002 -2.0337677 1.0984445 0
3.9270003 -2.0373158 1.0974615 0
3.9230003 -2.0414124 1.096675 0
3.9180002 -2.0449262 1.0956919 0
3.9130003 -2.0484219 1.0947088 0
3.9090002 -2.0524714 1.0939224 0
3.9040003 -2.055933 1.0929394 0
3.8990002 -2.0593765 1.0919563 0
4.1680002 -1.8471385 1.1380489 0
4.1630001 -1.8515363 1.1370749 0
4.158 -1.8559159 1.1361008 0
4.152 -1.859794 1.1349319 0
4.1470003 -1.8641359 1.133958 0
4.1420002 -1.8684596 1.1329838 0
4.1370001 -1.8727653 1.1320099 0
4.131 -1.8765622 1.1308409 0
4.1259999 -1.88083 1.1298668 0
4.1210003 -1.88508 1.1288928 0
4.1160002 -1.8893116 1.1279187 0
4.1100001 -1.8930275 1.1267499 0
4.105 -1.8972213 1.1257758 0
4.1000004 -1.9013972 1.1248019 0
4.0950003 -1.9055549 1.1238277 0
4.0900002 -1.9096947 1.1228536 0
4.085 -1.9138165 1.1218796 0
4.079 -1.9174113 1.1207107 0
4.0740004 -1.9214952 1.1197367 0
4.0690002 -1.9255611 1.1187626 0
4.0640001 -1.9296088 1.1177886 0
4.059 -1.9336383 1.1168145 0
4.0540004 -1.9376502 1.1158404 0
4.0490003 -1.9416438 1.1148664 0
4.0440001 -1.9456193 1.1138924 0
4.039 -1.9495769 1.1129183 0
4.0339999 -1.9535164 1.1119442 0
4.0290003 -1.957438 1.1109701 0
4.0240002 -1.9613413 1.1099961 0
4.0190001 -1.9652268 1.109022 0
4.0139999 -1.969094 1.108048 0
4.0090003 -1.9729434 1.107074 0
4.0040002 -1.9767747 1.1060998 0
3.9990003 -1.980588 1.1051258 0
3.9940002 -1.9843832 1.1041517 0
3.9900002 -1.9887013 1.1033726 0
3.9850004 -1.9924625 1.1023985 0
3.9800003 -1.9962053 1.1014245 0
3.9750004 -1.9999303 1.1004504 0
3.9700003 -2.0036368 1.0994763 0
3.9650002 -2.0073259 1.0985023 0
3.9610002 -2.0115483 1.097723 0
3.9560003 -2.015203 1.0967489 0
3.9510002 -2.0188394 1.0957749 0
3.9460003 -2.0224581 1.0948008 0
3.9420002 -2.0266173 1.0940216 0
3.9370003 -2.0302017 1.0930476 0
3.9320002 -2.0337677 1.0920734 0
3.9270003 -2.0373158 1.0910994 0
3.9230003 -2.0414124 1.0903202 0
3.9180002 -2.0449262 1.0893461 0
3.9130003 -2.0484219 1.0883721 0
3.9090002 -2.0524714 1.0875928 0
3.9040003 -2.055933 1.0866188 0
3.8990002 -2.0593765 1.0856447 0
4.1740003 -1.8431991 1.1324103 0
4.1680002 -1.8471385 1.1312522 0
4.1630001 -1.8515363 1.1302872 0
4.158 -1.8559159 1.1293222 0
4.152 -1.859794 1.1281641 0
4.1470003 -1.8641359 1.1271991 0
4.1420002 -1.8684596 1.1262341 0
4.1370001 -1.8727653 1.1252691 0
4.131 -1.8765622 1.1241109 0
4.1259999 -1.88083 1.1231458 0
4.1210003 -1.88508 1.1221808 0
4.1160002 -1.8893116 1.1212158 0
4.1100001 -1.8930275 1.1200578 0
4.105 -1.8972213 1.1190927 0
4.1000004 -1.9013972 1.1181277 0
4.0950003 -1.9055549 1.1171627 0
4.0900002 -1.9096947 1.1161976 0
4.085 -1.9138165 1.1152326 0
4.079 -1.9174113 1.1140746 0
4.0740004 -1.9214952 1.1131096 0
4.0690002 -1.9255611 1.1121445 0
4.0640001 -1.9296088 1.1111795 0
4.059 -1.9336383 1.1102144 0
4.0540004 -1.9376502 1.1092494 0
4.0490003 -1.9416438 1.1082844 0
4.0440001 -1.9456193 1.1073192 0
4.039 -1.9495769 1.1063542 0
4.0339999 -1.9535164 1.1053892 0
4.0290003 -1.957438 1.1044241 0
4.0240002 -1.9613413 1.1034591 0
4.0190001 -1.9652268 1.1024941 0
4.0139999 -1.969094 1.101529 0
4.0090003 -1.9729434 1.100564 0
4.0040002 -1.9767747 1.099599 0
3.9990003 -1.980588 1.0986339 0
3.9940002 -1.9843832 1.0976689 0
3.9900002 -1.9887013 1.0968969 0
3.9850004 -1.9924625 1.0959319 0
3.9800003 -1.9962053 1.0949668 0
3.9750004 -1.9999303 1.0940018 0
3.9700003 -2.0036368 1.0930368 0
3.9650002 -2.0073259 1.0920717 0
3.9610002 -2.0115483 1.0912997 0
3.9560003 -2.015203 1.0903347 0
3.9510002 -2.0188394 1.0893695 0
3.9460003 -2.0224581 1.0884045 0
3.9420002 -2.0266173 1.0876325 0
