# .PCD v0.7 - Point Cloud Data file format
VERSION 0.7
FIELDS x y z intensity
SIZE 4 4 4 4
TYPE F F F F
COUNT 1 1 1 1
WIDTH 1453
HEIGHT 1
VIEWPOINT 0 0 0 1 0 0 0
POINTS 1453
DATA ascii
3.9330003 1.3687737 0.61430418 0
3.9290004 1.3608063 0.61406612 0
3.9260004 1.3532501 0.61388755 0
3.9230003 1.3457048 0.61370897 0
3.9190001 1.337777 0.61347085 0
3.9160004 1.3302552 0.61329228 0
3.9120002 1.3223546 0.61305416 0
3.9090002 1.3148559 0.61287558 0
3.9050002 1.3069824 0.61263752 0
3.9020002 1.2995074 0.61245894 0
3.8990002 1.2920433 0.61228037 0
3.8950002 1.2842093 0.61204225 0
3.8920002 1.2767686 0.61186361 0
3.8890002 1.2693387 0.61168504 0
3.8850002 1.2615445 0.61144698 0
3.8820002 1.2541381 0.6112684 0
3.8780003 1.2463708 0.61103028 0
3.8750002 1.2389878 0.61085171 0
3.8720002 1.2316157 0.61067313 0
3.8680003 1.2238882 0.61043507 0
3.8650002 1.2165395 0.61025643 0
3.8620002 1.2092016 0.61007786 0
3.8580003 1.2015138 0.6098398 0
3.8550003 1.1941993 0.60966122 0
3.8520002 1.1868957 0.60948265 0
3.8490002 1.1796029 0.60930407 0
3.8450003 1.1719674 0.60906595 0
3.8420002 1.164698 0.60888737 0
3.8390002 1.1574395 0.6087088 0
3.8350003 1.1498437 0.60847068 0
3.8320003 1.1426086 0.6082921 0
3.8290002 1.1353843 0.60811353 0
3.8260002 1.1281708 0.60793495 0
3.8220003 1.1206274 0.60769689 0
3.8190002 1.1134374 0.60751832 0
3.8160002 1.1062583 0.60733974 0
3.8130002 1.0990899 0.60716116 0
3.8090003 1.0915987 0.60692304 0
3.8060002 1.0844538 0.60674447 0
3.8030002 1.0773197 0.60656589 0
3.8000002 1.0701965 0.60638732 0
3.7970002 1.063084 0.60620874 0
3.7930002 1.0556579 0.60597062 0
3.7900002 1.0485688 0.60579205 0
3.7870002 1.0414907 0.60561347 0
3.7840002 1.0344234 0.60543489 0
3.7900002 1.0302241 0.60579205 0
3.7980003 1.0266346 0.60626829 0
3.8060002 1.0230161 0.60674447 0
3.8150003 1.0196809 0.60728019 0
3.9590003 1.0581976 0.61585188 0
3.9550002 1.050544 0.61561376 0
3.9520004 1.0432116 0.61543524 0
3.9490004 1.03589 0.61525667 0
3.9480002 1.0291852 0.61519706 0
3.9470003 1.0224839 0.61513758 0
3.9470003 1.0160859 0.61513758 0
3.9480002 1.0099854 0.61519706 0
3.9500003 1.0041771 0.61531615 0
3.9520004 0.99836171 0.61543524 0
3.9550002 0.99283123 0.61561376 0
3.9590003 0.9875803 0.61585188 0
3.9640002 0.98260355 0.61614954 0
3.9710002 0.97818244 0.61656618 0
3.9790003 0.97402108 0.61704242 0
3.9920003 0.97124684 0.61781621 0
4.1240001 0.96160734 0.62567365 0
4.1230001 0.9546212 0.62561411 0
4.1230001 0.94790554 0.62561411 0
4.125 0.94172025 0.62573314 0
4.1270003 0.9355278 0.62585223 0
4.1300001 0.92958969 0.6260308 0
4.1340003 0.92390049 0.62626886 0
4.138 0.9181968 0.62650698 0
4.1430001 0.91273493 0.62680459 0
4.1480002 0.90725493 0.62710226 0
4.1540003 0.90200943 0.62745941 0
4.1610003 0.89699298 0.62787604 0
4.1680002 0.89195138 0.62829274 0
4.1760001 0.88713163 0.62876892 0
4.1849999 0.88252831 0.62930465 0
4.1950002 0.87813604 0.62989992 0
4.2060003 0.87394941 0.63055474 0
4.2190003 0.8702029 0.63132858 0
3.9430003 1.3919508 0.60850859 0
3.9400003 1.3843478 0.60833538 0
3.9360003 1.3763534 0.60810453 0
3.9330003 1.3687737 0.60793138 0
3.9290004 1.3608063 0.60770047 0
3.9260004 1.3532501 0.60752732 0
3.9230003 1.3457048 0.60735416 0
3.9190001 1.337777 0.60712326 0
3.9160004 1.3302552 0.6069501 0
3.9120002 1.3223546 0.6067192 0
3.9090002 1.3148559 0.60654604 0
3.9050002 1.3069824 0.60631514 0
3.9020002 1.2995074 0.60614198 0
3.8990002 1.2920433 0.60596883 0
3.8950002 1.2842093 0.60573792 0
3.8920002 1.2767686 0.60556477 0
3.8890002 1.2693387 0.60539162 0
3.8850002 1.2615445 0.60516071 0
3.8820002 1.2541381 0.60498756 0
3.8780003 1.2463708 0.60475665 0
3.8750002 1.2389878 0.6045835 0
3.8720002 1.2316157 0.60441029 0
3.8680003 1.2238882 0.60417944 0
3.8650002 1.2165395 0.60400629 0
3.8620002 1.2092016 0.60383308 0
3.8580003 1.2015138 0.60360223 0
3.8550003 1.1941993 0.60342908 0
3.8520002 1.1868957 0.60325587 0
3.8490002 1.1796029 0.60308272 0
3.8450003 1.1719674 0.60285187 0
3.8420002 1.164698 0.60267866 0
3.8390002 1.1574395 0.60250551 0
3.8350003 1.1498437 0.6022746 0
3.8320003 1.1426086 0.60210145 0
3.8290002 1.1353843 0.60192829 0
3.8260002 1.1281708 0.60175514 0
3.8220003 1.1206274 0.60152423 0
3.8190002 1.1134374 0.60135108 0
3.8160002 1.1062583 0.60117793 0
3.8130002 1.0990899 0.60100472 0
3.8090003 1.0915987 0.60077381 0
3.8060002 1.0844538 0.60060066 0
3.8030002 1.0773197 0.60042751 0
3.8000002 1.0701965 0.60025436 0
3.7970002 1.063084 0.60008121 0
3.7930002 1.0556579 0.5998503 0
3.7900002 1.0485688 0.59967715 0
3.7870002 1.0414907 0.59950399 0
3.7840002 1.0344234 0.59933078 0
3.7900002 1.0302241 0.59967715 0
3.7980003 1.0266346 0.6001389 0
3.8060002 1.0230161 0.60060066 0
3.8150003 1.0196809 0.60112017 0
3.9590003 1.0581976 0.6094321 0
3.9550002 1.050544 0.60920125 0
3.9520004 1.0432116 0.6090281 0
3.9490004 1.03589 0.60885489 0
3.9480002 1.0291852 0.60879719 0
3.9470003 1.0224839 0.6087395 0
3.9470003 1.0160859 0.6087395 0
3.9480002 1.0099854 0.60879719 0
3.9500003 1.0041771 0.60891265 0
3.9520004 0.99836171 0.6090281 0
3.9550002 0.99283123 0.60920125 0
3.9590003 0.9875803 0.6094321 0
3.9640002 0.98260355 0.60972071 0
3.9710002 0.97818244 0.61012477 0
3.9790003 0.97402108 0.61058658 0
3.9920003 0.97124684 0.61133695 0
4.1340003 0.95757759 0.61953342 0
4.1330004 0.95057529 0.61947572 0
4.1330004 0.94384158 0.61947572 0
4.1340003 0.93737125 0.61953342 0
4.1370001 0.93142056 0.61970663 0
4.1400003 0.92545903 0.61987978 0
4.1430001 0.91948652 0.62005293 0
4.1470003 0.91375947 0.62028384 0
4.152 0.90827233 0.62057245 0
4.158 0.90301955 0.62091875 0
4.164 0.89774531 0.62126511 0
4.1700001 0.89244926 0.62161148 0
4.178 0.88762581 0.62207317 0
4.1860003 0.8827737 0.62253499 0
4.1950002 0.87813604 0.6230545 0
4.2049999 0.87370765 0.62363172 0
4.2160001 0.86948317 0.62426662 0
4.23 0.8659333 0.62507474 0
3.9430003 1.3919508 0.60211766 0
3.9400003 1.3843478 0.60194993 0
3.9360003 1.3763534 0.60172629 0
3.9330003 1.3687737 0.60155851 0
3.9290004 1.3608063 0.60133481 0
3.9260004 1.3532501 0.60116708 0
3.9230003 1.3457048 0.60099936 0
3.9190001 1.337777 0.60077566 0
3.9160004 1.3302552 0.60060787 0
3.9120002 1.3223546 0.60038424 0
3.9090002 1.3148559 0.60021645 0
3.9050002 1.3069824 0.59999281 0
3.9020002 1.2995074 0.59982502 0
3.8990002 1.2920433 0.5996573 0
3.8950002 1.2842093 0.5994336 0
3.8920002 1.2767686 0.59926587 0
3.8890002 1.2693387 0.59909809 0
3.8850002 1.2615445 0.59887445 0
3.8820002 1.2541381 0.59870666 0
3.8780003 1.2463708 0.59848303 0
3.8750002 1.2389878 0.59831524 0
3.8720002 1.2316157 0.59814751 0
3.8680003 1.2238882 0.59792382 0
3.8650002 1.2165395 0.59775609 0
3.8620002 1.2092016 0.5975883 0
3.8580003 1.2015138 0.59736466 0
3.8550003 1.1941993 0.59719688 0
3.8520002 1.1868957 0.59702915 0
3.8490002 1.1796029 0.59686136 0
3.8450003 1.1719674 0.59663773 0
3.8420002 1.164698 0.59646994 0
3.8390002 1.1574395 0.59630221 0
3.8350003 1.1498437 0.59607852 0
3.8320003 1.1426086 0.59591079 0
3.8290002 1.1353843 0.595743 0
3.8260002 1.1281708 0.59557527 0
3.8220003 1.1206274 0.59535158 0
3.8190002 1.1134374 0.59518385 0
3.8160002 1.1062583 0.59501612 0
3.8130002 1.0990899 0.59484833 0
3.8090003 1.0915987 0.59462464 0
3.8060002 1.0844538 0.59445691 0
3.8030002 1.0773197 0.59428918 0
3.8000002 1.0701965 0.5941214 0
3.7970002 1.063084 0.59395361 0
3.7930002 1.0556579 0.59372997 0
3.7900002 1.0485688 0.59356225 0
3.7870002 1.0414907 0.59339446 0
3.7840002 1.0344234 0.59322667 0
3.7900002 1.0302241 0.59356225 0
3.7980003 1.0266346 0.59400958 0
3.8060002 1.0230161 0.59445691 0
3.8150003 1.0196809 0.59496015 0
3.9590003 1.0581976 0.60301238 0
3.9550002 1.050544 0.60278869 0
3.9520004 1.0432116 0.60262096 0
3.9490004 1.03589 0.60245317 0
3.9480002 1.0291852 0.60239726 0
3.9470003 1.0224839 0.60234135 0
3.9470003 1.0160859 0.60234135 0
3.9480002 1.0099854 0.60239726 0
3.9500003 1.0041771 0.60250914 0
3.9520004 0.99836171 0.60262096 0
3.9550002 0.99283123 0.60278869 0
3.9590003 0.9875803 0.60301238 0
3.9640002 0.98260355 0.60329199 0
3.9710002 0.97818244 0.60368335 0
3.9790003 0.97402108 0.60413074 0
3.9920003 0.97124684 0.60485768 0
4.1440001 0.95351171 0.61335719 0
4.1430001 0.94649327 0.61330128 0
4.1430001 0.93974149 0.61330128 0
4.1440001 0.93325138 0.61335719 0
4.1460004 0.92701751 0.61346906 0
4.1490002 0.92103416 0.61363679 0
4.1530004 0.91529632 0.61386049 0
4.1570001 0.90954393 0.61408412 0
4.1620002 0.90402967 0.61436373 0
4.1680002 0.89874816 0.61469924 0
4.1740003 0.89344496 0.61503476 0
4.1800003 0.88812017 0.61537027 0
4.1880002 0.8832643 0.61581761 0
4.1960001 0.87837958 0.61626494 0
4.2049999 0.87370765 0.61676824 0
4.2150002 0.86924332 0.61732739 0
4.2260003 0.86498094 0.61794245 0
4.2400002 0.86138767 0.61872536 0
3.9430003 1.3919508 0.59572679 0
3.9400003 1.3843478 0.59556448 0
3.9360003 1.3763534 0.595348 0
3.9330003 1.3687737 0.59518564 0
3.9290004 1.3608063 0.59496921 0
3.9260004 1.3532501 0.59480685 0
3.9230003 1.3457048 0.59464455 0
3.9190001 1.337777 0.59442806 0
3.9160004 1.3302552 0.5942657 0
3.9120002 1.3223546 0.59404922 0
3.9090002 1.3148559 0.59388691 0
3.9050002 1.3069824 0.59367043 0
3.9020002 1.2995074 0.59350812 0
3.8990002 1.2920433 0.59334576 0
3.8950002 1.2842093 0.59312928 0
3.8920002 1.2767686 0.59296697 0
3.8890002 1.2693387 0.59280461 0
3.8850002 1.2615445 0.59258819 0
3.8820002 1.2541381 0.59242582 0
3.8780003 1.2463708 0.59220934 0
3.8750002 1.2389878 0.59204704 0
3.8720002 1.2316157 0.59188467 0
3.8680003 1.2238882 0.59166825 0
3.8650002 1.2165395 0.59150589 0
3.8620002 1.2092016 0.59134352 0
3.8580003 1.2015138 0.5911271 0
3.8550003 1.1941993 0.59096473 0
3.8520002 1.1868957 0.59080243 0
3.8490002 1.1796029 0.59064007 0
3.8450003 1.1719674 0.59042358 0
3.8420002 1.164698 0.59026122 0
3.8390002 1.1574395 0.59009892 0
3.8350003 1.1498437 0.58988243 0
3.8320003 1.1426086 0.58972013 0
3.8290002 1.1353843 0.58955777 0
3.8260002 1.1281708 0.5893954 0
3.8220003 1.1206274 0.58917898 0
3.8190002 1.1134374 0.58901662 0
3.8160002 1.1062583 0.58885431 0
3.8130002 1.0990899 0.58869195 0
3.8090003 1.0915987 0.58847547 0
3.8060002 1.0844538 0.58831316 0
3.8030002 1.0773197 0.5881508 0
3.8000002 1.0701965 0.58798844 0
3.7970002 1.063084 0.58782613 0
3.7930002 1.0556579 0.58760965 0
3.7900002 1.0485688 0.58744729 0
3.7870002 1.0414907 0.58728498 0
3.7840002 1.0344234 0.58712262 0
3.7900002 1.0302241 0.58744729 0
3.7980003 1.0266346 0.58788025 0
3.8060002 1.0230161 0.58831316 0
3.8150003 1.0196809 0.58880019 0
3.9590003 1.0581976 0.59659261 0
3.9550002 1.050544 0.59637618 0
3.9520004 1.0432116 0.59621382 0
3.9490004 1.03589 0.59605145 0
3.9480002 1.0291852 0.59599733 0
3.9470003 1.0224839 0.59594321 0
3.9470003 1.0160859 0.59594321 0
3.9480002 1.0099854 0.59599733 0
3.9500003 1.0041771 0.59610558 0
3.9520004 0.99836171 0.59621382 0
3.9550002 0.99283123 0.59637618 0
3.9590003 0.9875803 0.59659261 0
3.9640002 0.98260355 0.59686321 0
3.9710002 0.97818244 0.597242 0
3.9790003 0.97402108 0.59767491 0
3.9920003 0.97124684 0.59837842 0
4.1540003 0.9494099 0.60714489 0
4.152 0.94211167 0.60703665 0
4.1530004 0.93560547 0.60709083 0
4.1540003 0.92909551 0.60714489 0
4.1560001 0.92283982 0.60725313 0
4.1589999 0.9168331 0.60741544 0
4.1630001 0.91106993 0.60763192 0
4.1670003 0.90529233 0.60784841 0
4.1719999 0.89975101 0.60811895 0
4.177 0.89419174 0.6083895 0
4.184 0.8891086 0.60876834 0
4.1900001 0.88375485 0.60909301 0
4.198 0.87886661 0.60952592 0
4.2060003 0.87394941 0.60995883 0
4.2150002 0.86924332 0.61044586 0
4.2250004 0.86474276 0.61098701 0
4.2360001 0.86044252 0.61158228 0
4.25 0.85680604 0.61233985 0
4.2550001 0.85102487 0.61261046 0
4.2620001 0.84568733 0.61298925 0
3.9430003 1.3919508 0.58933592 0
3.9400003 1.3843478 0.58917898 0
3.9360003 1.3763534 0.58896971 0
3.9330003 1.3687737 0.58881283 0
3.9290004 1.3608063 0.58860356 0
3.9260004 1.3532501 0.58844662 0
3.9230003 1.3457048 0.58828968 0
3.9190001 1.337777 0.58808047 0
3.9160004 1.3302552 0.58792353 0
3.9120002 1.3223546 0.58771425 0
3.9090002 1.3148559 0.58755732 0
3.9050002 1.3069824 0.5873481 0
3.9020002 1.2995074 0.58719116 0
3.8990002 1.2920433 0.58703423 0
3.8950002 1.2842093 0.58682501 0
3.8920002 1.2767686 0.58666807 0
3.8890002 1.2693387 0.58651114 0
3.8850002 1.2615445 0.58630192 0
3.8820002 1.2541381 0.58614492 0
3.8780003 1.2463708 0.58593571 0
3.8750002 1.2389878 0.58577877 0
3.8720002 1.2316157 0.58562183 0
3.8680003 1.2238882 0.58541262 0
3.8650002 1.2165395 0.58525568 0
3.8620002 1.2092016 0.58509874 0
3.8580003 1.2015138 0.58488953 0
3.8550003 1.1941993 0.58473259 0
3.8520002 1.1868957 0.58457565 0
3.8490002 1.1796029 0.58441871 0
3.8450003 1.1719674 0.58420944 0
3.8420002 1.164698 0.58405256 0
3.8390002 1.1574395 0.58389562 0
3.8350003 1.1498437 0.58368635 0
3.8320003 1.1426086 0.58352947 0
3.8290002 1.1353843 0.58337247 0
3.8260002 1.1281708 0.58321559 0
3.8220003 1.1206274 0.58300632 0
3.8190002 1.1134374 0.58284938 0
3.8160002 1.1062583 0.5826925 0
3.8130002 1.0990899 0.58253551 0
3.8090003 1.0915987 0.58232629 0
3.8060002 1.0844538 0.58216935 0
3.8030002 1.0773197 0.58201241 0
3.8000002 1.0701965 0.58185554 0
3.7970002 1.063084 0.58169854 0
3.7930002 1.0556579 0.58148932 0
3.7900002 1.0485688 0.58133239 0
3.7870002 1.0414907 0.58117545 0
3.7840002 1.0344234 0.58101857 0
3.7900002 1.0302241 0.58133239 0
3.7980003 1.0266346 0.58175087 0
3.8060002 1.0230161 0.58216935 0
3.8150003 1.0196809 0.58264017 0
3.9590003 1.0581976 0.59017289 0
3.9550002 1.050544 0.58996361 0
3.9520004 1.0432116 0.58980668 0
3.9490004 1.03589 0.5896498 0
3.9480002 1.0291852 0.58959746 0
3.9470003 1.0224839 0.58954513 0
3.9470003 1.0160859 0.58954513 0
3.9480002 1.0099854 0.58959746 0
3.9500003 1.0041771 0.58970207 0
3.9520004 0.99836171 0.58980668 0
3.9550002 0.99283123 0.58996361 0
3.9590003 0.9875803 0.59017289 0
3.9640002 0.98260355 0.59043443 0
3.9710002 0.97818244 0.59080058 0
3.9790003 0.97402108 0.59121907 0
3.9920003 0.97124684 0.5918991 0
4.164 0.94527197 0.60089648 0
4.1620002 0.93795931 0.60079187 0
4.1630001 0.93143314 0.6008442 0
4.164 0.92490339 0.60089648 0
4.1660004 0.91862613 0.60100114 0
4.1690001 0.91259599 0.60115808 0
4.1730003 0.9068076 0.60136729 0
4.177 0.90100479 0.60157657 0
4.1820002 0.89543635 0.60183811 0
4.1870003 0.88985002 0.60209966 0
4.1940002 0.88473618 0.60246581 0
4.2000003 0.87935358 0.60277969 0
4.2080002 0.8744328 0.60319817 0
4.2160001 0.86948317 0.60361665 0
4.2250004 0.86474276 0.60408747 0
4.2350001 0.86020625 0.60461056 0
4.2460003 0.85586804 0.60518599 0
4.25 0.84986138 0.6053952 0
4.256 0.844302 0.60570908 0
4.2639999 0.83917916 0.60612756 0
3.9430003 1.3919508 0.58294499 0
3.9400003 1.3843478 0.58279347 0
3.9360003 1.3763534 0.58259147 0
3.9330003 1.3687737 0.58243996 0
3.9290004 1.3608063 0.58223796 0
3.9260004 1.3532501 0.58208638 0
3.9230003 1.3457048 0.58193487 0
3.9190001 1.337777 0.58173287 0
3.9160004 1.3302552 0.58158135 0
3.9120002 1.3223546 0.58137929 0
3.9090002 1.3148559 0.58122778 0
3.9050002 1.3069824 0.58102572 0
3.9020002 1.2995074 0.5808742 0
3.8990002 1.2920433 0.58072269 0
3.8950002 1.2842093 0.58052069 0
3.8920002 1.2767686 0.58036917 0
3.8890002 1.2693387 0.58021766 0
3.8850002 1.2615445 0.5800156 0
3.8820002 1.2541381 0.57986408 0
3.8780003 1.2463708 0.57966208 0
3.8750002 1.2389878 0.57951057 0
3.8720002 1.2316157 0.57935905 0
3.8680003 1.2238882 0.57915699 0
3.8650002 1.2165395 0.57900548 0
3.8620002 1.2092016 0.57885396 0
3.8580003 1.2015138 0.57865196 0
3.8550003 1.1941993 0.57850039 0
3.8520002 1.1868957 0.57834888 0
3.8490002 1.1796029 0.57819736 0
3.8450003 1.1719674 0.57799536 0
3.8420002 1.164698 0.57784384 0
3.8390002 1.1574395 0.57769233 0
3.8350003 1.1498437 0.57749033 0
3.8320003 1.1426086 0.57733876 0
3.8290002 1.1353843 0.57718724 0
3.8260002 1.1281708 0.57703573 0
3.8220003 1.1206274 0.57683372 0
3.8190002 1.1134374 0.57668221 0
3.8160002 1.1062583 0.57653069 0
3.8130002 1.0990899 0.57637912 0
3.8090003 1.0915987 0.57617712 0
3.8060002 1.0844538 0.57602561 0
3.8030002 1.0773197 0.57587409 0
3.8000002 1.0701965 0.57572258 0
3.7970002 1.063084 0.57557106 0
3.7930002 1.0556579 0.575369 0
3.7900002 1.0485688 0.57521749 0
3.7870002 1.0414907 0.57506597 0
3.7840002 1.0344234 0.57491446 0
3.7900002 1.0302241 0.57521749 0
3.7980003 1.0266346 0.57562155 0
3.8060002 1.0230161 0.57602561 0
3.8150003 1.0196809 0.57648015 0
3.9590003 1.0581976 0.58375311 0
3.9550002 1.050544 0.58355105 0
3.9520004 1.0432116 0.58339959 0
3.9490004 1.03589 0.58324802 0
3.9480002 1.0291852 0.58319753 0
3.9470003 1.0224839 0.58314705 0
3.9470003 1.0160859 0.58314705 0
3.9480002 1.0099854 0.58319753 0
3.9500003 1.0041771 0.58329856 0
3.9520004 0.99836171 0.58339959 0
3.9550002 0.99283123 0.58355105 0
3.9590003 0.9875803 0.58375311 0
3.9640002 0.98260355 0.58400565 0
3.9710002 0.97818244 0.58435917 0
3.9790003 0.97402108 0.58476323 0
3.9920003 0.97124684 0.58541983 0
4.1740003 0.94109797 0.594612 0
4.1719999 0.9337709 0.59451103 0
4.1730003 0.92722493 0.59456152 0
4.1740003 0.92067528 0.594612 0
4.1760001 0.91437632 0.59471303 0
4.1790004 0.90832281 0.59486461 0
4.1830001 0.90250915 0.59506661 0
4.1870003 0.89668101 0.59526861 0
4.1920004 0.89108562 0.59552115 0
4.197 0.88547212 0.5957737 0
4.204 0.8803277 0.59612721 0
4.21 0.87491626 0.5964303 0
4.2179999 0.86996299 0.5968343 0
4.2260003 0.86498094 0.59723836 0
4.2350001 0.86020625 0.59769297 0
4.243 0.85516453 0.59809697 0
4.2470002 0.84916323 0.59829903 0
4.2530003 0.84360933 0.59860206 0
4.2590003 0.8380338 0.59890509 0
4.2680001 0.83311844 0.59935963 0
3.9430003 1.3919508 0.57655412 0
3.9400003 1.3843478 0.57640803 0
3.9360003 1.3763534 0.57621318 0
3.9330003 1.3687737 0.57606709 0
3.9290004 1.3608063 0.5758723 0
3.9260004 1.3532501 0.57572615 0
3.9230003 1.3457048 0.57558006 0
3.9190001 1.337777 0.57538521 0
3.9160004 1.3302552 0.57523912 0
3.9120002 1.3223546 0.57504433 0
3.9090002 1.3148559 0.57489824 0
3.9050002 1.3069824 0.5747034 0
3.9020002 1.2995074 0.5745573 0
3.8990002 1.2920433 0.57441115 0
3.8950002 1.2842093 0.57421637 0
3.8920002 1.2767686 0.57407027 0
3.8890002 1.2693387 0.57392418 0
3.8850002 1.2615445 0.57372934 0
3.8820002 1.2541381 0.57358325 0
3.8780003 1.2463708 0.57338846 0
3.8750002 1.2389878 0.57324231 0
3.8720002 1.2316157 0.57309622 0
3.8680003 1.2238882 0.57290137 0
3.8650002 1.2165395 0.57275534 0
3.8620002 1.2092016 0.57260919 0
3.8580003 1.2015138 0.5724144 0
3.8550003 1.1941993 0.57226825 0
3.8520002 1.1868957 0.57212216 0
3.8490002 1.1796029 0.57197607 0
3.8450003 1.1719674 0.57178128 0
3.8420002 1.164698 0.57163513 0
3.8390002 1.1574395 0.57148904 0
3.8350003 1.1498437 0.57129419 0
3.8320003 1.1426086 0.5711481 0
3.8290002 1.1353843 0.57100201 0
3.8260002 1.1281708 0.57085586 0
3.8220003 1.1206274 0.57066107 0
3.8190002 1.1134374 0.57051498 0
3.8160002 1.1062583 0.57036889 0
3.8130002 1.0990899 0.57022274 0
3.8090003 1.0915987 0.57002795 0
3.8060002 1.0844538 0.5698818 0
3.8030002 1.0773197 0.56973571 0
3.8000002 1.0701965 0.56958961 0
3.7970002 1.063084 0.56944346 0
3.7930002 1.0556579 0.56924868 0
3.7900002 1.0485688 0.56910259 0
3.7870002 1.0414907 0.56895649 0
3.7840002 1.0344234 0.56881034 0
3.7900002 1.0302241 0.56910259 0
3.7980003 1.0266346 0.56949222 0
3.8060002 1.0230161 0.5698818 0
3.8150003 1.0196809 0.57032013 0
3.9590003 1.0581976 0.57733333 0
3.9550002 1.050544 0.57713854 0
3.9520004 1.0432116 0.57699245 0
3.9490004 1.03589 0.57684636 0
3.9480002 1.0291852 0.5767976 0
3.9470003 1.0224839 0.57674891 0
3.9470003 1.0160859 0.57674891 0
3.9480002 1.0099854 0.5767976 0
3.9500003 1.0041771 0.57689506 0
3.9520004 0.99836171 0.57699245 0
3.9550002 0.99283123 0.57713854 0
3.9590003 0.9875803 0.57733333 0
3.9640002 0.98260355 0.57757688 0
3.9710002 0.97818244 0.57791781 0
3.9790003 0.97402108 0.57830739 0
3.9920003 0.97124684 0.57894057 0
4.184 0.93688786 0.58829153 0
4.1820002 0.9295463 0.58819407 0
4.1830001 0.92298055 0.58824277 0
4.1830001 0.91615671 0.58824277 0
4.1860003 0.91009057 0.58838892 0
4.1890001 0.90401345 0.58853501 0
4.1930003 0.89817452 0.5887298 0
4.197 0.89232117 0.58892465 0
4.2020001 0.88669872 0.58916813 0
4.2070003 0.88105822 0.58941162 0
4.2140002 0.8758831 0.58975255 0
4.2200003 0.87044281 0.5900448 0
4.2280002 0.86545706 0.59043443 0
4.2360001 0.86044252 0.59082401 0
4.2400002 0.85446107 0.59101886 0
4.2450004 0.8486979 0.59126234 0
4.25 0.84291667 0.59150589 0
4.257 0.83757561 0.59184682 0
4.2650003 0.83243656 0.5922364 0
3.9430003 1.3919508 0.57016325 0
3.9400003 1.3843478 0.57002252 0
3.9360003 1.3763534 0.56983495 0
3.9330003 1.3687737 0.56969422 0
3.9290004 1.3608063 0.56950665 0
3.9260004 1.3532501 0.56936598 0
3.9230003 1.3457048 0.56922525 0
3.9190001 1.337777 0.56903768 0
3.9160004 1.3302552 0.56889695 0
3.9120002 1.3223546 0.56870937 0
3.9090002 1.3148559 0.56856865 0
3.9050002 1.3069824 0.56838107 0
3.9020002 1.2995074 0.56824034 0
3.8990002 1.2920433 0.56809962 0
3.8950002 1.2842093 0.5679121 0
3.8920002 1.2767686 0.56777138 0
3.8890002 1.2693387 0.56763065 0
3.8850002 1.2615445 0.56744307 0
3.8820002 1.2541381 0.56730235 0
3.8780003 1.2463708 0.56711477 0
3.8750002 1.2389878 0.5669741 0
3.8720002 1.2316157 0.56683338 0
3.8680003 1.2238882 0.5666458 0
3.8650002 1.2165395 0.56650507 0
3.8620002 1.2092016 0.56636441 0
3.8580003 1.2015138 0.56617677 0
3.8550003 1.1941993 0.56603611 0
3.8520002 1.1868957 0.56589544 0
3.8490002 1.1796029 0.56575471 0
3.8450003 1.1719674 0.56556714 0
3.8420002 1.164698 0.56542641 0
3.8390002 1.1574395 0.56528568 0
3.8350003 1.1498437 0.56509811 0
3.8320003 1.1426086 0.56495744 0
3.8290002 1.1353843 0.56481671 0
3.8260002 1.1281708 0.56467605 0
3.8220003 1.1206274 0.56448841 0
3.8190002 1.1134374 0.56434774 0
3.8160002 1.1062583 0.56420708 0
3.8130002 1.0990899 0.56406635 0
3.8090003 1.0915987 0.56387877 0
3.8060002 1.0844538 0.56373805 0
3.8030002 1.0773197 0.56359738 0
3.8000002 1.0701965 0.56345665 0
3.7970002 1.063084 0.56331599 0
3.7930002 1.0556579 0.56312835 0
3.7900002 1.0485688 0.56298769 0
3.7870002 1.0414907 0.56284696 0
3.7840002 1.0344234 0.56270629 0
3.7900002 1.0302241 0.56298769 0
3.7980003 1.0266346 0.56336284 0
3.8060002 1.0230161 0.56373805 0
3.8150003 1.0196809 0.56416017 0
3.9590003 1.0581976 0.57091361 0
3.9550002 1.050544 0.57072604 0
3.9520004 1.0432116 0.57058531 0
3.9490004 1.03589 0.57044464 0
3.9480002 1.0291852 0.57039773 0
3.9470003 1.0224839 0.57035083 0
3.9470003 1.0160859 0.57035083 0
3.9480002 1.0099854 0.57039773 0
3.9500003 1.0041771 0.57049149 0
3.9520004 0.99836171 0.57058531 0
3.9550002 0.99283123 0.57072604 0
3.9590003 0.9875803 0.57091361 0
3.9640002 0.98260355 0.5711481 0
3.9710002 0.97818244 0.5714764 0
3.9790003 0.97402108 0.57185161 0
3.9920003 0.97124684 0.57246125 0
4.1930003 0.92554194 0.58188796 0
4.1930003 0.91870016 0.58188796 0
4.1930003 0.91185826 0.58188796 0
4.1960001 0.90576863 0.58202869 0
4.1990004 0.8996681 0.58216941 0
4.2030001 0.89380395 0.58235693 0
4.2070003 0.88792533 0.58254457 0
4.2120004 0.88227582 0.58277905 0
4.217 0.87660825 0.58301353 0
4.224 0.87140238 0.58334184 0
4.23 0.8659333 0.58362323 0
4.2360001 0.86044252 0.58390462 0
4.2390003 0.85422659 0.58404529 0
4.243 0.84823251 0.58423293 0
4.2490001 0.84268582 0.58451432 0
4.2550001 0.83711743 0.58479571 0
4.263 0.83198196 0.58517092 0
4.2740002 0.82749408 0.5856868 0
3.9430003 1.3919508 0.56377232 0
3.9400003 1.3843478 0.56363702 0
3.9360003 1.3763534 0.56345665 0
3.9330003 1.3687737 0.56332135 0
3.9290004 1.3608063 0.56314099 0
3.9260004 1.3532501 0.56300569 0
3.9230003 1.3457048 0.56287044 0
3.9190001 1.337777 0.56269002 0
3.9160004 1.3302552 0.56255478 0
3.9120002 1.3223546 0.56237435 0
3.9090002 1.3148559 0.56223905 0
3.9050002 1.3069824 0.56205869 0
3.9020002 1.2995074 0.56192344 0
3.8990002 1.2920433 0.56178814 0
3.8950002 1.2842093 0.56160772 0
3.8920002 1.2767686 0.56147248 0
3.8890002 1.2693387 0.56133717 0
3.8850002 1.2615445 0.56115681 0
3.8820002 1.2541381 0.56102151 0
3.8780003 1.2463708 0.56084114 0
3.8750002 1.2389878 0.56070584 0
3.8720002 1.2316157 0.5605706 0
3.8680003 1.2238882 0.56039017 0
3.8650002 1.2165395 0.56025493 0
3.8620002 1.2092016 0.56011963 0
3.8580003 1.2015138 0.55993927 0
3.8550003 1.1941993 0.55980396 0
3.8520002 1.1868957 0.55966866 0
3.8490002 1.1796029 0.55953336 0
3.8450003 1.1719674 0.55935299 0
3.8420002 1.164698 0.55921769 0
3.8390002 1.1574395 0.55908245 0
3.8350003 1.1498437 0.55890203 0
3.8320003 1.1426086 0.55876672 0
3.8290002 1.1353843 0.55863148 0
3.8260002 1.1281708 0.55849618 0
3.8220003 1.1206274 0.55831581 0
3.8190002 1.1134374 0.55818051 0
3.8160002 1.1062583 0.55804527 0
3.8130002 1.0990899 0.55790997 0
3.8090003 1.0915987 0.5577296 0
3.8060002 1.0844538 0.5575943 0
3.8030002 1.0773197 0.557459 0
3.8000002 1.0701965 0.55732369 0
3.7970002 1.063084 0.55718839 0
3.7930002 1.0556579 0.55700803 0
3.7900002 1.0485688 0.55687273 0
3.7870002 1.0414907 0.55673748 0
3.7840002 1.0344234 0.55660218 0
3.7900002 1.0302241 0.55687273 0
3.7980003 1.0266346 0.55723351 0
3.8060002 1.0230161 0.5575943 0
3.8150003 1.0196809 0.55800015 0
3.9590003 1.0581976 0.56449383 0
3.9550002 1.050544 0.56431347 0
3.9520004 1.0432116 0.56417823 0
3.9490004 1.03589 0.56404293 0
3.9480002 1.0291852 0.56399781 0
3.9470003 1.0224839 0.56395268 0
3.9470003 1.0160859 0.56395268 0
3.9480002 1.0099854 0.56399781 0
3.9500003 1.0041771 0.56408799 0
3.9520004 0.99836171 0.56417823 0
3.9550002 0.99283123 0.56431347 0
3.9590003 0.9875803 0.56449383 0
3.9640002 0.98260355 0.56471932 0
3.9710002 0.97818244 0.56503499 0
3.9790003 0.97402108 0.56539577 0
3.9920003 0.97124684 0.56598198 0
4.204 0.92835951 0.57554221 0
4.2030001 0.92124343 0.57549709 0
4.2030001 0.91438359 0.57549709 0
4.204 0.90777445 0.57554221 0
4.2060003 0.90141058 0.57563239 0
4.2090001 0.89528662 0.57576764 0
4.2130003 0.88939726 0.575948 0
4.217 0.88349342 0.57612842 0
4.2220001 0.87781674 0.57635391 0
4.2270002 0.87212217 0.57657933 0
4.2330003 0.8666476 0.57684994 0
4.2350001 0.86020625 0.57694012 0
4.2390003 0.85422659 0.57712054 0
4.243 0.84823251 0.57730091 0
4.2480001 0.84245497 0.57752633 0
4.2540002 0.83688831 0.57779694 0
4.2620001 0.83175474 0.57815766 0
4.2720003 0.82704318 0.57860863 0
3.9430003 1.3919508 0.55738145 0
3.9400003 1.3843478 0.55725157 0
3.9360003 1.3763534 0.55707842 0
3.9330003 1.3687737 0.55694854 0
3.9290004 1.3608063 0.55677533 0
3.9260004 1.3532501 0.55664551 0
3.9230003 1.3457048 0.55651557 0
3.9190001 1.337777 0.55634242 0
3.9160004 1.3302552 0.55621254 0
3.9120002 1.3223546 0.55603939 0
3.9090002 1.3148559 0.55590951 0
3.9050002 1.3069824 0.55573636 0
3.9020002 1.2995074 0.55560648 0
3.8990002 1.2920433 0.55547661 0
3.8950002 1.2842093 0.55530345 0
3.8920002 1.2767686 0.55517358 0
3.8890002 1.2693387 0.5550437 0
3.8850002 1.2615445 0.55487055 0
3.8820002 1.2541381 0.55474067 0
3.8780003 1.2463708 0.55456746 0
3.8750002 1.2389878 0.55443764 0
3.8720002 1.2316157 0.55430776 0
3.8680003 1.2238882 0.55413461 0
3.8650002 1.2165395 0.55400467 0
3.8620002 1.2092016 0.55387485 0
3.8580003 1.2015138 0.55370164 0
3.8550003 1.1941993 0.55357182 0
3.8520002 1.1868957 0.55344194 0
3.8490002 1.1796029 0.55331206 0
3.8450003 1.1719674 0.55313885 0
3.8420002 1.164698 0.55300903 0
3.8390002 1.1574395 0.5528791 0
3.8350003 1.1498437 0.55270594 0
3.8320003 1.1426086 0.55257607 0
3.8290002 1.1353843 0.55244625 0
3.8260002 1.1281708 0.55231631 0
3.8220003 1.1206274 0.55214322 0
3.8190002 1.1134374 0.55201328 0
3.8160002 1.1062583 0.55188346 0
3.8130002 1.0990899 0.55175352 0
3.8090003 1.0915987 0.55158037 0
3.8060002 1.0844538 0.55145049 0
3.8030002 1.0773197 0.55132067 0
3.8000002 1.0701965 0.55119073 0
3.7970002 1.063084 0.55106091 0
3.7930002 1.0556579 0.5508877 0
3.7900002 1.0485688 0.55075783 0
3.7870002 1.0414907 0.55062795 0
3.7840002 1.0344234 0.55049813 0
3.7900002 1.0302241 0.55075783 0
3.7980003 1.0266346 0.55110419 0
3.8060002 1.0230161 0.55145049 0
3.8150003 1.0196809 0.55184013 0
3.9590003 1.0581976 0.55807412 0
3.9550002 1.050544 0.55790091 0
3.9520004 1.0432116 0.55777109 0
3.9490004 1.03589 0.55764121 0
3.9480002 1.0291852 0.55759788 0
3.9470003 1.0224839 0.5575546 0
3.9470003 1.0160859 0.5575546 0
3.9480002 1.0099854 0.55759788 0
3.9500003 1.0041771 0.55768448 0
3.9520004 0.99836171 0.55777109 0
3.9550002 0.99283123 0.55790091 0
3.9590003 0.9875803 0.55807412 0
3.9640002 0.98260355 0.55829054 0
3.9710002 0.97818244 0.55859357 0
3.9790003 0.97402108 0.55893993 0
3.9920003 0.97124684 0.55950272 0
4.2150002 0.92429554 0.56915671 0
4.2130003 0.91690886 0.5690701 0
4.2130003 0.91003096 0.5690701 0
4.2140002 0.90340203 0.56911337 0
4.2160001 0.89701658 0.56919998 0
4.2190003 0.89086914 0.56932986 0
4.223 0.88495445 0.56950301 0
4.2270002 0.87902528 0.56967616 0
4.2309999 0.87308174 0.56984937 0
4.2330003 0.8666476 0.56993592 0
4.2360001 0.86044252 0.5700658 0
4.2390003 0.85422659 0.57019567 0
4.243 0.84823251 0.57036889 0
4.2480001 0.84245497 0.57058531 0
4.2550001 0.83711743 0.57088834 0
4.263 0.83198196 0.5712347 0
4.2730002 0.82726866 0.57166761 0
3.9430003 1.3919508 0.55099058 0
3.9400003 1.3843478 0.55086607 0
3.9360003 1.3763534 0.55070013 0
3.9330003 1.3687737 0.55057567 0
3.9290004 1.3608063 0.55040973 0
3.9260004 1.3532501 0.55028528 0
3.9230003 1.3457048 0.55016077 0
3.9190001 1.337777 0.54999483 0
3.9160004 1.3302552 0.54987037 0
3.9120002 1.3223546 0.54970443 0
3.9090002 1.3148559 0.54957998 0
3.9050002 1.3069824 0.54941404 0
3.9020002 1.2995074 0.54928958 0
3.8990002 1.2920433 0.54916507 0
3.8950002 1.2842093 0.54899913 0
3.8920002 1.2767686 0.54887468 0
3.8890002 1.2693387 0.54875022 0
3.8850002 1.2615445 0.54858428 0
3.8820002 1.2541381 0.54845977 0
3.8780003 1.2463708 0.54829383 0
3.8750002 1.2389878 0.54816937 0
3.8720002 1.2316157 0.54804492 0
3.8680003 1.2238882 0.54787898 0
3.8650002 1.2165395 0.54775453 0
3.8620002 1.2092016 0.54763007 0
3.8580003 1.2015138 0.54746413 0
3.8550003 1.1941993 0.54733962 0
3.8520002 1.1868957 0.54721516 0
3.8490002 1.1796029 0.54709071 0
3.8450003 1.1719674 0.54692477 0
3.8420002 1.164698 0.54680026 0
3.8390002 1.1574395 0.5466758 0
3.8350003 1.1498437 0.54650986 0
3.8320003 1.1426086 0.54638541 0
3.8290002 1.1353843 0.54626095 0
3.8260002 1.1281708 0.5461365 0
3.8220003 1.1206274 0.54597056 0
3.8190002 1.1134374 0.5458461 0
3.8160002 1.1062583 0.54572165 0
3.8130002 1.0990899 0.54559714 0
3.8090003 1.0915987 0.5454312 0
3.8060002 1.0844538 0.54530674 0
3.8030002 1.0773197 0.54518229 0
3.8000002 1.0701965 0.54505783 0
3.7970002 1.063084 0.54493332 0
3.7930002 1.0556579 0.54476738 0
3.7900002 1.0485688 0.54464293 0
3.7870002 1.0414907 0.54451847 0
3.7840002 1.0344234 0.54439402 0
3.7900002 1.0302241 0.54464293 0
3.7980003 1.0266346 0.54497486 0
3.8060002 1.0230161 0.54530674 0
3.8150003 1.0196809 0.54568017 0
3.9590003 1.0581976 0.55165434 0
3.9550002 1.050544 0.5514884 0
3.9520004 1.0432116 0.55136395 0
3.9490004 1.03589 0.55123949 0
3.9480002 1.0291852 0.55119801 0
3.9470003 1.0224839 0.55115652 0
3.9470003 1.0160859 0.55115652 0
3.9480002 1.0099854 0.55119801 0
3.9500003 1.0041771 0.55128098 0
3.9520004 0.99836171 0.55136395 0
3.9550002 0.99283123 0.5514884 0
3.9590003 0.9875803 0.55165434 0
3.9640002 0.98260355 0.55186176 0
3.9710002 0.97818244 0.55215222 0
3.9790003 0.97402108 0.5524841 0
3.9920003 0.97124684 0.55302346 0
4.2250004 0.9199394 0.56269002 0
4.223 0.91253829 0.56260705 0
4.223 0.90564233 0.56260705 0
4.224 0.89899343 0.56264853 0
4.2260003 0.89258641 0.5627315 0
4.2290001 0.88641554 0.56285602 0
4.2309999 0.87999213 0.56293893 0
4.2320004 0.87332171 0.56298047 0
4.2340002 0.86688566 0.56306344 0
4.237 0.86067873 0.5631879 0
4.2400002 0.85446107 0.56331235 0
4.244 0.8484652 0.56347829 0
4.25 0.84291667 0.56372726 0
4.256 0.83734655 0.56397617 0
4.2639999 0.83220929 0.56430805 0
4.2750001 0.82771963 0.56476444 0
3.9430003 1.3919508 0.54459965 0
3.9400003 1.3843478 0.54448062 0
3.9360003 1.3763534 0.54432189 0
3.9330003 1.3687737 0.5442028 0
3.9290004 1.3608063 0.54404408 0
3.9260004 1.3532501 0.54392505 0
3.9230003 1.3457048 0.54380596 0
3.9190001 1.337777 0.54364723 0
3.9160004 1.3302552 0.5435282 0
3.9120002 1.3223546 0.54336941 0
3.9090002 1.3148559 0.54325038 0
3.9050002 1.3069824 0.54309165 0
3.9020002 1.2995074 0.54297262 0
3.8990002 1.2920433 0.54285359 0
3.8950002 1.2842093 0.54269481 0
3.8920002 1.2767686 0.54257578 0
3.8890002 1.2693387 0.54245675 0
3.8850002 1.2615445 0.54229796 0
3.8820002 1.2541381 0.54217893 0
3.8780003 1.2463708 0.5420202 0
3.8750002 1.2389878 0.54190117 0
3.8720002 1.2316157 0.54178208 0
3.8680003 1.2238882 0.54162335 0
3.8650002 1.2165395 0.54150432 0
3.8620002 1.2092016 0.54138529 0
3.8580003 1.2015138 0.54122651 0
3.8550003 1.1941993 0.54110748 0
3.8520002 1.1868957 0.54098845 0
3.8490002 1.1796029 0.54086936 0
3.8450003 1.1719674 0.54071063 0
3.8420002 1.164698 0.5405916 0
3.8390002 1.1574395 0.54047251 0
3.8350003 1.1498437 0.54031384 0
3.8320003 1.1426086 0.54019475 0
3.8290002 1.1353843 0.54007572 0
3.8260002 1.1281708 0.53995663 0
3.8220003 1.1206274 0.5397979 0
3.8190002 1.1134374 0.53967887 0
3.8160002 1.1062583 0.53955984 0
3.8130002 1.0990899 0.53944075 0
3.8090003 1.0915987 0.53928202 0
3.8060002 1.0844538 0.53916299 0
3.8030002 1.0773197 0.5390439 0
3.8000002 1.0701965 0.53892487 0
3.7970002 1.063084 0.53880584 0
3.7930002 1.0556579 0.53864706 0
3.7900002 1.0485688 0.53852803 0
3.7870002 1.0414907 0.53840899 0
3.7840002 1.0344234 0.5382899 0
3.7900002 1.0302241 0.53852803 0
3.7980003 1.0266346 0.53884554 0
3.8060002 1.0230161 0.53916299 0
3.8150003 1.0196809 0.53952014 0
3.9590003 1.0581976 0.54523456 0
3.9550002 1.050544 0.54507583 0
3.9520004 1.0432116 0.5449568 0
3.9490004 1.03589 0.54483777 0
3.9480002 1.0291852 0.54479808 0
3.9470003 1.0224839 0.54475838 0
3.9470003 1.0160859 0.54475838 0
3.9480002 1.0099854 0.54479808 0
3.9500003 1.0041771 0.54487741 0
3.9520004 0.99836171 0.5449568 0
3.9550002 0.99283123 0.54507583 0
3.9590003 0.9875803 0.54523456 0
3.9640002 0.98260355 0.54543304 0
3.9710002 0.97818244 0.5457108 0
3.9790003 0.97402108 0.54602826 0
3.9920003 0.97124684 0.54654413 0
4.2360001 0.91579777 0.55622697 0
4.2340002 0.90838051 0.55614763 0
4.2330003 0.90121758 0.55610794 0
4.2330003 0.89430356 0.55610794 0
4.2330003 0.8873896 0.55610794 0
4.2330003 0.88047558 0.55610794 0
4.2340002 0.87380153 0.55614763 0
4.2360001 0.8673619 0.55622697 0
4.2390003 0.8611514 0.55634606 0
4.2420001 0.85493004 0.55646509 0
4.2460003 0.8489306 0.55662382 0
4.2520003 0.84337848 0.55686194 0
4.2580004 0.83780473 0.55710006 0
4.2670002 0.83289111 0.55745721 0
4.2780004 0.82839602 0.55789375 0
3.9430003 1.3919508 0.53820878 0
3.9400003 1.3843478 0.53809512 0
3.9360003 1.3763534 0.5379436 0
3.9330003 1.3687737 0.53783 0
3.9290004 1.3608063 0.53767848 0
3.9260004 1.3532501 0.53756481 0
3.9230003 1.3457048 0.53745115 0
3.9190001 1.337777 0.53729963 0
3.9160004 1.3302552 0.53718603 0
3.9120002 1.3223546 0.53703445 0
3.9090002 1.3148559 0.53692085 0
3.9050002 1.3069824 0.53676933 0
3.9020002 1.2995074 0.53665566 0
3.8990002 1.2920433 0.53654206 0
3.8950002 1.2842093 0.53639054 0
3.8920002 1.2767686 0.53627688 0
3.8890002 1.2693387 0.53616321 0
3.8850002 1.2615445 0.5360117 0
3.8820002 1.2541381 0.53589809 0
3.8780003 1.2463708 0.53574657 0
3.8750002 1.2389878 0.53563291 0
3.8720002 1.2316157 0.53551924 0
3.8680003 1.2238882 0.53536773 0
3.8650002 1.2165395 0.53525412 0
3.8620002 1.2092016 0.53514051 0
3.8580003 1.2015138 0.53498894 0
3.8550003 1.1941993 0.53487533 0
3.8520002 1.1868957 0.53476167 0
3.8490002 1.1796029 0.53464806 0
3.8450003 1.1719674 0.53449655 0
3.8420002 1.164698 0.53438288 0
3.8390002 1.1574395 0.53426921 0
3.8350003 1.1498437 0.5341177 0
3.8320003 1.1426086 0.53400409 0
3.8290002 1.1353843 0.53389043 0
3.8260002 1.1281708 0.53377676 0
3.8220003 1.1206274 0.5336253 0
3.8190002 1.1134374 0.53351164 0
3.8160002 1.1062583 0.53339803 0
3.8130002 1.0990899 0.53328437 0
3.8090003 1.0915987 0.53313285 0
3.8060002 1.0844538 0.53301919 0
3.8030002 1.0773197 0.53290558 0
3.8000002 1.0701965 0.53279191 0
3.7970002 1.063084 0.53267825 0
3.7930002 1.0556579 0.53252673 0
3.7900002 1.0485688 0.53241313 0
3.7870002 1.0414907 0.53229946 0
3.7840002 1.0344234 0.53218585 0
3.7900002 1.0302241 0.53241313 0
3.7980003 1.0266346 0.53271616 0
3.8060002 1.0230161 0.53301919 0
3.8150003 1.0196809 0.53336012 0
3.9590003 1.0581976 0.53881484 0
3.9550002 1.050544 0.53866333 0
3.9520004 1.0432116 0.53854966 0
3.9490004 1.03589 0.53843606 0
3.9480002 1.0291852 0.53839815 0
3.9470003 1.0224839 0.5383603 0
3.9470003 1.0160859 0.5383603 0
3.9480002 1.0099854 0.53839815 0
3.9500003 1.0041771 0.5384739 0
3.9520004 0.99836171 0.53854966 0
3.9550002 0.99283123 0.53866333 0
3.9590003 0.9875803 0.53881484 0
3.9640002 0.98260355 0.53900421 0
3.9710002 0.97818244 0.53926939 0
3.9790003 0.97402108 0.53957242 0
3.9920003 0.97124684 0.54006487 0
4.243 0.91755283 0.54957277 0
4.2390003 0.90962517 0.54942125 0
4.237 0.902206 0.54934549 0
4.2350001 0.89479429 0.54926968 0
4.2350001 0.88787663 0.54926968 0
4.2360001 0.88120079 0.54930758 0
4.237 0.8745212 0.54934549 0
4.2390003 0.86807621 0.54942125 0
4.2410002 0.861624 0.54949701 0
4.2450004 0.85563356 0.54964852 0
4.2490001 0.84962869 0.54980004 0
4.2550001 0.84407115 0.55002731 0
4.2620001 0.83872104 0.55029249 0
4.2710004 0.83380026 0.55063343 0
3.9430003 1.3919508 0.53181785 0
3.9400003 1.3843478 0.53170967 0
3.9360003 1.3763534 0.53156531 0
3.9330003 1.3687737 0.53145713 0
3.9290004 1.3608063 0.53131282 0
3.9260004 1.3532501 0.53120458 0
3.9230003 1.3457048 0.53109634 0
3.9190001 1.337777 0.53095204 0
3.9160004 1.3302552 0.53084379 0
3.9120002 1.3223546 0.53069949 0
3.9090002 1.3148559 0.53059125 0
3.9050002 1.3069824 0.53044701 0
3.9020002 1.2995074 0.53033876 0
3.8990002 1.2920433 0.53023052 0
3.8950002 1.2842093 0.53008622 0
3.8920002 1.2767686 0.52997798 0
3.8890002 1.2693387 0.52986974 0
3.8850002 1.2615445 0.52972543 0
3.8820002 1.2541381 0.52961719 0
3.8780003 1.2463708 0.52947295 0
3.8750002 1.2389878 0.52936471 0
3.8720002 1.2316157 0.52925646 0
3.8680003 1.2238882 0.52911216 0
3.8650002 1.2165395 0.52900392 0
3.8620002 1.2092016 0.52889568 0
3.8580003 1.2015138 0.52875137 0
3.8550003 1.1941993 0.52864319 0
3.8520002 1.1868957 0.52853495 0
3.8490002 1.1796029 0.52842671 0
3.8450003 1.1719674 0.5282824 0
3.8420002 1.164698 0.52817416 0
3.8390002 1.1574395 0.52806592 0
3.8350003 1.1498437 0.52792162 0
3.8320003 1.1426086 0.52781343 0
3.8290002 1.1353843 0.52770519 0
3.8260002 1.1281708 0.52759695 0
3.8220003 1.1206274 0.52745265 0
3.8190002 1.1134374 0.52734441 0
3.8160002 1.1062583 0.52723616 0
3.8130002 1.0990899 0.52712798 0
3.8090003 1.0915987 0.52698368 0
3.8060002 1.0844538 0.52687544 0
3.8030002 1.0773197 0.52676719 0
3.8000002 1.0701965 0.52665895 0
3.7970002 1.063084 0.52655077 0
3.7930002 1.0556579 0.52640641 0
3.7900002 1.0485688 0.52629822 0
3.7870002 1.0414907 0.52618998 0
3.7840002 1.0344234 0.52608174 0
3.7900002 1.0302241 0.52629822 0
3.7980003 1.0266346 0.52658683 0
3.8060002 1.0230161 0.52687544 0
3.8150003 1.0196809 0.5272001 0
3.9590003 1.0581976 0.53239512 0
3.9550002 1.050544 0.53225076 0
3.9520004 1.0432116 0.53214258 0
3.9490004 1.03589 0.53203434 0
3.9480002 1.0291852 0.53199822 0
3.9470003 1.0224839 0.53196216 0
3.9470003 1.0160859 0.53196216 0
3.9480002 1.0099854 0.53199822 0
3.9500003 1.0041771 0.5320704 0
3.9520004 0.99836171 0.53214258 0
3.9550002 0.99283123 0.53225076 0
3.9590003 0.9875803 0.53239512 0
3.9640002 0.98260355 0.53257549 0
3.9710002 0.97818244 0.53282797 0
3.9790003 0.97402108 0.53311658 0
3.9920003 0.97124684 0.53358561 0
4.244 0.91086966 0.54267681 0
4.2410002 0.90319461 0.54256856 0
4.2400002 0.89602077 0.5425325 0
4.2390003 0.88885063 0.54249644 0
4.2390003 0.88192588 0.54249644 0
4.2400002 0.87524092 0.5425325 0
4.2420001 0.86879057 0.54260463 0
4.2450004 0.86256921 0.54271287 0
4.2490001 0.8565715 0.54285717 0
4.2530003 0.85055941 0.54300147 0
4.2590003 0.84499466 0.54321796 0
4.2670002 0.8398664 0.54350656 0
4.277 0.83516389 0.54386729 0
3.9430003 1.3919508 0.52542698 0
3.9400003 1.3843478 0.52532417 0
3.9360003 1.3763534 0.52518708 0
3.9330003 1.3687737 0.52508426 0
3.9290004 1.3608063 0.52494717 0
3.9260004 1.3532501 0.52484435 0
3.9230003 1.3457048 0.52474153 0
3.9190001 1.337777 0.52460444 0
3.9160004 1.3302552 0.52450162 0
3.9120002 1.3223546 0.52436453 0
3.9090002 1.3148559 0.52426171 0
3.9050002 1.3069824 0.52412462 0
3.9020002 1.2995074 0.5240218 0
3.8990002 1.2920433 0.52391899 0
3.8950002 1.2842093 0.5237819 0
3.8920002 1.2767686 0.52367908 0
3.8890002 1.2693387 0.52357626 0
3.8850002 1.2615445 0.52343917 0
3.8820002 1.2541381 0.52333635 0
3.8780003 1.2463708 0.52319926 0
3.8750002 1.2389878 0.52309644 0
3.8720002 1.2316157 0.52299362 0
3.8680003 1.2238882 0.52285653 0
3.8650002 1.2165395 0.52275372 0
3.8620002 1.2092016 0.5226509 0
3.8580003 1.2015138 0.52251381 0
3.8550003 1.1941993 0.52241099 0
3.8520002 1.1868957 0.52230817 0
3.8490002 1.1796029 0.52220535 0
3.8450003 1.1719674 0.52206826 0
3.8420002 1.164698 0.52196544 0
3.8390002 1.1574395 0.52186263 0
3.8350003 1.1498437 0.52172554 0
3.8320003 1.1426086 0.52162272 0
3.8290002 1.1353843 0.5215199 0
3.8260002 1.1281708 0.52141708 0
3.8220003 1.1206274 0.52128005 0
3.8190002 1.1134374 0.52117723 0
3.8160002 1.1062583 0.52107435 0
3.8130002 1.0990899 0.52097154 0
3.8090003 1.0915987 0.52083445 0
3.8060002 1.0844538 0.52073169 0
3.8030002 1.0773197 0.52062887 0
3.8000002 1.0701965 0.52052599 0
3.7970002 1.063084 0.52042317 0
3.7930002 1.0556579 0.52028614 0
3.7900002 1.0485688 0.52018332 0
3.7870002 1.0414907 0.52008051 0
3.7840002 1.0344234 0.51997769 0
3.7900002 1.0302241 0.52018332 0
3.7980003 1.0266346 0.52045751 0
3.8060002 1.0230161 0.52073169 0
3.8150003 1.0196809 0.52104008 0
3.9590003 1.0581976 0.52597535 0
3.9550002 1.050544 0.52583826 0
3.9520004 1.0432116 0.52573544 0
3.9490004 1.03589 0.52563262 0
3.9480002 1.0291852 0.52559835 0
3.9470003 1.0224839 0.52556407 0
3.9470003 1.0160859 0.52556407 0
3.9480002 1.0099854 0.52559835 0
3.9500003 1.0041771 0.52566689 0
3.9520004 0.99836171 0.52573544 0
3.9550002 0.99283123 0.52583826 0
3.9590003 0.9875803 0.52597535 0
3.9640002 0.98260355 0.52614671 0
3.9710002 0.97818244 0.52638662 0
3.9790003 0.97402108 0.5266608 0
3.9920003 0.97124684 0.52710629 0
4.2460003 0.90443021 0.53581148 0
4.244 0.89700204 0.53574294 0
4.244 0.89006817 0.53574294 0
4.244 0.88313437 0.53574294 0
4.2450004 0.87644053 0.53577721 0
4.2470002 0.86998099 0.53584576 0
4.25 0.86375064 0.53594857 0
4.2540002 0.85774398 0.53608567 0
4.2590003 0.85195559 0.53625703 0
4.2650003 0.84638 0.53646266 0
4.2740002 0.84147 0.53677112 0
3.9430003 1.3919508 0.51903605 0
3.9400003 1.3843478 0.51893866 0
3.9360003 1.3763534 0.51880878 0
3.9330003 1.3687737 0.51871139 0
3.9290004 1.3608063 0.51858151 0
3.9260004 1.3532501 0.51848412 0
3.9230003 1.3457048 0.51838672 0
3.9190001 1.337777 0.51825684 0
3.9160004 1.3302552 0.51815945 0
3.9120002 1.3223546 0.51802957 0
3.9090002 1.3148559 0.51793218 0
3.9050002 1.3069824 0.5178023 0
3.9020002 1.2995074 0.51770484 0
3.8990002 1.2920433 0.51760745 0
3.8950002 1.2842093 0.51747757 0
3.8920002 1.2767686 0.51738018 0
3.8890002 1.2693387 0.51728278 0
3.8850002 1.2615445 0.51715291 0
3.8820002 1.2541381 0.51705551 0
3.8780003 1.2463708 0.51692563 0
3.8750002 1.2389878 0.51682824 0
3.8720002 1.2316157 0.51673079 0
3.8680003 1.2238882 0.51660097 0
3.8650002 1.2165395 0.51650351 0
3.8620002 1.2092016 0.51640612 0
3.8580003 1.2015138 0.51627624 0
3.8550003 1.1941993 0.51617885 0
3.8520002 1.1868957 0.51608145 0
3.8490002 1.1796029 0.51598406 0
3.8450003 1.1719674 0.51585418 0
3.8420002 1.164698 0.51575673 0
3.8390002 1.1574395 0.51565933 0
3.8350003 1.1498437 0.51552945 0
3.8320003 1.1426086 0.51543206 0
3.8290002 1.1353843 0.51533467 0
3.8260002 1.1281708 0.51523727 0
3.8220003 1.1206274 0.51510739 0
3.8190002 1.1134374 0.51501 0
3.8160002 1.1062583 0.51491261 0
3.8130002 1.0990899 0.51481515 0
3.8090003 1.0915987 0.51468527 0
3.8060002 1.0844538 0.51458788 0
3.8030002 1.0773197 0.51449049 0
3.8000002 1.0701965 0.51439309 0
3.7970002 1.063084 0.5142957 0
3.7930002 1.0556579 0.51416582 0
3.7900002 1.0485688 0.51406837 0
3.7870002 1.0414907 0.51397097 0
3.7840002 1.0344234 0.51387358 0
3.7900002 1.0302241 0.51406837 0
3.7980003 1.0266346 0.51432812 0
3.8060002 1.0230161 0.51458788 0
3.8150003 1.0196809 0.51488012 0
3.9590003 1.0581976 0.51955557 0
3.9550002 1.050544 0.51942569 0
3.9520004 1.0432116 0.5193283 0
3.9490004 1.03589 0.5192309 0
3.9480002 1.0291852 0.51919842 0
3.9470003 1.0224839 0.51916593 0
3.9470003 1.0160859 0.51916593 0
3.9480002 1.0099854 0.51919842 0
3.9500003 1.0041771 0.51926339 0
3.9520004 0.99836171 0.5193283 0
3.9550002 0.99283123 0.51942569 0
3.9590003 0.9875803 0.51955557 0
3.9640002 0.98260355 0.51971793 0
3.9710002 0.97818244 0.5199452 0
3.9790003 0.97402108 0.52020496 0
3.9920003 0.97124684 0.52062702 0
4.0560002 0.96958733 0.52270502 0
4.0550003 0.96271658 0.52267253 0
4.0640001 0.95859134 0.52296478 0
4.0740004 0.95470595 0.52328944 0
4.0840001 0.95078444 0.52361417 0
4.21 0.90240628 0.52770519 0
4.2210002 0.89825207 0.52806234 0
4.2320004 0.89405829 0.52841949 0
4.243 0.88982481 0.52877665 0
4.25 0.88458467 0.52900392 0
4.2509999 0.87787986 0.5290364 0
4.2530003 0.8714096 0.52910131 0
4.256 0.86516845 0.52919877 0
4.2610002 0.85938549 0.52936107 0
4.2660003 0.85358441 0.52952343 0
4.2740002 0.84845799 0.52978319 0
3.9430003 1.3919508 0.51264518 0
3.9400003 1.3843478 0.51255322 0
3.9360003 1.3763534 0.51243055 0
3.9330003 1.3687737 0.51233852 0
3.9290004 1.3608063 0.51221585 0
3.9260004 1.3532501 0.51212388 0
3.9230003 1.3457048 0.51203191 0
3.9190001 1.337777 0.51190925 0
3.9160004 1.3302552 0.51181722 0
3.9120002 1.3223546 0.51169455 0
3.9090002 1.3148559 0.51160258 0
3.9050002 1.3069824 0.51147991 0
3.9020002 1.2995074 0.51138794 0
3.8990002 1.2920433 0.51129591 0
3.8950002 1.2842093 0.51117325 0
3.8920002 1.2767686 0.51108128 0
3.8890002 1.2693387 0.51098931 0
3.8850002 1.2615445 0.51086664 0
3.8820002 1.2541381 0.51077461 0
3.8780003 1.2463708 0.51065201 0
3.8750002 1.2389878 0.51055998 0
3.8720002 1.2316157 0.51046801 0
3.8680003 1.2238882 0.51034534 0
3.8650002 1.2165395 0.51025331 0
3.8620002 1.2092016 0.51016134 0
3.8580003 1.2015138 0.51003867 0
3.8550003 1.1941993 0.5099467 0
3.8520002 1.1868957 0.50985467 0
3.8490002 1.1796029 0.5097627 0
3.8450003 1.1719674 0.50964004 0
3.8420002 1.164698 0.50954807 0
3.8390002 1.1574395 0.50945604 0
3.8350003 1.1498437 0.50933337 0
3.8320003 1.1426086 0.5092414 0
3.8290002 1.1353843 0.50914943 0
3.8260002 1.1281708 0.5090574 0
3.8220003 1.1206274 0.50893474 0
3.8190002 1.1134374 0.50884277 0
3.8160002 1.1062583 0.5087508 0
3.8130002 1.0990899 0.50865877 0
3.8090003 1.0915987 0.5085361 0
3.8060002 1.0844538 0.50844413 0
3.8030002 1.0773197 0.5083521 0
3.8000002 1.0701965 0.50826013 0
3.7970002 1.063084 0.5081681 0
3.7930002 1.0556579 0.50804549 0
3.7900002 1.0485688 0.50795346 0
3.7870002 1.0414907 0.5078615 0
3.7840002 1.0344234 0.50776947 0
3.7900002 1.0302241 0.50795346 0
3.7980003 1.0266346 0.5081988 0
3.8060002 1.0230161 0.50844413 0
3.8150003 1.0196809 0.5087201 0
3.9590003 1.0581976 0.51313585 0
3.9550002 1.050544 0.51301318 0
3.9520004 1.0432116 0.51292115 0
3.9490004 1.03589 0.51282918 0
3.9480002 1.0291852 0.51279849 0
3.9470003 1.0224839 0.51276785 0
3.9470003 1.0160859 0.51276785 0
3.9480002 1.0099854 0.51279849 0
3.9500003 1.0041771 0.51285982 0
3.9520004 0.99836171 0.51292115 0
3.9550002 0.99283123 0.51301318 0
3.9590003 0.9875803 0.51313585 0
3.9640002 0.98260355 0.51328915 0
3.9710002 0.97818244 0.51350379 0
3.9790003 0.97402108 0.51374912 0
3.9920003 0.97124684 0.51414776 0
4.059 0.97702086 0.51620233 0
4.0560002 0.96958733 0.5161103 0
4.053 0.96216464 0.51601833 0
4.053 0.95557535 0.51601833 0
4.0620003 0.95143741 0.5162943 0
4.072 0.9475376 0.51660097 0
4.0810003 0.94333297 0.51687694 0
4.0910001 0.93936265 0.51718354 0
4.1010003 0.9353565 0.51749021 0
4.1110001 0.93131411 0.51779687 0
4.2030001 0.89380395 0.52061802 0
4.2130003 0.88939726 0.52092469 0
