# .PCD v0.7 - Point Cloud Data file format
VERSION 0.7
FIELDS x y z intensity
SIZE 4 4 4 4
TYPE F F F F
COUNT 1 1 1 1
WIDTH 1369
HEIGHT 1
VIEWPOINT 0 0 0 1 0 0 0
POINTS 1369
DATA ascii
4.7440004 -2.0519502 2.2453997 0
4.7500005 -2.0625675 2.2479429 0
4.7560005 -2.0732064 2.2504864 0
4.7620001 -2.0838668 2.2530296 0
4.7680001 -2.0945489 2.255573 0
4.7740002 -2.1052527 2.2581165 0
4.7800002 -2.1159782 2.2606597 0
4.7380004 -2.0413547 2.2350314 0
4.7440004 -2.0519502 2.2375638 0
4.7500005 -2.0625675 2.2400966 0
4.7560005 -2.0732064 2.2426291 0
4.7620001 -2.0838668 2.2451613 0
4.7680001 -2.0945489 2.247694 0
4.7740002 -2.1052527 2.2502265 0
4.7800002 -2.1159782 2.2527592 0
4.7860003 -2.1267252 2.2552917 0
4.7930002 -2.1379702 2.2582462 0
4.7990003 -2.1487622 2.2607789 0
4.8050003 -2.1595764 2.2633114 0
4.8110003 -2.1704118 2.2658439 0
4.7380004 -2.0413547 2.2272065 0
4.7440004 -2.0519502 2.2297282 0
4.7500005 -2.0625675 2.23225 0
4.7560005 -2.0732064 2.2347717 0
4.7620001 -2.0838668 2.2372932 0
4.7680001 -2.0945489 2.239815 0
4.7740002 -2.1052527 2.2423368 0
4.7800002 -2.1159782 2.2448585 0
4.7860003 -2.1267252 2.2473803 0
4.7930002 -2.1379702 2.2503221 0
4.7990003 -2.1487622 2.2528439 0
4.8050003 -2.1595764 2.2553656 0
4.8110003 -2.1704118 2.2578874 0
4.8170004 -2.1812689 2.2604091 0
4.7380004 -2.0413547 2.2193816 0
4.7440004 -2.0519502 2.2218924 0
4.7500005 -2.0625675 2.2244034 0
4.7560005 -2.0732064 2.2269142 0
4.7620001 -2.0838668 2.229425 0
4.7680001 -2.0945489 2.2319357 0
4.7740002 -2.1052527 2.2344468 0
4.7800002 -2.1159782 2.2369578 0
4.7860003 -2.1267252 2.2394686 0
4.7930002 -2.1379702 2.242398 0
4.7990003 -2.1487622 2.244909 0
4.8050003 -2.1595764 2.2474198 0
4.8110003 -2.1704118 2.2499309 0
4.8170004 -2.1812689 2.2524416 0
4.7380004 -2.0413547 2.2115567 0
4.7440004 -2.0519502 2.2140567 0
4.7500005 -2.0625675 2.2165568 0
4.7560005 -2.0732064 2.2190568 0
4.7620001 -2.0838668 2.2215567 0
4.7680001 -2.0945489 2.2240567 0
4.7740002 -2.1052527 2.226557 0
4.7800002 -2.1159782 2.2290571 0
4.7860003 -2.1267252 2.2315571 0
4.7930002 -2.1379702 2.2344739 0
4.7990003 -2.1487622 2.236974 0
4.8050003 -2.1595764 2.2394741 0
4.8110003 -2.1704118 2.2419741 0
4.8170004 -2.1812689 2.2444744 0
4.7380004 -2.0413547 2.2037315 0
4.7440004 -2.0519502 2.2062209 0
4.7500005 -2.0625675 2.2087102 0
4.7560005 -2.0732064 2.2111995 0
4.7620001 -2.0838668 2.2136886 0
4.7680001 -2.0945489 2.2161779 0
4.7740002 -2.1052527 2.218667 0
4.7800002 -2.1159782 2.2211564 0
4.7860003 -2.1267252 2.2236457 0
4.7930002 -2.1379702 2.2265496 0
4.7990003 -2.1487622 2.229039 0
4.8050003 -2.1595764 2.2315283 0
4.8110003 -2.1704118 2.2340176 0
4.8170004 -2.1812689 2.2365069 0
4.7380004 -2.0413547 2.1959066 0
4.7440004 -2.0519502 2.1983852 0
4.7500005 -2.0625675 2.2008636 0
4.7560005 -2.0732064 2.2033422 0
4.7620001 -2.0838668 2.2058203 0
4.7680001 -2.0945489 2.2082989 0
4.7740002 -2.1052527 2.2107773 0
4.7800002 -2.1159782 2.2132556 0
4.7860003 -2.1267252 2.2157342 0
4.7930002 -2.1379702 2.2186255 0
4.7990003 -2.1487622 2.2211041 0
4.8050003 -2.1595764 2.2235825 0
4.8110003 -2.1704118 2.2260611 0
4.8170004 -2.1812689 2.2285395 0
4.7380004 -2.0413547 2.1880817 0
4.7440004 -2.0519502 2.1905494 0
4.7500005 -2.0625675 2.193017 0
4.7560005 -2.0732064 2.1954846 0
4.7620001 -2.0838668 2.197952 0
4.7680001 -2.0945489 2.2004197 0
4.7740002 -2.1052527 2.2028873 0
4.7800002 -2.1159782 2.2053549 0
4.7860003 -2.1267252 2.2078226 0
4.7930002 -2.1379702 2.2107015 0
4.7990003 -2.1487622 2.2131691 0
4.8050003 -2.1595764 2.2156367 0
4.8110003 -2.1704118 2.2181044 0
4.8170004 -2.1812689 2.220572 0
4.7380004 -2.0413547 2.1802568 0
4.7440004 -2.0519502 2.1827137 0
4.7500005 -2.0625675 2.1851704 0
4.7560005 -2.0732064 2.1876273 0
4.7620001 -2.0838668 2.190084 0
4.7680001 -2.0945489 2.1925406 0
4.7740002 -2.1052527 2.1949975 0
4.7800002 -2.1159782 2.1974542 0
4.7860003 -2.1267252 2.1999111 0
4.7930002 -2.1379702 2.2027774 0
4.7990003 -2.1487622 2.2052343 0
4.8050003 -2.1595764 2.207691 0
4.8110003 -2.1704118 2.2101479 0
4.8170004 -2.1812689 2.2126045 0
4.7380004 -2.0413547 2.1724319 0
4.7440004 -2.0519502 2.1748779 0
4.7500005 -2.0625675 2.1773241 0
4.7560005 -2.0732064 2.17977 0
4.7620001 -2.0838668 2.1822157 0
4.7680001 -2.0945489 2.1846616 0
4.7740002 -2.1052527 2.1871076 0
4.7800002 -2.1159782 2.1895535 0
4.7860003 -2.1267252 2.1919997 0
4.7930002 -2.1379702 2.1948533 0
4.7990003 -2.1487622 2.1972992 0
4.8050003 -2.1595764 2.1997452 0
4.8110003 -2.1704118 2.2021911 0
4.8170004 -2.1812689 2.2046371 0
4.7380004 -2.0413547 2.164607 0
4.7440004 -2.0519502 2.1670423 0
4.7500005 -2.0625675 2.1694772 0
4.7560005 -2.0732064 2.1719124 0
4.7620001 -2.0838668 2.1743474 0
4.7680001 -2.0945489 2.1767826 0
4.7740002 -2.1052527 2.1792178 0
4.7800002 -2.1159782 2.181653 0
4.7860003 -2.1267252 2.1840882 0
4.7930002 -2.1379702 2.1869292 0
4.7990003 -2.1487622 2.1893642 0
4.8050003 -2.1595764 2.1917994 0
4.8110003 -2.1704118 2.1942346 0
4.8170004 -2.1812689 2.1966698 0
4.7380004 -2.0413547 2.1567822 0
4.7440004 -2.0519502 2.1592064 0
4.7500005 -2.0625675 2.1616309 0
4.7560005 -2.0732064 2.1640551 0
4.7620001 -2.0838668 2.1664793 0
4.7680001 -2.0945489 2.1689036 0
4.7740002 -2.1052527 2.1713278 0
4.7800002 -2.1159782 2.1737523 0
4.7860003 -2.1267252 2.1761765 0
4.7930002 -2.1379702 2.1790049 0
4.7990003 -2.1487622 2.1814294 0
4.8050003 -2.1595764 2.1838536 0
4.8110003 -2.1704118 2.1862781 0
4.8170004 -2.1812689 2.1887023 0
4.7380004 -2.0413547 2.1489573 0
4.7440004 -2.0519502 2.1513708 0
4.7500005 -2.0625675 2.1537843 0
4.7560005 -2.0732064 2.1561978 0
4.7620001 -2.0838668 2.1586111 0
4.7680001 -2.0945489 2.1610246 0
4.7740002 -2.1052527 2.1634381 0
4.7800002 -2.1159782 2.1658516 0
4.7860003 -2.1267252 2.1682651 0
4.7930002 -2.1379702 2.1710808 0
4.7990003 -2.1487622 2.1734943 0
4.8050003 -2.1595764 2.1759079 0
4.8110003 -2.1704118 2.1783214 0
4.8170004 -2.1812689 2.1807349 0
4.7380004 -2.0413547 2.1411324 0
4.7440004 -2.0519502 2.1435351 0
4.7500005 -2.0625675 2.1459377 0
4.7560005 -2.0732064 2.1483405 0
4.7620001 -2.0838668 2.1507428 0
4.7680001 -2.0945489 2.1531456 0
4.7740002 -2.1052527 2.1555483 0
4.7800002 -2.1159782 2.1579509 0
4.7860003 -2.1267252 2.1603537 0
4.7930002 -2.1379702 2.1631567 0
4.7990003 -2.1487622 2.1655595 0
4.8050003 -2.1595764 2.1679621 0
4.8110003 -2.1704118 2.1703649 0
4.8170004 -2.1812689 2.1727674 0
4.7380004 -2.0413547 2.1333075 0
4.7440004 -2.0519502 2.1356993 0
4.7500005 -2.0625675 2.1380911 0
4.7560005 -2.0732064 2.1404829 0
4.7620001 -2.0838668 2.1428747 0
4.7680001 -2.0945489 2.1452665 0
4.7740002 -2.1052527 2.1476583 0
4.7800002 -2.1159782 2.1500502 0
4.7860003 -2.1267252 2.1524422 0
4.7930002 -2.1379702 2.1552327 0
4.7990003 -2.1487622 2.1576245 0
4.8050003 -2.1595764 2.1600163 0
4.8110003 -2.1704118 2.1624081 0
4.8170004 -2.1812689 2.1647999 0
4.7380004 -2.0413547 2.1254823 0
4.7440004 -2.0519502 2.1278634 0
4.7500005 -2.0625675 2.1302445 0
4.7560005 -2.0732064 2.1326256 0
4.7620001 -2.0838668 2.1350064 0
4.7680001 -2.0945489 2.1373875 0
4.7740002 -2.1052527 2.1397686 0
4.7800002 -2.1159782 2.1421497 0
4.7860003 -2.1267252 2.1445305 0
4.7930002 -2.1379702 2.1473083 0
4.7990003 -2.1487622 2.1496894 0
4.8050003 -2.1595764 2.1520705 0
4.8110003 -2.1704118 2.1544516 0
4.8170004 -2.1812689 2.1568327 0
4.7380004 -2.0413547 2.1176577 0
4.7440004 -2.0519502 2.1200278 0
4.7500005 -2.0625675 2.1223979 0
4.7560005 -2.0732064 2.1247683 0
4.7620001 -2.0838668 2.1271381 0
4.7680001 -2.0945489 2.1295085 0
4.7740002 -2.1052527 2.1318786 0
4.7800002 -2.1159782 2.134249 0
4.7860003 -2.1267252 2.1366191 0
4.7930002 -2.1379702 2.1393843 0
4.7990003 -2.1487622 2.1417546 0
4.8050003 -2.1595764 2.1441247 0
4.8110003 -2.1704118 2.1464949 0
4.8170004 -2.1812689 2.1488652 0
4.7380004 -2.0413547 2.1098325 0
4.7440004 -2.0519502 2.1121919 0
4.7500005 -2.0625675 2.1145515 0
4.7560005 -2.0732064 2.1169107 0
4.7620001 -2.0838668 2.1192701 0
4.7680001 -2.0945489 2.1216295 0
4.7740002 -2.1052527 2.1239889 0
4.7800002 -2.1159782 2.1263483 0
4.7860003 -2.1267252 2.1287076 0
4.7930002 -2.1379702 2.1314602 0
4.7990003 -2.1487622 2.1338196 0
4.8050003 -2.1595764 2.136179 0
4.8110003 -2.1704118 2.1385384 0
4.8170004 -2.1812689 2.1408978 0
4.7380004 -2.0413547 2.1020076 0
4.7440004 -2.0519502 2.1043563 0
4.7500005 -2.0625675 2.1067047 0
4.7560005 -2.0732064 2.1090534 0
4.7620001 -2.0838668 2.1114018 0
4.7680001 -2.0945489 2.1137505 0
4.7740002 -2.1052527 2.1160989 0
4.7800002 -2.1159782 2.1184475 0
4.7860003 -2.1267252 2.120796 0
4.7930002 -2.1379702 2.1235361 0
4.7990003 -2.1487622 2.1258845 0
4.8050003 -2.1595764 2.1282332 0
4.8110003 -2.1704118 2.1305819 0
4.8170004 -2.1812689 2.1329303 0
4.7380004 -2.0413547 2.0941827 0
4.7440004 -2.0519502 2.0965204 0
4.7500005 -2.0625675 2.0988584 0
4.7560005 -2.0732064 2.1011961 0
4.7620001 -2.0838668 2.1035335 0
4.7680001 -2.0945489 2.1058714 0
4.7740002 -2.1052527 2.1082091 0
4.7800002 -2.1159782 2.1105468 0
4.7860003 -2.1267252 2.1128845 0
4.7930002 -2.1379702 2.1156118 0
4.7990003 -2.1487622 2.1179497 0
4.8050003 -2.1595764 2.1202874 0
4.8110003 -2.1704118 2.1226251 0
4.8170004 -2.1812689 2.124963 0
4.7380004 -2.0413547 2.0863578 0
4.7440004 -2.0519502 2.0886848 0
4.7500005 -2.0625675 2.0910118 0
4.7560005 -2.0732064 2.0933387 0
4.7620001 -2.0838668 2.0956655 0
4.7680001 -2.0945489 2.0979922 0
4.7740002 -2.1052527 2.1003191 0
4.7800002 -2.1159782 2.1026461 0
4.7860003 -2.1267252 2.1049731 0
4.7930002 -2.1379702 2.107688 0
4.7990003 -2.1487622 2.1100147 0
4.8050003 -2.1595764 2.1123416 0
4.8110003 -2.1704118 2.1146686 0
4.8170004 -2.1812689 2.1169956 0
4.7380004 -2.0413547 2.0785329 0
4.7440004 -2.0519502 2.0808492 0
4.7500005 -2.0625675 2.0831652 0
4.7560005 -2.0732064 2.0854812 0
4.7620001 -2.0838668 2.0877972 0
4.7680001 -2.0945489 2.0901134 0
4.7740002 -2.1052527 2.0924294 0
4.7800002 -2.1159782 2.0947454 0
4.7860003 -2.1267252 2.0970616 0
4.7930002 -2.1379702 2.0997636 0
4.7990003 -2.1487622 2.1020799 0
4.8050003 -2.1595764 2.1043959 0
4.8110003 -2.1704118 2.1067119 0
4.8170004 -2.1812689 2.1090281 0
4.7380004 -2.0413547 2.070708 0
4.7440004 -2.0519502 2.0730133 0
4.7500005 -2.0625675 2.0753186 0
4.7560005 -2.0732064 2.0776238 0
4.7620001 -2.0838668 2.0799289 0
4.7680001 -2.0945489 2.0822344 0
4.7740002 -2.1052527 2.0845394 0
4.7800002 -2.1159782 2.0868447 0
4.7860003 -2.1267252 2.08915 0
4.7930002 -2.1379702 2.0918396 0
4.7990003 -2.1487622 2.0941448 0
4.8050003 -2.1595764 2.0964501 0
4.8110003 -2.1704118 2.0987554 0
4.8170004 -2.1812689 2.1010606 0
4.7380004 -2.0413547 2.0628831 0
4.7440004 -2.0519502 2.0651777 0
4.7500005 -2.0625675 2.067472 0
4.7560005 -2.0732064 2.0697665 0
4.7620001 -2.0838668 2.0720608 0
4.7680001 -2.0945489 2.0743551 0
4.7740002 -2.1052527 2.0766497 0
4.7800002 -2.1159782 2.078944 0
4.7860003 -2.1267252 2.0812385 0
4.7930002 -2.1379702 2.0839155 0
4.7990003 -2.1487622 2.0862098 0
4.8050003 -2.1595764 2.0885043 0
4.8110003 -2.1704118 2.0907989 0
4.8170004 -2.1812689 2.0930932 0
4.7380004 -2.0413547 2.0550582 0
4.7440004 -2.0519502 2.0573418 0
4.7500005 -2.0625675 2.0596254 0
4.7560005 -2.0732064 2.061909 0
4.7620001 -2.0838668 2.0641925 0
4.7680001 -2.0945489 2.0664761 0
4.7740002 -2.1052527 2.0687597 0
4.7800002 -2.1159782 2.0710435 0
4.7860003 -2.1267252 2.0733271 0
4.7930002 -2.1379702 2.0759914 0
4.7990003 -2.1487622 2.078275 0
4.8050003 -2.1595764 2.0805585 0
4.8110003 -2.1704118 2.0828424 0
4.8170004 -2.1812689 2.0851259 0
4.7380004 -2.0413547 2.0472331 0
4.7440004 -2.0519502 2.0495059 0
4.7500005 -2.0625675 2.0517788 0
4.7560005 -2.0732064 2.0540516 0
4.7620001 -2.0838668 2.0563242 0
4.7680001 -2.0945489 2.0585971 0
4.7740002 -2.1052527 2.0608699 0
4.7800002 -2.1159782 2.0631428 0
4.7860003 -2.1267252 2.0654156 0
4.7930002 -2.1379702 2.0680671 0
4.7990003 -2.1487622 2.0703399 0
4.8050003 -2.1595764 2.0726128 0
4.8110003 -2.1704118 2.0748856 0
4.8170004 -2.1812689 2.0771585 0
4.7380004 -2.0413547 2.0394084 0
4.7440004 -2.0519502 2.0416703 0
4.7500005 -2.0625675 2.0439322 0
4.7560005 -2.0732064 2.0461943 0
4.7620001 -2.0838668 2.0484562 0
4.7680001 -2.0945489 2.0507181 0
4.7740002 -2.1052527 2.0529802 0
4.7800002 -2.1159782 2.0552421 0
4.7860003 -2.1267252 2.0575039 0
4.7930002 -2.1379702 2.060143 0
4.7990003 -2.1487622 2.0624051 0
4.8050003 -2.1595764 2.064667 0
4.8110003 -2.1704118 2.0669291 0
4.8170004 -2.1812689 2.069191 0
4.7380004 -2.0413547 2.0315835 0
4.7440004 -2.0519502 2.0338345 0
4.7500005 -2.0625675 2.0360856 0
4.7560005 -2.0732064 2.038337 0
4.7620001 -2.0838668 2.0405879 0
4.7680001 -2.0945489 2.0428391 0
4.7740002 -2.1052527 2.0450902 0
4.7800002 -2.1159782 2.0473413 0
4.7860003 -2.1267252 2.0495925 0
4.7930002 -2.1379702 2.0522189 0
4.7990003 -2.1487622 2.0544701 0
4.8050003 -2.1595764 2.0567212 0
4.8110003 -2.1704118 2.0589724 0
4.8170004 -2.1812689 2.0612235 0
4.7380004 -2.0413547 2.0237584 0
4.7440004 -2.0519502 2.0259988 0
4.7500005 -2.0625675 2.0282393 0
4.7560005 -2.0732064 2.0304794 0
4.7620001 -2.0838668 2.0327196 0
4.7680001 -2.0945489 2.03496 0
4.7740002 -2.1052527 2.0372005 0
4.7800002 -2.1159782 2.0394406 0
4.7860003 -2.1267252 2.0416811 0
4.7930002 -2.1379702 2.0442948 0
4.7990003 -2.1487622 2.046535 0
4.8050003 -2.1595764 2.0487754 0
4.8110003 -2.1704118 2.0510159 0
4.8170004 -2.1812689 2.053256 0
4.7380004 -2.0413547 2.0159335 0
4.7440004 -2.0519502 2.0181632 0
4.7500005 -2.0625675 2.0203927 0
4.7560005 -2.0732064 2.0226221 0
4.7620001 -2.0838668 2.0248516 0
4.7680001 -2.0945489 2.027081 0
4.7740002 -2.1052527 2.0293105 0
4.7800002 -2.1159782 2.0315402 0
4.7860003 -2.1267252 2.0337696 0
4.7930002 -2.1379702 2.0363705 0
4.7990003 -2.1487622 2.0386002 0
4.8050003 -2.1595764 2.0408297 0
4.8110003 -2.1704118 2.0430593 0
4.8170004 -2.1812689 2.0452888 0
4.7380004 -2.0413547 2.0081086 0
4.7440004 -2.0519502 2.0103273 0
4.7500005 -2.0625675 2.0125461 0
4.7560005 -2.0732064 2.0147648 0
4.7620001 -2.0838668 2.0169833 0
4.7680001 -2.0945489 2.019202 0
4.7740002 -2.1052527 2.0214207 0
4.7800002 -2.1159782 2.0236394 0
4.7860003 -2.1267252 2.0258579 0
4.7930002 -2.1379702 2.0284464 0
4.7990003 -2.1487622 2.0306652 0
4.8050003 -2.1595764 2.0328839 0
4.8110003 -2.1704118 2.0351026 0
4.8170004 -2.1812689 2.0373213 0
4.7380004 -2.0413547 2.0002837 0
4.7440004 -2.0519502 2.0024917 0
4.7500005 -2.0625675 2.0046995 0
4.7560005 -2.0732064 2.0069075 0
4.7620001 -2.0838668 2.009115 0
4.7680001 -2.0945489 2.011323 0
4.7740002 -2.1052527 2.0135307 0
4.7800002 -2.1159782 2.0157387 0
4.7860003 -2.1267252 2.0179465 0
4.7930002 -2.1379702 2.0205224 0
4.7990003 -2.1487622 2.0227304 0
4.8050003 -2.1595764 2.0249381 0
4.8110003 -2.1704118 2.0271461 0
4.8170004 -2.1812689 2.0293539 0
4.7380004 -2.0413547 1.9924589 0
4.7440004 -2.0519502 1.994656 0
4.7500005 -2.0625675 1.9968529 0
4.7560005 -2.0732064 1.99905 0
4.7620001 -2.0838668 2.0012469 0
4.7680001 -2.0945489 2.003444 0
4.7740002 -2.1052527 2.005641 0
4.7800002 -2.1159782 2.007838 0
4.7860003 -2.1267252 2.010035 0
4.7930002 -2.1379702 2.0125983 0
4.7990003 -2.1487622 2.0147953 0
4.8050003 -2.1595764 2.0169923 0
4.8110003 -2.1704118 2.0191894 0
4.8170004 -2.1812689 2.0213864 0
4.7380004 -2.0413547 1.9846339 0
4.7440004 -2.0519502 1.9868202 0
4.7500005 -2.0625675 1.9890064 0
4.7560005 -2.0732064 1.9911927 0
4.7620001 -2.0838668 1.9933788 0
4.7680001 -2.0945489 1.9955649 0
4.7740002 -2.1052527 1.9977512 0
4.7800002 -2.1159782 1.9999374 0
4.7860003 -2.1267252 2.0021236 0
4.7930002 -2.1379702 2.0046742 0
4.7990003 -2.1487622 2.0068603 0
4.8050003 -2.1595764 2.0090466 0
4.8110003 -2.1704118 2.0112329 0
4.8170004 -2.1812689 2.0134192 0
4.7380004 -2.0413547 1.976809 0
4.7440004 -2.0519502 1.9789844 0
4.7500005 -2.0625675 1.9811599 0
4.7560005 -2.0732064 1.9833353 0
4.7620001 -2.0838668 1.9855105 0
4.7680001 -2.0945489 1.9876859 0
4.7740002 -2.1052527 1.9898612 0
4.7800002 -2.1159782 1.9920367 0
4.7860003 -2.1267252 1.9942122 0
4.7930002 -2.1379702 1.9967501 0
4.7990003 -2.1487622 1.9989254 0
4.8050003 -2.1595764 2.0011008 0
4.8110003 -2.1704118 2.0032761 0
4.8170004 -2.1812689 2.0054517 0
4.7380004 -2.0413547 1.968984 0
4.7440004 -2.0519502 1.9711486 0
4.7500005 -2.0625675 1.9733132 0
4.7560005 -2.0732064 1.9754778 0
4.7620001 -2.0838668 1.9776423 0
4.7680001 -2.0945489 1.9798068 0
4.7740002 -2.1052527 1.9819714 0
4.7800002 -2.1159782 1.984136 0
4.7860003 -2.1267252 1.9863006 0
4.7930002 -2.1379702 1.9888259 0
4.7990003 -2.1487622 1.9909905 0
4.8050003 -2.1595764 1.9931551 0
4.8110003 -2.1704118 1.9953197 0
4.8170004 -2.1812689 1.9974843 0
4.7380004 -2.0413547 1.9611592 0
4.7440004 -2.0519502 1.9633129 0
4.7500005 -2.0625675 1.9654667 0
4.7560005 -2.0732064 1.9676204 0
4.7620001 -2.0838668 1.9697741 0
4.7680001 -2.0945489 1.9719278 0
4.7740002 -2.1052527 1.9740816 0
4.7800002 -2.1159782 1.9762353 0
4.7860003 -2.1267252 1.9783891 0
4.7930002 -2.1379702 1.9809018 0
4.7990003 -2.1487622 1.9830556 0
4.8050003 -2.1595764 1.9852093 0
4.8110003 -2.1704118 1.9873631 0
4.8170004 -2.1812689 1.9895169 0
4.7380004 -2.0413547 1.9533343 0
4.7440004 -2.0519502 1.9554772 0
4.7500005 -2.0625675 1.9576201 0
4.7560005 -2.0732064 1.9597631 0
4.7620001 -2.0838668 1.9619058 0
4.7680001 -2.0945489 1.9640487 0
4.7740002 -2.1052527 1.9661916 0
4.7800002 -2.1159782 1.9683347 0
4.7860003 -2.1267252 1.9704776 0
4.7930002 -2.1379702 1.9729776 0
4.7990003 -2.1487622 1.9751205 0
4.8050003 -2.1595764 1.9772636 0
4.8110003 -2.1704118 1.9794065 0
4.8170004 -2.1812689 1.9815494 0
4.7380004 -2.0413547 1.9455093 0
4.7440004 -2.0519502 1.9476415 0
4.7500005 -2.0625675 1.9497736 0
4.7560005 -2.0732064 1.9519057 0
4.7620001 -2.0838668 1.9540377 0
4.7680001 -2.0945489 1.9561698 0
4.7740002 -2.1052527 1.9583019 0
4.7800002 -2.1159782 1.9604341 0
4.7860003 -2.1267252 1.9625661 0
4.7930002 -2.1379702 1.9650536 0
4.7990003 -2.1487622 1.9671856 0
4.8050003 -2.1595764 1.9693178 0
4.8110003 -2.1704118 1.9714499 0
4.8170004 -2.1812689 1.973582 0
4.7380004 -2.0413547 1.9376844 0
4.7440004 -2.0519502 1.9398057 0
4.7500005 -2.0625675 1.9419271 0
4.7560005 -2.0732064 1.9440483 0
4.7620001 -2.0838668 1.9461695 0
4.7680001 -2.0945489 1.9482907 0
4.7740002 -2.1052527 1.950412 0
4.7800002 -2.1159782 1.9525334 0
4.7860003 -2.1267252 1.9546546 0
4.7930002 -2.1379702 1.9571294 0
4.7990003 -2.1487622 1.9592507 0
4.8050003 -2.1595764 1.961372 0
4.8110003 -2.1704118 1.9634932 0
4.8170004 -2.1812689 1.9656146 0
4.7380004 -2.0413547 1.9298594 0
4.7440004 -2.0519502 1.93197 0
4.7500005 -2.0625675 1.9340804 0
4.7560005 -2.0732064 1.936191 0
4.7620001 -2.0838668 1.9383012 0
4.7680001 -2.0945489 1.9404117 0
4.7740002 -2.1052527 1.9425222 0
4.7800002 -2.1159782 1.9446326 0
4.7860003 -2.1267252 1.9467431 0
4.7930002 -2.1379702 1.9492053 0
4.7990003 -2.1487622 1.9513158 0
4.8050003 -2.1595764 1.9534262 0
4.8110003 -2.1704118 1.9555366 0
4.8170004 -2.1812689 1.9576472 0
4.7380004 -2.0413547 1.9220346 0
4.7440004 -2.0519502 1.9241343 0
4.7500005 -2.0625675 1.9262339 0
4.7560005 -2.0732064 1.9283335 0
4.7620001 -2.0838668 1.930433 0
4.7680001 -2.0945489 1.9325327 0
4.7740002 -2.1052527 1.9346323 0
4.7800002 -2.1159782 1.9367319 0
4.7860003 -2.1267252 1.9388316 0
4.7930002 -2.1379702 1.9412811 0
4.7990003 -2.1487622 1.9433807 0
4.8050003 -2.1595764 1.9454805 0
4.8110003 -2.1704118 1.9475801 0
4.8170004 -2.1812689 1.9496797 0
4.7380004 -2.0413547 1.9142097 0
4.7440004 -2.0519502 1.9162985 0
4.7500005 -2.0625675 1.9183873 0
4.7560005 -2.0732064 1.9204761 0
4.7620001 -2.0838668 1.9225649 0
4.7680001 -2.0945489 1.9246535 0
4.7740002 -2.1052527 1.9267424 0
4.7800002 -2.1159782 1.9288312 0
4.7860003 -2.1267252 1.9309201 0
4.7930002 -2.1379702 1.933357 0
4.7990003 -2.1487622 1.9354458 0
4.8050003 -2.1595764 1.9375347 0
4.8110003 -2.1704118 1.9396235 0
4.8170004 -2.1812689 1.9417124 0
4.7380004 -2.0413547 1.9063847 0
4.7440004 -2.0519502 1.9084628 0
4.7500005 -2.0625675 1.9105407 0
4.7560005 -2.0732064 1.9126186 0
4.7620001 -2.0838668 1.9146966 0
4.7680001 -2.0945489 1.9167746 0
4.7740002 -2.1052527 1.9188526 0
4.7800002 -2.1159782 1.9209306 0
4.7860003 -2.1267252 1.9230087 0
4.7930002 -2.1379702 1.9254329 0
4.7990003 -2.1487622 1.9275109 0
4.8050003 -2.1595764 1.9295888 0
4.8110003 -2.1704118 1.9316669 0
4.8170004 -2.1812689 1.9337449 0
4.7380004 -2.0413547 1.8985598 0
4.7440004 -2.0519502 1.9006269 0
4.7500005 -2.0625675 1.9026942 0
4.7560005 -2.0732064 1.9047614 0
4.7620001 -2.0838668 1.9068283 0
4.7680001 -2.0945489 1.9088956 0
4.7740002 -2.1052527 1.9109627 0
4.7800002 -2.1159782 1.9130299 0
4.7860003 -2.1267252 1.915097 0
4.7930002 -2.1379702 1.9175088 0
4.7990003 -2.1487622 1.9195759 0
4.8050003 -2.1595764 1.9216431 0
4.8110003 -2.1704118 1.9237102 0
4.8170004 -2.1812689 1.9257774 0
4.7380004 -2.0413547 1.8907349 0
4.7440004 -2.0519502 1.8927913 0
4.7500005 -2.0625675 1.8948476 0
4.7560005 -2.0732064 1.896904 0
4.7620001 -2.0838668 1.8989601 0
4.7680001 -2.0945489 1.9010165 0
4.7740002 -2.1052527 1.9030728 0
4.7800002 -2.1159782 1.9051292 0
4.7860003 -2.1267252 1.9071856 0
4.7930002 -2.1379702 1.9095846 0
4.7990003 -2.1487622 1.911641 0
4.8050003 -2.1595764 1.9136972 0
4.8110003 -2.1704118 1.9157536 0
4.8170004 -2.1812689 1.9178101 0
4.7380004 -2.0413547 1.88291 0
4.7440004 -2.0519502 1.8849555 0
4.7500005 -2.0625675 1.887001 0
4.7560005 -2.0732064 1.8890465 0
4.7620001 -2.0838668 1.8910919 0
4.7680001 -2.0945489 1.8931375 0
4.7740002 -2.1052527 1.8951831 0
4.7800002 -2.1159782 1.8972285 0
4.7860003 -2.1267252 1.8992741 0
4.7930002 -2.1379702 1.9016606 0
4.7990003 -2.1487622 1.903706 0
4.8050003 -2.1595764 1.9057516 0
4.8110003 -2.1704118 1.9077971 0
4.8170004 -2.1812689 1.9098426 0
4.7380004 -2.0413547 1.8750851 0
4.7440004 -2.0519502 1.8771198 0
4.7500005 -2.0625675 1.8791544 0
4.7560005 -2.0732064 1.8811892 0
4.7620001 -2.0838668 1.8832237 0
4.7680001 -2.0945489 1.8852584 0
4.7740002 -2.1052527 1.8872931 0
4.7800002 -2.1159782 1.8893279 0
4.7860003 -2.1267252 1.8913627 0
4.7930002 -2.1379702 1.8937364 0
4.7990003 -2.1487622 1.895771 0
4.8050003 -2.1595764 1.8978057 0
4.8110003 -2.1704118 1.8998406 0
4.8170004 -2.1812689 1.9018753 0
4.7380004 -2.0413547 1.8672601 0
4.7440004 -2.0519502 1.869284 0
4.7500005 -2.0625675 1.871308 0
4.7560005 -2.0732064 1.8733318 0
4.7620001 -2.0838668 1.8753555 0
4.7680001 -2.0945489 1.8773794 0
4.7740002 -2.1052527 1.8794032 0
4.7800002 -2.1159782 1.8814272 0
4.7860003 -2.1267252 1.883451 0
4.7930002 -2.1379702 1.8858123 0
4.7990003 -2.1487622 1.8878361 0
4.8050003 -2.1595764 1.88986 0
4.8110003 -2.1704118 1.891884 0
4.8170004 -2.1812689 1.8939078 0
4.7380004 -2.0413547 1.8594352 0
4.7440004 -2.0519502 1.8614483 0
4.7500005 -2.0625675 1.8634614 0
4.7560005 -2.0732064 1.8654743 0
4.7620001 -2.0838668 1.8674873 0
4.7680001 -2.0945489 1.8695004 0
4.7740002 -2.1052527 1.8715135 0
4.7800002 -2.1159782 1.8735265 0
4.7860003 -2.1267252 1.8755395 0
4.7930002 -2.1379702 1.8778881 0
4.7990003 -2.1487622 1.8799012 0
4.8050003 -2.1595764 1.8819143 0
4.8110003 -2.1704118 1.8839273 0
4.8170004 -2.1812689 1.8859404 0
4.7380004 -2.0413547 1.8516103 0
4.7440004 -2.0519502 1.8536125 0
4.7500005 -2.0625675 1.8556148 0
4.7560005 -2.0732064 1.857617 0
4.7620001 -2.0838668 1.859619 0
4.7680001 -2.0945489 1.8616214 0
4.7740002 -2.1052527 1.8636236 0
4.7800002 -2.1159782 1.8656259 0
4.7860003 -2.1267252 1.8676281 0
4.7930002 -2.1379702 1.869964 0
4.7990003 -2.1487622 1.8719661 0
4.8050003 -2.1595764 1.8739685 0
4.8110003 -2.1704118 1.8759707 0
4.8170004 -2.1812689 1.877973 0
4.7380004 -2.0413547 1.8437854 0
4.7440004 -2.0519502 1.8457768 0
4.7500005 -2.0625675 1.8477682 0
4.7560005 -2.0732064 1.8497597 0
4.7620001 -2.0838668 1.8517509 0
4.7680001 -2.0945489 1.8537424 0
4.7740002 -2.1052527 1.8557338 0
4.7800002 -2.1159782 1.8577251 0
4.7860003 -2.1267252 1.8597167 0
4.7930002 -2.1379702 1.8620398 0
4.7990003 -2.1487622 1.8640312 0
4.8050003 -2.1595764 1.8660227 0
4.8110003 -2.1704118 1.8680141 0
4.8170004 -2.1812689 1.8700055 0
4.7380004 -2.0413547 1.8359605 0
4.7440004 -2.0519502 1.8379411 0
4.7500005 -2.0625675 1.8399216 0
4.7560005 -2.0732064 1.8419023 0
4.7620001 -2.0838668 1.8438827 0
4.7680001 -2.0945489 1.8458632 0
4.7740002 -2.1052527 1.8478439 0
4.7800002 -2.1159782 1.8498245 0
4.7860003 -2.1267252 1.851805 0
4.7930002 -2.1379702 1.8541157 0
4.7990003 -2.1487622 1.8560963 0
4.8050003 -2.1595764 1.8580769 0
4.8110003 -2.1704118 1.8600576 0
4.8170004 -2.1812689 1.862038 0
4.7380004 -2.0413547 1.8281355 0
4.7440004 -2.0519502 1.8301053 0
4.7500005 -2.0625675 1.8320751 0
4.7560005 -2.0732064 1.8340448 0
4.7620001 -2.0838668 1.8360144 0
4.7680001 -2.0945489 1.8379842 0
4.7740002 -2.1052527 1.839954 0
4.7800002 -2.1159782 1.8419238 0
4.7860003 -2.1267252 1.8438935 0
4.7930002 -2.1379702 1.8461915 0
4.7990003 -2.1487622 1.8481613 0
4.8050003 -2.1595764 1.8501312 0
4.8110003 -2.1704118 1.852101 0
4.8170004 -2.1812689 1.8540707 0
4.7380004 -2.0413547 1.8203106 0
4.7440004 -2.0519502 1.8222696 0
4.7500005 -2.0625675 1.8242285 0
4.7560005 -2.0732064 1.8261875 0
4.7620001 -2.0838668 1.8281462 0
4.7680001 -2.0945489 1.8301053 0
4.7740002 -2.1052527 1.8320642 0
4.7800002 -2.1159782 1.8340231 0
4.7860003 -2.1267252 1.8359821 0
4.7930002 -2.1379702 1.8382674 0
4.7990003 -2.1487622 1.8402264 0
4.8050003 -2.1595764 1.8421854 0
4.8110003 -2.1704118 1.8441443 0
4.8170004 -2.1812689 1.8461033 0
4.7380004 -2.0413547 1.8124857 0
4.7440004 -2.0519502 1.8144338 0
4.7500005 -2.0625675 1.8163819 0
4.7560005 -2.0732064 1.81833 0
4.7620001 -2.0838668 1.820278 0
4.7680001 -2.0945489 1.8222262 0
4.7740002 -2.1052527 1.8241743 0
4.7800002 -2.1159782 1.8261224 0
4.7860003 -2.1267252 1.8280705 0
4.7930002 -2.1379702 1.8303434 0
4.7990003 -2.1487622 1.8322914 0
4.8050003 -2.1595764 1.8342396 0
4.8110003 -2.1704118 1.8361877 0
4.8170004 -2.1812689 1.8381358 0
4.7380004 -2.0413547 1.8046608 0
4.7440004 -2.0519502 1.8065981 0
4.7500005 -2.0625675 1.8085355 0
4.7560005 -2.0732064 1.8104726 0
4.7620001 -2.0838668 1.8124098 0
4.7680001 -2.0945489 1.8143471 0
4.7740002 -2.1052527 1.8162844 0
4.7800002 -2.1159782 1.8182217 0
4.7860003 -2.1267252 1.8201591 0
4.7930002 -2.1379702 1.8224193 0
4.7990003 -2.1487622 1.8243564 0
4.8050003 -2.1595764 1.8262938 0
4.8110003 -2.1704118 1.8282311 0
4.8170004 -2.1812689 1.8301685 0
4.7380004 -2.0413547 1.7968359 0
4.7440004 -2.0519502 1.7987623 0
4.7500005 -2.0625675 1.8006887 0
4.7560005 -2.0732064 1.8026154 0
4.7620001 -2.0838668 1.8045416 0
4.7680001 -2.0945489 1.8064681 0
4.7740002 -2.1052527 1.8083946 0
4.7800002 -2.1159782 1.8103211 0
4.7860003 -2.1267252 1.8122475 0
4.7930002 -2.1379702 1.8144951 0
4.7990003 -2.1487622 1.8164215 0
4.8050003 -2.1595764 1.8183481 0
4.8110003 -2.1704118 1.8202745 0
4.8170004 -2.1812689 1.822201 0
4.7380004 -2.0413547 1.7890109 0
4.7440004 -2.0519502 1.7909266 0
4.7500005 -2.0625675 1.7928423 0
4.7560005 -2.0732064 1.794758 0
4.7620001 -2.0838668 1.7966734 0
4.7680001 -2.0945489 1.798589 0
4.7740002 -2.1052527 1.8005047 0
4.7800002 -2.1159782 1.8024204 0
4.7860003 -2.1267252 1.8043361 0
4.7930002 -2.1379702 1.806571 0
4.7990003 -2.1487622 1.8084866 0
4.8050003 -2.1595764 1.8104023 0
4.8110003 -2.1704118 1.812318 0
4.8170004 -2.1812689 1.8142337 0
4.7380004 -2.0413547 1.781186 0
4.7440004 -2.0519502 1.7830908 0
4.7500005 -2.0625675 1.7849958 0
4.7560005 -2.0732064 1.7869005 0
4.7620001 -2.0838668 1.7888051 0
4.7680001 -2.0945489 1.7907101 0
4.7740002 -2.1052527 1.7926149 0
4.7800002 -2.1159782 1.7945197 0
4.7860003 -2.1267252 1.7964245 0
4.7930002 -2.1379702 1.7986468 0
4.7990003 -2.1487622 1.8005517 0
4.8050003 -2.1595764 1.8024565 0
4.8110003 -2.1704118 1.8043613 0
4.8170004 -2.1812689 1.8062661 0
4.7380004 -2.0413547 1.7733611 0
4.7440004 -2.0519502 1.7752551 0
4.7500005 -2.0625675 1.7771491 0
4.7560005 -2.0732064 1.7790431 0
4.7620001 -2.0838668 1.780937 0
4.7680001 -2.0945489 1.7828311 0
4.7740002 -2.1052527 1.7847251 0
4.7800002 -2.1159782 1.7866189 0
4.7860003 -2.1267252 1.7885131 0
4.7930002 -2.1379702 1.7907227 0
4.7990003 -2.1487622 1.7926167 0
4.8050003 -2.1595764 1.7945107 0
4.8110003 -2.1704118 1.7964047 0
4.8170004 -2.1812689 1.7982987 0
4.7380004 -2.0413547 1.7655362 0
4.7440004 -2.0519502 1.7674193 0
4.7500005 -2.0625675 1.7693026 0
4.7560005 -2.0732064 1.7711858 0
4.7620001 -2.0838668 1.7730688 0
4.7680001 -2.0945489 1.7749519 0
4.7740002 -2.1052527 1.7768351 0
4.7800002 -2.1159782 1.7787184 0
4.7860003 -2.1267252 1.7806015 0
4.7930002 -2.1379702 1.7827985 0
4.7990003 -2.1487622 1.7846818 0
4.8050003 -2.1595764 1.7865649 0
4.8110003 -2.1704118 1.7884481 0
4.8170004 -2.1812689 1.7903314 0
4.7380004 -2.0413547 1.7577113 0
4.7440004 -2.0519502 1.7595837 0
4.7500005 -2.0625675 1.7614559 0
4.7560005 -2.0732064 1.7633283 0
4.7620001 -2.0838668 1.7652005 0
4.7680001 -2.0945489 1.7670729 0
4.7740002 -2.1052527 1.7689453 0
4.7800002 -2.1159782 1.7708176 0
4.7860003 -2.1267252 1.7726901 0
4.7930002 -2.1379702 1.7748744 0
4.7990003 -2.1487622 1.7767469 0
4.8050003 -2.1595764 1.7786192 0
4.8110003 -2.1704118 1.7804915 0
4.8170004 -2.1812689 1.7823639 0
4.7380004 -2.0413547 1.7498863 0
4.7440004 -2.0519502 1.7517478 0
4.7500005 -2.0625675 1.7536094 0
4.7560005 -2.0732064 1.7554709 0
4.7620001 -2.0838668 1.7573323 0
4.7680001 -2.0945489 1.7591939 0
4.7740002 -2.1052527 1.7610555 0
4.7800002 -2.1159782 1.762917 0
4.7860003 -2.1267252 1.7647785 0
4.7930002 -2.1379702 1.7669502 0
4.7990003 -2.1487622 1.7688119 0
4.8050003 -2.1595764 1.7706734 0
4.8110003 -2.1704118 1.7725348 0
4.8170004 -2.1812689 1.7743965 0
4.7380004 -2.0413547 1.7420614 0
4.7440004 -2.0519502 1.7439121 0
4.7500005 -2.0625675 1.7457628 0
4.7560005 -2.0732064 1.7476137 0
4.7620001 -2.0838668 1.7494642 0
4.7680001 -2.0945489 1.7513148 0
4.7740002 -2.1052527 1.7531656 0
4.7800002 -2.1159782 1.7550163 0
4.7860003 -2.1267252 1.7568671 0
4.7930002 -2.1379702 1.7590262 0
4.7990003 -2.1487622 1.7608769 0
4.8050003 -2.1595764 1.7627276 0
4.8110003 -2.1704118 1.7645783 0
4.8170004 -2.1812689 1.7664291 0
4.7380004 -2.0413547 1.7342365 0
4.7440004 -2.0519502 1.7360764 0
4.7500005 -2.0625675 1.7379162 0
4.7560005 -2.0732064 1.7397562 0
4.7620001 -2.0838668 1.7415959 0
4.7680001 -2.0945489 1.7434359 0
4.7740002 -2.1052527 1.7452757 0
4.7800002 -2.1159782 1.7471156 0
4.7860003 -2.1267252 1.7489556 0
4.7930002 -2.1379702 1.751102 0
4.7990003 -2.1487622 1.752942 0
4.8050003 -2.1595764 1.7547818 0
4.8110003 -2.1704118 1.7566217 0
4.8170004 -2.1812689 1.7584617 0
4.7380004 -2.0413547 1.7264116 0
4.7440004 -2.0519502 1.7282406 0
4.7500005 -2.0625675 1.7300698 0
4.7560005 -2.0732064 1.7318988 0
4.7620001 -2.0838668 1.7337277 0
4.7680001 -2.0945489 1.7355568 0
4.7740002 -2.1052527 1.7373859 0
4.7800002 -2.1159782 1.739215 0
4.7860003 -2.1267252 1.741044 0
4.7930002 -2.1379702 1.7431779 0
4.7990003 -2.1487622 1.745007 0
4.8050003 -2.1595764 1.7468361 0
4.8110003 -2.1704118 1.7486651 0
4.8170004 -2.1812689 1.7504941 0
4.7380004 -2.0413547 1.7185867 0
4.7440004 -2.0519502 1.7204049 0
4.7500005 -2.0625675 1.7222232 0
4.7560005 -2.0732064 1.7240413 0
4.7620001 -2.0838668 1.7258595 0
4.7680001 -2.0945489 1.7276777 0
4.7740002 -2.1052527 1.729496 0
4.7800002 -2.1159782 1.7313143 0
4.7860003 -2.1267252 1.7331325 0
4.7930002 -2.1379702 1.7352538 0
4.7990003 -2.1487622 1.7370721 0
4.8050003 -2.1595764 1.7388903 0
4.8110003 -2.1704118 1.7407085 0
4.8170004 -2.1812689 1.7425268 0
4.7380004 -2.0413547 1.7107617 0
4.7440004 -2.0519502 1.7125691 0
4.7500005 -2.0625675 1.7143766 0
4.7560005 -2.0732064 1.716184 0
4.7620001 -2.0838668 1.7179912 0
4.7680001 -2.0945489 1.7197987 0
4.7740002 -2.1052527 1.7216061 0
4.7800002 -2.1159782 1.7234136 0
4.7860003 -2.1267252 1.725221 0
4.7930002 -2.1379702 1.7273297 0
4.7990003 -2.1487622 1.7291372 0
4.8050003 -2.1595764 1.7309445 0
4.8110003 -2.1704118 1.732752 0
4.8170004 -2.1812689 1.7345593 0
4.7380004 -2.0413547 1.7029368 0
4.7440004 -2.0519502 1.7047334 0
4.7500005 -2.0625675 1.70653 0
4.7560005 -2.0732064 1.7083266 0
4.7620001 -2.0838668 1.7101231 0
4.7680001 -2.0945489 1.7119197 0
4.7740002 -2.1052527 1.7137163 0
4.7800002 -2.1159782 1.7155129 0
4.7860003 -2.1267252 1.7173096 0
4.7930002 -2.1379702 1.7194055 0
4.7990003 -2.1487622 1.7212021 0
4.8050003 -2.1595764 1.7229987 0
4.8110003 -2.1704118 1.7247953 0
4.8170004 -2.1812689 1.7265919 0
4.7380004 -2.0413547 1.6951119 0
4.7440004 -2.0519502 1.6968977 0
4.7500005 -2.0625675 1.6986835 0
4.7560005 -2.0732064 1.7004693 0
4.7620001 -2.0838668 1.7022549 0
4.7680001 -2.0945489 1.7040408 0
4.7740002 -2.1052527 1.7058265 0
4.7800002 -2.1159782 1.7076122 0
4.7860003 -2.1267252 1.7093979 0
4.7930002 -2.1379702 1.7114815 0
4.7990003 -2.1487622 1.7132672 0
4.8050003 -2.1595764 1.715053 0
4.8110003 -2.1704118 1.7168388 0
4.8170004 -2.1812689 1.7186246 0
4.7380004 -2.0413547 1.687287 0
4.7440004 -2.0519502 1.689062 0
4.7500005 -2.0625675 1.6908369 0
4.7560005 -2.0732064 1.6926119 0
4.7620001 -2.0838668 1.6943866 0
4.7680001 -2.0945489 1.6961616 0
4.7740002 -2.1052527 1.6979365 0
4.7800002 -2.1159782 1.6997116 0
4.7860003 -2.1267252 1.7014865 0
4.7930002 -2.1379702 1.7035573 0
4.7990003 -2.1487622 1.7053323 0
4.8050003 -2.1595764 1.7071072 0
4.8110003 -2.1704118 1.7088822 0
4.8170004 -2.1812689 1.7106571 0
4.7380004 -2.0413547 1.6794621 0
4.7440004 -2.0519502 1.6812263 0
4.7500005 -2.0625675 1.6829903 0
4.7560005 -2.0732064 1.6847545 0
4.7620001 -2.0838668 1.6865184 0
4.7680001 -2.0945489 1.6882826 0
4.7740002 -2.1052527 1.6900468 0
4.7800002 -2.1159782 1.6918108 0
4.7860003 -2.1267252 1.693575 0
4.7930002 -2.1379702 1.6956332 0
4.7990003 -2.1487622 1.6973974 0
4.8050003 -2.1595764 1.6991614 0
4.8110003 -2.1704118 1.7009256 0
4.8170004 -2.1812689 1.7026898 0
4.7380004 -2.0413547 1.6716372 0
4.7440004 -2.0519502 1.6733904 0
4.7500005 -2.0625675 1.6751437 0
4.7560005 -2.0732064 1.676897 0
4.7620001 -2.0838668 1.6786503 0
4.7680001 -2.0945489 1.6804036 0
4.7740002 -2.1052527 1.6821569 0
4.7800002 -2.1159782 1.6839101 0
4.7860003 -2.1267252 1.6856636 0
4.7930002 -2.1379702 1.687709 0
4.7990003 -2.1487622 1.6894623 0
4.8050003 -2.1595764 1.6912156 0
4.8110003 -2.1704118 1.692969 0
4.8170004 -2.1812689 1.6947223 0
4.7380004 -2.0413547 1.6638122 0
4.7440004 -2.0519502 1.6655546 0
4.7500005 -2.0625675 1.6672971 0
4.7560005 -2.0732064 1.6690396 0
4.7620001 -2.0838668 1.670782 0
4.7680001 -2.0945489 1.6725245 0
4.7740002 -2.1052527 1.6742669 0
4.7800002 -2.1159782 1.6760094 0
4.7860003 -2.1267252 1.6777519 0
4.7930002 -2.1379702 1.6797849 0
4.7990003 -2.1487622 1.6815274 0
4.8050003 -2.1595764 1.6832699 0
4.8110003 -2.1704118 1.6850123 0
4.8170004 -2.1812689 1.6867548 0
4.7380004 -2.0413547 1.6559874 0
4.7440004 -2.0519502 1.6577189 0
4.7500005 -2.0625675 1.6594507 0
4.7560005 -2.0732064 1.6611823 0
4.7620001 -2.0838668 1.6629138 0
4.7680001 -2.0945489 1.6646454 0
4.7740002 -2.1052527 1.6663772 0
4.7800002 -2.1159782 1.6681089 0
4.7860003 -2.1267252 1.6698405 0
4.7930002 -2.1379702 1.6718607 0
4.7990003 -2.1487622 1.6735924 0
4.8050003 -2.1595764 1.6753241 0
4.8110003 -2.1704118 1.6770557 0
4.8170004 -2.1812689 1.6787874 0
4.7380004 -2.0413547 1.6481624 0
4.7440004 -2.0519502 1.6498832 0
4.7500005 -2.0625675 1.6516041 0
4.7560005 -2.0732064 1.6533248 0
4.7620001 -2.0838668 1.6550456 0
4.7680001 -2.0945489 1.6567665 0
4.7740002 -2.1052527 1.6584873 0
4.7800002 -2.1159782 1.6602082 0
4.7860003 -2.1267252 1.661929 0
4.7930002 -2.1379702 1.6639366 0
4.7990003 -2.1487622 1.6656575 0
4.8050003 -2.1595764 1.6673783 0
4.8110003 -2.1704118 1.6690992 0
4.8170004 -2.1812689 1.67082 0
4.7380004 -2.0413547 1.6403375 0
4.7440004 -2.0519502 1.6420474 0
4.7500005 -2.0625675 1.6437575 0
4.7560005 -2.0732064 1.6454675 0
4.7620001 -2.0838668 1.6471773 0
4.7680001 -2.0945489 1.6488874 0
4.7740002 -2.1052527 1.6505975 0
4.7800002 -2.1159782 1.6523075 0
4.7860003 -2.1267252 1.6540176 0
4.7930002 -2.1379702 1.6560124 0
4.7990003 -2.1487622 1.6577226 0
4.8050003 -2.1595764 1.6594325 0
4.8110003 -2.1704118 1.6611426 0
4.8170004 -2.1812689 1.6628525 0
4.7380004 -2.0413547 1.6325126 0
4.7440004 -2.0519502 1.6342118 0
4.7500005 -2.0625675 1.635911 0
4.7560005 -2.0732064 1.6376102 0
4.7620001 -2.0838668 1.6393092 0
4.7680001 -2.0945489 1.6410084 0
4.7740002 -2.1052527 1.6427076 0
4.7800002 -2.1159782 1.6444068 0
4.7860003 -2.1267252 1.646106 0
4.7930002 -2.1379702 1.6480885 0
4.7990003 -2.1487622 1.6497875 0
4.8050003 -2.1595764 1.6514868 0
4.8110003 -2.1704118 1.653186 0
4.8170004 -2.1812689 1.6548852 0
4.7380004 -2.0413547 1.6246876 0
4.7440004 -2.0519502 1.626376 0
4.7500005 -2.0625675 1.6280643 0
4.7560005 -2.0732064 1.6297528 0
4.7620001 -2.0838668 1.631441 0
4.7680001 -2.0945489 1.6331294 0
4.7740002 -2.1052527 1.6348177 0
4.7800002 -2.1159782 1.6365061 0
4.7860003 -2.1267252 1.6381944 0
4.7930002 -2.1379702 1.6401643 0
4.7990003 -2.1487622 1.6418526 0
4.8050003 -2.1595764 1.643541 0
4.8110003 -2.1704118 1.6452293 0
4.8170004 -2.1812689 1.6469178 0
4.7380004 -2.0413547 1.6168628 0
4.7440004 -2.0519502 1.6185403 0
4.7500005 -2.0625675 1.6202178 0
4.7560005 -2.0732064 1.6218953 0
4.7620001 -2.0838668 1.6235727 0
4.7680001 -2.0945489 1.6252502 0
4.7740002 -2.1052527 1.6269279 0
4.7800002 -2.1159782 1.6286055 0
4.7860003 -2.1267252 1.630283 0
4.7930002 -2.1379702 1.6322402 0
4.7990003 -2.1487622 1.6339177 0
4.8050003 -2.1595764 1.6355952 0
4.8110003 -2.1704118 1.6372727 0
4.8170004 -2.1812689 1.6389503 0
4.7380004 -2.0413547 1.6090378 0
4.7440004 -2.0519502 1.6107045 0
4.7500005 -2.0625675 1.6123713 0
4.7560005 -2.0732064 1.6140379 0
4.7620001 -2.0838668 1.6157045 0
4.7680001 -2.0945489 1.6173713 0
4.7740002 -2.1052527 1.619038 0
4.7800002 -2.1159782 1.6207048 0
4.7860003 -2.1267252 1.6223714 0
4.7930002 -2.1379702 1.624316 0
4.7990003 -2.1487622 1.6259828 0
4.8050003 -2.1595764 1.6276494 0
4.8110003 -2.1704118 1.6293162 0
4.8170004 -2.1812689 1.6309829 0
4.7380004 -2.0413547 1.6012129 0
4.7440004 -2.0519502 1.6028688 0
4.7500005 -2.0625675 1.6045246 0
4.7560005 -2.0732064 1.6061805 0
4.7620001 -2.0838668 1.6078364 0
4.7680001 -2.0945489 1.6094923 0
4.7740002 -2.1052527 1.6111481 0
4.7800002 -2.1159782 1.6128041 0
4.7860003 -2.1267252 1.61446 0
4.7930002 -2.1379702 1.6163919 0
4.7990003 -2.1487622 1.6180477 0
4.8050003 -2.1595764 1.6197037 0
4.8110003 -2.1704118 1.6213596 0
4.8170004 -2.1812689 1.6230154 0
4.7380004 -2.0413547 1.593388 0
4.7440004 -2.0519502 1.5950329 0
4.7500005 -2.0625675 1.5966781 0
4.7560005 -2.0732064 1.5983232 0
4.7620001 -2.0838668 1.5999681 0
4.7680001 -2.0945489 1.6016133 0
4.7740002 -2.1052527 1.6032584 0
4.7800002 -2.1159782 1.6049033 0
4.7860003 -2.1267252 1.6065484 0
4.7930002 -2.1379702 1.6084677 0
4.7990003 -2.1487622 1.6101128 0
4.8050003 -2.1595764 1.6117579 0
4.8110003 -2.1704118 1.613403 0
4.8170004 -2.1812689 1.6150481 0
4.7380004 -2.0413547 1.5855629 0
4.7440004 -2.0519502 1.5871972 0
4.7500005 -2.0625675 1.5888315 0
4.7560005 -2.0732064 1.5904658 0
4.7620001 -2.0838668 1.5920999 0
4.7680001 -2.0945489 1.5937341 0
4.7740002 -2.1052527 1.5953684 0
4.7800002 -2.1159782 1.5970026 0
4.7860003 -2.1267252 1.598637 0
4.7930002 -2.1379702 1.6005436 0
4.7990003 -2.1487622 1.6021779 0
4.8050003 -2.1595764 1.6038121 0
4.8110003 -2.1704118 1.6054463 0
4.8170004 -2.1812689 1.6070806 0
4.7380004 -2.0413547 1.5777382 0
4.7440004 -2.0519502 1.5793616 0
4.7500005 -2.0625675 1.580985 0
4.7560005 -2.0732064 1.5826085 0
4.7620001 -2.0838668 1.5842317 0
4.7680001 -2.0945489 1.5858551 0
4.7740002 -2.1052527 1.5874786 0
4.7800002 -2.1159782 1.589102 0
4.7860003 -2.1267252 1.5907254 0
4.7930002 -2.1379702 1.5926194 0
4.7990003 -2.1487622 1.5942429 0
4.8050003 -2.1595764 1.5958664 0
4.8110003 -2.1704118 1.5974897 0
4.8170004 -2.1812689 1.5991132 0
4.7440004 -2.0519502 1.5715258 0
4.7500005 -2.0625675 1.5731385 0
4.7560005 -2.0732064 1.574751 0
4.7620001 -2.0838668 1.5763634 0
4.7680001 -2.0945489 1.5779761 0
4.7740002 -2.1052527 1.5795888 0
4.7800002 -2.1159782 1.5812013 0
4.7860003 -2.1267252 1.582814 0
4.7930002 -2.1379702 1.5846953 0
4.7990003 -2.1487622 1.586308 0
4.8050003 -2.1595764 1.5879205 0
4.8110003 -2.1704118 1.5895331 0
4.8170004 -2.1812689 1.5911458 0
4.7440004 -2.0519502 1.5636901 0
4.7500005 -2.0625675 1.5652918 0
4.7560005 -2.0732064 1.5668936 0
4.7620001 -2.0838668 1.5684953 0
4.7680001 -2.0945489 1.5700971 0
4.7740002 -2.1052527 1.5716988 0
4.7800002 -2.1159782 1.5733006 0
4.7860003 -2.1267252 1.5749025 0
4.7930002 -2.1379702 1.5767711 0
4.7990003 -2.1487622 1.578373 0
4.8050003 -2.1595764 1.5799748 0
4.8110003 -2.1704118 1.5815766 0
4.8170004 -2.1812689 1.5831784 0
4.7500005 -2.0625675 1.5574453 0
4.7560005 -2.0732064 1.5590363 0
4.7620001 -2.0838668 1.5606271 0
4.7680001 -2.0945489 1.5622181 0
4.7740002 -2.1052527 1.563809 0
4.7800002 -2.1159782 1.5654 0
4.7860003 -2.1267252 1.566991 0
4.7930002 -2.1379702 1.5688471 0
4.7990003 -2.1487622 1.570438 0
4.8050003 -2.1595764 1.572029 0
4.8110003 -2.1704118 1.57362 0
4.8170004 -2.1812689 1.575211 0
4.7560005 -2.0732064 1.5511788 0
4.7620001 -2.0838668 1.5527588 0
4.7680001 -2.0945489 1.5543391 0
4.7740002 -2.1052527 1.5559192 0
4.7800002 -2.1159782 1.5574994 0
4.7860003 -2.1267252 1.5590794 0
4.7930002 -2.1379702 1.5609229 0
4.7990003 -2.1487622 1.5625031 0
4.8050003 -2.1595764 1.5640832 0
4.8110003 -2.1704118 1.5656633 0
4.8170004 -2.1812689 1.5672435 0
4.7620001 -2.0838668 1.5448906 0
4.7680001 -2.0945489 1.5464599 0
4.7740002 -2.1052527 1.5480293 0
4.7800002 -2.1159782 1.5495987 0
4.7860003 -2.1267252 1.551168 0
4.7930002 -2.1379702 1.5529989 0
4.7990003 -2.1487622 1.5545682 0
4.8050003 -2.1595764 1.5561374 0
4.8110003 -2.1704118 1.5577067 0
4.8170004 -2.1812689 1.5592761 0
4.7680001 -2.0945489 1.5385809 0
4.7740002 -2.1052527 1.5401394 0
4.7800002 -2.1159782 1.541698 0
4.7860003 -2.1267252 1.5432565 0
4.7930002 -2.1379702 1.5450747 0
4.7990003 -2.1487622 1.5466332 0
4.8050003 -2.1595764 1.5481917 0
4.8110003 -2.1704118 1.5497502 0
4.8170004 -2.1812689 1.5513086 0
4.7680001 -2.0945489 1.530702 0
4.7740002 -2.1052527 1.5322496 0
4.7800002 -2.1159782 1.5337973 0
4.7860003 -2.1267252 1.535345 0
4.7930002 -2.1379702 1.5371506 0
4.7990003 -2.1487622 1.5386982 0
4.8050003 -2.1595764 1.5402459 0
4.8110003 -2.1704118 1.5417936 0
4.8170004 -2.1812689 1.5433413 0
4.7740002 -2.1052527 1.5243598 0
4.7800002 -2.1159782 1.5258965 0
4.7860003 -2.1267252 1.5274334 0
4.7930002 -2.1379702 1.5292264 0
4.7990003 -2.1487622 1.5307633 0
4.8050003 -2.1595764 1.5323001 0
4.8110003 -2.1704118 1.5338371 0
4.8170004 -2.1812689 1.5353738 0
4.7740002 -2.1052527 1.5164698 0
4.7800002 -2.1159782 1.517996 0
4.7860003 -2.1267252 1.519522 0
4.7930002 -2.1379702 1.5213023 0
4.7990003 -2.1487622 1.5228283 0
4.8050003 -2.1595764 1.5243543 0
4.8110003 -2.1704118 1.5258805 0
4.8170004 -2.1812689 1.5274065 0
4.7800002 -2.1159782 1.5100952 0
4.7860003 -2.1267252 1.5116105 0
4.7930002 -2.1379702 1.5133781 0
4.7990003 -2.1487622 1.5148934 0
4.8050003 -2.1595764 1.5164086 0
4.8110003 -2.1704118 1.5179238 0
4.8170004 -2.1812689 1.5194391 0
4.7800002 -2.1159782 1.5021945 0
4.7860003 -2.1267252 1.5036988 0
4.7930002 -2.1379702 1.5054541 0
4.7990003 -2.1487622 1.5069584 0
4.8050003 -2.1595764 1.5084628 0
4.8110003 -2.1704118 1.5099672 0
4.8170004 -2.1812689 1.5114715 0
4.7860003 -2.1267252 1.4957874 0
4.7930002 -2.1379702 1.4975299 0
4.7990003 -2.1487622 1.4990234 0
4.8050003 -2.1595764 1.500517 0
4.8110003 -2.1704118 1.5020106 0
4.8170004 -2.1812689 1.5035042 0
4.7860003 -2.1267252 1.4878759 0
4.7930002 -2.1379702 1.4896058 0
4.7990003 -2.1487622 1.4910885 0
4.8050003 -2.1595764 1.4925712 0
4.8110003 -2.1704118 1.494054 0
4.8170004 -2.1812689 1.4955367 0
4.7860003 -2.1267252 1.4799645 0
4.7930002 -2.1379702 1.4816816 0
4.7990003 -2.1487622 1.4831536 0
4.8050003 -2.1595764 1.4846255 0
4.8110003 -2.1704118 1.4860975 0
4.8170004 -2.1812689 1.4875693 0
4.7930002 -2.1379702 1.4737575 0
4.7990003 -2.1487622 1.4752187 0
4.8050003 -2.1595764 1.4766797 0
4.8110003 -2.1704118 1.4781408 0
4.8170004 -2.1812689 1.4796019 0
4.7930002 -2.1379702 1.4658333 0
4.7990003 -2.1487622 1.4672836 0
4.8050003 -2.1595764 1.4687339 0
4.8110003 -2.1704118 1.4701842 0
4.8170004 -2.1812689 1.4716345 0
4.7930002 -2.1379702 1.4579093 0
4.7990003 -2.1487622 1.4593487 0
4.8050003 -2.1595764 1.4607882 0
4.8110003 -2.1704118 1.4622276 0
4.8170004 -2.1812689 1.463667 0
4.7990003 -2.1487622 1.4514138 0
4.8050003 -2.1595764 1.4528424 0
4.8110003 -2.1704118 1.454271 0
4.8170004 -2.1812689 1.4556997 0
4.7990003 -2.1487622 1.4434788 0
4.8050003 -2.1595764 1.4448967 0
4.8110003 -2.1704118 1.4463143 0
4.8170004 -2.1812689 1.4477322 0
4.7990003 -2.1487622 1.4355438 0
4.8050003 -2.1595764 1.4369508 0
4.8110003 -2.1704118 1.4383578 0
4.8170004 -2.1812689 1.4397647 0
4.7990003 -2.1487622 1.4276088 0
4.8050003 -2.1595764 1.4290051 0
4.8110003 -2.1704118 1.4304012 0
4.8170004 -2.1812689 1.4317974 0
4.8050003 -2.1595764 1.4210593 0
4.8110003 -2.1704118 1.4224446 0
4.8170004 -2.1812689 1.4238299 0
4.8050003 -2.1595764 1.4131135 0
4.8110003 -2.1704118 1.414488 0
4.8170004 -2.1812689 1.4158626 0
4.8050003 -2.1595764 1.4051677 0
4.8110003 -2.1704118 1.4065313 0
4.8170004 -2.1812689 1.4078951 0
4.8110003 -2.1704118 1.3985748 0
4.8170004 -2.1812689 1.3999277 0
4.8110003 -2.1704118 1.3906182 0
4.8170004 -2.1812689 1.3919601 0
4.8110003 -2.1704118 1.3826616 0
4.8170004 -2.1812689 1.3839928 0
4.8170004 -2.1812689 1.3760253 0
4.8170004 -2.1812689 1.368058 0
