# .PCD v0.7 - Point Cloud Data file format
VERSION 0.7
FIELDS x y z intensity
SIZE 4 4 4 4
TYPE F F F F
COUNT 1 1 1 1
WIDTH 1414
HEIGHT 1
VIEWPOINT 0 0 0 1 0 0 0
POINTS 1414
DATA ascii
4.3300004 -0.73362976 0.59540212 0
4.3250003 -0.73983485 0.59515858 0
4.322 -0.74637908 0.59501249 0
4.3170004 -0.75255173 0.594769 0
4.309 -0.75815976 0.59437937 0
4.302 -0.76392293 0.59403843 0
4.2950001 -0.76966083 0.59369755 0
4.29 -0.77574861 0.593454 0
4.2850003 -0.78181845 0.59321046 0
4.2800002 -0.78787023 0.59296697 0
4.276 -0.79409701 0.59277213 0
4.2730002 -0.80050415 0.59262604 0
4.27 -0.80690044 0.59247994 0
4.2680001 -0.81348437 0.59238255 0
4.2660003 -0.82006097 0.59228516 0
4.2660003 -0.82703453 0.59228516 0
4.2680001 -0.83441579 0.59238255 0
4.4760003 -0.93563098 0.60251272 0
4.4690003 -0.94144291 0.60217178 0
4.4640002 -0.9476732 0.60192829 0
4.4590001 -0.9538855 0.60168475 0
4.4550004 -0.96030533 0.60148996 0
4.0880003 -0.89751291 0.58361602 0
4.0780001 -0.90183848 0.58312899 0
4.0710001 -0.90683144 0.58278811 0
4.0650001 -0.91203541 0.58249587 0
4.0610003 -0.91769397 0.58230102 0
4.0580001 -0.92357796 0.58215493 0
4.0550003 -0.92945117 0.58200884 0
4.0540004 -0.93580061 0.58196014 0
4.053 -0.94214636 0.58191144 0
4.053 -0.94873571 0.58191144 0
4.0540004 -0.95557398 0.58196014 0
4.0560002 -0.96266645 0.58205754 0
4.059 -0.9700188 0.58220363 0
4.0640001 -0.97789061 0.58244717 0
4.0690002 -0.98578054 0.58269066 0
4.0740004 -0.99368834 0.5829342 0
4.079 -1.0016142 0.58317769 0
3.9250002 -0.96797144 0.57567745 0
3.9180002 -0.97248638 0.57533652 0
3.9110003 -0.97697604 0.57499564 0
3.9040003 -0.98144054 0.5746547 0
3.8970003 -0.98587972 0.57431376 0
3.8960001 -0.99191701 0.57426506 0
3.9000003 -0.9993127 0.57445991 0
3.9050002 -1.0069969 0.5747034 0
3.9100003 -1.0146991 0.57494694 0
3.9150002 -1.0224193 0.57519042 0
3.9200003 -1.0301578 0.57543397 0
3.9240003 -1.0376327 0.57562876 0
3.9290004 -1.0454054 0.5758723 0
3.9340003 -1.053196 0.57611579 0
3.9390004 -1.0610048 0.57635933 0
3.9440002 -1.0688314 0.57660282 0
3.9490004 -1.0766762 0.57684636 0
3.9540002 -1.0845391 0.57708985 0
3.9590003 -1.0924199 0.57733333 0
3.9640002 -1.1003187 0.57757688 0
3.9690003 -1.1082356 0.57782042 0
3.9740002 -1.1161705 0.57806391 0
3.9790003 -1.1241236 0.57830739 0
3.9840002 -1.1320945 0.57855093 0
3.9890003 -1.1400837 0.57879448 0
3.9940002 -1.1480908 0.57903796 0
3.9990003 -1.1561159 0.57928145 0
4.0040002 -1.1641591 0.57952499 0
4.0090003 -1.1722203 0.57976854 0
4.0139999 -1.1802995 0.58001202 0
4.0190001 -1.1883968 0.58025551 0
4.0240002 -1.1965122 0.58049905 0
4.0290003 -1.2046455 0.58074254 0
4.0339999 -1.2127969 0.58098608 0
4.04 -1.2212893 0.58127832 0
4.0450001 -1.2294786 0.58152181 0
4.0500002 -1.2376859 0.58176529 0
4.0550003 -1.2459112 0.58200884 0
4.0599999 -1.2541547 0.58225232 0
4.066 -1.262748 0.58254457 0
4.0710001 -1.2710294 0.58278811 0
4.0760002 -1.2793286 0.58303159 0
4.0810003 -1.2876461 0.58327508 0
4.0870004 -1.2963206 0.58356732 0
4.092 -1.3046757 0.58381081 0
4.0970001 -1.3130491 0.58405435 0
4.349 -0.71558446 0.58920419 0
4.3400002 -0.72116542 0.58878213 0
4.3330002 -0.7270602 0.58845383 0
4.3280001 -0.73327982 0.58821934 0
4.323 -0.73948127 0.58798486 0
4.3200002 -0.74602193 0.58784413 0
4.3180003 -0.7527321 0.58775032 0
4.3110003 -0.75852412 0.58742207 0
4.3040004 -0.76429093 0.58709377 0
4.2990003 -0.77040398 0.58685929 0
4.2940001 -0.77649909 0.5866248 0
4.289 -0.78257608 0.58639026 0
4.2850003 -0.78882629 0.58620268 0
4.2820001 -0.79525506 0.58606195 0
4.2790003 -0.801673 0.58592129 0
4.277 -0.80827671 0.58582747 0
4.276 -0.8150717 0.58578062 0
4.276 -0.82206327 0.58578062 0
4.2780004 -0.82945889 0.58587438 0
4.4810004 -0.92936099 0.59539491 0
4.4730005 -0.93497628 0.5950197 0
4.4660001 -0.94078267 0.5946914 0
4.4610004 -0.94700766 0.59445691 0
4.4570003 -0.95343822 0.59426928 0
4.4530001 -0.9598543 0.5940817 0
4.0880003 -0.89751291 0.5769636 0
4.0780001 -0.90183848 0.57649457 0
4.0710001 -0.90683144 0.57616627 0
4.0650001 -0.91203541 0.57588494 0
4.0610003 -0.91769397 0.5756973 0
4.0580001 -0.92357796 0.57555664 0
4.0550003 -0.92945117 0.57541591 0
4.0540004 -0.93580061 0.575369 0
4.053 -0.94214636 0.57532209 0
4.053 -0.94873571 0.57532209 0
4.0540004 -0.95557398 0.575369 0
4.0560002 -0.96266645 0.57546282 0
4.059 -0.9700188 0.57560349 0
4.0640001 -0.97789061 0.57583803 0
4.0690002 -0.98578054 0.57607251 0
4.0740004 -0.99368834 0.576307 0
4.079 -1.0016142 0.57654148 0
3.9250002 -0.96797144 0.56931901 0
3.9180002 -0.97248638 0.56899071 0
3.9110003 -0.97697604 0.56866246 0
3.9040003 -0.98144054 0.56833416 0
3.8970003 -0.98587972 0.56800586 0
3.8960001 -0.99191701 0.56795895 0
3.9000003 -0.9993127 0.56814659 0
3.9050002 -1.0069969 0.56838107 0
3.9100003 -1.0146991 0.56861556 0
3.9150002 -1.0224193 0.56885004 0
3.9200003 -1.0301578 0.56908453 0
3.9240003 -1.0376327 0.56927216 0
3.9290004 -1.0454054 0.56950665 0
3.9340003 -1.053196 0.56974113 0
3.9390004 -1.0610048 0.56997561 0
3.9440002 -1.0688314 0.5702101 0
3.9490004 -1.0766762 0.57044464 0
3.9540002 -1.0845391 0.57067913 0
3.9590003 -1.0924199 0.57091361 0
3.9640002 -1.1003187 0.5711481 0
3.9690003 -1.1082356 0.57138258 0
3.9740002 -1.1161705 0.57161707 0
3.9790003 -1.1241236 0.57185161 0
3.9840002 -1.1320945 0.5720861 0
3.9890003 -1.1400837 0.57232058 0
3.9940002 -1.1480908 0.57255507 0
3.9990003 -1.1561159 0.57278955 0
4.0040002 -1.1641591 0.57302403 0
4.0090003 -1.1722203 0.57325858 0
4.0139999 -1.1802995 0.57349306 0
4.0190001 -1.1883968 0.57372755 0
4.0240002 -1.1965122 0.57396203 0
4.0290003 -1.2046455 0.57419652 0
4.0339999 -1.2127969 0.57443106 0
4.04 -1.2212893 0.5747124 0
4.0450001 -1.2294786 0.57494694 0
4.0500002 -1.2376859 0.57518142 0
4.0550003 -1.2459112 0.57541591 0
4.0599999 -1.2541547 0.57565039 0
4.066 -1.262748 0.57593179 0
4.0710001 -1.2710294 0.57616627 0
4.0760002 -1.2793286 0.57640076 0
4.0810003 -1.2876461 0.5766353 0
4.0870004 -1.2963206 0.57691669 0
4.092 -1.3046757 0.57715118 0
4.0970001 -1.3130491 0.57738566 0
4.3470001 -0.71524537 0.58199078 0
4.3390002 -0.72099406 0.58163005 0
4.3320003 -0.72688711 0.58131433 0
4.3270001 -0.73310488 0.5810889 0
4.322 -0.73930454 0.58086342 0
4.3190002 -0.74584335 0.58072811 0
4.3170004 -0.75255173 0.58063793 0
4.3140001 -0.75907063 0.58050263 0
4.3080001 -0.76502687 0.58023208 0
4.303 -0.77114713 0.5800066 0
4.2980003 -0.77724946 0.57978112 0
4.2940001 -0.78352308 0.57960075 0
4.2910004 -0.7899735 0.57946545 0
4.2880001 -0.79641306 0.57933021 0
4.2870002 -0.80323148 0.57928509 0
4.2860003 -0.81004626 0.57923996 0
4.2860003 -0.81705588 0.57923996 0
4.2880001 -0.82446593 0.57933021 0
4.4780002 -0.92871159 0.58789825 0
4.4700003 -0.93432146 0.58753753 0
4.4640002 -0.94034255 0.58726692 0
4.4590001 -0.94656384 0.58704144 0
4.4550004 -0.95299089 0.58686107 0
4.4520001 -0.95962882 0.58672577 0
4.0880003 -0.89751291 0.57031113 0
4.0780001 -0.90183848 0.56986016 0
4.0710001 -0.90683144 0.56954455 0
4.0650001 -0.91203541 0.56927395 0
4.0610003 -0.91769397 0.56909359 0
4.0580001 -0.92357796 0.56895828 0
4.0550003 -0.92945117 0.56882298 0
4.0540004 -0.93580061 0.56877792 0
4.053 -0.94214636 0.5687328 0
4.053 -0.94873571 0.5687328 0
4.0540004 -0.95557398 0.56877792 0
4.0560002 -0.96266645 0.5688681 0
4.059 -0.9700188 0.56900334 0
4.0640001 -0.97789061 0.56922889 0
4.0690002 -0.98578054 0.56945431 0
4.0740004 -0.99368834 0.5696798 0
4.079 -1.0016142 0.56990528 0
3.9250002 -0.96797144 0.56296062 0
3.9180002 -0.97248638 0.56264496 0
3.9110003 -0.97697604 0.56232929 0
3.9040003 -0.98144054 0.56201363 0
3.8970003 -0.98587972 0.56169796 0
3.8960001 -0.99191701 0.56165284 0
3.9000003 -0.9993127 0.56183326 0
3.9050002 -1.0069969 0.56205869 0
3.9100003 -1.0146991 0.56228417 0
3.9150002 -1.0224193 0.56250966 0
3.9200003 -1.0301578 0.56273514 0
3.9240003 -1.0376327 0.5629155 0
3.9290004 -1.0454054 0.56314099 0
3.9340003 -1.053196 0.56336647 0
3.9390004 -1.0610048 0.56359196 0
3.9440002 -1.0688314 0.56381744 0
3.9490004 -1.0766762 0.56404293 0
3.9540002 -1.0845391 0.56426835 0
3.9590003 -1.0924199 0.56449383 0
3.9640002 -1.1003187 0.56471932 0
3.9690003 -1.1082356 0.5649448 0
3.9740002 -1.1161705 0.56517029 0
3.9790003 -1.1241236 0.56539577 0
3.9840002 -1.1320945 0.56562126 0
3.9890003 -1.1400837 0.56584668 0
3.9940002 -1.1480908 0.56607217 0
3.9990003 -1.1561159 0.56629765 0
4.0040002 -1.1641591 0.56652313 0
4.0090003 -1.1722203 0.56674862 0
4.0139999 -1.1802995 0.56697404 0
4.0190001 -1.1883968 0.56719959 0
4.0240002 -1.1965122 0.56742501 0
4.0290003 -1.2046455 0.5676505 0
4.0339999 -1.2127969 0.56787598 0
4.04 -1.2212893 0.56814659 0
4.0450001 -1.2294786 0.56837201 0
4.0500002 -1.2376859 0.5685975 0
4.0550003 -1.2459112 0.56882298 0
4.0599999 -1.2541547 0.56904846 0
4.066 -1.262748 0.56931901 0
4.0710001 -1.2710294 0.56954455 0
4.0760002 -1.2793286 0.56976998 0
4.0810003 -1.2876461 0.56999546 0
4.0870004 -1.2963206 0.57026601 0
4.092 -1.3046757 0.57049149 0
4.0970001 -1.3130491 0.57071698 0
4.3470001 -0.71524537 0.57487118 0
4.3380003 -0.72082269 0.57448155 0
4.3320003 -0.72688711 0.57422179 0
4.3270001 -0.73310488 0.57400537 0
4.322 -0.73930454 0.57378888 0
4.3190002 -0.74584335 0.573659 0
4.316 -0.75237131 0.57352912 0
4.3150001 -0.75925285 0.57348585 0
4.3120003 -0.76576281 0.57335597 0
4.3080001 -0.77207613 0.57318282 0
4.3040004 -0.77837503 0.57300961 0
4.3010001 -0.78484893 0.57287979 0
4.2980003 -0.79131192 0.57274985 0
4.296 -0.79795712 0.57266331 0
4.2950001 -0.80479002 0.57262003 0
4.2950001 -0.8118158 0.57262003 0
4.2980003 -0.81943691 0.57274985 0
4.4770002 -0.92849517 0.58049905 0
4.4690003 -0.93410319 0.58015275 0
4.4630003 -0.94012249 0.57989299 0
4.4580002 -0.94634199 0.57967651 0
4.4540005 -0.95276725 0.57950336 0
4.4510002 -0.95940334 0.57937348 0
4.0880003 -0.89751291 0.56365871 0
4.0780001 -0.90183848 0.56322575 0
4.0710001 -0.90683144 0.56292272 0
4.0650001 -0.91203541 0.56266296 0
4.0610003 -0.91769397 0.56248981 0
4.0580001 -0.92357796 0.56235993 0
4.0550003 -0.92945117 0.56223005 0
4.0540004 -0.93580061 0.56218678 0
4.053 -0.94214636 0.5621435 0
4.053 -0.94873571 0.5621435 0
4.0540004 -0.95557398 0.56218678 0
4.0560002 -0.96266645 0.56227338 0
4.059 -0.9700188 0.5624032 0
4.0640001 -0.97789061 0.56261969 0
4.0690002 -0.98578054 0.56283617 0
4.0740004 -0.99368834 0.56305265 0
4.079 -1.0016142 0.56326908 0
3.9250002 -0.96797144 0.55660218 0
3.9180002 -0.97248638 0.55629915 0
3.9110003 -0.97697604 0.55599612 0
3.9040003 -0.98144054 0.55569309 0
3.8970003 -0.98587972 0.55539006 0
3.8960001 -0.99191701 0.55534673 0
3.9000003 -0.9993127 0.55551994 0
3.9050002 -1.0069969 0.55573636 0
3.9100003 -1.0146991 0.55595279 0
3.9150002 -1.0224193 0.55616927 0
3.9200003 -1.0301578 0.55638576 0
3.9240003 -1.0376327 0.55655891 0
3.9290004 -1.0454054 0.55677533 0
3.9340003 -1.053196 0.55699182 0
3.9390004 -1.0610048 0.5572083 0
3.9440002 -1.0688314 0.55742472 0
3.9490004 -1.0766762 0.55764121 0
3.9540002 -1.0845391 0.55785763 0
3.9590003 -1.0924199 0.55807412 0
3.9640002 -1.1003187 0.55829054 0
3.9690003 -1.1082356 0.55850703 0
3.9740002 -1.1161705 0.55872345 0
3.9790003 -1.1241236 0.55893993 0
3.9840002 -1.1320945 0.55915642 0
3.9890003 -1.1400837 0.55937284 0
3.9940002 -1.1480908 0.55958927 0
3.9990003 -1.1561159 0.55980575 0
4.0040002 -1.1641591 0.56002223 0
4.0090003 -1.1722203 0.56023866 0
4.0139999 -1.1802995 0.56045508 0
4.0190001 -1.1883968 0.56067157 0
4.0240002 -1.1965122 0.56088805 0
4.0290003 -1.2046455 0.56110454 0
4.0339999 -1.2127969 0.56132096 0
4.04 -1.2212893 0.56158066 0
4.0450001 -1.2294786 0.56179714 0
4.0500002 -1.2376859 0.56201363 0
4.0550003 -1.2459112 0.56223005 0
4.0599999 -1.2541547 0.56244653 0
4.066 -1.262748 0.56270629 0
4.0710001 -1.2710294 0.56292272 0
4.0760002 -1.2793286 0.5631392 0
4.0810003 -1.2876461 0.56335568 0
4.0870004 -1.2963206 0.56361538 0
4.092 -1.3046757 0.56383187 0
4.0970001 -1.3130491 0.56404829 0
4.348 -0.71541488 0.56779301 0
4.3390002 -0.72099406 0.56741965 0
4.3330002 -0.7270602 0.56717068 0
4.3270001 -0.73310488 0.56692177 0
4.323 -0.73948127 0.56675583 0
4.3200002 -0.74602193 0.56663138 0
4.3170004 -0.75255173 0.56650692 0
4.316 -0.759435 0.56646538 0
4.3150001 -0.76631474 0.56642389 0
4.3130002 -0.77300501 0.56634092 0
4.3099999 -0.7795006 0.56621647 0
4.3070002 -0.78598535 0.56609201 0
4.3060002 -0.79284155 0.56605053 0
4.3050003 -0.79969424 0.56600904 0
4.3050003 -0.80673808 0.56600904 0
4.3080001 -0.81437182 0.5661335 0
4.4770002 -0.92849517 0.57314491 0
4.4690003 -0.93410319 0.57281303 0
4.4630003 -0.94012249 0.57256413 0
4.4580002 -0.94634199 0.57235664 0
4.4540005 -0.95276725 0.5721907 0
4.4510002 -0.95940334 0.57206625 0
4.0880003 -0.89751291 0.55700624 0
4.0780001 -0.90183848 0.55659139 0
4.0710001 -0.90683144 0.55630094 0
4.0650001 -0.91203541 0.55605203 0
4.0610003 -0.91769397 0.55588609 0
4.0580001 -0.92357796 0.55576164 0
4.0550003 -0.92945117 0.55563712 0
4.0540004 -0.93580061 0.55559564 0
4.053 -0.94214636 0.55555415 0
4.053 -0.94873571 0.55555415 0
4.0540004 -0.95557398 0.55559564 0
4.0560002 -0.96266645 0.55567861 0
4.059 -0.9700188 0.55580312 0
4.0640001 -0.97789061 0.55601054 0
4.0690002 -0.98578054 0.55621797 0
4.0740004 -0.99368834 0.55642545 0
4.079 -1.0016142 0.55663288 0
3.9250002 -0.96797144 0.55024374 0
3.9180002 -0.97248638 0.54995334 0
3.9110003 -0.97697604 0.54966295 0
3.9040003 -0.98144054 0.54937255 0
3.8970003 -0.98587972 0.5490821 0
3.8960001 -0.99191701 0.54904062 0
3.9000003 -0.9993127 0.54920661 0
3.9050002 -1.0069969 0.54941404 0
3.9100003 -1.0146991 0.54962146 0
3.9150002 -1.0224193 0.54982889 0
3.9200003 -1.0301578 0.55003631 0
3.9240003 -1.0376327 0.55020225 0
3.9290004 -1.0454054 0.55040973 0
3.9340003 -1.053196 0.55061716 0
3.9390004 -1.0610048 0.55082458 0
3.9440002 -1.0688314 0.55103201 0
3.9490004 -1.0766762 0.55123949 0
3.9540002 -1.0845391 0.55144691 0
3.9590003 -1.0924199 0.55165434 0
3.9640002 -1.1003187 0.55186176 0
3.9690003 -1.1082356 0.55206919 0
3.9740002 -1.1161705 0.55227667 0
3.9790003 -1.1241236 0.5524841 0
3.9840002 -1.1320945 0.55269152 0
3.9890003 -1.1400837 0.552899 0
3.9940002 -1.1480908 0.55310643 0
3.9990003 -1.1561159 0.55331385 0
4.0040002 -1.1641591 0.55352128 0
4.0090003 -1.1722203 0.5537287 0
4.0139999 -1.1802995 0.55393612 0
4.0190001 -1.1883968 0.55414361 0
4.0240002 -1.1965122 0.55435103 0
4.0290003 -1.2046455 0.55455846 0
4.0339999 -1.2127969 0.55476594 0
4.04 -1.2212893 0.55501485 0
4.0450001 -1.2294786 0.55522227 0
4.0500002 -1.2376859 0.5554297 0
4.0550003 -1.2459112 0.55563712 0
4.0599999 -1.2541547 0.5558446 0
4.066 -1.262748 0.55609351 0
4.0710001 -1.2710294 0.55630094 0
4.0760002 -1.2793286 0.55650842 0
4.0810003 -1.2876461 0.55671585 0
4.0870004 -1.2963206 0.55696476 0
4.092 -1.3046757 0.55717218 0
4.0970001 -1.3130491 0.5573796 0
4.3500004 -0.71575397 0.56075096 0
4.3410001 -0.72133678 0.56039381 0
4.3340001 -0.72723347 0.56011599 0
4.329 -0.73345476 0.55991757 0
4.3250003 -0.73983485 0.55975884 0
4.3210001 -0.7462005 0.55960011 0
4.3190002 -0.75291246 0.55952072 0
4.3170004 -0.75961721 0.55944139 0
4.316 -0.76649868 0.55940169 0
4.316 -0.77356243 0.55940169 0
4.316 -0.78062612 0.55940169 0
4.3150001 -0.78750044 0.55936205 0
4.3150001 -0.7945624 0.55936205 0
4.3150001 -0.8016243 0.55936205 0
4.3180003 -0.80927062 0.55948108 0
4.4780002 -0.92871159 0.56583047 0
4.4700003 -0.93432146 0.56551301 0
4.4640002 -0.94034255 0.56527489 0
4.4590001 -0.94656384 0.56507647 0
4.4550004 -0.95299089 0.56491774 0
4.0880003 -0.89751291 0.55035377 0
4.0780001 -0.90183848 0.54995698 0
4.0710001 -0.90683144 0.54967916 0
4.0650001 -0.91203541 0.5494411 0
4.0610003 -0.91769397 0.54928231 0
4.0580001 -0.92357796 0.54916328 0
4.0550003 -0.92945117 0.54904425 0
4.0540004 -0.93580061 0.54900455 0
4.053 -0.94214636 0.54896486 0
4.053 -0.94873571 0.54896486 0
4.0540004 -0.95557398 0.54900455 0
4.0560002 -0.96266645 0.54908395 0
4.059 -0.9700188 0.54920298 0
4.0640001 -0.97789061 0.5494014 0
4.0690002 -0.98578054 0.54959983 0
4.0740004 -0.99368834 0.54979825 0
4.079 -1.0016142 0.54999661 0
3.9250002 -0.96797144 0.54388535 0
3.9180002 -0.97248638 0.54360759 0
3.9110003 -0.97697604 0.54332978 0
3.9040003 -0.98144054 0.54305196 0
3.8970003 -0.98587972 0.5427742 0
3.8960001 -0.99191701 0.5427345 0
3.9000003 -0.9993127 0.54289329 0
3.9050002 -1.0069969 0.54309165 0
3.9100003 -1.0146991 0.54329008 0
3.9150002 -1.0224193 0.5434885 0
3.9200003 -1.0301578 0.54368693 0
3.9240003 -1.0376327 0.54384565 0
3.9290004 -1.0454054 0.54404408 0
3.9340003 -1.053196 0.5442425 0
3.9390004 -1.0610048 0.54444093 0
3.9440002 -1.0688314 0.54463935 0
3.9490004 -1.0766762 0.54483777 0
3.9540002 -1.0845391 0.5450362 0
3.9590003 -1.0924199 0.54523456 0
3.9640002 -1.1003187 0.54543304 0
3.9690003 -1.1082356 0.54563141 0
3.9740002 -1.1161705 0.54582983 0
3.9790003 -1.1241236 0.54602826 0
3.9840002 -1.1320945 0.54622668 0
3.9890003 -1.1400837 0.5464251 0
3.9940002 -1.1480908 0.54662353 0
3.9990003 -1.1561159 0.54682195 0
4.0040002 -1.1641591 0.54702038 0
4.0090003 -1.1722203 0.5472188 0
4.0139999 -1.1802995 0.54741716 0
4.0190001 -1.1883968 0.54761565 0
4.0240002 -1.1965122 0.54781401 0
4.0290003 -1.2046455 0.5480125 0
4.0339999 -1.2127969 0.54821086 0
4.04 -1.2212893 0.54844898 0
4.0450001 -1.2294786 0.5486474 0
4.0500002 -1.2376859 0.54884583 0
4.0550003 -1.2459112 0.54904425 0
4.0599999 -1.2541547 0.54924268 0
4.066 -1.262748 0.54948074 0
4.0710001 -1.2710294 0.54967916 0
4.0760002 -1.2793286 0.54987758 0
4.0810003 -1.2876461 0.55007601 0
4.0870004 -1.2963206 0.55031413 0
4.092 -1.3046757 0.55051255 0
4.0970001 -1.3130491 0.55071098 0
4.3540001 -0.71643227 0.55377746 0
4.3440003 -0.72185087 0.55339861 0
4.3370004 -0.72775292 0.55313349 0
4.3310003 -0.73380476 0.55290616 0
4.3270001 -0.74018842 0.55275464 0
4.323 -0.74655765 0.55260313 0
4.3210001 -0.75327325 0.55252737 0
4.3190002 -0.75998151 0.55245161 0
4.3180003 -0.76686668 0.55241376 0
4.3180003 -0.77393401 0.55241376 0
4.3190002 -0.78118896 0.55245161 0
4.3200002 -0.78844744 0.55248952 0
4.323 -0.79609197 0.55260313 0
4.3270001 -0.80394042 0.55275464 0
4.4720001 -0.93475795 0.55824727 0
4.4660001 -0.94078267 0.55802 0
4.4610004 -0.94700766 0.55783057 0
4.0880003 -0.89751291 0.54370135 0
4.0780001 -0.90183848 0.54332256 0
4.0710001 -0.90683144 0.54305738 0
4.0650001 -0.91203541 0.54283011 0
4.0610003 -0.91769397 0.54267859 0
4.0580001 -0.92357796 0.54256499 0
4.0550003 -0.92945117 0.54245132 0
4.0540004 -0.93580061 0.54241347 0
4.053 -0.94214636 0.54237556 0
4.053 -0.94873571 0.54237556 0
4.0540004 -0.95557398 0.54241347 0
4.0560002 -0.96266645 0.54248917 0
4.059 -0.9700188 0.54260284 0
4.0640001 -0.97789061 0.54279226 0
4.0690002 -0.98578054 0.54298162 0
4.0740004 -0.99368834 0.54317105 0
4.079 -1.0016142 0.54336041 0
3.9250002 -0.96797144 0.53752691 0
3.9180002 -0.97248638 0.53726178 0
3.9110003 -0.97697604 0.5369966 0
3.9040003 -0.98144054 0.53673148 0
3.8970003 -0.98587972 0.5364663 0
3.8960001 -0.99191701 0.53642839 0
3.9000003 -0.9993127 0.53657991 0
3.9050002 -1.0069969 0.53676933 0
3.9100003 -1.0146991 0.53695869 0
3.9150002 -1.0224193 0.53714812 0
3.9200003 -1.0301578 0.53733754 0
3.9240003 -1.0376327 0.53748906 0
3.9290004 -1.0454054 0.53767848 0
3.9340003 -1.053196 0.53786784 0
3.9390004 -1.0610048 0.53805727 0
3.9440002 -1.0688314 0.53824663 0
3.9490004 -1.0766762 0.53843606 0
3.9540002 -1.0845391 0.53862542 0
3.9590003 -1.0924199 0.53881484 0
3.9640002 -1.1003187 0.53900421 0
3.9690003 -1.1082356 0.53919363 0
3.9740002 -1.1161705 0.53938305 0
3.9790003 -1.1241236 0.53957242 0
3.9840002 -1.1320945 0.53976184 0
3.9890003 -1.1400837 0.53995121 0
3.9940002 -1.1480908 0.54014063 0
3.9990003 -1.1561159 0.54033005 0
4.0040002 -1.1641591 0.54051948 0
4.0090003 -1.1722203 0.54070884 0
4.0139999 -1.1802995 0.5408982 0
4.0190001 -1.1883968 0.54108763 0
4.0240002 -1.1965122 0.54127705 0
4.0290003 -1.2046455 0.54146647 0
4.0339999 -1.2127969 0.54165584 0
4.04 -1.2212893 0.54188311 0
4.0450001 -1.2294786 0.54207253 0
4.0500002 -1.2376859 0.5422619 0
4.0550003 -1.2459112 0.54245132 0
4.0599999 -1.2541547 0.54264069 0
4.066 -1.262748 0.54286802 0
4.0710001 -1.2710294 0.54305738 0
4.0760002 -1.2793286 0.54324681 0
4.0810003 -1.2876461 0.54343617 0
4.0870004 -1.2963206 0.5436635 0
4.092 -1.3046757 0.54385287 0
4.0970001 -1.3130491 0.54404229 0
4.349 -0.72270763 0.5464648 0
4.3410001 -0.72844559 0.5461762 0
4.335 -0.73450458 0.54595971 0
4.3300004 -0.74071872 0.54577935 0
4.3270001 -0.74727196 0.54567111 0
4.3240004 -0.75381434 0.54556286 0
4.322 -0.76052809 0.54549074 0
4.322 -0.76760262 0.54549074 0
4.3210001 -0.77449143 0.54545468 0
4.322 -0.78175175 0.54549074 0
4.3240004 -0.78920507 0.54556286 0
4.3270001 -0.79685682 0.54567111 0
4.3310003 -0.80471241 0.54581541 0
4.0880003 -0.89751291 0.53704894 0
4.0780001 -0.90183848 0.53668815 0
4.0710001 -0.90683144 0.5364356 0
4.0650001 -0.91203541 0.53621912 0
4.0610003 -0.91769397 0.53607488 0
4.0580001 -0.92357796 0.53596663 0
4.0550003 -0.92945117 0.53585839 0
4.0540004 -0.93580061 0.53582233 0
4.053 -0.94214636 0.53578627 0
4.053 -0.94873571 0.53578627 0
4.0540004 -0.95557398 0.53582233 0
4.0560002 -0.96266645 0.53589445 0
4.059 -0.9700188 0.5360027 0
4.0640001 -0.97789061 0.53618312 0
4.0690002 -0.98578054 0.53636348 0
4.0740004 -0.99368834 0.53654385 0
4.079 -1.0016142 0.53672421 0
3.9250002 -0.96797144 0.53116846 0
3.9180002 -0.97248638 0.53091598 0
3.9110003 -0.97697604 0.53066343 0
3.9040003 -0.98144054 0.53041089 0
3.8970003 -0.98587972 0.53015834 0
3.8960001 -0.99191701 0.53012228 0
3.9000003 -0.9993127 0.53026658 0
3.9050002 -1.0069969 0.53044701 0
3.9100003 -1.0146991 0.53062737 0
3.9150002 -1.0224193 0.53080773 0
3.9200003 -1.0301578 0.5309881 0
3.9240003 -1.0376327 0.5311324 0
3.9290004 -1.0454054 0.53131282 0
3.9340003 -1.053196 0.53149319 0
3.9390004 -1.0610048 0.53167355 0
3.9440002 -1.0688314 0.53185391 0
3.9490004 -1.0766762 0.53203434 0
3.9540002 -1.0845391 0.5322147 0
3.9590003 -1.0924199 0.53239512 0
3.9640002 -1.1003187 0.53257549 0
3.9690003 -1.1082356 0.53275585 0
3.9740002 -1.1161705 0.53293622 0
3.9790003 -1.1241236 0.53311658 0
3.9840002 -1.1320945 0.533297 0
3.9890003 -1.1400837 0.53347737 0
3.9940002 -1.1480908 0.53365779 0
3.9990003 -1.1561159 0.53383815 0
4.0040002 -1.1641591 0.53401852 0
4.0090003 -1.1722203 0.53419888 0
4.0139999 -1.1802995 0.53437924 0
4.0190001 -1.1883968 0.53455967 0
4.0240002 -1.1965122 0.53474003 0
4.0290003 -1.2046455 0.53492039 0
4.0339999 -1.2127969 0.53510082 0
4.04 -1.2212893 0.53531724 0
4.0450001 -1.2294786 0.53549767 0
4.0500002 -1.2376859 0.53567803 0
4.0550003 -1.2459112 0.53585839 0
4.0599999 -1.2541547 0.53603876 0
4.066 -1.262748 0.53625524 0
4.0710001 -1.2710294 0.5364356 0
4.0760002 -1.2793286 0.53661597 0
4.0810003 -1.2876461 0.53679639 0
4.0870004 -1.2963206 0.53701282 0
4.092 -1.3046757 0.53719318 0
4.0970001 -1.3130491 0.5373736 0
4.3559999 -0.72390717 0.53958142 0
4.3460002 -0.72931141 0.53923869 0
4.3400002 -0.73537946 0.53903311 0
4.335 -0.74160254 0.53886175 0
4.3310003 -0.74798626 0.53872466 0
4.3280001 -0.75453585 0.53862184 0
4.3270001 -0.76143903 0.53858757 0
4.3260002 -0.76833862 0.5385533 0
4.3260002 -0.77542037 0.5385533 0
4.3260002 -0.78250211 0.5385533 0
4.329 -0.79015207 0.53865612 0
4.3320003 -0.79781288 0.53875893 0
4.0880003 -0.89751291 0.53039646 0
4.0780001 -0.90183848 0.53005373 0
4.0710001 -0.90683144 0.52981383 0
4.0650001 -0.91203541 0.52960819 0
4.0610003 -0.91769397 0.5294711 0
4.0580001 -0.92357796 0.52936828 0
4.0550003 -0.92945117 0.52926546 0
4.0540004 -0.93580061 0.52923119 0
4.053 -0.94214636 0.52919692 0
4.053 -0.94873571 0.52919692 0
4.0540004 -0.95557398 0.52923119 0
4.0560002 -0.96266645 0.52929974 0
4.059 -0.9700188 0.52940255 0
4.0640001 -0.97789061 0.52957392 0
4.0690002 -0.98578054 0.52974528 0
4.0740004 -0.99368834 0.52991664 0
4.079 -1.0016142 0.53008801 0
3.9250002 -0.96797144 0.52481008 0
3.9180002 -0.97248638 0.52457017 0
3.9110003 -0.97697604 0.52433026 0
3.9040003 -0.98144054 0.52409035 0
3.8970003 -0.98587972 0.52385044 0
3.8960001 -0.99191701 0.52381617 0
3.9000003 -0.9993127 0.52395326 0
3.9050002 -1.0069969 0.52412462 0
3.9100003 -1.0146991 0.52429599 0
3.9150002 -1.0224193 0.52446735 0
3.9200003 -1.0301578 0.52463871 0
3.9240003 -1.0376327 0.5247758 0
3.9290004 -1.0454054 0.52494717 0
3.9340003 -1.053196 0.52511853 0
3.9390004 -1.0610048 0.52528989 0
3.9440002 -1.0688314 0.52546126 0
3.9490004 -1.0766762 0.52563262 0
3.9540002 -1.0845391 0.52580398 0
3.9590003 -1.0924199 0.52597535 0
3.9640002 -1.1003187 0.52614671 0
3.9690003 -1.1082356 0.52631807 0
3.9740002 -1.1161705 0.52648944 0
3.9790003 -1.1241236 0.5266608 0
3.9840002 -1.1320945 0.5268321 0
3.9890003 -1.1400837 0.52700353 0
3.9940002 -1.1480908 0.52717483 0
3.9990003 -1.1561159 0.52734625 0
4.0040002 -1.1641591 0.52751756 0
4.0090003 -1.1722203 0.52768898 0
4.0139999 -1.1802995 0.52786028 0
4.0190001 -1.1883968 0.52803165 0
4.0240002 -1.1965122 0.52820301 0
4.0290003 -1.2046455 0.52837437 0
4.0339999 -1.2127969 0.52854574 0
4.04 -1.2212893 0.52875137 0
4.0450001 -1.2294786 0.52892274 0
4.0500002 -1.2376859 0.5290941 0
4.0550003 -1.2459112 0.52926546 0
4.0599999 -1.2541547 0.52943683 0
4.066 -1.262748 0.52964246 0
4.0710001 -1.2710294 0.52981383 0
4.0760002 -1.2793286 0.52998519 0
4.0810003 -1.2876461 0.53015655 0
4.0870004 -1.2963206 0.53036219 0
4.092 -1.3046757 0.53053355 0
4.0970001 -1.3130491 0.53070492 0
4.3540001 -0.73069674 0.53238064 0
4.3470001 -0.73660427 0.53215337 0
4.3410001 -0.7426632 0.53195858 0
4.3370004 -0.74905771 0.5318287 0
4.3340001 -0.75561816 0.53173125 0
4.3320003 -0.76234996 0.53166634 0
4.3310003 -0.76925862 0.53163385 0
4.3320003 -0.77653509 0.53166634 0
4.3330002 -0.78381526 0.53169882 0
4.335 -0.7912885 0.53176373 0
4.322 -0.79590082 0.53134167 0
4.3120003 -0.80104524 0.53101695 0
4.302 -0.80615366 0.53069228 0
4.1700001 -0.87564361 0.52640641 0
4.1620002 -0.88066894 0.52614671 0
4.0880003 -0.89751291 0.52374399 0
4.0780001 -0.90183848 0.52341932 0
4.0710001 -0.90683144 0.52319205 0
4.0650001 -0.91203541 0.52299726 0
4.0610003 -0.91769397 0.52286738 0
4.0580001 -0.92357796 0.52276993 0
4.0550003 -0.92945117 0.52267253 0
4.0540004 -0.93580061 0.52264011 0
4.053 -0.94214636 0.52260762 0
4.053 -0.94873571 0.52260762 0
4.0540004 -0.95557398 0.52264011 0
4.0560002 -0.96266645 0.52270502 0
4.059 -0.9700188 0.52280241 0
4.0640001 -0.97789061 0.52296478 0
4.0690002 -0.98578054 0.52312708 0
4.0740004 -0.99368834 0.52328944 0
4.079 -1.0016142 0.52345181 0
3.9250002 -0.96797144 0.51845163 0
3.9180002 -0.97248638 0.51822436 0
3.9110003 -0.97697604 0.51799709 0
3.9040003 -0.98144054 0.51776981 0
3.8970003 -0.98587972 0.51754254 0
3.8960001 -0.99191701 0.51751006 0
3.9000003 -0.9993127 0.51763994 0
3.9050002 -1.0069969 0.5178023 0
3.9100003 -1.0146991 0.5179646 0
3.9150002 -1.0224193 0.51812696 0
3.9200003 -1.0301578 0.51828933 0
3.9240003 -1.0376327 0.51841915 0
3.9290004 -1.0454054 0.51858151 0
3.9340003 -1.053196 0.51874387 0
3.9390004 -1.0610048 0.51890624 0
3.9440002 -1.0688314 0.51906854 0
3.9490004 -1.0766762 0.5192309 0
3.9540002 -1.0845391 0.51939321 0
3.9590003 -1.0924199 0.51955557 0
3.9640002 -1.1003187 0.51971793 0
3.9690003 -1.1082356 0.51988029 0
3.9740002 -1.1161705 0.5200426 0
3.9790003 -1.1241236 0.52020496 0
3.9840002 -1.1320945 0.52036726 0
3.9890003 -1.1400837 0.52052963 0
3.9940002 -1.1480908 0.52069199 0
3.9990003 -1.1561159 0.52085435 0
4.0040002 -1.1641591 0.52101666 0
4.0090003 -1.1722203 0.52117902 0
4.0139999 -1.1802995 0.52134132 0
4.0190001 -1.1883968 0.52150369 0
4.0240002 -1.1965122 0.52166605 0
4.0290003 -1.2046455 0.52182841 0
4.0339999 -1.2127969 0.52199072 0
4.04 -1.2212893 0.52218556 0
4.0450001 -1.2294786 0.52234787 0
4.0500002 -1.2376859 0.52251023 0
4.0550003 -1.2459112 0.52267253 0
4.0599999 -1.2541547 0.5228349 0
4.066 -1.262748 0.52302969 0
4.0710001 -1.2710294 0.52319205 0
4.0760002 -1.2793286 0.52335441 0
4.0810003 -1.2876461 0.52351671 0
4.0870004 -1.2963206 0.52371156 0
4.092 -1.3046757 0.52387387 0
4.0970001 -1.3130491 0.52403623 0
4.3570004 -0.73835391 0.52534038 0
4.3500004 -0.74425423 0.52512574 0
4.3450003 -0.75048631 0.52497244 0
4.342 -0.75706118 0.52488041 0
4.3400002 -0.76380748 0.52481908 0
4.3330002 -0.76962656 0.52460444 0
4.323 -0.77486295 0.52429777 0
4.3140001 -0.78025097 0.5240218 0
4.3040004 -0.78541714 0.52371514 0
4.2950001 -0.79073834 0.52343917 0
4.2860003 -0.79602706 0.5231632 0
4.198 -0.84755099 0.52046472 0
4.1900001 -0.85269916 0.52021939 0
4.1810002 -0.85760367 0.51994342 0
4.1730003 -0.86269224 0.51969808 0
4.164 -0.86753368 0.51942211 0
4.1560001 -0.87256265 0.51917678 0
4.1490002 -0.87778467 0.51896214 0
4.1540003 -0.88566554 0.51911545 0
4.1589999 -0.89356434 0.51926875 0
4.0880003 -0.89751291 0.51709157 0
4.0780001 -0.90183848 0.51678491 0
4.0710001 -0.90683144 0.51657027 0
4.0650001 -0.91203541 0.51638627 0
4.0610003 -0.91769397 0.5162636 0
4.0580001 -0.92357796 0.51617163 0
4.0550003 -0.92945117 0.51607966 0
4.0540004 -0.93580061 0.51604897 0
4.053 -0.94214636 0.51601833 0
4.053 -0.94873571 0.51601833 0
4.0540004 -0.95557398 0.51604897 0
4.0560002 -0.96266645 0.5161103 0
4.059 -0.9700188 0.51620233 0
4.0640001 -0.97789061 0.51635563 0
4.0690002 -0.98578054 0.51650894 0
4.0740004 -0.99368834 0.51666224 0
4.079 -1.0016142 0.5168156 0
3.9250002 -0.96797144 0.51209325 0
3.9180002 -0.97248638 0.51187855 0
3.9110003 -0.97697604 0.51166391 0
3.9040003 -0.98144054 0.51144928 0
3.8970003 -0.98587972 0.51123464 0
3.8960001 -0.99191701 0.51120394 0
3.9000003 -0.9993127 0.51132661 0
3.9050002 -1.0069969 0.51147991 0
3.9100003 -1.0146991 0.51163328 0
3.9150002 -1.0224193 0.51178658 0
3.9200003 -1.0301578 0.51193988 0
3.9240003 -1.0376327 0.51206255 0
3.9290004 -1.0454054 0.51221585 0
3.9340003 -1.053196 0.51236922 0
3.9390004 -1.0610048 0.51252252 0
3.9440002 -1.0688314 0.51267588 0
3.9490004 -1.0766762 0.51282918 0
3.9540002 -1.0845391 0.51298249 0
3.9590003 -1.0924199 0.51313585 0
3.9640002 -1.1003187 0.51328915 0
3.9690003 -1.1082356 0.51344246 0
3.9740002 -1.1161705 0.51359582 0
3.9790003 -1.1241236 0.51374912 0
3.9840002 -1.1320945 0.51390243 0
3.9890003 -1.1400837 0.51405579 0
3.9940002 -1.1480908 0.51420909 0
3.9990003 -1.1561159 0.51436239 0
4.0040002 -1.1641591 0.51451576 0
4.0090003 -1.1722203 0.51466906 0
4.0139999 -1.1802995 0.51482236 0
4.0190001 -1.1883968 0.51497573 0
4.0240002 -1.1965122 0.51512903 0
4.0290003 -1.2046455 0.51528233 0
4.0339999 -1.2127969 0.5154357 0
4.04 -1.2212893 0.51561964 0
4.0450001 -1.2294786 0.515773 0
4.0500002 -1.2376859 0.5159263 0
4.0550003 -1.2459112 0.51607966 0
4.0599999 -1.2541547 0.51623297 0
4.066 -1.262748 0.51641697 0
4.0710001 -1.2710294 0.51657027 0
4.0760002 -1.2793286 0.51672357 0
4.0810003 -1.2876461 0.51687694 0
4.0870004 -1.2963206 0.51706094 0
4.092 -1.3046757 0.51721424 0
4.0970001 -1.3130491 0.51736754 0
4.3559999 -0.74531484 0.51817387 0
4.3460002 -0.75066489 0.51788527 0
4.3370004 -0.75615931 0.51762551 0
4.3280001 -0.76162124 0.51736575 0
4.3190002 -0.76705068 0.517106 0
4.3099999 -0.77244771 0.51684624 0
4.3010001 -0.77781224 0.51658654 0
4.2920003 -0.7831443 0.51632679 0
4.283 -0.78844386 0.51606703 0
4.2740002 -0.79371095 0.51580727 0
4.2660003 -0.79914045 0.51557636 0
4.257 -0.80434442 0.51531661 0
4.2480001 -0.80951595 0.51505691 0
4.2400002 -0.81485522 0.514826 0
4.2309999 -0.81996363 0.51456624 0
4.2220001 -0.82503951 0.51430649 0
4.2140002 -0.83028859 0.51407564 0
4.2049999 -0.8353014 0.51381588 0
4.197 -0.84049094 0.51358497 0
4.1880002 -0.84544057 0.51332521 0
4.1800003 -0.85057068 0.51309431 0
4.1719999 -0.85567176 0.51286346 0
4.1630001 -0.86052763 0.5126037 0
4.1550002 -0.86556929 0.51237279 0
4.1470003 -0.8705821 0.51214194 0
4.1490002 -0.87778467 0.51219964 0
4.1540003 -0.88566554 0.51234394 0
4.1589999 -0.89356434 0.51248825 0
4.0880003 -0.89751291 0.51043916 0
4.0780001 -0.90183848 0.51015055 0
4.0710001 -0.90683144 0.50994849 0
4.0650001 -0.91203541 0.50977534 0
4.0610003 -0.91769397 0.50965989 0
4.0580001 -0.92357796 0.50957328 0
4.0550003 -0.92945117 0.50948673 0
4.0540004 -0.93580061 0.50945789 0
4.053 -0.94214636 0.50942898 0
4.053 -0.94873571 0.50942898 0
4.0540004 -0.95557398 0.50945789 0
4.0560002 -0.96266645 0.50951558 0
4.059 -0.9700188 0.50960219 0
4.0640001 -0.97789061 0.50974649 0
4.0690002 -0.98578054 0.50989079 0
4.0740004 -0.99368834 0.5100351 0
4.079 -1.0016142 0.5101794 0
3.9250002 -0.96797144 0.5057348 0
3.9180002 -0.97248638 0.50553274 0
3.9110003 -0.97697604 0.50533074 0
3.9040003 -0.98144054 0.50512874 0
3.8970003 -0.98587972 0.50492668 0
3.8960001 -0.99191701 0.50489783 0
3.9000003 -0.9993127 0.50501329 0
3.9050002 -1.0069969 0.50515759 0
3.9100003 -1.0146991 0.50530189 0
3.9150002 -1.0224193 0.5054462 0
3.9200003 -1.0301578 0.5055905 0
3.9240003 -1.0376327 0.50570595 0
3.9290004 -1.0454054 0.50585026 0
3.9340003 -1.053196 0.50599456 0
3.9390004 -1.0610048 0.50613886 0
3.9440002 -1.0688314 0.50628316 0
3.9490004 -1.0766762 0.50642747 0
3.9540002 -1.0845391 0.50657177 0
3.9590003 -1.0924199 0.50671607 0
3.9640002 -1.1003187 0.50686038 0
3.9690003 -1.1082356 0.50700468 0
3.9740002 -1.1161705 0.50714898 0
3.9790003 -1.1241236 0.50729328 0
3.9840002 -1.1320945 0.50743759 0
3.9890003 -1.1400837 0.50758189 0
3.9940002 -1.1480908 0.50772619 0
3.9990003 -1.1561159 0.5078705 0
4.0040002 -1.1641591 0.5080148 0
4.0090003 -1.1722203 0.5081591 0
4.0139999 -1.1802995 0.5083034 0
4.0190001 -1.1883968 0.50844771 0
4.0240002 -1.1965122 0.50859201 0
4.0290003 -1.2046455 0.50873631 0
4.0339999 -1.2127969 0.50888062 0
4.04 -1.2212893 0.50905383 0
4.0450001 -1.2294786 0.50919813 0
4.0500002 -1.2376859 0.50934243 0
4.0550003 -1.2459112 0.50948673 0
4.0599999 -1.2541547 0.50963104 0
4.066 -1.262748 0.50980419 0
4.0710001 -1.2710294 0.50994849 0
4.0760002 -1.2793286 0.51009279 0
4.0810003 -1.2876461 0.5102371 0
4.0870004 -1.2963206 0.51041025 0
4.092 -1.3046757 0.51055455 0
4.0970001 -1.3130491 0.51069891 0
4.3559999 -0.73817891 0.51103801 0
4.3460002 -0.74354708 0.5107674 0
4.3370004 -0.74905771 0.51052392 0
4.3280001 -0.75453585 0.51028037 0
4.3190002 -0.75998151 0.51003689 0
4.3099999 -0.76539481 0.50979334 0
4.302 -0.77096134 0.50957692 0
4.2930002 -0.77631146 0.50933337 0
4.2840004 -0.78162909 0.50908989 0
4.2750001 -0.78691423 0.5088464 0
4.2670002 -0.79235995 0.50862992 0
4.2580004 -0.79758197 0.50838637 0
4.2490001 -0.80277151 0.50814289 0
4.2410002 -0.80812699 0.5079264 0
4.2320004 -0.81325346 0.50768292 0
4.224 -0.81854945 0.50746644 0
4.2150002 -0.82361275 0.50722295 0
4.2070003 -0.82884914 0.50700647 0
4.198 -0.83384931 0.50676298 0
4.1900001 -0.83902627 0.5065465 0
4.1820002 -0.84417433 0.50633007 0
4.1730003 -0.84908068 0.50608653 0
4.165 -0.85416919 0.5058701 0
4.1570001 -0.85922891 0.50565362 0
4.1490002 -0.86425966 0.50543714 0
4.1440001 -0.86992192 0.50530189 0
4.1490002 -0.87778467 0.50543714 0
4.1540003 -0.88566554 0.50557244 0
4.1589999 -0.89356434 0.50570774 0
4.164 -0.90148127 0.50584304 0
4.0880003 -0.89751291 0.50378668 0
4.0780001 -0.90183848 0.50351614 0
4.0710001 -0.90683144 0.50332671 0
4.0650001 -0.91203541 0.50316435 0
4.0610003 -0.91769397 0.50305617 0
4.0580001 -0.92357796 0.50297499 0
4.0550003 -0.92945117 0.50289381 0
4.0540004 -0.93580061 0.50286674 0
4.053 -0.94214636 0.50283968 0
4.053 -0.94873571 0.50283968 0
4.0540004 -0.95557398 0.50286674 0
4.0560002 -0.96266645 0.50292087 0
4.059 -0.9700188 0.50300205 0
4.0640001 -0.97789061 0.50313729 0
4.0690002 -0.98578054 0.50327259 0
4.0740004 -0.99368834 0.5034079 0
4.079 -1.0016142 0.50354314 0
3.9250002 -0.96797144 0.49937636 0
3.9180002 -0.97248638 0.49918696 0
3.9110003 -0.97697604 0.49899757 0
3.9040003 -0.98144054 0.49880818 0
3.8970003 -0.98587972 0.49861878 0
3.8960001 -0.99191701 0.49859172 0
3.9000003 -0.9993127 0.49869996 0
3.9050002 -1.0069969 0.49883524 0
3.9100003 -1.0146991 0.49897051 0
3.9150002 -1.0224193 0.49910581 0
3.9200003 -1.0301578 0.49924108 0
3.9240003 -1.0376327 0.4993493 0
3.9290004 -1.0454054 0.4994846 0
3.9340003 -1.053196 0.4996199 0
3.9390004 -1.0610048 0.49975517 0
3.9440002 -1.0688314 0.49989045 0
3.9490004 -1.0766762 0.50002575 0
3.9540002 -1.0845391 0.50016105 0
3.9590003 -1.0924199 0.50029629 0
3.9640002 -1.1003187 0.5004316 0
3.9690003 -1.1082356 0.5005669 0
3.9740002 -1.1161705 0.50070214 0
3.9790003 -1.1241236 0.50083745 0
3.9840002 -1.1320945 0.50097275 0
3.9890003 -1.1400837 0.50110805 0
3.9940002 -1.1480908 0.50124329 0
3.9990003 -1.1561159 0.5013786 0
4.0040002 -1.1641591 0.5015139 0
4.0090003 -1.1722203 0.50164914 0
4.0139999 -1.1802995 0.50178444 0
4.0190001 -1.1883968 0.50191975 0
4.0240002 -1.1965122 0.50205505 0
4.0290003 -1.2046455 0.50219029 0
4.0339999 -1.2127969 0.50232559 0
4.04 -1.2212893 0.50248796 0
4.0450001 -1.2294786 0.5026232 0
4.0500002 -1.2376859 0.5027585 0
4.0550003 -1.2459112 0.50289381 0
4.0599999 -1.2541547 0.50302911 0
4.066 -1.262748 0.50319141 0
4.0710001 -1.2710294 0.50332671 0
4.0760002 -1.2793286 0.50346202 0
4.0810003 -1.2876461 0.50359726 0
4.0870004 -1.2963206 0.50375962 0
4.092 -1.3046757 0.50389493 0
4.0970001 -1.3130491 0.50403023 0
4.3590002 -0.73156261 0.50397789 0
4.3500004 -0.73712915 0.50375062 0
4.3410001 -0.7426632 0.50352335 0
4.3320003 -0.74816483 0.50329608 0
4.323 -0.75363398 0.50306875 0
4.3140001 -0.75907063 0.50284147 0
4.3050003 -0.76447487 0.5026142 0
4.296 -0.76984662 0.50238693 0
4.2870002 -0.77518588 0.50215966 0
4.2780004 -0.78049272 0.50193238 0
4.27 -0.78595817 0.50173032 0
4.2610002 -0.79120195 0.50150305 0
4.2520003 -0.79641306 0.50127578 0
4.244 -0.80178839 0.50107378 0
4.2350001 -0.80693656 0.50084651 0
4.2270002 -0.81225234 0.50064445 0
4.2190003 -0.81753927 0.50044245 0
4.21 -0.82259357 0.50021517 0
4.2020001 -0.82782102 0.50001311 0
4.1940002 -0.83301961 0.49981108 0
4.1849999 -0.83798003 0.49958381 0
4.177 -0.84311908 0.49938178 0
4.1690001 -0.84822929 0.49917975 0
4.1610003 -0.85331059 0.49897772 0
4.1530004 -0.85836315 0.49877572 0
4.145 -0.86338669 0.49857366 0
4.1440001 -0.86992192 0.49854842 0
4.1490002 -0.87778467 0.49867469 0
4.1540003 -0.88566554 0.49880096 0
4.1589999 -0.89356434 0.49892724 0
4.164 -0.90148127 0.49905348 0
4.0880003 -0.89751291 0.49713424 0
4.0780001 -0.90183848 0.49688172 0
4.0710001 -0.90683144 0.49670494 0
4.0650001 -0.91203541 0.49655342 0
4.0610003 -0.91769397 0.49645239 0
4.0580001 -0.92357796 0.49637663 0
4.0550003 -0.92945117 0.49630088 0
4.0540004 -0.93580061 0.49627563 0
4.053 -0.94214636 0.49625039 0
4.053 -0.94873571 0.49625039 0
4.0540004 -0.95557398 0.49627563 0
4.0560002 -0.96266645 0.49632615 0
4.059 -0.9700188 0.49640191 0
4.0640001 -0.97789061 0.49652815 0
4.0690002 -0.98578054 0.49665442 0
4.0740004 -0.99368834 0.49678069 0
4.079 -1.0016142 0.49690697 0
3.9250002 -0.96797144 0.49301794 0
3.9180002 -0.97248638 0.49284118 0
3.9110003 -0.97697604 0.4926644 0
3.9040003 -0.98144054 0.49248764 0
3.8970003 -0.98587972 0.49231085 0
3.8960001 -0.99191701 0.49228561 0
3.9000003 -0.9993127 0.49238661 0
3.9050002 -1.0069969 0.49251288 0
3.9100003 -1.0146991 0.49263915 0
3.9150002 -1.0224193 0.49276543 0
3.9200003 -1.0301578 0.49289167 0
3.9240003 -1.0376327 0.4929927 0
3.9290004 -1.0454054 0.49311897 0
3.9340003 -1.053196 0.49324524 0
3.9390004 -1.0610048 0.49337149 0
3.9440002 -1.0688314 0.49349776 0
3.9490004 -1.0766762 0.49362403 0
3.9540002 -1.0845391 0.4937503 0
3.9590003 -1.0924199 0.49387658 0
3.9640002 -1.1003187 0.49400282 0
3.9690003 -1.1082356 0.49412909 0
3.9740002 -1.1161705 0.49425536 0
3.9790003 -1.1241236 0.49438164 0
3.9840002 -1.1320945 0.49450791 0
3.9890003 -1.1400837 0.49463415 0
3.9940002 -1.1480908 0.49476042 0
3.9990003 -1.1561159 0.4948867 0
4.0040002 -1.1641591 0.49501297 0
4.0090003 -1.1722203 0.49513924 0
4.0139999 -1.1802995 0.49526548 0
4.0190001 -1.1883968 0.49539176 0
4.0240002 -1.1965122 0.49551803 0
4.0290003 -1.2046455 0.4956443 0
4.0339999 -1.2127969 0.49577057 0
4.04 -1.2212893 0.49592209 0
4.0450001 -1.2294786 0.49604833 0
4.0500002 -1.2376859 0.4961746 0
4.0550003 -1.2459112 0.49630088 0
4.0599999 -1.2541547 0.49642715 0
4.066 -1.262748 0.49657866 0
4.0710001 -1.2710294 0.49670494 0
4.0760002 -1.2793286 0.49683121 0
4.0810003 -1.2876461 0.49695748 0
4.0870004 -1.2963206 0.497109 0
4.092 -1.3046757 0.49723524 0
4.0970001 -1.3130491 0.49736151 0
4.3540001 -0.73069674 0.49671936 0
4.3460002 -0.73642927 0.49653175 0
4.3370004 -0.74195611 0.49632072 0
4.3280001 -0.74745053 0.49610966 0
4.3190002 -0.75291246 0.49589863 0
4.3099999 -0.75834191 0.4956876 0
4.3010001 -0.76373893 0.49547654 0
4.2930002 -0.7692892 0.49528894 0
4.2840004 -0.7746231 0.49507791 0
4.2750001 -0.77992451 0.49486685 0
4.2670002 -0.7853846 0.49467924 0
4.2580004 -0.79062289 0.49446821 0
4.2490001 -0.79582864 0.49425715 0
4.2410002 -0.80119854 0.49406958 0
4.2320004 -0.80634123 0.49385852 0
4.224 -0.81165165 0.49367094 0
4.2160001 -0.81693321 0.49348333 0
4.2070003 -0.82198203 0.49327227 0
4.1990004 -0.82720411 0.4930847 0
4.191 -0.83239728 0.49289709 0
4.1820002 -0.83735228 0.49268603 0
4.1740003 -0.84248596 0.49249846 0
4.1660004 -0.84759074 0.49231085 0
4.158 -0.85266668 0.49212325 0
4.1500001 -0.8577137 0.49193567 0
4.1420002 -0.86273187 0.49174806 0
4.1440001 -0.86992192 0.49179497 0
4.1490002 -0.87778467 0.49191222 0
4.1540003 -0.88566554 0.49202946 0
4.1589999 -0.89356434 0.4921467 0
4.164 -0.90148127 0.49226397 0
4.0880003 -0.89751291 0.49048179 0
4.0780001 -0.90183848 0.49024731 0
4.0710001 -0.90683144 0.49008316 0
4.0650001 -0.91203541 0.48994246 0
4.0610003 -0.91769397 0.48984867 0
4.0580001 -0.92357796 0.48977831 0
4.0550003 -0.92945117 0.48970795 0
4.0540004 -0.93580061 0.48968452 0
4.053 -0.94214636 0.48966107 0
4.053 -0.94873571 0.48966107 0
4.0540004 -0.95557398 0.48968452 0
4.0560002 -0.96266645 0.4897314 0
4.059 -0.9700188 0.48980176 0
4.0640001 -0.97789061 0.48991901 0
4.0690002 -0.98578054 0.49003625 0
4.0740004 -0.99368834 0.49015349 0
4.079 -1.0016142 0.49027076 0
3.9250002 -0.96797144 0.48665953 0
3.9180002 -0.97248638 0.48649538 0
3.9110003 -0.97697604 0.48633122 0
3.9040003 -0.98144054 0.48616707 0
3.8970003 -0.98587972 0.48600292 0
3.8960001 -0.99191701 0.4859795 0
3.9000003 -0.9993127 0.48607329 0
3.9050002 -1.0069969 0.48619053 0
3.9100003 -1.0146991 0.4863078 0
3.9150002 -1.0224193 0.48642504 0
3.9200003 -1.0301578 0.48654228 0
3.9240003 -1.0376327 0.48663607 0
3.9290004 -1.0454054 0.48675331 0
3.9340003 -1.053196 0.48687059 0
3.9390004 -1.0610048 0.48698783 0
3.9440002 -1.0688314 0.48710507 0
3.9490004 -1.0766762 0.48722231 0
3.9540002 -1.0845391 0.48733956 0
3.9590003 -1.0924199 0.4874568 0
3.9640002 -1.1003187 0.48757404 0
3.9690003 -1.1082356 0.48769131 0
3.9740002 -1.1161705 0.48780856 0
3.9790003 -1.1241236 0.4879258 0
3.9840002 -1.1320945 0.48804304 0
3.9890003 -1.1400837 0.48816028 0
3.9940002 -1.1480908 0.48827755 0
3.9990003 -1.1561159 0.4883948 0
4.0040002 -1.1641591 0.48851204 0
4.0090003 -1.1722203 0.48862928 0
4.0139999 -1.1802995 0.48874652 0
4.0190001 -1.1883968 0.48886377 0
4.0240002 -1.1965122 0.48898101 0
4.0290003 -1.2046455 0.48909828 0
4.0339999 -1.2127969 0.48921552 0
4.04 -1.2212893 0.48935622 0
4.0450001 -1.2294786 0.48947346 0
4.0500002 -1.2376859 0.4895907 0
4.0550003 -1.2459112 0.48970795 0
4.0599999 -1.2541547 0.48982522 0
4.066 -1.262748 0.48996592 0
4.0710001 -1.2710294 0.49008316 0
4.0760002 -1.2793286 0.4902004 0
4.0810003 -1.2876461 0.49031764 0
4.0870004 -1.2963206 0.49045834 0
4.092 -1.3046757 0.49057561 0
4.0970001 -1.3130491 0.49069285 0
4.3520002 -0.73035043 0.48954383 0
4.3429999 -0.73590434 0.48934901 0
4.3340001 -0.74142581 0.48915419 0
4.3260002 -0.74709338 0.48898101 0
4.3170004 -0.75255173 0.48878622 0
4.3080001 -0.7579776 0.4885914 0
4.2990003 -0.76337093 0.48839658 0
4.2910004 -0.76891768 0.48822343 0
4.2820001 -0.77424788 0.48802862 0
4.2730002 -0.77954566 0.4878338 0
4.2650003 -0.78500223 0.48766065 0
4.256 -0.79023683 0.48746583 0
4.2480001 -0.79563391 0.48729265 0
4.2390003 -0.80080539 0.48709786 0
4.2309999 -0.80614281 0.48692468 0
4.223 -0.81145144 0.48675153 0
4.2140002 -0.81652915 0.48655671 0
4.2060003 -0.82177824 0.48638356 0
4.198 -0.82699847 0.48621038 0
4.1890001 -0.83198243 0.48601556 0
4.1810002 -0.83714306 0.48584241 0
4.1730003 -0.84227496 0.48566923 0
4.165 -0.8473779 0.48549607 0
4.1570001 -0.85245204 0.48532289 0
4.1490002 -0.85749722 0.48514974 0
4.1410003 -0.8625136 0.48497659 0
4.1440001 -0.86992192 0.4850415 0
4.1490002 -0.87778467 0.48514974 0
4.1540003 -0.88566554 0.48525798 0
4.1589999 -0.89356434 0.4853662 0
4.164 -0.90148127 0.48547441 0
4.0880003 -0.89751291 0.48382935 0
4.0780001 -0.90183848 0.4836129 0
4.0710001 -0.90683144 0.48346138 0
4.0650001 -0.91203541 0.4833315 0
4.0610003 -0.91769397 0.48324493 0
4.0580001 -0.92357796 0.48317999 0
4.0550003 -0.92945117 0.48311505 0
4.0540004 -0.93580061 0.48309341 0
4.053 -0.94214636 0.48307174 0
4.053 -0.94873571 0.48307174 0
4.0540004 -0.95557398 0.48309341 0
4.0560002 -0.96266645 0.48313668 0
4.059 -0.9700188 0.48320162 0
4.0640001 -0.97789061 0.48330986 0
4.0690002 -0.98578054 0.48341808 0
4.0740004 -0.99368834 0.48352632 0
4.079 -1.0016142 0.48363453 0
3.9250002 -0.96797144 0.48030111 0
3.9180002 -0.97248638 0.48014957 0
3.9110003 -0.97697604 0.47999805 0
3.9040003 -0.98144054 0.47984654 0
3.8970003 -0.98587972 0.47969502 0
3.8960001 -0.99191701 0.47967339 0
3.9000003 -0.9993127 0.47975996 0
3.9050002 -1.0069969 0.47986817 0
3.9100003 -1.0146991 0.47997642 0
3.9150002 -1.0224193 0.48008466 0
3.9200003 -1.0301578 0.48019287 0
3.9240003 -1.0376327 0.48027945 0
3.9290004 -1.0454054 0.48038769 0
3.9340003 -1.053196 0.48049593 0
3.9390004 -1.0610048 0.48060414 0
3.9440002 -1.0688314 0.48071235 0
3.9490004 -1.0766762 0.4808206 0
3.9540002 -1.0845391 0.48092884 0
3.9590003 -1.0924199 0.48103705 0
3.9640002 -1.1003187 0.48114529 0
3.9690003 -1.1082356 0.4812535 0
3.9740002 -1.1161705 0.48136175 0
3.9790003 -1.1241236 0.48146996 0
3.9840002 -1.1320945 0.4815782 0
3.9890003 -1.1400837 0.48168641 0
3.9940002 -1.1480908 0.48179466 0
3.9990003 -1.1561159 0.4819029 0
4.0040002 -1.1641591 0.48201111 0
4.0090003 -1.1722203 0.48211935 0
4.0139999 -1.1802995 0.48222756 0
4.0190001 -1.1883968 0.48233581 0
4.0240002 -1.1965122 0.48244402 0
4.0290003 -1.2046455 0.48255226 0
4.0339999 -1.2127969 0.48266047 0
4.04 -1.2212893 0.48279035 0
4.0450001 -1.2294786 0.48289859 0
4.0500002 -1.2376859 0.48300683 0
4.0550003 -1.2459112 0.48311505 0
4.0599999 -1.2541547 0.48322326 0
4.066 -1.262748 0.48335314 0
4.0710001 -1.2710294 0.48346138 0
4.0760002 -1.2793286 0.48356959 0
4.0810003 -1.2876461 0.48367783 0
4.0870004 -1.2963206 0.48380771 0
4.092 -1.3046757 0.48391593 0
4.0970001 -1.3130491 0.48402417 0
4.3510003 -0.73017728 0.48239532 0
4.342 -0.7357294 0.48221675 0
4.3330002 -0.74124902 0.48203817 0
4.3250003 -0.7469148 0.48187944 0
4.316 -0.75237131 0.48170084 0
4.3070002 -0.75779539 0.48152229 0
4.2990003 -0.76337093 0.48136353 0
4.29 -0.76873183 0.48118496 0
4.2810001 -0.77406031 0.48100638 0
4.2730002 -0.77954566 0.48084766 0
4.2639999 -0.78481096 0.48066908 0
4.256 -0.79023683 0.48051035 0
4.2470002 -0.795439 0.48033178 0
4.2390003 -0.80080539 0.48017305 0
4.2309999 -0.80614281 0.48001429 0
4.2220001 -0.81125122 0.47983572 0
4.2140002 -0.81652915 0.47967699 0
4.2060003 -0.82177824 0.47951823 0
4.198 -0.82699847 0.47935951 0
4.1890001 -0.83198243 0.47918093 0
4.1810002 -0.83714306 0.4790222 0
4.1730003 -0.84227496 0.47886348 0
4.165 -0.8473779 0.47870472 0
4.1570001 -0.85245204 0.47854599 0
4.1490002 -0.85749722 0.47838727 0
4.1410003 -0.8625136 0.47822851 0
4.1440001 -0.86992192 0.47828805 0
4.1490002 -0.87778467 0.47838727 0
4.1540003 -0.88566554 0.47848648 0
4.1589999 -0.89356434 0.47858566 0
4.164 -0.90148127 0.4786849 0
4.0880003 -0.89751291 0.4771769 0
4.0780001 -0.90183848 0.47697848 0
4.0710001 -0.90683144 0.4768396 0
4.0650001 -0.91203541 0.47672054 0
4.0610003 -0.91769397 0.47664118 0
4.0580001 -0.92357796 0.47658163 0
4.0550003 -0.92945117 0.47652212 0
4.0540004 -0.93580061 0.4765023 0
4.053 -0.94214636 0.47648245 0
4.053 -0.94873571 0.47648245 0
4.0540004 -0.95557398 0.4765023 0
