# .PCD v0.7 - Point Cloud Data file format
VERSION 0.7
FIELDS x y z intensity
SIZE 4 4 4 4
TYPE F F F F
COUNT 1 1 1 1
WIDTH 1439
HEIGHT 1
VIEWPOINT 0 0 0 1 0 0 0
POINTS 1439
DATA ascii
2.1060002 0.5263772 0.75788915 0
2.1060002 0.52329993 0.75788915 0
2.1060002 0.5202226 0.75788915 0
2.1070001 0.51747543 0.75809658 0
2.1070001 0.51439631 0.75809658 0
2.1070001 0.51131719 0.75809658 0
2.1060002 0.50791341 0.75788915 0
2.1040001 0.50419039 0.7574743 0
2.1030002 0.5007956 0.75726682 0
2.1010001 0.49708521 0.75685191 0
2.1000001 0.49369943 0.75664449 0
2.0990002 0.49031729 0.75643706 0
2.0970001 0.4866249 0.75602221 0
2.0960002 0.48325175 0.75581479 0
2.0940001 0.479572 0.75539994 0
2.0930002 0.47620791 0.75519246 0
2.0910001 0.4725408 0.75477755 0
2.0900002 0.46918565 0.75457013 0
2.0880001 0.46553117 0.75415528 0
2.0870001 0.46218508 0.75394785 0
2.0860002 0.45884264 0.75374043 0
2.0840001 0.45520616 0.75332552 0
2.0830002 0.45187274 0.7531181 0
2.0810001 0.44824889 0.75270319 0
2.0800002 0.44492441 0.75249577 0
2.0780001 0.44131324 0.75208092 0
2.082 0.43944085 0.75291061 0
2.0860002 0.43755406 0.75374043 0
2.0910001 0.43593785 0.75477755 0
2.095 0.43402043 0.75560737 0
2.1000001 0.43236995 0.75664449 0
2.1040001 0.43042186 0.7574743 0
2.108 0.42845929 0.758304 0
2.1130002 0.42675832 0.75934124 0
2.1170001 0.42476508 0.760171 0
2.1190002 0.42221266 0.76058584 0
2.1200001 0.41938251 0.76079327 0
2.1200001 0.41627994 0.76079327 0
2.1210001 0.41344437 0.76100075 0
2.1210001 0.41034004 0.76100075 0
2.1210001 0.40723565 0.76100075 0
2.1220002 0.4043929 0.76120818 0
2.1220002 0.40128672 0.76120818 0
2.1230001 0.39843848 0.7614156 0
2.1230001 0.39533052 0.7614156 0
2.1270001 0.39323995 0.76224536 0
2.1830001 0.39783424 0.77386189 0
2.1880002 0.39585364 0.77489907 0
2.1930001 0.39385501 0.77593625 0
2.1980002 0.39183837 0.77697343 0
2.2030001 0.38980365 0.77801061 0
2.2080002 0.38775092 0.77904785 0
2.2130001 0.38568017 0.78008503 0
2.2180002 0.38359135 0.78112221 0
2.223 0.38148451 0.78215939 0
2.1340001 0.57643288 0.76056957 0
2.1330001 0.57294792 0.76036394 0
2.131 0.56911123 0.75995272 0
2.1300001 0.56563526 0.75974709 0
2.128 0.56181121 0.75933576 0
2.1270001 0.5583443 0.75913018 0
2.125 0.55453289 0.75871891 0
2.1240001 0.55107498 0.75851327 0
2.1040001 0.54107463 0.75440061 0
2.1040001 0.53800094 0.75440061 0
2.1040001 0.53492731 0.75440061 0
2.105 0.53219265 0.75460625 0
2.105 0.52911723 0.75460625 0
2.1060002 0.5263772 0.75481188 0
2.1060002 0.52329993 0.75481188 0
2.1060002 0.5202226 0.75481188 0
2.1070001 0.51747543 0.75501752 0
2.1070001 0.51439631 0.75501752 0
2.1070001 0.51131719 0.75501752 0
2.1060002 0.50791341 0.75481188 0
2.1040001 0.50419039 0.75440061 0
2.1030002 0.5007956 0.75419497 0
2.1010001 0.49708521 0.7537837 0
2.1000001 0.49369943 0.75357807 0
2.0990002 0.49031729 0.75337243 0
2.0970001 0.4866249 0.75296116 0
2.0960002 0.48325175 0.75275552 0
2.0940001 0.479572 0.75234425 0
2.0930002 0.47620791 0.75213861 0
2.0910001 0.4725408 0.75172734 0
2.0900002 0.46918565 0.75152171 0
2.0880001 0.46553117 0.75111043 0
2.0870001 0.46218508 0.7509048 0
2.0860002 0.45884264 0.75069916 0
2.0840001 0.45520616 0.75028789 0
2.0830002 0.45187274 0.75008225 0
2.0810001 0.44824889 0.74967098 0
2.0800002 0.44492441 0.74946535 0
2.0780001 0.44131324 0.74905407 0
2.082 0.43944085 0.74987662 0
2.0860002 0.43755406 0.75069916 0
2.0910001 0.43593785 0.75172734 0
2.095 0.43402043 0.75254989 0
2.1000001 0.43236995 0.75357807 0
2.1040001 0.43042186 0.75440061 0
2.108 0.42845929 0.75522316 0
2.1130002 0.42675832 0.75625134 0
2.1170001 0.42476508 0.75707388 0
2.1190002 0.42221266 0.75748515 0
2.1200001 0.41938251 0.75769073 0
2.1200001 0.41627994 0.75769073 0
2.1210001 0.41344437 0.75789636 0
2.1210001 0.41034004 0.75789636 0
2.1210001 0.40723565 0.75789636 0
2.1220002 0.4043929 0.758102 0
2.1220002 0.40128672 0.758102 0
2.1230001 0.39843848 0.75830764 0
2.1230001 0.39533052 0.75830764 0
2.1270001 0.39323995 0.75913018 0
2.1830001 0.39783424 0.77064568 0
2.1880002 0.39585364 0.77167386 0
2.1930001 0.39385501 0.77270198 0
2.1980002 0.39183837 0.77373022 0
2.2030001 0.38980365 0.77475834 0
2.2080002 0.38775092 0.77578652 0
2.2130001 0.38568017 0.7768147 0
2.2180002 0.38359135 0.77784288 0
2.223 0.38148451 0.77887106 0
2.1340001 0.57643288 0.75744182 0
2.1330001 0.57294792 0.75723797 0
2.131 0.56911123 0.75683033 0
2.1300001 0.56563526 0.75662649 0
2.128 0.56181121 0.75621879 0
2.1270001 0.5583443 0.756015 0
2.125 0.55453289 0.75560737 0
2.1240001 0.55107498 0.75540352 0
2.1040001 0.54107463 0.75132692 0
2.1040001 0.53800094 0.75132692 0
2.1040001 0.53492731 0.75132692 0
2.105 0.53219265 0.75153077 0
2.105 0.52911723 0.75153077 0
2.1060002 0.5263772 0.75173455 0
2.1060002 0.52329993 0.75173455 0
2.1060002 0.5202226 0.75173455 0
2.1070001 0.51747543 0.7519384 0
2.1070001 0.51439631 0.7519384 0
2.1070001 0.51131719 0.7519384 0
2.1060002 0.50791341 0.75173455 0
2.1040001 0.50419039 0.75132692 0
2.1030002 0.5007956 0.75112307 0
2.1010001 0.49708521 0.75071537 0
2.1000001 0.49369943 0.75051153 0
2.0990002 0.49031729 0.7503078 0
2.0970001 0.4866249 0.7499001 0
2.0960002 0.48325175 0.74969625 0
2.0940001 0.479572 0.74928856 0
2.0930002 0.47620791 0.74908477 0
2.0910001 0.4725408 0.74867713 0
2.0900002 0.46918565 0.74847329 0
2.0880001 0.46553117 0.74806559 0
2.0870001 0.46218508 0.74786174 0
2.0860002 0.45884264 0.74765795 0
2.0840001 0.45520616 0.74725032 0
2.0830002 0.45187274 0.74704647 0
2.0810001 0.44824889 0.74663877 0
2.0800002 0.44492441 0.74643499 0
2.0780001 0.44131324 0.74602735 0
2.082 0.43944085 0.74684262 0
2.0860002 0.43755406 0.74765795 0
2.0910001 0.43593785 0.74867713 0
2.095 0.43402043 0.74949241 0
2.1000001 0.43236995 0.75051153 0
2.1040001 0.43042186 0.75132692 0
2.108 0.42845929 0.75214219 0
2.1130002 0.42675832 0.75316131 0
2.1170001 0.42476508 0.7539767 0
2.1190002 0.42221266 0.75438434 0
2.1200001 0.41938251 0.75458813 0
2.1200001 0.41627994 0.75458813 0
2.1210001 0.41344437 0.75479198 0
2.1210001 0.41034004 0.75479198 0
2.1210001 0.40723565 0.75479198 0
2.1220002 0.4043929 0.75499582 0
2.1220002 0.40128672 0.75499582 0
2.1230001 0.39843848 0.75519967 0
2.1230001 0.39533052 0.75519967 0
2.1270001 0.39323995 0.756015 0
2.1830001 0.39783424 0.76742947 0
2.1880002 0.39585364 0.76844865 0
2.1930001 0.39385501 0.76946783 0
2.1980002 0.39183837 0.77048695 0
2.2030001 0.38980365 0.77150607 0
2.2080002 0.38775092 0.77252525 0
2.2130001 0.38568017 0.77354443 0
2.2180002 0.38359135 0.77456355 0
2.223 0.38148451 0.77558267 0
2.1340001 0.57643288 0.75431401 0
2.1330001 0.57294792 0.75411201 0
2.131 0.56911123 0.75370789 0
2.1300001 0.56563526 0.75350589 0
2.128 0.56181121 0.75310183 0
2.1270001 0.5583443 0.75289983 0
2.125 0.55453289 0.75249577 0
2.1240001 0.55107498 0.75229371 0
2.1040001 0.54107463 0.74825323 0
2.1040001 0.53800094 0.74825323 0
2.1040001 0.53492731 0.74825323 0
2.105 0.53219265 0.74845523 0
2.105 0.52911723 0.74845523 0
2.1060002 0.5263772 0.74865723 0
2.1060002 0.52329993 0.74865723 0
2.1060002 0.5202226 0.74865723 0
2.1070001 0.51747543 0.74885929 0
2.1070001 0.51439631 0.74885929 0
2.1070001 0.51131719 0.74885929 0
2.1060002 0.50791341 0.74865723 0
2.1040001 0.50419039 0.74825323 0
2.1030002 0.5007956 0.74805117 0
2.1010001 0.49708521 0.74764717 0
2.1000001 0.49369943 0.74744511 0
2.0990002 0.49031729 0.74724305 0
2.0970001 0.4866249 0.74683899 0
2.0960002 0.48325175 0.74663699 0
2.0940001 0.479572 0.74623299 0
2.0930002 0.47620791 0.74603093 0
2.0910001 0.4725408 0.74562687 0
2.0900002 0.46918565 0.74542481 0
2.0880001 0.46553117 0.74502081 0
2.0870001 0.46218508 0.74481875 0
2.0860002 0.45884264 0.74461675 0
2.0840001 0.45520616 0.74421269 0
2.0830002 0.45187274 0.74401063 0
2.0810001 0.44824889 0.74360663 0
2.0800002 0.44492441 0.74340457 0
2.0780001 0.44131324 0.74300051 0
2.082 0.43944085 0.74380863 0
2.0860002 0.43755406 0.74461675 0
2.0910001 0.43593785 0.74562687 0
2.095 0.43402043 0.74643499 0
2.1000001 0.43236995 0.74744511 0
2.1040001 0.43042186 0.74825323 0
2.108 0.42845929 0.74906135 0
2.1130002 0.42675832 0.75007141 0
2.1170001 0.42476508 0.75087953 0
2.1190002 0.42221266 0.75128365 0
2.1200001 0.41938251 0.75148559 0
2.1200001 0.41627994 0.75148559 0
2.1210001 0.41344437 0.75168765 0
2.1210001 0.41034004 0.75168765 0
2.1210001 0.40723565 0.75168765 0
2.1220002 0.4043929 0.75188971 0
2.1220002 0.40128672 0.75188971 0
2.1230001 0.39843848 0.75209171 0
2.1230001 0.39533052 0.75209171 0
2.1270001 0.39323995 0.75289983 0
2.1830001 0.39783424 0.76421332 0
2.1880002 0.39585364 0.76522344 0
2.1930001 0.39385501 0.76623356 0
2.1980002 0.39183837 0.76724368 0
2.2030001 0.38980365 0.7682538 0
2.2080002 0.38775092 0.76926398 0
2.2130001 0.38568017 0.7702741 0
2.2180002 0.38359135 0.77128422 0
2.223 0.38148451 0.7722944 0
2.1340001 0.57643288 0.75118625 0
2.1330001 0.57294792 0.75098598 0
2.131 0.56911123 0.75058556 0
2.1300001 0.56563526 0.75038528 0
2.128 0.56181121 0.74998486 0
2.1270001 0.5583443 0.74978465 0
2.125 0.55453289 0.74938416 0
2.1240001 0.55107498 0.74918401 0
2.1040001 0.54107463 0.74517953 0
2.1040001 0.53800094 0.74517953 0
2.1040001 0.53492731 0.74517953 0
2.105 0.53219265 0.74537975 0
2.105 0.52911723 0.74537975 0
2.1060002 0.5263772 0.74557996 0
2.1060002 0.52329993 0.74557996 0
2.1060002 0.5202226 0.74557996 0
2.1070001 0.51747543 0.74578023 0
2.1070001 0.51439631 0.74578023 0
2.1070001 0.51131719 0.74578023 0
2.1060002 0.50791341 0.74557996 0
2.1040001 0.50419039 0.74517953 0
2.1030002 0.5007956 0.74497926 0
2.1010001 0.49708521 0.74457884 0
2.1000001 0.49369943 0.74437863 0
2.0990002 0.49031729 0.74417841 0
2.0970001 0.4866249 0.74377799 0
2.0960002 0.48325175 0.74357772 0
2.0940001 0.479572 0.74317729 0
2.0930002 0.47620791 0.74297702 0
2.0910001 0.4725408 0.7425766 0
2.0900002 0.46918565 0.74237645 0
2.0880001 0.46553117 0.74197596 0
2.0870001 0.46218508 0.74177575 0
2.0860002 0.45884264 0.74157548 0
2.0840001 0.45520616 0.74117506 0
2.0830002 0.45187274 0.74097484 0
2.0810001 0.44824889 0.74057442 0
2.0800002 0.44492441 0.74037421 0
2.0780001 0.44131324 0.73997372 0
2.082 0.43944085 0.74077463 0
2.0860002 0.43755406 0.74157548 0
2.0910001 0.43593785 0.7425766 0
2.095 0.43402043 0.74337751 0
2.1000001 0.43236995 0.74437863 0
2.1040001 0.43042186 0.74517953 0
2.108 0.42845929 0.74598038 0
2.1130002 0.42675832 0.7469815 0
2.1170001 0.42476508 0.74778247 0
2.1190002 0.42221266 0.74818289 0
2.1200001 0.41938251 0.74838305 0
2.1200001 0.41627994 0.74838305 0
2.1210001 0.41344437 0.74858332 0
2.1210001 0.41034004 0.74858332 0
2.1210001 0.40723565 0.74858332 0
2.1220002 0.4043929 0.74878353 0
2.1220002 0.40128672 0.74878353 0
2.1230001 0.39843848 0.74898374 0
2.1230001 0.39533052 0.74898374 0
2.1270001 0.39323995 0.74978465 0
2.1830001 0.39783424 0.76099712 0
2.1880002 0.39585364 0.76199824 0
2.1930001 0.39385501 0.76299936 0
2.1980002 0.39183837 0.76400048 0
2.2030001 0.38980365 0.76500154 0
2.2080002 0.38775092 0.76600266 0
2.2130001 0.38568017 0.76700377 0
2.2180002 0.38359135 0.76800489 0
2.223 0.38148451 0.76900601 0
2.1340001 0.57643288 0.74805838 0
2.1330001 0.57294792 0.74785995 0
2.131 0.56911123 0.74746311 0
2.1300001 0.56563526 0.74726474 0
2.128 0.56181121 0.7468679 0
2.1270001 0.5583443 0.74666947 0
2.125 0.55453289 0.74627262 0
2.1240001 0.55107498 0.7460742 0
2.1040001 0.54107463 0.74210584 0
2.1040001 0.53800094 0.74210584 0
2.1040001 0.53492731 0.74210584 0
2.105 0.53219265 0.74230421 0
2.105 0.52911723 0.74230421 0
2.1060002 0.5263772 0.74250269 0
2.1060002 0.52329993 0.74250269 0
2.1060002 0.5202226 0.74250269 0
2.1070001 0.51747543 0.74270111 0
2.1070001 0.51439631 0.74270111 0
2.1070001 0.51131719 0.74270111 0
2.1060002 0.50791341 0.74250269 0
2.1040001 0.50419039 0.74210584 0
2.1030002 0.5007956 0.74190736 0
2.1010001 0.49708521 0.74151063 0
2.1000001 0.49369943 0.74131215 0
2.0990002 0.49031729 0.74111378 0
2.0970001 0.4866249 0.74071687 0
2.0960002 0.48325175 0.74051845 0
2.0940001 0.479572 0.7401216 0
2.0930002 0.47620791 0.73992324 0
2.0910001 0.4725408 0.73952639 0
2.0900002 0.46918565 0.73932797 0
2.0880001 0.46553117 0.73893112 0
2.0870001 0.46218508 0.7387327 0
2.0860002 0.45884264 0.73853427 0
2.0840001 0.45520616 0.73813748 0
2.0830002 0.45187274 0.737939 0
2.0810001 0.44824889 0.73754221 0
2.0800002 0.44492441 0.73734379 0
2.0780001 0.44131324 0.73694694 0
2.082 0.43944085 0.73774064 0
2.0860002 0.43755406 0.73853427 0
2.0910001 0.43593785 0.73952639 0
2.095 0.43402043 0.74032009 0
2.1000001 0.43236995 0.74131215 0
2.1040001 0.43042186 0.74210584 0
2.108 0.42845929 0.74289954 0
2.1130002 0.42675832 0.7438916 0
2.1170001 0.42476508 0.74468529 0
2.1190002 0.42221266 0.74508214 0
2.1200001 0.41938251 0.7452805 0
2.1200001 0.41627994 0.7452805 0
2.1210001 0.41344437 0.74547899 0
2.1210001 0.41034004 0.74547899 0
2.1210001 0.40723565 0.74547899 0
2.1220002 0.4043929 0.74567735 0
2.1220002 0.40128672 0.74567735 0
2.1230001 0.39843848 0.74587578 0
2.1230001 0.39533052 0.74587578 0
2.1270001 0.39323995 0.74666947 0
2.1830001 0.39783424 0.75778091 0
2.1880002 0.39585364 0.75877303 0
2.1930001 0.39385501 0.75976515 0
2.1980002 0.39183837 0.76075721 0
2.2030001 0.38980365 0.76174933 0
2.2080002 0.38775092 0.76274139 0
2.2130001 0.38568017 0.76373351 0
2.2180002 0.38359135 0.76472557 0
2.223 0.38148451 0.76571769 0
2.1340001 0.57643288 0.74493062 0
2.1330001 0.57294792 0.74473393 0
2.131 0.56911123 0.74434078 0
2.1300001 0.56563526 0.7441442 0
2.128 0.56181121 0.74375093 0
2.1270001 0.5583443 0.74355429 0
2.125 0.55453289 0.74316108 0
2.1240001 0.55107498 0.74296445 0
2.1040001 0.54107463 0.73903215 0
2.1040001 0.53800094 0.73903215 0
2.1040001 0.53492731 0.73903215 0
2.105 0.53219265 0.73922873 0
2.105 0.52911723 0.73922873 0
2.1060002 0.5263772 0.73942536 0
2.1060002 0.52329993 0.73942536 0
2.1060002 0.5202226 0.73942536 0
2.1070001 0.51747543 0.739622 0
2.1070001 0.51439631 0.739622 0
2.1070001 0.51131719 0.739622 0
2.1060002 0.50791341 0.73942536 0
2.1040001 0.50419039 0.73903215 0
2.1030002 0.5007956 0.73883557 0
2.1010001 0.49708521 0.7384423 0
2.1000001 0.49369943 0.73824567 0
2.0990002 0.49031729 0.73804903 0
2.0970001 0.4866249 0.73765582 0
2.0960002 0.48325175 0.73745924 0
2.0940001 0.479572 0.73706603 0
2.0930002 0.47620791 0.73686934 0
2.0910001 0.4725408 0.73647618 0
2.0900002 0.46918565 0.73627949 0
2.0880001 0.46553117 0.73588628 0
2.0870001 0.46218508 0.7356897 0
2.0860002 0.45884264 0.73549306 0
2.0840001 0.45520616 0.73509985 0
2.0830002 0.45187274 0.73490322 0
2.0810001 0.44824889 0.73451 0
2.0800002 0.44492441 0.73431337 0
2.0780001 0.44131324 0.73392016 0
2.082 0.43944085 0.73470658 0
2.0860002 0.43755406 0.73549306 0
2.0910001 0.43593785 0.73647618 0
2.095 0.43402043 0.73726261 0
2.1000001 0.43236995 0.73824567 0
2.1040001 0.43042186 0.73903215 0
2.108 0.42845929 0.73981857 0
2.1130002 0.42675832 0.74080169 0
2.1170001 0.42476508 0.74158812 0
2.1190002 0.42221266 0.74198139 0
2.1200001 0.41938251 0.74217796 0
2.1200001 0.41627994 0.74217796 0
2.1210001 0.41344437 0.7423746 0
2.1210001 0.41034004 0.7423746 0
2.1210001 0.40723565 0.7423746 0
2.1220002 0.4043929 0.74257123 0
2.1220002 0.40128672 0.74257123 0
2.1230001 0.39843848 0.74276781 0
2.1230001 0.39533052 0.74276781 0
2.1270001 0.39323995 0.74355429 0
2.1830001 0.39783424 0.75456476 0
2.1880002 0.39585364 0.75554782 0
2.1930001 0.39385501 0.75653088 0
2.1980002 0.39183837 0.757514 0
2.2030001 0.38980365 0.758497 0
2.2080002 0.38775092 0.75948012 0
2.2130001 0.38568017 0.76046318 0
2.2180002 0.38359135 0.76144624 0
2.223 0.38148451 0.76242936 0
2.1340001 0.57643288 0.74180281 0
2.1330001 0.57294792 0.74160796 0
2.131 0.56911123 0.74121833 0
2.1300001 0.56563526 0.74102354 0
2.128 0.56181121 0.74063396 0
2.1270001 0.5583443 0.74043912 0
2.125 0.55453289 0.74004948 0
2.1240001 0.55107498 0.73985469 0
2.1040001 0.54107463 0.73595846 0
2.1040001 0.53800094 0.73595846 0
2.1040001 0.53492731 0.73595846 0
2.105 0.53219265 0.73615324 0
2.105 0.52911723 0.73615324 0
2.1060002 0.5263772 0.73634809 0
2.1060002 0.52329993 0.73634809 0
2.1060002 0.5202226 0.73634809 0
2.1070001 0.51747543 0.73654294 0
2.1070001 0.51439631 0.73654294 0
2.1070001 0.51131719 0.73654294 0
2.1060002 0.50791341 0.73634809 0
2.1040001 0.50419039 0.73595846 0
2.1030002 0.5007956 0.73576367 0
2.1010001 0.49708521 0.73537397 0
2.1000001 0.49369943 0.73517919 0
2.0990002 0.49031729 0.7349844 0
2.0970001 0.4866249 0.73459476 0
2.0960002 0.48325175 0.73439997 0
2.0940001 0.479572 0.73401034 0
2.0930002 0.47620791 0.73381555 0
2.0910001 0.4725408 0.73342586 0
2.0900002 0.46918565 0.73323107 0
2.0880001 0.46553117 0.73284149 0
2.0870001 0.46218508 0.73264664 0
2.0860002 0.45884264 0.73245186 0
2.0840001 0.45520616 0.73206222 0
2.0830002 0.45187274 0.73186743 0
2.0810001 0.44824889 0.7314778 0
2.0800002 0.44492441 0.73128295 0
2.0780001 0.44131324 0.73089337 0
2.082 0.43944085 0.73167259 0
2.0860002 0.43755406 0.73245186 0
2.0910001 0.43593785 0.73342586 0
2.095 0.43402043 0.73420513 0
2.1000001 0.43236995 0.73517919 0
2.1040001 0.43042186 0.73595846 0
2.108 0.42845929 0.73673773 0
2.1130002 0.42675832 0.73771179 0
2.1170001 0.42476508 0.73849106 0
2.1190002 0.42221266 0.73888063 0
2.1200001 0.41938251 0.73907542 0
2.1200001 0.41627994 0.73907542 0
2.1210001 0.41344437 0.73927021 0
2.1210001 0.41034004 0.73927021 0
2.1210001 0.40723565 0.73927021 0
2.1220002 0.4043929 0.73946506 0
2.1220002 0.40128672 0.73946506 0
2.1230001 0.39843848 0.73965985 0
2.1230001 0.39533052 0.73965985 0
2.1270001 0.39323995 0.74043912 0
2.1830001 0.39783424 0.75134856 0
2.1880002 0.39585364 0.75232255 0
2.1930001 0.39385501 0.75329667 0
2.1980002 0.39183837 0.75427067 0
2.2030001 0.38980365 0.75524479 0
2.2080002 0.38775092 0.75621879 0
2.2130001 0.38568017 0.75719285 0
2.2180002 0.38359135 0.75816691 0
2.223 0.38148451 0.75914097 0
2.1340001 0.57643288 0.738675 0
2.1330001 0.57294792 0.738482 0
2.131 0.56911123 0.738096 0
2.1300001 0.56563526 0.737903 0
2.128 0.56181121 0.73751694 0
2.1270001 0.5583443 0.73732394 0
2.125 0.55453289 0.73693788 0
2.1240001 0.55107498 0.73674494 0
2.1040001 0.54107463 0.73288476 0
2.1040001 0.53800094 0.73288476 0
2.1040001 0.53492731 0.73288476 0
2.105 0.53219265 0.73307776 0
2.105 0.52911723 0.73307776 0
2.1060002 0.5263772 0.73327076 0
2.1060002 0.52329993 0.73327076 0
2.1060002 0.5202226 0.73327076 0
2.1070001 0.51747543 0.73346376 0
2.1070001 0.51439631 0.73346376 0
2.1070001 0.51131719 0.73346376 0
2.1060002 0.50791341 0.73327076 0
2.1040001 0.50419039 0.73288476 0
2.1030002 0.5007956 0.73269176 0
2.1010001 0.49708521 0.73230577 0
2.1000001 0.49369943 0.73211277 0
2.0990002 0.49031729 0.73191977 0
2.0970001 0.4866249 0.73153371 0
2.0960002 0.48325175 0.73134071 0
2.0940001 0.479572 0.73095465 0
2.0930002 0.47620791 0.73076165 0
2.0910001 0.4725408 0.73037565 0
2.0900002 0.46918565 0.73018265 0
2.0880001 0.46553117 0.72979665 0
2.0870001 0.46218508 0.72960365 0
2.0860002 0.45884264 0.72941065 0
2.0840001 0.45520616 0.72902465 0
2.0830002 0.45187274 0.72883165 0
2.0810001 0.44824889 0.72844565 0
2.0800002 0.44492441 0.72825259 0
2.0780001 0.44131324 0.72786653 0
2.082 0.43944085 0.72863859 0
2.0860002 0.43755406 0.72941065 0
2.0910001 0.43593785 0.73037565 0
2.095 0.43402043 0.73114765 0
2.1000001 0.43236995 0.73211277 0
2.1040001 0.43042186 0.73288476 0
2.108 0.42845929 0.73365676 0
2.1130002 0.42675832 0.73462182 0
2.1170001 0.42476508 0.73539388 0
2.1190002 0.42221266 0.73577988 0
2.1200001 0.41938251 0.73597288 0
2.1200001 0.41627994 0.73597288 0
2.1210001 0.41344437 0.73616588 0
2.1210001 0.41034004 0.73616588 0
2.1210001 0.40723565 0.73616588 0
2.1220002 0.4043929 0.73635888 0
2.1220002 0.40128672 0.73635888 0
2.1230001 0.39843848 0.73655188 0
2.1230001 0.39533052 0.73655188 0
2.1270001 0.39323995 0.73732394 0
2.1830001 0.39783424 0.74813235 0
2.1880002 0.39585364 0.74909735 0
2.1930001 0.39385501 0.75006247 0
2.1980002 0.39183837 0.75102746 0
2.2030001 0.38980365 0.75199246 0
2.2080002 0.38775092 0.75295758 0
2.2130001 0.38568017 0.75392258 0
2.2180002 0.38359135 0.75488758 0
2.223 0.38148451 0.75585264 0
2.1340001 0.57643288 0.73554718 0
2.1330001 0.57294792 0.73535597 0
2.131 0.56911123 0.73497355 0
2.1300001 0.56563526 0.7347824 0
2.128 0.56181121 0.73439991 0
2.1270001 0.5583443 0.73420876 0
2.125 0.55453289 0.73382634 0
2.1240001 0.55107498 0.73363513 0
2.1040001 0.54107463 0.72981107 0
2.1040001 0.53800094 0.72981107 0
2.1040001 0.53492731 0.72981107 0
2.105 0.53219265 0.73000228 0
2.105 0.52911723 0.73000228 0
2.1060002 0.5263772 0.7301935 0
2.1060002 0.52329993 0.7301935 0
2.1060002 0.5202226 0.7301935 0
2.1070001 0.51747543 0.73038471 0
2.1070001 0.51439631 0.73038471 0
2.1070001 0.51131719 0.73038471 0
2.1060002 0.50791341 0.7301935 0
2.1040001 0.50419039 0.72981107 0
2.1030002 0.5007956 0.72961986 0
2.1010001 0.49708521 0.72923744 0
2.1000001 0.49369943 0.72904623 0
2.0990002 0.49031729 0.72885501 0
2.0970001 0.4866249 0.72847265 0
2.0960002 0.48325175 0.7282815 0
2.0940001 0.479572 0.72789907 0
2.0930002 0.47620791 0.72770786 0
2.0910001 0.4725408 0.72732544 0
2.0900002 0.46918565 0.72713423 0
2.0880001 0.46553117 0.7267518 0
2.0870001 0.46218508 0.72656059 0
2.0860002 0.45884264 0.72636938 0
2.0840001 0.45520616 0.72598702 0
2.0830002 0.45187274 0.72579581 0
2.0810001 0.44824889 0.72541338 0
2.0800002 0.44492441 0.72522217 0
2.0780001 0.44131324 0.72483981 0
2.082 0.43944085 0.72560459 0
2.0860002 0.43755406 0.72636938 0
2.0910001 0.43593785 0.72732544 0
2.095 0.43402043 0.72809023 0
2.1000001 0.43236995 0.72904623 0
2.1040001 0.43042186 0.72981107 0
2.108 0.42845929 0.73057592 0
2.1130002 0.42675832 0.73153186 0
2.1170001 0.42476508 0.73229671 0
2.1190002 0.42221266 0.73267913 0
2.1200001 0.41938251 0.73287034 0
2.1200001 0.41627994 0.73287034 0
2.1210001 0.41344437 0.73306155 0
2.1210001 0.41034004 0.73306155 0
2.1210001 0.40723565 0.73306155 0
2.1220002 0.4043929 0.73325276 0
2.1220002 0.40128672 0.73325276 0
2.1230001 0.39843848 0.73344392 0
2.1230001 0.39533052 0.73344392 0
2.1270001 0.39323995 0.73420876 0
2.1830001 0.39783424 0.7449162 0
2.1880002 0.39585364 0.7458722 0
2.1930001 0.39385501 0.7468282 0
2.1980002 0.39183837 0.74778426 0
2.2030001 0.38980365 0.7487402 0
2.2080002 0.38775092 0.74969625 0
2.2130001 0.38568017 0.75065231 0
2.2180002 0.38359135 0.75160825 0
2.223 0.38148451 0.75256431 0
2.1340001 0.57643288 0.73241937 0
2.1330001 0.57294792 0.73222995 0
2.131 0.56911123 0.73185116 0
2.1300001 0.56563526 0.7316618 0
2.128 0.56181121 0.73128295 0
2.1270001 0.5583443 0.73109359 0
2.125 0.55453289 0.7307148 0
2.1240001 0.55107498 0.73052537 0
2.1040001 0.54107463 0.72673738 0
2.1040001 0.53800094 0.72673738 0
2.1040001 0.53492731 0.72673738 0
2.105 0.53219265 0.7269268 0
2.105 0.52911723 0.7269268 0
2.1060002 0.5263772 0.72711617 0
2.1060002 0.52329993 0.72711617 0
2.1060002 0.5202226 0.72711617 0
2.1070001 0.51747543 0.72730559 0
2.1070001 0.51439631 0.72730559 0
2.1070001 0.51131719 0.72730559 0
2.1060002 0.50791341 0.72711617 0
2.1040001 0.50419039 0.72673738 0
2.1030002 0.5007956 0.72654796 0
2.1010001 0.49708521 0.72616923 0
2.1000001 0.49369943 0.7259798 0
2.0990002 0.49031729 0.72579038 0
2.0970001 0.4866249 0.72541153 0
2.0960002 0.48325175 0.72522223 0
2.0940001 0.479572 0.72484338 0
2.0930002 0.47620791 0.72465396 0
2.0910001 0.4725408 0.72427517 0
2.0900002 0.46918565 0.72408581 0
2.0880001 0.46553117 0.72370696 0
2.0870001 0.46218508 0.7235176 0
2.0860002 0.45884264 0.72332823 0
2.0840001 0.45520616 0.72294939 0
2.0830002 0.45187274 0.72275996 0
2.0810001 0.44824889 0.72238117 0
2.0800002 0.44492441 0.72219181 0
2.0780001 0.44131324 0.72181296 0
2.082 0.43944085 0.72257054 0
2.0860002 0.43755406 0.72332823 0
2.0910001 0.43593785 0.72427517 0
2.095 0.43402043 0.72503281 0
2.1000001 0.43236995 0.7259798 0
2.1040001 0.43042186 0.72673738 0
2.108 0.42845929 0.72749496 0
2.1130002 0.42675832 0.72844195 0
2.1170001 0.42476508 0.72919959 0
2.1190002 0.42221266 0.72957838 0
2.1200001 0.41938251 0.7297678 0
2.1200001 0.41627994 0.7297678 0
2.1210001 0.41344437 0.72995716 0
2.1210001 0.41034004 0.72995716 0
2.1210001 0.40723565 0.72995716 0
2.1220002 0.4043929 0.73014659 0
2.1220002 0.40128672 0.73014659 0
2.1230001 0.39843848 0.73033595 0
2.1230001 0.39533052 0.73033595 0
2.1270001 0.39323995 0.73109359 0
2.1830001 0.39783424 0.74169993 0
2.1880002 0.39585364 0.74264693 0
2.1930001 0.39385501 0.74359399 0
2.1980002 0.39183837 0.74454093 0
2.2030001 0.38980365 0.74548793 0
2.2080002 0.38775092 0.74643499 0
2.2130001 0.38568017 0.74738193 0
2.2180002 0.38359135 0.74832898 0
2.223 0.38148451 0.74927592 0
2.1340001 0.57643288 0.72929156 0
2.1330001 0.57294792 0.72910398 0
2.131 0.56911123 0.72872877 0
2.1300001 0.56563526 0.7285412 0
2.128 0.56181121 0.72816598 0
2.1270001 0.5583443 0.72797841 0
2.125 0.55453289 0.7276032 0
2.1240001 0.55107498 0.72741562 0
2.1040001 0.54107463 0.72366369 0
2.1040001 0.53800094 0.72366369 0
2.1040001 0.53492731 0.72366369 0
2.105 0.53219265 0.72385132 0
2.105 0.52911723 0.72385132 0
2.1060002 0.5263772 0.7240389 0
2.1060002 0.52329993 0.7240389 0
2.1060002 0.5202226 0.7240389 0
2.1070001 0.51747543 0.72422647 0
2.1070001 0.51439631 0.72422647 0
2.1070001 0.51131719 0.72422647 0
2.1060002 0.50791341 0.7240389 0
2.1040001 0.50419039 0.72366369 0
2.1030002 0.5007956 0.72347605 0
2.1010001 0.49708521 0.7231009 0
2.1000001 0.49369943 0.72291327 0
2.0990002 0.49031729 0.72272575 0
2.0970001 0.4866249 0.72235048 0
2.0960002 0.48325175 0.7221629 0
2.0940001 0.479572 0.72178775 0
2.0930002 0.47620791 0.72160017 0
2.0910001 0.4725408 0.72122496 0
2.0900002 0.46918565 0.72103739 0
2.0880001 0.46553117 0.72066212 0
2.0870001 0.46218508 0.72047454 0
2.0860002 0.45884264 0.72028697 0
2.0840001 0.45520616 0.71991181 0
2.0830002 0.45187274 0.71972418 0
2.0810001 0.44824889 0.71934897 0
2.0800002 0.44492441 0.71916139 0
2.0780001 0.44131324 0.71878624 0
2.082 0.43944085 0.71953654 0
2.0860002 0.43755406 0.72028697 0
2.0910001 0.43593785 0.72122496 0
2.095 0.43402043 0.72197533 0
2.1000001 0.43236995 0.72291327 0
2.1040001 0.43042186 0.72366369 0
2.108 0.42845929 0.72441411 0
2.1130002 0.42675832 0.72535205 0
2.1170001 0.42476508 0.72610247 0
2.1190002 0.42221266 0.72647762 0
2.1200001 0.41938251 0.72666526 0
2.1200001 0.41627994 0.72666526 0
2.1210001 0.41344437 0.72685283 0
2.1210001 0.41034004 0.72685283 0
2.1210001 0.40723565 0.72685283 0
2.1220002 0.4043929 0.72704041 0
2.1220002 0.40128672 0.72704041 0
2.1230001 0.39843848 0.72722805 0
2.1230001 0.39533052 0.72722805 0
2.1270001 0.39323995 0.72797841 0
2.1830001 0.39783424 0.73848379 0
2.1880002 0.39585364 0.73942173 0
2.1930001 0.39385501 0.74035978 0
2.1980002 0.39183837 0.74129772 0
2.2030001 0.38980365 0.74223566 0
2.2080002 0.38775092 0.74317372 0
2.2130001 0.38568017 0.74411166 0
2.2180002 0.38359135 0.7450496 0
2.223 0.38148451 0.74598765 0
2.1340001 0.57643288 0.72616374 0
2.1330001 0.57294792 0.72597802 0
2.131 0.56911123 0.72560638 0
2.1300001 0.56563526 0.72542059 0
2.128 0.56181121 0.72504902 0
2.1270001 0.5583443 0.72486323 0
2.125 0.55453289 0.7244916 0
2.1240001 0.55107498 0.72430587 0
2.1040001 0.54107463 0.72059 0
2.1040001 0.53800094 0.72059 0
2.1040001 0.53492731 0.72059 0
2.105 0.53219265 0.72077578 0
2.105 0.52911723 0.72077578 0
2.1060002 0.5263772 0.72096157 0
2.1060002 0.52329993 0.72096157 0
2.1060002 0.5202226 0.72096157 0
2.1070001 0.51747543 0.72114742 0
2.1070001 0.51439631 0.72114742 0
2.1070001 0.51131719 0.72114742 0
2.1060002 0.50791341 0.72096157 0
2.1040001 0.50419039 0.72059 0
2.1030002 0.5007956 0.72040421 0
2.1010001 0.49708521 0.72003263 0
2.1000001 0.49369943 0.71984684 0
2.0990002 0.49031729 0.71966106 0
2.0970001 0.4866249 0.71928942 0
2.0960002 0.48325175 0.71910369 0
2.0940001 0.479572 0.71873212 0
2.0930002 0.47620791 0.71854627 0
2.0910001 0.4725408 0.7181747 0
2.0900002 0.46918565 0.71798891 0
2.0880001 0.46553117 0.71761733 0
2.0870001 0.46218508 0.71743155 0
2.0860002 0.45884264 0.7172457 0
2.0840001 0.45520616 0.71687412 0
2.0830002 0.45187274 0.71668839 0
2.0810001 0.44824889 0.71631682 0
2.0800002 0.44492441 0.71613097 0
2.0780001 0.44131324 0.7157594 0
2.082 0.43944085 0.71650255 0
2.0860002 0.43755406 0.7172457 0
2.0910001 0.43593785 0.7181747 0
2.095 0.43402043 0.71891785 0
2.1000001 0.43236995 0.71984684 0
2.1040001 0.43042186 0.72059 0
2.108 0.42845929 0.72133315 0
2.1130002 0.42675832 0.72226214 0
2.1170001 0.42476508 0.72300529 0
2.1190002 0.42221266 0.72337687 0
2.1200001 0.41938251 0.72356266 0
2.1200001 0.41627994 0.72356266 0
2.1210001 0.41344437 0.72374845 0
2.1210001 0.41034004 0.72374845 0
2.1210001 0.40723565 0.72374845 0
2.1220002 0.4043929 0.72393429 0
2.1220002 0.40128672 0.72393429 0
2.1230001 0.39843848 0.72412002 0
2.1230001 0.39533052 0.72412002 0
2.1270001 0.39323995 0.72486323 0
2.1830001 0.39783424 0.73526764 0
2.1880002 0.39585364 0.73619658 0
2.1930001 0.39385501 0.73712552 0
2.1980002 0.39183837 0.73805451 0
2.2030001 0.38980365 0.73898345 0
2.2080002 0.38775092 0.73991239 0
2.2130001 0.38568017 0.74084139 0
2.2180002 0.38359135 0.74177033 0
2.223 0.38148451 0.74269927 0
2.1340001 0.57643288 0.72303593 0
2.1330001 0.57294792 0.72285199 0
2.131 0.56911123 0.72248399 0
2.1300001 0.56563526 0.72230005 0
2.128 0.56181121 0.72193205 0
2.1270001 0.5583443 0.72174805 0
2.125 0.55453289 0.72138005 0
2.1240001 0.55107498 0.72119606 0
2.1040001 0.54107463 0.7175163 0
2.1040001 0.53800094 0.7175163 0
2.1040001 0.53492731 0.7175163 0
2.105 0.53219265 0.7177003 0
2.105 0.52911723 0.7177003 0
2.1060002 0.5263772 0.7178843 0
2.1060002 0.52329993 0.7178843 0
2.1060002 0.5202226 0.7178843 0
2.1070001 0.51747543 0.7180683 0
2.1070001 0.51439631 0.7180683 0
2.1070001 0.51131719 0.7180683 0
2.1060002 0.50791341 0.7178843 0
2.1040001 0.50419039 0.7175163 0
2.1030002 0.5007956 0.71733236 0
2.1010001 0.49708521 0.71696436 0
2.1000001 0.49369943 0.71678036 0
2.0990002 0.49031729 0.71659636 0
2.0970001 0.4866249 0.71622837 0
2.0960002 0.48325175 0.71604443 0
2.0940001 0.479572 0.71567643 0
2.0930002 0.47620791 0.71549243 0
2.0910001 0.4725408 0.71512449 0
2.0900002 0.46918565 0.71494043 0
2.0880001 0.46553117 0.71457249 0
2.0870001 0.46218508 0.71438849 0
2.0860002 0.45884264 0.71420455 0
2.0840001 0.45520616 0.71383655 0
2.0830002 0.45187274 0.71365261 0
2.0810001 0.44824889 0.71328461 0
2.0800002 0.44492441 0.71310055 0
2.0780001 0.44131324 0.71273261 0
2.082 0.43944085 0.71346855 0
2.0860002 0.43755406 0.71420455 0
2.0910001 0.43593785 0.71512449 0
2.095 0.43402043 0.71586037 0
2.1000001 0.43236995 0.71678036 0
2.1040001 0.43042186 0.7175163 0
2.108 0.42845929 0.7182523 0
2.1130002 0.42675832 0.71917224 0
2.1170001 0.42476508 0.71990818 0
2.1190002 0.42221266 0.72027612 0
2.1200001 0.41938251 0.72046012 0
2.1200001 0.41627994 0.72046012 0
2.1210001 0.41344437 0.72064412 0
2.1210001 0.41034004 0.72064412 0
2.1210001 0.40723565 0.72064412 0
2.1220002 0.4043929 0.72082812 0
2.1220002 0.40128672 0.72082812 0
2.1230001 0.39843848 0.72101212 0
2.1230001 0.39533052 0.72101212 0
2.1270001 0.39323995 0.72174805 0
2.1830001 0.39783424 0.73205137 0
2.1880002 0.39585364 0.73297131 0
2.1930001 0.39385501 0.73389131 0
2.1980002 0.39183837 0.73481125 0
2.2030001 0.38980365 0.73573112 0
2.2080002 0.38775092 0.73665112 0
2.2130001 0.38568017 0.73757106 0
2.2180002 0.38359135 0.738491 0
2.223 0.38148451 0.73941094 0
2.1340001 0.57643288 0.71990812 0
2.1330001 0.57294792 0.71972597 0
2.131 0.56911123 0.7193616 0
2.1300001 0.56563526 0.71917939 0
2.128 0.56181121 0.71881503 0
2.1270001 0.5583443 0.71863288 0
2.125 0.55453289 0.71826851 0
2.1240001 0.55107498 0.71808636 0
2.1040001 0.54107463 0.71444261 0
2.1040001 0.53800094 0.71444261 0
2.1040001 0.53492731 0.71444261 0
2.105 0.53219265 0.71462476 0
2.105 0.52911723 0.71462476 0
2.1060002 0.5263772 0.71480703 0
2.1060002 0.52329993 0.71480703 0
2.1060002 0.5202226 0.71480703 0
2.1070001 0.51747543 0.71498919 0
2.1070001 0.51439631 0.71498919 0
2.1070001 0.51131719 0.71498919 0
2.1060002 0.50791341 0.71480703 0
2.1040001 0.50419039 0.71444261 0
2.1030002 0.5007956 0.71426046 0
2.1010001 0.49708521 0.71389604 0
2.1000001 0.49369943 0.71371388 0
2.0990002 0.49031729 0.71353173 0
2.0970001 0.4866249 0.71316731 0
2.0960002 0.48325175 0.71298516 0
2.0940001 0.479572 0.71262079 0
2.0930002 0.47620791 0.71243858 0
2.0910001 0.4725408 0.71207428 0
2.0900002 0.46918565 0.71189201 0
2.0880001 0.46553117 0.71152771 0
2.0870001 0.46218508 0.71134549 0
2.0860002 0.45884264 0.71116328 0
2.0840001 0.45520616 0.71079898 0
2.0830002 0.45187274 0.71061671 0
2.0810001 0.44824889 0.7102524 0
2.0800002 0.44492441 0.71007019 0
2.0780001 0.44131324 0.70970583 0
2.082 0.43944085 0.71043456 0
2.0860002 0.43755406 0.71116328 0
2.0910001 0.43593785 0.71207428 0
2.095 0.43402043 0.71280301 0
2.1000001 0.43236995 0.71371388 0
2.1040001 0.43042186 0.71444261 0
2.108 0.42845929 0.71517134 0
2.1130002 0.42675832 0.71608227 0
2.1170001 0.42476508 0.71681106 0
2.1190002 0.42221266 0.71717536 0
2.1200001 0.41938251 0.71735758 0
2.1200001 0.41627994 0.71735758 0
2.1210001 0.41344437 0.71753979 0
2.1210001 0.41034004 0.71753979 0
2.1210001 0.40723565 0.71753979 0
2.1220002 0.4043929 0.71772194 0
2.1220002 0.40128672 0.71772194 0
2.1230001 0.39843848 0.71790415 0
2.1230001 0.39533052 0.71790415 0
2.1270001 0.39323995 0.71863288 0
2.1830001 0.39783424 0.72883523 0
2.1880002 0.39585364 0.7297461 0
2.1930001 0.39385501 0.7306571 0
2.1980002 0.39183837 0.73156798 0
2.2030001 0.38980365 0.73247892 0
2.2080002 0.38775092 0.73338985 0
2.2130001 0.38568017 0.73430073 0
2.2180002 0.38359135 0.73521167 0
2.223 0.38148451 0.73612261 0
2.1340001 0.57643288 0.71678036 0
2.1330001 0.57294792 0.71659994 0
2.131 0.56911123 0.71623921 0
2.1300001 0.56563526 0.71605885 0
2.128 0.56181121 0.71569806 0
2.1270001 0.5583443 0.7155177 0
2.125 0.55453289 0.71515691 0
2.1240001 0.55107498 0.71497655 0
2.1040001 0.54107463 0.71136892 0
2.1040001 0.53800094 0.71136892 0
2.1040001 0.53492731 0.71136892 0
2.105 0.53219265 0.71154928 0
2.105 0.52911723 0.71154928 0
2.1060002 0.5263772 0.71172971 0
2.1060002 0.52329993 0.71172971 0
2.1060002 0.5202226 0.71172971 0
2.1070001 0.51747543 0.71191013 0
2.1070001 0.51439631 0.71191013 0
2.1070001 0.51131719 0.71191013 0
2.1060002 0.50791341 0.71172971 0
2.1040001 0.50419039 0.71136892 0
2.1030002 0.5007956 0.71118855 0
2.1010001 0.49708521 0.71082783 0
2.1000001 0.49369943 0.7106474 0
2.0990002 0.49031729 0.71046704 0
2.0970001 0.4866249 0.71010625 0
2.0960002 0.48325175 0.70992589 0
2.0940001 0.479572 0.70956516 0
2.0930002 0.47620791 0.70938474 0
2.0910001 0.4725408 0.70902395 0
2.0900002 0.46918565 0.70884359 0
2.0880001 0.46553117 0.70848286 0
2.0870001 0.46218508 0.70830244 0
2.0860002 0.45884264 0.70812207 0
2.0840001 0.45520616 0.70776129 0
2.0830002 0.45187274 0.70758092 0
2.0810001 0.44824889 0.7072202 0
2.0800002 0.44492441 0.70703977 0
2.0780001 0.44131324 0.70667899 0
2.082 0.43944085 0.70740056 0
2.0860002 0.43755406 0.70812207 0
2.0910001 0.43593785 0.70902395 0
2.095 0.43402043 0.70974553 0
2.1000001 0.43236995 0.7106474 0
2.1040001 0.43042186 0.71136892 0
2.108 0.42845929 0.71209049 0
2.1130002 0.42675832 0.71299231 0
2.1170001 0.42476508 0.71371388 0
2.1190002 0.42221266 0.71407461 0
2.1200001 0.41938251 0.71425498 0
2.1200001 0.41627994 0.71425498 0
2.1210001 0.41344437 0.7144354 0
2.1210001 0.41034004 0.7144354 0
2.1210001 0.40723565 0.7144354 0
2.1220002 0.4043929 0.71461582 0
2.1220002 0.40128672 0.71461582 0
2.1230001 0.39843848 0.71479619 0
2.1230001 0.39533052 0.71479619 0
2.1270001 0.39323995 0.7155177 0
2.1830001 0.39783424 0.72561908 0
2.1880002 0.39585364 0.72652096 0
2.1930001 0.39385501 0.72742283 0
2.1980002 0.39183837 0.72832471 0
2.2030001 0.38980365 0.72922659 0
2.2080002 0.38775092 0.73012853 0
2.2130001 0.38568017 0.73103046 0
2.2180002 0.38359135 0.73193234 0
2.223 0.38148451 0.73283422 0
2.1340001 0.57643288 0.71365261 0
2.1330001 0.57294792 0.71347398 0
2.131 0.56911123 0.71311682 0
2.1300001 0.56563526 0.71293831 0
2.128 0.56181121 0.7125811 0
2.1270001 0.5583443 0.71240252 0
2.125 0.55453289 0.71204537 0
2.1240001 0.55107498 0.7118668 0
2.1040001 0.54107463 0.70829523 0
2.1040001 0.53800094 0.70829523 0
2.1040001 0.53492731 0.70829523 0
2.105 0.53219265 0.7084738 0
2.105 0.52911723 0.7084738 0
2.1060002 0.5263772 0.70865238 0
2.1060002 0.52329993 0.70865238 0
2.1060002 0.5202226 0.70865238 0
2.1070001 0.51747543 0.70883095 0
2.1070001 0.51439631 0.70883095 0
2.1070001 0.51131719 0.70883095 0
2.1060002 0.50791341 0.70865238 0
2.1040001 0.50419039 0.70829523 0
2.1030002 0.5007956 0.70811665 0
2.1010001 0.49708521 0.7077595 0
2.1000001 0.49369943 0.70758092 0
2.0990002 0.49031729 0.70740235 0
2.0970001 0.4866249 0.7070452 0
2.0960002 0.48325175 0.70686662 0
2.0940001 0.479572 0.70650947 0
2.0930002 0.47620791 0.7063309 0
2.0910001 0.4725408 0.70597374 0
2.0900002 0.46918565 0.70579517 0
2.0880001 0.46553117 0.70543802 0
2.0870001 0.46218508 0.70525944 0
2.0860002 0.45884264 0.70508087 0
2.0840001 0.45520616 0.70472372 0
2.0830002 0.45187274 0.70454514 0
2.0810001 0.44824889 0.70418799 0
2.0800002 0.44492441 0.70400941 0
2.0780001 0.44131324 0.70365226 0
2.082 0.43944085 0.70436656 0
2.0860002 0.43755406 0.70508087 0
2.0910001 0.43593785 0.70597374 0
2.095 0.43402043 0.70668805 0
2.1000001 0.43236995 0.70758092 0
2.1040001 0.43042186 0.70829523 0
2.108 0.42845929 0.70900953 0
2.1130002 0.42675832 0.70990241 0
2.1170001 0.42476508 0.71061677 0
2.1190002 0.42221266 0.71097392 0
2.1200001 0.41938251 0.71115243 0
2.1200001 0.41627994 0.71115243 0
2.1210001 0.41344437 0.71133107 0
2.1210001 0.41034004 0.71133107 0
2.1210001 0.40723565 0.71133107 0
2.1220002 0.4043929 0.71150964 0
2.1220002 0.40128672 0.71150964 0
2.1230001 0.39843848 0.71168822 0
2.1230001 0.39533052 0.71168822 0
2.1270001 0.39323995 0.71240252 0
2.1830001 0.39783424 0.72240281 0
2.1880002 0.39585364 0.72329569 0
2.1930001 0.39385501 0.72418857 0
2.1980002 0.39183837 0.7250815 0
2.2030001 0.38980365 0.72597438 0
2.2080002 0.38775092 0.72686726 0
2.2130001 0.38568017 0.7277602 0
2.2180002 0.38359135 0.72865307 0
2.223 0.38148451 0.72954589 0
2.1340001 0.57643288 0.71052474 0
2.1330001 0.57294792 0.71034801 0
2.131 0.56911123 0.70999444 0
2.1300001 0.56563526 0.70981765 0
2.128 0.56181121 0.70946407 0
2.1270001 0.5583443 0.70928735 0
2.125 0.55453289 0.70893383 0
2.1240001 0.55107498 0.70875704 0
2.1040001 0.54107463 0.70522153 0
2.1040001 0.53800094 0.70522153 0
2.1040001 0.53492731 0.70522153 0
2.105 0.53219265 0.70539832 0
2.105 0.52911723 0.70539832 0
2.1060002 0.5263772 0.70557511 0
2.1060002 0.52329993 0.70557511 0
2.1060002 0.5202226 0.70557511 0
2.1070001 0.51747543 0.7057519 0
2.1070001 0.51439631 0.7057519 0
2.1070001 0.51131719 0.7057519 0
2.1060002 0.50791341 0.70557511 0
2.1040001 0.50419039 0.70522153 0
2.1030002 0.5007956 0.70504481 0
2.1010001 0.49708521 0.70469129 0
2.1000001 0.49369943 0.7045145 0
2.0990002 0.49031729 0.70433772 0
2.0970001 0.4866249 0.70398414 0
2.0960002 0.48325175 0.70380735 0
2.0940001 0.479572 0.70345384 0
2.0930002 0.47620791 0.70327705 0
2.0910001 0.4725408 0.70292354 0
2.0900002 0.46918565 0.70274675 0
2.0880001 0.46553117 0.70239317 0
2.0870001 0.46218508 0.70221639 0
2.0860002 0.45884264 0.70203966 0
2.0840001 0.45520616 0.70168614 0
2.0830002 0.45187274 0.70150936 0
2.0810001 0.44824889 0.70115578 0
2.0800002 0.44492441 0.70097899 0
2.0780001 0.44131324 0.70062548 0
2.082 0.43944085 0.70133257 0
2.0860002 0.43755406 0.70203966 0
2.0910001 0.43593785 0.70292354 0
2.095 0.43402043 0.70363057 0
2.1000001 0.43236995 0.7045145 0
2.1040001 0.43042186 0.70522153 0
2.108 0.42845929 0.70592868 0
2.1130002 0.42675832 0.7068125 0
2.1170001 0.42476508 0.70751965 0
2.1190002 0.42221266 0.70787317 0
2.1200001 0.41938251 0.70804989 0
2.1200001 0.41627994 0.70804989 0
2.1210001 0.41344437 0.70822668 0
2.1210001 0.41034004 0.70822668 0
2.1210001 0.40723565 0.70822668 0
2.1220002 0.4043929 0.70840347 0
2.1220002 0.40128672 0.70840347 0
2.1230001 0.39843848 0.70858026 0
2.1230001 0.39533052 0.70858026 0
2.1270001 0.39323995 0.70928735 0
2.1830001 0.39783424 0.71918666 0
2.1880002 0.39585364 0.72007048 0
2.1930001 0.39385501 0.72095436 0
2.1980002 0.39183837 0.72183824 0
2.2030001 0.38980365 0.72272211 0
2.2080002 0.38775092 0.72360599 0
2.2130001 0.38568017 0.72448981 0
2.2180002 0.38359135 0.72537369 0
2.223 0.38148451 0.72625756 0
2.1340001 0.57643288 0.70739698 0
2.1330001 0.57294792 0.70722198 0
2.131 0.56911123 0.70687205 0
2.1300001 0.56563526 0.70669711 0
2.128 0.56181121 0.70634711 0
2.1270001 0.5583443 0.70617217 0
2.125 0.55453289 0.70582223 0
2.1240001 0.55107498 0.70564723 0
2.1040001 0.54107463 0.70214784 0
2.1040001 0.53800094 0.70214784 0
2.1040001 0.53492731 0.70214784 0
2.105 0.53219265 0.70232284 0
2.105 0.52911723 0.70232284 0
2.1060002 0.5263772 0.70249784 0
2.1060002 0.52329993 0.70249784 0
2.1060002 0.5202226 0.70249784 0
2.1070001 0.51747543 0.70267278 0
2.1070001 0.51439631 0.70267278 0
2.1070001 0.51131719 0.70267278 0
2.1060002 0.50791341 0.70249784 0
2.1040001 0.50419039 0.70214784 0
2.1030002 0.5007956 0.7019729 0
2.1010001 0.49708521 0.70162296 0
2.1000001 0.49369943 0.70144796 0
2.0990002 0.49031729 0.70127302 0
2.0970001 0.4866249 0.70092309 0
2.0960002 0.48325175 0.70074809 0
2.0940001 0.479572 0.70039821 0
2.0930002 0.47620791 0.70022321 0
2.0910001 0.4725408 0.69987327 0
2.0900002 0.46918565 0.69969833 0
2.0880001 0.46553117 0.69934833 0
2.0870001 0.46218508 0.69917339 0
2.0860002 0.45884264 0.69899845 0
2.0840001 0.45520616 0.69864845 0
2.0830002 0.45187274 0.69847351 0
2.0810001 0.44824889 0.69812357 0
2.0800002 0.44492441 0.69794858 0
2.0780001 0.44131324 0.6975987 0
2.082 0.43944085 0.69829857 0
2.0860002 0.43755406 0.69899845 0
2.0910001 0.43593785 0.69987327 0
2.095 0.43402043 0.70057315 0
2.1000001 0.43236995 0.70144796 0
2.1040001 0.43042186 0.70214784 0
2.108 0.42845929 0.70284772 0
2.1130002 0.42675832 0.7037226 0
2.1170001 0.42476508 0.70442247 0
2.1190002 0.42221266 0.70477241 0
2.1200001 0.41938251 0.70494735 0
2.1200001 0.41627994 0.70494735 0
2.1210001 0.41344437 0.70512235 0
2.1210001 0.41034004 0.70512235 0
2.1210001 0.40723565 0.70512235 0
2.1220002 0.4043929 0.70529735 0
2.1220002 0.40128672 0.70529735 0
2.1230001 0.39843848 0.70547229 0
2.1230001 0.39533052 0.70547229 0
2.1270001 0.39323995 0.70617217 0
2.1830001 0.39783424 0.71597046 0
2.1880002 0.39585364 0.71684527 0
2.1930001 0.39385501 0.71772015 0
2.1980002 0.39183837 0.71859503 0
2.2030001 0.38980365 0.71946985 0
2.2080002 0.38775092 0.72034466 0
2.2130001 0.38568017 0.72121954 0
2.2180002 0.38359135 0.72209442 0
2.223 0.38148451 0.72296923 0
2.1340001 0.57643288 0.70426917 0
2.1330001 0.57294792 0.70409596 0
2.131 0.56911123 0.70374966 0
2.1300001 0.56563526 0.70357651 0
2.128 0.56181121 0.70323014 0
2.1270001 0.5583443 0.70305699 0
2.125 0.55453289 0.70271063 0
2.1240001 0.55107498 0.70253754 0
2.1040001 0.54107463 0.69907415 0
2.1040001 0.53800094 0.69907415 0
2.1040001 0.53492731 0.69907415 0
2.105 0.53219265 0.69924736 0
2.105 0.52911723 0.69924736 0
2.1060002 0.5263772 0.69942051 0
2.1060002 0.52329993 0.69942051 0
2.1060002 0.5202226 0.69942051 0
2.1070001 0.51747543 0.69959366 0
2.1070001 0.51439631 0.69959366 0
2.1070001 0.51131719 0.69959366 0
2.1060002 0.50791341 0.69942051 0
2.1040001 0.50419039 0.69907415 0
2.1030002 0.5007956 0.698901 0
2.1010001 0.49708521 0.69855464 0
2.1000001 0.49369943 0.69838154 0
2.0990002 0.49031729 0.69820833 0
2.0970001 0.4866249 0.69786203 0
2.0960002 0.48325175 0.69768882 0
2.0940001 0.479572 0.69734251 0
2.0930002 0.47620791 0.69716936 0
2.0910001 0.4725408 0.696823 0
2.0900002 0.46918565 0.69664985 0
2.0880001 0.46553117 0.69630349 0
2.0870001 0.46218508 0.69613034 0
2.0860002 0.45884264 0.69595718 0
2.0840001 0.45520616 0.69561088 0
2.0830002 0.45187274 0.69543767 0
2.0810001 0.44824889 0.69509137 0
2.0800002 0.44492441 0.69491816 0
2.0780001 0.44131324 0.69457185 0
2.082 0.43944085 0.69526452 0
2.0860002 0.43755406 0.69595718 0
2.0910001 0.43593785 0.696823 0
2.095 0.43402043 0.69751567 0
2.1000001 0.43236995 0.69838154 0
2.1040001 0.43042186 0.69907415 0
2.108 0.42845929 0.69976687 0
2.1130002 0.42675832 0.70063269 0
2.1170001 0.42476508 0.70132536 0
2.1190002 0.42221266 0.70167172 0
2.1200001 0.41938251 0.70184481 0
2.1200001 0.41627994 0.70184481 0
2.1210001 0.41344437 0.70201802 0
2.1210001 0.41034004 0.70201802 0
2.1210001 0.40723565 0.70201802 0
2.1220002 0.4043929 0.70219117 0
2.1220002 0.40128672 0.70219117 0
2.1230001 0.39843848 0.70236433 0
2.1230001 0.39533052 0.70236433 0
2.1270001 0.39323995 0.70305699 0
2.1830001 0.39783424 0.71275425 0
2.1880002 0.39585364 0.71362007 0
2.1930001 0.39385501 0.71448588 0
2.1980002 0.39183837 0.7153517 0
2.2030001 0.38980365 0.71621758 0
2.2080002 0.38775092 0.71708339 0
2.2130001 0.38568017 0.71794921 0
2.2180002 0.38359135 0.71881509 0
2.223 0.38148451 0.71968091 0
2.1340001 0.57643288 0.70114136 0
2.1330001 0.57294792 0.70096999 0
2.131 0.56911123 0.70062727 0
2.1300001 0.56563526 0.7004559 0
2.128 0.56181121 0.70011318 0
2.1270001 0.5583443 0.69994187 0
2.125 0.55453289 0.69959909 0
2.1240001 0.55107498 0.69942772 0
2.1040001 0.54107463 0.69600046 0
2.1040001 0.53800094 0.69600046 0
2.1040001 0.53492731 0.69600046 0
2.105 0.53219265 0.69617188 0
2.105 0.52911723 0.69617188 0
2.1060002 0.5263772 0.69634318 0
2.1060002 0.52329993 0.69634318 0
2.1060002 0.5202226 0.69634318 0
2.1070001 0.51747543 0.69651461 0
2.1070001 0.51439631 0.69651461 0
2.1070001 0.51131719 0.69651461 0
2.1060002 0.50791341 0.69634318 0
2.1040001 0.50419039 0.69600046 0
2.1030002 0.5007956 0.69582915 0
2.1010001 0.49708521 0.69548643 0
2.1000001 0.49369943 0.695315 0
2.0990002 0.49031729 0.6951437 0
2.0970001 0.4866249 0.69480097 0
2.0960002 0.48325175 0.69462961 0
2.0940001 0.479572 0.69428688 0
2.0930002 0.47620791 0.69411552 0
2.0910001 0.4725408 0.69377279 0
2.0900002 0.46918565 0.69360143 0
2.0880001 0.46553117 0.6932587 0
2.0870001 0.46218508 0.69308734 0
2.0860002 0.45884264 0.69291598 0
2.0840001 0.45520616 0.69257325 0
2.0830002 0.45187274 0.69240189 0
2.0810001 0.44824889 0.69205916 0
2.0800002 0.44492441 0.6918878 0
2.0780001 0.44131324 0.69154507 0
2.082 0.43944085 0.69223052 0
2.0860002 0.43755406 0.69291598 0
2.0910001 0.43593785 0.69377279 0
2.095 0.43402043 0.69445825 0
2.1000001 0.43236995 0.695315 0
2.1040001 0.43042186 0.69600046 0
2.108 0.42845929 0.69668591 0
2.1130002 0.42675832 0.69754273 0
2.1170001 0.42476508 0.69822818 0
2.1190002 0.42221266 0.69857091 0
2.1200001 0.41938251 0.69874227 0
2.1200001 0.41627994 0.69874227 0
2.1210001 0.41344437 0.69891363 0
2.1210001 0.41034004 0.69891363 0
2.1210001 0.40723565 0.69891363 0
2.1220002 0.4043929 0.699085 0
2.1220002 0.40128672 0.699085 0
2.1230001 0.39843848 0.69925636 0
2.1230001 0.39533052 0.69925636 0
2.1270001 0.39323995 0.69994187 0
2.1830001 0.39783424 0.7095381 0
2.1880002 0.39585364 0.71039486 0
2.1930001 0.39385501 0.71125168 0
2.1980002 0.39183837 0.71210849 0
2.2030001 0.38980365 0.71296531 0
2.2080002 0.38775092 0.71382213 0
2.2130001 0.38568017 0.71467888 0
2.2180002 0.38359135 0.71553576 0
2.223 0.38148451 0.71639252 0
2.1340001 0.57643288 0.69801354 0
2.1330001 0.57294792 0.69784397 0
2.131 0.56911123 0.69750488 0
2.1300001 0.56563526 0.6973353 0
2.128 0.56181121 0.69699621 0
2.1270001 0.5583443 0.69682664 0
2.125 0.55453289 0.69648755 0
2.1240001 0.55107498 0.69631797 0
2.1040001 0.54107463 0.69292676 0
2.1040001 0.53800094 0.69292676 0
2.1040001 0.53492731 0.69292676 0
2.105 0.53219265 0.69309634 0
2.105 0.52911723 0.69309634 0
2.1060002 0.5263772 0.69326591 0
2.1060002 0.52329993 0.69326591 0
2.1060002 0.5202226 0.69326591 0
2.1070001 0.51747543 0.69343549 0
2.1070001 0.51439631 0.69343549 0
2.1070001 0.51131719 0.69343549 0
2.1060002 0.50791341 0.69326591 0
2.1040001 0.50419039 0.69292676 0
2.1030002 0.5007956 0.69275725 0
2.1010001 0.49708521 0.6924181 0
2.1000001 0.49369943 0.69224858 0
