# .PCD v0.7 - Point Cloud Data file format
VERSION 0.7
FIELDS x y z intensity
SIZE 4 4 4 4
TYPE F F F F
COUNT 1 1 1 1
WIDTH 429
HEIGHT 1
VIEWPOINT 0 0 0 1 0 0 0
POINTS 429
DATA ascii
3.4460003 1.4649601 0.34356162 0
3.4410002 1.4569943 0.34366083 0
3.4370003 1.4495393 0.3437402 0
3.4330003 1.4420986 0.34381956 0
3.4280002 1.4341834 0.34391877 0
3.4240003 1.4267733 0.34399813 0
3.4500003 1.4724457 0.33798063 0
3.4460003 1.4649601 0.33806723 0
3.4410002 1.4569943 0.33817545 0
3.4370003 1.4495393 0.33826202 0
3.4330003 1.4420986 0.3383486 0
3.4280002 1.4341834 0.33845684 0
3.4240003 1.4267733 0.33854342 0
3.4500003 1.4724457 0.332479 0
3.4460003 1.4649601 0.33257282 0
3.4410002 1.4569943 0.33269006 0
3.4370003 1.4495393 0.33278388 0
3.4330003 1.4420986 0.33287764 0
3.4280002 1.4341834 0.33299491 0
3.4240003 1.4267733 0.3330887 0
3.4500003 1.4724457 0.3269774 0
3.4460003 1.4649601 0.3270784 0
3.4410002 1.4569943 0.32720467 0
3.4370003 1.4495393 0.3273057 0
3.4330003 1.4420986 0.3274067 0
3.4280002 1.4341834 0.32753298 0
3.4240003 1.4267733 0.32763398 0
3.4190001 1.4188925 0.32776028 0
3.4500003 1.4724457 0.32147577 0
3.4460003 1.4649601 0.32158402 0
3.4410002 1.4569943 0.32171929 0
3.4370003 1.4495393 0.32182753 0
3.4330003 1.4420986 0.32193577 0
3.4280002 1.4341834 0.32207105 0
3.4240003 1.4267733 0.32217926 0
3.4190001 1.4188925 0.32231456 0
3.4500003 1.4724457 0.31597418 0
3.4460003 1.4649601 0.31608963 0
3.4410002 1.4569943 0.31623393 0
3.4370003 1.4495393 0.31634936 0
3.4330003 1.4420986 0.31646481 0
3.4280002 1.4341834 0.31660911 0
3.4240003 1.4267733 0.31672454 0
3.4190001 1.4188925 0.31686887 0
3.4500003 1.4724457 0.31047255 0
3.4460003 1.4649601 0.31059521 0
3.4410002 1.4569943 0.31074855 0
3.4370003 1.4495393 0.31087118 0
3.4330003 1.4420986 0.31099385 0
3.4280002 1.4341834 0.31114718 0
3.4240003 1.4267733 0.31126982 0
3.4190001 1.4188925 0.31142318 0
3.4500003 1.4724457 0.30497095 0
3.4460003 1.4649601 0.3051008 0
3.4410002 1.4569943 0.30526316 0
3.4370003 1.4495393 0.30539304 0
3.4330003 1.4420986 0.30552292 0
3.4280002 1.4341834 0.30568525 0
3.4240003 1.4267733 0.30581513 0
3.4190001 1.4188925 0.30597746 0
3.4500003 1.4724457 0.29946932 0
3.4460003 1.4649601 0.29960641 0
3.4410002 1.4569943 0.29977778 0
3.4370003 1.4495393 0.29991487 0
3.4330003 1.4420986 0.30005196 0
3.4280002 1.4341834 0.30022332 0
3.4240003 1.4267733 0.30036041 0
3.4190001 1.4188925 0.30053177 0
3.4500003 1.4724457 0.29396772 0
3.4460003 1.4649601 0.29411203 0
3.4410002 1.4569943 0.29429239 0
3.4370003 1.4495393 0.29443669 0
3.4330003 1.4420986 0.294581 0
3.4280002 1.4341834 0.29476139 0
3.4240003 1.4267733 0.29490569 0
3.4190001 1.4188925 0.29508609 0
3.4500003 1.4724457 0.2884661 0
3.4460003 1.4649601 0.28861761 0
3.4410002 1.4569943 0.288807 0
3.4370003 1.4495393 0.28895855 0
3.4330003 1.4420986 0.28911006 0
3.4280002 1.4341834 0.28929946 0
3.4240003 1.4267733 0.28945097 0
3.4190001 1.4188925 0.28964037 0
3.4500003 1.4724457 0.28296447 0
3.4460003 1.4649601 0.2831232 0
3.4410002 1.4569943 0.28332165 0
3.4370003 1.4495393 0.28348038 0
3.4330003 1.4420986 0.2836391 0
3.4280002 1.4341834 0.28383753 0
3.4240003 1.4267733 0.28399628 0
3.4190001 1.4188925 0.28419468 0
3.4500003 1.4724457 0.27746287 0
3.4460003 1.4649601 0.27762881 0
3.4410002 1.4569943 0.27783626 0
3.4370003 1.4495393 0.2780022 0
3.4330003 1.4420986 0.27816814 0
3.4280002 1.4341834 0.2783756 0
3.4240003 1.4267733 0.27854156 0
3.4190001 1.4188925 0.27874899 0
3.4500003 1.4724457 0.27196127 0
3.4460003 1.4649601 0.27213442 0
3.4410002 1.4569943 0.27235088 0
3.4370003 1.4495393 0.27252406 0
3.4330003 1.4420986 0.27269721 0
3.4280002 1.4341834 0.27291366 0
3.4240003 1.4267733 0.27308685 0
3.4190001 1.4188925 0.27330327 0
3.4500003 1.4724457 0.26645964 0
3.4460003 1.4649601 0.26664001 0
3.4410002 1.4569943 0.26686549 0
3.4370003 1.4495393 0.26704586 0
3.4330003 1.4420986 0.26722625 0
3.4280002 1.4341834 0.26745173 0
3.4240003 1.4267733 0.26763213 0
3.4190001 1.4188925 0.26785761 0
3.4500003 1.4724457 0.26095802 0
3.4460003 1.4649601 0.26114559 0
3.4410002 1.4569943 0.26138014 0
3.4370003 1.4495393 0.26156771 0
3.4330003 1.4420986 0.26175529 0
3.4280002 1.4341834 0.2619898 0
3.4240003 1.4267733 0.26217741 0
3.4190001 1.4188925 0.26241189 0
3.4500003 1.4724457 0.25545639 0
3.4460003 1.4649601 0.25565124 0
3.4410002 1.4569943 0.25589472 0
3.4370003 1.4495393 0.25608954 0
3.4330003 1.4420986 0.25628436 0
3.4280002 1.4341834 0.25652787 0
3.4240003 1.4267733 0.25672269 0
3.4190001 1.4188925 0.2569662 0
3.4500003 1.4724457 0.24995477 0
3.4460003 1.4649601 0.25015682 0
3.4410002 1.4569943 0.25040936 0
3.4370003 1.4495393 0.25061136 0
3.4330003 1.4420986 0.25081342 0
3.4280002 1.4341834 0.25106594 0
3.4240003 1.4267733 0.25126797 0
3.4190001 1.4188925 0.25152051 0
3.4500003 1.4724457 0.24445318 0
3.4460003 1.4649601 0.24466242 0
3.4410002 1.4569943 0.24492398 0
3.4370003 1.4495393 0.24513321 0
3.4330003 1.4420986 0.24534245 0
3.4280002 1.4341834 0.24560401 0
3.4240003 1.4267733 0.24581324 0
3.4190001 1.4188925 0.2460748 0
3.4500003 1.4724457 0.23895155 0
3.4460003 1.4649601 0.23916802 0
3.4410002 1.4569943 0.23943859 0
3.4370003 1.4495393 0.23965503 0
3.4330003 1.4420986 0.2398715 0
3.4280002 1.4341834 0.24014208 0
3.4240003 1.4267733 0.24035853 0
3.4190001 1.4188925 0.24062911 0
3.4500003 1.4724457 0.23344995 0
3.4460003 1.4649601 0.2336736 0
3.4410002 1.4569943 0.23395321 0
3.4370003 1.4495393 0.23417689 0
3.4330003 1.4420986 0.23440054 0
3.4280002 1.4341834 0.23468015 0
3.4240003 1.4267733 0.23490381 0
3.4190001 1.4188925 0.2351834 0
3.4500003 1.4724457 0.22794832 0
3.4460003 1.4649601 0.22817922 0
3.4410002 1.4569943 0.22846782 0
3.4370003 1.4495393 0.22869872 0
3.4330003 1.4420986 0.22892959 0
3.4280002 1.4341834 0.22921821 0
3.4240003 1.4267733 0.22944909 0
3.4190001 1.4188925 0.22973771 0
3.4500003 1.4724457 0.22244671 0
3.4460003 1.4649601 0.22268482 0
3.4410002 1.4569943 0.22298245 0
3.4370003 1.4495393 0.22322054 0
3.4330003 1.4420986 0.22345865 0
3.4280002 1.4341834 0.22375628 0
3.4240003 1.4267733 0.22399437 0
3.4190001 1.4188925 0.22429202 0
3.4500003 1.4724457 0.2169451 0
3.4460003 1.4649601 0.21719041 0
3.4410002 1.4569943 0.21749707 0
3.4370003 1.4495393 0.21774238 0
3.4330003 1.4420986 0.21798769 0
3.4280002 1.4341834 0.21829435 0
3.4240003 1.4267733 0.21853966 0
3.4190001 1.4188925 0.21884632 0
3.4500003 1.4724457 0.21144348 0
3.4460003 1.4649601 0.21169601 0
3.4410002 1.4569943 0.21201168 0
3.4370003 1.4495393 0.21226421 0
3.4330003 1.4420986 0.21251675 0
3.4280002 1.4341834 0.21283242 0
3.4240003 1.4267733 0.21308495 0
3.4190001 1.4188925 0.21340062 0
3.4500003 1.4724457 0.20594187 0
3.4460003 1.4649601 0.20620161 0
3.4410002 1.4569943 0.20652631 0
3.4370003 1.4495393 0.20678605 0
3.4330003 1.4420986 0.20704579 0
3.4280002 1.4341834 0.20737049 0
3.4240003 1.4267733 0.20763023 0
3.4190001 1.4188925 0.20795491 0
3.4500003 1.4724457 0.20044026 0
3.4460003 1.4649601 0.20070721 0
3.4410002 1.4569943 0.20104092 0
3.4370003 1.4495393 0.20130789 0
3.4330003 1.4420986 0.20157485 0
3.4280002 1.4341834 0.20190856 0
3.4240003 1.4267733 0.20217551 0
3.4190001 1.4188925 0.20250922 0
3.4500003 1.4724457 0.19493863 0
3.4460003 1.4649601 0.19521281 0
3.4410002 1.4569943 0.19555554 0
3.4370003 1.4495393 0.19582972 0
3.4330003 1.4420986 0.1961039 0
3.4280002 1.4341834 0.19644663 0
3.4240003 1.4267733 0.19672081 0
3.4190001 1.4188925 0.19706354 0
3.4500003 1.4724457 0.18943703 0
3.4460003 1.4649601 0.18971841 0
3.4410002 1.4569943 0.19007015 0
3.4370003 1.4495393 0.19035155 0
3.4330003 1.4420986 0.19063294 0
3.4280002 1.4341834 0.1909847 0
3.4240003 1.4267733 0.19126609 0
3.4190001 1.4188925 0.19161783 0
3.4500003 1.4724457 0.1839354 0
3.4460003 1.4649601 0.18422401 0
3.4410002 1.4569943 0.18458478 0
3.4370003 1.4495393 0.18487339 0
3.4330003 1.4420986 0.18516199 0
3.4280002 1.4341834 0.18552276 0
3.4240003 1.4267733 0.18581137 0
3.4190001 1.4188925 0.18617214 0
3.4500003 1.4724457 0.17843379 0
3.4460003 1.4649601 0.17872961 0
3.4410002 1.4569943 0.1790994 0
3.4370003 1.4495393 0.17939523 0
3.4330003 1.4420986 0.17969103 0
3.4280002 1.4341834 0.18006083 0
3.4240003 1.4267733 0.18035665 0
3.4190001 1.4188925 0.18072645 0
3.4500003 1.4724457 0.17293218 0
3.4460003 1.4649601 0.17323522 0
3.4410002 1.4569943 0.17361401 0
3.4370003 1.4495393 0.17391706 0
3.4330003 1.4420986 0.1742201 0
3.4280002 1.4341834 0.1745989 0
3.4240003 1.4267733 0.17490193 0
3.4190001 1.4188925 0.17528073 0
3.4500003 1.4724457 0.16743056 0
3.4460003 1.4649601 0.16774081 0
3.4410002 1.4569943 0.16812865 0
3.4370003 1.4495393 0.1684389 0
3.4330003 1.4420986 0.16874915 0
3.4280002 1.4341834 0.16913696 0
3.4240003 1.4267733 0.16944721 0
3.4190001 1.4188925 0.16983505 0
3.4500003 1.4724457 0.16192894 0
3.4460003 1.4649601 0.16224641 0
3.4410002 1.4569943 0.16264327 0
3.4370003 1.4495393 0.16296072 0
3.4330003 1.4420986 0.16327819 0
3.4280002 1.4341834 0.16367503 0
3.4240003 1.4267733 0.16399252 0
3.4190001 1.4188925 0.16438936 0
3.4500003 1.4724457 0.15642732 0
3.4460003 1.4649601 0.15675202 0
3.4410002 1.4569943 0.15715788 0
3.4370003 1.4495393 0.15748256 0
3.4330003 1.4420986 0.15780723 0
3.4280002 1.4341834 0.15821309 0
3.4240003 1.4267733 0.15853781 0
3.4190001 1.4188925 0.15894367 0
3.4500003 1.4724457 0.15092573 0
3.4460003 1.4649601 0.1512576 0
3.4410002 1.4569943 0.15167251 0
3.4370003 1.4495393 0.15200439 0
3.4330003 1.4420986 0.1523363 0
3.4280002 1.4341834 0.15275118 0
3.4240003 1.4267733 0.15308309 0
3.4190001 1.4188925 0.15349793 0
3.4500003 1.4724457 0.1454241 0
3.4460003 1.4649601 0.14576319 0
3.4410002 1.4569943 0.14618713 0
3.4370003 1.4495393 0.14652622 0
3.4330003 1.4420986 0.14686534 0
3.4280002 1.4341834 0.14728925 0
3.4240003 1.4267733 0.14762837 0
3.4190001 1.4188925 0.14805225 0
3.4500003 1.4724457 0.1399225 0
3.4460003 1.4649601 0.14026883 0
3.4410002 1.4569943 0.14070174 0
3.4370003 1.4495393 0.14104807 0
3.4330003 1.4420986 0.14139438 0
3.4280002 1.4341834 0.14182732 0
3.4240003 1.4267733 0.14217365 0
3.4190001 1.4188925 0.14260656 0
3.4500003 1.4724457 0.13442087 0
3.4460003 1.4649601 0.13477442 0
3.4410002 1.4569943 0.13521636 0
3.4370003 1.4495393 0.1355699 0
3.4330003 1.4420986 0.13592345 0
3.4280002 1.4341834 0.13636538 0
3.4240003 1.4267733 0.13671893 0
3.4190001 1.4188925 0.13716087 0
3.4500003 1.4724457 0.12891924 0
3.4460003 1.4649601 0.12928 0
3.4410002 1.4569943 0.12973097 0
3.4370003 1.4495393 0.13009173 0
3.4330003 1.4420986 0.13045248 0
3.4280002 1.4341834 0.13090345 0
3.4240003 1.4267733 0.13126421 0
3.4190001 1.4188925 0.13171518 0
3.4500003 1.4724457 0.12341765 0
3.4460003 1.4649601 0.12378561 0
3.4410002 1.4569943 0.12424558 0
3.4370003 1.4495393 0.12461355 0
3.4330003 1.4420986 0.12498152 0
3.4280002 1.4341834 0.12544152 0
3.4240003 1.4267733 0.12580949 0
3.4190001 1.4188925 0.12626946 0
3.4500003 1.4724457 0.11791602 0
3.4460003 1.4649601 0.1182912 0
3.4410002 1.4569943 0.11876023 0
3.4370003 1.4495393 0.11913541 0
3.4330003 1.4420986 0.11951056 0
3.4280002 1.4341834 0.11997959 0
3.4240003 1.4267733 0.12035477 0
3.4190001 1.4188925 0.12082377 0
3.4500003 1.4724457 0.11241442 0
3.4460003 1.4649601 0.11279681 0
3.4410002 1.4569943 0.11327484 0
3.4370003 1.4495393 0.11365724 0
3.4330003 1.4420986 0.11403963 0
3.4280002 1.4341834 0.11451766 0
3.4240003 1.4267733 0.11490008 0
3.4190001 1.4188925 0.11537808 0
3.4500003 1.4724457 0.10691279 0
3.4460003 1.4649601 0.10730243 0
3.4410002 1.4569943 0.10778946 0
3.4370003 1.4495393 0.10817906 0
3.4330003 1.4420986 0.1085687 0
3.4280002 1.4341834 0.10905573 0
3.4240003 1.4267733 0.10944536 0
3.4190001 1.4188925 0.10993239 0
3.4500003 1.4724457 0.10141116 0
3.4460003 1.4649601 0.10180801 0
3.4410002 1.4569943 0.10230407 0
3.4370003 1.4495393 0.10270092 0
3.4330003 1.4420986 0.10309774 0
3.4280002 1.4341834 0.1035938 0
3.4240003 1.4267733 0.10399064 0
3.4190001 1.4188925 0.1044867 0
3.4500003 1.4724457 0.095909536 0
3.4460003 1.4649601 0.096313596 0
3.4410002 1.4569943 0.096818686 0
3.4370003 1.4495393 0.097222745 0
3.4330003 1.4420986 0.097626805 0
3.4280002 1.4341834 0.098131865 0
3.4240003 1.4267733 0.098535925 0
3.4190001 1.4188925 0.099041015 0
3.4500003 1.4724457 0.090407968 0
3.4460003 1.4649601 0.09081921 0
3.4410002 1.4569943 0.0913333 0
3.4370003 1.4495393 0.091744572 0
3.4330003 1.4420986 0.092155844 0
3.4280002 1.4341834 0.092669934 0
3.4240003 1.4267733 0.093081176 0
3.4190001 1.4188925 0.093595296 0
3.4500003 1.4724457 0.08490634 0
3.4460003 1.4649601 0.085324824 0
3.4410002 1.4569943 0.085847944 0
3.4370003 1.4495393 0.086266398 0
3.4330003 1.4420986 0.086684883 0
3.4280002 1.4341834 0.087208003 0
3.4240003 1.4267733 0.087626457 0
3.4190001 1.4188925 0.088149577 0
3.4500003 1.4724457 0.079404712 0
3.4460003 1.4649601 0.079830408 0
3.4410002 1.4569943 0.080362558 0
3.4370003 1.4495393 0.080788225 0
3.4330003 1.4420986 0.081213951 0
3.4280002 1.4341834 0.081746072 0
3.4240003 1.4267733 0.082171738 0
3.4190001 1.4188925 0.082703888 0
3.4500003 1.4724457 0.073903084 0
3.4460003 1.4649601 0.074336022 0
3.4410002 1.4569943 0.074877173 0
3.4370003 1.4495393 0.075310051 0
3.4330003 1.4420986 0.07574299 0
3.4280002 1.4341834 0.07628414 0
3.4240003 1.4267733 0.076717049 0
3.4190001 1.4188925 0.077258199 0
3.4500003 1.4724457 0.068401486 0
3.4460003 1.4649601 0.068841606 0
3.4410002 1.4569943 0.069391787 0
3.4370003 1.4495393 0.069831908 0
3.4330003 1.4420986 0.070272028 0
3.4280002 1.4341834 0.070822209 0
3.4240003 1.4267733 0.07126233 0
3.4190001 1.4188925 0.07181251 0
3.4500003 1.4724457 0.062899888 0
3.4460003 1.4649601 0.063347191 0
3.4410002 1.4569943 0.063906401 0
3.4370003 1.4495393 0.064353764 0
3.4330003 1.4420986 0.064801067 0
3.4280002 1.4341834 0.065360278 0
3.4240003 1.4267733 0.065807611 0
3.4190001 1.4188925 0.066366792 0
3.4500003 1.4724457 0.05739826 0
3.4460003 1.4649601 0.057852834 0
3.4410002 1.4569943 0.058421016 0
3.4370003 1.4495393 0.058875591 0
3.4330003 1.4420986 0.059330136 0
3.4280002 1.4341834 0.059898347 0
3.4240003 1.4267733 0.060352892 0
3.4190001 1.4188925 0.060921103 0
3.4500003 1.4724457 0.051896632 0
3.4460003 1.4649601 0.052358419 0
3.4410002 1.4569943 0.05293563 0
3.4370003 1.4495393 0.053397417 0
3.4330003 1.4420986 0.053859174 0
3.4280002 1.4341834 0.054436415 0
3.4240003 1.4267733 0.054898173 0
3.4190001 1.4188925 0.055475414 0
3.4190001 1.4188925 0.050029725 0
