# .PCD v0.7 - Point Cloud Data file format
VERSION 0.7
FIELDS x y z intensity
SIZE 4 4 4 4
TYPE F F F F
COUNT 1 1 1 1
WIDTH 1504
HEIGHT 1
VIEWPOINT 0 0 0 1 0 0 0
POINTS 1504
DATA ascii
6.4700003 2.8883629 2.4076884 0
6.4730005 2.8788588 2.4086788 0
6.4750004 2.8688638 2.409339 0
6.4780002 2.8593397 2.4103291 0
6.4810004 2.8498049 2.4113195 0
6.4840002 2.8402591 2.4123096 0
6.4870005 2.8307025 2.4132998 0
6.4890003 2.8206642 2.41396 0
6.4920006 2.8110881 2.4149504 0
6.4950004 2.8015008 2.4159405 0
6.4980006 2.7919028 2.4169309 0
6.5010004 2.7822936 2.4179213 0
6.5030003 2.7722123 2.4185815 0
6.5060005 2.7625837 2.4195719 0
6.5090003 2.752944 2.420562 0
6.5120006 2.7432935 2.4215524 0
6.5150003 2.7336326 2.4225426 0
6.5180006 2.7239606 2.423533 0
6.5200005 2.7138267 2.4241931 0
6.5230002 2.7041347 2.4251833 0
6.5260005 2.694432 2.4261737 0
6.5290003 2.6847184 2.4271641 0
6.5320005 2.6749945 2.4281545 0
6.5350003 2.6652591 2.4291446 0
6.5370002 2.6550727 2.4298048 0
6.5400004 2.645318 2.4307952 0
6.5430002 2.6355522 2.4317853 0
6.5460005 2.6257753 2.4327755 0
6.5490003 2.615988 2.4337659 0
6.5520005 2.6061897 2.4347563 0
6.5550003 2.5963805 2.4357464 0
6.5570002 2.586133 2.4364066 0
6.5600004 2.5763044 2.437397 0
6.5630002 2.5664644 2.4383872 0
6.5660005 2.5566139 2.4393775 0
6.5690002 2.5467525 2.4403677 0
6.5720005 2.5368803 2.4413581 0
6.5750003 2.5269971 2.4423485 0
6.5780005 2.5171032 2.4433389 0
6.5800004 2.5067856 2.4439991 0
6.5830002 2.4968717 2.4449892 0
6.5860004 2.4869471 2.4459796 0
6.5890002 2.4770117 2.4469697 0
6.5920005 2.4670656 2.4479601 0
6.5950003 2.4571085 2.4489503 0
6.5980005 2.4471407 2.4499409 0
6.6010003 2.4371622 2.4509311 0
6.6040006 2.4271727 2.4519212 0
6.6070004 2.4171722 2.4529116 0
6.6090002 2.4067659 2.4535718 0
6.6120005 2.3967459 2.4545619 0
6.6150002 2.3867149 2.4555521 0
6.6180005 2.3766732 2.4565425 0
6.6210003 2.3666205 2.4575329 0
6.6240005 2.3565574 2.4585233 0
6.6270003 2.3464828 2.4595134 0
6.6300006 2.3363979 2.4605038 0
6.6330004 2.3263018 2.461494 0
6.6360002 2.316195 2.4624841 0
6.6390004 2.3060775 2.4634748 0
6.4590006 2.9267626 2.3931279 0
6.4610004 2.916811 2.3937845 0
6.4640002 2.9073391 2.3947694 0
6.4670005 2.8978565 2.3957543 0
6.4700003 2.8883629 2.396739 0
6.4730005 2.8788588 2.3977242 0
6.4750004 2.8688638 2.3983805 0
6.4780002 2.8593397 2.3993654 0
6.4810004 2.8498049 2.4003503 0
6.4840002 2.8402591 2.401335 0
6.4870005 2.8307025 2.4023201 0
6.4890003 2.8206642 2.4029765 0
6.4920006 2.8110881 2.4039617 0
6.4950004 2.8015008 2.4049466 0
6.4980006 2.7919028 2.4059315 0
6.5010004 2.7822936 2.4069164 0
6.5030003 2.7722123 2.4075727 0
6.5060005 2.7625837 2.4085579 0
6.5090003 2.752944 2.4095426 0
6.5120006 2.7432935 2.4105275 0
6.5150003 2.7336326 2.4115124 0
6.5180006 2.7239606 2.4124973 0
6.5200005 2.7138267 2.4131539 0
6.5230002 2.7041347 2.4141386 0
6.5260005 2.694432 2.4151237 0
6.5290003 2.6847184 2.4161084 0
6.5320005 2.6749945 2.4170933 0
6.5350003 2.6652591 2.4180782 0
6.5370002 2.6550727 2.4187346 0
6.5400004 2.645318 2.4197197 0
6.5430002 2.6355522 2.4207044 0
6.5460005 2.6257753 2.4216893 0
6.5490003 2.615988 2.4226742 0
6.5520005 2.6061897 2.4236591 0
6.5550003 2.5963805 2.4246442 0
6.5570002 2.586133 2.4253006 0
6.5600004 2.5763044 2.4262857 0
6.5630002 2.5664644 2.4272704 0
6.5660005 2.5566139 2.4282553 0
6.5690002 2.5467525 2.4292402 0
6.5720005 2.5368803 2.4302251 0
6.5750003 2.5269971 2.4312098 0
6.5780005 2.5171032 2.4321949 0
6.5800004 2.5067856 2.4328513 0
6.5830002 2.4968717 2.4338362 0
6.5860004 2.4869471 2.4348211 0
6.5890002 2.4770117 2.435806 0
6.5920005 2.4670656 2.4367909 0
6.5950003 2.4571085 2.4377756 0
6.5980005 2.4471407 2.4387608 0
6.6010003 2.4371622 2.4397454 0
6.6040006 2.4271727 2.4407303 0
6.6070004 2.4171722 2.4417152 0
6.6090002 2.4067659 2.4423718 0
6.6120005 2.3967459 2.4433568 0
6.6150002 2.3867149 2.4443417 0
6.6180005 2.3766732 2.4453266 0
6.6210003 2.3666205 2.4463115 0
6.6240005 2.3565574 2.4472964 0
6.6270003 2.3464828 2.4482813 0
6.6300006 2.3363979 2.4492662 0
6.6330004 2.3263018 2.4502509 0
6.6360002 2.316195 2.4512358 0
6.6390004 2.3060775 2.4522207 0
6.6420002 2.2959492 2.4532056 0
6.6450005 2.28581 2.4541905 0
6.6480002 2.2756598 2.4551752 0
6.6510005 2.2654991 2.4561603 0
6.6540003 2.2553275 2.457145 0
6.6570005 2.2451451 2.4581299 0
6.6590004 2.2345874 2.4587865 0
6.6620002 2.2243848 2.4597712 0
6.6650004 2.2141719 2.4607563 0
6.6680002 2.2039478 2.461741 0
6.4590006 2.9267626 2.3821986 0
6.4610004 2.916811 2.3828516 0
6.4640002 2.9073391 2.383831 0
6.4670005 2.8978565 2.3848104 0
6.4700003 2.8883629 2.3857899 0
6.4730005 2.8788588 2.3867695 0
6.4750004 2.8688638 2.3874226 0
6.4780002 2.8593397 2.388402 0
6.4810004 2.8498049 2.3893812 0
6.4840002 2.8402591 2.3903606 0
6.4870005 2.8307025 2.3913403 0
6.4890003 2.8206642 2.3919933 0
6.4920006 2.8110881 2.3929727 0
6.4950004 2.8015008 2.3939521 0
6.4980006 2.7919028 2.3949316 0
6.5010004 2.7822936 2.395911 0
6.5030003 2.7722123 2.3965642 0
6.5060005 2.7625837 2.3975437 0
6.5090003 2.752944 2.3985229 0
6.5120006 2.7432935 2.3995025 0
6.5150003 2.7336326 2.4004819 0
6.5180006 2.7239606 2.4014614 0
6.5200005 2.7138267 2.4021146 0
6.5230002 2.7041347 2.4030938 0
6.5260005 2.694432 2.4040735 0
6.5290003 2.6847184 2.4050529 0
6.5320005 2.6749945 2.4060323 0
6.5350003 2.6652591 2.4070117 0
6.5370002 2.6550727 2.4076648 0
6.5400004 2.645318 2.4086444 0
6.5430002 2.6355522 2.4096239 0
6.5460005 2.6257753 2.4106033 0
6.5490003 2.615988 2.4115825 0
6.5520005 2.6061897 2.4125621 0
6.5550003 2.5963805 2.4135416 0
6.5570002 2.586133 2.4141946 0
6.5600004 2.5763044 2.415174 0
6.5630002 2.5664644 2.4161534 0
6.5660005 2.5566139 2.4171329 0
6.5690002 2.5467525 2.4181123 0
6.5720005 2.5368803 2.4190919 0
6.5750003 2.5269971 2.4200714 0
6.5780005 2.5171032 2.421051 0
6.5800004 2.5067856 2.4217038 0
6.5830002 2.4968717 2.4226832 0
6.5860004 2.4869471 2.4236627 0
6.5890002 2.4770117 2.4246421 0
6.5920005 2.4670656 2.4256217 0
6.5950003 2.4571085 2.4266012 0
6.5980005 2.4471407 2.4275808 0
6.6010003 2.4371622 2.42856 0
6.6040006 2.4271727 2.4295397 0
6.6070004 2.4171722 2.4305191 0
6.6090002 2.4067659 2.4311719 0
6.6120005 2.3967459 2.4321516 0
6.6150002 2.3867149 2.433131 0
6.6180005 2.3766732 2.4341106 0
6.6210003 2.3666205 2.4350898 0
6.6240005 2.3565574 2.4360695 0
6.6270003 2.3464828 2.4370489 0
6.6300006 2.3363979 2.4380283 0
6.6330004 2.3263018 2.4390078 0
6.6360002 2.316195 2.4399872 0
6.6390004 2.3060775 2.4409666 0
6.6420002 2.2959492 2.441946 0
6.6450005 2.28581 2.4429257 0
6.6480002 2.2756598 2.4439051 0
6.6510005 2.2654991 2.4448845 0
6.6540003 2.2553275 2.445864 0
6.6570005 2.2451451 2.4468436 0
6.6590004 2.2345874 2.4474964 0
6.6620002 2.2243848 2.4484758 0
6.6650004 2.2141719 2.4494555 0
6.6680002 2.2039478 2.4504349 0
6.6710005 2.1937129 2.4514143 0
6.6740003 2.1834671 2.4523938 0
6.6770005 2.1732109 2.4533734 0
6.6800003 2.1629436 2.4543529 0
6.6830006 2.1526656 2.4553325 0
6.4590006 2.9267626 2.3712695 0
6.4610004 2.916811 2.3719187 0
6.4640002 2.9073391 2.3728926 0
6.4670005 2.8978565 2.3738668 0
6.4700003 2.8883629 2.3748407 0
6.4730005 2.8788588 2.3758152 0
6.4750004 2.8688638 2.3764641 0
6.4780002 2.8593397 2.3774383 0
6.4810004 2.8498049 2.3784125 0
6.4840002 2.8402591 2.3793864 0
6.4870005 2.8307025 2.3803604 0
6.4890003 2.8206642 2.3810098 0
6.4920006 2.8110881 2.381984 0
6.4950004 2.8015008 2.3829582 0
6.4980006 2.7919028 2.3839321 0
6.5010004 2.7822936 2.3849061 0
6.5030003 2.7722123 2.3855555 0
6.5060005 2.7625837 2.3865297 0
6.5090003 2.752944 2.3875034 0
6.5120006 2.7432935 2.3884776 0
6.5150003 2.7336326 2.3894517 0
6.5180006 2.7239606 2.3904259 0
6.5200005 2.7138267 2.3910751 0
6.5230002 2.7041347 2.3920491 0
6.5260005 2.694432 2.3930233 0
6.5290003 2.6847184 2.3939974 0
6.5320005 2.6749945 2.3949716 0
6.5350003 2.6652591 2.3959453 0
6.5370002 2.6550727 2.3965948 0
6.5400004 2.645318 2.3975689 0
6.5430002 2.6355522 2.3985429 0
6.5460005 2.6257753 2.3995168 0
6.5490003 2.615988 2.400491 0
6.5520005 2.6061897 2.4014652 0
6.5550003 2.5963805 2.4024391 0
6.5570002 2.586133 2.4030883 0
6.5600004 2.5763044 2.4040625 0
6.5630002 2.5664644 2.4050364 0
6.5660005 2.5566139 2.4060109 0
6.5690002 2.5467525 2.4069848 0
6.5720005 2.5368803 2.407959 0
6.5750003 2.5269971 2.4089327 0
6.5780005 2.5171032 2.4099069 0
6.5800004 2.5067856 2.4105563 0
6.5830002 2.4968717 2.4115305 0
6.5860004 2.4869471 2.4125044 0
6.5890002 2.4770117 2.4134784 0
6.5920005 2.4670656 2.4144526 0
6.5950003 2.4571085 2.4154265 0
6.5980005 2.4471407 2.4164009 0
6.6010003 2.4371622 2.4173746 0
6.6040006 2.4271727 2.4183488 0
6.6070004 2.4171722 2.4193227 0
6.6090002 2.4067659 2.4199722 0
6.6120005 2.3967459 2.4209461 0
6.6150002 2.3867149 2.4219203 0
6.6180005 2.3766732 2.4228945 0
6.6210003 2.3666205 2.4238684 0
6.6240005 2.3565574 2.4248426 0
6.6270003 2.3464828 2.4258165 0
6.6300006 2.3363979 2.4267907 0
6.6330004 2.3263018 2.4277647 0
6.6360002 2.316195 2.4287386 0
6.6390004 2.3060775 2.4297128 0
6.6420002 2.2959492 2.4306867 0
6.6450005 2.28581 2.4316609 0
6.6480002 2.2756598 2.4326348 0
6.6510005 2.2654991 2.433609 0
6.6540003 2.2553275 2.4345832 0
6.6570005 2.2451451 2.4355571 0
6.6590004 2.2345874 2.4362063 0
6.6620002 2.2243848 2.4371805 0
6.6650004 2.2141719 2.4381547 0
6.6680002 2.2039478 2.4391286 0
6.6710005 2.1937129 2.4401026 0
6.6740003 2.1834671 2.4410768 0
6.6770005 2.1732109 2.4420509 0
6.6800003 2.1629436 2.4430249 0
6.6830006 2.1526656 2.4439991 0
6.6860003 2.1423764 2.444973 0
6.6890006 2.1320767 2.4459472 0
6.6920004 2.1217663 2.4469211 0
6.6950002 2.1114447 2.4478951 0
6.6980004 2.1011126 2.4488692 0
6.7010002 2.0907695 2.4498432 0
6.7040005 2.0804157 2.4508173 0
6.7070003 2.070051 2.4517913 0
6.4590006 2.9267626 2.3603401 0
6.4610004 2.916811 2.3609858 0
6.4640002 2.9073391 2.3619545 0
6.4670005 2.8978565 2.3629231 0
6.4700003 2.8883629 2.3638916 0
6.4730005 2.8788588 2.3648603 0
6.4750004 2.8688638 2.3655062 0
6.4780002 2.8593397 2.3664749 0
6.4810004 2.8498049 2.3674433 0
6.4840002 2.8402591 2.368412 0
6.4870005 2.8307025 2.369381 0
6.4890003 2.8206642 2.3700264 0
6.4920006 2.8110881 2.3709953 0
6.4950004 2.8015008 2.3719637 0
6.4980006 2.7919028 2.3729324 0
6.5010004 2.7822936 2.3739011 0
6.5030003 2.7722123 2.3745468 0
6.5060005 2.7625837 2.3755157 0
6.5090003 2.752944 2.3764839 0
6.5120006 2.7432935 2.3774529 0
6.5150003 2.7336326 2.3784215 0
6.5180006 2.7239606 2.37939 0
6.5200005 2.7138267 2.3800359 0
6.5230002 2.7041347 2.3810043 0
6.5260005 2.694432 2.3819733 0
6.5290003 2.6847184 2.3829417 0
6.5320005 2.6749945 2.3839104 0
6.5350003 2.6652591 2.3848791 0
6.5370002 2.6550727 2.3855247 0
6.5400004 2.645318 2.3864934 0
6.5430002 2.6355522 2.3874621 0
6.5460005 2.6257753 2.3884308 0
6.5490003 2.615988 2.3893993 0
6.5520005 2.6061897 2.3903682 0
6.5550003 2.5963805 2.3913367 0
6.5570002 2.586133 2.3919823 0
6.5600004 2.5763044 2.392951 0
6.5630002 2.5664644 2.3939197 0
6.5660005 2.5566139 2.3948884 0
6.5690002 2.5467525 2.3958569 0
6.5720005 2.5368803 2.3968258 0
6.5750003 2.5269971 2.3977942 0
6.5780005 2.5171032 2.3987629 0
6.5800004 2.5067856 2.3994088 0
6.5830002 2.4968717 2.4003773 0
6.5860004 2.4869471 2.401346 0
6.5890002 2.4770117 2.4023147 0
6.5920005 2.4670656 2.4032834 0
6.5950003 2.4571085 2.4042521 0
6.5980005 2.4471407 2.4052205 0
6.6010003 2.4371622 2.4061892 0
6.6040006 2.4271727 2.4071581 0
6.6070004 2.4171722 2.4081266 0
6.6090002 2.4067659 2.4087722 0
6.6120005 2.3967459 2.4097412 0
6.6150002 2.3867149 2.4107096 0
6.6180005 2.3766732 2.4116783 0
6.6210003 2.3666205 2.412647 0
6.6240005 2.3565574 2.4136157 0
6.6270003 2.3464828 2.4145842 0
6.6300006 2.3363979 2.4155529 0
6.6330004 2.3263018 2.4165215 0
6.6360002 2.316195 2.41749 0
6.6390004 2.3060775 2.4184587 0
6.6420002 2.2959492 2.4194274 0
6.6450005 2.28581 2.4203961 0
6.6480002 2.2756598 2.4213645 0
6.6510005 2.2654991 2.4223335 0
6.6540003 2.2553275 2.4233019 0
6.6570005 2.2451451 2.4242706 0
6.6590004 2.2345874 2.4249165 0
6.6620002 2.2243848 2.4258852 0
6.6650004 2.2141719 2.4268537 0
6.6680002 2.2039478 2.4278224 0
6.6710005 2.1937129 2.428791 0
6.6740003 2.1834671 2.4297595 0
6.6770005 2.1732109 2.4307284 0
6.6800003 2.1629436 2.4316969 0
6.6830006 2.1526656 2.4326656 0
6.6860003 2.1423764 2.4336343 0
6.6890006 2.1320767 2.434603 0
6.6920004 2.1217663 2.4355717 0
6.6950002 2.1114447 2.4365401 0
6.6980004 2.1011126 2.4375088 0
6.7010002 2.0907695 2.4384775 0
6.7040005 2.0804157 2.439446 0
6.7070003 2.070051 2.4404147 0
6.7100005 2.0596757 2.4413836 0
6.4590006 2.9267626 2.3494108 0
6.4610004 2.916811 2.3500528 0
6.4640002 2.9073391 2.351016 0
6.4670005 2.8978565 2.3519793 0
6.4700003 2.8883629 2.3529427 0
6.4730005 2.8788588 2.3539059 0
6.4750004 2.8688638 2.3545482 0
6.4780002 2.8593397 2.3555112 0
6.4810004 2.8498049 2.3564746 0
6.4840002 2.8402591 2.3574376 0
6.4870005 2.8307025 2.3584011 0
6.4890003 2.8206642 2.3590431 0
6.4920006 2.8110881 2.3600063 0
6.4950004 2.8015008 2.3609695 0
6.4980006 2.7919028 2.361933 0
6.5010004 2.7822936 2.362896 0
6.5030003 2.7722123 2.363538 0
6.5060005 2.7625837 2.3645015 0
6.5090003 2.752944 2.3654644 0
6.5120006 2.7432935 2.3664279 0
6.5150003 2.7336326 2.3673911 0
6.5180006 2.7239606 2.3683546 0
6.5200005 2.7138267 2.3689966 0
6.5230002 2.7041347 2.3699598 0
6.5260005 2.694432 2.370923 0
6.5290003 2.6847184 2.3718863 0
6.5320005 2.6749945 2.3728495 0
6.5350003 2.6652591 2.3738127 0
6.5370002 2.6550727 2.3744547 0
6.5400004 2.645318 2.3754179 0
6.5430002 2.6355522 2.3763812 0
6.5460005 2.6257753 2.3773446 0
6.5490003 2.615988 2.3783076 0
6.5520005 2.6061897 2.379271 0
6.5550003 2.5963805 2.3802342 0
6.5570002 2.586133 2.3808763 0
6.5600004 2.5763044 2.3818398 0
6.5630002 2.5664644 2.3828027 0
6.5660005 2.5566139 2.3837662 0
6.5690002 2.5467525 2.3847294 0
6.5720005 2.5368803 2.3856926 0
6.5750003 2.5269971 2.3866558 0
6.5780005 2.5171032 2.387619 0
6.5800004 2.5067856 2.3882611 0
6.5830002 2.4968717 2.3892243 0
6.5860004 2.4869471 2.3901877 0
6.5890002 2.4770117 2.3911507 0
6.5920005 2.4670656 2.3921142 0
6.5950003 2.4571085 2.3930774 0
6.5980005 2.4471407 2.3940406 0
6.6010003 2.4371622 2.3950038 0
6.6040006 2.4271727 2.3959672 0
6.6070004 2.4171722 2.3969302 0
6.6090002 2.4067659 2.3975725 0
6.6120005 2.3967459 2.3985357 0
6.6150002 2.3867149 2.3994989 0
6.6180005 2.3766732 2.4004622 0
6.6210003 2.3666205 2.4014254 0
6.6240005 2.3565574 2.4023886 0
6.6270003 2.3464828 2.4033518 0
6.6300006 2.3363979 2.4043152 0
6.6330004 2.3263018 2.4052782 0
6.6360002 2.316195 2.4062417 0
6.6390004 2.3060775 2.4072049 0
6.6420002 2.2959492 2.4081681 0
6.6450005 2.28581 2.4091315 0
6.6480002 2.2756598 2.4100945 0
6.6510005 2.2654991 2.4110579 0
6.6540003 2.2553275 2.4120209 0
6.6570005 2.2451451 2.4129844 0
6.6590004 2.2345874 2.4136264 0
6.6620002 2.2243848 2.4145894 0
6.6650004 2.2141719 2.4155529 0
6.6680002 2.2039478 2.4165161 0
6.6710005 2.1937129 2.4174793 0
6.6740003 2.1834671 2.4184425 0
6.6770005 2.1732109 2.4194057 0
6.6800003 2.1629436 2.4203691 0
6.6830006 2.1526656 2.4213321 0
6.6860003 2.1423764 2.4222956 0
6.6890006 2.1320767 2.4232588 0
6.6920004 2.1217663 2.424222 0
6.6950002 2.1114447 2.4251852 0
6.6980004 2.1011126 2.4261484 0
6.7010002 2.0907695 2.4271116 0
6.7040005 2.0804157 2.4280748 0
6.7070003 2.070051 2.429038 0
6.7100005 2.0596757 2.4300013 0
6.4590006 2.9267626 2.3384817 0
6.4610004 2.916811 2.3391201 0
6.4640002 2.9073391 2.3400779 0
6.4670005 2.8978565 2.3410356 0
6.4700003 2.8883629 2.3419933 0
6.4730005 2.8788588 2.3429513 0
6.4750004 2.8688638 2.3435898 0
6.4780002 2.8593397 2.3445477 0
6.4810004 2.8498049 2.3455055 0
6.4840002 2.8402591 2.3464634 0
6.4870005 2.8307025 2.3474212 0
6.4890003 2.8206642 2.3480597 0
6.4920006 2.8110881 2.3490176 0
6.4950004 2.8015008 2.3499753 0
6.4980006 2.7919028 2.3509333 0
6.5010004 2.7822936 2.351891 0
6.5030003 2.7722123 2.3525295 0
6.5060005 2.7625837 2.3534875 0
6.5090003 2.752944 2.3544452 0
6.5120006 2.7432935 2.3554032 0
6.5150003 2.7336326 2.3563609 0
6.5180006 2.7239606 2.3573189 0
6.5200005 2.7138267 2.3579574 0
6.5230002 2.7041347 2.3589149 0
6.5260005 2.694432 2.3598731 0
6.5290003 2.6847184 2.3608305 0
6.5320005 2.6749945 2.3617887 0
6.5350003 2.6652591 2.3627462 0
6.5370002 2.6550727 2.3633847 0
6.5400004 2.645318 2.3643427 0
6.5430002 2.6355522 2.3653004 0
6.5460005 2.6257753 2.3662584 0
6.5490003 2.615988 2.3672161 0
6.5520005 2.6061897 2.3681741 0
6.5550003 2.5963805 2.3691318 0
6.5570002 2.586133 2.3697703 0
6.5600004 2.5763044 2.3707283 0
6.5630002 2.5664644 2.371686 0
6.5660005 2.5566139 2.3726439 0
6.5690002 2.5467525 2.3736017 0
6.5720005 2.5368803 2.3745596 0
6.5750003 2.5269971 2.3755171 0
6.5780005 2.5171032 2.3764751 0
6.5800004 2.5067856 2.3771138 0
6.5830002 2.4968717 2.3780713 0
6.5860004 2.4869471 2.3790295 0
6.5890002 2.4770117 2.379987 0
6.5920005 2.4670656 2.380945 0
6.5950003 2.4571085 2.3819027 0
6.5980005 2.4471407 2.3828604 0
6.6010003 2.4371622 2.3838184 0
6.6040006 2.4271727 2.3847761 0
6.6070004 2.4171722 2.3857341 0
6.6090002 2.4067659 2.3863726 0
6.6120005 2.3967459 2.3873305 0
6.6150002 2.3867149 2.3882883 0
6.6180005 2.3766732 2.389246 0
6.6210003 2.3666205 2.390204 0
6.6240005 2.3565574 2.3911617 0
6.6270003 2.3464828 2.3921196 0
6.6300006 2.3363979 2.3930774 0
6.6330004 2.3263018 2.3940353 0
6.6360002 2.316195 2.3949928 0
6.6390004 2.3060775 2.395951 0
6.6420002 2.2959492 2.3969085 0
6.6450005 2.28581 2.3978665 0
6.6480002 2.2756598 2.3988242 0
6.6510005 2.2654991 2.3997822 0
6.6540003 2.2553275 2.4007399 0
6.6570005 2.2451451 2.4016979 0
6.6590004 2.2345874 2.4023364 0
6.6620002 2.2243848 2.4032941 0
6.6650004 2.2141719 2.4042521 0
6.6680002 2.2039478 2.4052098 0
6.6710005 2.1937129 2.4061677 0
6.6740003 2.1834671 2.4071255 0
6.6770005 2.1732109 2.4080832 0
6.6800003 2.1629436 2.4090412 0
6.6830006 2.1526656 2.4099989 0
6.6860003 2.1423764 2.4109569 0
6.6890006 2.1320767 2.4119146 0
6.6920004 2.1217663 2.4128726 0
6.6950002 2.1114447 2.41383 0
6.6980004 2.1011126 2.4147882 0
6.7010002 2.0907695 2.4157457 0
6.7040005 2.0804157 2.4167037 0
6.7070003 2.070051 2.4176614 0
6.7100005 2.0596757 2.4186194 0
6.4590006 2.9267626 2.3275521 0
6.4610004 2.916811 2.3281872 0
6.4640002 2.9073391 2.3291395 0
6.4670005 2.8978565 2.3300922 0
6.4700003 2.8883629 2.3310444 0
6.4730005 2.8788588 2.3319967 0
6.4750004 2.8688638 2.3326318 0
6.4780002 2.8593397 2.3335841 0
6.4810004 2.8498049 2.3345366 0
6.4840002 2.8402591 2.335489 0
6.4870005 2.8307025 2.3364413 0
6.4890003 2.8206642 2.3370764 0
6.4920006 2.8110881 2.3380289 0
6.4950004 2.8015008 2.3389812 0
6.4980006 2.7919028 2.3399336 0
6.5010004 2.7822936 2.3408859 0
6.5030003 2.7722123 2.341521 0
6.5060005 2.7625837 2.3424735 0
6.5090003 2.752944 2.3434258 0
6.5120006 2.7432935 2.3443782 0
6.5150003 2.7336326 2.3453305 0
6.5180006 2.7239606 2.346283 0
6.5200005 2.7138267 2.3469181 0
6.5230002 2.7041347 2.3478703 0
6.5260005 2.694432 2.3488226 0
6.5290003 2.6847184 2.3497751 0
6.5320005 2.6749945 2.3507276 0
6.5350003 2.6652591 2.3516798 0
6.5370002 2.6550727 2.3523149 0
6.5400004 2.645318 2.3532672 0
6.5430002 2.6355522 2.3542197 0
6.5460005 2.6257753 2.3551722 0
6.5490003 2.615988 2.3561244 0
6.5520005 2.6061897 2.3570769 0
6.5550003 2.5963805 2.3580294 0
6.5570002 2.586133 2.358664 0
6.5600004 2.5763044 2.3596168 0
6.5630002 2.5664644 2.360569 0
6.5660005 2.5566139 2.3615215 0
6.5690002 2.5467525 2.362474 0
6.5720005 2.5368803 2.3634264 0
6.5750003 2.5269971 2.3643787 0
6.5780005 2.5171032 2.3653314 0
6.5800004 2.5067856 2.3659661 0
6.5830002 2.4968717 2.3669186 0
6.5860004 2.4869471 2.367871 0
6.5890002 2.4770117 2.3688233 0
6.5920005 2.4670656 2.3697758 0
6.5950003 2.4571085 2.3707283 0
6.5980005 2.4471407 2.3716805 0
6.6010003 2.4371622 2.372633 0
6.6040006 2.4271727 2.3735855 0
6.6070004 2.4171722 2.3745377 0
6.6090002 2.4067659 2.3751729 0
6.6120005 2.3967459 2.3761251 0
6.6150002 2.3867149 2.3770776 0
6.6180005 2.3766732 2.3780301 0
6.6210003 2.3666205 2.3789823 0
6.6240005 2.3565574 2.3799348 0
6.6270003 2.3464828 2.3808873 0
6.6300006 2.3363979 2.3818398 0
6.6330004 2.3263018 2.382792 0
6.6360002 2.316195 2.3837445 0
6.6390004 2.3060775 2.384697 0
6.6420002 2.2959492 2.3856492 0
6.6450005 2.28581 2.3866019 0
6.6480002 2.2756598 2.3875542 0
6.6510005 2.2654991 2.3885064 0
6.6540003 2.2553275 2.3894589 0
6.6570005 2.2451451 2.3904114 0
6.6590004 2.2345874 2.3910463 0
6.6620002 2.2243848 2.3919988 0
6.6650004 2.2141719 2.392951 0
6.6680002 2.2039478 2.3939033 0
6.6710005 2.1937129 2.394856 0
6.6740003 2.1834671 2.3958082 0
6.6770005 2.1732109 2.3967607 0
6.6800003 2.1629436 2.3977132 0
6.6830006 2.1526656 2.3986657 0
6.6860003 2.1423764 2.3996179 0
6.6890006 2.1320767 2.4005706 0
6.6920004 2.1217663 2.4015229 0
6.6950002 2.1114447 2.4024751 0
6.6980004 2.1011126 2.4034276 0
6.7010002 2.0907695 2.4043801 0
6.7040005 2.0804157 2.4053326 0
6.7070003 2.070051 2.4062848 0
6.7100005 2.0596757 2.4072373 0
6.4590006 2.9267626 2.316623 0
6.4610004 2.916811 2.3172543 0
6.4640002 2.9073391 2.3182013 0
6.4670005 2.8978565 2.3191483 0
6.4700003 2.8883629 2.3200953 0
6.4730005 2.8788588 2.3210423 0
6.4750004 2.8688638 2.3216736 0
6.4780002 2.8593397 2.3226206 0
6.4810004 2.8498049 2.3235676 0
6.4840002 2.8402591 2.3245146 0
6.4870005 2.8307025 2.3254616 0
6.4890003 2.8206642 2.326093 0
6.4920006 2.8110881 2.32704 0
6.4950004 2.8015008 2.327987 0
6.4980006 2.7919028 2.3289342 0
6.5010004 2.7822936 2.329881 0
6.5030003 2.7722123 2.3305123 0
6.5060005 2.7625837 2.3314593 0
6.5090003 2.752944 2.3324063 0
6.5120006 2.7432935 2.3333533 0
6.5150003 2.7336326 2.3343003 0
6.5180006 2.7239606 2.3352475 0
6.5200005 2.7138267 2.3358788 0
6.5230002 2.7041347 2.3368256 0
6.5260005 2.694432 2.3377726 0
6.5290003 2.6847184 2.3387196 0
6.5320005 2.6749945 2.3396666 0
6.5350003 2.6652591 2.3406136 0
6.5370002 2.6550727 2.3412447 0
6.5400004 2.645318 2.3421919 0
6.5430002 2.6355522 2.3431389 0
6.5460005 2.6257753 2.3440859 0
6.5490003 2.615988 2.3450329 0
6.5520005 2.6061897 2.3459799 0
6.5550003 2.5963805 2.3469269 0
6.5570002 2.586133 2.347558 0
6.5600004 2.5763044 2.3485053 0
6.5630002 2.5664644 2.3494523 0
6.5660005 2.5566139 2.3503993 0
6.5690002 2.5467525 2.3513463 0
6.5720005 2.5368803 2.3522933 0
6.5750003 2.5269971 2.3532403 0
6.5780005 2.5171032 2.3541873 0
6.5800004 2.5067856 2.3548186 0
6.5830002 2.4968717 2.3557656 0
6.5860004 2.4869471 2.3567126 0
6.5890002 2.4770117 2.3576596 0
6.5920005 2.4670656 2.3586066 0
6.5950003 2.4571085 2.3595536 0
6.5980005 2.4471407 2.3605006 0
6.6010003 2.4371622 2.3614476 0
6.6040006 2.4271727 2.3623946 0
6.6070004 2.4171722 2.3633416 0
6.6090002 2.4067659 2.3639729 0
6.6120005 2.3967459 2.3649199 0
6.6150002 2.3867149 2.3658669 0
6.6180005 2.3766732 2.3668139 0
6.6210003 2.3666205 2.3677609 0
6.6240005 2.3565574 2.3687079 0
6.6270003 2.3464828 2.3696549 0
6.6300006 2.3363979 2.3706021 0
6.6330004 2.3263018 2.3715489 0
6.6360002 2.316195 2.3724959 0
6.6390004 2.3060775 2.3734429 0
6.6420002 2.2959492 2.3743899 0
6.6450005 2.28581 2.3753371 0
6.6480002 2.2756598 2.3762839 0
6.6510005 2.2654991 2.3772309 0
6.6540003 2.2553275 2.3781779 0
6.6570005 2.2451451 2.3791249 0
6.6590004 2.2345874 2.3797562 0
6.6620002 2.2243848 2.3807032 0
6.6650004 2.2141719 2.3816502 0
6.6680002 2.2039478 2.3825972 0
6.6710005 2.1937129 2.3835442 0
6.6740003 2.1834671 2.3844912 0
6.6770005 2.1732109 2.3854382 0
6.6800003 2.1629436 2.3863852 0
6.6830006 2.1526656 2.3873322 0
6.6860003 2.1423764 2.3882792 0
6.6890006 2.1320767 2.3892262 0
6.6920004 2.1217663 2.3901732 0
6.6950002 2.1114447 2.3911202 0
6.6980004 2.1011126 2.3920672 0
6.7010002 2.0907695 2.3930142 0
6.7040005 2.0804157 2.3939612 0
6.7070003 2.070051 2.3949082 0
6.7100005 2.0596757 2.3958554 0
6.4590006 2.9267626 2.3056939 0
6.4610004 2.916811 2.3063214 0
6.4640002 2.9073391 2.3072629 0
6.4670005 2.8978565 2.3082047 0
6.4700003 2.8883629 2.3091462 0
6.4730005 2.8788588 2.3100877 0
6.4750004 2.8688638 2.3107154 0
6.4780002 2.8593397 2.311657 0
6.4810004 2.8498049 2.3125987 0
6.4840002 2.8402591 2.31354 0
6.4870005 2.8307025 2.3144817 0
6.4890003 2.8206642 2.3151097 0
6.4920006 2.8110881 2.3160512 0
6.4950004 2.8015008 2.3169928 0
6.4980006 2.7919028 2.3179345 0
6.5010004 2.7822936 2.318876 0
6.5030003 2.7722123 2.3195035 0
6.5060005 2.7625837 2.3204453 0
6.5090003 2.752944 2.3213868 0
6.5120006 2.7432935 2.3223283 0
6.5150003 2.7336326 2.3232698 0
6.5180006 2.7239606 2.3242116 0
6.5200005 2.7138267 2.3248391 0
6.5230002 2.7041347 2.3257809 0
6.5260005 2.694432 2.3267226 0
6.5290003 2.6847184 2.3276641 0
6.5320005 2.6749945 2.3286057 0
6.5350003 2.6652591 2.3295472 0
6.5370002 2.6550727 2.3301749 0
6.5400004 2.645318 2.3311167 0
6.5430002 2.6355522 2.3320582 0
6.5460005 2.6257753 2.3329997 0
6.5490003 2.615988 2.3339412 0
6.5520005 2.6061897 2.334883 0
6.5550003 2.5963805 2.3358245 0
6.5570002 2.586133 2.336452 0
6.5600004 2.5763044 2.3373938 0
6.5630002 2.5664644 2.3383355 0
6.5660005 2.5566139 2.339277 0
6.5690002 2.5467525 2.3402185 0
6.5720005 2.5368803 2.3411603 0
6.5750003 2.5269971 2.3421018 0
6.5780005 2.5171032 2.3430433 0
6.5800004 2.5067856 2.3436711 0
6.5830002 2.4968717 2.3446126 0
6.5860004 2.4869471 2.3455541 0
6.5890002 2.4770117 2.3464956 0
6.5920005 2.4670656 2.3474374 0
6.5950003 2.4571085 2.3483789 0
6.5980005 2.4471407 2.3493207 0
6.6010003 2.4371622 2.3502622 0
6.6040006 2.4271727 2.3512039 0
6.6070004 2.4171722 2.3521454 0
6.6090002 2.4067659 2.352773 0
6.6120005 2.3967459 2.3537147 0
6.6150002 2.3867149 2.3546562 0
6.6180005 2.3766732 2.355598 0
6.6210003 2.3666205 2.3565392 0
6.6240005 2.3565574 2.357481 0
6.6270003 2.3464828 2.3584225 0
6.6300006 2.3363979 2.3593643 0
6.6330004 2.3263018 2.3603055 0
6.6360002 2.316195 2.3612473 0
6.6390004 2.3060775 2.3621891 0
6.6420002 2.2959492 2.3631306 0
6.6450005 2.28581 2.3640721 0
6.6480002 2.2756598 2.3650136 0
6.6510005 2.2654991 2.3659554 0
6.6540003 2.2553275 2.3668969 0
6.6570005 2.2451451 2.3678384 0
6.6590004 2.2345874 2.3684661 0
6.6620002 2.2243848 2.3694077 0
6.6650004 2.2141719 2.3703494 0
6.6680002 2.2039478 2.3712909 0
6.6710005 2.1937129 2.3722324 0
6.6740003 2.1834671 2.3731742 0
6.6770005 2.1732109 2.3741159 0
6.6800003 2.1629436 2.3750575 0
6.6830006 2.1526656 2.375999 0
6.6860003 2.1423764 2.3769405 0
6.6890006 2.1320767 2.3778822 0
6.6920004 2.1217663 2.3788238 0
6.6950002 2.1114447 2.379765 0
6.6980004 2.1011126 2.3807068 0
6.7010002 2.0907695 2.3816483 0
6.7040005 2.0804157 2.3825901 0
6.7070003 2.070051 2.3835316 0
6.7100005 2.0596757 2.3844733 0
6.4590006 2.9267626 2.2947643 0
6.4610004 2.916811 2.2953887 0
6.4640002 2.9073391 2.2963247 0
6.4670005 2.8978565 2.297261 0
6.4700003 2.8883629 2.298197 0
6.4730005 2.8788588 2.2991333 0
6.4750004 2.8688638 2.2997575 0
6.4780002 2.8593397 2.3006935 0
6.4810004 2.8498049 2.3016298 0
6.4840002 2.8402591 2.3025658 0
6.4870005 2.8307025 2.3035021 0
6.4890003 2.8206642 2.3041263 0
6.4920006 2.8110881 2.3050625 0
6.4950004 2.8015008 2.3059986 0
6.4980006 2.7919028 2.3069348 0
6.5010004 2.7822936 2.3078709 0
6.5030003 2.7722123 2.3084948 0
6.5060005 2.7625837 2.3094311 0
6.5090003 2.752944 2.3103673 0
6.5120006 2.7432935 2.3113036 0
6.5150003 2.7336326 2.3122396 0
6.5180006 2.7239606 2.3131759 0
6.5200005 2.7138267 2.3137999 0
6.5230002 2.7041347 2.3147361 0
6.5260005 2.694432 2.3156724 0
6.5290003 2.6847184 2.3166084 0
6.5320005 2.6749945 2.3175447 0
6.5350003 2.6652591 2.3184807 0
6.5370002 2.6550727 2.3191049 0
6.5400004 2.645318 2.3200412 0
6.5430002 2.6355522 2.3209772 0
6.5460005 2.6257753 2.3219135 0
6.5490003 2.615988 2.3228495 0
6.5520005 2.6061897 2.3237858 0
6.5550003 2.5963805 2.3247221 0
6.5570002 2.586133 2.325346 0
6.5600004 2.5763044 2.3262823 0
6.5630002 2.5664644 2.3272183 0
6.5660005 2.5566139 2.3281546 0
6.5690002 2.5467525 2.3290908 0
6.5720005 2.5368803 2.3300271 0
6.5750003 2.5269971 2.3309631 0
6.5780005 2.5171032 2.3318994 0
6.5800004 2.5067856 2.3325233 0
6.5830002 2.4968717 2.3334596 0
6.5860004 2.4869471 2.3343959 0
6.5890002 2.4770117 2.3353319 0
6.5920005 2.4670656 2.3362682 0
6.5950003 2.4571085 2.3372042 0
6.5980005 2.4471407 2.3381405 0
6.6010003 2.4371622 2.3390768 0
6.6040006 2.4271727 2.340013 0
6.6070004 2.4171722 2.3409491 0
6.6090002 2.4067659 2.341573 0
6.6120005 2.3967459 2.3425093 0
6.6150002 2.3867149 2.3434455 0
6.6180005 2.3766732 2.3443818 0
6.6210003 2.3666205 2.3453178 0
6.6240005 2.3565574 2.3462541 0
6.6270003 2.3464828 2.3471901 0
6.6300006 2.3363979 2.3481264 0
6.6330004 2.3263018 2.3490627 0
6.6360002 2.316195 2.3499987 0
6.6390004 2.3060775 2.350935 0
6.6420002 2.2959492 2.351871 0
6.6450005 2.28581 2.3528073 0
6.6480002 2.2756598 2.3537436 0
6.6510005 2.2654991 2.3546798 0
6.6540003 2.2553275 2.3556159 0
6.6570005 2.2451451 2.3565521 0
6.6590004 2.2345874 2.3571761 0
6.6620002 2.2243848 2.3581123 0
6.6650004 2.2141719 2.3590486 0
6.6680002 2.2039478 2.3599846 0
6.6710005 2.1937129 2.3609209 0
6.6740003 2.1834671 2.3618569 0
6.6770005 2.1732109 2.3627932 0
6.6800003 2.1629436 2.3637295 0
6.6830006 2.1526656 2.3646657 0
6.6860003 2.1423764 2.3656018 0
6.6890006 2.1320767 2.366538 0
6.6920004 2.1217663 2.3674741 0
6.6950002 2.1114447 2.3684103 0
6.6980004 2.1011126 2.3693466 0
6.7010002 2.0907695 2.3702826 0
6.7040005 2.0804157 2.3712187 0
6.7070003 2.070051 2.372155 0
6.7100005 2.0596757 2.3730912 0
6.4590006 2.9267626 2.2838352 0
6.4610004 2.916811 2.2844558 0
6.4640002 2.9073391 2.2853863 0
6.4670005 2.8978565 2.2863171 0
6.4700003 2.8883629 2.2872479 0
6.4730005 2.8788588 2.2881787 0
6.4750004 2.8688638 2.288799 0
6.4780002 2.8593397 2.2897298 0
6.4810004 2.8498049 2.2906606 0
6.4840002 2.8402591 2.2915914 0
6.4870005 2.8307025 2.2925224 0
6.4890003 2.8206642 2.2931426 0
6.4920006 2.8110881 2.2940736 0
6.4950004 2.8015008 2.2950044 0
6.4980006 2.7919028 2.2959352 0
6.5010004 2.7822936 2.2968659 0
6.5030003 2.7722123 2.2974863 0
6.5060005 2.7625837 2.2984171 0
6.5090003 2.752944 2.2993479 0
6.5120006 2.7432935 2.3002787 0
6.5150003 2.7336326 2.3012094 0
6.5180006 2.7239606 2.3021402 0
6.5200005 2.7138267 2.3027606 0
6.5230002 2.7041347 2.3036914 0
6.5260005 2.694432 2.3046224 0
6.5290003 2.6847184 2.305553 0
6.5320005 2.6749945 2.3064837 0
6.5350003 2.6652591 2.3074145 0
6.5370002 2.6550727 2.3080349 0
6.5400004 2.645318 2.3089659 0
6.5430002 2.6355522 2.3098965 0
6.5460005 2.6257753 2.3108273 0
6.5490003 2.615988 2.311758 0
6.5520005 2.6061897 2.3126888 0
6.5550003 2.5963805 2.3136196 0
6.5570002 2.586133 2.31424 0
6.5600004 2.5763044 2.3151708 0
6.5630002 2.5664644 2.3161016 0
6.5660005 2.5566139 2.3170323 0
6.5690002 2.5467525 2.3179631 0
6.5720005 2.5368803 2.3188941 0
6.5750003 2.5269971 2.3198245 0
6.5780005 2.5171032 2.3207555 0
6.5800004 2.5067856 2.3213761 0
6.5830002 2.4968717 2.3223069 0
6.5860004 2.4869471 2.3232377 0
6.5890002 2.4770117 2.3241682 0
6.5920005 2.4670656 2.325099 0
6.5950003 2.4571085 2.3260298 0
6.5980005 2.4471407 2.3269606 0
6.6010003 2.4371622 2.3278913 0
6.6040006 2.4271727 2.3288224 0
6.6070004 2.4171722 2.3297527 0
6.6090002 2.4067659 2.3303733 0
6.6120005 2.3967459 2.3313043 0
6.6150002 2.3867149 2.3322349 0
6.6180005 2.3766732 2.3331656 0
6.6210003 2.3666205 2.3340964 0
6.6240005 2.3565574 2.3350272 0
6.6270003 2.3464828 2.335958 0
6.6300006 2.3363979 2.3368888 0
6.6330004 2.3263018 2.3378196 0
6.6360002 2.316195 2.3387504 0
6.6390004 2.3060775 2.3396809 0
6.6420002 2.2959492 2.3406117 0
6.6450005 2.28581 2.3415425 0
6.6480002 2.2756598 2.3424733 0
6.6510005 2.2654991 2.3434043 0
6.6540003 2.2553275 2.3443348 0
6.6570005 2.2451451 2.3452656 0
6.6590004 2.2345874 2.3458862 0
6.6620002 2.2243848 2.3468168 0
6.6650004 2.2141719 2.3477478 0
6.6680002 2.2039478 2.3486784 0
6.6710005 2.1937129 2.3496091 0
6.6740003 2.1834671 2.3505399 0
6.6770005 2.1732109 2.3514707 0
6.6800003 2.1629436 2.3524015 0
6.6830006 2.1526656 2.3533323 0
6.6860003 2.1423764 2.3542631 0
6.6890006 2.1320767 2.3551939 0
6.6920004 2.1217663 2.3561244 0
6.6950002 2.1114447 2.3570552 0
6.6980004 2.1011126 2.3579862 0
6.7010002 2.0907695 2.3589168 0
6.7040005 2.0804157 2.3598478 0
6.7070003 2.070051 2.3607783 0
6.7100005 2.0596757 2.3617091 0
6.4590006 2.9267626 2.2729061 0
6.4610004 2.916811 2.2735226 0
6.4640002 2.9073391 2.2744479 0
6.4670005 2.8978565 2.2753735 0
6.4700003 2.8883629 2.2762988 0
6.4730005 2.8788588 2.2772241 0
6.4750004 2.8688638 2.2778411 0
6.4780002 2.8593397 2.2787664 0
6.4810004 2.8498049 2.2796919 0
6.4840002 2.8402591 2.280617 0
6.4870005 2.8307025 2.2815425 0
6.4890003 2.8206642 2.2821593 0
6.4920006 2.8110881 2.2830849 0
6.4950004 2.8015008 2.2840099 0
6.4980006 2.7919028 2.2849355 0
6.5010004 2.7822936 2.2858608 0
6.5030003 2.7722123 2.2864776 0
6.5060005 2.7625837 2.2874031 0
6.5090003 2.752944 2.2883284 0
6.5120006 2.7432935 2.289254 0
6.5150003 2.7336326 2.290179 0
6.5180006 2.7239606 2.2911046 0
6.5200005 2.7138267 2.2917213 0
6.5230002 2.7041347 2.2926469 0
6.5260005 2.694432 2.2935719 0
6.5290003 2.6847184 2.2944975 0
6.5320005 2.6749945 2.2954228 0
6.5350003 2.6652591 2.2963481 0
6.5370002 2.6550727 2.2969649 0
6.5400004 2.645318 2.2978904 0
6.5430002 2.6355522 2.2988157 0
6.5460005 2.6257753 2.299741 0
6.5490003 2.615988 2.3006663 0
6.5520005 2.6061897 2.3015919 0
6.5550003 2.5963805 2.3025172 0
6.5570002 2.586133 2.303134 0
6.5600004 2.5763044 2.3040595 0
6.5630002 2.5664644 2.3049848 0
6.5660005 2.5566139 2.3059103 0
6.5690002 2.5467525 2.3068354 0
6.5720005 2.5368803 2.307761 0
6.5750003 2.5269971 2.3086863 0
6.5780005 2.5171032 2.3096116 0
6.5800004 2.5067856 2.3102283 0
6.5830002 2.4968717 2.3111537 0
6.5860004 2.4869471 2.3120792 0
6.5890002 2.4770117 2.3130043 0
6.5920005 2.4670656 2.3139298 0
6.5950003 2.4571085 2.3148551 0
6.5980005 2.4471407 2.3157806 0
6.6010003 2.4371622 2.3167059 0
6.6040006 2.4271727 2.3176312 0
6.6070004 2.4171722 2.3185568 0
6.6090002 2.4067659 2.3191736 0
6.6120005 2.3967459 2.3200989 0
6.6150002 2.3867149 2.3210242 0
6.6180005 2.3766732 2.3219497 0
6.6210003 2.3666205 2.3228748 0
6.6240005 2.3565574 2.3238003 0
6.6270003 2.3464828 2.3247256 0
6.6300006 2.3363979 2.3256512 0
6.6330004 2.3263018 2.3265762 0
6.6360002 2.316195 2.3275015 0
6.6390004 2.3060775 2.3284271 0
6.6420002 2.2959492 2.3293521 0
6.6450005 2.28581 2.3302777 0
6.6480002 2.2756598 2.3312032 0
6.6510005 2.2654991 2.3321285 0
6.6540003 2.2553275 2.3330538 0
6.6570005 2.2451451 2.3339791 0
6.6590004 2.2345874 2.3345962 0
6.6620002 2.2243848 2.3355215 0
6.6650004 2.2141719 2.3364468 0
6.6680002 2.2039478 2.3373721 0
6.6710005 2.1937129 2.3382976 0
6.6740003 2.1834671 2.3392227 0
6.6770005 2.1732109 2.3401482 0
6.6800003 2.1629436 2.3410735 0
6.6830006 2.1526656 2.3419991 0
6.6860003 2.1423764 2.3429241 0
6.6890006 2.1320767 2.3438497 0
6.6920004 2.1217663 2.344775 0
6.6950002 2.1114447 2.3457003 0
6.6980004 2.1011126 2.3466256 0
6.7010002 2.0907695 2.3475511 0
6.7040005 2.0804157 2.3484764 0
6.7070003 2.070051 2.3494017 0
6.7100005 2.0596757 2.3503273 0
6.4590006 2.9267626 2.2619765 0
6.4610004 2.916811 2.2625899 0
6.4640002 2.9073391 2.2635098 0
6.4670005 2.8978565 2.2644298 0
6.4700003 2.8883629 2.2653496 0
6.4730005 2.8788588 2.2662697 0
6.4750004 2.8688638 2.2668829 0
6.4780002 2.8593397 2.2678027 0
6.4810004 2.8498049 2.2687228 0
6.4840002 2.8402591 2.2696428 0
6.4870005 2.8307025 2.2705626 0
6.4890003 2.8206642 2.2711759 0
6.4920006 2.8110881 2.2720962 0
6.4950004 2.8015008 2.2730157 0
6.4980006 2.7919028 2.2739358 0
6.5010004 2.7822936 2.2748559 0
6.5030003 2.7722123 2.2754691 0
6.5060005 2.7625837 2.2763889 0
6.5090003 2.752944 2.2773089 0
6.5120006 2.7432935 2.2782288 0
6.5150003 2.7336326 2.2791488 0
6.5180006 2.7239606 2.2800689 0
6.5200005 2.7138267 2.2806821 0
6.5230002 2.7041347 2.2816019 0
6.5260005 2.694432 2.282522 0
6.5290003 2.6847184 2.283442 0
6.5320005 2.6749945 2.2843618 0
6.5350003 2.6652591 2.2852819 0
6.5370002 2.6550727 2.2858951 0
6.5400004 2.645318 2.2868149 0
6.5430002 2.6355522 2.287735 0
6.5460005 2.6257753 2.288655 0
6.5490003 2.615988 2.2895749 0
6.5520005 2.6061897 2.2904949 0
6.5550003 2.5963805 2.2914145 0
6.5570002 2.586133 2.292028 0
6.5600004 2.5763044 2.292948 0
6.5630002 2.5664644 2.2938678 0
6.5660005 2.5566139 2.2947879 0
6.5690002 2.5467525 2.2957077 0
6.5720005 2.5368803 2.2966278 0
6.5750003 2.5269971 2.2975476 0
6.5780005 2.5171032 2.2984679 0
6.5800004 2.5067856 2.2990811 0
6.5830002 2.4968717 2.3000007 0
6.5860004 2.4869471 2.300921 0
6.5890002 2.4770117 2.3018405 0
6.5920005 2.4670656 2.3027606 0
6.5950003 2.4571085 2.3036807 0
6.5980005 2.4471407 2.3046005 0
6.6010003 2.4371622 2.3055205 0
6.6040006 2.4271727 2.3064404 0
6.6070004 2.4171722 2.3073604 0
6.6090002 2.4067659 2.3079736 0
6.6120005 2.3967459 2.3088937 0
6.6150002 2.3867149 2.3098135 0
6.6180005 2.3766732 2.3107336 0
6.6210003 2.3666205 2.3116534 0
6.6240005 2.3565574 2.3125734 0
6.6270003 2.3464828 2.3134935 0
6.6300006 2.3363979 2.3144133 0
6.6330004 2.3263018 2.3153334 0
6.6360002 2.316195 2.3162532 0
6.6390004 2.3060775 2.317173 0
6.6420002 2.2959492 2.3180931 0
6.6450005 2.28581 2.3190129 0
6.6480002 2.2756598 2.3199329 0
6.6510005 2.2654991 2.3208528 0
6.6540003 2.2553275 2.3217728 0
6.6570005 2.2451451 2.3226929 0
6.6590004 2.2345874 2.3233061 0
6.6620002 2.2243848 2.3242259 0
6.6650004 2.2141719 2.325146 0
6.6680002 2.2039478 2.326066 0
6.6710005 2.1937129 2.3269858 0
6.6740003 2.1834671 2.3279059 0
6.6770005 2.1732109 2.3288257 0
6.6800003 2.1629436 2.3297455 0
6.6830006 2.1526656 2.3306656 0
6.6860003 2.1423764 2.3315854 0
6.6890006 2.1320767 2.3325057 0
6.6920004 2.1217663 2.3334253 0
6.6950002 2.1114447 2.3343453 0
6.6980004 2.1011126 2.3352652 0
6.7010002 2.0907695 2.3361852 0
6.7040005 2.0804157 2.3371053 0
6.7070003 2.070051 2.3380251 0
6.7100005 2.0596757 2.3389452 0
6.4590006 2.9267626 2.2510474 0
6.4610004 2.916811 2.251657 0
6.4640002 2.9073391 2.2525716 0
6.4670005 2.8978565 2.2534862 0
6.4700003 2.8883629 2.2544007 0
6.4730005 2.8788588 2.2553151 0
6.4750004 2.8688638 2.2559247 0
6.4780002 2.8593397 2.2568393 0
6.4810004 2.8498049 2.2577538 0
6.4840002 2.8402591 2.2586684 0
6.4870005 2.8307025 2.2595828 0
6.4890003 2.8206642 2.2601926 0
6.4920006 2.8110881 2.2611072 0
6.4950004 2.8015008 2.2620218 0
6.4980006 2.7919028 2.2629364 0
6.5010004 2.7822936 2.2638509 0
6.5030003 2.7722123 2.2644603 0
6.5060005 2.7625837 2.2653749 0
6.5090003 2.752944 2.2662895 0
6.5120006 2.7432935 2.267204 0
6.5150003 2.7336326 2.2681186 0
6.5180006 2.7239606 2.2690332 0
6.5200005 2.7138267 2.2696428 0
6.5230002 2.7041347 2.2705572 0
6.5260005 2.694432 2.2714717 0
6.5290003 2.6847184 2.2723863 0
6.5320005 2.6749945 2.2733009 0
6.5350003 2.6652591 2.2742155 0
6.5370002 2.6550727 2.2748249 0
6.5400004 2.645318 2.2757397 0
6.5430002 2.6355522 2.276654 0
6.5460005 2.6257753 2.2775688 0
6.5490003 2.615988 2.2784832 0
6.5520005 2.6061897 2.279398 0
6.5550003 2.5963805 2.2803123 0
6.5570002 2.586133 2.2809217 0
6.5600004 2.5763044 2.2818365 0
6.5630002 2.5664644 2.2827508 0
6.5660005 2.5566139 2.2836657 0
6.5690002 2.5467525 2.28458 0
6.5720005 2.5368803 2.2854948 0
6.5750003 2.5269971 2.2864091 0
6.5780005 2.5171032 2.2873237 0
6.5800004 2.5067856 2.2879333 0
6.5830002 2.4968717 2.2888479 0
6.5860004 2.4869471 2.2897625 0
6.5890002 2.4770117 2.2906771 0
6.5920005 2.4670656 2.2915916 0
6.5950003 2.4571085 2.292506 0
6.5980005 2.4471407 2.2934206 0
6.6010003 2.4371622 2.2943349 0
6.6040006 2.4271727 2.2952497 0
6.6070004 2.4171722 2.296164 0
6.6090002 2.4067659 2.2967739 0
6.6120005 2.3967459 2.2976882 0
6.6150002 2.3867149 2.2986031 0
6.6180005 2.3766732 2.2995174 0
6.6210003 2.3666205 2.300432 0
6.6240005 2.3565574 2.3013465 0
6.6270003 2.3464828 2.3022611 0
6.6300006 2.3363979 2.3031757 0
6.6330004 2.3263018 2.30409 0
6.6360002 2.316195 2.3050046 0
6.6390004 2.3060775 2.3059192 0
6.6420002 2.2959492 2.3068337 0
6.6450005 2.28581 2.3077481 0
6.6480002 2.2756598 2.3086627 0
6.6510005 2.2654991 2.3095772 0
6.6540003 2.2553275 2.3104918 0
6.6570005 2.2451451 2.3114064 0
6.6590004 2.2345874 2.312016 0
6.6620002 2.2243848 2.3129303 0
6.6650004 2.2141719 2.3138452 0
6.6680002 2.2039478 2.3147595 0
6.6710005 2.1937129 2.3156741 0
6.6740003 2.1834671 2.3165886 0
6.6770005 2.1732109 2.3175032 0
6.6800003 2.1629436 2.3184178 0
6.6830006 2.1526656 2.3193321 0
6.6860003 2.1423764 2.3202467 0
6.6890006 2.1320767 2.3211613 0
6.6920004 2.1217663 2.3220758 0
6.6950002 2.1114447 2.3229902 0
6.6980004 2.1011126 2.323905 0
6.7010002 2.0907695 2.3248193 0
6.7040005 2.0804157 2.3257341 0
6.7070003 2.070051 2.3266485 0
6.7100005 2.0596757 2.327563 0
6.4590006 2.9267626 2.240118 0
6.4610004 2.916811 2.2407241 0
6.4640002 2.9073391 2.2416332 0
6.4670005 2.8978565 2.2425423 0
6.4700003 2.8883629 2.2434514 0
6.4730005 2.8788588 2.2443607 0
6.4750004 2.8688638 2.2449667 0
6.4780002 2.8593397 2.2458756 0
6.4810004 2.8498049 2.2467849 0
6.4840002 2.8402591 2.247694 0
6.4870005 2.8307025 2.2486031 0
6.4890003 2.8206642 2.2492092 0
6.4920006 2.8110881 2.2501183 0
6.4950004 2.8015008 2.2510273 0
6.4980006 2.7919028 2.2519367 0
6.5010004 2.7822936 2.2528455 0
6.5030003 2.7722123 2.2534518 0
6.5060005 2.7625837 2.2543609 0
6.5090003 2.752944 2.25527 0
6.5120006 2.7432935 2.2561791 0
6.5150003 2.7336326 2.2570882 0
6.5180006 2.7239606 2.2579975 0
6.5200005 2.7138267 2.2586033 0
6.5230002 2.7041347 2.2595127 0
6.5260005 2.694432 2.2604218 0
6.5290003 2.6847184 2.2613306 0
6.5320005 2.6749945 2.2622399 0
6.5350003 2.6652591 2.263149 0
6.5370002 2.6550727 2.2637551 0
6.5400004 2.645318 2.2646642 0
6.5430002 2.6355522 2.2655733 0
6.5460005 2.6257753 2.2664826 0
6.5490003 2.615988 2.2673914 0
6.5520005 2.6061897 2.2683008 0
6.5550003 2.5963805 2.2692099 0
6.5570002 2.586133 2.2698157 0
6.5600004 2.5763044 2.270725 0
6.5630002 2.5664644 2.2716341 0
6.5660005 2.5566139 2.2725432 0
6.5690002 2.5467525 2.2734523 0
6.5720005 2.5368803 2.2743616 0
6.5750003 2.5269971 2.2752707 0
6.5780005 2.5171032 2.2761798 0
6.5800004 2.5067856 2.2767859 0
6.5830002 2.4968717 2.2776949 0
6.5860004 2.4869471 2.278604 0
6.5890002 2.4770117 2.2795134 0
6.5920005 2.4670656 2.2804224 0
6.5950003 2.4571085 2.2813313 0
6.5980005 2.4471407 2.2822406 0
6.6010003 2.4371622 2.2831497 0
6.6040006 2.4271727 2.2840588 0
6.6070004 2.4171722 2.2849679 0
6.6090002 2.4067659 2.285574 0
6.6120005 2.3967459 2.2864833 0
6.6150002 2.3867149 2.2873921 0
6.6180005 2.3766732 2.2883012 0
6.6210003 2.3666205 2.2892106 0
6.6240005 2.3565574 2.2901196 0
6.6270003 2.3464828 2.2910285 0
6.6300006 2.3363979 2.2919381 0
6.6330004 2.3263018 2.2928469 0
6.6360002 2.316195 2.293756 0
6.6390004 2.3060775 2.2946653 0
6.6420002 2.2959492 2.2955742 0
6.6450005 2.28581 2.2964835 0
6.6480002 2.2756598 2.2973926 0
6.6510005 2.2654991 2.2983017 0
6.6540003 2.2553275 2.2992108 0
6.6570005 2.2451451 2.3001199 0
6.6590004 2.2345874 2.3007259 0
6.6620002 2.2243848 2.301635 0
6.6650004 2.2141719 2.3025441 0
6.6680002 2.2039478 2.3034534 0
6.6710005 2.1937129 2.3043625 0
6.6740003 2.1834671 2.3052714 0
6.6770005 2.1732109 2.306181 0
6.6800003 2.1629436 2.3070898 0
6.6830006 2.1526656 2.3079989 0
6.6860003 2.1423764 2.3089082 0
6.6890006 2.1320767 2.3098173 0
6.6920004 2.1217663 2.3107262 0
6.6950002 2.1114447 2.3116355 0
6.6980004 2.1011126 2.3125446 0
6.7010002 2.0907695 2.3134534 0
6.7040005 2.0804157 2.3143628 0
6.7070003 2.070051 2.3152719 0
6.7100005 2.0596757 2.3161812 0
6.4590006 2.9267626 2.2291889 0
6.4610004 2.916811 2.2297912 0
6.4640002 2.9073391 2.230695 0
6.4670005 2.8978565 2.2315986 0
6.4700003 2.8883629 2.2325022 0
6.4730005 2.8788588 2.2334061 0
6.4750004 2.8688638 2.2340086 0
6.4780002 2.8593397 2.2349122 0
6.4810004 2.8498049 2.235816 0
6.4840002 2.8402591 2.2367196 0
6.4870005 2.8307025 2.2376235 0
6.4890003 2.8206642 2.2382257 0
6.4920006 2.8110881 2.2391295 0
6.4950004 2.8015008 2.2400331 0
6.4980006 2.7919028 2.240937 0
6.5010004 2.7822936 2.2418406 0
6.5030003 2.7722123 2.2424431 0
6.5060005 2.7625837 2.2433469 0
6.5090003 2.752944 2.2442505 0
6.5120006 2.7432935 2.2451544 0
6.5150003 2.7336326 2.246058 0
6.5180006 2.7239606 2.2469616 0
6.5200005 2.7138267 2.2475641 0
6.5230002 2.7041347 2.2484677 0
6.5260005 2.694432 2.2493715 0
6.5290003 2.6847184 2.2502751 0
6.5320005 2.6749945 2.251179 0
6.5350003 2.6652591 2.2520826 0
6.5370002 2.6550727 2.2526851 0
6.5400004 2.645318 2.2535887 0
6.5430002 2.6355522 2.2544925 0
6.5460005 2.6257753 2.2553964 0
6.5490003 2.615988 2.2563 0
6.5520005 2.6061897 2.2572036 0
6.5550003 2.5963805 2.2581074 0
6.5570002 2.586133 2.2587097 0
6.5600004 2.5763044 2.2596138 0
6.5630002 2.5664644 2.2605174 0
6.5660005 2.5566139 2.261421 0
6.5690002 2.5467525 2.2623246 0
6.5720005 2.5368803 2.2632287 0
6.5750003 2.5269971 2.264132 0
6.5780005 2.5171032 2.2650359 0
6.5800004 2.5067856 2.2656384 0
6.5830002 2.4968717 2.266542 0
6.5860004 2.4869471 2.2674456 0
6.5890002 2.4770117 2.2683494 0
6.5920005 2.4670656 2.2692533 0
6.5950003 2.4571085 2.2701569 0
6.5980005 2.4471407 2.2710605 0
6.6010003 2.4371622 2.2719643 0
6.6040006 2.4271727 2.2728682 0
6.6070004 2.4171722 2.2737718 0
6.6090002 2.4067659 2.2743742 0
6.6120005 2.3967459 2.2752779 0
6.6150002 2.3867149 2.2761815 0
6.6180005 2.3766732 2.2770853 0
6.6210003 2.3666205 2.2779889 0
6.6240005 2.3565574 2.2788928 0
6.6270003 2.3464828 2.2797964 0
6.6300006 2.3363979 2.2807 0
6.6330004 2.3263018 2.2816038 0
6.6360002 2.316195 2.2825074 0
6.6390004 2.3060775 2.2834113 0
6.6420002 2.2959492 2.2843149 0
6.6450005 2.28581 2.2852187 0
6.6480002 2.2756598 2.2861223 0
6.6510005 2.2654991 2.2870262 0
6.6540003 2.2553275 2.2879298 0
6.6570005 2.2451451 2.2888336 0
6.6590004 2.2345874 2.2894359 0
6.6620002 2.2243848 2.2903397 0
6.6650004 2.2141719 2.2912433 0
6.6680002 2.2039478 2.2921469 0
6.6710005 2.1937129 2.2930508 0
6.6740003 2.1834671 2.2939546 0
6.6770005 2.1732109 2.2948582 0
6.6800003 2.1629436 2.2957618 0
6.6830006 2.1526656 2.2966657 0
6.6860003 2.1423764 2.2975693 0
6.6890006 2.1320767 2.2984731 0
6.6920004 2.1217663 2.2993767 0
6.6950002 2.1114447 2.3002803 0
6.6980004 2.1011126 2.3011842 0
6.7010002 2.0907695 2.3020878 0
6.7040005 2.0804157 2.3029916 0
6.7070003 2.070051 2.3038952 0
6.7100005 2.0596757 2.3047988 0
6.4590006 2.9267626 2.2182596 0
6.4610004 2.916811 2.2188582 0
6.4640002 2.9073391 2.2197566 0
6.4670005 2.8978565 2.220655 0
6.4700003 2.8883629 2.2215533 0
6.4730005 2.8788588 2.2224514 0
6.4750004 2.8688638 2.2230504 0
6.4780002 2.8593397 2.2239487 0
6.4810004 2.8498049 2.2248471 0
6.4840002 2.8402591 2.2257452 0
6.4870005 2.8307025 2.2266436 0
6.4890003 2.8206642 2.2272425 0
6.4920006 2.8110881 2.2281408 0
6.4950004 2.8015008 2.229039 0
6.4980006 2.7919028 2.2299373 0
6.5010004 2.7822936 2.2308357 0
6.5030003 2.7722123 2.2314343 0
6.5060005 2.7625837 2.2323329 0
6.5090003 2.752944 2.2332311 0
6.5120006 2.7432935 2.2341294 0
6.5150003 2.7336326 2.2350276 0
6.5180006 2.7239606 2.2359259 0
6.5200005 2.7138267 2.2365248 0
6.5230002 2.7041347 2.2374232 0
6.5260005 2.694432 2.2383215 0
6.5290003 2.6847184 2.2392197 0
6.5320005 2.6749945 2.240118 0
6.5350003 2.6652591 2.2410164 0
6.5370002 2.6550727 2.2416151 0
6.5400004 2.645318 2.2425134 0
6.5430002 2.6355522 2.2434118 0
6.5460005 2.6257753 2.2443101 0
6.5490003 2.615988 2.2452083 0
6.5520005 2.6061897 2.2461066 0
6.5550003 2.5963805 2.247005 0
6.5570002 2.586133 2.2476037 0
6.5600004 2.5763044 2.2485023 0
6.5630002 2.5664644 2.2494004 0
6.5660005 2.5566139 2.2502987 0
6.5690002 2.5467525 2.2511971 0
6.5720005 2.5368803 2.2520955 0
6.5750003 2.5269971 2.2529936 0
6.5780005 2.5171032 2.2538919 0
6.5800004 2.5067856 2.2544906 0
6.5830002 2.4968717 2.255389 0
6.5860004 2.4869471 2.2562876 0
6.5890002 2.4770117 2.2571857 0
6.5920005 2.4670656 2.2580841 0
6.5950003 2.4571085 2.2589822 0
6.5980005 2.4471407 2.2598805 0
6.6010003 2.4371622 2.2607789 0
6.6040006 2.4271727 2.2616773 0
6.6070004 2.4171722 2.2625754 0
6.6090002 2.4067659 2.2631741 0
6.6120005 2.3967459 2.2640727 0
6.6150002 2.3867149 2.264971 0
6.6180005 2.3766732 2.2658694 0
6.6210003 2.3666205 2.2667675 0
6.6240005 2.3565574 2.2676659 0
6.6270003 2.3464828 2.268564 0
