# .PCD v0.7 - Point Cloud Data file format
VERSION 0.7
FIELDS x y z intensity
SIZE 4 4 4 4
TYPE F F F F
COUNT 1 1 1 1
WIDTH 1438
HEIGHT 1
VIEWPOINT 0 0 0 1 0 0 0
POINTS 1438
DATA ascii
4.1389999 -1.8669986 0.39051113 0
4.138 -1.8732542 0.39051473 0
4.138 -1.8799968 0.39051473 0
4.1370001 -1.8862469 0.39051834 0
4.1370001 -1.8929878 0.39051834 0
4.1360002 -1.8992325 0.39052197 0
4.1360002 -1.9059715 0.39052197 0
4.1350002 -1.9122111 0.39052558 0
4.1350002 -1.9189483 0.39052558 0
4.1340003 -1.9251821 0.39052919 0
4.1340003 -1.9319175 0.39052919 0
4.1330004 -1.9381461 0.39053279 0
4.132 -1.9443711 0.3905364 0
4.132 -1.9511029 0.3905364 0
4.131 -1.9573224 0.39054 0
4.131 -1.9640524 0.39054 0
4.1300001 -1.9702665 0.39054361 0
4.1300001 -1.9769949 0.39054361 0
4.1290002 -1.9832034 0.39054722 0
4.1290002 -1.9899298 0.39054722 0
4.1280003 -1.9961331 0.39055082 0
4.1280003 -2.0028577 0.39055082 0
4.1270003 -2.0090556 0.39055443 0
4.1259999 -2.0152497 0.39055803 0
4.1259999 -2.0219707 0.39055803 0
4.125 -2.0281596 0.39056164 0
4.125 -2.034879 0.39056164 0
4.1240001 -2.0410624 0.39056525 0
4.1240001 -2.0477798 0.39056525 0
4.1230001 -2.0539579 0.39056885 0
4.1230001 -2.0606735 0.39056885 0
4.1220002 -2.0668459 0.39057246 0
4.1220002 -2.0735598 0.39057246 0
4.1210003 -2.0797269 0.39057606 0
4.1210003 -2.0864391 0.39057606 0
4.1200004 -2.0926008 0.39057967 0
4.119 -2.0987589 0.39058328 0
4.119 -2.1054673 0.39058328 0
4.118 -2.1116202 0.39058688 0
4.118 -2.1183267 0.39058688 0
4.1170001 -2.124474 0.39059049 0
4.1170001 -2.1311789 0.39059049 0
4.1160002 -2.1373208 0.39059412 0
4.1160002 -2.1440237 0.39059412 0
4.1150002 -2.1501603 0.39059773 0
4.1150002 -2.1568615 0.39059773 0
4.1140003 -2.1629925 0.39060134 0
4.1140003 -2.1696918 0.39060134 0
4.1129999 -2.1758177 0.39060494 0
4.112 -2.1819398 0.39060855 0
4.6540003 -1.8722693 0.38097981 0
4.6430001 -1.8752004 0.38103935 0
4.6350002 -1.8793906 0.38108262 0
4.6280003 -1.8839868 0.3811205 0
4.6230001 -1.8894306 0.38114756 0
4.4880004 -1.8526222 0.38187811 0
4.4770002 -1.8551149 0.38193762 0
4.4700003 -1.8593503 0.3819755 0
4.4650002 -1.8644551 0.38200256 0
4.4620004 -1.8704402 0.3820188 0
4.4600005 -1.8768655 0.38202962 0
4.4590001 -1.883736 0.38203505 0
4.1830001 -1.806542 0.38352859 0
4.165 -1.8049564 0.38362601 0
4.1480002 -1.8037751 0.38371798 0
4.1440001 -1.8086525 0.38373965 0
4.1430001 -1.8149334 0.38374504 0
4.1430001 -1.8216851 0.38374504 0
4.1420002 -1.8279604 0.38375047 0
4.1420002 -1.8347102 0.38375047 0
4.1410003 -1.8409803 0.38375586 0
4.1410003 -1.8477285 0.38375586 0
4.1400003 -1.8539931 0.38376129 0
4.1400003 -1.8607394 0.38376129 0
4.1389999 -1.8669986 0.38376671 0
4.138 -1.8732542 0.3837721 0
4.138 -1.8799968 0.3837721 0
4.1370001 -1.8862469 0.38377753 0
4.1370001 -1.8929878 0.38377753 0
4.1360002 -1.8992325 0.38378292 0
4.1360002 -1.9059715 0.38378292 0
4.1350002 -1.9122111 0.38378835 0
4.1350002 -1.9189483 0.38378835 0
4.1340003 -1.9251821 0.38379374 0
4.1340003 -1.9319175 0.38379374 0
4.1330004 -1.9381461 0.38379917 0
4.132 -1.9443711 0.38380459 0
4.132 -1.9511029 0.38380459 0
4.131 -1.9573224 0.38380998 0
4.131 -1.9640524 0.38380998 0
4.1300001 -1.9702665 0.38381541 0
4.1300001 -1.9769949 0.38381541 0
4.1290002 -1.9832034 0.3838208 0
4.1290002 -1.9899298 0.3838208 0
4.1280003 -1.9961331 0.38382623 0
4.1280003 -2.0028577 0.38382623 0
4.1270003 -2.0090556 0.38383162 0
4.1259999 -2.0152497 0.38383704 0
4.1259999 -2.0219707 0.38383704 0
4.125 -2.0281596 0.38384247 0
4.125 -2.034879 0.38384247 0
4.1240001 -2.0410624 0.38384786 0
4.1240001 -2.0477798 0.38384786 0
4.1230001 -2.0539579 0.38385329 0
4.1230001 -2.0606735 0.38385329 0
4.1220002 -2.0668459 0.38385868 0
4.1220002 -2.0735598 0.38385868 0
4.1210003 -2.0797269 0.3838641 0
4.1210003 -2.0864391 0.3838641 0
4.1200004 -2.0926008 0.38386953 0
4.119 -2.0987589 0.38387492 0
4.119 -2.1054673 0.38387492 0
4.118 -2.1116202 0.38388035 0
4.118 -2.1183267 0.38388035 0
4.1170001 -2.124474 0.38388574 0
4.1170001 -2.1311789 0.38388574 0
4.1160002 -2.1373208 0.38389117 0
4.1160002 -2.1440237 0.38389117 0
4.1150002 -2.1501603 0.38389656 0
4.1150002 -2.1568615 0.38389656 0
4.1140003 -2.1629925 0.38390198 0
4.1140003 -2.1696918 0.38390198 0
4.1129999 -2.1758177 0.38390741 0
4.112 -2.1819398 0.3839128 0
4.6540003 -1.8722693 0.37330642 0
4.6430001 -1.8752004 0.37338579 0
4.6350002 -1.8793906 0.37344351 0
4.6280003 -1.8839868 0.373494 0
4.6230001 -1.8894306 0.37353009 0
4.6190004 -1.8952949 0.37355894 0
4.4880004 -1.8526222 0.37450415 0
4.4770002 -1.8551149 0.37458351 0
4.4700003 -1.8593503 0.37463403 0
4.4650002 -1.8644551 0.37467009 0
4.4620004 -1.8704402 0.37469172 0
4.4600005 -1.8768655 0.37470618 0
4.4590001 -1.883736 0.37471339 0
4.4610004 -1.8919669 0.37469894 0
4.1830001 -1.806542 0.37670478 0
4.165 -1.8049564 0.37683466 0
4.1480002 -1.8037751 0.37695733 0
4.1440001 -1.8086525 0.37698618 0
4.1430001 -1.8149334 0.37699339 0
4.1430001 -1.8216851 0.37699339 0
4.1420002 -1.8279604 0.3770006 0
4.1420002 -1.8347102 0.3770006 0
4.1410003 -1.8409803 0.37700784 0
4.1410003 -1.8477285 0.37700784 0
4.1400003 -1.8539931 0.37701505 0
4.1400003 -1.8607394 0.37701505 0
4.1389999 -1.8669986 0.37702227 0
4.138 -1.8732542 0.37702948 0
4.138 -1.8799968 0.37702948 0
4.1370001 -1.8862469 0.37703669 0
4.1370001 -1.8929878 0.37703669 0
4.1360002 -1.8992325 0.3770439 0
4.1360002 -1.9059715 0.3770439 0
4.1350002 -1.9122111 0.37705112 0
4.1350002 -1.9189483 0.37705112 0
4.1340003 -1.9251821 0.37705833 0
4.1340003 -1.9319175 0.37705833 0
4.1330004 -1.9381461 0.37706554 0
4.132 -1.9443711 0.37707275 0
4.132 -1.9511029 0.37707275 0
4.131 -1.9573224 0.37707999 0
4.131 -1.9640524 0.37707999 0
4.1300001 -1.9702665 0.37708721 0
4.1300001 -1.9769949 0.37708721 0
4.1290002 -1.9832034 0.37709442 0
4.1290002 -1.9899298 0.37709442 0
4.1280003 -1.9961331 0.37710163 0
4.1280003 -2.0028577 0.37710163 0
4.1270003 -2.0090556 0.37710884 0
4.1259999 -2.0152497 0.37711605 0
4.1259999 -2.0219707 0.37711605 0
4.125 -2.0281596 0.37712327 0
4.125 -2.034879 0.37712327 0
4.1240001 -2.0410624 0.37713048 0
4.1240001 -2.0477798 0.37713048 0
4.1230001 -2.0539579 0.37713769 0
4.1230001 -2.0606735 0.37713769 0
4.1220002 -2.0668459 0.37714493 0
4.1220002 -2.0735598 0.37714493 0
4.1210003 -2.0797269 0.37715214 0
4.1210003 -2.0864391 0.37715214 0
4.1200004 -2.0926008 0.37715936 0
4.119 -2.0987589 0.37716657 0
4.119 -2.1054673 0.37716657 0
4.118 -2.1116202 0.37717378 0
4.118 -2.1183267 0.37717378 0
4.1170001 -2.124474 0.37718099 0
4.1170001 -2.1311789 0.37718099 0
4.1160002 -2.1373208 0.37718821 0
4.1160002 -2.1440237 0.37718821 0
4.1150002 -2.1501603 0.37719542 0
4.1150002 -2.1568615 0.37719542 0
4.1140003 -2.1629925 0.37720263 0
4.1140003 -2.1696918 0.37720263 0
4.1129999 -2.1758177 0.37720984 0
4.112 -2.1819398 0.37721705 0
4.6540003 -1.8722693 0.36563301 0
4.6430001 -1.8752004 0.36573222 0
4.6350002 -1.8793906 0.36580437 0
4.6280003 -1.8839868 0.3658675 0
4.6230001 -1.8894306 0.36591262 0
4.6190004 -1.8952949 0.36594868 0
4.6160002 -1.9015846 0.36597574 0
4.4880004 -1.8526222 0.36713016 0
4.4770002 -1.8551149 0.36722937 0
4.4700003 -1.8593503 0.36729252 0
4.4650002 -1.8644551 0.36733761 0
4.4620004 -1.8704402 0.36736467 0
4.4600005 -1.8768655 0.36738271 0
4.4590001 -1.883736 0.36739174 0
4.4610004 -1.8919669 0.36737368 0
4.4660001 -1.9015738 0.36732858 0
4.1830001 -1.806542 0.36988097 0
4.165 -1.8049564 0.37004334 0
4.1480002 -1.8037751 0.37019664 0
4.1440001 -1.8086525 0.37023273 0
4.1430001 -1.8149334 0.37024173 0
4.1430001 -1.8216851 0.37024173 0
4.1420002 -1.8279604 0.37025076 0
4.1420002 -1.8347102 0.37025076 0
4.1410003 -1.8409803 0.37025979 0
4.1410003 -1.8477285 0.37025979 0
4.1400003 -1.8539931 0.37026879 0
4.1400003 -1.8607394 0.37026879 0
4.1389999 -1.8669986 0.37027782 0
4.138 -1.8732542 0.37028682 0
4.138 -1.8799968 0.37028682 0
4.1370001 -1.8862469 0.37029585 0
4.1370001 -1.8929878 0.37029585 0
4.1360002 -1.8992325 0.37030488 0
4.1360002 -1.9059715 0.37030488 0
4.1350002 -1.9122111 0.37031388 0
4.1350002 -1.9189483 0.37031388 0
4.1340003 -1.9251821 0.37032291 0
4.1340003 -1.9319175 0.37032291 0
4.1330004 -1.9381461 0.37033194 0
4.132 -1.9443711 0.37034094 0
4.132 -1.9511029 0.37034094 0
4.131 -1.9573224 0.37034997 0
4.131 -1.9640524 0.37034997 0
4.1300001 -1.9702665 0.370359 0
4.1300001 -1.9769949 0.370359 0
4.1290002 -1.9832034 0.370368 0
4.1290002 -1.9899298 0.370368 0
4.1280003 -1.9961331 0.37037703 0
4.1280003 -2.0028577 0.37037703 0
4.1270003 -2.0090556 0.37038603 0
4.1259999 -2.0152497 0.37039506 0
4.1259999 -2.0219707 0.37039506 0
4.125 -2.0281596 0.37040409 0
4.125 -2.034879 0.37040409 0
4.1240001 -2.0410624 0.37041309 0
4.1240001 -2.0477798 0.37041309 0
4.1230001 -2.0539579 0.37042212 0
4.1230001 -2.0606735 0.37042212 0
4.1220002 -2.0668459 0.37043115 0
4.1220002 -2.0735598 0.37043115 0
4.1210003 -2.0797269 0.37044016 0
4.1210003 -2.0864391 0.37044016 0
4.1200004 -2.0926008 0.37044919 0
4.119 -2.0987589 0.37045819 0
4.119 -2.1054673 0.37045819 0
4.118 -2.1116202 0.37046722 0
4.118 -2.1183267 0.37046722 0
4.1170001 -2.124474 0.37047625 0
4.1170001 -2.1311789 0.37047625 0
4.1160002 -2.1373208 0.37048525 0
4.1160002 -2.1440237 0.37048525 0
4.1150002 -2.1501603 0.37049428 0
4.1150002 -2.1568615 0.37049428 0
4.1140003 -2.1629925 0.37050331 0
4.1140003 -2.1696918 0.37050331 0
4.1129999 -2.1758177 0.37051231 0
4.112 -2.1819398 0.37052134 0
4.6540003 -1.8722693 0.3579596 0
4.6430001 -1.8752004 0.35807866 0
4.6350002 -1.8793906 0.35816526 0
4.6280003 -1.8839868 0.35824102 0
4.6230001 -1.8894306 0.35829511 0
4.6190004 -1.8952949 0.35833842 0
4.6160002 -1.9015846 0.35837087 0
4.4880004 -1.8526222 0.3597562 0
4.4770002 -1.8551149 0.35987526 0
4.4700003 -1.8593503 0.35995102 0
4.4650002 -1.8644551 0.36000514 0
4.4620004 -1.8704402 0.3600376 0
4.4600005 -1.8768655 0.36005923 0
4.4590001 -1.883736 0.36007008 0
4.4610004 -1.8919669 0.36004841 0
4.4660001 -1.9015738 0.35999432 0
4.1830001 -1.806542 0.36305717 0
4.165 -1.8049564 0.36325198 0
4.1480002 -1.8037751 0.36343598 0
4.1440001 -1.8086525 0.36347926 0
4.1430001 -1.8149334 0.36349007 0
4.1430001 -1.8216851 0.36349007 0
4.1420002 -1.8279604 0.36350092 0
4.1420002 -1.8347102 0.36350092 0
4.1410003 -1.8409803 0.36351174 0
4.1410003 -1.8477285 0.36351174 0
4.1400003 -1.8539931 0.36352256 0
4.1400003 -1.8607394 0.36352256 0
4.1389999 -1.8669986 0.36353338 0
4.138 -1.8732542 0.3635442 0
4.138 -1.8799968 0.3635442 0
4.1370001 -1.8862469 0.36355501 0
4.1370001 -1.8929878 0.36355501 0
4.1360002 -1.8992325 0.36356586 0
4.1360002 -1.9059715 0.36356586 0
4.1350002 -1.9122111 0.36357668 0
4.1350002 -1.9189483 0.36357668 0
4.1340003 -1.9251821 0.3635875 0
4.1340003 -1.9319175 0.3635875 0
4.1330004 -1.9381461 0.36359832 0
4.132 -1.9443711 0.36360914 0
4.132 -1.9511029 0.36360914 0
4.131 -1.9573224 0.36361995 0
4.131 -1.9640524 0.36361995 0
4.1300001 -1.9702665 0.36363077 0
4.1300001 -1.9769949 0.36363077 0
4.1290002 -1.9832034 0.36364162 0
4.1290002 -1.9899298 0.36364162 0
4.1280003 -1.9961331 0.36365244 0
4.1280003 -2.0028577 0.36365244 0
4.1270003 -2.0090556 0.36366326 0
4.1259999 -2.0152497 0.36367407 0
4.1259999 -2.0219707 0.36367407 0
4.125 -2.0281596 0.36368489 0
4.125 -2.034879 0.36368489 0
4.1240001 -2.0410624 0.36369571 0
4.1240001 -2.0477798 0.36369571 0
4.1230001 -2.0539579 0.36370653 0
4.1230001 -2.0606735 0.36370653 0
4.1220002 -2.0668459 0.36371738 0
4.1220002 -2.0735598 0.36371738 0
4.1210003 -2.0797269 0.3637282 0
4.1210003 -2.0864391 0.3637282 0
4.1200004 -2.0926008 0.36373901 0
4.119 -2.0987589 0.36374983 0
4.119 -2.1054673 0.36374983 0
4.118 -2.1116202 0.36376065 0
4.118 -2.1183267 0.36376065 0
4.1170001 -2.124474 0.36377147 0
4.1170001 -2.1311789 0.36377147 0
4.1160002 -2.1373208 0.36378232 0
4.1160002 -2.1440237 0.36378232 0
4.1150002 -2.1501603 0.36379313 0
4.1150002 -2.1568615 0.36379313 0
4.1140003 -2.1629925 0.36380395 0
4.1140003 -2.1696918 0.36380395 0
4.1129999 -2.1758177 0.36381477 0
4.112 -2.1819398 0.36382559 0
4.6540003 -1.8722693 0.35028622 0
4.6430001 -1.8752004 0.35042512 0
4.6350002 -1.8793906 0.35052612 0
4.6280003 -1.8839868 0.35061452 0
4.6230001 -1.8894306 0.35067764 0
4.6190004 -1.8952949 0.35072815 0
4.6160002 -1.9015846 0.35076603 0
4.4880004 -1.8526222 0.35238224 0
4.4770002 -1.8551149 0.35252112 0
4.4700003 -1.8593503 0.35260952 0
4.4650002 -1.8644551 0.35267267 0
4.4620004 -1.8704402 0.35271055 0
4.4600005 -1.8768655 0.35273579 0
4.4590001 -1.883736 0.35274842 0
4.4610004 -1.8919669 0.35272315 0
4.4660001 -1.9015738 0.35266003 0
4.1849999 -1.827955 0.35620812 0
4.1760001 -1.8305292 0.35632175 0
4.1700001 -1.834494 0.35639751 0
4.1660004 -1.8393894 0.35644802 0
4.1630001 -1.8447486 0.3564859 0
4.1610003 -1.8505766 0.35651115 0
4.1600003 -1.8568791 0.35652378 0
4.1610003 -1.8641449 0.35651115 0
4.164 -1.8723847 0.35647327 0
4.6210003 -2.1245878 0.35070288 0
4.6140003 -2.128742 0.35079128 0
4.6080003 -2.1333668 0.35086703 0
4.6030002 -2.138468 0.35093018 0
4.5980005 -2.1435511 0.35099331 0
4.5950003 -2.1496193 0.35103118 0
4.5930004 -2.1561797 0.35105643 0
4.5910001 -2.1627328 0.3510817 0
4.5900002 -2.1697857 0.35109431 0
4.5910001 -2.1778522 0.3510817 0
4.5930004 -2.1864333 0.35105643 0
4.4480004 -2.1562247 0.3528873 0
4.4420004 -2.160388 0.35296306 0
4.4380002 -2.1655791 0.35301358 0
4.4350004 -2.171283 0.35305145 0
4.4340005 -2.1780329 0.35306406 0
4.1700001 -2.1269093 0.35639751 0
4.158 -2.1270645 0.35654902 0
4.151 -2.1299541 0.35663742 0
4.145 -2.1333759 0.35671318 0
4.1410003 -2.1378944 0.35676369 0
4.138 -2.1429596 0.35680157 0
4.1360002 -2.1485767 0.35682681 0
4.1350002 -2.1547511 0.35683945 0
4.1350002 -2.1614883 0.35683945 0
4.138 -2.1699302 0.35680157 0
4.6540003 -1.8722693 0.3426128 0
4.6430001 -1.8752004 0.34277156 0
4.6350002 -1.8793906 0.34288698 0
4.6280003 -1.8839868 0.34298801 0
4.6230001 -1.8894306 0.34306017 0
4.6190004 -1.8952949 0.34311789 0
4.6160002 -1.9015846 0.34316117 0
4.4880004 -1.8526222 0.34500825 0
4.4770002 -1.8551149 0.34516701 0
4.4700003 -1.8593503 0.34526801 0
4.4650002 -1.8644551 0.34534016 0
4.4620004 -1.8704402 0.34538347 0
4.4600005 -1.8768655 0.34541231 0
4.4590001 -1.883736 0.34542677 0
4.4610004 -1.8919669 0.34539789 0
4.4660001 -1.9015738 0.34532574 0
4.1849999 -1.827955 0.3493807 0
4.1760001 -1.8305292 0.34951058 0
4.1700001 -1.834494 0.34959716 0
4.1660004 -1.8393894 0.34965488 0
4.1630001 -1.8447486 0.34969819 0
4.1610003 -1.8505766 0.34972703 0
4.1600003 -1.8568791 0.34974146 0
4.1610003 -1.8641449 0.34972703 0
4.164 -1.8723847 0.34968373 0
4.6310005 -2.1218805 0.34294471 0
4.6210003 -2.1245878 0.34308901 0
4.6140003 -2.128742 0.34319001 0
4.6080003 -2.1333668 0.34327662 0
4.6030002 -2.138468 0.34334877 0
4.5980005 -2.1435511 0.34342092 0
4.5950003 -2.1496193 0.3434642 0
4.5930004 -2.1561797 0.34349307 0
4.5910001 -2.1627328 0.34352192 0
4.5900002 -2.1697857 0.34353638 0
4.5910001 -2.1778522 0.34352192 0
4.5930004 -2.1864333 0.34349307 0
4.5970001 -2.1960454 0.34343535 0
4.4550004 -2.1525595 0.34548447 0
4.4480004 -2.1562247 0.3455855 0
4.4420004 -2.160388 0.34567207 0
4.4380002 -2.1655791 0.3457298 0
4.4350004 -2.171283 0.34577307 0
4.4340005 -2.1780329 0.34578753 0
4.4340005 -2.1853094 0.34578753 0
4.1700001 -2.1269093 0.34959716 0
4.158 -2.1270645 0.34977031 0
4.151 -2.1299541 0.34987134 0
4.145 -2.1333759 0.34995791 0
4.1410003 -2.1378944 0.35001564 0
4.138 -2.1429596 0.35005894 0
4.1360002 -2.1485767 0.35008779 0
4.1350002 -2.1547511 0.35010222 0
4.1350002 -2.1614883 0.35010222 0
4.138 -2.1699302 0.35005894 0
4.6540003 -1.8722693 0.33493942 0
4.6430001 -1.8752004 0.335118 0
4.6350002 -1.8793906 0.33524787 0
4.6280003 -1.8839868 0.33536151 0
4.6230001 -1.8894306 0.33544266 0
4.6190004 -1.8952949 0.3355076 0
4.6160002 -1.9015846 0.33555633 0
4.4880004 -1.8526222 0.3376343 0
4.4770002 -1.8551149 0.33781287 0
4.4700003 -1.8593503 0.33792651 0
4.4650002 -1.8644551 0.33800769 0
4.4620004 -1.8704402 0.33805639 0
4.4600005 -1.8768655 0.33808887 0
4.4590001 -1.883736 0.33810511 0
4.4610004 -1.8919669 0.33807263 0
4.4660001 -1.9015738 0.33799145 0
4.1849999 -1.827955 0.34255329 0
4.1760001 -1.8305292 0.34269941 0
4.1700001 -1.834494 0.3427968 0
4.1660004 -1.8393894 0.34286174 0
4.1630001 -1.8447486 0.34291044 0
4.1610003 -1.8505766 0.34294289 0
4.1600003 -1.8568791 0.34295914 0
4.1610003 -1.8641449 0.34294289 0
4.164 -1.8723847 0.3428942 0
4.6310005 -2.1218805 0.33531278 0
4.6210003 -2.1245878 0.33547515 0
4.6140003 -2.128742 0.33558878 0
4.6080003 -2.1333668 0.33568621 0
4.6030002 -2.138468 0.33576736 0
4.5980005 -2.1435511 0.33584851 0
4.5950003 -2.1496193 0.33589724 0
4.5930004 -2.1561797 0.33592969 0
4.5910001 -2.1627328 0.33596218 0
4.5900002 -2.1697857 0.33597842 0
4.5910001 -2.1778522 0.33596218 0
4.5930004 -2.1864333 0.33592969 0
4.5970001 -2.1960454 0.33586478 0
4.4670005 -2.1514573 0.3379752 0
4.4550004 -2.1525595 0.33817002 0
4.4480004 -2.1562247 0.33828366 0
4.4420004 -2.160388 0.33838108 0
4.4380002 -2.1655791 0.33844602 0
4.4350004 -2.171283 0.33849472 0
4.4340005 -2.1780329 0.33851093 0
4.4340005 -2.1853094 0.33851093 0
4.4370003 -2.1941822 0.33846226 0
4.1700001 -2.1269093 0.3427968 0
4.158 -2.1270645 0.34299162 0
4.151 -2.1299541 0.34310526 0
4.145 -2.1333759 0.34320265 0
4.1410003 -2.1378944 0.34326759 0
4.138 -2.1429596 0.34331629 0
4.1360002 -2.1485767 0.34334877 0
4.1350002 -2.1547511 0.34336501 0
4.1350002 -2.1614883 0.34336501 0
4.138 -2.1699302 0.34331629 0
4.6540003 -1.8722693 0.32726601 0
4.6430001 -1.8752004 0.32746443 0
4.6350002 -1.8793906 0.32760873 0
4.6280003 -1.8839868 0.32773501 0
4.6230001 -1.8894306 0.32782519 0
4.6190004 -1.8952949 0.32789734 0
4.6160002 -1.9015846 0.32795146 0
4.4880004 -1.8526222 0.33026034 0
4.4770002 -1.8551149 0.33045876 0
4.4700003 -1.8593503 0.330585 0
4.4650002 -1.8644551 0.33067521 0
4.4620004 -1.8704402 0.33072931 0
4.4600005 -1.8768655 0.3307654 0
4.4590001 -1.883736 0.33078343 0
4.4610004 -1.8919669 0.33074737 0
4.4660001 -1.9015738 0.33065718 0
4.1849999 -1.827955 0.33572587 0
4.1760001 -1.8305292 0.33588821 0
4.1700001 -1.834494 0.33599645 0
4.1660004 -1.8393894 0.3360686 0
4.1630001 -1.8447486 0.33612272 0
4.1610003 -1.8505766 0.33615878 0
4.1600003 -1.8568791 0.33617681 0
4.1610003 -1.8641449 0.33615878 0
4.164 -1.8723847 0.33610466 0
4.6310005 -2.1218805 0.32768089 0
4.6210003 -2.1245878 0.32786125 0
4.6140003 -2.128742 0.32798752 0
4.6080003 -2.1333668 0.32809576 0
4.6030002 -2.138468 0.32818598 0
4.5980005 -2.1435511 0.32827616 0
4.5950003 -2.1496193 0.32833028 0
4.5930004 -2.1561797 0.32836634 0
4.5910001 -2.1627328 0.3284024 0
4.5900002 -2.1697857 0.32842046 0
4.5910001 -2.1778522 0.3284024 0
4.5930004 -2.1864333 0.32836634 0
4.5970001 -2.1960454 0.32829419 0
4.4670005 -2.1514573 0.33063912 0
4.4550004 -2.1525595 0.33085558 0
4.4480004 -2.1562247 0.33098185 0
4.4420004 -2.160388 0.33109009 0
4.4380002 -2.1655791 0.33116224 0
4.4350004 -2.171283 0.33121634 0
4.4340005 -2.1780329 0.3312344 0
4.4340005 -2.1853094 0.3312344 0
4.4370003 -2.1941822 0.33118027 0
4.1700001 -2.1269093 0.33599645 0
4.158 -2.1270645 0.3362129 0
4.151 -2.1299541 0.33633918 0
4.145 -2.1333759 0.33644739 0
4.1410003 -2.1378944 0.33651954 0
4.138 -2.1429596 0.33657366 0
4.1360002 -2.1485767 0.33660975 0
4.1350002 -2.1547511 0.33662778 0
4.1350002 -2.1614883 0.33662778 0
4.138 -2.1699302 0.33657366 0
4.6540003 -1.8722693 0.3195926 0
4.6430001 -1.8752004 0.31981087 0
4.6350002 -1.8793906 0.31996959 0
4.6280003 -1.8839868 0.3201085 0
4.6230001 -1.8894306 0.32020772 0
4.6190004 -1.8952949 0.32028708 0
4.6160002 -1.9015846 0.32034659 0
4.4880004 -1.8526222 0.32288635 0
4.4770002 -1.8551149 0.32310462 0
4.4700003 -1.8593503 0.32324353 0
4.4650002 -1.8644551 0.32334274 0
4.4620004 -1.8704402 0.32340226 0
4.4600005 -1.8768655 0.32344192 0
4.4590001 -1.883736 0.32346177 0
4.4610004 -1.8919669 0.32342207 0
4.4660001 -1.9015738 0.32332289 0
4.1849999 -1.827955 0.32889846 0
4.1760001 -1.8305292 0.32907704 0
4.1700001 -1.834494 0.3291961 0
4.1660004 -1.8393894 0.32927546 0
4.1630001 -1.8447486 0.32933497 0
4.1610003 -1.8505766 0.32937467 0
4.1600003 -1.8568791 0.32939452 0
4.1610003 -1.8641449 0.32937467 0
4.164 -1.8723847 0.32931513 0
4.6450005 -2.1210921 0.31977117 0
4.6310005 -2.1218805 0.32004899 0
4.6210003 -2.1245878 0.32024738 0
4.6140003 -2.128742 0.32038629 0
4.6080003 -2.1333668 0.32050532 0
4.6030002 -2.138468 0.32060456 0
4.5980005 -2.1435511 0.32070374 0
4.5950003 -2.1496193 0.32076329 0
4.5930004 -2.1561797 0.32080296 0
4.5910001 -2.1627328 0.32084265 0
4.5900002 -2.1697857 0.3208625 0
4.5910001 -2.1778522 0.32084265 0
4.5930004 -2.1864333 0.32080296 0
4.5970001 -2.1960454 0.32072359 0
4.4670005 -2.1514573 0.32330304 0
4.4550004 -2.1525595 0.32354113 0
4.4480004 -2.1562247 0.32368004 0
4.4420004 -2.160388 0.3237991 0
4.4380002 -2.1655791 0.32387847 0
4.4350004 -2.171283 0.32393798 0
4.4340005 -2.1780329 0.32395783 0
4.4340005 -2.1853094 0.32395783 0
4.4370003 -2.1941822 0.32389832 0
4.1700001 -2.1269093 0.3291961 0
4.158 -2.1270645 0.32943419 0
4.151 -2.1299541 0.32957309 0
4.145 -2.1333759 0.32969213 0
4.1410003 -2.1378944 0.32977152 0
4.138 -2.1429596 0.32983103 0
4.1360002 -2.1485767 0.3298707 0
4.1350002 -2.1547511 0.32989055 0
4.1350002 -2.1614883 0.32989055 0
4.138 -2.1699302 0.32983103 0
4.6540003 -1.8722693 0.31191921 0
4.6430001 -1.8752004 0.31215733 0
4.6350002 -1.8793906 0.31233048 0
4.6280003 -1.8839868 0.312482 0
4.6230001 -1.8894306 0.31259024 0
4.6190004 -1.8952949 0.31267679 0
4.6160002 -1.9015846 0.31274176 0
4.4880004 -1.8526222 0.31551239 0
4.4770002 -1.8551149 0.31575048 0
4.4700003 -1.8593503 0.31590202 0
4.4650002 -1.8644551 0.31601024 0
4.4620004 -1.8704402 0.31607518 0
4.4600005 -1.8768655 0.31611848 0
4.4590001 -1.883736 0.31614012 0
4.4610004 -1.8919669 0.31609684 0
4.4660001 -1.9015738 0.3159886 0
4.1849999 -1.827955 0.32207105 0
4.1760001 -1.8305292 0.32226586 0
4.1700001 -1.834494 0.32239574 0
4.1660004 -1.8393894 0.32248232 0
4.1630001 -1.8447486 0.32254726 0
4.1610003 -1.8505766 0.32259053 0
4.1600003 -1.8568791 0.3226122 0
4.1610003 -1.8641449 0.32259053 0
4.164 -1.8723847 0.32252562 0
4.6450005 -2.1210921 0.31211403 0
4.6310005 -2.1218805 0.31241706 0
4.6210003 -2.1245878 0.31263351 0
4.6140003 -2.128742 0.31278503 0
4.6080003 -2.1333668 0.31291491 0
4.6030002 -2.138468 0.31302315 0
4.5980005 -2.1435511 0.31313136 0
4.5950003 -2.1496193 0.3131963 0
4.5930004 -2.1561797 0.3132396 0
4.5910001 -2.1627328 0.31328291 0
4.5900002 -2.1697857 0.31330454 0
4.5910001 -2.1778522 0.31328291 0
4.5930004 -2.1864333 0.3132396 0
4.5970001 -2.1960454 0.31315303 0
4.4670005 -2.1514573 0.31596696 0
4.4550004 -2.1525595 0.31622672 0
4.4480004 -2.1562247 0.31637824 0
4.4420004 -2.160388 0.31650808 0
4.4380002 -2.1655791 0.31659469 0
4.4350004 -2.171283 0.31665963 0
4.4340005 -2.1780329 0.31668127 0
4.4340005 -2.1853094 0.31668127 0
4.4370003 -2.1941822 0.31661633 0
4.1700001 -2.1269093 0.32239574 0
4.158 -2.1270645 0.3226555 0
4.151 -2.1299541 0.32280701 0
4.145 -2.1333759 0.32293686 0
4.1410003 -2.1378944 0.32302344 0
4.138 -2.1429596 0.32308841 0
4.1360002 -2.1485767 0.32313168 0
4.1350002 -2.1547511 0.32315332 0
4.1350002 -2.1614883 0.32315332 0
4.138 -2.1699302 0.32308841 0
4.6540003 -1.8722693 0.30424583 0
4.6430001 -1.8752004 0.30450377 0
4.6350002 -1.8793906 0.30469137 0
4.6280003 -1.8839868 0.3048555 0
4.6230001 -1.8894306 0.30497274 0
4.6190004 -1.8952949 0.30506653 0
4.6160002 -1.9015846 0.30513689 0
4.4880004 -1.8526222 0.30813843 0
4.4770002 -1.8551149 0.30839637 0
4.4700003 -1.8593503 0.30856052 0
4.4650002 -1.8644551 0.30867776 0
4.4620004 -1.8704402 0.30874813 0
4.4600005 -1.8768655 0.30879501 0
4.4590001 -1.883736 0.30881846 0
4.4610004 -1.8919669 0.30877155 0
4.4660001 -1.9015738 0.30865431 0
4.1849999 -1.827955 0.31524363 0
4.1760001 -1.8305292 0.31545466 0
4.1700001 -1.834494 0.31559539 0
4.1660004 -1.8393894 0.31568918 0
4.1630001 -1.8447486 0.31575951 0
4.1610003 -1.8505766 0.31580642 0
4.1600003 -1.8568791 0.31582987 0
4.1610003 -1.8641449 0.31580642 0
4.164 -1.8723847 0.31573606 0
4.6450005 -2.1210921 0.30445686 0
4.6310005 -2.1218805 0.30478513 0
4.6210003 -2.1245878 0.30501965 0
4.6140003 -2.128742 0.3051838 0
4.6080003 -2.1333668 0.30532449 0
4.6030002 -2.138468 0.30544174 0
4.5980005 -2.1435511 0.30555898 0
4.5950003 -2.1496193 0.30562931 0
4.5930004 -2.1561797 0.30567622 0
4.5910001 -2.1627328 0.30572313 0
4.5900002 -2.1697857 0.30574659 0
4.5910001 -2.1778522 0.30572313 0
4.5930004 -2.1864333 0.30567622 0
4.5970001 -2.1960454 0.30558243 0
4.4670005 -2.1514573 0.30863085 0
4.4550004 -2.1525595 0.30891228 0
4.4480004 -2.1562247 0.3090764 0
4.4420004 -2.160388 0.3092171 0
4.4380002 -2.1655791 0.30931091 0
4.4350004 -2.171283 0.30938125 0
4.4340005 -2.1780329 0.3094047 0
4.4340005 -2.1853094 0.3094047 0
4.4370003 -2.1941822 0.30933434 0
4.1700001 -2.1269093 0.31559539 0
4.158 -2.1270645 0.31587678 0
4.151 -2.1299541 0.31604093 0
4.145 -2.1333759 0.3161816 0
4.1410003 -2.1378944 0.31627542 0
4.138 -2.1429596 0.31634575 0
4.1360002 -2.1485767 0.31639266 0
4.1350002 -2.1547511 0.31641611 0
4.1350002 -2.1614883 0.31641611 0
4.138 -2.1699302 0.31634575 0
4.6540003 -1.8722693 0.29657242 0
4.6430001 -1.8752004 0.2968502 0
4.6350002 -1.8793906 0.29705223 0
4.6280003 -1.8839868 0.29722899 0
4.6230001 -1.8894306 0.29735526 0
4.6190004 -1.8952949 0.29745626 0
4.6160002 -1.9015846 0.29753202 0
4.4880004 -1.8526222 0.30076447 0
4.4770002 -1.8551149 0.30104226 0
4.4700003 -1.8593503 0.30121902 0
4.4650002 -1.8644551 0.30134529 0
4.4620004 -1.8704402 0.30142105 0
4.4600005 -1.8768655 0.30147156 0
4.4590001 -1.883736 0.3014968 0
4.4610004 -1.8919669 0.30144629 0
4.4660001 -1.9015738 0.30132005 0
4.1849999 -1.827955 0.30841622 0
4.1760001 -1.8305292 0.30864349 0
4.171 -1.8349682 0.30876976 0
4.1660004 -1.8393894 0.30889603 0
4.1630001 -1.8447486 0.30897179 0
4.1610003 -1.8505766 0.30902231 0
4.1600003 -1.8568791 0.30904755 0
4.1610003 -1.8641449 0.30902231 0
4.164 -1.8723847 0.30894655 0
4.6450005 -2.1210921 0.29679969 0
4.6310005 -2.1218805 0.29715323 0
4.6210003 -2.1245878 0.29740578 0
4.6140003 -2.128742 0.29758254 0
4.6080003 -2.1333668 0.29773408 0
4.6030002 -2.138468 0.29786032 0
4.5980005 -2.1435511 0.2979866 0
4.5950003 -2.1496193 0.29806235 0
4.5930004 -2.1561797 0.29811287 0
4.5910001 -2.1627328 0.29816338 0
4.5900002 -2.1697857 0.29818863 0
4.5910001 -2.1778522 0.29816338 0
4.5930004 -2.1864333 0.29811287 0
4.5970001 -2.1960454 0.29801184 0
4.4670005 -2.1514573 0.30129477 0
4.4550004 -2.1525595 0.30159783 0
4.4480004 -2.1562247 0.30177459 0
4.4420004 -2.160388 0.30192611 0
4.4380002 -2.1655791 0.30202714 0
4.4350004 -2.171283 0.30210286 0
4.4340005 -2.1780329 0.30212814 0
4.4340005 -2.1853094 0.30212814 0
4.4370003 -2.1941822 0.30205238 0
4.1700001 -2.1269093 0.30879501 0
4.158 -2.1270645 0.30909806 0
4.151 -2.1299541 0.30927482 0
4.145 -2.1333759 0.30942637 0
4.1410003 -2.1378944 0.30952737 0
4.138 -2.1429596 0.30960312 0
4.1360002 -2.1485767 0.30965364 0
4.1350002 -2.1547511 0.30967888 0
4.1350002 -2.1614883 0.30967888 0
4.138 -2.1699302 0.30960312 0
4.6540003 -1.8722693 0.288899 0
4.6430001 -1.8752004 0.28919664 0
4.6350002 -1.8793906 0.28941309 0
4.6280003 -1.8839868 0.28960249 0
4.6230001 -1.8894306 0.28973779 0
4.6190004 -1.8952949 0.289846 0
4.6160002 -1.9015846 0.28992718 0
4.4880004 -1.8526222 0.29339048 0
4.4770002 -1.8551149 0.29368812 0
4.4700003 -1.8593503 0.29387751 0
4.4650002 -1.8644551 0.29401281 0
4.4620004 -1.8704402 0.29409397 0
4.4600005 -1.8768655 0.29414809 0
4.4590001 -1.883736 0.29417515 0
4.4610004 -1.8919669 0.29412103 0
4.4660001 -1.9015738 0.29398575 0
4.1849999 -1.827955 0.3015888 0
4.1760001 -1.8305292 0.30183232 0
4.171 -1.8349682 0.30196759 0
4.1660004 -1.8393894 0.30210286 0
4.1630001 -1.8447486 0.30218405 0
4.1610003 -1.8505766 0.30223817 0
4.1600003 -1.8568791 0.30226523 0
4.1610003 -1.8641449 0.30223817 0
4.164 -1.8723847 0.30215698 0
4.6450005 -2.1210921 0.28914252 0
4.6310005 -2.1218805 0.28952131 0
4.6210003 -2.1245878 0.28979188 0
4.6140003 -2.128742 0.28998131 0
4.6080003 -2.1333668 0.29014364 0
4.6030002 -2.138468 0.29027891 0
4.5980005 -2.1435511 0.29041421 0
4.5950003 -2.1496193 0.2904954 0
4.5930004 -2.1561797 0.29054949 0
4.5910001 -2.1627328 0.29060361 0
4.5900002 -2.1697857 0.29063067 0
4.5910001 -2.1778522 0.29060361 0
4.5930004 -2.1864333 0.29054949 0
4.5970001 -2.1960454 0.29044127 0
4.4670005 -2.1514573 0.29395869 0
4.4550004 -2.1525595 0.29428339 0
4.4480004 -2.1562247 0.29447278 0
4.4420004 -2.160388 0.29463512 0
4.4380002 -2.1655791 0.29474336 0
4.4350004 -2.171283 0.29482451 0
4.4340005 -2.1780329 0.29485157 0
4.4340005 -2.1853094 0.29485157 0
4.4370003 -2.1941822 0.29477042 0
4.1700001 -2.1269093 0.30199465 0
4.158 -2.1270645 0.30231935 0
4.151 -2.1299541 0.30250874 0
4.145 -2.1333759 0.30267107 0
4.1410003 -2.1378944 0.30277932 0
4.138 -2.1429596 0.3028605 0
4.1360002 -2.1485767 0.30291462 0
4.1350002 -2.1547511 0.30294165 0
4.1350002 -2.1614883 0.30294165 0
4.138 -2.1699302 0.3028605 0
4.6540003 -1.8722693 0.28122562 0
4.6430001 -1.8752004 0.28154308 0
4.6350002 -1.8793906 0.28177398 0
4.6280003 -1.8839868 0.28197598 0
4.6230001 -1.8894306 0.28212029 0
4.6190004 -1.8952949 0.28223574 0
4.6160002 -1.9015846 0.28232235 0
4.4880004 -1.8526222 0.28601652 0
4.4770002 -1.8551149 0.28633401 0
4.4700003 -1.8593503 0.28653604 0
4.4650002 -1.8644551 0.28668034 0
4.4620004 -1.8704402 0.28676692 0
4.4600005 -1.8768655 0.28682461 0
4.4590001 -1.883736 0.28685349 0
4.4610004 -1.8919669 0.28679577 0
4.4660001 -1.9015738 0.28665146 0
4.1849999 -1.827955 0.29476139 0
4.1760001 -1.8305292 0.29502112 0
4.171 -1.8349682 0.29516545 0
4.1660004 -1.8393894 0.29530975 0
4.1630001 -1.8447486 0.29539633 0
4.1610003 -1.8505766 0.29545406 0
4.1600003 -1.8568791 0.2954829 0
4.1610003 -1.8641449 0.29545406 0
4.164 -1.8723847 0.29536748 0
4.6450005 -2.1210921 0.28148535 0
4.6310005 -2.1218805 0.28188941 0
4.6210003 -2.1245878 0.28217801 0
4.6140003 -2.128742 0.28238004 0
4.6080003 -2.1333668 0.2825532 0
4.6030002 -2.138468 0.28269753 0
4.5980005 -2.1435511 0.2828418 0
4.5950003 -2.1496193 0.28292841 0
4.5930004 -2.1561797 0.28298613 0
4.5910001 -2.1627328 0.28304386 0
4.5900002 -2.1697857 0.28307271 0
4.5910001 -2.1778522 0.28304386 0
4.5930004 -2.1864333 0.28298613 0
4.5970001 -2.1960454 0.28287068 0
4.4670005 -2.1514573 0.28662258 0
4.4550004 -2.1525595 0.28696895 0
4.4480004 -2.1562247 0.28717095 0
4.4420004 -2.160388 0.28734413 0
4.4380002 -2.1655791 0.28745958 0
4.4350004 -2.171283 0.28754616 0
4.4340005 -2.1780329 0.28757501 0
4.4340005 -2.1853094 0.28757501 0
4.4370003 -2.1941822 0.28748843 0
4.1700001 -2.1269093 0.2951943 0
4.158 -2.1270645 0.29554063 0
4.151 -2.1299541 0.29574266 0
4.145 -2.1333759 0.29591584 0
4.1410003 -2.1378944 0.29603127 0
4.138 -2.1429596 0.29611784 0
4.1360002 -2.1485767 0.29617557 0
4.1350002 -2.1547511 0.29620445 0
4.1350002 -2.1614883 0.29620445 0
4.138 -2.1699302 0.29611784 0
4.6540003 -1.8722693 0.27355221 0
4.6430001 -1.8752004 0.27388954 0
4.6350002 -1.8793906 0.27413484 0
4.6280003 -1.8839868 0.27434951 0
4.6230001 -1.8894306 0.27450281 0
4.6190004 -1.8952949 0.27462548 0
4.6160002 -1.9015846 0.27471745 0
4.4880004 -1.8526222 0.27864257 0
4.4770002 -1.8551149 0.27897987 0
4.4700003 -1.8593503 0.27919453 0
4.4650002 -1.8644551 0.27934784 0
4.4620004 -1.8704402 0.27943984 0
4.4600005 -1.8768655 0.27950117 0
4.4590001 -1.883736 0.27953184 0
4.4610004 -1.8919669 0.2794705 0
4.4660001 -1.9015738 0.2793172 0
4.1849999 -1.827955 0.28793398 0
4.1760001 -1.8305292 0.28820997 0
4.171 -1.8349682 0.28836328 0
4.1660004 -1.8393894 0.28851661 0
4.1630001 -1.8447486 0.28860861 0
4.1610003 -1.8505766 0.28866994 0
4.1600003 -1.8568791 0.28870058 0
4.1610003 -1.8641449 0.28866994 0
4.164 -1.8723847 0.28857794 0
4.6450005 -2.1210921 0.27382818 0
4.6310005 -2.1218805 0.27425748 0
4.6210003 -2.1245878 0.27456415 0
4.6140003 -2.128742 0.27477878 0
4.6080003 -2.1333668 0.27496278 0
4.6030002 -2.138468 0.27511612 0
4.5980005 -2.1435511 0.27526945 0
4.5950003 -2.1496193 0.27536142 0
4.5930004 -2.1561797 0.27542275 0
4.5910001 -2.1627328 0.27548409 0
4.5900002 -2.1697857 0.27551475 0
4.5910001 -2.1778522 0.27548409 0
4.5930004 -2.1864333 0.27542275 0
4.5970001 -2.1960454 0.27530012 0
4.4670005 -2.1514573 0.2792865 0
4.4550004 -2.1525595 0.2796545 0
4.4480004 -2.1562247 0.27986914 0
4.4420004 -2.160388 0.28005314 0
4.4380002 -2.1655791 0.28017581 0
4.4350004 -2.171283 0.28026778 0
4.4340005 -2.1780329 0.28029847 0
4.4340005 -2.1853094 0.28029847 0
4.4370003 -2.1941822 0.28020644 0
4.1700001 -2.1269093 0.28839394 0
4.158 -2.1270645 0.28876191 0
4.151 -2.1299541 0.28897658 0
4.145 -2.1333759 0.28916055 0
4.1410003 -2.1378944 0.28928322 0
4.138 -2.1429596 0.28937522 0
4.1360002 -2.1485767 0.28943655 0
4.1350002 -2.1547511 0.28946722 0
4.1350002 -2.1614883 0.28946722 0
4.138 -2.1699302 0.28937522 0
4.6540003 -1.8722693 0.2658788 0
4.6430001 -1.8752004 0.26623595 0
4.6350002 -1.8793906 0.2664957 0
4.6280003 -1.8839868 0.26672298 0
4.6230001 -1.8894306 0.26688534 0
4.6190004 -1.8952949 0.26701522 0
4.6160002 -1.9015846 0.26711261 0
4.4880004 -1.8526222 0.27126858 0
4.4770002 -1.8551149 0.27162576 0
4.4700003 -1.8593503 0.27185303 0
4.4650002 -1.8644551 0.27201539 0
4.4620004 -1.8704402 0.27211279 0
4.4600005 -1.8768655 0.2721777 0
4.4590001 -1.883736 0.27221018 0
4.4610004 -1.8919669 0.27214521 0
4.4660001 -1.9015738 0.27198291 0
4.1849999 -1.827955 0.28110656 0
4.1760001 -1.8305292 0.28139877 0
4.171 -1.8349682 0.28156111 0
4.1660004 -1.8393894 0.28172347 0
4.1630001 -1.8447486 0.28182086 0
4.1610003 -1.8505766 0.2818858 0
4.1600003 -1.8568791 0.28191826 0
4.1610003 -1.8641449 0.2818858 0
4.164 -1.8723847 0.28178841 0
4.6450005 -2.1210921 0.26617104 0
4.6310005 -2.1218805 0.26662558 0
4.6210003 -2.1245878 0.26695025 0
4.6140003 -2.128742 0.26717755 0
4.6080003 -2.1333668 0.26737237 0
4.6030002 -2.138468 0.26753473 0
4.5980005 -2.1435511 0.26769704 0
4.5950003 -2.1496193 0.26779446 0
4.5930004 -2.1561797 0.2678594 0
4.5910001 -2.1627328 0.26792431 0
4.5900002 -2.1697857 0.26795679 0
4.5910001 -2.1778522 0.26792431 0
4.5930004 -2.1864333 0.2678594 0
4.5970001 -2.1960454 0.26772952 0
4.4670005 -2.1514573 0.27195042 0
4.4550004 -2.1525595 0.27234006 0
4.4480004 -2.1562247 0.27256733 0
4.4420004 -2.160388 0.27276212 0
4.4380002 -2.1655791 0.272892 0
4.4350004 -2.171283 0.27298942 0
4.4340005 -2.1780329 0.27302188 0
4.4340005 -2.1853094 0.27302188 0
4.4370003 -2.1941822 0.27292448 0
4.1700001 -2.1269093 0.28159359 0
4.158 -2.1270645 0.2819832 0
4.151 -2.1299541 0.28221047 0
4.145 -2.1333759 0.28240532 0
4.1410003 -2.1378944 0.28253517 0
4.138 -2.1429596 0.28263259 0
4.1360002 -2.1485767 0.28269753 0
4.1350002 -2.1547511 0.28272998 0
4.1350002 -2.1614883 0.28272998 0
4.138 -2.1699302 0.28263259 0
4.6540003 -1.8722693 0.25820541 0
4.6430001 -1.8752004 0.25858241 0
4.6350002 -1.8793906 0.25885659 0
4.6280003 -1.8839868 0.2590965 0
4.6230001 -1.8894306 0.25926787 0
4.6190004 -1.8952949 0.25940496 0
4.6160002 -1.9015846 0.25950778 0
4.4880004 -1.8526222 0.26389462 0
4.4770002 -1.8551149 0.26427162 0
4.4700003 -1.8593503 0.26451153 0
4.4650002 -1.8644551 0.26468289 0
4.4620004 -1.8704402 0.26478571 0
4.4600005 -1.8768655 0.26485425 0
4.4590001 -1.883736 0.26488853 0
4.4610004 -1.8919669 0.26481998 0
4.4660001 -1.9015738 0.26464862 0
4.1849999 -1.827955 0.27427915 0
4.1760001 -1.8305292 0.2745876 0
4.171 -1.8349682 0.27475896 0
4.1660004 -1.8393894 0.2749303 0
4.1630001 -1.8447486 0.27503315 0
4.1610003 -1.8505766 0.27510169 0
4.1600003 -1.8568791 0.27513593 0
4.1610003 -1.8641449 0.27510169 0
4.164 -1.8723847 0.27499884 0
4.6450005 -2.1210921 0.25851387 0
4.6310005 -2.1218805 0.25899369 0
4.6210003 -2.1245878 0.25933641 0
4.6140003 -2.128742 0.25957632 0
4.6080003 -2.1333668 0.25978196 0
4.6030002 -2.138468 0.25995332 0
4.5980005 -2.1435511 0.26012465 0
4.5950003 -2.1496193 0.2602275 0
4.5930004 -2.1561797 0.26029602 0
4.5910001 -2.1627328 0.26036459 0
4.5900002 -2.1697857 0.26039886 0
4.5910001 -2.1778522 0.26036459 0
4.5930004 -2.1864333 0.26029602 0
4.5970001 -2.1960454 0.26015896 0
4.4670005 -2.1514573 0.26461434 0
4.4550004 -2.1525595 0.26502562 0
4.4480004 -2.1562247 0.26526552 0
4.4420004 -2.160388 0.26547116 0
4.4380002 -2.1655791 0.26560825 0
4.4350004 -2.171283 0.26571107 0
4.4340005 -2.1780329 0.26574531 0
4.4340005 -2.1853094 0.26574531 0
4.4370003 -2.1941822 0.26564252 0
4.1700001 -2.1269093 0.27479321 0
4.158 -2.1270645 0.27520451 0
4.151 -2.1299541 0.27544439 0
4.145 -2.1333759 0.27565005 0
4.1410003 -2.1378944 0.27578712 0
4.138 -2.1429596 0.27588993 0
4.1360002 -2.1485767 0.27595848 0
4.1350002 -2.1547511 0.27599275 0
4.1350002 -2.1614883 0.27599275 0
4.138 -2.1699302 0.27588993 0
4.6540003 -1.8722693 0.25053203 0
4.6430001 -1.8752004 0.25092885 0
4.6350002 -1.8793906 0.25121745 0
4.6280003 -1.8839868 0.25146997 0
4.6230001 -1.8894306 0.25165039 0
4.6190004 -1.8952949 0.2517947 0
4.6160002 -1.9015846 0.25190291 0
4.4880004 -1.8526222 0.25652063 0
4.4770002 -1.8551149 0.25691748 0
4.4700003 -1.8593503 0.25717002 0
4.4650002 -1.8644551 0.25735039 0
4.4620004 -1.8704402 0.25745863 0
4.4600005 -1.8768655 0.25753075 0
4.4590001 -1.883736 0.25756687 0
4.4610004 -1.8919669 0.25749469 0
4.4660001 -1.9015738 0.25731432 0
4.1849999 -1.827955 0.26745173 0
4.1760001 -1.8305292 0.26777643 0
4.171 -1.8349682 0.26795679 0
4.1660004 -1.8393894 0.26813716 0
4.1630001 -1.8447486 0.2682454 0
4.1610003 -1.8505766 0.26831758 0
4.1600003 -1.8568791 0.26835364 0
4.1610003 -1.8641449 0.26831758 0
4.164 -1.8723847 0.26820934 0
4.6450005 -2.1210921 0.2508567 0
4.6310005 -2.1218805 0.25136173 0
4.6210003 -2.1245878 0.25172251 0
4.6140003 -2.128742 0.25197506 0
4.6080003 -2.1333668 0.25219151 0
4.6030002 -2.138468 0.25237191 0
4.5980005 -2.1435511 0.25255227 0
4.5950003 -2.1496193 0.25266051 0
4.5930004 -2.1561797 0.25273263 0
4.5910001 -2.1627328 0.25280482 0
4.5900002 -2.1697857 0.25284088 0
4.5910001 -2.1778522 0.25280482 0
4.5930004 -2.1864333 0.25273263 0
4.5970001 -2.1960454 0.25258833 0
4.4670005 -2.1514573 0.25727823 0
4.4550004 -2.1525595 0.25771117 0
4.4480004 -2.1562247 0.25796369 0
4.4420004 -2.160388 0.25818014 0
4.4380002 -2.1655791 0.25832444 0
4.4350004 -2.171283 0.25843269 0
4.4340005 -2.1780329 0.25846875 0
4.4340005 -2.1853094 0.25846875 0
4.4370003 -2.1941822 0.25836053 0
4.1700001 -2.1269093 0.26799288 0
4.158 -2.1270645 0.26842579 0
4.151 -2.1299541 0.26867831 0
4.145 -2.1333759 0.26889479 0
4.1410003 -2.1378944 0.26903909 0
4.138 -2.1429596 0.26914731 0
4.1360002 -2.1485767 0.26921946 0
4.1350002 -2.1547511 0.26925552 0
4.1350002 -2.1614883 0.26925552 0
4.138 -2.1699302 0.26914731 0
4.6540003 -1.8722693 0.2428586 0
4.6430001 -1.8752004 0.2432753 0
4.6350002 -1.8793906 0.24357833 0
4.6280003 -1.8839868 0.2438435 0
4.6230001 -1.8894306 0.2440329 0
4.6190004 -1.8952949 0.2441844 0
4.6160002 -1.9015846 0.24429806 0
4.4880004 -1.8526222 0.24914669 0
4.4770002 -1.8551149 0.24956337 0
4.4700003 -1.8593503 0.24982853 0
4.4650002 -1.8644551 0.25001794 0
4.4620004 -1.8704402 0.25013155 0
4.4600005 -1.8768655 0.2502073 0
4.4590001 -1.883736 0.25024521 0
4.4610004 -1.8919669 0.25016946 0
4.4660001 -1.9015738 0.24998005 0
4.1849999 -1.827955 0.26062432 0
4.177 -1.8310018 0.26092738 0
4.171 -1.8349682 0.26115465 0
4.1660004 -1.8393894 0.26134402 0
4.1630001 -1.8447486 0.26145768 0
4.1610003 -1.8505766 0.26153344 0
4.1600003 -1.8568791 0.26157132 0
4.1610003 -1.8641449 0.26153344 0
4.164 -1.8723847 0.26141977 0
4.6450005 -2.1210921 0.24319953 0
4.6310005 -2.1218805 0.24372984 0
4.6210003 -2.1245878 0.24410865 0
4.6140003 -2.128742 0.24437381 0
4.6080003 -2.1333668 0.24460109 0
4.6030002 -2.138468 0.24479049 0
4.5980005 -2.1435511 0.24497987 0
4.5950003 -2.1496193 0.24509354 0
4.5930004 -2.1561797 0.24516928 0
4.5910001 -2.1627328 0.24524505 0
4.5900002 -2.1697857 0.24528293 0
4.5910001 -2.1778522 0.24524505 0
4.5930004 -2.1864333 0.24516928 0
4.5970001 -2.1960454 0.24501777 0
4.4670005 -2.1514573 0.24994217 0
4.4550004 -2.1525595 0.25039673 0
4.4480004 -2.1562247 0.25066185 0
4.4420004 -2.160388 0.25088918 0
4.4380002 -2.1655791 0.2510407 0
4.4350004 -2.171283 0.2511543 0
4.4340005 -2.1780329 0.25119221 0
4.4340005 -2.1853094 0.25119221 0
4.4370003 -2.1941822 0.25107858 0
4.1700001 -2.1269093 0.2611925 0
4.158 -2.1270645 0.26164711 0
4.151 -2.1299541 0.26191223 0
4.145 -2.1333759 0.2621395 0
4.1410003 -2.1378944 0.26229101 0
4.138 -2.1429596 0.26240468 0
4.1360002 -2.1485767 0.26248044 0
4.1350002 -2.1547511 0.26251832 0
4.1350002 -2.1614883 0.26251832 0
4.138 -2.1699302 0.26240468 0
4.6540003 -1.8722693 0.23518521 0
4.6430001 -1.8752004 0.23562174 0
4.6350002 -1.8793906 0.2359392 0
4.6280003 -1.8839868 0.23621698 0
4.6230001 -1.8894306 0.23641542 0
4.6190004 -1.8952949 0.23657413 0
4.6160002 -1.9015846 0.2366932 0
4.4880004 -1.8526222 0.24177271 0
4.4770002 -1.8551149 0.24220924 0
4.4700003 -1.8593503 0.24248703 0
4.4650002 -1.8644551 0.24268545 0
4.4620004 -1.8704402 0.2428045 0
4.4600005 -1.8768655 0.24288386 0
4.4590001 -1.883736 0.24292354 0
4.4610004 -1.8919669 0.24284416 0
4.4660001 -1.9015738 0.24264577 0
4.1849999 -1.827955 0.25379691 0
4.177 -1.8310018 0.25411439 0
4.171 -1.8349682 0.25435245 0
4.1660004 -1.8393894 0.25455087 0
4.1630001 -1.8447486 0.25466996 0
4.1610003 -1.8505766 0.2547493 0
4.1600003 -1.8568791 0.25478899 0
4.1610003 -1.8641449 0.2547493 0
4.164 -1.8723847 0.25463027 0
4.6450005 -2.1210921 0.23554236 0
4.6310005 -2.1218805 0.23609793 0
4.6210003 -2.1245878 0.23649476 0
4.6140003 -2.128742 0.23677255 0
4.6080003 -2.1333668 0.23701066 0
4.6030002 -2.138468 0.23720908 0
4.5980005 -2.1435511 0.23740749 0
4.5950003 -2.1496193 0.23752657 0
4.5930004 -2.1561797 0.23760591 0
4.5910001 -2.1627328 0.23768531 0
4.5900002 -2.1697857 0.23772497 0
4.5910001 -2.1778522 0.23768531 0
4.5930004 -2.1864333 0.23760591 0
4.5970001 -2.1960454 0.23744719 0
4.4670005 -2.1514573 0.24260607 0
4.4550004 -2.1525595 0.24308227 0
4.4480004 -2.1562247 0.24336006 0
4.4420004 -2.160388 0.24359818 0
4.4380002 -2.1655791 0.24375692 0
4.4350004 -2.171283 0.24387595 0
4.4340005 -2.1780329 0.24391563 0
4.4340005 -2.1853094 0.24391563 0
4.4370003 -2.1941822 0.24379659 0
4.1700001 -2.1269093 0.25439215 0
4.158 -2.1270645 0.25486839 0
4.151 -2.1299541 0.25514615 0
4.145 -2.1333759 0.25538427 0
4.1410003 -2.1378944 0.25554299 0
4.138 -2.1429596 0.25566205 0
4.1360002 -2.1485767 0.25574142 0
4.1350002 -2.1547511 0.25578108 0
4.1350002 -2.1614883 0.25578108 0
4.138 -2.1699302 0.25566205 0
4.6540003 -1.8722693 0.22751181 0
4.6430001 -1.8752004 0.22796817 0
4.6350002 -1.8793906 0.22830006 0
4.6280003 -1.8839868 0.22859049 0
4.6230001 -1.8894306 0.22879794 0
4.6190004 -1.8952949 0.22896387 0
4.6160002 -1.9015846 0.22908834 0
4.4880004 -1.8526222 0.23439874 0
4.4770002 -1.8551149 0.23485512 0
4.4700003 -1.8593503 0.23514554 0
4.4650002 -1.8644551 0.23535296 0
4.4620004 -1.8704402 0.23547742 0
4.4600005 -1.8768655 0.23556039 0
4.4590001 -1.883736 0.23560189 0
4.4610004 -1.8919669 0.2355189 0
4.4660001 -1.9015738 0.23531149 0
4.1849999 -1.827955 0.24696949 0
4.177 -1.8310018 0.2473014 0
4.171 -1.8349682 0.24755032 0
4.1660004 -1.8393894 0.24775775 0
4.1630001 -1.8447486 0.24788222 0
4.1610003 -1.8505766 0.24796519 0
4.1600003 -1.8568791 0.24800669 0
4.1610003 -1.8641449 0.24796519 0
4.164 -1.8723847 0.24784072 0
4.6450005 -2.1210921 0.22788519 0
4.6310005 -2.1218805 0.22846602 0
4.6210003 -2.1245878 0.2288809 0
4.6140003 -2.128742 0.22917131 0
4.6080003 -2.1333668 0.22942024 0
4.6030002 -2.138468 0.22962768 0
4.5980005 -2.1435511 0.22983511 0
4.5950003 -2.1496193 0.22995958 0
4.5930004 -2.1561797 0.23004255 0
4.5910001 -2.1627328 0.23012555 0
4.5900002 -2.1697857 0.23016702 0
4.5910001 -2.1778522 0.23012555 0
4.5930004 -2.1864333 0.23004255 0
4.5970001 -2.1960454 0.22987661 0
4.4670005 -2.1514573 0.23526998 0
4.4550004 -2.1525595 0.23576784 0
4.4480004 -2.1562247 0.23605825 0
4.4420004 -2.160388 0.23630717 0
4.4380002 -2.1655791 0.23647313 0
4.4350004 -2.171283 0.23659758 0
4.4340005 -2.1780329 0.23663907 0
4.4340005 -2.1853094 0.23663907 0
4.4370003 -2.1941822 0.23651461 0
4.1700001 -2.1269093 0.24759179 0
4.158 -2.1270645 0.24808966 0
4.151 -2.1299541 0.24838006 0
4.145 -2.1333759 0.24862899 0
4.1410003 -2.1378944 0.24879494 0
4.138 -2.1429596 0.2489194 0
4.1360002 -2.1485767 0.24900238 0
4.1350002 -2.1547511 0.24904387 0
4.1350002 -2.1614883 0.24904387 0
4.138 -2.1699302 0.2489194 0
4.6540003 -1.8722693 0.2198384 0
4.6430001 -1.8752004 0.22031462 0
4.6350002 -1.8793906 0.22066095 0
4.6280003 -1.8839868 0.220964 0
4.6230001 -1.8894306 0.22118044 0
4.6190004 -1.8952949 0.22135359 0
4.6160002 -1.9015846 0.22148348 0
4.4880004 -1.8526222 0.22702478 0
4.4770002 -1.8551149 0.22750098 0
4.4700003 -1.8593503 0.22780402 0
4.4650002 -1.8644551 0.22802049 0
4.4620004 -1.8704402 0.22815035 0
4.4600005 -1.8768655 0.22823693 0
4.4590001 -1.883736 0.22828025 0
4.4610004 -1.8919669 0.22819366 0
4.4660001 -1.9015738 0.2279772 0
4.1849999 -1.827955 0.24014208 0
4.177 -1.8310018 0.24048841 0
4.171 -1.8349682 0.24074815 0
4.1660004 -1.8393894 0.24096461 0
4.1630001 -1.8447486 0.24109448 0
4.1610003 -1.8505766 0.24118106 0
4.1600003 -1.8568791 0.24122436 0
4.1610003 -1.8641449 0.24118106 0
4.164 -1.8723847 0.2410512 0
4.6450005 -2.1210921 0.22022803 0
4.6310005 -2.1218805 0.22083411 0
4.6210003 -2.1245878 0.22126703 0
4.6140003 -2.128742 0.22157007 0
4.6080003 -2.1333668 0.22182982 0
4.6030002 -2.138468 0.22204627 0
4.5980005 -2.1435511 0.22226271 0
4.5950003 -2.1496193 0.22239259 0
4.5930004 -2.1561797 0.22247918 0
4.5910001 -2.1627328 0.22256577 0
4.5900002 -2.1697857 0.22260907 0
4.5910001 -2.1778522 0.22256577 0
4.5930004 -2.1864333 0.22247918 0
4.5970001 -2.1960454 0.22230603 0
4.4670005 -2.1514573 0.2279339 0
4.4550004 -2.1525595 0.2284534 0
4.4480004 -2.1562247 0.22875643 0
4.4420004 -2.160388 0.22901617 0
4.4380002 -2.1655791 0.22918935 0
4.4350004 -2.171283 0.22931921 0
4.4340005 -2.1780329 0.2293625 0
4.4340005 -2.1853094 0.2293625 0
4.4370003 -2.1941822 0.22923265 0
4.1700001 -2.1269093 0.24079144 0
4.158 -2.1270645 0.24131095 0
4.151 -2.1299541 0.24161398 0
4.145 -2.1333759 0.24187373 0
4.1410003 -2.1378944 0.24204689 0
4.138 -2.1429596 0.24217677 0
4.1360002 -2.1485767 0.24226336 0
4.1350002 -2.1547511 0.24230665 0
4.1350002 -2.1614883 0.24230665 0
4.138 -2.1699302 0.24217677 0
4.6540003 -1.8722693 0.21216501 0
4.6430001 -1.8752004 0.21266107 0
4.6350002 -1.8793906 0.21302183 0
4.6280003 -1.8839868 0.21333748 0
4.6230001 -1.8894306 0.21356297 0
4.6190004 -1.8952949 0.21374334 0
4.6160002 -1.9015846 0.21387863 0
4.4880004 -1.8526222 0.21965082 0
4.4770002 -1.8551149 0.22014686 0
4.4700003 -1.8593503 0.22046252 0
4.4650002 -1.8644551 0.22068802 0
4.4620004 -1.8704402 0.22082329 0
4.4600005 -1.8768655 0.22091347 0
4.4590001 -1.883736 0.22095859 0
4.4610004 -1.8919669 0.22086838 0
4.4660001 -1.9015738 0.22064291 0
4.1849999 -1.827955 0.23331466 0
4.177 -1.8310018 0.23367542 0
4.171 -1.8349682 0.233946 0
4.1660004 -1.8393894 0.23417147 0
4.1630001 -1.8447486 0.23430675 0
4.1610003 -1.8505766 0.23439695 0
4.1600003 -1.8568791 0.23444204 0
4.1610003 -1.8641449 0.23439695 0
4.164 -1.8723847 0.23426166 0
4.6450005 -2.1210921 0.21257086 0
4.6310005 -2.1218805 0.21320219 0
4.6210003 -2.1245878 0.21365316 0
4.6140003 -2.128742 0.21396881 0
4.6080003 -2.1333668 0.21423939 0
4.6030002 -2.138468 0.21446486 0
4.5980005 -2.1435511 0.21469033 0
4.5950003 -2.1496193 0.21482562 0
4.5930004 -2.1561797 0.21491581 0
4.5910001 -2.1627328 0.21500601 0
4.5900002 -2.1697857 0.21505111 0
4.5910001 -2.1778522 0.21500601 0
4.5930004 -2.1864333 0.21491581 0
4.5970001 -2.1960454 0.21473543 0
4.4670005 -2.1514573 0.2205978 0
4.4550004 -2.1525595 0.22113895 0
4.4480004 -2.1562247 0.22145461 0
4.4420004 -2.160388 0.22172518 0
4.4380002 -2.1655791 0.22190557 0
4.4350004 -2.171283 0.22204085 0
4.4340005 -2.1780329 0.22208595 0
4.4340005 -2.1853094 0.22208595 0
4.4370003 -2.1941822 0.22195067 0
4.1700001 -2.1269093 0.23399109 0
4.158 -2.1270645 0.23453224 0
