# .PCD v0.7 - Point Cloud Data file format
VERSION 0.7
FIELDS x y z intensity
SIZE 4 4 4 4
TYPE F F F F
COUNT 1 1 1 1
WIDTH 1457
HEIGHT 1
VIEWPOINT 0 0 0 1 0 0 0
POINTS 1457
DATA ascii
5.2970004 0.63416016 1.7113209 0
5.3010001 0.62587523 1.7123888 0
5.3050003 0.617576 1.7134565 0
5.3080006 0.60912877 1.7142576 0
5.3120003 0.60080236 1.7153254 0
5.3160005 0.59246153 1.7163932 0
5.3190002 0.58397824 1.7171941 0
5.3230004 0.57561034 1.718262 0
5.3270001 0.56722802 1.7193297 0
5.3300004 0.55870867 1.7201307 0
5.3340001 0.55029929 1.7211984 0
5.3380003 0.54187554 1.7222664 0
5.1660004 0.93405229 1.6677518 0
5.1700006 0.92627078 1.6688124 0
5.1730003 0.91827261 1.6696079 0
5.1770005 0.91046399 1.6706685 0
5.1800003 0.9024424 1.671464 0
5.1840005 0.89460665 1.6725246 0
5.1870003 0.88656163 1.6733201 0
5.1910005 0.87869883 1.6743807 0
5.1940002 0.87063038 1.6751761 0
5.1980004 0.86274058 1.6762367 0
5.2010002 0.85464865 1.6770322 0
5.2050004 0.84673178 1.678093 0
5.2080002 0.83861637 1.6788883 0
5.2120004 0.83067244 1.679949 0
5.2150002 0.82253361 1.6807444 0
5.2190003 0.81456262 1.6818053 0
5.2220001 0.80640036 1.6826006 0
5.2260003 0.79840231 1.6836613 0
5.2290001 0.79021657 1.6844567 0
5.2330003 0.78219146 1.6855174 0
5.2360005 0.77398241 1.686313 0
5.2400002 0.76593018 1.6873735 0
5.2430005 0.75769758 1.6881691 0
5.2470002 0.74961835 1.6892296 0
5.2510004 0.74152464 1.6902903 0
5.2540002 0.73325598 1.6910857 0
5.2580004 0.72513527 1.6921464 0
5.2610002 0.71684313 1.6929419 0
5.2650003 0.70869529 1.6940025 0
5.2680001 0.70037973 1.694798 0
5.2720003 0.69220489 1.6958586 0
5.2760005 0.68401563 1.6969193 0
5.2790003 0.67566395 1.6977147 0
5.2830005 0.66744769 1.6987754 0
5.2870002 0.65921688 1.699836 0
5.2900004 0.6508292 1.7006316 0
5.2940001 0.64257127 1.7016921 0
5.2970004 0.63416016 1.7024877 0
5.3010001 0.62587523 1.7035482 0
5.3050003 0.617576 1.7046089 0
5.3080006 0.60912877 1.7054045 0
5.3120003 0.60080236 1.706465 0
5.3160005 0.59246153 1.7075257 0
5.3190002 0.58397824 1.7083211 0
5.3230004 0.57561034 1.7093818 0
5.3270001 0.56722802 1.7104423 0
5.3300004 0.55870867 1.7112379 0
5.3340001 0.55029929 1.7122984 0
5.3380003 0.54187554 1.7133592 0
5.1660004 0.93405229 1.6591548 0
5.1700006 0.92627078 1.6602082 0
5.1730003 0.91827261 1.6609982 0
5.1770005 0.91046399 1.6620518 0
5.1800003 0.9024424 1.6628417 0
5.1840005 0.89460665 1.6638951 0
5.1870003 0.88656163 1.6646852 0
5.1910005 0.87869883 1.6657387 0
5.1940002 0.87063038 1.6665287 0
5.1980004 0.86274058 1.6675822 0
5.2010002 0.85464865 1.6683723 0
5.2050004 0.84673178 1.6694256 0
5.2080002 0.83861637 1.6702157 0
5.2120004 0.83067244 1.6712692 0
5.2150002 0.82253361 1.6720591 0
5.2190003 0.81456262 1.6731126 0
5.2220001 0.80640036 1.6739026 0
5.2260003 0.79840231 1.6749561 0
5.2290001 0.79021657 1.6757461 0
5.2330003 0.78219146 1.6767997 0
5.2360005 0.77398241 1.6775898 0
5.2400002 0.76593018 1.6786431 0
5.2430005 0.75769758 1.6794332 0
5.2470002 0.74961835 1.6804866 0
5.2510004 0.74152464 1.68154 0
5.2540002 0.73325598 1.68233 0
5.2580004 0.72513527 1.6833836 0
5.2610002 0.71684313 1.6841735 0
5.2650003 0.70869529 1.685227 0
5.2680001 0.70037973 1.686017 0
5.2720003 0.69220489 1.6870705 0
5.2760005 0.68401563 1.6881239 0
5.2790003 0.67566395 1.6889139 0
5.2830005 0.66744769 1.6899674 0
5.2870002 0.65921688 1.6910208 0
5.2900004 0.6508292 1.691811 0
5.2940001 0.64257127 1.6928642 0
5.2970004 0.63416016 1.6936544 0
5.3010001 0.62587523 1.6947078 0
5.3050003 0.617576 1.6957612 0
5.3080006 0.60912877 1.6965513 0
5.3120003 0.60080236 1.6976048 0
5.3160005 0.59246153 1.6986582 0
5.3190002 0.58397824 1.6994482 0
5.3230004 0.57561034 1.7005017 0
5.3270001 0.56722802 1.701555 0
5.3300004 0.55870867 1.7023451 0
5.3340001 0.55029929 1.7033985 0
5.3380003 0.54187554 1.704452 0
5.1660004 0.93405229 1.6505579 0
5.1700006 0.92627078 1.6516041 0
5.1730003 0.91827261 1.6523887 0
5.1770005 0.91046399 1.6534349 0
5.1800003 0.9024424 1.6542195 0
5.1840005 0.89460665 1.6552658 0
5.1870003 0.88656163 1.6560504 0
5.1910005 0.87869883 1.6570966 0
5.1940002 0.87063038 1.6578813 0
5.1980004 0.86274058 1.6589274 0
5.2010002 0.85464865 1.6597121 0
5.2050004 0.84673178 1.6607584 0
5.2080002 0.83861637 1.661543 0
5.2120004 0.83067244 1.6625892 0
5.2150002 0.82253361 1.6633738 0
5.2190003 0.81456262 1.66442 0
5.2220001 0.80640036 1.6652046 0
5.2260003 0.79840231 1.6662509 0
5.2290001 0.79021657 1.6670356 0
5.2330003 0.78219146 1.6680818 0
5.2360005 0.77398241 1.6688665 0
5.2400002 0.76593018 1.6699127 0
5.2430005 0.75769758 1.6706973 0
5.2470002 0.74961835 1.6717435 0
5.2510004 0.74152464 1.6727897 0
5.2540002 0.73325598 1.6735743 0
5.2580004 0.72513527 1.6746206 0
5.2610002 0.71684313 1.6754053 0
5.2650003 0.70869529 1.6764514 0
5.2680001 0.70037973 1.6772361 0
5.2720003 0.69220489 1.6782823 0
5.2760005 0.68401563 1.6793287 0
5.2790003 0.67566395 1.6801132 0
5.2830005 0.66744769 1.6811594 0
5.2870002 0.65921688 1.6822056 0
5.2900004 0.6508292 1.6829903 0
5.2940001 0.64257127 1.6840364 0
5.2970004 0.63416016 1.6848212 0
5.3010001 0.62587523 1.6858673 0
5.3050003 0.617576 1.6869136 0
5.3080006 0.60912877 1.6876984 0
5.3120003 0.60080236 1.6887444 0
5.3160005 0.59246153 1.6897907 0
5.3190002 0.58397824 1.6905752 0
5.3230004 0.57561034 1.6916214 0
5.3270001 0.56722802 1.6926676 0
5.3300004 0.55870867 1.6934524 0
5.3340001 0.55029929 1.6944985 0
5.3380003 0.54187554 1.6955447 0
5.1660004 0.93405229 1.6419609 0
5.1700006 0.92627078 1.6429999 0
5.1730003 0.91827261 1.643779 0
5.1770005 0.91046399 1.6448182 0
5.1800003 0.9024424 1.6455973 0
5.1840005 0.89460665 1.6466364 0
5.1870003 0.88656163 1.6474155 0
5.1910005 0.87869883 1.6484545 0
5.1940002 0.87063038 1.6492337 0
5.1980004 0.86274058 1.6502728 0
5.2010002 0.85464865 1.651052 0
5.2050004 0.84673178 1.652091 0
5.2080002 0.83861637 1.6528702 0
5.2120004 0.83067244 1.6539093 0
5.2150002 0.82253361 1.6546885 0
5.2190003 0.81456262 1.6557275 0
5.2220001 0.80640036 1.6565067 0
5.2260003 0.79840231 1.6575458 0
5.2290001 0.79021657 1.6583248 0
5.2330003 0.78219146 1.659364 0
5.2360005 0.77398241 1.6601433 0
5.2400002 0.76593018 1.6611822 0
5.2430005 0.75769758 1.6619616 0
5.2470002 0.74961835 1.6630005 0
5.2510004 0.74152464 1.6640395 0
5.2540002 0.73325598 1.6648186 0
5.2580004 0.72513527 1.6658578 0
5.2610002 0.71684313 1.6666369 0
5.2650003 0.70869529 1.667676 0
5.2680001 0.70037973 1.6684551 0
5.2720003 0.69220489 1.6694943 0
5.2760005 0.68401563 1.6705332 0
5.2790003 0.67566395 1.6713125 0
5.2830005 0.66744769 1.6723514 0
5.2870002 0.65921688 1.6733904 0
5.2900004 0.6508292 1.6741697 0
5.2940001 0.64257127 1.6752086 0
5.2970004 0.63416016 1.6759878 0
5.3010001 0.62587523 1.6770269 0
5.3050003 0.617576 1.6780658 0
5.3080006 0.60912877 1.6788452 0
5.3120003 0.60080236 1.6798841 0
5.3160005 0.59246153 1.6809231 0
5.3190002 0.58397824 1.6817023 0
5.3230004 0.57561034 1.6827414 0
5.3270001 0.56722802 1.6837803 0
5.3300004 0.55870867 1.6845596 0
5.3340001 0.55029929 1.6855985 0
5.3380003 0.54187554 1.6866375 0
5.1660004 0.93405229 1.6333638 0
5.1700006 0.92627078 1.6343957 0
5.1730003 0.91827261 1.6351695 0
5.1770005 0.91046399 1.6362014 0
5.1800003 0.9024424 1.6369752 0
5.1840005 0.89460665 1.6380069 0
5.1870003 0.88656163 1.6387807 0
5.1910005 0.87869883 1.6398125 0
5.1940002 0.87063038 1.6405863 0
5.1980004 0.86274058 1.6416183 0
5.2010002 0.85464865 1.6423919 0
5.2050004 0.84673178 1.6434238 0
5.2080002 0.83861637 1.6441976 0
5.2120004 0.83067244 1.6452293 0
5.2150002 0.82253361 1.6460031 0
5.2190003 0.81456262 1.647035 0
5.2220001 0.80640036 1.6478088 0
5.2260003 0.79840231 1.6488405 0
5.2290001 0.79021657 1.6496143 0
5.2330003 0.78219146 1.6506462 0
5.2360005 0.77398241 1.65142 0
5.2400002 0.76593018 1.6524518 0
5.2430005 0.75769758 1.6532257 0
5.2470002 0.74961835 1.6542574 0
5.2510004 0.74152464 1.6552892 0
5.2540002 0.73325598 1.656063 0
5.2580004 0.72513527 1.6570948 0
5.2610002 0.71684313 1.6578685 0
5.2650003 0.70869529 1.6589004 0
5.2680001 0.70037973 1.6596743 0
5.2720003 0.69220489 1.660706 0
5.2760005 0.68401563 1.6617379 0
5.2790003 0.67566395 1.6625116 0
5.2830005 0.66744769 1.6635435 0
5.2870002 0.65921688 1.6645751 0
5.2900004 0.6508292 1.665349 0
5.2940001 0.64257127 1.6663808 0
5.2970004 0.63416016 1.6671547 0
5.3010001 0.62587523 1.6681864 0
5.3050003 0.617576 1.6692182 0
5.3080006 0.60912877 1.6699921 0
5.3120003 0.60080236 1.6710237 0
5.3160005 0.59246153 1.6720556 0
5.3190002 0.58397824 1.6728294 0
5.3230004 0.57561034 1.6738613 0
5.3270001 0.56722802 1.674893 0
5.3300004 0.55870867 1.6756668 0
5.3340001 0.55029929 1.6766986 0
5.3380003 0.54187554 1.6777303 0
5.1660004 0.93405229 1.6247669 0
5.1700006 0.92627078 1.6257917 0
5.1730003 0.91827261 1.62656 0
5.1770005 0.91046399 1.6275846 0
5.1800003 0.9024424 1.6283529 0
5.1840005 0.89460665 1.6293775 0
5.1870003 0.88656163 1.6301459 0
5.1910005 0.87869883 1.6311704 0
5.1940002 0.87063038 1.6319389 0
5.1980004 0.86274058 1.6329634 0
5.2010002 0.85464865 1.6337318 0
5.2050004 0.84673178 1.6347564 0
5.2080002 0.83861637 1.6355249 0
5.2120004 0.83067244 1.6365494 0
5.2150002 0.82253361 1.6373178 0
5.2190003 0.81456262 1.6383424 0
5.2220001 0.80640036 1.6391108 0
5.2260003 0.79840231 1.6401354 0
5.2290001 0.79021657 1.6409038 0
5.2330003 0.78219146 1.6419283 0
5.2360005 0.77398241 1.6426969 0
5.2400002 0.76593018 1.6437213 0
5.2430005 0.75769758 1.6444899 0
5.2470002 0.74961835 1.6455144 0
5.2510004 0.74152464 1.646539 0
5.2540002 0.73325598 1.6473073 0
5.2580004 0.72513527 1.648332 0
5.2610002 0.71684313 1.6491003 0
5.2650003 0.70869529 1.6501249 0
5.2680001 0.70037973 1.6508932 0
5.2720003 0.69220489 1.6519179 0
5.2760005 0.68401563 1.6529424 0
5.2790003 0.67566395 1.6537108 0
5.2830005 0.66744769 1.6547354 0
5.2870002 0.65921688 1.65576 0
5.2900004 0.6508292 1.6565285 0
5.2940001 0.64257127 1.657553 0
5.2970004 0.63416016 1.6583214 0
5.3010001 0.62587523 1.6593459 0
5.3050003 0.617576 1.6603705 0
5.3080006 0.60912877 1.661139 0
5.3120003 0.60080236 1.6621635 0
5.3160005 0.59246153 1.6631881 0
5.3190002 0.58397824 1.6639565 0
5.3230004 0.57561034 1.664981 0
5.3270001 0.56722802 1.6660056 0
5.3300004 0.55870867 1.666774 0
5.3340001 0.55029929 1.6677985 0
5.3380003 0.54187554 1.6688231 0
5.1660004 0.93405229 1.61617 0
5.1700006 0.92627078 1.6171874 0
5.1730003 0.91827261 1.6179503 0
5.1770005 0.91046399 1.6189678 0
5.1800003 0.9024424 1.6197307 0
5.1840005 0.89460665 1.6207482 0
5.1870003 0.88656163 1.6215111 0
5.1910005 0.87869883 1.6225284 0
5.1940002 0.87063038 1.6232915 0
5.1980004 0.86274058 1.6243088 0
5.2010002 0.85464865 1.6250718 0
5.2050004 0.84673178 1.6260892 0
5.2080002 0.83861637 1.6268522 0
5.2120004 0.83067244 1.6278696 0
5.2150002 0.82253361 1.6286324 0
5.2190003 0.81456262 1.6296498 0
5.2220001 0.80640036 1.6304128 0
5.2260003 0.79840231 1.6314301 0
5.2290001 0.79021657 1.6321931 0
5.2330003 0.78219146 1.6332105 0
5.2360005 0.77398241 1.6339736 0
5.2400002 0.76593018 1.6349909 0
5.2430005 0.75769758 1.635754 0
5.2470002 0.74961835 1.6367712 0
5.2510004 0.74152464 1.6377887 0
5.2540002 0.73325598 1.6385516 0
5.2580004 0.72513527 1.639569 0
5.2610002 0.71684313 1.640332 0
5.2650003 0.70869529 1.6413493 0
5.2680001 0.70037973 1.6421123 0
5.2720003 0.69220489 1.6431297 0
5.2760005 0.68401563 1.6441472 0
5.2790003 0.67566395 1.6449101 0
5.2830005 0.66744769 1.6459274 0
5.2870002 0.65921688 1.6469448 0
5.2900004 0.6508292 1.6477078 0
5.2940001 0.64257127 1.6487252 0
5.2970004 0.63416016 1.6494882 0
5.3010001 0.62587523 1.6505054 0
5.3050003 0.617576 1.6515229 0
5.3080006 0.60912877 1.6522859 0
5.3120003 0.60080236 1.6533033 0
5.3160005 0.59246153 1.6543206 0
5.3190002 0.58397824 1.6550835 0
5.3230004 0.57561034 1.656101 0
5.3270001 0.56722802 1.6571182 0
5.3300004 0.55870867 1.6578814 0
5.3340001 0.55029929 1.6588986 0
5.3380003 0.54187554 1.659916 0
5.1660004 0.93405229 1.607573 0
5.1700006 0.92627078 1.6085832 0
5.1730003 0.91827261 1.6093408 0
5.1770005 0.91046399 1.610351 0
5.1800003 0.9024424 1.6111084 0
5.1840005 0.89460665 1.6121187 0
5.1870003 0.88656163 1.6128763 0
5.1910005 0.87869883 1.6138864 0
5.1940002 0.87063038 1.6146439 0
5.1980004 0.86274058 1.6156541 0
5.2010002 0.85464865 1.6164117 0
5.2050004 0.84673178 1.6174219 0
5.2080002 0.83861637 1.6181793 0
5.2120004 0.83067244 1.6191896 0
5.2150002 0.82253361 1.6199472 0
5.2190003 0.81456262 1.6209573 0
5.2220001 0.80640036 1.6217148 0
5.2260003 0.79840231 1.622725 0
5.2290001 0.79021657 1.6234826 0
5.2330003 0.78219146 1.6244926 0
5.2360005 0.77398241 1.6252503 0
5.2400002 0.76593018 1.6262605 0
5.2430005 0.75769758 1.6270182 0
5.2470002 0.74961835 1.6280282 0
5.2510004 0.74152464 1.6290383 0
5.2540002 0.73325598 1.6297959 0
5.2580004 0.72513527 1.6308061 0
5.2610002 0.71684313 1.6315637 0
5.2650003 0.70869529 1.6325738 0
5.2680001 0.70037973 1.6333314 0
5.2720003 0.69220489 1.6343415 0
5.2760005 0.68401563 1.6353518 0
5.2790003 0.67566395 1.6361092 0
5.2830005 0.66744769 1.6371194 0
5.2870002 0.65921688 1.6381295 0
5.2900004 0.6508292 1.6388872 0
5.2940001 0.64257127 1.6398973 0
5.2970004 0.63416016 1.6406549 0
5.3010001 0.62587523 1.641665 0
5.3050003 0.617576 1.6426752 0
5.3080006 0.60912877 1.6434329 0
5.3120003 0.60080236 1.6444429 0
5.3160005 0.59246153 1.6454531 0
5.3190002 0.58397824 1.6462107 0
5.3230004 0.57561034 1.6472207 0
5.3270001 0.56722802 1.6482309 0
5.3300004 0.55870867 1.6489886 0
5.3340001 0.55029929 1.6499985 0
5.3380003 0.54187554 1.6510087 0
5.1660004 0.93405229 1.5989761 0
5.1700006 0.92627078 1.5999792 0
5.1730003 0.91827261 1.6007311 0
5.1770005 0.91046399 1.6017342 0
5.1800003 0.9024424 1.6024864 0
5.1840005 0.89460665 1.6034893 0
5.1870003 0.88656163 1.6042414 0
5.1910005 0.87869883 1.6052444 0
5.1940002 0.87063038 1.6059965 0
5.1980004 0.86274058 1.6069995 0
5.2010002 0.85464865 1.6077516 0
5.2050004 0.84673178 1.6087545 0
5.2080002 0.83861637 1.6095067 0
5.2120004 0.83067244 1.6105096 0
5.2150002 0.82253361 1.6112618 0
5.2190003 0.81456262 1.6122649 0
5.2220001 0.80640036 1.6130168 0
5.2260003 0.79840231 1.6140199 0
5.2290001 0.79021657 1.6147721 0
5.2330003 0.78219146 1.615775 0
5.2360005 0.77398241 1.6165272 0
5.2400002 0.76593018 1.61753 0
5.2430005 0.75769758 1.6182823 0
5.2470002 0.74961835 1.6192852 0
5.2510004 0.74152464 1.6202881 0
5.2540002 0.73325598 1.6210402 0
5.2580004 0.72513527 1.6220431 0
5.2610002 0.71684313 1.6227953 0
5.2650003 0.70869529 1.6237984 0
5.2680001 0.70037973 1.6245503 0
5.2720003 0.69220489 1.6255534 0
5.2760005 0.68401563 1.6265564 0
5.2790003 0.67566395 1.6273085 0
5.2830005 0.66744769 1.6283115 0
5.2870002 0.65921688 1.6293143 0
5.2900004 0.6508292 1.6300665 0
5.2940001 0.64257127 1.6310694 0
5.2970004 0.63416016 1.6318216 0
5.3010001 0.62587523 1.6328245 0
5.3050003 0.617576 1.6338274 0
5.3080006 0.60912877 1.6345797 0
5.3120003 0.60080236 1.6355826 0
5.3160005 0.59246153 1.6365855 0
5.3190002 0.58397824 1.6373377 0
5.3230004 0.57561034 1.6383407 0
5.3270001 0.56722802 1.6393435 0
5.3300004 0.55870867 1.6400957 0
5.3340001 0.55029929 1.6410985 0
5.3380003 0.54187554 1.6421015 0
5.1660004 0.93405229 1.5903791 0
5.1700006 0.92627078 1.5913749 0
5.1730003 0.91827261 1.5921216 0
5.1770005 0.91046399 1.5931174 0
5.1800003 0.9024424 1.5938641 0
5.1840005 0.89460665 1.5948598 0
5.1870003 0.88656163 1.5956066 0
5.1910005 0.87869883 1.5966023 0
5.1940002 0.87063038 1.597349 0
5.1980004 0.86274058 1.5983448 0
5.2010002 0.85464865 1.5990915 0
5.2050004 0.84673178 1.6000873 0
5.2080002 0.83861637 1.600834 0
5.2120004 0.83067244 1.6018298 0
5.2150002 0.82253361 1.6025765 0
5.2190003 0.81456262 1.6035722 0
5.2220001 0.80640036 1.6043189 0
5.2260003 0.79840231 1.6053147 0
5.2290001 0.79021657 1.6060613 0
5.2330003 0.78219146 1.6070572 0
5.2360005 0.77398241 1.6078039 0
5.2400002 0.76593018 1.6087997 0
5.2430005 0.75769758 1.6095464 0
5.2470002 0.74961835 1.6105421 0
5.2510004 0.74152464 1.6115378 0
5.2540002 0.73325598 1.6122845 0
5.2580004 0.72513527 1.6132803 0
5.2610002 0.71684313 1.614027 0
5.2650003 0.70869529 1.6150228 0
5.2680001 0.70037973 1.6157695 0
5.2720003 0.69220489 1.6167653 0
5.2760005 0.68401563 1.617761 0
5.2790003 0.67566395 1.6185076 0
5.2830005 0.66744769 1.6195035 0
5.2870002 0.65921688 1.6204991 0
5.2900004 0.6508292 1.621246 0
5.2940001 0.64257127 1.6222416 0
5.2970004 0.63416016 1.6229885 0
5.3010001 0.62587523 1.6239841 0
5.3050003 0.617576 1.6249797 0
5.3080006 0.60912877 1.6257267 0
5.3120003 0.60080236 1.6267222 0
5.3160005 0.59246153 1.6277181 0
5.3190002 0.58397824 1.6284647 0
5.3230004 0.57561034 1.6294605 0
5.3270001 0.56722802 1.6304561 0
5.3300004 0.55870867 1.6312029 0
5.3340001 0.55029929 1.6321987 0
5.3380003 0.54187554 1.6331943 0
5.1660004 0.93405229 1.5817822 0
5.1700006 0.92627078 1.5827707 0
5.1730003 0.91827261 1.5835121 0
5.1770005 0.91046399 1.5845006 0
5.1800003 0.9024424 1.5852419 0
5.1840005 0.89460665 1.5862305 0
5.1870003 0.88656163 1.5869718 0
5.1910005 0.87869883 1.5879604 0
5.1940002 0.87063038 1.5887016 0
5.1980004 0.86274058 1.5896901 0
5.2010002 0.85464865 1.5904315 0
5.2050004 0.84673178 1.5914199 0
5.2080002 0.83861637 1.5921612 0
5.2120004 0.83067244 1.5931498 0
5.2150002 0.82253361 1.5938911 0
5.2190003 0.81456262 1.5948796 0
5.2220001 0.80640036 1.595621 0
5.2260003 0.79840231 1.5966096 0
5.2290001 0.79021657 1.5973508 0
5.2330003 0.78219146 1.5983393 0
5.2360005 0.77398241 1.5990808 0
5.2400002 0.76593018 1.6000692 0
5.2430005 0.75769758 1.6008105 0
5.2470002 0.74961835 1.601799 0
5.2510004 0.74152464 1.6027875 0
5.2540002 0.73325598 1.6035289 0
5.2580004 0.72513527 1.6045173 0
5.2610002 0.71684313 1.6052587 0
5.2650003 0.70869529 1.6062472 0
5.2680001 0.70037973 1.6069885 0
5.2720003 0.69220489 1.6079772 0
5.2760005 0.68401563 1.6089656 0
5.2790003 0.67566395 1.609707 0
5.2830005 0.66744769 1.6106955 0
5.2870002 0.65921688 1.6116838 0
5.2900004 0.6508292 1.6124253 0
5.2940001 0.64257127 1.6134138 0
5.2970004 0.63416016 1.6141552 0
5.3010001 0.62587523 1.6151435 0
5.3050003 0.617576 1.6161321 0
5.3080006 0.60912877 1.6168735 0
5.3120003 0.60080236 1.617862 0
5.3160005 0.59246153 1.6188505 0
5.3190002 0.58397824 1.6195918 0
5.3230004 0.57561034 1.6205803 0
5.3270001 0.56722802 1.6215688 0
5.3300004 0.55870867 1.6223102 0
5.3340001 0.55029929 1.6232986 0
5.3380003 0.54187554 1.6242871 0
5.1660004 0.93405229 1.5731852 0
5.1700006 0.92627078 1.5741667 0
5.1730003 0.91827261 1.5749025 0
5.1770005 0.91046399 1.5758837 0
5.1800003 0.9024424 1.5766196 0
5.1840005 0.89460665 1.577601 0
5.1870003 0.88656163 1.578337 0
5.1910005 0.87869883 1.5793183 0
5.1940002 0.87063038 1.5800542 0
5.1980004 0.86274058 1.5810355 0
5.2010002 0.85464865 1.5817714 0
5.2050004 0.84673178 1.5827527 0
5.2080002 0.83861637 1.5834886 0
5.2120004 0.83067244 1.5844698 0
5.2150002 0.82253361 1.5852058 0
5.2190003 0.81456262 1.5861871 0
5.2220001 0.80640036 1.586923 0
5.2260003 0.79840231 1.5879043 0
5.2290001 0.79021657 1.5886402 0
5.2330003 0.78219146 1.5896215 0
5.2360005 0.77398241 1.5903575 0
5.2400002 0.76593018 1.5913388 0
5.2430005 0.75769758 1.5920748 0
5.2470002 0.74961835 1.593056 0
5.2510004 0.74152464 1.5940373 0
5.2540002 0.73325598 1.5947733 0
5.2580004 0.72513527 1.5957545 0
5.2610002 0.71684313 1.5964904 0
5.2650003 0.70869529 1.5974717 0
5.2680001 0.70037973 1.5982076 0
5.2720003 0.69220489 1.5991889 0
5.2760005 0.68401563 1.6001703 0
5.2790003 0.67566395 1.6009061 0
5.2830005 0.66744769 1.6018875 0
5.2870002 0.65921688 1.6028687 0
5.2900004 0.6508292 1.6036047 0
5.2940001 0.64257127 1.6045859 0
5.2970004 0.63416016 1.605322 0
5.3010001 0.62587523 1.6063031 0
5.3050003 0.617576 1.6072844 0
5.3080006 0.60912877 1.6080204 0
5.3120003 0.60080236 1.6090016 0
5.3160005 0.59246153 1.609983 0
5.3190002 0.58397824 1.6107188 0
5.3230004 0.57561034 1.6117003 0
5.3270001 0.56722802 1.6126814 0
5.3300004 0.55870867 1.6134174 0
5.3340001 0.55029929 1.6143986 0
5.3380003 0.54187554 1.6153799 0
5.1660004 0.93405229 1.5645883 0
5.1700006 0.92627078 1.5655625 0
5.1730003 0.91827261 1.5662929 0
5.1770005 0.91046399 1.5672671 0
5.1800003 0.9024424 1.5679976 0
5.1840005 0.89460665 1.5689715 0
5.1870003 0.88656163 1.569702 0
5.1910005 0.87869883 1.5706762 0
5.1940002 0.87063038 1.5714066 0
5.1980004 0.86274058 1.5723808 0
5.2010002 0.85464865 1.5731113 0
5.2050004 0.84673178 1.5740854 0
5.2080002 0.83861637 1.5748159 0
5.2120004 0.83067244 1.57579 0
5.2150002 0.82253361 1.5765204 0
5.2190003 0.81456262 1.5774946 0
5.2220001 0.80640036 1.5782251 0
5.2260003 0.79840231 1.5791991 0
5.2290001 0.79021657 1.5799296 0
5.2330003 0.78219146 1.5809038 0
5.2360005 0.77398241 1.5816343 0
5.2400002 0.76593018 1.5826083 0
5.2430005 0.75769758 1.583339 0
5.2470002 0.74961835 1.5843129 0
5.2510004 0.74152464 1.5852871 0
5.2540002 0.73325598 1.5860176 0
5.2580004 0.72513527 1.5869915 0
5.2610002 0.71684313 1.5877221 0
5.2650003 0.70869529 1.5886962 0
5.2680001 0.70037973 1.5894266 0
5.2720003 0.69220489 1.5904008 0
5.2760005 0.68401563 1.5913749 0
5.2790003 0.67566395 1.5921054 0
5.2830005 0.66744769 1.5930796 0
5.2870002 0.65921688 1.5940534 0
5.2900004 0.6508292 1.594784 0
5.2940001 0.64257127 1.5957581 0
5.2970004 0.63416016 1.5964886 0
5.3010001 0.62587523 1.5974627 0
5.3050003 0.617576 1.5984368 0
5.3080006 0.60912877 1.5991673 0
5.3120003 0.60080236 1.6001413 0
5.3160005 0.59246153 1.6011155 0
5.3190002 0.58397824 1.6018459 0
5.3230004 0.57561034 1.60282 0
5.3270001 0.56722802 1.6037941 0
5.3300004 0.55870867 1.6045246 0
5.3340001 0.55029929 1.6054987 0
5.3380003 0.54187554 1.6064727 0
5.1660004 0.93405229 1.5559914 0
5.1700006 0.92627078 1.5569582 0
5.1730003 0.91827261 1.5576833 0
5.1770005 0.91046399 1.5586501 0
5.1800003 0.9024424 1.5593753 0
5.1840005 0.89460665 1.5603422 0
5.1870003 0.88656163 1.5610672 0
5.1910005 0.87869883 1.5620341 0
5.1940002 0.87063038 1.5627592 0
5.1980004 0.86274058 1.5637262 0
5.2010002 0.85464865 1.5644512 0
5.2050004 0.84673178 1.5654181 0
5.2080002 0.83861637 1.5661432 0
5.2120004 0.83067244 1.5671101 0
5.2150002 0.82253361 1.5678351 0
5.2190003 0.81456262 1.568802 0
5.2220001 0.80640036 1.569527 0
5.2260003 0.79840231 1.5704939 0
5.2290001 0.79021657 1.5712191 0
5.2330003 0.78219146 1.5721859 0
5.2360005 0.77398241 1.5729111 0
5.2400002 0.76593018 1.5738778 0
5.2430005 0.75769758 1.5746031 0
5.2470002 0.74961835 1.5755699 0
5.2510004 0.74152464 1.5765368 0
5.2540002 0.73325598 1.5772618 0
5.2580004 0.72513527 1.5782287 0
5.2610002 0.71684313 1.5789539 0
5.2650003 0.70869529 1.5799206 0
5.2680001 0.70037973 1.5806458 0
5.2720003 0.69220489 1.5816126 0
5.2760005 0.68401563 1.5825795 0
5.2790003 0.67566395 1.5833045 0
5.2830005 0.66744769 1.5842714 0
5.2870002 0.65921688 1.5852383 0
5.2900004 0.6508292 1.5859635 0
5.2940001 0.64257127 1.5869303 0
5.2970004 0.63416016 1.5876554 0
5.3010001 0.62587523 1.5886222 0
5.3050003 0.617576 1.5895891 0
5.3080006 0.60912877 1.5903143 0
5.3120003 0.60080236 1.5912811 0
5.3160005 0.59246153 1.5922478 0
5.3190002 0.58397824 1.592973 0
5.3230004 0.57561034 1.5939399 0
5.3270001 0.56722802 1.5949067 0
5.3300004 0.55870867 1.5956318 0
5.3340001 0.55029929 1.5965986 0
5.3380003 0.54187554 1.5975655 0
5.1660004 0.93405229 1.5473944 0
5.1700006 0.92627078 1.548354 0
5.1730003 0.91827261 1.5490737 0
5.1770005 0.91046399 1.5500335 0
5.1800003 0.9024424 1.5507531 0
5.1840005 0.89460665 1.5517128 0
5.1870003 0.88656163 1.5524324 0
5.1910005 0.87869883 1.5533922 0
5.1940002 0.87063038 1.5541117 0
5.1980004 0.86274058 1.5550714 0
5.2010002 0.85464865 1.5557911 0
5.2050004 0.84673178 1.5567508 0
5.2080002 0.83861637 1.5574704 0
5.2120004 0.83067244 1.5584301 0
5.2150002 0.82253361 1.5591497 0
5.2190003 0.81456262 1.5601094 0
5.2220001 0.80640036 1.560829 0
5.2260003 0.79840231 1.5617888 0
5.2290001 0.79021657 1.5625085 0
5.2330003 0.78219146 1.5634681 0
5.2360005 0.77398241 1.5641879 0
5.2400002 0.76593018 1.5651475 0
5.2430005 0.75769758 1.5658673 0
5.2470002 0.74961835 1.5668268 0
5.2510004 0.74152464 1.5677865 0
5.2540002 0.73325598 1.5685061 0
5.2580004 0.72513527 1.5694658 0
5.2610002 0.71684313 1.5701854 0
5.2650003 0.70869529 1.5711452 0
5.2680001 0.70037973 1.5718648 0
5.2720003 0.69220489 1.5728245 0
5.2760005 0.68401563 1.5737841 0
5.2790003 0.67566395 1.5745039 0
5.2830005 0.66744769 1.5754634 0
5.2870002 0.65921688 1.576423 0
5.2900004 0.6508292 1.5771428 0
5.2940001 0.64257127 1.5781024 0
5.2970004 0.63416016 1.5788221 0
5.3010001 0.62587523 1.5797818 0
5.3050003 0.617576 1.5807414 0
5.3080006 0.60912877 1.5814612 0
5.3120003 0.60080236 1.5824207 0
5.3160005 0.59246153 1.5833805 0
5.3190002 0.58397824 1.5841 0
5.3230004 0.57561034 1.5850598 0
5.3270001 0.56722802 1.5860193 0
5.3300004 0.55870867 1.5867391 0
5.3340001 0.55029929 1.5876986 0
5.3380003 0.54187554 1.5886583 0
5.1660004 0.93405229 1.5387975 0
5.1700006 0.92627078 1.53975 0
5.1730003 0.91827261 1.5404642 0
5.1770005 0.91046399 1.5414166 0
5.1800003 0.9024424 1.5421308 0
5.1840005 0.89460665 1.5430833 0
5.1870003 0.88656163 1.5437976 0
5.1910005 0.87869883 1.5447501 0
5.1940002 0.87063038 1.5454644 0
5.1980004 0.86274058 1.5464168 0
5.2010002 0.85464865 1.5471309 0
5.2050004 0.84673178 1.5480834 0
5.2080002 0.83861637 1.5487977 0
5.2120004 0.83067244 1.5497502 0
5.2150002 0.82253361 1.5504645 0
5.2190003 0.81456262 1.5514169 0
5.2220001 0.80640036 1.5521312 0
5.2260003 0.79840231 1.5530837 0
5.2290001 0.79021657 1.5537978 0
5.2330003 0.78219146 1.5547503 0
5.2360005 0.77398241 1.5554646 0
5.2400002 0.76593018 1.556417 0
5.2430005 0.75769758 1.5571314 0
5.2470002 0.74961835 1.5580838 0
5.2510004 0.74152464 1.5590361 0
5.2540002 0.73325598 1.5597504 0
5.2580004 0.72513527 1.5607029 0
5.2610002 0.71684313 1.5614171 0
5.2650003 0.70869529 1.5623697 0
5.2680001 0.70037973 1.5630839 0
5.2720003 0.69220489 1.5640363 0
5.2760005 0.68401563 1.5649889 0
5.2790003 0.67566395 1.565703 0
5.2830005 0.66744769 1.5666555 0
5.2870002 0.65921688 1.5676078 0
5.2900004 0.6508292 1.5683222 0
5.2940001 0.64257127 1.5692745 0
5.2970004 0.63416016 1.569989 0
5.3010001 0.62587523 1.5709412 0
5.3050003 0.617576 1.5718937 0
5.3080006 0.60912877 1.5726081 0
5.3120003 0.60080236 1.5735605 0
5.3160005 0.59246153 1.5745128 0
5.3190002 0.58397824 1.5752271 0
5.3230004 0.57561034 1.5761796 0
5.3270001 0.56722802 1.577132 0
5.3300004 0.55870867 1.5778463 0
5.3340001 0.55029929 1.5787987 0
5.3380003 0.54187554 1.5797511 0
5.1660004 0.93405229 1.5302005 0
5.1700006 0.92627078 1.5311457 0
5.1730003 0.91827261 1.5318546 0
5.1770005 0.91046399 1.5327998 0
5.1800003 0.9024424 1.5335088 0
5.1840005 0.89460665 1.5344539 0
5.1870003 0.88656163 1.5351628 0
5.1910005 0.87869883 1.536108 0
5.1940002 0.87063038 1.5368168 0
5.1980004 0.86274058 1.537762 0
5.2010002 0.85464865 1.538471 0
5.2050004 0.84673178 1.5394161 0
5.2080002 0.83861637 1.540125 0
5.2120004 0.83067244 1.5410702 0
5.2150002 0.82253361 1.5417792 0
5.2190003 0.81456262 1.5427244 0
5.2220001 0.80640036 1.5434332 0
5.2260003 0.79840231 1.5443785 0
5.2290001 0.79021657 1.5450872 0
5.2330003 0.78219146 1.5460325 0
5.2360005 0.77398241 1.5467415 0
5.2400002 0.76593018 1.5476866 0
5.2430005 0.75769758 1.5483955 0
5.2470002 0.74961835 1.5493407 0
5.2510004 0.74152464 1.5502859 0
5.2540002 0.73325598 1.5509948 0
5.2580004 0.72513527 1.55194 0
5.2610002 0.71684313 1.5526489 0
5.2650003 0.70869529 1.553594 0
5.2680001 0.70037973 1.5543029 0
5.2720003 0.69220489 1.5552483 0
5.2760005 0.68401563 1.5561934 0
5.2790003 0.67566395 1.5569023 0
5.2830005 0.66744769 1.5578475 0
5.2870002 0.65921688 1.5587926 0
5.2900004 0.6508292 1.5595015 0
5.2940001 0.64257127 1.5604467 0
5.2970004 0.63416016 1.5611557 0
5.3010001 0.62587523 1.5621008 0
5.3050003 0.617576 1.5630461 0
5.3080006 0.60912877 1.563755 0
5.3120003 0.60080236 1.5647001 0
5.3160005 0.59246153 1.5656453 0
5.3190002 0.58397824 1.5663543 0
5.3230004 0.57561034 1.5672994 0
5.3270001 0.56722802 1.5682446 0
5.3300004 0.55870867 1.5689535 0
5.3340001 0.55029929 1.5698986 0
5.3380003 0.54187554 1.5708439 0
5.1660004 0.93405229 1.5216036 0
5.1700006 0.92627078 1.5225415 0
5.1730003 0.91827261 1.5232451 0
5.1770005 0.91046399 1.524183 0
5.1800003 0.9024424 1.5248865 0
5.1840005 0.89460665 1.5258244 0
5.1870003 0.88656163 1.5265279 0
5.1910005 0.87869883 1.5274661 0
5.1940002 0.87063038 1.5281694 0
5.1980004 0.86274058 1.5291075 0
5.2010002 0.85464865 1.5298108 0
5.2050004 0.84673178 1.5307488 0
5.2080002 0.83861637 1.5314524 0
5.2120004 0.83067244 1.5323904 0
5.2150002 0.82253361 1.5330938 0
5.2190003 0.81456262 1.5340317 0
5.2220001 0.80640036 1.5347352 0
5.2260003 0.79840231 1.5356733 0
5.2290001 0.79021657 1.5363767 0
5.2330003 0.78219146 1.5373148 0
5.2360005 0.77398241 1.5380182 0
5.2400002 0.76593018 1.5389562 0
5.2430005 0.75769758 1.5396596 0
5.2470002 0.74961835 1.5405976 0
5.2510004 0.74152464 1.5415357 0
5.2540002 0.73325598 1.5422391 0
5.2580004 0.72513527 1.5431771 0
5.2610002 0.71684313 1.5438805 0
5.2650003 0.70869529 1.5448185 0
5.2680001 0.70037973 1.5455221 0
5.2720003 0.69220489 1.54646 0
5.2760005 0.68401563 1.5473981 0
5.2790003 0.67566395 1.5481014 0
5.2830005 0.66744769 1.5490395 0
5.2870002 0.65921688 1.5499774 0
5.2900004 0.6508292 1.550681 0
5.2940001 0.64257127 1.5516189 0
5.2970004 0.63416016 1.5523224 0
5.3010001 0.62587523 1.5532603 0
5.3050003 0.617576 1.5541984 0
5.3080006 0.60912877 1.5549018 0
5.3120003 0.60080236 1.5558398 0
5.3160005 0.59246153 1.556778 0
5.3190002 0.58397824 1.5574813 0
5.3230004 0.57561034 1.5584193 0
5.3270001 0.56722802 1.5593572 0
5.3300004 0.55870867 1.5600607 0
5.3340001 0.55029929 1.5609987 0
5.3380003 0.54187554 1.5619366 0
5.1660004 0.93405229 1.5130066 0
5.1700006 0.92627078 1.5139375 0
5.1730003 0.91827261 1.5146354 0
5.1770005 0.91046399 1.5155662 0
5.1800003 0.9024424 1.5162643 0
5.1840005 0.89460665 1.5171951 0
5.1870003 0.88656163 1.5178931 0
5.1910005 0.87869883 1.518824 0
5.1940002 0.87063038 1.519522 0
5.1980004 0.86274058 1.5204527 0
5.2010002 0.85464865 1.5211508 0
5.2050004 0.84673178 1.5220816 0
5.2080002 0.83861637 1.5227796 0
5.2120004 0.83067244 1.5237104 0
5.2150002 0.82253361 1.5244085 0
5.2190003 0.81456262 1.5253391 0
5.2220001 0.80640036 1.5260373 0
5.2260003 0.79840231 1.526968 0
5.2290001 0.79021657 1.5276661 0
5.2330003 0.78219146 1.5285969 0
5.2360005 0.77398241 1.5292951 0
5.2400002 0.76593018 1.5302258 0
5.2430005 0.75769758 1.5309238 0
5.2470002 0.74961835 1.5318545 0
5.2510004 0.74152464 1.5327854 0
5.2540002 0.73325598 1.5334834 0
5.2580004 0.72513527 1.5344142 0
5.2610002 0.71684313 1.5351123 0
5.2650003 0.70869529 1.536043 0
5.2680001 0.70037973 1.536741 0
5.2720003 0.69220489 1.5376719 0
5.2760005 0.68401563 1.5386026 0
5.2790003 0.67566395 1.5393008 0
5.2830005 0.66744769 1.5402315 0
5.2870002 0.65921688 1.5411623 0
5.2900004 0.6508292 1.5418603 0
5.2940001 0.64257127 1.542791 0
5.2970004 0.63416016 1.5434891 0
5.3010001 0.62587523 1.5444199 0
5.3050003 0.617576 1.5453508 0
5.3080006 0.60912877 1.5460489 0
5.3120003 0.60080236 1.5469795 0
5.3160005 0.59246153 1.5479103 0
5.3190002 0.58397824 1.5486083 0
5.3230004 0.57561034 1.5495391 0
5.3270001 0.56722802 1.5504699 0
5.3300004 0.55870867 1.551168 0
5.3340001 0.55029929 1.5520988 0
5.3380003 0.54187554 1.5530294 0
5.1660004 0.93405229 1.5044097 0
5.1700006 0.92627078 1.5053333 0
5.1730003 0.91827261 1.5060259 0
5.1770005 0.91046399 1.5069494 0
5.1800003 0.9024424 1.507642 0
5.1840005 0.89460665 1.5085657 0
5.1870003 0.88656163 1.5092583 0
5.1910005 0.87869883 1.5101819 0
5.1940002 0.87063038 1.5108745 0
5.1980004 0.86274058 1.511798 0
5.2010002 0.85464865 1.5124906 0
5.2050004 0.84673178 1.5134143 0
5.2080002 0.83861637 1.5141069 0
5.2120004 0.83067244 1.5150305 0
5.2150002 0.82253361 1.5157231 0
5.2190003 0.81456262 1.5166467 0
5.2220001 0.80640036 1.5173393 0
5.2260003 0.79840231 1.5182629 0
5.2290001 0.79021657 1.5189555 0
5.2330003 0.78219146 1.5198791 0
5.2360005 0.77398241 1.5205718 0
5.2400002 0.76593018 1.5214953 0
5.2430005 0.75769758 1.5221881 0
5.2470002 0.74961835 1.5231115 0
5.2510004 0.74152464 1.5240351 0
5.2540002 0.73325598 1.5247277 0
5.2580004 0.72513527 1.5256513 0
5.2610002 0.71684313 1.5263439 0
5.2650003 0.70869529 1.5272675 0
5.2680001 0.70037973 1.5279602 0
5.2720003 0.69220489 1.5288837 0
5.2760005 0.68401563 1.5298073 0
5.2790003 0.67566395 1.5304999 0
5.2830005 0.66744769 1.5314236 0
5.2870002 0.65921688 1.532347 0
5.2900004 0.6508292 1.5330397 0
5.2940001 0.64257127 1.5339632 0
5.2970004 0.63416016 1.5346559 0
5.3010001 0.62587523 1.5355794 0
5.3050003 0.617576 1.536503 0
5.3080006 0.60912877 1.5371957 0
5.3120003 0.60080236 1.5381192 0
5.3160005 0.59246153 1.5390428 0
5.3190002 0.58397824 1.5397354 0
5.3230004 0.57561034 1.540659 0
5.3270001 0.56722802 1.5415825 0
5.3300004 0.55870867 1.5422752 0
5.3340001 0.55029929 1.5431987 0
5.3380003 0.54187554 1.5441223 0
5.1660004 0.93405229 1.4958128 0
5.1700006 0.92627078 1.496729 0
5.1730003 0.91827261 1.4974163 0
5.1770005 0.91046399 1.4983327 0
5.1800003 0.9024424 1.4990199 0
5.1840005 0.89460665 1.4999362 0
5.1870003 0.88656163 1.5006235 0
5.1910005 0.87869883 1.5015398 0
5.1940002 0.87063038 1.5022271 0
5.1980004 0.86274058 1.5031434 0
5.2010002 0.85464865 1.5038306 0
5.2050004 0.84673178 1.504747 0
5.2080002 0.83861637 1.5054342 0
5.2120004 0.83067244 1.5063505 0
5.2150002 0.82253361 1.5070378 0
5.2190003 0.81456262 1.5079542 0
5.2220001 0.80640036 1.5086412 0
5.2260003 0.79840231 1.5095577 0
5.2290001 0.79021657 1.510245 0
5.2330003 0.78219146 1.5111613 0
5.2360005 0.77398241 1.5118486 0
5.2400002 0.76593018 1.5127648 0
5.2430005 0.75769758 1.5134522 0
5.2470002 0.74961835 1.5143685 0
5.2510004 0.74152464 1.5152848 0
5.2540002 0.73325598 1.515972 0
5.2580004 0.72513527 1.5168885 0
5.2610002 0.71684313 1.5175756 0
5.2650003 0.70869529 1.518492 0
5.2680001 0.70037973 1.5191792 0
5.2720003 0.69220489 1.5200956 0
5.2760005 0.68401563 1.5210119 0
5.2790003 0.67566395 1.5216991 0
5.2830005 0.66744769 1.5226156 0
5.2870002 0.65921688 1.5235318 0
5.2900004 0.6508292 1.524219 0
5.2940001 0.64257127 1.5251354 0
5.2970004 0.63416016 1.5258228 0
5.3010001 0.62587523 1.5267389 0
5.3050003 0.617576 1.5276552 0
5.3080006 0.60912877 1.5283426 0
5.3120003 0.60080236 1.529259 0
5.3160005 0.59246153 1.5301752 0
5.3190002 0.58397824 1.5308625 0
5.3230004 0.57561034 1.5317789 0
5.3270001 0.56722802 1.5326952 0
5.3300004 0.55870867 1.5333824 0
5.3340001 0.55029929 1.5342987 0
5.3380003 0.54187554 1.5352151 0
5.1660004 0.93405229 1.4872158 0
5.1700006 0.92627078 1.488125 0
5.1730003 0.91827261 1.4888067 0
5.1770005 0.91046399 1.4897158 0
5.1800003 0.9024424 1.4903977 0
5.1840005 0.89460665 1.4913068 0
5.1870003 0.88656163 1.4919887 0
5.1910005 0.87869883 1.4928977 0
5.1940002 0.87063038 1.4935795 0
5.1980004 0.86274058 1.4944887 0
5.2010002 0.85464865 1.4951706 0
5.2050004 0.84673178 1.4960797 0
5.2080002 0.83861637 1.4967614 0
5.2120004 0.83067244 1.4976705 0
5.2150002 0.82253361 1.4983524 0
5.2190003 0.81456262 1.4992616 0
5.2220001 0.80640036 1.4999434 0
5.2260003 0.79840231 1.5008526 0
5.2290001 0.79021657 1.5015343 0
5.2330003 0.78219146 1.5024434 0
5.2360005 0.77398241 1.5031254 0
5.2400002 0.76593018 1.5040344 0
5.2430005 0.75769758 1.5047164 0
5.2470002 0.74961835 1.5056255 0
5.2510004 0.74152464 1.5065345 0
5.2540002 0.73325598 1.5072163 0
5.2580004 0.72513527 1.5081255 0
5.2610002 0.71684313 1.5088073 0
5.2650003 0.70869529 1.5097165 0
5.2680001 0.70037973 1.5103981 0
5.2720003 0.69220489 1.5113074 0
5.2760005 0.68401563 1.5122166 0
5.2790003 0.67566395 1.5128983 0
5.2830005 0.66744769 1.5138075 0
5.2870002 0.65921688 1.5147166 0
5.2900004 0.6508292 1.5153984 0
5.2940001 0.64257127 1.5163075 0
5.2970004 0.63416016 1.5169895 0
5.3010001 0.62587523 1.5178984 0
5.3050003 0.617576 1.5188076 0
5.3080006 0.60912877 1.5194895 0
5.3120003 0.60080236 1.5203986 0
5.3160005 0.59246153 1.5213077 0
5.3190002 0.58397824 1.5219895 0
5.3230004 0.57561034 1.5228987 0
5.3270001 0.56722802 1.5238078 0
5.3300004 0.55870867 1.5244896 0
5.3340001 0.55029929 1.5253987 0
5.3380003 0.54187554 1.5263079 0
5.1660004 0.93405229 1.4786189 0
5.1700006 0.92627078 1.4795208 0
5.1730003 0.91827261 1.4801971 0
5.1770005 0.91046399 1.4810991 0
5.1800003 0.9024424 1.4817754 0
5.1840005 0.89460665 1.4826775 0
5.1870003 0.88656163 1.4833537 0
5.1910005 0.87869883 1.4842558 0
5.1940002 0.87063038 1.4849321 0
5.1980004 0.86274058 1.4858341 0
5.2010002 0.85464865 1.4865104 0
5.2050004 0.84673178 1.4874125 0
5.2080002 0.83861637 1.4880887 0
5.2120004 0.83067244 1.4889908 0
5.2150002 0.82253361 1.4896671 0
5.2190003 0.81456262 1.490569 0
5.2220001 0.80640036 1.4912454 0
5.2260003 0.79840231 1.4921473 0
5.2290001 0.79021657 1.4928237 0
5.2330003 0.78219146 1.4937257 0
5.2360005 0.77398241 1.4944022 0
5.2400002 0.76593018 1.495304 0
5.2430005 0.75769758 1.4959805 0
5.2470002 0.74961835 1.4968823 0
5.2510004 0.74152464 1.4977844 0
5.2540002 0.73325598 1.4984607 0
5.2580004 0.72513527 1.4993627 0
5.2610002 0.71684313 1.500039 0
5.2650003 0.70869529 1.500941 0
5.2680001 0.70037973 1.5016173 0
5.2720003 0.69220489 1.5025192 0
5.2760005 0.68401563 1.5034212 0
5.2790003 0.67566395 1.5040976 0
5.2830005 0.66744769 1.5049995 0
5.2870002 0.65921688 1.5059013 0
5.2900004 0.6508292 1.5065778 0
5.2940001 0.64257127 1.5074797 0
5.2970004 0.63416016 1.5081562 0
5.3010001 0.62587523 1.509058 0
5.3050003 0.617576 1.5099599 0
5.3080006 0.60912877 1.5106364 0
5.3120003 0.60080236 1.5115383 0
5.3160005 0.59246153 1.5124402 0
5.3190002 0.58397824 1.5131166 0
5.3230004 0.57561034 1.5140185 0
5.3270001 0.56722802 1.5149204 0
5.3300004 0.55870867 1.5155969 0
5.3340001 0.55029929 1.5164987 0
5.3380003 0.54187554 1.5174006 0
5.1660004 0.93405229 1.4700218 0
5.1700006 0.92627078 1.4709165 0
5.1730003 0.91827261 1.4715875 0
5.1770005 0.91046399 1.4724822 0
5.1800003 0.9024424 1.4731532 0
5.1840005 0.89460665 1.474048 0
5.1870003 0.88656163 1.4747189 0
5.1910005 0.87869883 1.4756137 0
5.1940002 0.87063038 1.4762846 0
5.1980004 0.86274058 1.4771794 0
5.2010002 0.85464865 1.4778504 0
5.2050004 0.84673178 1.4787451 0
5.2080002 0.83861637 1.479416 0
5.2120004 0.83067244 1.4803108 0
5.2150002 0.82253361 1.4809817 0
5.2190003 0.81456262 1.4818765 0
5.2220001 0.80640036 1.4825474 0
5.2260003 0.79840231 1.4834422 0
5.2290001 0.79021657 1.4841132 0
5.2330003 0.78219146 1.4850078 0
5.2360005 0.77398241 1.4856789 0
5.2400002 0.76593018 1.4865736 0
5.2430005 0.75769758 1.4872446 0
5.2470002 0.74961835 1.4881393 0
5.2510004 0.74152464 1.4890341 0
5.2540002 0.73325598 1.489705 0
5.2580004 0.72513527 1.4905998 0
5.2610002 0.71684313 1.4912708 0
5.2650003 0.70869529 1.4921653 0
5.2680001 0.70037973 1.4928364 0
5.2720003 0.69220489 1.4937311 0
5.2760005 0.68401563 1.4946258 0
5.2790003 0.67566395 1.4952968 0
5.2830005 0.66744769 1.4961916 0
5.2870002 0.65921688 1.4970862 0
5.2900004 0.6508292 1.4977572 0
5.2940001 0.64257127 1.4986519 0
5.2970004 0.63416016 1.4993229 0
5.3010001 0.62587523 1.5002176 0
5.3050003 0.617576 1.5011123 0
5.3080006 0.60912877 1.5017834 0
5.3120003 0.60080236 1.5026779 0
5.3160005 0.59246153 1.5035727 0
5.3190002 0.58397824 1.5042436 0
5.3230004 0.57561034 1.5051384 0
5.3270001 0.56722802 1.5060331 0
5.3300004 0.55870867 1.5067042 0
5.3340001 0.55029929 1.5075986 0
5.3380003 0.54187554 1.5084934 0
5.1660004 0.93405229 1.4614248 0
5.1700006 0.92627078 1.4623125 0
5.1730003 0.91827261 1.462978 0
5.1770005 0.91046399 1.4638655 0
5.1800003 0.9024424 1.4645311 0
5.1840005 0.89460665 1.4654186 0
5.1870003 0.88656163 1.4660841 0
5.1910005 0.87869883 1.4669716 0
5.1940002 0.87063038 1.4676373 0
5.1980004 0.86274058 1.4685247 0
5.2010002 0.85464865 1.4691902 0
5.2050004 0.84673178 1.4700778 0
5.2080002 0.83861637 1.4707434 0
5.2120004 0.83067244 1.4716308 0
5.2150002 0.82253361 1.4722964 0
5.2190003 0.81456262 1.473184 0
5.2220001 0.80640036 1.4738495 0
5.2260003 0.79840231 1.474737 0
5.2290001 0.79021657 1.4754025 0
5.2330003 0.78219146 1.4762901 0
5.2360005 0.77398241 1.4769558 0
5.2400002 0.76593018 1.4778432 0
5.2430005 0.75769758 1.4785087 0
5.2470002 0.74961835 1.4793962 0
5.2510004 0.74152464 1.4802837 0
5.2540002 0.73325598 1.4809493 0
5.2580004 0.72513527 1.4818368 0
5.2610002 0.71684313 1.4825023 0
5.2650003 0.70869529 1.4833899 0
5.2680001 0.70037973 1.4840554 0
5.2720003 0.69220489 1.484943 0
5.2760005 0.68401563 1.4858304 0
5.2790003 0.67566395 1.486496 0
5.2830005 0.66744769 1.4873836 0
5.2870002 0.65921688 1.488271 0
5.2900004 0.6508292 1.4889365 0
5.2940001 0.64257127 1.4898241 0
5.2970004 0.63416016 1.4904897 0
5.3010001 0.62587523 1.4913771 0
5.3050003 0.617576 1.4922645 0
5.3080006 0.60912877 1.4929303 0
5.3120003 0.60080236 1.4938177 0
5.3160005 0.59246153 1.4947052 0
5.3190002 0.58397824 1.4953707 0
5.3230004 0.57561034 1.4962583 0
5.3270001 0.56722802 1.4971457 0
5.3300004 0.55870867 1.4978113 0
5.3340001 0.55029929 1.4986988 0
5.3380003 0.54187554 1.4995862 0
5.1660004 0.93405229 1.4528279 0
5.1700006 0.92627078 1.4537083 0
5.1730003 0.91827261 1.4543684 0
5.1770005 0.91046399 1.4552487 0
5.1800003 0.9024424 1.4559089 0
5.1840005 0.89460665 1.4567891 0
5.1870003 0.88656163 1.4574493 0
5.1910005 0.87869883 1.4583297 0
5.1940002 0.87063038 1.4589897 0
5.1980004 0.86274058 1.45987 0
5.2010002 0.85464865 1.4605302 0
5.2050004 0.84673178 1.4614104 0
5.2080002 0.83861637 1.4620706 0
5.2120004 0.83067244 1.4629509 0
5.2150002 0.82253361 1.463611 0
5.2190003 0.81456262 1.4644914 0
5.2220001 0.80640036 1.4651515 0
5.2260003 0.79840231 1.4660318 0
5.2290001 0.79021657 1.466692 0
5.2330003 0.78219146 1.4675723 0
5.2360005 0.77398241 1.4682325 0
5.2400002 0.76593018 1.4691128 0
5.2430005 0.75769758 1.4697731 0
5.2470002 0.74961835 1.4706531 0
5.2510004 0.74152464 1.4715334 0
5.2540002 0.73325598 1.4721936 0
5.2580004 0.72513527 1.4730738 0
5.2610002 0.71684313 1.473734 0
5.2650003 0.70869529 1.4746144 0
5.2680001 0.70037973 1.4752744 0
5.2720003 0.69220489 1.4761548 0
5.2760005 0.68401563 1.4770352 0
5.2790003 0.67566395 1.4776952 0
5.2830005 0.66744769 1.4785756 0
5.2870002 0.65921688 1.4794557 0
5.2900004 0.6508292 1.4801159 0
5.2940001 0.64257127 1.4809961 0
5.2970004 0.63416016 1.4816564 0
5.3010001 0.62587523 1.4825366 0
5.3050003 0.617576 1.4834169 0
5.3080006 0.60912877 1.4840772 0
5.3120003 0.60080236 1.4849575 0
5.3160005 0.59246153 1.4858377 0
5.3190002 0.58397824 1.4864979 0
5.3230004 0.57561034 1.4873781 0
5.3270001 0.56722802 1.4882582 0
5.3300004 0.55870867 1.4889185 0
5.3340001 0.55029929 1.4897988 0
5.3380003 0.54187554 1.490679 0
5.1660004 0.93405229 1.444231 0
5.1700006 0.92627078 1.4451041 0
5.1730003 0.91827261 1.4457588 0
5.1770005 0.91046399 1.4466319 0
5.1800003 0.9024424 1.4472866 0
5.1840005 0.89460665 1.4481598 0
5.1870003 0.88656163 1.4488145 0
5.1910005 0.87869883 1.4496876 0
5.1940002 0.87063038 1.4503423 0
5.1980004 0.86274058 1.4512154 0
5.2010002 0.85464865 1.4518701 0
5.2050004 0.84673178 1.4527432 0
5.2080002 0.83861637 1.4533979 0
5.2120004 0.83067244 1.454271 0
5.2150002 0.82253361 1.4549257 0
5.2190003 0.81456262 1.4557987 0
5.2220001 0.80640036 1.4564536 0
5.2260003 0.79840231 1.4573267 0
5.2290001 0.79021657 1.4579815 0
5.2330003 0.78219146 1.4588544 0
5.2360005 0.77398241 1.4595094 0
5.2400002 0.76593018 1.4603822 0
5.2430005 0.75769758 1.4610372 0
5.2470002 0.74961835 1.4619101 0
5.2510004 0.74152464 1.4627831 0
5.2540002 0.73325598 1.4634379 0
5.2580004 0.72513527 1.464311 0
5.2610002 0.71684313 1.4649658 0
5.2650003 0.70869529 1.4658388 0
5.2680001 0.70037973 1.4664936 0
5.2720003 0.69220489 1.4673666 0
5.2760005 0.68401563 1.4682397 0
5.2790003 0.67566395 1.4688945 0
5.2830005 0.66744769 1.4697675 0
5.2870002 0.65921688 1.4706405 0
5.2900004 0.6508292 1.4712954 0
5.2940001 0.64257127 1.4721683 0
5.2970004 0.63416016 1.4728231 0
5.3010001 0.62587523 1.4736961 0
5.3050003 0.617576 1.4745692 0
5.3080006 0.60912877 1.475224 0
5.3120003 0.60080236 1.4760971 0
5.3160005 0.59246153 1.4769702 0
5.3190002 0.58397824 1.4776249 0
5.3230004 0.57561034 1.478498 0
5.3270001 0.56722802 1.479371 0
5.3300004 0.55870867 1.4800258 0
5.3340001 0.55029929 1.4808987 0
5.3380003 0.54187554 1.4817719 0
5.1660004 0.93405229 1.4356341 0
5.1700006 0.92627078 1.4364998 0
5.1730003 0.91827261 1.4371492 0
5.1770005 0.91046399 1.4380151 0
5.1800003 0.9024424 1.4386644 0
5.1840005 0.89460665 1.4395304 0
5.1870003 0.88656163 1.4401796 0
5.1910005 0.87869883 1.4410455 0
5.1940002 0.87063038 1.4416949 0
5.1980004 0.86274058 1.4425607 0
5.2010002 0.85464865 1.44321 0
5.2050004 0.84673178 1.4440759 0
5.2080002 0.83861637 1.4447253 0
5.2120004 0.83067244 1.4455911 0
5.2150002 0.82253361 1.4462404 0
5.2190003 0.81456262 1.4471062 0
5.2220001 0.80640036 1.4477556 0
5.2260003 0.79840231 1.4486214 0
5.2290001 0.79021657 1.4492707 0
5.2330003 0.78219146 1.4501367 0
5.2360005 0.77398241 1.4507861 0
5.2400002 0.76593018 1.4516519 0
5.2430005 0.75769758 1.4523013 0
5.2470002 0.74961835 1.4531671 0
5.2510004 0.74152464 1.4540329 0
5.2540002 0.73325598 1.4546822 0
5.2580004 0.72513527 1.455548 0
5.2610002 0.71684313 1.4561974 0
5.2650003 0.70869529 1.4570633 0
5.2680001 0.70037973 1.4577127 0
5.2720003 0.69220489 1.4585785 0
5.2760005 0.68401563 1.4594444 0
5.2790003 0.67566395 1.4600937 0
5.2830005 0.66744769 1.4609596 0
5.2870002 0.65921688 1.4618253 0
5.2900004 0.6508292 1.4624747 0
5.2940001 0.64257127 1.4633405 0
5.2970004 0.63416016 1.4639899 0
5.3010001 0.62587523 1.4648557 0
5.3050003 0.617576 1.4657216 0
5.3080006 0.60912877 1.4663711 0
5.3120003 0.60080236 1.4672368 0
5.3160005 0.59246153 1.4681026 0
5.3190002 0.58397824 1.468752 0
5.3230004 0.57561034 1.4696177 0
5.3270001 0.56722802 1.4704835 0
5.3300004 0.55870867 1.471133 0
5.3340001 0.55029929 1.4719988 0
5.3380003 0.54187554 1.4728646 0
5.1660004 0.93405229 1.4270371 0
5.1700006 0.92627078 1.4278958 0
5.1730003 0.91827261 1.4285396 0
5.1770005 0.91046399 1.4293984 0
5.1800003 0.9024424 1.4300423 0
5.1840005 0.89460665 1.4309008 0
5.1870003 0.88656163 1.4315448 0
5.1910005 0.87869883 1.4324034 0
5.1940002 0.87063038 1.4330474 0
5.1980004 0.86274058 1.433906 0
5.2010002 0.85464865 1.4345499 0
5.2050004 0.84673178 1.4354086 0
5.2080002 0.83861637 1.4360526 0
5.2120004 0.83067244 1.4369112 0
5.2150002 0.82253361 1.4375551 0
5.2190003 0.81456262 1.4384137 0
5.2220001 0.80640036 1.4390576 0
5.2260003 0.79840231 1.4399163 0
5.2290001 0.79021657 1.4405602 0
5.2330003 0.78219146 1.4414189 0
5.2360005 0.77398241 1.4420629 0
5.2400002 0.76593018 1.4429214 0
5.2430005 0.75769758 1.4435655 0
5.2470002 0.74961835 1.444424 0
5.2510004 0.74152464 1.4452827 0
5.2540002 0.73325598 1.4459265 0
5.2580004 0.72513527 1.4467852 0
5.2610002 0.71684313 1.4474291 0
5.2650003 0.70869529 1.4482878 0
5.2680001 0.70037973 1.4489317 0
5.2720003 0.69220489 1.4497902 0
5.2760005 0.68401563 1.4506489 0
5.2790003 0.67566395 1.4512929 0
5.2830005 0.66744769 1.4521515 0
5.2870002 0.65921688 1.4530102 0
5.2900004 0.6508292 1.4536541 0
5.2940001 0.64257127 1.4545126 0
5.2970004 0.63416016 1.4551567 0
5.3010001 0.62587523 1.4560152 0
5.3050003 0.617576 1.4568739 0
5.3080006 0.60912877 1.4575179 0
5.3120003 0.60080236 1.4583764 0
5.3160005 0.59246153 1.4592351 0
5.3190002 0.58397824 1.459879 0
5.3230004 0.57561034 1.4607377 0
5.3270001 0.56722802 1.4615961 0
5.3300004 0.55870867 1.4622402 0
5.3340001 0.55029929 1.4630988 0
5.3380003 0.54187554 1.4639574 0
5.1660004 0.93405229 1.4184402 0
5.1700006 0.92627078 1.4192916 0
5.1730003 0.91827261 1.4199301 0
5.1770005 0.91046399 1.4207815 0
5.1800003 0.9024424 1.4214201 0
5.1840005 0.89460665 1.4222715 0
5.1870003 0.88656163 1.42291 0
5.1910005 0.87869883 1.4237614 0
5.1940002 0.87063038 1.4243999 0
5.1980004 0.86274058 1.4252514 0
5.2010002 0.85464865 1.4258898 0
5.2050004 0.84673178 1.4267414 0
5.2080002 0.83861637 1.4273797 0
5.2120004 0.83067244 1.4282312 0
5.2150002 0.82253361 1.4288697 0
5.2190003 0.81456262 1.4297211 0
5.2220001 0.80640036 1.4303597 0
5.2260003 0.79840231 1.4312111 0
5.2290001 0.79021657 1.4318496 0
5.2330003 0.78219146 1.432701 0
5.2360005 0.77398241 1.4333397 0
5.2400002 0.76593018 1.434191 0
5.2430005 0.75769758 1.4348296 0
5.2470002 0.74961835 1.435681 0
