# .PCD v0.7 - Point Cloud Data file format
VERSION 0.7
FIELDS x y z intensity
SIZE 4 4 4 4
TYPE F F F F
COUNT 1 1 1 1
WIDTH 1428
HEIGHT 1
VIEWPOINT 0 0 0 1 0 0 0
POINTS 1428
DATA ascii
5.3470001 0.69464546 0.6092391 0
5.3510003 0.68631369 0.60940504 0
5.3550005 0.67796749 0.60957104 0
5.3590002 0.66960675 0.60973698 0
5.3630004 0.66123176 0.60990292 0
5.3670001 0.65284216 0.61006886 0
5.1090002 1.1771551 0.59087092 0
5.1120005 1.1694349 0.59099001 0
5.1160002 1.1619598 0.59114873 0
5.1200004 1.1544704 0.59130746 0
5.1240005 1.1469666 0.59146619 0
5.1270003 1.1391976 0.59158528 0
5.1310005 1.1316668 0.59174401 0
5.1350002 1.1241213 0.59190273 0
5.1390004 1.1165617 0.59206146 0
5.1420002 1.1087439 0.59218049 0
5.1460004 1.1011572 0.59233922 0
5.1500001 1.0935558 0.59249794 0
5.1540003 1.0859401 0.59265673 0
5.1570005 1.0780739 0.59277576 0
5.1610003 1.070431 0.59293449 0
5.1650004 1.0627739 0.59309328 0
5.1690001 1.0551022 0.59325194 0
5.1730003 1.0474162 0.59341073 0
5.1770005 1.0397158 0.59356946 0
5.1800003 1.0317754 0.59368849 0
5.1840005 1.024048 0.59384722 0
5.1880002 1.0163059 0.59400594 0
5.1920004 1.0085496 0.59416467 0
5.1960001 1.0007787 0.5943234 0
5.2000003 0.99299347 0.59448218 0
5.2030005 0.98497927 0.59460121 0
5.2070003 0.97716689 0.59475994 0
5.2110004 0.96934021 0.59491873 0
5.2150002 0.96149898 0.5950774 0
5.2190003 0.9536435 0.59523618 0
5.2230005 0.94577342 0.59539491 0
5.2270002 0.93788892 0.59555364 0
5.2310004 0.92999011 0.59571236 0
5.2340002 0.92187661 0.59583139 0
5.2380004 0.91395074 0.59599018 0
5.2420001 0.90601027 0.59614885 0
5.2460003 0.89805555 0.59630764 0
5.2500005 0.89008623 0.59646636 0
5.2540002 0.88210255 0.59662509 0
5.2580004 0.87410456 0.59678382 0
5.2620006 0.86609203 0.59694254 0
5.2660003 0.85806507 0.59710127 0
5.2700005 0.85002375 0.59726 0
5.2740002 0.84196788 0.59741879 0
5.2780004 0.83389765 0.59757751 0
5.2820005 0.82581306 0.59773624 0
5.2860003 0.81771386 0.59789497 0
5.2900004 0.80960041 0.59805369 0
5.2940001 0.80147237 0.59821242 0
5.2980003 0.79333001 0.59837115 0
5.3020005 0.78517318 0.59852993 0
5.3060002 0.77700192 0.59868866 0
5.3100004 0.76881629 0.59884739 0
5.3140001 0.76061612 0.59900612 0
5.3180003 0.75240159 0.59916484 0
5.3220005 0.74417269 0.59932363 0
5.3260002 0.73592919 0.5994823 0
5.3300004 0.72767138 0.59964108 0
5.3340001 0.71939909 0.59979975 0
5.3380003 0.71111238 0.59995854 0
5.3420005 0.7028113 0.60011727 0
5.3470001 0.69464546 0.60031569 0
5.3510003 0.68631369 0.60047442 0
5.3550005 0.67796749 0.60063314 0
5.3590002 0.66960675 0.60079187 0
5.3630004 0.66123176 0.6009506 0
5.3670001 0.65284216 0.60110939 0
5.1090002 1.1771551 0.58237678 0
5.1120005 1.1694349 0.58249044 0
5.1160002 1.1619598 0.58264196 0
5.1200004 1.1544704 0.58279347 0
5.1240005 1.1469666 0.58294499 0
5.1270003 1.1391976 0.58305866 0
5.1310005 1.1316668 0.58321017 0
5.1350002 1.1241213 0.58336169 0
5.1390004 1.1165617 0.5835132 0
5.1420002 1.1087439 0.58362687 0
5.1460004 1.1011572 0.58377838 0
5.1500001 1.0935558 0.5839299 0
5.1540003 1.0859401 0.58408141 0
5.1570005 1.0780739 0.58419508 0
5.1610003 1.070431 0.58434653 0
5.1650004 1.0627739 0.58449811 0
5.1690001 1.0551022 0.58464956 0
5.1730003 1.0474162 0.58480114 0
5.1770005 1.0397158 0.58495265 0
5.1800003 1.0317754 0.58506632 0
5.1840005 1.024048 0.58521783 0
5.1880002 1.0163059 0.58536935 0
5.1920004 1.0085496 0.58552086 0
5.1960001 1.0007787 0.58567238 0
5.2000003 0.99299347 0.58582389 0
5.2030005 0.98497927 0.5859375 0
5.2070003 0.97716689 0.58608902 0
5.2110004 0.96934021 0.58624053 0
5.2150002 0.96149898 0.58639205 0
5.2190003 0.9536435 0.58654362 0
5.2230005 0.94577342 0.58669513 0
5.2270002 0.93788892 0.58684665 0
5.2310004 0.92999011 0.58699816 0
5.2340002 0.92187661 0.58711183 0
5.2380004 0.91395074 0.58726335 0
5.2420001 0.90601027 0.58741486 0
5.2460003 0.89805555 0.58756638 0
5.2500005 0.89008623 0.58771789 0
5.2540002 0.88210255 0.58786941 0
5.2580004 0.87410456 0.58802092 0
5.2620006 0.86609203 0.58817244 0
5.2660003 0.85806507 0.58832395 0
5.2700005 0.85002375 0.58847547 0
5.2740002 0.84196788 0.58862698 0
5.2780004 0.83389765 0.5887785 0
5.2820005 0.82581306 0.58893007 0
5.2860003 0.81771386 0.58908153 0
5.2900004 0.80960041 0.5892331 0
5.2940001 0.80147237 0.58938462 0
5.2980003 0.79333001 0.58953613 0
5.3020005 0.78517318 0.58968765 0
5.3060002 0.77700192 0.58983916 0
5.3100004 0.76881629 0.58999068 0
5.3140001 0.76061612 0.59014219 0
5.3180003 0.75240159 0.59029371 0
5.3220005 0.74417269 0.59044528 0
5.3260002 0.73592919 0.59059674 0
5.3300004 0.72767138 0.59074831 0
5.3340001 0.71939909 0.59089983 0
5.3380003 0.71111238 0.59105134 0
5.3420005 0.7028113 0.59120286 0
5.3470001 0.69464546 0.59139222 0
5.3510003 0.68631369 0.59154379 0
5.3550005 0.67796749 0.59169531 0
5.3590002 0.66960675 0.59184682 0
5.3630004 0.66123176 0.59199834 0
5.3670001 0.65284216 0.59214985 0
5.1090002 1.1771551 0.5738827 0
5.1120005 1.1694349 0.57399088 0
5.1160002 1.1619598 0.57413518 0
5.1200004 1.1544704 0.57427955 0
5.1240005 1.1469666 0.57442385 0
5.1270003 1.1391976 0.57453203 0
5.1310005 1.1316668 0.57467639 0
5.1350002 1.1241213 0.57482064 0
5.1390004 1.1165617 0.57496494 0
5.1420002 1.1087439 0.57507318 0
5.1460004 1.1011572 0.57521749 0
5.1500001 1.0935558 0.57536179 0
5.1540003 1.0859401 0.57550609 0
5.1570005 1.0780739 0.57561433 0
5.1610003 1.070431 0.57575864 0
5.1650004 1.0627739 0.57590294 0
5.1690001 1.0551022 0.57604724 0
5.1730003 1.0474162 0.57619154 0
5.1770005 1.0397158 0.57633585 0
5.1800003 1.0317754 0.57644409 0
5.1840005 1.024048 0.57658839 0
5.1880002 1.0163059 0.5767327 0
5.1920004 1.0085496 0.576877 0
5.1960001 1.0007787 0.5770213 0
5.2000003 0.99299347 0.5771656 0
5.2030005 0.98497927 0.57727385 0
5.2070003 0.97716689 0.57741815 0
5.2110004 0.96934021 0.57756245 0
5.2150002 0.96149898 0.57770675 0
5.2190003 0.9536435 0.57785106 0
5.2230005 0.94577342 0.57799536 0
5.2270002 0.93788892 0.57813966 0
5.2310004 0.92999011 0.57828397 0
5.2340002 0.92187661 0.57839221 0
5.2380004 0.91395074 0.57853651 0
5.2420001 0.90601027 0.57868075 0
5.2460003 0.89805555 0.57882512 0
5.2500005 0.89008623 0.57896942 0
5.2540002 0.88210255 0.57911372 0
5.2580004 0.87410456 0.57925802 0
5.2620006 0.86609203 0.57940233 0
5.2660003 0.85806507 0.57954663 0
5.2700005 0.85002375 0.57969093 0
5.2740002 0.84196788 0.57983524 0
5.2780004 0.83389765 0.57997954 0
5.2820005 0.82581306 0.58012384 0
5.2860003 0.81771386 0.58026814 0
5.2900004 0.80960041 0.58041245 0
5.2940001 0.80147237 0.58055675 0
5.2980003 0.79333001 0.58070105 0
5.3020005 0.78517318 0.58084536 0
5.3060002 0.77700192 0.58098966 0
5.3100004 0.76881629 0.58113396 0
5.3140001 0.76061612 0.58127826 0
5.3180003 0.75240159 0.58142257 0
5.3220005 0.74417269 0.58156693 0
5.3260002 0.73592919 0.58171117 0
5.3300004 0.72767138 0.58185554 0
5.3340001 0.71939909 0.58199978 0
5.3380003 0.71111238 0.58214414 0
5.3420005 0.7028113 0.58228844 0
5.3470001 0.69464546 0.58246881 0
5.3510003 0.68631369 0.58261311 0
5.3550005 0.67796749 0.58275741 0
5.3590002 0.66960675 0.58290172 0
5.3630004 0.66123176 0.58304602 0
5.3670001 0.65284216 0.58319032 0
5.1090002 1.1771551 0.56538856 0
5.1120005 1.1694349 0.56549138 0
5.1160002 1.1619598 0.56562841 0
5.1200004 1.1544704 0.56576556 0
5.1240005 1.1469666 0.56590265 0
5.1270003 1.1391976 0.56600547 0
5.1310005 1.1316668 0.56614256 0
5.1350002 1.1241213 0.56627965 0
5.1390004 1.1165617 0.56641674 0
5.1420002 1.1087439 0.5665195 0
5.1460004 1.1011572 0.56665659 0
5.1500001 1.0935558 0.56679368 0
5.1540003 1.0859401 0.56693077 0
5.1570005 1.0780739 0.56703365 0
5.1610003 1.070431 0.56717068 0
5.1650004 1.0627739 0.56730777 0
5.1690001 1.0551022 0.56744486 0
5.1730003 1.0474162 0.56758195 0
5.1760001 1.0394884 0.56768477 0
5.1800003 1.0317754 0.56782186 0
5.1840005 1.024048 0.56795895 0
5.1880002 1.0163059 0.56809604 0
5.1920004 1.0085496 0.56823313 0
5.1960001 1.0007787 0.56837022 0
5.2000003 0.99299347 0.56850731 0
5.2030005 0.98497927 0.56861019 0
5.2070003 0.97716689 0.56874722 0
5.2110004 0.96934021 0.56888431 0
5.2150002 0.96149898 0.5690214 0
5.2190003 0.9536435 0.56915849 0
5.2230005 0.94577342 0.56929559 0
5.2270002 0.93788892 0.56943268 0
5.2310004 0.92999011 0.56956977 0
5.2340002 0.92187661 0.56967258 0
5.2380004 0.91395074 0.56980968 0
5.2420001 0.90601027 0.56994677 0
5.2460003 0.89805555 0.57008386 0
5.2500005 0.89008623 0.57022095 0
5.2540002 0.88210255 0.57035804 0
5.2580004 0.87410456 0.57049513 0
5.2620006 0.86609203 0.57063222 0
5.2660003 0.85806507 0.57076931 0
5.2700005 0.85002375 0.5709064 0
5.2740002 0.84196788 0.57104349 0
5.2780004 0.83389765 0.57118058 0
5.2820005 0.82581306 0.57131767 0
5.2860003 0.81771386 0.57145476 0
5.2900004 0.80960041 0.57159185 0
5.2940001 0.80147237 0.57172894 0
5.2980003 0.79333001 0.57186604 0
5.3020005 0.78517318 0.57200313 0
5.3060002 0.77700192 0.57214022 0
5.3100004 0.76881629 0.57227731 0
5.3140001 0.76061612 0.57241434 0
5.3180003 0.75240159 0.57255149 0
5.3220005 0.74417269 0.57268858 0
5.3260002 0.73592919 0.57282567 0
5.3300004 0.72767138 0.57296276 0
5.3340001 0.71939909 0.57309985 0
5.3380003 0.71111238 0.57323694 0
5.3420005 0.7028113 0.57337403 0
5.3470001 0.69464546 0.57354534 0
5.3510003 0.68631369 0.57368243 0
5.3550005 0.67796749 0.57381952 0
5.3590002 0.66960675 0.57395661 0
5.3630004 0.66123176 0.5740937 0
5.3670001 0.65284216 0.57423079 0
5.1090002 1.1771551 0.55689442 0
5.1120005 1.1694349 0.55699182 0
5.1160002 1.1619598 0.55712169 0
5.1200004 1.1544704 0.55725157 0
5.1240005 1.1469666 0.55738145 0
5.1270003 1.1391976 0.55747885 0
5.1310005 1.1316668 0.55760872 0
5.1350002 1.1241213 0.5577386 0
5.1390004 1.1165617 0.55786848 0
5.1420002 1.1087439 0.55796587 0
5.1460004 1.1011572 0.55809575 0
5.1500001 1.0935558 0.55822563 0
5.1540003 1.0859401 0.55835551 0
5.1570005 1.0780739 0.5584529 0
5.1610003 1.070431 0.55858278 0
5.1650004 1.0627739 0.55871266 0
5.1690001 1.0551022 0.55884254 0
5.1730003 1.0474162 0.55897236 0
5.1760001 1.0394884 0.55906981 0
5.1800003 1.0317754 0.55919969 0
5.1840005 1.024048 0.55932957 0
5.1880002 1.0163059 0.55945945 0
5.1920004 1.0085496 0.55958927 0
5.1960001 1.0007787 0.5597192 0
5.2000003 0.99299347 0.55984902 0
5.2030005 0.98497927 0.55994648 0
5.2070003 0.97716689 0.56007636 0
5.2110004 0.96934021 0.56020617 0
5.2150002 0.96149898 0.56033605 0
5.2190003 0.9536435 0.56046593 0
5.2230005 0.94577342 0.56059587 0
5.2270002 0.93788892 0.56072569 0
5.2310004 0.92999011 0.56085557 0
5.2340002 0.92187661 0.56095296 0
5.2380004 0.91395074 0.56108284 0
5.2420001 0.90601027 0.56121272 0
5.2460003 0.89805555 0.5613426 0
5.2500005 0.89008623 0.56147248 0
5.2540002 0.88210255 0.56160235 0
5.2580004 0.87410456 0.56173223 0
5.2620006 0.86609203 0.56186211 0
5.2660003 0.85806507 0.56199199 0
5.2700005 0.85002375 0.56212187 0
5.2740002 0.84196788 0.56225169 0
5.2780004 0.83389765 0.56238157 0
5.2820005 0.82581306 0.56251144 0
5.2860003 0.81771386 0.56264132 0
5.2900004 0.80960041 0.5627712 0
5.2940001 0.80147237 0.56290108 0
5.2980003 0.79333001 0.56303096 0
5.3020005 0.78517318 0.56316084 0
5.3060002 0.77700192 0.56329072 0
5.3100004 0.76881629 0.56342059 0
5.3140001 0.76061612 0.56355047 0
5.3180003 0.75240159 0.56368035 0
5.3220005 0.74417269 0.56381023 0
5.3260002 0.73592919 0.56394005 0
5.3300004 0.72767138 0.56406999 0
5.3340001 0.71939909 0.56419981 0
5.3380003 0.71111238 0.56432968 0
5.3420005 0.7028113 0.56445956 0
5.3470001 0.69464546 0.56462193 0
5.3510003 0.68631369 0.5647518 0
5.3550005 0.67796749 0.56488168 0
5.3590002 0.66960675 0.56501156 0
5.3630004 0.66123176 0.56514144 0
5.3670001 0.65284216 0.56527126 0
5.1090002 1.1771551 0.54840028 0
5.1120005 1.1694349 0.54849225 0
5.1160002 1.1619598 0.54861492 0
5.1200004 1.1544704 0.54873759 0
5.1240005 1.1469666 0.54886025 0
5.1270003 1.1391976 0.54895222 0
5.1310005 1.1316668 0.54907489 0
5.1350002 1.1241213 0.54919755 0
5.1390004 1.1165617 0.54932022 0
5.1420002 1.1087439 0.54941219 0
5.1460004 1.1011572 0.54953486 0
5.1500001 1.0935558 0.54965752 0
5.1540003 1.0859401 0.54978019 0
5.1570005 1.0780739 0.54987216 0
5.1610003 1.070431 0.54999483 0
5.1650004 1.0627739 0.55011749 0
5.1690001 1.0551022 0.55024016 0
5.1730003 1.0474162 0.55036283 0
5.1760001 1.0394884 0.5504548 0
5.1800003 1.0317754 0.55057746 0
5.1840005 1.024048 0.55070013 0
5.1880002 1.0163059 0.55082279 0
5.1920004 1.0085496 0.55094546 0
5.1960001 1.0007787 0.55106807 0
5.2000003 0.99299347 0.55119073 0
5.2030005 0.98497927 0.55128276 0
5.2070003 0.97716689 0.55140543 0
5.2110004 0.96934021 0.5515281 0
5.2150002 0.96149898 0.55165076 0
5.2190003 0.9536435 0.55177343 0
5.2230005 0.94577342 0.55189604 0
5.2270002 0.93788892 0.5520187 0
5.2310004 0.92999011 0.55214137 0
5.2340002 0.92187661 0.55223334 0
5.2380004 0.91395074 0.552356 0
5.2420001 0.90601027 0.55247867 0
5.2460003 0.89805555 0.55260134 0
5.2500005 0.89008623 0.552724 0
5.2540002 0.88210255 0.55284667 0
5.2580004 0.87410456 0.55296934 0
5.2620006 0.86609203 0.553092 0
5.2660003 0.85806507 0.55321461 0
5.2700005 0.85002375 0.55333734 0
5.2740002 0.84196788 0.55345994 0
5.2780004 0.83389765 0.55358261 0
5.2820005 0.82581306 0.55370528 0
5.2860003 0.81771386 0.55382794 0
5.2900004 0.80960041 0.55395061 0
5.2940001 0.80147237 0.55407321 0
5.2980003 0.79333001 0.55419588 0
5.3020005 0.78517318 0.55431855 0
5.3060002 0.77700192 0.55444121 0
5.3100004 0.76881629 0.55456388 0
5.3140001 0.76061612 0.55468655 0
5.3180003 0.75240159 0.55480921 0
5.3220005 0.74417269 0.55493188 0
5.3260002 0.73592919 0.55505455 0
5.3300004 0.72767138 0.55517721 0
5.3340001 0.71939909 0.55529982 0
5.3380003 0.71111238 0.55542248 0
5.3420005 0.7028113 0.55554515 0
5.3470001 0.69464546 0.55569845 0
5.3510003 0.68631369 0.55582118 0
5.3550005 0.67796749 0.55594379 0
5.3590002 0.66960675 0.55606645 0
5.3630004 0.66123176 0.55618912 0
5.3670001 0.65284216 0.55631179 0
5.1090002 1.1771551 0.53990614 0
5.1120005 1.1694349 0.53999275 0
5.1160002 1.1619598 0.54010814 0
5.1200004 1.1544704 0.5402236 0
5.1240005 1.1469666 0.54033905 0
5.1270003 1.1391976 0.54042566 0
5.1310005 1.1316668 0.54054105 0
5.1350002 1.1241213 0.54065651 0
5.1390004 1.1165617 0.54077196 0
5.1420002 1.1087439 0.54085857 0
5.1460004 1.1011572 0.54097402 0
5.1500001 1.0935558 0.54108942 0
5.1540003 1.0859401 0.54120487 0
5.1570005 1.0780739 0.54129148 0
5.1610003 1.070431 0.54140693 0
5.1650004 1.0627739 0.54152238 0
5.1690001 1.0551022 0.54163778 0
5.1730003 1.0474162 0.54175323 0
5.1760001 1.0394884 0.54183984 0
5.1800003 1.0317754 0.54195523 0
5.1840005 1.024048 0.54207075 0
5.1880002 1.0163059 0.54218614 0
5.1920004 1.0085496 0.5423016 0
5.1960001 1.0007787 0.54241705 0
5.2000003 0.99299347 0.5425325 0
5.2030005 0.98497927 0.54261911 0
5.2070003 0.97716689 0.5427345 0
5.2110004 0.96934021 0.54284996 0
5.2150002 0.96149898 0.54296541 0
5.2190003 0.9536435 0.54308087 0
5.2230005 0.94577342 0.54319632 0
5.2270002 0.93788892 0.54331172 0
5.2310004 0.92999011 0.54342717 0
5.2340002 0.92187661 0.54351377 0
5.2380004 0.91395074 0.54362917 0
5.2420001 0.90601027 0.54374462 0
5.2460003 0.89805555 0.54386008 0
5.2500005 0.89008623 0.54397553 0
5.2540002 0.88210255 0.54409099 0
5.2580004 0.87410456 0.54420644 0
5.2620006 0.86609203 0.54432189 0
5.2660003 0.85806507 0.54443729 0
5.2700005 0.85002375 0.54455274 0
5.2740002 0.84196788 0.5446682 0
5.2780004 0.83389765 0.54478365 0
5.2820005 0.82581306 0.54489911 0
5.2860003 0.81771386 0.5450145 0
5.2900004 0.80960041 0.54512995 0
5.2940001 0.80147237 0.54524541 0
5.2980003 0.79333001 0.54536086 0
5.3020005 0.78517318 0.54547632 0
5.3060002 0.77700192 0.54559171 0
5.3100004 0.76881629 0.54570723 0
5.3140001 0.76061612 0.54582262 0
5.3180003 0.75240159 0.54593807 0
5.3220005 0.74417269 0.54605353 0
5.3260002 0.73592919 0.54616892 0
5.3300004 0.72767138 0.54628444 0
5.3340001 0.71939909 0.54639983 0
5.3380003 0.71111238 0.54651529 0
5.3420005 0.7028113 0.54663074 0
5.3470001 0.69464546 0.54677504 0
5.3510003 0.68631369 0.5468905 0
5.3550005 0.67796749 0.54700595 0
5.3590002 0.66960675 0.54712141 0
5.3630004 0.66123176 0.5472368 0
5.3670001 0.65284216 0.54735225 0
5.1090002 1.1771551 0.53141201 0
5.1120005 1.1694349 0.53149319 0
5.1160002 1.1619598 0.53160143 0
5.1200004 1.1544704 0.53170967 0
5.1240005 1.1469666 0.53181785 0
5.1270003 1.1391976 0.53189903 0
5.1310005 1.1316668 0.53200728 0
5.1350002 1.1241213 0.53211546 0
5.1390004 1.1165617 0.5322237 0
5.1420002 1.1087439 0.53230488 0
5.1460004 1.1011572 0.53241313 0
5.1500001 1.0935558 0.53252137 0
5.1540003 1.0859401 0.53262961 0
5.1570005 1.0780739 0.53271073 0
5.1610003 1.070431 0.53281897 0
5.1650004 1.0627739 0.53292722 0
5.1690001 1.0551022 0.53303546 0
5.1730003 1.0474162 0.53314364 0
5.1760001 1.0394884 0.53322482 0
5.1800003 1.0317754 0.53333306 0
5.1840005 1.024048 0.53344131 0
5.1880002 1.0163059 0.53354955 0
5.1920004 1.0085496 0.53365779 0
5.1960001 1.0007787 0.53376597 0
5.2000003 0.99299347 0.53387421 0
5.2030005 0.98497927 0.5339554 0
5.2070003 0.97716689 0.53406358 0
5.2110004 0.96934021 0.53417182 0
5.2150002 0.96149898 0.53428006 0
5.2190003 0.9536435 0.5343883 0
5.2230005 0.94577342 0.53449655 0
5.2270002 0.93788892 0.53460473 0
5.2310004 0.92999011 0.53471297 0
5.2340002 0.92187661 0.53479415 0
5.2380004 0.91395074 0.53490239 0
5.2420001 0.90601027 0.53501058 0
5.2460003 0.89805555 0.53511882 0
5.2500005 0.89008623 0.53522706 0
5.2540002 0.88210255 0.5353353 0
5.2580004 0.87410456 0.53544354 0
5.2620006 0.86609203 0.53555179 0
5.2660003 0.85806507 0.53565997 0
5.2700005 0.85002375 0.53576821 0
5.2740002 0.84196788 0.53587639 0
5.2780004 0.83389765 0.53598464 0
5.2820005 0.82581306 0.53609288 0
5.2860003 0.81771386 0.53620112 0
5.2900004 0.80960041 0.53630936 0
5.2940001 0.80147237 0.5364176 0
5.2980003 0.79333001 0.53652579 0
5.3020005 0.78517318 0.53663403 0
5.3060002 0.77700192 0.53674227 0
5.3100004 0.76881629 0.53685045 0
5.3140001 0.76061612 0.53695869 0
5.3180003 0.75240159 0.53706694 0
5.3220005 0.74417269 0.53717518 0
5.3260002 0.73592919 0.53728342 0
5.3300004 0.72767138 0.53739166 0
5.3340001 0.71939909 0.53749985 0
5.3380003 0.71111238 0.53760809 0
5.3420005 0.7028113 0.53771633 0
5.3470001 0.69464546 0.53785157 0
5.3510003 0.68631369 0.53795981 0
5.3550005 0.67796749 0.53806806 0
5.3590002 0.66960675 0.5381763 0
5.3630004 0.66123176 0.53828454 0
5.3670001 0.65284216 0.53839272 0
5.1090002 1.1771551 0.52291787 0
5.1120005 1.1694349 0.52299362 0
5.1160002 1.1619598 0.52309465 0
5.1200004 1.1544704 0.52319568 0
5.1240005 1.1469666 0.52329671 0
5.1270003 1.1391976 0.52337241 0
5.1310005 1.1316668 0.52347344 0
5.1350002 1.1241213 0.52357447 0
5.1390004 1.1165617 0.5236755 0
5.1420002 1.1087439 0.52375126 0
5.1460004 1.1011572 0.52385223 0
5.1500001 1.0935558 0.52395326 0
5.1540003 1.0859401 0.52405429 0
5.1570005 1.0780739 0.52413005 0
5.1610003 1.070431 0.52423102 0
5.1650004 1.0627739 0.52433205 0
5.1690001 1.0551022 0.52443308 0
5.1730003 1.0474162 0.52453411 0
5.1760001 1.0394884 0.52460986 0
5.1800003 1.0317754 0.52471089 0
5.1840005 1.024048 0.52481186 0
5.1880002 1.0163059 0.52491289 0
5.1920004 1.0085496 0.52501392 0
5.1960001 1.0007787 0.52511489 0
5.2000003 0.99299347 0.52521592 0
5.2030005 0.98497927 0.52529168 0
5.2070003 0.97716689 0.52539271 0
5.2110004 0.96934021 0.52549374 0
5.2150002 0.96149898 0.52559471 0
5.2190003 0.9536435 0.52569574 0
5.2230005 0.94577342 0.52579677 0
5.2270002 0.93788892 0.52589774 0
5.2310004 0.92999011 0.52599877 0
5.2340002 0.92187661 0.52607453 0
5.2380004 0.91395074 0.52617556 0
5.2420001 0.90601027 0.52627659 0
5.2460003 0.89805555 0.52637756 0
5.2500005 0.89008623 0.52647859 0
5.2540002 0.88210255 0.52657962 0
5.2580004 0.87410456 0.52668059 0
5.2620006 0.86609203 0.52678162 0
5.2660003 0.85806507 0.52688265 0
5.2700005 0.85002375 0.52698368 0
5.2740002 0.84196788 0.52708465 0
5.2780004 0.83389765 0.52718568 0
5.2820005 0.82581306 0.52728671 0
5.2860003 0.81771386 0.52738774 0
5.2900004 0.80960041 0.52748871 0
5.2940001 0.80147237 0.52758974 0
5.2980003 0.79333001 0.52769077 0
5.3020005 0.78517318 0.52779174 0
5.3060002 0.77700192 0.52789277 0
5.3100004 0.76881629 0.5279938 0
5.3140001 0.76061612 0.52809477 0
5.3180003 0.75240159 0.5281958 0
5.3220005 0.74417269 0.52829683 0
5.3260002 0.73592919 0.52839786 0
5.3300004 0.72767138 0.52849889 0
5.3340001 0.71939909 0.52859986 0
5.3380003 0.71111238 0.52870089 0
5.3420005 0.7028113 0.52880192 0
5.3470001 0.69464546 0.52892816 0
5.3510003 0.68631369 0.52902919 0
5.3550005 0.67796749 0.52913022 0
5.3590002 0.66960675 0.52923119 0
5.3630004 0.66123176 0.52933222 0
5.3670001 0.65284216 0.52943325 0
5.1090002 1.1771551 0.51442373 0
5.1120005 1.1694349 0.51449406 0
5.1160002 1.1619598 0.51458788 0
5.1200004 1.1544704 0.5146817 0
5.1240005 1.1469666 0.51477551 0
5.1270003 1.1391976 0.51484585 0
5.1310005 1.1316668 0.51493967 0
5.1350002 1.1241213 0.51503342 0
5.1390004 1.1165617 0.51512724 0
5.1420002 1.1087439 0.51519758 0
5.1460004 1.1011572 0.51529139 0
5.1500001 1.0935558 0.51538515 0
5.1540003 1.0859401 0.51547897 0
5.1570005 1.0780739 0.5155493 0
5.1610003 1.070431 0.51564312 0
5.1650004 1.0627739 0.51573694 0
5.1690001 1.0551022 0.5158307 0
5.1730003 1.0474162 0.51592451 0
5.1760001 1.0394884 0.51599485 0
5.1800003 1.0317754 0.51608866 0
5.1840005 1.024048 0.51618248 0
5.1880002 1.0163059 0.51627624 0
5.1920004 1.0085496 0.51637006 0
5.1960001 1.0007787 0.51646388 0
5.2000003 0.99299347 0.51655763 0
5.2030005 0.98497927 0.51662803 0
5.2070003 0.97716689 0.51672179 0
5.2110004 0.96934021 0.5168156 0
5.2150002 0.96149898 0.51690936 0
5.2190003 0.9536435 0.51700318 0
5.2230005 0.94577342 0.517097 0
5.2270002 0.93788892 0.51719081 0
5.2310004 0.92999011 0.51728457 0
5.2340002 0.92187661 0.51735491 0
5.2380004 0.91395074 0.51744872 0
5.2420001 0.90601027 0.51754254 0
5.2460003 0.89805555 0.5176363 0
5.2500005 0.89008623 0.51773012 0
5.2540002 0.88210255 0.51782393 0
5.2580004 0.87410456 0.51791775 0
5.2620006 0.86609203 0.51801151 0
5.2660003 0.85806507 0.51810533 0
5.2700005 0.85002375 0.51819909 0
5.2740002 0.84196788 0.5182929 0
5.2780004 0.83389765 0.51838672 0
5.2820005 0.82581306 0.51848054 0
5.2860003 0.81771386 0.5185743 0
5.2900004 0.80960041 0.51866812 0
5.2940001 0.80147237 0.51876187 0
5.2980003 0.79333001 0.51885569 0
5.3020005 0.78517318 0.51894951 0
5.3060002 0.77700192 0.51904327 0
5.3100004 0.76881629 0.51913708 0
5.3140001 0.76061612 0.5192309 0
5.3180003 0.75240159 0.51932466 0
5.3220005 0.74417269 0.51941848 0
5.3260002 0.73592919 0.5195123 0
5.3300004 0.72767138 0.51960611 0
5.3340001 0.71939909 0.51969987 0
5.3380003 0.71111238 0.51979369 0
5.3420005 0.7028113 0.51988745 0
5.3470001 0.69464546 0.52000469 0
5.3510003 0.68631369 0.52009851 0
5.3550005 0.67796749 0.52019233 0
5.3590002 0.66960675 0.52028614 0
5.3630004 0.66123176 0.5203799 0
5.3670001 0.65284216 0.52047372 0
5.1090002 1.1771551 0.50592959 0
5.1120005 1.1694349 0.50599456 0
5.1160002 1.1619598 0.5060811 0
5.1200004 1.1544704 0.50616771 0
5.1240005 1.1469666 0.50625432 0
5.1270003 1.1391976 0.50631922 0
5.1310005 1.1316668 0.50640583 0
5.1350002 1.1241213 0.50649238 0
5.1390004 1.1165617 0.50657898 0
5.1420002 1.1087439 0.50664389 0
5.1460004 1.1011572 0.5067305 0
5.1500001 1.0935558 0.5068171 0
5.1540003 1.0859401 0.50690365 0
5.1570005 1.0780739 0.50696862 0
5.1610003 1.070431 0.50705516 0
5.1650004 1.0627739 0.50714177 0
5.1690001 1.0551022 0.50722837 0
5.1730003 1.0474162 0.50731492 0
5.1760001 1.0394884 0.50737989 0
5.1800003 1.0317754 0.50746644 0
5.1840005 1.024048 0.50755304 0
5.1880002 1.0163059 0.50763965 0
5.1920004 1.0085496 0.50772619 0
5.1960001 1.0007787 0.5078128 0
5.2000003 0.99299347 0.50789934 0
5.2030005 0.98497927 0.50796431 0
5.2070003 0.97716689 0.50805092 0
5.2110004 0.96934021 0.50813746 0
5.2150002 0.96149898 0.50822407 0
5.2190003 0.9536435 0.50831062 0
5.2230005 0.94577342 0.50839722 0
5.2270002 0.93788892 0.50848383 0
5.2310004 0.92999011 0.50857037 0
5.2340002 0.92187661 0.50863534 0
5.2380004 0.91395074 0.50872189 0
5.2420001 0.90601027 0.50880849 0
5.2460003 0.89805555 0.50889504 0
5.2500005 0.89008623 0.50898165 0
5.2540002 0.88210255 0.50906825 0
5.2580004 0.87410456 0.5091548 0
5.2620006 0.86609203 0.5092414 0
5.2660003 0.85806507 0.50932801 0
5.2700005 0.85002375 0.50941455 0
5.2740002 0.84196788 0.50950116 0
5.2780004 0.83389765 0.50958776 0
5.2820005 0.82581306 0.50967431 0
5.2860003 0.81771386 0.50976092 0
5.2900004 0.80960041 0.50984746 0
5.2940001 0.80147237 0.50993407 0
5.2980003 0.79333001 0.51002061 0
5.3020005 0.78517318 0.51010722 0
5.3060002 0.77700192 0.51019382 0
5.3100004 0.76881629 0.51028037 0
5.3140001 0.76061612 0.51036698 0
5.3180003 0.75240159 0.51045358 0
5.3220005 0.74417269 0.51054013 0
5.3260002 0.73592919 0.51062673 0
5.3300004 0.72767138 0.51071334 0
5.3340001 0.71939909 0.51079988 0
5.3380003 0.71111238 0.51088649 0
5.3420005 0.7028113 0.51097304 0
5.3470001 0.69464546 0.51108128 0
5.3510003 0.68631369 0.51116788 0
5.3550005 0.67796749 0.51125443 0
5.3590002 0.66960675 0.51134104 0
5.3630004 0.66123176 0.51142764 0
5.3670001 0.65284216 0.51151419 0
5.1090002 1.1771551 0.49743548 0
5.1120005 1.1694349 0.497495 0
5.1160002 1.1619598 0.49757436 0
5.1200004 1.1544704 0.49765372 0
5.1240005 1.1469666 0.49773312 0
5.1270003 1.1391976 0.49779263 0
5.1310005 1.1316668 0.49787199 0
5.1350002 1.1241213 0.49795136 0
5.1390004 1.1165617 0.49803072 0
5.1420002 1.1087439 0.49809027 0
5.1460004 1.1011572 0.49816963 0
5.1500001 1.0935558 0.49824899 0
5.1540003 1.0859401 0.49832836 0
5.1570005 1.0780739 0.49838787 0
5.1610003 1.070431 0.49846727 0
5.1650004 1.0627739 0.49854663 0
5.1690001 1.0551022 0.49862599 0
5.1730003 1.0474162 0.49870536 0
5.1760001 1.0394884 0.49876487 0
5.1800003 1.0317754 0.49884427 0
5.1840005 1.024048 0.49892363 0
5.1880002 1.0163059 0.49900299 0
5.1920004 1.0085496 0.49908236 0
5.1960001 1.0007787 0.49916172 0
5.2000003 0.99299347 0.49924108 0
5.2030005 0.98497927 0.4993006 0
5.2070003 0.97716689 0.49937999 0
5.2110004 0.96934021 0.49945936 0
5.2150002 0.96149898 0.49953872 0
5.2190003 0.9536435 0.49961808 0
5.2230005 0.94577342 0.49969745 0
5.2270002 0.93788892 0.49977681 0
5.2310004 0.92999011 0.49985617 0
5.2340002 0.92187661 0.49991572 0
5.2380004 0.91395074 0.49999508 0
5.2420001 0.90601027 0.50007445 0
5.2460003 0.89805555 0.50015384 0
5.2500005 0.89008623 0.50023317 0
5.2540002 0.88210255 0.50031257 0
5.2580004 0.87410456 0.5003919 0
5.2620006 0.86609203 0.50047129 0
5.2660003 0.85806507 0.50055063 0
5.2700005 0.85002375 0.50063002 0
5.2740002 0.84196788 0.50070941 0
5.2780004 0.83389765 0.50078875 0
5.2820005 0.82581306 0.50086814 0
5.2860003 0.81771386 0.50094748 0
5.2900004 0.80960041 0.50102687 0
5.2940001 0.80147237 0.5011062 0
5.2980003 0.79333001 0.5011856 0
5.3020005 0.78517318 0.50126499 0
5.3060002 0.77700192 0.50134432 0
5.3100004 0.76881629 0.50142372 0
5.3140001 0.76061612 0.50150305 0
5.3180003 0.75240159 0.50158244 0
5.3220005 0.74417269 0.50166178 0
5.3260002 0.73592919 0.50174117 0
5.3300004 0.72767138 0.50182056 0
5.3340001 0.71939909 0.5018999 0
5.3380003 0.71111238 0.50197929 0
5.3420005 0.7028113 0.50205863 0
5.3470001 0.69464546 0.50215787 0
5.3510003 0.68631369 0.5022372 0
5.3550005 0.67796749 0.50231659 0
5.3590002 0.66960675 0.50239593 0
5.3630004 0.66123176 0.50247532 0
5.3670001 0.65284216 0.50255466 0
5.1090002 1.1771551 0.48894134 0
5.1120005 1.1694349 0.48899546 0
5.1160002 1.1619598 0.48906761 0
5.1200004 1.1544704 0.48913977 0
5.1240005 1.1469666 0.48921192 0
5.1270003 1.1391976 0.48926604 0
5.1310005 1.1316668 0.48933819 0
5.1350002 1.1241213 0.48941034 0
5.1390004 1.1165617 0.48948249 0
5.1420002 1.1087439 0.48953658 0
5.1460004 1.1011572 0.48960876 0
5.1500001 1.0935558 0.48968089 0
5.1540003 1.0859401 0.48975307 0
5.1570005 1.0780739 0.48980719 0
5.1610003 1.070431 0.48987931 0
5.1650004 1.0627739 0.48995149 0
5.1690001 1.0551022 0.49002361 0
5.1730003 1.0474162 0.49009579 0
5.1760001 1.0394884 0.49014989 0
5.1800003 1.0317754 0.49022204 0
5.1840005 1.024048 0.49029422 0
5.1880002 1.0163059 0.49036634 0
5.1920004 1.0085496 0.49043852 0
5.1960001 1.0007787 0.49051064 0
5.2000003 0.99299347 0.49058282 0
5.2030005 0.98497927 0.49063694 0
5.2070003 0.97716689 0.49070907 0
5.2110004 0.96934021 0.49078125 0
5.2150002 0.96149898 0.49085337 0
5.2190003 0.9536435 0.49092555 0
5.2230005 0.94577342 0.49099767 0
5.2270002 0.93788892 0.49106982 0
5.2310004 0.92999011 0.491142 0
5.2340002 0.92187661 0.4911961 0
5.2380004 0.91395074 0.49126828 0
5.2420001 0.90601027 0.4913404 0
5.2460003 0.89805555 0.49141258 0
5.2500005 0.89008623 0.4914847 0
5.2540002 0.88210255 0.49155685 0
5.2580004 0.87410456 0.491629 0
5.2620006 0.86609203 0.49170119 0
5.2660003 0.85806507 0.49177331 0
5.2700005 0.85002375 0.49184549 0
5.2740002 0.84196788 0.49191761 0
5.2780004 0.83389765 0.49198979 0
5.2820005 0.82581306 0.49206194 0
5.2860003 0.81771386 0.49213409 0
5.2900004 0.80960041 0.49220625 0
5.2940001 0.80147237 0.4922784 0
5.2980003 0.79333001 0.49235055 0
5.3020005 0.78517318 0.4924227 0
5.3060002 0.77700192 0.49249485 0
5.3100004 0.76881629 0.492567 0
5.3140001 0.76061612 0.49263915 0
5.3180003 0.75240159 0.49271131 0
5.3220005 0.74417269 0.49278346 0
5.3260002 0.73592919 0.49285561 0
5.3300004 0.72767138 0.49292776 0
5.3340001 0.71939909 0.49299991 0
5.3380003 0.71111238 0.49307206 0
5.3420005 0.7028113 0.49314421 0
5.3470001 0.69464546 0.4932344 0
5.3510003 0.68631369 0.49330658 0
5.3550005 0.67796749 0.4933787 0
5.3590002 0.66960675 0.49345085 0
5.3630004 0.66123176 0.49352303 0
5.3670001 0.65284216 0.49359515 0
5.1090002 1.1771551 0.4804472 0
5.1120005 1.1694349 0.48049593 0
5.1160002 1.1619598 0.48056084 0
5.1200004 1.1544704 0.48062581 0
5.1240005 1.1469666 0.48069072 0
5.1270003 1.1391976 0.48073941 0
5.1310005 1.1316668 0.48080438 0
5.1350002 1.1241213 0.48086929 0
5.1390004 1.1165617 0.48093423 0
5.1420002 1.1087439 0.48098296 0
5.1460004 1.1011572 0.48104787 0
5.1500001 1.0935558 0.48111281 0
5.1540003 1.0859401 0.48117775 0
5.1570005 1.0780739 0.48122644 0
5.1610003 1.070431 0.48129138 0
5.1650004 1.0627739 0.48135632 0
5.1690001 1.0551022 0.48142126 0
5.1730003 1.0474162 0.4814862 0
5.1760001 1.0394884 0.4815349 0
5.1800003 1.0317754 0.48159984 0
5.1840005 1.024048 0.48166478 0
5.1880002 1.0163059 0.48172972 0
5.1920004 1.0085496 0.48179466 0
5.1960001 1.0007787 0.48185959 0
5.2000003 0.99299347 0.48192453 0
5.2030005 0.98497927 0.48197323 0
5.2070003 0.97716689 0.48203817 0
5.2110004 0.96934021 0.48210311 0
5.2150002 0.96149898 0.48216805 0
5.2190003 0.9536435 0.48223299 0
5.2230005 0.94577342 0.48229793 0
5.2270002 0.93788892 0.48236287 0
5.2310004 0.92999011 0.48242781 0
5.2340002 0.92187661 0.4824765 0
5.2380004 0.91395074 0.48254144 0
5.2420001 0.90601027 0.48260635 0
5.2460003 0.89805555 0.48267132 0
5.2500005 0.89008623 0.48273623 0
5.2540002 0.88210255 0.48280117 0
5.2580004 0.87410456 0.48286611 0
5.2620006 0.86609203 0.48293105 0
5.2660003 0.85806507 0.48299599 0
5.2700005 0.85002375 0.48306093 0
5.2740002 0.84196788 0.48312587 0
5.2780004 0.83389765 0.4831908 0
5.2820005 0.82581306 0.48325574 0
5.2860003 0.81771386 0.48332068 0
5.2900004 0.80960041 0.48338562 0
5.2940001 0.80147237 0.48345053 0
5.2980003 0.79333001 0.4835155 0
5.3020005 0.78517318 0.48358041 0
5.3060002 0.77700192 0.48364535 0
5.3100004 0.76881629 0.48371029 0
5.3140001 0.76061612 0.48377523 0
5.3180003 0.75240159 0.48384017 0
5.3220005 0.74417269 0.48390511 0
5.3260002 0.73592919 0.48397005 0
5.3300004 0.72767138 0.48403499 0
5.3340001 0.71939909 0.48409992 0
5.3380003 0.71111238 0.48416486 0
5.3420005 0.7028113 0.4842298 0
5.3470001 0.69464546 0.48431095 0
5.3510003 0.68631369 0.48437589 0
5.3550005 0.67796749 0.48444086 0
5.3590002 0.66960675 0.48450577 0
5.3630004 0.66123176 0.48457071 0
5.3670001 0.65284216 0.48463565 0
5.1090002 1.1771551 0.47195309 0
5.1120005 1.1694349 0.47199637 0
5.1160002 1.1619598 0.47205409 0
5.1200004 1.1544704 0.47211182 0
5.1240005 1.1469666 0.47216955 0
5.1270003 1.1391976 0.47221282 0
5.1310005 1.1316668 0.47227055 0
5.1350002 1.1241213 0.47232828 0
5.1390004 1.1165617 0.472386 0
5.1420002 1.1087439 0.47242928 0
5.1460004 1.1011572 0.472487 0
5.1500001 1.0935558 0.47254473 0
5.1540003 1.0859401 0.47260246 0
5.1570005 1.0780739 0.47264576 0
5.1610003 1.070431 0.47270346 0
5.1650004 1.0627739 0.47276118 0
5.1690001 1.0551022 0.47281891 0
5.1730003 1.0474162 0.47287664 0
5.1760001 1.0394884 0.47291991 0
5.1800003 1.0317754 0.47297764 0
5.1840005 1.024048 0.47303537 0
5.1880002 1.0163059 0.47309309 0
5.1920004 1.0085496 0.47315079 0
5.1960001 1.0007787 0.47320852 0
5.2000003 0.99299347 0.47326624 0
5.2030005 0.98497927 0.47330955 0
5.2070003 0.97716689 0.47336727 0
5.2110004 0.96934021 0.47342497 0
5.2150002 0.96149898 0.4734827 0
5.2190003 0.9536435 0.47354043 0
5.2230005 0.94577342 0.47359815 0
5.2270002 0.93788892 0.47365588 0
5.2310004 0.92999011 0.47371361 0
5.2340002 0.92187661 0.47375688 0
5.2380004 0.91395074 0.47381461 0
5.2420001 0.90601027 0.47387233 0
5.2460003 0.89805555 0.47393006 0
5.2500005 0.89008623 0.47398776 0
5.2540002 0.88210255 0.47404549 0
5.2580004 0.87410456 0.47410321 0
5.2620006 0.86609203 0.47416094 0
5.2660003 0.85806507 0.47421867 0
5.2700005 0.85002375 0.47427639 0
5.2740002 0.84196788 0.47433412 0
5.2780004 0.83389765 0.47439182 0
5.2820005 0.82581306 0.47444955 0
5.2860003 0.81771386 0.47450727 0
5.2900004 0.80960041 0.474565 0
5.2940001 0.80147237 0.47462273 0
5.2980003 0.79333001 0.47468042 0
5.3020005 0.78517318 0.47473815 0
5.3060002 0.77700192 0.47479588 0
5.3100004 0.76881629 0.47485361 0
5.3140001 0.76061612 0.47491133 0
5.3180003 0.75240159 0.47496903 0
5.3220005 0.74417269 0.47502679 0
5.3260002 0.73592919 0.47508448 0
5.3300004 0.72767138 0.47514221 0
5.3340001 0.71939909 0.47519994 0
5.3380003 0.71111238 0.47525766 0
5.3420005 0.7028113 0.47531539 0
5.3470001 0.69464546 0.47538751 0
5.3510003 0.68631369 0.47544524 0
5.3550005 0.67796749 0.47550297 0
5.3590002 0.66960675 0.47556069 0
5.3630004 0.66123176 0.47561842 0
5.3670001 0.65284216 0.47567612 0
5.1090002 1.1771551 0.46345896 0
5.1120005 1.1694349 0.46349683 0
5.1160002 1.1619598 0.46354732 0
5.1200004 1.1544704 0.46359783 0
5.1240005 1.1469666 0.46364835 0
5.1270003 1.1391976 0.46368623 0
5.1310005 1.1316668 0.46373674 0
5.1350002 1.1241213 0.46378723 0
5.1390004 1.1165617 0.46383774 0
5.1420002 1.1087439 0.46387562 0
5.1460004 1.1011572 0.46392614 0
5.1500001 1.0935558 0.46397662 0
5.1540003 1.0859401 0.46402714 0
5.1570005 1.0780739 0.46406502 0
5.1610003 1.070431 0.46411553 0
5.1650004 1.0627739 0.46416605 0
5.1690001 1.0551022 0.46421653 0
5.1730003 1.0474162 0.46426705 0
5.1760001 1.0394884 0.46430492 0
5.1800003 1.0317754 0.46435544 0
5.1840005 1.024048 0.46440595 0
5.1880002 1.0163059 0.46445644 0
5.1920004 1.0085496 0.46450695 0
5.1960001 1.0007787 0.46455747 0
5.2000003 0.99299347 0.46460798 0
5.2030005 0.98497927 0.46464586 0
5.2070003 0.97716689 0.46469635 0
5.2110004 0.96934021 0.46474686 0
5.2150002 0.96149898 0.46479738 0
5.2190003 0.9536435 0.46484786 0
5.2230005 0.94577342 0.46489838 0
5.2270002 0.93788892 0.46494889 0
5.2310004 0.92999011 0.46499941 0
5.2340002 0.92187661 0.46503729 0
5.2380004 0.91395074 0.46508777 0
5.2420001 0.90601027 0.46513829 0
5.2460003 0.89805555 0.4651888 0
5.2500005 0.89008623 0.46523932 0
5.2540002 0.88210255 0.4652898 0
5.2580004 0.87410456 0.46534032 0
5.2620006 0.86609203 0.46539083 0
5.2660003 0.85806507 0.46544132 0
5.2700005 0.85002375 0.46549183 0
5.2740002 0.84196788 0.46554235 0
5.2780004 0.83389765 0.46559286 0
5.2820005 0.82581306 0.46564335 0
5.2860003 0.81771386 0.46569386 0
5.2900004 0.80960041 0.46574438 0
5.2940001 0.80147237 0.46579486 0
5.2980003 0.79333001 0.46584538 0
5.3020005 0.78517318 0.46589589 0
5.3060002 0.77700192 0.46594641 0
5.3100004 0.76881629 0.46599692 0
5.3140001 0.76061612 0.46604741 0
5.3180003 0.75240159 0.46609792 0
5.3220005 0.74417269 0.46614844 0
5.3260002 0.73592919 0.46619892 0
5.3300004 0.72767138 0.46624944 0
5.3340001 0.71939909 0.46629995 0
5.3380003 0.71111238 0.46635044 0
5.3420005 0.7028113 0.46640095 0
5.3470001 0.69464546 0.4664641 0
5.3510003 0.68631369 0.46651459 0
5.3550005 0.67796749 0.4665651 0
5.3590002 0.66960675 0.46661562 0
5.3630004 0.66123176 0.4666661 0
5.3670001 0.65284216 0.46671662 0
5.1090002 1.1771551 0.45496482 0
5.1120005 1.1694349 0.45499727 0
5.1160002 1.1619598 0.45504057 0
5.1200004 1.1544704 0.45508385 0
5.1240005 1.1469666 0.45512715 0
5.1270003 1.1391976 0.45515963 0
5.1310005 1.1316668 0.45520291 0
5.1350002 1.1241213 0.45524621 0
5.1390004 1.1165617 0.45528948 0
5.1420002 1.1087439 0.45532197 0
5.1460004 1.1011572 0.45536527 0
5.1500001 1.0935558 0.45540854 0
5.1540003 1.0859401 0.45545185 0
5.1570005 1.0780739 0.4554843 0
5.1610003 1.070431 0.4555276 0
5.1650004 1.0627739 0.45557088 0
5.1690001 1.0551022 0.45561418 0
5.1730003 1.0474162 0.45565748 0
5.1760001 1.0394884 0.45568994 0
5.1800003 1.0317754 0.45573324 0
5.1840005 1.024048 0.45577651 0
5.1880002 1.0163059 0.45581982 0
5.1920004 1.0085496 0.45586312 0
5.1960001 1.0007787 0.45590639 0
5.2000003 0.99299347 0.45594969 0
5.2030005 0.98497927 0.45598215 0
5.2070003 0.97716689 0.45602545 0
5.2110004 0.96934021 0.45606875 0
5.2150002 0.96149898 0.45611203 0
5.2190003 0.9536435 0.45615533 0
5.2230005 0.94577342 0.45619863 0
5.2270002 0.93788892 0.45624191 0
5.2310004 0.92999011 0.45628521 0
5.2340002 0.92187661 0.45631766 0
5.2380004 0.91395074 0.45636097 0
5.2420001 0.90601027 0.45640424 0
5.2460003 0.89805555 0.45644754 0
5.2500005 0.89008623 0.45649084 0
5.2540002 0.88210255 0.45653412 0
5.2580004 0.87410456 0.45657742 0
5.2620006 0.86609203 0.45662072 0
5.2660003 0.85806507 0.456664 0
5.2700005 0.85002375 0.4567073 0
5.2740002 0.84196788 0.45675057 0
5.2780004 0.83389765 0.45679387 0
5.2820005 0.82581306 0.45683718 0
5.2860003 0.81771386 0.45688045 0
5.2900004 0.80960041 0.45692375 0
5.2940001 0.80147237 0.45696703 0
5.2980003 0.79333001 0.45701033 0
5.3020005 0.78517318 0.45705363 0
5.3060002 0.77700192 0.4570969 0
5.3100004 0.76881629 0.45714021 0
5.3140001 0.76061612 0.45718348 0
5.3180003 0.75240159 0.45722678 0
5.3220005 0.74417269 0.45727009 0
5.3260002 0.73592919 0.45731336 0
5.3300004 0.72767138 0.45735666 0
5.3340001 0.71939909 0.45739996 0
5.3380003 0.71111238 0.45744324 0
5.3420005 0.7028113 0.45748654 0
5.3470001 0.69464546 0.45754063 0
5.3510003 0.68631369 0.45758393 0
5.3550005 0.67796749 0.45762724 0
5.3590002 0.66960675 0.45767051 0
5.3630004 0.66123176 0.45771381 0
5.3670001 0.65284216 0.45775712 0
5.1090002 1.1771551 0.44647068 0
5.1120005 1.1694349 0.44649774 0
5.1160002 1.1619598 0.4465338 0
5.1200004 1.1544704 0.44656989 0
5.1240005 1.1469666 0.44660598 0
5.1270003 1.1391976 0.44663301 0
5.1310005 1.1316668 0.4466691 0
5.1350002 1.1241213 0.44670516 0
5.1390004 1.1165617 0.44674125 0
5.1420002 1.1087439 0.44676831 0
5.1460004 1.1011572 0.44680437 0
5.1500001 1.0935558 0.44684047 0
5.1540003 1.0859401 0.44687653 0
5.1570005 1.0780739 0.44690359 0
5.1610003 1.070431 0.44693968 0
5.1650004 1.0627739 0.44697574 0
5.1690001 1.0551022 0.44701183 0
5.1730003 1.0474162 0.44704789 0
5.1760001 1.0394884 0.44707495 0
5.1800003 1.0317754 0.44711104 0
5.1840005 1.024048 0.4471471 0
5.1880002 1.0163059 0.44718319 0
5.1920004 1.0085496 0.44721925 0
5.1960001 1.0007787 0.44725534 0
5.2000003 0.99299347 0.4472914 0
5.2030005 0.98497927 0.44731846 0
5.2070003 0.97716689 0.44735456 0
5.2110004 0.96934021 0.44739062 0
5.2150002 0.96149898 0.44742671 0
5.2190003 0.9536435 0.44746277 0
5.2230005 0.94577342 0.44749886 0
5.2270002 0.93788892 0.44753492 0
5.2310004 0.92999011 0.44757101 0
5.2340002 0.92187661 0.44759807 0
5.2380004 0.91395074 0.44763413 0
5.2420001 0.90601027 0.44767022 0
5.2460003 0.89805555 0.44770628 0
5.2500005 0.89008623 0.44774237 0
5.2540002 0.88210255 0.44777843 0
5.2580004 0.87410456 0.44781452 0
5.2620006 0.86609203 0.44785058 0
5.2660003 0.85806507 0.44788668 0
5.2700005 0.85002375 0.44792274 0
5.2740002 0.84196788 0.44795883 0
5.2780004 0.83389765 0.44799489 0
5.2820005 0.82581306 0.44803098 0
5.2860003 0.81771386 0.44806704 0
5.2900004 0.80960041 0.44810313 0
5.2940001 0.80147237 0.44813919 0
5.2980003 0.79333001 0.44817528 0
5.3020005 0.78517318 0.44821137 0
5.3060002 0.77700192 0.44824743 0
5.3100004 0.76881629 0.44828349 0
5.3140001 0.76061612 0.44831958 0
5.3180003 0.75240159 0.44835564 0
5.3220005 0.74417269 0.44839174 0
5.3260002 0.73592919 0.4484278 0
5.3300004 0.72767138 0.44846389 0
5.3340001 0.71939909 0.44849998 0
5.3380003 0.71111238 0.44853604 0
5.3420005 0.7028113 0.44857213 0
5.3470001 0.69464546 0.44861722 0
5.3510003 0.68631369 0.44865328 0
5.3550005 0.67796749 0.44868937 0
5.3590002 0.66960675 0.44872543 0
5.3630004 0.66123176 0.44876152 0
5.3670001 0.65284216 0.44879758 0
5.1090002 1.1771551 0.43797654 0
5.1120005 1.1694349 0.43799821 0
5.1160002 1.1619598 0.43802705 0
5.1200004 1.1544704 0.4380559 0
5.1240005 1.1469666 0.43808478 0
5.1270003 1.1391976 0.43810642 0
5.1310005 1.1316668 0.43813527 0
5.1350002 1.1241213 0.43816414 0
5.1390004 1.1165617 0.43819299 0
5.1420002 1.1087439 0.43821466 0
5.1460004 1.1011572 0.43824351 0
5.1500001 1.0935558 0.43827236 0
5.1540003 1.0859401 0.43830124 0
5.1570005 1.0780739 0.43832287 0
5.1610003 1.070431 0.43835175 0
5.1650004 1.0627739 0.4383806 0
5.1690001 1.0551022 0.43840945 0
5.1730003 1.0474162 0.43843833 0
5.1760001 1.0394884 0.43845996 0
5.1800003 1.0317754 0.43848884 0
5.1840005 1.024048 0.43851769 0
5.1880002 1.0163059 0.43854654 0
5.1920004 1.0085496 0.43857542 0
5.1960001 1.0007787 0.43860427 0
5.2000003 0.99299347 0.43863314 0
5.2030005 0.98497927 0.43865478 0
5.2070003 0.97716689 0.43868363 0
5.2110004 0.96934021 0.43871251 0
5.2150002 0.96149898 0.43874136 0
5.2190003 0.9536435 0.43877023 0
5.2230005 0.94577342 0.43879908 0
5.2270002 0.93788892 0.43882793 0
5.2310004 0.92999011 0.43885681 0
5.2340002 0.92187661 0.43887845 0
5.2380004 0.91395074 0.43890733 0
5.2420001 0.90601027 0.43893617 0
5.2460003 0.89805555 0.43896502 0
5.2500005 0.89008623 0.4389939 0
5.2540002 0.88210255 0.43902275 0
5.2580004 0.87410456 0.43905163 0
5.2620006 0.86609203 0.43908048 0
5.2660003 0.85806507 0.43910933 0
5.2700005 0.85002375 0.4391382 0
5.2740002 0.84196788 0.43916705 0
5.2780004 0.83389765 0.43919593 0
5.2820005 0.82581306 0.43922478 0
5.2860003 0.81771386 0.43925363 0
5.2900004 0.80960041 0.43928251 0
5.2940001 0.80147237 0.43931136 0
5.2980003 0.79333001 0.43934023 0
5.3020005 0.78517318 0.43936908 0
5.3060002 0.77700192 0.43939793 0
5.3100004 0.76881629 0.43942681 0
5.3140001 0.76061612 0.43945566 0
5.3180003 0.75240159 0.43948454 0
5.3220005 0.74417269 0.43951339 0
5.3260002 0.73592919 0.43954223 0
5.3300004 0.72767138 0.43957111 0
5.3340001 0.71939909 0.43959996 0
5.3380003 0.71111238 0.43962884 0
5.3420005 0.7028113 0.43965769 0
5.3470001 0.69464546 0.43969378 0
5.3510003 0.68631369 0.43972263 0
5.3550005 0.67796749 0.43975151 0
5.3590002 0.66960675 0.43978035 0
5.3630004 0.66123176 0.4398092 0
5.3670001 0.65284216 0.43983808 0
5.1090002 1.1771551 0.4294824 0
5.1120005 1.1694349 0.42949864 0
5.1160002 1.1619598 0.42952028 0
5.1200004 1.1544704 0.42954195 0
5.1240005 1.1469666 0.42956358 0
5.1270003 1.1391976 0.42957982 0
5.1310005 1.1316668 0.42960146 0
5.1350002 1.1241213 0.4296231 0
5.1390004 1.1165617 0.42964476 0
5.1420002 1.1087439 0.42966098 0
5.1460004 1.1011572 0.42968264 0
5.1500001 1.0935558 0.42970428 0
5.1540003 1.0859401 0.42972592 0
5.1570005 1.0780739 0.42974216 0
5.1610003 1.070431 0.42976379 0
5.1650004 1.0627739 0.42978546 0
5.1690001 1.0551022 0.4298071 0
5.1730003 1.0474162 0.42982873 0
5.1760001 1.0394884 0.42984498 0
5.1800003 1.0317754 0.42986661 0
5.1840005 1.024048 0.42988828 0
5.1880002 1.0163059 0.42990991 0
5.1920004 1.0085496 0.42993155 0
5.1960001 1.0007787 0.42995322 0
5.2000003 0.99299347 0.42997485 0
5.2030005 0.98497927 0.4299911 0
5.2070003 0.97716689 0.43001273 0
5.2110004 0.96934021 0.43003437 0
5.2150002 0.96149898 0.43005604 0
5.2190003 0.9536435 0.43007767 0
5.2230005 0.94577342 0.43009931 0
5.2270002 0.93788892 0.43012097 0
5.2310004 0.92999011 0.43014261 0
5.2340002 0.92187661 0.43015885 0
5.2380004 0.91395074 0.43018049 0
5.2420001 0.90601027 0.43020213 0
5.2460003 0.89805555 0.43022376 0
5.2500005 0.89008623 0.43024543 0
5.2540002 0.88210255 0.43026707 0
5.2580004 0.87410456 0.43028873 0
5.2620006 0.86609203 0.43031037 0
5.2660003 0.85806507 0.43033201 0
5.2700005 0.85002375 0.43035364 0
5.2740002 0.84196788 0.43037531 0
5.2780004 0.83389765 0.43039694 0
5.2820005 0.82581306 0.43041858 0
5.2860003 0.81771386 0.43044025 0
5.2900004 0.80960041 0.43046188 0
5.2940001 0.80147237 0.43048352 0
5.2980003 0.79333001 0.43050516 0
5.3020005 0.78517318 0.43052682 0
5.3060002 0.77700192 0.43054846 0
5.3100004 0.76881629 0.43057013 0
5.3140001 0.76061612 0.43059176 0
5.3180003 0.75240159 0.4306134 0
5.3220005 0.74417269 0.43063504 0
5.3260002 0.73592919 0.4306567 0
5.3300004 0.72767138 0.43067834 0
5.3340001 0.71939909 0.43069997 0
5.3380003 0.71111238 0.43072164 0
5.3420005 0.7028113 0.43074328 0
5.3470001 0.69464546 0.43077034 0
5.3510003 0.68631369 0.43079197 0
5.3550005 0.67796749 0.43081361 0
5.3590002 0.66960675 0.43083528 0
5.3630004 0.66123176 0.43085691 0
5.3670001 0.65284216 0.43087855 0
5.1090002 1.1771551 0.42098829 0
5.1120005 1.1694349 0.42099911 0
5.1160002 1.1619598 0.42101353 0
5.1200004 1.1544704 0.42102796 0
5.1240005 1.1469666 0.42104238 0
5.1270003 1.1391976 0.42105323 0
5.1310005 1.1316668 0.42106766 0
5.1350002 1.1241213 0.42108208 0
5.1390004 1.1165617 0.4210965 0
5.1420002 1.1087439 0.42110732 0
5.1460004 1.1011572 0.42112178 0
5.1500001 1.0935558 0.4211362 0
5.1540003 1.0859401 0.42115062 0
5.1570005 1.0780739 0.42116144 0
5.1610003 1.070431 0.42117587 0
5.1650004 1.0627739 0.42119032 0
5.1690001 1.0551022 0.42120475 0
5.1730003 1.0474162 0.42121917 0
5.1760001 1.0394884 0.42122999 0
5.1800003 1.0317754 0.42124441 0
5.1840005 1.024048 0.42125887 0
5.1880002 1.0163059 0.42127329 0
5.1920004 1.0085496 0.42128772 0
5.1960001 1.0007787 0.42130214 0
5.2000003 0.99299347 0.42131656 0
5.2030005 0.98497927 0.42132741 0
5.2070003 0.97716689 0.42134184 0
5.2110004 0.96934021 0.42135626 0
5.2150002 0.96149898 0.42137069 0
5.2190003 0.9536435 0.42138511 0
5.2230005 0.94577342 0.42139953 0
5.2270002 0.93788892 0.42141399 0
5.2310004 0.92999011 0.42142841 0
5.2340002 0.92187661 0.42143923 0
5.2380004 0.91395074 0.42145365 0
5.2420001 0.90601027 0.42146808 0
5.2460003 0.89805555 0.42148253 0
5.2500005 0.89008623 0.42149696 0
5.2540002 0.88210255 0.42151138 0
5.2580004 0.87410456 0.42152581 0
5.2620006 0.86609203 0.42154026 0
5.2660003 0.85806507 0.42155468 0
5.2700005 0.85002375 0.42156911 0
5.2740002 0.84196788 0.42158353 0
5.2780004 0.83389765 0.42159796 0
5.2820005 0.82581306 0.42161241 0
5.2860003 0.81771386 0.42162684 0
5.2900004 0.80960041 0.42164126 0
5.2940001 0.80147237 0.42165568 0
5.2980003 0.79333001 0.42167011 0
5.3020005 0.78517318 0.42168456 0
5.3060002 0.77700192 0.42169899 0
5.3100004 0.76881629 0.42171341 0
5.3140001 0.76061612 0.42172784 0
5.3180003 0.75240159 0.42174226 0
5.3220005 0.74417269 0.42175671 0
5.3260002 0.73592919 0.42177114 0
5.3300004 0.72767138 0.42178556 0
5.3340001 0.71939909 0.42179999 0
5.3380003 0.71111238 0.42181441 0
5.3420005 0.7028113 0.42182887 0
5.3470001 0.69464546 0.4218469 0
5.3510003 0.68631369 0.42186132 0
5.3550005 0.67796749 0.42187575 0
5.3590002 0.66960675 0.4218902 0
5.3630004 0.66123176 0.42190462 0
5.3670001 0.65284216 0.42191905 0
5.1090002 1.1771551 0.41249415 0
5.1120005 1.1694349 0.41249955 0
5.1160002 1.1619598 0.41250676 0
5.1200004 1.1544704 0.412514 0
5.1240005 1.1469666 0.41252121 0
5.1270003 1.1391976 0.41252661 0
5.1310005 1.1316668 0.41253382 0
5.1350002 1.1241213 0.41254103 0
5.1390004 1.1165617 0.41254827 0
5.1420002 1.1087439 0.41255367 0
5.1460004 1.1011572 0.41256088 0
5.1500001 1.0935558 0.41256809 0
5.1540003 1.0859401 0.4125753 0
5.1570005 1.0780739 0.41258073 0
5.1610003 1.070431 0.41258794 0
