# .PCD v0.7 - Point Cloud Data file format
VERSION 0.7
FIELDS x y z intensity
SIZE 4 4 4 4
TYPE F F F F
COUNT 1 1 1 1
WIDTH 1432
HEIGHT 1
VIEWPOINT 0 0 0 1 0 0 0
POINTS 1432
DATA ascii
5.2590003 0.4185293 1.2103528 0
5.2620006 0.41004601 1.2108507 0
5.2650003 0.40155187 1.2113485 0
5.2680001 0.39304689 1.2118464 0
5.2710004 0.38453114 1.2123442 0
5.2740002 0.37600452 1.2128421 0
5.2770004 0.36746711 1.2133399 0
5.2800002 0.35891888 1.2138377 0
5.2830005 0.3503598 1.2143356 0
5.2860003 0.3417899 1.2148335 0
5.2210002 0.52794653 1.1953505 0
5.2240005 0.51960212 1.195843 0
5.2270002 0.51124686 1.1963354 0
5.2300005 0.50288087 1.1968279 0
5.2330003 0.49450386 1.1973202 0
5.2350001 0.48600614 1.1976485 0
5.2380004 0.47760946 1.198141 0
5.2410002 0.46920192 1.1986334 0
5.2440004 0.46078354 1.1991259 0
5.2470002 0.45235428 1.1996183 0
5.2500005 0.44391435 1.2001108 0
5.2530003 0.43546346 1.2006032 0
5.2560005 0.42700183 1.2010957 0
5.2590003 0.4185293 1.201588 0
5.2620006 0.41004601 1.2020806 0
5.2650003 0.40155187 1.2025729 0
5.2680001 0.39304689 1.2030654 0
5.2710004 0.38453114 1.2035578 0
5.2740002 0.37600452 1.2040503 0
5.2770004 0.36746711 1.2045428 0
5.2800002 0.35891888 1.2050352 0
5.2830005 0.3503598 1.2055277 0
5.2860003 0.3417899 1.20602 0
5.2210002 0.52794653 1.1866543 0
5.2240005 0.51960212 1.1871414 0
5.2270002 0.51124686 1.1876284 0
5.2300005 0.50288087 1.1881155 0
5.2330003 0.49450386 1.1886024 0
5.2350001 0.48600614 1.1889272 0
5.2380004 0.47760946 1.1894141 0
5.2410002 0.46920192 1.1899012 0
5.2440004 0.46078354 1.1903882 0
5.2470002 0.45235428 1.1908753 0
5.2500005 0.44391435 1.1913624 0
5.2530003 0.43546346 1.1918494 0
5.2560005 0.42700183 1.1923364 0
5.2590003 0.4185293 1.1928234 0
5.2620006 0.41004601 1.1933105 0
5.2650003 0.40155187 1.1937975 0
5.2680001 0.39304689 1.1942844 0
5.2710004 0.38453114 1.1947715 0
5.2740002 0.37600452 1.1952585 0
5.2770004 0.36746711 1.1957456 0
5.2800002 0.35891888 1.1962326 0
5.2830005 0.3503598 1.1967196 0
5.2860003 0.3417899 1.1972066 0
5.2210002 0.52794653 1.1779581 0
5.2240005 0.51960212 1.1784399 0
5.2270002 0.51124686 1.1789215 0
5.2300005 0.50288087 1.1794031 0
5.2330003 0.49450386 1.1798847 0
5.2350001 0.48600614 1.1802057 0
5.2380004 0.47760946 1.1806874 0
5.2410002 0.46920192 1.1811689 0
5.2440004 0.46078354 1.1816506 0
5.2470002 0.45235428 1.1821321 0
5.2500005 0.44391435 1.1826138 0
5.2530003 0.43546346 1.1830955 0
5.2560005 0.42700183 1.1835772 0
5.2590003 0.4185293 1.1840587 0
5.2620006 0.41004601 1.1845404 0
5.2650003 0.40155187 1.1850219 0
5.2680001 0.39304689 1.1855035 0
5.2710004 0.38453114 1.1859851 0
5.2740002 0.37600452 1.1864668 0
5.2770004 0.36746711 1.1869484 0
5.2800002 0.35891888 1.18743 0
5.2830005 0.3503598 1.1879116 0
5.2860003 0.3417899 1.1883932 0
5.2210002 0.52794653 1.1692621 0
5.2240005 0.51960212 1.1697383 0
5.2270002 0.51124686 1.1702144 0
5.2300005 0.50288087 1.1706907 0
5.2330003 0.49450386 1.1711669 0
5.2350001 0.48600614 1.1714844 0
5.2380004 0.47760946 1.1719606 0
5.2410002 0.46920192 1.1724367 0
5.2440004 0.46078354 1.172913 0
5.2470002 0.45235428 1.1733892 0
5.2500005 0.44391435 1.1738654 0
5.2530003 0.43546346 1.1743416 0
5.2560005 0.42700183 1.1748178 0
5.2590003 0.4185293 1.1752939 0
5.2620006 0.41004601 1.1757703 0
5.2650003 0.40155187 1.1762464 0
5.2680001 0.39304689 1.1767225 0
5.2710004 0.38453114 1.1771988 0
5.2740002 0.37600452 1.177675 0
5.2770004 0.36746711 1.1781512 0
5.2800002 0.35891888 1.1786274 0
5.2830005 0.3503598 1.1791036 0
5.2860003 0.3417899 1.1795799 0
5.2210002 0.52794653 1.1605659 0
5.2240005 0.51960212 1.1610367 0
5.2270002 0.51124686 1.1615075 0
5.2300005 0.50288087 1.1619782 0
5.2330003 0.49450386 1.162449 0
5.2350001 0.48600614 1.1627629 0
5.2380004 0.47760946 1.1632338 0
5.2410002 0.46920192 1.1637045 0
5.2440004 0.46078354 1.1641754 0
5.2470002 0.45235428 1.1646461 0
5.2500005 0.44391435 1.1651169 0
5.2530003 0.43546346 1.1655877 0
5.2560005 0.42700183 1.1660585 0
5.2590003 0.4185293 1.1665293 0
5.2620006 0.41004601 1.1670002 0
5.2650003 0.40155187 1.1674709 0
5.2680001 0.39304689 1.1679416 0
5.2710004 0.38453114 1.1684124 0
5.2740002 0.37600452 1.1688832 0
5.2770004 0.36746711 1.1693541 0
5.2800002 0.35891888 1.1698248 0
5.2830005 0.3503598 1.1702957 0
5.2860003 0.3417899 1.1707664 0
5.2210002 0.52794653 1.1518698 0
5.2240005 0.51960212 1.1523352 0
5.2270002 0.51124686 1.1528004 0
5.2300005 0.50288087 1.153266 0
5.2330003 0.49450386 1.1537312 0
5.2350001 0.48600614 1.1540415 0
5.2380004 0.47760946 1.1545069 0
5.2410002 0.46920192 1.1549723 0
5.2440004 0.46078354 1.1554377 0
5.2470002 0.45235428 1.155903 0
5.2500005 0.44391435 1.1563685 0
5.2530003 0.43546346 1.1568338 0
5.2560005 0.42700183 1.1572992 0
5.2590003 0.4185293 1.1577646 0
5.2620006 0.41004601 1.1582301 0
5.2650003 0.40155187 1.1586953 0
5.2680001 0.39304689 1.1591607 0
5.2710004 0.38453114 1.1596261 0
5.2740002 0.37600452 1.1600914 0
5.2770004 0.36746711 1.1605569 0
5.2800002 0.35891888 1.1610223 0
5.2830005 0.3503598 1.1614876 0
5.2860003 0.3417899 1.161953 0
5.2210002 0.52794653 1.1431736 0
5.2240005 0.51960212 1.1436336 0
5.2270002 0.51124686 1.1440935 0
5.2300005 0.50288087 1.1445535 0
5.2330003 0.49450386 1.1450135 0
5.2350001 0.48600614 1.1453201 0
5.2380004 0.47760946 1.1457801 0
5.2410002 0.46920192 1.14624 0
5.2440004 0.46078354 1.1467 0
5.2470002 0.45235428 1.1471599 0
5.2500005 0.44391435 1.14762 0
5.2530003 0.43546346 1.1480799 0
5.2560005 0.42700183 1.1485399 0
5.2590003 0.4185293 1.1489998 0
5.2620006 0.41004601 1.1494598 0
5.2650003 0.40155187 1.1499199 0
5.2680001 0.39304689 1.1503798 0
5.2710004 0.38453114 1.1508398 0
5.2740002 0.37600452 1.1512997 0
5.2770004 0.36746711 1.1517597 0
5.2800002 0.35891888 1.1522197 0
5.2830005 0.3503598 1.1526797 0
5.2860003 0.3417899 1.1531396 0
5.2210002 0.52794653 1.1344774 0
5.2240005 0.51960212 1.134932 0
5.2270002 0.51124686 1.1353866 0
5.2300005 0.50288087 1.1358411 0
5.2330003 0.49450386 1.1362957 0
5.2350001 0.48600614 1.1365987 0
5.2380004 0.47760946 1.1370533 0
5.2410002 0.46920192 1.1375078 0
5.2440004 0.46078354 1.1379623 0
5.2470002 0.45235428 1.1384169 0
5.2500005 0.44391435 1.1388716 0
5.2530003 0.43546346 1.139326 0
5.2560005 0.42700183 1.1397806 0
5.2590003 0.4185293 1.1402352 0
5.2620006 0.41004601 1.1406897 0
5.2650003 0.40155187 1.1411443 0
5.2680001 0.39304689 1.1415988 0
5.2710004 0.38453114 1.1420535 0
5.2740002 0.37600452 1.1425079 0
5.2770004 0.36746711 1.1429626 0
5.2800002 0.35891888 1.1434171 0
5.2830005 0.3503598 1.1438717 0
5.2860003 0.3417899 1.1443262 0
5.2210002 0.52794653 1.1257812 0
5.2240005 0.51960212 1.1262304 0
5.2270002 0.51124686 1.1266795 0
5.2300005 0.50288087 1.1271287 0
5.2330003 0.49450386 1.1275778 0
5.2350001 0.48600614 1.1278772 0
5.2380004 0.47760946 1.1283264 0
5.2410002 0.46920192 1.1287756 0
5.2440004 0.46078354 1.1292248 0
5.2470002 0.45235428 1.1296738 0
5.2500005 0.44391435 1.130123 0
5.2530003 0.43546346 1.1305722 0
5.2560005 0.42700183 1.1310214 0
5.2590003 0.4185293 1.1314704 0
5.2620006 0.41004601 1.1319196 0
5.2650003 0.40155187 1.1323688 0
5.2680001 0.39304689 1.1328179 0
5.2710004 0.38453114 1.133267 0
5.2740002 0.37600452 1.1337161 0
5.2770004 0.36746711 1.1341653 0
5.2800002 0.35891888 1.1346145 0
5.2830005 0.3503598 1.1350636 0
5.2860003 0.3417899 1.1355128 0
5.2210002 0.52794653 1.1170851 0
5.2240005 0.51960212 1.1175288 0
5.2270002 0.51124686 1.1179726 0
5.2300005 0.50288087 1.1184163 0
5.2330003 0.49450386 1.11886 0
5.2350001 0.48600614 1.1191559 0
5.2380004 0.47760946 1.1195996 0
5.2410002 0.46920192 1.1200433 0
5.2440004 0.46078354 1.1204871 0
5.2470002 0.45235428 1.1209308 0
5.2500005 0.44391435 1.1213746 0
5.2530003 0.43546346 1.1218183 0
5.2560005 0.42700183 1.1222621 0
5.2590003 0.4185293 1.1227058 0
5.2620006 0.41004601 1.1231495 0
5.2650003 0.40155187 1.1235932 0
5.2680001 0.39304689 1.1240369 0
5.2710004 0.38453114 1.1244807 0
5.2740002 0.37600452 1.1249244 0
5.2770004 0.36746711 1.1253682 0
5.2800002 0.35891888 1.1258119 0
5.2830005 0.3503598 1.1262556 0
5.2860003 0.3417899 1.1266993 0
5.2210002 0.52794653 1.1083889 0
5.2240005 0.51960212 1.1088272 0
5.2270002 0.51124686 1.1092656 0
5.2300005 0.50288087 1.1097039 0
5.2330003 0.49450386 1.1101422 0
5.2350001 0.48600614 1.1104344 0
5.2380004 0.47760946 1.1108727 0
5.2410002 0.46920192 1.1113111 0
5.2440004 0.46078354 1.1117494 0
5.2470002 0.45235428 1.1121877 0
5.2500005 0.44391435 1.1126261 0
5.2530003 0.43546346 1.1130644 0
5.2560005 0.42700183 1.1135027 0
5.2590003 0.4185293 1.1139411 0
5.2620006 0.41004601 1.1143794 0
5.2650003 0.40155187 1.1148177 0
5.2680001 0.39304689 1.1152561 0
5.2710004 0.38453114 1.1156944 0
5.2740002 0.37600452 1.1161326 0
5.2770004 0.36746711 1.1165709 0
5.2800002 0.35891888 1.1170093 0
5.2830005 0.3503598 1.1174477 0
5.2860003 0.3417899 1.1178859 0
5.2210002 0.52794653 1.0996927 0
5.2240005 0.51960212 1.1001258 0
5.2270002 0.51124686 1.1005585 0
5.2300005 0.50288087 1.1009915 0
5.2330003 0.49450386 1.1014245 0
5.2350001 0.48600614 1.1017129 0
5.2380004 0.47760946 1.102146 0
5.2410002 0.46920192 1.1025789 0
5.2440004 0.46078354 1.1030117 0
5.2470002 0.45235428 1.1034447 0
5.2500005 0.44391435 1.1038777 0
5.2530003 0.43546346 1.1043105 0
5.2560005 0.42700183 1.1047435 0
5.2590003 0.4185293 1.1051763 0
5.2620006 0.41004601 1.1056093 0
5.2650003 0.40155187 1.1060421 0
5.2680001 0.39304689 1.1064751 0
5.2710004 0.38453114 1.106908 0
5.2740002 0.37600452 1.1073409 0
5.2770004 0.36746711 1.1077739 0
5.2800002 0.35891888 1.1082067 0
5.2830005 0.3503598 1.1086396 0
5.2860003 0.3417899 1.1090726 0
5.2210002 0.52794653 1.0909966 0
5.2240005 0.51960212 1.0914241 0
5.2270002 0.51124686 1.0918516 0
5.2300005 0.50288087 1.0922792 0
5.2330003 0.49450386 1.0927066 0
5.2350001 0.48600614 1.0929916 0
5.2380004 0.47760946 1.0934192 0
5.2410002 0.46920192 1.0938466 0
5.2440004 0.46078354 1.0942742 0
5.2470002 0.45235428 1.0947016 0
5.2500005 0.44391435 1.0951291 0
5.2530003 0.43546346 1.0955566 0
5.2560005 0.42700183 1.0959841 0
5.2590003 0.4185293 1.0964117 0
5.2620006 0.41004601 1.0968392 0
5.2650003 0.40155187 1.0972667 0
5.2680001 0.39304689 1.0976942 0
5.2710004 0.38453114 1.0981216 0
5.2740002 0.37600452 1.0985491 0
5.2770004 0.36746711 1.0989766 0
5.2800002 0.35891888 1.0994042 0
5.2830005 0.3503598 1.0998317 0
5.2860003 0.3417899 1.1002592 0
5.2210002 0.52794653 1.0823004 0
5.2240005 0.51960212 1.0827225 0
5.2270002 0.51124686 1.0831447 0
5.2300005 0.50288087 1.0835668 0
5.2330003 0.49450386 1.0839888 0
5.2350001 0.48600614 1.0842702 0
5.2380004 0.47760946 1.0846922 0
5.2410002 0.46920192 1.0851144 0
5.2440004 0.46078354 1.0855365 0
5.2470002 0.45235428 1.0859586 0
5.2500005 0.44391435 1.0863807 0
5.2530003 0.43546346 1.0868027 0
5.2560005 0.42700183 1.0872248 0
5.2590003 0.4185293 1.087647 0
5.2620006 0.41004601 1.0880691 0
5.2650003 0.40155187 1.0884912 0
5.2680001 0.39304689 1.0889132 0
5.2710004 0.38453114 1.0893353 0
5.2740002 0.37600452 1.0897573 0
5.2770004 0.36746711 1.0901796 0
5.2800002 0.35891888 1.0906016 0
5.2830005 0.3503598 1.0910237 0
5.2860003 0.3417899 1.0914457 0
5.2210002 0.52794653 1.0736042 0
5.2240005 0.51960212 1.074021 0
5.2270002 0.51124686 1.0744376 0
5.2300005 0.50288087 1.0748544 0
5.2330003 0.49450386 1.075271 0
5.2350001 0.48600614 1.0755488 0
5.2380004 0.47760946 1.0759655 0
5.2410002 0.46920192 1.0763822 0
5.2440004 0.46078354 1.0767989 0
5.2470002 0.45235428 1.0772154 0
5.2500005 0.44391435 1.0776322 0
5.2530003 0.43546346 1.0780488 0
5.2560005 0.42700183 1.0784656 0
5.2590003 0.4185293 1.0788822 0
5.2620006 0.41004601 1.079299 0
5.2650003 0.40155187 1.0797156 0
5.2680001 0.39304689 1.0801322 0
5.2710004 0.38453114 1.080549 0
5.2740002 0.37600452 1.0809656 0
5.2770004 0.36746711 1.0813823 0
5.2800002 0.35891888 1.081799 0
5.2830005 0.3503598 1.0822157 0
5.2860003 0.3417899 1.0826323 0
5.2210002 0.52794653 1.0649081 0
5.2240005 0.51960212 1.0653194 0
5.2270002 0.51124686 1.0657307 0
5.2300005 0.50288087 1.066142 0
5.2330003 0.49450386 1.0665532 0
5.2350001 0.48600614 1.0668273 0
5.2380004 0.47760946 1.0672387 0
5.2410002 0.46920192 1.06765 0
5.2440004 0.46078354 1.0680612 0
5.2470002 0.45235428 1.0684725 0
5.2500005 0.44391435 1.0688838 0
5.2530003 0.43546346 1.0692949 0
5.2560005 0.42700183 1.0697063 0
5.2590003 0.4185293 1.0701176 0
5.2620006 0.41004601 1.0705289 0
5.2650003 0.40155187 1.07094 0
5.2680001 0.39304689 1.0713513 0
5.2710004 0.38453114 1.0717626 0
5.2740002 0.37600452 1.0721738 0
5.2770004 0.36746711 1.0725852 0
5.2800002 0.35891888 1.0729964 0
5.2830005 0.3503598 1.0734076 0
5.2860003 0.3417899 1.0738189 0
5.2210002 0.52794653 1.0562119 0
5.2240005 0.51960212 1.0566179 0
5.2270002 0.51124686 1.0570236 0
5.2300005 0.50288087 1.0574296 0
5.2330003 0.49450386 1.0578353 0
5.2350001 0.48600614 1.0581059 0
5.2380004 0.47760946 1.0585119 0
5.2410002 0.46920192 1.0589176 0
5.2440004 0.46078354 1.0593235 0
5.2470002 0.45235428 1.0597295 0
5.2500005 0.44391435 1.0601352 0
5.2530003 0.43546346 1.0605412 0
5.2560005 0.42700183 1.0609471 0
5.2590003 0.4185293 1.0613528 0
5.2620006 0.41004601 1.0617588 0
5.2650003 0.40155187 1.0621645 0
5.2680001 0.39304689 1.0625703 0
5.2710004 0.38453114 1.0629762 0
5.2740002 0.37600452 1.0633821 0
5.2770004 0.36746711 1.0637879 0
5.2800002 0.35891888 1.0641938 0
5.2830005 0.3503598 1.0645998 0
5.2860003 0.3417899 1.0650055 0
5.2210002 0.52794653 1.0475157 0
5.2240005 0.51960212 1.0479163 0
5.2270002 0.51124686 1.0483167 0
5.2300005 0.50288087 1.0487173 0
5.2330003 0.49450386 1.0491176 0
5.2350001 0.48600614 1.0493846 0
5.2380004 0.47760946 1.049785 0
5.2410002 0.46920192 1.0501854 0
5.2440004 0.46078354 1.0505859 0
5.2470002 0.45235428 1.0509863 0
5.2500005 0.44391435 1.0513868 0
5.2530003 0.43546346 1.0517873 0
5.2560005 0.42700183 1.0521877 0
5.2590003 0.4185293 1.0525881 0
5.2620006 0.41004601 1.0529885 0
5.2650003 0.40155187 1.053389 0
5.2680001 0.39304689 1.0537894 0
5.2710004 0.38453114 1.0541899 0
5.2740002 0.37600452 1.0545903 0
5.2770004 0.36746711 1.0549908 0
5.2800002 0.35891888 1.0553912 0
5.2830005 0.3503598 1.0557917 0
5.2860003 0.3417899 1.0561922 0
5.2210002 0.52794653 1.0388197 0
5.2240005 0.51960212 1.0392147 0
5.2270002 0.51124686 1.0396097 0
5.2300005 0.50288087 1.0400047 0
5.2330003 0.49450386 1.0403998 0
5.2350001 0.48600614 1.0406631 0
5.2380004 0.47760946 1.0410582 0
5.2410002 0.46920192 1.0414532 0
5.2440004 0.46078354 1.0418483 0
5.2470002 0.45235428 1.0422432 0
5.2500005 0.44391435 1.0426383 0
5.2530003 0.43546346 1.0430334 0
5.2560005 0.42700183 1.0434284 0
5.2590003 0.4185293 1.0438234 0
5.2620006 0.41004601 1.0442184 0
5.2650003 0.40155187 1.0446135 0
5.2680001 0.39304689 1.0450085 0
5.2710004 0.38453114 1.0454036 0
5.2740002 0.37600452 1.0457985 0
5.2770004 0.36746711 1.0461936 0
5.2800002 0.35891888 1.0465887 0
5.2830005 0.3503598 1.0469837 0
5.2860003 0.3417899 1.0473787 0
5.2210002 0.52794653 1.0301235 0
5.2240005 0.51960212 1.0305132 0
5.2270002 0.51124686 1.0309027 0
5.2300005 0.50288087 1.0312924 0
5.2330003 0.49450386 1.031682 0
5.2350001 0.48600614 1.0319417 0
5.2380004 0.47760946 1.0323313 0
5.2410002 0.46920192 1.0327209 0
5.2440004 0.46078354 1.0331106 0
5.2470002 0.45235428 1.0335002 0
5.2500005 0.44391435 1.0338899 0
5.2530003 0.43546346 1.0342795 0
5.2560005 0.42700183 1.034669 0
5.2590003 0.4185293 1.0350587 0
5.2620006 0.41004601 1.0354483 0
5.2650003 0.40155187 1.035838 0
5.2680001 0.39304689 1.0362276 0
5.2710004 0.38453114 1.0366173 0
5.2740002 0.37600452 1.0370069 0
5.2770004 0.36746711 1.0373964 0
5.2800002 0.35891888 1.0377861 0
5.2830005 0.3503598 1.0381757 0
5.2860003 0.3417899 1.0385653 0
5.2210002 0.52794653 1.0214274 0
5.2240005 0.51960212 1.0218116 0
5.2270002 0.51124686 1.0221957 0
5.2300005 0.50288087 1.02258 0
5.2330003 0.49450386 1.0229641 0
5.2350001 0.48600614 1.0232203 0
5.2380004 0.47760946 1.0236045 0
5.2410002 0.46920192 1.0239887 0
5.2440004 0.46078354 1.0243729 0
5.2470002 0.45235428 1.0247571 0
5.2500005 0.44391435 1.0251414 0
5.2530003 0.43546346 1.0255256 0
5.2560005 0.42700183 1.0259098 0
5.2590003 0.4185293 1.026294 0
5.2620006 0.41004601 1.0266782 0
5.2650003 0.40155187 1.0270624 0
5.2680001 0.39304689 1.0274466 0
5.2710004 0.38453114 1.0278308 0
5.2740002 0.37600452 1.0282151 0
5.2770004 0.36746711 1.0285993 0
5.2800002 0.35891888 1.0289835 0
5.2830005 0.3503598 1.0293677 0
5.2860003 0.3417899 1.0297519 0
5.2210002 0.52794653 1.0127312 0
5.2240005 0.51960212 1.01311 0
5.2270002 0.51124686 1.0134888 0
5.2300005 0.50288087 1.0138676 0
5.2330003 0.49450386 1.0142463 0
5.2350001 0.48600614 1.0144989 0
5.2380004 0.47760946 1.0148778 0
5.2410002 0.46920192 1.0152565 0
5.2440004 0.46078354 1.0156353 0
5.2470002 0.45235428 1.0160141 0
5.2500005 0.44391435 1.0163929 0
5.2530003 0.43546346 1.0167717 0
5.2560005 0.42700183 1.0171505 0
5.2590003 0.4185293 1.0175292 0
5.2620006 0.41004601 1.0179081 0
5.2650003 0.40155187 1.0182869 0
5.2680001 0.39304689 1.0186657 0
5.2710004 0.38453114 1.0190445 0
5.2740002 0.37600452 1.0194232 0
5.2770004 0.36746711 1.0198021 0
5.2800002 0.35891888 1.0201809 0
5.2830005 0.3503598 1.0205597 0
5.2860003 0.3417899 1.0209385 0
5.2210002 0.52794653 1.004035 0
5.2240005 0.51960212 1.0044084 0
5.2270002 0.51124686 1.0047818 0
5.2300005 0.50288087 1.0051552 0
5.2330003 0.49450386 1.0055286 0
5.2350001 0.48600614 1.0057775 0
5.2380004 0.47760946 1.0061508 0
5.2410002 0.46920192 1.0065242 0
5.2440004 0.46078354 1.0068977 0
5.2470002 0.45235428 1.0072711 0
5.2500005 0.44391435 1.0076444 0
5.2530003 0.43546346 1.0080179 0
5.2560005 0.42700183 1.0083913 0
5.2590003 0.4185293 1.0087646 0
5.2620006 0.41004601 1.009138 0
5.2650003 0.40155187 1.0095114 0
5.2680001 0.39304689 1.0098847 0
5.2710004 0.38453114 1.0102582 0
5.2740002 0.37600452 1.0106316 0
5.2770004 0.36746711 1.0110049 0
5.2800002 0.35891888 1.0113783 0
5.2830005 0.3503598 1.0117518 0
5.2860003 0.3417899 1.012125 0
5.2210002 0.52794653 0.9953388 0
5.2240005 0.51960212 0.9957068 0
5.2270002 0.51124686 0.9960748 0
5.2300005 0.50288087 0.99644279 0
5.2330003 0.49450386 0.99681079 0
5.2350001 0.48600614 0.99705601 0
5.2380004 0.47760946 0.99742401 0
5.2410002 0.46920192 0.99779201 0
5.2440004 0.46078354 0.99816 0
5.2470002 0.45235428 0.998528 0
5.2500005 0.44391435 0.998896 0
5.2530003 0.43546346 0.99926388 0
5.2560005 0.42700183 0.999632 0
5.2590003 0.4185293 0.99999988 0
5.2620006 0.41004601 1.0003679 0
5.2650003 0.40155187 1.0007359 0
5.2680001 0.39304689 1.0011038 0
5.2710004 0.38453114 1.0014719 0
5.2740002 0.37600452 1.0018398 0
5.2770004 0.36746711 1.0022078 0
5.2800002 0.35891888 1.0025758 0
5.2830005 0.3503598 1.0029438 0
5.2860003 0.3417899 1.0033116 0
5.2210002 0.52794653 0.98664272 0
5.2240005 0.51960212 0.98700535 0
5.2270002 0.51124686 0.98736775 0
5.2300005 0.50288087 0.98773038 0
5.2330003 0.49450386 0.9880929 0
5.2350001 0.48600614 0.98833466 0
5.2380004 0.47760946 0.98869729 0
5.2410002 0.46920192 0.98905981 0
5.2440004 0.46078354 0.98942244 0
5.2470002 0.45235428 0.98978496 0
5.2500005 0.44391435 0.99014747 0
5.2530003 0.43546346 0.99050999 0
5.2560005 0.42700183 0.99087262 0
5.2590003 0.4185293 0.99123514 0
5.2620006 0.41004601 0.99159777 0
5.2650003 0.40155187 0.99196029 0
5.2680001 0.39304689 0.99232292 0
5.2710004 0.38453114 0.99268544 0
5.2740002 0.37600452 0.99304807 0
5.2770004 0.36746711 0.99341059 0
5.2800002 0.35891888 0.99377322 0
5.2830005 0.3503598 0.99413574 0
5.2860003 0.3417899 0.99449825 0
5.2210002 0.52794653 0.97794652 0
5.2240005 0.51960212 0.97830367 0
5.2270002 0.51124686 0.97866082 0
5.2300005 0.50288087 0.97901797 0
5.2330003 0.49450386 0.97937512 0
5.2350001 0.48600614 0.9796133 0
5.2380004 0.47760946 0.97997046 0
5.2410002 0.46920192 0.98032761 0
5.2440004 0.46078354 0.98068476 0
5.2470002 0.45235428 0.98104191 0
5.2500005 0.44391435 0.98139906 0
5.2530003 0.43546346 0.98175621 0
5.2560005 0.42700183 0.98211336 0
5.2590003 0.4185293 0.98247051 0
5.2620006 0.41004601 0.98282766 0
5.2650003 0.40155187 0.98318481 0
5.2680001 0.39304689 0.98354197 0
5.2710004 0.38453114 0.98389912 0
5.2740002 0.37600452 0.98425627 0
5.2770004 0.36746711 0.98461342 0
5.2800002 0.35891888 0.98497057 0
5.2830005 0.3503598 0.98532772 0
5.2860003 0.3417899 0.98568487 0
5.2210002 0.52794653 0.96925044 0
5.2240005 0.51960212 0.96960211 0
5.2270002 0.51124686 0.96995389 0
5.2300005 0.50288087 0.97030556 0
5.2330003 0.49450386 0.97065735 0
5.2350001 0.48600614 0.97089183 0
5.2380004 0.47760946 0.97124362 0
5.2410002 0.46920192 0.97159529 0
5.2440004 0.46078354 0.97194707 0
5.2470002 0.45235428 0.97229874 0
5.2500005 0.44391435 0.97265053 0
5.2530003 0.43546346 0.97300231 0
5.2560005 0.42700183 0.9733541 0
5.2590003 0.4185293 0.97370577 0
5.2620006 0.41004601 0.97405756 0
5.2650003 0.40155187 0.97440922 0
5.2680001 0.39304689 0.97476101 0
5.2710004 0.38453114 0.9751128 0
5.2740002 0.37600452 0.97546446 0
5.2770004 0.36746711 0.97581625 0
5.2800002 0.35891888 0.97616804 0
5.2830005 0.3503598 0.9765197 0
5.2860003 0.3417899 0.97687149 0
5.2210002 0.52794653 0.96055424 0
5.2240005 0.51960212 0.96090055 0
5.2270002 0.51124686 0.96124685 0
5.2300005 0.50288087 0.96159327 0
5.2330003 0.49450386 0.96193957 0
5.2350001 0.48600614 0.96217036 0
5.2380004 0.47760946 0.96251678 0
5.2410002 0.46920192 0.96286309 0
5.2440004 0.46078354 0.96320939 0
5.2470002 0.45235428 0.96355569 0
5.2500005 0.44391435 0.96390212 0
5.2530003 0.43546346 0.96424842 0
5.2560005 0.42700183 0.96459472 0
5.2590003 0.4185293 0.96494102 0
5.2620006 0.41004601 0.96528745 0
5.2650003 0.40155187 0.96563375 0
5.2680001 0.39304689 0.96598005 0
5.2710004 0.38453114 0.96632636 0
5.2740002 0.37600452 0.96667278 0
5.2770004 0.36746711 0.96701908 0
5.2800002 0.35891888 0.96736538 0
5.2830005 0.3503598 0.96771181 0
5.2860003 0.3417899 0.96805811 0
5.2210002 0.52794653 0.95185804 0
5.2240005 0.51960212 0.95219898 0
5.2270002 0.51124686 0.95253992 0
5.2300005 0.50288087 0.95288086 0
5.2330003 0.49450386 0.95322168 0
5.2350001 0.48600614 0.95344901 0
5.2380004 0.47760946 0.95378995 0
5.2410002 0.46920192 0.95413089 0
5.2440004 0.46078354 0.95447183 0
5.2470002 0.45235428 0.95481277 0
5.2500005 0.44391435 0.95515358 0
5.2530003 0.43546346 0.95549452 0
5.2560005 0.42700183 0.95583546 0
5.2590003 0.4185293 0.9561764 0
5.2620006 0.41004601 0.95651734 0
5.2650003 0.40155187 0.95685828 0
5.2680001 0.39304689 0.9571991 0
5.2710004 0.38453114 0.95754004 0
5.2740002 0.37600452 0.95788097 0
5.2770004 0.36746711 0.95822191 0
5.2800002 0.35891888 0.95856285 0
5.2830005 0.3503598 0.95890379 0
5.2860003 0.3417899 0.95924473 0
5.2210002 0.52794653 0.94316185 0
5.2240005 0.51960212 0.94349742 0
5.2270002 0.51124686 0.94383287 0
5.2300005 0.50288087 0.94416845 0
5.2330003 0.49450386 0.9445039 0
5.2350001 0.48600614 0.94472754 0
5.2380004 0.47760946 0.94506311 0
5.2410002 0.46920192 0.94539857 0
5.2440004 0.46078354 0.94573414 0
5.2470002 0.45235428 0.9460696 0
5.2500005 0.44391435 0.94640517 0
5.2530003 0.43546346 0.94674063 0
5.2560005 0.42700183 0.9470762 0
5.2590003 0.4185293 0.94741166 0
5.2620006 0.41004601 0.94774723 0
5.2650003 0.40155187 0.94808269 0
5.2680001 0.39304689 0.94841814 0
5.2710004 0.38453114 0.94875371 0
5.2740002 0.37600452 0.94908917 0
5.2770004 0.36746711 0.94942474 0
5.2800002 0.35891888 0.9497602 0
5.2830005 0.3503598 0.95009577 0
5.2860003 0.3417899 0.95043123 0
5.2210002 0.52794653 0.93446565 0
5.2240005 0.51960212 0.93479586 0
5.2270002 0.51124686 0.93512595 0
5.2300005 0.50288087 0.93545604 0
5.2330003 0.49450386 0.93578613 0
5.2350001 0.48600614 0.93600619 0
5.2380004 0.47760946 0.93633628 0
5.2410002 0.46920192 0.93666637 0
5.2440004 0.46078354 0.93699646 0
5.2470002 0.45235428 0.93732655 0
5.2500005 0.44391435 0.93765676 0
5.2530003 0.43546346 0.93798673 0
5.2560005 0.42700183 0.93831694 0
5.2590003 0.4185293 0.93864703 0
5.2620006 0.41004601 0.93897712 0
5.2650003 0.40155187 0.93930721 0
5.2680001 0.39304689 0.93963718 0
5.2710004 0.38453114 0.93996739 0
5.2740002 0.37600452 0.94029737 0
5.2770004 0.36746711 0.94062757 0
5.2800002 0.35891888 0.94095767 0
5.2830005 0.3503598 0.94128776 0
5.2860003 0.3417899 0.94161785 0
5.2210002 0.52794653 0.92576957 0
5.2240005 0.51960212 0.92609429 0
5.2270002 0.51124686 0.9264189 0
5.2300005 0.50288087 0.92674363 0
5.2330003 0.49450386 0.92706835 0
5.2350001 0.48600614 0.92728472 0
5.2380004 0.47760946 0.92760944 0
5.2410002 0.46920192 0.92793417 0
5.2440004 0.46078354 0.9282589 0
5.2470002 0.45235428 0.9285835 0
5.2500005 0.44391435 0.92890823 0
5.2530003 0.43546346 0.92923295 0
5.2560005 0.42700183 0.92955756 0
5.2590003 0.4185293 0.92988229 0
5.2620006 0.41004601 0.93020701 0
5.2650003 0.40155187 0.93053162 0
5.2680001 0.39304689 0.93085635 0
5.2710004 0.38453114 0.93118095 0
5.2740002 0.37600452 0.93150568 0
5.2770004 0.36746711 0.93183041 0
5.2800002 0.35891888 0.93215501 0
5.2830005 0.3503598 0.93247974 0
5.2860003 0.3417899 0.93280447 0
5.2210002 0.52794653 0.91707337 0
5.2240005 0.51960212 0.91739273 0
5.2270002 0.51124686 0.91771197 0
5.2300005 0.50288087 0.91803133 0
5.2330003 0.49450386 0.91835046 0
5.2350001 0.48600614 0.91856337 0
5.2380004 0.47760946 0.91888261 0
5.2410002 0.46920192 0.91920197 0
5.2440004 0.46078354 0.91952121 0
5.2470002 0.45235428 0.91984046 0
5.2500005 0.44391435 0.92015982 0
5.2530003 0.43546346 0.92047894 0
5.2560005 0.42700183 0.9207983 0
5.2590003 0.4185293 0.92111754 0
5.2620006 0.41004601 0.92143691 0
5.2650003 0.40155187 0.92175615 0
5.2680001 0.39304689 0.92207539 0
5.2710004 0.38453114 0.92239463 0
5.2740002 0.37600452 0.92271388 0
5.2770004 0.36746711 0.92303324 0
5.2800002 0.35891888 0.92335248 0
5.2830005 0.3503598 0.92367172 0
5.2860003 0.3417899 0.92399108 0
5.2210002 0.52794653 0.90837729 0
5.2240005 0.51960212 0.90869117 0
5.2270002 0.51124686 0.90900493 0
5.2300005 0.50288087 0.9093188 0
5.2330003 0.49450386 0.90963268 0
5.2350001 0.48600614 0.9098419 0
5.2380004 0.47760946 0.91015577 0
5.2410002 0.46920192 0.91046965 0
5.2440004 0.46078354 0.91078353 0
5.2470002 0.45235428 0.91109741 0
5.2500005 0.44391435 0.91141129 0
5.2530003 0.43546346 0.91172516 0
5.2560005 0.42700183 0.91203904 0
5.2590003 0.4185293 0.91235292 0
5.2620006 0.41004601 0.9126668 0
5.2650003 0.40155187 0.91298056 0
5.2680001 0.39304689 0.91329443 0
5.2710004 0.38453114 0.91360831 0
5.2740002 0.37600452 0.91392219 0
5.2770004 0.36746711 0.91423607 0
5.2800002 0.35891888 0.91454995 0
5.2830005 0.3503598 0.91486382 0
5.2860003 0.3417899 0.91517758 0
5.2210002 0.52794653 0.89968109 0
5.2240005 0.51960212 0.8999896 0
5.2270002 0.51124686 0.900298 0
5.2300005 0.50288087 0.90060651 0
5.2330003 0.49450386 0.90091491 0
5.2350001 0.48600614 0.90112054 0
5.2380004 0.47760946 0.901429 0
5.2410002 0.46920192 0.90173745 0
5.2440004 0.46078354 0.90204597 0
5.2470002 0.45235428 0.9023543 0
5.2500005 0.44391435 0.90266275 0
5.2530003 0.43546346 0.90297127 0
5.2560005 0.42700183 0.90327972 0
5.2590003 0.4185293 0.90358818 0
5.2620006 0.41004601 0.90389663 0
5.2650003 0.40155187 0.90420508 0
5.2680001 0.39304689 0.90451348 0
5.2710004 0.38453114 0.90482199 0
5.2740002 0.37600452 0.90513039 0
5.2770004 0.36746711 0.9054389 0
5.2800002 0.35891888 0.90574729 0
5.2830005 0.3503598 0.90605581 0
5.2860003 0.3417899 0.9063642 0
5.2210002 0.52794653 0.89098495 0
5.2240005 0.51960212 0.89128798 0
5.2270002 0.51124686 0.89159101 0
5.2300005 0.50288087 0.8918941 0
5.2330003 0.49450386 0.89219713 0
5.2350001 0.48600614 0.89239913 0
5.2380004 0.47760946 0.89270216 0
5.2410002 0.46920192 0.89300519 0
5.2440004 0.46078354 0.89330828 0
5.2470002 0.45235428 0.89361131 0
5.2500005 0.44391435 0.89391434 0
5.2530003 0.43546346 0.89421737 0
5.2560005 0.42700183 0.89452046 0
5.2590003 0.4185293 0.89482343 0
5.2620006 0.41004601 0.89512652 0
5.2650003 0.40155187 0.89542949 0
5.2680001 0.39304689 0.89573252 0
5.2710004 0.38453114 0.89603555 0
5.2740002 0.37600452 0.89633858 0
5.2770004 0.36746711 0.89664173 0
5.2800002 0.35891888 0.8969447 0
5.2830005 0.3503598 0.89724779 0
5.2860003 0.3417899 0.89755082 0
5.2210002 0.52794653 0.88228875 0
5.2240005 0.51960212 0.88258642 0
5.2270002 0.51124686 0.88288403 0
5.2300005 0.50288087 0.88318169 0
5.2330003 0.49450386 0.88347924 0
5.2350001 0.48600614 0.88367766 0
5.2380004 0.47760946 0.88397539 0
5.2410002 0.46920192 0.88427293 0
5.2440004 0.46078354 0.8845706 0
5.2470002 0.45235428 0.88486826 0
5.2500005 0.44391435 0.88516593 0
5.2530003 0.43546346 0.88546348 0
5.2560005 0.42700183 0.88576114 0
5.2590003 0.4185293 0.88605881 0
5.2620006 0.41004601 0.88635641 0
5.2650003 0.40155187 0.88665402 0
5.2680001 0.39304689 0.88695157 0
5.2710004 0.38453114 0.88724929 0
5.2740002 0.37600452 0.8875469 0
5.2770004 0.36746711 0.88784456 0
5.2800002 0.35891888 0.88814211 0
5.2830005 0.3503598 0.88843977 0
5.2210002 0.52794653 0.87359262 0
5.2240005 0.51960212 0.87388492 0
5.2270002 0.51124686 0.8741771 0
5.2300005 0.50288087 0.87446928 0
5.2330003 0.49450386 0.87476146 0
5.2350001 0.48600614 0.87495625 0
5.2380004 0.47760946 0.87524855 0
5.2410002 0.46920192 0.87554073 0
5.2440004 0.46078354 0.87583297 0
5.2470002 0.45235428 0.87612516 0
5.2500005 0.44391435 0.8764174 0
5.2530003 0.43546346 0.87670958 0
5.2560005 0.42700183 0.87700188 0
5.2590003 0.4185293 0.87729406 0
5.2620006 0.41004601 0.87758631 0
5.2650003 0.40155187 0.87787849 0
5.2680001 0.39304689 0.87817073 0
5.2710004 0.38453114 0.87846291 0
5.2740002 0.37600452 0.87875509 0
5.2770004 0.36746711 0.87904739 0
5.2800002 0.35891888 0.87933958 0
5.2830005 0.3503598 0.87963176 0
5.2210002 0.52794653 0.86489642 0
5.2240005 0.51960212 0.86518323 0
5.2270002 0.51124686 0.86547005 0
5.2300005 0.50288087 0.86575687 0
5.2330003 0.49450386 0.86604369 0
5.2350001 0.48600614 0.8662349 0
5.2380004 0.47760946 0.86652172 0
5.2410002 0.46920192 0.86680847 0
5.2440004 0.46078354 0.86709535 0
5.2470002 0.45235428 0.86738205 0
5.2500005 0.44391435 0.86766893 0
5.2530003 0.43546346 0.86795574 0
5.2560005 0.42700183 0.8682425 0
5.2590003 0.4185293 0.86852932 0
5.2620006 0.41004601 0.8688162 0
5.2650003 0.40155187 0.86910295 0
5.2680001 0.39304689 0.86938971 0
5.2710004 0.38453114 0.86967659 0
5.2740002 0.37600452 0.86996329 0
5.2770004 0.36746711 0.87025017 0
5.2800002 0.35891888 0.87053698 0
5.2830005 0.3503598 0.87082374 0
5.2210002 0.52794653 0.85620028 0
5.2240005 0.51960212 0.85648173 0
5.2270002 0.51124686 0.85676312 0
5.2300005 0.50288087 0.85704446 0
5.2330003 0.49450386 0.85732591 0
5.2350001 0.48600614 0.85751343 0
5.2380004 0.47760946 0.85779488 0
5.2410002 0.46920192 0.85807627 0
5.2440004 0.46078354 0.85835767 0
5.2470002 0.45235428 0.858639 0
5.2500005 0.44391435 0.85892045 0
5.2530003 0.43546346 0.85920179 0
5.2560005 0.42700183 0.85948324 0
5.2590003 0.4185293 0.85976464 0
5.2620006 0.41004601 0.86004603 0
5.2650003 0.40155187 0.86032742 0
5.2680001 0.39304689 0.86060882 0
5.2710004 0.38453114 0.86089027 0
5.2740002 0.37600452 0.8611716 0
5.2770004 0.36746711 0.861453 0
5.2800002 0.35891888 0.86173439 0
5.2830005 0.3503598 0.86201578 0
5.2210002 0.52794653 0.84750414 0
5.2240005 0.51960212 0.84778011 0
5.2270002 0.51124686 0.84805608 0
5.2300005 0.50288087 0.84833211 0
5.2330003 0.49450386 0.84860802 0
5.2350001 0.48600614 0.84879208 0
5.2380004 0.47760946 0.84906805 0
5.2410002 0.46920192 0.84934402 0
5.2440004 0.46078354 0.84962004 0
5.2470002 0.45235428 0.84989595 0
5.2500005 0.44391435 0.85017198 0
5.2530003 0.43546346 0.85044795 0
5.2560005 0.42700183 0.85072398 0
5.2590003 0.4185293 0.85099995 0
5.2620006 0.41004601 0.85127592 0
5.2650003 0.40155187 0.85155189 0
5.2680001 0.39304689 0.85182786 0
5.2710004 0.38453114 0.85210389 0
5.2740002 0.37600452 0.8523798 0
5.2770004 0.36746711 0.85265583 0
5.2800002 0.35891888 0.8529318 0
5.2830005 0.3503598 0.85320783 0
5.2210002 0.52794653 0.83880794 0
5.2240005 0.51960212 0.83907855 0
5.2270002 0.51124686 0.83934915 0
5.2300005 0.50288087 0.8396197 0
5.2330003 0.49450386 0.83989024 0
5.2350001 0.48600614 0.84007061 0
5.2380004 0.47760946 0.84034121 0
5.2410002 0.46920192 0.84061182 0
5.2440004 0.46078354 0.84088236 0
5.2470002 0.45235428 0.84115291 0
5.2500005 0.44391435 0.84142351 0
5.2530003 0.43546346 0.84169412 0
5.2560005 0.42700183 0.84196466 0
5.2590003 0.4185293 0.84223521 0
5.2620006 0.41004601 0.84250581 0
5.2650003 0.40155187 0.84277642 0
5.2680001 0.39304689 0.8430469 0
5.2710004 0.38453114 0.84331751 0
5.2740002 0.37600452 0.84358805 0
5.2770004 0.36746711 0.84385866 0
5.2800002 0.35891888 0.8441292 0
5.2830005 0.3503598 0.84439981 0
5.2210002 0.52794653 0.8301118 0
5.2240005 0.51960212 0.83037698 0
5.2270002 0.51124686 0.8306421 0
5.2300005 0.50288087 0.83090734 0
5.2330003 0.49450386 0.83117247 0
5.2350001 0.48600614 0.83134925 0
5.2380004 0.47760946 0.83161438 0
5.2410002 0.46920192 0.8318795 0
5.2440004 0.46078354 0.83214474 0
5.2470002 0.45235428 0.83240986 0
5.2500005 0.44391435 0.8326751 0
5.2530003 0.43546346 0.83294022 0
5.2560005 0.42700183 0.83320534 0
5.2590003 0.4185293 0.83347046 0
5.2620006 0.41004601 0.8337357 0
5.2650003 0.40155187 0.83400083 0
5.2680001 0.39304689 0.83426595 0
5.2710004 0.38453114 0.83453119 0
5.2740002 0.37600452 0.83479631 0
5.2770004 0.36746711 0.83506149 0
5.2800002 0.35891888 0.83532667 0
5.2830005 0.3503598 0.83559179 0
5.2210002 0.52794653 0.82141566 0
5.2240005 0.51960212 0.82167542 0
5.2270002 0.51124686 0.82193518 0
5.2300005 0.50288087 0.82219493 0
5.2330003 0.49450386 0.82245469 0
5.2350001 0.48600614 0.82262778 0
5.2380004 0.47760946 0.82288754 0
5.2410002 0.46920192 0.8231473 0
5.2440004 0.46078354 0.82340705 0
5.2470002 0.45235428 0.82366681 0
5.2500005 0.44391435 0.82392657 0
5.2530003 0.43546346 0.82418633 0
5.2560005 0.42700183 0.82444608 0
5.2590003 0.4185293 0.82470584 0
5.2620006 0.41004601 0.8249656 0
5.2650003 0.40155187 0.82522535 0
5.2680001 0.39304689 0.82548505 0
5.2710004 0.38453114 0.82574481 0
5.2740002 0.37600452 0.82600451 0
5.2770004 0.36746711 0.82626426 0
5.2800002 0.35891888 0.82652402 0
5.2830005 0.3503598 0.82678378 0
5.2210002 0.52794653 0.81271946 0
5.2240005 0.51960212 0.81297386 0
5.2270002 0.51124686 0.81322813 0
5.2300005 0.50288087 0.81348252 0
5.2330003 0.49450386 0.8137368 0
5.2350001 0.48600614 0.81390643 0
5.2380004 0.47760946 0.81416076 0
5.2410002 0.46920192 0.8144151 0
5.2440004 0.46078354 0.81466943 0
5.2470002 0.45235428 0.81492376 0
5.2500005 0.44391435 0.8151781 0
5.2530003 0.43546346 0.81543243 0
5.2560005 0.42700183 0.81568682 0
5.2590003 0.4185293 0.8159411 0
5.2620006 0.41004601 0.81619549 0
5.2650003 0.40155187 0.81644976 0
5.2680001 0.39304689 0.81670415 0
5.2710004 0.38453114 0.81695843 0
5.2740002 0.37600452 0.81721282 0
5.2770004 0.36746711 0.81746709 0
5.2800002 0.35891888 0.81772149 0
5.2830005 0.3503598 0.81797582 0
5.2210002 0.52794653 0.80402339 0
5.2240005 0.51960212 0.80427229 0
5.2270002 0.51124686 0.8045212 0
5.2300005 0.50288087 0.80477011 0
5.2330003 0.49450386 0.80501902 0
5.2350001 0.48600614 0.80518496 0
5.2380004 0.47760946 0.80543399 0
5.2410002 0.46920192 0.80568284 0
5.2440004 0.46078354 0.80593181 0
5.2470002 0.45235428 0.80618072 0
5.2500005 0.44391435 0.80642962 0
5.2530003 0.43546346 0.80667853 0
5.2560005 0.42700183 0.8069275 0
5.2590003 0.4185293 0.80717641 0
5.2620006 0.41004601 0.80742538 0
5.2650003 0.40155187 0.80767429 0
5.2680001 0.39304689 0.8079232 0
5.2710004 0.38453114 0.80817211 0
5.2740002 0.37600452 0.80842102 0
5.2770004 0.36746711 0.80866992 0
5.2800002 0.35891888 0.80891889 0
5.2830005 0.3503598 0.8091678 0
5.2210002 0.52794653 0.79532719 0
5.2240005 0.51960212 0.79557073 0
5.2270002 0.51124686 0.79581422 0
5.2300005 0.50288087 0.79605776 0
5.2330003 0.49450386 0.79630125 0
5.2350001 0.48600614 0.79646361 0
5.2380004 0.47760946 0.79670709 0
5.2410002 0.46920192 0.79695058 0
5.2440004 0.46078354 0.79719412 0
5.2470002 0.45235428 0.79743767 0
5.2500005 0.44391435 0.79768121 0
5.2530003 0.43546346 0.79792464 0
5.2560005 0.42700183 0.79816818 0
5.2590003 0.4185293 0.79841173 0
5.2620006 0.41004601 0.79865527 0
5.2650003 0.40155187 0.79889876 0
5.2680001 0.39304689 0.79914224 0
5.2710004 0.38453114 0.79938579 0
5.2740002 0.37600452 0.79962927 0
5.2770004 0.36746711 0.79987276 0
5.2800002 0.35891888 0.8001163 0
5.2830005 0.3503598 0.80035985 0
5.2210002 0.52794653 0.78663099 0
5.2240005 0.51960212 0.78686917 0
5.2270002 0.51124686 0.78710723 0
5.2300005 0.50288087 0.78734535 0
5.2330003 0.49450386 0.78758347 0
5.2350001 0.48600614 0.78774214 0
5.2380004 0.47760946 0.78798032 0
5.2410002 0.46920192 0.78821838 0
5.2440004 0.46078354 0.7884565 0
5.2470002 0.45235428 0.78869462 0
5.2500005 0.44391435 0.78893268 0
5.2530003 0.43546346 0.7891708 0
5.2560005 0.42700183 0.78940892 0
5.2590003 0.4185293 0.78964698 0
5.2620006 0.41004601 0.78988516 0
5.2650003 0.40155187 0.79012322 0
5.2680001 0.39304689 0.79036129 0
5.2710004 0.38453114 0.79059941 0
5.2740002 0.37600452 0.79083753 0
5.2770004 0.36746711 0.79107559 0
5.2800002 0.35891888 0.79131371 0
5.2830005 0.3503598 0.79155183 0
5.2210002 0.52794653 0.77793491 0
5.2240005 0.51960212 0.77816761 0
5.2270002 0.51124686 0.77840024 0
5.2300005 0.50288087 0.778633 0
5.2330003 0.49450386 0.77886558 0
5.2350001 0.48600614 0.77902079 0
5.2380004 0.47760946 0.77925348 0
5.2410002 0.46920192 0.77948618 0
5.2440004 0.46078354 0.77971888 0
5.2470002 0.45235428 0.77995151 0
5.2500005 0.44391435 0.78018427 0
5.2530003 0.43546346 0.78041691 0
5.2560005 0.42700183 0.7806496 0
5.2590003 0.4185293 0.7808823 0
5.2620006 0.41004601 0.78111506 0
5.2650003 0.40155187 0.78134763 0
5.2680001 0.39304689 0.78158033 0
5.2710004 0.38453114 0.78181309 0
5.2740002 0.37600452 0.78204572 0
5.2770004 0.36746711 0.78227842 0
5.2800002 0.35891888 0.78251112 0
5.2830005 0.3503598 0.78274381 0
5.2210002 0.52794653 0.76923871 0
5.2240005 0.51960212 0.76946604 0
5.2270002 0.51124686 0.76969326 0
5.2300005 0.50288087 0.76992059 0
5.2330003 0.49450386 0.7701478 0
5.2350001 0.48600614 0.77029932 0
5.2380004 0.47760946 0.77052665 0
5.2410002 0.46920192 0.77075392 0
5.2440004 0.46078354 0.77098119 0
5.2470002 0.45235428 0.77120847 0
5.2500005 0.44391435 0.77143574 0
5.2530003 0.43546346 0.77166301 0
5.2560005 0.42700183 0.77189028 0
5.2590003 0.4185293 0.77211761 0
5.2620006 0.41004601 0.77234489 0
5.2650003 0.40155187 0.77257216 0
5.2680001 0.39304689 0.77279937 0
5.2710004 0.38453114 0.7730267 0
5.2740002 0.37600452 0.77325398 0
5.2770004 0.36746711 0.77348125 0
5.2800002 0.35891888 0.77370858 0
5.2830005 0.3503598 0.77393579 0
5.2210002 0.52794653 0.76054251 0
5.2240005 0.51960212 0.76076442 0
5.2270002 0.51124686 0.76098633 0
5.2300005 0.50288087 0.76120818 0
5.2330003 0.49450386 0.76143003 0
5.2350001 0.48600614 0.76157796 0
5.2380004 0.47760946 0.76179981 0
5.2410002 0.46920192 0.76202166 0
5.2440004 0.46078354 0.76224357 0
5.2470002 0.45235428 0.76246542 0
5.2500005 0.44391435 0.76268733 0
5.2530003 0.43546346 0.76290917 0
5.2560005 0.42700183 0.76313102 0
5.2590003 0.4185293 0.76335287 0
5.2620006 0.41004601 0.76357478 0
5.2650003 0.40155187 0.76379663 0
5.2680001 0.39304689 0.76401848 0
5.2710004 0.38453114 0.76424038 0
5.2740002 0.37600452 0.76446223 0
5.2770004 0.36746711 0.76468408 0
5.2800002 0.35891888 0.76490593 0
5.2830005 0.3503598 0.76512784 0
5.2210002 0.52794653 0.75184637 0
5.2240005 0.51960212 0.75206292 0
5.2270002 0.51124686 0.75227928 0
5.2300005 0.50288087 0.75249577 0
5.2330003 0.49450386 0.75271225 0
5.2350001 0.48600614 0.75285649 0
5.2380004 0.47760946 0.75307298 0
5.2410002 0.46920192 0.75328946 0
5.2440004 0.46078354 0.75350589 0
5.2470002 0.45235428 0.75372231 0
5.2500005 0.44391435 0.75393879 0
5.2530003 0.43546346 0.75415528 0
5.2560005 0.42700183 0.75437176 0
5.2590003 0.4185293 0.75458819 0
5.2620006 0.41004601 0.75480461 0
5.2650003 0.40155187 0.7550211 0
5.2680001 0.39304689 0.75523758 0
5.2710004 0.38453114 0.755454 0
5.2740002 0.37600452 0.75567043 0
5.2770004 0.36746711 0.75588691 0
5.2800002 0.35891888 0.7561034 0
5.2830005 0.3503598 0.75631982 0
5.2210002 0.52794653 0.74315023 0
5.2240005 0.51960212 0.74336129 0
5.2270002 0.51124686 0.74357235 0
5.2300005 0.50288087 0.74378335 0
5.2330003 0.49450386 0.74399436 0
5.2350001 0.48600614 0.74413514 0
5.2380004 0.47760946 0.74434614 0
5.2410002 0.46920192 0.74455714 0
5.2440004 0.46078354 0.74476826 0
5.2470002 0.45235428 0.74497926 0
5.2500005 0.44391435 0.74519038 0
5.2530003 0.43546346 0.74540138 0
5.2560005 0.42700183 0.74561244 0
5.2590003 0.4185293 0.7458235 0
5.2620006 0.41004601 0.7460345 0
5.2650003 0.40155187 0.74624562 0
5.2680001 0.39304689 0.74645662 0
5.2710004 0.38453114 0.74666762 0
5.2740002 0.37600452 0.74687868 0
5.2770004 0.36746711 0.74708974 0
5.2800002 0.35891888 0.7473008 0
5.2830005 0.3503598 0.74751186 0
5.2210002 0.52794653 0.73445404 0
5.2240005 0.51960212 0.73465967 0
5.2270002 0.51124686 0.73486531 0
5.2300005 0.50288087 0.73507094 0
5.2330003 0.49450386 0.73527658 0
5.2350001 0.48600614 0.73541367 0
5.2380004 0.47760946 0.73561931 0
5.2410002 0.46920192 0.73582494 0
5.2440004 0.46078354 0.73603058 0
5.2470002 0.45235428 0.73623621 0
5.2500005 0.44391435 0.73644185 0
5.2530003 0.43546346 0.73664749 0
5.2560005 0.42700183 0.73685312 0
5.2590003 0.4185293 0.73705876 0
5.2620006 0.41004601 0.73726439 0
5.2650003 0.40155187 0.73747003 0
5.2680001 0.39304689 0.73767567 0
5.2710004 0.38453114 0.7378813 0
5.2740002 0.37600452 0.73808694 0
5.2770004 0.36746711 0.73829257 0
5.2800002 0.35891888 0.73849821 0
5.2830005 0.3503598 0.73870385 0
5.2210002 0.52794653 0.7257579 0
5.2240005 0.51960212 0.72595811 0
5.2270002 0.51124686 0.72615838 0
5.2300005 0.50288087 0.72635865 0
5.2330003 0.49450386 0.7265588 0
5.2350001 0.48600614 0.72669232 0
5.2380004 0.47760946 0.72689253 0
5.2410002 0.46920192 0.72709274 0
5.2440004 0.46078354 0.72729295 0
5.2470002 0.45235428 0.72749317 0
5.2500005 0.44391435 0.72769344 0
5.2530003 0.43546346 0.72789359 0
5.2560005 0.42700183 0.72809386 0
5.2590003 0.4185293 0.72829407 0
5.2620006 0.41004601 0.72849429 0
5.2650003 0.40155187 0.7286945 0
5.2680001 0.39304689 0.72889471 0
5.2710004 0.38453114 0.72909498 0
5.2740002 0.37600452 0.72929513 0
5.2770004 0.36746711 0.72949541 0
5.2800002 0.35891888 0.72969562 0
5.2830005 0.3503598 0.72989583 0
5.2210002 0.52794653 0.71706176 0
5.2240005 0.51960212 0.71725655 0
5.2270002 0.51124686 0.71745133 0
5.2300005 0.50288087 0.71764624 0
5.2330003 0.49450386 0.71784103 0
5.2350001 0.48600614 0.71797085 0
5.2380004 0.47760946 0.7181657 0
5.2410002 0.46920192 0.71836048 0
5.2440004 0.46078354 0.71855533 0
5.2470002 0.45235428 0.71875012 0
5.2500005 0.44391435 0.71894491 0
5.2530003 0.43546346 0.71913975 0
5.2560005 0.42700183 0.71933454 0
5.2590003 0.4185293 0.71952939 0
5.2620006 0.41004601 0.71972418 0
5.2650003 0.40155187 0.71991897 0
5.2680001 0.39304689 0.72011375 0
5.2710004 0.38453114 0.72030866 0
5.2740002 0.37600452 0.72050345 0
5.2770004 0.36746711 0.72069824 0
5.2800002 0.35891888 0.72089303 0
5.2830005 0.3503598 0.72108781 0
5.2210002 0.52794653 0.70836556 0
5.2240005 0.51960212 0.70855498 0
5.2270002 0.51124686 0.70874441 0
5.2300005 0.50288087 0.70893383 0
5.2330003 0.49450386 0.70912313 0
5.2350001 0.48600614 0.7092495 0
5.2380004 0.47760946 0.70943892 0
5.2410002 0.46920192 0.70962822 0
5.2440004 0.46078354 0.70981765 0
5.2470002 0.45235428 0.71000707 0
5.2500005 0.44391435 0.7101965 0
5.2530003 0.43546346 0.71038586 0
5.2560005 0.42700183 0.71057528 0
5.2590003 0.4185293 0.71076465 0
5.2620006 0.41004601 0.71095407 0
5.2650003 0.40155187 0.71114349 0
5.2680001 0.39304689 0.71133286 0
5.2710004 0.38453114 0.71152228 0
5.2740002 0.37600452 0.71171165 0
5.2770004 0.36746711 0.71190107 0
5.2800002 0.35891888 0.71209049 0
5.2830005 0.3503598 0.71227986 0
5.2210002 0.52794653 0.69966942 0
5.2240005 0.51960212 0.69985342 0
5.2270002 0.51124686 0.70003742 0
5.2300005 0.50288087 0.70022142 0
5.2330003 0.49450386 0.70040536 0
5.2350001 0.48600614 0.70052803 0
5.2380004 0.47760946 0.70071203 0
5.2410002 0.46920192 0.70089602 0
5.2440004 0.46078354 0.70108002 0
5.2470002 0.45235428 0.70126402 0
5.2500005 0.44391435 0.70144796 0
5.2530003 0.43546346 0.70163196 0
5.2560005 0.42700183 0.70181596 0
5.2590003 0.4185293 0.70199996 0
5.2620006 0.41004601 0.70218396 0
5.2650003 0.40155187 0.7023679 0
5.2680001 0.39304689 0.7025519 0
5.2710004 0.38453114 0.7027359 0
5.2740002 0.37600452 0.7029199 0
5.2770004 0.36746711 0.7031039 0
5.2800002 0.35891888 0.70328784 0
5.2830005 0.3503598 0.7034719 0
5.2210002 0.52794653 0.69097328 0
5.2240005 0.51960212 0.69115186 0
5.2270002 0.51124686 0.69133043 0
5.2300005 0.50288087 0.69150901 0
5.2330003 0.49450386 0.69168758 0
5.2350001 0.48600614 0.69180667 0
5.2380004 0.47760946 0.69198525 0
5.2410002 0.46920192 0.69216383 0
5.2440004 0.46078354 0.6923424 0
5.2470002 0.45235428 0.69252098 0
5.2500005 0.44391435 0.69269955 0
5.2530003 0.43546346 0.69287813 0
5.2560005 0.42700183 0.6930567 0
5.2590003 0.4185293 0.69323528 0
5.2620006 0.41004601 0.69341385 0
5.2650003 0.40155187 0.69359243 0
5.2680001 0.39304689 0.693771 0
5.2710004 0.38453114 0.69394958 0
5.2740002 0.37600452 0.69412816 0
5.2770004 0.36746711 0.69430673 0
5.2800002 0.35891888 0.69448531 0
5.2830005 0.3503598 0.69466388 0
5.2210002 0.52794653 0.68227708 0
5.2240005 0.51960212 0.68245029 0
5.2270002 0.51124686 0.68262345 0
5.2300005 0.50288087 0.6827966 0
5.2330003 0.49450386 0.68296981 0
5.2350001 0.48600614 0.6830852 0
5.2380004 0.47760946 0.68325841 0
5.2410002 0.46920192 0.68343151 0
5.2440004 0.46078354 0.68360472 0
5.2470002 0.45235428 0.68377787 0
5.2500005 0.44391435 0.68395102 0
5.2530003 0.43546346 0.68412423 0
5.2560005 0.42700183 0.68429738 0
5.2590003 0.4185293 0.68447053 0
5.2620006 0.41004601 0.68464375 0
5.2650003 0.40155187 0.68481684 0
5.2680001 0.39304689 0.68499005 0
5.2710004 0.38453114 0.6851632 0
5.2740002 0.37600452 0.68533635 0
5.2770004 0.36746711 0.68550956 0
5.2800002 0.35891888 0.68568271 0
5.2830005 0.3503598 0.68585587 0
5.2210002 0.52794653 0.67358094 0
5.2240005 0.51960212 0.67374873 0
5.2270002 0.51124686 0.67391646 0
5.2300005 0.50288087 0.67408419 0
5.2330003 0.49450386 0.67425191 0
5.2350001 0.48600614 0.67436379 0
5.2380004 0.47760946 0.67453158 0
5.2410002 0.46920192 0.67469931 0
5.2440004 0.46078354 0.67486709 0
5.2470002 0.45235428 0.67503482 0
5.2500005 0.44391435 0.67520261 0
5.2530003 0.43546346 0.67537034 0
5.2560005 0.42700183 0.67553806 0
5.2590003 0.4185293 0.67570585 0
5.2620006 0.41004601 0.67587364 0
5.2650003 0.40155187 0.67604136 0
5.2680001 0.39304689 0.67620909 0
5.2710004 0.38453114 0.67637682 0
5.2740002 0.37600452 0.67654461 0
5.2770004 0.36746711 0.67671239 0
5.2800002 0.35891888 0.67688012 0
5.2830005 0.3503598 0.67704791 0
5.2210002 0.52794653 0.66488481 0
5.2240005 0.51960212 0.66504717 0
5.2270002 0.51124686 0.66520947 0
5.2300005 0.50288087 0.66537184 0
5.2330003 0.49450386 0.66553414 0
5.2350001 0.48600614 0.66564238 0
5.2380004 0.47760946 0.66580474 0
5.2410002 0.46920192 0.66596711 0
5.2440004 0.46078354 0.66612947 0
5.2470002 0.45235428 0.66629177 0
5.2500005 0.44391435 0.66645414 0
5.2530003 0.43546346 0.66661644 0
5.2560005 0.42700183 0.6667788 0
5.2590003 0.4185293 0.66694117 0
5.2620006 0.41004601 0.66710353 0
5.2650003 0.40155187 0.66726583 0
5.2680001 0.39304689 0.66742814 0
5.2710004 0.38453114 0.6675905 0
5.2740002 0.37600452 0.66775286 0
5.2770004 0.36746711 0.66791523 0
5.2800002 0.35891888 0.66807753 0
5.2830005 0.3503598 0.66823989 0
5.2210002 0.52794653 0.65618861 0
5.2240005 0.51960212 0.65634561 0
5.2270002 0.51124686 0.65650249 0
5.2300005 0.50288087 0.65665942 0
5.2330003 0.49450386 0.65681636 0
5.2350001 0.48600614 0.65692097 0
5.2380004 0.47760946 0.65707791 0
5.2410002 0.46920192 0.65723485 0
5.2440004 0.46078354 0.65739179 0
5.2470002 0.45235428 0.65754867 0
5.2500005 0.44391435 0.65770566 0
5.2530003 0.43546346 0.65786254 0
5.2560005 0.42700183 0.65801954 0
5.2590003 0.4185293 0.65817642 0
5.2620006 0.41004601 0.65833342 0
5.2650003 0.40155187 0.6584903 0
5.2680001 0.39304689 0.65864718 0
5.2710004 0.38453114 0.65880418 0
5.2740002 0.37600452 0.65896106 0
5.2770004 0.36746711 0.65911806 0
5.2800002 0.35891888 0.65927494 0
5.2830005 0.3503598 0.65943193 0
