# .PCD v0.7 - Point Cloud Data file format
VERSION 0.7
FIELDS x y z intensity
SIZE 4 4 4 4
TYPE F F F F
COUNT 1 1 1 1
WIDTH 1373
HEIGHT 1
VIEWPOINT 0 0 0 1 0 0 0
POINTS 1373
DATA ascii
5.8300004 -0.33984038 0.70763505 0
5.8270001 -0.34946728 0.70746732 0
5.8250003 -0.35914111 0.7073555 0
5.8220005 -0.36874819 0.70718771 0
5.8200002 -0.37840578 0.70707583 0
5.8170004 -0.38799304 0.70690811 0
5.9120002 -0.02611482 0.70227772 0
5.9090004 -0.036062822 0.70211542 0
5.9060001 -0.046 0.70195305 0
5.9040003 -0.05592816 0.70184481 0
5.9010005 -0.065845497 0.70168251 0
5.8990002 -0.075757422 0.70157421 0
5.8960004 -0.085654922 0.7014119 0
5.8930001 -0.095541596 0.7012496 0
5.8910003 -0.10542826 0.70114136 0
5.8880005 -0.1152951 0.70097899 0
5.8860002 -0.12516554 0.70087075 0
5.8830004 -0.13501252 0.70070839 0
5.8810005 -0.14486673 0.70060021 0
5.8780003 -0.15469387 0.7004379 0
5.8750005 -0.16451021 0.70027554 0
5.8730001 -0.17433916 0.7001673 0
5.8700004 -0.18413563 0.70000494 0
5.8680005 -0.19394836 0.69989669 0
5.8650002 -0.203725 0.69973439 0
5.8630004 -0.21352148 0.69962615 0
5.8600001 -0.22327827 0.69946378 0
5.8580003 -0.23305853 0.6993556 0
5.8550005 -0.24279548 0.69919324 0
5.8520002 -0.2525216 0.69903088 0
5.8500004 -0.26227662 0.69892263 0
5.8470001 -0.27198288 0.69876027 0
5.8450003 -0.28172165 0.69865209 0
5.8420005 -0.29140809 0.69848979 0
5.8400002 -0.30113062 0.69838148 0
5.8370004 -0.31079724 0.69821918 0
5.8350005 -0.32050353 0.69811094 0
5.8320003 -0.33015031 0.69794858 0
5.8300004 -0.33984038 0.69784039 0
5.8270001 -0.34946728 0.69767797 0
5.8250003 -0.35914111 0.69756979 0
5.8220005 -0.36874819 0.69740748 0
5.8200002 -0.37840578 0.69729924 0
5.8170004 -0.38799304 0.69713688 0
5.9120002 -0.02611482 0.69233513 0
5.9090004 -0.036062822 0.69217825 0
5.9060001 -0.046 0.69202125 0
5.9040003 -0.05592816 0.6919167 0
5.9010005 -0.065845497 0.69175971 0
5.8990002 -0.075757422 0.69165516 0
5.8960004 -0.085654922 0.69149816 0
5.8930001 -0.095541596 0.69134122 0
5.8910003 -0.10542826 0.69123662 0
5.8880005 -0.1152951 0.69107974 0
5.8860002 -0.12516554 0.69097507 0
5.8830004 -0.13501252 0.69081813 0
5.8810005 -0.14486673 0.69071352 0
5.8780003 -0.15469387 0.69055659 0
5.8750005 -0.16451021 0.69039965 0
5.8730001 -0.17433916 0.69029498 0
5.8700004 -0.18413563 0.6901381 0
5.8680005 -0.19394836 0.6900335 0
5.8650002 -0.203725 0.68987656 0
5.8630004 -0.21352148 0.68977189 0
5.8600001 -0.22327827 0.68961501 0
5.8580003 -0.23305853 0.68951041 0
5.8550005 -0.24279548 0.68935347 0
5.8520002 -0.2525216 0.68919653 0
5.8500004 -0.26227662 0.68909192 0
5.8470001 -0.27198288 0.68893492 0
5.8450003 -0.28172165 0.68883038 0
5.8420005 -0.29140809 0.68867344 0
5.8400002 -0.30113062 0.68856877 0
5.8370004 -0.31079724 0.68841183 0
5.8350005 -0.32050353 0.68830729 0
5.8320003 -0.33015031 0.68815029 0
5.8300004 -0.33984038 0.68804568 0
5.8270001 -0.34946728 0.68788874 0
5.8250003 -0.35914111 0.68778419 0
5.8220005 -0.36874819 0.6876272 0
5.8200002 -0.37840578 0.68752259 0
5.8170004 -0.38799304 0.68736565 0
5.9120002 -0.02611482 0.68239254 0
5.9090004 -0.036062822 0.68224108 0
5.9060001 -0.046 0.68208951 0
5.9040003 -0.05592816 0.68198848 0
5.9010005 -0.065845497 0.68183696 0
5.8990002 -0.075757422 0.68173599 0
5.8960004 -0.085654922 0.68158448 0
5.8930001 -0.095541596 0.68143296 0
5.8910003 -0.10542826 0.68133187 0
5.8880005 -0.1152951 0.68118042 0
5.8860002 -0.12516554 0.68107939 0
5.8830004 -0.13501252 0.68092787 0
5.8810005 -0.14486673 0.6808269 0
5.8780003 -0.15469387 0.68067533 0
5.8750005 -0.16451021 0.68052387 0
5.8730001 -0.17433916 0.68042278 0
5.8700004 -0.18413563 0.68027127 0
5.8680005 -0.19394836 0.6801703 0
5.8650002 -0.203725 0.68001878 0
5.8630004 -0.21352148 0.67991769 0
5.8600001 -0.22327827 0.67976618 0
5.8580003 -0.23305853 0.67966521 0
5.8550005 -0.24279548 0.67951369 0
5.8520002 -0.2525216 0.67936218 0
5.8500004 -0.26227662 0.67926115 0
5.8470001 -0.27198288 0.67910963 0
5.8450003 -0.28172165 0.6790086 0
5.8420005 -0.29140809 0.67885709 0
5.8400002 -0.30113062 0.67875612 0
5.8370004 -0.31079724 0.6786046 0
5.8350005 -0.32050353 0.67850351 0
5.8320003 -0.33015031 0.678352 0
5.8300004 -0.33984038 0.67825103 0
5.8270001 -0.34946728 0.67809951 0
5.8250003 -0.35914111 0.67799848 0
5.8220005 -0.36874819 0.67784697 0
5.8200002 -0.37840578 0.67774594 0
5.8170004 -0.38799304 0.67759442 0
5.9120002 -0.02611482 0.67244995 0
5.9090004 -0.036062822 0.67230386 0
5.9060001 -0.046 0.67215776 0
5.9040003 -0.05592816 0.67206037 0
5.9010005 -0.065845497 0.67191422 0
5.8990002 -0.075757422 0.67181683 0
5.8960004 -0.085654922 0.67167073 0
5.8930001 -0.095541596 0.67152464 0
5.8910003 -0.10542826 0.67142725 0
5.8880005 -0.1152951 0.6712811 0
5.8860002 -0.12516554 0.67118371 0
5.8830004 -0.13501252 0.67103755 0
5.8810005 -0.14486673 0.67094016 0
5.8780003 -0.15469387 0.67079407 0
5.8750005 -0.16451021 0.67064798 0
5.8730001 -0.17433916 0.67055058 0
5.8700004 -0.18413563 0.67040443 0
5.8680005 -0.19394836 0.67030704 0
5.8650002 -0.203725 0.67016095 0
5.8630004 -0.21352148 0.6700635 0
5.8600001 -0.22327827 0.6699174 0
5.8580003 -0.23305853 0.66982001 0
5.8550005 -0.24279548 0.66967392 0
5.8520002 -0.2525216 0.66952777 0
5.8500004 -0.26227662 0.66943038 0
5.8470001 -0.27198288 0.66928428 0
5.8450003 -0.28172165 0.66918683 0
5.8420005 -0.29140809 0.6690408 0
5.8400002 -0.30113062 0.66894341 0
5.8370004 -0.31079724 0.66879725 0
5.8350005 -0.32050353 0.66869986 0
5.8320003 -0.33015031 0.66855371 0
5.8300004 -0.33984038 0.66845632 0
5.8270001 -0.34946728 0.66831023 0
5.8250003 -0.35914111 0.66821283 0
5.8220005 -0.36874819 0.66806674 0
5.8200002 -0.37840578 0.66796929 0
5.8170004 -0.38799304 0.6678232 0
5.9120002 -0.02611482 0.66250736 0
5.9090004 -0.036062822 0.66236669 0
5.9060001 -0.046 0.66222596 0
5.9040003 -0.05592816 0.66213214 0
5.9010005 -0.065845497 0.66199148 0
5.8990002 -0.075757422 0.66189766 0
5.8960004 -0.085654922 0.66175699 0
5.8930001 -0.095541596 0.66161627 0
5.8910003 -0.10542826 0.66152251 0
5.8880005 -0.1152951 0.66138184 0
5.8860002 -0.12516554 0.66128802 0
5.8830004 -0.13501252 0.66114736 0
5.8810005 -0.14486673 0.66105354 0
5.8780003 -0.15469387 0.66091281 0
5.8750005 -0.16451021 0.66077209 0
5.8730001 -0.17433916 0.66067833 0
5.8700004 -0.18413563 0.6605376 0
5.8680005 -0.19394836 0.66044384 0
5.8650002 -0.203725 0.66030312 0
5.8630004 -0.21352148 0.6602093 0
5.8600001 -0.22327827 0.66006863 0
5.8580003 -0.23305853 0.65997481 0
5.8550005 -0.24279548 0.65983415 0
5.8520002 -0.2525216 0.65969342 0
5.8500004 -0.26227662 0.65959966 0
5.8470001 -0.27198288 0.65945894 0
5.8450003 -0.28172165 0.65936518 0
5.8420005 -0.29140809 0.65922445 0
5.8400002 -0.30113062 0.65913063 0
5.8370004 -0.31079724 0.65898991 0
5.8350005 -0.32050353 0.65889621 0
5.8320003 -0.33015031 0.65875542 0
5.8300004 -0.33984038 0.65866166 0
5.8270001 -0.34946728 0.65852094 0
5.8250003 -0.35914111 0.65842712 0
5.8220005 -0.36874819 0.65828645 0
5.8200002 -0.37840578 0.65819263 0
5.8170004 -0.38799304 0.65805197 0
5.9120002 -0.02611482 0.65256476 0
5.9090004 -0.036062822 0.65242952 0
5.9060001 -0.046 0.65229416 0
5.9040003 -0.05592816 0.65220404 0
5.9010005 -0.065845497 0.65206873 0
5.8990002 -0.075757422 0.65197855 0
5.8960004 -0.085654922 0.65184325 0
5.8930001 -0.095541596 0.65170795 0
5.8910003 -0.10542826 0.65161777 0
5.8880005 -0.1152951 0.65148252 0
5.8860002 -0.12516554 0.65139228 0
5.8830004 -0.13501252 0.65125704 0
5.8810005 -0.14486673 0.65116686 0
5.8780003 -0.15469387 0.65103155 0
5.8750005 -0.16451021 0.65089631 0
5.8730001 -0.17433916 0.65080607 0
5.8700004 -0.18413563 0.65067077 0
5.8680005 -0.19394836 0.65058064 0
5.8650002 -0.203725 0.65044528 0
5.8630004 -0.21352148 0.6503551 0
5.8600001 -0.22327827 0.6502198 0
5.8580003 -0.23305853 0.65012968 0
5.8550005 -0.24279548 0.64999437 0
5.8520002 -0.2525216 0.64985907 0
5.8500004 -0.26227662 0.64976889 0
5.8470001 -0.27198288 0.64963359 0
5.8450003 -0.28172165 0.6495434 0
5.8420005 -0.29140809 0.6494081 0
5.8400002 -0.30113062 0.64931792 0
5.8370004 -0.31079724 0.64918268 0
5.8350005 -0.32050353 0.6490925 0
5.8320003 -0.33015031 0.64895713 0
5.8300004 -0.33984038 0.64886695 0
5.8270001 -0.34946728 0.64873171 0
5.8250003 -0.35914111 0.64864147 0
5.8220005 -0.36874819 0.64850622 0
5.8200002 -0.37840578 0.64841604 0
5.8170004 -0.38799304 0.64828074 0
5.9120002 -0.02611482 0.64262217 0
5.9090004 -0.036062822 0.64249229 0
5.9060001 -0.046 0.64236242 0
5.9040003 -0.05592816 0.64227587 0
5.9010005 -0.065845497 0.64214599 0
5.8990002 -0.075757422 0.64205939 0
5.8960004 -0.085654922 0.64192951 0
5.8930001 -0.095541596 0.64179963 0
5.8910003 -0.10542826 0.64171308 0
5.8880005 -0.1152951 0.6415832 0
5.8860002 -0.12516554 0.6414966 0
5.8830004 -0.13501252 0.64136672 0
5.8810005 -0.14486673 0.64128017 0
5.8780003 -0.15469387 0.6411503 0
5.8750005 -0.16451021 0.64102042 0
5.8730001 -0.17433916 0.64093381 0
5.8700004 -0.18413563 0.64080393 0
5.8680005 -0.19394836 0.64071739 0
5.8650002 -0.203725 0.64058751 0
5.8630004 -0.21352148 0.6405009 0
5.8600001 -0.22327827 0.64037108 0
5.8580003 -0.23305853 0.64028448 0
5.8550005 -0.24279548 0.6401546 0
5.8520002 -0.2525216 0.64002472 0
5.8500004 -0.26227662 0.63993812 0
5.8470001 -0.27198288 0.63980824 0
5.8450003 -0.28172165 0.63972169 0
5.8420005 -0.29140809 0.63959181 0
5.8400002 -0.30113062 0.63950521 0
5.8370004 -0.31079724 0.63937533 0
5.8350005 -0.32050353 0.63928878 0
5.8320003 -0.33015031 0.6391589 0
5.8300004 -0.33984038 0.6390723 0
5.8270001 -0.34946728 0.63894242 0
5.8250003 -0.35914111 0.63885587 0
5.8220005 -0.36874819 0.638726 0
5.8200002 -0.37840578 0.63863939 0
5.8170004 -0.38799304 0.63850951 0
5.9120002 -0.02611482 0.63267958 0
5.9090004 -0.036062822 0.63255513 0
5.9060001 -0.046 0.63243067 0
5.9040003 -0.05592816 0.6323477 0
5.9010005 -0.065845497 0.63222325 0
5.8990002 -0.075757422 0.63214028 0
5.8960004 -0.085654922 0.63201582 0
5.8930001 -0.095541596 0.63189137 0
5.8910003 -0.10542826 0.6318084 0
5.8880005 -0.1152951 0.63168389 0
5.8860002 -0.12516554 0.63160092 0
5.8830004 -0.13501252 0.63147646 0
5.8810005 -0.14486673 0.63139349 0
5.8780003 -0.15469387 0.63126904 0
5.8750005 -0.16451021 0.63114458 0
5.8730001 -0.17433916 0.63106155 0
5.8700004 -0.18413563 0.6309371 0
5.8680005 -0.19394836 0.63085413 0
5.8650002 -0.203725 0.63072968 0
5.8630004 -0.21352148 0.63064671 0
5.8600001 -0.22327827 0.63052225 0
5.8580003 -0.23305853 0.63043928 0
5.8550005 -0.24279548 0.63031483 0
5.8520002 -0.2525216 0.63019037 0
5.8500004 -0.26227662 0.6301074 0
5.8470001 -0.27198288 0.62998289 0
5.8450003 -0.28172165 0.62989992 0
5.8420005 -0.29140809 0.62977546 0
5.8400002 -0.30113062 0.62969249 0
5.8370004 -0.31079724 0.62956804 0
5.8350005 -0.32050353 0.62948507 0
5.8320003 -0.33015031 0.62936062 0
5.8300004 -0.33984038 0.62927765 0
5.8270001 -0.34946728 0.62915313 0
5.8250003 -0.35914111 0.62907016 0
5.8220005 -0.36874819 0.62894571 0
5.8200002 -0.37840578 0.62886274 0
5.8170004 -0.38799304 0.62873828 0
5.9120002 -0.02611482 0.62273699 0
5.9090004 -0.036062822 0.62261796 0
5.9060001 -0.046 0.62249893 0
5.9040003 -0.05592816 0.62241954 0
5.9010005 -0.065845497 0.62230051 0
5.8990002 -0.075757422 0.62222111 0
5.8960004 -0.085654922 0.62210208 0
5.8930001 -0.095541596 0.62198305 0
5.8910003 -0.10542826 0.62190366 0
5.8880005 -0.1152951 0.62178463 0
5.8860002 -0.12516554 0.62170523 0
5.8830004 -0.13501252 0.6215862 0
5.8810005 -0.14486673 0.62150681 0
5.8780003 -0.15469387 0.62138778 0
5.8750005 -0.16451021 0.62126875 0
5.8730001 -0.17433916 0.62118936 0
5.8700004 -0.18413563 0.62107027 0
5.8680005 -0.19394836 0.62099093 0
5.8650002 -0.203725 0.6208719 0
5.8630004 -0.21352148 0.62079251 0
5.8600001 -0.22327827 0.62067342 0
5.8580003 -0.23305853 0.62059408 0
5.8550005 -0.24279548 0.62047505 0
5.8520002 -0.2525216 0.62035596 0
5.8500004 -0.26227662 0.62027663 0
5.8470001 -0.27198288 0.62015754 0
5.8450003 -0.28172165 0.62007821 0
5.8420005 -0.29140809 0.61995912 0
5.8400002 -0.30113062 0.61987978 0
5.8370004 -0.31079724 0.61976075 0
5.8350005 -0.32050353 0.61968136 0
5.8320003 -0.33015031 0.61956233 0
5.8300004 -0.33984038 0.61948293 0
5.8270001 -0.34946728 0.6193639 0
5.8250003 -0.35914111 0.61928451 0
5.8220005 -0.36874819 0.61916548 0
5.8200002 -0.37840578 0.61908609 0
5.8170004 -0.38799304 0.61896706 0
5.9120002 -0.02611482 0.6127944 0
5.9090004 -0.036062822 0.61268079 0
5.9060001 -0.046 0.61256713 0
5.9040003 -0.05592816 0.61249137 0
5.9010005 -0.065845497 0.61237776 0
5.8990002 -0.075757422 0.61230195 0
5.8960004 -0.085654922 0.61218834 0
5.8930001 -0.095541596 0.61207467 0
5.8910003 -0.10542826 0.61199892 0
5.8880005 -0.1152951 0.61188531 0
5.8860002 -0.12516554 0.61180955 0
5.8830004 -0.13501252 0.61169589 0
5.8810005 -0.14486673 0.61162013 0
5.8780003 -0.15469387 0.61150646 0
5.8750005 -0.16451021 0.61139286 0
5.8730001 -0.17433916 0.6113171 0
5.8700004 -0.18413563 0.61120343 0
5.8680005 -0.19394836 0.61112773 0
5.8650002 -0.203725 0.61101407 0
5.8630004 -0.21352148 0.61093831 0
5.8600001 -0.22327827 0.61082464 0
5.8580003 -0.23305853 0.61074889 0
5.8550005 -0.24279548 0.61063528 0
5.8520002 -0.2525216 0.61052161 0
5.8500004 -0.26227662 0.61044586 0
5.8470001 -0.27198288 0.61033225 0
5.8450003 -0.28172165 0.61025643 0
5.8420005 -0.29140809 0.61014283 0
5.8400002 -0.30113062 0.61006707 0
5.8370004 -0.31079724 0.6099534 0
5.8350005 -0.32050353 0.60987771 0
5.8320003 -0.33015031 0.60976404 0
5.8300004 -0.33984038 0.60968828 0
5.8270001 -0.34946728 0.60957462 0
5.8250003 -0.35914111 0.60949886 0
5.8220005 -0.36874819 0.60938525 0
5.8200002 -0.37840578 0.60930943 0
5.8170004 -0.38799304 0.60919583 0
5.9120002 -0.02611482 0.60285187 0
5.9090004 -0.036062822 0.60274363 0
5.9060001 -0.046 0.60263538 0
5.9040003 -0.05592816 0.6025632 0
5.9010005 -0.065845497 0.60245502 0
5.8990002 -0.075757422 0.60238284 0
5.8960004 -0.085654922 0.6022746 0
5.8930001 -0.095541596 0.60216641 0
5.8910003 -0.10542826 0.60209423 0
5.8880005 -0.1152951 0.60198605 0
5.8860002 -0.12516554 0.60191381 0
5.8830004 -0.13501252 0.60180563 0
5.8810005 -0.14486673 0.60173345 0
5.8780003 -0.15469387 0.60162526 0
5.8750005 -0.16451021 0.60151702 0
5.8730001 -0.17433916 0.60144484 0
5.8700004 -0.18413563 0.60133666 0
5.8680005 -0.19394836 0.60126448 0
5.8650002 -0.203725 0.60115623 0
5.8630004 -0.21352148 0.60108411 0
5.8600001 -0.22327827 0.60097587 0
5.8580003 -0.23305853 0.60090375 0
5.8550005 -0.24279548 0.60079551 0
5.8520002 -0.2525216 0.60068727 0
5.8500004 -0.26227662 0.60061514 0
5.8470001 -0.27198288 0.6005069 0
5.8450003 -0.28172165 0.60043472 0
5.8420005 -0.29140809 0.60032654 0
5.8400002 -0.30113062 0.60025436 0
5.8370004 -0.31079724 0.60014611 0
5.8350005 -0.32050353 0.60007399 0
5.8320003 -0.33015031 0.59996575 0
5.8300004 -0.33984038 0.59989357 0
5.8270001 -0.34946728 0.59978533 0
5.8250003 -0.35914111 0.59971321 0
5.8220005 -0.36874819 0.59960496 0
5.8200002 -0.37840578 0.59953284 0
5.8170004 -0.38799304 0.5994246 0
5.9120002 -0.02611482 0.59290922 0
5.9090004 -0.036062822 0.59280646 0
5.9060001 -0.046 0.59270358 0
5.9040003 -0.05592816 0.59263504 0
5.9010005 -0.065845497 0.59253228 0
5.8990002 -0.075757422 0.59246373 0
5.8960004 -0.085654922 0.59236085 0
5.8930001 -0.095541596 0.5922581 0
5.8910003 -0.10542826 0.59218955 0
5.8880005 -0.1152951 0.59208673 0
5.8860002 -0.12516554 0.59201813 0
5.8830004 -0.13501252 0.59191537 0
5.8810005 -0.14486673 0.59184682 0
5.8780003 -0.15469387 0.59174395 0
5.8750005 -0.16451021 0.59164119 0
5.8730001 -0.17433916 0.59157264 0
5.8700004 -0.18413563 0.59146982 0
5.8680005 -0.19394836 0.59140128 0
5.8650002 -0.203725 0.59129846 0
5.8630004 -0.21352148 0.59122992 0
5.8600001 -0.22327827 0.59112704 0
5.8580003 -0.23305853 0.59105855 0
5.8550005 -0.24279548 0.59095573 0
5.8520002 -0.2525216 0.59085292 0
5.8500004 -0.26227662 0.59078437 0
5.8470001 -0.27198288 0.59068155 0
5.8450003 -0.28172165 0.59061301 0
5.8420005 -0.29140809 0.59051019 0
5.8400002 -0.30113062 0.59044164 0
5.8370004 -0.31079724 0.59033883 0
5.8350005 -0.32050353 0.59027028 0
5.8320003 -0.33015031 0.59016746 0
5.8300004 -0.33984038 0.59009892 0
5.8270001 -0.34946728 0.5899961 0
5.8250003 -0.35914111 0.58992755 0
5.8220005 -0.36874819 0.58982474 0
5.8200002 -0.37840578 0.58975619 0
5.8170004 -0.38799304 0.58965337 0
5.9120002 -0.02611482 0.58296669 0
5.9090004 -0.036062822 0.58286923 0
5.9060001 -0.046 0.58277184 0
5.9040003 -0.05592816 0.58270693 0
5.9010005 -0.065845497 0.58260953 0
5.8990002 -0.075757422 0.58254457 0
5.8960004 -0.085654922 0.58244717 0
5.8930001 -0.095541596 0.58234978 0
5.8910003 -0.10542826 0.58228481 0
5.8880005 -0.1152951 0.58218741 0
5.8860002 -0.12516554 0.58212245 0
5.8830004 -0.13501252 0.58202505 0
5.8810005 -0.14486673 0.58196014 0
5.8780003 -0.15469387 0.58186269 0
5.8750005 -0.16451021 0.58176529 0
5.8730001 -0.17433916 0.58170038 0
5.8700004 -0.18413563 0.58160299 0
5.8680005 -0.19394836 0.58153808 0
5.8650002 -0.203725 0.58144063 0
5.8630004 -0.21352148 0.58137572 0
5.8600001 -0.22327827 0.58127826 0
5.8580003 -0.23305853 0.58121336 0
5.8550005 -0.24279548 0.58111596 0
5.8520002 -0.2525216 0.58101857 0
5.8500004 -0.26227662 0.5809536 0
5.8470001 -0.27198288 0.5808562 0
5.8450003 -0.28172165 0.58079123 0
5.8420005 -0.29140809 0.58069384 0
5.8400002 -0.30113062 0.58062887 0
5.8370004 -0.31079724 0.58053148 0
5.8350005 -0.32050353 0.58046657 0
5.8320003 -0.33015031 0.58036917 0
5.8300004 -0.33984038 0.58030427 0
5.8270001 -0.34946728 0.58020681 0
5.8250003 -0.35914111 0.5801419 0
5.8220005 -0.36874819 0.58004451 0
5.8200002 -0.37840578 0.57997954 0
5.8170004 -0.38799304 0.57988214 0
5.9120002 -0.02611482 0.57302403 0
5.9090004 -0.036062822 0.57293206 0
5.9060001 -0.046 0.57284009 0
5.9040003 -0.05592816 0.5727787 0
5.9010005 -0.065845497 0.57268673 0
5.8990002 -0.075757422 0.5726254 0
5.8960004 -0.085654922 0.57253343 0
5.8930001 -0.095541596 0.5724414 0
5.8910003 -0.10542826 0.57238007 0
5.8880005 -0.1152951 0.5722881 0
5.8860002 -0.12516554 0.57222676 0
5.8830004 -0.13501252 0.57213479 0
5.8810005 -0.14486673 0.57207346 0
5.8780003 -0.15469387 0.57198143 0
5.8750005 -0.16451021 0.57188946 0
5.8730001 -0.17433916 0.57182813 0
5.8700004 -0.18413563 0.57173616 0
5.8680005 -0.19394836 0.57167482 0
5.8650002 -0.203725 0.57158279 0
5.8630004 -0.21352148 0.57152152 0
5.8600001 -0.22327827 0.57142949 0
5.8580003 -0.23305853 0.57136816 0
5.8550005 -0.24279548 0.57127619 0
5.8520002 -0.2525216 0.57118416 0
5.8500004 -0.26227662 0.57112283 0
5.8470001 -0.27198288 0.57103086 0
5.8450003 -0.28172165 0.57096952 0
5.8420005 -0.29140809 0.57087755 0
5.8400002 -0.30113062 0.57081622 0
5.8370004 -0.31079724 0.57072419 0
5.8350005 -0.32050353 0.57066286 0
5.8320003 -0.33015031 0.57057089 0
5.8300004 -0.33984038 0.57050955 0
5.8270001 -0.34946728 0.57041752 0
5.8250003 -0.35914111 0.57035625 0
5.8220005 -0.36874819 0.57026422 0
5.8200002 -0.37840578 0.57020289 0
5.8170004 -0.38799304 0.57011092 0
5.9120002 -0.02611482 0.56308144 0
5.9090004 -0.036062822 0.5629949 0
5.9060001 -0.046 0.56290829 0
5.9040003 -0.05592816 0.56285059 0
5.9010005 -0.065845497 0.56276399 0
5.8990002 -0.075757422 0.56270629 0
5.8960004 -0.085654922 0.56261969 0
5.8930001 -0.095541596 0.56253314 0
5.8910003 -0.10542826 0.56247538 0
5.8880005 -0.1152951 0.56238878 0
5.8860002 -0.12516554 0.56233108 0
5.8830004 -0.13501252 0.56224453 0
5.8810005 -0.14486673 0.56218678 0
5.8780003 -0.15469387 0.56210017 0
5.8750005 -0.16451021 0.56201363 0
5.8730001 -0.17433916 0.56195587 0
5.8700004 -0.18413563 0.56186932 0
5.8680005 -0.19394836 0.56181157 0
5.8650002 -0.203725 0.56172502 0
5.8630004 -0.21352148 0.56166726 0
5.8600001 -0.22327827 0.56158066 0
5.8580003 -0.23305853 0.56152296 0
5.8550005 -0.24279548 0.56143641 0
5.8520002 -0.2525216 0.56134981 0
5.8500004 -0.26227662 0.56129211 0
5.8470001 -0.27198288 0.56120551 0
5.8450003 -0.28172165 0.56114781 0
5.8420005 -0.29140809 0.5610612 0
5.8400002 -0.30113062 0.56100345 0
5.8370004 -0.31079724 0.5609169 0
5.8350005 -0.32050353 0.5608592 0
5.8320003 -0.33015031 0.5607726 0
5.8300004 -0.33984038 0.56071484 0
5.8270001 -0.34946728 0.56062829 0
5.8250003 -0.35914111 0.5605706 0
5.8220005 -0.36874819 0.56048399 0
5.8200002 -0.37840578 0.56042624 0
5.8170004 -0.38799304 0.56033969 0
5.9120002 -0.02611482 0.55313885 0
5.9090004 -0.036062822 0.55305767 0
5.9060001 -0.046 0.55297655 0
5.9040003 -0.05592816 0.55292243 0
5.9010005 -0.065845497 0.55284125 0
5.8990002 -0.075757422 0.55278713 0
5.8960004 -0.085654922 0.55270594 0
5.8930001 -0.095541596 0.55262482 0
5.8910003 -0.10542826 0.5525707 0
5.8880005 -0.1152951 0.55248952 0
5.8860002 -0.12516554 0.5524354 0
5.8830004 -0.13501252 0.55235422 0
5.8810005 -0.14486673 0.5523001 0
5.8780003 -0.15469387 0.55221891 0
5.8750005 -0.16451021 0.55213779 0
5.8730001 -0.17433916 0.55208361 0
5.8700004 -0.18413563 0.55200249 0
5.8680005 -0.19394836 0.55194837 0
5.8650002 -0.203725 0.55186719 0
5.8630004 -0.21352148 0.55181307 0
5.8600001 -0.22327827 0.55173188 0
5.8580003 -0.23305853 0.55167782 0
5.8550005 -0.24279548 0.55159664 0
5.8520002 -0.2525216 0.55151546 0
5.8500004 -0.26227662 0.55146134 0
5.8470001 -0.27198288 0.55138016 0
5.8450003 -0.28172165 0.55132604 0
5.8420005 -0.29140809 0.55124485 0
5.8400002 -0.30113062 0.55119073 0
5.8370004 -0.31079724 0.55110961 0
5.8350005 -0.32050353 0.55105549 0
5.8320003 -0.33015031 0.55097431 0
5.8300004 -0.33984038 0.55092019 0
5.8270001 -0.34946728 0.55083901 0
5.8250003 -0.35914111 0.55078489 0
5.8220005 -0.36874819 0.55070376 0
5.8200002 -0.37840578 0.55064964 0
5.8170004 -0.38799304 0.55056846 0
5.9120002 -0.02611482 0.54319626 0
5.9090004 -0.036062822 0.5431205 0
5.9060001 -0.046 0.54304475 0
5.9040003 -0.05592816 0.54299426 0
5.9010005 -0.065845497 0.5429185 0
5.8990002 -0.075757422 0.54286802 0
5.8960004 -0.085654922 0.5427922 0
5.8930001 -0.095541596 0.5427165 0
5.8910003 -0.10542826 0.54266596 0
5.8880005 -0.1152951 0.5425902 0
5.8860002 -0.12516554 0.54253972 0
5.8830004 -0.13501252 0.54246396 0
5.8810005 -0.14486673 0.54241347 0
5.8780003 -0.15469387 0.54233766 0
5.8750005 -0.16451021 0.54226196 0
5.8730001 -0.17433916 0.54221141 0
5.8700004 -0.18413563 0.54213566 0
5.8680005 -0.19394836 0.54208517 0
5.8650002 -0.203725 0.54200935 0
5.8630004 -0.21352148 0.54195887 0
5.8600001 -0.22327827 0.54188311 0
5.8580003 -0.23305853 0.54183263 0
5.8550005 -0.24279548 0.54175687 0
5.8520002 -0.2525216 0.54168105 0
5.8500004 -0.26227662 0.54163057 0
5.8470001 -0.27198288 0.54155481 0
5.8450003 -0.28172165 0.54150432 0
5.8420005 -0.29140809 0.54142857 0
5.8400002 -0.30113062 0.54137802 0
5.8370004 -0.31079724 0.54130232 0
5.8350005 -0.32050353 0.54125178 0
5.8320003 -0.33015031 0.54117602 0
5.8300004 -0.33984038 0.54112554 0
5.8270001 -0.34946728 0.54104972 0
5.8250003 -0.35914111 0.54099923 0
5.8220005 -0.36874819 0.54092348 0
5.8200002 -0.37840578 0.54087299 0
5.8170004 -0.38799304 0.54079723 0
5.9120002 -0.02611482 0.53325367 0
5.9090004 -0.036062822 0.53318334 0
5.9060001 -0.046 0.533113 0
5.9040003 -0.05592816 0.53306609 0
5.9010005 -0.065845497 0.53299576 0
5.8990002 -0.075757422 0.53294885 0
5.8960004 -0.085654922 0.53287852 0
5.8930001 -0.095541596 0.53280813 0
5.8910003 -0.10542826 0.53276128 0
5.8880005 -0.1152951 0.53269088 0
5.8860002 -0.12516554 0.53264403 0
5.8830004 -0.13501252 0.5325737 0
5.8810005 -0.14486673 0.53252673 0
5.8780003 -0.15469387 0.5324564 0
5.8750005 -0.16451021 0.53238606 0
5.8730001 -0.17433916 0.53233916 0
5.8700004 -0.18413563 0.53226882 0
5.8680005 -0.19394836 0.53222191 0
5.8650002 -0.203725 0.53215158 0
5.8630004 -0.21352148 0.53210467 0
5.8600001 -0.22327827 0.53203434 0
5.8580003 -0.23305853 0.53198743 0
5.8550005 -0.24279548 0.5319171 0
5.8520002 -0.2525216 0.5318467 0
5.8500004 -0.26227662 0.53179985 0
5.8470001 -0.27198288 0.53172946 0
5.8450003 -0.28172165 0.53168261 0
5.8420005 -0.29140809 0.53161222 0
5.8400002 -0.30113062 0.53156531 0
5.8370004 -0.31079724 0.53149498 0
5.8350005 -0.32050353 0.53144813 0
5.8320003 -0.33015031 0.53137773 0
5.8300004 -0.33984038 0.53133082 0
5.8270001 -0.34946728 0.53126049 0
5.8250003 -0.35914111 0.53121358 0
5.8220005 -0.36874819 0.53114325 0
5.8200002 -0.37840578 0.53109634 0
5.8170004 -0.38799304 0.53102601 0
5.9120002 -0.02611482 0.52331108 0
5.9090004 -0.036062822 0.52324617 0
5.9060001 -0.046 0.5231812 0
5.9040003 -0.05592816 0.52313793 0
5.9010005 -0.065845497 0.52307302 0
5.8990002 -0.075757422 0.52302969 0
5.8960004 -0.085654922 0.52296478 0
5.8930001 -0.095541596 0.52289981 0
5.8910003 -0.10542826 0.52285653 0
5.8880005 -0.1152951 0.52279162 0
5.8860002 -0.12516554 0.52274829 0
5.8830004 -0.13501252 0.52268338 0
5.8810005 -0.14486673 0.52264011 0
5.8780003 -0.15469387 0.52257514 0
5.8750005 -0.16451021 0.52251023 0
5.8730001 -0.17433916 0.5224669 0
5.8700004 -0.18413563 0.52240199 0
5.8680005 -0.19394836 0.52235872 0
5.8650002 -0.203725 0.52229375 0
5.8630004 -0.21352148 0.52225047 0
5.8600001 -0.22327827 0.52218556 0
5.8580003 -0.23305853 0.52214223 0
5.8550005 -0.24279548 0.52207732 0
5.8520002 -0.2525216 0.52201235 0
5.8500004 -0.26227662 0.52196908 0
5.8470001 -0.27198288 0.52190411 0
5.8450003 -0.28172165 0.52186084 0
5.8420005 -0.29140809 0.52179593 0
5.8400002 -0.30113062 0.5217526 0
5.8370004 -0.31079724 0.52168769 0
5.8350005 -0.32050353 0.52164435 0
5.8320003 -0.33015031 0.52157944 0
5.8300004 -0.33984038 0.52153617 0
5.8270001 -0.34946728 0.5214712 0
5.8250003 -0.35914111 0.52142793 0
5.8220005 -0.36874819 0.52136302 0
5.8200002 -0.37840578 0.52131969 0
5.8170004 -0.38799304 0.52125478 0
5.9120002 -0.02611482 0.51336849 0
5.9090004 -0.036062822 0.513309 0
5.9060001 -0.046 0.51324946 0
5.9040003 -0.05592816 0.51320976 0
5.9010005 -0.065845497 0.51315027 0
5.8990002 -0.075757422 0.51311058 0
5.8960004 -0.085654922 0.51305103 0
5.8930001 -0.095541596 0.51299155 0
5.8910003 -0.10542826 0.51295185 0
5.8880005 -0.1152951 0.51289231 0
5.8860002 -0.12516554 0.51285261 0
5.8830004 -0.13501252 0.51279312 0
5.8810005 -0.14486673 0.51275343 0
5.8780003 -0.15469387 0.51269388 0
5.8750005 -0.16451021 0.5126344 0
5.8730001 -0.17433916 0.5125947 0
5.8700004 -0.18413563 0.51253515 0
5.8680005 -0.19394836 0.51249546 0
5.8650002 -0.203725 0.51243591 0
5.8630004 -0.21352148 0.51239628 0
5.8600001 -0.22327827 0.51233673 0
5.8580003 -0.23305853 0.51229703 0
5.8550005 -0.24279548 0.51223755 0
5.8520002 -0.2525216 0.512178 0
5.8500004 -0.26227662 0.51213831 0
5.8470001 -0.27198288 0.51207876 0
5.8450003 -0.28172165 0.51203912 0
5.8420005 -0.29140809 0.51197958 0
5.8400002 -0.30113062 0.51193988 0
5.8370004 -0.31079724 0.5118804 0
5.8350005 -0.32050353 0.5118407 0
5.8320003 -0.33015031 0.51178116 0
5.8300004 -0.33984038 0.51174146 0
5.8270001 -0.34946728 0.51168191 0
5.8250003 -0.35914111 0.51164228 0
5.8220005 -0.36874819 0.51158273 0
5.8200002 -0.37840578 0.51154304 0
5.8170004 -0.38799304 0.51148355 0
5.9120002 -0.02611482 0.50342596 0
5.9090004 -0.036062822 0.50337183 0
5.9060001 -0.046 0.50331771 0
5.9040003 -0.05592816 0.50328159 0
5.9010005 -0.065845497 0.50322747 0
5.8990002 -0.075757422 0.50319141 0
5.8960004 -0.085654922 0.50313729 0
5.8930001 -0.095541596 0.50308323 0
5.8910003 -0.10542826 0.50304711 0
5.8880005 -0.1152951 0.50299299 0
5.8860002 -0.12516554 0.50295693 0
5.8830004 -0.13501252 0.50290281 0
5.8810005 -0.14486673 0.50286674 0
5.8780003 -0.15469387 0.50281262 0
5.8750005 -0.16451021 0.5027585 0
5.8730001 -0.17433916 0.50272244 0
5.8700004 -0.18413563 0.50266832 0
5.8680005 -0.19394836 0.50263226 0
5.8650002 -0.203725 0.50257814 0
5.8630004 -0.21352148 0.50254208 0
5.8600001 -0.22327827 0.50248796 0
5.8580003 -0.23305853 0.5024519 0
5.8550005 -0.24279548 0.50239778 0
5.8520002 -0.2525216 0.50234365 0
5.8500004 -0.26227662 0.50230753 0
5.8470001 -0.27198288 0.50225341 0
5.8450003 -0.28172165 0.50221735 0
5.8420005 -0.29140809 0.50216329 0
5.8400002 -0.30113062 0.50212717 0
5.8370004 -0.31079724 0.50207305 0
5.8350005 -0.32050353 0.50203699 0
5.8320003 -0.33015031 0.50198287 0
5.8300004 -0.33984038 0.50194681 0
5.8270001 -0.34946728 0.50189269 0
5.8250003 -0.35914111 0.50185663 0
5.8220005 -0.36874819 0.5018025 0
5.8200002 -0.37840578 0.50176644 0
5.8170004 -0.38799304 0.50171232 0
5.9120002 -0.02611482 0.49348333 0
5.9090004 -0.036062822 0.49343464 0
5.9060001 -0.046 0.49338591 0
5.9040003 -0.05592816 0.49335346 0
5.9010005 -0.065845497 0.49330476 0
5.8990002 -0.075757422 0.49327227 0
5.8960004 -0.085654922 0.49322358 0
5.8930001 -0.095541596 0.49317488 0
5.8910003 -0.10542826 0.49314243 0
5.8880005 -0.1152951 0.4930937 0
5.8860002 -0.12516554 0.49306124 0
5.8830004 -0.13501252 0.49301255 0
5.8810005 -0.14486673 0.49298006 0
5.8780003 -0.15469387 0.49293137 0
5.8750005 -0.16451021 0.49288267 0
5.8730001 -0.17433916 0.49285018 0
5.8700004 -0.18413563 0.49280149 0
5.8680005 -0.19394836 0.49276903 0
5.8650002 -0.203725 0.49272031 0
5.8630004 -0.21352148 0.49268785 0
5.8600001 -0.22327827 0.49263915 0
5.8580003 -0.23305853 0.4926067 0
5.8550005 -0.24279548 0.492558 0
5.8520002 -0.2525216 0.49250928 0
5.8500004 -0.26227662 0.49247682 0
5.8470001 -0.27198288 0.49242809 0
5.8450003 -0.28172165 0.49239564 0
5.8420005 -0.29140809 0.49234694 0
5.8400002 -0.30113062 0.49231446 0
5.8370004 -0.31079724 0.49226576 0
5.8350005 -0.32050353 0.49223331 0
5.8320003 -0.33015031 0.49218458 0
5.8300004 -0.33984038 0.49215212 0
5.8270001 -0.34946728 0.49210343 0
5.8250003 -0.35914111 0.49207094 0
5.8220005 -0.36874819 0.49202225 0
5.8200002 -0.37840578 0.49198979 0
5.8170004 -0.38799304 0.49194109 0
5.9120002 -0.02611482 0.48354074 0
5.9090004 -0.036062822 0.48349744 0
5.9060001 -0.046 0.48345417 0
5.9040003 -0.05592816 0.48342529 0
5.9010005 -0.065845497 0.48338202 0
5.8990002 -0.075757422 0.48335314 0
5.8960004 -0.085654922 0.48330986 0
5.8930001 -0.095541596 0.48326656 0
5.8910003 -0.10542826 0.48323768 0
5.8880005 -0.1152951 0.48319441 0
5.8860002 -0.12516554 0.48316556 0
5.8830004 -0.13501252 0.48312226 0
5.8810005 -0.14486673 0.48309341 0
5.8780003 -0.15469387 0.48305011 0
5.8750005 -0.16451021 0.48300683 0
5.8730001 -0.17433916 0.48297796 0
5.8700004 -0.18413563 0.48293465 0
5.8680005 -0.19394836 0.48290581 0
5.8650002 -0.203725 0.4828625 0
5.8630004 -0.21352148 0.48283365 0
5.8600001 -0.22327827 0.48279035 0
5.8580003 -0.23305853 0.4827615 0
5.8550005 -0.24279548 0.4827182 0
5.8520002 -0.2525216 0.4826749 0
5.8500004 -0.26227662 0.48264605 0
5.8470001 -0.27198288 0.48260278 0
5.8450003 -0.28172165 0.4825739 0
5.8420005 -0.29140809 0.48253059 0
5.8400002 -0.30113062 0.48250175 0
5.8370004 -0.31079724 0.48245847 0
5.8350005 -0.32050353 0.48242959 0
5.8320003 -0.33015031 0.48238629 0
5.8300004 -0.33984038 0.48235744 0
5.8270001 -0.34946728 0.48231414 0
5.8250003 -0.35914111 0.48228529 0
5.8220005 -0.36874819 0.48224199 0
5.8200002 -0.37840578 0.48221314 0
5.8170004 -0.38799304 0.48216987 0
5.9120002 -0.02611482 0.47359815 0
5.9090004 -0.036062822 0.47356027 0
5.9060001 -0.046 0.47352239 0
5.9040003 -0.05592816 0.47349715 0
5.9010005 -0.065845497 0.47345924 0
5.8990002 -0.075757422 0.473434 0
5.8960004 -0.085654922 0.47339612 0
5.8930001 -0.095541596 0.47335824 0
5.8910003 -0.10542826 0.473333 0
5.8880005 -0.1152951 0.47329512 0
5.8860002 -0.12516554 0.47326985 0
5.8830004 -0.13501252 0.47323197 0
5.8810005 -0.14486673 0.47320673 0
5.8780003 -0.15469387 0.47316885 0
5.8750005 -0.16451021 0.47313097 0
5.8730001 -0.17433916 0.4731057 0
5.8700004 -0.18413563 0.47306782 0
5.8680005 -0.19394836 0.47304258 0
5.8650002 -0.203725 0.4730047 0
5.8630004 -0.21352148 0.47297943 0
5.8600001 -0.22327827 0.47294158 0
5.8580003 -0.23305853 0.47291631 0
5.8550005 -0.24279548 0.47287843 0
5.8520002 -0.2525216 0.47284055 0
5.8500004 -0.26227662 0.4728153 0
5.8470001 -0.27198288 0.47277743 0
5.8450003 -0.28172165 0.47275215 0
5.8420005 -0.29140809 0.47271428 0
5.8400002 -0.30113062 0.47268903 0
5.8370004 -0.31079724 0.47265115 0
5.8350005 -0.32050353 0.47262591 0
5.8320003 -0.33015031 0.472588 0
5.8300004 -0.33984038 0.47256276 0
5.8270001 -0.34946728 0.47252488 0
5.8250003 -0.35914111 0.47249964 0
5.8220005 -0.36874819 0.47246176 0
5.8200002 -0.37840578 0.47243649 0
5.8170004 -0.38799304 0.47239861 0
5.9120002 -0.02611482 0.46365556 0
5.9090004 -0.036062822 0.46362311 0
5.9060001 -0.046 0.46359062 0
5.9040003 -0.05592816 0.46356899 0
5.9010005 -0.065845497 0.4635365 0
5.8990002 -0.075757422 0.46351486 0
5.8960004 -0.085654922 0.46348238 0
5.8930001 -0.095541596 0.46344993 0
5.8910003 -0.10542826 0.46342829 0
5.8880005 -0.1152951 0.4633958 0
5.8860002 -0.12516554 0.46337417 0
5.8830004 -0.13501252 0.46334171 0
5.8810005 -0.14486673 0.46332005 0
5.8780003 -0.15469387 0.46328759 0
5.8750005 -0.16451021 0.46325511 0
5.8730001 -0.17433916 0.46323347 0
5.8700004 -0.18413563 0.46320099 0
5.8680005 -0.19394836 0.46317935 0
5.8650002 -0.203725 0.4631469 0
5.8630004 -0.21352148 0.46312523 0
5.8600001 -0.22327827 0.46309277 0
5.8580003 -0.23305853 0.46307114 0
5.8550005 -0.24279548 0.46303865 0
5.8520002 -0.2525216 0.4630062 0
5.8500004 -0.26227662 0.46298453 0
5.8470001 -0.27198288 0.46295208 0
5.8450003 -0.28172165 0.46293044 0
5.8420005 -0.29140809 0.46289796 0
5.8400002 -0.30113062 0.46287632 0
5.8370004 -0.31079724 0.46284384 0
5.8350005 -0.32050353 0.4628222 0
5.8320003 -0.33015031 0.46278974 0
5.8300004 -0.33984038 0.46276808 0
5.8270001 -0.34946728 0.46273562 0
5.8250003 -0.35914111 0.46271399 0
5.8220005 -0.36874819 0.4626815 0
5.8200002 -0.37840578 0.46265987 0
5.8170004 -0.38799304 0.46262738 0
5.9120002 -0.02611482 0.45371297 0
5.9090004 -0.036062822 0.45368591 0
5.9060001 -0.046 0.45365885 0
5.9040003 -0.05592816 0.45364082 0
5.9010005 -0.065845497 0.45361376 0
5.8990002 -0.075757422 0.45359573 0
5.8960004 -0.085654922 0.45356867 0
5.8930001 -0.095541596 0.45354161 0
5.8910003 -0.10542826 0.45352358 0
5.8880005 -0.1152951 0.45349652 0
5.8860002 -0.12516554 0.45347846 0
5.8830004 -0.13501252 0.45345142 0
5.8810005 -0.14486673 0.45343339 0
5.8780003 -0.15469387 0.45340633 0
5.8750005 -0.16451021 0.45337927 0
5.8730001 -0.17433916 0.45336121 0
5.8700004 -0.18413563 0.45333418 0
5.8680005 -0.19394836 0.45331612 0
5.8650002 -0.203725 0.45328906 0
5.8630004 -0.21352148 0.45327103 0
5.8600001 -0.22327827 0.45324397 0
5.8580003 -0.23305853 0.45322594 0
5.8550005 -0.24279548 0.45319888 0
5.8520002 -0.2525216 0.45317182 0
5.8500004 -0.26227662 0.45315379 0
5.8470001 -0.27198288 0.45312673 0
5.8450003 -0.28172165 0.4531087 0
5.8420005 -0.29140809 0.45308164 0
5.8400002 -0.30113062 0.45306361 0
5.8370004 -0.31079724 0.45303655 0
5.8350005 -0.32050353 0.45301852 0
5.8320003 -0.33015031 0.45299146 0
5.8300004 -0.33984038 0.4529734 0
5.8270001 -0.34946728 0.45294636 0
5.8250003 -0.35914111 0.4529283 0
5.8220005 -0.36874819 0.45290124 0
5.8200002 -0.37840578 0.45288321 0
5.8170004 -0.38799304 0.45285615 0
5.9120002 -0.02611482 0.44377038 0
5.9090004 -0.036062822 0.44374874 0
5.9060001 -0.046 0.44372708 0
5.9040003 -0.05592816 0.44371265 0
5.9010005 -0.065845497 0.44369102 0
5.8990002 -0.075757422 0.44367659 0
5.8960004 -0.085654922 0.44365492 0
5.8930001 -0.095541596 0.44363329 0
5.8910003 -0.10542826 0.44361886 0
5.8880005 -0.1152951 0.4435972 0
5.8860002 -0.12516554 0.44358277 0
5.8830004 -0.13501252 0.44356114 0
5.8810005 -0.14486673 0.44354671 0
5.8780003 -0.15469387 0.44352508 0
5.8750005 -0.16451021 0.44350341 0
5.8730001 -0.17433916 0.44348899 0
5.8700004 -0.18413563 0.44346735 0
5.8680005 -0.19394836 0.44345289 0
5.8650002 -0.203725 0.44343126 0
5.8630004 -0.21352148 0.44341683 0
5.8600001 -0.22327827 0.4433952 0
5.8580003 -0.23305853 0.44338074 0
5.8550005 -0.24279548 0.44335911 0
5.8520002 -0.2525216 0.44333747 0
5.8500004 -0.26227662 0.44332305 0
5.8470001 -0.27198288 0.44330138 0
5.8450003 -0.28172165 0.44328696 0
5.8420005 -0.29140809 0.44326532 0
5.8400002 -0.30113062 0.44325089 0
5.8370004 -0.31079724 0.44322923 0
5.8350005 -0.32050353 0.4432148 0
5.8320003 -0.33015031 0.44319317 0
5.8300004 -0.33984038 0.44317871 0
5.8270001 -0.34946728 0.44315708 0
5.8250003 -0.35914111 0.44314265 0
5.8220005 -0.36874819 0.44312102 0
5.8200002 -0.37840578 0.44310659 0
5.8170004 -0.38799304 0.44308493 0
5.9120002 -0.02611482 0.43382779 0
5.9090004 -0.036062822 0.43381155 0
5.9060001 -0.046 0.4337953 0
5.9040003 -0.05592816 0.43378448 0
5.9010005 -0.065845497 0.43376827 0
5.8990002 -0.075757422 0.43375742 0
5.8960004 -0.085654922 0.43374121 0
5.8930001 -0.095541596 0.43372497 0
5.8910003 -0.10542826 0.43371415 0
5.8880005 -0.1152951 0.43369791 0
5.8860002 -0.12516554 0.43368709 0
5.8830004 -0.13501252 0.43367085 0
5.8810005 -0.14486673 0.43366003 0
5.8780003 -0.15469387 0.43364379 0
5.8750005 -0.16451021 0.43362758 0
5.8730001 -0.17433916 0.43361673 0
5.8700004 -0.18413563 0.43360052 0
5.8680005 -0.19394836 0.4335897 0
5.8650002 -0.203725 0.43357345 0
5.8630004 -0.21352148 0.43356264 0
5.8600001 -0.22327827 0.43354639 0
5.8580003 -0.23305853 0.43353558 0
5.8550005 -0.24279548 0.43351933 0
5.8520002 -0.2525216 0.43350309 0
5.8500004 -0.26227662 0.43349227 0
5.8470001 -0.27198288 0.43347603 0
5.8450003 -0.28172165 0.43346521 0
5.8420005 -0.29140809 0.433449 0
5.8400002 -0.30113062 0.43343815 0
5.8370004 -0.31079724 0.43342194 0
5.8350005 -0.32050353 0.43341112 0
5.8320003 -0.33015031 0.43339488 0
5.8300004 -0.33984038 0.43338406 0
5.8270001 -0.34946728 0.43336782 0
5.8250003 -0.35914111 0.433357 0
5.8220005 -0.36874819 0.43334076 0
5.8200002 -0.37840578 0.43332994 0
5.8170004 -0.38799304 0.4333137 0
5.9120002 -0.02611482 0.4238852 0
5.9090004 -0.036062822 0.42387438 0
5.9060001 -0.046 0.42386356 0
5.9040003 -0.05592816 0.42385635 0
5.9010005 -0.065845497 0.4238455 0
5.8990002 -0.075757422 0.42383829 0
5.8960004 -0.085654922 0.42382747 0
5.8930001 -0.095541596 0.42381665 0
5.8910003 -0.10542826 0.42380944 0
5.8880005 -0.1152951 0.42379862 0
5.8860002 -0.12516554 0.42379141 0
5.8830004 -0.13501252 0.42378056 0
5.8810005 -0.14486673 0.42377335 0
5.8780003 -0.15469387 0.42376253 0
5.8750005 -0.16451021 0.42375171 0
5.8730001 -0.17433916 0.4237445 0
5.8700004 -0.18413563 0.42373368 0
5.8680005 -0.19394836 0.42372647 0
5.8650002 -0.203725 0.42371565 0
5.8630004 -0.21352148 0.42370841 0
5.8600001 -0.22327827 0.42369759 0
5.8580003 -0.23305853 0.42369038 0
5.8550005 -0.24279548 0.42367956 0
5.8520002 -0.2525216 0.42366874 0
5.8500004 -0.26227662 0.42366153 0
5.8470001 -0.27198288 0.42365071 0
5.8450003 -0.28172165 0.42364347 0
5.8420005 -0.29140809 0.42363265 0
5.8400002 -0.30113062 0.42362544 0
5.8370004 -0.31079724 0.42361462 0
5.8350005 -0.32050353 0.42360741 0
5.8320003 -0.33015031 0.42359659 0
5.8300004 -0.33984038 0.42358938 0
5.8270001 -0.34946728 0.42357856 0
5.8250003 -0.35914111 0.42357135 0
5.8220005 -0.36874819 0.4235605 0
5.8200002 -0.37840578 0.42355329 0
5.8170004 -0.38799304 0.42354247 0
5.9120002 -0.02611482 0.41394261 0
5.9090004 -0.036062822 0.41393718 0
5.9060001 -0.046 0.41393179 0
5.9040003 -0.05592816 0.41392818 0
5.9010005 -0.065845497 0.41392276 0
5.8990002 -0.075757422 0.41391915 0
5.8960004 -0.085654922 0.41391376 0
5.8930001 -0.095541596 0.41390833 0
5.8910003 -0.10542826 0.41390473 0
5.8880005 -0.1152951 0.4138993 0
5.8860002 -0.12516554 0.4138957 0
5.8830004 -0.13501252 0.4138903 0
5.8810005 -0.14486673 0.4138867 0
5.8780003 -0.15469387 0.41388127 0
5.8750005 -0.16451021 0.41387588 0
5.8730001 -0.17433916 0.41387224 0
5.8700004 -0.18413563 0.41386685 0
5.8680005 -0.19394836 0.41386324 0
5.8650002 -0.203725 0.41385782 0
5.8630004 -0.21352148 0.41385421 0
5.8600001 -0.22327827 0.41384882 0
5.8580003 -0.23305853 0.41384521 0
5.8550005 -0.24279548 0.41383979 0
5.8520002 -0.2525216 0.41383436 0
5.8500004 -0.26227662 0.41383076 0
5.8470001 -0.27198288 0.41382536 0
5.8450003 -0.28172165 0.41382176 0
5.8420005 -0.29140809 0.41381633 0
5.8400002 -0.30113062 0.41381273 0
5.8370004 -0.31079724 0.41380733 0
5.8350005 -0.32050353 0.41380373 0
5.8320003 -0.33015031 0.4137983 0
5.8300004 -0.33984038 0.4137947 0
5.8270001 -0.34946728 0.41378927 0
5.8250003 -0.35914111 0.41378567 0
5.8220005 -0.36874819 0.41378027 0
5.8200002 -0.37840578 0.41377667 0
5.8170004 -0.38799304 0.41377124 0
5.9120002 -0.02611482 0.40400001 0
5.9090004 -0.036062822 0.40400001 0
5.9060001 -0.046 0.40400001 0
5.9040003 -0.05592816 0.40400001 0
5.9010005 -0.065845497 0.40400001 0
5.8990002 -0.075757422 0.40400001 0
5.8960004 -0.085654922 0.40400001 0
5.8930001 -0.095541596 0.40400001 0
5.8910003 -0.10542826 0.40400001 0
5.8880005 -0.1152951 0.40400001 0
5.8860002 -0.12516554 0.40400001 0
5.8830004 -0.13501252 0.40400001 0
5.8810005 -0.14486673 0.40400001 0
5.8780003 -0.15469387 0.40400001 0
5.8750005 -0.16451021 0.40400001 0
5.8730001 -0.17433916 0.40400001 0
5.8700004 -0.18413563 0.40400001 0
5.8680005 -0.19394836 0.40400001 0
5.8650002 -0.203725 0.40400001 0
5.8630004 -0.21352148 0.40400001 0
5.8600001 -0.22327827 0.40400001 0
5.8580003 -0.23305853 0.40400001 0
5.8550005 -0.24279548 0.40400001 0
5.8520002 -0.2525216 0.40400001 0
5.8500004 -0.26227662 0.40400001 0
5.8470001 -0.27198288 0.40400001 0
5.8450003 -0.28172165 0.40400001 0
5.8420005 -0.29140809 0.40400001 0
5.8400002 -0.30113062 0.40400001 0
5.8370004 -0.31079724 0.40400001 0
5.8350005 -0.32050353 0.40400001 0
5.8320003 -0.33015031 0.40400001 0
5.8300004 -0.33984038 0.40400001 0
5.8270001 -0.34946728 0.40400001 0
5.8250003 -0.35914111 0.40400001 0
5.8220005 -0.36874819 0.40400001 0
5.8200002 -0.37840578 0.40400001 0
5.8170004 -0.38799304 0.40400001 0
5.9090004 -0.036062822 0.39406285 0
5.9060001 -0.046 0.39406824 0
5.9040003 -0.05592816 0.39407185 0
5.9010005 -0.065845497 0.39407727 0
5.8990002 -0.075757422 0.39408088 0
5.8960004 -0.085654922 0.39408627 0
5.8930001 -0.095541596 0.3940917 0
5.8910003 -0.10542826 0.3940953 0
5.8880005 -0.1152951 0.39410073 0
5.8860002 -0.12516554 0.39410433 0
5.8830004 -0.13501252 0.39410973 0
5.8810005 -0.14486673 0.39411333 0
5.8780003 -0.15469387 0.39411876 0
5.8750005 -0.16451021 0.39412415 0
5.8730001 -0.17433916 0.39412779 0
5.8700004 -0.18413563 0.39413318 0
5.8680005 -0.19394836 0.39413679 0
5.8650002 -0.203725 0.39414221 0
5.8630004 -0.21352148 0.39414582 0
5.8600001 -0.22327827 0.39415121 0
5.8580003 -0.23305853 0.39415482 0
5.8550005 -0.24279548 0.39416024 0
5.8520002 -0.2525216 0.39416566 0
5.8500004 -0.26227662 0.39416927 0
5.8470001 -0.27198288 0.39417467 0
5.8450003 -0.28172165 0.39417827 0
5.8420005 -0.29140809 0.3941837 0
5.8400002 -0.30113062 0.3941873 0
5.8370004 -0.31079724 0.3941927 0
5.8350005 -0.32050353 0.3941963 0
5.8320003 -0.33015031 0.39420173 0
5.8300004 -0.33984038 0.39420533 0
5.8270001 -0.34946728 0.39421076 0
5.8250003 -0.35914111 0.39421436 0
5.8220005 -0.36874819 0.39421976 0
5.8200002 -0.37840578 0.39422336 0
5.8170004 -0.38799304 0.39422879 0
5.9090004 -0.036062822 0.38412565 0
5.9060001 -0.046 0.38413647 0
5.9040003 -0.05592816 0.38414368 0
5.9010005 -0.065845497 0.38415453 0
5.8990002 -0.075757422 0.38416174 0
5.8960004 -0.085654922 0.38417256 0
5.8930001 -0.095541596 0.38418338 0
5.8910003 -0.10542826 0.38419059 0
5.8880005 -0.1152951 0.38420141 0
5.8860002 -0.12516554 0.38420862 0
5.8830004 -0.13501252 0.38421947 0
5.8810005 -0.14486673 0.38422668 0
5.8780003 -0.15469387 0.3842375 0
5.8750005 -0.16451021 0.38424832 0
5.8730001 -0.17433916 0.38425553 0
5.8700004 -0.18413563 0.38426635 0
5.8680005 -0.19394836 0.38427356 0
5.8650002 -0.203725 0.38428438 0
5.8630004 -0.21352148 0.38429162 0
5.8600001 -0.22327827 0.38430244 0
5.8580003 -0.23305853 0.38430965 0
5.8550005 -0.24279548 0.38432047 0
5.8520002 -0.2525216 0.38433129 0
5.8500004 -0.26227662 0.3843385 0
5.8470001 -0.27198288 0.38434932 0
5.8450003 -0.28172165 0.38435656 0
5.8420005 -0.29140809 0.38436738 0
5.8400002 -0.30113062 0.38437459 0
5.8370004 -0.31079724 0.38438541 0
5.8350005 -0.32050353 0.38439262 0
5.8320003 -0.33015031 0.38440344 0
5.8300004 -0.33984038 0.38441065 0
5.8270001 -0.34946728 0.38442147 0
5.8250003 -0.35914111 0.38442868 0
5.8220005 -0.36874819 0.38443953 0
5.8200002 -0.37840578 0.38444674 0
5.9090004 -0.036062822 0.37418848 0
5.9060001 -0.046 0.37420473 0
5.9040003 -0.05592816 0.37421554 0
5.9010005 -0.065845497 0.37423176 0
5.8990002 -0.075757422 0.3742426 0
5.8960004 -0.085654922 0.37425882 0
5.8930001 -0.095541596 0.37427506 0
5.8910003 -0.10542826 0.37428588 0
5.8880005 -0.1152951 0.37430212 0
5.8860002 -0.12516554 0.37431294 0
5.8830004 -0.13501252 0.37432918 0
5.8810005 -0.14486673 0.37434 0
5.8780003 -0.15469387 0.37435624 0
5.8750005 -0.16451021 0.37437245 0
5.8730001 -0.17433916 0.3743833 0
5.8700004 -0.18413563 0.37439951 0
5.8680005 -0.19394836 0.37441033 0
5.8650002 -0.203725 0.37442657 0
5.8630004 -0.21352148 0.37443739 0
5.8600001 -0.22327827 0.37445363 0
5.8580003 -0.23305853 0.37446445 0
5.8550005 -0.24279548 0.37448069 0
5.8520002 -0.2525216 0.37449694 0
5.8500004 -0.26227662 0.37450776 0
5.8470001 -0.27198288 0.374524 0
5.8450003 -0.28172165 0.37453482 0
5.8420005 -0.29140809 0.37455103 0
5.8400002 -0.30113062 0.37456188 0
5.8370004 -0.31079724 0.37457809 0
5.8350005 -0.32050353 0.37458891 0
5.8320003 -0.33015031 0.37460515 0
5.8300004 -0.33984038 0.37461597 0
5.8270001 -0.34946728 0.37463221 0
5.8250003 -0.35914111 0.37464303 0
5.8220005 -0.36874819 0.37465927 0
5.8200002 -0.37840578 0.37467009 0
5.9060001 -0.046 0.36427295 0
5.9040003 -0.05592816 0.36428738 0
5.9010005 -0.065845497 0.36430901 0
5.8990002 -0.075757422 0.36432344 0
5.8960004 -0.085654922 0.3643451 0
5.8930001 -0.095541596 0.36436674 0
5.8910003 -0.10542826 0.36438116 0
5.8400002 -0.30113062 0.36474913 0
5.8370004 -0.31079724 0.3647708 0
5.8350005 -0.32050353 0.36478522 0
5.8320003 -0.33015031 0.36480686 0
5.8300004 -0.33984038 0.36482131 0
5.8270001 -0.34946728 0.36484295 0
5.8250003 -0.35914111 0.36485738 0
5.8220005 -0.36874819 0.36487901 0
5.9260006 -0.055967845 0.35416079 0
5.9220004 -0.065921262 0.35419688 0
5.9220004 -0.075881891 0.35419688 0
5.9250002 -0.085864156 0.35416982 0
5.8540006 -0.34113911 0.35481018 0
5.8480005 -0.35064158 0.35486427 0
5.8460002 -0.36035326 0.35488233 0
5.8470001 -0.37023634 0.3548733 0
5.9260006 -0.055967845 0.34419295 0
5.9220004 -0.065921262 0.34423622 0
5.9220004 -0.075881891 0.34423622 0
5.9250002 -0.085864156 0.34420377 0
5.8540006 -0.34113911 0.34497219 0
5.8480005 -0.35064158 0.34503713 0
5.8460002 -0.36035326 0.34505877 0
5.8470001 -0.37023634 0.34504795 0
5.9260006 -0.055967845 0.33422512 0
5.9220004 -0.065921262 0.3342756 0
5.9220004 -0.075881891 0.3342756 0
5.8540006 -0.34113911 0.33513421 0
5.8480005 -0.35064158 0.33520997 0
5.8460002 -0.36035326 0.33523524 0
5.8470001 -0.37023634 0.3352226 0
5.9220004 -0.065921262 0.32431498 0
5.9220004 -0.075881891 0.32431498 0
5.8540006 -0.34113911 0.32529625 0
5.8480005 -0.35064158 0.32538283 0
5.8460002 -0.36035326 0.32541171 0
5.9220004 -0.065921262 0.31435436 0
5.9220004 -0.075881891 0.31435436 0
5.8480005 -0.35064158 0.31555569 0
5.8460002 -0.36035326 0.31558818 0
5.9220004 -0.065921262 0.30439371 0
5.9220004 -0.075881891 0.30439371 0
5.8480005 -0.35064158 0.30572855 0
5.8460002 -0.36035326 0.30576462 0
5.9220004 -0.065921262 0.29443309 0
5.9220004 -0.075881891 0.29443309 0
5.8480005 -0.35064158 0.29590139 0
5.8460002 -0.36035326 0.29594108 0
5.9220004 -0.065921262 0.28447247 0
5.9220004 -0.075881891 0.28447247 0
5.8480005 -0.35064158 0.28607425 0
5.8460002 -0.36035326 0.28611752 0
5.9220004 -0.065921262 0.27451184 0
5.9220004 -0.075881891 0.27451184 0
5.8480005 -0.35064158 0.27624708 0
5.8460002 -0.36035326 0.27629399 0
5.9220004 -0.065921262 0.26455122 0
5.9220004 -0.075881891 0.26455122 0
5.8480005 -0.35064158 0.26641995 0
5.8460002 -0.36035326 0.26647046 0
5.9220004 -0.065921262 0.25459057 0
5.9220004 -0.075881891 0.25459057 0
5.8480005 -0.35064158 0.25659281 0
5.8460002 -0.36035326 0.25664693 0
5.9220004 -0.065921262 0.24462995 0
5.9220004 -0.075881891 0.24462995 0
5.8480005 -0.35064158 0.24676566 0
5.8460002 -0.36035326 0.24682339 0
5.9220004 -0.065921262 0.23466931 0
5.9220004 -0.075881891 0.23466931 0
5.8480005 -0.35064158 0.23693851 0
5.8460002 -0.36035326 0.23699984 0
5.9220004 -0.065921262 0.22470869 0
