# .PCD v0.7 - Point Cloud Data file format
VERSION 0.7
FIELDS x y z intensity
SIZE 4 4 4 4
TYPE F F F F
COUNT 1 1 1 1
WIDTH 821
HEIGHT 1
VIEWPOINT 0 0 0 1 0 0 0
POINTS 821
DATA ascii
7.4820004 3.9907641 2.4607058 0
7.4930005 3.9842401 2.4639003 0
7.5040007 3.9776759 2.4670951 0
7.4720006 3.9978209 2.445045 0
7.4820004 3.9907641 2.4479311 0
7.4930005 3.9842401 2.4511061 0
7.5040007 3.9776759 2.4542809 0
7.5150003 3.9710717 2.4574554 0
7.5250006 3.9638658 2.4603415 0
7.5360003 3.9571843 2.463516 0
7.5470004 3.9504633 2.4666908 0
7.4720006 3.9978209 2.4322886 0
7.4820004 3.9907641 2.4351568 0
7.4930005 3.9842401 2.4383116 0
7.5040007 3.9776759 2.4414666 0
7.5150003 3.9710717 2.4446211 0
7.5250006 3.9638658 2.4474895 0
7.5360003 3.9571843 2.450644 0
7.5470004 3.9504633 2.453799 0
7.5580006 3.9437029 2.456954 0
7.5690002 3.9369023 2.4601085 0
7.5800004 3.9300621 2.4632635 0
7.4720006 3.9978209 2.4195321 0
7.4820004 3.9907641 2.4223821 0
7.4930005 3.9842401 2.4255171 0
7.5040007 3.9776759 2.4286523 0
7.5150003 3.9710717 2.431787 0
7.5250006 3.9638658 2.4346373 0
7.5360003 3.9571843 2.437772 0
7.5470004 3.9504633 2.4409072 0
7.5580006 3.9437029 2.4440422 0
7.5690002 3.9369023 2.4471772 0
7.5800004 3.9300621 2.4503124 0
7.5910006 3.9231825 2.4534473 0
7.6020002 3.9162631 2.4565823 0
7.6130004 3.9093044 2.4597173 0
7.4720006 3.9978209 2.4067755 0
7.4820004 3.9907641 2.4096074 0
7.4930005 3.9842401 2.4127228 0
7.5040007 3.9776759 2.415838 0
7.5150003 3.9710717 2.4189529 0
7.5250006 3.9638658 2.4217851 0
7.5360003 3.9571843 2.4249003 0
7.5470004 3.9504633 2.4280155 0
7.5580006 3.9437029 2.4311304 0
7.5690002 3.9369023 2.4342458 0
7.5800004 3.9300621 2.4373608 0
7.5910006 3.9231825 2.4404762 0
7.6020002 3.9162631 2.4435911 0
7.6130004 3.9093044 2.4467065 0
7.6250005 3.9028518 2.450105 0
7.6360006 3.8958118 2.4532201 0
7.6470003 3.8887317 2.4563351 0
7.4720006 3.9978209 2.3940189 0
7.4820004 3.9907641 2.3968327 0
7.4930005 3.9842401 2.3999283 0
7.5040007 3.9776759 2.4030237 0
7.5150003 3.9710717 2.4061189 0
7.5250006 3.9638658 2.4089329 0
7.5360003 3.9571843 2.4120283 0
7.5470004 3.9504633 2.4151235 0
7.5580006 3.9437029 2.4182189 0
7.5690002 3.9369023 2.4213142 0
7.5800004 3.9300621 2.4244096 0
7.5910006 3.9231825 2.4275048 0
7.6020002 3.9162631 2.4306002 0
7.6130004 3.9093044 2.4336956 0
7.6250005 3.9028518 2.4370723 0
7.6360006 3.8958118 2.4401677 0
7.6470003 3.8887317 2.4432628 0
7.6580005 3.8816121 2.4463582 0
7.6690006 3.8744528 2.4494538 0
7.6810002 3.8677912 2.4528303 0
7.4720006 3.9978209 2.3812623 0
7.4820004 3.9907641 2.3840585 0
7.4930005 3.9842401 2.3871338 0
7.5040007 3.9776759 2.3902094 0
7.5150003 3.9710717 2.3932848 0
7.5250006 3.9638658 2.3960807 0
7.5360003 3.9571843 2.3991563 0
7.5470004 3.9504633 2.4022317 0
7.5580006 3.9437029 2.4053073 0
7.5690002 3.9369023 2.4083827 0
7.5800004 3.9300621 2.4114583 0
7.5910006 3.9231825 2.4145339 0
7.6020002 3.9162631 2.4176092 0
7.6130004 3.9093044 2.4206846 0
7.6250005 3.9028518 2.4240396 0
7.6360006 3.8958118 2.4271154 0
7.6470003 3.8887317 2.4301908 0
7.6580005 3.8816121 2.4332664 0
7.6690006 3.8744528 2.4363418 0
7.6810002 3.8677912 2.4396968 0
7.6920004 3.8605509 2.4427722 0
7.7030005 3.8532708 2.445848 0
7.7150006 3.8464828 2.449203 0
7.4720006 3.9978209 2.368506 0
7.4820004 3.9907641 2.3712838 0
7.4930005 3.9842401 2.3743393 0
7.5040007 3.9776759 2.3773952 0
7.5150003 3.9710717 2.3804507 0
7.5250006 3.9638658 2.3832288 0
7.5360003 3.9571843 2.3862841 0
7.5470004 3.9504633 2.3893399 0
7.5580006 3.9437029 2.3923955 0
7.5690002 3.9369023 2.3954511 0
7.5800004 3.9300621 2.3985069 0
7.5910006 3.9231825 2.4015625 0
7.6020002 3.9162631 2.4046183 0
7.6130004 3.9093044 2.4076738 0
7.6250005 3.9028518 2.4110072 0
7.6360006 3.8958118 2.414063 0
7.6470003 3.8887317 2.4171185 0
7.6580005 3.8816121 2.4201741 0
7.6690006 3.8744528 2.4232299 0
7.6810002 3.8677912 2.4265633 0
7.6920004 3.8605509 2.4296188 0
7.7030005 3.8532708 2.4326746 0
7.7150006 3.8464828 2.4360082 0
7.7260003 3.8391213 2.4390635 0
7.7380004 3.8322492 2.4423971 0
7.4720006 3.9978209 2.3557494 0
7.4820004 3.9907641 2.3585091 0
7.4930005 3.9842401 2.3615448 0
7.5040007 3.9776759 2.3645809 0
7.5150003 3.9710717 2.3676167 0
7.5250006 3.9638658 2.3703766 0
7.5360003 3.9571843 2.3734121 0
7.5470004 3.9504633 2.3764482 0
7.5580006 3.9437029 2.3794839 0
7.5690002 3.9369023 2.3825197 0
7.5800004 3.9300621 2.3855555 0
7.5910006 3.9231825 2.3885913 0
7.6020002 3.9162631 2.3916271 0
7.6130004 3.9093044 2.3946629 0
7.6250005 3.9028518 2.3979747 0
7.6360006 3.8958118 2.4010105 0
7.6470003 3.8887317 2.4040463 0
7.6580005 3.8816121 2.4070821 0
7.6690006 3.8744528 2.4101181 0
7.6810002 3.8677912 2.4134297 0
7.6920004 3.8605509 2.4164655 0
7.7030005 3.8532708 2.4195013 0
7.7150006 3.8464828 2.4228132 0
7.7260003 3.8391213 2.425849 0
7.7380004 3.8322492 2.4291606 0
7.7490005 3.8248067 2.4321966 0
7.4720006 3.9978209 2.3429928 0
7.4820004 3.9907641 2.3457346 0
7.4930005 3.9842401 2.3487506 0
7.5040007 3.9776759 2.3517666 0
7.5150003 3.9710717 2.3547823 0
7.5250006 3.9638658 2.3575244 0
7.5360003 3.9571843 2.3605402 0
7.5470004 3.9504633 2.3635561 0
7.5580006 3.9437029 2.3665724 0
7.5690002 3.9369023 2.3695881 0
7.5800004 3.9300621 2.3726041 0
7.5910006 3.9231825 2.3756201 0
7.6020002 3.9162631 2.3786359 0
7.6130004 3.9093044 2.3816521 0
7.6250005 3.9028518 2.3849423 0
7.6360006 3.8958118 2.3879583 0
7.6470003 3.8887317 2.390974 0
7.6580005 3.8816121 2.39399 0
7.6690006 3.8744528 2.397006 0
7.6810002 3.8677912 2.4002962 0
7.6920004 3.8605509 2.4033122 0
7.7030005 3.8532708 2.4063282 0
7.7150006 3.8464828 2.4096184 0
7.7260003 3.8391213 2.4126341 0
7.7380004 3.8322492 2.4159245 0
7.7490005 3.8248067 2.4189405 0
7.4720006 3.9978209 2.3302364 0
7.4820004 3.9907641 2.3329601 0
7.4930005 3.9842401 2.3359563 0
7.5040007 3.9776759 2.3389523 0
7.5150003 3.9710717 2.3419483 0
7.5250006 3.9638658 2.3446722 0
7.5360003 3.9571843 2.3476682 0
7.5470004 3.9504633 2.3506644 0
7.5580006 3.9437029 2.3536606 0
7.5690002 3.9369023 2.3566566 0
7.5800004 3.9300621 2.3596528 0
7.5910006 3.9231825 2.362649 0
7.6020002 3.9162631 2.3656452 0
7.6130004 3.9093044 2.3686411 0
7.6250005 3.9028518 2.3719099 0
7.6360006 3.8958118 2.3749058 0
7.6470003 3.8887317 2.3779018 0
7.6580005 3.8816121 2.380898 0
7.6690006 3.8744528 2.3838944 0
7.6810002 3.8677912 2.3871627 0
7.6920004 3.8605509 2.3901589 0
7.7030005 3.8532708 2.3931549 0
7.7150006 3.8464828 2.3964233 0
7.7260003 3.8391213 2.3994195 0
7.7380004 3.8322492 2.402688 0
7.7490005 3.8248067 2.4056842 0
7.4720006 3.9978209 2.3174798 0
7.4820004 3.9907641 2.3201854 0
7.4930005 3.9842401 2.3231618 0
7.5040007 3.9776759 2.326138 0
7.5150003 3.9710717 2.3291142 0
7.5250006 3.9638658 2.3318202 0
7.5360003 3.9571843 2.3347962 0
7.5470004 3.9504633 2.3377726 0
7.5580006 3.9437029 2.340749 0
7.5690002 3.9369023 2.343725 0
7.5800004 3.9300621 2.3467014 0
7.5910006 3.9231825 2.3496778 0
7.6020002 3.9162631 2.352654 0
7.6130004 3.9093044 2.3556304 0
7.6250005 3.9028518 2.3588772 0
7.6360006 3.8958118 2.3618534 0
7.6470003 3.8887317 2.3648298 0
7.6580005 3.8816121 2.367806 0
7.6690006 3.8744528 2.3707824 0
7.6810002 3.8677912 2.3740292 0
7.6920004 3.8605509 2.3770053 0
7.7030005 3.8532708 2.3799818 0
7.7150006 3.8464828 2.3832288 0
7.7260003 3.8391213 2.3862047 0
7.7380004 3.8322492 2.3894517 0
7.7490005 3.8248067 2.3924282 0
7.4720006 3.9978209 2.3047233 0
7.4820004 3.9907641 2.307411 0
7.4930005 3.9842401 2.3103673 0
7.5040007 3.9776759 2.313324 0
7.5150003 3.9710717 2.3162801 0
7.5250006 3.9638658 2.3189681 0
7.5360003 3.9571843 2.3219242 0
7.5470004 3.9504633 2.3248808 0
7.5580006 3.9437029 2.3278372 0
7.5690002 3.9369023 2.3307936 0
7.5800004 3.9300621 2.3337502 0
7.5910006 3.9231825 2.3367066 0
7.6020002 3.9162631 2.339663 0
7.6130004 3.9093044 2.3426194 0
7.6250005 3.9028518 2.3458445 0
7.6360006 3.8958118 2.3488011 0
7.6470003 3.8887317 2.3517573 0
7.6580005 3.8816121 2.3547139 0
7.6690006 3.8744528 2.3576703 0
7.6810002 3.8677912 2.3608956 0
7.6920004 3.8605509 2.363852 0
7.7030005 3.8532708 2.3668087 0
7.7150006 3.8464828 2.3700337 0
7.7260003 3.8391213 2.3729901 0
7.7380004 3.8322492 2.3762155 0
7.7490005 3.8248067 2.3791718 0
7.4720006 3.9978209 2.2919669 0
7.4820004 3.9907641 2.2946362 0
7.4930005 3.9842401 2.2975729 0
7.5040007 3.9776759 2.3005097 0
7.5150003 3.9710717 2.3034461 0
7.5250006 3.9638658 2.3061159 0
7.5360003 3.9571843 2.3090525 0
7.5470004 3.9504633 2.3119891 0
7.5580006 3.9437029 2.3149254 0
7.5690002 3.9369023 2.317862 0
7.5800004 3.9300621 2.3207986 0
7.5910006 3.9231825 2.3237355 0
7.6020002 3.9162631 2.3266718 0
7.6130004 3.9093044 2.3296084 0
7.6250005 3.9028518 2.3328121 0
7.6360006 3.8958118 2.3357489 0
7.6470003 3.8887317 2.3386853 0
7.6580005 3.8816121 2.3416219 0
7.6690006 3.8744528 2.3445587 0
7.6810002 3.8677912 2.3477621 0
7.6920004 3.8605509 2.3506987 0
7.7030005 3.8532708 2.3536353 0
7.7150006 3.8464828 2.3568389 0
7.7260003 3.8391213 2.3597755 0
7.7380004 3.8322492 2.3629789 0
7.7490005 3.8248067 2.3659158 0
7.4720006 3.9978209 2.2792103 0
7.4820004 3.9907641 2.2818618 0
7.4930005 3.9842401 2.2847784 0
7.5040007 3.9776759 2.2876954 0
7.5150003 3.9710717 2.290612 0
7.5250006 3.9638658 2.2932637 0
7.5360003 3.9571843 2.2961805 0
7.5470004 3.9504633 2.2990971 0
7.5580006 3.9437029 2.3020139 0
7.5690002 3.9369023 2.3049307 0
7.5800004 3.9300621 2.3078475 0
7.5910006 3.9231825 2.3107641 0
7.6020002 3.9162631 2.3136809 0
7.6130004 3.9093044 2.3165977 0
7.6250005 3.9028518 2.3197796 0
7.6360006 3.8958118 2.3226964 0
7.6470003 3.8887317 2.3256133 0
7.6580005 3.8816121 2.3285298 0
7.6690006 3.8744528 2.3314466 0
7.6810002 3.8677912 2.3346286 0
7.6920004 3.8605509 2.3375454 0
7.7030005 3.8532708 2.340462 0
7.7150006 3.8464828 2.3436439 0
7.7260003 3.8391213 2.3465607 0
7.7380004 3.8322492 2.3497427 0
7.7490005 3.8248067 2.3526595 0
7.4720006 3.9978209 2.2664537 0
7.4820004 3.9907641 2.2690871 0
7.4930005 3.9842401 2.2719841 0
7.5040007 3.9776759 2.2748811 0
7.5150003 3.9710717 2.2777779 0
7.5250006 3.9638658 2.2804117 0
7.5360003 3.9571843 2.2833085 0
7.5470004 3.9504633 2.2862053 0
7.5580006 3.9437029 2.2891023 0
7.5690002 3.9369023 2.2919991 0
7.5800004 3.9300621 2.2948961 0
7.5910006 3.9231825 2.2977931 0
7.6020002 3.9162631 2.3006899 0
7.6130004 3.9093044 2.3035867 0
7.6250005 3.9028518 2.3067472 0
7.6360006 3.8958118 2.309644 0
7.6470003 3.8887317 2.3125408 0
7.6580005 3.8816121 2.315438 0
7.6690006 3.8744528 2.3183348 0
7.6810002 3.8677912 2.3214951 0
7.6920004 3.8605509 2.3243921 0
7.7030005 3.8532708 2.3272889 0
7.7150006 3.8464828 2.3304493 0
7.7260003 3.8391213 2.3333461 0
7.7380004 3.8322492 2.3365064 0
7.7490005 3.8248067 2.3394034 0
7.4720006 3.9978209 2.2536972 0
7.4820004 3.9907641 2.2563126 0
7.4930005 3.9842401 2.2591898 0
7.5040007 3.9776759 2.2620668 0
7.5150003 3.9710717 2.2649438 0
7.5250006 3.9638658 2.2675595 0
7.5360003 3.9571843 2.2704363 0
7.5470004 3.9504633 2.2733135 0
7.5580006 3.9437029 2.2761905 0
7.5690002 3.9369023 2.2790675 0
7.5800004 3.9300621 2.2819448 0
7.5910006 3.9231825 2.2848217 0
7.6020002 3.9162631 2.2876987 0
7.6130004 3.9093044 2.290576 0
7.6250005 3.9028518 2.2937145 0
7.6360006 3.8958118 2.2965918 0
7.6470003 3.8887317 2.2994688 0
7.6580005 3.8816121 2.3023458 0
7.6690006 3.8744528 2.305223 0
7.6810002 3.8677912 2.3083613 0
7.6920004 3.8605509 2.3112388 0
7.7030005 3.8532708 2.3141158 0
7.7150006 3.8464828 2.3172543 0
7.7260003 3.8391213 2.3201313 0
7.7380004 3.8322492 2.3232698 0
7.7490005 3.8248067 2.3261471 0
7.4720006 3.9978209 2.2409406 0
7.4820004 3.9907641 2.2435381 0
7.4930005 3.9842401 2.2463953 0
7.5040007 3.9776759 2.2492526 0
7.5150003 3.9710717 2.2521098 0
7.5250006 3.9638658 2.2547073 0
7.5360003 3.9571843 2.2575643 0
7.5470004 3.9504633 2.2604218 0
7.5580006 3.9437029 2.263279 0
7.5690002 3.9369023 2.2661362 0
7.5800004 3.9300621 2.2689934 0
7.5910006 3.9231825 2.2718506 0
7.6020002 3.9162631 2.2747078 0
7.6130004 3.9093044 2.277565 0
7.6250005 3.9028518 2.2806821 0
7.6360006 3.8958118 2.2835395 0
7.6470003 3.8887317 2.2863965 0
7.6580005 3.8816121 2.289254 0
7.6690006 3.8744528 2.2921112 0
7.6810002 3.8677912 2.2952278 0
7.6920004 3.8605509 2.2980852 0
7.7030005 3.8532708 2.3009424 0
7.7150006 3.8464828 2.3040595 0
7.7260003 3.8391213 2.3069167 0
7.7380004 3.8322492 2.3100336 0
7.7490005 3.8248067 2.312891 0
7.4720006 3.9978209 2.228184 0
7.4820004 3.9907641 2.2307634 0
7.4930005 3.9842401 2.2336009 0
7.5040007 3.9776759 2.2364383 0
7.5150003 3.9710717 2.2392757 0
7.5250006 3.9638658 2.2418551 0
7.5360003 3.9571843 2.2446923 0
7.5470004 3.9504633 2.24753 0
7.5580006 3.9437029 2.2503672 0
7.5690002 3.9369023 2.2532046 0
7.5800004 3.9300621 2.256042 0
7.5910006 3.9231825 2.2588797 0
7.6020002 3.9162631 2.2617166 0
7.6130004 3.9093044 2.264554 0
7.6250005 3.9028518 2.2676497 0
7.6360006 3.8958118 2.2704868 0
7.6470003 3.8887317 2.2733243 0
7.6580005 3.8816121 2.2761617 0
7.6690006 3.8744528 2.2789991 0
7.6810002 3.8677912 2.2820942 0
7.6920004 3.8605509 2.2849317 0
7.7030005 3.8532708 2.2877693 0
7.7150006 3.8464828 2.2908645 0
7.7260003 3.8391213 2.2937019 0
7.7380004 3.8322492 2.2967973 0
7.7490005 3.8248067 2.2996347 0
7.4720006 3.9978209 2.2154276 0
7.4820004 3.9907641 2.217989 0
7.4930005 3.9842401 2.2208064 0
7.5040007 3.9776759 2.223624 0
7.5150003 3.9710717 2.2264414 0
7.5250006 3.9638658 2.229003 0
7.5360003 3.9571843 2.2318203 0
7.5470004 3.9504633 2.234638 0
7.5580006 3.9437029 2.2374556 0
7.5690002 3.9369023 2.2402732 0
7.5800004 3.9300621 2.2430906 0
7.5910006 3.9231825 2.2459083 0
7.6020002 3.9162631 2.2487257 0
7.6130004 3.9093044 2.2515435 0
7.6250005 3.9028518 2.254617 0
7.6360006 3.8958118 2.2574346 0
7.6470003 3.8887317 2.260252 0
7.6580005 3.8816121 2.2630699 0
7.6690006 3.8744528 2.2658873 0
7.6810002 3.8677912 2.2689607 0
7.6920004 3.8605509 2.2717783 0
7.7030005 3.8532708 2.2745962 0
7.7150006 3.8464828 2.2776699 0
7.7260003 3.8391213 2.2804871 0
7.7380004 3.8322492 2.283561 0
7.7490005 3.8248067 2.2863786 0
7.4720006 3.9978209 2.2026711 0
7.4820004 3.9907641 2.2052143 0
7.4930005 3.9842401 2.2080121 0
7.5040007 3.9776759 2.2108097 0
7.5150003 3.9710717 2.2136073 0
7.5250006 3.9638658 2.2161508 0
7.5360003 3.9571843 2.2189486 0
7.5470004 3.9504633 2.2217462 0
7.5580006 3.9437029 2.224544 0
7.5690002 3.9369023 2.2273417 0
7.5800004 3.9300621 2.2301395 0
7.5910006 3.9231825 2.2329371 0
7.6020002 3.9162631 2.2357347 0
7.6130004 3.9093044 2.2385325 0
7.6250005 3.9028518 2.2415845 0
7.6360006 3.8958118 2.2443821 0
7.6470003 3.8887317 2.24718 0
7.6580005 3.8816121 2.2499776 0
7.6690006 3.8744528 2.2527754 0
7.6810002 3.8677912 2.2558272 0
7.6920004 3.8605509 2.258625 0
7.7030005 3.8532708 2.2614229 0
7.7150006 3.8464828 2.2644749 0
7.7260003 3.8391213 2.2672725 0
7.7380004 3.8322492 2.2703247 0
7.7490005 3.8248067 2.2731223 0
7.4720006 3.9978209 2.1899145 0
7.4820004 3.9907641 2.1924398 0
7.4930005 3.9842401 2.1952176 0
7.5040007 3.9776759 2.1979954 0
7.5150003 3.9710717 2.2007732 0
7.5250006 3.9638658 2.2032988 0
7.5360003 3.9571843 2.2060766 0
7.5470004 3.9504633 2.2088544 0
7.5580006 3.9437029 2.2116323 0
7.5690002 3.9369023 2.2144101 0
7.5800004 3.9300621 2.2171881 0
7.5910006 3.9231825 2.2199659 0
7.6020002 3.9162631 2.2227437 0
7.6130004 3.9093044 2.2255216 0
7.6250005 3.9028518 2.2285521 0
7.6360006 3.8958118 2.2313299 0
7.6470003 3.8887317 2.2341077 0
7.6580005 3.8816121 2.2368855 0
7.6690006 3.8744528 2.2396636 0
7.6810002 3.8677912 2.2426939 0
7.6920004 3.8605509 2.2454717 0
7.7030005 3.8532708 2.2482495 0
7.7150006 3.8464828 2.2512801 0
7.7260003 3.8391213 2.2540579 0
7.7380004 3.8322492 2.2570882 0
7.7490005 3.8248067 2.2598662 0
7.4720006 3.9978209 2.1771579 0
7.4820004 3.9907641 2.1796651 0
7.4930005 3.9842401 2.1824234 0
7.5040007 3.9776759 2.1851814 0
7.5150003 3.9710717 2.1879392 0
7.5250006 3.9638658 2.1904466 0
7.5360003 3.9571843 2.1932044 0
7.5470004 3.9504633 2.1959627 0
7.5580006 3.9437029 2.1987207 0
7.5690002 3.9369023 2.2014787 0
7.5800004 3.9300621 2.2042365 0
7.5910006 3.9231825 2.2069948 0
7.6020002 3.9162631 2.2097526 0
7.6130004 3.9093044 2.2125108 0
7.6250005 3.9028518 2.2155194 0
7.6360006 3.8958118 2.2182775 0
7.6470003 3.8887317 2.2210355 0
7.6580005 3.8816121 2.2237935 0
7.6690006 3.8744528 2.2265515 0
7.6810002 3.8677912 2.2295604 0
7.6920004 3.8605509 2.2323184 0
7.7030005 3.8532708 2.2350764 0
7.7150006 3.8464828 2.2380853 0
7.7260003 3.8391213 2.2408431 0
7.7380004 3.8322492 2.2438519 0
7.7490005 3.8248067 2.2466099 0
7.4720006 3.9978209 2.1644015 0
7.4820004 3.9907641 2.1668906 0
7.4930005 3.9842401 2.1696289 0
7.5040007 3.9776759 2.1723671 0
7.5150003 3.9710717 2.1751051 0
7.5250006 3.9638658 2.1775944 0
7.5360003 3.9571843 2.1803324 0
7.5470004 3.9504633 2.1830709 0
7.5580006 3.9437029 2.1858091 0
7.5690002 3.9369023 2.1885471 0
7.5800004 3.9300621 2.1912854 0
7.5910006 3.9231825 2.1940236 0
7.6020002 3.9162631 2.1967616 0
7.6130004 3.9093044 2.1994998 0
7.6250005 3.9028518 2.202487 0
7.6360006 3.8958118 2.2052252 0
7.6470003 3.8887317 2.2079635 0
7.6580005 3.8816121 2.2107015 0
7.6690006 3.8744528 2.2134397 0
7.6810002 3.8677912 2.2164268 0
7.6920004 3.8605509 2.2191648 0
7.7030005 3.8532708 2.2219033 0
7.7150006 3.8464828 2.2248905 0
7.7260003 3.8391213 2.2276285 0
7.7380004 3.8322492 2.2306156 0
7.7490005 3.8248067 2.2333539 0
7.4720006 3.9978209 2.1516449 0
7.4820004 3.9907641 2.1541159 0
7.4930005 3.9842401 2.1568344 0
7.5040007 3.9776759 2.1595528 0
7.5150003 3.9710717 2.162271 0
7.5250006 3.9638658 2.1647422 0
7.5360003 3.9571843 2.1674607 0
7.5470004 3.9504633 2.1701789 0
7.5580006 3.9437029 2.1728973 0
7.5690002 3.9369023 2.1756155 0
7.5800004 3.9300621 2.178334 0
7.5910006 3.9231825 2.1810524 0
7.6020002 3.9162631 2.1837707 0
7.6130004 3.9093044 2.1864889 0
7.6250005 3.9028518 2.1894546 0
7.6360006 3.8958118 2.192173 0
7.6470003 3.8887317 2.1948912 0
7.6580005 3.8816121 2.1976094 0
7.6690006 3.8744528 2.2003279 0
7.6810002 3.8677912 2.2032933 0
7.6920004 3.8605509 2.2060115 0
7.7030005 3.8532708 2.20873 0
7.7150006 3.8464828 2.2116954 0
7.7260003 3.8391213 2.2144139 0
7.7380004 3.8322492 2.2173791 0
7.7490005 3.8248067 2.2200975 0
7.4720006 3.9978209 2.1388884 0
7.4820004 3.9907641 2.1413414 0
7.4930005 3.9842401 2.1440401 0
7.5040007 3.9776759 2.1467385 0
7.5150003 3.9710717 2.149437 0
7.5250006 3.9638658 2.1518903 0
7.5360003 3.9571843 2.1545887 0
7.5470004 3.9504633 2.1572871 0
7.5580006 3.9437029 2.1599855 0
7.5690002 3.9369023 2.162684 0
7.5800004 3.9300621 2.1653826 0
7.5910006 3.9231825 2.1680813 0
7.6020002 3.9162631 2.1707797 0
7.6130004 3.9093044 2.1734781 0
7.6250005 3.9028518 2.1764219 0
7.6360006 3.8958118 2.1791205 0
7.6470003 3.8887317 2.181819 0
7.6580005 3.8816121 2.1845174 0
7.6690006 3.8744528 2.187216 0
7.6810002 3.8677912 2.1901598 0
7.6920004 3.8605509 2.1928582 0
7.7030005 3.8532708 2.1955569 0
7.7150006 3.8464828 2.1985006 0
7.7260003 3.8391213 2.2011991 0
7.7380004 3.8322492 2.2041428 0
7.7490005 3.8248067 2.2068415 0
7.4720006 3.9978209 2.1261318 0
7.4820004 3.9907641 2.1285667 0
7.4930005 3.9842401 2.1312456 0
7.5040007 3.9776759 2.1339242 0
7.5150003 3.9710717 2.1366029 0
7.5250006 3.9638658 2.1390381 0
7.5360003 3.9571843 2.1417167 0
7.5470004 3.9504633 2.1443954 0
7.5580006 3.9437029 2.147074 0
7.5690002 3.9369023 2.1497526 0
7.5800004 3.9300621 2.1524312 0
7.5910006 3.9231825 2.1551099 0
7.6020002 3.9162631 2.1577885 0
7.6130004 3.9093044 2.1604674 0
7.6250005 3.9028518 2.1633894 0
7.6360006 3.8958118 2.1660681 0
7.6470003 3.8887317 2.1687467 0
7.6580005 3.8816121 2.1714256 0
7.6690006 3.8744528 2.174104 0
7.6810002 3.8677912 2.177026 0
7.6920004 3.8605509 2.1797049 0
7.7030005 3.8532708 2.1823835 0
7.7150006 3.8464828 2.1853058 0
7.7260003 3.8391213 2.1879842 0
7.7380004 3.8322492 2.1909065 0
7.7490005 3.8248067 2.1935852 0
7.4720006 3.9978209 2.1133752 0
7.4820004 3.9907641 2.1157923 0
7.4930005 3.9842401 2.1184511 0
7.5040007 3.9776759 2.12111 0
7.5150003 3.9710717 2.1237688 0
7.5250006 3.9638658 2.1261859 0
7.5360003 3.9571843 2.1288447 0
7.5470004 3.9504633 2.1315036 0
7.5580006 3.9437029 2.1341624 0
7.5690002 3.9369023 2.136821 0
7.5800004 3.9300621 2.1394799 0
7.5910006 3.9231825 2.1421387 0
7.6020002 3.9162631 2.1447976 0
7.6130004 3.9093044 2.1474564 0
7.6250005 3.9028518 2.1503568 0
7.6360006 3.8958118 2.1530159 0
7.6470003 3.8887317 2.1556745 0
7.6580005 3.8816121 2.1583333 0
7.6690006 3.8744528 2.1609921 0
7.6810002 3.8677912 2.1638925 0
7.6920004 3.8605509 2.1665516 0
7.7030005 3.8532708 2.1692104 0
7.7150006 3.8464828 2.172111 0
7.7260003 3.8391213 2.1747696 0
7.7380004 3.8322492 2.1776702 0
7.7490005 3.8248067 2.1803291 0
7.4720006 3.9978209 2.1006188 0
7.4820004 3.9907641 2.1030178 0
7.4930005 3.9842401 2.1056569 0
7.5040007 3.9776759 2.1082959 0
7.5150003 3.9710717 2.1109347 0
7.5250006 3.9638658 2.1133337 0
7.5360003 3.9571843 2.1159728 0
7.5470004 3.9504633 2.1186116 0
7.5580006 3.9437029 2.1212506 0
7.5690002 3.9369023 2.1238894 0
7.5800004 3.9300621 2.1265287 0
7.5910006 3.9231825 2.1291676 0
7.6020002 3.9162631 2.1318066 0
7.6130004 3.9093044 2.1344454 0
7.6250005 3.9028518 2.1373243 0
7.6360006 3.8958118 2.1399634 0
7.6470003 3.8887317 2.1426022 0
7.6580005 3.8816121 2.1452413 0
7.6690006 3.8744528 2.1478803 0
7.6810002 3.8677912 2.1507592 0
7.6920004 3.8605509 2.1533983 0
7.7030005 3.8532708 2.1560371 0
7.7150006 3.8464828 2.158916 0
7.7260003 3.8391213 2.1615551 0
7.7380004 3.8322492 2.1644337 0
7.7490005 3.8248067 2.1670728 0
7.4720006 3.9978209 2.0878623 0
7.4820004 3.9907641 2.0902431 0
7.4930005 3.9842401 2.0928624 0
7.5040007 3.9776759 2.0954816 0
7.5150003 3.9710717 2.0981007 0
7.5250006 3.9638658 2.1004817 0
7.5360003 3.9571843 2.1031008 0
7.5470004 3.9504633 2.1057198 0
7.5580006 3.9437029 2.1083391 0
7.5690002 3.9369023 2.1109581 0
7.5800004 3.9300621 2.1135771 0
7.5910006 3.9231825 2.1161964 0
7.6020002 3.9162631 2.1188154 0
7.6130004 3.9093044 2.1214347 0
7.6250005 3.9028518 2.1242919 0
7.6360006 3.8958118 2.1269112 0
7.6470003 3.8887317 2.1295302 0
7.6580005 3.8816121 2.1321492 0
7.6690006 3.8744528 2.1347685 0
7.6810002 3.8677912 2.1376257 0
7.6920004 3.8605509 2.1402447 0
7.7030005 3.8532708 2.142864 0
7.7150006 3.8464828 2.1457212 0
7.7260003 3.8391213 2.1483402 0
7.7380004 3.8322492 2.1511974 0
7.7490005 3.8248067 2.1538167 0
7.4720006 3.9978209 2.0751057 0
7.4820004 3.9907641 2.0774686 0
7.4930005 3.9842401 2.0800679 0
7.5040007 3.9776759 2.0826674 0
7.5150003 3.9710717 2.0852664 0
7.5250006 3.9638658 2.0876296 0
7.5360003 3.9571843 2.0902288 0
7.5470004 3.9504633 2.092828 0
7.5580006 3.9437029 2.0954273 0
7.5690002 3.9369023 2.0980265 0
7.5800004 3.9300621 2.100626 0
7.5910006 3.9231825 2.1032252 0
7.6020002 3.9162631 2.1058245 0
7.6130004 3.9093044 2.1084237 0
7.6250005 3.9028518 2.1112595 0
7.6360006 3.8958118 2.1138587 0
7.6470003 3.8887317 2.1164579 0
7.6580005 3.8816121 2.1190572 0
7.6690006 3.8744528 2.1216567 0
7.6810002 3.8677912 2.1244922 0
7.6920004 3.8605509 2.1270914 0
7.7030005 3.8532708 2.1296906 0
7.7150006 3.8464828 2.1325264 0
7.7260003 3.8391213 2.1351256 0
7.7380004 3.8322492 2.1379611 0
7.7490005 3.8248067 2.1405604 0
7.4720006 3.9978209 2.0623491 0
7.4820004 3.9907641 2.0646942 0
7.4930005 3.9842401 2.0672734 0
7.5040007 3.9776759 2.0698531 0
7.5150003 3.9710717 2.0724323 0
7.5250006 3.9638658 2.0747774 0
7.5360003 3.9571843 2.0773568 0
7.5470004 3.9504633 2.0799363 0
7.5580006 3.9437029 2.0825157 0
7.5690002 3.9369023 2.0850952 0
7.5800004 3.9300621 2.0876746 0
7.5910006 3.9231825 2.0902541 0
7.6020002 3.9162631 2.0928335 0
7.6130004 3.9093044 2.095413 0
7.6250005 3.9028518 2.0982268 0
7.6360006 3.8958118 2.1008062 0
7.6470003 3.8887317 2.1033857 0
7.6580005 3.8816121 2.1059651 0
7.6690006 3.8744528 2.1085448 0
7.6810002 3.8677912 2.1113586 0
7.6920004 3.8605509 2.1139381 0
7.7030005 3.8532708 2.1165175 0
7.7150006 3.8464828 2.1193314 0
7.7260003 3.8391213 2.1219108 0
7.7380004 3.8322492 2.1247249 0
7.7490005 3.8248067 2.1273043 0
7.4820004 3.9907641 2.0519195 0
7.4930005 3.9842401 2.0544791 0
7.5040007 3.9776759 2.0570388 0
7.5150003 3.9710717 2.0595982 0
7.5250006 3.9638658 2.0619252 0
7.5360003 3.9571843 2.0644848 0
7.5470004 3.9504633 2.0670445 0
7.5580006 3.9437029 2.0696042 0
7.5690002 3.9369023 2.0721636 0
7.5800004 3.9300621 2.0747232 0
7.5910006 3.9231825 2.0772829 0
7.6020002 3.9162631 2.0798426 0
7.6130004 3.9093044 2.082402 0
7.6250005 3.9028518 2.0851943 0
7.6360006 3.8958118 2.087754 0
7.6470003 3.8887317 2.0903134 0
7.6580005 3.8816121 2.0928731 0
7.6690006 3.8744528 2.0954328 0
7.6810002 3.8677912 2.0982251 0
7.6920004 3.8605509 2.1007845 0
7.7030005 3.8532708 2.1033442 0
7.7150006 3.8464828 2.1061366 0
7.7260003 3.8391213 2.1086962 0
7.7380004 3.8322492 2.1114886 0
7.7490005 3.8248067 2.114048 0
7.4930005 3.9842401 2.0416846 0
7.5040007 3.9776759 2.0442245 0
7.5150003 3.9710717 2.0467641 0
7.5250006 3.9638658 2.0490732 0
7.5360003 3.9571843 2.0516129 0
7.5470004 3.9504633 2.0541527 0
7.5580006 3.9437029 2.0566924 0
7.5690002 3.9369023 2.059232 0
7.5800004 3.9300621 2.0617719 0
7.5910006 3.9231825 2.0643117 0
7.6020002 3.9162631 2.0668514 0
7.6130004 3.9093044 2.0693913 0
7.6250005 3.9028518 2.0721619 0
7.6360006 3.8958118 2.0747015 0
7.6470003 3.8887317 2.0772414 0
7.6580005 3.8816121 2.0797811 0
7.6690006 3.8744528 2.0823209 0
7.6810002 3.8677912 2.0850916 0
7.6920004 3.8605509 2.0876312 0
7.7030005 3.8532708 2.0901711 0
7.7150006 3.8464828 2.0929418 0
7.7260003 3.8391213 2.0954814 0
7.7380004 3.8322492 2.0982521 0
7.7490005 3.8248067 2.1007919 0
7.5690002 3.9369023 2.0463006 0
7.5800004 3.9300621 2.0488205 0
7.5910006 3.9231825 2.0513406 0
7.6020002 3.9162631 2.0538602 0
7.6130004 3.9093044 2.0563803 0
7.6250005 3.9028518 2.0591295 0
7.6360006 3.8958118 2.0616493 0
7.6470003 3.8887317 2.0641692 0
7.6580005 3.8816121 2.066689 0
7.6690006 3.8744528 2.0692091 0
7.6810002 3.8677912 2.0719581 0
7.6920004 3.8605509 2.0744779 0
7.7030005 3.8532708 2.076998 0
7.7150006 3.8464828 2.079747 0
7.7260003 3.8391213 2.0822668 0
7.7380004 3.8322492 2.0850158 0
7.7490005 3.8248067 2.0875356 0
7.6580005 3.8816121 2.053597 0
7.6690006 3.8744528 2.056097 0
7.6810002 3.8677912 2.0588243 0
7.6920004 3.8605509 2.0613246 0
7.7030005 3.8532708 2.0638247 0
7.7150006 3.8464828 2.0665519 0
7.7260003 3.8391213 2.069052 0
7.7380004 3.8322492 2.0717795 0
7.7490005 3.8248067 2.0742795 0
7.7610006 3.8178496 2.0770071 0
