# .PCD v0.7 - Point Cloud Data file format
VERSION 0.7
FIELDS x y z intensity
SIZE 4 4 4 4
TYPE F F F F
COUNT 1 1 1 1
WIDTH 953
HEIGHT 1
VIEWPOINT 0 0 0 1 0 0 0
POINTS 953
DATA ascii
6.2110004 3.2558079 2.4689403 0
6.2160006 3.248158 2.470717 0
6.2070003 3.2640097 2.4570439 0
6.2110004 3.2558079 2.4584582 0
6.2160006 3.248158 2.4602261 0
6.2200003 3.2399251 2.4616404 0
6.2250004 3.2322412 2.463408 0
6.2290006 3.2239778 2.4648223 0
6.2340002 3.2162592 2.4665897 0
6.2390003 3.2085228 2.4683576 0
6.2070003 3.2640097 2.4465692 0
6.2110004 3.2558079 2.4479764 0
6.2160006 3.248158 2.4497352 0
6.2200003 3.2399251 2.4511421 0
6.2250004 3.2322412 2.4529006 0
6.2290006 3.2239778 2.4543078 0
6.2340002 3.2162592 2.4560664 0
6.2390003 3.2085228 2.4578252 0
6.2430005 3.2002127 2.4592323 0
6.2480001 3.1924417 2.4609907 0
6.2520003 3.1841009 2.4623978 0
6.2570004 3.176296 2.4641566 0
6.2610002 3.1679244 2.4655633 0
6.2070003 3.2640097 2.4360945 0
6.2110004 3.2558079 2.4374945 0
6.2160006 3.248158 2.439244 0
6.2200003 3.2399251 2.4406438 0
6.2250004 3.2322412 2.4423935 0
6.2290006 3.2239778 2.4437933 0
6.2340002 3.2162592 2.4455428 0
6.2390003 3.2085228 2.4472926 0
6.2430005 3.2002127 2.4486926 0
6.2480001 3.1924417 2.4504421 0
6.2520003 3.1841009 2.4518418 0
6.2570004 3.176296 2.4535916 0
6.2610002 3.1679244 2.4549913 0
6.2660003 3.1600852 2.4567411 0
6.2710004 3.1522279 2.4584906 0
6.2750006 3.1438096 2.4598906 0
6.2800002 3.1359177 2.4616401 0
6.2840004 3.1274686 2.4630401 0
6.2070003 3.2640097 2.4256198 0
6.2110004 3.2558079 2.4270124 0
6.2160006 3.248158 2.4287531 0
6.2200003 3.2399251 2.4301455 0
6.2250004 3.2322412 2.4318864 0
6.2290006 3.2239778 2.433279 0
6.2340002 3.2162592 2.4350195 0
6.2390003 3.2085228 2.4367602 0
6.2430005 3.2002127 2.4381528 0
6.2480001 3.1924417 2.4398935 0
6.2520003 3.1841009 2.4412858 0
6.2570004 3.176296 2.4430268 0
6.2610002 3.1679244 2.4444191 0
6.2660003 3.1600852 2.4461598 0
6.2710004 3.1522279 2.4479005 0
6.2750006 3.1438096 2.4492931 0
6.2800002 3.1359177 2.4510336 0
6.2840004 3.1274686 2.4524264 0
6.2890005 3.1195428 2.4541669 0
6.2940001 3.1115987 2.4559076 0
6.2980003 3.1031029 2.4573002 0
6.3030005 3.0951247 2.4590409 0
6.2070003 3.2640097 2.4151454 0
6.2110004 3.2558079 2.4165306 0
6.2160006 3.248158 2.4182622 0
6.2200003 3.2399251 2.4196475 0
6.2250004 3.2322412 2.4213791 0
6.2290006 3.2239778 2.4227645 0
6.2340002 3.2162592 2.4244962 0
6.2390003 3.2085228 2.4262278 0
6.2430005 3.2002127 2.4276133 0
6.2480001 3.1924417 2.4293447 0
6.2520003 3.1841009 2.4307301 0
6.2570004 3.176296 2.4324617 0
6.2610002 3.1679244 2.433847 0
6.2660003 3.1600852 2.4355786 0
6.2710004 3.1522279 2.4373105 0
6.2750006 3.1438096 2.4386959 0
6.2800002 3.1359177 2.4404273 0
6.2840004 3.1274686 2.4418128 0
6.2890005 3.1195428 2.4435444 0
6.2940001 3.1115987 2.4452758 0
6.2980003 3.1031029 2.4466612 0
6.3030005 3.0951247 2.4483931 0
6.3080006 3.0871284 2.4501247 0
6.2070003 3.2640097 2.4046705 0
6.2110004 3.2558079 2.4060488 0
6.2160006 3.248158 2.4077713 0
6.2200003 3.2399251 2.4091492 0
6.2250004 3.2322412 2.410872 0
6.2290006 3.2239778 2.4122503 0
6.2340002 3.2162592 2.4139729 0
6.2390003 3.2085228 2.4156954 0
6.2430005 3.2002127 2.4170735 0
6.2480001 3.1924417 2.4187961 0
6.2520003 3.1841009 2.4201741 0
6.2570004 3.176296 2.4218967 0
6.2610002 3.1679244 2.423275 0
6.2660003 3.1600852 2.4249976 0
6.2710004 3.1522279 2.4267204 0
6.2750006 3.1438096 2.4280984 0
6.2800002 3.1359177 2.429821 0
6.2840004 3.1274686 2.4311993 0
6.2890005 3.1195428 2.4329219 0
6.2940001 3.1115987 2.4346442 0
6.2980003 3.1031029 2.4360225 0
6.3030005 3.0951247 2.4377451 0
6.3080006 3.0871284 2.4394679 0
6.2070003 3.2640097 2.3941958 0
6.2110004 3.2558079 2.3955667 0
6.2160006 3.248158 2.3972802 0
6.2200003 3.2399251 2.3986511 0
6.2250004 3.2322412 2.4003646 0
6.2290006 3.2239778 2.4017358 0
6.2340002 3.2162592 2.4034491 0
6.2390003 3.2085228 2.4051628 0
6.2430005 3.2002127 2.4065337 0
6.2480001 3.1924417 2.4082472 0
6.2520003 3.1841009 2.4096181 0
6.2570004 3.176296 2.4113319 0
6.2610002 3.1679244 2.4127028 0
6.2660003 3.1600852 2.4144166 0
6.2710004 3.1522279 2.4161303 0
6.2750006 3.1438096 2.4175012 0
6.2800002 3.1359177 2.4192147 0
6.2840004 3.1274686 2.4205856 0
6.2890005 3.1195428 2.4222991 0
6.2940001 3.1115987 2.4240127 0
6.2980003 3.1031029 2.4253836 0
6.3030005 3.0951247 2.4270973 0
6.3080006 3.0871284 2.4288111 0
6.2070003 3.2640097 2.3837211 0
6.2110004 3.2558079 2.3850846 0
6.2160006 3.248158 2.3867893 0
6.2200003 3.2399251 2.3881528 0
6.2250004 3.2322412 2.3898575 0
6.2290006 3.2239778 2.3912213 0
6.2340002 3.2162592 2.3929257 0
6.2390003 3.2085228 2.3946304 0
6.2430005 3.2002127 2.3959942 0
6.2480001 3.1924417 2.3976986 0
6.2520003 3.1841009 2.3990624 0
6.2570004 3.176296 2.4007668 0
6.2610002 3.1679244 2.4021306 0
6.2660003 3.1600852 2.4038353 0
6.2710004 3.1522279 2.4055398 0
6.2750006 3.1438096 2.4069037 0
6.2800002 3.1359177 2.4086082 0
6.2840004 3.1274686 2.409972 0
6.2890005 3.1195428 2.4116766 0
6.2940001 3.1115987 2.4133811 0
6.2980003 3.1031029 2.4147449 0
6.3030005 3.0951247 2.4164495 0
6.3080006 3.0871284 2.418154 0
6.2070003 3.2640097 2.3732464 0
6.2110004 3.2558079 2.3746028 0
6.2160006 3.248158 2.3762984 0
6.2200003 3.2399251 2.3776548 0
6.2250004 3.2322412 2.3793504 0
6.2290006 3.2239778 2.3807068 0
6.2340002 3.2162592 2.3824024 0
6.2390003 3.2085228 2.3840981 0
6.2430005 3.2002127 2.3854547 0
6.2480001 3.1924417 2.3871498 0
6.2520003 3.1841009 2.3885064 0
6.2570004 3.176296 2.390202 0
6.2610002 3.1679244 2.3915586 0
6.2660003 3.1600852 2.393254 0
6.2710004 3.1522279 2.3949497 0
6.2750006 3.1438096 2.3963063 0
6.2800002 3.1359177 2.3980017 0
6.2840004 3.1274686 2.3993583 0
6.2890005 3.1195428 2.4010539 0
6.2940001 3.1115987 2.4027493 0
6.2980003 3.1031029 2.4041059 0
6.3030005 3.0951247 2.4058015 0
6.3080006 3.0871284 2.4074972 0
6.2070003 3.2640097 2.3627715 0
6.2110004 3.2558079 2.364121 0
6.2160006 3.248158 2.3658073 0
6.2200003 3.2399251 2.3671567 0
6.2250004 3.2322412 2.3688431 0
6.2290006 3.2239778 2.3701925 0
6.2340002 3.2162592 2.3718789 0
6.2390003 3.2085228 2.3735657 0
6.2430005 3.2002127 2.3749149 0
6.2480001 3.1924417 2.3766015 0
6.2520003 3.1841009 2.3779507 0
6.2570004 3.176296 2.3796372 0
6.2610002 3.1679244 2.3809862 0
6.2660003 3.1600852 2.382673 0
6.2710004 3.1522279 2.3843596 0
6.2750006 3.1438096 2.385709 0
6.2800002 3.1359177 2.3873954 0
6.2840004 3.1274686 2.3887446 0
6.2890005 3.1195428 2.3904312 0
6.2940001 3.1115987 2.3921175 0
6.2980003 3.1031029 2.3934669 0
6.3030005 3.0951247 2.3951535 0
6.3080006 3.0871284 2.3968403 0
6.2070003 3.2640097 2.3522968 0
6.2110004 3.2558079 2.3536389 0
6.2160006 3.248158 2.3553166 0
6.2200003 3.2399251 2.3566585 0
6.2250004 3.2322412 2.358336 0
6.2290006 3.2239778 2.359678 0
6.2340002 3.2162592 2.3613555 0
6.2390003 3.2085228 2.3630333 0
6.2430005 3.2002127 2.3643754 0
6.2480001 3.1924417 2.3660526 0
6.2520003 3.1841009 2.3673947 0
6.2570004 3.176296 2.3690724 0
6.2610002 3.1679244 2.3704143 0
6.2660003 3.1600852 2.3720918 0
6.2710004 3.1522279 2.3737695 0
6.2750006 3.1438096 2.3751116 0
6.2800002 3.1359177 2.3767891 0
6.2840004 3.1274686 2.3781312 0
6.2890005 3.1195428 2.3798087 0
6.2940001 3.1115987 2.3814862 0
6.2980003 3.1031029 2.3828282 0
6.3030005 3.0951247 2.3845055 0
6.3080006 3.0871284 2.3861833 0
6.2070003 3.2640097 2.3418221 0
6.2110004 3.2558079 2.3431571 0
6.2160006 3.248158 2.3448255 0
6.2200003 3.2399251 2.3461604 0
6.2250004 3.2322412 2.3478286 0
6.2290006 3.2239778 2.3491638 0
6.2340002 3.2162592 2.3508322 0
6.2390003 3.2085228 2.3525007 0
6.2430005 3.2002127 2.3538356 0
6.2480001 3.1924417 2.355504 0
6.2520003 3.1841009 2.3568387 0
6.2570004 3.176296 2.3585074 0
6.2610002 3.1679244 2.3598421 0
6.2660003 3.1600852 2.3615108 0
6.2710004 3.1522279 2.3631792 0
6.2750006 3.1438096 2.3645141 0
6.2800002 3.1359177 2.3661826 0
6.2840004 3.1274686 2.3675175 0
6.2890005 3.1195428 2.3691859 0
6.2940001 3.1115987 2.3708544 0
6.2980003 3.1031029 2.3721893 0
6.3030005 3.0951247 2.3738577 0
6.3080006 3.0871284 2.3755264 0
6.2070003 3.2640097 2.3313475 0
6.2110004 3.2558079 2.3326752 0
6.2160006 3.248158 2.3343346 0
6.2200003 3.2399251 2.3356621 0
6.2250004 3.2322412 2.3373218 0
6.2290006 3.2239778 2.3386495 0
6.2340002 3.2162592 2.3403087 0
6.2390003 3.2085228 2.3419683 0
6.2430005 3.2002127 2.3432958 0
6.2480001 3.1924417 2.3449552 0
6.2520003 3.1841009 2.346283 0
6.2570004 3.176296 2.3479426 0
6.2610002 3.1679244 2.3492701 0
6.2660003 3.1600852 2.3509295 0
6.2710004 3.1522279 2.3525891 0
6.2750006 3.1438096 2.3539169 0
6.2800002 3.1359177 2.3555763 0
6.2840004 3.1274686 2.3569038 0
6.2890005 3.1195428 2.3585632 0
6.2940001 3.1115987 2.3602226 0
6.2980003 3.1031029 2.3615503 0
6.3030005 3.0951247 2.36321 0
6.3080006 3.0871284 2.3648696 0
6.3120003 3.0785854 2.3661969 0
6.2070003 3.2640097 2.3208728 0
6.2110004 3.2558079 2.3221931 0
6.2160006 3.248158 2.3238437 0
6.2200003 3.2399251 2.3251641 0
6.2250004 3.2322412 2.3268147 0
6.2290006 3.2239778 2.3281348 0
6.2340002 3.2162592 2.3297853 0
6.2390003 3.2085228 2.3314357 0
6.2430005 3.2002127 2.3327563 0
6.2480001 3.1924417 2.3344066 0
6.2520003 3.1841009 2.335727 0
6.2570004 3.176296 2.3373775 0
6.2610002 3.1679244 2.3386979 0
6.2660003 3.1600852 2.3403485 0
6.2710004 3.1522279 2.3419991 0
6.2750006 3.1438096 2.3433194 0
6.2800002 3.1359177 2.3449697 0
6.2840004 3.1274686 2.3462903 0
6.2890005 3.1195428 2.3479409 0
6.2940001 3.1115987 2.3495913 0
6.2980003 3.1031029 2.3509114 0
6.3030005 3.0951247 2.352562 0
6.3080006 3.0871284 2.3542125 0
6.3120003 3.0785854 2.3555329 0
6.2070003 3.2640097 2.3103979 0
6.2110004 3.2558079 2.3117111 0
6.2160006 3.248158 2.3133528 0
6.2200003 3.2399251 2.3146658 0
6.2250004 3.2322412 2.3163073 0
6.2290006 3.2239778 2.3176205 0
6.2340002 3.2162592 2.3192618 0
6.2390003 3.2085228 2.3209033 0
6.2430005 3.2002127 2.3222165 0
6.2480001 3.1924417 2.323858 0
6.2520003 3.1841009 2.3251712 0
6.2570004 3.176296 2.3268127 0
6.2610002 3.1679244 2.3281257 0
6.2660003 3.1600852 2.3297672 0
6.2710004 3.1522279 2.3314087 0
6.2750006 3.1438096 2.3327219 0
6.2800002 3.1359177 2.3343635 0
6.2840004 3.1274686 2.3356767 0
6.2890005 3.1195428 2.3373182 0
6.2940001 3.1115987 2.3389595 0
6.2980003 3.1031029 2.3402727 0
6.3030005 3.0951247 2.3419142 0
6.3080006 3.0871284 2.3435557 0
6.3120003 3.0785854 2.3448687 0
6.2070003 3.2640097 2.2999232 0
6.2110004 3.2558079 2.3012292 0
6.2160006 3.248158 2.3028617 0
6.2200003 3.2399251 2.3041677 0
6.2250004 3.2322412 2.3058002 0
6.2290006 3.2239778 2.307106 0
6.2340002 3.2162592 2.3087385 0
6.2390003 3.2085228 2.3103709 0
6.2430005 3.2002127 2.311677 0
6.2480001 3.1924417 2.3133094 0
6.2520003 3.1841009 2.3146152 0
6.2570004 3.176296 2.3162477 0
6.2610002 3.1679244 2.3175538 0
6.2660003 3.1600852 2.319186 0
6.2710004 3.1522279 2.3208184 0
6.2750006 3.1438096 2.3221247 0
6.2800002 3.1359177 2.3237569 0
6.2840004 3.1274686 2.325063 0
6.2890005 3.1195428 2.3266954 0
6.2940001 3.1115987 2.3283277 0
6.2980003 3.1031029 2.329634 0
6.3030005 3.0951247 2.3312664 0
6.3080006 3.0871284 2.3328989 0
6.3120003 3.0785854 2.3342047 0
6.2070003 3.2640097 2.2894485 0
6.2110004 3.2558079 2.2907474 0
6.2160006 3.248158 2.2923708 0
6.2200003 3.2399251 2.2936695 0
6.2250004 3.2322412 2.2952929 0
6.2290006 3.2239778 2.2965918 0
6.2340002 3.2162592 2.2982149 0
6.2390003 3.2085228 2.2998385 0
6.2430005 3.2002127 2.3011374 0
6.2480001 3.1924417 2.3027606 0
6.2520003 3.1841009 2.3040593 0
6.2570004 3.176296 2.3056829 0
6.2610002 3.1679244 2.3069816 0
6.2660003 3.1600852 2.308605 0
6.2710004 3.1522279 2.3102283 0
6.2750006 3.1438096 2.3115273 0
6.2800002 3.1359177 2.3131506 0
6.2840004 3.1274686 2.3144493 0
6.2890005 3.1195428 2.3160727 0
6.2940001 3.1115987 2.3176961 0
6.2980003 3.1031029 2.318995 0
6.3030005 3.0951247 2.3206184 0
6.3080006 3.0871284 2.3222418 0
6.3120003 3.0785854 2.3235404 0
6.2070003 3.2640097 2.2789738 0
6.2110004 3.2558079 2.2802653 0
6.2160006 3.248158 2.2818799 0
6.2200003 3.2399251 2.2831712 0
6.2250004 3.2322412 2.2847857 0
6.2290006 3.2239778 2.2860773 0
6.2340002 3.2162592 2.2876916 0
6.2390003 3.2085228 2.2893059 0
6.2430005 3.2002127 2.2905977 0
6.2480001 3.1924417 2.292212 0
6.2520003 3.1841009 2.2935035 0
6.2570004 3.176296 2.2951181 0
6.2610002 3.1679244 2.2964094 0
6.2660003 3.1600852 2.2980239 0
6.2710004 3.1522279 2.2996383 0
6.2750006 3.1438096 2.30093 0
6.2800002 3.1359177 2.3025441 0
6.2840004 3.1274686 2.3038359 0
6.2890005 3.1195428 2.3054502 0
6.2940001 3.1115987 2.3070645 0
6.2980003 3.1031029 2.308356 0
6.3030005 3.0951247 2.3099706 0
6.3080006 3.0871284 2.3115849 0
6.3120003 3.0785854 2.3128765 0
6.2070003 3.2640097 2.2684991 0
6.2110004 3.2558079 2.2697835 0
6.2160006 3.248158 2.2713888 0
6.2200003 3.2399251 2.2726731 0
6.2250004 3.2322412 2.2742786 0
6.2290006 3.2239778 2.275563 0
6.2340002 3.2162592 2.2771683 0
6.2390003 3.2085228 2.2787735 0
6.2430005 3.2002127 2.2800579 0
6.2480001 3.1924417 2.2816632 0
6.2520003 3.1841009 2.2829475 0
6.2570004 3.176296 2.2845531 0
6.2610002 3.1679244 2.2858374 0
6.2660003 3.1600852 2.2874427 0
6.2710004 3.1522279 2.2890482 0
6.2750006 3.1438096 2.2903326 0
6.2800002 3.1359177 2.2919378 0
6.2840004 3.1274686 2.2932222 0
6.2890005 3.1195428 2.2948275 0
6.2940001 3.1115987 2.2964327 0
6.2980003 3.1031029 2.2977171 0
6.3030005 3.0951247 2.2993226 0
6.3080006 3.0871284 2.3009279 0
6.3120003 3.0785854 2.3022122 0
6.2070003 3.2640097 2.2580242 0
6.2110004 3.2558079 2.2593017 0
6.2160006 3.248158 2.2608981 0
6.2200003 3.2399251 2.2621748 0
6.2250004 3.2322412 2.2637713 0
6.2290006 3.2239778 2.2650485 0
6.2340002 3.2162592 2.2666447 0
6.2390003 3.2085228 2.2682412 0
6.2430005 3.2002127 2.2695184 0
6.2480001 3.1924417 2.2711148 0
6.2520003 3.1841009 2.2723918 0
6.2570004 3.176296 2.2739882 0
6.2610002 3.1679244 2.275265 0
6.2660003 3.1600852 2.2768614 0
6.2710004 3.1522279 2.2784579 0
6.2750006 3.1438096 2.2797351 0
6.2800002 3.1359177 2.2813313 0
6.2840004 3.1274686 2.2826085 0
6.2890005 3.1195428 2.284205 0
6.2940001 3.1115987 2.2858012 0
6.2980003 3.1031029 2.2870784 0
6.3030005 3.0951247 2.2886748 0
6.3080006 3.0871284 2.290271 0
6.3120003 3.0785854 2.2915483 0
6.2070003 3.2640097 2.2475498 0
6.2110004 3.2558079 2.2488196 0
6.2160006 3.248158 2.250407 0
6.2200003 3.2399251 2.2516768 0
6.2250004 3.2322412 2.2532642 0
6.2290006 3.2239778 2.254534 0
6.2340002 3.2162592 2.2561214 0
6.2390003 3.2085228 2.2577088 0
6.2430005 3.2002127 2.2589786 0
6.2480001 3.1924417 2.260566 0
6.2520003 3.1841009 2.2618358 0
6.2570004 3.176296 2.2634232 0
6.2610002 3.1679244 2.264693 0
6.2660003 3.1600852 2.2662804 0
6.2710004 3.1522279 2.2678678 0
6.2750006 3.1438096 2.2691379 0
6.2800002 3.1359177 2.270725 0
6.2840004 3.1274686 2.2719951 0
6.2890005 3.1195428 2.2735825 0
6.2940001 3.1115987 2.2751696 0
6.2980003 3.1031029 2.2764397 0
6.3030005 3.0951247 2.2780271 0
6.3080006 3.0871284 2.2796142 0
6.3120003 3.0785854 2.2808843 0
6.2070003 3.2640097 2.2370751 0
6.2110004 3.2558079 2.2383378 0
6.2160006 3.248158 2.2399161 0
6.2200003 3.2399251 2.2411785 0
6.2250004 3.2322412 2.2427571 0
6.2290006 3.2239778 2.2440197 0
6.2340002 3.2162592 2.2455978 0
6.2390003 3.2085228 2.2471762 0
6.2430005 3.2002127 2.2484391 0
6.2480001 3.1924417 2.2500174 0
6.2520003 3.1841009 2.2512801 0
6.2570004 3.176296 2.2528584 0
6.2610002 3.1679244 2.2541211 0
6.2660003 3.1600852 2.2556994 0
6.2710004 3.1522279 2.2572777 0
6.2750006 3.1438096 2.2585404 0
6.2800002 3.1359177 2.2601185 0
6.2840004 3.1274686 2.2613814 0
6.2890005 3.1195428 2.2629597 0
6.2940001 3.1115987 2.2645378 0
6.2980003 3.1031029 2.2658007 0
6.3030005 3.0951247 2.267379 0
6.3080006 3.0871284 2.2689574 0
6.3120003 3.0785854 2.2702198 0
6.2070003 3.2640097 2.2266002 0
6.2110004 3.2558079 2.2278557 0
6.2160006 3.248158 2.2294252 0
6.2200003 3.2399251 2.2306805 0
6.2250004 3.2322412 2.2322497 0
6.2290006 3.2239778 2.2335052 0
6.2340002 3.2162592 2.2350745 0
6.2390003 3.2085228 2.2366438 0
6.2430005 3.2002127 2.2378993 0
6.2480001 3.1924417 2.2394686 0
6.2520003 3.1841009 2.2407241 0
6.2570004 3.176296 2.2422934 0
6.2610002 3.1679244 2.2435489 0
6.2660003 3.1600852 2.2451181 0
6.2710004 3.1522279 2.2466877 0
6.2750006 3.1438096 2.2479429 0
6.2800002 3.1359177 2.2495122 0
6.2840004 3.1274686 2.2507677 0
6.2890005 3.1195428 2.252337 0
6.2940001 3.1115987 2.2539062 0
6.2980003 3.1031029 2.2551618 0
6.3030005 3.0951247 2.256731 0
6.3080006 3.0871284 2.2583005 0
6.3120003 3.0785854 2.2595558 0
6.2070003 3.2640097 2.2161255 0
6.2110004 3.2558079 2.2173738 0
6.2160006 3.248158 2.2189343 0
6.2200003 3.2399251 2.2201824 0
6.2250004 3.2322412 2.2217426 0
6.2290006 3.2239778 2.222991 0
6.2340002 3.2162592 2.2245512 0
6.2390003 3.2085228 2.2261114 0
6.2430005 3.2002127 2.2273598 0
6.2480001 3.1924417 2.22892 0
6.2520003 3.1841009 2.2301683 0
6.2570004 3.176296 2.2317286 0
6.2610002 3.1679244 2.2329767 0
6.2660003 3.1600852 2.2345371 0
6.2710004 3.1522279 2.2360973 0
6.2750006 3.1438096 2.2373457 0
6.2800002 3.1359177 2.2389057 0
6.2840004 3.1274686 2.240154 0
6.2890005 3.1195428 2.2417145 0
6.2940001 3.1115987 2.2432747 0
6.2980003 3.1031029 2.244523 0
6.3030005 3.0951247 2.2460833 0
6.3080006 3.0871284 2.2476437 0
6.3120003 3.0785854 2.2488916 0
6.2070003 3.2640097 2.2056508 0
6.2110004 3.2558079 2.206892 0
6.2160006 3.248158 2.2084432 0
6.2200003 3.2399251 2.2096841 0
6.2250004 3.2322412 2.2112355 0
6.2290006 3.2239778 2.2124765 0
6.2340002 3.2162592 2.2140276 0
6.2390003 3.2085228 2.215579 0
6.2430005 3.2002127 2.2168202 0
6.2480001 3.1924417 2.2183712 0
6.2520003 3.1841009 2.2196124 0
6.2570004 3.176296 2.2211635 0
6.2610002 3.1679244 2.2224047 0
6.2660003 3.1600852 2.2239559 0
6.2710004 3.1522279 2.2255073 0
6.2750006 3.1438096 2.2267482 0
6.2800002 3.1359177 2.2282994 0
6.2840004 3.1274686 2.2295406 0
6.2890005 3.1195428 2.2310917 0
6.2940001 3.1115987 2.2326429 0
6.2980003 3.1031029 2.2338841 0
6.3030005 3.0951247 2.2354352 0
6.3080006 3.0871284 2.2369866 0
6.3120003 3.0785854 2.2382276 0
6.2070003 3.2640097 2.1951761 0
6.2110004 3.2558079 2.1964099 0
6.2160006 3.248158 2.1979523 0
6.2200003 3.2399251 2.1991861 0
6.2250004 3.2322412 2.2007284 0
6.2290006 3.2239778 2.2019622 0
6.2340002 3.2162592 2.2035043 0
6.2390003 3.2085228 2.2050467 0
6.2430005 3.2002127 2.2062805 0
6.2480001 3.1924417 2.2078226 0
6.2520003 3.1841009 2.2090564 0
6.2570004 3.176296 2.2105987 0
6.2610002 3.1679244 2.2118325 0
6.2660003 3.1600852 2.2133749 0
6.2710004 3.1522279 2.2149169 0
6.2750006 3.1438096 2.2161508 0
6.2800002 3.1359177 2.2176931 0
6.2840004 3.1274686 2.2189269 0
6.2890005 3.1195428 2.2204692 0
6.2940001 3.1115987 2.2220113 0
6.2980003 3.1031029 2.2232451 0
6.3030005 3.0951247 2.2247875 0
6.3080006 3.0871284 2.2263298 0
6.3120003 3.0785854 2.2275634 0
6.2070003 3.2640097 2.1847014 0
6.2110004 3.2558079 2.1859281 0
6.2160006 3.248158 2.1874614 0
6.2200003 3.2399251 2.1886878 0
6.2250004 3.2322412 2.1902211 0
6.2290006 3.2239778 2.1914477 0
6.2340002 3.2162592 2.1929808 0
6.2390003 3.2085228 2.1945143 0
6.2430005 3.2002127 2.1957407 0
6.2480001 3.1924417 2.197274 0
6.2520003 3.1841009 2.1985006 0
6.2570004 3.176296 2.2000339 0
6.2610002 3.1679244 2.2012603 0
6.2660003 3.1600852 2.2027936 0
6.2710004 3.1522279 2.2043269 0
6.2750006 3.1438096 2.2055535 0
6.2800002 3.1359177 2.2070866 0
6.2840004 3.1274686 2.2083132 0
6.2890005 3.1195428 2.2098465 0
6.2940001 3.1115987 2.2113795 0
6.2980003 3.1031029 2.2126064 0
6.3030005 3.0951247 2.2141397 0
6.3080006 3.0871284 2.215673 0
6.3120003 3.0785854 2.2168994 0
6.2070003 3.2640097 2.1742268 0
6.2110004 3.2558079 2.1754463 0
6.2160006 3.248158 2.1769702 0
6.2200003 3.2399251 2.1781895 0
6.2250004 3.2322412 2.179714 0
6.2290006 3.2239778 2.1809332 0
6.2340002 3.2162592 2.1824574 0
6.2390003 3.2085228 2.1839817 0
6.2430005 3.2002127 2.1852012 0
6.2480001 3.1924417 2.1867251 0
6.2520003 3.1841009 2.1879447 0
6.2570004 3.176296 2.1894689 0
6.2610002 3.1679244 2.1906881 0
6.2660003 3.1600852 2.1922123 0
6.2710004 3.1522279 2.1937368 0
6.2750006 3.1438096 2.1949561 0
6.2800002 3.1359177 2.1964803 0
6.2840004 3.1274686 2.1976998 0
6.2890005 3.1195428 2.199224 0
6.2940001 3.1115987 2.200748 0
6.2980003 3.1031029 2.2019675 0
6.3030005 3.0951247 2.2034917 0
6.3080006 3.0871284 2.2050159 0
6.3120003 3.0785854 2.2062354 0
6.2070003 3.2640097 2.1637521 0
6.2110004 3.2558079 2.1649642 0
6.2160006 3.248158 2.1664793 0
6.2200003 3.2399251 2.1676915 0
6.2250004 3.2322412 2.1692066 0
6.2290006 3.2239778 2.170419 0
6.2340002 3.2162592 2.1719339 0
6.2390003 3.2085228 2.1734493 0
6.2430005 3.2002127 2.1746614 0
6.2480001 3.1924417 2.1761765 0
6.2520003 3.1841009 2.1773889 0
6.2570004 3.176296 2.1789041 0
6.2610002 3.1679244 2.1801162 0
6.2660003 3.1600852 2.1816313 0
6.2710004 3.1522279 2.1831465 0
6.2750006 3.1438096 2.1843588 0
6.2800002 3.1359177 2.185874 0
6.2840004 3.1274686 2.1870861 0
6.2890005 3.1195428 2.1886013 0
6.2940001 3.1115987 2.1901164 0
6.2980003 3.1031029 2.1913285 0
6.3030005 3.0951247 2.1928439 0
6.3080006 3.0871284 2.1943591 0
6.3120003 3.0785854 2.1955712 0
6.2070003 3.2640097 2.1532774 0
6.2110004 3.2558079 2.1544824 0
6.2160006 3.248158 2.1559885 0
6.2200003 3.2399251 2.1571932 0
6.2250004 3.2322412 2.1586995 0
6.2290006 3.2239778 2.1599045 0
6.2340002 3.2162592 2.1614106 0
6.2390003 3.2085228 2.1629169 0
6.2430005 3.2002127 2.1641219 0
6.2480001 3.1924417 2.165628 0
6.2520003 3.1841009 2.1668329 0
6.2570004 3.176296 2.1683393 0
6.2610002 3.1679244 2.169544 0
6.2660003 3.1600852 2.1710501 0
6.2710004 3.1522279 2.1725564 0
6.2750006 3.1438096 2.1737614 0
6.2800002 3.1359177 2.1752675 0
6.2840004 3.1274686 2.1764724 0
6.2890005 3.1195428 2.1779788 0
6.2940001 3.1115987 2.1794848 0
6.2980003 3.1031029 2.1806898 0
6.3030005 3.0951247 2.1821959 0
6.3080006 3.0871284 2.1837022 0
6.3120003 3.0785854 2.184907 0
6.2070003 3.2640097 2.1428025 0
6.2110004 3.2558079 2.1440003 0
6.2160006 3.248158 2.1454976 0
6.2200003 3.2399251 2.1466951 0
6.2250004 3.2322412 2.1481924 0
6.2290006 3.2239778 2.1493902 0
6.2340002 3.2162592 2.1508873 0
6.2390003 3.2085228 2.1523845 0
6.2430005 3.2002127 2.1535821 0
6.2480001 3.1924417 2.1550791 0
6.2520003 3.1841009 2.1562772 0
6.2570004 3.176296 2.1577742 0
6.2610002 3.1679244 2.1589718 0
6.2660003 3.1600852 2.1604691 0
6.2710004 3.1522279 2.1619663 0
6.2750006 3.1438096 2.1631639 0
6.2800002 3.1359177 2.1646612 0
6.2840004 3.1274686 2.165859 0
6.2890005 3.1195428 2.167356 0
6.2940001 3.1115987 2.168853 0
6.2980003 3.1031029 2.1700509 0
6.3030005 3.0951247 2.1715481 0
6.3080006 3.0871284 2.1730454 0
6.3120003 3.0785854 2.174243 0
6.2070003 3.2640097 2.1323278 0
6.2110004 3.2558079 2.1335185 0
6.2160006 3.248158 2.1350067 0
6.2200003 3.2399251 2.1361971 0
6.2250004 3.2322412 2.1376853 0
6.2290006 3.2239778 2.1388757 0
6.2340002 3.2162592 2.1403639 0
6.2390003 3.2085228 2.1418519 0
6.2430005 3.2002127 2.1430426 0
6.2480001 3.1924417 2.1445305 0
6.2520003 3.1841009 2.1457212 0
6.2570004 3.176296 2.1472092 0
6.2610002 3.1679244 2.1483998 0
6.2660003 3.1600852 2.1498878 0
6.2710004 3.1522279 2.151376 0
6.2750006 3.1438096 2.1525667 0
6.2800002 3.1359177 2.1540546 0
6.2840004 3.1274686 2.1552453 0
6.2890005 3.1195428 2.1567335 0
6.2940001 3.1115987 2.1582215 0
6.2980003 3.1031029 2.1594121 0
6.3030005 3.0951247 2.1609001 0
6.3080006 3.0871284 2.1623883 0
6.3120003 3.0785854 2.1635787 0
6.2070003 3.2640097 2.1218531 0
6.2110004 3.2558079 2.1230364 0
6.2160006 3.248158 2.1245158 0
6.2200003 3.2399251 2.1256988 0
6.2250004 3.2322412 2.127178 0
6.2290006 3.2239778 2.1283612 0
6.2340002 3.2162592 2.1298404 0
6.2390003 3.2085228 2.1313195 0
6.2430005 3.2002127 2.1325028 0
6.2480001 3.1924417 2.1339819 0
6.2520003 3.1841009 2.1351652 0
6.2570004 3.176296 2.1366444 0
6.2610002 3.1679244 2.1378276 0
6.2660003 3.1600852 2.1393068 0
6.2710004 3.1522279 2.1407859 0
6.2750006 3.1438096 2.1419692 0
6.2800002 3.1359177 2.1434484 0
6.2840004 3.1274686 2.1446316 0
6.2890005 3.1195428 2.1461108 0
6.2940001 3.1115987 2.1475899 0
6.2980003 3.1031029 2.1487732 0
6.3030005 3.0951247 2.1502523 0
6.3080006 3.0871284 2.1517315 0
6.3120003 3.0785854 2.1529148 0
6.2070003 3.2640097 2.1113784 0
6.2110004 3.2558079 2.1125546 0
6.2160006 3.248158 2.1140246 0
6.2200003 3.2399251 2.1152008 0
6.2250004 3.2322412 2.1166708 0
6.2290006 3.2239778 2.117847 0
6.2340002 3.2162592 2.1193171 0
6.2390003 3.2085228 2.1207871 0
6.2430005 3.2002127 2.1219633 0
6.2480001 3.1924417 2.1234331 0
6.2520003 3.1841009 2.1246095 0
6.2570004 3.176296 2.1260796 0
6.2610002 3.1679244 2.1272554 0
6.2660003 3.1600852 2.1287255 0
6.2710004 3.1522279 2.1301956 0
6.2750006 3.1438096 2.131372 0
6.2800002 3.1359177 2.1328418 0
6.2840004 3.1274686 2.1340179 0
6.2890005 3.1195428 2.135488 0
6.2940001 3.1115987 2.1369581 0
6.2980003 3.1031029 2.1381342 0
6.3030005 3.0951247 2.1396046 0
6.3080006 3.0871284 2.1410747 0
6.3120003 3.0785854 2.1422505 0
6.2070003 3.2640097 2.1009037 0
6.2110004 3.2558079 2.1020727 0
6.2160006 3.248158 2.1035337 0
6.2200003 3.2399251 2.1047025 0
6.2250004 3.2322412 2.1061635 0
6.2290006 3.2239778 2.1073325 0
6.2340002 3.2162592 2.1087935 0
6.2390003 3.2085228 2.1102545 0
6.2430005 3.2002127 2.1114235 0
6.2480001 3.1924417 2.1128845 0
6.2520003 3.1841009 2.1140535 0
6.2570004 3.176296 2.1155145 0
6.2610002 3.1679244 2.1166832 0
6.2660003 3.1600852 2.1181445 0
6.2710004 3.1522279 2.1196055 0
6.2750006 3.1438096 2.1207745 0
6.2800002 3.1359177 2.1222355 0
6.2840004 3.1274686 2.1234045 0
6.2890005 3.1195428 2.1248655 0
6.2940001 3.1115987 2.1263266 0
6.2980003 3.1031029 2.1274953 0
6.3030005 3.0951247 2.1289566 0
6.3080006 3.0871284 2.1304176 0
6.3120003 3.0785854 2.1315866 0
6.2070003 3.2640097 2.0904288 0
6.2110004 3.2558079 2.0915906 0
6.2160006 3.248158 2.0930429 0
6.2200003 3.2399251 2.0942044 0
6.2250004 3.2322412 2.0956564 0
6.2290006 3.2239778 2.0968182 0
6.2340002 3.2162592 2.0982702 0
6.2390003 3.2085228 2.0997221 0
6.2430005 3.2002127 2.100884 0
6.2480001 3.1924417 2.1023359 0
6.2520003 3.1841009 2.1034975 0
6.2570004 3.176296 2.1049497 0
6.2610002 3.1679244 2.1061113 0
6.2660003 3.1600852 2.1075633 0
6.2710004 3.1522279 2.1090155 0
6.2750006 3.1438096 2.110177 0
6.2800002 3.1359177 2.111629 0
6.2840004 3.1274686 2.1127908 0
6.2890005 3.1195428 2.114243 0
6.2940001 3.1115987 2.115695 0
6.2980003 3.1031029 2.1168566 0
6.3030005 3.0951247 2.1183088 0
6.3080006 3.0871284 2.1197608 0
6.3120003 3.0785854 2.1209223 0
6.2070003 3.2640097 2.0799541 0
6.2110004 3.2558079 2.0811088 0
6.2160006 3.248158 2.0825517 0
6.2200003 3.2399251 2.0837061 0
6.2250004 3.2322412 2.0851493 0
6.2290006 3.2239778 2.0863037 0
6.2340002 3.2162592 2.0877466 0
6.2390003 3.2085228 2.0891898 0
6.2430005 3.2002127 2.0903442 0
6.2480001 3.1924417 2.0917871 0
6.2520003 3.1841009 2.0929418 0
6.2570004 3.176296 2.0943847 0
6.2610002 3.1679244 2.0955391 0
6.2660003 3.1600852 2.0969822 0
6.2710004 3.1522279 2.0984254 0
6.2750006 3.1438096 2.0995798 0
6.2800002 3.1359177 2.1010227 0
6.2840004 3.1274686 2.1021771 0
6.2890005 3.1195428 2.1036203 0
6.2940001 3.1115987 2.1050632 0
6.2980003 3.1031029 2.1062179 0
6.3030005 3.0951247 2.1076608 0
6.3080006 3.0871284 2.1091039 0
6.3120003 3.0785854 2.1102583 0
6.2070003 3.2640097 2.0694797 0
6.2110004 3.2558079 2.0706267 0
6.2160006 3.248158 2.0720608 0
6.2200003 3.2399251 2.0732081 0
6.2250004 3.2322412 2.0746422 0
6.2290006 3.2239778 2.0757895 0
6.2340002 3.2162592 2.0772233 0
6.2390003 3.2085228 2.0786574 0
6.2430005 3.2002127 2.0798047 0
6.2480001 3.1924417 2.0812385 0
6.2520003 3.1841009 2.0823858 0
6.2570004 3.176296 2.0838199 0
6.2610002 3.1679244 2.0849669 0
6.2660003 3.1600852 2.086401 0
6.2710004 3.1522279 2.0878351 0
6.2750006 3.1438096 2.0889823 0
6.2800002 3.1359177 2.0904164 0
6.2840004 3.1274686 2.0915635 0
6.2890005 3.1195428 2.0929978 0
6.2940001 3.1115987 2.0944316 0
6.2980003 3.1031029 2.0955789 0
6.3030005 3.0951247 2.0970128 0
6.3080006 3.0871284 2.0984471 0
6.3120003 3.0785854 2.0995941 0
6.2070003 3.2640097 2.0590048 0
6.2110004 3.2558079 2.0601449 0
6.2160006 3.248158 2.0615699 0
6.2200003 3.2399251 2.0627098 0
6.2250004 3.2322412 2.0641348 0
6.2290006 3.2239778 2.065275 0
6.2340002 3.2162592 2.0667 0
6.2390003 3.2085228 2.0681248 0
6.2430005 3.2002127 2.0692651 0
6.2480001 3.1924417 2.0706899 0
6.2520003 3.1841009 2.0718298 0
6.2570004 3.176296 2.0732551 0
6.2610002 3.1679244 2.0743949 0
6.2660003 3.1600852 2.07582 0
6.2710004 3.1522279 2.077245 0
6.2750006 3.1438096 2.0783851 0
6.2800002 3.1359177 2.0798099 0
6.2840004 3.1274686 2.08095 0
6.2890005 3.1195428 2.082375 0
6.2940001 3.1115987 2.0837998 0
6.2980003 3.1031029 2.08494 0
6.3030005 3.0951247 2.086365 0
6.3080006 3.0871284 2.08779 0
6.3120003 3.0785854 2.0889299 0
6.2070003 3.2640097 2.0485301 0
6.2110004 3.2558079 2.0496628 0
6.2160006 3.248158 2.051079 0
6.2200003 3.2399251 2.0522118 0
6.2250004 3.2322412 2.0536277 0
6.2290006 3.2239778 2.0547605 0
6.2340002 3.2162592 2.0561764 0
6.2390003 3.2085228 2.0575924 0
6.2430005 3.2002127 2.0587254 0
6.2480001 3.1924417 2.0601411 0
6.2520003 3.1841009 2.0612741 0
6.2570004 3.176296 2.06269 0
6.2610002 3.1679244 2.0638227 0
6.2660003 3.1600852 2.0652387 0
6.2710004 3.1522279 2.0666549 0
6.2750006 3.1438096 2.0677876 0
6.2800002 3.1359177 2.0692036 0
6.2840004 3.1274686 2.0703363 0
6.2890005 3.1195428 2.0717523 0
6.2940001 3.1115987 2.0731683 0
6.2980003 3.1031029 2.074301 0
6.3030005 3.0951247 2.0757172 0
6.3080006 3.0871284 2.0771332 0
6.3120003 3.0785854 2.0782659 0
6.2160006 3.248158 2.0405881 0
6.2200003 3.2399251 2.0417135 0
6.2250004 3.2322412 2.0431206 0
6.2290006 3.2239778 2.0442462 0
6.2340002 3.2162592 2.0456531 0
6.2390003 3.2085228 2.04706 0
6.2430005 3.2002127 2.0481856 0
6.2480001 3.1924417 2.0495925 0
6.2520003 3.1841009 2.0507181 0
6.2570004 3.176296 2.0521252 0
6.2610002 3.1679244 2.0532508 0
6.2660003 3.1600852 2.0546577 0
6.2710004 3.1522279 2.0560646 0
6.2750006 3.1438096 2.0571902 0
6.2800002 3.1359177 2.0585971 0
6.2840004 3.1274686 2.0597229 0
6.2890005 3.1195428 2.0611298 0
6.2940001 3.1115987 2.0625367 0
6.2980003 3.1031029 2.0636623 0
6.3030005 3.0951247 2.0650692 0
6.3080006 3.0871284 2.0664763 0
6.3120003 3.0785854 2.0676017 0
6.2660003 3.1600852 2.0440764 0
6.2710004 3.1522279 2.0454745 0
6.2750006 3.1438096 2.046593 0
6.2800002 3.1359177 2.0479908 0
6.2840004 3.1274686 2.0491092 0
6.2890005 3.1195428 2.0505071 0
6.2940001 3.1115987 2.0519049 0
6.2980003 3.1031029 2.0530236 0
6.3030005 3.0951247 2.0544214 0
6.3080006 3.0871284 2.0558193 0
6.3120003 3.0785854 2.0569377 0
6.3170004 3.0705547 2.0583358 0
