# .PCD v0.7 - Point Cloud Data file format
VERSION 0.7
FIELDS x y z intensity
SIZE 4 4 4 4
TYPE F F F F
COUNT 1 1 1 1
WIDTH 1399
HEIGHT 1
VIEWPOINT 0 0 0 1 0 0 0
POINTS 1399
DATA ascii
5.0170002 -2.4778292 0.47062546 0
5.0140004 -2.4845719 0.47058219 0
5.0110002 -2.4913037 0.47053888 0
5.0080004 -2.4980249 0.47049561 0
5.0050001 -2.5047348 0.47045231 0
5.0020003 -2.5114343 0.47040904 0
4.9990005 -2.5181229 0.47036573 0
4.9960003 -2.5248005 0.47032243 0
4.9930005 -2.5314674 0.47027916 0
4.9900002 -2.5381234 0.47023585 0
4.9870005 -2.5447688 0.47019255 0
4.9840002 -2.551403 0.47014928 0
4.9810004 -2.5580268 0.47010598 0
4.9780002 -2.5646393 0.47006267 0
4.9750004 -2.5712414 0.4700194 0
4.9720001 -2.5778325 0.4699761 0
4.9690003 -2.5844128 0.46993279 0
4.9660001 -2.5909822 0.46988952 0
4.9630003 -2.5975409 0.46984622 0
4.9600005 -2.6040888 0.46980295 0
4.9570003 -2.6106257 0.46975964 0
4.9540005 -2.617152 0.46971637 0
4.9510002 -2.6236672 0.46967307 0
4.9480004 -2.6301718 0.46962976 0
5.0260005 -2.4575365 0.46241093 0
5.0230002 -2.4643116 0.46237305 0
5.0200005 -2.471076 0.46233517 0
5.0170002 -2.4778292 0.46229729 0
5.0140004 -2.4845719 0.46225941 0
5.0110002 -2.4913037 0.46222153 0
5.0080004 -2.4980249 0.46218365 0
5.0050001 -2.5047348 0.46214578 0
5.0020003 -2.5114343 0.4621079 0
4.9990005 -2.5181229 0.46207002 0
4.9960003 -2.5248005 0.46203214 0
4.9930005 -2.5314674 0.46199426 0
4.9900002 -2.5381234 0.46195638 0
4.9870005 -2.5447688 0.4619185 0
4.9840002 -2.551403 0.46188062 0
4.9810004 -2.5580268 0.46184272 0
4.9780002 -2.5646393 0.46180487 0
4.9750004 -2.5712414 0.46176696 0
4.9720001 -2.5778325 0.46172911 0
4.9690003 -2.5844128 0.4616912 0
4.9660001 -2.5909822 0.46165332 0
4.9630003 -2.5975409 0.46161544 0
4.9600005 -2.6040888 0.46157756 0
4.9570003 -2.6106257 0.46153969 0
4.9540005 -2.617152 0.46150181 0
4.9510002 -2.6236672 0.46146393 0
4.9480004 -2.6301718 0.46142605 0
5.0260005 -2.4575365 0.45406651 0
5.0230002 -2.4643116 0.45403403 0
5.0200005 -2.471076 0.45400158 0
5.0170002 -2.4778292 0.45396912 0
5.0140004 -2.4845719 0.45393664 0
5.0110002 -2.4913037 0.45390418 0
5.0080004 -2.4980249 0.4538717 0
5.0050001 -2.5047348 0.45383924 0
5.0020003 -2.5114343 0.45380676 0
4.9990005 -2.5181229 0.4537743 0
4.9960003 -2.5248005 0.45374182 0
4.9930005 -2.5314674 0.45370936 0
4.9900002 -2.5381234 0.45367688 0
4.9870005 -2.5447688 0.45364442 0
4.9840002 -2.551403 0.45361197 0
4.9810004 -2.5580268 0.45357949 0
4.9780002 -2.5646393 0.453547 0
4.9750004 -2.5712414 0.45351455 0
4.9720001 -2.5778325 0.45348209 0
4.9690003 -2.5844128 0.45344961 0
4.9660001 -2.5909822 0.45341715 0
4.9630003 -2.5975409 0.45338467 0
4.9600005 -2.6040888 0.45335221 0
4.9570003 -2.6106257 0.45331973 0
4.9540005 -2.617152 0.45328727 0
4.9510002 -2.6236672 0.45325479 0
4.9480004 -2.6301718 0.45322233 0
5.0260005 -2.4575365 0.4457221 0
5.0230002 -2.4643116 0.44569504 0
5.0200005 -2.471076 0.44566798 0
5.0170002 -2.4778292 0.44564092 0
5.0140004 -2.4845719 0.44561386 0
5.0110002 -2.4913037 0.4455868 0
5.0080004 -2.4980249 0.44555974 0
5.0050001 -2.5047348 0.44553268 0
5.0020003 -2.5114343 0.44550565 0
4.9990005 -2.5181229 0.44547859 0
4.9960003 -2.5248005 0.44545153 0
4.9930005 -2.5314674 0.44542447 0
4.9900002 -2.5381234 0.44539741 0
4.9870005 -2.5447688 0.44537035 0
4.9840002 -2.551403 0.44534329 0
4.9810004 -2.5580268 0.44531626 0
4.9780002 -2.5646393 0.44528919 0
4.9750004 -2.5712414 0.44526213 0
4.9720001 -2.5778325 0.44523507 0
4.9690003 -2.5844128 0.44520801 0
4.9660001 -2.5909822 0.44518095 0
4.9630003 -2.5975409 0.44515389 0
4.9600005 -2.6040888 0.44512683 0
4.9570003 -2.6106257 0.44509977 0
4.9540005 -2.617152 0.44507274 0
4.9510002 -2.6236672 0.44504568 0
4.9480004 -2.6301718 0.44501862 0
5.0260005 -2.4575365 0.43737769 0
5.0230002 -2.4643116 0.43735602 0
5.0200005 -2.471076 0.43733439 0
5.0170002 -2.4778292 0.43731275 0
5.0140004 -2.4845719 0.43729109 0
5.0110002 -2.4913037 0.43726945 0
5.0080004 -2.4980249 0.43724781 0
5.0050001 -2.5047348 0.43722618 0
5.0020003 -2.5114343 0.43720451 0
4.9990005 -2.5181229 0.43718287 0
4.9960003 -2.5248005 0.43716124 0
4.9930005 -2.5314674 0.43713957 0
4.9900002 -2.5381234 0.43711793 0
4.9870005 -2.5447688 0.4370963 0
4.9840002 -2.551403 0.43707463 0
4.9810004 -2.5580268 0.43705299 0
4.9780002 -2.5646393 0.43703136 0
4.9750004 -2.5712414 0.43700969 0
4.9720001 -2.5778325 0.43698806 0
4.9690003 -2.5844128 0.43696642 0
4.9660001 -2.5909822 0.43694475 0
4.9630003 -2.5975409 0.43692312 0
4.9600005 -2.6040888 0.43690148 0
4.9570003 -2.6106257 0.43687981 0
4.9540005 -2.617152 0.43685818 0
4.9510002 -2.6236672 0.43683654 0
4.9480004 -2.6301718 0.4368149 0
5.0260005 -2.4575365 0.42903328 0
5.0230002 -2.4643116 0.42901704 0
5.0200005 -2.471076 0.42900079 0
5.0170002 -2.4778292 0.42898455 0
5.0140004 -2.4845719 0.42896834 0
5.0110002 -2.4913037 0.4289521 0
5.0080004 -2.4980249 0.42893586 0
5.0050001 -2.5047348 0.42891961 0
5.0020003 -2.5114343 0.4289034 0
4.9990005 -2.5181229 0.42888716 0
4.9960003 -2.5248005 0.42887092 0
4.9930005 -2.5314674 0.4288547 0
4.9900002 -2.5381234 0.42883846 0
4.9870005 -2.5447688 0.42882222 0
4.9840002 -2.551403 0.42880598 0
4.9810004 -2.5580268 0.42878976 0
4.9780002 -2.5646393 0.42877352 0
4.9750004 -2.5712414 0.42875728 0
4.9720001 -2.5778325 0.42874104 0
4.9690003 -2.5844128 0.42872483 0
4.9660001 -2.5909822 0.42870858 0
4.9630003 -2.5975409 0.42869234 0
4.9600005 -2.6040888 0.4286761 0
4.9570003 -2.6106257 0.42865989 0
4.9540005 -2.617152 0.42864364 0
4.9510002 -2.6236672 0.4286274 0
4.9480004 -2.6301718 0.42861116 0
5.0260005 -2.4575365 0.42068884 0
5.0230002 -2.4643116 0.42067802 0
5.0200005 -2.471076 0.4206672 0
5.0170002 -2.4778292 0.42065638 0
5.0140004 -2.4845719 0.42064556 0
5.0110002 -2.4913037 0.42063475 0
5.0080004 -2.4980249 0.4206239 0
5.0050001 -2.5047348 0.42061308 0
5.0020003 -2.5114343 0.42060226 0
4.9990005 -2.5181229 0.42059144 0
4.9960003 -2.5248005 0.42058063 0
4.9930005 -2.5314674 0.42056981 0
4.9900002 -2.5381234 0.42055899 0
4.9870005 -2.5447688 0.42054814 0
4.9840002 -2.551403 0.42053732 0
4.9810004 -2.5580268 0.4205265 0
4.9780002 -2.5646393 0.42051569 0
4.9750004 -2.5712414 0.42050487 0
4.9720001 -2.5778325 0.42049405 0
4.9690003 -2.5844128 0.4204832 0
4.9660001 -2.5909822 0.42047238 0
4.9630003 -2.5975409 0.42046157 0
4.9600005 -2.6040888 0.42045075 0
4.9570003 -2.6106257 0.42043993 0
4.9540005 -2.617152 0.42042911 0
4.9510002 -2.6236672 0.42041826 0
4.9480004 -2.6301718 0.42040744 0
5.0260005 -2.4575365 0.41234443 0
5.0230002 -2.4643116 0.41233903 0
5.0200005 -2.471076 0.41233361 0
5.0170002 -2.4778292 0.41232818 0
5.0140004 -2.4845719 0.41232279 0
5.0110002 -2.4913037 0.41231737 0
5.0080004 -2.4980249 0.41231197 0
5.0050001 -2.5047348 0.41230655 0
5.0020003 -2.5114343 0.41230115 0
4.9990005 -2.5181229 0.41229573 0
4.9960003 -2.5248005 0.4122903 0
4.9930005 -2.5314674 0.41228491 0
4.9900002 -2.5381234 0.41227949 0
4.9870005 -2.5447688 0.41227409 0
4.9840002 -2.551403 0.41226867 0
4.9810004 -2.5580268 0.41226327 0
4.9780002 -2.5646393 0.41225785 0
4.9750004 -2.5712414 0.41225243 0
4.9720001 -2.5778325 0.41224703 0
4.9690003 -2.5844128 0.41224161 0
4.9660001 -2.5909822 0.41223621 0
4.9630003 -2.5975409 0.41223079 0
4.9600005 -2.6040888 0.41222537 0
4.9570003 -2.6106257 0.41221997 0
4.9540005 -2.617152 0.41221455 0
4.9510002 -2.6236672 0.41220915 0
4.9480004 -2.6301718 0.41220373 0
5.0260005 -2.4575365 0.40400001 0
5.0230002 -2.4643116 0.40400001 0
5.0200005 -2.471076 0.40400001 0
5.0170002 -2.4778292 0.40400001 0
5.0140004 -2.4845719 0.40400001 0
5.0110002 -2.4913037 0.40400001 0
5.0080004 -2.4980249 0.40400001 0
5.0050001 -2.5047348 0.40400001 0
5.0020003 -2.5114343 0.40400001 0
4.9990005 -2.5181229 0.40400001 0
4.9960003 -2.5248005 0.40400001 0
4.9930005 -2.5314674 0.40400001 0
4.9900002 -2.5381234 0.40400001 0
4.9870005 -2.5447688 0.40400001 0
4.9840002 -2.551403 0.40400001 0
4.9810004 -2.5580268 0.40400001 0
4.9780002 -2.5646393 0.40400001 0
4.9750004 -2.5712414 0.40400001 0
4.9720001 -2.5778325 0.40400001 0
4.9690003 -2.5844128 0.40400001 0
4.9660001 -2.5909822 0.40400001 0
4.9630003 -2.5975409 0.40400001 0
4.9600005 -2.6040888 0.40400001 0
4.9570003 -2.6106257 0.40400001 0
4.9540005 -2.617152 0.40400001 0
4.9510002 -2.6236672 0.40400001 0
4.9480004 -2.6301718 0.40400001 0
5.0260005 -2.4575365 0.3956556 0
5.0230002 -2.4643116 0.395661 0
5.0200005 -2.471076 0.39566642 0
5.0170002 -2.4778292 0.39567184 0
5.0140004 -2.4845719 0.39567724 0
5.0110002 -2.4913037 0.39568266 0
5.0080004 -2.4980249 0.39568806 0
5.0050001 -2.5047348 0.39569348 0
5.0020003 -2.5114343 0.39569888 0
4.9990005 -2.5181229 0.3957043 0
4.9960003 -2.5248005 0.39570972 0
4.9930005 -2.5314674 0.39571512 0
4.9900002 -2.5381234 0.39572054 0
4.9870005 -2.5447688 0.39572594 0
4.9840002 -2.551403 0.39573136 0
4.9810004 -2.5580268 0.39573675 0
4.9780002 -2.5646393 0.39574218 0
4.9750004 -2.5712414 0.3957476 0
4.9720001 -2.5778325 0.395753 0
4.9690003 -2.5844128 0.39575842 0
4.9660001 -2.5909822 0.39576381 0
4.9630003 -2.5975409 0.39576924 0
4.9600005 -2.6040888 0.39577466 0
4.9570003 -2.6106257 0.39578006 0
4.9540005 -2.617152 0.39578548 0
4.9510002 -2.6236672 0.39579087 0
4.9480004 -2.6301718 0.3957963 0
5.0260005 -2.4575365 0.38731119 0
5.0230002 -2.4643116 0.38732201 0
5.0200005 -2.471076 0.38733283 0
5.0170002 -2.4778292 0.38734365 0
5.0140004 -2.4845719 0.38735446 0
5.0110002 -2.4913037 0.38736528 0
5.0080004 -2.4980249 0.38737613 0
5.0050001 -2.5047348 0.38738695 0
5.0020003 -2.5114343 0.38739777 0
4.9990005 -2.5181229 0.38740858 0
4.9960003 -2.5248005 0.3874194 0
4.9930005 -2.5314674 0.38743022 0
4.9900002 -2.5381234 0.38744104 0
4.9870005 -2.5447688 0.38745189 0
4.9840002 -2.551403 0.38746271 0
4.9810004 -2.5580268 0.38747352 0
4.9780002 -2.5646393 0.38748434 0
4.9750004 -2.5712414 0.38749516 0
4.9720001 -2.5778325 0.38750598 0
4.9690003 -2.5844128 0.38751683 0
4.9660001 -2.5909822 0.38752764 0
4.9630003 -2.5975409 0.38753846 0
4.9600005 -2.6040888 0.38754928 0
4.9570003 -2.6106257 0.3875601 0
4.9540005 -2.617152 0.38757092 0
4.9510002 -2.6236672 0.38758177 0
4.9480004 -2.6301718 0.38759258 0
5.0260005 -2.4575365 0.37896675 0
5.0230002 -2.4643116 0.37898299 0
5.0200005 -2.471076 0.37899923 0
5.0170002 -2.4778292 0.37901548 0
5.0140004 -2.4845719 0.37903169 0
5.0110002 -2.4913037 0.37904793 0
5.0080004 -2.4980249 0.37906417 0
5.0050001 -2.5047348 0.37908041 0
5.0020003 -2.5114343 0.37909663 0
4.9990005 -2.5181229 0.37911287 0
4.9960003 -2.5248005 0.37912911 0
4.9930005 -2.5314674 0.37914532 0
4.9900002 -2.5381234 0.37916157 0
4.9870005 -2.5447688 0.37917781 0
4.9840002 -2.551403 0.37919405 0
4.9810004 -2.5580268 0.37921026 0
4.9780002 -2.5646393 0.37922651 0
4.9750004 -2.5712414 0.37924275 0
4.9720001 -2.5778325 0.37925899 0
4.9690003 -2.5844128 0.3792752 0
4.9660001 -2.5909822 0.37929145 0
4.9630003 -2.5975409 0.37930769 0
4.9600005 -2.6040888 0.37932393 0
4.9570003 -2.6106257 0.37934014 0
4.9540005 -2.617152 0.37935638 0
4.9510002 -2.6236672 0.37937263 0
4.9480004 -2.6301718 0.37938887 0
5.0260005 -2.4575365 0.37062234 0
5.0230002 -2.4643116 0.370644 0
5.0200005 -2.471076 0.37066564 0
5.0170002 -2.4778292 0.37068728 0
5.0140004 -2.4845719 0.37070894 0
5.0110002 -2.4913037 0.37073058 0
5.0080004 -2.4980249 0.37075222 0
5.0050001 -2.5047348 0.37077385 0
5.0020003 -2.5114343 0.37079552 0
4.9990005 -2.5181229 0.37081715 0
4.9960003 -2.5248005 0.37083879 0
4.9930005 -2.5314674 0.37086046 0
4.9900002 -2.5381234 0.37088209 0
4.9870005 -2.5447688 0.37090373 0
4.9840002 -2.551403 0.3709254 0
4.9810004 -2.5580268 0.37094703 0
4.9780002 -2.5646393 0.37096867 0
4.9750004 -2.5712414 0.37099034 0
4.9720001 -2.5778325 0.37101197 0
4.9690003 -2.5844128 0.37103361 0
4.9660001 -2.5909822 0.37105528 0
4.9630003 -2.5975409 0.37107691 0
4.9600005 -2.6040888 0.37109855 0
4.9570003 -2.6106257 0.37112021 0
4.9540005 -2.617152 0.37114185 0
4.9510002 -2.6236672 0.37116349 0
4.9480004 -2.6301718 0.37118512 0
5.0260005 -2.4575365 0.36227793 0
5.0230002 -2.4643116 0.36230499 0
5.0200005 -2.471076 0.36233205 0
5.0170002 -2.4778292 0.36235911 0
5.0140004 -2.4845719 0.36238617 0
5.0110002 -2.4913037 0.36241323 0
5.0080004 -2.4980249 0.36244029 0
5.0050001 -2.5047348 0.36246735 0
5.0020003 -2.5114343 0.36249438 0
4.9990005 -2.5181229 0.36252144 0
4.9960003 -2.5248005 0.3625485 0
4.9930005 -2.5314674 0.36257556 0
4.9900002 -2.5381234 0.36260262 0
4.9870005 -2.5447688 0.36262968 0
4.9840002 -2.551403 0.36265674 0
4.9810004 -2.5580268 0.36268377 0
4.9780002 -2.5646393 0.36271083 0
4.9750004 -2.5712414 0.36273789 0
4.9720001 -2.5778325 0.36276495 0
4.9690003 -2.5844128 0.36279202 0
4.9660001 -2.5909822 0.36281908 0
4.9630003 -2.5975409 0.36284614 0
4.9600005 -2.6040888 0.3628732 0
4.9570003 -2.6106257 0.36290026 0
4.9540005 -2.617152 0.36292729 0
4.9510002 -2.6236672 0.36295435 0
4.9480004 -2.6301718 0.36298141 0
5.0260005 -2.4575365 0.35393351 0
5.0230002 -2.4643116 0.353966 0
5.0200005 -2.471076 0.35399845 0
5.0170002 -2.4778292 0.35403091 0
5.0140004 -2.4845719 0.35406339 0
5.0110002 -2.4913037 0.35409585 0
5.0080004 -2.4980249 0.35412833 0
5.0050001 -2.5047348 0.35416079 0
5.0020003 -2.5114343 0.35419327 0
4.9990005 -2.5181229 0.35422572 0
4.9960003 -2.5248005 0.35425821 0
4.9930005 -2.5314674 0.35429066 0
4.9900002 -2.5381234 0.35432315 0
4.9870005 -2.5447688 0.3543556 0
4.9840002 -2.551403 0.35438806 0
4.9810004 -2.5580268 0.35442054 0
4.9780002 -2.5646393 0.35445303 0
4.9750004 -2.5712414 0.35448548 0
4.9720001 -2.5778325 0.35451794 0
4.9690003 -2.5844128 0.35455042 0
4.9660001 -2.5909822 0.35458288 0
4.9630003 -2.5975409 0.35461536 0
4.9600005 -2.6040888 0.35464782 0
4.9570003 -2.6106257 0.3546803 0
4.9540005 -2.617152 0.35471275 0
4.9510002 -2.6236672 0.35474524 0
4.9480004 -2.6301718 0.35477769 0
5.0260005 -2.4575365 0.3455891 0
5.0230002 -2.4643116 0.34562698 0
5.0200005 -2.471076 0.34566486 0
5.0170002 -2.4778292 0.34570274 0
5.0140004 -2.4845719 0.34574062 0
5.0110002 -2.4913037 0.3457785 0
5.0080004 -2.4980249 0.34581637 0
5.0050001 -2.5047348 0.34585425 0
5.0020003 -2.5114343 0.34589213 0
4.9990005 -2.5181229 0.34593001 0
4.9960003 -2.5248005 0.34596789 0
4.9930005 -2.5314674 0.34600577 0
4.9900002 -2.5381234 0.34604365 0
4.9870005 -2.5447688 0.34608153 0
4.9840002 -2.551403 0.3461194 0
4.9810004 -2.5580268 0.34615731 0
4.9780002 -2.5646393 0.34619516 0
4.9750004 -2.5712414 0.34623307 0
4.9720001 -2.5778325 0.34627092 0
4.9690003 -2.5844128 0.34630883 0
4.9660001 -2.5909822 0.34634671 0
4.9630003 -2.5975409 0.34638458 0
4.9600005 -2.6040888 0.34642246 0
4.9570003 -2.6106257 0.34646034 0
4.9540005 -2.617152 0.34649822 0
4.9510002 -2.6236672 0.3465361 0
4.9480004 -2.6301718 0.34657398 0
5.0260005 -2.4575365 0.33724469 0
5.0230002 -2.4643116 0.33728796 0
5.0200005 -2.471076 0.33733127 0
5.0170002 -2.4778292 0.33737457 0
5.0140004 -2.4845719 0.33741784 0
5.0110002 -2.4913037 0.33746114 0
5.0080004 -2.4980249 0.33750442 0
5.0050001 -2.5047348 0.33754772 0
5.0020003 -2.5114343 0.33759099 0
4.9990005 -2.5181229 0.3376343 0
4.9960003 -2.5248005 0.3376776 0
4.9930005 -2.5314674 0.33772087 0
4.9900002 -2.5381234 0.33776417 0
4.9870005 -2.5447688 0.33780748 0
4.9840002 -2.551403 0.33785075 0
4.9810004 -2.5580268 0.33789405 0
4.9780002 -2.5646393 0.33793736 0
4.9750004 -2.5712414 0.33798063 0
4.9720001 -2.5778325 0.33802393 0
4.9690003 -2.5844128 0.33806723 0
4.9660001 -2.5909822 0.33811051 0
4.9630003 -2.5975409 0.33815381 0
4.9600005 -2.6040888 0.33819708 0
4.9570003 -2.6106257 0.33824039 0
4.9540005 -2.617152 0.33828366 0
4.9510002 -2.6236672 0.33832696 0
4.9480004 -2.6301718 0.33837026 0
5.0260005 -2.4575365 0.32890028 0
5.0230002 -2.4643116 0.32894897 0
5.0200005 -2.471076 0.32899767 0
5.0170002 -2.4778292 0.32904637 0
5.0140004 -2.4845719 0.32909507 0
5.0110002 -2.4913037 0.32914376 0
5.0080004 -2.4980249 0.32919246 0
5.0050001 -2.5047348 0.32924119 0
5.0020003 -2.5114343 0.32928988 0
4.9990005 -2.5181229 0.32933858 0
4.9960003 -2.5248005 0.32938731 0
4.9930005 -2.5314674 0.329436 0
4.9900002 -2.5381234 0.3294847 0
4.9870005 -2.5447688 0.3295334 0
4.9840002 -2.551403 0.3295821 0
4.9810004 -2.5580268 0.32963079 0
4.9780002 -2.5646393 0.32967952 0
4.9750004 -2.5712414 0.32972822 0
4.9720001 -2.5778325 0.32977691 0
4.9690003 -2.5844128 0.32982561 0
4.9660001 -2.5909822 0.32987434 0
4.9630003 -2.5975409 0.32992303 0
4.9600005 -2.6040888 0.32997173 0
4.9570003 -2.6106257 0.33002043 0
4.9540005 -2.617152 0.33006912 0
4.9510002 -2.6236672 0.33011782 0
4.9480004 -2.6301718 0.33016652 0
5.0260005 -2.4575365 0.32055584 0
5.0230002 -2.4643116 0.32060996 0
5.0200005 -2.471076 0.32066408 0
5.0170002 -2.4778292 0.3207182 0
5.0140004 -2.4845719 0.32077229 0
5.0110002 -2.4913037 0.32082641 0
5.0080004 -2.4980249 0.32088053 0
5.0050001 -2.5047348 0.32093465 0
5.0020003 -2.5114343 0.32098874 0
4.9990005 -2.5181229 0.32104287 0
4.9960003 -2.5248005 0.32109699 0
4.9930005 -2.5314674 0.32115111 0
4.9900002 -2.5381234 0.3212052 0
4.9870005 -2.5447688 0.32125932 0
4.9840002 -2.551403 0.32131344 0
4.9810004 -2.5580268 0.32136756 0
4.9780002 -2.5646393 0.32142168 0
4.9750004 -2.5712414 0.32147577 0
4.9720001 -2.5778325 0.3215299 0
4.9690003 -2.5844128 0.32158402 0
4.9660001 -2.5909822 0.32163814 0
4.9630003 -2.5975409 0.32169223 0
4.9600005 -2.6040888 0.32174635 0
4.9570003 -2.6106257 0.32180047 0
4.9540005 -2.617152 0.32185459 0
4.9510002 -2.6236672 0.32190871 0
4.9480004 -2.6301718 0.3219628 0
5.0260005 -2.4575365 0.31221142 0
5.0230002 -2.4643116 0.31227094 0
5.0200005 -2.471076 0.31233048 0
5.0170002 -2.4778292 0.31239 0
5.0140004 -2.4845719 0.31244951 0
5.0110002 -2.4913037 0.31250906 0
5.0080004 -2.4980249 0.31256858 0
5.0050001 -2.5047348 0.31262812 0
5.0020003 -2.5114343 0.31268764 0
4.9990005 -2.5181229 0.31274715 0
4.9960003 -2.5248005 0.31280667 0
4.9930005 -2.5314674 0.31286621 0
4.9900002 -2.5381234 0.31292576 0
4.9870005 -2.5447688 0.31298524 0
4.9840002 -2.551403 0.31304479 0
4.9810004 -2.5580268 0.31310433 0
4.9780002 -2.5646393 0.31316385 0
4.9750004 -2.5712414 0.31322336 0
4.9720001 -2.5778325 0.31328291 0
4.9690003 -2.5844128 0.31334242 0
4.9660001 -2.5909822 0.31340194 0
4.9630003 -2.5975409 0.31346148 0
4.9600005 -2.6040888 0.313521 0
4.9570003 -2.6106257 0.31358051 0
4.9540005 -2.617152 0.31364003 0
4.9510002 -2.6236672 0.31369957 0
4.9480004 -2.6301718 0.31375909 0
5.0260005 -2.4575365 0.30386701 0
5.0230002 -2.4643116 0.30393195 0
5.0200005 -2.471076 0.30399689 0
5.0170002 -2.4778292 0.30406183 0
5.0140004 -2.4845719 0.30412674 0
5.0110002 -2.4913037 0.30419171 0
5.0080004 -2.4980249 0.30425662 0
5.0050001 -2.5047348 0.30432159 0
5.0020003 -2.5114343 0.3043865 0
4.9990005 -2.5181229 0.30445144 0
4.9960003 -2.5248005 0.30451638 0
4.9930005 -2.5314674 0.30458131 0
4.9900002 -2.5381234 0.30464625 0
4.9870005 -2.5447688 0.30471119 0
4.9840002 -2.551403 0.30477613 0
4.9810004 -2.5580268 0.30484107 0
4.9780002 -2.5646393 0.30490601 0
4.9750004 -2.5712414 0.30497095 0
4.9720001 -2.5778325 0.30503589 0
4.9690003 -2.5844128 0.3051008 0
4.9660001 -2.5909822 0.30516577 0
4.9630003 -2.5975409 0.30523068 0
4.9600005 -2.6040888 0.30529562 0
4.9570003 -2.6106257 0.30536056 0
4.9540005 -2.617152 0.30542549 0
4.9510002 -2.6236672 0.30549043 0
4.9480004 -2.6301718 0.30555537 0
5.0260005 -2.4575365 0.2955226 0
5.0230002 -2.4643116 0.29559293 0
5.0200005 -2.471076 0.2956633 0
5.0170002 -2.4778292 0.29573363 0
5.0140004 -2.4845719 0.29580399 0
5.0110002 -2.4913037 0.29587436 0
5.0080004 -2.4980249 0.29594469 0
5.0050001 -2.5047348 0.29601502 0
5.0020003 -2.5114343 0.29608539 0
4.9990005 -2.5181229 0.29615572 0
4.9960003 -2.5248005 0.29622608 0
4.9930005 -2.5314674 0.29629642 0
4.9900002 -2.5381234 0.29636678 0
4.9870005 -2.5447688 0.29643711 0
4.9840002 -2.551403 0.29650748 0
4.9810004 -2.5580268 0.29657781 0
4.9780002 -2.5646393 0.29664817 0
4.9750004 -2.5712414 0.29671854 0
4.9720001 -2.5778325 0.29678887 0
4.9690003 -2.5844128 0.2968592 0
4.9660001 -2.5909822 0.29692957 0
4.9630003 -2.5975409 0.2969999 0
4.9600005 -2.6040888 0.29707026 0
4.9570003 -2.6106257 0.2971406 0
4.9540005 -2.617152 0.29721096 0
4.9510002 -2.6236672 0.29728132 0
4.9480004 -2.6301718 0.29735166 0
5.0260005 -2.4575365 0.28717816 0
5.0230002 -2.4643116 0.28725395 0
5.0200005 -2.471076 0.28732967 0
5.0170002 -2.4778292 0.28740546 0
5.0140004 -2.4845719 0.28748122 0
5.0110002 -2.4913037 0.28755698 0
5.0080004 -2.4980249 0.28763273 0
5.0050001 -2.5047348 0.28770849 0
5.0020003 -2.5114343 0.28778428 0
4.9990005 -2.5181229 0.28786001 0
4.9960003 -2.5248005 0.28793579 0
4.9930005 -2.5314674 0.28801155 0
4.9900002 -2.5381234 0.28808731 0
4.9870005 -2.5447688 0.28816307 0
4.9840002 -2.551403 0.28823882 0
4.9810004 -2.5580268 0.28831458 0
4.9780002 -2.5646393 0.28839034 0
4.9750004 -2.5712414 0.2884661 0
4.9720001 -2.5778325 0.28854185 0
4.9690003 -2.5844128 0.28861761 0
4.9660001 -2.5909822 0.28869337 0
4.9630003 -2.5975409 0.28876913 0
4.9600005 -2.6040888 0.28884488 0
4.9570003 -2.6106257 0.28892064 0
4.9540005 -2.617152 0.2889964 0
4.9510002 -2.6236672 0.28907219 0
4.9480004 -2.6301718 0.28914794 0
5.0260005 -2.4575365 0.27883375 0
5.0230002 -2.4643116 0.27891493 0
5.0200005 -2.471076 0.27899611 0
5.0170002 -2.4778292 0.27907726 0
5.0140004 -2.4845719 0.27915844 0
5.0110002 -2.4913037 0.27923962 0
5.0080004 -2.4980249 0.27932078 0
5.0050001 -2.5047348 0.27940196 0
5.0020003 -2.5114343 0.27948314 0
4.9990005 -2.5181229 0.27956429 0
4.9960003 -2.5248005 0.27964547 0
4.9930005 -2.5314674 0.27972665 0
4.9900002 -2.5381234 0.27980781 0
4.9870005 -2.5447688 0.27988899 0
4.9840002 -2.551403 0.27997017 0
4.9810004 -2.5580268 0.28005132 0
4.9780002 -2.5646393 0.2801325 0
4.9750004 -2.5712414 0.28021365 0
4.9720001 -2.5778325 0.28029484 0
4.9690003 -2.5844128 0.28037602 0
4.9660001 -2.5909822 0.2804572 0
4.9630003 -2.5975409 0.28053838 0
4.9600005 -2.6040888 0.2806195 0
4.9570003 -2.6106257 0.28070068 0
4.9540005 -2.617152 0.28078187 0
4.9510002 -2.6236672 0.28086305 0
4.9480004 -2.6301718 0.28094423 0
5.0260005 -2.4575365 0.27048934 0
5.0230002 -2.4643116 0.27057594 0
5.0200005 -2.471076 0.27066249 0
5.0170002 -2.4778292 0.27074909 0
5.0140004 -2.4845719 0.27083567 0
5.0110002 -2.4913037 0.27092224 0
5.0080004 -2.4980249 0.27100885 0
5.0050001 -2.5047348 0.27109542 0
5.0020003 -2.5114343 0.271182 0
4.9990005 -2.5181229 0.27126858 0
4.9960003 -2.5248005 0.27135515 0
4.9930005 -2.5314674 0.27144176 0
4.9900002 -2.5381234 0.27152833 0
4.9870005 -2.5447688 0.27161491 0
4.9840002 -2.551403 0.27170151 0
4.9810004 -2.5580268 0.27178806 0
4.9780002 -2.5646393 0.27187467 0
4.9750004 -2.5712414 0.27196127 0
4.9720001 -2.5778325 0.27204782 0
4.9690003 -2.5844128 0.27213442 0
4.9660001 -2.5909822 0.27222103 0
4.9630003 -2.5975409 0.27230757 0
4.9600005 -2.6040888 0.27239418 0
4.9570003 -2.6106257 0.27248076 0
4.9540005 -2.617152 0.27256733 0
4.9510002 -2.6236672 0.27265394 0
4.9480004 -2.6301718 0.27274048 0
5.0260005 -2.4575365 0.26214492 0
5.0230002 -2.4643116 0.26223692 0
5.0200005 -2.471076 0.26232892 0
5.0170002 -2.4778292 0.26242092 0
5.0140004 -2.4845719 0.26251292 0
5.0110002 -2.4913037 0.26260489 0
5.0080004 -2.4980249 0.26269689 0
5.0050001 -2.5047348 0.26278889 0
5.0020003 -2.5114343 0.26288089 0
4.9990005 -2.5181229 0.26297289 0
4.9960003 -2.5248005 0.26306486 0
4.9930005 -2.5314674 0.26315686 0
4.9900002 -2.5381234 0.26324886 0
4.9870005 -2.5447688 0.26334083 0
4.9840002 -2.551403 0.26343286 0
4.9810004 -2.5580268 0.26352483 0
4.9780002 -2.5646393 0.26361683 0
4.9750004 -2.5712414 0.26370883 0
4.9720001 -2.5778325 0.26380083 0
4.9690003 -2.5844128 0.26389283 0
4.9660001 -2.5909822 0.2639848 0
4.9630003 -2.5975409 0.2640768 0
4.9600005 -2.6040888 0.2641688 0
4.9570003 -2.6106257 0.2642608 0
4.9540005 -2.617152 0.2643528 0
4.9510002 -2.6236672 0.26444477 0
4.9480004 -2.6301718 0.26453677 0
5.0260005 -2.4575365 0.25380051 0
5.0230002 -2.4643116 0.25389791 0
5.0200005 -2.471076 0.25399533 0
5.0170002 -2.4778292 0.25409272 0
5.0140004 -2.4845719 0.25419015 0
5.0110002 -2.4913037 0.25428754 0
5.0080004 -2.4980249 0.25438493 0
5.0050001 -2.5047348 0.25448236 0
5.0020003 -2.5114343 0.25457975 0
4.9990005 -2.5181229 0.25467718 0
4.9960003 -2.5248005 0.25477457 0
4.9930005 -2.5314674 0.25487196 0
4.9900002 -2.5381234 0.25496936 0
4.9870005 -2.5447688 0.25506675 0
4.9840002 -2.551403 0.25516421 0
4.9810004 -2.5580268 0.2552616 0
4.9780002 -2.5646393 0.25535899 0
4.9750004 -2.5712414 0.25545639 0
4.9720001 -2.5778325 0.25555384 0
4.9690003 -2.5844128 0.25565124 0
4.9660001 -2.5909822 0.25574863 0
4.9630003 -2.5975409 0.25584602 0
4.9600005 -2.6040888 0.25594342 0
4.9570003 -2.6106257 0.25604084 0
4.9540005 -2.617152 0.25613824 0
4.9510002 -2.6236672 0.25623566 0
4.9480004 -2.6301718 0.25633305 0
5.0260005 -2.4575365 0.2454561 0
5.0230002 -2.4643116 0.2455589 0
5.0200005 -2.471076 0.24566172 0
5.0170002 -2.4778292 0.24576455 0
5.0140004 -2.4845719 0.24586736 0
5.0110002 -2.4913037 0.24597019 0
5.0080004 -2.4980249 0.24607299 0
5.0050001 -2.5047348 0.24617581 0
5.0020003 -2.5114343 0.24627863 0
4.9990005 -2.5181229 0.24638143 0
4.9960003 -2.5248005 0.24648426 0
4.9930005 -2.5314674 0.24658708 0
4.9900002 -2.5381234 0.2466899 0
4.9870005 -2.5447688 0.2467927 0
4.9840002 -2.551403 0.24689554 0
4.9810004 -2.5580268 0.24699834 0
4.9780002 -2.5646393 0.24710117 0
4.9750004 -2.5712414 0.24720399 0
4.9720001 -2.5778325 0.24730679 0
4.9690003 -2.5844128 0.24740961 0
4.9660001 -2.5909822 0.24751244 0
4.9630003 -2.5975409 0.24761525 0
4.9600005 -2.6040888 0.24771807 0
4.9570003 -2.6106257 0.2478209 0
4.9540005 -2.617152 0.2479237 0
4.9510002 -2.6236672 0.24802652 0
4.9480004 -2.6301718 0.24812934 0
5.0260005 -2.4575365 0.23711167 0
5.0230002 -2.4643116 0.2372199 0
5.0200005 -2.471076 0.23732813 0
5.0170002 -2.4778292 0.23743637 0
5.0140004 -2.4845719 0.23754458 0
5.0110002 -2.4913037 0.23765282 0
5.0080004 -2.4980249 0.23776105 0
5.0050001 -2.5047348 0.23786929 0
5.0020003 -2.5114343 0.23797749 0
4.9990005 -2.5181229 0.23808572 0
4.9960003 -2.5248005 0.23819396 0
4.9930005 -2.5314674 0.23830219 0
4.9900002 -2.5381234 0.23841041 0
4.9870005 -2.5447688 0.23851864 0
4.9840002 -2.551403 0.23862688 0
4.9810004 -2.5580268 0.23873509 0
4.9780002 -2.5646393 0.23884335 0
4.9750004 -2.5712414 0.23895155 0
4.9720001 -2.5778325 0.23905979 0
4.9690003 -2.5844128 0.23916802 0
4.9660001 -2.5909822 0.23927626 0
4.9630003 -2.5975409 0.23938447 0
4.9600005 -2.6040888 0.23949268 0
4.9570003 -2.6106257 0.23960094 0
4.9540005 -2.617152 0.23970915 0
4.9510002 -2.6236672 0.2398174 0
4.9480004 -2.6301718 0.23992561 0
5.0260005 -2.4575365 0.22876725 0
5.0230002 -2.4643116 0.22888091 0
5.0200005 -2.471076 0.22899453 0
5.0170002 -2.4778292 0.22910818 0
5.0140004 -2.4845719 0.22922182 0
5.0110002 -2.4913037 0.22933547 0
5.0080004 -2.4980249 0.22944909 0
5.0050001 -2.5047348 0.22956274 0
5.0020003 -2.5114343 0.22967638 0
4.9990005 -2.5181229 0.22979 0
4.9960003 -2.5248005 0.22990365 0
4.9930005 -2.5314674 0.23001729 0
4.9900002 -2.5381234 0.23013094 0
4.9870005 -2.5447688 0.23024456 0
4.9840002 -2.551403 0.23035823 0
4.9810004 -2.5580268 0.23047186 0
4.9780002 -2.5646393 0.2305855 0
4.9750004 -2.5712414 0.23069914 0
4.9720001 -2.5778325 0.23081279 0
4.9690003 -2.5844128 0.23092642 0
4.9660001 -2.5909822 0.23104006 0
4.9630003 -2.5975409 0.2311537 0
4.9600005 -2.6040888 0.23126733 0
4.9570003 -2.6106257 0.23138097 0
4.9540005 -2.617152 0.23149461 0
4.9510002 -2.6236672 0.23160827 0
4.9480004 -2.6301718 0.23172189 0
5.0260005 -2.4575365 0.22042283 0
5.0230002 -2.4643116 0.22054189 0
5.0200005 -2.471076 0.22066094 0
5.0170002 -2.4778292 0.22078 0
5.0140004 -2.4845719 0.22089903 0
5.0110002 -2.4913037 0.22101811 0
5.0080004 -2.4980249 0.22113715 0
5.0050001 -2.5047348 0.22125621 0
5.0020003 -2.5114343 0.22137526 0
4.9990005 -2.5181229 0.2214943 0
4.9960003 -2.5248005 0.22161335 0
4.9930005 -2.5314674 0.22173241 0
4.9900002 -2.5381234 0.22185147 0
4.9870005 -2.5447688 0.2219705 0
4.9840002 -2.551403 0.22208957 0
4.9810004 -2.5580268 0.22220862 0
4.9780002 -2.5646393 0.22232766 0
4.9750004 -2.5712414 0.22244671 0
4.9720001 -2.5778325 0.22256577 0
4.9690003 -2.5844128 0.22268482 0
4.9660001 -2.5909822 0.22280389 0
4.9630003 -2.5975409 0.22292292 0
4.9600005 -2.6040888 0.22304197 0
4.9570003 -2.6106257 0.22316103 0
4.9540005 -2.617152 0.22328006 0
4.9510002 -2.6236672 0.22339913 0
4.9480004 -2.6301718 0.22351818 0
5.0260005 -2.4575365 0.21207842 0
5.0230002 -2.4643116 0.21220289 0
5.0200005 -2.471076 0.21232735 0
5.0170002 -2.4778292 0.21245182 0
5.0140004 -2.4845719 0.21257627 0
5.0110002 -2.4913037 0.21270074 0
5.0080004 -2.4980249 0.21282519 0
5.0050001 -2.5047348 0.21294968 0
5.0020003 -2.5114343 0.21307412 0
4.9990005 -2.5181229 0.21319859 0
4.9960003 -2.5248005 0.21332304 0
4.9930005 -2.5314674 0.21344751 0
4.9900002 -2.5381234 0.21357198 0
4.9870005 -2.5447688 0.21369644 0
4.9840002 -2.551403 0.21382092 0
4.9810004 -2.5580268 0.21394536 0
4.9780002 -2.5646393 0.21406984 0
4.9750004 -2.5712414 0.2141943 0
4.9720001 -2.5778325 0.21431877 0
4.9690003 -2.5844128 0.21444322 0
4.9660001 -2.5909822 0.21456769 0
4.9630003 -2.5975409 0.21469215 0
4.9600005 -2.6040888 0.2148166 0
4.9570003 -2.6106257 0.21494107 0
4.9540005 -2.617152 0.21506552 0
4.9510002 -2.6236672 0.21518999 0
4.9480004 -2.6301718 0.21531446 0
5.0290003 -2.4507506 0.20360413 0
5.0260005 -2.4575365 0.203734 0
5.0230002 -2.4643116 0.20386389 0
5.0200005 -2.471076 0.20399375 0
5.0170002 -2.4778292 0.20412365 0
5.0140004 -2.4845719 0.20425349 0
5.0110002 -2.4913037 0.20438339 0
5.0080004 -2.4980249 0.20451325 0
5.0050001 -2.5047348 0.20464313 0
5.0020003 -2.5114343 0.20477301 0
4.9990005 -2.5181229 0.20490287 0
4.9960003 -2.5248005 0.20503277 0
4.9930005 -2.5314674 0.20516261 0
4.9900002 -2.5381234 0.20529251 0
4.9870005 -2.5447688 0.20542236 0
4.9840002 -2.551403 0.20555225 0
4.9810004 -2.5580268 0.20568211 0
4.9780002 -2.5646393 0.20581201 0
4.9750004 -2.5712414 0.20594187 0
4.9720001 -2.5778325 0.20607176 0
4.9690003 -2.5844128 0.20620161 0
4.9660001 -2.5909822 0.20633151 0
4.9630003 -2.5975409 0.20646136 0
4.9600005 -2.6040888 0.20659123 0
4.9570003 -2.6106257 0.20672111 0
4.9540005 -2.617152 0.20685099 0
4.9510002 -2.6236672 0.20698087 0
4.9480004 -2.6301718 0.20711073 0
5.0290003 -2.4507506 0.19525431 0
5.0260005 -2.4575365 0.19538958 0
5.0230002 -2.4643116 0.19552489 0
5.0200005 -2.471076 0.19566016 0
5.0170002 -2.4778292 0.19579545 0
5.0140004 -2.4845719 0.19593073 0
5.0110002 -2.4913037 0.19606602 0
5.0080004 -2.4980249 0.19620131 0
5.0050001 -2.5047348 0.1963366 0
5.0020003 -2.5114343 0.19647188 0
4.9990005 -2.5181229 0.19660714 0
4.9960003 -2.5248005 0.19674246 0
4.9930005 -2.5314674 0.19687772 0
4.9900002 -2.5381234 0.19701304 0
4.9870005 -2.5447688 0.19714829 0
4.9840002 -2.551403 0.1972836 0
4.9810004 -2.5580268 0.19741887 0
4.9780002 -2.5646393 0.19755416 0
4.9750004 -2.5712414 0.19768944 0
4.9720001 -2.5778325 0.19782473 0
4.9690003 -2.5844128 0.19796002 0
4.9660001 -2.5909822 0.19809531 0
4.9630003 -2.5975409 0.19823059 0
4.9600005 -2.6040888 0.19836587 0
4.9570003 -2.6106257 0.19850117 0
4.9540005 -2.617152 0.19863644 0
4.9510002 -2.6236672 0.19877174 0
4.9480004 -2.6301718 0.198907 0
5.0290003 -2.4507506 0.18690448 0
5.0260005 -2.4575365 0.18704517 0
5.0230002 -2.4643116 0.18718587 0
5.0200005 -2.471076 0.18732657 0
5.0170002 -2.4778292 0.18746728 0
5.0140004 -2.4845719 0.18760796 0
5.0110002 -2.4913037 0.18774867 0
5.0080004 -2.4980249 0.18788935 0
5.0050001 -2.5047348 0.18803006 0
5.0020003 -2.5114343 0.18817075 0
4.9990005 -2.5181229 0.18831144 0
4.9960003 -2.5248005 0.18845215 0
4.9930005 -2.5314674 0.18859282 0
4.9900002 -2.5381234 0.18873355 0
4.9870005 -2.5447688 0.18887423 0
4.9840002 -2.551403 0.18901493 0
4.9810004 -2.5580268 0.18915562 0
4.9780002 -2.5646393 0.18929633 0
4.9750004 -2.5712414 0.18943703 0
4.9720001 -2.5778325 0.18957773 0
4.9690003 -2.5844128 0.18971841 0
4.9660001 -2.5909822 0.18985912 0
4.9630003 -2.5975409 0.1899998 0
4.9600005 -2.6040888 0.1901405 0
4.9570003 -2.6106257 0.19028121 0
4.9540005 -2.617152 0.19042191 0
4.9510002 -2.6236672 0.19056261 0
4.9480004 -2.6301718 0.19070329 0
5.0290003 -2.4507506 0.17855465 0
5.0260005 -2.4575365 0.17870076 0
5.0230002 -2.4643116 0.17884687 0
5.0200005 -2.471076 0.17899296 0
5.0170002 -2.4778292 0.17913909 0
5.0140004 -2.4845719 0.17928518 0
5.0110002 -2.4913037 0.1794313 0
5.0080004 -2.4980249 0.17957741 0
5.0050001 -2.5047348 0.17972353 0
5.0020003 -2.5114343 0.17986962 0
4.9990005 -2.5181229 0.18001573 0
4.9960003 -2.5248005 0.18016185 0
4.9930005 -2.5314674 0.18030794 0
4.9900002 -2.5381234 0.18045406 0
4.9870005 -2.5447688 0.18060017 0
4.9840002 -2.551403 0.18074627 0
4.9810004 -2.5580268 0.18089238 0
4.9780002 -2.5646393 0.1810385 0
4.9750004 -2.5712414 0.18118459 0
4.9720001 -2.5778325 0.18133073 0
4.9690003 -2.5844128 0.18147682 0
4.9660001 -2.5909822 0.18162294 0
4.9630003 -2.5975409 0.18176904 0
4.9600005 -2.6040888 0.18191513 0
4.9570003 -2.6106257 0.18206125 0
4.9540005 -2.617152 0.18220736 0
4.9510002 -2.6236672 0.18235347 0
4.9480004 -2.6301718 0.18249957 0
5.0290003 -2.4507506 0.17020483 0
5.0260005 -2.4575365 0.17035632 0
5.0230002 -2.4643116 0.17050788 0
5.0200005 -2.471076 0.17065936 0
5.0170002 -2.4778292 0.17081091 0
5.0140004 -2.4845719 0.17096241 0
5.0110002 -2.4913037 0.17111395 0
5.0080004 -2.4980249 0.17126547 0
5.0050001 -2.5047348 0.17141698 0
5.0020003 -2.5114343 0.17156851 0
4.9990005 -2.5181229 0.17172 0
4.9960003 -2.5248005 0.17187154 0
4.9930005 -2.5314674 0.17202306 0
4.9900002 -2.5381234 0.17217459 0
4.9870005 -2.5447688 0.1723261 0
4.9840002 -2.551403 0.17247762 0
4.9810004 -2.5580268 0.17262915 0
4.9780002 -2.5646393 0.17278066 0
4.9750004 -2.5712414 0.17293218 0
4.9720001 -2.5778325 0.17308369 0
4.9690003 -2.5844128 0.17323522 0
4.9660001 -2.5909822 0.17338675 0
4.9630003 -2.5975409 0.17353825 0
4.9600005 -2.6040888 0.17368978 0
4.9570003 -2.6106257 0.1738413 0
4.9540005 -2.617152 0.17399281 0
4.9510002 -2.6236672 0.17414434 0
4.9480004 -2.6301718 0.17429586 0
5.0290003 -2.4507506 0.16185498 0
5.0260005 -2.4575365 0.16201192 0
5.0230002 -2.4643116 0.16216886 0
5.0200005 -2.471076 0.16232578 0
5.0170002 -2.4778292 0.16248272 0
5.0140004 -2.4845719 0.16263963 0
5.0110002 -2.4913037 0.1627966 0
5.0080004 -2.4980249 0.16295351 0
5.0050001 -2.5047348 0.16311046 0
5.0020003 -2.5114343 0.16326737 0
4.9990005 -2.5181229 0.16342428 0
4.9960003 -2.5248005 0.16358122 0
4.9930005 -2.5314674 0.16373818 0
4.9900002 -2.5381234 0.16389512 0
4.9870005 -2.5447688 0.16405202 0
4.9840002 -2.551403 0.16420896 0
4.9810004 -2.5580268 0.16436587 0
4.9780002 -2.5646393 0.16452283 0
4.9750004 -2.5712414 0.16467977 0
4.9720001 -2.5778325 0.1648367 0
4.9690003 -2.5844128 0.16499361 0
4.9660001 -2.5909822 0.16515055 0
4.9630003 -2.5975409 0.16530748 0
4.9600005 -2.6040888 0.16546442 0
4.9570003 -2.6106257 0.16562136 0
4.9540005 -2.617152 0.16577826 0
4.9510002 -2.6236672 0.16593522 0
4.9480004 -2.6301718 0.16609213 0
5.0290003 -2.4507506 0.15350515 0
5.0260005 -2.4575365 0.15366748 0
5.0230002 -2.4643116 0.15382987 0
5.0200005 -2.471076 0.15399221 0
5.0170002 -2.4778292 0.15415452 0
5.0140004 -2.4845719 0.15431687 0
5.0110002 -2.4913037 0.15447924 0
5.0080004 -2.4980249 0.15464157 0
5.0050001 -2.5047348 0.15480393 0
5.0020003 -2.5114343 0.15496624 0
4.9990005 -2.5181229 0.15512857 0
4.9960003 -2.5248005 0.15529093 0
4.9930005 -2.5314674 0.15545328 0
4.9900002 -2.5381234 0.15561561 0
4.9870005 -2.5447688 0.15577795 0
4.9840002 -2.551403 0.15594031 0
4.9810004 -2.5580268 0.15610264 0
4.9780002 -2.5646393 0.15626501 0
4.9750004 -2.5712414 0.15642732 0
4.9720001 -2.5778325 0.15658969 0
4.9690003 -2.5844128 0.15675202 0
4.9660001 -2.5909822 0.15691438 0
4.9630003 -2.5975409 0.15707672 0
4.9600005 -2.6040888 0.15723902 0
4.9570003 -2.6106257 0.15740138 0
4.9540005 -2.617152 0.15756373 0
4.9510002 -2.6236672 0.15772609 0
4.9480004 -2.6301718 0.15788843 0
5.0290003 -2.4507506 0.14515534 0
5.0260005 -2.4575365 0.1453231 0
5.0230002 -2.4643116 0.14549085 0
5.0200005 -2.471076 0.14565858 0
5.0170002 -2.4778292 0.14582637 0
5.0140004 -2.4845719 0.1459941 0
5.0110002 -2.4913037 0.14616185 0
5.0080004 -2.4980249 0.14632961 0
5.0050001 -2.5047348 0.14649737 0
5.0020003 -2.5114343 0.14666513 0
4.9990005 -2.5181229 0.14683285 0
4.9960003 -2.5248005 0.14700061 0
4.9930005 -2.5314674 0.14716837 0
4.9900002 -2.5381234 0.14733613 0
4.9870005 -2.5447688 0.14750388 0
4.9840002 -2.551403 0.14767164 0
4.9810004 -2.5580268 0.1478394 0
4.9780002 -2.5646393 0.14800718 0
4.9750004 -2.5712414 0.14817491 0
4.9720001 -2.5778325 0.1483427 0
4.9690003 -2.5844128 0.14851043 0
4.9660001 -2.5909822 0.14867818 0
4.9630003 -2.5975409 0.14884594 0
4.9600005 -2.6040888 0.14901367 0
4.9570003 -2.6106257 0.14918146 0
4.9540005 -2.617152 0.14934918 0
4.9510002 -2.6236672 0.14951694 0
4.9480004 -2.6301718 0.1496847 0
5.0290003 -2.4507506 0.1368055 0
5.0260005 -2.4575365 0.13697866 0
5.0230002 -2.4643116 0.13715184 0
5.0200005 -2.471076 0.13732499 0
5.0170002 -2.4778292 0.13749817 0
5.0140004 -2.4845719 0.13767132 0
5.0110002 -2.4913037 0.1378445 0
5.0080004 -2.4980249 0.13801765 0
5.0050001 -2.5047348 0.13819084 0
5.0020003 -2.5114343 0.13836399 0
4.9990005 -2.5181229 0.13853714 0
4.9960003 -2.5248005 0.13871032 0
4.9930005 -2.5314674 0.13888347 0
4.9900002 -2.5381234 0.13905665 0
4.9870005 -2.5447688 0.1392298 0
4.9840002 -2.551403 0.13940299 0
4.9810004 -2.5580268 0.13957614 0
4.9780002 -2.5646393 0.13974932 0
4.9750004 -2.5712414 0.1399225 0
4.9720001 -2.5778325 0.14009565 0
4.9690003 -2.5844128 0.14026883 0
4.9660001 -2.5909822 0.14044201 0
4.9630003 -2.5975409 0.14061517 0
4.9600005 -2.6040888 0.14078832 0
4.9570003 -2.6106257 0.1409615 0
4.9540005 -2.617152 0.14113465 0
4.9510002 -2.6236672 0.14130783 0
4.9480004 -2.6301718 0.14148098 0
5.0290003 -2.4507506 0.1284557 0
5.0260005 -2.4575365 0.12863424 0
5.0230002 -2.4643116 0.12881285 0
5.0200005 -2.471076 0.12899143 0
5.0170002 -2.4778292 0.12917 0
5.0140004 -2.4845719 0.12934858 0
5.0110002 -2.4913037 0.12952715 0
5.0080004 -2.4980249 0.12970573 0
5.0050001 -2.5047348 0.1298843 0
5.0020003 -2.5114343 0.13006288 0
4.9990005 -2.5181229 0.13024142 0
4.9960003 -2.5248005 0.13042003 0
4.9930005 -2.5314674 0.13059857 0
4.9900002 -2.5381234 0.13077718 0
4.9870005 -2.5447688 0.13095573 0
4.9840002 -2.551403 0.13113433 0
4.9810004 -2.5580268 0.13131291 0
4.9780002 -2.5646393 0.13149148 0
4.9750004 -2.5712414 0.13167006 0
4.9720001 -2.5778325 0.13184863 0
4.9690003 -2.5844128 0.13202721 0
4.9660001 -2.5909822 0.13220581 0
4.9630003 -2.5975409 0.13238436 0
4.9600005 -2.6040888 0.13256294 0
4.9570003 -2.6106257 0.13274151 0
4.9540005 -2.617152 0.13292009 0
4.9510002 -2.6236672 0.13309869 0
4.9480004 -2.6301718 0.13327724 0
5.0290003 -2.4507506 0.12010586 0
5.0260005 -2.4575365 0.12028983 0
5.0230002 -2.4643116 0.12047383 0
5.0200005 -2.471076 0.1206578 0
5.0170002 -2.4778292 0.12084183 0
5.0140004 -2.4845719 0.1210258 0
5.0110002 -2.4913037 0.1212098 0
5.0080004 -2.4980249 0.12139377 0
5.0050001 -2.5047348 0.12157777 0
5.0020003 -2.5114343 0.12176177 0
4.9990005 -2.5181229 0.12194574 0
4.9960003 -2.5248005 0.12212974 0
4.9930005 -2.5314674 0.12231371 0
4.9900002 -2.5381234 0.12249771 0
4.9870005 -2.5447688 0.12268168 0
4.9840002 -2.551403 0.12286568 0
4.9810004 -2.5580268 0.12304965 0
4.9780002 -2.5646393 0.12323365 0
4.9750004 -2.5712414 0.12341765 0
4.9720001 -2.5778325 0.12360165 0
4.9690003 -2.5844128 0.12378561 0
4.9660001 -2.5909822 0.12396961 0
4.9630003 -2.5975409 0.12415358 0
4.9600005 -2.6040888 0.12433758 0
4.9570003 -2.6106257 0.12452158 0
4.9540005 -2.617152 0.12470555 0
4.9510002 -2.6236672 0.12488955 0
4.9480004 -2.6301718 0.12507352 0
5.0290003 -2.4507506 0.11175603 0
5.0260005 -2.4575365 0.11194539 0
5.0230002 -2.4643116 0.11213481 0
5.0200005 -2.471076 0.11232421 0
5.0170002 -2.4778292 0.11251363 0
5.0140004 -2.4845719 0.11270303 0
5.0110002 -2.4913037 0.11289242 0
5.0080004 -2.4980249 0.11308181 0
5.0050001 -2.5047348 0.11327124 0
5.0020003 -2.5114343 0.11346063 0
4.9990005 -2.5181229 0.11365002 0
4.9960003 -2.5248005 0.11383945 0
4.9930005 -2.5314674 0.11402881 0
4.9900002 -2.5381234 0.11421821 0
4.9870005 -2.5447688 0.1144076 0
4.9840002 -2.551403 0.11459702 0
4.9810004 -2.5580268 0.11478642 0
4.9780002 -2.5646393 0.11497584 0
4.9750004 -2.5712414 0.1151652 0
4.9720001 -2.5778325 0.11535463 0
4.9690003 -2.5844128 0.11554402 0
4.9660001 -2.5909822 0.11573344 0
4.9630003 -2.5975409 0.11592284 0
4.9600005 -2.6040888 0.1161122 0
4.9570003 -2.6106257 0.11630163 0
4.9540005 -2.617152 0.11649102 0
4.9510002 -2.6236672 0.11668041 0
4.9480004 -2.6301718 0.11686981 0
5.0290003 -2.4507506 0.10340619 0
5.0260005 -2.4575365 0.10360101 0
5.0230002 -2.4643116 0.10379583 0
5.0200005 -2.471076 0.10399064 0
5.0170002 -2.4778292 0.10418543 0
5.0140004 -2.4845719 0.10438025 0
5.0110002 -2.4913037 0.10457507 0
5.0080004 -2.4980249 0.10476986 0
5.0050001 -2.5047348 0.1049647 0
5.0020003 -2.5114343 0.10515949 0
4.9990005 -2.5181229 0.10535431 0
4.9960003 -2.5248005 0.10554913 0
4.9930005 -2.5314674 0.10574391 0
4.9900002 -2.5381234 0.10593873 0
4.9870005 -2.5447688 0.10613352 0
4.9840002 -2.551403 0.10632837 0
4.9810004 -2.5580268 0.10652316 0
4.9780002 -2.5646393 0.106718 0
4.9750004 -2.5712414 0.10691279 0
4.9720001 -2.5778325 0.10710764 0
4.9690003 -2.5844128 0.10730243 0
4.9660001 -2.5909822 0.10749725 0
4.9630003 -2.5975409 0.10769203 0
4.9600005 -2.6040888 0.10788682 0
4.9570003 -2.6106257 0.10808167 0
4.9540005 -2.617152 0.10827646 0
4.9510002 -2.6236672 0.1084713 0
4.9480004 -2.6301718 0.10866609 0
5.0290003 -2.4507506 0.095056355 0
5.0260005 -2.4575365 0.095256567 0
5.0230002 -2.4643116 0.095456809 0
5.0200005 -2.471076 0.095657021 0
5.0170002 -2.4778292 0.095857263 0
5.0140004 -2.4845719 0.096057475 0
5.0110002 -2.4913037 0.096257716 0
5.0080004 -2.4980249 0.096457899 0
5.0050001 -2.5047348 0.09665817 0
5.0020003 -2.5114343 0.096858382 0
4.9990005 -2.5181229 0.097058594 0
4.9960003 -2.5248005 0.097258836 0
4.9930005 -2.5314674 0.097459048 0
4.9900002 -2.5381234 0.09765926 0
4.9870005 -2.5447688 0.097859472 0
4.9840002 -2.551403 0.098059714 0
4.9810004 -2.5580268 0.098259926 0
4.9780002 -2.5646393 0.098460168 0
4.9750004 -2.5712414 0.09866038 0
4.9720001 -2.5778325 0.098860621 0
4.9690003 -2.5844128 0.099060833 0
4.9660001 -2.5909822 0.099261045 0
4.9630003 -2.5975409 0.099461257 0
4.9600005 -2.6040888 0.099661469 0
4.9570003 -2.6106257 0.099861711 0
4.9540005 -2.617152 0.10006192 0
4.9510002 -2.6236672 0.10026217 0
4.9480004 -2.6301718 0.10046238 0
5.0290003 -2.4507506 0.086706549 0
5.0260005 -2.4575365 0.086912185 0
5.0230002 -2.4643116 0.087117791 0
5.0200005 -2.471076 0.087323427 0
5.0170002 -2.4778292 0.087529093 0
5.0140004 -2.4845719 0.087734699 0
5.0110002 -2.4913037 0.087940365 0
5.0080004 -2.4980249 0.088145971 0
5.0050001 -2.5047348 0.088351607 0
5.0020003 -2.5114343 0.088557243 0
4.9990005 -2.5181229 0.08876285 0
4.9960003 -2.5248005 0.088968515 0
4.9930005 -2.5314674 0.089174151 0
4.9900002 -2.5381234 0.089379787 0
4.9870005 -2.5447688 0.089585394 0
4.9840002 -2.551403 0.089791059 0
4.9810004 -2.5580268 0.089996666 0
4.9780002 -2.5646393 0.090202332 0
4.9750004 -2.5712414 0.090407968 0
4.9720001 -2.5778325 0.090613574 0
4.9690003 -2.5844128 0.09081921 0
4.9660001 -2.5909822 0.091024876 0
4.9630003 -2.5975409 0.091230482 0
4.9600005 -2.6040888 0.091436118 0
4.9570003 -2.6106257 0.091641784 0
4.9540005 -2.617152 0.09184739 0
4.9510002 -2.6236672 0.092053026 0
4.9480004 -2.6301718 0.092258662 0
5.0290003 -2.4507506 0.078356713 0
5.0260005 -2.4575365 0.078567743 0
5.0230002 -2.4643116 0.078778803 0
5.0200005 -2.471076 0.078989834 0
5.0170002 -2.4778292 0.079200894 0
5.0140004 -2.4845719 0.079411924 0
5.0110002 -2.4913037 0.079622984 0
5.0080004 -2.4980249 0.079834044 0
5.0050001 -2.5047348 0.080045074 0
5.0020003 -2.5114343 0.080256104 0
4.9990005 -2.5181229 0.080467135 0
4.9960003 -2.5248005 0.080678225 0
4.9930005 -2.5314674 0.080889255 0
4.9900002 -2.5381234 0.081100315 0
4.9870005 -2.5447688 0.081311315 0
4.9840002 -2.551403 0.081522405 0
4.9810004 -2.5580268 0.081733435 0
4.9780002 -2.5646393 0.081944495 0
4.9750004 -2.5712414 0.082155526 0
4.9720001 -2.5778325 0.082366586 0
4.9690003 -2.5844128 0.082577616 0
4.9660001 -2.5909822 0.082788676 0
4.9630003 -2.5975409 0.082999736 0
4.9600005 -2.6040888 0.083210766 0
4.9570003 -2.6106257 0.083421797 0
4.9540005 -2.617152 0.083632827 0
4.9510002 -2.6236672 0.083843917 0
4.9480004 -2.6301718 0.084054947 0
5.0290003 -2.4507506 0.070006877 0
5.0260005 -2.4575365 0.070223331 0
5.0230002 -2.4643116 0.070439786 0
5.0200005 -2.471076 0.07065624 0
5.0170002 -2.4778292 0.070872724 0
5.0140004 -2.4845719 0.071089149 0
5.0110002 -2.4913037 0.071305633 0
5.0080004 -2.4980249 0.071522087 0
5.0050001 -2.5047348 0.071738571 0
5.0020003 -2.5114343 0.071954966 0
4.9990005 -2.5181229 0.07217142 0
4.9960003 -2.5248005 0.072387904 0
4.9930005 -2.5314674 0.072604358 0
4.9900002 -2.5381234 0.072820812 0
4.9870005 -2.5447688 0.073037267 0
4.9840002 -2.551403 0.073253751 0
4.9810004 -2.5580268 0.073470175 0
4.9780002 -2.5646393 0.073686689 0
4.9750004 -2.5712414 0.073903084 0
4.9720001 -2.5778325 0.074119568 0
4.9690003 -2.5844128 0.074336022 0
4.9660001 -2.5909822 0.074552506 0
4.9630003 -2.5975409 0.074768931 0
4.9600005 -2.6040888 0.074985355 0
4.9570003 -2.6106257 0.075201869 0
4.9540005 -2.617152 0.075418293 0
4.9510002 -2.6236672 0.075634778 0
4.9480004 -2.6301718 0.075851202 0
5.0290003 -2.4507506 0.061657071 0
5.0260005 -2.4575365 0.06187892 0
5.0230002 -2.4643116 0.062100798 0
5.0200005 -2.471076 0.062322646 0
5.0170002 -2.4778292 0.062544554 0
5.0140004 -2.4845719 0.062766403 0
5.0110002 -2.4913037 0.062988281 0
5.0080004 -2.4980249 0.06321013 0
5.0050001 -2.5047348 0.063432008 0
5.0020003 -2.5114343 0.063653886 0
4.9990005 -2.5181229 0.063875705 0
4.9960003 -2.5248005 0.064097613 0
4.9930005 -2.5314674 0.064319462 0
4.9900002 -2.5381234 0.06454134 0
4.9870005 -2.5447688 0.064763188 0
4.9840002 -2.551403 0.064985096 0
4.9810004 -2.5580268 0.065206945 0
4.9780002 -2.5646393 0.065428823 0
4.9750004 -2.5712414 0.065650672 0
4.9720001 -2.5778325 0.06587258 0
4.9690003 -2.5844128 0.066094428 0
4.9660001 -2.5909822 0.066316307 0
4.9630003 -2.5975409 0.066538155 0
4.9600005 -2.6040888 0.066760004 0
4.9570003 -2.6106257 0.066981912 0
4.9540005 -2.617152 0.06720373 0
4.9510002 -2.6236672 0.067425638 0
4.9480004 -2.6301718 0.067647487 0
5.0290003 -2.4507506 0.053307205 0
5.0260005 -2.4575365 0.053534478 0
5.0230002 -2.4643116 0.05376181 0
5.0200005 -2.471076 0.053989053 0
5.0170002 -2.4778292 0.054216355 0
5.0140004 -2.4845719 0.054443628 0
5.0110002 -2.4913037 0.05467093 0
5.0080004 -2.4980249 0.054898173 0
5.0050001 -2.5047348 0.055125475 0
5.0020003 -2.5114343 0.055352747 0
4.9990005 -2.5181229 0.05557999 0
4.9960003 -2.5248005 0.055807292 0
4.9930005 -2.5314674 0.056034565 0
4.9900002 -2.5381234 0.056261867 0
4.9870005 -2.5447688 0.05648911 0
4.9840002 -2.551403 0.056716442 0
4.9810004 -2.5580268 0.056943715 0
4.9780002 -2.5646393 0.057170987 0
4.9750004 -2.5712414 0.05739826 0
4.9720001 -2.5778325 0.057625562 0
4.9690003 -2.5844128 0.057852834 0
4.9660001 -2.5909822 0.058080107 0
4.9630003 -2.5975409 0.058307379 0
4.9600005 -2.6040888 0.058534652 0
4.9570003 -2.6106257 0.058761925 0
4.9540005 -2.617152 0.058989197 0
4.9510002 -2.6236672 0.059216529 0
4.9480004 -2.6301718 0.059443772 0
4.9630003 -2.5975409 0.050076604 0
4.9600005 -2.6040888 0.050309271 0
4.9570003 -2.6106257 0.050541997 0
4.9540005 -2.617152 0.050774664 0
4.9510002 -2.6236672 0.05100736 0
4.9480004 -2.6301718 0.051240057 0
