# .PCD v0.7 - Point Cloud Data file format
VERSION 0.7
FIELDS x y z intensity
SIZE 4 4 4 4
TYPE F F F F
COUNT 1 1 1 1
WIDTH 1415
HEIGHT 1
VIEWPOINT 0 0 0 1 0 0 0
POINTS 1415
DATA ascii
5.3650002 -2.4372272 0.60102999 0
5.3610005 -2.4442496 0.60087126 0
5.3570004 -2.4512575 0.60071254 0
5.3530002 -2.4582508 0.60055375 0
5.3490005 -2.4652297 0.60039508 0
5.3450003 -2.4721942 0.6002363 0
5.3420005 -2.4796369 0.60011727 0
5.3380003 -2.4865742 0.59995854 0
5.3340001 -2.4934971 0.59979975 0
5.3300004 -2.5004058 0.59964108 0
5.3260002 -2.5072999 0.5994823 0
5.3220005 -2.5141799 0.59932363 0
5.3190002 -2.521548 0.59920454 0
5.0280004 -2.3917949 0.58765656 0
5.0180001 -2.395056 0.58725971 0
5.0100002 -2.3993022 0.58694226 0
5.0030003 -2.404032 0.58666444 0
4.9960003 -2.4087362 0.58638668 0
4.9910002 -2.4144471 0.58618826 0
4.9870005 -2.4206576 0.58602953 0
4.9840002 -2.4273732 0.58591044 0
4.9810004 -2.434078 0.58579141 0
4.9790001 -2.4412949 0.58571202 0
4.9780002 -2.4490297 0.58567238 0
4.9770002 -2.4567606 0.58563268 0
4.9780002 -2.4655452 0.58567238 0
4.9810004 -2.4753942 0.58579141 0
5.1390004 -2.1745136 0.5835132 0
5.1300001 -2.1790032 0.58317226 0
5.1220002 -2.1839132 0.58286923 0
5.1150002 -2.1892488 0.58260405 0
5.1100001 -2.195472 0.58241469 0
5.1060004 -2.2021353 0.58226317 0
5.1020002 -2.2087841 0.58211166 0
5.0990005 -2.2158804 0.58199799 0
5.0980005 -2.2238929 0.58196014 0
5.0970001 -2.2319016 0.58192223 0
5.0970001 -2.2403741 0.58192223 0
5.0980005 -2.2493157 0.58196014 0
5.1010003 -2.2592022 0.58207381 0
5.3760004 -2.4155979 0.59249079 0
5.3720002 -2.4226618 0.59233922 0
5.3690004 -2.4301908 0.59222561 0
5.3650002 -2.4372272 0.59207404 0
5.3610005 -2.4442496 0.59192258 0
5.3570004 -2.4512575 0.59177107 0
5.3530002 -2.4582508 0.59161949 0
5.3490005 -2.4652297 0.59146798 0
5.3450003 -2.4721942 0.59131646 0
5.3420005 -2.4796369 0.59120286 0
5.3380003 -2.4865742 0.59105134 0
5.3340001 -2.4934971 0.59089983 0
5.3300004 -2.5004058 0.59074831 0
5.3260002 -2.5072999 0.59059674 0
5.3220005 -2.5141799 0.59044528 0
5.3190002 -2.521548 0.59033161 0
5.0270004 -2.391288 0.57927066 0
5.0170002 -2.3945475 0.57889187 0
5.0090003 -2.3987918 0.57858878 0
5.0020003 -2.4035196 0.57832366 0
4.9960003 -2.4087362 0.57809639 0
4.9910002 -2.4144471 0.57790697 0
4.9870005 -2.4206576 0.57775545 0
4.9830003 -2.4268537 0.57760394 0
4.9800005 -2.4335568 0.57749033 0
4.9780002 -2.4407718 0.57741451 0
4.9770002 -2.4485047 0.57737666 0
4.9770002 -2.4567606 0.57737666 0
4.9780002 -2.4655452 0.57741451 0
4.9800005 -2.474864 0.57749033 0
5.1390004 -2.1745136 0.57496494 0
5.1300001 -2.1790032 0.57464027 0
5.1220002 -2.1839132 0.57435167 0
5.1160002 -2.1897032 0.57413518 0
5.1100001 -2.195472 0.5739187 0
5.1060004 -2.2021353 0.57377446 0
5.1020002 -2.2087841 0.57363015 0
5.1000004 -2.2163422 0.57355797 0
5.0980005 -2.2238929 0.57348585 0
5.0970001 -2.2319016 0.57344973 0
5.0970001 -2.2403741 0.57344973 0
5.0980005 -2.2493157 0.57348585 0
5.1010003 -2.2592022 0.57359409 0
5.3760004 -2.4155979 0.58351499 0
5.3720002 -2.4226618 0.58337069 0
5.3690004 -2.4301908 0.58326244 0
5.3650002 -2.4372272 0.5831182 0
5.3610005 -2.4442496 0.58297384 0
5.3570004 -2.4512575 0.58282959 0
5.3530002 -2.4582508 0.58268523 0
5.3490005 -2.4652297 0.58254099 0
5.3450003 -2.4721942 0.58239663 0
5.3420005 -2.4796369 0.58228844 0
5.3380003 -2.4865742 0.58214414 0
5.3340001 -2.4934971 0.58199978 0
5.3300004 -2.5004058 0.58185554 0
5.3260002 -2.5072999 0.58171117 0
5.3220005 -2.5141799 0.58156693 0
5.3190002 -2.521548 0.58145869 0
5.0270004 -2.391288 0.5709244 0
5.0170002 -2.3945475 0.57056367 0
5.0090003 -2.3987918 0.57027507 0
5.0020003 -2.4035196 0.57002252 0
4.9960003 -2.4087362 0.5698061 0
4.9910002 -2.4144471 0.56962568 0
4.9870005 -2.4206576 0.56948137 0
4.9830003 -2.4268537 0.56933707 0
4.9800005 -2.4335568 0.56922889 0
4.9780002 -2.4407718 0.56915665 0
4.9770002 -2.4485047 0.56912065 0
4.9770002 -2.4567606 0.56912065 0
4.9780002 -2.4655452 0.56915665 0
4.9800005 -2.474864 0.56922889 0
5.1400003 -2.1749625 0.56645095 0
5.1310005 -2.1794543 0.56614256 0
5.1230001 -2.184366 0.56586838 0
5.1160002 -2.1897032 0.56562841 0
5.1110005 -2.1959283 0.56545711 0
5.1070004 -2.2025936 0.56532001 0
5.1030002 -2.209244 0.56518292 0
5.1000004 -2.2163422 0.56508011 0
5.0990005 -2.2243564 0.56504583 0
5.0980005 -2.2323673 0.56501156 0
5.0980005 -2.2408414 0.56501156 0
5.0990005 -2.2497847 0.56504583 0
5.1020002 -2.2596731 0.56514865 0
5.3760004 -2.4155979 0.57453924 0
5.3720002 -2.4226618 0.57440215 0
5.3690004 -2.4301908 0.57429934 0
5.3650002 -2.4372272 0.57416224 0
5.3610005 -2.4442496 0.57402515 0
5.3570004 -2.4512575 0.57388806 0
5.3530002 -2.4582508 0.57375097 0
5.3490005 -2.4652297 0.57361388 0
5.3450003 -2.4721942 0.57347679 0
5.3420005 -2.4796369 0.57337403 0
5.3380003 -2.4865742 0.57323694 0
5.3340001 -2.4934971 0.57309985 0
5.3300004 -2.5004058 0.57296276 0
5.3260002 -2.5072999 0.57282567 0
5.3220005 -2.5141799 0.57268858 0
5.3190002 -2.521548 0.5725857 0
5.0290003 -2.3923018 0.56264675 0
5.0190005 -2.395565 0.56230402 0
5.0110002 -2.3998127 0.56202984 0
5.0040002 -2.4045441 0.56178993 0
4.9980001 -2.4097645 0.56158429 0
4.9930005 -2.4154789 0.56141293 0
4.9880004 -2.4211755 0.56124157 0
4.9850001 -2.4278924 0.56113875 0
4.9820004 -2.4345994 0.56103599 0
4.9800005 -2.441818 0.56096739 0
4.9790001 -2.4495544 0.56093311 0
4.9790001 -2.4578142 0.56093311 0
4.9800005 -2.4666023 0.56096739 0
4.9820004 -2.4759245 0.56103599 0
5.1430001 -2.1763101 0.5579983 0
5.1330004 -2.1803563 0.55767369 0
5.1250005 -2.1852715 0.55741394 0
5.1180005 -2.1906128 0.5571866 0
5.1130004 -2.196841 0.5570243 0
5.1090002 -2.2035098 0.55689442 0
5.1050005 -2.2101641 0.55676454 0
5.1020002 -2.2172656 0.55666709 0
5.1010003 -2.2252836 0.55663466 0
5.1000004 -2.2332978 0.55660218 0
5.1000004 -2.2417758 0.55660218 0
5.1020002 -2.2511916 0.55666709 0
5.1050005 -2.2610857 0.55676454 0
5.3760004 -2.4155979 0.5655635 0
5.3720002 -2.4226618 0.56543362 0
5.3690004 -2.4301908 0.56533623 0
5.3650002 -2.4372272 0.56520635 0
5.3610005 -2.4442496 0.56507647 0
5.3570004 -2.4512575 0.56494659 0
5.3530002 -2.4582508 0.56481671 0
5.3490005 -2.4652297 0.56468689 0
5.3450003 -2.4721942 0.56455696 0
5.3420005 -2.4796369 0.56445956 0
5.3380003 -2.4865742 0.56432968 0
5.3340001 -2.4934971 0.56419981 0
5.3300004 -2.5004058 0.56406999 0
5.3260002 -2.5072999 0.56394005 0
5.3220005 -2.5141799 0.56381023 0
5.3190002 -2.521548 0.56371278 0
5.0220003 -2.3970909 0.55406964 0
5.0140004 -2.4013443 0.55380988 0
5.0060005 -2.4055688 0.55355012 0
5.0000005 -2.4107926 0.55335534 0
4.9950004 -2.4165106 0.55319297 0
4.9910002 -2.4227283 0.55306309 0
4.9870005 -2.428932 0.55293328 0
4.9850001 -2.4361632 0.55286831 0
4.9830003 -2.4433875 0.5528034 0
4.9820004 -2.4511294 0.55277091 0
4.9820004 -2.4593945 0.55277091 0
4.9830003 -2.468188 0.5528034 0
4.9860005 -2.4780459 0.55290079 0
5.1370001 -2.1821599 0.54925889 0
5.1290002 -2.1870823 0.54901356 0
5.1220002 -2.1924307 0.54879892 0
5.1160002 -2.1982102 0.54861492 0
5.1120005 -2.2048845 0.54849225 0
5.1080003 -2.2115438 0.54836959 0
5.1060004 -2.2191129 0.54830825 0
5.1040001 -2.2266741 0.54824698 0
5.1030002 -2.234694 0.54821628 0
5.1040001 -2.2436445 0.54824698 0
5.1060004 -2.2530675 0.54830825 0
5.3760004 -2.4155979 0.55658776 0
5.3720002 -2.4226618 0.55646509 0
5.3690004 -2.4301908 0.55637312 0
5.3650002 -2.4372272 0.55625045 0
5.3610005 -2.4442496 0.55612779 0
5.3570004 -2.4512575 0.55600512 0
5.3530002 -2.4582508 0.55588245 0
5.3490005 -2.4652297 0.55575979 0
5.3450003 -2.4721942 0.55563712 0
5.3420005 -2.4796369 0.55554515 0
5.3380003 -2.4865742 0.55542248 0
5.3340001 -2.4934971 0.55529982 0
5.3300004 -2.5004058 0.55517721 0
5.3260002 -2.5072999 0.55505455 0
5.3220005 -2.5141799 0.55493188 0
5.3190002 -2.521548 0.55483985 0
5.0270004 -2.3996344 0.5458858 0
5.0180001 -2.4033861 0.54560977 0
5.0100002 -2.4076178 0.5453645 0
5.0040002 -2.4128489 0.5451805 0
4.9980001 -2.4180582 0.5449965 0
4.9940004 -2.4242816 0.54487383 0
4.9910002 -2.4310095 0.5447818 0
4.9880004 -2.4377272 0.54468983 0
4.9860005 -2.444957 0.5446285 0
4.9860005 -2.4532292 0.5446285 0
4.9860005 -2.4615014 0.5446285 0
4.9880004 -2.4708304 0.54468983 0
4.9920001 -2.4812276 0.5448125 0
5.1430001 -2.1848655 0.54088742 0
5.1340003 -2.1893461 0.54062766 0
5.1270003 -2.1947036 0.54042566 0
5.1210003 -2.2004921 0.54025245 0
5.1170001 -2.207175 0.54013705 0
5.1130004 -2.2138438 0.5400216 0
5.1100001 -2.2209597 0.53993499 0
5.1090002 -2.228992 0.53990614 0
5.1080003 -2.237021 0.5398773 0
5.1090002 -2.2459803 0.53990614 0
5.1130004 -2.2563508 0.5400216 0
5.3800001 -2.4085197 0.54772747 0
5.3760004 -2.4155979 0.54761201 0
5.3720002 -2.4226618 0.54749656 0
5.3690004 -2.4301908 0.54741001 0
5.3650002 -2.4372272 0.54729456 0
5.3610005 -2.4442496 0.5471791 0
5.3570004 -2.4512575 0.54706365 0
5.3530002 -2.4582508 0.54694819 0
5.3490005 -2.4652297 0.5468328 0
5.3450003 -2.4721942 0.54671729 0
5.3420005 -2.4796369 0.54663074 0
5.3380003 -2.4865742 0.54651529 0
5.3340001 -2.4934971 0.54639983 0
5.3300004 -2.5004058 0.54628444 0
5.3260002 -2.5072999 0.54616892 0
5.3220005 -2.5141799 0.54605353 0
5.3190002 -2.521548 0.54596692 0
5.3150005 -2.5284009 0.54585147 0
5.0240002 -2.4064491 0.53745294 0
5.0160003 -2.4106917 0.53722209 0
5.0090003 -2.4154193 0.53702003 0
5.0040002 -2.4211535 0.53687572 0
4.9990005 -2.4268699 0.53673148 0
4.9960003 -2.4336071 0.53664488 0
4.9930005 -2.4403336 0.53655827 0
4.9910002 -2.4475722 0.53650057 0
4.9910002 -2.4558535 0.53650057 0
4.9920001 -2.4646614 0.53652942 0
4.9950004 -2.4745302 0.53661597 0
5.1420002 -2.1929684 0.53230488 0
5.1340003 -2.1978855 0.5320884 0
5.1280003 -2.2036867 0.5319261 0
5.1230001 -2.209924 0.53179079 0
5.1190004 -2.2166038 0.53168261 0
5.1170001 -2.2241921 0.53162849 0
5.1160002 -2.2322371 0.53160143 0
5.1160002 -2.2407439 0.53160143 0
5.1180005 -2.2501853 0.53165555 0
5.3800001 -2.4085197 0.53874445 0
5.3760004 -2.4155979 0.53863627 0
5.3720002 -2.4226618 0.53852803 0
5.3690004 -2.4301908 0.53844684 0
5.3650002 -2.4372272 0.53833866 0
5.3610005 -2.4442496 0.53823042 0
5.3570004 -2.4512575 0.53812218 0
5.3530002 -2.4582508 0.53801394 0
5.3490005 -2.4652297 0.53790569 0
5.3450003 -2.4721942 0.53779751 0
5.3420005 -2.4796369 0.53771633 0
5.3380003 -2.4865742 0.53760809 0
5.3340001 -2.4934971 0.53749985 0
5.3300004 -2.5004058 0.53739166 0
5.3260002 -2.5072999 0.53728342 0
5.3220005 -2.5141799 0.53717518 0
5.3190002 -2.521548 0.537094 0
5.3150005 -2.5284009 0.53698575 0
5.0340004 -2.4115539 0.52938271 0
5.0240002 -2.4147899 0.52911216 0
5.0160003 -2.419018 0.52889568 0
5.0110002 -2.4247646 0.52876043 0
5.0060005 -2.4304938 0.52862513 0
5.0030003 -2.4372437 0.52854395 0
5.0000005 -2.4439828 0.52846277 0
4.9990005 -2.4517572 0.52843571 0
4.9990005 -2.4600527 0.52843571 0
5.0020003 -2.4699287 0.52851689 0
5.1450005 -2.2028859 0.52382702 0
5.1370001 -2.2077937 0.52362496 0
5.1320004 -2.2140477 0.52349871 0
5.1290002 -2.2212033 0.52342296 0
5.1260004 -2.2283483 0.5233472 0
5.1260004 -2.2368729 0.5233472 0
5.1270003 -2.2458632 0.52337241 0
5.3800001 -2.4085197 0.52976155 0
5.3760004 -2.4155979 0.52966052 0
5.3720002 -2.4226618 0.52955949 0
5.3690004 -2.4301908 0.52948374 0
5.3650002 -2.4372272 0.52938271 0
5.3610005 -2.4442496 0.52928174 0
5.3570004 -2.4512575 0.52918071 0
5.3530002 -2.4582508 0.52907968 0
5.3490005 -2.4652297 0.52897865 0
5.3450003 -2.4721942 0.52887768 0
5.3420005 -2.4796369 0.52880192 0
5.3380003 -2.4865742 0.52870089 0
5.3340001 -2.4934971 0.52859986 0
5.3300004 -2.5004058 0.52849889 0
5.3260002 -2.5072999 0.52839786 0
5.3220005 -2.5141799 0.52829683 0
5.3190002 -2.521548 0.52822107 0
5.3150005 -2.5284009 0.52812004 0
5.0280004 -2.4251871 0.52087235 0
5.0210004 -2.4299238 0.52069557 0
5.0150003 -2.4351532 0.52054405 0
5.0110002 -2.4413996 0.52044302 0
5.0090003 -2.4486744 0.52039254 0
5.0090003 -2.4569881 0.52039254 0
5.0110002 -2.4663515 0.52044302 0
5.1530004 -2.1979487 0.51545554 0
5.1430001 -2.2019763 0.515221 0
5.1360002 -2.2073374 0.51505685 0
5.1300001 -2.2131312 0.51491618 0
5.1260004 -2.2198236 0.51482236 0
5.1240005 -2.2274249 0.51477551 0
5.1230001 -2.2354822 0.51475203 0
5.1240005 -2.2444673 0.51477551 0
5.1280003 -2.2548568 0.51486927 0
5.3800001 -2.4085197 0.52077854 0
5.3760004 -2.4155979 0.52068478 0
5.3720002 -2.4226618 0.52059096 0
5.3690004 -2.4301908 0.52052063 0
5.3650002 -2.4372272 0.52042681 0
5.3610005 -2.4442496 0.52033305 0
5.3570004 -2.4512575 0.52023923 0
5.3530002 -2.4582508 0.52014542 0
5.3490005 -2.4652297 0.5200516 0
5.3450003 -2.4721942 0.51995784 0
5.3420005 -2.4796369 0.51988745 0
5.3380003 -2.4865742 0.51979369 0
5.3340001 -2.4934971 0.51969987 0
5.3300004 -2.5004058 0.51960611 0
5.3260002 -2.5072999 0.5195123 0
5.3220005 -2.5141799 0.51941848 0
5.3190002 -2.521548 0.51934814 0
5.3150005 -2.5284009 0.51925433 0
5.0280004 -2.4168389 0.51252431 0
5.0200005 -2.4210744 0.51233673 0
5.0130005 -2.4257967 0.51217258 0
5.0080004 -2.4315293 0.51205534 0
5.0050001 -2.4382825 0.511985 0
5.0020003 -2.4450252 0.51191467 0
5.0010004 -2.4528031 0.51189119 0
5.0020003 -2.4616277 0.51191467 0
5.0050001 -2.4715087 0.511985 0
5.1450005 -2.1943266 0.50670886 0
5.1370001 -2.199249 0.50653571 0
5.1300001 -2.2045994 0.50638419 0
5.1250005 -2.2108407 0.50627595 0
5.1210003 -2.2175236 0.50618935 0
5.1190004 -2.2251158 0.50614607 0
5.1170001 -2.2327008 0.5061028 0
5.1180005 -2.2416749 0.50612444 0
5.1200004 -2.2511196 0.50616771 0
5.3800001 -2.4085197 0.51179558 0
5.3760004 -2.4155979 0.51170903 0
5.3720002 -2.4226618 0.51162243 0
5.3690004 -2.4301908 0.51155752 0
5.3650002 -2.4372272 0.51147091 0
5.3610005 -2.4442496 0.51138431 0
5.3570004 -2.4512575 0.51129776 0
5.3530002 -2.4582508 0.51121116 0
5.3490005 -2.4652297 0.51112461 0
5.3450003 -2.4721942 0.51103801 0
5.3420005 -2.4796369 0.51097304 0
5.3380003 -2.4865742 0.51088649 0
5.3340001 -2.4934971 0.51079988 0
5.3300004 -2.5004058 0.51071334 0
5.3260002 -2.5072999 0.51062673 0
5.3220005 -2.5141799 0.51054013 0
5.3190002 -2.521548 0.51047522 0
5.3150005 -2.5284009 0.51038861 0
5.0320005 -2.410533 0.50426292 0
5.0220003 -2.4137652 0.50404644 0
5.0150003 -2.4185038 0.50389493 0
5.0090003 -2.4237332 0.50376505 0
5.0040002 -2.4294584 0.5036568 0
5.0000005 -2.4356852 0.5035702 0
4.9980001 -2.44294 0.50352693 0
4.9970002 -2.4507108 0.50350529 0
4.9960003 -2.458478 0.50348365 0
4.9980001 -2.4678216 0.50352693 0
5.1410003 -2.1925156 0.49807042 0
5.1330004 -2.1974308 0.49791169 0
5.1270003 -2.2032301 0.49779263 0
5.1220002 -2.209466 0.49769342 0
5.1180005 -2.2161436 0.49761406 0
5.1150002 -2.2232687 0.49755454 0
5.1140003 -2.2313101 0.49753469 0
5.1140003 -2.2398131 0.49753469 0
5.1160002 -2.2492507 0.49757436 0
5.3800001 -2.4085197 0.50281262 0
5.3760004 -2.4155979 0.50273323 0
5.3720002 -2.4226618 0.5026539 0
5.3690004 -2.4301908 0.50259435 0
5.3650002 -2.4372272 0.50251502 0
5.3610005 -2.4442496 0.50243562 0
5.3570004 -2.4512575 0.50235629 0
5.3530002 -2.4582508 0.5022769 0
5.3490005 -2.4652297 0.5021975 0
5.3450003 -2.4721942 0.50211817 0
5.3420005 -2.4796369 0.50205863 0
5.3380003 -2.4865742 0.50197929 0
5.3340001 -2.4934971 0.5018999 0
5.3300004 -2.5004058 0.50182056 0
5.3260002 -2.5072999 0.50174117 0
5.3220005 -2.5141799 0.50166178 0
5.3190002 -2.521548 0.50160229 0
5.3150005 -2.5284009 0.5015229 0
5.0280004 -2.4084911 0.49582827 0
5.0190005 -2.4122286 0.4956497 0
5.0120001 -2.4169617 0.49551082 0
5.0060005 -2.4221857 0.49539176 0
5.0010004 -2.4279053 0.49529254 0
4.9980001 -2.4346461 0.49523303 0
4.9950004 -2.4413762 0.49517351 0
4.9940004 -2.4491417 0.49515367 0
4.9940004 -2.4574285 0.49515367 0
4.9950004 -2.4662418 0.49517351 0
4.9980001 -2.4761155 0.49523303 0
5.1490002 -2.1875713 0.48966286 0
5.1390004 -2.1916101 0.48948249 0
5.1310005 -2.196522 0.48933819 0
5.1250005 -2.2023175 0.48922995 0
5.1200004 -2.2085497 0.48913977 0
5.1160002 -2.2152238 0.48906761 0
5.1140003 -2.2228069 0.48903155 0
5.1120005 -2.2303832 0.48899546 0
5.1120005 -2.2388825 0.48899546 0
5.1140003 -2.2483163 0.48903155 0
5.1180005 -2.2586954 0.48910367 0
5.3760004 -2.4155979 0.49375752 0
5.3720002 -2.4226618 0.49368536 0
5.3690004 -2.4301908 0.49363124 0
5.3650002 -2.4372272 0.49355909 0
5.3610005 -2.4442496 0.49348694 0
5.3570004 -2.4512575 0.49341479 0
5.3530002 -2.4582508 0.49334264 0
5.3490005 -2.4652297 0.49327049 0
5.3450003 -2.4721942 0.49319834 0
5.3420005 -2.4796369 0.49314421 0
5.3380003 -2.4865742 0.49307206 0
5.3340001 -2.4934971 0.49299991 0
5.3300004 -2.5004058 0.49292776 0
5.3260002 -2.5072999 0.49285561 0
5.3220005 -2.5141799 0.49278346 0
5.3190002 -2.521548 0.49272934 0
5.3150005 -2.5284009 0.49265718 0
5.0260005 -2.40747 0.48744419 0
5.0180001 -2.411716 0.48729986 0
5.0110002 -2.4164474 0.48717362 0
5.0050001 -2.4216695 0.48706537 0
5.0000005 -2.4273877 0.48697519 0
4.9970002 -2.4341266 0.48692107 0
4.9940004 -2.440855 0.48686695 0
4.9930005 -2.4486184 0.48684892 0
4.9920001 -2.4563782 0.48683089 0
4.9930005 -2.4651883 0.48684892 0
4.9960003 -2.4750586 0.48690304 0
5.1480002 -2.1871202 0.48108035 0
5.1380005 -2.1911576 0.48091799 0
5.1300001 -2.1960671 0.48078811 0
5.1240005 -2.2018611 0.48069072 0
5.1200004 -2.2085497 0.48062581 0
5.1160002 -2.2152238 0.48056084 0
5.1130004 -2.2223451 0.48051214 0
5.1120005 -2.2303832 0.48049593 0
5.1120005 -2.2388825 0.48049593 0
5.1130004 -2.2478492 0.48051214 0
5.1170001 -2.2582264 0.48057708 0
5.3760004 -2.4155979 0.48478177 0
5.3720002 -2.4226618 0.48471683 0
5.3690004 -2.4301908 0.48466814 0
5.3650002 -2.4372272 0.48460317 0
5.3610005 -2.4442496 0.48453826 0
5.3570004 -2.4512575 0.48447332 0
5.3530002 -2.4582508 0.48440838 0
5.3490005 -2.4652297 0.48434344 0
5.3450003 -2.4721942 0.4842785 0
5.3420005 -2.4796369 0.4842298 0
5.3380003 -2.4865742 0.48416486 0
5.3340001 -2.4934971 0.48409992 0
5.3300004 -2.5004058 0.48403499 0
5.3260002 -2.5072999 0.48397005 0
5.3220005 -2.5141799 0.48390511 0
5.3190002 -2.521548 0.48385641 0
5.3150005 -2.5284009 0.48379147 0
5.0260005 -2.40747 0.47909975 0
5.0170002 -2.4112039 0.47895366 0
5.0100002 -2.4159336 0.47884002 0
5.0050001 -2.4216695 0.47875884 0
5.0000005 -2.4273877 0.47867769 0
4.9970002 -2.4341266 0.47862896 0
4.9940004 -2.440855 0.47858027 0
4.9920001 -2.4480953 0.47854781 0
4.9920001 -2.4563782 0.47854781 0
4.9930005 -2.4651883 0.47856402 0
4.9960003 -2.4750586 0.47861272 0
5.1480002 -2.1871202 0.47251588 0
5.1380005 -2.1911576 0.47237158 0
5.1300001 -2.1960671 0.47225612 0
5.1240005 -2.2018611 0.47216955 0
5.1200004 -2.2085497 0.47211182 0
5.1160002 -2.2152238 0.47205409 0
5.1130004 -2.2223451 0.47201079 0
5.1120005 -2.2303832 0.47199637 0
5.1120005 -2.2388825 0.47199637 0
5.1130004 -2.2478492 0.47201079 0
5.1170001 -2.2582264 0.47206852 0
5.3760004 -2.4155979 0.475806 0
5.3720002 -2.4226618 0.4757483 0
5.3690004 -2.4301908 0.475705 0
5.3650002 -2.4372272 0.47564727 0
5.3610005 -2.4442496 0.47558957 0
5.3570004 -2.4512575 0.47553182 0
5.3530002 -2.4582508 0.47547412 0
5.3490005 -2.4652297 0.47541639 0
5.3450003 -2.4721942 0.47535866 0
5.3420005 -2.4796369 0.47531539 0
5.3380003 -2.4865742 0.47525766 0
5.3340001 -2.4934971 0.47519994 0
5.3300004 -2.5004058 0.47514221 0
5.3260002 -2.5072999 0.47508448 0
5.3220005 -2.5141799 0.47502679 0
5.3190002 -2.521548 0.47498348 0
5.3150005 -2.5284009 0.47492576 0
5.0260005 -2.40747 0.47075534 0
5.0170002 -2.4112039 0.47062546 0
5.0100002 -2.4159336 0.47052446 0
5.0050001 -2.4216695 0.47045231 0
5.0000005 -2.4273877 0.47038016 0
4.9970002 -2.4341266 0.47033685 0
4.9940004 -2.440855 0.47029358 0
4.9920001 -2.4480953 0.4702647 0
4.9920001 -2.4563782 0.4702647 0
4.9930005 -2.4651883 0.47027916 0
4.9960003 -2.4750586 0.47032243 0
5.1480002 -2.1871202 0.46395138 0
5.1380005 -2.1911576 0.46382511 0
5.1300001 -2.1960671 0.46372411 0
5.1240005 -2.2018611 0.46364835 0
5.1200004 -2.2085497 0.46359783 0
5.1160002 -2.2152238 0.46354732 0
5.1130004 -2.2223451 0.46350944 0
5.1120005 -2.2303832 0.46349683 0
5.1120005 -2.2388825 0.46349683 0
5.1130004 -2.2478492 0.46350944 0
5.1170001 -2.2582264 0.46355996 0
5.3760004 -2.4155979 0.46683025 0
5.3720002 -2.4226618 0.46677977 0
5.3690004 -2.4301908 0.46674186 0
5.3650002 -2.4372272 0.46669137 0
5.3610005 -2.4442496 0.46664086 0
5.3570004 -2.4512575 0.46659034 0
5.3530002 -2.4582508 0.46653986 0
5.3490005 -2.4652297 0.46648934 0
5.3450003 -2.4721942 0.46643883 0
5.3420005 -2.4796369 0.46640095 0
5.3380003 -2.4865742 0.46635044 0
5.3340001 -2.4934971 0.46629995 0
5.3300004 -2.5004058 0.46624944 0
5.3260002 -2.5072999 0.46619892 0
5.3220005 -2.5141799 0.46614844 0
5.3190002 -2.521548 0.46611056 0
5.0380001 -2.4052296 0.46256244 0
5.0260005 -2.40747 0.46241093 0
5.0170002 -2.4112039 0.46229729 0
5.0100002 -2.4159336 0.4622089 0
5.0050001 -2.4216695 0.46214578 0
5.0000005 -2.4273877 0.46208265 0
4.9970002 -2.4341266 0.46204475 0
4.9940004 -2.440855 0.46200687 0
4.9920001 -2.4480953 0.46198162 0
4.9920001 -2.4563782 0.46198162 0
4.9930005 -2.4651883 0.46199426 0
4.9960003 -2.4750586 0.46203214 0
5.1480002 -2.1871202 0.45538691 0
5.1380005 -2.1911576 0.45527866 0
5.1300001 -2.1960671 0.45519209 0
5.1240005 -2.2018611 0.45512715 0
5.1200004 -2.2085497 0.45508385 0
5.1160002 -2.2152238 0.45504057 0
5.1130004 -2.2223451 0.45500809 0
5.1120005 -2.2303832 0.45499727 0
5.1120005 -2.2388825 0.45499727 0
5.1130004 -2.2478492 0.45500809 0
5.1170001 -2.2582264 0.45505139 0
5.3760004 -2.4155979 0.45785451 0
5.3720002 -2.4226618 0.45781124 0
5.3690004 -2.4301908 0.45777875 0
5.3650002 -2.4372272 0.45773545 0
5.3610005 -2.4442496 0.45769218 0
5.3570004 -2.4512575 0.45764887 0
5.3530002 -2.4582508 0.4576056 0
5.3490005 -2.4652297 0.4575623 0
5.3450003 -2.4721942 0.45751899 0
5.3420005 -2.4796369 0.45748654 0
5.3380003 -2.4865742 0.45744324 0
5.3340001 -2.4934971 0.45739996 0
5.3300004 -2.5004058 0.45735666 0
5.3260002 -2.5072999 0.45731336 0
5.3220005 -2.5141799 0.45727009 0
5.3190002 -2.521548 0.4572376 0
5.0380001 -2.4052296 0.45419639 0
5.0260005 -2.40747 0.45406651 0
5.0170002 -2.4112039 0.45396912 0
5.0100002 -2.4159336 0.45389336 0
5.0050001 -2.4216695 0.45383924 0
5.0000005 -2.4273877 0.45378512 0
4.9970002 -2.4341266 0.45375264 0
4.9940004 -2.440855 0.45372018 0
4.9920001 -2.4480953 0.45369855 0
4.9920001 -2.4563782 0.45369855 0
4.9930005 -2.4651883 0.45370936 0
4.9960003 -2.4750586 0.45374182 0
5.1480002 -2.1871202 0.44682243 0
5.1380005 -2.1911576 0.44673222 0
5.1300001 -2.1960671 0.44666007 0
5.1240005 -2.2018611 0.44660598 0
5.1200004 -2.2085497 0.44656989 0
5.1160002 -2.2152238 0.4465338 0
5.1130004 -2.2223451 0.44650677 0
5.1120005 -2.2303832 0.44649774 0
5.1120005 -2.2388825 0.44649774 0
5.1130004 -2.2478492 0.44650677 0
5.1170001 -2.2582264 0.44654283 0
5.3720002 -2.4226618 0.44884267 0
5.3690004 -2.4301908 0.44881564 0
5.3650002 -2.4372272 0.44877955 0
5.3610005 -2.4442496 0.44874346 0
5.3570004 -2.4512575 0.4487074 0
5.3530002 -2.4582508 0.44867131 0
5.3490005 -2.4652297 0.44863525 0
5.3450003 -2.4721942 0.44859916 0
5.3420005 -2.4796369 0.44857213 0
5.3380003 -2.4865742 0.44853604 0
5.3340001 -2.4934971 0.44849998 0
5.3300004 -2.5004058 0.44846389 0
5.3260002 -2.5072999 0.4484278 0
5.3220005 -2.5141799 0.44839174 0
5.0380001 -2.4052296 0.44583032 0
5.0260005 -2.40747 0.4457221 0
5.0170002 -2.4112039 0.44564092 0
5.0100002 -2.4159336 0.4455778 0
5.0050001 -2.4216695 0.44553268 0
5.0000005 -2.4273877 0.44548762 0
4.9970002 -2.4341266 0.44546056 0
4.9940004 -2.440855 0.4454335 0
4.9920001 -2.4480953 0.44541544 0
4.9920001 -2.4563782 0.44541544 0
4.9930005 -2.4651883 0.44542447 0
4.9960003 -2.4750586 0.44545153 0
5.1480002 -2.1871202 0.43825793 0
5.1380005 -2.1911576 0.43818578 0
5.1300001 -2.1960671 0.43812805 0
5.1240005 -2.2018611 0.43808478 0
5.1200004 -2.2085497 0.4380559 0
5.1160002 -2.2152238 0.43802705 0
5.1130004 -2.2223451 0.43800542 0
5.1120005 -2.2303832 0.43799821 0
5.1120005 -2.2388825 0.43799821 0
5.1130004 -2.2478492 0.43800542 0
5.1170001 -2.2582264 0.43803427 0
5.3690004 -2.4301908 0.43985251 0
5.3650002 -2.4372272 0.43982366 0
5.3610005 -2.4442496 0.43979478 0
5.3570004 -2.4512575 0.43976593 0
5.3530002 -2.4582508 0.43973705 0
5.3490005 -2.4652297 0.4397082 0
5.3450003 -2.4721942 0.43967932 0
5.3420005 -2.4796369 0.43965769 0
5.3380003 -2.4865742 0.43962884 0
5.3340001 -2.4934971 0.43959996 0
5.3300004 -2.5004058 0.43957111 0
5.0380001 -2.4052296 0.43746427 0
5.0260005 -2.40747 0.43737769 0
5.0170002 -2.4112039 0.43731275 0
5.0100002 -2.4159336 0.43726224 0
5.0050001 -2.4216695 0.43722618 0
5.0000005 -2.4273877 0.43719009 0
4.9970002 -2.4341266 0.43716845 0
4.9940004 -2.440855 0.43714678 0
4.9920001 -2.4480953 0.43713236 0
4.9920001 -2.4563782 0.43713236 0
4.9930005 -2.4651883 0.43713957 0
4.9960003 -2.4750586 0.43716124 0
5.1480002 -2.1871202 0.42969346 0
5.1380005 -2.1911576 0.42963934 0
5.1300001 -2.1960671 0.42959607 0
5.1240005 -2.2018611 0.42956358 0
5.1200004 -2.2085497 0.42954195 0
5.1160002 -2.2152238 0.42952028 0
5.1130004 -2.2223451 0.42950407 0
5.1120005 -2.2303832 0.42949864 0
5.1120005 -2.2388825 0.42949864 0
5.1130004 -2.2478492 0.42950407 0
5.1170001 -2.2582264 0.4295257 0
5.0380001 -2.4052296 0.42909819 0
5.0260005 -2.40747 0.42903328 0
5.0170002 -2.4112039 0.42898455 0
5.0100002 -2.4159336 0.42894667 0
5.0050001 -2.4216695 0.42891961 0
5.0000005 -2.4273877 0.42889255 0
4.9970002 -2.4341266 0.42887634 0
4.9940004 -2.440855 0.4288601 0
4.9920001 -2.4480953 0.42884928 0
4.9920001 -2.4563782 0.42884928 0
4.9930005 -2.4651883 0.4288547 0
4.9960003 -2.4750586 0.42887092 0
5.1480002 -2.1871202 0.42112899 0
5.1380005 -2.1911576 0.4210929 0
5.1300001 -2.1960671 0.42106405 0
5.1240005 -2.2018611 0.42104238 0
5.1200004 -2.2085497 0.42102796 0
5.1160002 -2.2152238 0.42101353 0
5.1130004 -2.2223451 0.42100272 0
5.1120005 -2.2303832 0.42099911 0
5.1120005 -2.2388825 0.42099911 0
5.1130004 -2.2478492 0.42100272 0
5.1170001 -2.2582264 0.42101714 0
5.0380001 -2.4052296 0.42073214 0
5.0260005 -2.40747 0.42068884 0
5.0170002 -2.4112039 0.42065638 0
5.0100002 -2.4159336 0.42063111 0
5.0050001 -2.4216695 0.42061308 0
5.0000005 -2.4273877 0.42059505 0
4.9970002 -2.4341266 0.42058423 0
4.9940004 -2.440855 0.42057341 0
4.9920001 -2.4480953 0.4205662 0
4.9920001 -2.4563782 0.4205662 0
4.9930005 -2.4651883 0.42056981 0
4.9960003 -2.4750586 0.42058063 0
5.1480002 -2.1871202 0.41256449 0
5.1380005 -2.1911576 0.41254646 0
5.1300001 -2.1960671 0.41253203 0
5.1240005 -2.2018611 0.41252121 0
5.1200004 -2.2085497 0.412514 0
5.1160002 -2.2152238 0.41250676 0
5.1130004 -2.2223451 0.41250136 0
5.1120005 -2.2303832 0.41249955 0
5.1120005 -2.2388825 0.41249955 0
5.1130004 -2.2478492 0.41250136 0
5.1170001 -2.2582264 0.41250858 0
5.0380001 -2.4052296 0.41236606 0
5.0260005 -2.40747 0.41234443 0
5.0170002 -2.4112039 0.41232818 0
5.0100002 -2.4159336 0.41231558 0
5.0050001 -2.4216695 0.41230655 0
5.0000005 -2.4273877 0.41229755 0
4.9970002 -2.4341266 0.41229212 0
4.9940004 -2.440855 0.4122867 0
4.9920001 -2.4480953 0.41228309 0
4.9920001 -2.4563782 0.41228309 0
4.9930005 -2.4651883 0.41228491 0
4.9960003 -2.4750586 0.4122903 0
5.1480002 -2.1871202 0.40400001 0
5.1380005 -2.1911576 0.40400001 0
5.1300001 -2.1960671 0.40400001 0
5.1240005 -2.2018611 0.40400001 0
5.1200004 -2.2085497 0.40400001 0
5.1160002 -2.2152238 0.40400001 0
5.1130004 -2.2223451 0.40400001 0
5.1120005 -2.2303832 0.40400001 0
5.1120005 -2.2388825 0.40400001 0
5.1130004 -2.2478492 0.40400001 0
5.1170001 -2.2582264 0.40400001 0
5.0380001 -2.4052296 0.40400001 0
5.0260005 -2.40747 0.40400001 0
5.0170002 -2.4112039 0.40400001 0
5.0100002 -2.4159336 0.40400001 0
5.0050001 -2.4216695 0.40400001 0
5.0000005 -2.4273877 0.40400001 0
4.9970002 -2.4341266 0.40400001 0
4.9940004 -2.440855 0.40400001 0
4.9920001 -2.4480953 0.40400001 0
4.9920001 -2.4563782 0.40400001 0
4.9930005 -2.4651883 0.40400001 0
4.9960003 -2.4750586 0.40400001 0
5.1480002 -2.1871202 0.39543554 0
5.1380005 -2.1911576 0.39545357 0
5.1300001 -2.1960671 0.395468 0
5.1240005 -2.2018611 0.39547881 0
5.1200004 -2.2085497 0.39548603 0
5.1160002 -2.2152238 0.39549327 0
5.1130004 -2.2223451 0.39549866 0
5.1120005 -2.2303832 0.39550048 0
5.1120005 -2.2388825 0.39550048 0
5.1130004 -2.2478492 0.39549866 0
5.1170001 -2.2582264 0.39549145 0
5.0380001 -2.4052296 0.39563397 0
5.0260005 -2.40747 0.3956556 0
5.0170002 -2.4112039 0.39567184 0
5.0100002 -2.4159336 0.39568445 0
5.0050001 -2.4216695 0.39569348 0
5.0000005 -2.4273877 0.39570248 0
4.9970002 -2.4341266 0.39570791 0
4.9940004 -2.440855 0.39571333 0
4.9920001 -2.4480953 0.39571694 0
4.9920001 -2.4563782 0.39571694 0
4.9930005 -2.4651883 0.39571512 0
4.9960003 -2.4750586 0.39570972 0
5.1480002 -2.1871202 0.38687104 0
5.1380005 -2.1911576 0.38690713 0
5.1300001 -2.1960671 0.38693598 0
5.1240005 -2.2018611 0.38695765 0
5.1200004 -2.2085497 0.38697207 0
5.1160002 -2.2152238 0.38698649 0
5.1130004 -2.2223451 0.38699731 0
5.1120005 -2.2303832 0.38700092 0
5.1120005 -2.2388825 0.38700092 0
5.1130004 -2.2478492 0.38699731 0
5.1170001 -2.2582264 0.38698289 0
5.0380001 -2.4052296 0.38726789 0
5.0260005 -2.40747 0.38731119 0
5.0170002 -2.4112039 0.38734365 0
5.0100002 -2.4159336 0.38736892 0
5.0050001 -2.4216695 0.38738695 0
5.0000005 -2.4273877 0.38740498 0
4.9970002 -2.4341266 0.3874158 0
4.9940004 -2.440855 0.38742661 0
4.9920001 -2.4480953 0.38743383 0
4.9920001 -2.4563782 0.38743383 0
4.9930005 -2.4651883 0.38743022 0
4.9960003 -2.4750586 0.3874194 0
5.1480002 -2.1871202 0.37830657 0
5.1380005 -2.1911576 0.37836069 0
5.1300001 -2.1960671 0.37840396 0
5.1240005 -2.2018611 0.37843645 0
5.1200004 -2.2085497 0.37845808 0
5.1160002 -2.2152238 0.37847975 0
5.1130004 -2.2223451 0.37849596 0
5.1120005 -2.2303832 0.37850139 0
5.1120005 -2.2388825 0.37850139 0
5.1130004 -2.2478492 0.37849596 0
5.1170001 -2.2582264 0.37847432 0
5.0380001 -2.4052296 0.37890184 0
5.0260005 -2.40747 0.37896675 0
5.0170002 -2.4112039 0.37901548 0
5.0100002 -2.4159336 0.37905335 0
5.0050001 -2.4216695 0.37908041 0
5.0000005 -2.4273877 0.37910748 0
4.9970002 -2.4341266 0.37912369 0
4.9940004 -2.440855 0.37913993 0
4.9920001 -2.4480953 0.37915075 0
4.9920001 -2.4563782 0.37915075 0
4.9930005 -2.4651883 0.37914532 0
4.9960003 -2.4750586 0.37912911 0
5.1480002 -2.1871202 0.3697421 0
5.1380005 -2.1911576 0.36981425 0
5.1300001 -2.1960671 0.36987197 0
5.1240005 -2.2018611 0.36991525 0
5.1200004 -2.2085497 0.36994413 0
5.1160002 -2.2152238 0.36997297 0
5.1130004 -2.2223451 0.36999461 0
5.1120005 -2.2303832 0.37000182 0
5.1120005 -2.2388825 0.37000182 0
5.1130004 -2.2478492 0.36999461 0
5.1170001 -2.2582264 0.36996576 0
5.0380001 -2.4052296 0.37053576 0
5.0260005 -2.40747 0.37062234 0
5.0170002 -2.4112039 0.37068728 0
5.0100002 -2.4159336 0.37073779 0
5.0050001 -2.4216695 0.37077385 0
5.0000005 -2.4273877 0.37080994 0
4.9970002 -2.4341266 0.37083158 0
4.9940004 -2.440855 0.37085325 0
4.9920001 -2.4480953 0.37086767 0
4.9920001 -2.4563782 0.37086767 0
4.9930005 -2.4651883 0.37086046 0
4.9960003 -2.4750586 0.37083879 0
5.1480002 -2.1871202 0.36117759 0
5.1380005 -2.1911576 0.36126781 0
5.1300001 -2.1960671 0.36133996 0
5.1240005 -2.2018611 0.36139405 0
5.1200004 -2.2085497 0.36143014 0
5.1160002 -2.2152238 0.36146623 0
5.1130004 -2.2223451 0.36149326 0
5.1120005 -2.2303832 0.36150229 0
5.1120005 -2.2388825 0.36150229 0
5.1130004 -2.2478492 0.36149326 0
5.1170001 -2.2582264 0.3614572 0
5.0380001 -2.4052296 0.36216971 0
5.0260005 -2.40747 0.36227793 0
5.0170002 -2.4112039 0.36235911 0
5.0100002 -2.4159336 0.36242223 0
5.0050001 -2.4216695 0.36246735 0
5.0000005 -2.4273877 0.36251241 0
4.9970002 -2.4341266 0.36253947 0
4.9940004 -2.440855 0.36256653 0
4.9920001 -2.4480953 0.36258459 0
4.9920001 -2.4563782 0.36258459 0
4.9930005 -2.4651883 0.36257556 0
4.9960003 -2.4750586 0.3625485 0
5.1480002 -2.1871202 0.35261312 0
5.1380005 -2.1911576 0.35272136 0
5.1300001 -2.1960671 0.35280794 0
5.1240005 -2.2018611 0.35287288 0
5.1200004 -2.2085497 0.35291618 0
5.1160002 -2.2152238 0.35295945 0
5.1130004 -2.2223451 0.35299194 0
5.1120005 -2.2303832 0.35300276 0
5.1120005 -2.2388825 0.35300276 0
5.1130004 -2.2478492 0.35299194 0
5.1170001 -2.2582264 0.35294864 0
5.0380001 -2.4052296 0.35380363 0
5.0260005 -2.40747 0.35393351 0
5.0170002 -2.4112039 0.35403091 0
5.0100002 -2.4159336 0.35410666 0
5.0050001 -2.4216695 0.35416079 0
5.0000005 -2.4273877 0.35421491 0
4.9970002 -2.4341266 0.35424739 0
4.9940004 -2.440855 0.35427985 0
4.9920001 -2.4480953 0.35430148 0
4.9920001 -2.4563782 0.35430148 0
4.9930005 -2.4651883 0.35429066 0
4.9960003 -2.4750586 0.35425821 0
5.1480002 -2.1871202 0.34404865 0
5.1380005 -2.1911576 0.34417492 0
5.1300001 -2.1960671 0.34427592 0
5.1240005 -2.2018611 0.34435168 0
5.1200004 -2.2085497 0.34440219 0
5.1160002 -2.2152238 0.34445271 0
5.1130004 -2.2223451 0.34449059 0
5.1120005 -2.2303832 0.34450319 0
5.1120005 -2.2388825 0.34450319 0
5.1130004 -2.2478492 0.34449059 0
5.1170001 -2.2582264 0.34444007 0
5.0380001 -2.4052296 0.34543759 0
5.0260005 -2.40747 0.3455891 0
5.0170002 -2.4112039 0.34570274 0
5.0100002 -2.4159336 0.34579113 0
5.0050001 -2.4216695 0.34585425 0
5.0000005 -2.4273877 0.34591737 0
4.9970002 -2.4341266 0.34595528 0
4.9940004 -2.440855 0.34599316 0
4.9920001 -2.4480953 0.3460184 0
4.9920001 -2.4563782 0.3460184 0
4.9930005 -2.4651883 0.34600577 0
4.9960003 -2.4750586 0.34596789 0
5.1480002 -2.1871202 0.33548415 0
5.1380005 -2.1911576 0.33562845 0
5.1300001 -2.1960671 0.3357439 0
5.1240005 -2.2018611 0.33583048 0
5.1200004 -2.2085497 0.33588821 0
5.1160002 -2.2152238 0.33594593 0
5.1130004 -2.2223451 0.33598924 0
5.1120005 -2.2303832 0.33600366 0
5.1120005 -2.2388825 0.33600366 0
5.1130004 -2.2478492 0.33598924 0
5.1170001 -2.2582264 0.33593151 0
5.0380001 -2.4052296 0.33707151 0
5.0260005 -2.40747 0.33724469 0
5.0170002 -2.4112039 0.33737457 0
5.0100002 -2.4159336 0.33747557 0
5.0050001 -2.4216695 0.33754772 0
5.0000005 -2.4273877 0.33761987 0
4.9970002 -2.4341266 0.33766317 0
4.9940004 -2.440855 0.33770645 0
4.9920001 -2.4480953 0.33773533 0
4.9920001 -2.4563782 0.33773533 0
4.9930005 -2.4651883 0.33772087 0
4.9960003 -2.4750586 0.3376776 0
5.1480002 -2.1871202 0.32691967 0
5.1380005 -2.1911576 0.32708204 0
5.1300001 -2.1960671 0.32721192 0
5.1240005 -2.2018611 0.32730931 0
5.1200004 -2.2085497 0.32737422 0
5.1160002 -2.2152238 0.32743919 0
5.1130004 -2.2223451 0.32748789 0
5.1120005 -2.2303832 0.3275041 0
5.1120005 -2.2388825 0.3275041 0
5.1130004 -2.2478492 0.32748789 0
5.1170001 -2.2582264 0.32742295 0
5.0380001 -2.4052296 0.32870546 0
5.0260005 -2.40747 0.32890028 0
5.0170002 -2.4112039 0.32904637 0
5.0100002 -2.4159336 0.32916 0
5.0050001 -2.4216695 0.32924119 0
5.0000005 -2.4273877 0.32932234 0
4.9970002 -2.4341266 0.32937106 0
4.9940004 -2.440855 0.32941976 0
4.9920001 -2.4480953 0.32945222 0
4.9920001 -2.4563782 0.32945222 0
4.9930005 -2.4651883 0.329436 0
4.9960003 -2.4750586 0.32938731 0
5.1480002 -2.1871202 0.3183552 0
5.1380005 -2.1911576 0.31853557 0
5.1300001 -2.1960671 0.3186799 0
5.1240005 -2.2018611 0.31878811 0
5.1200004 -2.2085497 0.31886026 0
5.1160002 -2.2152238 0.31893241 0
5.1130004 -2.2223451 0.31898654 0
5.1120005 -2.2303832 0.31900457 0
5.1120005 -2.2388825 0.31900457 0
5.1130004 -2.2478492 0.31898654 0
5.1170001 -2.2582264 0.31891438 0
5.0380001 -2.4052296 0.32033938 0
5.0260005 -2.40747 0.32055584 0
5.0170002 -2.4112039 0.3207182 0
5.0100002 -2.4159336 0.32084447 0
5.0050001 -2.4216695 0.32093465 0
5.0000005 -2.4273877 0.32102484 0
4.9970002 -2.4341266 0.32107896 0
4.9940004 -2.440855 0.32113308 0
4.9920001 -2.4480953 0.32116914 0
4.9920001 -2.4563782 0.32116914 0
4.9930005 -2.4651883 0.32115111 0
4.9960003 -2.4750586 0.32109699 0
5.1480002 -2.1871202 0.30979073 0
5.1380005 -2.1911576 0.30998912 0
5.1300001 -2.1960671 0.31014788 0
5.1240005 -2.2018611 0.31026691 0
5.1200004 -2.2085497 0.31034631 0
5.1160002 -2.2152238 0.31042567 0
5.1130004 -2.2223451 0.31048518 0
5.1120005 -2.2303832 0.31050503 0
5.1120005 -2.2388825 0.31050503 0
5.1130004 -2.2478492 0.31048518 0
5.1170001 -2.2582264 0.31040582 0
5.0380001 -2.4052296 0.31197333 0
5.0260005 -2.40747 0.31221142 0
5.0170002 -2.4112039 0.31239 0
5.0100002 -2.4159336 0.31252891 0
5.0050001 -2.4216695 0.31262812 0
5.0000005 -2.4273877 0.3127273 0
4.9970002 -2.4341266 0.31278685 0
4.9940004 -2.440855 0.31284636 0
4.9920001 -2.4480953 0.31288606 0
4.9920001 -2.4563782 0.31288606 0
4.9930005 -2.4651883 0.31286621 0
4.9960003 -2.4750586 0.31280667 0
5.1480002 -2.1871202 0.30122623 0
5.1380005 -2.1911576 0.30144268 0
5.1300001 -2.1960671 0.30161586 0
5.1240005 -2.2018611 0.30174574 0
5.1200004 -2.2085497 0.30183232 0
5.1160002 -2.2152238 0.30191889 0
5.1130004 -2.2223451 0.30198383 0
5.1120005 -2.2303832 0.30200547 0
5.1120005 -2.2388825 0.30200547 0
5.1130004 -2.2478492 0.30198383 0
5.1170001 -2.2582264 0.30189726 0
5.0380001 -2.4052296 0.30360729 0
5.0260005 -2.40747 0.30386701 0
5.0170002 -2.4112039 0.30406183 0
5.0100002 -2.4159336 0.30421335 0
5.0050001 -2.4216695 0.30432159 0
5.0000005 -2.4273877 0.3044298 0
4.9970002 -2.4341266 0.30449474 0
4.9940004 -2.440855 0.30455968 0
4.9920001 -2.4480953 0.30460298 0
4.9920001 -2.4563782 0.30460298 0
4.9930005 -2.4651883 0.30458131 0
4.9960003 -2.4750586 0.30451638 0
5.1480002 -2.1871202 0.29266176 0
5.1380005 -2.1911576 0.29289624 0
5.1300001 -2.1960671 0.29308385 0
5.1240005 -2.2018611 0.29322454 0
5.1200004 -2.2085497 0.29331833 0
5.1160002 -2.2152238 0.29341215 0
5.1130004 -2.2223451 0.29348248 0
5.1120005 -2.2303832 0.29350594 0
5.1120005 -2.2388825 0.29350594 0
5.1130004 -2.2478492 0.29348248 0
5.1170001 -2.2582264 0.29338869 0
5.0380001 -2.4052296 0.29524121 0
5.0260005 -2.40747 0.2955226 0
5.0170002 -2.4112039 0.29573363 0
5.0100002 -2.4159336 0.29589778 0
5.0050001 -2.4216695 0.29601502 0
5.0000005 -2.4273877 0.29613227 0
4.9970002 -2.4341266 0.29620263 0
4.9940004 -2.440855 0.29627299 0
4.9920001 -2.4480953 0.2963199 0
4.9920001 -2.4563782 0.2963199 0
4.9930005 -2.4651883 0.29629642 0
4.9960003 -2.4750586 0.29622608 0
5.1480002 -2.1871202 0.28409728 0
5.1380005 -2.1911576 0.2843498 0
5.1300001 -2.1960671 0.28455183 0
5.1240005 -2.2018611 0.28470334 0
5.1200004 -2.2085497 0.28480437 0
5.1160002 -2.2152238 0.28490537 0
5.1130004 -2.2223451 0.28498113 0
5.1120005 -2.2303832 0.2850064 0
5.1120005 -2.2388825 0.2850064 0
5.1130004 -2.2478492 0.28498113 0
5.1170001 -2.2582264 0.28488013 0
5.0380001 -2.4052296 0.28687513 0
5.0260005 -2.40747 0.28717816 0
5.0170002 -2.4112039 0.28740546 0
5.0100002 -2.4159336 0.28758222 0
5.0050001 -2.4216695 0.28770849 0
5.0000005 -2.4273877 0.28783476 0
4.9970002 -2.4341266 0.28791052 0
4.9940004 -2.440855 0.28798628 0
4.9920001 -2.4480953 0.28803679 0
4.9920001 -2.4563782 0.28803679 0
4.9930005 -2.4651883 0.28801155 0
4.9960003 -2.4750586 0.28793579 0
5.1480002 -2.1871202 0.27553278 0
5.1380005 -2.1911576 0.27580336 0
5.1300001 -2.1960671 0.27601981 0
5.1240005 -2.2018611 0.27618217 0
5.1200004 -2.2085497 0.27629039 0
5.1160002 -2.2152238 0.27639863 0
5.1130004 -2.2223451 0.27647978 0
5.1120005 -2.2303832 0.27650684 0
5.1120005 -2.2388825 0.27650684 0
5.1130004 -2.2478492 0.27647978 0
5.1170001 -2.2582264 0.27637157 0
5.0380001 -2.4052296 0.27850908 0
5.0260005 -2.40747 0.27883375 0
5.0170002 -2.4112039 0.27907726 0
5.0100002 -2.4159336 0.27926669 0
5.0050001 -2.4216695 0.27940196 0
5.0000005 -2.4273877 0.27953723 0
4.9970002 -2.4341266 0.27961841 0
4.9940004 -2.440855 0.27969959 0
4.9920001 -2.4480953 0.27975371 0
4.9920001 -2.4563782 0.27975371 0
4.9930005 -2.4651883 0.27972665 0
4.9960003 -2.4750586 0.27964547 0
5.1480002 -2.1871202 0.26696831 0
5.1380005 -2.1911576 0.26725692 0
5.1300001 -2.1960671 0.26748782 0
5.1240005 -2.2018611 0.26766098 0
5.1200004 -2.2085497 0.26777643 0
5.1160002 -2.2152238 0.26789188 0
5.1130004 -2.2223451 0.26797843 0
5.1120005 -2.2303832 0.26800728 0
5.1120005 -2.2388825 0.26800728 0
5.1130004 -2.2478492 0.26797843 0
5.1170001 -2.2582264 0.26786301 0
5.0380001 -2.4052296 0.27014303 0
5.0260005 -2.40747 0.27048934 0
5.0170002 -2.4112039 0.27074909 0
5.0100002 -2.4159336 0.27095112 0
5.0050001 -2.4216695 0.27109542 0
5.0000005 -2.4273877 0.27123973 0
4.9970002 -2.4341266 0.2713263 0
4.9940004 -2.440855 0.27141291 0
4.9920001 -2.4480953 0.27147061 0
4.9920001 -2.4563782 0.27147061 0
4.9930005 -2.4651883 0.27144176 0
4.9960003 -2.4750586 0.27135515 0
5.1480002 -2.1871202 0.25840384 0
5.1380005 -2.1911576 0.25871047 0
5.1300001 -2.1960671 0.25895578 0
5.1240005 -2.2018611 0.25913978 0
5.1200004 -2.2085497 0.25926244 0
5.1160002 -2.2152238 0.25938511 0
5.1130004 -2.2223451 0.25947708 0
5.1120005 -2.2303832 0.25950778 0
5.1120005 -2.2388825 0.25950778 0
5.1130004 -2.2478492 0.25947708 0
5.1170001 -2.2582264 0.25935444 0
5.0380001 -2.4052296 0.26177695 0
5.0260005 -2.40747 0.26214492 0
5.0170002 -2.4112039 0.26242092 0
5.0100002 -2.4159336 0.26263556 0
5.0050001 -2.4216695 0.26278889 0
5.0000005 -2.4273877 0.26294219 0
4.9970002 -2.4341266 0.26303422 0
4.9940004 -2.440855 0.26312619 0
4.9920001 -2.4480953 0.26318753 0
4.9920001 -2.4563782 0.26318753 0
4.9930005 -2.4651883 0.26315686 0
4.9960003 -2.4750586 0.26306486 0
5.1480002 -2.1871202 0.24983935 0
5.1380005 -2.1911576 0.25016403 0
5.1300001 -2.1960671 0.25042379 0
5.1240005 -2.2018611 0.25061858 0
5.1200004 -2.2085497 0.25074846 0
5.1160002 -2.2152238 0.25087833 0
5.1130004 -2.2223451 0.25097573 0
5.1120005 -2.2303832 0.25100821 0
5.1120005 -2.2388825 0.25100821 0
5.1130004 -2.2478492 0.25097573 0
5.1170001 -2.2582264 0.25084588 0
5.0380001 -2.4052296 0.25341088 0
5.0260005 -2.40747 0.25380051 0
5.0170002 -2.4112039 0.25409272 0
5.0100002 -2.4159336 0.25432003 0
5.0050001 -2.4216695 0.25448236 0
5.0000005 -2.4273877 0.25464469 0
4.9970002 -2.4341266 0.25474209 0
4.9940004 -2.440855 0.25483948 0
4.9920001 -2.4480953 0.25490445 0
4.9920001 -2.4563782 0.25490445 0
4.9930005 -2.4651883 0.25487196 0
4.9960003 -2.4750586 0.25477457 0
5.1480002 -2.1871202 0.24127486 0
5.1380005 -2.1911576 0.24161758 0
5.1300001 -2.1960671 0.24189177 0
5.1240005 -2.2018611 0.24209739 0
5.1200004 -2.2085497 0.24223448 0
5.1160002 -2.2152238 0.24237159 0
5.1130004 -2.2223451 0.24247439 0
5.1120005 -2.2303832 0.24250866 0
5.1120005 -2.2388825 0.24250866 0
5.1130004 -2.2478492 0.24247439 0
5.1170001 -2.2582264 0.24233732 0
5.0380001 -2.4052296 0.24504483 0
5.0260005 -2.40747 0.2454561 0
5.0170002 -2.4112039 0.24576455 0
5.0100002 -2.4159336 0.24600445 0
5.0050001 -2.4216695 0.24617581 0
5.0000005 -2.4273877 0.24634716 0
4.9970002 -2.4341266 0.24644999 0
4.9940004 -2.440855 0.24655281 0
4.9920001 -2.4480953 0.24662136 0
4.9920001 -2.4563782 0.24662136 0
4.9930005 -2.4651883 0.24658708 0
4.9960003 -2.4750586 0.24648426 0
5.1480002 -2.1871202 0.23271038 0
5.1380005 -2.1911576 0.23307113 0
5.1300001 -2.1960671 0.23335977 0
5.1240005 -2.2018611 0.23357619 0
5.1200004 -2.2085497 0.23372051 0
5.1160002 -2.2152238 0.23386483 0
5.1130004 -2.2223451 0.23397304 0
5.1120005 -2.2303832 0.23400913 0
5.1120005 -2.2388825 0.23400913 0
5.1130004 -2.2478492 0.23397304 0
5.1170001 -2.2582264 0.23382875 0
5.0380001 -2.4052296 0.23667876 0
5.0260005 -2.40747 0.23711167 0
5.0170002 -2.4112039 0.23743637 0
5.0100002 -2.4159336 0.2376889 0
5.0050001 -2.4216695 0.23786929 0
5.0000005 -2.4273877 0.23804966 0
4.9970002 -2.4341266 0.23815788 0
4.9940004 -2.440855 0.23826611 0
4.9920001 -2.4480953 0.23833828 0
4.9920001 -2.4563782 0.23833828 0
4.9930005 -2.4651883 0.23830219 0
4.9960003 -2.4750586 0.23819396 0
5.1480002 -2.1871202 0.2241459 0
5.1380005 -2.1911576 0.22452469 0
5.1300001 -2.1960671 0.22482775 0
5.1240005 -2.2018611 0.22505501 0
5.1200004 -2.2085497 0.22520654 0
5.1160002 -2.2152238 0.22535807 0
5.1130004 -2.2223451 0.22547169 0
5.1120005 -2.2303832 0.22550957 0
5.1120005 -2.2388825 0.22550957 0
5.1130004 -2.2478492 0.22547169 0
5.1170001 -2.2582264 0.22532019 0
5.0380001 -2.4052296 0.2283127 0
5.0260005 -2.40747 0.22876725 0
5.0170002 -2.4112039 0.22910818 0
5.0100002 -2.4159336 0.22937334 0
5.0050001 -2.4216695 0.22956274 0
5.0000005 -2.4273877 0.22975214 0
4.9970002 -2.4341266 0.22986579 0
4.9940004 -2.440855 0.22997941 0
4.9920001 -2.4480953 0.23005518 0
4.9920001 -2.4563782 0.23005518 0
4.9930005 -2.4651883 0.23001729 0
4.9960003 -2.4750586 0.22990365 0
5.1480002 -2.1871202 0.21558143 0
5.1380005 -2.1911576 0.21597825 0
5.1300001 -2.1960671 0.21629575 0
5.1240005 -2.2018611 0.21653382 0
5.1200004 -2.2085497 0.21669257 0
5.1160002 -2.2152238 0.21685131 0
5.1130004 -2.2223451 0.21697035 0
5.1120005 -2.2303832 0.21701004 0
5.1120005 -2.2388825 0.21701004 0
5.1130004 -2.2478492 0.21697035 0
5.1170001 -2.2582264 0.21681163 0
5.0380001 -2.4052296 0.21994664 0
5.0260005 -2.40747 0.22042283 0
5.0170002 -2.4112039 0.22078 0
5.0100002 -2.4159336 0.22105779 0
5.0050001 -2.4216695 0.22125621 0
5.0000005 -2.4273877 0.22145461 0
4.9970002 -2.4341266 0.22157368 0
4.9940004 -2.440855 0.22169271 0
4.9920001 -2.4480953 0.22177209 0
4.9920001 -2.4563782 0.22177209 0
4.9930005 -2.4651883 0.22173241 0
4.9960003 -2.4750586 0.22161335 0
5.1480002 -2.1871202 0.20701694 0
5.1380005 -2.1911576 0.20743181 0
5.1300001 -2.1960671 0.20776373 0
5.1240005 -2.2018611 0.20801264 0
5.1200004 -2.2085497 0.20817859 0
5.1160002 -2.2152238 0.20834455 0
5.1130004 -2.2223451 0.208469 0
5.1120005 -2.2303832 0.20851049 0
5.1120005 -2.2388825 0.20851049 0
5.1130004 -2.2478492 0.208469 0
5.1170001 -2.2582264 0.20830306 0
5.0380001 -2.4052296 0.21158057 0
5.0260005 -2.40747 0.21207842 0
5.0170002 -2.4112039 0.21245182 0
5.0100002 -2.4159336 0.21274222 0
5.0050001 -2.4216695 0.21294968 0
5.0000005 -2.4273877 0.21315709 0
4.9970002 -2.4341266 0.21328157 0
4.9940004 -2.440855 0.21340603 0
4.9920001 -2.4480953 0.21348901 0
4.9920001 -2.4563782 0.21348901 0
4.9930005 -2.4651883 0.21344751 0
4.9960003 -2.4750586 0.21332304 0
5.1480002 -2.1871202 0.19845246 0
5.1380005 -2.1911576 0.19888537 0
5.1300001 -2.1960671 0.1992317 0
5.1240005 -2.2018611 0.19949146 0
5.1200004 -2.2085497 0.19966462 0
5.1160002 -2.2152238 0.19983779 0
5.1130004 -2.2223451 0.19996765 0
5.1120005 -2.2303832 0.20001094 0
5.1120005 -2.2388825 0.20001094 0
5.1130004 -2.2478492 0.19996765 0
5.1170001 -2.2582264 0.1997945 0
5.0380001 -2.4052296 0.20321453 0
5.0260005 -2.40747 0.203734 0
5.0170002 -2.4112039 0.20412365 0
5.0100002 -2.4159336 0.20442668 0
5.0050001 -2.4216695 0.20464313 0
5.0000005 -2.4273877 0.20485958 0
4.9970002 -2.4341266 0.20498946 0
4.9940004 -2.440855 0.20511933 0
4.9920001 -2.4480953 0.20520593 0
4.9920001 -2.4563782 0.20520593 0
4.9930005 -2.4651883 0.20516261 0
4.9960003 -2.4750586 0.20503277 0
5.1480002 -2.1871202 0.18988799 0
5.1380005 -2.1911576 0.19033891 0
5.1300001 -2.1960671 0.1906997 0
5.1240005 -2.2018611 0.19097024 0
5.1200004 -2.2085497 0.19115064 0
5.1160002 -2.2152238 0.19133103 0
5.1130004 -2.2223451 0.19146632 0
5.1120005 -2.2303832 0.19151139 0
5.1120005 -2.2388825 0.19151139 0
5.1130004 -2.2478492 0.19146632 0
5.1170001 -2.2582264 0.19128594 0
5.0380001 -2.4052296 0.19484846 0
5.0260005 -2.40747 0.19538958 0
5.0170002 -2.4112039 0.19579545 0
5.0100002 -2.4159336 0.19611113 0
5.0050001 -2.4216695 0.1963366 0
5.0000005 -2.4273877 0.19656207 0
4.9970002 -2.4341266 0.19669735 0
4.9940004 -2.440855 0.19683264 0
4.9920001 -2.4480953 0.19692284 0
4.9920001 -2.4563782 0.19692284 0
4.9930005 -2.4651883 0.19687772 0
4.9960003 -2.4750586 0.19674246 0
5.1480002 -2.1871202 0.1813235 0
5.1380005 -2.1911576 0.18179248 0
5.1300001 -2.1960671 0.18216768 0
5.1240005 -2.2018611 0.18244906 0
5.1200004 -2.2085497 0.18263666 0
5.1160002 -2.2152238 0.18282427 0
5.1130004 -2.2223451 0.18296495 0
5.1120005 -2.2303832 0.18301186 0
5.1120005 -2.2388825 0.18301186 0
5.1130004 -2.2478492 0.18296495 0
5.1170001 -2.2582264 0.18277737 0
5.0380001 -2.4052296 0.1864824 0
5.0260005 -2.40747 0.18704517 0
5.0170002 -2.4112039 0.18746728 0
5.0100002 -2.4159336 0.18779556 0
5.0050001 -2.4216695 0.18803006 0
5.0000005 -2.4273877 0.18826455 0
4.9970002 -2.4341266 0.18840525 0
4.9940004 -2.440855 0.18854594 0
4.9920001 -2.4480953 0.18863976 0
4.9920001 -2.4563782 0.18863976 0
4.9930005 -2.4651883 0.18859282 0
4.9960003 -2.4750586 0.18845215 0
5.1480002 -2.1871202 0.17275903 0
