# .PCD v0.7 - Point Cloud Data file format
VERSION 0.7
FIELDS x y z intensity
SIZE 4 4 4 4
TYPE F F F F
COUNT 1 1 1 1
WIDTH 1496
HEIGHT 1
VIEWPOINT 0 0 0 1 0 0 0
POINTS 1496
DATA ascii
4.2070003 1.9729269 0.32846195 0
4.211 1.9681737 0.32838255 0
4.2140002 1.9628794 0.32832304 0
4.2179999 1.9580994 0.32824367 0
4.2220001 1.9533051 0.32816431 0
4.2250004 1.9479747 0.32810479 0
4.2290001 1.9431531 0.3280254 0
4.2330003 1.9383171 0.32794604 0
4.2360001 1.9329509 0.32788652 0
4.2400002 1.9280877 0.32780716 0
4.244 1.9232103 0.32772779 0
4.2470002 1.9178078 0.32766825 0
4.2509999 1.9129033 0.32758889 0
4.2550001 1.9079844 0.32750952 0
4.2590003 1.9030508 0.32743016 0
4.2620001 1.8975997 0.32737064 0
4.2660003 1.8926393 0.32729125 0
4.27 1.8876643 0.32721192 0
4.2740002 1.8826749 0.32713252 0
4.277 1.8771752 0.32707301 0
4.2810001 1.8721589 0.32699364 0
4.2850003 1.8671281 0.32691428 0
4.289 1.8620828 0.32683492 0
4.2930002 1.8570231 0.32675552 0
4.296 1.8514619 0.32669601 0
4.3000002 1.8463751 0.32661664 0
4.3040004 1.8412741 0.32653725 0
4.3080001 1.8361584 0.32645792 0
4.3120003 1.8310283 0.32637852 0
4.316 1.8258839 0.32629919 0
4.3190002 1.820249 0.32623965 0
4.323 1.8150773 0.32616028 0
4.3270001 1.8098913 0.32608092 0
4.3310003 1.8046911 0.32600155 0
4.335 1.7994761 0.32592216 0
4.3390002 1.7942469 0.3258428 0
4.3429999 1.7890033 0.32576343 0
4.3470001 1.7837453 0.32568407 0
4.3500004 1.778011 0.32562453 0
4.3540001 1.7727258 0.32554519 0
4.3580003 1.7674261 0.3254658 0
4.362 1.7621121 0.32538646 0
4.3660002 1.7567836 0.32530707 0
4.3700004 1.7514409 0.32522771 0
4.3740001 1.7460835 0.32514834 0
4.3780003 1.7407117 0.32506898 0
4.382 1.7353255 0.32498962 0
4.3860002 1.7299249 0.32491022 0
4.3900003 1.72451 0.32483086 0
4.3940001 1.7190804 0.3247515 0
4.3980002 1.7136365 0.32467213 0
4.4020004 1.7081783 0.32459277 0
4.4060001 1.7027055 0.32451341 0
4.1220002 2.0889802 0.32343471 0
4.125 2.083982 0.3233698 0
4.1290002 2.0795426 0.3232832 0
4.132 2.0745208 0.32321829 0
4.1360002 2.0700545 0.32313168 0
4.1389999 2.0650094 0.32306674 0
4.1430001 2.0605161 0.32298017 0
4.1460004 2.0554476 0.32291523 0
4.1500001 2.0509272 0.32282865 0
4.1530004 2.045835 0.32276371 0
4.1570001 2.0412874 0.32267714 0
4.1600003 2.0361719 0.3226122 0
4.164 2.0315974 0.32252562 0
4.1670003 2.0264585 0.32246065 0
4.171 2.0218568 0.32237408 0
4.1750002 2.017241 0.3222875 0
4.178 2.0120659 0.32222256 0
4.1820002 2.0074229 0.32213598 0
4.1849999 2.0022242 0.32207105 0
4.1890001 1.9975543 0.32198447 0
4.1930003 1.9928699 0.32189786 0
4.1960001 1.9876351 0.32183295 0
4.2000003 1.9829235 0.32174635 0
4.2030001 1.9776654 0.32168144 0
4.2070003 1.9729269 0.32159483 0
4.211 1.9681737 0.32150826 0
4.2140002 1.9628794 0.32144332 0
4.2179999 1.9580994 0.32135674 0
4.2220001 1.9533051 0.32127017 0
4.2250004 1.9479747 0.3212052 0
4.2290001 1.9431531 0.32111862 0
4.2330003 1.9383171 0.32103205 0
4.2360001 1.9329509 0.32096711 0
4.2400002 1.9280877 0.32088053 0
4.244 1.9232103 0.32079396 0
4.2470002 1.9178078 0.32072902 0
4.2509999 1.9129033 0.32064241 0
4.2550001 1.9079844 0.32055584 0
4.2590003 1.9030508 0.32046926 0
4.2620001 1.8975997 0.32040432 0
4.2660003 1.8926393 0.32031775 0
4.27 1.8876643 0.32023117 0
4.2740002 1.8826749 0.32014459 0
4.277 1.8771752 0.32007962 0
4.2810001 1.8721589 0.31999305 0
4.2850003 1.8671281 0.31990647 0
4.289 1.8620828 0.3198199 0
4.2930002 1.8570231 0.31973332 0
4.296 1.8514619 0.31966835 0
4.3000002 1.8463751 0.31958178 0
4.3040004 1.8412741 0.3194952 0
4.3080001 1.8361584 0.31940863 0
4.3120003 1.8310283 0.31932205 0
4.316 1.8258839 0.31923544 0
4.3190002 1.820249 0.31917053 0
4.323 1.8150773 0.31908393 0
4.3270001 1.8098913 0.31899735 0
4.3310003 1.8046911 0.31891078 0
4.335 1.7994761 0.3188242 0
4.3390002 1.7942469 0.31873763 0
4.3429999 1.7890033 0.31865102 0
4.3470001 1.7837453 0.31856444 0
4.3500004 1.778011 0.31849951 0
4.3540001 1.7727258 0.31841293 0
4.3580003 1.7674261 0.31832635 0
4.362 1.7621121 0.31823975 0
4.3660002 1.7567836 0.31815317 0
4.3700004 1.7514409 0.3180666 0
4.3740001 1.7460835 0.31797999 0
4.3780003 1.7407117 0.31789345 0
4.382 1.7353255 0.31780684 0
4.3860002 1.7299249 0.31772026 0
4.3900003 1.72451 0.31763369 0
4.3940001 1.7190804 0.31754708 0
4.3980002 1.7136365 0.31746051 0
4.4020004 1.7081783 0.31737393 0
4.4060001 1.7027055 0.31728736 0
4.1220002 2.0889802 0.31672096 0
4.125 2.083982 0.3166506 0
4.1290002 2.0795426 0.31655681 0
4.132 2.0745208 0.31648645 0
4.1360002 2.0700545 0.31639266 0
4.1389999 2.0650094 0.3163223 0
4.1430001 2.0605161 0.31622851 0
4.1460004 2.0554476 0.31615815 0
4.1500001 2.0509272 0.31606436 0
4.1530004 2.045835 0.31599402 0
4.1570001 2.0412874 0.31590021 0
4.1600003 2.0361719 0.31582987 0
4.164 2.0315974 0.31573606 0
4.1670003 2.0264585 0.31566572 0
4.171 2.0218568 0.3155719 0
4.1750002 2.017241 0.31547815 0
4.178 2.0120659 0.31540778 0
4.1820002 2.0074229 0.31531399 0
4.1849999 2.0022242 0.31524363 0
4.1890001 1.9975543 0.31514984 0
4.1930003 1.9928699 0.31505603 0
4.1960001 1.9876351 0.31498569 0
4.2000003 1.9829235 0.31489187 0
4.2030001 1.9776654 0.31482154 0
4.2070003 1.9729269 0.31472775 0
4.211 1.9681737 0.31463394 0
4.2140002 1.9628794 0.3145636 0
4.2179999 1.9580994 0.31446978 0
4.2220001 1.9533051 0.314376 0
4.2250004 1.9479747 0.31430566 0
4.2290001 1.9431531 0.31421185 0
4.2330003 1.9383171 0.31411806 0
4.2360001 1.9329509 0.31404769 0
4.2400002 1.9280877 0.31395391 0
4.244 1.9232103 0.31386012 0
4.2470002 1.9178078 0.31378976 0
4.2509999 1.9129033 0.31369597 0
4.2550001 1.9079844 0.31360215 0
4.2590003 1.9030508 0.31350836 0
4.2620001 1.8975997 0.31343803 0
4.2660003 1.8926393 0.31334421 0
4.27 1.8876643 0.31325042 0
4.2740002 1.8826749 0.31315663 0
4.277 1.8771752 0.31308627 0
4.2810001 1.8721589 0.31299248 0
4.2850003 1.8671281 0.31289867 0
4.289 1.8620828 0.31280488 0
4.2930002 1.8570231 0.31271109 0
4.296 1.8514619 0.31264073 0
4.3000002 1.8463751 0.31254694 0
4.3040004 1.8412741 0.31245315 0
4.3080001 1.8361584 0.31235933 0
4.3120003 1.8310283 0.31226555 0
4.316 1.8258839 0.31217176 0
4.3190002 1.820249 0.31210139 0
4.323 1.8150773 0.31200761 0
4.3270001 1.8098913 0.31191379 0
4.3310003 1.8046911 0.31182 0
4.335 1.7994761 0.31172621 0
4.3390002 1.7942469 0.31163239 0
4.3429999 1.7890033 0.31153861 0
4.3470001 1.7837453 0.31144482 0
4.3500004 1.778011 0.31137446 0
4.3540001 1.7727258 0.31128067 0
4.3580003 1.7674261 0.31118685 0
4.362 1.7621121 0.31109306 0
4.3660002 1.7567836 0.31099927 0
4.3700004 1.7514409 0.31090546 0
4.3740001 1.7460835 0.31081167 0
4.3780003 1.7407117 0.31071788 0
4.382 1.7353255 0.31062406 0
4.3860002 1.7299249 0.31053028 0
4.3900003 1.72451 0.31043649 0
4.3940001 1.7190804 0.31034267 0
4.3980002 1.7136365 0.31024888 0
4.4020004 1.7081783 0.31015509 0
4.4060001 1.7027055 0.31006131 0
4.1220002 2.0889802 0.31000718 0
4.125 2.083982 0.30993143 0
4.1290002 2.0795426 0.3098304 0
4.132 2.0745208 0.30975464 0
4.1360002 2.0700545 0.30965364 0
4.1389999 2.0650094 0.30957788 0
4.1430001 2.0605161 0.30947685 0
4.1460004 2.0554476 0.30940109 0
4.1500001 2.0509272 0.30930007 0
4.1530004 2.045835 0.30922431 0
4.1570001 2.0412874 0.30912331 0
4.1600003 2.0361719 0.30904755 0
4.164 2.0315974 0.30894655 0
4.1670003 2.0264585 0.30887079 0
4.171 2.0218568 0.30876976 0
4.1750002 2.017241 0.30866873 0
4.178 2.0120659 0.30859298 0
4.1820002 2.0074229 0.30849198 0
4.1849999 2.0022242 0.30841622 0
4.1890001 1.9975543 0.30831519 0
4.1930003 1.9928699 0.30821419 0
4.1960001 1.9876351 0.30813843 0
4.2000003 1.9829235 0.3080374 0
4.2030001 1.9776654 0.30796164 0
4.2070003 1.9729269 0.30786064 0
4.211 1.9681737 0.30775964 0
4.2140002 1.9628794 0.30768389 0
4.2179999 1.9580994 0.30758286 0
4.2220001 1.9533051 0.30748183 0
4.2250004 1.9479747 0.30740607 0
4.2290001 1.9431531 0.30730507 0
4.2330003 1.9383171 0.30720407 0
4.2360001 1.9329509 0.30712831 0
4.2400002 1.9280877 0.30702728 0
4.244 1.9232103 0.30692628 0
4.2470002 1.9178078 0.30685052 0
4.2509999 1.9129033 0.30674949 0
4.2550001 1.9079844 0.30664849 0
4.2590003 1.9030508 0.30654746 0
4.2620001 1.8975997 0.30647171 0
4.2660003 1.8926393 0.30637071 0
4.27 1.8876643 0.30626971 0
4.2740002 1.8826749 0.30616868 0
4.277 1.8771752 0.30609292 0
4.2810001 1.8721589 0.30599189 0
4.2850003 1.8671281 0.30589089 0
4.289 1.8620828 0.30578989 0
4.2930002 1.8570231 0.30568886 0
4.296 1.8514619 0.3056131 0
4.3000002 1.8463751 0.30551207 0
4.3040004 1.8412741 0.30541107 0
4.3080001 1.8361584 0.30531007 0
4.3120003 1.8310283 0.30520904 0
4.316 1.8258839 0.30510804 0
4.3190002 1.820249 0.30503228 0
4.323 1.8150773 0.30493125 0
4.3270001 1.8098913 0.30483025 0
4.3310003 1.8046911 0.30472922 0
4.335 1.7994761 0.30462822 0
4.3390002 1.7942469 0.30452719 0
4.3429999 1.7890033 0.30442619 0
4.3470001 1.7837453 0.30432516 0
4.3500004 1.778011 0.30424941 0
4.3540001 1.7727258 0.30414841 0
4.3580003 1.7674261 0.30404741 0
4.362 1.7621121 0.30394638 0
4.3660002 1.7567836 0.30384538 0
4.3700004 1.7514409 0.30374435 0
4.3740001 1.7460835 0.30364335 0
4.3780003 1.7407117 0.30354232 0
4.382 1.7353255 0.30344132 0
4.3860002 1.7299249 0.30334029 0
4.3900003 1.72451 0.30323929 0
4.3940001 1.7190804 0.30313826 0
4.3980002 1.7136365 0.30303726 0
4.4020004 1.7081783 0.30293626 0
4.4060001 1.7027055 0.30283523 0
4.1220002 2.0889802 0.30329341 0
4.125 2.083982 0.30321223 0
4.1290002 2.0795426 0.30310401 0
4.132 2.0745208 0.30302283 0
4.1360002 2.0700545 0.30291462 0
4.1389999 2.0650094 0.30283344 0
4.1430001 2.0605161 0.3027252 0
4.1460004 2.0554476 0.30264401 0
4.1500001 2.0509272 0.3025358 0
4.1530004 2.045835 0.30245462 0
4.1570001 2.0412874 0.30234641 0
4.1600003 2.0361719 0.30226523 0
4.164 2.0315974 0.30215698 0
4.1670003 2.0264585 0.30207583 0
4.171 2.0218568 0.30196759 0
4.1750002 2.017241 0.30185938 0
4.178 2.0120659 0.3017782 0
4.1820002 2.0074229 0.30166999 0
4.1849999 2.0022242 0.3015888 0
4.1890001 1.9975543 0.30148059 0
4.1930003 1.9928699 0.30137235 0
4.1960001 1.9876351 0.30129117 0
4.2000003 1.9829235 0.30118293 0
4.2030001 1.9776654 0.30110177 0
4.2070003 1.9729269 0.30099356 0
4.211 1.9681737 0.30088532 0
4.2140002 1.9628794 0.30080414 0
4.2179999 1.9580994 0.30069593 0
4.2220001 1.9533051 0.30058768 0
4.2250004 1.9479747 0.30050653 0
4.2290001 1.9431531 0.30039829 0
4.2330003 1.9383171 0.30029005 0
4.2360001 1.9329509 0.30020887 0
4.2400002 1.9280877 0.30010065 0
4.244 1.9232103 0.29999244 0
4.2470002 1.9178078 0.29991126 0
4.2509999 1.9129033 0.29980305 0
4.2550001 1.9079844 0.29969481 0
4.2590003 1.9030508 0.29958659 0
4.2620001 1.8975997 0.29950541 0
4.2660003 1.8926393 0.29939717 0
4.27 1.8876643 0.29928893 0
4.2740002 1.8826749 0.29918072 0
4.277 1.8771752 0.29909956 0
4.2810001 1.8721589 0.29899132 0
4.2850003 1.8671281 0.29888308 0
4.289 1.8620828 0.29877487 0
4.2930002 1.8570231 0.29866663 0
4.296 1.8514619 0.29858547 0
4.3000002 1.8463751 0.29847723 0
4.3040004 1.8412741 0.29836899 0
4.3080001 1.8361584 0.29826078 0
4.3120003 1.8310283 0.29815254 0
4.316 1.8258839 0.29804432 0
4.3190002 1.820249 0.29796314 0
4.323 1.8150773 0.29785493 0
4.3270001 1.8098913 0.29774669 0
4.3310003 1.8046911 0.29763848 0
4.335 1.7994761 0.29753023 0
4.3390002 1.7942469 0.29742199 0
4.3429999 1.7890033 0.29731378 0
4.3470001 1.7837453 0.29720554 0
4.3500004 1.778011 0.29712439 0
4.3540001 1.7727258 0.29701614 0
4.3580003 1.7674261 0.2969079 0
4.362 1.7621121 0.29679969 0
4.3660002 1.7567836 0.29669148 0
4.3700004 1.7514409 0.29658324 0
4.3740001 1.7460835 0.29647499 0
4.3780003 1.7407117 0.29636678 0
4.382 1.7353255 0.29625854 0
4.3860002 1.7299249 0.29615033 0
4.3900003 1.72451 0.29604208 0
4.3940001 1.7190804 0.29593387 0
4.3980002 1.7136365 0.29582563 0
4.4020004 1.7081783 0.29571739 0
4.4060001 1.7027055 0.29560918 0
4.1220002 2.0889802 0.29657963 0
4.125 2.083982 0.29649305 0
4.1290002 2.0795426 0.2963776 0
4.132 2.0745208 0.29629102 0
4.1360002 2.0700545 0.29617557 0
4.1389999 2.0650094 0.29608899 0
4.1430001 2.0605161 0.29597354 0
4.1460004 2.0554476 0.29588696 0
4.1500001 2.0509272 0.29577151 0
4.1530004 2.045835 0.29568493 0
4.1570001 2.0412874 0.29556948 0
4.1600003 2.0361719 0.2954829 0
4.164 2.0315974 0.29536748 0
4.1670003 2.0264585 0.29528087 0
4.171 2.0218568 0.29516545 0
4.1750002 2.017241 0.29505 0
4.178 2.0120659 0.29496342 0
4.1820002 2.0074229 0.29484797 0
4.1849999 2.0022242 0.29476139 0
4.1890001 1.9975543 0.29464594 0
4.1930003 1.9928699 0.29453051 0
4.1960001 1.9876351 0.29444391 0
4.2000003 1.9829235 0.29432848 0
4.2030001 1.9776654 0.29424191 0
4.2070003 1.9729269 0.29412645 0
4.211 1.9681737 0.294011 0
4.2140002 1.9628794 0.29392442 0
4.2179999 1.9580994 0.293809 0
4.2220001 1.9533051 0.29369354 0
4.2250004 1.9479747 0.29360694 0
4.2290001 1.9431531 0.29349151 0
4.2330003 1.9383171 0.29337606 0
4.2360001 1.9329509 0.29328948 0
4.2400002 1.9280877 0.29317403 0
4.244 1.9232103 0.2930586 0
4.2470002 1.9178078 0.29297203 0
4.2509999 1.9129033 0.29285657 0
4.2550001 1.9079844 0.29274112 0
4.2590003 1.9030508 0.29262567 0
4.2620001 1.8975997 0.29253909 0
4.2660003 1.8926393 0.29242367 0
4.27 1.8876643 0.29230821 0
4.2740002 1.8826749 0.29219276 0
4.277 1.8771752 0.29210618 0
4.2810001 1.8721589 0.29199073 0
4.2850003 1.8671281 0.2918753 0
4.289 1.8620828 0.29175985 0
4.2930002 1.8570231 0.29164439 0
4.296 1.8514619 0.29155782 0
4.3000002 1.8463751 0.29144239 0
4.3040004 1.8412741 0.29132694 0
4.3080001 1.8361584 0.29121149 0
4.3120003 1.8310283 0.29109603 0
4.316 1.8258839 0.29098061 0
4.3190002 1.820249 0.29089403 0
4.323 1.8150773 0.29077858 0
4.3270001 1.8098913 0.29066312 0
4.3310003 1.8046911 0.2905477 0
4.335 1.7994761 0.29043224 0
4.3390002 1.7942469 0.29031682 0
4.3429999 1.7890033 0.29020137 0
4.3470001 1.7837453 0.29008591 0
4.3500004 1.778011 0.28999934 0
4.3540001 1.7727258 0.28988388 0
4.3580003 1.7674261 0.28976846 0
4.362 1.7621121 0.289653 0
4.3660002 1.7567836 0.28953755 0
4.3700004 1.7514409 0.28942209 0
4.3740001 1.7460835 0.28930667 0
4.3780003 1.7407117 0.28919125 0
4.382 1.7353255 0.28907579 0
4.3860002 1.7299249 0.28896034 0
4.3900003 1.72451 0.28884488 0
4.3940001 1.7190804 0.28872946 0
4.3980002 1.7136365 0.288614 0
4.4020004 1.7081783 0.28849855 0
4.4060001 1.7027055 0.28838313 0
4.1220002 2.0889802 0.28986585 0
4.125 2.083982 0.28977385 0
4.1290002 2.0795426 0.28965122 0
4.132 2.0745208 0.28955922 0
4.1360002 2.0700545 0.28943655 0
4.1389999 2.0650094 0.28934455 0
4.1430001 2.0605161 0.28922188 0
4.1460004 2.0554476 0.28912988 0
4.1500001 2.0509272 0.28900725 0
4.1530004 2.045835 0.28891525 0
4.1570001 2.0412874 0.28879258 0
4.1600003 2.0361719 0.28870058 0
4.164 2.0315974 0.28857794 0
4.1670003 2.0264585 0.28848594 0
4.171 2.0218568 0.28836328 0
4.1750002 2.017241 0.28824061 0
4.178 2.0120659 0.28814861 0
4.1820002 2.0074229 0.28802598 0
4.1849999 2.0022242 0.28793398 0
4.1890001 1.9975543 0.28781131 0
4.1930003 1.9928699 0.28768867 0
4.1960001 1.9876351 0.28759664 0
4.2000003 1.9829235 0.28747401 0
4.2030001 1.9776654 0.28738201 0
4.2070003 1.9729269 0.28725934 0
4.211 1.9681737 0.28713667 0
4.2140002 1.9628794 0.2870447 0
4.2179999 1.9580994 0.28692204 0
4.2220001 1.9533051 0.28679937 0
4.2250004 1.9479747 0.2867074 0
4.2290001 1.9431531 0.28658473 0
4.2330003 1.9383171 0.28646207 0
4.2360001 1.9329509 0.28637007 0
4.2400002 1.9280877 0.28624743 0
4.244 1.9232103 0.28612477 0
4.2470002 1.9178078 0.28603277 0
4.2509999 1.9129033 0.2859101 0
4.2550001 1.9079844 0.28578743 0
4.2590003 1.9030508 0.2856648 0
4.2620001 1.8975997 0.28557277 0
4.2660003 1.8926393 0.28545013 0
4.27 1.8876643 0.28532746 0
4.2740002 1.8826749 0.28520483 0
4.277 1.8771752 0.2851128 0
4.2810001 1.8721589 0.28499016 0
4.2850003 1.8671281 0.2848675 0
4.289 1.8620828 0.28474483 0
4.2930002 1.8570231 0.28462219 0
4.296 1.8514619 0.28453019 0
4.3000002 1.8463751 0.28440753 0
4.3040004 1.8412741 0.28428486 0
4.3080001 1.8361584 0.28416222 0
4.3120003 1.8310283 0.28403956 0
4.316 1.8258839 0.28391689 0
4.3190002 1.820249 0.28382489 0
4.323 1.8150773 0.28370225 0
4.3270001 1.8098913 0.28357959 0
4.3310003 1.8046911 0.28345692 0
4.335 1.7994761 0.28333426 0
4.3390002 1.7942469 0.28321159 0
4.3429999 1.7890033 0.28308895 0
4.3470001 1.7837453 0.28296629 0
4.3500004 1.778011 0.28287429 0
4.3540001 1.7727258 0.28275162 0
4.3580003 1.7674261 0.28262898 0
4.362 1.7621121 0.28250632 0
4.3660002 1.7567836 0.28238365 0
4.3700004 1.7514409 0.28226098 0
4.3740001 1.7460835 0.28213835 0
4.3780003 1.7407117 0.28201568 0
4.382 1.7353255 0.28189301 0
4.3860002 1.7299249 0.28177035 0
4.3900003 1.72451 0.28164771 0
4.3940001 1.7190804 0.28152505 0
4.3980002 1.7136365 0.28140238 0
4.4020004 1.7081783 0.28127971 0
4.4060001 1.7027055 0.28115708 0
4.1220002 2.0889802 0.28315207 0
4.125 2.083982 0.28305468 0
4.1290002 2.0795426 0.2829248 0
4.132 2.0745208 0.28282738 0
4.1360002 2.0700545 0.28269753 0
4.1389999 2.0650094 0.2826001 0
4.1430001 2.0605161 0.28247023 0
4.1460004 2.0554476 0.28237283 0
4.1500001 2.0509272 0.28224295 0
4.1530004 2.045835 0.28214556 0
4.1570001 2.0412874 0.28201568 0
4.1600003 2.0361719 0.28191826 0
4.164 2.0315974 0.28178841 0
4.1670003 2.0264585 0.28169101 0
4.171 2.0218568 0.28156111 0
4.1750002 2.017241 0.28143126 0
4.178 2.0120659 0.28133383 0
4.1820002 2.0074229 0.28120396 0
4.1849999 2.0022242 0.28110656 0
4.1890001 1.9975543 0.28097668 0
4.1930003 1.9928699 0.2808468 0
4.1960001 1.9876351 0.28074941 0
4.2000003 1.9829235 0.28061953 0
4.2030001 1.9776654 0.28052214 0
4.2070003 1.9729269 0.28039226 0
4.211 1.9681737 0.28026238 0
4.2140002 1.9628794 0.28016499 0
4.2179999 1.9580994 0.28003511 0
4.2220001 1.9533051 0.27990523 0
4.2250004 1.9479747 0.27980781 0
4.2290001 1.9431531 0.27967793 0
4.2330003 1.9383171 0.27954808 0
4.2360001 1.9329509 0.27945065 0
4.2400002 1.9280877 0.27932078 0
4.244 1.9232103 0.27919093 0
4.2470002 1.9178078 0.2790935 0
4.2509999 1.9129033 0.27896363 0
4.2550001 1.9079844 0.27883375 0
4.2590003 1.9030508 0.27870387 0
4.2620001 1.8975997 0.27860647 0
4.2660003 1.8926393 0.2784766 0
4.27 1.8876643 0.27834672 0
4.2740002 1.8826749 0.27821684 0
4.277 1.8771752 0.27811944 0
4.2810001 1.8721589 0.27798957 0
4.2850003 1.8671281 0.27785969 0
4.289 1.8620828 0.27772981 0
4.2930002 1.8570231 0.27759993 0
4.296 1.8514619 0.27750254 0
4.3000002 1.8463751 0.27737266 0
4.3040004 1.8412741 0.27724281 0
4.3080001 1.8361584 0.27711293 0
4.3120003 1.8310283 0.27698305 0
4.316 1.8258839 0.2768532 0
4.3190002 1.820249 0.27675578 0
4.323 1.8150773 0.2766259 0
4.3270001 1.8098913 0.27649602 0
4.3310003 1.8046911 0.27636614 0
4.335 1.7994761 0.2762363 0
4.3390002 1.7942469 0.27610642 0
4.3429999 1.7890033 0.27597654 0
4.3470001 1.7837453 0.27584666 0
4.3500004 1.778011 0.27574927 0
4.3540001 1.7727258 0.27561939 0
4.3580003 1.7674261 0.27548951 0
4.362 1.7621121 0.27535963 0
4.3660002 1.7567836 0.27522975 0
4.3700004 1.7514409 0.27509987 0
4.3740001 1.7460835 0.27497 0
4.3780003 1.7407117 0.27484012 0
4.382 1.7353255 0.27471024 0
4.3860002 1.7299249 0.27458036 0
4.3900003 1.72451 0.27445048 0
4.3940001 1.7190804 0.27432063 0
4.3980002 1.7136365 0.27419075 0
4.4020004 1.7081783 0.2740609 0
4.4060001 1.7027055 0.27393103 0
4.1220002 2.0889802 0.2764383 0
4.125 2.083982 0.27633548 0
4.1290002 2.0795426 0.27619839 0
4.132 2.0745208 0.27609557 0
4.1360002 2.0700545 0.27595848 0
4.1389999 2.0650094 0.27585566 0
4.1430001 2.0605161 0.27571857 0
4.1460004 2.0554476 0.27561575 0
4.1500001 2.0509272 0.27547866 0
4.1530004 2.045835 0.27537584 0
4.1570001 2.0412874 0.27523875 0
4.1600003 2.0361719 0.27513593 0
4.164 2.0315974 0.27499884 0
4.1670003 2.0264585 0.27489603 0
4.171 2.0218568 0.27475896 0
4.1750002 2.017241 0.27462187 0
4.178 2.0120659 0.27451903 0
4.1820002 2.0074229 0.27438197 0
4.1849999 2.0022242 0.27427915 0
4.1890001 1.9975543 0.27414206 0
4.1930003 1.9928699 0.27400497 0
4.1960001 1.9876351 0.27390212 0
4.2000003 1.9829235 0.27376506 0
4.2030001 1.9776654 0.27366224 0
4.2070003 1.9729269 0.27352518 0
4.211 1.9681737 0.27338806 0
4.2140002 1.9628794 0.27328524 0
4.2179999 1.9580994 0.27314818 0
4.2220001 1.9533051 0.27301109 0
4.2250004 1.9479747 0.27290827 0
4.2290001 1.9431531 0.27277115 0
4.2330003 1.9383171 0.27263409 0
4.2360001 1.9329509 0.27253127 0
4.2400002 1.9280877 0.27239418 0
4.244 1.9232103 0.27225709 0
4.2470002 1.9178078 0.27215427 0
4.2509999 1.9129033 0.27201718 0
4.2550001 1.9079844 0.27188009 0
4.2590003 1.9030508 0.271743 0
4.2620001 1.8975997 0.27164018 0
4.2660003 1.8926393 0.27150309 0
4.27 1.8876643 0.271366 0
4.2740002 1.8826749 0.27122891 0
4.277 1.8771752 0.27112609 0
4.2810001 1.8721589 0.270989 0
4.2850003 1.8671281 0.27085191 0
4.289 1.8620828 0.27071482 0
4.2930002 1.8570231 0.27057773 0
4.296 1.8514619 0.27047491 0
4.3000002 1.8463751 0.27033782 0
4.3040004 1.8412741 0.27020073 0
4.3080001 1.8361584 0.27006364 0
4.3120003 1.8310283 0.26992655 0
4.316 1.8258839 0.26978946 0
4.3190002 1.820249 0.26968664 0
4.323 1.8150773 0.26954955 0
4.3270001 1.8098913 0.26941246 0
4.3310003 1.8046911 0.26927537 0
4.335 1.7994761 0.26913828 0
4.3390002 1.7942469 0.26900119 0
4.3429999 1.7890033 0.26886413 0
4.3470001 1.7837453 0.268727 0
4.3500004 1.778011 0.26862419 0
4.3540001 1.7727258 0.2684871 0
4.3580003 1.7674261 0.26835003 0
4.362 1.7621121 0.26821294 0
4.3660002 1.7567836 0.26807585 0
4.3700004 1.7514409 0.26793873 0
4.3740001 1.7460835 0.26780167 0
4.3780003 1.7407117 0.26766458 0
4.382 1.7353255 0.26752749 0
4.3860002 1.7299249 0.26739037 0
4.3900003 1.72451 0.26725331 0
4.3940001 1.7190804 0.26711622 0
4.3980002 1.7136365 0.26697913 0
4.4020004 1.7081783 0.26684204 0
4.4060001 1.7027055 0.26670498 0
4.1220002 2.0889802 0.26972455 0
4.125 2.083982 0.26961631 0
4.1290002 2.0795426 0.269472 0
4.132 2.0745208 0.26936376 0
4.1360002 2.0700545 0.26921946 0
4.1389999 2.0650094 0.26911125 0
4.1430001 2.0605161 0.26896691 0
4.1460004 2.0554476 0.2688587 0
4.1500001 2.0509272 0.26871437 0
4.1530004 2.045835 0.26860619 0
4.1570001 2.0412874 0.26846185 0
4.1600003 2.0361719 0.26835364 0
4.164 2.0315974 0.26820934 0
4.1670003 2.0264585 0.2681011 0
4.171 2.0218568 0.26795679 0
4.1750002 2.017241 0.26781249 0
4.178 2.0120659 0.26770425 0
4.1820002 2.0074229 0.26755995 0
4.1849999 2.0022242 0.26745173 0
4.1890001 1.9975543 0.2673074 0
4.1930003 1.9928699 0.26716313 0
4.1960001 1.9876351 0.26705489 0
4.2000003 1.9829235 0.26691061 0
4.2030001 1.9776654 0.26680237 0
4.2070003 1.9729269 0.26665807 0
4.211 1.9681737 0.26651376 0
4.2140002 1.9628794 0.26640552 0
4.2179999 1.9580994 0.26626122 0
4.2220001 1.9533051 0.26611692 0
4.2250004 1.9479747 0.26600868 0
4.2290001 1.9431531 0.26586437 0
4.2330003 1.9383171 0.26572007 0
4.2360001 1.9329509 0.26561186 0
4.2400002 1.9280877 0.26546752 0
4.244 1.9232103 0.26532322 0
4.2470002 1.9178078 0.26521501 0
4.2509999 1.9129033 0.26507071 0
4.2550001 1.9079844 0.26492637 0
4.2590003 1.9030508 0.26478207 0
4.2620001 1.8975997 0.26467386 0
4.2660003 1.8926393 0.26452956 0
4.27 1.8876643 0.26438528 0
4.2740002 1.8826749 0.26424095 0
4.277 1.8771752 0.26413274 0
4.2810001 1.8721589 0.26398844 0
4.2850003 1.8671281 0.26384413 0
4.289 1.8620828 0.2636998 0
4.2930002 1.8570231 0.26355553 0
4.296 1.8514619 0.26344728 0
4.3000002 1.8463751 0.26330298 0
4.3040004 1.8412741 0.26315868 0
4.3080001 1.8361584 0.26301438 0
4.3120003 1.8310283 0.26287007 0
4.316 1.8258839 0.26272577 0
4.3190002 1.820249 0.26261753 0
4.323 1.8150773 0.26247323 0
4.3270001 1.8098913 0.26232892 0
4.3310003 1.8046911 0.26218462 0
4.335 1.7994761 0.26204032 0
4.3390002 1.7942469 0.26189601 0
4.3429999 1.7890033 0.26175171 0
4.3470001 1.7837453 0.26160741 0
4.3500004 1.778011 0.26149917 0
4.3540001 1.7727258 0.26135486 0
4.3580003 1.7674261 0.26121056 0
4.362 1.7621121 0.26106626 0
4.3660002 1.7567836 0.26092196 0
4.3700004 1.7514409 0.26077765 0
4.3740001 1.7460835 0.26063335 0
4.3780003 1.7407117 0.26048905 0
4.382 1.7353255 0.26034474 0
4.3860002 1.7299249 0.26020041 0
4.3900003 1.72451 0.26005614 0
4.3940001 1.7190804 0.25991181 0
4.3980002 1.7136365 0.2597675 0
4.4020004 1.7081783 0.2596232 0
4.4060001 1.7027055 0.2594789 0
4.1220002 2.0889802 0.26301074 0
4.125 2.083982 0.2628971 0
4.1290002 2.0795426 0.26274559 0
4.132 2.0745208 0.26263195 0
4.1360002 2.0700545 0.26248044 0
4.1389999 2.0650094 0.26236677 0
4.1430001 2.0605161 0.26221526 0
4.1460004 2.0554476 0.26210165 0
4.1500001 2.0509272 0.26195011 0
4.1530004 2.045835 0.26183647 0
4.1570001 2.0412874 0.26168495 0
4.1600003 2.0361719 0.26157132 0
4.164 2.0315974 0.26141977 0
4.1670003 2.0264585 0.26130617 0
4.171 2.0218568 0.26115465 0
4.1750002 2.017241 0.26100314 0
4.178 2.0120659 0.26088947 0
4.1820002 2.0074229 0.26073796 0
4.1849999 2.0022242 0.26062432 0
4.1890001 1.9975543 0.26047277 0
4.1930003 1.9928699 0.26032126 0
4.1960001 1.9876351 0.26020765 0
4.2000003 1.9829235 0.26005614 0
4.2030001 1.9776654 0.25994247 0
4.2070003 1.9729269 0.25979096 0
4.211 1.9681737 0.25963944 0
4.2140002 1.9628794 0.25952581 0
4.2179999 1.9580994 0.25937426 0
4.2220001 1.9533051 0.25922275 0
4.2250004 1.9479747 0.25910911 0
4.2290001 1.9431531 0.25895759 0
4.2330003 1.9383171 0.25880608 0
4.2360001 1.9329509 0.25869244 0
4.2400002 1.9280877 0.25854093 0
4.244 1.9232103 0.25838941 0
4.2470002 1.9178078 0.25827575 0
4.2509999 1.9129033 0.25812423 0
4.2550001 1.9079844 0.25797272 0
4.2590003 1.9030508 0.2578212 0
4.2620001 1.8975997 0.25770754 0
4.2660003 1.8926393 0.25755602 0
4.27 1.8876643 0.25740451 0
4.2740002 1.8826749 0.25725299 0
4.277 1.8771752 0.25713938 0
4.2810001 1.8721589 0.25698784 0
4.2850003 1.8671281 0.2568363 0
4.289 1.8620828 0.25668478 0
4.2930002 1.8570231 0.25653327 0
4.296 1.8514619 0.25641966 0
4.3000002 1.8463751 0.25626814 0
4.3040004 1.8412741 0.25611657 0
4.3080001 1.8361584 0.25596505 0
4.3120003 1.8310283 0.25581357 0
4.316 1.8258839 0.25566205 0
4.3190002 1.820249 0.25554842 0
4.323 1.8150773 0.2553969 0
4.3270001 1.8098913 0.25524536 0
4.3310003 1.8046911 0.25509384 0
4.335 1.7994761 0.25494233 0
4.3390002 1.7942469 0.25479078 0
4.3429999 1.7890033 0.25463927 0
4.3470001 1.7837453 0.25448775 0
4.3500004 1.778011 0.25437412 0
4.3540001 1.7727258 0.2542226 0
4.3580003 1.7674261 0.25407109 0
4.362 1.7621121 0.25391954 0
4.3660002 1.7567836 0.25376803 0
4.3700004 1.7514409 0.25361651 0
4.3740001 1.7460835 0.253465 0
4.3780003 1.7407117 0.25331348 0
4.382 1.7353255 0.25316197 0
4.3860002 1.7299249 0.25301045 0
4.3900003 1.72451 0.25285891 0
4.3940001 1.7190804 0.25270742 0
4.3980002 1.7136365 0.25255591 0
4.4020004 1.7081783 0.25240436 0
4.4060001 1.7027055 0.25225285 0
4.1220002 2.0889802 0.25629699 0
4.125 2.083982 0.25617793 0
4.1290002 2.0795426 0.2560192 0
4.132 2.0745208 0.25590014 0
4.1360002 2.0700545 0.25574142 0
4.1389999 2.0650094 0.25562236 0
4.1430001 2.0605161 0.2554636 0
4.1460004 2.0554476 0.25534457 0
4.1500001 2.0509272 0.25518584 0
4.1530004 2.045835 0.25506675 0
4.1570001 2.0412874 0.25490803 0
4.1600003 2.0361719 0.25478899 0
4.164 2.0315974 0.25463027 0
4.1670003 2.0264585 0.25451121 0
4.171 2.0218568 0.25435245 0
4.1750002 2.017241 0.25419372 0
4.178 2.0120659 0.25407469 0
4.1820002 2.0074229 0.25391597 0
4.1849999 2.0022242 0.25379691 0
4.1890001 1.9975543 0.25363815 0
4.1930003 1.9928699 0.25347942 0
4.1960001 1.9876351 0.25336039 0
4.2000003 1.9829235 0.25320166 0
4.2030001 1.9776654 0.25308257 0
4.2070003 1.9729269 0.25292385 0
4.211 1.9681737 0.25276512 0
4.2140002 1.9628794 0.25264609 0
4.2179999 1.9580994 0.25248736 0
4.2220001 1.9533051 0.25232857 0
4.2250004 1.9479747 0.25220954 0
4.2290001 1.9431531 0.25205082 0
4.2330003 1.9383171 0.25189209 0
4.2360001 1.9329509 0.25177303 0
4.2400002 1.9280877 0.2516143 0
4.244 1.9232103 0.25145555 0
4.2470002 1.9178078 0.25133651 0
4.2509999 1.9129033 0.25117779 0
4.2550001 1.9079844 0.25101903 0
4.2590003 1.9030508 0.2508603 0
4.2620001 1.8975997 0.25074124 0
4.2660003 1.8926393 0.25058252 0
4.27 1.8876643 0.25042379 0
4.2740002 1.8826749 0.25026506 0
4.277 1.8771752 0.250146 0
4.2810001 1.8721589 0.24998726 0
4.2850003 1.8671281 0.24982853 0
4.289 1.8620828 0.24966979 0
4.2930002 1.8570231 0.24951105 0
4.296 1.8514619 0.249392 0
4.3000002 1.8463751 0.24923328 0
4.3040004 1.8412741 0.24907452 0
4.3080001 1.8361584 0.24891579 0
4.3120003 1.8310283 0.24875706 0
4.316 1.8258839 0.24859834 0
4.3190002 1.820249 0.24847928 0
4.323 1.8150773 0.24832055 0
4.3270001 1.8098913 0.24816181 0
4.3310003 1.8046911 0.24800308 0
4.335 1.7994761 0.24784432 0
4.3390002 1.7942469 0.2476856 0
4.3429999 1.7890033 0.24752687 0
4.3470001 1.7837453 0.24736813 0
4.3500004 1.778011 0.24724907 0
4.3540001 1.7727258 0.24709034 0
4.3580003 1.7674261 0.24693161 0
4.362 1.7621121 0.24677289 0
4.3660002 1.7567836 0.24661414 0
4.3700004 1.7514409 0.2464554 0
4.3740001 1.7460835 0.24629667 0
4.3780003 1.7407117 0.24613793 0
4.382 1.7353255 0.2459792 0
4.3860002 1.7299249 0.24582045 0
4.3900003 1.72451 0.24566172 0
4.3940001 1.7190804 0.24550299 0
4.3980002 1.7136365 0.24534427 0
4.4020004 1.7081783 0.24518552 0
4.4060001 1.7027055 0.24502678 0
4.1220002 2.0889802 0.24958321 0
4.125 2.083982 0.24945875 0
4.1290002 2.0795426 0.24929281 0
4.132 2.0745208 0.24916832 0
4.1360002 2.0700545 0.24900238 0
4.1389999 2.0650094 0.24887793 0
4.1430001 2.0605161 0.24871197 0
4.1460004 2.0554476 0.2485875 0
4.1500001 2.0509272 0.24842155 0
4.1530004 2.045835 0.24829708 0
4.1570001 2.0412874 0.24813114 0
4.1600003 2.0361719 0.24800669 0
4.164 2.0315974 0.24784072 0
4.1670003 2.0264585 0.24771626 0
4.171 2.0218568 0.24755032 0
4.1750002 2.017241 0.24738437 0
4.178 2.0120659 0.2472599 0
4.1820002 2.0074229 0.24709396 0
4.1849999 2.0022242 0.24696949 0
4.1890001 1.9975543 0.24680354 0
4.1930003 1.9928699 0.24663758 0
4.1960001 1.9876351 0.24651313 0
4.2000003 1.9829235 0.24634717 0
4.2030001 1.9776654 0.24622272 0
4.2070003 1.9729269 0.24605677 0
4.211 1.9681737 0.24589083 0
4.2140002 1.9628794 0.24576636 0
4.2179999 1.9580994 0.2456004 0
4.2220001 1.9533051 0.24543445 0
4.2250004 1.9479747 0.24530998 0
4.2290001 1.9431531 0.24514402 0
4.2330003 1.9383171 0.24497809 0
4.2360001 1.9329509 0.24485362 0
4.2400002 1.9280877 0.24468766 0
4.244 1.9232103 0.24452172 0
4.2470002 1.9178078 0.24439727 0
4.2509999 1.9129033 0.24423131 0
4.2550001 1.9079844 0.24406534 0
4.2590003 1.9030508 0.24389941 0
4.2620001 1.8975997 0.24377495 0
4.2660003 1.8926393 0.24360898 0
4.27 1.8876643 0.24344304 0
4.2740002 1.8826749 0.24327709 0
4.277 1.8771752 0.24315263 0
4.2810001 1.8721589 0.24298668 0
4.2850003 1.8671281 0.24282072 0
4.289 1.8620828 0.24265477 0
4.2930002 1.8570231 0.24248883 0
4.296 1.8514619 0.24236438 0
4.3000002 1.8463751 0.24219841 0
4.3040004 1.8412741 0.24203245 0
4.3080001 1.8361584 0.24186651 0
4.3120003 1.8310283 0.24170056 0
4.316 1.8258839 0.24153462 0
4.3190002 1.820249 0.24141015 0
4.323 1.8150773 0.2412442 0
4.3270001 1.8098913 0.24107824 0
4.3310003 1.8046911 0.2409123 0
4.335 1.7994761 0.24074635 0
4.3390002 1.7942469 0.24058041 0
4.3429999 1.7890033 0.24041446 0
4.3470001 1.7837453 0.2402485 0
4.3500004 1.778011 0.24012403 0
4.3540001 1.7727258 0.23995808 0
4.3580003 1.7674261 0.23979214 0
4.362 1.7621121 0.2396262 0
4.3660002 1.7567836 0.23946024 0
4.3700004 1.7514409 0.23929428 0
4.3740001 1.7460835 0.23912832 0
4.3780003 1.7407117 0.23896238 0
4.382 1.7353255 0.23879643 0
4.3860002 1.7299249 0.23863047 0
4.3900003 1.72451 0.23846453 0
4.3940001 1.7190804 0.23829858 0
4.3980002 1.7136365 0.23813264 0
4.4020004 1.7081783 0.23796669 0
4.4060001 1.7027055 0.23780073 0
4.1220002 2.0889802 0.24286944 0
4.125 2.083982 0.24273956 0
4.1290002 2.0795426 0.24256639 0
4.132 2.0745208 0.24243653 0
4.1360002 2.0700545 0.24226336 0
4.1389999 2.0650094 0.24213348 0
4.1430001 2.0605161 0.2419603 0
4.1460004 2.0554476 0.24183044 0
4.1500001 2.0509272 0.24165727 0
4.1530004 2.045835 0.24152739 0
4.1570001 2.0412874 0.24135423 0
4.1600003 2.0361719 0.24122436 0
4.164 2.0315974 0.2410512 0
4.1670003 2.0264585 0.24092132 0
4.171 2.0218568 0.24074815 0
4.1750002 2.017241 0.24057499 0
4.178 2.0120659 0.24044511 0
4.1820002 2.0074229 0.24027194 0
4.1849999 2.0022242 0.24014208 0
4.1890001 1.9975543 0.23996891 0
4.1930003 1.9928699 0.23979574 0
4.1960001 1.9876351 0.23966587 0
4.2000003 1.9829235 0.2394927 0
4.2030001 1.9776654 0.23936284 0
4.2070003 1.9729269 0.23918967 0
4.211 1.9681737 0.2390165 0
4.2140002 1.9628794 0.23888662 0
4.2179999 1.9580994 0.23871346 0
4.2220001 1.9533051 0.23854029 0
4.2250004 1.9479747 0.23841041 0
4.2290001 1.9431531 0.23823725 0
4.2330003 1.9383171 0.23806408 0
4.2360001 1.9329509 0.23793422 0
4.2400002 1.9280877 0.23776105 0
4.244 1.9232103 0.23758788 0
4.2470002 1.9178078 0.23745801 0
4.2509999 1.9129033 0.23728484 0
4.2550001 1.9079844 0.23711167 0
4.2590003 1.9030508 0.23693851 0
4.2620001 1.8975997 0.23680864 0
4.2660003 1.8926393 0.23663548 0
4.27 1.8876643 0.23646231 0
4.2740002 1.8826749 0.23628916 0
4.277 1.8771752 0.23615927 0
4.2810001 1.8721589 0.2359861 0
4.2850003 1.8671281 0.23581293 0
4.289 1.8620828 0.23563977 0
4.2930002 1.8570231 0.2354666 0
4.296 1.8514619 0.23533672 0
4.3000002 1.8463751 0.23516355 0
4.3040004 1.8412741 0.23499039 0
4.3080001 1.8361584 0.23481722 0
4.3120003 1.8310283 0.23464407 0
4.316 1.8258839 0.2344709 0
4.3190002 1.820249 0.23434104 0
4.323 1.8150773 0.23416787 0
4.3270001 1.8098913 0.23399469 0
4.3310003 1.8046911 0.23382153 0
4.335 1.7994761 0.23364837 0
4.3390002 1.7942469 0.23347521 0
4.3429999 1.7890033 0.23330204 0
4.3470001 1.7837453 0.23312886 0
4.3500004 1.778011 0.232999 0
4.3540001 1.7727258 0.23282583 0
4.3580003 1.7674261 0.23265266 0
4.362 1.7621121 0.2324795 0
4.3660002 1.7567836 0.23230633 0
4.3700004 1.7514409 0.23213317 0
4.3740001 1.7460835 0.23196 0
4.3780003 1.7407117 0.23178685 0
4.382 1.7353255 0.23161368 0
4.3860002 1.7299249 0.2314405 0
4.3900003 1.72451 0.23126733 0
4.3940001 1.7190804 0.23109418 0
4.3980002 1.7136365 0.23092102 0
4.4020004 1.7081783 0.23074785 0
4.4060001 1.7027055 0.23057468 0
4.1220002 2.0889802 0.23615566 0
4.125 2.083982 0.23602039 0
4.1290002 2.0795426 0.23583999 0
4.132 2.0745208 0.23570471 0
4.1360002 2.0700545 0.23552433 0
4.1389999 2.0650094 0.23538905 0
4.1430001 2.0605161 0.23520866 0
4.1460004 2.0554476 0.23507336 0
4.1500001 2.0509272 0.23489298 0
4.1530004 2.045835 0.23475771 0
4.1570001 2.0412874 0.23457733 0
4.1600003 2.0361719 0.23444204 0
4.164 2.0315974 0.23426166 0
4.1670003 2.0264585 0.23412637 0
4.171 2.0218568 0.233946 0
4.1750002 2.017241 0.23376562 0
4.178 2.0120659 0.23363033 0
4.1820002 2.0074229 0.23344995 0
4.1849999 2.0022242 0.23331466 0
4.1890001 1.9975543 0.23313427 0
4.1930003 1.9928699 0.23295389 0
4.1960001 1.9876351 0.2328186 0
4.2000003 1.9829235 0.23263822 0
4.2030001 1.9776654 0.23250295 0
4.2070003 1.9729269 0.23232257 0
4.211 1.9681737 0.2321422 0
4.2140002 1.9628794 0.23200689 0
4.2179999 1.9580994 0.23182651 0
4.2220001 1.9533051 0.23164614 0
4.2250004 1.9479747 0.23151085 0
4.2290001 1.9431531 0.23133047 0
4.2330003 1.9383171 0.23115009 0
4.2360001 1.9329509 0.2310148 0
4.2400002 1.9280877 0.23083442 0
4.244 1.9232103 0.23065405 0
4.2470002 1.9178078 0.23051876 0
4.2509999 1.9129033 0.23033838 0
4.2550001 1.9079844 0.23015799 0
4.2590003 1.9030508 0.22997761 0
4.2620001 1.8975997 0.22984233 0
4.2660003 1.8926393 0.22966196 0
4.27 1.8876643 0.22948158 0
4.2740002 1.8826749 0.2293012 0
4.277 1.8771752 0.2291659 0
4.2810001 1.8721589 0.22898552 0
4.2850003 1.8671281 0.22880514 0
4.289 1.8620828 0.22862476 0
4.2930002 1.8570231 0.22844438 0
4.296 1.8514619 0.22830909 0
4.3000002 1.8463751 0.22812872 0
4.3040004 1.8412741 0.22794832 0
4.3080001 1.8361584 0.22776794 0
4.3120003 1.8310283 0.22758757 0
4.316 1.8258839 0.22740719 0
4.3190002 1.820249 0.2272719 0
4.323 1.8150773 0.22709152 0
4.3270001 1.8098913 0.22691113 0
4.3310003 1.8046911 0.22673075 0
4.335 1.7994761 0.22655037 0
4.3390002 1.7942469 0.22636999 0
4.3429999 1.7890033 0.22618961 0
4.3470001 1.7837453 0.22600923 0
4.3500004 1.778011 0.22587395 0
4.3540001 1.7727258 0.22569357 0
4.3580003 1.7674261 0.22551319 0
4.362 1.7621121 0.22533281 0
4.3660002 1.7567836 0.22515243 0
4.3700004 1.7514409 0.22497204 0
4.3740001 1.7460835 0.22479166 0
4.3780003 1.7407117 0.22461128 0
4.382 1.7353255 0.2244309 0
4.3860002 1.7299249 0.22425051 0
4.3900003 1.72451 0.22407013 0
4.3940001 1.7190804 0.22388975 0
4.3980002 1.7136365 0.22370937 0
4.4020004 1.7081783 0.223529 0
4.4060001 1.7027055 0.22334863 0
4.1220002 2.0889802 0.22944188 0
4.125 2.083982 0.22930118 0
4.1290002 2.0795426 0.22911359 0
4.132 2.0745208 0.2289729 0
4.1360002 2.0700545 0.22878531 0
4.1389999 2.0650094 0.22864459 0
4.1430001 2.0605161 0.228457 0
4.1460004 2.0554476 0.22831629 0
4.1500001 2.0509272 0.2281287 0
4.1530004 2.045835 0.22798802 0
4.1570001 2.0412874 0.22780041 0
4.1600003 2.0361719 0.22765972 0
4.164 2.0315974 0.22747213 0
4.1670003 2.0264585 0.22733143 0
4.171 2.0218568 0.22714382 0
4.1750002 2.017241 0.22695625 0
4.178 2.0120659 0.22681554 0
4.1820002 2.0074229 0.22662795 0
4.1849999 2.0022242 0.22648725 0
4.1890001 1.9975543 0.22629964 0
4.1930003 1.9928699 0.22611205 0
4.1960001 1.9876351 0.22597136 0
4.2000003 1.9829235 0.22578377 0
4.2030001 1.9776654 0.22564307 0
4.2070003 1.9729269 0.22545548 0
4.211 1.9681737 0.22526787 0
4.2140002 1.9628794 0.22512718 0
4.2179999 1.9580994 0.22493957 0
4.2220001 1.9533051 0.22475198 0
4.2250004 1.9479747 0.22461128 0
4.2290001 1.9431531 0.22442368 0
4.2330003 1.9383171 0.22423609 0
4.2360001 1.9329509 0.22409539 0
4.2400002 1.9280877 0.2239078 0
4.244 1.9232103 0.22372021 0
4.2470002 1.9178078 0.22357951 0
4.2509999 1.9129033 0.22339192 0
4.2550001 1.9079844 0.22320431 0
4.2590003 1.9030508 0.22301671 0
4.2620001 1.8975997 0.22287603 0
4.2660003 1.8926393 0.22268842 0
4.27 1.8876643 0.22250083 0
4.2740002 1.8826749 0.22231324 0
4.277 1.8771752 0.22217254 0
4.2810001 1.8721589 0.22198494 0
4.2850003 1.8671281 0.22179733 0
4.289 1.8620828 0.22160974 0
4.2930002 1.8570231 0.22142215 0
4.296 1.8514619 0.22128145 0
4.3000002 1.8463751 0.22109386 0
4.3040004 1.8412741 0.22090626 0
4.3080001 1.8361584 0.22071865 0
4.3120003 1.8310283 0.22053108 0
4.316 1.8258839 0.22034349 0
4.3190002 1.820249 0.22020277 0
4.323 1.8150773 0.22001518 0
4.3270001 1.8098913 0.21982759 0
4.3310003 1.8046911 0.21963999 0
4.335 1.7994761 0.2194524 0
4.3390002 1.7942469 0.21926481 0
4.3429999 1.7890033 0.2190772 0
4.3470001 1.7837453 0.21888959 0
4.3500004 1.778011 0.21874891 0
4.3540001 1.7727258 0.21856131 0
4.3580003 1.7674261 0.21837372 0
4.362 1.7621121 0.21818613 0
4.3660002 1.7567836 0.21799852 0
4.3700004 1.7514409 0.21781091 0
4.3740001 1.7460835 0.21762334 0
4.3780003 1.7407117 0.21743575 0
4.382 1.7353255 0.21724814 0
4.3860002 1.7299249 0.21706054 0
4.3900003 1.72451 0.21687295 0
4.3940001 1.7190804 0.21668535 0
4.3980002 1.7136365 0.21649775 0
4.4020004 1.7081783 0.21631016 0
4.4060001 1.7027055 0.21612258 0
4.1220002 2.0889802 0.22272812 0
4.125 2.083982 0.222582 0
4.1290002 2.0795426 0.22238719 0
4.132 2.0745208 0.22224109 0
4.1360002 2.0700545 0.22204627 0
4.1389999 2.0650094 0.22190017 0
4.1430001 2.0605161 0.22170535 0
4.1460004 2.0554476 0.22155924 0
4.1500001 2.0509272 0.22136442 0
4.1530004 2.045835 0.22121832 0
4.1570001 2.0412874 0.22102351 0
4.1600003 2.0361719 0.22087741 0
4.164 2.0315974 0.22068259 0
4.1670003 2.0264585 0.22053649 0
4.171 2.0218568 0.22034168 0
4.1750002 2.017241 0.22014686 0
4.178 2.0120659 0.22000076 0
4.1820002 2.0074229 0.21980596 0
4.1849999 2.0022242 0.21965984 0
4.1890001 1.9975543 0.21946502 0
4.1930003 1.9928699 0.21927021 0
4.1960001 1.9876351 0.21912411 0
4.2000003 1.9829235 0.21892929 0
4.2030001 1.9776654 0.21878317 0
4.2070003 1.9729269 0.21858838 0
4.211 1.9681737 0.21839356 0
4.2140002 1.9628794 0.21824744 0
4.2179999 1.9580994 0.21805266 0
4.2220001 1.9533051 0.21785782 0
4.2250004 1.9479747 0.21771172 0
4.2290001 1.9431531 0.21751691 0
4.2330003 1.9383171 0.2173221 0
4.2360001 1.9329509 0.21717599 0
4.2400002 1.9280877 0.21698117 0
4.244 1.9232103 0.21678637 0
4.2470002 1.9178078 0.21664026 0
4.2509999 1.9129033 0.21644545 0
4.2550001 1.9079844 0.21625063 0
4.2590003 1.9030508 0.21605581 0
4.2620001 1.8975997 0.2159097 0
4.2660003 1.8926393 0.2157149 0
4.27 1.8876643 0.21552008 0
4.2740002 1.8826749 0.2153253 0
4.277 1.8771752 0.21517918 0
4.2810001 1.8721589 0.21498436 0
4.2850003 1.8671281 0.21478955 0
4.289 1.8620828 0.21459474 0
4.2930002 1.8570231 0.21439993 0
4.296 1.8514619 0.21425383 0
4.3000002 1.8463751 0.21405901 0
4.3040004 1.8412741 0.21386419 0
4.3080001 1.8361584 0.21366937 0
4.3120003 1.8310283 0.21347457 0
4.316 1.8258839 0.21327977 0
4.3190002 1.820249 0.21313366 0
4.323 1.8150773 0.21293885 0
4.3270001 1.8098913 0.21274403 0
4.3310003 1.8046911 0.21254921 0
4.335 1.7994761 0.21235441 0
4.3390002 1.7942469 0.2121596 0
4.3429999 1.7890033 0.2119648 0
4.3470001 1.7837453 0.21176997 0
4.3500004 1.778011 0.21162386 0
4.3540001 1.7727258 0.21142906 0
4.3580003 1.7674261 0.21123424 0
4.362 1.7621121 0.21103942 0
4.3660002 1.7567836 0.21084464 0
4.3700004 1.7514409 0.2106498 0
4.3740001 1.7460835 0.210455 0
4.3780003 1.7407117 0.21026018 0
4.382 1.7353255 0.21006538 0
4.3860002 1.7299249 0.20987056 0
4.3900003 1.72451 0.20967576 0
4.3940001 1.7190804 0.20948094 0
4.3980002 1.7136365 0.20928612 0
4.4020004 1.7081783 0.20909132 0
4.4060001 1.7027055 0.20889652 0
4.1220002 2.0889802 0.21601434 0
4.125 2.083982 0.21586283 0
4.1290002 2.0795426 0.2156608 0
4.132 2.0745208 0.21550928 0
4.1360002 2.0700545 0.21530725 0
4.1389999 2.0650094 0.21515574 0
4.1430001 2.0605161 0.21495369 0
4.1460004 2.0554476 0.21480218 0
4.1500001 2.0509272 0.21460015 0
4.1530004 2.045835 0.21444863 0
4.1570001 2.0412874 0.2142466 0
4.1600003 2.0361719 0.21409509 0
4.164 2.0315974 0.21389306 0
4.1670003 2.0264585 0.21374154 0
4.171 2.0218568 0.21353951 0
4.1750002 2.017241 0.21333748 0
4.178 2.0120659 0.21318597 0
4.1820002 2.0074229 0.21298394 0
4.1849999 2.0022242 0.21283242 0
4.1890001 1.9975543 0.21263038 0
4.1930003 1.9928699 0.21242836 0
4.1960001 1.9876351 0.21227683 0
4.2000003 1.9829235 0.21207482 0
4.2030001 1.9776654 0.21192329 0
4.2070003 1.9729269 0.21172127 0
4.211 1.9681737 0.21151926 0
4.2140002 1.9628794 0.21136773 0
4.2179999 1.9580994 0.21116571 0
4.2220001 1.9533051 0.21096367 0
4.2250004 1.9479747 0.21081215 0
4.2290001 1.9431531 0.21061012 0
4.2330003 1.9383171 0.21040811 0
4.2360001 1.9329509 0.21025658 0
4.2400002 1.9280877 0.21005456 0
4.244 1.9232103 0.20985253 0
4.2470002 1.9178078 0.20970102 0
4.2509999 1.9129033 0.20949899 0
4.2550001 1.9079844 0.20929694 0
4.2590003 1.9030508 0.20909493 0
4.2620001 1.8975997 0.2089434 0
4.2660003 1.8926393 0.20874138 0
4.27 1.8876643 0.20853937 0
4.2740002 1.8826749 0.20833734 0
4.277 1.8771752 0.20818582 0
4.2810001 1.8721589 0.20798378 0
4.2850003 1.8671281 0.20778175 0
4.289 1.8620828 0.20757973 0
4.2930002 1.8570231 0.2073777 0
4.296 1.8514619 0.20722619 0
4.3000002 1.8463751 0.20702416 0
4.3040004 1.8412741 0.20682211 0
4.3080001 1.8361584 0.20662011 0
4.3120003 1.8310283 0.20641808 0
4.316 1.8258839 0.20621605 0
4.3190002 1.820249 0.20606454 0
4.323 1.8150773 0.20586251 0
4.3270001 1.8098913 0.20566046 0
4.3310003 1.8046911 0.20545845 0
4.335 1.7994761 0.20525642 0
4.3390002 1.7942469 0.20505439 0
4.3429999 1.7890033 0.20485239 0
4.3470001 1.7837453 0.20465034 0
4.3500004 1.778011 0.20449883 0
4.3540001 1.7727258 0.2042968 0
4.3580003 1.7674261 0.20409477 0
4.362 1.7621121 0.20389275 0
4.3660002 1.7567836 0.20369072 0
4.3700004 1.7514409 0.20348869 0
4.3740001 1.7460835 0.20328666 0
4.3780003 1.7407117 0.20308465 0
4.382 1.7353255 0.20288262 0
4.3860002 1.7299249 0.20268057 0
4.3900003 1.72451 0.20247856 0
4.3940001 1.7190804 0.20227653 0
4.3980002 1.7136365 0.20207451 0
4.4020004 1.7081783 0.20187247 0
4.4060001 1.7027055 0.20167047 0
4.1220002 2.0889802 0.20930056 0
4.125 2.083982 0.20914364 0
4.1290002 2.0795426 0.20893438 0
4.132 2.0745208 0.20877746 0
4.1360002 2.0700545 0.20856822 0
4.1389999 2.0650094 0.20841129 0
4.1430001 2.0605161 0.20820205 0
4.1460004 2.0554476 0.2080451 0
4.1500001 2.0509272 0.20783587 0
4.1530004 2.045835 0.20767894 0
4.1570001 2.0412874 0.2074697 0
4.1600003 2.0361719 0.20731276 0
4.164 2.0315974 0.20710352 0
4.1670003 2.0264585 0.2069466 0
4.171 2.0218568 0.20673735 0
4.1750002 2.017241 0.20652811 0
4.178 2.0120659 0.20637117 0
4.1820002 2.0074229 0.20616195 0
4.1849999 2.0022242 0.20600501 0
4.1890001 1.9975543 0.20579576 0
4.1930003 1.9928699 0.20558651 0
4.1960001 1.9876351 0.20542958 0
4.2000003 1.9829235 0.20522034 0
4.2030001 1.9776654 0.20506342 0
4.2070003 1.9729269 0.20485418 0
4.211 1.9681737 0.20464493 0
4.2140002 1.9628794 0.20448801 0
4.2179999 1.9580994 0.20427877 0
4.2220001 1.9533051 0.20406951 0
4.2250004 1.9479747 0.20391257 0
4.2290001 1.9431531 0.20370334 0
4.2330003 1.9383171 0.2034941 0
4.2360001 1.9329509 0.20333718 0
4.2400002 1.9280877 0.20312794 0
4.244 1.9232103 0.20291869 0
4.2470002 1.9178078 0.20276175 0
4.2509999 1.9129033 0.20255253 0
4.2550001 1.9079844 0.20234327 0
4.2590003 1.9030508 0.20213403 0
4.2620001 1.8975997 0.20197709 0
4.2660003 1.8926393 0.20176786 0
4.27 1.8876643 0.20155862 0
4.2740002 1.8826749 0.20134938 0
4.277 1.8771752 0.20119244 0
4.2810001 1.8721589 0.2009832 0
4.2850003 1.8671281 0.20077395 0
4.289 1.8620828 0.20056471 0
4.2930002 1.8570231 0.20035549 0
4.296 1.8514619 0.20019855 0
4.3000002 1.8463751 0.1999893 0
4.3040004 1.8412741 0.19978005 0
4.3080001 1.8361584 0.19957082 0
4.3120003 1.8310283 0.19936158 0
4.316 1.8258839 0.19915234 0
4.3190002 1.820249 0.19899541 0
4.323 1.8150773 0.19878617 0
4.3270001 1.8098913 0.19857691 0
4.3310003 1.8046911 0.19836767 0
4.335 1.7994761 0.19815844 0
4.3390002 1.7942469 0.1979492 0
4.3429999 1.7890033 0.19773996 0
4.3470001 1.7837453 0.19753072 0
4.3500004 1.778011 0.19737378 0
4.3540001 1.7727258 0.19716454 0
4.3580003 1.7674261 0.19695529 0
4.362 1.7621121 0.19674607 0
4.3660002 1.7567836 0.19653682 0
4.3700004 1.7514409 0.19632757 0
4.3740001 1.7460835 0.19611832 0
4.3780003 1.7407117 0.19590908 0
4.382 1.7353255 0.19569986 0
4.3860002 1.7299249 0.1954906 0
4.3900003 1.72451 0.19528136 0
4.3940001 1.7190804 0.19507213 0
4.3980002 1.7136365 0.19486289 0
4.4020004 1.7081783 0.19465363 0
4.4060001 1.7027055 0.1944444 0
4.1220002 2.0889802 0.20258678 0
4.125 2.083982 0.20242444 0
4.1290002 2.0795426 0.202208 0
4.132 2.0745208 0.20204563 0
4.1360002 2.0700545 0.2018292 0
4.1389999 2.0650094 0.20166685 0
4.1430001 2.0605161 0.20145038 0
4.1460004 2.0554476 0.20128804 0
4.1500001 2.0509272 0.20107159 0
4.1530004 2.045835 0.20090923 0
4.1570001 2.0412874 0.20069279 0
4.1600003 2.0361719 0.20053045 0
4.164 2.0315974 0.20031399 0
4.1670003 2.0264585 0.20015164 0
4.171 2.0218568 0.19993518 0
4.1750002 2.017241 0.19971874 0
4.178 2.0120659 0.1995564 0
4.1820002 2.0074229 0.19933994 0
4.1849999 2.0022242 0.19917759 0
4.1890001 1.9975543 0.19896114 0
4.1930003 1.9928699 0.19874467 0
4.1960001 1.9876351 0.19858234 0
4.2000003 1.9829235 0.19836587 0
4.2030001 1.9776654 0.19820353 0
4.2070003 1.9729269 0.19798708 0
4.211 1.9681737 0.19777063 0
4.2140002 1.9628794 0.19760828 0
4.2179999 1.9580994 0.19739182 0
4.2220001 1.9533051 0.19717535 0
4.2250004 1.9479747 0.19701302 0
4.2290001 1.9431531 0.19679655 0
4.2330003 1.9383171 0.19658011 0
4.2360001 1.9329509 0.19641775 0
4.2400002 1.9280877 0.19620131 0
4.244 1.9232103 0.19598486 0
4.2470002 1.9178078 0.19582251 0
4.2509999 1.9129033 0.19560607 0
4.2550001 1.9079844 0.19538958 0
4.2590003 1.9030508 0.19517314 0
4.2620001 1.8975997 0.19501078 0
4.2660003 1.8926393 0.19479434 0
4.27 1.8876643 0.19457787 0
4.2740002 1.8826749 0.19436143 0
4.277 1.8771752 0.19419909 0
4.2810001 1.8721589 0.19398262 0
4.2850003 1.8671281 0.19376616 0
4.289 1.8620828 0.19354971 0
4.2930002 1.8570231 0.19333325 0
4.296 1.8514619 0.19317091 0
4.3000002 1.8463751 0.19295447 0
4.3040004 1.8412741 0.19273798 0
4.3080001 1.8361584 0.19252154 0
4.3120003 1.8310283 0.19230507 0
4.316 1.8258839 0.19208863 0
4.3190002 1.820249 0.19192627 0
4.323 1.8150773 0.19170983 0
4.3270001 1.8098913 0.19149336 0
