# .PCD v0.7 - Point Cloud Data file format
VERSION 0.7
FIELDS x y z intensity
SIZE 4 4 4 4
TYPE F F F F
COUNT 1 1 1 1
WIDTH 1458
HEIGHT 1
VIEWPOINT 0 0 0 1 0 0 0
POINTS 1458
DATA ascii
3.7530003 1.8652215 0.44633719 0
3.7610002 1.8637186 0.44643819 0
3.7690003 1.8621875 0.44653922 0
3.7770002 1.8606269 0.44664022 0
3.7860003 1.8596007 0.44675389 0
3.7940001 1.857981 0.44685489 0
3.8030002 1.8568914 0.44696853 0
3.8110003 1.855212 0.44706956 0
3.8200002 1.8540593 0.44718319 0
3.8280003 1.8523207 0.44728419 0
3.8370004 1.8511047 0.44739783 0
3.8450003 1.8493065 0.44749886 0
3.8540003 1.8480276 0.44761249 0
3.8630002 1.8467162 0.44772613 0
3.8720002 1.8453723 0.44783977 0
3.8800004 1.8434532 0.4479408 0
3.8890002 1.8420461 0.44805443 0
3.8980002 1.8406067 0.44816807 0
3.9070003 1.8391347 0.44828171 0
3.9160004 1.8376304 0.44839534 0
3.9220002 1.8344916 0.4484711 0
3.9260004 1.8302672 0.44852161 0
3.9310002 1.8265585 0.44858474 0
3.9370003 1.8233604 0.44866049 0
3.9440002 1.8206673 0.44874889 0
3.9520004 1.8184739 0.44884992 0
3.9640002 1.818344 0.44900143 0
3.7550004 1.8724132 0.44031069 0
3.7630002 1.8709214 0.44039726 0
3.7710001 1.8694007 0.44048384 0
3.7790003 1.8678515 0.44057041 0
3.7880003 1.8668377 0.44066784 0
3.7960002 1.8652285 0.44075441 0
3.8040001 1.8635907 0.44084099 0
3.8130002 1.8624831 0.44093841 0
3.8210003 1.860786 0.44102499 0
3.8300002 1.8596152 0.44112238 0
3.8380003 1.8578583 0.44120896 0
3.8470004 1.8566246 0.44130638 0
3.8560002 1.8553582 0.44140378 0
3.8640003 1.8535111 0.44149035 0
3.8730001 1.8521816 0.44158778 0
3.8820002 1.8508198 0.44168517 0
3.8910003 1.8494254 0.44178259 0
3.8990002 1.8474575 0.44186917 0
3.9080002 1.8460001 0.44196656 0
3.9160004 1.8439726 0.44205314 0
3.9190001 1.8392376 0.44208562 0
3.9220002 1.8344916 0.44211808 0
3.9260004 1.8302672 0.44216138 0
3.9310002 1.8265585 0.4422155 0
3.9370003 1.8233604 0.44228044 0
3.9440002 1.8206673 0.4423562 0
3.9520004 1.8184739 0.44244277 0
3.9640002 1.818344 0.44257265 0
3.8810003 1.862833 0.4353953 0
3.8900003 1.8614732 0.43547648 0
3.8980002 1.8595357 0.43554863 0
3.9070003 1.8581126 0.43562979 0
3.9110003 1.8539512 0.43566588 0
3.9130003 1.8486968 0.43568391 0
3.9160004 1.8439726 0.43571097 0
3.9190001 1.8392376 0.43573803 0
3.9220002 1.8344916 0.43576509 0
3.9260004 1.8302672 0.43580115 0
3.9310002 1.8265585 0.43584624 0
3.9370003 1.8233604 0.43590036 0
3.9440002 1.8206673 0.43596351 0
3.9520004 1.8184739 0.43603566 0
3.9640002 1.818344 0.43614388 0
3.9100003 1.8724041 0.42932549 0
3.9090002 1.865528 0.42931828 0
3.9100003 1.8597413 0.42932549 0
3.9110003 1.8539512 0.4293327 0
3.9130003 1.8486968 0.42934713 0
3.9160004 1.8439726 0.42936876 0
3.9190001 1.8392376 0.42939043 0
3.9220002 1.8344916 0.42941207 0
3.9260004 1.8302672 0.42944092 0
3.9310002 1.8265585 0.42947701 0
3.9370003 1.8233604 0.42952028 0
3.9440002 1.8206673 0.42957079 0
3.9520004 1.8184739 0.42962852 0
3.9640002 1.818344 0.4297151 0
3.7050002 1.8318996 0.42188478 0
3.7130003 1.8304694 0.42192808 0
3.7220004 1.8295747 0.42197677 0
3.7300003 1.8280847 0.42202005 0
3.7380002 1.8265657 0.42206335 0
3.7470002 1.8255774 0.42211205 0
3.7550004 1.823999 0.42215535 0
3.7640002 1.8229474 0.42220405 0
3.7720003 1.8213096 0.42224735 0
3.7810001 1.8201947 0.42229605 0
3.9100003 1.8597413 0.42299411 0
3.9110003 1.8539512 0.42299953 0
3.9130003 1.8486968 0.42301035 0
3.9160004 1.8439726 0.42302659 0
3.9190001 1.8392376 0.4230428 0
3.9220002 1.8344916 0.42305905 0
3.9260004 1.8302672 0.42308068 0
3.9310002 1.8265585 0.42310774 0
3.9370003 1.8233604 0.42314023 0
3.9440002 1.8206673 0.42317811 0
3.9520004 1.8184739 0.42322141 0
3.9640002 1.818344 0.42328632 0
3.7050002 1.8318996 0.41592318 0
3.7130003 1.8304694 0.41595206 0
3.7220004 1.8295747 0.41598451 0
3.7300003 1.8280847 0.41601339 0
3.7380002 1.8265657 0.41604224 0
3.7470002 1.8255774 0.41607469 0
3.7550004 1.823999 0.41610357 0
3.7640002 1.8229474 0.41613603 0
3.7720003 1.8213096 0.4161649 0
3.7810001 1.8201947 0.41619736 0
3.7890003 1.8184973 0.41622624 0
3.9100003 1.8597413 0.41666275 0
3.9110003 1.8539512 0.41666636 0
3.9130003 1.8486968 0.41667357 0
3.9160004 1.8439726 0.41668439 0
3.9190001 1.8392376 0.41669521 0
3.9220002 1.8344916 0.41670603 0
3.9260004 1.8302672 0.41672048 0
3.9310002 1.8265585 0.41673851 0
3.9370003 1.8233604 0.41676015 0
3.9440002 1.8206673 0.41678542 0
3.9520004 1.8184739 0.41681427 0
3.9640002 1.818344 0.41685757 0
3.7050002 1.8318996 0.40996161 0
3.7130003 1.8304694 0.40997604 0
3.7220004 1.8295747 0.40999228 0
3.7300003 1.8280847 0.4100067 0
3.7380002 1.8265657 0.41002113 0
3.7470002 1.8255774 0.41003737 0
3.7550004 1.823999 0.41005179 0
3.7640002 1.8229474 0.41006804 0
3.7720003 1.8213096 0.41008246 0
3.7810001 1.8201947 0.4100987 0
3.7890003 1.8184973 0.41011313 0
3.9100003 1.8597413 0.41033137 0
3.9110003 1.8539512 0.41033319 0
3.9130003 1.8486968 0.41033679 0
3.9160004 1.8439726 0.41034222 0
3.9190001 1.8392376 0.41034761 0
3.9220002 1.8344916 0.41035303 0
3.9260004 1.8302672 0.41036025 0
3.9310002 1.8265585 0.41036925 0
3.9370003 1.8233604 0.4103801 0
3.9440002 1.8206673 0.4103927 0
3.9520004 1.8184739 0.41040716 0
3.9640002 1.818344 0.41042879 0
3.7050002 1.8318996 0.40400001 0
3.7130003 1.8304694 0.40400001 0
3.7220004 1.8295747 0.40400001 0
3.7300003 1.8280847 0.40400001 0
3.7380002 1.8265657 0.40400001 0
3.7470002 1.8255774 0.40400001 0
3.7550004 1.823999 0.40400001 0
3.7640002 1.8229474 0.40400001 0
3.7720003 1.8213096 0.40400001 0
3.7810001 1.8201947 0.40400001 0
3.7890003 1.8184973 0.40400001 0
3.9100003 1.8597413 0.40400001 0
3.9110003 1.8539512 0.40400001 0
3.9130003 1.8486968 0.40400001 0
3.9160004 1.8439726 0.40400001 0
3.9190001 1.8392376 0.40400001 0
3.9220002 1.8344916 0.40400001 0
3.9260004 1.8302672 0.40400001 0
3.9310002 1.8265585 0.40400001 0
3.9370003 1.8233604 0.40400001 0
3.9440002 1.8206673 0.40400001 0
3.9520004 1.8184739 0.40400001 0
3.9640002 1.818344 0.40400001 0
3.7050002 1.8318996 0.39803842 0
3.7130003 1.8304694 0.39802399 0
3.7220004 1.8295747 0.39800775 0
3.7300003 1.8280847 0.39799333 0
3.7380002 1.8265657 0.3979789 0
3.7470002 1.8255774 0.39796266 0
3.7550004 1.823999 0.39794824 0
3.7640002 1.8229474 0.39793199 0
3.7720003 1.8213096 0.39791757 0
3.7810001 1.8201947 0.39790133 0
3.7890003 1.8184973 0.3978869 0
3.9100003 1.8597413 0.39766866 0
3.9110003 1.8539512 0.39766684 0
3.9130003 1.8486968 0.39766324 0
3.9160004 1.8439726 0.39765781 0
3.9190001 1.8392376 0.39765242 0
3.9220002 1.8344916 0.39764699 0
3.9260004 1.8302672 0.39763978 0
3.9310002 1.8265585 0.39763078 0
3.9370003 1.8233604 0.39761993 0
3.9440002 1.8206673 0.39760733 0
3.9520004 1.8184739 0.39759287 0
3.9640002 1.818344 0.39757124 0
3.7130003 1.8304694 0.39204797 0
3.7220004 1.8295747 0.39201552 0
3.7300003 1.8280847 0.39198664 0
3.7380002 1.8265657 0.39195779 0
3.7470002 1.8255774 0.39192533 0
3.7550004 1.823999 0.39189646 0
3.7640002 1.8229474 0.391864 0
3.7720003 1.8213096 0.39183512 0
3.7810001 1.8201947 0.39180267 0
3.7890003 1.8184973 0.39177379 0
3.9100003 1.8597413 0.39133728 0
3.9110003 1.8539512 0.39133367 0
3.9130003 1.8486968 0.39132646 0
3.9160004 1.8439726 0.39131564 0
3.9190001 1.8392376 0.39130482 0
3.9220002 1.8344916 0.391294 0
3.9260004 1.8302672 0.39127955 0
3.9310002 1.8265585 0.39126152 0
3.9370003 1.8233604 0.39123988 0
3.9440002 1.8206673 0.39121461 0
3.9520004 1.8184739 0.39118576 0
3.9640002 1.818344 0.39114246 0
3.7530003 1.8773177 0.3858555 0
3.7530003 1.8712695 0.3858555 0
3.7530003 1.8652215 0.3858555 0
3.7540002 1.8597413 0.3858501 0
3.7570002 1.8553905 0.38583386 0
3.7600002 1.851029 0.38581762 0
3.7640002 1.8472193 0.38579598 0
3.7690003 1.8439562 0.38576892 0
3.7750003 1.8412344 0.38573647 0
3.7850003 1.8407203 0.38568234 0
3.9130003 1.8867174 0.38498968 0
3.9110003 1.8792838 0.3850005 0
3.9100003 1.8724041 0.38500592 0
3.9090002 1.865528 0.38501132 0
3.9100003 1.8597413 0.38500592 0
3.9110003 1.8539512 0.3850005 0
3.9130003 1.8486968 0.38498968 0
3.9160004 1.8439726 0.38497344 0
3.9190001 1.8392376 0.38495722 0
3.9220002 1.8344916 0.38494098 0
3.9260004 1.8302672 0.38491935 0
3.9310002 1.8265585 0.38489228 0
3.9370003 1.8233604 0.3848598 0
3.9440002 1.8206673 0.38482192 0
3.9520004 1.8184739 0.38477862 0
3.9640002 1.818344 0.38471371 0
3.7570002 1.8856676 0.37977847 0
3.7530003 1.8773177 0.37980735 0
3.7530003 1.8712695 0.37980735 0
3.7530003 1.8652215 0.37980735 0
3.7540002 1.8597413 0.37980011 0
3.7570002 1.8553905 0.37977847 0
3.7600002 1.851029 0.37975684 0
3.7640002 1.8472193 0.37972796 0
3.7690003 1.8439562 0.3796919 0
3.7750003 1.8412344 0.3796486 0
3.7850003 1.8407203 0.37957644 0
3.9130003 1.8867174 0.3786529 0
3.9110003 1.8792838 0.37866732 0
3.9100003 1.8724041 0.37867454 0
3.9090002 1.865528 0.37868175 0
3.9100003 1.8597413 0.37867454 0
3.9110003 1.8539512 0.37866732 0
3.9130003 1.8486968 0.3786529 0
3.9160004 1.8439726 0.37863126 0
3.9190001 1.8392376 0.3786096 0
3.9220002 1.8344916 0.37858796 0
3.9260004 1.8302672 0.37855911 0
3.9310002 1.8265585 0.37852302 0
3.9370003 1.8233604 0.37847975 0
3.9440002 1.8206673 0.37842923 0
3.9520004 1.8184739 0.37837151 0
3.9640002 1.818344 0.37828493 0
3.7570002 1.8856676 0.37372309 0
3.7530003 1.8773177 0.37375918 0
3.7530003 1.8712695 0.37375918 0
3.7530003 1.8652215 0.37375918 0
3.7540002 1.8597413 0.37375015 0
3.7570002 1.8553905 0.37372309 0
3.7600002 1.851029 0.37369603 0
3.7640002 1.8472193 0.37365997 0
3.7690003 1.8439562 0.37361488 0
3.7750003 1.8412344 0.37356076 0
3.7850003 1.8407203 0.37347054 0
3.9130003 1.8867174 0.37231612 0
3.9110003 1.8792838 0.37233415 0
3.9100003 1.8724041 0.37234318 0
3.9090002 1.865528 0.37235221 0
3.9100003 1.8597413 0.37234318 0
3.9110003 1.8539512 0.37233415 0
3.9130003 1.8486968 0.37231612 0
3.9160004 1.8439726 0.37228906 0
3.9190001 1.8392376 0.372262 0
3.9220002 1.8344916 0.37223494 0
3.9260004 1.8302672 0.37219888 0
3.9310002 1.8265585 0.37215379 0
3.9370003 1.8233604 0.37209967 0
3.9440002 1.8206673 0.37203652 0
3.9520004 1.8184739 0.37196437 0
3.9640002 1.818344 0.37185615 0
3.7570002 1.8856676 0.3676677 0
3.7530003 1.8773177 0.36771101 0
3.7530003 1.8712695 0.36771101 0
3.7530003 1.8652215 0.36771101 0
3.7540002 1.8597413 0.36770019 0
3.7570002 1.8553905 0.3676677 0
3.7600002 1.851029 0.36763525 0
3.7640002 1.8472193 0.36759195 0
3.7690003 1.8439562 0.36753783 0
3.7750003 1.8412344 0.36747289 0
3.7850003 1.8407203 0.36736467 0
3.9180002 1.8958139 0.36592522 0
3.9130003 1.8867174 0.36597934 0
3.9110003 1.8792838 0.36600098 0
3.9100003 1.8724041 0.3660118 0
3.9090002 1.865528 0.36602265 0
3.9100003 1.8597413 0.3660118 0
3.9110003 1.8539512 0.36600098 0
3.9130003 1.8486968 0.36597934 0
3.9160004 1.8439726 0.36594689 0
3.9190001 1.8392376 0.3659144 0
3.9220002 1.8344916 0.36588195 0
3.9260004 1.8302672 0.36583865 0
3.9310002 1.8265585 0.36578453 0
3.9370003 1.8233604 0.36571959 0
3.9440002 1.8206673 0.36564383 0
3.9520004 1.8184739 0.36555725 0
3.9640002 1.818344 0.36542737 0
3.7570002 1.8856676 0.36161232 0
3.7530003 1.8773177 0.36166283 0
3.7530003 1.8712695 0.36166283 0
3.7530003 1.8652215 0.36166283 0
3.7540002 1.8597413 0.3616502 0
3.7570002 1.8553905 0.36161232 0
3.7600002 1.851029 0.36157444 0
3.7640002 1.8472193 0.36152393 0
3.7690003 1.8439562 0.3614608 0
3.7750003 1.8412344 0.36138505 0
3.7850003 1.8407203 0.36125877 0
3.9180002 1.8958139 0.35957944 0
3.9130003 1.8867174 0.35964257 0
3.9110003 1.8792838 0.35966781 0
3.9100003 1.8724041 0.35968044 0
3.9090002 1.865528 0.35969308 0
3.9100003 1.8597413 0.35968044 0
3.9110003 1.8539512 0.35966781 0
3.9130003 1.8486968 0.35964257 0
3.9160004 1.8439726 0.35960469 0
3.9190001 1.8392376 0.35956681 0
3.9220002 1.8344916 0.35952893 0
3.9260004 1.8302672 0.35947841 0
3.9310002 1.8265585 0.35941529 0
3.9370003 1.8233604 0.35933954 0
3.9440002 1.8206673 0.35925114 0
3.9520004 1.8184739 0.35915011 0
3.9640002 1.818344 0.3589986 0
3.7570002 1.8856676 0.35555694 0
3.7530003 1.8773177 0.35561466 0
3.7530003 1.8712695 0.35561466 0
3.7530003 1.8652215 0.35561466 0
3.7540002 1.8597413 0.35560024 0
3.7570002 1.8553905 0.35555694 0
3.7600002 1.851029 0.35551366 0
3.7640002 1.8472193 0.35545594 0
3.7690003 1.8439562 0.35538378 0
3.7750003 1.8412344 0.35529718 0
3.7850003 1.8407203 0.35515288 0
3.9180002 1.8958139 0.35323364 0
3.9130003 1.8867174 0.35330579 0
3.9110003 1.8792838 0.35333467 0
3.9100003 1.8724041 0.35334909 0
3.9090002 1.865528 0.35336351 0
3.9100003 1.8597413 0.35334909 0
3.9110003 1.8539512 0.35333467 0
3.9130003 1.8486968 0.35330579 0
3.9160004 1.8439726 0.35326248 0
3.9190001 1.8392376 0.35321921 0
3.9220002 1.8344916 0.35317591 0
3.9260004 1.8302672 0.35311818 0
3.9310002 1.8265585 0.35304603 0
3.9370003 1.8233604 0.35295945 0
3.9440002 1.8206673 0.35285845 0
3.9520004 1.8184739 0.352743 0
3.9640002 1.818344 0.35256982 0
3.7570002 1.8856676 0.34950155 0
3.7530003 1.8773177 0.34956649 0
3.7530003 1.8712695 0.34956649 0
3.7530003 1.8652215 0.34956649 0
3.7540002 1.8597413 0.34955025 0
3.7570002 1.8553905 0.34950155 0
3.7600002 1.851029 0.34945285 0
3.7640002 1.8472193 0.34938791 0
3.7690003 1.8439562 0.34930673 0
3.7750003 1.8412344 0.34920934 0
3.7850003 1.8407203 0.34904701 0
3.9180002 1.8958139 0.34688783 0
3.9130003 1.8867174 0.34696901 0
3.9110003 1.8792838 0.34700149 0
3.9100003 1.8724041 0.34701771 0
3.9090002 1.865528 0.34703395 0
3.9100003 1.8597413 0.34701771 0
3.9110003 1.8539512 0.34700149 0
3.9130003 1.8486968 0.34696901 0
3.9160004 1.8439726 0.34692031 0
3.9190001 1.8392376 0.34687161 0
3.9220002 1.8344916 0.34682292 0
3.9260004 1.8302672 0.34675795 0
3.9310002 1.8265585 0.3466768 0
3.9370003 1.8233604 0.34657937 0
3.9440002 1.8206673 0.34646574 0
3.9520004 1.8184739 0.34633586 0
3.9640002 1.818344 0.34614107 0
3.7570002 1.8856676 0.34344617 0
3.7530003 1.8773177 0.34351832 0
3.7530003 1.8712695 0.34351832 0
3.7530003 1.8652215 0.34351832 0
3.7540002 1.8597413 0.34350029 0
3.7570002 1.8553905 0.34344617 0
3.7600002 1.851029 0.34339204 0
3.7640002 1.8472193 0.34331989 0
3.7690003 1.8439562 0.34322971 0
3.7750003 1.8412344 0.34312147 0
3.7850003 1.8407203 0.34294111 0
3.9180002 1.8958139 0.34054205 0
3.9130003 1.8867174 0.34063223 0
3.9110003 1.8792838 0.34066832 0
3.9100003 1.8724041 0.34068635 0
3.9090002 1.865528 0.34070438 0
3.9100003 1.8597413 0.34068635 0
3.9110003 1.8539512 0.34066832 0
3.9130003 1.8486968 0.34063223 0
3.9160004 1.8439726 0.34057811 0
3.9190001 1.8392376 0.34052402 0
3.9220002 1.8344916 0.3404699 0
3.9260004 1.8302672 0.34039775 0
3.9310002 1.8265585 0.34030753 0
3.9370003 1.8233604 0.34019932 0
3.9440002 1.8206673 0.34007305 0
3.9520004 1.8184739 0.33992875 0
3.9640002 1.818344 0.33971229 0
3.7570002 1.8856676 0.33739078 0
3.7530003 1.8773177 0.33747014 0
3.7530003 1.8712695 0.33747014 0
3.7530003 1.8652215 0.33747014 0
3.7540002 1.8597413 0.33745033 0
3.7570002 1.8553905 0.33739078 0
3.7600002 1.851029 0.33733127 0
3.7640002 1.8472193 0.3372519 0
3.7690003 1.8439562 0.33715269 0
3.7750003 1.8412344 0.33703363 0
3.7850003 1.8407203 0.33683521 0
3.9180002 1.8958139 0.33419624 0
3.9130003 1.8867174 0.33429545 0
3.9110003 1.8792838 0.33433515 0
3.9100003 1.8724041 0.334355 0
3.9090002 1.865528 0.33437482 0
3.9100003 1.8597413 0.334355 0
3.9110003 1.8539512 0.33433515 0
3.9130003 1.8486968 0.33429545 0
3.9160004 1.8439726 0.33423594 0
3.9190001 1.8392376 0.33417642 0
3.9220002 1.8344916 0.33411688 0
3.9260004 1.8302672 0.33403751 0
3.9310002 1.8265585 0.3339383 0
3.9370003 1.8233604 0.33381924 0
3.9440002 1.8206673 0.33368036 0
3.9520004 1.8184739 0.3335216 0
3.9640002 1.818344 0.33328351 0
3.7570002 1.8856676 0.3313354 0
3.7530003 1.8773177 0.33142197 0
3.7530003 1.8712695 0.33142197 0
3.7530003 1.8652215 0.33142197 0
3.7540002 1.8597413 0.33140033 0
3.7570002 1.8553905 0.3313354 0
3.7600002 1.851029 0.33127046 0
3.7640002 1.8472193 0.33118388 0
3.7690003 1.8439562 0.33107567 0
3.7750003 1.8412344 0.33094579 0
3.7850003 1.8407203 0.33072931 0
3.9180002 1.8958139 0.32785046 0
3.9130003 1.8867174 0.32795867 0
3.9110003 1.8792838 0.32800198 0
3.9100003 1.8724041 0.32802361 0
3.9090002 1.865528 0.32804525 0
3.9100003 1.8597413 0.32802361 0
3.9110003 1.8539512 0.32800198 0
3.9130003 1.8486968 0.32795867 0
3.9160004 1.8439726 0.32789373 0
3.9190001 1.8392376 0.32782879 0
3.9220002 1.8344916 0.32776386 0
3.9260004 1.8302672 0.32767728 0
3.9310002 1.8265585 0.32756907 0
3.9370003 1.8233604 0.32743919 0
3.9440002 1.8206673 0.32728767 0
3.9520004 1.8184739 0.32711449 0
3.9640002 1.818344 0.32685474 0
3.7570002 1.8856676 0.32528001 0
3.7530003 1.8773177 0.32537383 0
3.7530003 1.8712695 0.32537383 0
3.7530003 1.8652215 0.32537383 0
3.7540002 1.8597413 0.32535037 0
3.7570002 1.8553905 0.32528001 0
3.7600002 1.851029 0.32520968 0
3.7640002 1.8472193 0.32511586 0
3.7690003 1.8439562 0.32499862 0
3.7750003 1.8412344 0.32485792 0
3.7850003 1.8407203 0.32462344 0
3.9180002 1.8958139 0.32150465 0
3.9130003 1.8867174 0.32162189 0
3.9110003 1.8792838 0.3216688 0
3.9100003 1.8724041 0.32169223 0
3.9090002 1.865528 0.32171571 0
3.9100003 1.8597413 0.32169223 0
3.9110003 1.8539512 0.3216688 0
3.9130003 1.8486968 0.32162189 0
3.9160004 1.8439726 0.32155156 0
3.9190001 1.8392376 0.3214812 0
3.9220002 1.8344916 0.32141086 0
3.9260004 1.8302672 0.32131705 0
3.9310002 1.8265585 0.3211998 0
3.9370003 1.8233604 0.32105911 0
3.9440002 1.8206673 0.32089496 0
3.9520004 1.8184739 0.32070738 0
3.9640002 1.818344 0.32042599 0
3.7570002 1.8856676 0.31922463 0
3.7530003 1.8773177 0.31932566 0
3.7530003 1.8712695 0.31932566 0
3.7530003 1.8652215 0.31932566 0
3.7540002 1.8597413 0.31930041 0
3.7570002 1.8553905 0.31922463 0
3.7600002 1.851029 0.31914887 0
3.7640002 1.8472193 0.31904787 0
3.7690003 1.8439562 0.3189216 0
3.7750003 1.8412344 0.31877008 0
3.7850003 1.8407203 0.31851754 0
3.9180002 1.8958139 0.31515884 0
3.9130003 1.8867174 0.31528512 0
3.9110003 1.8792838 0.31533563 0
3.9100003 1.8724041 0.31536087 0
3.9090002 1.865528 0.31538615 0
3.9100003 1.8597413 0.31536087 0
3.9110003 1.8539512 0.31533563 0
3.9130003 1.8486968 0.31528512 0
3.9160004 1.8439726 0.31520936 0
3.9190001 1.8392376 0.3151336 0
3.9220002 1.8344916 0.31505784 0
3.9260004 1.8302672 0.31495681 0
3.9310002 1.8265585 0.31483054 0
3.9370003 1.8233604 0.31467903 0
3.9440002 1.8206673 0.31450227 0
3.9520004 1.8184739 0.31430024 0
3.9640002 1.818344 0.31399721 0
3.7570002 1.8856676 0.31316924 0
3.7530003 1.8773177 0.31327748 0
3.7530003 1.8712695 0.31327748 0
3.7530003 1.8652215 0.31327748 0
3.7540002 1.8597413 0.31325042 0
3.7570002 1.8553905 0.31316924 0
3.7600002 1.851029 0.31308809 0
3.7640002 1.8472193 0.31297985 0
3.7690003 1.8439562 0.31284457 0
3.7750003 1.8412344 0.31268221 0
3.7850003 1.8407203 0.31241167 0
3.9180002 1.8958139 0.30881307 0
3.9130003 1.8867174 0.30894834 0
3.9110003 1.8792838 0.30900246 0
3.9100003 1.8724041 0.30902952 0
3.9090002 1.865528 0.30905658 0
3.9100003 1.8597413 0.30902952 0
3.9110003 1.8539512 0.30900246 0
3.9130003 1.8486968 0.30894834 0
3.9160004 1.8439726 0.30886716 0
3.9190001 1.8392376 0.308786 0
3.9220002 1.8344916 0.30870482 0
3.9260004 1.8302672 0.30859661 0
3.9310002 1.8265585 0.30846131 0
3.9370003 1.8233604 0.30829898 0
3.9440002 1.8206673 0.30810958 0
3.9520004 1.8184739 0.3078931 0
3.9640002 1.818344 0.30756843 0
3.7570002 1.8856676 0.30711389 0
3.7530003 1.8773177 0.30722931 0
3.7530003 1.8712695 0.30722931 0
3.7530003 1.8652215 0.30722931 0
3.7540002 1.8597413 0.30720046 0
3.7570002 1.8553905 0.30711389 0
3.7600002 1.851029 0.30702728 0
3.7640002 1.8472193 0.30691183 0
3.7690003 1.8439562 0.30676752 0
3.7750003 1.8412344 0.30659437 0
3.7850003 1.8407203 0.30630577 0
3.9180002 1.8958139 0.30246726 0
3.9130003 1.8867174 0.30261156 0
3.9110003 1.8792838 0.30266929 0
3.9100003 1.8724041 0.30269814 0
3.9090002 1.865528 0.30272701 0
3.9100003 1.8597413 0.30269814 0
3.9110003 1.8539512 0.30266929 0
3.9130003 1.8486968 0.30261156 0
3.9160004 1.8439726 0.30252498 0
3.9190001 1.8392376 0.30243841 0
3.9220002 1.8344916 0.30235183 0
3.9260004 1.8302672 0.30223638 0
3.9310002 1.8265585 0.30209208 0
3.9370003 1.8233604 0.30191889 0
3.9440002 1.8206673 0.30171686 0
3.9520004 1.8184739 0.30148599 0
3.9640002 1.818344 0.30113965 0
3.7570002 1.8856676 0.30105847 0
3.7530003 1.8773177 0.30118114 0
3.7530003 1.8712695 0.30118114 0
3.7530003 1.8652215 0.30118114 0
3.7540002 1.8597413 0.30115047 0
3.7570002 1.8553905 0.30105847 0
3.7600002 1.851029 0.3009665 0
3.7640002 1.8472193 0.30084383 0
3.7690003 1.8439562 0.3006905 0
3.7750003 1.8412344 0.30050653 0
3.7850003 1.8407203 0.30019987 0
3.9180002 1.8958139 0.29612145 0
3.9130003 1.8867174 0.29627478 0
3.9110003 1.8792838 0.29633611 0
3.9100003 1.8724041 0.29636678 0
3.9090002 1.865528 0.29639745 0
3.9100003 1.8597413 0.29636678 0
3.9110003 1.8539512 0.29633611 0
3.9130003 1.8486968 0.29627478 0
3.9160004 1.8439726 0.29618278 0
3.9190001 1.8392376 0.29609078 0
3.9220002 1.8344916 0.29599881 0
3.9260004 1.8302672 0.29587615 0
3.9310002 1.8265585 0.29572281 0
3.9370003 1.8233604 0.29553884 0
3.9440002 1.8206673 0.29532418 0
3.9520004 1.8184739 0.29507884 0
3.9640002 1.818344 0.29471087 0
3.7570002 1.8856676 0.29500312 0
3.7530003 1.8773177 0.29513296 0
3.7530003 1.8712695 0.29513296 0
3.7530003 1.8652215 0.29513296 0
3.7540002 1.8597413 0.29510051 0
3.7570002 1.8553905 0.29500312 0
3.7600002 1.851029 0.29490569 0
3.7640002 1.8472193 0.29477581 0
3.7690003 1.8439562 0.29461348 0
3.7750003 1.8412344 0.29441866 0
3.7850003 1.8407203 0.29409397 0
3.9180002 1.8958139 0.28977567 0
3.9130003 1.8867174 0.289938 0
3.9110003 1.8792838 0.29000294 0
3.9100003 1.8724041 0.2900354 0
3.9090002 1.865528 0.29006788 0
3.9100003 1.8597413 0.2900354 0
3.9110003 1.8539512 0.29000294 0
3.9130003 1.8486968 0.289938 0
3.9160004 1.8439726 0.28984058 0
3.9190001 1.8392376 0.28974319 0
3.9220002 1.8344916 0.28964579 0
3.9260004 1.8302672 0.28951591 0
3.9310002 1.8265585 0.28935358 0
3.9370003 1.8233604 0.28915876 0
3.9440002 1.8206673 0.28893149 0
3.9520004 1.8184739 0.28867173 0
3.9640002 1.818344 0.2882821 0
3.7570002 1.8856676 0.2889477 0
3.7530003 1.8773177 0.28908479 0
3.7530003 1.8712695 0.28908479 0
3.7530003 1.8652215 0.28908479 0
3.7540002 1.8597413 0.28905052 0
3.7570002 1.8553905 0.2889477 0
3.7600002 1.851029 0.28884488 0
3.7640002 1.8472193 0.28870782 0
3.7690003 1.8439562 0.28853643 0
3.7750003 1.8412344 0.28833079 0
3.7850003 1.8407203 0.2879881 0
3.9180002 1.8958139 0.28342986 0
3.9130003 1.8867174 0.28360122 0
3.9110003 1.8792838 0.28366977 0
3.9100003 1.8724041 0.28370404 0
3.9090002 1.865528 0.28373832 0
3.9100003 1.8597413 0.28370404 0
3.9110003 1.8539512 0.28366977 0
3.9130003 1.8486968 0.28360122 0
3.9160004 1.8439726 0.28349841 0
3.9190001 1.8392376 0.28339559 0
3.9220002 1.8344916 0.28329277 0
3.9260004 1.8302672 0.28315568 0
3.9310002 1.8265585 0.28298432 0
3.9370003 1.8233604 0.28277868 0
3.9440002 1.8206673 0.28253877 0
3.9520004 1.8184739 0.28226459 0
3.9640002 1.818344 0.28185332 0
3.7570002 1.8856676 0.28289235 0
3.7530003 1.8773177 0.28303662 0
3.7530003 1.8712695 0.28303662 0
3.7530003 1.8652215 0.28303662 0
3.7540002 1.8597413 0.28300056 0
3.7570002 1.8553905 0.28289235 0
3.7600002 1.851029 0.2827841 0
3.7640002 1.8472193 0.2826398 0
3.7690003 1.8439562 0.28245941 0
3.7750003 1.8412344 0.28224295 0
3.7850003 1.8407203 0.2818822 0
3.9180002 1.8958139 0.27708405 0
3.9130003 1.8867174 0.27726445 0
3.9110003 1.8792838 0.2773366 0
3.9100003 1.8724041 0.27737266 0
3.9090002 1.865528 0.27740878 0
3.9100003 1.8597413 0.27737266 0
3.9110003 1.8539512 0.2773366 0
3.9130003 1.8486968 0.27726445 0
3.9160004 1.8439726 0.27715623 0
3.9190001 1.8392376 0.27704799 0
3.9220002 1.8344916 0.27693975 0
3.9260004 1.8302672 0.27679545 0
3.9310002 1.8265585 0.27661508 0
3.9370003 1.8233604 0.2763986 0
3.9440002 1.8206673 0.27614608 0
3.9520004 1.8184739 0.27585745 0
3.9640002 1.818344 0.27542457 0
3.7570002 1.8856676 0.27683693 0
3.7530003 1.8773177 0.27698845 0
3.7530003 1.8712695 0.27698845 0
3.7530003 1.8652215 0.27698845 0
3.7540002 1.8597413 0.2769506 0
3.7570002 1.8553905 0.27683693 0
3.7600002 1.851029 0.2767233 0
3.7640002 1.8472193 0.27657178 0
3.7690003 1.8439562 0.27638239 0
3.7750003 1.8412344 0.27615511 0
3.7850003 1.8407203 0.2757763 0
3.9180002 1.8958139 0.27073824 0
3.9130003 1.8867174 0.27092767 0
3.9110003 1.8792838 0.27100343 0
3.9100003 1.8724041 0.2710413 0
3.9090002 1.865528 0.27107918 0
3.9100003 1.8597413 0.2710413 0
3.9110003 1.8539512 0.27100343 0
3.9130003 1.8486968 0.27092767 0
3.9160004 1.8439726 0.27081403 0
3.9190001 1.8392376 0.2707004 0
3.9220002 1.8344916 0.27058676 0
3.9260004 1.8302672 0.27043521 0
3.9310002 1.8265585 0.27024585 0
3.9370003 1.8233604 0.27001858 0
3.9440002 1.8206673 0.2697534 0
3.9520004 1.8184739 0.26945037 0
3.9640002 1.818344 0.26899579 0
3.7570002 1.8856676 0.27078158 0
3.7530003 1.8773177 0.2709403 0
3.7530003 1.8712695 0.2709403 0
3.7530003 1.8652215 0.2709403 0
3.7540002 1.8597413 0.27090061 0
3.7570002 1.8553905 0.27078158 0
3.7600002 1.851029 0.27066249 0
3.7640002 1.8472193 0.27050376 0
3.7690003 1.8439562 0.27030534 0
3.7750003 1.8412344 0.27006724 0
3.7850003 1.8407203 0.26967043 0
3.9180002 1.8958139 0.26439247 0
3.9130003 1.8867174 0.26459089 0
3.9110003 1.8792838 0.26467025 0
3.9100003 1.8724041 0.26470995 0
3.9090002 1.865528 0.26474965 0
3.9100003 1.8597413 0.26470995 0
3.9110003 1.8539512 0.26467025 0
3.9130003 1.8486968 0.26459089 0
3.9160004 1.8439726 0.26447183 0
3.9190001 1.8392376 0.2643528 0
3.9220002 1.8344916 0.26423374 0
3.9260004 1.8302672 0.26407498 0
3.9310002 1.8265585 0.26387656 0
3.9370003 1.8233604 0.2636385 0
3.9440002 1.8206673 0.26336068 0
3.9520004 1.8184739 0.26304322 0
3.9640002 1.818344 0.26256701 0
3.7570002 1.8856676 0.26472616 0
3.7530003 1.8773177 0.26489213 0
3.7530003 1.8712695 0.26489213 0
3.7530003 1.8652215 0.26489213 0
3.7540002 1.8597413 0.26485065 0
3.7570002 1.8553905 0.26472616 0
3.7600002 1.851029 0.26460171 0
3.7640002 1.8472193 0.26443577 0
3.7690003 1.8439562 0.26422831 0
3.7750003 1.8412344 0.26397938 0
3.7850003 1.8407203 0.26356453 0
3.9180002 1.8958139 0.25804669 0
3.9130003 1.8867174 0.25825411 0
3.9110003 1.8792838 0.25833708 0
3.9100003 1.8724041 0.25837857 0
3.9090002 1.865528 0.25842005 0
3.9100003 1.8597413 0.25837857 0
3.9110003 1.8539512 0.25833708 0
3.9130003 1.8486968 0.25825411 0
3.9160004 1.8439726 0.25812966 0
3.9190001 1.8392376 0.2580052 0
3.9220002 1.8344916 0.25788072 0
3.9260004 1.8302672 0.25771475 0
3.9310002 1.8265585 0.25750732 0
3.9370003 1.8233604 0.25725842 0
3.9440002 1.8206673 0.25696802 0
3.9520004 1.8184739 0.25663608 0
3.9640002 1.818344 0.25613827 0
3.7570002 1.8856676 0.25867081 0
3.7530003 1.8773177 0.25884396 0
3.7530003 1.8712695 0.25884396 0
3.7530003 1.8652215 0.25884396 0
3.7540002 1.8597413 0.25880069 0
3.7570002 1.8553905 0.25867081 0
3.7600002 1.851029 0.25854093 0
3.7640002 1.8472193 0.25836778 0
3.7690003 1.8439562 0.25815129 0
3.7750003 1.8412344 0.25789154 0
3.7850003 1.8407203 0.25745863 0
3.9180002 1.8958139 0.25170088 0
3.9130003 1.8867174 0.25191733 0
3.9110003 1.8792838 0.25200391 0
3.9100003 1.8724041 0.25204721 0
3.9090002 1.865528 0.25209051 0
3.9100003 1.8597413 0.25204721 0
3.9110003 1.8539512 0.25200391 0
3.9130003 1.8486968 0.25191733 0
3.9160004 1.8439726 0.25178748 0
3.9190001 1.8392376 0.25165761 0
3.9220002 1.8344916 0.25152773 0
3.9260004 1.8302672 0.25135455 0
3.9310002 1.8265585 0.25113809 0
3.9370003 1.8233604 0.25087833 0
3.9440002 1.8206673 0.2505753 0
3.9520004 1.8184739 0.25022894 0
3.9640002 1.818344 0.24970947 0
3.7570002 1.8856676 0.25261539 0
3.7530003 1.8773177 0.25279579 0
3.7530003 1.8712695 0.25279579 0
3.7530003 1.8652215 0.25279579 0
3.7540002 1.8597413 0.25275069 0
3.7570002 1.8553905 0.25261539 0
3.7600002 1.851029 0.25248015 0
3.7640002 1.8472193 0.25229976 0
3.7690003 1.8439562 0.25207424 0
3.7750003 1.8412344 0.2518037 0
3.7850003 1.8407203 0.25135273 0
3.9180002 1.8958139 0.24535508 0
3.9130003 1.8867174 0.24558055 0
3.9110003 1.8792838 0.24567075 0
3.9100003 1.8724041 0.24571584 0
3.9090002 1.865528 0.24576095 0
3.9100003 1.8597413 0.24571584 0
3.9110003 1.8539512 0.24567075 0
3.9130003 1.8486968 0.24558055 0
3.9160004 1.8439726 0.24544527 0
3.9190001 1.8392376 0.24530999 0
3.9220002 1.8344916 0.24517471 0
3.9260004 1.8302672 0.24499431 0
3.9310002 1.8265585 0.24476884 0
3.9370003 1.8233604 0.24449827 0
3.9440002 1.8206673 0.2441826 0
3.9520004 1.8184739 0.24382183 0
3.9640002 1.818344 0.24328069 0
3.7570002 1.8856676 0.24656002 0
3.7530003 1.8773177 0.24674763 0
3.7530003 1.8712695 0.24674763 0
3.7530003 1.8652215 0.24674763 0
3.7540002 1.8597413 0.24670072 0
3.7570002 1.8553905 0.24656002 0
3.7600002 1.851029 0.24641934 0
3.7640002 1.8472193 0.24623173 0
3.7690003 1.8439562 0.24599724 0
3.7750003 1.8412344 0.24571584 0
3.7850003 1.8407203 0.24524684 0
3.9180002 1.8958139 0.23900929 0
3.9130003 1.8867174 0.23924378 0
3.9110003 1.8792838 0.23933758 0
3.9100003 1.8724041 0.23938447 0
3.9090002 1.865528 0.23943138 0
3.9100003 1.8597413 0.23938447 0
3.9110003 1.8539512 0.23933758 0
3.9130003 1.8486968 0.23924378 0
3.9160004 1.8439726 0.23910308 0
3.9190001 1.8392376 0.23896238 0
3.9220002 1.8344916 0.2388217 0
3.9260004 1.8302672 0.23863408 0
3.9310002 1.8265585 0.23839961 0
3.9370003 1.8233604 0.2381182 0
3.9440002 1.8206673 0.23778991 0
3.9520004 1.8184739 0.23741472 0
3.9640002 1.818344 0.23685193 0
3.7570002 1.8856676 0.24050465 0
3.7530003 1.8773177 0.24069946 0
3.7530003 1.8712695 0.24069946 0
3.7530003 1.8652215 0.24069946 0
3.7540002 1.8597413 0.24065076 0
3.7570002 1.8553905 0.24050465 0
3.7600002 1.851029 0.24035853 0
3.7640002 1.8472193 0.24016373 0
3.7690003 1.8439562 0.2399202 0
3.7750003 1.8412344 0.23962799 0
3.7850003 1.8407203 0.23914096 0
3.9180002 1.8958139 0.2326635 0
3.9130003 1.8867174 0.232907 0
3.9110003 1.8792838 0.23300441 0
3.9100003 1.8724041 0.2330531 0
3.9090002 1.865528 0.23310181 0
3.9100003 1.8597413 0.2330531 0
3.9110003 1.8539512 0.23300441 0
3.9130003 1.8486968 0.232907 0
3.9160004 1.8439726 0.23276089 0
3.9190001 1.8392376 0.23261479 0
3.9220002 1.8344916 0.23246868 0
3.9260004 1.8302672 0.23227386 0
3.9310002 1.8265585 0.23203035 0
3.9370003 1.8233604 0.23173812 0
3.9440002 1.8206673 0.23139721 0
3.9520004 1.8184739 0.23100759 0
3.9640002 1.818344 0.23042315 0
3.7570002 1.8856676 0.23444925 0
3.7530003 1.8773177 0.23465128 0
3.7530003 1.8712695 0.23465128 0
3.7530003 1.8652215 0.23465128 0
3.7540002 1.8597413 0.23460078 0
3.7570002 1.8553905 0.23444925 0
3.7600002 1.851029 0.23429774 0
3.7640002 1.8472193 0.23409571 0
3.7690003 1.8439562 0.23384316 0
3.7750003 1.8412344 0.23354013 0
3.7850003 1.8407203 0.23303507 0
3.9180002 1.8958139 0.22631769 0
3.9130003 1.8867174 0.22657022 0
3.9110003 1.8792838 0.22667123 0
3.9100003 1.8724041 0.22672173 0
3.9090002 1.865528 0.22677226 0
3.9100003 1.8597413 0.22672173 0
3.9110003 1.8539512 0.22667123 0
3.9130003 1.8486968 0.22657022 0
3.9160004 1.8439726 0.2264187 0
3.9190001 1.8392376 0.22626719 0
3.9220002 1.8344916 0.22611566 0
3.9260004 1.8302672 0.22591363 0
3.9310002 1.8265585 0.2256611 0
3.9370003 1.8233604 0.22535807 0
3.9440002 1.8206673 0.22500452 0
3.9520004 1.8184739 0.22460045 0
3.9640002 1.818344 0.22399437 0
3.7570002 1.8856676 0.22839387 0
3.7530003 1.8773177 0.22860311 0
3.7530003 1.8712695 0.22860311 0
3.7530003 1.8652215 0.22860311 0
3.7540002 1.8597413 0.22855079 0
3.7570002 1.8553905 0.22839387 0
3.7600002 1.851029 0.22823694 0
3.7640002 1.8472193 0.2280277 0
3.7690003 1.8439562 0.22776614 0
3.7750003 1.8412344 0.22745228 0
3.7850003 1.8407203 0.22692917 0
3.9180002 1.8958139 0.2199719 0
3.9130003 1.8867174 0.22023344 0
3.9110003 1.8792838 0.22033806 0
3.9100003 1.8724041 0.22039036 0
3.9090002 1.865528 0.2204427 0
3.9100003 1.8597413 0.22039036 0
3.9110003 1.8539512 0.22033806 0
3.9130003 1.8486968 0.22023344 0
3.9160004 1.8439726 0.22007652 0
3.9190001 1.8392376 0.21991958 0
3.9220002 1.8344916 0.21976265 0
3.9260004 1.8302672 0.21955341 0
3.9310002 1.8265585 0.21929187 0
3.9370003 1.8233604 0.21897799 0
3.9440002 1.8206673 0.21861182 0
3.9520004 1.8184739 0.21819332 0
3.9640002 1.818344 0.21756561 0
3.7570002 1.8856676 0.22233848 0
3.7530003 1.8773177 0.22255495 0
3.7530003 1.8712695 0.22255495 0
3.7530003 1.8652215 0.22255495 0
3.7540002 1.8597413 0.22250083 0
3.7570002 1.8553905 0.22233848 0
3.7600002 1.851029 0.22217615 0
3.7640002 1.8472193 0.22195968 0
3.7690003 1.8439562 0.22168911 0
3.7750003 1.8412344 0.22136442 0
3.7850003 1.8407203 0.22082329 0
3.9180002 1.8958139 0.2136261 0
3.9130003 1.8867174 0.21389666 0
3.9110003 1.8792838 0.2140049 0
3.9100003 1.8724041 0.21405901 0
3.9090002 1.865528 0.21411312 0
3.9100003 1.8597413 0.21405901 0
3.9110003 1.8539512 0.2140049 0
3.9130003 1.8486968 0.21389666 0
3.9160004 1.8439726 0.21373431 0
3.9190001 1.8392376 0.213572 0
3.9220002 1.8344916 0.21340963 0
3.9260004 1.8302672 0.21319318 0
3.9310002 1.8265585 0.2129226 0
3.9370003 1.8233604 0.21259792 0
3.9440002 1.8206673 0.21221912 0
3.9520004 1.8184739 0.21178621 0
3.9640002 1.818344 0.21113683 0
3.7570002 1.8856676 0.21628311 0
3.7530003 1.8773177 0.21650676 0
3.7530003 1.8712695 0.21650676 0
3.7530003 1.8652215 0.21650676 0
3.7540002 1.8597413 0.21645087 0
3.7570002 1.8553905 0.21628311 0
3.7600002 1.851029 0.21611536 0
3.7640002 1.8472193 0.21589167 0
3.7690003 1.8439562 0.21561208 0
3.7750003 1.8412344 0.21527657 0
3.7850003 1.8407203 0.2147174 0
3.9180002 1.8958139 0.20728029 0
3.9130003 1.8867174 0.20755988 0
3.9110003 1.8792838 0.20767173 0
3.9100003 1.8724041 0.20772764 0
3.9090002 1.865528 0.20778356 0
3.9100003 1.8597413 0.20772764 0
3.9110003 1.8539512 0.20767173 0
3.9130003 1.8486968 0.20755988 0
3.9160004 1.8439726 0.20739213 0
3.9190001 1.8392376 0.20722438 0
3.9220002 1.8344916 0.20705664 0
3.9260004 1.8302672 0.20683295 0
3.9310002 1.8265585 0.20655335 0
3.9370003 1.8233604 0.20621786 0
3.9440002 1.8206673 0.20582643 0
3.9520004 1.8184739 0.20537908 0
3.9640002 1.818344 0.20470807 0
3.7570002 1.8856676 0.21022773 0
3.7530003 1.8773177 0.21045861 0
3.7530003 1.8712695 0.21045861 0
3.7530003 1.8652215 0.21045861 0
3.7540002 1.8597413 0.21040089 0
3.7570002 1.8553905 0.21022773 0
3.7600002 1.851029 0.21005456 0
3.7640002 1.8472193 0.20982367 0
3.7690003 1.8439562 0.20953505 0
3.7750003 1.8412344 0.20918871 0
3.7850003 1.8407203 0.2086115 0
3.9180002 1.8958139 0.2009345 0
3.9130003 1.8867174 0.20122311 0
3.9110003 1.8792838 0.20133856 0
3.9100003 1.8724041 0.20139627 0
3.9090002 1.865528 0.201454 0
3.9100003 1.8597413 0.20139627 0
3.9110003 1.8539512 0.20133856 0
3.9130003 1.8486968 0.20122311 0
3.9160004 1.8439726 0.20104994 0
3.9190001 1.8392376 0.20087679 0
3.9220002 1.8344916 0.20070362 0
3.9260004 1.8302672 0.20047271 0
3.9310002 1.8265585 0.20018412 0
3.9370003 1.8233604 0.19983779 0
3.9440002 1.8206673 0.19943373 0
3.9520004 1.8184739 0.19897194 0
3.9640002 1.818344 0.19827929 0
3.7570002 1.8856676 0.20417233 0
3.7530003 1.8773177 0.20441045 0
3.7530003 1.8712695 0.20441045 0
3.7530003 1.8652215 0.20441045 0
3.7540002 1.8597413 0.2043509 0
3.7570002 1.8553905 0.20417233 0
3.7600002 1.851029 0.20399375 0
3.7640002 1.8472193 0.20375566 0
3.7690003 1.8439562 0.20345801 0
3.7750003 1.8412344 0.20310088 0
3.7850003 1.8407203 0.2025056 0
3.9180002 1.8958139 0.19458871 0
3.9130003 1.8867174 0.19488633 0
3.9110003 1.8792838 0.19500537 0
3.9100003 1.8724041 0.1950649 0
3.9090002 1.865528 0.19512443 0
3.9100003 1.8597413 0.1950649 0
3.9110003 1.8539512 0.19500537 0
3.9130003 1.8486968 0.19488633 0
3.9160004 1.8439726 0.19470775 0
3.9190001 1.8392376 0.19452919 0
3.9220002 1.8344916 0.1943506 0
3.9260004 1.8302672 0.19411249 0
3.9310002 1.8265585 0.19381487 0
3.9370003 1.8233604 0.19345771 0
3.9440002 1.8206673 0.19304104 0
3.9520004 1.8184739 0.19256482 0
3.9640002 1.818344 0.19185051 0
3.7570002 1.8856676 0.19811696 0
3.7530003 1.8773177 0.19836226 0
3.7530003 1.8712695 0.19836226 0
3.7530003 1.8652215 0.19836226 0
3.7540002 1.8597413 0.19830094 0
3.7570002 1.8553905 0.19811696 0
3.7600002 1.851029 0.19793296 0
3.7640002 1.8472193 0.19768766 0
3.7690003 1.8439562 0.19738099 0
3.7750003 1.8412344 0.19701302 0
3.7850003 1.8407203 0.19639972 0
3.9180002 1.8958139 0.1882429 0
3.9130003 1.8867174 0.18854955 0
3.9110003 1.8792838 0.1886722 0
3.9100003 1.8724041 0.18873353 0
3.9090002 1.865528 0.18879488 0
3.9100003 1.8597413 0.18873353 0
3.9110003 1.8539512 0.1886722 0
3.9130003 1.8486968 0.18854955 0
3.9160004 1.8439726 0.18836556 0
3.9190001 1.8392376 0.18818158 0
3.9220002 1.8344916 0.18799759 0
3.9260004 1.8302672 0.18775226 0
3.9310002 1.8265585 0.18744563 0
3.9370003 1.8233604 0.18707764 0
3.9440002 1.8206673 0.18664834 0
3.9520004 1.8184739 0.18615769 0
3.9640002 1.818344 0.18542175 0
3.7570002 1.8856676 0.19206157 0
3.7530003 1.8773177 0.1923141 0
3.7530003 1.8712695 0.1923141 0
3.7530003 1.8652215 0.1923141 0
3.7540002 1.8597413 0.19225098 0
3.7570002 1.8553905 0.19206157 0
3.7600002 1.851029 0.19187216 0
3.7640002 1.8472193 0.19161963 0
3.7690003 1.8439562 0.19130397 0
3.7750003 1.8412344 0.19092517 0
3.7850003 1.8407203 0.19029383 0
3.9180002 1.8958139 0.1818971 0
3.9130003 1.8867174 0.18221277 0
3.9110003 1.8792838 0.18233904 0
3.9100003 1.8724041 0.18240218 0
3.9090002 1.865528 0.18246531 0
3.9100003 1.8597413 0.18240218 0
3.9110003 1.8539512 0.18233904 0
3.9130003 1.8486968 0.18221277 0
3.9160004 1.8439726 0.18202336 0
3.9190001 1.8392376 0.18183398 0
3.9220002 1.8344916 0.18164457 0
3.9260004 1.8302672 0.18139203 0
3.9310002 1.8265585 0.18107638 0
3.9370003 1.8233604 0.18069758 0
3.9440002 1.8206673 0.18025564 0
3.9520004 1.8184739 0.17975058 0
3.9640002 1.818344 0.17899297 0
3.7570002 1.8856676 0.18600619 0
3.7530003 1.8773177 0.18626593 0
3.7530003 1.8712695 0.18626593 0
3.7530003 1.8652215 0.18626593 0
3.7540002 1.8597413 0.18620099 0
3.7570002 1.8553905 0.18600619 0
3.7600002 1.851029 0.18581137 0
3.7640002 1.8472193 0.18555163 0
3.7690003 1.8439562 0.18522693 0
3.7750003 1.8412344 0.18483731 0
3.7850003 1.8407203 0.18418793 0
3.9180002 1.8958139 0.17555131 0
3.9130003 1.8867174 0.17587599 0
3.9110003 1.8792838 0.17600587 0
3.9100003 1.8724041 0.17607079 0
3.9090002 1.865528 0.17613575 0
3.9100003 1.8597413 0.17607079 0
3.9110003 1.8539512 0.17600587 0
3.9130003 1.8486968 0.17587599 0
3.9160004 1.8439726 0.17568117 0
3.9190001 1.8392376 0.17548637 0
3.9220002 1.8344916 0.17529157 0
3.9260004 1.8302672 0.1750318 0
3.9310002 1.8265585 0.17470713 0
3.9370003 1.8233604 0.17431749 0
3.9440002 1.8206673 0.17386295 0
3.9520004 1.8184739 0.17334343 0
3.9640002 1.818344 0.17256421 0
3.7570002 1.8856676 0.17995079 0
3.7530003 1.8773177 0.18021776 0
3.7530003 1.8712695 0.18021776 0
3.7530003 1.8652215 0.18021776 0
3.7540002 1.8597413 0.18015102 0
3.7570002 1.8553905 0.17995079 0
3.7600002 1.851029 0.17975058 0
3.7640002 1.8472193 0.17948362 0
3.7690003 1.8439562 0.17914991 0
3.7750003 1.8412344 0.17874946 0
3.7850003 1.8407203 0.17808205 0
3.9180002 1.8958139 0.16920552 0
3.9130003 1.8867174 0.16953923 0
3.9110003 1.8792838 0.16967268 0
3.9100003 1.8724041 0.16973943 0
3.9090002 1.865528 0.16980618 0
3.9100003 1.8597413 0.16973943 0
3.9110003 1.8539512 0.16967268 0
3.9130003 1.8486968 0.16953923 0
3.9160004 1.8439726 0.16933899 0
3.9190001 1.8392376 0.16913877 0
3.9220002 1.8344916 0.16893856 0
3.9260004 1.8302672 0.16867158 0
3.9310002 1.8265585 0.16833788 0
3.9370003 1.8233604 0.16793744 0
3.9440002 1.8206673 0.16747025 0
3.9520004 1.8184739 0.16693631 0
3.9640002 1.818344 0.16613542 0
3.7570002 1.8856676 0.17389542 0
3.7530003 1.8773177 0.17416959 0
3.7530003 1.8712695 0.17416959 0
3.7530003 1.8652215 0.17416959 0
3.7540002 1.8597413 0.17410105 0
3.7570002 1.8553905 0.17389542 0
3.7600002 1.851029 0.17368978 0
3.7640002 1.8472193 0.17341562 0
3.7690003 1.8439562 0.17307287 0
3.7750003 1.8412344 0.17266159 0
3.7850003 1.8407203 0.17197616 0
3.9180002 1.8958139 0.16285971 0
3.9130003 1.8867174 0.16320245 0
3.9110003 1.8792838 0.16333954 0
3.9100003 1.8724041 0.16340807 0
3.9090002 1.865528 0.16347663 0
3.9100003 1.8597413 0.16340807 0
3.9110003 1.8539512 0.16333954 0
3.9130003 1.8486968 0.16320245 0
3.9160004 1.8439726 0.16299678 0
3.9190001 1.8392376 0.16279118 0
3.9220002 1.8344916 0.16258556 0
3.9260004 1.8302672 0.16231136 0
3.9310002 1.8265585 0.16196863 0
3.9370003 1.8233604 0.16155736 0
3.9440002 1.8206673 0.16107754 0
3.9520004 1.8184739 0.16052918 0
3.9640002 1.818344 0.15970665 0
3.7570002 1.8856676 0.16784003 0
3.7530003 1.8773177 0.16812141 0
3.7530003 1.8712695 0.16812141 0
3.7530003 1.8652215 0.16812141 0
3.7540002 1.8597413 0.16805108 0
3.7570002 1.8553905 0.16784003 0
3.7600002 1.851029 0.16762897 0
3.7640002 1.8472193 0.1673476 0
3.7690003 1.8439562 0.16699585 0
3.7750003 1.8412344 0.16657373 0
3.7850003 1.8407203 0.16587025 0
3.9180002 1.8958139 0.15651391 0
3.9130003 1.8867174 0.15686567 0
3.9110003 1.8792838 0.15700637 0
3.9100003 1.8724041 0.15707669 0
3.9090002 1.865528 0.15714706 0
3.9100003 1.8597413 0.15707669 0
3.9110003 1.8539512 0.15700637 0
3.9130003 1.8486968 0.15686567 0
3.9160004 1.8439726 0.15665461 0
3.9190001 1.8392376 0.15644358 0
3.9220002 1.8344916 0.15623254 0
3.9260004 1.8302672 0.15595113 0
3.9310002 1.8265585 0.1555994 0
3.9370003 1.8233604 0.1551773 0
3.9440002 1.8206673 0.15468486 0
3.9520004 1.8184739 0.15412205 0
3.9640002 1.818344 0.1532779 0
3.7570002 1.8856676 0.16178466 0
3.7530003 1.8773177 0.16207324 0
3.7530003 1.8712695 0.16207324 0
3.7530003 1.8652215 0.16207324 0
3.7540002 1.8597413 0.1620011 0
3.7570002 1.8553905 0.16178466 0
3.7600002 1.851029 0.16156818 0
3.7640002 1.8472193 0.16127959 0
3.7690003 1.8439562 0.16091882 0
3.7750003 1.8412344 0.16048589 0
3.7850003 1.8407203 0.15976438 0
3.9180002 1.8958139 0.15016812 0
3.9130003 1.8867174 0.15052888 0
3.9110003 1.8792838 0.15067318 0
3.9100003 1.8724041 0.15074533 0
3.9090002 1.865528 0.15081751 0
3.9100003 1.8597413 0.15074533 0
3.9110003 1.8539512 0.15067318 0
3.9130003 1.8486968 0.15052888 0
3.9160004 1.8439726 0.15031242 0
3.9190001 1.8392376 0.15009597 0
3.9220002 1.8344916 0.14987952 0
3.9260004 1.8302672 0.14959091 0
3.9310002 1.8265585 0.14923015 0
3.9370003 1.8233604 0.14879721 0
3.9440002 1.8206673 0.14829215 0
3.9520004 1.8184739 0.14771491 0
3.9640002 1.818344 0.14684913 0
3.7570002 1.8856676 0.15572925 0
3.7530003 1.8773177 0.15602508 0
3.7530003 1.8712695 0.15602508 0
3.7530003 1.8652215 0.15602508 0
3.7540002 1.8597413 0.15595113 0
3.7570002 1.8553905 0.15572925 0
3.7600002 1.851029 0.15550739 0
3.7640002 1.8472193 0.15521158 0
3.7690003 1.8439562 0.15484178 0
3.7750003 1.8412344 0.15439804 0
3.7850003 1.8407203 0.15365848 0
3.9180002 1.8958139 0.14382231 0
3.9130003 1.8867174 0.1441921 0
3.9110003 1.8792838 0.14434001 0
3.9100003 1.8724041 0.14441398 0
3.9090002 1.865528 0.14448795 0
3.9100003 1.8597413 0.14441398 0
3.9110003 1.8539512 0.14434001 0
3.9130003 1.8486968 0.1441921 0
3.9160004 1.8439726 0.14397025 0
3.9190001 1.8392376 0.14374837 0
3.9220002 1.8344916 0.14352649 0
3.9260004 1.8302672 0.14323068 0
3.9310002 1.8265585 0.14286089 0
3.9370003 1.8233604 0.14241713 0
3.9440002 1.8206673 0.14189947 0
3.9520004 1.8184739 0.1413078 0
3.9640002 1.818344 0.14042035 0
3.7570002 1.8856676 0.14967388 0
3.7530003 1.8773177 0.14997691 0
3.7530003 1.8712695 0.14997691 0
3.7530003 1.8652215 0.14997691 0
3.7540002 1.8597413 0.14990115 0
3.7570002 1.8553905 0.14967388 0
3.7600002 1.851029 0.14944658 0
3.7640002 1.8472193 0.14914355 0
3.7690003 1.8439562 0.14876476 0
3.7750003 1.8412344 0.14831018 0
3.7850003 1.8407203 0.14755258 0
3.9180002 1.8958139 0.1374765 0
3.9130003 1.8867174 0.13785532 0
3.9110003 1.8792838 0.13800684 0
3.9100003 1.8724041 0.13808259 0
3.9090002 1.865528 0.13815838 0
3.9100003 1.8597413 0.13808259 0
3.9110003 1.8539512 0.13800684 0
3.9130003 1.8486968 0.13785532 0
3.9160004 1.8439726 0.13762805 0
3.9190001 1.8392376 0.13740078 0
3.9220002 1.8344916 0.1371735 0
3.9260004 1.8302672 0.13687044 0
3.9310002 1.8265585 0.13649166 0
3.9370003 1.8233604 0.13603711 0
3.9440002 1.8206673 0.13550678 0
3.9520004 1.8184739 0.13490069 0
3.9640002 1.818344 0.13399157 0
3.7570002 1.8856676 0.14361849 0
3.7530003 1.8773177 0.14392877 0
3.7530003 1.8712695 0.14392877 0
3.7530003 1.8652215 0.14392877 0
3.7540002 1.8597413 0.14385119 0
3.7570002 1.8553905 0.14361849 0
3.7600002 1.851029 0.1433858 0
3.7640002 1.8472193 0.14307556 0
3.7690003 1.8439562 0.14268774 0
3.7750003 1.8412344 0.14222232 0
3.7850003 1.8407203 0.14144671 0
3.9180002 1.8958139 0.13113073 0
3.9130003 1.8867174 0.13151854 0
3.9110003 1.8792838 0.13167366 0
3.9100003 1.8724041 0.13175124 0
3.9090002 1.865528 0.13182878 0
3.9100003 1.8597413 0.13175124 0
3.9110003 1.8539512 0.13167366 0
3.9130003 1.8486968 0.13151854 0
3.9160004 1.8439726 0.13128585 0
3.9190001 1.8392376 0.13105318 0
3.9220002 1.8344916 0.13082048 0
3.9260004 1.8302672 0.13051021 0
3.9310002 1.8265585 0.13012239 0
3.9370003 1.8233604 0.12965703 0
3.9440002 1.8206673 0.12911406 0
3.9520004 1.8184739 0.12849355 0
3.9640002 1.818344 0.12756282 0
3.7570002 1.8856676 0.13756311 0
3.7530003 1.8773177 0.13788056 0
3.7530003 1.8712695 0.13788056 0
3.7530003 1.8652215 0.13788056 0
3.7540002 1.8597413 0.13780123 0
3.7570002 1.8553905 0.13756311 0
3.7600002 1.851029 0.13732499 0
3.7640002 1.8472193 0.13700753 0
3.7690003 1.8439562 0.13661069 0
3.7750003 1.8412344 0.13613448 0
3.7850003 1.8407203 0.13534081 0
3.9180002 1.8958139 0.12478492 0
3.9130003 1.8867174 0.12518176 0
3.9110003 1.8792838 0.12534049 0
3.9100003 1.8724041 0.12541988 0
3.9090002 1.865528 0.12549925 0
3.9100003 1.8597413 0.12541988 0
3.9110003 1.8539512 0.12534049 0
3.9130003 1.8486968 0.12518176 0
3.9160004 1.8439726 0.12494367 0
3.9190001 1.8392376 0.12470558 0
3.9220002 1.8344916 0.12446746 0
3.9260004 1.8302672 0.12414998 0
3.9310002 1.8265585 0.12375313 0
3.9370003 1.8233604 0.12327695 0
3.9440002 1.8206673 0.12272137 0
3.9520004 1.8184739 0.12208644 0
3.9640002 1.818344 0.12113401 0
3.7570002 1.8856676 0.13150772 0
3.7530003 1.8773177 0.13183239 0
3.7530003 1.8712695 0.13183239 0
3.7530003 1.8652215 0.13183239 0
3.7540002 1.8597413 0.13175124 0
3.7570002 1.8553905 0.13150772 0
3.7600002 1.851029 0.13126421 0
3.7640002 1.8472193 0.13093951 0
3.7690003 1.8439562 0.13053367 0
3.7750003 1.8412344 0.13004664 0
3.7850003 1.8407203 0.12923491 0
3.9180002 1.8958139 0.11843914 0
3.9130003 1.8867174 0.11884499 0
3.9110003 1.8792838 0.11900732 0
3.9100003 1.8724041 0.1190885 0
3.9090002 1.865528 0.11916968 0
3.9100003 1.8597413 0.1190885 0
3.9110003 1.8539512 0.11900732 0
3.9130003 1.8486968 0.11884499 0
3.9160004 1.8439726 0.11860147 0
3.9190001 1.8392376 0.11835799 0
3.9220002 1.8344916 0.11811444 0
3.9260004 1.8302672 0.11778975 0
3.9310002 1.8265585 0.1173839 0
3.9370003 1.8233604 0.11689687 0
3.9440002 1.8206673 0.11632866 0
3.9520004 1.8184739 0.11567929 0
3.9640002 1.818344 0.11470526 0
3.7570002 1.8856676 0.12545234 0
3.7530003 1.8773177 0.12578425 0
3.7530003 1.8712695 0.12578425 0
3.7530003 1.8652215 0.12578425 0
3.7540002 1.8597413 0.12570128 0
3.7570002 1.8553905 0.12545234 0
3.7600002 1.851029 0.1252034 0
3.7640002 1.8472193 0.12487152 0
3.7690003 1.8439562 0.12445661 0
3.7750003 1.8412344 0.12395877 0
3.7850003 1.8407203 0.12312904 0
3.9180002 1.8958139 0.11209333 0
3.9130003 1.8867174 0.11250821 0
3.9110003 1.8792838 0.11267415 0
3.9100003 1.8724041 0.11275715 0
3.9090002 1.865528 0.11284012 0
3.9100003 1.8597413 0.11275715 0
3.9110003 1.8539512 0.11267415 0
3.9130003 1.8486968 0.11250821 0
3.9160004 1.8439726 0.1122593 0
3.9190001 1.8392376 0.11201036 0
3.9220002 1.8344916 0.11176142 0
3.9260004 1.8302672 0.11142951 0
3.9310002 1.8265585 0.11101466 0
3.9370003 1.8233604 0.11051679 0
3.9440002 1.8206673 0.109936 0
3.9520004 1.8184739 0.10927218 0
3.9640002 1.818344 0.10827649 0
3.7570002 1.8856676 0.11939695 0
3.7530003 1.8773177 0.11973608 0
3.7530003 1.8712695 0.11973608 0
3.7530003 1.8652215 0.11973608 0
3.7540002 1.8597413 0.11965132 0
3.7570002 1.8553905 0.11939695 0
3.7600002 1.851029 0.11914262 0
3.7640002 1.8472193 0.1188035 0
3.7690003 1.8439562 0.11837962 0
3.7750003 1.8412344 0.11787093 0
