# .PCD v0.7 - Point Cloud Data file format
VERSION 0.7
FIELDS x y z intensity
SIZE 4 4 4 4
TYPE F F F F
COUNT 1 1 1 1
WIDTH 1448
HEIGHT 1
VIEWPOINT 0 0 0 1 0 0 0
POINTS 1448
DATA ascii
2.1830001 -0.11997238 1.0697514 0
2.1820002 -0.12314527 1.069378 0
2.1820002 -0.12635966 1.069378 0
2.1810002 -0.12952715 1.0690045 0
2.1810002 -0.13273974 1.0690045 0
2.1800001 -0.13590181 1.0686312 0
2.1780002 -0.13900796 1.0678844 0
2.1760001 -0.14210691 1.0671376 0
2.1730001 -0.14514272 1.0660175 0
2.1700001 -0.1481677 1.0648973 0
2.1680002 -0.15124139 1.0641506 0
2.1650002 -0.15424652 1.0630304 0
2.1630001 -0.15730399 1.0622836 0
2.1600001 -0.16028929 1.0611634 0
2.1580002 -0.16333051 1.0604167 0
2.1550002 -0.16629598 1.0592965 0
2.1530001 -0.16932096 1.0585498 0
2.1500001 -0.17226659 1.0574296 0
2.148 -0.17527533 1.0566827 0
2.1450002 -0.17820112 1.0555626 0
2.1430001 -0.18119363 1.0548158 0
2.141 -0.18417893 1.054069 0
2.138 -0.18707584 1.052949 0
2.1360002 -0.19004491 1.0522021 0
2.1330001 -0.19292198 1.0510819 0
2.131 -0.19587483 1.0503352 0
2.1360002 -0.19943914 1.0522021 0
2.1400001 -0.20293133 1.0536957 0
2.1440001 -0.20643792 1.0551893 0
2.148 -0.20995896 1.0566827 0
2.1530001 -0.21359003 1.0585498 0
2.1570001 -0.21714172 1.0600432 0
2.161 -0.22070785 1.0615368 0
2.1650002 -0.2242884 1.0630304 0
2.164 -0.22736931 1.062657 0
2.164 -0.23055123 1.062657 0
2.1630001 -0.23362672 1.0622836 0
2.1630001 -0.23680684 1.0622836 0
2.1620002 -0.23987691 1.0619102 0
2.1620002 -0.24305522 1.0619102 0
2.161 -0.24611989 1.0615368 0
2.161 -0.2492964 1.0615368 0
2.1600001 -0.25235566 1.0611634 0
2.1680002 -0.25648278 1.0641506 0
2.2240002 -0.27302009 1.0850602 0
2.2290001 -0.27694157 1.0869273 0
2.2340002 -0.28088108 1.0887942 0
2.2380002 -0.28470874 1.0902877 0
2.243 -0.28868255 1.0921546 0
2.223 -0.085460111 1.0813986 0
2.22 -0.088678099 1.0802838 0
2.217 -0.091885269 1.079169 0
2.2150002 -0.095108673 1.0784259 0
2.2120001 -0.098296002 1.077311 0
2.2090001 -0.10147251 1.0761964 0
2.207 -0.10467067 1.0754532 0
2.2040002 -0.10782733 1.0743384 0
2.1850002 -0.11039595 1.0672784 0
2.184 -0.11357787 1.0669067 0
2.1830001 -0.11675619 1.0665352 0
2.1830001 -0.11997238 1.0665352 0
2.1820002 -0.12314527 1.0661635 0
2.1820002 -0.12635966 1.0661635 0
2.1810002 -0.12952715 1.065792 0
2.1810002 -0.13273974 1.065792 0
2.1800001 -0.13590181 1.0654204 0
2.1780002 -0.13900796 1.0646772 0
2.1760001 -0.14210691 1.0639341 0
2.1730001 -0.14514272 1.0628194 0
2.1700001 -0.1481677 1.0617046 0
2.1680002 -0.15124139 1.0609615 0
2.1650002 -0.15424652 1.0598466 0
2.1630001 -0.15730399 1.0591035 0
2.1600001 -0.16028929 1.0579888 0
2.1580002 -0.16333051 1.0572456 0
2.1550002 -0.16629598 1.0561308 0
2.1530001 -0.16932096 1.0553877 0
2.1500001 -0.17226659 1.0542729 0
2.148 -0.17527533 1.0535297 0
2.1450002 -0.17820112 1.052415 0
2.1430001 -0.18119363 1.0516717 0
2.141 -0.18417893 1.0509286 0
2.138 -0.18707584 1.0498139 0
2.1360002 -0.19004491 1.0490707 0
2.1330001 -0.19292198 1.047956 0
2.131 -0.19587483 1.0472127 0
2.1360002 -0.19943914 1.0490707 0
2.1400001 -0.20293133 1.050557 0
2.1440001 -0.20643792 1.0520433 0
2.148 -0.20995896 1.0535297 0
2.1530001 -0.21359003 1.0553877 0
2.1570001 -0.21714172 1.0568739 0
2.161 -0.22070785 1.0583603 0
2.1650002 -0.2242884 1.0598466 0
2.164 -0.22736931 1.0594751 0
2.164 -0.23055123 1.0594751 0
2.1630001 -0.23362672 1.0591035 0
2.1630001 -0.23680684 1.0591035 0
2.1620002 -0.23987691 1.0587319 0
2.1620002 -0.24305522 1.0587319 0
2.161 -0.24611989 1.0583603 0
2.161 -0.2492964 1.0583603 0
2.1600001 -0.25235566 1.0579888 0
2.1680002 -0.25648278 1.0609615 0
2.2240002 -0.27302009 1.0817702 0
2.2290001 -0.27694157 1.0836281 0
2.2340002 -0.28088108 1.0854859 0
2.2380002 -0.28470874 1.0869724 0
2.243 -0.28868255 1.0888302 0
2.223 -0.085460111 1.0781102 0
2.22 -0.088678099 1.0770009 0
2.217 -0.091885269 1.0758915 0
2.2150002 -0.095108673 1.0751519 0
2.2120001 -0.098296002 1.0740427 0
2.2090001 -0.10147251 1.0729333 0
2.207 -0.10467067 1.0721936 0
2.2040002 -0.10782733 1.0710844 0
2.1850002 -0.11039595 1.0640585 0
2.184 -0.11357787 1.0636888 0
2.1830001 -0.11675619 1.063319 0
2.1830001 -0.11997238 1.063319 0
2.1820002 -0.12314527 1.0629492 0
2.1820002 -0.12635966 1.0629492 0
2.1810002 -0.12952715 1.0625795 0
2.1810002 -0.13273974 1.0625795 0
2.1800001 -0.13590181 1.0622096 0
2.1780002 -0.13900796 1.06147 0
2.1760001 -0.14210691 1.0607305 0
2.1730001 -0.14514272 1.0596212 0
2.1700001 -0.1481677 1.0585119 0
2.1680002 -0.15124139 1.0577723 0
2.1650002 -0.15424652 1.0566629 0
2.1630001 -0.15730399 1.0559235 0
2.1600001 -0.16028929 1.054814 0
2.1580002 -0.16333051 1.0540744 0
2.1550002 -0.16629598 1.0529652 0
2.1530001 -0.16932096 1.0522256 0
2.1500001 -0.17226659 1.0511162 0
2.148 -0.17527533 1.0503767 0
2.1450002 -0.17820112 1.0492673 0
2.1430001 -0.18119363 1.0485277 0
2.141 -0.18417893 1.0477881 0
2.138 -0.18707584 1.0466788 0
2.1360002 -0.19004491 1.0459392 0
2.1330001 -0.19292198 1.04483 0
2.131 -0.19587483 1.0440904 0
2.1360002 -0.19943914 1.0459392 0
2.1400001 -0.20293133 1.0474184 0
2.1440001 -0.20643792 1.0488975 0
2.148 -0.20995896 1.0503767 0
2.1530001 -0.21359003 1.0522256 0
2.1570001 -0.21714172 1.0537047 0
2.161 -0.22070785 1.0551838 0
2.1650002 -0.2242884 1.0566629 0
2.164 -0.22736931 1.0562931 0
2.164 -0.23055123 1.0562931 0
2.1630001 -0.23362672 1.0559235 0
2.1630001 -0.23680684 1.0559235 0
2.1620002 -0.23987691 1.0555536 0
2.1620002 -0.24305522 1.0555536 0
2.161 -0.24611989 1.0551838 0
2.161 -0.2492964 1.0551838 0
2.1600001 -0.25235566 1.054814 0
2.1680002 -0.25648278 1.0577723 0
2.2240002 -0.27302009 1.07848 0
2.2290001 -0.27694157 1.0803289 0
2.2340002 -0.28088108 1.0821779 0
2.2380002 -0.28470874 1.0836569 0
2.243 -0.28868255 1.0855058 0
2.223 -0.085460111 1.0748218 0
2.22 -0.088678099 1.073718 0
2.217 -0.091885269 1.072614 0
2.2150002 -0.095108673 1.0718781 0
2.2120001 -0.098296002 1.0707741 0
2.2090001 -0.10147251 1.0696702 0
2.207 -0.10467067 1.0689342 0
2.2040002 -0.10782733 1.0678303 0
2.1850002 -0.11039595 1.0608387 0
2.184 -0.11357787 1.0604707 0
2.1830001 -0.11675619 1.0601028 0
2.1830001 -0.11997238 1.0601028 0
2.1820002 -0.12314527 1.0597348 0
2.1820002 -0.12635966 1.0597348 0
2.1810002 -0.12952715 1.0593668 0
2.1810002 -0.13273974 1.0593668 0
2.1800001 -0.13590181 1.0589988 0
2.1780002 -0.13900796 1.0582629 0
2.1760001 -0.14210691 1.0575269 0
2.1730001 -0.14514272 1.0564231 0
2.1700001 -0.1481677 1.0553191 0
2.1680002 -0.15124139 1.0545832 0
2.1650002 -0.15424652 1.0534792 0
2.1630001 -0.15730399 1.0527433 0
2.1600001 -0.16028929 1.0516393 0
2.1580002 -0.16333051 1.0509033 0
2.1550002 -0.16629598 1.0497994 0
2.1530001 -0.16932096 1.0490636 0
2.1500001 -0.17226659 1.0479596 0
2.148 -0.17527533 1.0472236 0
2.1450002 -0.17820112 1.0461197 0
2.1430001 -0.18119363 1.0453837 0
2.141 -0.18417893 1.0446477 0
2.138 -0.18707584 1.0435438 0
2.1360002 -0.19004491 1.0428078 0
2.1330001 -0.19292198 1.0417039 0
2.131 -0.19587483 1.0409681 0
2.1360002 -0.19943914 1.0428078 0
2.1400001 -0.20293133 1.0442798 0
2.1440001 -0.20643792 1.0457517 0
2.148 -0.20995896 1.0472236 0
2.1530001 -0.21359003 1.0490636 0
2.1570001 -0.21714172 1.0505353 0
2.161 -0.22070785 1.0520073 0
2.1650002 -0.2242884 1.0534792 0
2.164 -0.22736931 1.0531112 0
2.164 -0.23055123 1.0531112 0
2.1630001 -0.23362672 1.0527433 0
2.1630001 -0.23680684 1.0527433 0
2.1620002 -0.23987691 1.0523753 0
2.1620002 -0.24305522 1.0523753 0
2.161 -0.24611989 1.0520073 0
2.161 -0.2492964 1.0520073 0
2.1600001 -0.25235566 1.0516393 0
2.1680002 -0.25648278 1.0545832 0
2.2240002 -0.27302009 1.0751898 0
2.2290001 -0.27694157 1.0770297 0
2.2340002 -0.28088108 1.0788696 0
2.2380002 -0.28470874 1.0803416 0
2.243 -0.28868255 1.0821815 0
2.223 -0.085460111 1.0715334 0
2.22 -0.088678099 1.070435 0
2.217 -0.091885269 1.0693365 0
2.2150002 -0.095108673 1.0686041 0
2.2120001 -0.098296002 1.0675056 0
2.2090001 -0.10147251 1.0664071 0
2.207 -0.10467067 1.0656748 0
2.2040002 -0.10782733 1.0645763 0
2.1850002 -0.11039595 1.057619 0
2.184 -0.11357787 1.0572528 0
2.1830001 -0.11675619 1.0568867 0
2.1830001 -0.11997238 1.0568867 0
2.1820002 -0.12314527 1.0565203 0
2.1820002 -0.12635966 1.0565203 0
2.1810002 -0.12952715 1.0561543 0
2.1810002 -0.13273974 1.0561543 0
2.1800001 -0.13590181 1.055788 0
2.1780002 -0.13900796 1.0550557 0
2.1760001 -0.14210691 1.0543234 0
2.1730001 -0.14514272 1.0532249 0
2.1700001 -0.1481677 1.0521264 0
2.1680002 -0.15124139 1.051394 0
2.1650002 -0.15424652 1.0502955 0
2.1630001 -0.15730399 1.0495632 0
2.1600001 -0.16028929 1.0484647 0
2.1580002 -0.16333051 1.0477322 0
2.1550002 -0.16629598 1.0466337 0
2.1530001 -0.16932096 1.0459014 0
2.1500001 -0.17226659 1.0448029 0
2.148 -0.17527533 1.0440705 0
2.1450002 -0.17820112 1.042972 0
2.1430001 -0.18119363 1.0422397 0
2.141 -0.18417893 1.0415074 0
2.138 -0.18707584 1.0404087 0
2.1360002 -0.19004491 1.0396764 0
2.1330001 -0.19292198 1.0385779 0
2.131 -0.19587483 1.0378456 0
2.1360002 -0.19943914 1.0396764 0
2.1400001 -0.20293133 1.0411412 0
2.1440001 -0.20643792 1.0426059 0
2.148 -0.20995896 1.0440705 0
2.1530001 -0.21359003 1.0459014 0
2.1570001 -0.21714172 1.0473661 0
2.161 -0.22070785 1.0488307 0
2.1650002 -0.2242884 1.0502955 0
2.164 -0.22736931 1.0499293 0
2.164 -0.23055123 1.0499293 0
2.1630001 -0.23362672 1.0495632 0
2.1630001 -0.23680684 1.0495632 0
2.1620002 -0.23987691 1.049197 0
2.1620002 -0.24305522 1.049197 0
2.161 -0.24611989 1.0488307 0
2.161 -0.2492964 1.0488307 0
2.1600001 -0.25235566 1.0484647 0
2.1680002 -0.25648278 1.051394 0
2.2240002 -0.27302009 1.0718998 0
2.2290001 -0.27694157 1.0737306 0
2.2340002 -0.28088108 1.0755614 0
2.2380002 -0.28470874 1.0770261 0
2.243 -0.28868255 1.0788569 0
2.223 -0.085460111 1.0682452 0
2.22 -0.088678099 1.067152 0
2.217 -0.091885269 1.0660589 0
2.2150002 -0.095108673 1.0653301 0
2.2120001 -0.098296002 1.0642371 0
2.2090001 -0.10147251 1.0631441 0
2.207 -0.10467067 1.0624152 0
2.2040002 -0.10782733 1.0613222 0
2.1850002 -0.11039595 1.0543991 0
2.184 -0.11357787 1.0540347 0
2.1830001 -0.11675619 1.0536704 0
2.1830001 -0.11997238 1.0536704 0
2.1820002 -0.12314527 1.0533061 0
2.1820002 -0.12635966 1.0533061 0
2.1810002 -0.12952715 1.0529417 0
2.1810002 -0.13273974 1.0529417 0
2.1800001 -0.13590181 1.0525774 0
2.1780002 -0.13900796 1.0518486 0
2.1760001 -0.14210691 1.0511198 0
2.1730001 -0.14514272 1.0500268 0
2.1700001 -0.1481677 1.0489336 0
2.1680002 -0.15124139 1.0482049 0
2.1650002 -0.15424652 1.0471117 0
2.1630001 -0.15730399 1.046383 0
2.1600001 -0.16028929 1.0452899 0
2.1580002 -0.16333051 1.0445611 0
2.1550002 -0.16629598 1.043468 0
2.1530001 -0.16932096 1.0427394 0
2.1500001 -0.17226659 1.0416462 0
2.148 -0.17527533 1.0409175 0
2.1450002 -0.17820112 1.0398244 0
2.1430001 -0.18119363 1.0390956 0
2.141 -0.18417893 1.0383669 0
2.138 -0.18707584 1.0372738 0
2.1360002 -0.19004491 1.036545 0
2.1330001 -0.19292198 1.0354519 0
2.131 -0.19587483 1.0347232 0
2.1360002 -0.19943914 1.036545 0
2.1400001 -0.20293133 1.0380025 0
2.1440001 -0.20643792 1.0394601 0
2.148 -0.20995896 1.0409175 0
2.1530001 -0.21359003 1.0427394 0
2.1570001 -0.21714172 1.0441968 0
2.161 -0.22070785 1.0456543 0
2.1650002 -0.2242884 1.0471117 0
2.164 -0.22736931 1.0467473 0
2.164 -0.23055123 1.0467473 0
2.1630001 -0.23362672 1.046383 0
2.1630001 -0.23680684 1.046383 0
2.1620002 -0.23987691 1.0460186 0
2.1620002 -0.24305522 1.0460186 0
2.161 -0.24611989 1.0456543 0
2.161 -0.2492964 1.0456543 0
2.1600001 -0.25235566 1.0452899 0
2.1680002 -0.25648278 1.0482049 0
2.2240002 -0.27302009 1.0686096 0
2.2290001 -0.27694157 1.0704315 0
2.2340002 -0.28088108 1.0722532 0
2.2380002 -0.28470874 1.0737107 0
2.243 -0.28868255 1.0755326 0
2.223 -0.085460111 1.0649568 0
2.22 -0.088678099 1.0638691 0
2.217 -0.091885269 1.0627815 0
2.2150002 -0.095108673 1.0620563 0
2.2120001 -0.098296002 1.0609686 0
2.2090001 -0.10147251 1.059881 0
2.207 -0.10467067 1.0591557 0
2.2040002 -0.10782733 1.0580682 0
2.1850002 -0.11039595 1.0511793 0
2.184 -0.11357787 1.0508168 0
2.1830001 -0.11675619 1.0504543 0
2.1830001 -0.11997238 1.0504543 0
2.1820002 -0.12314527 1.0500916 0
2.1820002 -0.12635966 1.0500916 0
2.1810002 -0.12952715 1.0497291 0
2.1810002 -0.13273974 1.0497291 0
2.1800001 -0.13590181 1.0493666 0
2.1780002 -0.13900796 1.0486414 0
2.1760001 -0.14210691 1.0479163 0
2.1730001 -0.14514272 1.0468285 0
2.1700001 -0.1481677 1.0457408 0
2.1680002 -0.15124139 1.0450157 0
2.1650002 -0.15424652 1.043928 0
2.1630001 -0.15730399 1.043203 0
2.1600001 -0.16028929 1.0421152 0
2.1580002 -0.16333051 1.0413901 0
2.1550002 -0.16629598 1.0403024 0
2.1530001 -0.16932096 1.0395772 0
2.1500001 -0.17226659 1.0384896 0
2.148 -0.17527533 1.0377644 0
2.1450002 -0.17820112 1.0366768 0
2.1430001 -0.18119363 1.0359516 0
2.141 -0.18417893 1.0352265 0
2.138 -0.18707584 1.0341388 0
2.1360002 -0.19004491 1.0334136 0
2.1330001 -0.19292198 1.032326 0
2.131 -0.19587483 1.0316008 0
2.1360002 -0.19943914 1.0334136 0
2.1400001 -0.20293133 1.0348639 0
2.1440001 -0.20643792 1.0363141 0
2.148 -0.20995896 1.0377644 0
2.1530001 -0.21359003 1.0395772 0
2.1570001 -0.21714172 1.0410275 0
2.161 -0.22070785 1.0424777 0
2.1650002 -0.2242884 1.043928 0
2.164 -0.22736931 1.0435655 0
2.164 -0.23055123 1.0435655 0
2.1630001 -0.23362672 1.043203 0
2.1630001 -0.23680684 1.043203 0
2.1620002 -0.23987691 1.0428404 0
2.1620002 -0.24305522 1.0428404 0
2.161 -0.24611989 1.0424777 0
2.161 -0.2492964 1.0424777 0
2.1600001 -0.25235566 1.0421152 0
2.1680002 -0.25648278 1.0450157 0
2.2240002 -0.27302009 1.0653194 0
2.2290001 -0.27694157 1.0671322 0
2.2340002 -0.28088108 1.0689451 0
2.2380002 -0.28470874 1.0703954 0
2.243 -0.28868255 1.0722082 0
2.223 -0.085460111 1.0616685 0
2.22 -0.088678099 1.0605862 0
2.217 -0.091885269 1.0595039 0
2.2150002 -0.095108673 1.0587823 0
2.2120001 -0.098296002 1.0577 0
2.2090001 -0.10147251 1.0566179 0
2.207 -0.10467067 1.0558963 0
2.2040002 -0.10782733 1.054814 0
2.1850002 -0.11039595 1.0479596 0
2.184 -0.11357787 1.0475988 0
2.1830001 -0.11675619 1.0472381 0
2.1830001 -0.11997238 1.0472381 0
2.1820002 -0.12314527 1.0468773 0
2.1820002 -0.12635966 1.0468773 0
2.1810002 -0.12952715 1.0465165 0
2.1810002 -0.13273974 1.0465165 0
2.1800001 -0.13590181 1.0461558 0
2.1780002 -0.13900796 1.0454342 0
2.1760001 -0.14210691 1.0447128 0
2.1730001 -0.14514272 1.0436305 0
2.1700001 -0.1481677 1.0425482 0
2.1680002 -0.15124139 1.0418266 0
2.1650002 -0.15424652 1.0407443 0
2.1630001 -0.15730399 1.0400229 0
2.1600001 -0.16028929 1.0389405 0
2.1580002 -0.16333051 1.038219 0
2.1550002 -0.16629598 1.0371367 0
2.1530001 -0.16932096 1.0364152 0
2.1500001 -0.17226659 1.0353329 0
2.148 -0.17527533 1.0346113 0
2.1450002 -0.17820112 1.0335292 0
2.1430001 -0.18119363 1.0328076 0
2.141 -0.18417893 1.032086 0
2.138 -0.18707584 1.0310037 0
2.1360002 -0.19004491 1.0302823 0
2.1330001 -0.19292198 1.0292 0
2.131 -0.19587483 1.0284784 0
2.1360002 -0.19943914 1.0302823 0
2.1400001 -0.20293133 1.0317253 0
2.1440001 -0.20643792 1.0331683 0
2.148 -0.20995896 1.0346113 0
2.1530001 -0.21359003 1.0364152 0
2.1570001 -0.21714172 1.0378582 0
2.161 -0.22070785 1.0393013 0
2.1650002 -0.2242884 1.0407443 0
2.164 -0.22736931 1.0403836 0
2.164 -0.23055123 1.0403836 0
2.1630001 -0.23362672 1.0400229 0
2.1630001 -0.23680684 1.0400229 0
2.1620002 -0.23987691 1.039662 0
2.1620002 -0.24305522 1.039662 0
2.161 -0.24611989 1.0393013 0
2.161 -0.2492964 1.0393013 0
2.1600001 -0.25235566 1.0389405 0
2.1680002 -0.25648278 1.0418266 0
2.2240002 -0.27302009 1.0620292 0
2.2290001 -0.27694157 1.0638331 0
2.2340002 -0.28088108 1.0656369 0
2.2380002 -0.28470874 1.0670799 0
2.243 -0.28868255 1.0688837 0
2.223 -0.085460111 1.0583801 0
2.22 -0.088678099 1.0573033 0
2.217 -0.091885269 1.0562264 0
2.2150002 -0.095108673 1.0555085 0
2.2120001 -0.098296002 1.0544316 0
2.2090001 -0.10147251 1.0533547 0
2.207 -0.10467067 1.0526369 0
2.2040002 -0.10782733 1.0515599 0
2.1850002 -0.11039595 1.0447397 0
2.184 -0.11357787 1.0443808 0
2.1830001 -0.11675619 1.0440218 0
2.1830001 -0.11997238 1.0440218 0
2.1820002 -0.12314527 1.0436629 0
2.1820002 -0.12635966 1.0436629 0
2.1810002 -0.12952715 1.043304 0
2.1810002 -0.13273974 1.043304 0
2.1800001 -0.13590181 1.042945 0
2.1780002 -0.13900796 1.042227 0
2.1760001 -0.14210691 1.0415092 0
2.1730001 -0.14514272 1.0404323 0
2.1700001 -0.1481677 1.0393554 0
2.1680002 -0.15124139 1.0386375 0
2.1650002 -0.15424652 1.0375606 0
2.1630001 -0.15730399 1.0368427 0
2.1600001 -0.16028929 1.0357658 0
2.1580002 -0.16333051 1.0350479 0
2.1550002 -0.16629598 1.0339711 0
2.1530001 -0.16932096 1.0332531 0
2.1500001 -0.17226659 1.0321763 0
2.148 -0.17527533 1.0314584 0
2.1450002 -0.17820112 1.0303814 0
2.1430001 -0.18119363 1.0296634 0
2.141 -0.18417893 1.0289456 0
2.138 -0.18707584 1.0278687 0
2.1360002 -0.19004491 1.0271509 0
2.1330001 -0.19292198 1.0260739 0
2.131 -0.19587483 1.0253561 0
2.1360002 -0.19943914 1.0271509 0
2.1400001 -0.20293133 1.0285867 0
2.1440001 -0.20643792 1.0300225 0
2.148 -0.20995896 1.0314584 0
2.1530001 -0.21359003 1.0332531 0
2.1570001 -0.21714172 1.0346889 0
2.161 -0.22070785 1.0361247 0
2.1650002 -0.2242884 1.0375606 0
2.164 -0.22736931 1.0372016 0
2.164 -0.23055123 1.0372016 0
2.1630001 -0.23362672 1.0368427 0
2.1630001 -0.23680684 1.0368427 0
2.1620002 -0.23987691 1.0364838 0
2.1620002 -0.24305522 1.0364838 0
2.161 -0.24611989 1.0361247 0
2.161 -0.2492964 1.0361247 0
2.1600001 -0.25235566 1.0357658 0
2.1680002 -0.25648278 1.0386375 0
2.2240002 -0.27302009 1.0587391 0
2.2290001 -0.27694157 1.0605339 0
2.2340002 -0.28088108 1.0623287 0
2.2380002 -0.28470874 1.0637646 0
2.243 -0.28868255 1.0655593 0
2.223 -0.085460111 1.0550917 0
2.22 -0.088678099 1.0540204 0
2.217 -0.091885269 1.0529488 0
2.2150002 -0.095108673 1.0522346 0
2.2120001 -0.098296002 1.0511631 0
2.2090001 -0.10147251 1.0500917 0
2.207 -0.10467067 1.0493773 0
2.2040002 -0.10782733 1.0483059 0
2.1850002 -0.11039595 1.04152 0
2.184 -0.11357787 1.0411627 0
2.1830001 -0.11675619 1.0408057 0
2.1830001 -0.11997238 1.0408057 0
2.1820002 -0.12314527 1.0404484 0
2.1820002 -0.12635966 1.0404484 0
2.1810002 -0.12952715 1.0400914 0
2.1810002 -0.13273974 1.0400914 0
2.1800001 -0.13590181 1.0397342 0
2.1780002 -0.13900796 1.0390199 0
2.1760001 -0.14210691 1.0383056 0
2.1730001 -0.14514272 1.0372341 0
2.1700001 -0.1481677 1.0361626 0
2.1680002 -0.15124139 1.0354483 0
2.1650002 -0.15424652 1.0343769 0
2.1630001 -0.15730399 1.0336626 0
2.1600001 -0.16028929 1.0325911 0
2.1580002 -0.16333051 1.0318768 0
2.1550002 -0.16629598 1.0308053 0
2.1530001 -0.16932096 1.030091 0
2.1500001 -0.17226659 1.0290196 0
2.148 -0.17527533 1.0283053 0
2.1450002 -0.17820112 1.0272338 0
2.1430001 -0.18119363 1.0265195 0
2.141 -0.18417893 1.0258052 0
2.138 -0.18707584 1.0247337 0
2.1360002 -0.19004491 1.0240195 0
2.1330001 -0.19292198 1.0229479 0
2.131 -0.19587483 1.0222336 0
2.1360002 -0.19943914 1.0240195 0
2.1400001 -0.20293133 1.0254481 0
2.1440001 -0.20643792 1.0268767 0
2.148 -0.20995896 1.0283053 0
2.1530001 -0.21359003 1.030091 0
2.1570001 -0.21714172 1.0315197 0
2.161 -0.22070785 1.0329483 0
2.1650002 -0.2242884 1.0343769 0
2.164 -0.22736931 1.0340197 0
2.164 -0.23055123 1.0340197 0
2.1630001 -0.23362672 1.0336626 0
2.1630001 -0.23680684 1.0336626 0
2.1620002 -0.23987691 1.0333054 0
2.1620002 -0.24305522 1.0333054 0
2.161 -0.24611989 1.0329483 0
2.161 -0.2492964 1.0329483 0
2.1600001 -0.25235566 1.0325911 0
2.1680002 -0.25648278 1.0354483 0
2.2240002 -0.27302009 1.055449 0
2.2290001 -0.27694157 1.0572348 0
2.2340002 -0.28088108 1.0590205 0
2.2380002 -0.28470874 1.0604491 0
2.243 -0.28868255 1.0622349 0
2.223 -0.085460111 1.0518035 0
2.22 -0.088678099 1.0507374 0
2.217 -0.091885269 1.0496713 0
2.2150002 -0.095108673 1.0489607 0
2.2120001 -0.098296002 1.0478946 0
2.2090001 -0.10147251 1.0468285 0
2.207 -0.10467067 1.0461178 0
2.2040002 -0.10782733 1.0450518 0
2.1850002 -0.11039595 1.0383002 0
2.184 -0.11357787 1.0379448 0
2.1830001 -0.11675619 1.0375894 0
2.1830001 -0.11997238 1.0375894 0
2.1820002 -0.12314527 1.0372341 0
2.1820002 -0.12635966 1.0372341 0
2.1810002 -0.12952715 1.0368788 0
2.1810002 -0.13273974 1.0368788 0
2.1800001 -0.13590181 1.0365233 0
2.1780002 -0.13900796 1.0358127 0
2.1760001 -0.14210691 1.035102 0
2.1730001 -0.14514272 1.034036 0
2.1700001 -0.1481677 1.03297 0
2.1680002 -0.15124139 1.0322592 0
2.1650002 -0.15424652 1.0311931 0
2.1630001 -0.15730399 1.0304825 0
2.1600001 -0.16028929 1.0294164 0
2.1580002 -0.16333051 1.0287057 0
2.1550002 -0.16629598 1.0276396 0
2.1530001 -0.16932096 1.026929 0
2.1500001 -0.17226659 1.0258629 0
2.148 -0.17527533 1.0251522 0
2.1450002 -0.17820112 1.0240861 0
2.1430001 -0.18119363 1.0233754 0
2.141 -0.18417893 1.0226648 0
2.138 -0.18707584 1.0215987 0
2.1360002 -0.19004491 1.020888 0
2.1330001 -0.19292198 1.0198219 0
2.131 -0.19587483 1.0191113 0
2.1360002 -0.19943914 1.020888 0
2.1400001 -0.20293133 1.0223094 0
2.1440001 -0.20643792 1.0237308 0
2.148 -0.20995896 1.0251522 0
2.1530001 -0.21359003 1.026929 0
2.1570001 -0.21714172 1.0283504 0
2.161 -0.22070785 1.0297717 0
2.1650002 -0.2242884 1.0311931 0
2.164 -0.22736931 1.0308378 0
2.164 -0.23055123 1.0308378 0
2.1630001 -0.23362672 1.0304825 0
2.1630001 -0.23680684 1.0304825 0
2.1620002 -0.23987691 1.030127 0
2.1620002 -0.24305522 1.030127 0
2.161 -0.24611989 1.0297717 0
2.161 -0.2492964 1.0297717 0
2.1600001 -0.25235566 1.0294164 0
2.1680002 -0.25648278 1.0322592 0
2.2240002 -0.27302009 1.0521588 0
2.2290001 -0.27694157 1.0539355 0
2.2340002 -0.28088108 1.0557123 0
2.2380002 -0.28470874 1.0571337 0
2.243 -0.28868255 1.0589105 0
2.223 -0.085460111 1.0485151 0
2.22 -0.088678099 1.0474545 0
2.217 -0.091885269 1.0463939 0
2.2150002 -0.095108673 1.0456867 0
2.2120001 -0.098296002 1.0446261 0
2.2090001 -0.10147251 1.0435655 0
2.207 -0.10467067 1.0428584 0
2.2040002 -0.10782733 1.0417978 0
2.1850002 -0.11039595 1.0350803 0
2.184 -0.11357787 1.0347267 0
2.1830001 -0.11675619 1.0343733 0
2.1830001 -0.11997238 1.0343733 0
2.1820002 -0.12314527 1.0340197 0
2.1820002 -0.12635966 1.0340197 0
2.1810002 -0.12952715 1.0336661 0
2.1810002 -0.13273974 1.0336661 0
2.1800001 -0.13590181 1.0333126 0
2.1780002 -0.13900796 1.0326055 0
2.1760001 -0.14210691 1.0318985 0
2.1730001 -0.14514272 1.0308378 0
2.1700001 -0.1481677 1.0297772 0
2.1680002 -0.15124139 1.02907 0
2.1650002 -0.15424652 1.0280094 0
2.1630001 -0.15730399 1.0273024 0
2.1600001 -0.16028929 1.0262417 0
2.1580002 -0.16333051 1.0255346 0
2.1550002 -0.16629598 1.0244739 0
2.1530001 -0.16932096 1.0237669 0
2.1500001 -0.17226659 1.0227063 0
2.148 -0.17527533 1.0219991 0
2.1450002 -0.17820112 1.0209385 0
2.1430001 -0.18119363 1.0202314 0
2.141 -0.18417893 1.0195243 0
2.138 -0.18707584 1.0184636 0
2.1360002 -0.19004491 1.0177566 0
2.1330001 -0.19292198 1.016696 0
2.131 -0.19587483 1.0159888 0
2.1360002 -0.19943914 1.0177566 0
2.1400001 -0.20293133 1.0191708 0
2.1440001 -0.20643792 1.0205849 0
2.148 -0.20995896 1.0219991 0
2.1530001 -0.21359003 1.0237669 0
2.1570001 -0.21714172 1.0251811 0
2.161 -0.22070785 1.0265952 0
2.1650002 -0.2242884 1.0280094 0
2.164 -0.22736931 1.0276558 0
2.164 -0.23055123 1.0276558 0
2.1630001 -0.23362672 1.0273024 0
2.1630001 -0.23680684 1.0273024 0
2.1620002 -0.23987691 1.0269488 0
2.1620002 -0.24305522 1.0269488 0
2.161 -0.24611989 1.0265952 0
2.161 -0.2492964 1.0265952 0
2.1600001 -0.25235566 1.0262417 0
2.1680002 -0.25648278 1.02907 0
2.2240002 -0.27302009 1.0488687 0
2.2290001 -0.27694157 1.0506364 0
2.2340002 -0.28088108 1.0524042 0
2.2380002 -0.28470874 1.0538183 0
2.243 -0.28868255 1.055586 0
2.223 -0.085460111 1.0452268 0
2.22 -0.088678099 1.0441716 0
2.217 -0.091885269 1.0431163 0
2.2150002 -0.095108673 1.0424129 0
2.2120001 -0.098296002 1.0413576 0
2.2090001 -0.10147251 1.0403024 0
2.207 -0.10467067 1.0395989 0
2.2040002 -0.10782733 1.0385437 0
2.1850002 -0.11039595 1.0318606 0
2.184 -0.11357787 1.0315088 0
2.1830001 -0.11675619 1.0311571 0
2.1830001 -0.11997238 1.0311571 0
2.1820002 -0.12314527 1.0308053 0
2.1820002 -0.12635966 1.0308053 0
2.1810002 -0.12952715 1.0304536 0
2.1810002 -0.13273974 1.0304536 0
2.1800001 -0.13590181 1.0301018 0
2.1780002 -0.13900796 1.0293983 0
2.1760001 -0.14210691 1.0286949 0
2.1730001 -0.14514272 1.0276396 0
2.1700001 -0.1481677 1.0265844 0
2.1680002 -0.15124139 1.0258809 0
2.1650002 -0.15424652 1.0248257 0
2.1630001 -0.15730399 1.0241222 0
2.1600001 -0.16028929 1.023067 0
2.1580002 -0.16333051 1.0223635 0
2.1550002 -0.16629598 1.0213083 0
2.1530001 -0.16932096 1.0206048 0
2.1500001 -0.17226659 1.0195496 0
2.148 -0.17527533 1.018846 0
2.1450002 -0.17820112 1.0177909 0
2.1430001 -0.18119363 1.0170873 0
2.141 -0.18417893 1.0163839 0
2.138 -0.18707584 1.0153286 0
2.1360002 -0.19004491 1.0146252 0
2.1330001 -0.19292198 1.01357 0
2.131 -0.19587483 1.0128665 0
2.1360002 -0.19943914 1.0146252 0
2.1400001 -0.20293133 1.0160321 0
2.1440001 -0.20643792 1.0174391 0
2.148 -0.20995896 1.018846 0
2.1530001 -0.21359003 1.0206048 0
2.1570001 -0.21714172 1.0220118 0
2.161 -0.22070785 1.0234188 0
2.1650002 -0.2242884 1.0248257 0
2.164 -0.22736931 1.0244739 0
2.164 -0.23055123 1.0244739 0
2.1630001 -0.23362672 1.0241222 0
2.1630001 -0.23680684 1.0241222 0
2.1620002 -0.23987691 1.0237705 0
2.1620002 -0.24305522 1.0237705 0
2.161 -0.24611989 1.0234188 0
2.161 -0.2492964 1.0234188 0
2.1600001 -0.25235566 1.023067 0
2.1680002 -0.25648278 1.0258809 0
2.2240002 -0.27302009 1.0455785 0
2.2290001 -0.27694157 1.0473373 0
2.2340002 -0.28088108 1.049096 0
2.2380002 -0.28470874 1.0505029 0
2.243 -0.28868255 1.0522616 0
2.223 -0.085460111 1.0419384 0
2.22 -0.088678099 1.0408887 0
2.217 -0.091885269 1.0398388 0
2.2150002 -0.095108673 1.0391389 0
2.2120001 -0.098296002 1.0380892 0
2.2090001 -0.10147251 1.0370393 0
2.207 -0.10467067 1.0363394 0
2.2040002 -0.10782733 1.0352896 0
2.1850002 -0.11039595 1.0286407 0
2.184 -0.11357787 1.0282909 0
2.1830001 -0.11675619 1.0279409 0
2.1830001 -0.11997238 1.0279409 0
2.1820002 -0.12314527 1.027591 0
2.1820002 -0.12635966 1.027591 0
2.1810002 -0.12952715 1.027241 0
2.1810002 -0.13273974 1.027241 0
2.1800001 -0.13590181 1.0268911 0
2.1780002 -0.13900796 1.0261912 0
2.1760001 -0.14210691 1.0254914 0
2.1730001 -0.14514272 1.0244415 0
2.1700001 -0.1481677 1.0233917 0
2.1680002 -0.15124139 1.0226918 0
2.1650002 -0.15424652 1.021642 0
2.1630001 -0.15730399 1.0209421 0
2.1600001 -0.16028929 1.0198923 0
2.1580002 -0.16333051 1.0191925 0
2.1550002 -0.16629598 1.0181426 0
2.1530001 -0.16932096 1.0174427 0
2.1500001 -0.17226659 1.0163929 0
2.148 -0.17527533 1.0156929 0
2.1450002 -0.17820112 1.0146432 0
2.1430001 -0.18119363 1.0139433 0
2.141 -0.18417893 1.0132434 0
2.138 -0.18707584 1.0121936 0
2.1360002 -0.19004491 1.0114937 0
2.1330001 -0.19292198 1.0104439 0
2.131 -0.19587483 1.009744 0
2.1360002 -0.19943914 1.0114937 0
2.1400001 -0.20293133 1.0128936 0
2.1440001 -0.20643792 1.0142933 0
2.148 -0.20995896 1.0156929 0
2.1530001 -0.21359003 1.0174427 0
2.1570001 -0.21714172 1.0188425 0
2.161 -0.22070785 1.0202422 0
2.1650002 -0.2242884 1.021642 0
2.164 -0.22736931 1.021292 0
2.164 -0.23055123 1.021292 0
2.1630001 -0.23362672 1.0209421 0
2.1630001 -0.23680684 1.0209421 0
2.1620002 -0.23987691 1.0205921 0
2.1620002 -0.24305522 1.0205921 0
2.161 -0.24611989 1.0202422 0
2.161 -0.2492964 1.0202422 0
2.1600001 -0.25235566 1.0198923 0
2.1680002 -0.25648278 1.0226918 0
2.2240002 -0.27302009 1.0422884 0
2.2290001 -0.27694157 1.0440381 0
2.2340002 -0.28088108 1.0457878 0
2.2380002 -0.28470874 1.0471876 0
2.243 -0.28868255 1.0489372 0
2.223 -0.085460111 1.0386502 0
2.22 -0.088678099 1.0376056 0
2.217 -0.091885269 1.0365613 0
2.2150002 -0.095108673 1.0358651 0
2.2120001 -0.098296002 1.0348206 0
2.2090001 -0.10147251 1.0337762 0
2.207 -0.10467067 1.0330799 0
2.2040002 -0.10782733 1.0320356 0
2.1850002 -0.11039595 1.0254209 0
2.184 -0.11357787 1.0250728 0
2.1830001 -0.11675619 1.0247247 0
2.1830001 -0.11997238 1.0247247 0
2.1820002 -0.12314527 1.0243766 0
2.1820002 -0.12635966 1.0243766 0
2.1810002 -0.12952715 1.0240284 0
2.1810002 -0.13273974 1.0240284 0
2.1800001 -0.13590181 1.0236803 0
2.1780002 -0.13900796 1.022984 0
2.1760001 -0.14210691 1.0222878 0
2.1730001 -0.14514272 1.0212433 0
2.1700001 -0.1481677 1.0201989 0
2.1680002 -0.15124139 1.0195026 0
2.1650002 -0.15424652 1.0184582 0
2.1630001 -0.15730399 1.0177621 0
2.1600001 -0.16028929 1.0167176 0
2.1580002 -0.16333051 1.0160214 0
2.1550002 -0.16629598 1.014977 0
2.1530001 -0.16932096 1.0142807 0
2.1500001 -0.17226659 1.0132363 0
2.148 -0.17527533 1.01254 0
2.1450002 -0.17820112 1.0114956 0
2.1430001 -0.18119363 1.0107993 0
2.141 -0.18417893 1.010103 0
2.138 -0.18707584 1.0090586 0
2.1360002 -0.19004491 1.0083623 0
2.1330001 -0.19292198 1.0073179 0
2.131 -0.19587483 1.0066217 0
2.1360002 -0.19943914 1.0083623 0
2.1400001 -0.20293133 1.0097549 0
2.1440001 -0.20643792 1.0111474 0
2.148 -0.20995896 1.01254 0
2.1530001 -0.21359003 1.0142807 0
2.1570001 -0.21714172 1.0156732 0
2.161 -0.22070785 1.0170658 0
2.1650002 -0.2242884 1.0184582 0
2.164 -0.22736931 1.0181102 0
2.164 -0.23055123 1.0181102 0
2.1630001 -0.23362672 1.0177621 0
2.1630001 -0.23680684 1.0177621 0
2.1620002 -0.23987691 1.0174139 0
2.1620002 -0.24305522 1.0174139 0
2.161 -0.24611989 1.0170658 0
2.161 -0.2492964 1.0170658 0
2.1600001 -0.25235566 1.0167176 0
2.1680002 -0.25648278 1.0195026 0
2.2240002 -0.27302009 1.0389982 0
2.2290001 -0.27694157 1.0407389 0
2.2340002 -0.28088108 1.0424796 0
2.2380002 -0.28470874 1.0438721 0
2.243 -0.28868255 1.0456128 0
2.223 -0.085460111 1.0353618 0
2.22 -0.088678099 1.0343227 0
2.217 -0.091885269 1.0332837 0
2.2150002 -0.095108673 1.0325911 0
2.2120001 -0.098296002 1.0315521 0
2.2090001 -0.10147251 1.0305132 0
2.207 -0.10467067 1.0298204 0
2.2040002 -0.10782733 1.0287815 0
2.1850002 -0.11039595 1.0222012 0
2.184 -0.11357787 1.0218549 0
2.1830001 -0.11675619 1.0215086 0
2.1830001 -0.11997238 1.0215086 0
2.1820002 -0.12314527 1.0211622 0
2.1820002 -0.12635966 1.0211622 0
2.1810002 -0.12952715 1.0208158 0
2.1810002 -0.13273974 1.0208158 0
2.1800001 -0.13590181 1.0204695 0
2.1780002 -0.13900796 1.0197769 0
2.1760001 -0.14210691 1.0190842 0
2.1730001 -0.14514272 1.0180452 0
2.1700001 -0.1481677 1.0170063 0
2.1680002 -0.15124139 1.0163136 0
2.1650002 -0.15424652 1.0152745 0
2.1630001 -0.15730399 1.0145819 0
2.1600001 -0.16028929 1.0135429 0
2.1580002 -0.16333051 1.0128502 0
2.1550002 -0.16629598 1.0118113 0
2.1530001 -0.16932096 1.0111185 0
2.1500001 -0.17226659 1.0100796 0
2.148 -0.17527533 1.0093869 0
2.1450002 -0.17820112 1.008348 0
2.1430001 -0.18119363 1.0076553 0
2.141 -0.18417893 1.0069625 0
2.138 -0.18707584 1.0059236 0
2.1360002 -0.19004491 1.0052309 0
2.1330001 -0.19292198 1.004192 0
2.131 -0.19587483 1.0034993 0
2.1360002 -0.19943914 1.0052309 0
2.1400001 -0.20293133 1.0066162 0
2.1440001 -0.20643792 1.0080016 0
2.148 -0.20995896 1.0093869 0
2.1530001 -0.21359003 1.0111185 0
2.1570001 -0.21714172 1.0125039 0
2.161 -0.22070785 1.0138892 0
2.1650002 -0.2242884 1.0152745 0
2.164 -0.22736931 1.0149282 0
2.164 -0.23055123 1.0149282 0
2.1630001 -0.23362672 1.0145819 0
2.1630001 -0.23680684 1.0145819 0
2.1620002 -0.23987691 1.0142355 0
2.1620002 -0.24305522 1.0142355 0
2.161 -0.24611989 1.0138892 0
2.161 -0.2492964 1.0138892 0
2.1600001 -0.25235566 1.0135429 0
2.1680002 -0.25648278 1.0163136 0
2.2240002 -0.27302009 1.0357081 0
2.2290001 -0.27694157 1.0374398 0
2.2340002 -0.28088108 1.0391715 0
2.2380002 -0.28470874 1.0405567 0
2.243 -0.28868255 1.0422884 0
2.223 -0.085460111 1.0320734 0
2.22 -0.088678099 1.0310398 0
2.217 -0.091885269 1.0300062 0
2.2150002 -0.095108673 1.0293171 0
2.2120001 -0.098296002 1.0282836 0
2.2090001 -0.10147251 1.0272501 0
2.207 -0.10467067 1.0265609 0
2.2040002 -0.10782733 1.0255274 0
2.1850002 -0.11039595 1.0189813 0
2.184 -0.11357787 1.0186368 0
2.1830001 -0.11675619 1.0182923 0
2.1830001 -0.11997238 1.0182923 0
2.1820002 -0.12314527 1.0179478 0
2.1820002 -0.12635966 1.0179478 0
2.1810002 -0.12952715 1.0176033 0
2.1810002 -0.13273974 1.0176033 0
2.1800001 -0.13590181 1.0172588 0
2.1780002 -0.13900796 1.0165697 0
2.1760001 -0.14210691 1.0158807 0
2.1730001 -0.14514272 1.014847 0
2.1700001 -0.1481677 1.0138135 0
2.1680002 -0.15124139 1.0131245 0
2.1650002 -0.15424652 1.0120908 0
2.1630001 -0.15730399 1.0114018 0
2.1600001 -0.16028929 1.0103682 0
2.1580002 -0.16333051 1.0096791 0
2.1550002 -0.16629598 1.0086455 0
2.1530001 -0.16932096 1.0079565 0
2.1500001 -0.17226659 1.006923 0
2.148 -0.17527533 1.0062338 0
2.1450002 -0.17820112 1.0052003 0
2.1430001 -0.18119363 1.0045112 0
2.141 -0.18417893 1.0038222 0
2.138 -0.18707584 1.0027885 0
2.1360002 -0.19004491 1.0020995 0
2.1330001 -0.19292198 1.001066 0
2.131 -0.19587483 1.0003768 0
2.1360002 -0.19943914 1.0020995 0
2.1400001 -0.20293133 1.0034777 0
2.1440001 -0.20643792 1.0048558 0
2.148 -0.20995896 1.0062338 0
2.1530001 -0.21359003 1.0079565 0
2.1570001 -0.21714172 1.0093346 0
2.161 -0.22070785 1.0107127 0
2.1650002 -0.2242884 1.0120908 0
2.164 -0.22736931 1.0117463 0
2.164 -0.23055123 1.0117463 0
2.1630001 -0.23362672 1.0114018 0
2.1630001 -0.23680684 1.0114018 0
2.1620002 -0.23987691 1.0110573 0
2.1620002 -0.24305522 1.0110573 0
2.161 -0.24611989 1.0107127 0
2.161 -0.2492964 1.0107127 0
2.1600001 -0.25235566 1.0103682 0
2.1680002 -0.25648278 1.0131245 0
2.2240002 -0.27302009 1.032418 0
2.2290001 -0.27694157 1.0341406 0
2.2340002 -0.28088108 1.0358632 0
2.2380002 -0.28470874 1.0372413 0
2.243 -0.28868255 1.0389639 0
2.223 -0.085460111 1.0287851 0
2.22 -0.088678099 1.0277569 0
2.217 -0.091885269 1.0267287 0
2.2150002 -0.095108673 1.0260433 0
2.2120001 -0.098296002 1.0250151 0
2.2090001 -0.10147251 1.0239869 0
2.207 -0.10467067 1.0233015 0
2.2040002 -0.10782733 1.0222734 0
2.1850002 -0.11039595 1.0157616 0
2.184 -0.11357787 1.0154189 0
2.1830001 -0.11675619 1.0150762 0
2.1830001 -0.11997238 1.0150762 0
2.1820002 -0.12314527 1.0147334 0
2.1820002 -0.12635966 1.0147334 0
2.1810002 -0.12952715 1.0143907 0
2.1810002 -0.13273974 1.0143907 0
2.1800001 -0.13590181 1.014048 0
2.1780002 -0.13900796 1.0133625 0
2.1760001 -0.14210691 1.0126771 0
2.1730001 -0.14514272 1.0116489 0
2.1700001 -0.1481677 1.0106207 0
2.1680002 -0.15124139 1.0099353 0
2.1650002 -0.15424652 1.0089071 0
2.1630001 -0.15730399 1.0082217 0
2.1600001 -0.16028929 1.0071934 0
2.1580002 -0.16333051 1.006508 0
2.1550002 -0.16629598 1.0054798 0
2.1530001 -0.16932096 1.0047945 0
2.1500001 -0.17226659 1.0037663 0
2.148 -0.17527533 1.0030807 0
2.1450002 -0.17820112 1.0020527 0
2.1430001 -0.18119363 1.0013672 0
2.141 -0.18417893 1.0006818 0
2.138 -0.18707584 0.99965358 0
2.1360002 -0.19004491 0.99896812 0
2.1330001 -0.19292198 0.99793994 0
2.131 -0.19587483 0.99725449 0
2.1360002 -0.19943914 0.99896812 0
2.1400001 -0.20293133 1.000339 0
2.1440001 -0.20643792 1.0017099 0
2.148 -0.20995896 1.0030807 0
2.1530001 -0.21359003 1.0047945 0
2.1570001 -0.21714172 1.0061653 0
2.161 -0.22070785 1.0075362 0
2.1650002 -0.2242884 1.0089071 0
2.164 -0.22736931 1.0085644 0
2.164 -0.23055123 1.0085644 0
2.1630001 -0.23362672 1.0082217 0
2.1630001 -0.23680684 1.0082217 0
2.1620002 -0.23987691 1.0078789 0
2.1620002 -0.24305522 1.0078789 0
2.161 -0.24611989 1.0075362 0
2.161 -0.2492964 1.0075362 0
2.1600001 -0.25235566 1.0071934 0
2.1680002 -0.25648278 1.0099353 0
2.2240002 -0.27302009 1.0291278 0
2.2290001 -0.27694157 1.0308414 0
2.2340002 -0.28088108 1.032555 0
2.2380002 -0.28470874 1.0339259 0
2.243 -0.28868255 1.0356395 0
2.223 -0.085460111 1.0254967 0
2.22 -0.088678099 1.0244739 0
2.217 -0.091885269 1.0234512 0
2.2150002 -0.095108673 1.0227693 0
2.2120001 -0.098296002 1.0217466 0
2.2090001 -0.10147251 1.0207239 0
2.207 -0.10467067 1.0200421 0
2.2040002 -0.10782733 1.0190192 0
2.1850002 -0.11039595 1.0125418 0
2.184 -0.11357787 1.0122008 0
2.1830001 -0.11675619 1.01186 0
2.1830001 -0.11997238 1.01186 0
2.1820002 -0.12314527 1.011519 0
2.1820002 -0.12635966 1.011519 0
2.1810002 -0.12952715 1.0111781 0
2.1810002 -0.13273974 1.0111781 0
2.1800001 -0.13590181 1.0108372 0
2.1780002 -0.13900796 1.0101553 0
2.1760001 -0.14210691 1.0094736 0
2.1730001 -0.14514272 1.0084507 0
2.1700001 -0.1481677 1.0074281 0
2.1680002 -0.15124139 1.0067462 0
2.1650002 -0.15424652 1.0057234 0
2.1630001 -0.15730399 1.0050416 0
2.1600001 -0.16028929 1.0040188 0
2.1580002 -0.16333051 1.0033369 0
2.1550002 -0.16629598 1.0023142 0
2.1530001 -0.16932096 1.0016323 0
2.1500001 -0.17226659 1.0006096 0
2.148 -0.17527533 0.99992776 0
2.1450002 -0.17820112 0.99890494 0
2.1430001 -0.18119363 0.99822307 0
2.141 -0.18417893 0.99754131 0
2.138 -0.18707584 0.99651849 0
2.1360002 -0.19004491 0.99583673 0
2.1330001 -0.19292198 0.99481392 0
2.131 -0.19587483 0.99413216 0
2.1360002 -0.19943914 0.99583673 0
2.1400001 -0.20293133 0.99720037 0
2.1440001 -0.20643792 0.99856412 0
2.148 -0.20995896 0.99992776 0
2.1530001 -0.21359003 1.0016323 0
2.1570001 -0.21714172 1.0029961 0
2.161 -0.22070785 1.0043597 0
2.1650002 -0.2242884 1.0057234 0
2.164 -0.22736931 1.0053824 0
2.164 -0.23055123 1.0053824 0
2.1630001 -0.23362672 1.0050416 0
2.1630001 -0.23680684 1.0050416 0
2.1620002 -0.23987691 1.0047007 0
2.1620002 -0.24305522 1.0047007 0
2.161 -0.24611989 1.0043597 0
2.161 -0.2492964 1.0043597 0
2.1600001 -0.25235566 1.0040188 0
2.1680002 -0.25648278 1.0067462 0
2.2240002 -0.27302009 1.0258377 0
2.2290001 -0.27694157 1.0275422 0
2.2340002 -0.28088108 1.0292468 0
2.2380002 -0.28470874 1.0306106 0
2.243 -0.28868255 1.0323151 0
2.223 -0.085460111 1.0222083 0
2.22 -0.088678099 1.021191 0
2.217 -0.091885269 1.0201737 0
2.2150002 -0.095108673 1.0194955 0
2.2120001 -0.098296002 1.018478 0
2.2090001 -0.10147251 1.0174607 0
2.207 -0.10467067 1.0167825 0
2.2040002 -0.10782733 1.0157652 0
2.1850002 -0.11039595 1.0093219 0
2.184 -0.11357787 1.0089828 0
2.1830001 -0.11675619 1.0086437 0
2.1830001 -0.11997238 1.0086437 0
2.1820002 -0.12314527 1.0083046 0
2.1820002 -0.12635966 1.0083046 0
2.1810002 -0.12952715 1.0079656 0
2.1810002 -0.13273974 1.0079656 0
2.1800001 -0.13590181 1.0076264 0
2.1780002 -0.13900796 1.0069481 0
2.1760001 -0.14210691 1.0062699 0
2.1730001 -0.14514272 1.0052526 0
2.1700001 -0.1481677 1.0042353 0
2.1680002 -0.15124139 1.0035571 0
2.1650002 -0.15424652 1.0025396 0
2.1630001 -0.15730399 1.0018615 0
2.1600001 -0.16028929 1.0008441 0
2.1580002 -0.16333051 1.0001658 0
2.1550002 -0.16629598 0.99914849 0
2.1530001 -0.16932096 0.99847031 0
2.1500001 -0.17226659 0.99745297 0
2.148 -0.17527533 0.99677467 0
2.1450002 -0.17820112 0.99575734 0
2.1430001 -0.18119363 0.99507916 0
2.141 -0.18417893 0.99440086 0
2.138 -0.18707584 0.99338353 0
2.1360002 -0.19004491 0.99270535 0
2.1330001 -0.19292198 0.99168789 0
2.131 -0.19587483 0.99100971 0
2.1360002 -0.19943914 0.99270535 0
2.1400001 -0.20293133 0.99406183 0
2.1440001 -0.20643792 0.99541819 0
2.148 -0.20995896 0.99677467 0
2.1530001 -0.21359003 0.99847031 0
2.1570001 -0.21714172 0.99982667 0
2.161 -0.22070785 1.0011832 0
2.1650002 -0.2242884 1.0025396 0
2.164 -0.22736931 1.0022006 0
2.164 -0.23055123 1.0022006 0
2.1630001 -0.23362672 1.0018615 0
2.1630001 -0.23680684 1.0018615 0
2.1620002 -0.23987691 1.0015223 0
2.1620002 -0.24305522 1.0015223 0
2.161 -0.24611989 1.0011832 0
2.161 -0.2492964 1.0011832 0
2.1600001 -0.25235566 1.0008441 0
2.1680002 -0.25648278 1.0035571 0
2.2240002 -0.27302009 1.0225475 0
2.2290001 -0.27694157 1.0242431 0
2.2340002 -0.28088108 1.0259386 0
2.2380002 -0.28470874 1.0272951 0
2.243 -0.28868255 1.0289907 0
2.223 -0.085460111 1.0189201 0
2.22 -0.088678099 1.0179081 0
2.217 -0.091885269 1.0168961 0
2.2150002 -0.095108673 1.0162215 0
2.2120001 -0.098296002 1.0152096 0
2.2090001 -0.10147251 1.0141977 0
2.207 -0.10467067 1.013523 0
2.2040002 -0.10782733 1.0125111 0
2.1850002 -0.11039595 1.0061022 0
2.184 -0.11357787 1.0057648 0
2.1830001 -0.11675619 1.0054276 0
2.1830001 -0.11997238 1.0054276 0
2.1820002 -0.12314527 1.0050902 0
2.1820002 -0.12635966 1.0050902 0
2.1810002 -0.12952715 1.004753 0
2.1810002 -0.13273974 1.004753 0
2.1800001 -0.13590181 1.0044156 0
2.1780002 -0.13900796 1.003741 0
2.1760001 -0.14210691 1.0030664 0
2.1730001 -0.14514272 1.0020545 0
2.1700001 -0.1481677 1.0010425 0
2.1680002 -0.15124139 1.0003679 0
2.1650002 -0.15424652 0.99935591 0
2.1630001 -0.15730399 0.99868131 0
2.1600001 -0.16028929 0.99766934 0
2.1580002 -0.16333051 0.99699473 0
2.1550002 -0.16629598 0.99598289 0
2.1530001 -0.16932096 0.99530828 0
2.1500001 -0.17226659 0.99429631 0
2.148 -0.17527533 0.99362159 0
2.1450002 -0.17820112 0.99260974 0
2.1430001 -0.18119363 0.99193501 0
2.141 -0.18417893 0.99126041 0
2.138 -0.18707584 0.99024856 0
2.1360002 -0.19004491 0.98957384 0
2.1330001 -0.19292198 0.98856199 0
2.131 -0.19587483 0.98788738 0
2.1360002 -0.19943914 0.98957384 0
2.1400001 -0.20293133 0.99092317 0
2.1440001 -0.20643792 0.99227238 0
2.148 -0.20995896 0.99362159 0
2.1530001 -0.21359003 0.99530828 0
2.1570001 -0.21714172 0.99665749 0
2.161 -0.22070785 0.9980067 0
2.1650002 -0.2242884 0.99935591 0
2.164 -0.22736931 0.99901867 0
2.164 -0.23055123 0.99901867 0
2.1630001 -0.23362672 0.99868131 0
2.1630001 -0.23680684 0.99868131 0
2.1620002 -0.23987691 0.99834406 0
2.1620002 -0.24305522 0.99834406 0
2.161 -0.24611989 0.9980067 0
2.161 -0.2492964 0.9980067 0
2.1600001 -0.25235566 0.99766934 0
2.1680002 -0.25648278 1.0003679 0
2.2240002 -0.27302009 1.0192573 0
2.2290001 -0.27694157 1.0209439 0
2.2340002 -0.28088108 1.0226305 0
2.2380002 -0.28470874 1.0239798 0
2.243 -0.28868255 1.0256664 0
2.223 -0.085460111 1.0156317 0
2.22 -0.088678099 1.0146252 0
2.217 -0.091885269 1.0136186 0
2.2150002 -0.095108673 1.0129476 0
2.2120001 -0.098296002 1.0119411 0
2.2090001 -0.10147251 1.0109346 0
2.207 -0.10467067 1.0102636 0
2.2040002 -0.10782733 1.0092571 0
2.1850002 -0.11039595 1.0028824 0
2.184 -0.11357787 1.0025469 0
2.1830001 -0.11675619 1.0022115 0
2.1830001 -0.11997238 1.0022115 0
2.1820002 -0.12314527 1.0018759 0
2.1820002 -0.12635966 1.0018759 0
2.1810002 -0.12952715 1.0015404 0
2.1810002 -0.13273974 1.0015404 0
2.1800001 -0.13590181 1.0012048 0
2.1780002 -0.13900796 1.0005338 0
2.1760001 -0.14210691 0.99986279 0
2.1730001 -0.14514272 0.99885631 0
2.1700001 -0.1481677 0.99784982 0
2.1680002 -0.15124139 0.99717879 0
2.1650002 -0.15424652 0.99617219 0
2.1630001 -0.15730399 0.99550128 0
2.1600001 -0.16028929 0.99449468 0
2.1580002 -0.16333051 0.99382365 0
2.1550002 -0.16629598 0.99281716 0
2.1530001 -0.16932096 0.99214613 0
2.1500001 -0.17226659 0.99113965 0
2.148 -0.17527533 0.9904685 0
2.1450002 -0.17820112 0.98946214 0
2.1430001 -0.18119363 0.98879099 0
2.141 -0.18417893 0.98812008 0
2.138 -0.18707584 0.98711348 0
2.1360002 -0.19004491 0.98644245 0
2.1330001 -0.19292198 0.98543596 0
2.131 -0.19587483 0.98476493 0
2.1360002 -0.19943914 0.98644245 0
2.1400001 -0.20293133 0.9877845 0
2.1440001 -0.20643792 0.98912656 0
2.148 -0.20995896 0.9904685 0
2.1530001 -0.21359003 0.99214613 0
2.1570001 -0.21714172 0.99348807 0
2.161 -0.22070785 0.99483025 0
2.1650002 -0.2242884 0.99617219 0
2.164 -0.22736931 0.99583673 0
2.164 -0.23055123 0.99583673 0
2.1630001 -0.23362672 0.99550128 0
2.1630001 -0.23680684 0.99550128 0
2.1620002 -0.23987691 0.99516571 0
2.1620002 -0.24305522 0.99516571 0
2.161 -0.24611989 0.99483025 0
2.161 -0.2492964 0.99483025 0
2.1600001 -0.25235566 0.99449468 0
2.1680002 -0.25648278 0.99717879 0
2.2240002 -0.27302009 1.0159672 0
2.2290001 -0.27694157 1.0176448 0
2.2340002 -0.28088108 1.0193223 0
2.2380002 -0.28470874 1.0206643 0
2.243 -0.28868255 1.0223418 0
2.223 -0.085460111 1.0123433 0
2.22 -0.088678099 1.0113423 0
2.217 -0.091885269 1.0103412 0
2.2150002 -0.095108673 1.0096737 0
2.2120001 -0.098296002 1.0086726 0
2.2090001 -0.10147251 1.0076716 0
2.207 -0.10467067 1.0070041 0
2.2040002 -0.10782733 1.006003 0
2.1850002 -0.11039595 0.99966252 0
2.184 -0.11357787 0.99932885 0
2.1830001 -0.11675619 0.99899518 0
2.1830001 -0.11997238 0.99899518 0
2.1820002 -0.12314527 0.99866152 0
2.1820002 -0.12635966 0.99866152 0
2.1810002 -0.12952715 0.99832773 0
2.1810002 -0.13273974 0.99832773 0
2.1800001 -0.13590181 0.99799407 0
2.1780002 -0.13900796 0.99732661 0
2.1760001 -0.14210691 0.99665928 0
2.1730001 -0.14514272 0.99565816 0
2.1700001 -0.1481677 0.99465704 0
2.1680002 -0.15124139 0.99398959 0
2.1650002 -0.15424652 0.99298847 0
2.1630001 -0.15730399 0.99232113 0
2.1600001 -0.16028929 0.99132001 0
2.1580002 -0.16333051 0.99065256 0
2.1550002 -0.16629598 0.98965144 0
2.1530001 -0.16932096 0.98898411 0
2.1500001 -0.17226659 0.98798299 0
2.148 -0.17527533 0.98731554 0
2.1450002 -0.17820112 0.98631442 0
2.1430001 -0.18119363 0.98564696 0
2.141 -0.18417893 0.98497963 0
2.138 -0.18707584 0.98397839 0
2.1360002 -0.19004491 0.98331106 0
2.1330001 -0.19292198 0.98230994 0
2.131 -0.19587483 0.9816426 0
2.1360002 -0.19943914 0.98331106 0
2.1400001 -0.20293133 0.98464584 0
2.1440001 -0.20643792 0.98598075 0
2.148 -0.20995896 0.98731554 0
2.1530001 -0.21359003 0.98898411 0
2.1570001 -0.21714172 0.99031889 0
2.161 -0.22070785 0.99165368 0
2.1650002 -0.2242884 0.99298847 0
2.164 -0.22736931 0.9926548 0
2.164 -0.23055123 0.9926548 0
2.1630001 -0.23362672 0.99232113 0
2.1630001 -0.23680684 0.99232113 0
2.1620002 -0.23987691 0.99198735 0
2.1620002 -0.24305522 0.99198735 0
2.161 -0.24611989 0.99165368 0
2.161 -0.2492964 0.99165368 0
2.1600001 -0.25235566 0.99132001 0
2.1680002 -0.25648278 0.99398959 0
2.2240002 -0.27302009 1.0126771 0
2.2290001 -0.27694157 1.0143456 0
2.2340002 -0.28088108 1.0160141 0
2.2380002 -0.28470874 1.0173489 0
2.243 -0.28868255 1.0190175 0
2.223 -0.085460111 1.009055 0
2.22 -0.088678099 1.0080593 0
2.217 -0.091885269 1.0070636 0
2.2150002 -0.095108673 1.0063999 0
2.2120001 -0.098296002 1.0054041 0
2.2090001 -0.10147251 1.0044084 0
2.207 -0.10467067 1.0037446 0
2.2040002 -0.10782733 1.002749 0
2.1850002 -0.11039595 0.99644279 0
2.184 -0.11357787 0.99611092 0
2.1830001 -0.11675619 0.99577904 0
2.1830001 -0.11997238 0.99577904 0
2.1820002 -0.12314527 0.99544704 0
2.1820002 -0.12635966 0.99544704 0
2.1810002 -0.12952715 0.99511528 0
2.1810002 -0.13273974 0.99511528 0
2.1800001 -0.13590181 0.99478328 0
2.1780002 -0.13900796 0.99411952 0
2.1760001 -0.14210691 0.99345565 0
2.1730001 -0.14514272 0.99246001 0
2.1700001 -0.1481677 0.99146426 0
2.1680002 -0.15124139 0.9908005 0
2.1650002 -0.15424652 0.98980474 0
2.1630001 -0.15730399 0.98914099 0
2.1600001 -0.16028929 0.98814535 0
2.1580002 -0.16333051 0.98748147 0
2.1550002 -0.16629598 0.98648572 0
2.1530001 -0.16932096 0.98582196 0
2.1500001 -0.17226659 0.98482633 0
2.148 -0.17527533 0.98416245 0
2.1450002 -0.17820112 0.98316681 0
2.1430001 -0.18119363 0.98250294 0
2.141 -0.18417893 0.98183918 0
2.138 -0.18707584 0.98084342 0
2.1360002 -0.19004491 0.98017967 0
2.1330001 -0.19292198 0.97918391 0
2.131 -0.19587483 0.97852015 0
2.1360002 -0.19943914 0.98017967 0
2.1400001 -0.20293133 0.9815073 0
2.1440001 -0.20643792 0.98283494 0
2.148 -0.20995896 0.98416245 0
2.1530001 -0.21359003 0.98582196 0
2.1570001 -0.21714172 0.9871496 0
2.161 -0.22070785 0.98847723 0
2.1650002 -0.2242884 0.98980474 0
2.164 -0.22736931 0.98947287 0
2.164 -0.23055123 0.98947287 0
2.1630001 -0.23362672 0.98914099 0
2.1630001 -0.23680684 0.98914099 0
2.1620002 -0.23987691 0.98880911 0
2.1620002 -0.24305522 0.98880911 0
2.161 -0.24611989 0.98847723 0
2.161 -0.2492964 0.98847723 0
2.1600001 -0.25235566 0.98814535 0
2.1680002 -0.25648278 0.9908005 0
2.2240002 -0.27302009 1.0093869 0
2.2290001 -0.27694157 1.0110464 0
2.2340002 -0.28088108 1.0127059 0
2.2380002 -0.28470874 1.0140336 0
2.243 -0.28868255 1.0156929 0
2.223 -0.085460111 1.0057666 0
2.22 -0.088678099 1.0047764 0
2.217 -0.091885269 1.0037861 0
2.2150002 -0.095108673 1.0031259 0
2.2120001 -0.098296002 1.0021356 0
2.2090001 -0.10147251 1.0011454 0
2.207 -0.10467067 1.0004851 0
2.2040002 -0.10782733 0.99949479 0
2.1850002 -0.11039595 0.99322307 0
2.184 -0.11357787 0.99289286 0
2.1830001 -0.11675619 0.99256277 0
2.1830001 -0.11997238 0.99256277 0
2.1820002 -0.12314527 0.99223268 0
2.1820002 -0.12635966 0.99223268 0
2.1810002 -0.12952715 0.99190259 0
2.1810002 -0.13273974 0.99190259 0
2.1800001 -0.13590181 0.9915725 0
2.1780002 -0.13900796 0.99091232 0
2.1760001 -0.14210691 0.99025214 0
