# .PCD v0.7 - Point Cloud Data file format
VERSION 0.7
FIELDS x y z intensity
SIZE 4 4 4 4
TYPE F F F F
COUNT 1 1 1 1
WIDTH 1501
HEIGHT 1
VIEWPOINT 0 0 0 1 0 0 0
POINTS 1501
DATA ascii
5.3870006 2.6706688 2.0771801 0
5.3900003 2.6633019 2.0781865 0
5.3920002 2.6553831 2.0788574 0
5.4000001 2.6506932 2.0815415 0
5.3490005 2.801728 2.0555036 0
5.3510003 2.7939482 2.0561712 0
5.3540006 2.7867329 2.0571723 0
5.3560004 2.7789369 2.0578396 0
5.3580003 2.7711334 2.058507 0
5.3600001 2.7633231 2.0591743 0
5.3630004 2.7560699 2.0601754 0
5.3650002 2.7482433 2.060843 0
5.3670001 2.7404094 2.0615103 0
5.3690004 2.7325683 2.0621779 0
5.3720002 2.7252772 2.0631788 0
5.3740005 2.7174201 2.0638463 0
5.3760004 2.7095551 2.0645137 0
5.3780003 2.7016833 2.065181 0
5.3800001 2.6938043 2.0658484 0
5.3830004 2.6864665 2.0668497 0
5.3850002 2.6785712 2.067517 0
5.3870006 2.6706688 2.0681846 0
5.3900003 2.6633019 2.0691855 0
5.3920002 2.6553831 2.0698528 0
5.4000001 2.6506932 2.0725224 0
5.3490005 2.801728 2.0465767 0
5.3510003 2.7939482 2.0472403 0
5.3540006 2.7867329 2.0482361 0
5.3560004 2.7789369 2.0488999 0
5.3580003 2.7711334 2.0495636 0
5.3600001 2.7633231 2.0502274 0
5.3630004 2.7560699 2.0512233 0
5.3650002 2.7482433 2.051887 0
5.3670001 2.7404094 2.0525508 0
5.3690004 2.7325683 2.0532148 0
5.3720002 2.7252772 2.0542102 0
5.3740005 2.7174201 2.0548742 0
5.3760004 2.7095551 2.0555379 0
5.3780003 2.7016833 2.0562017 0
5.3800001 2.6938043 2.0568655 0
5.3830004 2.6864665 2.0578613 0
5.3850002 2.6785712 2.0585251 0
5.3870006 2.6706688 2.0591888 0
5.3900003 2.6633019 2.0601845 0
5.3920002 2.6553831 2.0608482 0
5.4000001 2.6506932 2.0635035 0
5.3490005 2.801728 2.0376496 0
5.3510003 2.7939482 2.0383098 0
5.3540006 2.7867329 2.0393002 0
5.3560004 2.7789369 2.0399604 0
5.3580003 2.7711334 2.0406203 0
5.3600001 2.7633231 2.0412805 0
5.3630004 2.7560699 2.0422709 0
5.3650002 2.7482433 2.0429311 0
5.3670001 2.7404094 2.0435913 0
5.3690004 2.7325683 2.0442517 0
5.3720002 2.7252772 2.0452418 0
5.3740005 2.7174201 2.045902 0
5.3760004 2.7095551 2.0465622 0
5.3780003 2.7016833 2.0472224 0
5.3800001 2.6938043 2.0478826 0
5.3830004 2.6864665 2.0488729 0
5.3850002 2.6785712 2.0495329 0
5.3870006 2.6706688 2.0501933 0
5.3900003 2.6633019 2.0511835 0
5.3920002 2.6553831 2.0518436 0
5.4000001 2.6506932 2.0544844 0
5.3490005 2.801728 2.0287225 0
5.3510003 2.7939482 2.0293791 0
5.3540006 2.7867329 2.030364 0
5.3560004 2.7789369 2.0310206 0
5.3580003 2.7711334 2.031677 0
5.3600001 2.7633231 2.0323339 0
5.3630004 2.7560699 2.0333188 0
5.3650002 2.7482433 2.0339751 0
5.3670001 2.7404094 2.0346317 0
5.3690004 2.7325683 2.0352883 0
5.3720002 2.7252772 2.0362732 0
5.3740005 2.7174201 2.0369298 0
5.3760004 2.7095551 2.0375865 0
5.3780003 2.7016833 2.0382431 0
5.3800001 2.6938043 2.0388994 0
5.3830004 2.6864665 2.0398846 0
5.3850002 2.6785712 2.0405409 0
5.3870006 2.6706688 2.0411978 0
5.3900003 2.6633019 2.0421824 0
5.3920002 2.6553831 2.0428391 0
5.4000001 2.6506932 2.0454655 0
5.3490005 2.801728 2.0197954 0
5.3510003 2.7939482 2.0204484 0
5.3540006 2.7867329 2.0214279 0
5.3560004 2.7789369 2.0220809 0
5.3580003 2.7711334 2.0227339 0
5.3600001 2.7633231 2.0233867 0
5.3630004 2.7560699 2.0243664 0
5.3650002 2.7482433 2.0250194 0
5.3670001 2.7404094 2.0256722 0
5.3690004 2.7325683 2.0263252 0
5.3720002 2.7252772 2.0273046 0
5.3740005 2.7174201 2.0279577 0
5.3760004 2.7095551 2.0286107 0
5.3780003 2.7016833 2.0292635 0
5.3800001 2.6938043 2.0299165 0
5.3830004 2.6864665 2.0308962 0
5.3850002 2.6785712 2.031549 0
5.3870006 2.6706688 2.0322022 0
5.3900003 2.6633019 2.0331817 0
5.3920002 2.6553831 2.0338345 0
5.4000001 2.6506932 2.0364463 0
5.3490005 2.801728 2.0108685 0
5.3510003 2.7939482 2.0115178 0
5.3540006 2.7867329 2.0124919 0
5.3560004 2.7789369 2.0131414 0
5.3580003 2.7711334 2.0137906 0
5.3600001 2.7633231 2.0144398 0
5.3630004 2.7560699 2.015414 0
5.3650002 2.7482433 2.0160635 0
5.3670001 2.7404094 2.0167127 0
5.3690004 2.7325683 2.0173621 0
5.3720002 2.7252772 2.0183361 0
5.3740005 2.7174201 2.0189855 0
5.3760004 2.7095551 2.019635 0
5.3780003 2.7016833 2.0202844 0
5.3800001 2.6938043 2.0209336 0
5.3830004 2.6864665 2.0219078 0
5.3850002 2.6785712 2.022557 0
5.3870006 2.6706688 2.0232065 0
5.3900003 2.6633019 2.0241807 0
5.3920002 2.6553831 2.0248299 0
5.4000001 2.6506932 2.0274274 0
5.3490005 2.801728 2.0019414 0
5.3510003 2.7939482 2.0025871 0
5.3540006 2.7867329 2.003556 0
5.3560004 2.7789369 2.0042017 0
5.3580003 2.7711334 2.0048473 0
5.3600001 2.7633231 2.0054932 0
5.3630004 2.7560699 2.0064619 0
5.3650002 2.7482433 2.0071075 0
5.3670001 2.7404094 2.0077531 0
5.3690004 2.7325683 2.008399 0
5.3720002 2.7252772 2.0093677 0
5.3740005 2.7174201 2.0100136 0
5.3760004 2.7095551 2.0106592 0
5.3780003 2.7016833 2.0113049 0
5.3800001 2.6938043 2.0119505 0
5.3830004 2.6864665 2.0129194 0
5.3850002 2.6785712 2.0135651 0
5.3870006 2.6706688 2.0142109 0
5.3900003 2.6633019 2.0151794 0
5.3920002 2.6553831 2.0158253 0
5.4000001 2.6506932 2.0184083 0
5.3490005 2.801728 1.9930145 0
5.3510003 2.7939482 1.9936565 0
5.3540006 2.7867329 1.9946198 0
5.3560004 2.7789369 1.9952619 0
5.3580003 2.7711334 1.9959041 0
5.3600001 2.7633231 1.9965461 0
5.3630004 2.7560699 1.9975095 0
5.3650002 2.7482433 1.9981517 0
5.3670001 2.7404094 1.9987937 0
5.3690004 2.7325683 1.999436 0
5.3720002 2.7252772 2.0003991 0
5.3740005 2.7174201 2.0010414 0
5.3760004 2.7095551 2.0016835 0
5.3780003 2.7016833 2.0023255 0
5.3800001 2.6938043 2.0029676 0
5.3830004 2.6864665 2.003931 0
5.3850002 2.6785712 2.0045731 0
5.3870006 2.6706688 2.0052154 0
5.3900003 2.6633019 2.0061786 0
5.3920002 2.6553831 2.0068207 0
5.4000001 2.6506932 2.0093892 0
5.3490005 2.801728 1.9840875 0
5.3510003 2.7939482 1.9847258 0
5.3540006 2.7867329 1.9856838 0
5.3560004 2.7789369 1.9863223 0
5.3580003 2.7711334 1.9869608 0
5.3600001 2.7633231 1.9875993 0
5.3630004 2.7560699 1.9885572 0
5.3650002 2.7482433 1.9891957 0
5.3670001 2.7404094 1.9898342 0
5.3690004 2.7325683 1.9904729 0
5.3720002 2.7252772 1.9914306 0
5.3740005 2.7174201 1.9920692 0
5.3760004 2.7095551 1.9927078 0
5.3780003 2.7016833 1.9933462 0
5.3800001 2.6938043 1.9939848 0
5.3830004 2.6864665 1.9949427 0
5.3850002 2.6785712 1.9955812 0
5.3870006 2.6706688 1.9962199 0
5.3900003 2.6633019 1.9971776 0
5.3920002 2.6553831 1.9978161 0
5.4000001 2.6506932 2.0003703 0
5.3490005 2.801728 1.9751604 0
5.3510003 2.7939482 1.9757953 0
5.3540006 2.7867329 1.9767476 0
5.3560004 2.7789369 1.9773825 0
5.3580003 2.7711334 1.9780176 0
5.3600001 2.7633231 1.9786525 0
5.3630004 2.7560699 1.9796048 0
5.3650002 2.7482433 1.9802397 0
5.3670001 2.7404094 1.9808748 0
5.3690004 2.7325683 1.9815098 0
5.3720002 2.7252772 1.982462 0
5.3740005 2.7174201 1.9830971 0
5.3760004 2.7095551 1.983732 0
5.3780003 2.7016833 1.984367 0
5.3800001 2.6938043 1.9850018 0
5.3830004 2.6864665 1.9859543 0
5.3850002 2.6785712 1.9865892 0
5.3870006 2.6706688 1.9872242 0
5.3900003 2.6633019 1.9881766 0
5.3920002 2.6553831 1.9888115 0
5.4000001 2.6506932 1.9913512 0
5.3490005 2.801728 1.9662334 0
5.3510003 2.7939482 1.9668646 0
5.3540006 2.7867329 1.9678117 0
5.3560004 2.7789369 1.9684429 0
5.3580003 2.7711334 1.9690742 0
5.3600001 2.7633231 1.9697055 0
5.3630004 2.7560699 1.9706526 0
5.3650002 2.7482433 1.9712838 0
5.3670001 2.7404094 1.9719151 0
5.3690004 2.7325683 1.9725467 0
5.3720002 2.7252772 1.9734936 0
5.3740005 2.7174201 1.974125 0
5.3760004 2.7095551 1.9747562 0
5.3780003 2.7016833 1.9753876 0
5.3800001 2.6938043 1.9760188 0
5.3830004 2.6864665 1.9769659 0
5.3850002 2.6785712 1.9775971 0
5.3870006 2.6706688 1.9782287 0
5.3900003 2.6633019 1.9791756 0
5.3920002 2.6553831 1.9798069 0
5.4000001 2.6506932 1.9823322 0
5.3490005 2.801728 1.9573061 0
5.3510003 2.7939482 1.957934 0
5.3540006 2.7867329 1.9588757 0
5.3560004 2.7789369 1.9595033 0
5.3580003 2.7711334 1.9601309 0
5.3600001 2.7633231 1.9607586 0
5.3630004 2.7560699 1.9617003 0
5.3650002 2.7482433 1.962328 0
5.3670001 2.7404094 1.9629557 0
5.3690004 2.7325683 1.9635836 0
5.3720002 2.7252772 1.9645251 0
5.3740005 2.7174201 1.9651529 0
5.3760004 2.7095551 1.9657805 0
5.3780003 2.7016833 1.9664083 0
5.3800001 2.6938043 1.9670359 0
5.3830004 2.6864665 1.9679775 0
5.3850002 2.6785712 1.9686052 0
5.3870006 2.6706688 1.969233 0
5.3900003 2.6633019 1.9701747 0
5.3920002 2.6553831 1.9708023 0
5.4000001 2.6506932 1.9733131 0
5.3490005 2.801728 1.9483792 0
5.3510003 2.7939482 1.9490032 0
5.3540006 2.7867329 1.9499395 0
5.3560004 2.7789369 1.9505637 0
5.3580003 2.7711334 1.9511876 0
5.3600001 2.7633231 1.9518118 0
5.3630004 2.7560699 1.9527481 0
5.3650002 2.7482433 1.953372 0
5.3670001 2.7404094 1.9539962 0
5.3690004 2.7325683 1.9546205 0
5.3720002 2.7252772 1.9555565 0
5.3740005 2.7174201 1.9561807 0
5.3760004 2.7095551 1.9568049 0
5.3780003 2.7016833 1.9574288 0
5.3800001 2.6938043 1.9580529 0
5.3830004 2.6864665 1.9589891 0
5.3850002 2.6785712 1.9596132 0
5.3870006 2.6706688 1.9602375 0
5.3900003 2.6633019 1.9611735 0
5.3920002 2.6553831 1.9617977 0
5.4000001 2.6506932 1.9642941 0
5.3490005 2.801728 1.9394522 0
5.3510003 2.7939482 1.9400725 0
5.3540006 2.7867329 1.9410034 0
5.3560004 2.7789369 1.9416239 0
5.3580003 2.7711334 1.9422443 0
5.3600001 2.7633231 1.9428649 0
5.3630004 2.7560699 1.9437957 0
5.3650002 2.7482433 1.9444162 0
5.3670001 2.7404094 1.9450365 0
5.3690004 2.7325683 1.9456573 0
5.3720002 2.7252772 1.9465879 0
5.3740005 2.7174201 1.9472085 0
5.3760004 2.7095551 1.947829 0
5.3780003 2.7016833 1.9484495 0
5.3800001 2.6938043 1.94907 0
5.3830004 2.6864665 1.9500008 0
5.3850002 2.6785712 1.9506212 0
5.3870006 2.6706688 1.951242 0
5.3900003 2.6633019 1.9521725 0
5.3920002 2.6553831 1.952793 0
5.4000001 2.6506932 1.9552751 0
5.3490005 2.801728 1.9305251 0
5.3510003 2.7939482 1.931142 0
5.3540006 2.7867329 1.9320674 0
5.3560004 2.7789369 1.9326843 0
5.3580003 2.7711334 1.9333012 0
5.3600001 2.7633231 1.933918 0
5.3630004 2.7560699 1.9348434 0
5.3650002 2.7482433 1.9354602 0
5.3670001 2.7404094 1.9360771 0
5.3690004 2.7325683 1.9366941 0
5.3720002 2.7252772 1.9376194 0
5.3740005 2.7174201 1.9382365 0
5.3760004 2.7095551 1.9388533 0
5.3780003 2.7016833 1.9394702 0
5.3800001 2.6938043 1.940087 0
5.3830004 2.6864665 1.9410124 0
5.3850002 2.6785712 1.9416293 0
5.3870006 2.6706688 1.9422463 0
5.3900003 2.6633019 1.9431716 0
5.3920002 2.6553831 1.9437884 0
5.4000001 2.6506932 1.946256 0
5.3490005 2.801728 1.9215981 0
5.3510003 2.7939482 1.9222113 0
5.3540006 2.7867329 1.9231312 0
5.3560004 2.7789369 1.9237447 0
5.3580003 2.7711334 1.9243579 0
5.3600001 2.7633231 1.9249711 0
5.3630004 2.7560699 1.925891 0
5.3650002 2.7482433 1.9265044 0
5.3670001 2.7404094 1.9271176 0
5.3690004 2.7325683 1.9277309 0
5.3720002 2.7252772 1.9286509 0
5.3740005 2.7174201 1.9292643 0
5.3760004 2.7095551 1.9298775 0
5.3780003 2.7016833 1.9304907 0
5.3800001 2.6938043 1.9311039 0
5.3830004 2.6864665 1.932024 0
5.3850002 2.6785712 1.9326373 0
5.3870006 2.6706688 1.9332508 0
5.3900003 2.6633019 1.9341706 0
5.3920002 2.6553831 1.9347838 0
5.4000001 2.6506932 1.937237 0
5.3490005 2.801728 1.912671 0
5.3510003 2.7939482 1.9132807 0
5.3540006 2.7867329 1.9141953 0
5.3560004 2.7789369 1.9148048 0
5.3580003 2.7711334 1.9154146 0
5.3600001 2.7633231 1.9160242 0
5.3630004 2.7560699 1.9169389 0
5.3650002 2.7482433 1.9175484 0
5.3670001 2.7404094 1.9181581 0
5.3690004 2.7325683 1.9187678 0
5.3720002 2.7252772 1.9196823 0
5.3740005 2.7174201 1.9202921 0
5.3760004 2.7095551 1.9209018 0
5.3780003 2.7016833 1.9215114 0
5.3800001 2.6938043 1.922121 0
5.3830004 2.6864665 1.9230357 0
5.3850002 2.6785712 1.9236454 0
5.3870006 2.6706688 1.9242551 0
5.3900003 2.6633019 1.9251696 0
5.3920002 2.6553831 1.9257792 0
5.4000001 2.6506932 1.9282179 0
5.3490005 2.801728 1.903744 0
5.3510003 2.7939482 1.90435 0
5.3540006 2.7867329 1.9052593 0
5.3560004 2.7789369 1.9058652 0
5.3580003 2.7711334 1.9064713 0
5.3600001 2.7633231 1.9070773 0
5.3630004 2.7560699 1.9079865 0
5.3650002 2.7482433 1.9085925 0
5.3670001 2.7404094 1.9091985 0
5.3690004 2.7325683 1.9098047 0
5.3720002 2.7252772 1.9107138 0
5.3740005 2.7174201 1.91132 0
5.3760004 2.7095551 1.911926 0
5.3780003 2.7016833 1.9125321 0
5.3800001 2.6938043 1.9131382 0
5.3830004 2.6864665 1.9140472 0
5.3850002 2.6785712 1.9146534 0
5.3870006 2.6706688 1.9152596 0
5.3900003 2.6633019 1.9161686 0
5.3920002 2.6553831 1.9167746 0
5.4000001 2.6506932 1.9191989 0
5.3490005 2.801728 1.8948169 0
5.3510003 2.7939482 1.8954194 0
5.3540006 2.7867329 1.8963231 0
5.3560004 2.7789369 1.8969256 0
5.3580003 2.7711334 1.8975279 0
5.3600001 2.7633231 1.8981304 0
5.3630004 2.7560699 1.8990341 0
5.3650002 2.7482433 1.8996366 0
5.3670001 2.7404094 1.9002391 0
5.3690004 2.7325683 1.9008416 0
5.3720002 2.7252772 1.9017453 0
5.3740005 2.7174201 1.9023478 0
5.3760004 2.7095551 1.9029503 0
5.3780003 2.7016833 1.9035528 0
5.3800001 2.6938043 1.9041551 0
5.3830004 2.6864665 1.905059 0
5.3850002 2.6785712 1.9056613 0
5.3870006 2.6706688 1.9062639 0
5.3900003 2.6633019 1.9071676 0
5.3920002 2.6553831 1.9077699 0
5.4000001 2.6506932 1.9101799 0
5.3490005 2.801728 1.8858899 0
5.3510003 2.7939482 1.8864887 0
5.3540006 2.7867329 1.887387 0
5.3560004 2.7789369 1.8879858 0
5.3580003 2.7711334 1.8885847 0
5.3600001 2.7633231 1.8891835 0
5.3630004 2.7560699 1.8900819 0
5.3650002 2.7482433 1.8906807 0
5.3670001 2.7404094 1.8912795 0
5.3690004 2.7325683 1.8918785 0
5.3720002 2.7252772 1.8927768 0
5.3740005 2.7174201 1.8933758 0
5.3760004 2.7095551 1.8939745 0
5.3780003 2.7016833 1.8945733 0
5.3800001 2.6938043 1.8951721 0
5.3830004 2.6864665 1.8960705 0
5.3850002 2.6785712 1.8966694 0
5.3870006 2.6706688 1.8972684 0
5.3900003 2.6633019 1.8981665 0
5.3920002 2.6553831 1.8987653 0
5.4000001 2.6506932 1.9011608 0
5.3490005 2.801728 1.8769629 0
5.3510003 2.7939482 1.877558 0
5.3540006 2.7867329 1.878451 0
5.3560004 2.7789369 1.8790462 0
5.3580003 2.7711334 1.8796414 0
5.3600001 2.7633231 1.8802366 0
5.3630004 2.7560699 1.8811295 0
5.3650002 2.7482433 1.8817248 0
5.3670001 2.7404094 1.88232 0
5.3690004 2.7325683 1.8829154 0
5.3720002 2.7252772 1.8838081 0
5.3740005 2.7174201 1.8844036 0
5.3760004 2.7095551 1.8849988 0
5.3780003 2.7016833 1.885594 0
5.3800001 2.6938043 1.8861892 0
5.3830004 2.6864665 1.8870822 0
5.3850002 2.6785712 1.8876774 0
5.3870006 2.6706688 1.8882728 0
5.3900003 2.6633019 1.8891655 0
5.3920002 2.6553831 1.8897607 0
5.4000001 2.6506932 1.8921418 0
5.3490005 2.801728 1.8680358 0
5.3510003 2.7939482 1.8686274 0
5.3540006 2.7867329 1.8695149 0
5.3560004 2.7789369 1.8701066 0
5.3580003 2.7711334 1.8706982 0
5.3600001 2.7633231 1.8712897 0
5.3630004 2.7560699 1.8721774 0
5.3650002 2.7482433 1.8727689 0
5.3670001 2.7404094 1.8733605 0
5.3690004 2.7325683 1.8739523 0
5.3720002 2.7252772 1.8748397 0
5.3740005 2.7174201 1.8754314 0
5.3760004 2.7095551 1.8760229 0
5.3780003 2.7016833 1.8766147 0
5.3800001 2.6938043 1.8772063 0
5.3830004 2.6864665 1.8780937 0
5.3850002 2.6785712 1.8786855 0
5.3870006 2.6706688 1.8792772 0
5.3900003 2.6633019 1.8801645 0
5.3920002 2.6553831 1.8807561 0
5.4000001 2.6506932 1.8831227 0
5.3490005 2.801728 1.8591088 0
5.3510003 2.7939482 1.8596967 0
5.3540006 2.7867329 1.8605789 0
5.3560004 2.7789369 1.8611668 0
5.3580003 2.7711334 1.8617549 0
5.3600001 2.7633231 1.8623428 0
5.3630004 2.7560699 1.863225 0
5.3650002 2.7482433 1.863813 0
5.3670001 2.7404094 1.864401 0
5.3690004 2.7325683 1.8649892 0
5.3720002 2.7252772 1.8658712 0
5.3740005 2.7174201 1.8664593 0
5.3760004 2.7095551 1.8670473 0
5.3780003 2.7016833 1.8676353 0
5.3800001 2.6938043 1.8682233 0
5.3830004 2.6864665 1.8691055 0
5.3850002 2.6785712 1.8696934 0
5.3870006 2.6706688 1.8702816 0
5.3900003 2.6633019 1.8711636 0
5.3920002 2.6553831 1.8717515 0
5.4000001 2.6506932 1.8741037 0
5.3490005 2.801728 1.8501817 0
5.3510003 2.7939482 1.8507661 0
5.3540006 2.7867329 1.8516428 0
5.3560004 2.7789369 1.8522272 0
5.3580003 2.7711334 1.8528116 0
5.3600001 2.7633231 1.8533961 0
5.3630004 2.7560699 1.8542727 0
5.3650002 2.7482433 1.8548571 0
5.3670001 2.7404094 1.8554415 0
5.3690004 2.7325683 1.8560259 0
5.3720002 2.7252772 1.8569026 0
5.3740005 2.7174201 1.8574872 0
5.3760004 2.7095551 1.8580716 0
5.3780003 2.7016833 1.8586559 0
5.3800001 2.6938043 1.8592403 0
5.3830004 2.6864665 1.860117 0
5.3850002 2.6785712 1.8607014 0
5.3870006 2.6706688 1.861286 0
5.3900003 2.6633019 1.8621626 0
5.3920002 2.6553831 1.862747 0
5.4000001 2.6506932 1.8650846 0
5.3490005 2.801728 1.8412546 0
5.3510003 2.7939482 1.8418354 0
5.3540006 2.7867329 1.8427067 0
5.3560004 2.7789369 1.8432876 0
5.3580003 2.7711334 1.8438684 0
5.3600001 2.7633231 1.844449 0
5.3630004 2.7560699 1.8453203 0
5.3650002 2.7482433 1.8459013 0
5.3670001 2.7404094 1.846482 0
5.3690004 2.7325683 1.8470628 0
5.3720002 2.7252772 1.847934 0
5.3740005 2.7174201 1.848515 0
5.3760004 2.7095551 1.8490958 0
5.3780003 2.7016833 1.8496765 0
5.3800001 2.6938043 1.8502574 0
5.3830004 2.6864665 1.8511287 0
5.3850002 2.6785712 1.8517095 0
5.3870006 2.6706688 1.8522904 0
5.3900003 2.6633019 1.8531615 0
5.3920002 2.6553831 1.8537424 0
5.4000001 2.6506932 1.8560656 0
5.3490005 2.801728 1.8323276 0
5.3510003 2.7939482 1.8329048 0
5.3540006 2.7867329 1.8337706 0
5.3560004 2.7789369 1.8343478 0
5.3580003 2.7711334 1.8349251 0
5.3600001 2.7633231 1.8355021 0
5.3630004 2.7560699 1.8363682 0
5.3650002 2.7482433 1.8369453 0
5.3670001 2.7404094 1.8375224 0
5.3690004 2.7325683 1.8380997 0
5.3720002 2.7252772 1.8389655 0
5.3740005 2.7174201 1.8395429 0
5.3760004 2.7095551 1.84012 0
5.3780003 2.7016833 1.8406973 0
5.3800001 2.6938043 1.8412744 0
5.3830004 2.6864665 1.8421402 0
5.3850002 2.6785712 1.8427175 0
5.3870006 2.6706688 1.8432947 0
5.3900003 2.6633019 1.8441606 0
5.3920002 2.6553831 1.8447378 0
5.4000001 2.6506932 1.8470466 0
5.3490005 2.801728 1.8234005 0
5.3510003 2.7939482 1.8239741 0
5.3540006 2.7867329 1.8248346 0
5.3560004 2.7789369 1.8254081 0
5.3580003 2.7711334 1.8259817 0
5.3600001 2.7633231 1.8265554 0
5.3630004 2.7560699 1.8274158 0
5.3650002 2.7482433 1.8279893 0
5.3670001 2.7404094 1.828563 0
5.3690004 2.7325683 1.8291366 0
5.3720002 2.7252772 1.8299971 0
5.3740005 2.7174201 1.8305707 0
5.3760004 2.7095551 1.8311442 0
5.3780003 2.7016833 1.8317178 0
5.3800001 2.6938043 1.8322914 0
5.3830004 2.6864665 1.8331519 0
5.3850002 2.6785712 1.8337256 0
5.3870006 2.6706688 1.8342991 0
5.3900003 2.6633019 1.8351595 0
5.3920002 2.6553831 1.8357332 0
5.4000001 2.6506932 1.8380275 0
5.3490005 2.801728 1.8144735 0
5.3510003 2.7939482 1.8150434 0
5.3540006 2.7867329 1.8158985 0
5.3560004 2.7789369 1.8164685 0
5.3580003 2.7711334 1.8170384 0
5.3600001 2.7633231 1.8176084 0
5.3630004 2.7560699 1.8184636 0
5.3650002 2.7482433 1.8190335 0
5.3670001 2.7404094 1.8196034 0
5.3690004 2.7325683 1.8201735 0
5.3720002 2.7252772 1.8210285 0
5.3740005 2.7174201 1.8215986 0
5.3760004 2.7095551 1.8221686 0
5.3780003 2.7016833 1.8227385 0
5.3800001 2.6938043 1.8233085 0
5.3830004 2.6864665 1.8241636 0
5.3850002 2.6785712 1.8247335 0
5.3870006 2.6706688 1.8253036 0
5.3900003 2.6633019 1.8261585 0
5.3920002 2.6553831 1.8267285 0
5.4000001 2.6506932 1.8290085 0
5.3490005 2.801728 1.8055464 0
5.3510003 2.7939482 1.8061128 0
5.3540006 2.7867329 1.8069625 0
5.3560004 2.7789369 1.8075289 0
5.3580003 2.7711334 1.8080951 0
5.3600001 2.7633231 1.8086616 0
5.3630004 2.7560699 1.8095112 0
5.3650002 2.7482433 1.8100775 0
5.3670001 2.7404094 1.8106439 0
5.3690004 2.7325683 1.8112104 0
5.3720002 2.7252772 1.8120599 0
5.3740005 2.7174201 1.8126265 0
5.3760004 2.7095551 1.8131928 0
5.3780003 2.7016833 1.8137591 0
5.3800001 2.6938043 1.8143255 0
5.3830004 2.6864665 1.8151752 0
5.3850002 2.6785712 1.8157415 0
5.3870006 2.6706688 1.8163079 0
5.3900003 2.6633019 1.8171575 0
5.3920002 2.6553831 1.8177239 0
5.4000001 2.6506932 1.8199894 0
5.3490005 2.801728 1.7966194 0
5.3510003 2.7939482 1.7971821 0
5.3540006 2.7867329 1.7980264 0
5.3560004 2.7789369 1.7985891 0
5.3580003 2.7711334 1.7991519 0
5.3600001 2.7633231 1.7997147 0
5.3630004 2.7560699 1.8005589 0
5.3650002 2.7482433 1.8011217 0
5.3670001 2.7404094 1.8016844 0
5.3690004 2.7325683 1.8022473 0
5.3720002 2.7252772 1.8030914 0
5.3740005 2.7174201 1.8036543 0
5.3760004 2.7095551 1.804217 0
5.3780003 2.7016833 1.8047798 0
5.3800001 2.6938043 1.8053426 0
5.3830004 2.6864665 1.8061868 0
5.3850002 2.6785712 1.8067496 0
5.3870006 2.6706688 1.8073124 0
5.3900003 2.6633019 1.8081566 0
5.3920002 2.6553831 1.8087193 0
5.4000001 2.6506932 1.8109704 0
5.3490005 2.801728 1.7876923 0
5.3510003 2.7939482 1.7882515 0
5.3540006 2.7867329 1.7890903 0
5.3560004 2.7789369 1.7896495 0
5.3580003 2.7711334 1.7902087 0
5.3600001 2.7633231 1.7907677 0
5.3630004 2.7560699 1.7916067 0
5.3650002 2.7482433 1.7921658 0
5.3670001 2.7404094 1.7927248 0
5.3690004 2.7325683 1.7932842 0
5.3720002 2.7252772 1.7941229 0
5.3740005 2.7174201 1.7946821 0
5.3760004 2.7095551 1.7952412 0
5.3780003 2.7016833 1.7958004 0
5.3800001 2.6938043 1.7963595 0
5.3830004 2.6864665 1.7971984 0
5.3850002 2.6785712 1.7977576 0
5.3870006 2.6706688 1.7983167 0
5.3900003 2.6633019 1.7991555 0
5.3920002 2.6553831 1.7997147 0
5.4000001 2.6506932 1.8019514 0
5.3490005 2.801728 1.7787653 0
5.3510003 2.7939482 1.7793208 0
5.3540006 2.7867329 1.7801542 0
5.3560004 2.7789369 1.7807099 0
5.3580003 2.7711334 1.7812654 0
5.3600001 2.7633231 1.7818209 0
5.3630004 2.7560699 1.7826543 0
5.3650002 2.7482433 1.7832099 0
5.3670001 2.7404094 1.7837654 0
5.3690004 2.7325683 1.7843211 0
5.3720002 2.7252772 1.7851542 0
5.3740005 2.7174201 1.7857101 0
5.3760004 2.7095551 1.7862656 0
5.3780003 2.7016833 1.786821 0
5.3800001 2.6938043 1.7873765 0
5.3830004 2.6864665 1.78821 0
5.3850002 2.6785712 1.7887655 0
5.3870006 2.6706688 1.7893212 0
5.3900003 2.6633019 1.7901545 0
5.3920002 2.6553831 1.7907101 0
5.4000001 2.6506932 1.7929323 0
5.3490005 2.801728 1.7698383 0
5.3510003 2.7939482 1.7703903 0
5.3540006 2.7867329 1.7712183 0
5.3560004 2.7789369 1.7717701 0
5.3580003 2.7711334 1.7723221 0
5.3600001 2.7633231 1.772874 0
5.3630004 2.7560699 1.773702 0
5.3650002 2.7482433 1.774254 0
5.3670001 2.7404094 1.7748058 0
5.3690004 2.7325683 1.775358 0
5.3720002 2.7252772 1.7761858 0
5.3740005 2.7174201 1.7767379 0
5.3760004 2.7095551 1.7772899 0
5.3780003 2.7016833 1.7778417 0
5.3800001 2.6938043 1.7783936 0
5.3830004 2.6864665 1.7792217 0
5.3850002 2.6785712 1.7797736 0
5.3870006 2.6706688 1.7803255 0
5.3900003 2.6633019 1.7811536 0
5.3920002 2.6553831 1.7817054 0
5.4000001 2.6506932 1.7839133 0
5.3490005 2.801728 1.7609112 0
5.3510003 2.7939482 1.7614595 0
5.3540006 2.7867329 1.7622821 0
5.3560004 2.7789369 1.7628305 0
5.3580003 2.7711334 1.7633787 0
5.3600001 2.7633231 1.7639271 0
5.3630004 2.7560699 1.7647496 0
5.3650002 2.7482433 1.7652981 0
5.3670001 2.7404094 1.7658464 0
5.3690004 2.7325683 1.7663947 0
5.3720002 2.7252772 1.7672173 0
5.3740005 2.7174201 1.7677658 0
5.3760004 2.7095551 1.768314 0
5.3780003 2.7016833 1.7688624 0
5.3800001 2.6938043 1.7694107 0
5.3830004 2.6864665 1.7702333 0
5.3850002 2.6785712 1.7707816 0
5.3870006 2.6706688 1.77133 0
5.3900003 2.6633019 1.7721525 0
5.3920002 2.6553831 1.7727008 0
5.4000001 2.6506932 1.7748942 0
5.3490005 2.801728 1.7519842 0
5.3510003 2.7939482 1.7525288 0
5.3540006 2.7867329 1.7533461 0
5.3560004 2.7789369 1.7538909 0
5.3580003 2.7711334 1.7544355 0
5.3600001 2.7633231 1.7549802 0
5.3630004 2.7560699 1.7557974 0
5.3650002 2.7482433 1.7563422 0
5.3670001 2.7404094 1.7568868 0
5.3690004 2.7325683 1.7574316 0
5.3720002 2.7252772 1.7582488 0
5.3740005 2.7174201 1.7587936 0
5.3760004 2.7095551 1.7593383 0
5.3780003 2.7016833 1.759883 0
5.3800001 2.6938043 1.7604277 0
5.3830004 2.6864665 1.7612449 0
5.3850002 2.6785712 1.7617897 0
5.3870006 2.6706688 1.7623345 0
5.3900003 2.6633019 1.7631515 0
5.3920002 2.6553831 1.7636962 0
5.4000001 2.6506932 1.7658752 0
5.3490005 2.801728 1.7430571 0
5.3510003 2.7939482 1.7435982 0
5.3540006 2.7867329 1.74441 0
5.3560004 2.7789369 1.744951 0
5.3580003 2.7711334 1.7454922 0
5.3600001 2.7633231 1.7460333 0
5.3630004 2.7560699 1.7468451 0
5.3650002 2.7482433 1.7473862 0
5.3670001 2.7404094 1.7479273 0
5.3690004 2.7325683 1.7484685 0
5.3720002 2.7252772 1.7492802 0
5.3740005 2.7174201 1.7498214 0
5.3760004 2.7095551 1.7503625 0
5.3780003 2.7016833 1.7509036 0
5.3800001 2.6938043 1.7514447 0
5.3830004 2.6864665 1.7522565 0
5.3850002 2.6785712 1.7527976 0
5.3870006 2.6706688 1.7533388 0
5.3900003 2.6633019 1.7541505 0
5.3920002 2.6553831 1.7546916 0
5.4000001 2.6506932 1.7568562 0
5.3490005 2.801728 1.7341301 0
5.3510003 2.7939482 1.7346675 0
5.3540006 2.7867329 1.7354739 0
5.3560004 2.7789369 1.7360114 0
5.3580003 2.7711334 1.7365489 0
5.3600001 2.7633231 1.7370864 0
5.3630004 2.7560699 1.7378929 0
5.3650002 2.7482433 1.7384303 0
5.3670001 2.7404094 1.7389678 0
5.3690004 2.7325683 1.7395054 0
5.3720002 2.7252772 1.7403116 0
5.3740005 2.7174201 1.7408493 0
5.3760004 2.7095551 1.7413868 0
5.3780003 2.7016833 1.7419243 0
5.3800001 2.6938043 1.7424618 0
5.3830004 2.6864665 1.7432681 0
5.3850002 2.6785712 1.7438056 0
5.3870006 2.6706688 1.7443433 0
5.3900003 2.6633019 1.7451495 0
5.3920002 2.6553831 1.745687 0
5.4000001 2.6506932 1.7478371 0
5.3490005 2.801728 1.7252029 0
5.3510003 2.7939482 1.725737 0
5.3540006 2.7867329 1.7265379 0
5.3560004 2.7789369 1.7270718 0
5.3580003 2.7711334 1.7276057 0
5.3600001 2.7633231 1.7281395 0
5.3630004 2.7560699 1.7289405 0
5.3650002 2.7482433 1.7294743 0
5.3670001 2.7404094 1.7300084 0
5.3690004 2.7325683 1.7305423 0
5.3720002 2.7252772 1.7313432 0
5.3740005 2.7174201 1.7318771 0
5.3760004 2.7095551 1.732411 0
5.3780003 2.7016833 1.732945 0
5.3800001 2.6938043 1.7334788 0
5.3830004 2.6864665 1.7342799 0
5.3850002 2.6785712 1.7348137 0
5.3870006 2.6706688 1.7353476 0
5.3900003 2.6633019 1.7361485 0
5.3920002 2.6553831 1.7366824 0
5.4000001 2.6506932 1.738818 0
5.3490005 2.801728 1.7162759 0
5.3510003 2.7939482 1.7168063 0
5.3540006 2.7867329 1.7176019 0
5.3560004 2.7789369 1.7181321 0
5.3580003 2.7711334 1.7186624 0
5.3600001 2.7633231 1.7191926 0
5.3630004 2.7560699 1.7199882 0
5.3650002 2.7482433 1.7205185 0
5.3670001 2.7404094 1.7210487 0
5.3690004 2.7325683 1.7215792 0
5.3720002 2.7252772 1.7223746 0
5.3740005 2.7174201 1.7229049 0
5.3760004 2.7095551 1.7234353 0
5.3780003 2.7016833 1.7239656 0
5.3800001 2.6938043 1.7244959 0
5.3830004 2.6864665 1.7252914 0
5.3850002 2.6785712 1.7258217 0
5.3870006 2.6706688 1.7263521 0
5.3900003 2.6633019 1.7271475 0
5.3920002 2.6553831 1.7276778 0
5.4000001 2.6506932 1.729799 0
5.3490005 2.801728 1.7073489 0
5.3510003 2.7939482 1.7078756 0
5.3540006 2.7867329 1.7086657 0
5.3560004 2.7789369 1.7091924 0
5.3580003 2.7711334 1.7097191 0
5.3600001 2.7633231 1.7102458 0
5.3630004 2.7560699 1.7110358 0
5.3650002 2.7482433 1.7115625 0
5.3670001 2.7404094 1.7120893 0
5.3690004 2.7325683 1.7126161 0
5.3720002 2.7252772 1.713406 0
5.3740005 2.7174201 1.7139328 0
5.3760004 2.7095551 1.7144595 0
5.3780003 2.7016833 1.7149862 0
5.3800001 2.6938043 1.7155129 0
5.3830004 2.6864665 1.7163031 0
5.3850002 2.6785712 1.7168297 0
5.3870006 2.6706688 1.7173564 0
5.3900003 2.6633019 1.7181464 0
5.3920002 2.6553831 1.7186732 0
5.4000001 2.6506932 1.72078 0
5.3490005 2.801728 1.6984218 0
5.3510003 2.7939482 1.6989449 0
5.3540006 2.7867329 1.6997297 0
5.3560004 2.7789369 1.7002528 0
5.3580003 2.7711334 1.7007759 0
5.3600001 2.7633231 1.7012988 0
5.3630004 2.7560699 1.7020837 0
5.3650002 2.7482433 1.7026067 0
5.3670001 2.7404094 1.7031298 0
5.3690004 2.7325683 1.703653 0
5.3720002 2.7252772 1.7044375 0
5.3740005 2.7174201 1.7049607 0
5.3760004 2.7095551 1.7054837 0
5.3780003 2.7016833 1.7060068 0
5.3800001 2.6938043 1.7065299 0
5.3830004 2.6864665 1.7073146 0
5.3850002 2.6785712 1.7078377 0
5.3870006 2.6706688 1.7083609 0
5.3900003 2.6633019 1.7091455 0
5.3920002 2.6553831 1.7096686 0
5.4000001 2.6506932 1.711761 0
5.3490005 2.801728 1.6894948 0
5.3510003 2.7939482 1.6900142 0
5.3540006 2.7867329 1.6907936 0
5.3560004 2.7789369 1.6913131 0
5.3580003 2.7711334 1.6918325 0
5.3600001 2.7633231 1.6923519 0
5.3630004 2.7560699 1.6931313 0
5.3650002 2.7482433 1.6936507 0
5.3670001 2.7404094 1.6941702 0
5.3690004 2.7325683 1.6946899 0
5.3720002 2.7252772 1.695469 0
5.3740005 2.7174201 1.6959885 0
5.3760004 2.7095551 1.696508 0
5.3780003 2.7016833 1.6970274 0
5.3800001 2.6938043 1.697547 0
5.3830004 2.6864665 1.6983263 0
5.3850002 2.6785712 1.6988457 0
5.3870006 2.6706688 1.6993653 0
5.3900003 2.6633019 1.7001445 0
5.3920002 2.6553831 1.7006639 0
5.4000001 2.6506932 1.7027419 0
5.3490005 2.801728 1.6805677 0
5.3510003 2.7939482 1.6810837 0
5.3540006 2.7867329 1.6818575 0
5.3560004 2.7789369 1.6823734 0
5.3580003 2.7711334 1.6828892 0
5.3600001 2.7633231 1.6834052 0
5.3630004 2.7560699 1.6841789 0
5.3650002 2.7482433 1.6846948 0
5.3670001 2.7404094 1.6852107 0
5.3690004 2.7325683 1.6857268 0
5.3720002 2.7252772 1.6865004 0
5.3740005 2.7174201 1.6870164 0
5.3760004 2.7095551 1.6875323 0
5.3780003 2.7016833 1.6880481 0
5.3800001 2.6938043 1.6885641 0
5.3830004 2.6864665 1.6893378 0
5.3850002 2.6785712 1.6898538 0
5.3870006 2.6706688 1.6903697 0
5.3900003 2.6633019 1.6911434 0
5.3920002 2.6553831 1.6916593 0
5.4000001 2.6506932 1.6937228 0
5.3490005 2.801728 1.6716408 0
5.3510003 2.7939482 1.672153 0
5.3540006 2.7867329 1.6729215 0
5.3560004 2.7789369 1.6734338 0
5.3580003 2.7711334 1.6739459 0
5.3600001 2.7633231 1.6744583 0
5.3630004 2.7560699 1.6752267 0
5.3650002 2.7482433 1.6757389 0
5.3670001 2.7404094 1.6762512 0
5.3690004 2.7325683 1.6767635 0
5.3720002 2.7252772 1.677532 0
5.3740005 2.7174201 1.6780442 0
5.3760004 2.7095551 1.6785566 0
5.3780003 2.7016833 1.6790688 0
5.3800001 2.6938043 1.6795809 0
5.3830004 2.6864665 1.6803496 0
5.3850002 2.6785712 1.6808617 0
5.3870006 2.6706688 1.6813741 0
5.3900003 2.6633019 1.6821425 0
5.3920002 2.6553831 1.6826547 0
5.4000001 2.6506932 1.6847038 0
5.3490005 2.801728 1.6627136 0
5.3510003 2.7939482 1.6632223 0
5.3540006 2.7867329 1.6639854 0
5.3560004 2.7789369 1.664494 0
5.3580003 2.7711334 1.6650026 0
5.3600001 2.7633231 1.6655113 0
5.3630004 2.7560699 1.6662743 0
5.3650002 2.7482433 1.666783 0
5.3670001 2.7404094 1.6672916 0
5.3690004 2.7325683 1.6678004 0
5.3720002 2.7252772 1.6685634 0
5.3740005 2.7174201 1.6690722 0
5.3760004 2.7095551 1.6695807 0
5.3780003 2.7016833 1.6700894 0
5.3800001 2.6938043 1.670598 0
5.3830004 2.6864665 1.6713611 0
5.3850002 2.6785712 1.6718698 0
5.3870006 2.6706688 1.6723785 0
5.3900003 2.6633019 1.6731415 0
5.3920002 2.6553831 1.6736501 0
5.4000001 2.6506932 1.6756848 0
5.3490005 2.801728 1.6537867 0
5.3510003 2.7939482 1.6542916 0
5.3540006 2.7867329 1.6550493 0
5.3560004 2.7789369 1.6555543 0
5.3580003 2.7711334 1.6560594 0
5.3600001 2.7633231 1.6565645 0
5.3630004 2.7560699 1.6573222 0
5.3650002 2.7482433 1.6578271 0
5.3670001 2.7404094 1.6583321 0
5.3690004 2.7325683 1.6588373 0
5.3720002 2.7252772 1.6595949 0
5.3740005 2.7174201 1.6601 0
5.3760004 2.7095551 1.660605 0
5.3780003 2.7016833 1.66111 0
5.3800001 2.6938043 1.6616151 0
5.3830004 2.6864665 1.6623728 0
5.3850002 2.6785712 1.6628778 0
5.3870006 2.6706688 1.6633829 0
5.3900003 2.6633019 1.6641405 0
5.3920002 2.6553831 1.6646454 0
5.4000001 2.6506932 1.6666658 0
5.3490005 2.801728 1.6448597 0
5.3510003 2.7939482 1.6453611 0
5.3540006 2.7867329 1.6461133 0
5.3560004 2.7789369 1.6466147 0
5.3580003 2.7711334 1.6471162 0
5.3600001 2.7633231 1.6476176 0
5.3630004 2.7560699 1.6483698 0
5.3650002 2.7482433 1.6488712 0
5.3670001 2.7404094 1.6493727 0
5.3690004 2.7325683 1.6498742 0
5.3720002 2.7252772 1.6506263 0
5.3740005 2.7174201 1.6511278 0
5.3760004 2.7095551 1.6516293 0
5.3780003 2.7016833 1.6521307 0
5.3800001 2.6938043 1.6526321 0
5.3830004 2.6864665 1.6533843 0
5.3850002 2.6785712 1.6538858 0
5.3870006 2.6706688 1.6543874 0
5.3900003 2.6633019 1.6551394 0
5.3920002 2.6553831 1.6556408 0
5.4000001 2.6506932 1.6576467 0
5.3490005 2.801728 1.6359326 0
5.3510003 2.7939482 1.6364304 0
5.3540006 2.7867329 1.6371771 0
5.3560004 2.7789369 1.637675 0
5.3580003 2.7711334 1.6381729 0
5.3600001 2.7633231 1.6386706 0
5.3630004 2.7560699 1.6394175 0
5.3650002 2.7482433 1.6399153 0
5.3670001 2.7404094 1.640413 0
5.3690004 2.7325683 1.6409111 0
5.3720002 2.7252772 1.6416577 0
5.3740005 2.7174201 1.6421556 0
5.3760004 2.7095551 1.6426536 0
5.3780003 2.7016833 1.6431514 0
5.3800001 2.6938043 1.6436491 0
5.3830004 2.6864665 1.6443961 0
5.3850002 2.6785712 1.6448938 0
5.3870006 2.6706688 1.6453917 0
5.3900003 2.6633019 1.6461385 0
5.3920002 2.6553831 1.6466362 0
5.4000001 2.6506932 1.6486276 0
5.3490005 2.801728 1.6270056 0
5.3510003 2.7939482 1.6274997 0
5.3540006 2.7867329 1.6282412 0
5.3560004 2.7789369 1.6287353 0
5.3580003 2.7711334 1.6292295 0
5.3600001 2.7633231 1.6297238 0
5.3630004 2.7560699 1.6304651 0
5.3650002 2.7482433 1.6309594 0
5.3670001 2.7404094 1.6314536 0
5.3690004 2.7325683 1.631948 0
5.3720002 2.7252772 1.6326892 0
5.3740005 2.7174201 1.6331836 0
5.3760004 2.7095551 1.6336777 0
5.3780003 2.7016833 1.634172 0
5.3800001 2.6938043 1.6346662 0
5.3830004 2.6864665 1.6354076 0
5.3850002 2.6785712 1.6359018 0
5.3870006 2.6706688 1.6363962 0
5.3900003 2.6633019 1.6371374 0
5.3920002 2.6553831 1.6376317 0
5.4000001 2.6506932 1.6396086 0
5.3490005 2.801728 1.6180785 0
5.3510003 2.7939482 1.6185691 0
5.3540006 2.7867329 1.6193051 0
5.3560004 2.7789369 1.6197957 0
5.3580003 2.7711334 1.6202862 0
5.3600001 2.7633231 1.6207769 0
5.3630004 2.7560699 1.6215129 0
5.3650002 2.7482433 1.6220034 0
5.3670001 2.7404094 1.6224941 0
5.3690004 2.7325683 1.6229849 0
5.3720002 2.7252772 1.6237208 0
5.3740005 2.7174201 1.6242114 0
5.3760004 2.7095551 1.624702 0
5.3780003 2.7016833 1.6251925 0
5.3800001 2.6938043 1.6256833 0
5.3830004 2.6864665 1.6264193 0
5.3850002 2.6785712 1.6269099 0
5.3870006 2.6706688 1.6274005 0
5.3900003 2.6633019 1.6281364 0
5.3920002 2.6553831 1.6286271 0
5.4000001 2.6506932 1.6305896 0
5.3490005 2.801728 1.6091514 0
5.3510003 2.7939482 1.6096383 0
5.3540006 2.7867329 1.610369 0
5.3560004 2.7789369 1.6108561 0
5.3580003 2.7711334 1.611343 0
5.3600001 2.7633231 1.6118299 0
5.3630004 2.7560699 1.6125606 0
5.3650002 2.7482433 1.6130476 0
5.3670001 2.7404094 1.6135346 0
5.3690004 2.7325683 1.6140218 0
5.3720002 2.7252772 1.6147522 0
5.3740005 2.7174201 1.6152393 0
5.3760004 2.7095551 1.6157264 0
5.3780003 2.7016833 1.6162133 0
5.3800001 2.6938043 1.6167003 0
5.3830004 2.6864665 1.6174308 0
5.3850002 2.6785712 1.6179179 0
5.3870006 2.6706688 1.618405 0
5.3900003 2.6633019 1.6191355 0
5.3920002 2.6553831 1.6196225 0
5.4000001 2.6506932 1.6215706 0
5.3490005 2.801728 1.6002244 0
5.3510003 2.7939482 1.6007078 0
5.3540006 2.7867329 1.6014329 0
5.3560004 2.7789369 1.6019163 0
5.3580003 2.7711334 1.6023997 0
5.3600001 2.7633231 1.6028831 0
5.3630004 2.7560699 1.6036084 0
5.3650002 2.7482433 1.6040916 0
5.3670001 2.7404094 1.604575 0
5.3690004 2.7325683 1.6050586 0
5.3720002 2.7252772 1.6057837 0
5.3740005 2.7174201 1.6062671 0
5.3760004 2.7095551 1.6067506 0
5.3780003 2.7016833 1.6072339 0
5.3800001 2.6938043 1.6077173 0
5.3830004 2.6864665 1.6084425 0
5.3850002 2.6785712 1.6089258 0
5.3870006 2.6706688 1.6094093 0
5.3900003 2.6633019 1.6101345 0
5.3920002 2.6553831 1.6106179 0
5.4000001 2.6506932 1.6125515 0
5.3490005 2.801728 1.5912973 0
5.3510003 2.7939482 1.5917771 0
5.3540006 2.7867329 1.5924969 0
5.3560004 2.7789369 1.5929767 0
5.3580003 2.7711334 1.5934564 0
5.3600001 2.7633231 1.5939362 0
5.3630004 2.7560699 1.594656 0
5.3650002 2.7482433 1.5951358 0
5.3670001 2.7404094 1.5956156 0
5.3690004 2.7325683 1.5960954 0
5.3720002 2.7252772 1.5968151 0
5.3740005 2.7174201 1.597295 0
5.3760004 2.7095551 1.5977747 0
5.3780003 2.7016833 1.5982546 0
5.3800001 2.6938043 1.5987344 0
5.3830004 2.6864665 1.599454 0
5.3850002 2.6785712 1.5999339 0
5.3870006 2.6706688 1.6004138 0
5.3900003 2.6633019 1.6011335 0
5.3920002 2.6553831 1.6016133 0
5.4000001 2.6506932 1.6035324 0
5.3490005 2.801728 1.5823703 0
5.3510003 2.7939482 1.5828465 0
5.3540006 2.7867329 1.5835608 0
5.3560004 2.7789369 1.5840369 0
5.3580003 2.7711334 1.5845132 0
5.3600001 2.7633231 1.5849894 0
5.3630004 2.7560699 1.5857037 0
5.3650002 2.7482433 1.5861799 0
5.3670001 2.7404094 1.586656 0
5.3690004 2.7325683 1.5871322 0
5.3720002 2.7252772 1.5878465 0
5.3740005 2.7174201 1.5883229 0
5.3760004 2.7095551 1.588799 0
5.3780003 2.7016833 1.5892751 0
5.3800001 2.6938043 1.5897514 0
5.3830004 2.6864665 1.5904658 0
5.3850002 2.6785712 1.5909419 0
5.3870006 2.6706688 1.5914181 0
5.3900003 2.6633019 1.5921324 0
5.3920002 2.6553831 1.5926087 0
5.4000001 2.6506932 1.5945134 0
5.3490005 2.801728 1.5734432 0
5.3510003 2.7939482 1.5739158 0
5.3540006 2.7867329 1.5746248 0
5.3560004 2.7789369 1.5750973 0
5.3580003 2.7711334 1.5755699 0
5.3600001 2.7633231 1.5760424 0
5.3630004 2.7560699 1.5767514 0
5.3650002 2.7482433 1.577224 0
5.3670001 2.7404094 1.5776966 0
5.3690004 2.7325683 1.5781691 0
5.3720002 2.7252772 1.578878 0
5.3740005 2.7174201 1.5793507 0
5.3760004 2.7095551 1.5798233 0
5.3780003 2.7016833 1.5802959 0
5.3800001 2.6938043 1.5807685 0
5.3830004 2.6864665 1.5814773 0
5.3850002 2.6785712 1.5819499 0
5.3870006 2.6706688 1.5824226 0
5.3900003 2.6633019 1.5831314 0
5.3920002 2.6553831 1.583604 0
5.4000001 2.6506932 1.5854944 0
5.3490005 2.801728 1.5645162 0
5.3510003 2.7939482 1.564985 0
5.3540006 2.7867329 1.5656887 0
5.3560004 2.7789369 1.5661576 0
5.3580003 2.7711334 1.5666267 0
5.3600001 2.7633231 1.5670955 0
5.3630004 2.7560699 1.5677991 0
5.3650002 2.7482433 1.5682681 0
5.3670001 2.7404094 1.568737 0
5.3690004 2.7325683 1.569206 0
5.3720002 2.7252772 1.5699095 0
5.3740005 2.7174201 1.5703785 0
5.3760004 2.7095551 1.5708476 0
5.3780003 2.7016833 1.5713165 0
5.3800001 2.6938043 1.5717854 0
5.3830004 2.6864665 1.572489 0
5.3850002 2.6785712 1.5729579 0
5.3870006 2.6706688 1.573427 0
5.3900003 2.6633019 1.5741304 0
5.3920002 2.6553831 1.5745994 0
5.4000001 2.6506932 1.5764754 0
5.3490005 2.801728 1.5555891 0
5.3510003 2.7939482 1.5560545 0
5.3540006 2.7867329 1.5567526 0
5.3560004 2.7789369 1.557218 0
5.3580003 2.7711334 1.5576833 0
5.3600001 2.7633231 1.5581487 0
5.3630004 2.7560699 1.5588468 0
5.3650002 2.7482433 1.5593122 0
5.3670001 2.7404094 1.5597775 0
5.3690004 2.7325683 1.5602429 0
5.3720002 2.7252772 1.560941 0
5.3740005 2.7174201 1.5614064 0
5.3760004 2.7095551 1.5618718 0
5.3780003 2.7016833 1.5623372 0
5.3800001 2.6938043 1.5628024 0
5.3830004 2.6864665 1.5635005 0
5.3850002 2.6785712 1.5639659 0
5.3870006 2.6706688 1.5644314 0
5.3900003 2.6633019 1.5651294 0
5.3920002 2.6553831 1.5655948 0
5.4000001 2.6506932 1.5674562 0
5.3490005 2.801728 1.5466621 0
5.3510003 2.7939482 1.5471238 0
5.3540006 2.7867329 1.5478165 0
5.3560004 2.7789369 1.5482783 0
5.3580003 2.7711334 1.54874 0
5.3600001 2.7633231 1.5492017 0
5.3630004 2.7560699 1.5498945 0
5.3650002 2.7482433 1.5503563 0
5.3670001 2.7404094 1.550818 0
5.3690004 2.7325683 1.5512798 0
5.3720002 2.7252772 1.5519724 0
5.3740005 2.7174201 1.5524343 0
5.3760004 2.7095551 1.552896 0
5.3780003 2.7016833 1.5533577 0
5.3800001 2.6938043 1.5538195 0
5.3830004 2.6864665 1.5545123 0
5.3850002 2.6785712 1.554974 0
5.3870006 2.6706688 1.5554358 0
5.3900003 2.6633019 1.5561284 0
5.3920002 2.6553831 1.5565902 0
5.4000001 2.6506932 1.5584372 0
5.3490005 2.801728 1.5377351 0
5.3510003 2.7939482 1.5381932 0
5.3540006 2.7867329 1.5388805 0
5.3560004 2.7789369 1.5393386 0
5.3580003 2.7711334 1.5397967 0
5.3600001 2.7633231 1.5402548 0
5.3630004 2.7560699 1.5409422 0
5.3650002 2.7482433 1.5414003 0
5.3670001 2.7404094 1.5418586 0
5.3690004 2.7325683 1.5423167 0
5.3720002 2.7252772 1.5430039 0
5.3740005 2.7174201 1.5434622 0
5.3760004 2.7095551 1.5439203 0
5.3780003 2.7016833 1.5443784 0
5.3800001 2.6938043 1.5448366 0
5.3830004 2.6864665 1.5455239 0
5.3850002 2.6785712 1.545982 0
5.3870006 2.6706688 1.5464402 0
5.3900003 2.6633019 1.5471275 0
5.3920002 2.6553831 1.5475856 0
5.4000001 2.6506932 1.5494182 0
5.3490005 2.801728 1.528808 0
5.3510003 2.7939482 1.5292625 0
5.3540006 2.7867329 1.5299444 0
5.3560004 2.7789369 1.530399 0
5.3580003 2.7711334 1.5308534 0
5.3600001 2.7633231 1.5313081 0
5.3630004 2.7560699 1.5319898 0
5.3650002 2.7482433 1.5324445 0
5.3670001 2.7404094 1.5328989 0
5.3690004 2.7325683 1.5333536 0
5.3720002 2.7252772 1.5340354 0
5.3740005 2.7174201 1.53449 0
5.3760004 2.7095551 1.5349445 0
5.3780003 2.7016833 1.5353991 0
5.3800001 2.6938043 1.5358535 0
5.3830004 2.6864665 1.5365355 0
5.3850002 2.6785712 1.53699 0
5.3870006 2.6706688 1.5374446 0
5.3900003 2.6633019 1.5381265 0
5.3920002 2.6553831 1.5385809 0
5.4000001 2.6506932 1.5403992 0
5.3490005 2.801728 1.519881 0
5.3510003 2.7939482 1.5203319 0
5.3540006 2.7867329 1.5210084 0
5.3560004 2.7789369 1.5214593 0
5.3580003 2.7711334 1.5219102 0
5.3600001 2.7633231 1.522361 0
5.3630004 2.7560699 1.5230377 0
5.3650002 2.7482433 1.5234885 0
5.3670001 2.7404094 1.5239394 0
5.3690004 2.7325683 1.5243905 0
5.3720002 2.7252772 1.5250669 0
5.3740005 2.7174201 1.5255178 0
5.3760004 2.7095551 1.5259688 0
5.3780003 2.7016833 1.5264196 0
5.3800001 2.6938043 1.5268706 0
5.3830004 2.6864665 1.5275471 0
5.3850002 2.6785712 1.527998 0
5.3870006 2.6706688 1.5284491 0
5.3900003 2.6633019 1.5291255 0
5.3920002 2.6553831 1.5295763 0
5.4000001 2.6506932 1.5313802 0
5.3490005 2.801728 1.5109539 0
5.3510003 2.7939482 1.5114012 0
5.3540006 2.7867329 1.5120723 0
5.3560004 2.7789369 1.5125196 0
5.3580003 2.7711334 1.5129669 0
5.3600001 2.7633231 1.5134141 0
5.3630004 2.7560699 1.5140853 0
5.3650002 2.7482433 1.5145327 0
5.3670001 2.7404094 1.51498 0
5.3690004 2.7325683 1.5154274 0
5.3720002 2.7252772 1.5160983 0
5.3740005 2.7174201 1.5165458 0
5.3760004 2.7095551 1.516993 0
5.3780003 2.7016833 1.5174403 0
5.3800001 2.6938043 1.5178877 0
5.3830004 2.6864665 1.5185587 0
5.3850002 2.6785712 1.519006 0
5.3870006 2.6706688 1.5194535 0
5.3900003 2.6633019 1.5201244 0
5.3920002 2.6553831 1.5205717 0
5.4000001 2.6506932 1.522361 0
5.3490005 2.801728 1.5020269 0
5.3510003 2.7939482 1.5024705 0
5.3540006 2.7867329 1.5031362 0
5.3560004 2.7789369 1.5035799 0
5.3580003 2.7711334 1.5040237 0
5.3600001 2.7633231 1.5044674 0
5.3630004 2.7560699 1.505133 0
5.3650002 2.7482433 1.5055767 0
5.3670001 2.7404094 1.5060203 0
5.3690004 2.7325683 1.5064641 0
5.3720002 2.7252772 1.5071298 0
5.3740005 2.7174201 1.5075736 0
5.3760004 2.7095551 1.5080173 0
5.3780003 2.7016833 1.508461 0
5.3800001 2.6938043 1.5089047 0
5.3830004 2.6864665 1.5095704 0
5.3850002 2.6785712 1.5100141 0
5.3870006 2.6706688 1.5104579 0
5.3900003 2.6633019 1.5111234 0
5.3920002 2.6553831 1.5115671 0
5.4000001 2.6506932 1.513342 0
5.3490005 2.801728 1.4930997 0
5.3510003 2.7939482 1.4935399 0
5.3540006 2.7867329 1.4942001 0
5.3560004 2.7789369 1.4946402 0
5.3580003 2.7711334 1.4950804 0
5.3600001 2.7633231 1.4955205 0
5.3630004 2.7560699 1.4961807 0
5.3650002 2.7482433 1.4966208 0
5.3670001 2.7404094 1.4970609 0
5.3690004 2.7325683 1.497501 0
5.3720002 2.7252772 1.4981612 0
5.3740005 2.7174201 1.4986014 0
5.3760004 2.7095551 1.4990416 0
5.3780003 2.7016833 1.4994817 0
5.3800001 2.6938043 1.4999217 0
5.3830004 2.6864665 1.500582 0
5.3850002 2.6785712 1.5010221 0
5.3870006 2.6706688 1.5014623 0
5.3890004 2.6627591 1.5019023 0
5.3920002 2.6553831 1.5025625 0
5.4000001 2.6506932 1.504323 0
5.3490005 2.801728 1.4841727 0
5.3510003 2.7939482 1.4846092 0
5.3540006 2.7867329 1.4852642 0
5.3560004 2.7789369 1.4857005 0
5.3580003 2.7711334 1.486137 0
5.3600001 2.7633231 1.4865736 0
5.3630004 2.7560699 1.4872284 0
5.3650002 2.7482433 1.4876648 0
5.3670001 2.7404094 1.4881014 0
5.3690004 2.7325683 1.4885379 0
5.3720002 2.7252772 1.4891927 0
5.3740005 2.7174201 1.4896293 0
5.3760004 2.7095551 1.4900657 0
5.3780003 2.7016833 1.4905022 0
5.3800001 2.6938043 1.4909388 0
5.3830004 2.6864665 1.4915936 0
5.3850002 2.6785712 1.49203 0
5.3870006 2.6706688 1.4924667 0
5.3890004 2.6627591 1.4929032 0
5.3920002 2.6553831 1.4935578 0
5.4000001 2.6506932 1.495304 0
5.3490005 2.801728 1.4752457 0
5.3510003 2.7939482 1.4756786 0
5.3540006 2.7867329 1.476328 0
5.3560004 2.7789369 1.4767609 0
5.3580003 2.7711334 1.4771938 0
5.3600001 2.7633231 1.4776267 0
5.3630004 2.7560699 1.4782761 0
5.3650002 2.7482433 1.478709 0
5.3670001 2.7404094 1.4791418 0
5.3690004 2.7325683 1.4795748 0
5.3720002 2.7252772 1.4802241 0
5.3740005 2.7174201 1.4806572 0
5.3760004 2.7095551 1.4810901 0
5.3780003 2.7016833 1.4815229 0
5.3800001 2.6938043 1.4819558 0
5.3830004 2.6864665 1.4826052 0
5.3850002 2.6785712 1.4830381 0
5.3870006 2.6706688 1.4834712 0
5.3890004 2.6627591 1.483904 0
5.3920002 2.6553831 1.4845533 0
5.4000001 2.6506932 1.486285 0
5.3490005 2.801728 1.4663186 0
5.3510003 2.7939482 1.4667479 0
5.3540006 2.7867329 1.467392 0
5.3560004 2.7789369 1.4678212 0
5.3580003 2.7711334 1.4682505 0
5.3600001 2.7633231 1.4686798 0
5.3630004 2.7560699 1.4693238 0
5.3650002 2.7482433 1.469753 0
5.3670001 2.7404094 1.4701823 0
5.3690004 2.7325683 1.4706117 0
5.3720002 2.7252772 1.4712557 0
5.3740005 2.7174201 1.4716851 0
5.3760004 2.7095551 1.4721143 0
5.3780003 2.7016833 1.4725436 0
5.3800001 2.6938043 1.4729729 0
5.3830004 2.6864665 1.4736168 0
5.3850002 2.6785712 1.4740461 0
5.3870006 2.6706688 1.4744755 0
5.3890004 2.6627591 1.4749048 0
5.3920002 2.6553831 1.4755487 0
5.4000001 2.6506932 1.4772658 0
5.3490005 2.801728 1.4573916 0
5.3510003 2.7939482 1.4578173 0
5.3540006 2.7867329 1.4584559 0
5.3560004 2.7789369 1.4588816 0
5.3580003 2.7711334 1.4593072 0
5.3600001 2.7633231 1.4597329 0
5.3630004 2.7560699 1.4603715 0
5.3650002 2.7482433 1.4607971 0
5.3670001 2.7404094 1.4612229 0
5.3690004 2.7325683 1.4616486 0
5.3720002 2.7252772 1.4622872 0
5.3740005 2.7174201 1.4627129 0
5.3760004 2.7095551 1.4631385 0
5.3780003 2.7016833 1.4635642 0
5.3800001 2.6938043 1.4639899 0
5.3830004 2.6864665 1.4646285 0
5.3850002 2.6785712 1.4650542 0
5.3870006 2.6706688 1.46548 0
5.3890004 2.6627591 1.4659055 0
5.3920002 2.6553831 1.4665442 0
5.4000001 2.6506932 1.4682468 0
5.3490005 2.801728 1.4484645 0
5.3510003 2.7939482 1.4488866 0
5.3540006 2.7867329 1.4495198 0
5.3560004 2.7789369 1.4499419 0
5.3580003 2.7711334 1.4503639 0
5.3600001 2.7633231 1.450786 0
5.3630004 2.7560699 1.4514191 0
5.3650002 2.7482433 1.4518412 0
5.3670001 2.7404094 1.4522632 0
5.3690004 2.7325683 1.4526855 0
5.3720002 2.7252772 1.4533185 0
5.3740005 2.7174201 1.4537407 0
5.3760004 2.7095551 1.4541627 0
5.3780003 2.7016833 1.4545848 0
5.3800001 2.6938043 1.4550068 0
5.3830004 2.6864665 1.4556401 0
5.3850002 2.6785712 1.4560621 0
5.3870006 2.6706688 1.4564843 0
5.3890004 2.6627591 1.4569063 0
5.3920002 2.6553831 1.4575394 0
5.4000001 2.6506932 1.4592278 0
5.3490005 2.801728 1.4395375 0
5.3510003 2.7939482 1.4399559 0
5.3540006 2.7867329 1.4405837 0
5.3560004 2.7789369 1.4410022 0
5.3580003 2.7711334 1.4414207 0
5.3600001 2.7633231 1.4418391 0
5.3630004 2.7560699 1.4424669 0
5.3650002 2.7482433 1.4428853 0
5.3670001 2.7404094 1.4433038 0
5.3690004 2.7325683 1.4437224 0
5.3720002 2.7252772 1.44435 0
5.3740005 2.7174201 1.4447687 0
5.3760004 2.7095551 1.4451871 0
5.3780003 2.7016833 1.4456054 0
5.3800001 2.6938043 1.4460239 0
5.3830004 2.6864665 1.4466517 0
5.3850002 2.6785712 1.4470701 0
5.3870006 2.6706688 1.4474888 0
5.3890004 2.6627591 1.4479072 0
5.3920002 2.6553831 1.4485348 0
5.4000001 2.6506932 1.4502088 0
5.3490005 2.801728 1.4306105 0
5.3510003 2.7939482 1.4310254 0
5.3540006 2.7867329 1.4316478 0
5.3560004 2.7789369 1.4320626 0
5.3580003 2.7711334 1.4324774 0
5.3600001 2.7633231 1.4328922 0
5.3630004 2.7560699 1.4335146 0
5.3650002 2.7482433 1.4339294 0
5.3670001 2.7404094 1.4343443 0
5.3690004 2.7325683 1.4347593 0
5.3720002 2.7252772 1.4353815 0
5.3740005 2.7174201 1.4357965 0
5.3760004 2.7095551 1.4362113 0
5.3780003 2.7016833 1.4366262 0
5.3800001 2.6938043 1.437041 0
5.3830004 2.6864665 1.4376633 0
5.3850002 2.6785712 1.4380782 0
5.3870006 2.6706688 1.4384931 0
5.3890004 2.6627591 1.438908 0
5.3920002 2.6553831 1.4395303 0
5.4000001 2.6506932 1.4411898 0
5.3490005 2.801728 1.4216834 0
5.3510003 2.7939482 1.4220946 0
5.3540006 2.7867329 1.4227116 0
5.3560004 2.7789369 1.4231228 0
5.3580003 2.7711334 1.4235342 0
5.3600001 2.7633231 1.4239453 0
