# .PCD v0.7 - Point Cloud Data file format
VERSION 0.7
FIELDS x y z intensity
SIZE 4 4 4 4
TYPE F F F F
COUNT 1 1 1 1
WIDTH 1452
HEIGHT 1
VIEWPOINT 0 0 0 1 0 0 0
POINTS 1452
DATA ascii
2.4240003 1.0821306 0.26526552 0
2.4260001 1.0795907 0.26512843 0
2.4290001 1.0775975 0.2649228 0
2.0760002 0.86397797 0.28911906 0
2.0740001 0.85987246 0.28925616 0
2.0740001 0.85685289 0.28925616 0
2.0730002 0.8532958 0.2893247 0
2.0730002 0.85027808 0.2893247 0
2.0730002 0.8472603 0.2893247 0
2.0740001 0.8447746 0.28925616 0
2.075 0.84228534 0.28918761 0
2.0760002 0.83979249 0.28911906 0
2.0770001 0.83729601 0.28905052 0
2.0780001 0.83479595 0.28898197 0
2.0800002 0.83281535 0.28884488 0
2.082 0.83082759 0.28870782 0
2.0840001 0.82883257 0.2885707 0
2.0860002 0.82683033 0.28843364 0
2.0890002 0.82533681 0.28822798 0
2.092 0.82383239 0.28802237 0
2.095 0.82231718 0.28781673 0
2.3710001 0.81438404 0.26889837 0
2.3700001 0.81039411 0.26896691 0
2.3700001 0.8068406 0.26896691 0
2.3700001 0.80328709 0.26896691 0
2.3700001 0.79973358 0.26896691 0
2.3710001 0.79660749 0.26889837 0
2.3720002 0.79347795 0.26882982 0
2.3740001 0.79076856 0.26869276 0
2.3760002 0.78805202 0.26855564 0
2.378 0.78532833 0.26841858 0
2.381 0.78301579 0.26821294 0
2.3840001 0.78069252 0.26800728 0
2.4150002 1.1061915 0.26224774 0
2.4150002 1.1025569 0.26224774 0
2.4150002 1.0989221 0.26224774 0
2.4160001 1.0958538 0.26217741 0
2.4170003 1.092782 0.26210701 0
2.4180002 1.0897065 0.26203668 0
2.4200001 1.0871882 0.26189601 0
2.4210002 1.0841039 0.26182565 0
2.4240003 1.0821306 0.26161462 0
2.4260001 1.0795907 0.26147392 0
2.4290001 1.0775975 0.26126286 0
2.0760002 0.86397797 0.28609589 0
2.0740001 0.85987246 0.28623658 0
2.0740001 0.85685289 0.28623658 0
2.0730002 0.8532958 0.28630695 0
2.0730002 0.85027808 0.28630695 0
2.0730002 0.8472603 0.28630695 0
2.0740001 0.8447746 0.28623658 0
2.075 0.84228534 0.28616625 0
2.0760002 0.83979249 0.28609589 0
2.0770001 0.83729601 0.28602555 0
2.0780001 0.83479595 0.28595519 0
2.0800002 0.83281535 0.28581449 0
2.082 0.83082759 0.2856738 0
2.0840001 0.82883257 0.2855331 0
2.0860002 0.82683033 0.2853924 0
2.0890002 0.82533681 0.28518137 0
2.092 0.82383239 0.28497031 0
2.095 0.82231718 0.28475928 0
2.3710001 0.81438404 0.26534307 0
2.3700001 0.81039411 0.2654134 0
2.3700001 0.8068406 0.2654134 0
2.3700001 0.80328709 0.2654134 0
2.3700001 0.79973358 0.2654134 0
2.3710001 0.79660749 0.26534307 0
2.3720002 0.79347795 0.26527274 0
2.3740001 0.79076856 0.26513204 0
2.3760002 0.78805202 0.26499134 0
2.378 0.78532833 0.26485065 0
2.381 0.78301579 0.26463962 0
2.3840001 0.78069252 0.26442856 0
2.4150002 1.1061915 0.25861305 0
2.4150002 1.1025569 0.25861305 0
2.4150002 1.0989221 0.25861305 0
2.4160001 1.0958538 0.25854093 0
2.4170003 1.092782 0.25846875 0
2.4180002 1.0897065 0.25839663 0
2.4200001 1.0871882 0.25825232 0
2.4210002 1.0841039 0.25818014 0
2.4240003 1.0821306 0.25796369 0
2.4260001 1.0795907 0.25781941 0
2.4290001 1.0775975 0.25760293 0
2.0760002 0.86397797 0.28307271 0
2.0740001 0.85987246 0.28321701 0
2.0740001 0.85685289 0.28321701 0
2.0730002 0.8532958 0.28328916 0
2.0730002 0.85027808 0.28328916 0
2.0730002 0.8472603 0.28328916 0
2.0740001 0.8447746 0.28321701 0
2.075 0.84228534 0.28314486 0
2.0760002 0.83979249 0.28307271 0
2.0770001 0.83729601 0.28300056 0
2.0780001 0.83479595 0.28292841 0
2.0800002 0.83281535 0.2827841 0
2.082 0.83082759 0.2826398 0
2.0840001 0.82883257 0.2824955 0
2.0860002 0.82683033 0.2823512 0
2.0890002 0.82533681 0.28213471 0
2.092 0.82383239 0.28191829 0
2.095 0.82231718 0.2817018 0
2.3710001 0.81438404 0.26178777 0
2.3700001 0.81039411 0.26185992 0
2.3700001 0.8068406 0.26185992 0
2.3700001 0.80328709 0.26185992 0
2.3700001 0.79973358 0.26185992 0
2.3710001 0.79660749 0.26178777 0
2.3720002 0.79347795 0.26171562 0
2.3740001 0.79076856 0.26157132 0
2.3760002 0.78805202 0.26142702 0
2.378 0.78532833 0.26128271 0
2.381 0.78301579 0.26106626 0
2.3840001 0.78069252 0.2608498 0
2.4150002 1.1061915 0.25497839 0
2.4150002 1.1025569 0.25497839 0
2.4150002 1.0989221 0.25497839 0
2.4160001 1.0958538 0.25490445 0
2.4170003 1.092782 0.25483048 0
2.4180002 1.0897065 0.25475651 0
2.4200001 1.0871882 0.25460863 0
2.4210002 1.0841039 0.25453466 0
2.4240003 1.0821306 0.25431278 0
2.4260001 1.0795907 0.25416487 0
2.4290001 1.0775975 0.25394303 0
2.0760002 0.86397797 0.28004953 0
2.0740001 0.85987246 0.28019744 0
2.0740001 0.85685289 0.28019744 0
2.0730002 0.8532958 0.28027141 0
2.0730002 0.85027808 0.28027141 0
2.0730002 0.8472603 0.28027141 0
2.0740001 0.8447746 0.28019744 0
2.075 0.84228534 0.28012347 0
2.0760002 0.83979249 0.28004953 0
2.0770001 0.83729601 0.27997556 0
2.0780001 0.83479595 0.27990162 0
2.0800002 0.83281535 0.27975368 0
2.082 0.83082759 0.27960581 0
2.0840001 0.82883257 0.27945787 0
2.0860002 0.82683033 0.27930996 0
2.0890002 0.82533681 0.27908808 0
2.092 0.82383239 0.27886623 0
2.095 0.82231718 0.27864438 0
2.3710001 0.81438404 0.25823247 0
2.3700001 0.81039411 0.25830644 0
2.3700001 0.8068406 0.25830644 0
2.3700001 0.80328709 0.25830644 0
2.3700001 0.79973358 0.25830644 0
2.3710001 0.79660749 0.25823247 0
2.3720002 0.79347795 0.2581585 0
2.3740001 0.79076856 0.2580106 0
2.3760002 0.78805202 0.25786269 0
2.378 0.78532833 0.25771478 0
2.381 0.78301579 0.2574929 0
2.3840001 0.78069252 0.25727105 0
2.4150002 1.1061915 0.25134373 0
2.4150002 1.1025569 0.25134373 0
2.4150002 1.0989221 0.25134373 0
2.4160001 1.0958538 0.25126797 0
2.4170003 1.092782 0.25119221 0
2.4180002 1.0897065 0.25111645 0
2.4200001 1.0871882 0.25096494 0
2.4210002 1.0841039 0.25088918 0
2.4240003 1.0821306 0.25066185 0
2.4260001 1.0795907 0.25051036 0
2.4290001 1.0775975 0.25028309 0
2.0760002 0.86397797 0.27702636 0
2.0740001 0.85987246 0.27717787 0
2.0740001 0.85685289 0.27717787 0
2.0730002 0.8532958 0.27725363 0
2.0730002 0.85027808 0.27725363 0
2.0730002 0.8472603 0.27725363 0
2.0740001 0.8447746 0.27717787 0
2.075 0.84228534 0.27710211 0
2.0760002 0.83979249 0.27702636 0
2.0770001 0.83729601 0.2769506 0
2.0780001 0.83479595 0.27687484 0
2.0800002 0.83281535 0.2767233 0
2.082 0.83082759 0.27657178 0
2.0840001 0.82883257 0.27642027 0
2.0860002 0.82683033 0.27626875 0
2.0890002 0.82533681 0.27604145 0
2.092 0.82383239 0.27581418 0
2.095 0.82231718 0.2755869 0
2.3710001 0.81438404 0.25467718 0
2.3700001 0.81039411 0.25475293 0
2.3700001 0.8068406 0.25475293 0
2.3700001 0.80328709 0.25475293 0
2.3700001 0.79973358 0.25475293 0
2.3710001 0.79660749 0.25467718 0
2.3720002 0.79347795 0.25460142 0
2.3740001 0.79076856 0.25444987 0
2.3760002 0.78805202 0.25429836 0
2.378 0.78532833 0.25414684 0
2.381 0.78301579 0.25391954 0
2.3840001 0.78069252 0.25369227 0
2.4150002 1.1061915 0.24770905 0
2.4150002 1.1025569 0.24770905 0
2.4150002 1.0989221 0.24770905 0
2.4160001 1.0958538 0.24763149 0
2.4170003 1.092782 0.24755391 0
2.4180002 1.0897065 0.24747637 0
2.4200001 1.0871882 0.24732123 0
2.4210002 1.0841039 0.24724366 0
2.4240003 1.0821306 0.24701098 0
2.4260001 1.0795907 0.24685585 0
2.4290001 1.0775975 0.24662316 0
2.0760002 0.86397797 0.27400315 0
2.0740001 0.85987246 0.2741583 0
2.0740001 0.85685289 0.2741583 0
2.0730002 0.8532958 0.27423584 0
2.0730002 0.85027808 0.27423584 0
2.0730002 0.8472603 0.27423584 0
2.0740001 0.8447746 0.2741583 0
2.075 0.84228534 0.27408072 0
2.0760002 0.83979249 0.27400315 0
2.0770001 0.83729601 0.2739256 0
2.0780001 0.83479595 0.27384803 0
2.0800002 0.83281535 0.27369291 0
2.082 0.83082759 0.27353778 0
2.0840001 0.82883257 0.27338266 0
2.0860002 0.82683033 0.27322751 0
2.0890002 0.82533681 0.27299482 0
2.092 0.82383239 0.27276212 0
2.095 0.82231718 0.27252945 0
2.3710001 0.81438404 0.25112185 0
2.3700001 0.81039411 0.25119942 0
2.3700001 0.8068406 0.25119942 0
2.3700001 0.80328709 0.25119942 0
2.3700001 0.79973358 0.25119942 0
2.3710001 0.79660749 0.25112185 0
2.3720002 0.79347795 0.25104427 0
2.3740001 0.79076856 0.25088918 0
2.3760002 0.78805202 0.25073403 0
2.378 0.78532833 0.25057891 0
2.381 0.78301579 0.25034621 0
2.3840001 0.78069252 0.25011355 0
2.4150002 1.1061915 0.24407437 0
2.4150002 1.1025569 0.24407437 0
2.4150002 1.0989221 0.24407437 0
2.4160001 1.0958538 0.24399501 0
2.4170003 1.092782 0.24391563 0
2.4180002 1.0897065 0.24383627 0
2.4200001 1.0871882 0.24367756 0
2.4210002 1.0841039 0.24359818 0
2.4240003 1.0821306 0.24336006 0
2.4260001 1.0795907 0.24320135 0
2.4290001 1.0775975 0.24296324 0
2.0760002 0.86397797 0.27098 0
2.0740001 0.85987246 0.27113873 0
2.0740001 0.85685289 0.27113873 0
2.0730002 0.8532958 0.27121806 0
2.0730002 0.85027808 0.27121806 0
2.0730002 0.8472603 0.27121806 0
2.0740001 0.8447746 0.27113873 0
2.075 0.84228534 0.27105933 0
2.0760002 0.83979249 0.27098 0
2.0770001 0.83729601 0.27090061 0
2.0780001 0.83479595 0.27082124 0
2.0800002 0.83281535 0.27066249 0
2.082 0.83082759 0.27050376 0
2.0840001 0.82883257 0.27034503 0
2.0860002 0.82683033 0.27018631 0
2.0890002 0.82533681 0.26994818 0
2.092 0.82383239 0.26971012 0
2.095 0.82231718 0.269472 0
2.3710001 0.81438404 0.24756655 0
2.3700001 0.81039411 0.24764591 0
2.3700001 0.8068406 0.24764591 0
2.3700001 0.80328709 0.24764591 0
2.3700001 0.79973358 0.24764591 0
2.3710001 0.79660749 0.24756655 0
2.3720002 0.79347795 0.24748717 0
2.3740001 0.79076856 0.24732845 0
2.3760002 0.78805202 0.24716972 0
2.378 0.78532833 0.24701098 0
2.381 0.78301579 0.24677289 0
2.3840001 0.78069252 0.24653476 0
2.4150002 1.1061915 0.2404397 0
2.4150002 1.1025569 0.2404397 0
2.4150002 1.0989221 0.2404397 0
2.4160001 1.0958538 0.24035853 0
2.4170003 1.092782 0.24027735 0
2.4180002 1.0897065 0.24019618 0
2.4200001 1.0871882 0.24003385 0
2.4210002 1.0841039 0.23995267 0
2.4240003 1.0821306 0.23970915 0
2.4260001 1.0795907 0.23954684 0
2.4290001 1.0775975 0.23930331 0
2.0760002 0.86397797 0.26795679 0
2.0740001 0.85987246 0.26811916 0
2.0740001 0.85685289 0.26811916 0
2.0730002 0.8532958 0.26820031 0
2.0730002 0.85027808 0.26820031 0
2.0730002 0.8472603 0.26820031 0
2.0740001 0.8447746 0.26811916 0
2.075 0.84228534 0.26803797 0
2.0760002 0.83979249 0.26795679 0
2.0770001 0.83729601 0.26787561 0
2.0780001 0.83479595 0.26779446 0
2.0800002 0.83281535 0.26763213 0
2.082 0.83082759 0.26746976 0
2.0840001 0.82883257 0.2673074 0
2.0860002 0.82683033 0.2671451 0
2.0890002 0.82533681 0.26690155 0
2.092 0.82383239 0.26665807 0
2.095 0.82231718 0.26641452 0
2.3710001 0.81438404 0.24401125 0
2.3700001 0.81039411 0.2440924 0
2.3700001 0.8068406 0.2440924 0
2.3700001 0.80328709 0.2440924 0
2.3700001 0.79973358 0.2440924 0
2.3710001 0.79660749 0.24401125 0
2.3720002 0.79347795 0.24393007 0
2.3740001 0.79076856 0.24376774 0
2.3760002 0.78805202 0.24360539 0
2.378 0.78532833 0.24344304 0
2.381 0.78301579 0.24319953 0
2.3840001 0.78069252 0.24295601 0
2.4150002 1.1061915 0.23680504 0
2.4150002 1.1025569 0.23680504 0
2.4150002 1.0989221 0.23680504 0
2.4160001 1.0958538 0.23672207 0
2.4170003 1.092782 0.23663907 0
2.4180002 1.0897065 0.23655611 0
2.4200001 1.0871882 0.23639016 0
2.4210002 1.0841039 0.23630717 0
2.4240003 1.0821306 0.23605825 0
2.4260001 1.0795907 0.23589231 0
2.4290001 1.0775975 0.23564339 0
2.0760002 0.86397797 0.26493359 0
2.0740001 0.85987246 0.26509959 0
2.0740001 0.85685289 0.26509959 0
2.0730002 0.8532958 0.26518255 0
2.0730002 0.85027808 0.26518255 0
2.0730002 0.8472603 0.26518255 0
2.0740001 0.8447746 0.26509959 0
2.075 0.84228534 0.26501659 0
2.0760002 0.83979249 0.26493359 0
2.0770001 0.83729601 0.26485065 0
2.0780001 0.83479595 0.26476765 0
2.0800002 0.83281535 0.26460171 0
2.082 0.83082759 0.26443577 0
2.0840001 0.82883257 0.26426983 0
2.0860002 0.82683033 0.26410386 0
2.0890002 0.82533681 0.26385492 0
2.092 0.82383239 0.26360601 0
2.095 0.82231718 0.2633571 0
2.3710001 0.81438404 0.24045594 0
2.3700001 0.81039411 0.2405389 0
2.3700001 0.8068406 0.2405389 0
2.3700001 0.80328709 0.2405389 0
2.3700001 0.79973358 0.2405389 0
2.3710001 0.79660749 0.24045594 0
2.3720002 0.79347795 0.24037296 0
2.3740001 0.79076856 0.24020702 0
2.3760002 0.78805202 0.24004106 0
2.378 0.78532833 0.23987512 0
2.381 0.78301579 0.2396262 0
2.3840001 0.78069252 0.23937726 0
2.4150002 1.1061915 0.23317036 0
2.4150002 1.1025569 0.23317036 0
2.4150002 1.0989221 0.23317036 0
2.4160001 1.0958538 0.23308559 0
2.4170003 1.092782 0.23300079 0
2.4180002 1.0897065 0.23291601 0
2.4200001 1.0871882 0.23274647 0
2.4210002 1.0841039 0.23266168 0
2.4240003 1.0821306 0.23240735 0
2.4260001 1.0795907 0.2322378 0
2.4290001 1.0775975 0.23198345 0
2.0760002 0.86397797 0.26191044 0
2.0740001 0.85987246 0.26208001 0
2.0740001 0.85685289 0.26208001 0
2.0730002 0.8532958 0.26216477 0
2.0730002 0.85027808 0.26216477 0
2.0730002 0.8472603 0.26216477 0
2.0740001 0.8447746 0.26208001 0
2.075 0.84228534 0.2619952 0
2.0760002 0.83979249 0.26191044 0
2.0770001 0.83729601 0.26182568 0
2.0780001 0.83479595 0.26174086 0
2.0800002 0.83281535 0.26157132 0
2.082 0.83082759 0.26140177 0
2.0840001 0.82883257 0.2612322 0
2.0860002 0.82683033 0.26106262 0
2.0890002 0.82533681 0.26080829 0
2.092 0.82383239 0.26055396 0
2.095 0.82231718 0.26029962 0
2.3710001 0.81438404 0.23690064 0
2.3700001 0.81039411 0.23698542 0
2.3700001 0.8068406 0.23698542 0
2.3700001 0.80328709 0.23698542 0
2.3700001 0.79973358 0.23698542 0
2.3710001 0.79660749 0.23690064 0
2.3720002 0.79347795 0.23681585 0
2.3740001 0.79076856 0.23664629 0
2.3760002 0.78805202 0.23647673 0
2.378 0.78532833 0.23630717 0
2.381 0.78301579 0.23605284 0
2.3840001 0.78069252 0.23579851 0
2.4150002 1.1061915 0.22953568 0
2.4150002 1.1025569 0.22953568 0
2.4150002 1.0989221 0.22953568 0
2.4160001 1.0958538 0.22944909 0
2.4170003 1.092782 0.2293625 0
2.4180002 1.0897065 0.22927593 0
2.4200001 1.0871882 0.22910278 0
2.4210002 1.0841039 0.22901617 0
2.4240003 1.0821306 0.22875643 0
2.4260001 1.0795907 0.22858328 0
2.4290001 1.0775975 0.22832353 0
2.0760002 0.86397797 0.25888723 0
2.0740001 0.85987246 0.25906041 0
2.0740001 0.85685289 0.25906041 0
2.0730002 0.8532958 0.25914699 0
2.0730002 0.85027808 0.25914699 0
2.0730002 0.8472603 0.25914699 0
2.0740001 0.8447746 0.25906041 0
2.075 0.84228534 0.25897384 0
2.0760002 0.83979249 0.25888723 0
2.0770001 0.83729601 0.25880069 0
2.0780001 0.83479595 0.25871408 0
2.0800002 0.83281535 0.25854093 0
2.082 0.83082759 0.25836778 0
2.0840001 0.82883257 0.25819457 0
2.0860002 0.82683033 0.25802141 0
2.0890002 0.82533681 0.25776166 0
2.092 0.82383239 0.25750193 0
2.095 0.82231718 0.2572422 0
2.3710001 0.81438404 0.23334533 0
2.3700001 0.81039411 0.23343191 0
2.3700001 0.8068406 0.23343191 0
2.3700001 0.80328709 0.23343191 0
2.3700001 0.79973358 0.23343191 0
2.3710001 0.79660749 0.23334533 0
2.3720002 0.79347795 0.23325874 0
2.3740001 0.79076856 0.23308557 0
2.3760002 0.78805202 0.23291241 0
2.378 0.78532833 0.23273925 0
2.381 0.78301579 0.2324795 0
2.3840001 0.78069252 0.23221976 0
2.4150002 1.1061915 0.22590101 0
2.4150002 1.1025569 0.22590101 0
2.4150002 1.0989221 0.22590101 0
2.4160001 1.0958538 0.22581263 0
2.4170003 1.092782 0.22572424 0
2.4180002 1.0897065 0.22563586 0
2.4200001 1.0871882 0.2254591 0
2.4210002 1.0841039 0.22537069 0
2.4240003 1.0821306 0.22510552 0
2.4260001 1.0795907 0.22492877 0
2.4290001 1.0775975 0.2246636 0
2.0760002 0.86397797 0.25586405 0
2.0740001 0.85987246 0.25604084 0
2.0740001 0.85685289 0.25604084 0
2.0730002 0.8532958 0.25612921 0
2.0730002 0.85027808 0.25612921 0
2.0730002 0.8472603 0.25612921 0
2.0740001 0.8447746 0.25604084 0
2.075 0.84228534 0.25595245 0
2.0760002 0.83979249 0.25586405 0
2.0770001 0.83729601 0.25577569 0
2.0780001 0.83479595 0.2556873 0
2.0800002 0.83281535 0.25551051 0
2.082 0.83082759 0.25533375 0
2.0840001 0.82883257 0.25515696 0
2.0860002 0.82683033 0.25498021 0
2.0890002 0.82533681 0.25471503 0
2.092 0.82383239 0.25444987 0
2.095 0.82231718 0.25418472 0
2.3710001 0.81438404 0.22979002 0
2.3700001 0.81039411 0.2298784 0
2.3700001 0.8068406 0.2298784 0
2.3700001 0.80328709 0.2298784 0
2.3700001 0.79973358 0.2298784 0
2.3710001 0.79660749 0.22979002 0
2.3720002 0.79347795 0.22970162 0
2.3740001 0.79076856 0.22952485 0
2.3760002 0.78805202 0.22934808 0
2.378 0.78532833 0.22917131 0
2.381 0.78301579 0.22890615 0
2.3840001 0.78069252 0.22864099 0
2.4150002 1.1061915 0.22226633 0
2.4150002 1.1025569 0.22226633 0
2.4150002 1.0989221 0.22226633 0
2.4160001 1.0958538 0.22217615 0
2.4170003 1.092782 0.22208595 0
2.4180002 1.0897065 0.22199576 0
2.4200001 1.0871882 0.22181539 0
2.4210002 1.0841039 0.22172518 0
2.4240003 1.0821306 0.22145461 0
2.4260001 1.0795907 0.22127424 0
2.4290001 1.0775975 0.22100367 0
2.0760002 0.86397797 0.25284088 0
2.0740001 0.85987246 0.25302127 0
2.0740001 0.85685289 0.25302127 0
2.0730002 0.8532958 0.25311148 0
2.0730002 0.85027808 0.25311148 0
2.0730002 0.8472603 0.25311148 0
2.0740001 0.8447746 0.25302127 0
2.075 0.84228534 0.25293109 0
2.0760002 0.83979249 0.25284088 0
2.0770001 0.83729601 0.25275069 0
2.0780001 0.83479595 0.25266051 0
2.0800002 0.83281535 0.25248015 0
2.082 0.83082759 0.25229976 0
2.0840001 0.82883257 0.25211936 0
2.0860002 0.82683033 0.251939 0
2.0890002 0.82533681 0.25166839 0
2.092 0.82383239 0.25139785 0
2.095 0.82231718 0.25112727 0
2.3710001 0.81438404 0.22623472 0
2.3700001 0.81039411 0.2263249 0
2.3700001 0.8068406 0.2263249 0
2.3700001 0.80328709 0.2263249 0
2.3700001 0.79973358 0.2263249 0
2.3710001 0.79660749 0.22623472 0
2.3720002 0.79347795 0.22614452 0
2.3740001 0.79076856 0.22596414 0
2.3760002 0.78805202 0.22578377 0
2.378 0.78532833 0.22560339 0
2.381 0.78301579 0.22533281 0
2.3840001 0.78069252 0.22506224 0
2.4150002 1.1061915 0.21863165 0
2.4150002 1.1025569 0.21863165 0
2.4150002 1.0989221 0.21863165 0
2.4160001 1.0958538 0.21853967 0
2.4170003 1.092782 0.21844766 0
2.4180002 1.0897065 0.21835567 0
2.4200001 1.0871882 0.2181717 0
2.4210002 1.0841039 0.21807969 0
2.4240003 1.0821306 0.21780372 0
2.4260001 1.0795907 0.21761973 0
2.4290001 1.0775975 0.21734375 0
2.0760002 0.86397797 0.2498177 0
2.0740001 0.85987246 0.2500017 0
2.0740001 0.85685289 0.2500017 0
2.0730002 0.8532958 0.2500937 0
2.0730002 0.85027808 0.2500937 0
2.0730002 0.8472603 0.2500937 0
2.0740001 0.8447746 0.2500017 0
2.075 0.84228534 0.2499097 0
2.0760002 0.83979249 0.2498177 0
2.0770001 0.83729601 0.24972571 0
2.0780001 0.83479595 0.24963371 0
2.0800002 0.83281535 0.24944973 0
2.082 0.83082759 0.24926573 0
2.0840001 0.82883257 0.24908173 0
2.0860002 0.82683033 0.24889775 0
2.0890002 0.82533681 0.24862178 0
2.092 0.82383239 0.24834581 0
2.095 0.82231718 0.24806982 0
2.3710001 0.81438404 0.22267941 0
2.3700001 0.81039411 0.22277139 0
2.3700001 0.8068406 0.22277139 0
2.3700001 0.80328709 0.22277139 0
2.3700001 0.79973358 0.22277139 0
2.3710001 0.79660749 0.22267941 0
2.3720002 0.79347795 0.22258741 0
2.3740001 0.79076856 0.22240342 0
2.3760002 0.78805202 0.22221944 0
2.378 0.78532833 0.22203544 0
2.381 0.78301579 0.22175947 0
2.3840001 0.78069252 0.22148348 0
2.4150002 1.1061915 0.21499698 0
2.4150002 1.1025569 0.21499698 0
2.4150002 1.0989221 0.21499698 0
2.4160001 1.0958538 0.21490319 0
2.4170003 1.092782 0.21480939 0
2.4180002 1.0897065 0.2147156 0
2.4200001 1.0871882 0.21452801 0
2.4210002 1.0841039 0.21443419 0
2.4240003 1.0821306 0.2141528 0
2.4260001 1.0795907 0.21396521 0
2.4290001 1.0775975 0.21368381 0
2.0760002 0.86397797 0.24679451 0
2.0740001 0.85987246 0.24698211 0
2.0740001 0.85685289 0.24698211 0
2.0730002 0.8532958 0.24707592 0
2.0730002 0.85027808 0.24707592 0
2.0730002 0.8472603 0.24707592 0
2.0740001 0.8447746 0.24698211 0
2.075 0.84228534 0.24688831 0
2.0760002 0.83979249 0.24679451 0
2.0770001 0.83729601 0.24670072 0
2.0780001 0.83479595 0.24660692 0
2.0800002 0.83281535 0.24641934 0
2.082 0.83082759 0.24623173 0
2.0840001 0.82883257 0.24604413 0
2.0860002 0.82683033 0.24585654 0
2.0890002 0.82533681 0.24557514 0
2.092 0.82383239 0.24529375 0
2.095 0.82231718 0.24501236 0
2.3710001 0.81438404 0.21912411 0
2.3700001 0.81039411 0.2192179 0
2.3700001 0.8068406 0.2192179 0
2.3700001 0.80328709 0.2192179 0
2.3700001 0.79973358 0.2192179 0
2.3710001 0.79660749 0.21912411 0
2.3720002 0.79347795 0.21903031 0
2.3740001 0.79076856 0.21884272 0
2.3760002 0.78805202 0.21865511 0
2.378 0.78532833 0.21846752 0
2.381 0.78301579 0.21818613 0
2.3840001 0.78069252 0.21790472 0
2.4150002 1.1061915 0.21136232 0
2.4150002 1.1025569 0.21136232 0
2.4150002 1.0989221 0.21136232 0
2.4160001 1.0958538 0.21126673 0
2.4170003 1.092782 0.21117111 0
2.4180002 1.0897065 0.2110755 0
2.4200001 1.0871882 0.21088432 0
2.4210002 1.0841039 0.2107887 0
2.4240003 1.0821306 0.21050189 0
2.4260001 1.0795907 0.21031071 0
2.4290001 1.0775975 0.21002389 0
2.0760002 0.86397797 0.24377134 0
2.0740001 0.85987246 0.24396254 0
2.0740001 0.85685289 0.24396254 0
2.0730002 0.8532958 0.24405813 0
2.0730002 0.85027808 0.24405813 0
2.0730002 0.8472603 0.24405813 0
2.0740001 0.8447746 0.24396254 0
2.075 0.84228534 0.24386695 0
2.0760002 0.83979249 0.24377134 0
2.0770001 0.83729601 0.24367574 0
2.0780001 0.83479595 0.24358013 0
2.0800002 0.83281535 0.24338894 0
2.082 0.83082759 0.24319772 0
2.0840001 0.82883257 0.24300651 0
2.0860002 0.82683033 0.24281532 0
2.0890002 0.82533681 0.24252851 0
2.092 0.82383239 0.24224171 0
2.095 0.82231718 0.24195491 0
2.3710001 0.81438404 0.2155688 0
2.3700001 0.81039411 0.21566439 0
2.3700001 0.8068406 0.21566439 0
2.3700001 0.80328709 0.21566439 0
2.3700001 0.79973358 0.21566439 0
2.3710001 0.79660749 0.2155688 0
2.3720002 0.79347795 0.21547319 0
2.3740001 0.79076856 0.21528199 0
2.3760002 0.78805202 0.21509078 0
2.378 0.78532833 0.21489958 0
2.381 0.78301579 0.21461278 0
2.3840001 0.78069252 0.21432596 0
2.4150002 1.1061915 0.20772764 0
2.4150002 1.1025569 0.20772764 0
2.4150002 1.0989221 0.20772764 0
2.4160001 1.0958538 0.20763025 0
2.4170003 1.092782 0.20753281 0
2.4180002 1.0897065 0.20743541 0
2.4200001 1.0871882 0.20724061 0
2.4210002 1.0841039 0.2071432 0
2.4240003 1.0821306 0.20685099 0
2.4260001 1.0795907 0.20665619 0
2.4290001 1.0775975 0.20636396 0
2.0760002 0.86397797 0.24074815 0
2.0740001 0.85987246 0.24094297 0
2.0740001 0.85685289 0.24094297 0
2.0730002 0.8532958 0.24104038 0
2.0730002 0.85027808 0.24104038 0
2.0730002 0.8472603 0.24104038 0
2.0740001 0.8447746 0.24094297 0
2.075 0.84228534 0.24084556 0
2.0760002 0.83979249 0.24074815 0
2.0770001 0.83729601 0.24065076 0
2.0780001 0.83479595 0.24055333 0
2.0800002 0.83281535 0.24035853 0
2.082 0.83082759 0.24016373 0
2.0840001 0.82883257 0.23996891 0
2.0860002 0.82683033 0.23977409 0
2.0890002 0.82533681 0.23948187 0
2.092 0.82383239 0.23918967 0
2.095 0.82231718 0.23889744 0
2.3710001 0.81438404 0.21201348 0
2.3700001 0.81039411 0.21211089 0
2.3700001 0.8068406 0.21211089 0
2.3700001 0.80328709 0.21211089 0
2.3700001 0.79973358 0.21211089 0
2.3710001 0.79660749 0.21201348 0
2.3720002 0.79347795 0.21191607 0
2.3740001 0.79076856 0.21172127 0
2.3760002 0.78805202 0.21152647 0
2.378 0.78532833 0.21133165 0
2.381 0.78301579 0.21103942 0
2.3840001 0.78069252 0.21074723 0
2.4150002 1.1061915 0.20409296 0
2.4150002 1.1025569 0.20409296 0
2.4150002 1.0989221 0.20409296 0
2.4160001 1.0958538 0.20399375 0
2.4170003 1.092782 0.20389454 0
2.4180002 1.0897065 0.20379534 0
2.4200001 1.0871882 0.20359693 0
2.4210002 1.0841039 0.20349771 0
2.4240003 1.0821306 0.20320007 0
2.4260001 1.0795907 0.20300168 0
2.4290001 1.0775975 0.20270404 0
2.0760002 0.86397797 0.23772496 0
2.0740001 0.85987246 0.2379234 0
2.0740001 0.85685289 0.2379234 0
2.0730002 0.8532958 0.2380226 0
2.0730002 0.85027808 0.2380226 0
2.0730002 0.8472603 0.2380226 0
2.0740001 0.8447746 0.2379234 0
2.075 0.84228534 0.23782417 0
2.0760002 0.83979249 0.23772496 0
2.0770001 0.83729601 0.23762576 0
2.0780001 0.83479595 0.23752655 0
2.0800002 0.83281535 0.23732814 0
2.082 0.83082759 0.23712972 0
2.0840001 0.82883257 0.23693128 0
2.0860002 0.82683033 0.23673289 0
2.0890002 0.82533681 0.23643525 0
2.092 0.82383239 0.23613761 0
2.095 0.82231718 0.23583999 0
2.3710001 0.81438404 0.20845819 0
2.3700001 0.81039411 0.2085574 0
2.3700001 0.8068406 0.2085574 0
2.3700001 0.80328709 0.2085574 0
2.3700001 0.79973358 0.2085574 0
2.3710001 0.79660749 0.20845819 0
2.3720002 0.79347795 0.20835897 0
2.3740001 0.79076856 0.20816055 0
2.3760002 0.78805202 0.20796214 0
2.378 0.78532833 0.20776373 0
2.381 0.78301579 0.2074661 0
2.3840001 0.78069252 0.20716846 0
2.4150002 1.1061915 0.20045829 0
2.4150002 1.1025569 0.20045829 0
2.4150002 1.0989221 0.20045829 0
2.4160001 1.0958538 0.20035729 0
2.4170003 1.092782 0.20025626 0
2.4180002 1.0897065 0.20015524 0
2.4200001 1.0871882 0.19995324 0
2.4210002 1.0841039 0.1998522 0
2.4240003 1.0821306 0.19954917 0
2.4260001 1.0795907 0.19934715 0
2.4290001 1.0775975 0.19904412 0
2.0760002 0.86397797 0.2347018 0
2.0740001 0.85987246 0.23490381 0
2.0740001 0.85685289 0.23490381 0
2.0730002 0.8532958 0.23500483 0
2.0730002 0.85027808 0.23500483 0
2.0730002 0.8472603 0.23500483 0
2.0740001 0.8447746 0.23490381 0
2.075 0.84228534 0.2348028 0
2.0760002 0.83979249 0.2347018 0
2.0770001 0.83729601 0.23460078 0
2.0780001 0.83479595 0.23449977 0
2.0800002 0.83281535 0.23429774 0
2.082 0.83082759 0.23409571 0
2.0840001 0.82883257 0.23389368 0
2.0860002 0.82683033 0.23369165 0
2.0890002 0.82533681 0.23338862 0
2.092 0.82383239 0.23308559 0
2.095 0.82231718 0.23278253 0
2.3710001 0.81438404 0.20490287 0
2.3700001 0.81039411 0.20500389 0
2.3700001 0.8068406 0.20500389 0
2.3700001 0.80328709 0.20500389 0
2.3700001 0.79973358 0.20500389 0
2.3710001 0.79660749 0.20490287 0
2.3720002 0.79347795 0.20480186 0
2.3740001 0.79076856 0.20459983 0
2.3760002 0.78805202 0.20439781 0
2.378 0.78532833 0.20419578 0
2.381 0.78301579 0.20389275 0
2.3840001 0.78069252 0.20358971 0
2.4150002 1.1061915 0.19682363 0
2.4150002 1.1025569 0.19682363 0
2.4150002 1.0989221 0.19682363 0
2.4160001 1.0958538 0.19672081 0
2.4170003 1.092782 0.19661798 0
2.4180002 1.0897065 0.19651516 0
2.4200001 1.0871882 0.19630955 0
2.4210002 1.0841039 0.19620672 0
2.4240003 1.0821306 0.19589825 0
2.4260001 1.0795907 0.19569264 0
2.4290001 1.0775975 0.19538419 0
2.0760002 0.86397797 0.23167861 0
2.0740001 0.85987246 0.23188426 0
2.0740001 0.85685289 0.23188426 0
2.0730002 0.8532958 0.23198704 0
2.0730002 0.85027808 0.23198704 0
2.0730002 0.8472603 0.23198704 0
2.0740001 0.8447746 0.23188426 0
2.075 0.84228534 0.23178142 0
2.0760002 0.83979249 0.23167861 0
2.0770001 0.83729601 0.23157579 0
2.0780001 0.83479595 0.23147297 0
2.0800002 0.83281535 0.23126735 0
2.082 0.83082759 0.23106171 0
2.0840001 0.82883257 0.23085606 0
2.0860002 0.82683033 0.23065044 0
2.0890002 0.82533681 0.23034197 0
2.092 0.82383239 0.23003355 0
2.095 0.82231718 0.22972508 0
2.3710001 0.81438404 0.20134756 0
2.3700001 0.81039411 0.20145038 0
2.3700001 0.8068406 0.20145038 0
2.3700001 0.80328709 0.20145038 0
2.3700001 0.79973358 0.20145038 0
2.3710001 0.79660749 0.20134756 0
2.3720002 0.79347795 0.20124476 0
2.3740001 0.79076856 0.20103912 0
2.3760002 0.78805202 0.20083348 0
2.378 0.78532833 0.20062786 0
2.381 0.78301579 0.20031939 0
2.3840001 0.78069252 0.20001096 0
2.4150002 1.1061915 0.19318895 0
2.4150002 1.1025569 0.19318895 0
2.4150002 1.0989221 0.19318895 0
2.4160001 1.0958538 0.19308433 0
2.4170003 1.092782 0.19297969 0
2.4180002 1.0897065 0.19287509 0
2.4200001 1.0871882 0.19266586 0
2.4210002 1.0841039 0.19256121 0
2.4240003 1.0821306 0.19224735 0
2.4260001 1.0795907 0.19203812 0
2.4290001 1.0775975 0.19172427 0
2.0760002 0.86397797 0.22865541 0
2.0740001 0.85987246 0.22886467 0
2.0740001 0.85685289 0.22886467 0
2.0730002 0.8532958 0.22896929 0
2.0730002 0.85027808 0.22896929 0
2.0730002 0.8472603 0.22896929 0
2.0740001 0.8447746 0.22886467 0
2.075 0.84228534 0.22876005 0
2.0760002 0.83979249 0.22865541 0
2.0770001 0.83729601 0.22855079 0
2.0780001 0.83479595 0.22844619 0
2.0800002 0.83281535 0.22823694 0
2.082 0.83082759 0.2280277 0
2.0840001 0.82883257 0.22781846 0
2.0860002 0.82683033 0.2276092 0
2.0890002 0.82533681 0.22729535 0
2.092 0.82383239 0.22698149 0
2.095 0.82231718 0.22666763 0
2.3710001 0.81438404 0.19779228 0
2.3700001 0.81039411 0.19789688 0
2.3700001 0.8068406 0.19789688 0
2.3700001 0.80328709 0.19789688 0
2.3700001 0.79973358 0.19789688 0
2.3710001 0.79660749 0.19779228 0
2.3720002 0.79347795 0.19768764 0
2.3740001 0.79076856 0.1974784 0
2.3760002 0.78805202 0.19726917 0
2.378 0.78532833 0.19705993 0
2.381 0.78301579 0.19674607 0
2.3840001 0.78069252 0.19643219 0
2.4150002 1.1061915 0.18955426 0
2.4150002 1.1025569 0.18955426 0
2.4150002 1.0989221 0.18955426 0
2.4160001 1.0958538 0.18944785 0
2.4170003 1.092782 0.18934141 0
2.4180002 1.0897065 0.189235 0
2.4200001 1.0871882 0.18902215 0
2.4210002 1.0841039 0.18891573 0
2.4240003 1.0821306 0.18859644 0
2.4260001 1.0795907 0.18838361 0
2.4290001 1.0775975 0.18806432 0
2.0760002 0.86397797 0.22563224 0
2.0740001 0.85987246 0.2258451 0
2.0740001 0.85685289 0.2258451 0
2.0730002 0.8532958 0.22595151 0
2.0730002 0.85027808 0.22595151 0
2.0730002 0.8472603 0.22595151 0
2.0740001 0.8447746 0.2258451 0
2.075 0.84228534 0.22573866 0
2.0760002 0.83979249 0.22563224 0
2.0770001 0.83729601 0.22552583 0
2.0780001 0.83479595 0.22541939 0
2.0800002 0.83281535 0.22520654 0
2.082 0.83082759 0.22499371 0
2.0840001 0.82883257 0.22478083 0
2.0860002 0.82683033 0.22456799 0
2.0890002 0.82533681 0.22424871 0
2.092 0.82383239 0.22392945 0
2.095 0.82231718 0.22361018 0
2.3710001 0.81438404 0.19423696 0
2.3700001 0.81039411 0.19434337 0
2.3700001 0.8068406 0.19434337 0
2.3700001 0.80328709 0.19434337 0
2.3700001 0.79973358 0.19434337 0
2.3710001 0.79660749 0.19423696 0
2.3720002 0.79347795 0.19413052 0
2.3740001 0.79076856 0.19391769 0
2.3760002 0.78805202 0.19370483 0
2.378 0.78532833 0.193492 0
2.381 0.78301579 0.19317271 0
2.3840001 0.78069252 0.19285344 0
2.4150002 1.1061915 0.1859196 0
2.4150002 1.1025569 0.1859196 0
2.4150002 1.0989221 0.1859196 0
2.4160001 1.0958538 0.18581139 0
2.4170003 1.092782 0.18570313 0
2.4180002 1.0897065 0.1855949 0
2.4200001 1.0871882 0.18537848 0
2.4210002 1.0841039 0.18527022 0
2.4240003 1.0821306 0.18494554 0
2.4260001 1.0795907 0.1847291 0
2.4290001 1.0775975 0.1844044 0
2.0760002 0.86397797 0.22260906 0
2.0740001 0.85987246 0.22282551 0
2.0740001 0.85685289 0.22282551 0
2.0730002 0.8532958 0.22293374 0
2.0730002 0.85027808 0.22293374 0
2.0730002 0.8472603 0.22293374 0
2.0740001 0.8447746 0.22282551 0
2.075 0.84228534 0.22271729 0
2.0760002 0.83979249 0.22260906 0
2.0770001 0.83729601 0.22250083 0
2.0780001 0.83479595 0.22239259 0
2.0800002 0.83281535 0.22217615 0
2.082 0.83082759 0.22195968 0
2.0840001 0.82883257 0.22174323 0
2.0860002 0.82683033 0.22152677 0
2.0890002 0.82533681 0.22120208 0
2.092 0.82383239 0.22087741 0
2.095 0.82231718 0.22055271 0
2.3710001 0.81438404 0.19068167 0
2.3700001 0.81039411 0.19078986 0
2.3700001 0.8068406 0.19078986 0
2.3700001 0.80328709 0.19078986 0
2.3700001 0.79973358 0.19078986 0
2.3710001 0.79660749 0.19068167 0
2.3720002 0.79347795 0.19057342 0
2.3740001 0.79076856 0.19035697 0
2.3760002 0.78805202 0.19014052 0
2.378 0.78532833 0.18992406 0
2.381 0.78301579 0.18959938 0
2.3840001 0.78069252 0.18927468 0
2.4150002 1.1061915 0.18228492 0
2.4150002 1.1025569 0.18228492 0
2.4150002 1.0989221 0.18228492 0
2.4160001 1.0958538 0.18217489 0
2.4170003 1.092782 0.18206485 0
2.4180002 1.0897065 0.18195483 0
2.4200001 1.0871882 0.18173477 0
2.4210002 1.0841039 0.18162473 0
2.4240003 1.0821306 0.18129462 0
2.4260001 1.0795907 0.18107459 0
2.4290001 1.0775975 0.18074447 0
2.0760002 0.86397797 0.21958587 0
2.0740001 0.85987246 0.21980596 0
2.0740001 0.85685289 0.21980596 0
2.0730002 0.8532958 0.21991597 0
2.0730002 0.85027808 0.21991597 0
2.0730002 0.8472603 0.21991597 0
2.0740001 0.8447746 0.21980596 0
2.075 0.84228534 0.21969591 0
2.0760002 0.83979249 0.21958587 0
2.0770001 0.83729601 0.21947585 0
2.0780001 0.83479595 0.21936581 0
2.0800002 0.83281535 0.21914575 0
2.082 0.83082759 0.21892568 0
2.0840001 0.82883257 0.21870561 0
2.0860002 0.82683033 0.21848555 0
2.0890002 0.82533681 0.21815546 0
2.092 0.82383239 0.21782535 0
2.095 0.82231718 0.21749526 0
2.3710001 0.81438404 0.18712635 0
2.3700001 0.81039411 0.18723638 0
2.3700001 0.8068406 0.18723638 0
2.3700001 0.80328709 0.18723638 0
2.3700001 0.79973358 0.18723638 0
2.3710001 0.79660749 0.18712635 0
2.3720002 0.79347795 0.18701631 0
2.3740001 0.79076856 0.18679625 0
2.3760002 0.78805202 0.18657619 0
2.378 0.78532833 0.18635613 0
2.381 0.78301579 0.18602602 0
2.3840001 0.78069252 0.18569593 0
2.4150002 1.1061915 0.17865025 0
2.4150002 1.1025569 0.17865025 0
2.4150002 1.0989221 0.17865025 0
2.4160001 1.0958538 0.17853841 0
2.4170003 1.092782 0.17842656 0
2.4180002 1.0897065 0.17831475 0
2.4200001 1.0871882 0.17809108 0
2.4210002 1.0841039 0.17797923 0
2.4240003 1.0821306 0.17764373 0
2.4260001 1.0795907 0.17742006 0
2.4290001 1.0775975 0.17708455 0
2.0760002 0.86397797 0.21656269 0
2.0740001 0.85987246 0.21678637 0
2.0740001 0.85685289 0.21678637 0
2.0730002 0.8532958 0.2168982 0
2.0730002 0.85027808 0.2168982 0
2.0730002 0.8472603 0.2168982 0
2.0740001 0.8447746 0.21678637 0
2.075 0.84228534 0.21667452 0
2.0760002 0.83979249 0.21656269 0
2.0770001 0.83729601 0.21645087 0
2.0780001 0.83479595 0.21633902 0
2.0800002 0.83281535 0.21611536 0
2.082 0.83082759 0.21589167 0
2.0840001 0.82883257 0.21566801 0
2.0860002 0.82683033 0.21544433 0
2.0890002 0.82533681 0.21510881 0
2.092 0.82383239 0.21477333 0
2.095 0.82231718 0.21443781 0
2.3710001 0.81438404 0.18357104 0
2.3700001 0.81039411 0.18368287 0
2.3700001 0.8068406 0.18368287 0
2.3700001 0.80328709 0.18368287 0
2.3700001 0.79973358 0.18368287 0
2.3710001 0.79660749 0.18357104 0
2.3720002 0.79347795 0.18345921 0
2.3740001 0.79076856 0.18323553 0
2.3760002 0.78805202 0.18301187 0
2.378 0.78532833 0.18278819 0
2.381 0.78301579 0.18245268 0
2.3840001 0.78069252 0.18211718 0
2.4150002 1.1061915 0.17501557 0
2.4150002 1.1025569 0.17501557 0
2.4150002 1.0989221 0.17501557 0
2.4160001 1.0958538 0.17490195 0
2.4170003 1.092782 0.17478828 0
2.4180002 1.0897065 0.17467465 0
2.4200001 1.0871882 0.17444739 0
2.4210002 1.0841039 0.17433374 0
2.4240003 1.0821306 0.17399281 0
2.4260001 1.0795907 0.17376556 0
2.4290001 1.0775975 0.17342462 0
2.0760002 0.86397797 0.21353951 0
2.0740001 0.85987246 0.2137668 0
2.0740001 0.85685289 0.2137668 0
2.0730002 0.8532958 0.21388042 0
2.0730002 0.85027808 0.21388042 0
2.0730002 0.8472603 0.21388042 0
2.0740001 0.8447746 0.2137668 0
2.075 0.84228534 0.21365316 0
2.0760002 0.83979249 0.21353951 0
2.0770001 0.83729601 0.21342587 0
2.0780001 0.83479595 0.21331224 0
2.0800002 0.83281535 0.21308495 0
2.082 0.83082759 0.21285768 0
2.0840001 0.82883257 0.21263038 0
2.0860002 0.82683033 0.2124031 0
2.0890002 0.82533681 0.21206219 0
2.092 0.82383239 0.21172129 0
2.095 0.82231718 0.21138035 0
2.3710001 0.81438404 0.18001574 0
2.3700001 0.81039411 0.18012936 0
2.3700001 0.8068406 0.18012936 0
2.3700001 0.80328709 0.18012936 0
2.3700001 0.79973358 0.18012936 0
2.3710001 0.79660749 0.18001574 0
2.3720002 0.79347795 0.17990209 0
2.3740001 0.79076856 0.17967482 0
2.3760002 0.78805202 0.17944753 0
2.378 0.78532833 0.17922026 0
2.381 0.78301579 0.17887935 0
2.3840001 0.78069252 0.17853841 0
2.4150002 1.1061915 0.17138091 0
2.4150002 1.1025569 0.17138091 0
2.4150002 1.0989221 0.17138091 0
2.4160001 1.0958538 0.17126547 0
2.4170003 1.092782 0.17115 0
2.4180002 1.0897065 0.17103457 0
2.4200001 1.0871882 0.1708037 0
2.4210002 1.0841039 0.17068824 0
2.4240003 1.0821306 0.17034191 0
2.4260001 1.0795907 0.17011103 0
2.4290001 1.0775975 0.1697647 0
2.0760002 0.86397797 0.21051632 0
2.0740001 0.85987246 0.21074723 0
2.0740001 0.85685289 0.21074723 0
2.0730002 0.8532958 0.21086265 0
2.0730002 0.85027808 0.21086265 0
2.0730002 0.8472603 0.21086265 0
2.0740001 0.8447746 0.21074723 0
2.075 0.84228534 0.21063177 0
2.0760002 0.83979249 0.21051632 0
2.0770001 0.83729601 0.21040089 0
2.0780001 0.83479595 0.21028544 0
2.0800002 0.83281535 0.21005456 0
2.082 0.83082759 0.20982367 0
2.0840001 0.82883257 0.20959277 0
2.0860002 0.82683033 0.20936188 0
2.0890002 0.82533681 0.20901555 0
2.092 0.82383239 0.20866923 0
2.095 0.82231718 0.2083229 0
2.3710001 0.81438404 0.17646043 0
2.3700001 0.81039411 0.17657587 0
2.3700001 0.8068406 0.17657587 0
2.3700001 0.80328709 0.17657587 0
2.3700001 0.79973358 0.17657587 0
2.3710001 0.79660749 0.17646043 0
2.3720002 0.79347795 0.17634498 0
2.3740001 0.79076856 0.1761141 0
2.3760002 0.78805202 0.17588322 0
2.378 0.78532833 0.17565233 0
2.381 0.78301579 0.17530599 0
2.3840001 0.78069252 0.17495966 0
2.4150002 1.1061915 0.16774623 0
2.4150002 1.1025569 0.16774623 0
2.4150002 1.0989221 0.16774623 0
2.4160001 1.0958538 0.16762897 0
2.4170003 1.092782 0.16751173 0
2.4180002 1.0897065 0.16739447 0
2.4200001 1.0871882 0.16716 0
2.4210002 1.0841039 0.16704275 0
2.4240003 1.0821306 0.16669099 0
2.4260001 1.0795907 0.16645652 0
2.4290001 1.0775975 0.16610476 0
2.0760002 0.86397797 0.20749314 0
2.0740001 0.85987246 0.20772764 0
2.0740001 0.85685289 0.20772764 0
2.0730002 0.8532958 0.2078449 0
2.0730002 0.85027808 0.2078449 0
2.0730002 0.8472603 0.2078449 0
2.0740001 0.8447746 0.20772764 0
2.075 0.84228534 0.20761038 0
2.0760002 0.83979249 0.20749314 0
2.0770001 0.83729601 0.2073759 0
2.0780001 0.83479595 0.20725864 0
2.0800002 0.83281535 0.20702416 0
2.082 0.83082759 0.20678967 0
2.0840001 0.82883257 0.20655516 0
2.0860002 0.82683033 0.20632067 0
2.0890002 0.82533681 0.20596892 0
2.092 0.82383239 0.20561719 0
2.095 0.82231718 0.20526545 0
2.3710001 0.81438404 0.17290512 0
2.3700001 0.81039411 0.17302237 0
2.3700001 0.8068406 0.17302237 0
2.3700001 0.80328709 0.17302237 0
2.3700001 0.79973358 0.17302237 0
2.3710001 0.79660749 0.17290512 0
2.3720002 0.79347795 0.17278787 0
2.3740001 0.79076856 0.17255336 0
2.3760002 0.78805202 0.17231889 0
2.378 0.78532833 0.17208439 0
2.381 0.78301579 0.17173266 0
2.3840001 0.78069252 0.17138091 0
2.4150002 1.1061915 0.16411155 0
2.4150002 1.1025569 0.16411155 0
2.4150002 1.0989221 0.16411155 0
2.4160001 1.0958538 0.16399252 0
2.4170003 1.092782 0.16387345 0
2.4180002 1.0897065 0.1637544 0
2.4200001 1.0871882 0.16351633 0
2.4210002 1.0841039 0.16339722 0
2.4240003 1.0821306 0.16304009 0
2.4260001 1.0795907 0.162802 0
2.4290001 1.0775975 0.16244484 0
2.0760002 0.86397797 0.20446996 0
2.0740001 0.85987246 0.20470807 0
2.0740001 0.85685289 0.20470807 0
2.0730002 0.8532958 0.20482711 0
2.0730002 0.85027808 0.20482711 0
2.0730002 0.8472603 0.20482711 0
2.0740001 0.8447746 0.20470807 0
2.075 0.84228534 0.20458902 0
2.0760002 0.83979249 0.20446996 0
2.0770001 0.83729601 0.2043509 0
2.0780001 0.83479595 0.20423186 0
2.0800002 0.83281535 0.20399375 0
2.082 0.83082759 0.20375566 0
2.0840001 0.82883257 0.20351754 0
2.0860002 0.82683033 0.20327945 0
2.0890002 0.82533681 0.2029223 0
2.092 0.82383239 0.20256515 0
2.095 0.82231718 0.202208 0
2.3710001 0.81438404 0.16934983 0
2.3700001 0.81039411 0.16946886 0
2.3700001 0.8068406 0.16946886 0
2.3700001 0.80328709 0.16946886 0
2.3700001 0.79973358 0.16946886 0
2.3710001 0.79660749 0.16934983 0
2.3720002 0.79347795 0.16923076 0
2.3740001 0.79076856 0.16899265 0
2.3760002 0.78805202 0.16875456 0
2.378 0.78532833 0.16851646 0
2.381 0.78301579 0.16815931 0
2.3840001 0.78069252 0.16780216 0
2.4150002 1.1061915 0.16047689 0
2.4150002 1.1025569 0.16047689 0
2.4150002 1.0989221 0.16047689 0
2.4160001 1.0958538 0.16035603 0
2.4170003 1.092782 0.16023517 0
2.4180002 1.0897065 0.16011432 0
2.4200001 1.0871882 0.15987262 0
2.4210002 1.0841039 0.15975174 0
2.4240003 1.0821306 0.15938917 0
2.4260001 1.0795907 0.15914749 0
2.4290001 1.0775975 0.15878491 0
2.0760002 0.86397797 0.20144677 0
2.0740001 0.85987246 0.2016885 0
2.0740001 0.85685289 0.2016885 0
2.0730002 0.8532958 0.20180935 0
2.0730002 0.85027808 0.20180935 0
2.0730002 0.8472603 0.20180935 0
2.0740001 0.8447746 0.2016885 0
2.075 0.84228534 0.20156763 0
2.0760002 0.83979249 0.20144677 0
2.0770001 0.83729601 0.20132594 0
2.0780001 0.83479595 0.20120507 0
2.0800002 0.83281535 0.20096336 0
2.082 0.83082759 0.20072165 0
2.0840001 0.82883257 0.20047992 0
2.0860002 0.82683033 0.20023823 0
2.0890002 0.82533681 0.19987565 0
2.092 0.82383239 0.19951311 0
2.095 0.82231718 0.19915053 0
2.3710001 0.81438404 0.16579451 0
2.3700001 0.81039411 0.16591537 0
2.3700001 0.8068406 0.16591537 0
2.3700001 0.80328709 0.16591537 0
2.3700001 0.79973358 0.16591537 0
2.3710001 0.79660749 0.16579451 0
2.3720002 0.79347795 0.16567366 0
2.3740001 0.79076856 0.16543193 0
2.3760002 0.78805202 0.16519025 0
2.378 0.78532833 0.16494854 0
2.381 0.78301579 0.16458596 0
2.3840001 0.78069252 0.16422339 0
2.4150002 1.1061915 0.15684222 0
2.4150002 1.1025569 0.15684222 0
2.4150002 1.0989221 0.15684222 0
2.4160001 1.0958538 0.15671957 0
2.4170003 1.092782 0.1565969 0
2.4180002 1.0897065 0.15647422 0
2.4200001 1.0871882 0.15622893 0
2.4210002 1.0841039 0.15610625 0
2.4240003 1.0821306 0.15573825 0
2.4260001 1.0795907 0.15549296 0
2.4290001 1.0775975 0.15512499 0
2.0760002 0.86397797 0.19842359 0
2.0740001 0.85987246 0.19866893 0
2.0740001 0.85685289 0.19866893 0
2.0730002 0.8532958 0.19879156 0
2.0730002 0.85027808 0.19879156 0
2.0730002 0.8472603 0.19879156 0
2.0740001 0.8447746 0.19866893 0
2.075 0.84228534 0.19854626 0
2.0760002 0.83979249 0.19842359 0
2.0770001 0.83729601 0.19830094 0
2.0780001 0.83479595 0.19817828 0
2.0800002 0.83281535 0.19793296 0
2.082 0.83082759 0.19768766 0
2.0840001 0.82883257 0.19744232 0
2.0860002 0.82683033 0.19719701 0
2.0890002 0.82533681 0.19682904 0
2.092 0.82383239 0.19646107 0
2.095 0.82231718 0.19609308 0
2.3710001 0.81438404 0.16223921 0
2.3700001 0.81039411 0.16236186 0
2.3700001 0.8068406 0.16236186 0
2.3700001 0.80328709 0.16236186 0
2.3700001 0.79973358 0.16236186 0
2.3710001 0.79660749 0.16223921 0
2.3720002 0.79347795 0.16211654 0
2.3740001 0.79076856 0.16187122 0
2.3760002 0.78805202 0.16162591 0
2.378 0.78532833 0.1613806 0
2.381 0.78301579 0.1610126 0
2.3840001 0.78069252 0.16064465 0
2.4150002 1.1061915 0.15320754 0
2.4150002 1.1025569 0.15320754 0
2.4150002 1.0989221 0.15320754 0
2.4160001 1.0958538 0.15308309 0
2.4170003 1.092782 0.1529586 0
2.4180002 1.0897065 0.15283415 0
2.4200001 1.0871882 0.15258524 0
2.4210002 1.0841039 0.15246075 0
2.4240003 1.0821306 0.15208736 0
2.4260001 1.0795907 0.15183845 0
2.4290001 1.0775975 0.15146506 0
2.0760002 0.86397797 0.19540042 0
2.0740001 0.85987246 0.19564934 0
2.0740001 0.85685289 0.19564934 0
2.0730002 0.8532958 0.19577381 0
2.0730002 0.85027808 0.19577381 0
2.0730002 0.8472603 0.19577381 0
2.0740001 0.8447746 0.19564934 0
2.075 0.84228534 0.19552489 0
2.0760002 0.83979249 0.19540042 0
2.0770001 0.83729601 0.19527595 0
2.0780001 0.83479595 0.19515149 0
2.0800002 0.83281535 0.19490257 0
2.082 0.83082759 0.19465363 0
2.0840001 0.82883257 0.19440471 0
2.0860002 0.82683033 0.19415578 0
2.0890002 0.82533681 0.19378239 0
2.092 0.82383239 0.19340903 0
2.095 0.82231718 0.19303563 0
2.3710001 0.81438404 0.1586839 0
2.3700001 0.81039411 0.15880837 0
2.3700001 0.8068406 0.15880837 0
2.3700001 0.80328709 0.15880837 0
2.3700001 0.79973358 0.15880837 0
2.3710001 0.79660749 0.1586839 0
2.3720002 0.79347795 0.15855943 0
2.3740001 0.79076856 0.1583105 0
2.3760002 0.78805202 0.15806158 0
2.378 0.78532833 0.15781265 0
2.381 0.78301579 0.15743926 0
2.3840001 0.78069252 0.15706587 0
2.4150002 1.1061915 0.14957288 0
2.4150002 1.1025569 0.14957288 0
2.4150002 1.0989221 0.14957288 0
2.4160001 1.0958538 0.14944661 0
2.4170003 1.092782 0.1493203 0
2.4180002 1.0897065 0.14919406 0
2.4200001 1.0871882 0.14894155 0
2.4210002 1.0841039 0.14881524 0
2.4240003 1.0821306 0.14843646 0
2.4260001 1.0795907 0.14818394 0
2.4290001 1.0775975 0.14780515 0
2.0760002 0.86397797 0.19237722 0
2.0740001 0.85987246 0.19262977 0
2.0740001 0.85685289 0.19262977 0
2.0730002 0.8532958 0.19275603 0
2.0730002 0.85027808 0.19275603 0
2.0730002 0.8472603 0.19275603 0
2.0740001 0.8447746 0.19262977 0
2.075 0.84228534 0.1925035 0
2.0760002 0.83979249 0.19237722 0
2.0770001 0.83729601 0.19225098 0
2.0780001 0.83479595 0.19212469 0
2.0800002 0.83281535 0.19187216 0
2.082 0.83082759 0.19161963 0
2.0840001 0.82883257 0.19136709 0
2.0860002 0.82683033 0.19111457 0
2.0890002 0.82533681 0.19073576 0
2.092 0.82383239 0.19035697 0
2.095 0.82231718 0.18997817 0
2.3710001 0.81438404 0.1551286 0
2.3700001 0.81039411 0.15525486 0
2.3700001 0.8068406 0.15525486 0
2.3700001 0.80328709 0.15525486 0
2.3700001 0.79973358 0.15525486 0
2.3710001 0.79660749 0.1551286 0
2.3720002 0.79347795 0.15500233 0
2.3740001 0.79076856 0.1547498 0
2.3760002 0.78805202 0.15449725 0
2.378 0.78532833 0.15424472 0
2.381 0.78301579 0.15386593 0
2.3840001 0.78069252 0.15348712 0
2.4150002 1.1061915 0.14593819 0
2.4150002 1.1025569 0.14593819 0
2.4150002 1.0989221 0.14593819 0
2.4160001 1.0958538 0.14581013 0
2.4170003 1.092782 0.14568204 0
2.4180002 1.0897065 0.14555398 0
2.4200001 1.0871882 0.14529786 0
2.4210002 1.0841039 0.14516976 0
2.4240003 1.0821306 0.14478555 0
2.4260001 1.0795907 0.1445294 0
2.4290001 1.0775975 0.14414522 0
2.0760002 0.86397797 0.18935405 0
2.0740001 0.85987246 0.1896102 0
2.0740001 0.85685289 0.1896102 0
2.0730002 0.8532958 0.18973826 0
2.0730002 0.85027808 0.18973826 0
2.0730002 0.8472603 0.18973826 0
2.0740001 0.8447746 0.1896102 0
2.075 0.84228534 0.18948212 0
2.0760002 0.83979249 0.18935405 0
2.0770001 0.83729601 0.18922599 0
2.0780001 0.83479595 0.18909791 0
2.0800002 0.83281535 0.18884176 0
2.082 0.83082759 0.18858562 0
2.0840001 0.82883257 0.18832947 0
2.0860002 0.82683033 0.18807334 0
2.0890002 0.82533681 0.18768914 0
2.092 0.82383239 0.18730493 0
2.095 0.82231718 0.18692072 0
2.3710001 0.81438404 0.15157327 0
2.3700001 0.81039411 0.15170136 0
2.3700001 0.8068406 0.15170136 0
2.3700001 0.80328709 0.15170136 0
2.3700001 0.79973358 0.15170136 0
2.3710001 0.79660749 0.15157327 0
2.3720002 0.79347795 0.15144521 0
2.3740001 0.79076856 0.15118909 0
2.3760002 0.78805202 0.15093294 0
2.378 0.78532833 0.15067679 0
2.381 0.78301579 0.15029261 0
2.3840001 0.78069252 0.14990836 0
2.4150002 1.1061915 0.14230353 0
2.4150002 1.1025569 0.14230353 0
2.4150002 1.0989221 0.14230353 0
2.4160001 1.0958538 0.14217365 0
2.4170003 1.092782 0.14204374 0
2.4180002 1.0897065 0.14191389 0
2.4200001 1.0871882 0.14165416 0
2.4210002 1.0841039 0.14152426 0
2.4240003 1.0821306 0.14113465 0
2.4260001 1.0795907 0.14087489 0
2.4290001 1.0775975 0.14048529 0
2.0760002 0.86397797 0.18633085 0
2.0740001 0.85987246 0.18659063 0
2.0740001 0.85685289 0.18659063 0
2.0730002 0.8532958 0.18672049 0
2.0730002 0.85027808 0.18672049 0
2.0730002 0.8472603 0.18672049 0
2.0740001 0.8447746 0.18659063 0
2.075 0.84228534 0.18646073 0
2.0760002 0.83979249 0.18633085 0
2.0770001 0.83729601 0.18620099 0
2.0780001 0.83479595 0.18607111 0
2.0800002 0.83281535 0.18581137 0
2.082 0.83082759 0.18555163 0
2.0840001 0.82883257 0.18529187 0
2.0860002 0.82683033 0.18503213 0
2.0890002 0.82533681 0.18464249 0
2.092 0.82383239 0.18425289 0
2.095 0.82231718 0.18386327 0
2.3710001 0.81438404 0.148018 0
2.3700001 0.81039411 0.14814785 0
2.3700001 0.8068406 0.14814785 0
2.3700001 0.80328709 0.14814785 0
2.3700001 0.79973358 0.14814785 0
2.3710001 0.79660749 0.148018 0
2.3720002 0.79347795 0.14788809 0
2.3740001 0.79076856 0.14762837 0
2.3760002 0.78805202 0.14736861 0
2.378 0.78532833 0.14710888 0
2.381 0.78301579 0.14671925 0
2.3840001 0.78069252 0.14632961 0
2.4150002 1.1061915 0.13866886 0
2.4150002 1.1025569 0.13866886 0
2.4150002 1.0989221 0.13866886 0
2.4160001 1.0958538 0.13853717 0
2.4170003 1.092782 0.13840547 0
2.4180002 1.0897065 0.13827381 0
2.4200001 1.0871882 0.13801047 0
2.4210002 1.0841039 0.13787878 0
2.4240003 1.0821306 0.13748372 0
2.4260001 1.0795907 0.13722041 0
2.4290001 1.0775975 0.13682535 0
2.0760002 0.86397797 0.18330768 0
2.0740001 0.85987246 0.18357104 0
2.0740001 0.85685289 0.18357104 0
2.0730002 0.8532958 0.18370272 0
2.0730002 0.85027808 0.18370272 0
2.0730002 0.8472603 0.18370272 0
2.0740001 0.8447746 0.18357104 0
2.075 0.84228534 0.18343937 0
2.0760002 0.83979249 0.18330768 0
2.0770001 0.83729601 0.18317601 0
2.0780001 0.83479595 0.18304433 0
2.0800002 0.83281535 0.18278097 0
2.082 0.83082759 0.18251762 0
2.0840001 0.82883257 0.18225425 0
