# .PCD v0.7 - Point Cloud Data file format
VERSION 0.7
FIELDS x y z intensity
SIZE 4 4 4 4
TYPE F F F F
COUNT 1 1 1 1
WIDTH 172
HEIGHT 1
VIEWPOINT 0 0 0 1 0 0 0
POINTS 172
DATA ascii
2.2730002 1.0216163 0.3398079 0
2.2750001 1.0193743 0.33973935 0
2.2730002 1.0216163 0.33642936 0
2.2750001 1.0193743 0.33635721 0
2.2730002 1.0216163 0.33305082 0
2.2750001 1.0193743 0.33297506 0
2.2730002 1.0216163 0.32967228 0
2.2750001 1.0193743 0.32959291 0
2.2730002 1.0216163 0.32629377 0
2.2750001 1.0193743 0.3262108 0
2.2730002 1.0216163 0.32291523 0
2.2750001 1.0193743 0.32282865 0
2.2730002 1.0216163 0.31953669 0
2.2750001 1.0193743 0.3194465 0
2.2730002 1.0216163 0.31615815 0
2.2750001 1.0193743 0.31606436 0
2.2730002 1.0216163 0.31277964 0
2.2750001 1.0193743 0.31268221 0
2.2730002 1.0216163 0.30940109 0
2.2750001 1.0193743 0.30930007 0
2.2730002 1.0216163 0.30602255 0
2.2750001 1.0193743 0.30591795 0
2.2730002 1.0216163 0.30264401 0
2.2750001 1.0193743 0.3025358 0
2.2730002 1.0216163 0.2992655 0
2.2750001 1.0193743 0.29915366 0
2.2730002 1.0216163 0.29588696 0
2.2750001 1.0193743 0.29577151 0
2.2730002 1.0216163 0.29250842 0
2.2750001 1.0193743 0.29238939 0
2.2730002 1.0216163 0.28912988 0
2.2750001 1.0193743 0.28900725 0
2.2730002 1.0216163 0.28575134 0
2.2750001 1.0193743 0.2856251 0
2.2730002 1.0216163 0.28237283 0
2.2750001 1.0193743 0.28224295 0
2.2730002 1.0216163 0.27899432 0
2.2750001 1.0193743 0.27886081 0
2.2730002 1.0216163 0.27561575 0
2.2750001 1.0193743 0.27547866 0
2.2730002 1.0216163 0.27223724 0
2.2750001 1.0193743 0.27209651 0
2.2730002 1.0216163 0.2688587 0
2.2750001 1.0193743 0.26871437 0
2.2730002 1.0216163 0.26548016 0
2.2750001 1.0193743 0.26533225 0
2.2730002 1.0216163 0.26210165 0
2.2750001 1.0193743 0.26195011 0
2.2730002 1.0216163 0.25872308 0
2.2750001 1.0193743 0.25856799 0
2.2730002 1.0216163 0.25534457 0
2.2750001 1.0193743 0.25518584 0
2.2730002 1.0216163 0.25196606 0
2.2750001 1.0193743 0.2518037 0
2.2730002 1.0216163 0.2485875 0
2.2750001 1.0193743 0.24842155 0
2.2730002 1.0216163 0.24520896 0
2.2750001 1.0193743 0.2450394 0
2.2730002 1.0216163 0.24183044 0
2.2750001 1.0193743 0.24165727 0
2.2730002 1.0216163 0.2384519 0
2.2750001 1.0193743 0.23827513 0
2.2730002 1.0216163 0.23507336 0
2.2750001 1.0193743 0.23489298 0
2.2730002 1.0216163 0.23169483 0
2.2750001 1.0193743 0.23151085 0
2.2730002 1.0216163 0.22831629 0
2.2750001 1.0193743 0.2281287 0
2.2730002 1.0216163 0.22493778 0
2.2750001 1.0193743 0.22474657 0
2.2730002 1.0216163 0.22155924 0
2.2750001 1.0193743 0.22136442 0
2.2730002 1.0216163 0.2181807 0
2.2750001 1.0193743 0.21798229 0
2.2730002 1.0216163 0.21480218 0
2.2750001 1.0193743 0.21460015 0
2.2730002 1.0216163 0.21142364 0
2.2750001 1.0193743 0.211218 0
2.2730002 1.0216163 0.2080451 0
2.2750001 1.0193743 0.20783587 0
2.2730002 1.0216163 0.20466657 0
2.2750001 1.0193743 0.20445372 0
2.2730002 1.0216163 0.20128804 0
2.2750001 1.0193743 0.20107159 0
2.2730002 1.0216163 0.1979095 0
2.2750001 1.0193743 0.19768944 0
2.2730002 1.0216163 0.19453098 0
2.2750001 1.0193743 0.1943073 0
2.2730002 1.0216163 0.19115244 0
2.2750001 1.0193743 0.19092517 0
2.2730002 1.0216163 0.18777391 0
2.2750001 1.0193743 0.18754302 0
2.2730002 1.0216163 0.18439537 0
2.2750001 1.0193743 0.18416089 0
2.2730002 1.0216163 0.18101683 0
2.2750001 1.0193743 0.18077874 0
2.2730002 1.0216163 0.17763831 0
2.2750001 1.0193743 0.1773966 0
2.2730002 1.0216163 0.17425977 0
2.2750001 1.0193743 0.17401446 0
2.2730002 1.0216163 0.17088123 0
2.2750001 1.0193743 0.1706323 0
2.2730002 1.0216163 0.1675027 0
2.2750001 1.0193743 0.16725017 0
2.2730002 1.0216163 0.16412416 0
2.2750001 1.0193743 0.16386802 0
2.2730002 1.0216163 0.16074564 0
2.2750001 1.0193743 0.16048589 0
2.2730002 1.0216163 0.15736713 0
2.2750001 1.0193743 0.15710375 0
2.2730002 1.0216163 0.1539886 0
2.2750001 1.0193743 0.1537216 0
2.2730002 1.0216163 0.15061006 0
2.2750001 1.0193743 0.15033945 0
2.2730002 1.0216163 0.14723152 0
2.2750001 1.0193743 0.14695734 0
2.2730002 1.0216163 0.14385298 0
2.2750001 1.0193743 0.14357519 0
2.2730002 1.0216163 0.14047444 0
2.2750001 1.0193743 0.14019305 0
2.2730002 1.0216163 0.13709593 0
2.2750001 1.0193743 0.1368109 0
2.2730002 1.0216163 0.13371739 0
2.2750001 1.0193743 0.13342875 0
2.2730002 1.0216163 0.13033885 0
2.2750001 1.0193743 0.13004664 0
2.2730002 1.0216163 0.12696031 0
2.2750001 1.0193743 0.12666449 0
2.2730002 1.0216163 0.12358177 0
2.2750001 1.0193743 0.12328234 0
2.2730002 1.0216163 0.12020326 0
2.2750001 1.0193743 0.1199002 0
2.2730002 1.0216163 0.11682472 0
2.2750001 1.0193743 0.11651805 0
2.2730002 1.0216163 0.11344618 0
2.2750001 1.0193743 0.11313593 0
2.2730002 1.0216163 0.11006764 0
2.2750001 1.0193743 0.10975379 0
2.2730002 1.0216163 0.10668913 0
2.2750001 1.0193743 0.10637164 0
2.2730002 1.0216163 0.10331059 0
2.2750001 1.0193743 0.10298949 0
2.2730002 1.0216163 0.099932075 0
2.2750001 1.0193743 0.099607348 0
2.2730002 1.0216163 0.096553534 0
2.2750001 1.0193743 0.096225232 0
2.2730002 1.0216163 0.093174994 0
2.2750001 1.0193743 0.092843086 0
2.2730002 1.0216163 0.089796454 0
2.2750001 1.0193743 0.089460939 0
2.2730002 1.0216163 0.086417913 0
2.2750001 1.0193743 0.086078793 0
2.2730002 1.0216163 0.083039403 0
2.2750001 1.0193743 0.082696646 0
2.2730002 1.0216163 0.079660863 0
2.2750001 1.0193743 0.07931453 0
2.2730002 1.0216163 0.076282322 0
2.2750001 1.0193743 0.075932384 0
2.2730002 1.0216163 0.072903782 0
2.2750001 1.0193743 0.072550237 0
2.2730002 1.0216163 0.069525242 0
2.2750001 1.0193743 0.069168091 0
2.2730002 1.0216163 0.066146702 0
2.2750001 1.0193743 0.065785944 0
2.2730002 1.0216163 0.062768191 0
2.2750001 1.0193743 0.062403828 0
2.2730002 1.0216163 0.059389651 0
2.2750001 1.0193743 0.059021682 0
2.2730002 1.0216163 0.056011111 0
2.2750001 1.0193743 0.055639535 0
2.2730002 1.0216163 0.05263257 0
2.2750001 1.0193743 0.052257389 0
