# .PCD v0.7 - Point Cloud Data file format
VERSION 0.7
FIELDS x y z intensity
SIZE 4 4 4 4
TYPE F F F F
COUNT 1 1 1 1
WIDTH 1504
HEIGHT 1
VIEWPOINT 0 0 0 1 0 0 0
POINTS 1504
DATA ascii
5.8490005 2.4014089 1.4360399 0
5.8590002 2.3960533 1.4379339 0
5.8680005 2.3902161 1.4396385 0
5.8770003 2.3843465 1.4413431 0
5.8870006 2.3788865 1.4432372 0
5.8960004 2.3729501 1.4449416 0
5.9060001 2.3674195 1.4468356 0
5.9150004 2.3614166 1.4485402 0
5.9250002 2.3558156 1.4504342 0
5.9340005 2.349746 1.452139 0
5.9440002 2.3440747 1.4540328 0
5.9540005 2.3383675 1.4559269 0
5.9630003 2.3321967 1.4576316 0
5.9730005 2.3264194 1.4595255 0
5.9830003 2.3206053 1.4614195 0
5.9920006 2.3143337 1.4631242 0
5.5340004 2.6210964 1.3671182 0
5.5250006 2.6071765 1.3654299 0
5.5260005 2.5984478 1.3656175 0
5.5340004 2.5933142 1.3671182 0
5.5420003 2.5881515 1.3686188 0
5.5510001 2.5834708 1.3703072 0
5.5590005 2.578249 1.3718081 0
5.5670004 2.572998 1.3733089 0
5.5760002 2.5682232 1.3749971 0
5.5840001 2.5629127 1.3764979 0
5.5930004 2.558075 1.3781863 0
5.6010003 2.5527048 1.3796872 0
5.6090002 2.5473063 1.3811879 0
5.6180005 2.5423746 1.3828763 0
5.6270003 2.5374107 1.3845646 0
5.6350002 2.5319214 1.3860654 0
5.6440005 2.5268946 1.3877537 0
5.6520004 2.5213459 1.3892545 0
5.6610003 2.5162556 1.3909429 0
5.6700006 2.5111327 1.3926313 0
5.6780005 2.5054941 1.394132 0
5.6870003 2.500308 1.3958204 0
5.6960006 2.4950895 1.3975087 0
5.7050004 2.4898386 1.3991971 0
5.7130003 2.4840791 1.4006978 0
5.7220001 2.478765 1.4023862 0
5.7310004 2.4734187 1.4040745 0
5.7400002 2.4680395 1.4057629 0
5.7490005 2.4626284 1.4074514 0
5.7580004 2.4571843 1.4091398 0
5.7670002 2.4517078 1.4108281 0
5.7760005 2.4461992 1.4125165 0
5.7850003 2.4406579 1.4142048 0
5.7940001 2.4350839 1.4158932 0
5.8030005 2.4294779 1.4175816 0
5.8120003 2.4238391 1.4192699 0
5.8220005 2.4186227 1.4211459 0
5.8310003 2.4129171 1.4228343 0
5.8400002 2.4071791 1.4245225 0
5.8490005 2.4014089 1.426211 0
5.8590002 2.3960533 1.4280869 0
5.8680005 2.3902161 1.4297754 0
5.8770003 2.3843465 1.4314636 0
5.8870006 2.3788865 1.4333397 0
5.8960004 2.3729501 1.435028 0
5.9060001 2.3674195 1.436904 0
5.9150004 2.3614166 1.4385923 0
5.9250002 2.3558156 1.4404683 0
5.9340005 2.349746 1.4421566 0
5.9440002 2.3440747 1.4440325 0
5.9540005 2.3383675 1.4459085 0
5.9630003 2.3321967 1.4475969 0
5.9730005 2.3264194 1.4494729 0
5.9830003 2.3206053 1.4513488 0
5.9920006 2.3143337 1.4530373 0
5.5340004 2.6210964 1.3578573 0
5.5250006 2.6071765 1.3561853 0
5.5260005 2.5984478 1.356371 0
5.5340004 2.5933142 1.3578573 0
5.5420003 2.5881515 1.3593438 0
5.5510001 2.5834708 1.3610158 0
5.5590005 2.578249 1.3625022 0
5.5670004 2.572998 1.3639886 0
5.5760002 2.5682232 1.3656607 0
5.5840001 2.5629127 1.3671471 0
5.5930004 2.558075 1.3688191 0
5.6010003 2.5527048 1.3703054 0
5.6090002 2.5473063 1.3717918 0
5.6180005 2.5423746 1.373464 0
5.6270003 2.5374107 1.3751361 0
5.6350002 2.5319214 1.3766224 0
5.6440005 2.5268946 1.3782946 0
5.6520004 2.5213459 1.379781 0
5.6610003 2.5162556 1.3814529 0
5.6700006 2.5111327 1.3831252 0
5.6780005 2.5054941 1.3846115 0
5.6870003 2.500308 1.3862836 0
5.6960006 2.4950895 1.3879558 0
5.7050004 2.4898386 1.3896279 0
5.7130003 2.4840791 1.3911142 0
5.7220001 2.478765 1.3927864 0
5.7310004 2.4734187 1.3944584 0
5.7400002 2.4680395 1.3961306 0
5.7490005 2.4626284 1.3978027 0
5.7580004 2.4571843 1.3994749 0
5.7670002 2.4517078 1.401147 0
5.7760005 2.4461992 1.4028192 0
5.7850003 2.4406579 1.4044913 0
5.7940001 2.4350839 1.4061635 0
5.8030005 2.4294779 1.4078356 0
5.8120003 2.4238391 1.4095078 0
5.8220005 2.4186227 1.4113656 0
5.8310003 2.4129171 1.4130377 0
5.8400002 2.4071791 1.4147098 0
5.8490005 2.4014089 1.416382 0
5.8590002 2.3960533 1.41824 0
5.8680005 2.3902161 1.4199121 0
5.8770003 2.3843465 1.4215842 0
5.8870006 2.3788865 1.4234422 0
5.8960004 2.3729501 1.4251142 0
5.9060001 2.3674195 1.426972 0
5.9150004 2.3614166 1.4286443 0
5.9250002 2.3558156 1.4305022 0
5.9340005 2.349746 1.4321743 0
5.9440002 2.3440747 1.4340323 0
5.9540005 2.3383675 1.4358902 0
5.9630003 2.3321967 1.4375623 0
5.9730005 2.3264194 1.4394202 0
5.9830003 2.3206053 1.4412781 0
5.9920006 2.3143337 1.4429504 0
5.5340004 2.6210964 1.3485967 0
5.5250006 2.6071765 1.3469409 0
5.5260005 2.5984478 1.3471248 0
5.5340004 2.5933142 1.3485967 0
5.5420003 2.5881515 1.3500686 0
5.5510001 2.5834708 1.3517244 0
5.5590005 2.578249 1.3531964 0
5.5670004 2.572998 1.3546684 0
5.5760002 2.5682232 1.3563242 0
5.5840001 2.5629127 1.3577961 0
5.5930004 2.558075 1.359452 0
5.6010003 2.5527048 1.3609239 0
5.6090002 2.5473063 1.3623958 0
5.6180005 2.5423746 1.3640517 0
5.6270003 2.5374107 1.3657076 0
5.6350002 2.5319214 1.3671795 0
5.6440005 2.5268946 1.3688354 0
5.6520004 2.5213459 1.3703073 0
5.6610003 2.5162556 1.3719631 0
5.6700006 2.5111327 1.3736191 0
5.6780005 2.5054941 1.375091 0
5.6870003 2.500308 1.3767469 0
5.6960006 2.4950895 1.3784028 0
5.7050004 2.4898386 1.3800588 0
5.7130003 2.4840791 1.3815306 0
5.7220001 2.478765 1.3831865 0
5.7310004 2.4734187 1.3848424 0
5.7400002 2.4680395 1.3864982 0
5.7490005 2.4626284 1.3881541 0
5.7580004 2.4571843 1.3898101 0
5.7670002 2.4517078 1.3914659 0
5.7760005 2.4461992 1.393122 0
5.7850003 2.4406579 1.3947778 0
5.7940001 2.4350839 1.3964336 0
5.8030005 2.4294779 1.3980895 0
5.8120003 2.4238391 1.3997455 0
5.8220005 2.4186227 1.4015855 0
5.8310003 2.4129171 1.4032413 0
5.8400002 2.4071791 1.4048971 0
5.8490005 2.4014089 1.406553 0
5.8590002 2.3960533 1.4083929 0
5.8680005 2.3902161 1.4100488 0
5.8770003 2.3843465 1.4117048 0
5.8870006 2.3788865 1.4135447 0
5.8960004 2.3729501 1.4152006 0
5.9060001 2.3674195 1.4170403 0
5.9150004 2.3614166 1.4186963 0
5.9250002 2.3558156 1.4205362 0
5.9340005 2.349746 1.4221921 0
5.9440002 2.3440747 1.424032 0
5.9540005 2.3383675 1.4258718 0
5.9630003 2.3321967 1.4275278 0
5.9730005 2.3264194 1.4293677 0
5.9830003 2.3206053 1.4312074 0
5.9920006 2.3143337 1.4328634 0
5.5340004 2.6210964 1.3393359 0
5.5250006 2.6071765 1.3376963 0
5.5260005 2.5984478 1.3378785 0
5.5340004 2.5933142 1.3393359 0
5.5420003 2.5881515 1.3407934 0
5.5510001 2.5834708 1.342433 0
5.5590005 2.578249 1.3438905 0
5.5670004 2.572998 1.345348 0
5.5760002 2.5682232 1.3469876 0
5.5840001 2.5629127 1.3484451 0
5.5930004 2.558075 1.3500848 0
5.6010003 2.5527048 1.3515422 0
5.6090002 2.5473063 1.3529997 0
5.6180005 2.5423746 1.3546395 0
5.6270003 2.5374107 1.356279 0
5.6350002 2.5319214 1.3577365 0
5.6440005 2.5268946 1.3593763 0
5.6520004 2.5213459 1.3608336 0
5.6610003 2.5162556 1.3624734 0
5.6700006 2.5111327 1.364113 0
5.6780005 2.5054941 1.3655705 0
5.6870003 2.500308 1.3672101 0
5.6960006 2.4950895 1.3688499 0
5.7050004 2.4898386 1.3704895 0
5.7130003 2.4840791 1.3719469 0
5.7220001 2.478765 1.3735865 0
5.7310004 2.4734187 1.3752263 0
5.7400002 2.4680395 1.376866 0
5.7490005 2.4626284 1.3785056 0
5.7580004 2.4571843 1.3801453 0
5.7670002 2.4517078 1.3817849 0
5.7760005 2.4461992 1.3834245 0
5.7850003 2.4406579 1.3850642 0
5.7940001 2.4350839 1.3867038 0
5.8030005 2.4294779 1.3883437 0
5.8120003 2.4238391 1.3899832 0
5.8220005 2.4186227 1.3918052 0
5.8310003 2.4129171 1.3934447 0
5.8400002 2.4071791 1.3950844 0
5.8490005 2.4014089 1.3967241 0
5.8590002 2.3960533 1.3985459 0
5.8680005 2.3902161 1.4001857 0
5.8770003 2.3843465 1.4018252 0
5.8870006 2.3788865 1.4036472 0
5.8960004 2.3729501 1.4052868 0
5.9060001 2.3674195 1.4071087 0
5.9150004 2.3614166 1.4087483 0
5.9250002 2.3558156 1.4105701 0
5.9340005 2.349746 1.4122097 0
5.9440002 2.3440747 1.4140316 0
5.9540005 2.3383675 1.4158535 0
5.9630003 2.3321967 1.4174932 0
5.9730005 2.3264194 1.419315 0
5.9830003 2.3206053 1.4211367 0
5.9920006 2.3143337 1.4227766 0
5.5340004 2.6210964 1.3300751 0
5.5250006 2.6071765 1.3284518 0
5.5260005 2.5984478 1.3286321 0
5.5340004 2.5933142 1.3300751 0
5.5420003 2.5881515 1.3315182 0
5.5510001 2.5834708 1.3331416 0
5.5590005 2.578249 1.3345847 0
5.5670004 2.572998 1.3360277 0
5.5760002 2.5682232 1.3376511 0
5.5840001 2.5629127 1.3390942 0
5.5930004 2.558075 1.3407177 0
5.6010003 2.5527048 1.3421607 0
5.6090002 2.5473063 1.3436037 0
5.6180005 2.5423746 1.3452272 0
5.6270003 2.5374107 1.3468505 0
5.6350002 2.5319214 1.3482935 0
5.6440005 2.5268946 1.3499171 0
5.6520004 2.5213459 1.3513601 0
5.6610003 2.5162556 1.3529836 0
5.6700006 2.5111327 1.354607 0
5.6780005 2.5054941 1.35605 0
5.6870003 2.500308 1.3576734 0
5.6960006 2.4950895 1.3592969 0
5.7050004 2.4898386 1.3609202 0
5.7130003 2.4840791 1.3623633 0
5.7220001 2.478765 1.3639867 0
5.7310004 2.4734187 1.3656102 0
5.7400002 2.4680395 1.3672335 0
5.7490005 2.4626284 1.368857 0
5.7580004 2.4571843 1.3704805 0
5.7670002 2.4517078 1.3721038 0
5.7760005 2.4461992 1.3737273 0
5.7850003 2.4406579 1.3753507 0
5.7940001 2.4350839 1.3769742 0
5.8030005 2.4294779 1.3785976 0
5.8120003 2.4238391 1.380221 0
5.8220005 2.4186227 1.3820248 0
5.8310003 2.4129171 1.3836483 0
5.8400002 2.4071791 1.3852717 0
5.8490005 2.4014089 1.3868951 0
5.8590002 2.3960533 1.3886989 0
5.8680005 2.3902161 1.3903224 0
5.8770003 2.3843465 1.3919457 0
5.8870006 2.3788865 1.3937497 0
5.8960004 2.3729501 1.395373 0
5.9060001 2.3674195 1.3971767 0
5.9150004 2.3614166 1.3988004 0
5.9250002 2.3558156 1.400604 0
5.9340005 2.349746 1.4022275 0
5.9440002 2.3440747 1.4040313 0
5.9540005 2.3383675 1.4058352 0
5.9630003 2.3321967 1.4074587 0
5.9730005 2.3264194 1.4092624 0
5.9830003 2.3206053 1.4110662 0
5.9920006 2.3143337 1.4126897 0
5.5340004 2.6210964 1.3208144 0
5.5250006 2.6071765 1.3192073 0
5.5260005 2.5984478 1.3193858 0
5.5340004 2.5933142 1.3208144 0
5.5420003 2.5881515 1.322243 0
5.5510001 2.5834708 1.3238502 0
5.5590005 2.578249 1.3252789 0
5.5670004 2.572998 1.3267075 0
5.5760002 2.5682232 1.3283147 0
5.5840001 2.5629127 1.3297433 0
5.5930004 2.558075 1.3313506 0
5.6010003 2.5527048 1.3327792 0
5.6090002 2.5473063 1.3342077 0
5.6180005 2.5423746 1.3358148 0
5.6270003 2.5374107 1.337422 0
5.6350002 2.5319214 1.3388506 0
5.6440005 2.5268946 1.3404579 0
5.6520004 2.5213459 1.3418865 0
5.6610003 2.5162556 1.3434936 0
5.6700006 2.5111327 1.3451009 0
5.6780005 2.5054941 1.3465295 0
5.6870003 2.500308 1.3481367 0
5.6960006 2.4950895 1.349744 0
5.7050004 2.4898386 1.351351 0
5.7130003 2.4840791 1.3527796 0
5.7220001 2.478765 1.3543868 0
5.7310004 2.4734187 1.3559941 0
5.7400002 2.4680395 1.3576013 0
5.7490005 2.4626284 1.3592085 0
5.7580004 2.4571843 1.3608156 0
5.7670002 2.4517078 1.3624228 0
5.7760005 2.4461992 1.3640301 0
5.7850003 2.4406579 1.3656373 0
5.7940001 2.4350839 1.3672444 0
5.8030005 2.4294779 1.3688517 0
5.8120003 2.4238391 1.3704588 0
5.8220005 2.4186227 1.3722446 0
5.8310003 2.4129171 1.3738518 0
5.8400002 2.4071791 1.375459 0
5.8490005 2.4014089 1.3770663 0
5.8590002 2.3960533 1.378852 0
5.8680005 2.3902161 1.3804592 0
5.8770003 2.3843465 1.3820664 0
5.8870006 2.3788865 1.3838521 0
5.8960004 2.3729501 1.3854593 0
5.9060001 2.3674195 1.3872451 0
5.9150004 2.3614166 1.3888522 0
5.9250002 2.3558156 1.390638 0
5.9340005 2.349746 1.3922452 0
5.9440002 2.3440747 1.3940309 0
5.9540005 2.3383675 1.3958167 0
5.9630003 2.3321967 1.3974239 0
5.9730005 2.3264194 1.3992097 0
5.9830003 2.3206053 1.4009955 0
5.9920006 2.3143337 1.4026027 0
5.5340004 2.6210964 1.3115536 0
5.5250006 2.6071765 1.3099627 0
5.5260005 2.5984478 1.3101395 0
5.5340004 2.5933142 1.3115536 0
5.5420003 2.5881515 1.3129678 0
5.5510001 2.5834708 1.3145587 0
5.5590005 2.578249 1.315973 0
5.5670004 2.572998 1.3173872 0
5.5760002 2.5682232 1.3189781 0
5.5840001 2.5629127 1.3203923 0
5.5930004 2.558075 1.3219833 0
5.6010003 2.5527048 1.3233975 0
5.6090002 2.5473063 1.3248117 0
5.6180005 2.5423746 1.3264027 0
5.6270003 2.5374107 1.3279936 0
5.6350002 2.5319214 1.3294078 0
5.6440005 2.5268946 1.3309988 0
5.6520004 2.5213459 1.332413 0
5.6610003 2.5162556 1.3340038 0
5.6700006 2.5111327 1.3355948 0
5.6780005 2.5054941 1.337009 0
5.6870003 2.500308 1.3386 0
5.6960006 2.4950895 1.340191 0
5.7050004 2.4898386 1.3417819 0
5.7130003 2.4840791 1.343196 0
5.7220001 2.478765 1.344787 0
5.7310004 2.4734187 1.346378 0
5.7400002 2.4680395 1.3479689 0
5.7490005 2.4626284 1.3495599 0
5.7580004 2.4571843 1.3511509 0
5.7670002 2.4517078 1.3527417 0
5.7760005 2.4461992 1.3543328 0
5.7850003 2.4406579 1.3559238 0
5.7940001 2.4350839 1.3575146 0
5.8030005 2.4294779 1.3591056 0
5.8120003 2.4238391 1.3606967 0
5.8220005 2.4186227 1.3624643 0
5.8310003 2.4129171 1.3640553 0
5.8400002 2.4071791 1.3656462 0
5.8490005 2.4014089 1.3672372 0
5.8590002 2.3960533 1.3690048 0
5.8680005 2.3902161 1.3705959 0
5.8770003 2.3843465 1.3721869 0
5.8870006 2.3788865 1.3739547 0
5.8960004 2.3729501 1.3755456 0
5.9060001 2.3674195 1.3773133 0
5.9150004 2.3614166 1.3789042 0
5.9250002 2.3558156 1.380672 0
5.9340005 2.349746 1.3822629 0
5.9440002 2.3440747 1.3840307 0
5.9540005 2.3383675 1.3857985 0
5.9630003 2.3321967 1.3873893 0
5.9730005 2.3264194 1.3891572 0
5.9830003 2.3206053 1.3909248 0
5.9920006 2.3143337 1.3925158 0
5.5340004 2.6210964 1.3022929 0
5.5250006 2.6071765 1.3007183 0
5.5260005 2.5984478 1.3008932 0
5.5340004 2.5933142 1.3022929 0
5.5420003 2.5881515 1.3036927 0
5.5510001 2.5834708 1.3052673 0
5.5590005 2.578249 1.3066672 0
5.5670004 2.572998 1.308067 0
5.5760002 2.5682232 1.3096416 0
5.5840001 2.5629127 1.3110414 0
5.5930004 2.558075 1.3126161 0
5.6010003 2.5527048 1.3140159 0
5.6090002 2.5473063 1.3154156 0
5.6180005 2.5423746 1.3169904 0
5.6270003 2.5374107 1.318565 0
5.6350002 2.5319214 1.3199648 0
5.6440005 2.5268946 1.3215395 0
5.6520004 2.5213459 1.3229393 0
5.6610003 2.5162556 1.324514 0
5.6700006 2.5111327 1.3260888 0
5.6780005 2.5054941 1.3274885 0
5.6870003 2.500308 1.3290632 0
5.6960006 2.4950895 1.3306379 0
5.7050004 2.4898386 1.3322127 0
5.7130003 2.4840791 1.3336124 0
5.7220001 2.478765 1.3351871 0
5.7310004 2.4734187 1.336762 0
5.7400002 2.4680395 1.3383366 0
5.7490005 2.4626284 1.3399113 0
5.7580004 2.4571843 1.341486 0
5.7670002 2.4517078 1.3430607 0
5.7760005 2.4461992 1.3446355 0
5.7850003 2.4406579 1.3462102 0
5.7940001 2.4350839 1.347785 0
5.8030005 2.4294779 1.3493598 0
5.8120003 2.4238391 1.3509344 0
5.8220005 2.4186227 1.3526841 0
5.8310003 2.4129171 1.3542588 0
5.8400002 2.4071791 1.3558335 0
5.8490005 2.4014089 1.3574083 0
5.8590002 2.3960533 1.3591579 0
5.8680005 2.3902161 1.3607328 0
5.8770003 2.3843465 1.3623074 0
5.8870006 2.3788865 1.3640572 0
5.8960004 2.3729501 1.3656318 0
5.9060001 2.3674195 1.3673816 0
5.9150004 2.3614166 1.3689562 0
5.9250002 2.3558156 1.3707058 0
5.9340005 2.349746 1.3722807 0
5.9440002 2.3440747 1.3740304 0
5.9540005 2.3383675 1.3757801 0
5.9630003 2.3321967 1.3773547 0
5.9730005 2.3264194 1.3791045 0
5.9830003 2.3206053 1.3808541 0
5.9920006 2.3143337 1.382429 0
5.5340004 2.6210964 1.2930322 0
5.5250006 2.6071765 1.2914737 0
5.5260005 2.5984478 1.2916468 0
5.5340004 2.5933142 1.2930322 0
5.5420003 2.5881515 1.2944175 0
5.5510001 2.5834708 1.2959759 0
5.5590005 2.578249 1.2973614 0
5.5670004 2.572998 1.2987467 0
5.5760002 2.5682232 1.300305 0
5.5840001 2.5629127 1.3016903 0
5.5930004 2.558075 1.3032489 0
5.6010003 2.5527048 1.3046342 0
5.6090002 2.5473063 1.3060195 0
5.6180005 2.5423746 1.3075781 0
5.6270003 2.5374107 1.3091365 0
5.6350002 2.5319214 1.3105218 0
5.6440005 2.5268946 1.3120804 0
5.6520004 2.5213459 1.3134657 0
5.6610003 2.5162556 1.3150241 0
5.6700006 2.5111327 1.3165827 0
5.6780005 2.5054941 1.317968 0
5.6870003 2.500308 1.3195264 0
5.6960006 2.4950895 1.321085 0
5.7050004 2.4898386 1.3226435 0
5.7130003 2.4840791 1.3240288 0
5.7220001 2.478765 1.3255873 0
5.7310004 2.4734187 1.3271458 0
5.7400002 2.4680395 1.3287042 0
5.7490005 2.4626284 1.3302628 0
5.7580004 2.4571843 1.3318213 0
5.7670002 2.4517078 1.3333796 0
5.7760005 2.4461992 1.3349383 0
5.7850003 2.4406579 1.3364967 0
5.7940001 2.4350839 1.3380551 0
5.8030005 2.4294779 1.3396138 0
5.8120003 2.4238391 1.3411721 0
5.8220005 2.4186227 1.3429039 0
5.8310003 2.4129171 1.3444624 0
5.8400002 2.4071791 1.3460208 0
5.8490005 2.4014089 1.3475792 0
5.8590002 2.3960533 1.349311 0
5.8680005 2.3902161 1.3508695 0
5.8770003 2.3843465 1.3524278 0
5.8870006 2.3788865 1.3541597 0
5.8960004 2.3729501 1.3557181 0
5.9060001 2.3674195 1.3574497 0
5.9150004 2.3614166 1.3590083 0
5.9250002 2.3558156 1.3607399 0
5.9340005 2.349746 1.3622984 0
5.9440002 2.3440747 1.36403 0
5.9540005 2.3383675 1.3657616 0
5.9630003 2.3321967 1.3673202 0
5.9730005 2.3264194 1.3690519 0
5.9830003 2.3206053 1.3707834 0
5.9920006 2.3143337 1.372342 0
5.5340004 2.6210964 1.2837714 0
5.5250006 2.6071765 1.2822292 0
5.5260005 2.5984478 1.2824005 0
5.5340004 2.5933142 1.2837714 0
5.5420003 2.5881515 1.2851423 0
5.5510001 2.5834708 1.2866845 0
5.5590005 2.578249 1.2880555 0
5.5670004 2.572998 1.2894263 0
5.5760002 2.5682232 1.2909685 0
5.5840001 2.5629127 1.2923394 0
5.5930004 2.558075 1.2938818 0
5.6010003 2.5527048 1.2952527 0
5.6090002 2.5473063 1.2966235 0
5.6180005 2.5423746 1.2981658 0
5.6270003 2.5374107 1.299708 0
5.6350002 2.5319214 1.3010789 0
5.6440005 2.5268946 1.3026212 0
5.6520004 2.5213459 1.3039922 0
5.6610003 2.5162556 1.3055344 0
5.6700006 2.5111327 1.3070767 0
5.6780005 2.5054941 1.3084475 0
5.6870003 2.500308 1.3099897 0
5.6960006 2.4950895 1.311532 0
5.7050004 2.4898386 1.3130744 0
5.7130003 2.4840791 1.3144451 0
5.7220001 2.478765 1.3159873 0
5.7310004 2.4734187 1.3175297 0
5.7400002 2.4680395 1.3190719 0
5.7490005 2.4626284 1.3206142 0
5.7580004 2.4571843 1.3221564 0
5.7670002 2.4517078 1.3236986 0
5.7760005 2.4461992 1.325241 0
5.7850003 2.4406579 1.3267832 0
5.7940001 2.4350839 1.3283254 0
5.8030005 2.4294779 1.3298677 0
5.8120003 2.4238391 1.3314099 0
5.8220005 2.4186227 1.3331236 0
5.8310003 2.4129171 1.3346658 0
5.8400002 2.4071791 1.336208 0
5.8490005 2.4014089 1.3377503 0
5.8590002 2.3960533 1.3394639 0
5.8680005 2.3902161 1.3410063 0
5.8770003 2.3843465 1.3425485 0
5.8870006 2.3788865 1.3442621 0
5.8960004 2.3729501 1.3458045 0
5.9060001 2.3674195 1.347518 0
5.9150004 2.3614166 1.3490603 0
5.9250002 2.3558156 1.3507738 0
5.9340005 2.349746 1.3523161 0
5.9440002 2.3440747 1.3540297 0
5.9540005 2.3383675 1.3557434 0
5.9630003 2.3321967 1.3572856 0
5.9730005 2.3264194 1.3589993 0
5.9830003 2.3206053 1.3607128 0
5.9920006 2.3143337 1.3622551 0
5.5340004 2.6210964 1.2745106 0
5.5250006 2.6071765 1.2729846 0
5.5260005 2.5984478 1.2731541 0
5.5340004 2.5933142 1.2745106 0
5.5420003 2.5881515 1.2758671 0
5.5510001 2.5834708 1.2773931 0
5.5590005 2.578249 1.2787496 0
5.5670004 2.572998 1.2801061 0
5.5760002 2.5682232 1.2816321 0
5.5840001 2.5629127 1.2829885 0
5.5930004 2.558075 1.2845145 0
5.6010003 2.5527048 1.285871 0
5.6090002 2.5473063 1.2872274 0
5.6180005 2.5423746 1.2887535 0
5.6270003 2.5374107 1.2902795 0
5.6350002 2.5319214 1.291636 0
5.6440005 2.5268946 1.2931621 0
5.6520004 2.5213459 1.2945185 0
5.6610003 2.5162556 1.2960445 0
5.6700006 2.5111327 1.2975706 0
5.6780005 2.5054941 1.2989269 0
5.6870003 2.500308 1.3004531 0
5.6960006 2.4950895 1.3019791 0
5.7050004 2.4898386 1.3035051 0
5.7130003 2.4840791 1.3048615 0
5.7220001 2.478765 1.3063875 0
5.7310004 2.4734187 1.3079137 0
5.7400002 2.4680395 1.3094395 0
5.7490005 2.4626284 1.3109657 0
5.7580004 2.4571843 1.3124917 0
5.7670002 2.4517078 1.3140177 0
5.7760005 2.4461992 1.3155437 0
5.7850003 2.4406579 1.3170698 0
5.7940001 2.4350839 1.3185956 0
5.8030005 2.4294779 1.3201218 0
5.8120003 2.4238391 1.3216478 0
5.8220005 2.4186227 1.3233434 0
5.8310003 2.4129171 1.3248694 0
5.8400002 2.4071791 1.3263954 0
5.8490005 2.4014089 1.3279215 0
5.8590002 2.3960533 1.3296169 0
5.8680005 2.3902161 1.3311431 0
5.8770003 2.3843465 1.332669 0
5.8870006 2.3788865 1.3343647 0
5.8960004 2.3729501 1.3358907 0
5.9060001 2.3674195 1.3375862 0
5.9150004 2.3614166 1.3391123 0
5.9250002 2.3558156 1.3408078 0
5.9340005 2.349746 1.3423339 0
5.9440002 2.3440747 1.3440293 0
5.9540005 2.3383675 1.3457251 0
5.9630003 2.3321967 1.3472509 0
5.9730005 2.3264194 1.3489467 0
5.9830003 2.3206053 1.3506421 0
5.9920006 2.3143337 1.3521683 0
5.5340004 2.6210964 1.26525 0
5.5250006 2.6071765 1.2637402 0
5.5260005 2.5984478 1.2639079 0
5.5340004 2.5933142 1.26525 0
5.5420003 2.5881515 1.2665919 0
5.5510001 2.5834708 1.2681017 0
5.5590005 2.578249 1.2694438 0
5.5670004 2.572998 1.2707858 0
5.5760002 2.5682232 1.2722956 0
5.5840001 2.5629127 1.2736375 0
5.5930004 2.558075 1.2751474 0
5.6010003 2.5527048 1.2764894 0
5.6090002 2.5473063 1.2778314 0
5.6180005 2.5423746 1.2793413 0
5.6270003 2.5374107 1.280851 0
5.6350002 2.5319214 1.2821931 0
5.6440005 2.5268946 1.2837029 0
5.6520004 2.5213459 1.2850449 0
5.6610003 2.5162556 1.2865547 0
5.6700006 2.5111327 1.2880645 0
5.6780005 2.5054941 1.2894065 0
5.6870003 2.500308 1.2909162 0
5.6960006 2.4950895 1.2924261 0
5.7050004 2.4898386 1.2939359 0
5.7130003 2.4840791 1.2952778 0
5.7220001 2.478765 1.2967876 0
5.7310004 2.4734187 1.2982974 0
5.7400002 2.4680395 1.2998073 0
5.7490005 2.4626284 1.3013171 0
5.7580004 2.4571843 1.3028269 0
5.7670002 2.4517078 1.3043365 0
5.7760005 2.4461992 1.3058465 0
5.7850003 2.4406579 1.3073562 0
5.7940001 2.4350839 1.3088659 0
5.8030005 2.4294779 1.3103758 0
5.8120003 2.4238391 1.3118855 0
5.8220005 2.4186227 1.3135631 0
5.8310003 2.4129171 1.3150729 0
5.8400002 2.4071791 1.3165827 0
5.8490005 2.4014089 1.3180925 0
5.8590002 2.3960533 1.31977 0
5.8680005 2.3902161 1.3212799 0
5.8770003 2.3843465 1.3227895 0
5.8870006 2.3788865 1.3244672 0
5.8960004 2.3729501 1.3259768 0
5.9060001 2.3674195 1.3276544 0
5.9150004 2.3614166 1.3291643 0
5.9250002 2.3558156 1.3308418 0
5.9340005 2.349746 1.3323516 0
5.9440002 2.3440747 1.3340292 0
5.9540005 2.3383675 1.3357067 0
5.9630003 2.3321967 1.3372164 0
5.9730005 2.3264194 1.338894 0
5.9830003 2.3206053 1.3405715 0
5.9920006 2.3143337 1.3420813 0
5.5340004 2.6210964 1.2559892 0
5.5250006 2.6071765 1.2544956 0
5.5260005 2.5984478 1.2546616 0
5.5340004 2.5933142 1.2559892 0
5.5420003 2.5881515 1.2573167 0
5.5510001 2.5834708 1.2588103 0
5.5590005 2.578249 1.2601379 0
5.5670004 2.572998 1.2614655 0
5.5760002 2.5682232 1.262959 0
5.5840001 2.5629127 1.2642866 0
5.5930004 2.558075 1.2657802 0
5.6010003 2.5527048 1.2671078 0
5.6090002 2.5473063 1.2684354 0
5.6180005 2.5423746 1.2699291 0
5.6270003 2.5374107 1.2714225 0
5.6350002 2.5319214 1.2727501 0
5.6440005 2.5268946 1.2742437 0
5.6520004 2.5213459 1.2755713 0
5.6610003 2.5162556 1.2770648 0
5.6700006 2.5111327 1.2785584 0
5.6780005 2.5054941 1.279886 0
5.6870003 2.500308 1.2813796 0
5.6960006 2.4950895 1.2828732 0
5.7050004 2.4898386 1.2843667 0
5.7130003 2.4840791 1.2856942 0
5.7220001 2.478765 1.2871878 0
5.7310004 2.4734187 1.2886814 0
5.7400002 2.4680395 1.290175 0
5.7490005 2.4626284 1.2916685 0
5.7580004 2.4571843 1.2931621 0
5.7670002 2.4517078 1.2946556 0
5.7760005 2.4461992 1.2961491 0
5.7850003 2.4406579 1.2976427 0
5.7940001 2.4350839 1.2991363 0
5.8030005 2.4294779 1.3006297 0
5.8120003 2.4238391 1.3021233 0
5.8220005 2.4186227 1.3037828 0
5.8310003 2.4129171 1.3052764 0
5.8400002 2.4071791 1.30677 0
5.8490005 2.4014089 1.3082635 0
5.8590002 2.3960533 1.3099229 0
5.8680005 2.3902161 1.3114166 0
5.8770003 2.3843465 1.3129101 0
5.8870006 2.3788865 1.3145697 0
5.8960004 2.3729501 1.3160632 0
5.9060001 2.3674195 1.3177227 0
5.9150004 2.3614166 1.3192163 0
5.9250002 2.3558156 1.3208758 0
5.9340005 2.349746 1.3223693 0
5.9440002 2.3440747 1.3240287 0
5.9540005 2.3383675 1.3256884 0
5.9630003 2.3321967 1.3271818 0
5.9730005 2.3264194 1.3288414 0
5.9830003 2.3206053 1.3305008 0
5.9920006 2.3143337 1.3319944 0
5.5340004 2.6210964 1.2467284 0
5.5250006 2.6071765 1.2452511 0
5.5260005 2.5984478 1.2454152 0
5.5340004 2.5933142 1.2467284 0
5.5420003 2.5881515 1.2480416 0
5.5510001 2.5834708 1.2495189 0
5.5590005 2.578249 1.2508321 0
5.5670004 2.572998 1.2521453 0
5.5760002 2.5682232 1.2536225 0
5.5840001 2.5629127 1.2549356 0
5.5930004 2.558075 1.256413 0
5.6010003 2.5527048 1.2577262 0
5.6090002 2.5473063 1.2590394 0
5.6180005 2.5423746 1.2605168 0
5.6270003 2.5374107 1.261994 0
5.6350002 2.5319214 1.2633072 0
5.6440005 2.5268946 1.2647846 0
5.6520004 2.5213459 1.2660977 0
5.6610003 2.5162556 1.267575 0
5.6700006 2.5111327 1.2690524 0
5.6780005 2.5054941 1.2703655 0
5.6870003 2.500308 1.2718428 0
5.6960006 2.4950895 1.2733202 0
5.7050004 2.4898386 1.2747974 0
5.7130003 2.4840791 1.2761106 0
5.7220001 2.478765 1.2775879 0
5.7310004 2.4734187 1.2790653 0
5.7400002 2.4680395 1.2805425 0
5.7490005 2.4626284 1.28202 0
5.7580004 2.4571843 1.2834972 0
5.7670002 2.4517078 1.2849745 0
5.7760005 2.4461992 1.2864519 0
5.7850003 2.4406579 1.2879292 0
5.7940001 2.4350839 1.2894064 0
5.8030005 2.4294779 1.2908839 0
5.8120003 2.4238391 1.2923611 0
5.8220005 2.4186227 1.2940027 0
5.8310003 2.4129171 1.2954799 0
5.8400002 2.4071791 1.2969573 0
5.8490005 2.4014089 1.2984346 0
5.8590002 2.3960533 1.300076 0
5.8680005 2.3902161 1.3015534 0
5.8770003 2.3843465 1.3030306 0
5.8870006 2.3788865 1.3046721 0
5.8960004 2.3729501 1.3061495 0
5.9060001 2.3674195 1.3077909 0
5.9150004 2.3614166 1.3092682 0
5.9250002 2.3558156 1.3109096 0
5.9340005 2.349746 1.312387 0
5.9440002 2.3440747 1.3140285 0
5.9540005 2.3383675 1.31567 0
5.9630003 2.3321967 1.3171473 0
5.9730005 2.3264194 1.3187888 0
5.9830003 2.3206053 1.3204302 0
5.9920006 2.3143337 1.3219075 0
5.5340004 2.6210964 1.2374676 0
5.5250006 2.6071765 1.2360066 0
5.5260005 2.5984478 1.2361689 0
5.5340004 2.5933142 1.2374676 0
5.5420003 2.5881515 1.2387664 0
5.5510001 2.5834708 1.2402275 0
5.5590005 2.578249 1.2415262 0
5.5670004 2.572998 1.2428249 0
5.5760002 2.5682232 1.2442859 0
5.5840001 2.5629127 1.2455847 0
5.5930004 2.558075 1.2470459 0
5.6010003 2.5527048 1.2483447 0
5.6090002 2.5473063 1.2496433 0
5.6180005 2.5423746 1.2511045 0
5.6270003 2.5374107 1.2525655 0
5.6350002 2.5319214 1.2538643 0
5.6440005 2.5268946 1.2553254 0
5.6520004 2.5213459 1.2566241 0
5.6610003 2.5162556 1.2580851 0
5.6700006 2.5111327 1.2595463 0
5.6780005 2.5054941 1.2608449 0
5.6870003 2.500308 1.2623061 0
5.6960006 2.4950895 1.2637672 0
5.7050004 2.4898386 1.2652283 0
5.7130003 2.4840791 1.2665269 0
5.7220001 2.478765 1.2679881 0
5.7310004 2.4734187 1.2694492 0
5.7400002 2.4680395 1.2709103 0
5.7490005 2.4626284 1.2723714 0
5.7580004 2.4571843 1.2738324 0
5.7670002 2.4517078 1.2752935 0
5.7760005 2.4461992 1.2767546 0
5.7850003 2.4406579 1.2782156 0
5.7940001 2.4350839 1.2796767 0
5.8030005 2.4294779 1.2811378 0
5.8120003 2.4238391 1.282599 0
5.8220005 2.4186227 1.2842224 0
5.8310003 2.4129171 1.2856834 0
5.8400002 2.4071791 1.2871445 0
5.8490005 2.4014089 1.2886056 0
5.8590002 2.3960533 1.290229 0
5.8680005 2.3902161 1.2916901 0
5.8770003 2.3843465 1.2931513 0
5.8870006 2.3788865 1.2947747 0
5.8960004 2.3729501 1.2962357 0
5.9060001 2.3674195 1.2978591 0
5.9150004 2.3614166 1.2993202 0
5.9250002 2.3558156 1.3009436 0
5.9340005 2.349746 1.3024048 0
5.9440002 2.3440747 1.3040282 0
5.9540005 2.3383675 1.3056517 0
5.9630003 2.3321967 1.3071127 0
5.9730005 2.3264194 1.3087361 0
5.9830003 2.3206053 1.3103596 0
5.9920006 2.3143337 1.3118206 0
5.5340004 2.6210964 1.2282069 0
5.5250006 2.6071765 1.2267621 0
5.5260005 2.5984478 1.2269226 0
5.5340004 2.5933142 1.2282069 0
5.5420003 2.5881515 1.2294912 0
5.5510001 2.5834708 1.2309361 0
5.5590005 2.578249 1.2322204 0
5.5670004 2.572998 1.2335047 0
5.5760002 2.5682232 1.2349495 0
5.5840001 2.5629127 1.2362338 0
5.5930004 2.558075 1.2376788 0
5.6010003 2.5527048 1.238963 0
5.6090002 2.5473063 1.2402472 0
5.6180005 2.5423746 1.2416922 0
5.6270003 2.5374107 1.243137 0
5.6350002 2.5319214 1.2444212 0
5.6440005 2.5268946 1.2458662 0
5.6520004 2.5213459 1.2471505 0
5.6610003 2.5162556 1.2485954 0
5.6700006 2.5111327 1.2500402 0
5.6780005 2.5054941 1.2513245 0
5.6870003 2.500308 1.2527694 0
5.6960006 2.4950895 1.2542143 0
5.7050004 2.4898386 1.2556591 0
5.7130003 2.4840791 1.2569433 0
5.7220001 2.478765 1.2583882 0
5.7310004 2.4734187 1.2598331 0
5.7400002 2.4680395 1.2612779 0
5.7490005 2.4626284 1.2627227 0
5.7580004 2.4571843 1.2641677 0
5.7670002 2.4517078 1.2656124 0
5.7760005 2.4461992 1.2670574 0
5.7850003 2.4406579 1.2685021 0
5.7940001 2.4350839 1.2699471 0
5.8030005 2.4294779 1.2713919 0
5.8120003 2.4238391 1.2728367 0
5.8220005 2.4186227 1.2744422 0
5.8310003 2.4129171 1.2758869 0
5.8400002 2.4071791 1.2773318 0
5.8490005 2.4014089 1.2787766 0
5.8590002 2.3960533 1.280382 0
5.8680005 2.3902161 1.281827 0
5.8770003 2.3843465 1.2832718 0
5.8870006 2.3788865 1.2848772 0
5.8960004 2.3729501 1.286322 0
5.9060001 2.3674195 1.2879273 0
5.9150004 2.3614166 1.2893722 0
5.9250002 2.3558156 1.2909776 0
5.9340005 2.349746 1.2924225 0
5.9440002 2.3440747 1.2940278 0
5.9540005 2.3383675 1.2956333 0
5.9630003 2.3321967 1.2970781 0
5.9730005 2.3264194 1.2986835 0
5.9830003 2.3206053 1.3002889 0
5.9920006 2.3143337 1.3017337 0
5.5340004 2.6210964 1.2189461 0
5.5250006 2.6071765 1.2175175 0
5.5260005 2.5984478 1.2176763 0
5.5340004 2.5933142 1.2189461 0
5.5420003 2.5881515 1.220216 0
5.5510001 2.5834708 1.2216446 0
5.5590005 2.578249 1.2229146 0
5.5670004 2.572998 1.2241844 0
5.5760002 2.5682232 1.225613 0
5.5840001 2.5629127 1.2268829 0
5.5930004 2.558075 1.2283115 0
5.6010003 2.5527048 1.2295814 0
5.6090002 2.5473063 1.2308513 0
5.6180005 2.5423746 1.2322799 0
5.6270003 2.5374107 1.2337085 0
5.6350002 2.5319214 1.2349784 0
5.6440005 2.5268946 1.236407 0
5.6520004 2.5213459 1.2376769 0
5.6610003 2.5162556 1.2391055 0
5.6700006 2.5111327 1.2405342 0
5.6780005 2.5054941 1.241804 0
5.6870003 2.500308 1.2432326 0
5.6960006 2.4950895 1.2446612 0
5.7050004 2.4898386 1.2460898 0
5.7130003 2.4840791 1.2473598 0
5.7220001 2.478765 1.2487884 0
5.7310004 2.4734187 1.250217 0
5.7400002 2.4680395 1.2516456 0
5.7490005 2.4626284 1.2530742 0
5.7580004 2.4571843 1.2545028 0
5.7670002 2.4517078 1.2559314 0
5.7760005 2.4461992 1.2573601 0
5.7850003 2.4406579 1.2587886 0
5.7940001 2.4350839 1.2602172 0
5.8030005 2.4294779 1.2616459 0
5.8120003 2.4238391 1.2630745 0
5.8220005 2.4186227 1.2646619 0
5.8310003 2.4129171 1.2660904 0
5.8400002 2.4071791 1.267519 0
5.8490005 2.4014089 1.2689477 0
5.8590002 2.3960533 1.270535 0
5.8680005 2.3902161 1.2719637 0
5.8770003 2.3843465 1.2733923 0
5.8870006 2.3788865 1.2749797 0
5.8960004 2.3729501 1.2764082 0
5.9060001 2.3674195 1.2779956 0
5.9150004 2.3614166 1.2794243 0
5.9250002 2.3558156 1.2810116 0
5.9340005 2.349746 1.2824402 0
5.9440002 2.3440747 1.2840276 0
5.9540005 2.3383675 1.285615 0
5.9630003 2.3321967 1.2870435 0
5.9730005 2.3264194 1.2886308 0
5.9830003 2.3206053 1.2902182 0
5.9920006 2.3143337 1.2916468 0
5.5340004 2.6210964 1.2096854 0
5.5250006 2.6071765 1.2082731 0
5.5260005 2.5984478 1.2084299 0
5.5340004 2.5933142 1.2096854 0
5.5420003 2.5881515 1.2109408 0
5.5510001 2.5834708 1.2123532 0
5.5590005 2.578249 1.2136087 0
5.5670004 2.572998 1.2148641 0
5.5760002 2.5682232 1.2162765 0
5.5840001 2.5629127 1.2175319 0
5.5930004 2.558075 1.2189443 0
5.6010003 2.5527048 1.2201998 0
5.6090002 2.5473063 1.2214552 0
5.6180005 2.5423746 1.2228676 0
5.6270003 2.5374107 1.22428 0
5.6350002 2.5319214 1.2255354 0
5.6440005 2.5268946 1.2269479 0
5.6520004 2.5213459 1.2282033 0
5.6610003 2.5162556 1.2296157 0
5.6700006 2.5111327 1.2310281 0
5.6780005 2.5054941 1.2322835 0
5.6870003 2.500308 1.2336959 0
5.6960006 2.4950895 1.2351083 0
5.7050004 2.4898386 1.2365206 0
5.7130003 2.4840791 1.237776 0
5.7220001 2.478765 1.2391884 0
5.7310004 2.4734187 1.2406008 0
5.7400002 2.4680395 1.2420132 0
5.7490005 2.4626284 1.2434256 0
5.7580004 2.4571843 1.244838 0
5.7670002 2.4517078 1.2462504 0
5.7760005 2.4461992 1.2476628 0
5.7850003 2.4406579 1.2490752 0
5.7940001 2.4350839 1.2504876 0
5.8030005 2.4294779 1.2519 0
5.8120003 2.4238391 1.2533123 0
5.8220005 2.4186227 1.2548816 0
5.8310003 2.4129171 1.256294 0
5.8400002 2.4071791 1.2577063 0
5.8490005 2.4014089 1.2591188 0
5.8590002 2.3960533 1.2606881 0
5.8680005 2.3902161 1.2621005 0
5.8770003 2.3843465 1.2635128 0
5.8870006 2.3788865 1.2650822 0
5.8960004 2.3729501 1.2664945 0
5.9060001 2.3674195 1.2680638 0
5.9150004 2.3614166 1.2694762 0
5.9250002 2.3558156 1.2710456 0
5.9340005 2.349746 1.272458 0
5.9440002 2.3440747 1.2740272 0
5.9540005 2.3383675 1.2755965 0
5.9630003 2.3321967 1.2770089 0
5.9730005 2.3264194 1.2785783 0
5.9830003 2.3206053 1.2801476 0
5.9920006 2.3143337 1.2815599 0
5.5340004 2.6210964 1.2004247 0
5.5250006 2.6071765 1.1990285 0
5.5260005 2.5984478 1.1991836 0
5.5340004 2.5933142 1.2004247 0
5.5420003 2.5881515 1.2016656 0
5.5510001 2.5834708 1.2030617 0
5.5590005 2.578249 1.2043029 0
5.5670004 2.572998 1.2055439 0
5.5760002 2.5682232 1.2069399 0
5.5840001 2.5629127 1.208181 0
5.5930004 2.558075 1.2095772 0
5.6010003 2.5527048 1.2108182 0
5.6090002 2.5473063 1.2120591 0
5.6180005 2.5423746 1.2134554 0
5.6270003 2.5374107 1.2148515 0
5.6350002 2.5319214 1.2160925 0
5.6440005 2.5268946 1.2174886 0
5.6520004 2.5213459 1.2187297 0
5.6610003 2.5162556 1.2201258 0
5.6700006 2.5111327 1.221522 0
5.6780005 2.5054941 1.2227629 0
5.6870003 2.500308 1.2241591 0
5.6960006 2.4950895 1.2255553 0
5.7050004 2.4898386 1.2269515 0
5.7130003 2.4840791 1.2281924 0
5.7220001 2.478765 1.2295886 0
5.7310004 2.4734187 1.2309848 0
5.7400002 2.4680395 1.2323809 0
5.7490005 2.4626284 1.233777 0
5.7580004 2.4571843 1.2351732 0
5.7670002 2.4517078 1.2365693 0
5.7760005 2.4461992 1.2379655 0
5.7850003 2.4406579 1.2393616 0
5.7940001 2.4350839 1.2407577 0
5.8030005 2.4294779 1.2421539 0
5.8120003 2.4238391 1.2435501 0
5.8220005 2.4186227 1.2451013 0
5.8310003 2.4129171 1.2464975 0
5.8400002 2.4071791 1.2478936 0
5.8490005 2.4014089 1.2492899 0
5.8590002 2.3960533 1.250841 0
5.8680005 2.3902161 1.2522373 0
5.8770003 2.3843465 1.2536334 0
5.8870006 2.3788865 1.2551847 0
5.8960004 2.3729501 1.2565808 0
5.9060001 2.3674195 1.258132 0
5.9150004 2.3614166 1.2595283 0
5.9250002 2.3558156 1.2610794 0
5.9340005 2.349746 1.2624757 0
5.9440002 2.3440747 1.2640269 0
5.9540005 2.3383675 1.2655783 0
5.9630003 2.3321967 1.2669743 0
5.9730005 2.3264194 1.2685256 0
5.9830003 2.3206053 1.2700769 0
5.9920006 2.3143337 1.2714731 0
5.5340004 2.6210964 1.1911639 0
5.5250006 2.6071765 1.189784 0
5.5260005 2.5984478 1.1899374 0
5.5340004 2.5933142 1.1911639 0
5.5420003 2.5881515 1.1923904 0
5.5510001 2.5834708 1.1937703 0
5.5590005 2.578249 1.1949971 0
5.5670004 2.572998 1.1962236 0
5.5760002 2.5682232 1.1976035 0
5.5840001 2.5629127 1.19883 0
5.5930004 2.558075 1.20021 0
5.6010003 2.5527048 1.2014365 0
5.6090002 2.5473063 1.2026632 0
5.6180005 2.5423746 1.2040431 0
5.6270003 2.5374107 1.205423 0
5.6350002 2.5319214 1.2066495 0
5.6440005 2.5268946 1.2080295 0
5.6520004 2.5213459 1.2092561 0
5.6610003 2.5162556 1.210636 0
5.6700006 2.5111327 1.212016 0
5.6780005 2.5054941 1.2132425 0
5.6870003 2.500308 1.2146224 0
5.6960006 2.4950895 1.2160023 0
5.7050004 2.4898386 1.2173822 0
5.7130003 2.4840791 1.2186089 0
5.7220001 2.478765 1.2199887 0
5.7310004 2.4734187 1.2213687 0
5.7400002 2.4680395 1.2227485 0
5.7490005 2.4626284 1.2241285 0
5.7580004 2.4571843 1.2255085 0
5.7670002 2.4517078 1.2268883 0
5.7760005 2.4461992 1.2282683 0
5.7850003 2.4406579 1.2296481 0
5.7940001 2.4350839 1.231028 0
5.8030005 2.4294779 1.232408 0
5.8120003 2.4238391 1.2337879 0
5.8220005 2.4186227 1.2353212 0
5.8310003 2.4129171 1.236701 0
5.8400002 2.4071791 1.2380809 0
5.8490005 2.4014089 1.2394608 0
5.8590002 2.3960533 1.2409941 0
5.8680005 2.3902161 1.2423741 0
5.8770003 2.3843465 1.2437539 0
5.8870006 2.3788865 1.2452872 0
5.8960004 2.3729501 1.2466671 0
5.9060001 2.3674195 1.2482003 0
5.9150004 2.3614166 1.2495803 0
5.9250002 2.3558156 1.2511134 0
5.9340005 2.349746 1.2524934 0
5.9440002 2.3440747 1.2540267 0
5.9540005 2.3383675 1.2555598 0
5.9630003 2.3321967 1.2569398 0
5.9730005 2.3264194 1.258473 0
5.9830003 2.3206053 1.2600062 0
5.9920006 2.3143337 1.2613862 0
5.5340004 2.6210964 1.1819031 0
5.5250006 2.6071765 1.1805395 0
5.5260005 2.5984478 1.180691 0
5.5340004 2.5933142 1.1819031 0
5.5420003 2.5881515 1.1831152 0
5.5510001 2.5834708 1.1844789 0
5.5590005 2.578249 1.1856911 0
5.5670004 2.572998 1.1869032 0
5.5760002 2.5682232 1.1882669 0
5.5840001 2.5629127 1.1894791 0
5.5930004 2.558075 1.1908429 0
5.6010003 2.5527048 1.192055 0
5.6090002 2.5473063 1.1932671 0
5.6180005 2.5423746 1.1946309 0
5.6270003 2.5374107 1.1959945 0
5.6350002 2.5319214 1.1972066 0
5.6440005 2.5268946 1.1985704 0
5.6520004 2.5213459 1.1997825 0
5.6610003 2.5162556 1.2011461 0
5.6700006 2.5111327 1.2025099 0
5.6780005 2.5054941 1.203722 0
5.6870003 2.500308 1.2050856 0
5.6960006 2.4950895 1.2064494 0
5.7050004 2.4898386 1.207813 0
5.7130003 2.4840791 1.2090251 0
5.7220001 2.478765 1.2103889 0
5.7310004 2.4734187 1.2117525 0
5.7400002 2.4680395 1.2131162 0
5.7490005 2.4626284 1.2144799 0
5.7580004 2.4571843 1.2158436 0
5.7670002 2.4517078 1.2172072 0
5.7760005 2.4461992 1.2185709 0
5.7850003 2.4406579 1.2199346 0
5.7940001 2.4350839 1.2212983 0
5.8030005 2.4294779 1.222662 0
5.8120003 2.4238391 1.2240256 0
5.8220005 2.4186227 1.2255409 0
5.8310003 2.4129171 1.2269045 0
5.8400002 2.4071791 1.2282681 0
5.8490005 2.4014089 1.2296319 0
5.8590002 2.3960533 1.2311471 0
5.8680005 2.3902161 1.2325108 0
5.8770003 2.3843465 1.2338744 0
5.8870006 2.3788865 1.2353897 0
5.8960004 2.3729501 1.2367533 0
5.9060001 2.3674195 1.2382685 0
5.9150004 2.3614166 1.2396322 0
5.9250002 2.3558156 1.2411474 0
5.9340005 2.349746 1.242511 0
5.9440002 2.3440747 1.2440263 0
5.9540005 2.3383675 1.2455416 0
5.9630003 2.3321967 1.2469052 0
5.9730005 2.3264194 1.2484205 0
5.9830003 2.3206053 1.2499355 0
5.9920006 2.3143337 1.2512993 0
5.5340004 2.6210964 1.1726425 0
5.5250006 2.6071765 1.1712949 0
5.5260005 2.5984478 1.1714447 0
5.5340004 2.5933142 1.1726425 0
5.5420003 2.5881515 1.17384 0
5.5510001 2.5834708 1.1751875 0
5.5590005 2.578249 1.1763853 0
5.5670004 2.572998 1.177583 0
5.5760002 2.5682232 1.1789304 0
5.5840001 2.5629127 1.1801282 0
5.5930004 2.558075 1.1814756 0
5.6010003 2.5527048 1.1826733 0
5.6090002 2.5473063 1.183871 0
5.6180005 2.5423746 1.1852186 0
5.6270003 2.5374107 1.186566 0
5.6350002 2.5319214 1.1877637 0
5.6440005 2.5268946 1.1891112 0
5.6520004 2.5213459 1.1903089 0
5.6610003 2.5162556 1.1916564 0
5.6700006 2.5111327 1.1930038 0
5.6780005 2.5054941 1.1942015 0
5.6870003 2.500308 1.1955489 0
5.6960006 2.4950895 1.1968964 0
5.7050004 2.4898386 1.1982439 0
5.7130003 2.4840791 1.1994416 0
5.7220001 2.478765 1.200789 0
5.7310004 2.4734187 1.2021364 0
5.7400002 2.4680395 1.2034838 0
5.7490005 2.4626284 1.2048314 0
5.7580004 2.4571843 1.2061788 0
5.7670002 2.4517078 1.2075262 0
5.7760005 2.4461992 1.2088737 0
5.7850003 2.4406579 1.2102212 0
5.7940001 2.4350839 1.2115685 0
5.8030005 2.4294779 1.212916 0
5.8120003 2.4238391 1.2142634 0
5.8220005 2.4186227 1.2157606 0
5.8310003 2.4129171 1.217108 0
5.8400002 2.4071791 1.2184556 0
5.8490005 2.4014089 1.219803 0
5.8590002 2.3960533 1.2213001 0
5.8680005 2.3902161 1.2226475 0
5.8770003 2.3843465 1.223995 0
5.8870006 2.3788865 1.2254922 0
5.8960004 2.3729501 1.2268397 0
5.9060001 2.3674195 1.2283368 0
5.9150004 2.3614166 1.2296842 0
5.9250002 2.3558156 1.2311814 0
5.9340005 2.349746 1.2325288 0
5.9440002 2.3440747 1.234026 0
5.9540005 2.3383675 1.2355231 0
5.9630003 2.3321967 1.2368705 0
5.9730005 2.3264194 1.2383678 0
5.9830003 2.3206053 1.2398648 0
5.9920006 2.3143337 1.2412124 0
5.5340004 2.6210964 1.1633817 0
5.5250006 2.6071765 1.1620505 0
5.5260005 2.5984478 1.1621983 0
5.5340004 2.5933142 1.1633817 0
5.5420003 2.5881515 1.164565 0
5.5510001 2.5834708 1.1658961 0
5.5590005 2.578249 1.1670794 0
5.5670004 2.572998 1.1682627 0
5.5760002 2.5682232 1.1695939 0
5.5840001 2.5629127 1.1707772 0
5.5930004 2.558075 1.1721084 0
5.6010003 2.5527048 1.1732918 0
5.6090002 2.5473063 1.1744751 0
5.6180005 2.5423746 1.1758063 0
5.6270003 2.5374107 1.1771375 0
5.6350002 2.5319214 1.1783208 0
5.6440005 2.5268946 1.179652 0
5.6520004 2.5213459 1.1808352 0
5.6610003 2.5162556 1.1821665 0
5.6700006 2.5111327 1.1834978 0
5.6780005 2.5054941 1.1846811 0
5.6870003 2.500308 1.1860123 0
5.6960006 2.4950895 1.1873435 0
5.7050004 2.4898386 1.1886746 0
5.7130003 2.4840791 1.189858 0
5.7220001 2.478765 1.1911891 0
5.7310004 2.4734187 1.1925204 0
5.7400002 2.4680395 1.1938516 0
5.7490005 2.4626284 1.1951828 0
5.7580004 2.4571843 1.196514 0
5.7670002 2.4517078 1.1978451 0
5.7760005 2.4461992 1.1991764 0
5.7850003 2.4406579 1.2005076 0
5.7940001 2.4350839 1.2018389 0
5.8030005 2.4294779 1.2031701 0
5.8120003 2.4238391 1.2045013 0
5.8220005 2.4186227 1.2059804 0
5.8310003 2.4129171 1.2073115 0
5.8400002 2.4071791 1.2086428 0
5.8490005 2.4014089 1.2099741 0
5.8590002 2.3960533 1.2114531 0
5.8680005 2.3902161 1.2127844 0
5.8770003 2.3843465 1.2141155 0
5.8870006 2.3788865 1.2155948 0
5.8960004 2.3729501 1.2169259 0
5.9060001 2.3674195 1.218405 0
5.9150004 2.3614166 1.2197362 0
5.9250002 2.3558156 1.2212154 0
5.9340005 2.349746 1.2225466 0
5.9440002 2.3440747 1.2240256 0
5.9540005 2.3383675 1.2255049 0
5.9630003 2.3321967 1.226836 0
5.9730005 2.3264194 1.2283151 0
5.9830003 2.3206053 1.2297943 0
5.9920006 2.3143337 1.2311255 0
5.5340004 2.6210964 1.1541209 0
5.5250006 2.6071765 1.1528059 0
5.5260005 2.5984478 1.1529521 0
5.5340004 2.5933142 1.1541209 0
5.5420003 2.5881515 1.1552898 0
5.5510001 2.5834708 1.1566046 0
5.5590005 2.578249 1.1577736 0
5.5670004 2.572998 1.1589425 0
5.5760002 2.5682232 1.1602575 0
5.5840001 2.5629127 1.1614263 0
5.5930004 2.558075 1.1627413 0
5.6010003 2.5527048 1.1639102 0
5.6090002 2.5473063 1.165079 0
5.6180005 2.5423746 1.166394 0
5.6270003 2.5374107 1.167709 0
5.6350002 2.5319214 1.1688778 0
5.6440005 2.5268946 1.1701928 0
5.6520004 2.5213459 1.1713617 0
5.6610003 2.5162556 1.1726767 0
5.6700006 2.5111327 1.1739917 0
5.6780005 2.5054941 1.1751605 0
5.6870003 2.500308 1.1764754 0
5.6960006 2.4950895 1.1777905 0
5.7050004 2.4898386 1.1791054 0
5.7130003 2.4840791 1.1802744 0
5.7220001 2.478765 1.1815892 0
5.7310004 2.4734187 1.1829042 0
5.7400002 2.4680395 1.1842192 0
5.7490005 2.4626284 1.1855342 0
5.7580004 2.4571843 1.1868491 0
5.7670002 2.4517078 1.1881641 0
5.7760005 2.4461992 1.1894791 0
5.7850003 2.4406579 1.1907941 0
5.7940001 2.4350839 1.1921091 0
5.8030005 2.4294779 1.1934241 0
5.8120003 2.4238391 1.194739 0
5.8220005 2.4186227 1.1962001 0
5.8310003 2.4129171 1.1975151 0
5.8400002 2.4071791 1.19883 0
5.8490005 2.4014089 1.200145 0
5.8590002 2.3960533 1.2016062 0
5.8680005 2.3902161 1.2029212 0
5.8770003 2.3843465 1.2042361 0
5.8870006 2.3788865 1.2056972 0
5.8960004 2.3729501 1.2070122 0
5.9060001 2.3674195 1.2084732 0
5.9150004 2.3614166 1.2097882 0
5.9250002 2.3558156 1.2112492 0
5.9340005 2.349746 1.2125642 0
5.9440002 2.3440747 1.2140254 0
5.9540005 2.3383675 1.2154864 0
5.9630003 2.3321967 1.2168014 0
5.9730005 2.3264194 1.2182626 0
5.9830003 2.3206053 1.2197236 0
5.9920006 2.3143337 1.2210386 0
5.5340004 2.6210964 1.1448601 0
5.5250006 2.6071765 1.1435614 0
5.5260005 2.5984478 1.1437057 0
5.5340004 2.5933142 1.1448601 0
5.5420003 2.5881515 1.1460146 0
5.5510001 2.5834708 1.1473134 0
5.5590005 2.578249 1.1484678 0
5.5670004 2.572998 1.1496222 0
5.5760002 2.5682232 1.1509209 0
5.5840001 2.5629127 1.1520753 0
5.5930004 2.558075 1.1533741 0
5.6010003 2.5527048 1.1545285 0
5.6090002 2.5473063 1.1556829 0
5.6180005 2.5423746 1.1569817 0
5.6260004 2.5369163 1.1581361 0
5.6350002 2.5319214 1.1594349 0
5.6440005 2.5268946 1.1607337 0
5.6520004 2.5213459 1.1618881 0
5.6610003 2.5162556 1.1631868 0
5.6700006 2.5111327 1.1644856 0
5.6780005 2.5054941 1.16564 0
5.6870003 2.500308 1.1669388 0
5.6960006 2.4950895 1.1682376 0
5.7050004 2.4898386 1.1695362 0
5.7130003 2.4840791 1.1706907 0
5.7220001 2.478765 1.1719894 0
5.7310004 2.4734187 1.1732882 0
5.7400002 2.4680395 1.1745869 0
5.7490005 2.4626284 1.1758857 0
5.7580004 2.4571843 1.1771843 0
5.7670002 2.4517078 1.1784831 0
5.7760005 2.4461992 1.1797818 0
5.7850003 2.4406579 1.1810806 0
5.7940001 2.4350839 1.1823794 0
5.8030005 2.4294779 1.183678 0
5.8120003 2.4238391 1.1849768 0
5.8220005 2.4186227 1.18642 0
5.8310003 2.4129171 1.1877186 0
5.8400002 2.4071791 1.1890173 0
5.8490005 2.4014089 1.1903162 0
5.8590002 2.3960533 1.1917591 0
5.8680005 2.3902161 1.1930579 0
5.8770003 2.3843465 1.1943567 0
5.8870006 2.3788865 1.1957997 0
5.8960004 2.3729501 1.1970984 0
5.9060001 2.3674195 1.1985414 0
5.9150004 2.3614166 1.1998402 0
5.9250002 2.3558156 1.2012832 0
5.9340005 2.349746 1.202582 0
5.9440002 2.3440747 1.204025 0
5.9540005 2.3383675 1.2054682 0
5.9630003 2.3321967 1.2067668 0
5.9730005 2.3264194 1.2082099 0
5.9830003 2.3206053 1.2096529 0
5.9920006 2.3143337 1.2109517 0
5.5340004 2.6210964 1.1355994 0
5.5250006 2.6071765 1.1343169 0
5.5260005 2.5984478 1.1344594 0
5.5340004 2.5933142 1.1355994 0
5.5420003 2.5881515 1.1367394 0
5.5510001 2.5834708 1.1380219 0
5.5590005 2.578249 1.1391619 0
5.5670004 2.572998 1.1403019 0
5.5760002 2.5682232 1.1415844 0
5.5840001 2.5629127 1.1427244 0
5.5930004 2.558075 1.144007 0
5.6010003 2.5527048 1.145147 0
5.6090002 2.5473063 1.146287 0
5.6180005 2.5423746 1.1475695 0
5.6260004 2.5369163 1.1487095 0
5.6350002 2.5319214 1.149992 0
5.6440005 2.5268946 1.1512744 0
5.6520004 2.5213459 1.1524144 0
5.6610003 2.5162556 1.153697 0
5.6700006 2.5111327 1.1549796 0
5.6780005 2.5054941 1.1561196 0
5.6870003 2.500308 1.157402 0
5.6960006 2.4950895 1.1586845 0
5.7050004 2.4898386 1.1599671 0
5.7130003 2.4840791 1.1611071 0
5.7220001 2.478765 1.1623895 0
5.7310004 2.4734187 1.1636721 0
5.7400002 2.4680395 1.1649545 0
5.7490005 2.4626284 1.1662371 0
5.7580004 2.4571843 1.1675196 0
5.7670002 2.4517078 1.168802 0
5.7760005 2.4461992 1.1700846 0
5.7850003 2.4406579 1.171367 0
5.7940001 2.4350839 1.1726496 0
5.8030005 2.4294779 1.1739322 0
5.8120003 2.4238391 1.1752145 0
5.8220005 2.4186227 1.1766397 0
5.8310003 2.4129171 1.1779221 0
5.8400002 2.4071791 1.1792046 0
5.8490005 2.4014089 1.1804872 0
5.8590002 2.3960533 1.1819122 0
5.8680005 2.3902161 1.1831948 0
5.8770003 2.3843465 1.1844772 0
5.8870006 2.3788865 1.1859022 0
5.8960004 2.3729501 1.1871847 0
5.9060001 2.3674195 1.1886096 0
5.9150004 2.3614166 1.1898922 0
5.9250002 2.3558156 1.1913172 0
5.9340005 2.349746 1.1925998 0
5.9440002 2.3440747 1.1940247 0
5.9540005 2.3383675 1.1954497 0
5.9630003 2.3321967 1.1967323 0
5.9730005 2.3264194 1.1981573 0
5.9830003 2.3206053 1.1995822 0
5.9920006 2.3143337 1.2008648 0
5.5340004 2.6210964 1.1263386 0
5.5250006 2.6071765 1.1250724 0
5.5260005 2.5984478 1.125213 0
5.5340004 2.5933142 1.1263386 0
5.5420003 2.5881515 1.1274642 0
5.5510001 2.5834708 1.1287304 0
5.5590005 2.578249 1.1298561 0
5.5670004 2.572998 1.1309817 0
5.5760002 2.5682232 1.1322478 0
5.5840001 2.5629127 1.1333734 0
5.5930004 2.558075 1.1346397 0
5.6010003 2.5527048 1.1357653 0
5.6090002 2.5473063 1.1368909 0
5.6180005 2.5423746 1.1381572 0
5.6260004 2.5369163 1.1392827 0
5.6350002 2.5319214 1.1405491 0
5.6440005 2.5268946 1.1418153 0
5.6520004 2.5213459 1.1429409 0
5.6610003 2.5162556 1.1442071 0
5.6700006 2.5111327 1.1454735 0
5.6780005 2.5054941 1.1465991 0
5.6870003 2.500308 1.1478653 0
5.6960006 2.4950895 1.1491315 0
5.7050004 2.4898386 1.1503979 0
5.7130003 2.4840791 1.1515234 0
5.7220001 2.478765 1.1527896 0
5.7310004 2.4734187 1.154056 0
5.7400002 2.4680395 1.1553222 0
5.7490005 2.4626284 1.1565886 0
5.7580004 2.4571843 1.1578548 0
5.7670002 2.4517078 1.159121 0
5.7760005 2.4461992 1.1603873 0
5.7850003 2.4406579 1.1616536 0
5.7940001 2.4350839 1.1629198 0
5.8030005 2.4294779 1.1641861 0
5.8120003 2.4238391 1.1654524 0
5.8220005 2.4186227 1.1668594 0
5.8310003 2.4129171 1.1681256 0
5.8400002 2.4071791 1.1693919 0
5.8490005 2.4014089 1.1706582 0
5.8590002 2.3960533 1.1720651 0
5.8680005 2.3902161 1.1733315 0
5.8770003 2.3843465 1.1745977 0
5.8870006 2.3788865 1.1760046 0
5.8960004 2.3729501 1.177271 0
5.9060001 2.3674195 1.1786779 0
5.9150004 2.3614166 1.1799442 0
5.9250002 2.3558156 1.1813512 0
5.9340005 2.349746 1.1826174 0
5.9440002 2.3440747 1.1840243 0
5.9540005 2.3383675 1.1854314 0
5.9630003 2.3321967 1.1866976 0
5.9730005 2.3264194 1.1881046 0
5.9830003 2.3206053 1.1895115 0
5.9920006 2.3143337 1.1907779 0
5.5340004 2.6210964 1.1170778 0
5.5250006 2.6071765 1.1158279 0
5.5260005 2.5984478 1.1159668 0
