# .PCD v0.7 - Point Cloud Data file format
VERSION 0.7
FIELDS x y z intensity
SIZE 4 4 4 4
TYPE F F F F
COUNT 1 1 1 1
WIDTH 1411
HEIGHT 1
VIEWPOINT 0 0 0 1 0 0 0
POINTS 1411
DATA ascii
2.1130002 -0.54965758 0.48742795 0
2.1120002 -0.55245167 0.48737925 0
2.1110001 -0.55524212 0.48733056 0
2.1100001 -0.558029 0.48728183 0
2.1090002 -0.56081229 0.48723313 0
2.108 -0.56359196 0.48718444 0
2.197 -0.40580022 0.48827755 0
2.194 -0.40843558 0.48813683 0
2.1910002 -0.41106012 0.48799616 0
2.1880002 -0.41367385 0.48785543 0
2.1850002 -0.41627672 0.48771477 0
2.1820002 -0.41886881 0.48757404 0
2.1790001 -0.42145005 0.48743337 0
2.1760001 -0.4240205 0.48729265 0
2.154 -0.42566556 0.48626089 0
2.1530001 -0.42861119 0.48621398 0
2.1520002 -0.43155321 0.48616707 0
2.151 -0.43449157 0.48612019 0
2.1500001 -0.43742639 0.48607329 0
2.1490002 -0.4403576 0.48602641 0
2.148 -0.44328514 0.4859795 0
2.1470001 -0.44620913 0.48593259 0
2.1460001 -0.44912949 0.48588568 0
2.1450002 -0.45204625 0.4858388 0
2.1420002 -0.45449042 0.4856981 0
2.1390002 -0.45692375 0.48555741 0
2.1370001 -0.45958439 0.48546362 0
2.1340001 -0.46199787 0.48532289 0
2.131 -0.46440053 0.4851822 0
2.128 -0.46679237 0.4850415 0
2.1260002 -0.46941873 0.48494771 0
2.1230001 -0.47179073 0.48480701 0
2.1200001 -0.47415191 0.48466632 0
2.1170001 -0.4765023 0.48452562 0
2.115 -0.47909436 0.4844318 0
2.1120002 -0.4814249 0.48429114 0
2.1090002 -0.48374456 0.48415044 0
2.1070001 -0.48631141 0.48405665 0
2.1040001 -0.48861128 0.48391593 0
2.1010001 -0.49090031 0.48377523 0
2.0990002 -0.49344185 0.48368144 0
2.0960002 -0.49571103 0.48354074 0
2.0940001 -0.49823639 0.48344696 0
2.0910001 -0.50048572 0.48330626 0
2.0880001 -0.50272423 0.48316556 0
2.0910001 -0.50658619 0.48330626 0
2.095 -0.51073313 0.48349383 0
2.098 -0.51461852 0.48363453 0
2.102 -0.51879251 0.48382214 0
2.1060002 -0.52298105 0.48400974 0
2.1090002 -0.52690244 0.48415044 0
2.1130002 -0.53111798 0.48433802 0
2.1170001 -0.53534788 0.48452562 0
2.1170001 -0.53844506 0.48452562 0
2.1160002 -0.54125357 0.48447871 0
2.115 -0.54405844 0.4844318 0
2.1140001 -0.54685986 0.48438492 0
2.1130002 -0.54965758 0.48433802 0
2.1120002 -0.55245167 0.48429114 0
2.1110001 -0.55524212 0.48424423 0
2.1100001 -0.558029 0.48419732 0
2.1090002 -0.56081229 0.48415044 0
2.108 -0.56359196 0.48410353 0
2.197 -0.40580022 0.4850361 0
2.194 -0.40843558 0.48490083 0
2.1910002 -0.41106012 0.48476553 0
2.1880002 -0.41367385 0.48463026 0
2.1850002 -0.41627672 0.48449495 0
2.1820002 -0.41886881 0.48435968 0
2.1790001 -0.42145005 0.48422438 0
2.1760001 -0.4240205 0.48408911 0
2.154 -0.42566556 0.48309702 0
2.1530001 -0.42861119 0.4830519 0
2.1520002 -0.43155321 0.48300683 0
2.151 -0.43449157 0.48296171 0
2.1500001 -0.43742639 0.48291662 0
2.1490002 -0.4403576 0.48287153 0
2.148 -0.44328514 0.48282644 0
2.1470001 -0.44620913 0.48278135 0
2.1460001 -0.44912949 0.48273623 0
2.1450002 -0.45204625 0.48269117 0
2.1420002 -0.45449042 0.48255587 0
2.1390002 -0.45692375 0.48242056 0
2.1370001 -0.45958439 0.48233038 0
2.1340001 -0.46199787 0.48219511 0
2.131 -0.46440053 0.48205981 0
2.128 -0.46679237 0.48192453 0
2.1260002 -0.46941873 0.48183435 0
2.1230001 -0.47179073 0.48169905 0
2.1200001 -0.47415191 0.48156375 0
2.1170001 -0.4765023 0.48142847 0
2.115 -0.47909436 0.48133829 0
2.1120002 -0.4814249 0.48120302 0
2.1090002 -0.48374456 0.48106772 0
2.1070001 -0.48631141 0.48097754 0
2.1040001 -0.48861128 0.48084223 0
2.1010001 -0.49090031 0.48070696 0
2.0990002 -0.49344185 0.48061678 0
2.0960002 -0.49571103 0.48048148 0
2.0940001 -0.49823639 0.48039129 0
2.0910001 -0.50048572 0.48025602 0
2.0880001 -0.50272423 0.48012072 0
2.0910001 -0.50658619 0.48025602 0
2.095 -0.51073313 0.48043638 0
2.098 -0.51461852 0.48057169 0
2.102 -0.51879251 0.48075205 0
2.1060002 -0.52298105 0.48093244 0
2.1090002 -0.52690244 0.48106772 0
2.1130002 -0.53111798 0.48124808 0
2.1170001 -0.53534788 0.48142847 0
2.1170001 -0.53844506 0.48142847 0
2.1160002 -0.54125357 0.48138338 0
2.115 -0.54405844 0.48133829 0
2.1140001 -0.54685986 0.4812932 0
2.1130002 -0.54965758 0.48124808 0
2.1120002 -0.55245167 0.48120302 0
2.1110001 -0.55524212 0.4811579 0
2.1100001 -0.558029 0.48111281 0
2.1090002 -0.56081229 0.48106772 0
2.108 -0.56359196 0.48102263 0
2.197 -0.40580022 0.48179466 0
2.194 -0.40843558 0.48166478 0
2.1910002 -0.41106012 0.4815349 0
2.1880002 -0.41367385 0.48140502 0
2.1850002 -0.41627672 0.48127517 0
2.1820002 -0.41886881 0.48114529 0
2.1790001 -0.42145005 0.48101541 0
2.1760001 -0.4240205 0.48088554 0
2.154 -0.42566556 0.47993311 0
2.1530001 -0.42861119 0.47988984 0
2.1520002 -0.43155321 0.47984654 0
2.151 -0.43449157 0.47980326 0
2.1500001 -0.43742639 0.47975996 0
2.1490002 -0.4403576 0.47971666 0
2.148 -0.44328514 0.47967339 0
2.1470001 -0.44620913 0.47963008 0
2.1460001 -0.44912949 0.47958678 0
2.1450002 -0.45204625 0.47954351 0
2.1420002 -0.45449042 0.47941363 0
2.1390002 -0.45692375 0.47928375 0
2.1370001 -0.45958439 0.47919717 0
2.1340001 -0.46199787 0.4790673 0
2.131 -0.46440053 0.47893742 0
2.128 -0.46679237 0.47880754 0
2.1260002 -0.46941873 0.47872096 0
2.1230001 -0.47179073 0.47859108 0
2.1200001 -0.47415191 0.47846121 0
2.1170001 -0.4765023 0.47833136 0
2.115 -0.47909436 0.47824475 0
2.1120002 -0.4814249 0.4781149 0
2.1090002 -0.48374456 0.47798502 0
2.1070001 -0.48631141 0.47789842 0
2.1040001 -0.48861128 0.47776854 0
2.1010001 -0.49090031 0.47763866 0
2.0990002 -0.49344185 0.47755209 0
2.0960002 -0.49571103 0.47742224 0
2.0940001 -0.49823639 0.47733563 0
2.0910001 -0.50048572 0.47720575 0
2.0880001 -0.50272423 0.47707587 0
2.0910001 -0.50658619 0.47720575 0
2.095 -0.51073313 0.47737893 0
2.098 -0.51461852 0.47750881 0
2.102 -0.51879251 0.47768196 0
2.1060002 -0.52298105 0.47785515 0
2.1090002 -0.52690244 0.47798502 0
2.1130002 -0.53111798 0.47815818 0
2.1170001 -0.53534788 0.47833136 0
2.1170001 -0.53844506 0.47833136 0
2.1160002 -0.54125357 0.47828805 0
2.115 -0.54405844 0.47824475 0
2.1140001 -0.54685986 0.47820148 0
2.1130002 -0.54965758 0.47815818 0
2.1120002 -0.55245167 0.4781149 0
2.1110001 -0.55524212 0.4780716 0
2.1100001 -0.558029 0.4780283 0
2.1090002 -0.56081229 0.47798502 0
2.108 -0.56359196 0.47794172 0
2.197 -0.40580022 0.47855321 0
2.194 -0.40843558 0.47842875 0
2.1910002 -0.41106012 0.4783043 0
2.1880002 -0.41367385 0.47817981 0
2.1850002 -0.41627672 0.47805536 0
2.1820002 -0.41886881 0.4779309 0
2.1790001 -0.42145005 0.47780645 0
2.1760001 -0.4240205 0.47768196 0
2.154 -0.42566556 0.47676924 0
2.1530001 -0.42861119 0.47672775 0
2.1520002 -0.43155321 0.47668627 0
2.151 -0.43449157 0.47664478 0
2.1500001 -0.43742639 0.4766033 0
2.1490002 -0.4403576 0.47656181 0
2.148 -0.44328514 0.47652033 0
2.1470001 -0.44620913 0.47647884 0
2.1460001 -0.44912949 0.47643733 0
2.1450002 -0.45204625 0.47639585 0
2.1420002 -0.45449042 0.47627139 0
2.1390002 -0.45692375 0.47614694 0
2.1370001 -0.45958439 0.47606397 0
2.1340001 -0.46199787 0.47593951 0
2.131 -0.46440053 0.47581503 0
2.128 -0.46679237 0.47569057 0
2.1260002 -0.46941873 0.4756076 0
2.1230001 -0.47179073 0.47548312 0
2.1200001 -0.47415191 0.47535866 0
2.1170001 -0.4765023 0.47523421 0
2.115 -0.47909436 0.47515124 0
2.1120002 -0.4814249 0.47502679 0
2.1090002 -0.48374456 0.4749023 0
2.1070001 -0.48631141 0.47481933 0
2.1040001 -0.48861128 0.47469485 0
2.1010001 -0.49090031 0.47457039 0
2.0990002 -0.49344185 0.47448742 0
2.0960002 -0.49571103 0.47436297 0
2.0940001 -0.49823639 0.47428 0
2.0910001 -0.50048572 0.47415555 0
2.0880001 -0.50272423 0.47403106 0
2.0910001 -0.50658619 0.47415555 0
2.095 -0.51073313 0.47432148 0
2.098 -0.51461852 0.47444594 0
2.102 -0.51879251 0.47461188 0
2.1060002 -0.52298105 0.47477785 0
2.1090002 -0.52690244 0.4749023 0
2.1130002 -0.53111798 0.47506827 0
2.1170001 -0.53534788 0.47523421 0
2.1170001 -0.53844506 0.47523421 0
2.1160002 -0.54125357 0.47519273 0
2.115 -0.54405844 0.47515124 0
2.1140001 -0.54685986 0.47510976 0
2.1130002 -0.54965758 0.47506827 0
2.1120002 -0.55245167 0.47502679 0
2.1110001 -0.55524212 0.47498527 0
2.1100001 -0.558029 0.47494379 0
2.1090002 -0.56081229 0.4749023 0
2.108 -0.56359196 0.47486082 0
2.197 -0.40580022 0.47531176 0
2.194 -0.40843558 0.47519273 0
2.1910002 -0.41106012 0.47507367 0
2.1880002 -0.41367385 0.47495461 0
2.1850002 -0.41627672 0.47483557 0
2.1820002 -0.41886881 0.47471651 0
2.1790001 -0.42145005 0.47459745 0
2.1760001 -0.4240205 0.47447842 0
2.154 -0.42566556 0.47360536 0
2.1530001 -0.42861119 0.4735657 0
2.1520002 -0.43155321 0.473526 0
2.151 -0.43449157 0.4734863 0
2.1500001 -0.43742639 0.47344664 0
2.1490002 -0.4403576 0.47340694 0
2.148 -0.44328514 0.47336727 0
2.1470001 -0.44620913 0.47332758 0
2.1460001 -0.44912949 0.47328788 0
2.1450002 -0.45204625 0.47324821 0
2.1420002 -0.45449042 0.47312915 0
2.1390002 -0.45692375 0.47301012 0
2.1370001 -0.45958439 0.47293073 0
2.1340001 -0.46199787 0.4728117 0
2.131 -0.46440053 0.47269264 0
2.128 -0.46679237 0.47257358 0
2.1260002 -0.46941873 0.47249421 0
2.1230001 -0.47179073 0.47237515 0
2.1200001 -0.47415191 0.47225612 0
2.1170001 -0.4765023 0.47213706 0
2.115 -0.47909436 0.4720577 0
2.1120002 -0.4814249 0.47193864 0
2.1090002 -0.48374456 0.47181961 0
2.1070001 -0.48631141 0.47174025 0
2.1040001 -0.48861128 0.47162119 0
2.1010001 -0.49090031 0.47150213 0
2.0990002 -0.49344185 0.47142276 0
2.0960002 -0.49571103 0.4713037 0
2.0940001 -0.49823639 0.47122434 0
2.0910001 -0.50048572 0.47110528 0
2.0880001 -0.50272423 0.47098625 0
2.0910001 -0.50658619 0.47110528 0
2.095 -0.51073313 0.471264 0
2.098 -0.51461852 0.47138309 0
2.102 -0.51879251 0.47154182 0
2.1060002 -0.52298105 0.47170055 0
2.1090002 -0.52690244 0.47181961 0
2.1130002 -0.53111798 0.47197834 0
2.1170001 -0.53534788 0.47213706 0
2.1170001 -0.53844506 0.47213706 0
2.1160002 -0.54125357 0.4720974 0
2.115 -0.54405844 0.4720577 0
2.1140001 -0.54685986 0.472018 0
2.1130002 -0.54965758 0.47197834 0
2.1120002 -0.55245167 0.47193864 0
2.1110001 -0.55524212 0.47189897 0
2.1100001 -0.558029 0.47185928 0
2.1090002 -0.56081229 0.47181961 0
2.108 -0.56359196 0.47177991 0
2.197 -0.40580022 0.47207034 0
2.194 -0.40843558 0.47195667 0
2.1910002 -0.41106012 0.47184306 0
2.1880002 -0.41367385 0.4717294 0
2.1850002 -0.41627672 0.47161576 0
2.1820002 -0.41886881 0.47150213 0
2.1790001 -0.42145005 0.47138849 0
2.1760001 -0.4240205 0.47127485 0
2.154 -0.42566556 0.47044149 0
2.1530001 -0.42861119 0.47040361 0
2.1520002 -0.43155321 0.47036573 0
2.151 -0.43449157 0.47032785 0
2.1500001 -0.43742639 0.47028998 0
2.1490002 -0.4403576 0.4702521 0
2.148 -0.44328514 0.47021419 0
2.1470001 -0.44620913 0.47017634 0
2.1460001 -0.44912949 0.47013843 0
2.1450002 -0.45204625 0.47010058 0
2.1420002 -0.45449042 0.46998692 0
2.1390002 -0.45692375 0.46987328 0
2.1370001 -0.45958439 0.46979752 0
2.1340001 -0.46199787 0.46968389 0
2.131 -0.46440053 0.46957025 0
2.128 -0.46679237 0.46945661 0
2.1260002 -0.46941873 0.46938086 0
2.1230001 -0.47179073 0.46926722 0
2.1200001 -0.47415191 0.46915355 0
2.1170001 -0.4765023 0.46903992 0
2.115 -0.47909436 0.46896416 0
2.1120002 -0.4814249 0.46885052 0
2.1090002 -0.48374456 0.46873689 0
2.1070001 -0.48631141 0.46866113 0
2.1040001 -0.48861128 0.46854749 0
2.1010001 -0.49090031 0.46843386 0
2.0990002 -0.49344185 0.4683581 0
2.0960002 -0.49571103 0.46824443 0
2.0940001 -0.49823639 0.46816868 0
2.0910001 -0.50048572 0.46805504 0
2.0880001 -0.50272423 0.4679414 0
2.0910001 -0.50658619 0.46805504 0
2.095 -0.51073313 0.46820658 0
2.098 -0.51461852 0.46832019 0
2.102 -0.51879251 0.46847174 0
2.1060002 -0.52298105 0.46862325 0
2.1090002 -0.52690244 0.46873689 0
2.1130002 -0.53111798 0.4688884 0
2.1170001 -0.53534788 0.46903992 0
2.1170001 -0.53844506 0.46903992 0
2.1160002 -0.54125357 0.46900207 0
2.115 -0.54405844 0.46896416 0
2.1140001 -0.54685986 0.46892628 0
2.1130002 -0.54965758 0.4688884 0
2.1120002 -0.55245167 0.46885052 0
2.1110001 -0.55524212 0.46881264 0
2.1100001 -0.558029 0.46877477 0
2.1090002 -0.56081229 0.46873689 0
2.108 -0.56359196 0.46869901 0
2.197 -0.40580022 0.46882889 0
2.194 -0.40843558 0.46872064 0
2.1910002 -0.41106012 0.46861243 0
2.1880002 -0.41367385 0.46850419 0
2.1850002 -0.41627672 0.46839595 0
2.1820002 -0.41886881 0.46828774 0
2.1790001 -0.42145005 0.46817952 0
2.1760001 -0.4240205 0.46807128 0
2.154 -0.42566556 0.46727762 0
2.1530001 -0.42861119 0.46724153 0
2.1520002 -0.43155321 0.46720546 0
2.151 -0.43449157 0.46716937 0
2.1500001 -0.43742639 0.46713331 0
2.1490002 -0.4403576 0.46709722 0
2.148 -0.44328514 0.46706116 0
2.1470001 -0.44620913 0.46702507 0
2.1460001 -0.44912949 0.46698898 0
2.1450002 -0.45204625 0.46695292 0
2.1420002 -0.45449042 0.46684471 0
2.1390002 -0.45692375 0.46673647 0
2.1370001 -0.45958439 0.46666431 0
2.1340001 -0.46199787 0.46655607 0
2.131 -0.46440053 0.46644786 0
2.128 -0.46679237 0.46633962 0
2.1260002 -0.46941873 0.46626747 0
2.1230001 -0.47179073 0.46615922 0
2.1200001 -0.47415191 0.46605101 0
2.1170001 -0.4765023 0.4659428 0
2.115 -0.47909436 0.46587062 0
2.1120002 -0.4814249 0.46576241 0
2.1090002 -0.48374456 0.46565416 0
2.1070001 -0.48631141 0.46558204 0
2.1040001 -0.48861128 0.4654738 0
2.1010001 -0.49090031 0.46536556 0
2.0990002 -0.49344185 0.46529341 0
2.0960002 -0.49571103 0.4651852 0
2.0940001 -0.49823639 0.46511304 0
2.0910001 -0.50048572 0.4650048 0
2.0880001 -0.50272423 0.46489659 0
2.0910001 -0.50658619 0.4650048 0
2.095 -0.51073313 0.4651491 0
2.098 -0.51461852 0.46525735 0
2.102 -0.51879251 0.46540165 0
2.1060002 -0.52298105 0.46554595 0
2.1090002 -0.52690244 0.46565416 0
2.1130002 -0.53111798 0.4657985 0
2.1170001 -0.53534788 0.4659428 0
2.1170001 -0.53844506 0.4659428 0
2.1160002 -0.54125357 0.46590671 0
2.115 -0.54405844 0.46587062 0
2.1140001 -0.54685986 0.46583456 0
2.1130002 -0.54965758 0.4657985 0
2.1120002 -0.55245167 0.46576241 0
2.1110001 -0.55524212 0.46572632 0
2.1100001 -0.558029 0.46569026 0
2.1090002 -0.56081229 0.46565416 0
2.108 -0.56359196 0.4656181 0
2.197 -0.40580022 0.46558744 0
2.194 -0.40843558 0.46548462 0
2.1910002 -0.41106012 0.4653818 0
2.1880002 -0.41367385 0.46527898 0
2.1850002 -0.41627672 0.46517617 0
2.1820002 -0.41886881 0.46507335 0
2.1790001 -0.42145005 0.46497053 0
2.1760001 -0.4240205 0.46486771 0
2.154 -0.42566556 0.46411371 0
2.1530001 -0.42861119 0.46407947 0
2.1520002 -0.43155321 0.46404517 0
2.151 -0.43449157 0.46401089 0
2.1500001 -0.43742639 0.46397665 0
2.1490002 -0.4403576 0.46394238 0
2.148 -0.44328514 0.46390811 0
2.1470001 -0.44620913 0.4638738 0
2.1460001 -0.44912949 0.46383953 0
2.1450002 -0.45204625 0.46380529 0
2.1420002 -0.45449042 0.46370247 0
2.1390002 -0.45692375 0.46359965 0
2.1370001 -0.45958439 0.46353111 0
2.1340001 -0.46199787 0.46342829 0
2.131 -0.46440053 0.46332547 0
2.128 -0.46679237 0.46322265 0
2.1260002 -0.46941873 0.46315411 0
2.1230001 -0.47179073 0.46305129 0
2.1200001 -0.47415191 0.46294847 0
2.1170001 -0.4765023 0.46284565 0
2.115 -0.47909436 0.46277711 0
2.1120002 -0.4814249 0.46267429 0
2.1090002 -0.48374456 0.46257147 0
2.1070001 -0.48631141 0.46250293 0
2.1040001 -0.48861128 0.46240011 0
2.1010001 -0.49090031 0.46229729 0
2.0990002 -0.49344185 0.46222875 0
2.0960002 -0.49571103 0.46212593 0
2.0940001 -0.49823639 0.46205738 0
2.0910001 -0.50048572 0.46195456 0
2.0880001 -0.50272423 0.46185175 0
2.0910001 -0.50658619 0.46195456 0
2.095 -0.51073313 0.46209165 0
2.098 -0.51461852 0.46219447 0
2.102 -0.51879251 0.46233156 0
2.1060002 -0.52298105 0.46246865 0
2.1090002 -0.52690244 0.46257147 0
2.1130002 -0.53111798 0.46270856 0
2.1170001 -0.53534788 0.46284565 0
2.1170001 -0.53844506 0.46284565 0
2.1160002 -0.54125357 0.46281138 0
2.115 -0.54405844 0.46277711 0
2.1140001 -0.54685986 0.46274284 0
2.1130002 -0.54965758 0.46270856 0
2.1120002 -0.55245167 0.46267429 0
2.1110001 -0.55524212 0.46264002 0
2.1100001 -0.558029 0.46260574 0
2.1090002 -0.56081229 0.46257147 0
2.108 -0.56359196 0.4625372 0
2.197 -0.40580022 0.46234599 0
2.194 -0.40843558 0.46224859 0
2.1910002 -0.41106012 0.46215117 0
2.1880002 -0.41367385 0.46205378 0
2.1850002 -0.41627672 0.46195638 0
2.1820002 -0.41886881 0.46185896 0
2.1790001 -0.42145005 0.46176156 0
2.1760001 -0.4240205 0.46166417 0
2.154 -0.42566556 0.46094984 0
2.1530001 -0.42861119 0.46091738 0
2.1520002 -0.43155321 0.4608849 0
2.151 -0.43449157 0.46085244 0
2.1500001 -0.43742639 0.46081996 0
2.1490002 -0.4403576 0.4607875 0
2.148 -0.44328514 0.46075505 0
2.1470001 -0.44620913 0.46072257 0
2.1460001 -0.44912949 0.46069011 0
2.1450002 -0.45204625 0.46065763 0
2.1420002 -0.45449042 0.46056023 0
2.1390002 -0.45692375 0.46046281 0
2.1370001 -0.45958439 0.4603979 0
2.1340001 -0.46199787 0.46030048 0
2.131 -0.46440053 0.46020308 0
2.128 -0.46679237 0.46010566 0
2.1260002 -0.46941873 0.46004072 0
2.1230001 -0.47179073 0.45994332 0
2.1200001 -0.47415191 0.4598459 0
2.1170001 -0.4765023 0.45974851 0
2.115 -0.47909436 0.45968357 0
2.1120002 -0.4814249 0.45958617 0
2.1090002 -0.48374456 0.45948875 0
2.1070001 -0.48631141 0.45942384 0
2.1040001 -0.48861128 0.45932642 0
2.1010001 -0.49090031 0.45922902 0
2.0990002 -0.49344185 0.45916408 0
2.0960002 -0.49571103 0.45906669 0
2.0940001 -0.49823639 0.45900172 0
2.0910001 -0.50048572 0.45890433 0
2.0880001 -0.50272423 0.45880693 0
2.0910001 -0.50658619 0.45890433 0
2.095 -0.51073313 0.4590342 0
2.098 -0.51461852 0.4591316 0
2.102 -0.51879251 0.45926148 0
2.1060002 -0.52298105 0.45939136 0
2.1090002 -0.52690244 0.45948875 0
2.1130002 -0.53111798 0.45961863 0
2.1170001 -0.53534788 0.45974851 0
2.1170001 -0.53844506 0.45974851 0
2.1160002 -0.54125357 0.45971605 0
2.115 -0.54405844 0.45968357 0
2.1140001 -0.54685986 0.45965111 0
2.1130002 -0.54965758 0.45961863 0
2.1120002 -0.55245167 0.45958617 0
2.1110001 -0.55524212 0.45955369 0
2.1100001 -0.558029 0.45952123 0
2.1090002 -0.56081229 0.45948875 0
2.108 -0.56359196 0.45945629 0
2.197 -0.40580022 0.45910454 0
2.194 -0.40843558 0.45901257 0
2.1910002 -0.41106012 0.45892057 0
2.1880002 -0.41367385 0.45882857 0
2.1850002 -0.41627672 0.45873657 0
2.1820002 -0.41886881 0.45864457 0
2.1790001 -0.42145005 0.4585526 0
2.1760001 -0.4240205 0.4584606 0
2.154 -0.42566556 0.45778596 0
2.1530001 -0.42861119 0.4577553 0
2.1520002 -0.43155321 0.45772463 0
2.151 -0.43449157 0.45769396 0
2.1500001 -0.43742639 0.4576633 0
2.1490002 -0.4403576 0.45763266 0
2.148 -0.44328514 0.45760196 0
2.1470001 -0.44620913 0.45757133 0
2.1460001 -0.44912949 0.45754066 0
2.1450002 -0.45204625 0.45750999 0
2.1420002 -0.45449042 0.45741799 0
2.1390002 -0.45692375 0.45732599 0
2.1370001 -0.45958439 0.45726466 0
2.1340001 -0.46199787 0.45717266 0
2.131 -0.46440053 0.45708069 0
2.128 -0.46679237 0.45698869 0
2.1260002 -0.46941873 0.45692736 0
2.1230001 -0.47179073 0.45683536 0
2.1200001 -0.47415191 0.45674336 0
2.1170001 -0.4765023 0.45665139 0
2.115 -0.47909436 0.45659006 0
2.1120002 -0.4814249 0.45649806 0
2.1090002 -0.48374456 0.45640606 0
2.1070001 -0.48631141 0.45634472 0
2.1040001 -0.48861128 0.45625272 0
2.1010001 -0.49090031 0.45616072 0
2.0990002 -0.49344185 0.45609939 0
2.0960002 -0.49571103 0.45600742 0
2.0940001 -0.49823639 0.45594609 0
2.0910001 -0.50048572 0.45585409 0
2.0880001 -0.50272423 0.45576209 0
2.0910001 -0.50658619 0.45585409 0
2.095 -0.51073313 0.45597675 0
2.098 -0.51461852 0.45606875 0
2.102 -0.51879251 0.45619139 0
2.1060002 -0.52298105 0.45631406 0
2.1090002 -0.52690244 0.45640606 0
2.1130002 -0.53111798 0.45652872 0
2.1170001 -0.53534788 0.45665139 0
2.1170001 -0.53844506 0.45665139 0
2.1160002 -0.54125357 0.45662069 0
2.115 -0.54405844 0.45659006 0
2.1140001 -0.54685986 0.45655939 0
2.1130002 -0.54965758 0.45652872 0
2.1120002 -0.55245167 0.45649806 0
2.1110001 -0.55524212 0.45646739 0
2.1100001 -0.558029 0.45643672 0
2.1090002 -0.56081229 0.45640606 0
2.108 -0.56359196 0.45637539 0
2.197 -0.40580022 0.45586312 0
2.194 -0.40843558 0.45577651 0
2.1910002 -0.41106012 0.45568994 0
2.1880002 -0.41367385 0.45560336 0
2.1850002 -0.41627672 0.45551679 0
2.1820002 -0.41886881 0.45543021 0
2.1790001 -0.42145005 0.4553436 0
2.1760001 -0.4240205 0.45525703 0
2.154 -0.42566556 0.45462209 0
2.1530001 -0.42861119 0.45459324 0
2.1520002 -0.43155321 0.45456436 0
2.151 -0.43449157 0.45453551 0
2.1500001 -0.43742639 0.45450664 0
2.1490002 -0.4403576 0.45447779 0
2.148 -0.44328514 0.45444891 0
2.1470001 -0.44620913 0.45442006 0
2.1460001 -0.44912949 0.45439121 0
2.1450002 -0.45204625 0.45436233 0
2.1420002 -0.45449042 0.45427576 0
2.1390002 -0.45692375 0.45418918 0
2.1370001 -0.45958439 0.45413145 0
2.1340001 -0.46199787 0.45404488 0
2.131 -0.46440053 0.45395827 0
2.128 -0.46679237 0.4538717 0
2.1260002 -0.46941873 0.45381397 0
2.1230001 -0.47179073 0.45372739 0
2.1200001 -0.47415191 0.45364082 0
2.1170001 -0.4765023 0.45355424 0
2.115 -0.47909436 0.45349652 0
2.1120002 -0.4814249 0.45340994 0
2.1090002 -0.48374456 0.45332333 0
2.1070001 -0.48631141 0.45326564 0
2.1040001 -0.48861128 0.45317903 0
2.1010001 -0.49090031 0.45309246 0
2.0990002 -0.49344185 0.45303473 0
2.0960002 -0.49571103 0.45294815 0
2.0940001 -0.49823639 0.45289043 0
2.0910001 -0.50048572 0.45280385 0
2.0880001 -0.50272423 0.45271727 0
2.0910001 -0.50658619 0.45280385 0
2.095 -0.51073313 0.4529193 0
2.098 -0.51461852 0.45300588 0
2.102 -0.51879251 0.4531213 0
2.1060002 -0.52298105 0.45323676 0
2.1090002 -0.52690244 0.45332333 0
2.1130002 -0.53111798 0.45343879 0
2.1170001 -0.53534788 0.45355424 0
2.1170001 -0.53844506 0.45355424 0
2.1160002 -0.54125357 0.45352536 0
2.115 -0.54405844 0.45349652 0
2.1140001 -0.54685986 0.45346767 0
2.1130002 -0.54965758 0.45343879 0
2.1120002 -0.55245167 0.45340994 0
2.1110001 -0.55524212 0.45338106 0
2.1100001 -0.558029 0.45335221 0
2.1090002 -0.56081229 0.45332333 0
2.108 -0.56359196 0.45329449 0
2.197 -0.40580022 0.45262167 0
2.194 -0.40843558 0.45254049 0
2.1910002 -0.41106012 0.45245934 0
2.1880002 -0.41367385 0.45237815 0
2.1850002 -0.41627672 0.45229697 0
2.1820002 -0.41886881 0.45221582 0
2.1790001 -0.42145005 0.45213464 0
2.1760001 -0.4240205 0.45205346 0
2.154 -0.42566556 0.45145822 0
2.1530001 -0.42861119 0.45143116 0
2.1520002 -0.43155321 0.45140409 0
2.151 -0.43449157 0.45137703 0
2.1500001 -0.43742639 0.45134997 0
2.1490002 -0.4403576 0.45132291 0
2.148 -0.44328514 0.45129585 0
2.1470001 -0.44620913 0.45126882 0
2.1460001 -0.44912949 0.45124176 0
2.1450002 -0.45204625 0.4512147 0
2.1420002 -0.45449042 0.45113352 0
2.1390002 -0.45692375 0.45105237 0
2.1370001 -0.45958439 0.45099825 0
2.1340001 -0.46199787 0.45091707 0
2.131 -0.46440053 0.45083588 0
2.128 -0.46679237 0.45075473 0
2.1260002 -0.46941873 0.45070061 0
2.1230001 -0.47179073 0.45061943 0
2.1200001 -0.47415191 0.45053828 0
2.1170001 -0.4765023 0.4504571 0
2.115 -0.47909436 0.45040298 0
2.1120002 -0.4814249 0.45032182 0
2.1090002 -0.48374456 0.45024064 0
2.1070001 -0.48631141 0.45018652 0
2.1040001 -0.48861128 0.45010537 0
2.1010001 -0.49090031 0.45002419 0
2.0990002 -0.49344185 0.44997007 0
2.0960002 -0.49571103 0.44988889 0
2.0940001 -0.49823639 0.44983479 0
2.0910001 -0.50048572 0.44975361 0
2.0880001 -0.50272423 0.44967243 0
2.0910001 -0.50658619 0.44975361 0
2.095 -0.51073313 0.44986182 0
2.098 -0.51461852 0.44994301 0
2.102 -0.51879251 0.45005125 0
2.1060002 -0.52298105 0.45015946 0
2.1090002 -0.52690244 0.45024064 0
2.1130002 -0.53111798 0.45034885 0
2.1170001 -0.53534788 0.4504571 0
2.1170001 -0.53844506 0.4504571 0
2.1160002 -0.54125357 0.45043004 0
2.115 -0.54405844 0.45040298 0
2.1140001 -0.54685986 0.45037591 0
2.1130002 -0.54965758 0.45034885 0
2.1120002 -0.55245167 0.45032182 0
2.1110001 -0.55524212 0.45029476 0
2.1100001 -0.558029 0.4502677 0
2.1090002 -0.56081229 0.45024064 0
2.108 -0.56359196 0.45021358 0
2.197 -0.40580022 0.44938022 0
2.194 -0.40843558 0.44930446 0
2.1910002 -0.41106012 0.4492287 0
2.1880002 -0.41367385 0.44915295 0
2.1850002 -0.41627672 0.44907719 0
2.1820002 -0.41886881 0.44900143 0
2.1790001 -0.42145005 0.44892567 0
2.1760001 -0.4240205 0.44884992 0
2.154 -0.42566556 0.44829434 0
2.1530001 -0.42861119 0.44826907 0
2.1520002 -0.43155321 0.44824383 0
2.151 -0.43449157 0.44821855 0
2.1500001 -0.43742639 0.44819331 0
2.1490002 -0.4403576 0.44816807 0
2.148 -0.44328514 0.4481428 0
2.1470001 -0.44620913 0.44811755 0
2.1460001 -0.44912949 0.44809231 0
2.1450002 -0.45204625 0.44806704 0
2.1420002 -0.45449042 0.44799128 0
2.1390002 -0.45692375 0.44791552 0
2.1370001 -0.45958439 0.44786501 0
2.1340001 -0.46199787 0.44778925 0
2.131 -0.46440053 0.44771349 0
2.128 -0.46679237 0.44763774 0
2.1260002 -0.46941873 0.44758725 0
2.1230001 -0.47179073 0.44751146 0
2.1200001 -0.47415191 0.44743571 0
2.1170001 -0.4765023 0.44735995 0
2.115 -0.47909436 0.44730943 0
2.1120002 -0.4814249 0.44723368 0
2.1090002 -0.48374456 0.44715792 0
2.1070001 -0.48631141 0.44710743 0
2.1040001 -0.48861128 0.44703168 0
2.1010001 -0.49090031 0.44695592 0
2.0990002 -0.49344185 0.4469054 0
2.0960002 -0.49571103 0.44682965 0
2.0940001 -0.49823639 0.44677913 0
2.0910001 -0.50048572 0.44670337 0
2.0880001 -0.50272423 0.44662762 0
2.0910001 -0.50658619 0.44670337 0
2.095 -0.51073313 0.44680437 0
2.098 -0.51461852 0.44688013 0
2.102 -0.51879251 0.44698116 0
2.1060002 -0.52298105 0.44708216 0
2.1090002 -0.52690244 0.44715792 0
2.1130002 -0.53111798 0.44725895 0
2.1170001 -0.53534788 0.44735995 0
2.1170001 -0.53844506 0.44735995 0
2.1160002 -0.54125357 0.44733471 0
2.115 -0.54405844 0.44730943 0
2.1140001 -0.54685986 0.44728419 0
2.1130002 -0.54965758 0.44725895 0
2.1120002 -0.55245167 0.44723368 0
2.1110001 -0.55524212 0.44720843 0
2.1100001 -0.558029 0.44718319 0
2.1090002 -0.56081229 0.44715792 0
2.108 -0.56359196 0.44713268 0
2.197 -0.40580022 0.44613877 0
2.194 -0.40843558 0.44606844 0
2.1910002 -0.41106012 0.44599807 0
2.1880002 -0.41367385 0.44592774 0
2.1850002 -0.41627672 0.44585738 0
2.1820002 -0.41886881 0.44578704 0
2.1790001 -0.42145005 0.44571668 0
2.1760001 -0.4240205 0.44564635 0
2.154 -0.42566556 0.44513044 0
2.1530001 -0.42861119 0.44510701 0
2.1520002 -0.43155321 0.44508356 0
2.151 -0.43449157 0.4450601 0
2.1500001 -0.43742639 0.44503665 0
2.1490002 -0.4403576 0.4450132 0
2.148 -0.44328514 0.44498974 0
2.1470001 -0.44620913 0.44496632 0
2.1460001 -0.44912949 0.44494286 0
2.1450002 -0.45204625 0.44491941 0
2.1420002 -0.45449042 0.44484904 0
2.1390002 -0.45692375 0.44477871 0
2.1370001 -0.45958439 0.4447318 0
2.1340001 -0.46199787 0.44466147 0
2.131 -0.46440053 0.4445911 0
2.128 -0.46679237 0.44452077 0
2.1260002 -0.46941873 0.44447386 0
2.1230001 -0.47179073 0.44440353 0
2.1200001 -0.47415191 0.44433317 0
2.1170001 -0.4765023 0.4442628 0
2.115 -0.47909436 0.44421592 0
2.1120002 -0.4814249 0.44414556 0
2.1090002 -0.48374456 0.44407523 0
2.1070001 -0.48631141 0.44402832 0
2.1040001 -0.48861128 0.44395798 0
2.1010001 -0.49090031 0.44388762 0
2.0990002 -0.49344185 0.44384074 0
2.0960002 -0.49571103 0.44377038 0
2.0940001 -0.49823639 0.44372347 0
2.0910001 -0.50048572 0.44365314 0
2.0880001 -0.50272423 0.44358277 0
2.0910001 -0.50658619 0.44365314 0
2.095 -0.51073313 0.44374692 0
2.098 -0.51461852 0.44381729 0
2.102 -0.51879251 0.44391108 0
2.1060002 -0.52298105 0.44400486 0
2.1090002 -0.52690244 0.44407523 0
2.1130002 -0.53111798 0.44416901 0
2.1170001 -0.53534788 0.4442628 0
2.1170001 -0.53844506 0.4442628 0
2.1160002 -0.54125357 0.44423938 0
2.115 -0.54405844 0.44421592 0
2.1140001 -0.54685986 0.44419247 0
2.1130002 -0.54965758 0.44416901 0
2.1120002 -0.55245167 0.44414556 0
2.1110001 -0.55524212 0.44412214 0
2.1100001 -0.558029 0.44409868 0
2.1090002 -0.56081229 0.44407523 0
2.108 -0.56359196 0.44405177 0
2.197 -0.40580022 0.44289732 0
2.194 -0.40843558 0.44283241 0
2.1910002 -0.41106012 0.44276747 0
2.1880002 -0.41367385 0.44270253 0
2.1850002 -0.41627672 0.44263759 0
2.1820002 -0.41886881 0.44257265 0
2.1790001 -0.42145005 0.44250771 0
2.1760001 -0.4240205 0.44244277 0
2.154 -0.42566556 0.44196656 0
2.1530001 -0.42861119 0.44194493 0
2.1520002 -0.43155321 0.44192329 0
2.151 -0.43449157 0.44190162 0
2.1500001 -0.43742639 0.44187999 0
2.1490002 -0.4403576 0.44185835 0
2.148 -0.44328514 0.44183668 0
2.1470001 -0.44620913 0.44181505 0
2.1460001 -0.44912949 0.44179341 0
2.1450002 -0.45204625 0.44177175 0
2.1420002 -0.45449042 0.44170684 0
2.1390002 -0.45692375 0.44164187 0
2.1370001 -0.45958439 0.44159859 0
2.1340001 -0.46199787 0.44153365 0
2.131 -0.46440053 0.44146872 0
2.128 -0.46679237 0.44140378 0
2.1260002 -0.46941873 0.4413605 0
2.1230001 -0.47179073 0.44129556 0
2.1200001 -0.47415191 0.44123062 0
2.1170001 -0.4765023 0.44116569 0
2.115 -0.47909436 0.44112238 0
2.1120002 -0.4814249 0.44105744 0
2.1090002 -0.48374456 0.4409925 0
2.1070001 -0.48631141 0.44094923 0
2.1040001 -0.48861128 0.44088429 0
2.1010001 -0.49090031 0.44081935 0
2.0990002 -0.49344185 0.44077605 0
2.0960002 -0.49571103 0.44071111 0
2.0940001 -0.49823639 0.44066784 0
2.0910001 -0.50048572 0.4406029 0
2.0880001 -0.50272423 0.44053796 0
2.0910001 -0.50658619 0.4406029 0
2.095 -0.51073313 0.44068947 0
2.098 -0.51461852 0.44075441 0
2.102 -0.51879251 0.44084099 0
2.1060002 -0.52298105 0.44092757 0
2.1090002 -0.52690244 0.4409925 0
2.1130002 -0.53111798 0.44107908 0
2.1170001 -0.53534788 0.44116569 0
2.1170001 -0.53844506 0.44116569 0
2.1160002 -0.54125357 0.44114405 0
2.115 -0.54405844 0.44112238 0
2.1140001 -0.54685986 0.44110075 0
2.1130002 -0.54965758 0.44107908 0
2.1120002 -0.55245167 0.44105744 0
2.1110001 -0.55524212 0.44103581 0
2.1100001 -0.558029 0.44101417 0
2.1090002 -0.56081229 0.4409925 0
2.108 -0.56359196 0.44097087 0
2.197 -0.40580022 0.4396559 0
2.194 -0.40843558 0.43959635 0
2.1910002 -0.41106012 0.43953684 0
2.1880002 -0.41367385 0.43947732 0
2.1850002 -0.41627672 0.43941778 0
2.1820002 -0.41886881 0.43935826 0
2.1790001 -0.42145005 0.43929875 0
2.1760001 -0.4240205 0.4392392 0
2.154 -0.42566556 0.43880269 0
2.1530001 -0.42861119 0.43878284 0
2.1520002 -0.43155321 0.43876302 0
2.151 -0.43449157 0.43874317 0
2.1500001 -0.43742639 0.43872333 0
2.1490002 -0.4403576 0.43870348 0
2.148 -0.44328514 0.43868363 0
2.1470001 -0.44620913 0.43866378 0
2.1460001 -0.44912949 0.43864396 0
2.1450002 -0.45204625 0.43862411 0
2.1420002 -0.45449042 0.4385646 0
2.1390002 -0.45692375 0.43850505 0
2.1370001 -0.45958439 0.43846539 0
2.1340001 -0.46199787 0.43840584 0
2.131 -0.46440053 0.43834633 0
2.128 -0.46679237 0.43828681 0
2.1260002 -0.46941873 0.43824711 0
2.1230001 -0.47179073 0.4381876 0
2.1200001 -0.47415191 0.43812805 0
2.1170001 -0.4765023 0.43806854 0
2.115 -0.47909436 0.43802884 0
2.1120002 -0.4814249 0.43796933 0
2.1090002 -0.48374456 0.43790981 0
2.1070001 -0.48631141 0.43787012 0
2.1040001 -0.48861128 0.4378106 0
2.1010001 -0.49090031 0.43775105 0
2.0990002 -0.49344185 0.43771139 0
2.0960002 -0.49571103 0.43765187 0
2.0940001 -0.49823639 0.43761218 0
2.0910001 -0.50048572 0.43755266 0
2.0880001 -0.50272423 0.43749312 0
2.0910001 -0.50658619 0.43755266 0
2.095 -0.51073313 0.43763202 0
2.098 -0.51461852 0.43769154 0
2.102 -0.51879251 0.4377709 0
2.1060002 -0.52298105 0.43785027 0
2.1090002 -0.52690244 0.43790981 0
2.1130002 -0.53111798 0.43798918 0
2.1170001 -0.53534788 0.43806854 0
2.1170001 -0.53844506 0.43806854 0
2.1160002 -0.54125357 0.43804869 0
2.115 -0.54405844 0.43802884 0
2.1140001 -0.54685986 0.43800902 0
2.1130002 -0.54965758 0.43798918 0
2.1120002 -0.55245167 0.43796933 0
2.1110001 -0.55524212 0.43794948 0
2.1100001 -0.558029 0.43792966 0
2.1090002 -0.56081229 0.43790981 0
2.108 -0.56359196 0.43788996 0
2.197 -0.40580022 0.43641445 0
2.194 -0.40843558 0.43636033 0
2.1910002 -0.41106012 0.43630621 0
2.1880002 -0.41367385 0.43625212 0
2.1850002 -0.41627672 0.436198 0
2.1820002 -0.41886881 0.43614388 0
2.1790001 -0.42145005 0.43608975 0
2.1760001 -0.4240205 0.43603566 0
2.154 -0.42566556 0.43563882 0
2.1530001 -0.42861119 0.43562078 0
2.1520002 -0.43155321 0.43560272 0
2.151 -0.43449157 0.43558469 0
2.1500001 -0.43742639 0.43556666 0
2.1490002 -0.4403576 0.43554863 0
2.148 -0.44328514 0.43553057 0
2.1470001 -0.44620913 0.43551254 0
2.1460001 -0.44912949 0.43549451 0
2.1450002 -0.45204625 0.43547648 0
2.1420002 -0.45449042 0.43542236 0
2.1390002 -0.45692375 0.43536824 0
2.1370001 -0.45958439 0.43533218 0
2.1340001 -0.46199787 0.43527806 0
2.131 -0.46440053 0.43522394 0
2.128 -0.46679237 0.43516982 0
2.1260002 -0.46941873 0.43513376 0
2.1230001 -0.47179073 0.43507963 0
2.1200001 -0.47415191 0.43502551 0
2.1170001 -0.4765023 0.43497139 0
2.115 -0.47909436 0.43493533 0
2.1120002 -0.4814249 0.43488121 0
2.1090002 -0.48374456 0.43482709 0
2.1070001 -0.48631141 0.43479103 0
2.1040001 -0.48861128 0.43473691 0
2.1010001 -0.49090031 0.43468279 0
2.0990002 -0.49344185 0.43464673 0
2.0960002 -0.49571103 0.4345926 0
2.0940001 -0.49823639 0.43455651 0
2.0910001 -0.50048572 0.43450242 0
2.0880001 -0.50272423 0.4344483 0
2.0910001 -0.50658619 0.43450242 0
2.095 -0.51073313 0.43457457 0
2.098 -0.51461852 0.43462867 0
2.102 -0.51879251 0.43470082 0
2.1060002 -0.52298105 0.43477297 0
2.1090002 -0.52690244 0.43482709 0
2.1130002 -0.53111798 0.43489924 0
2.1170001 -0.53534788 0.43497139 0
2.1170001 -0.53844506 0.43497139 0
2.1160002 -0.54125357 0.43495336 0
2.115 -0.54405844 0.43493533 0
2.1140001 -0.54685986 0.4349173 0
2.1130002 -0.54965758 0.43489924 0
2.1120002 -0.55245167 0.43488121 0
2.1110001 -0.55524212 0.43486318 0
2.1100001 -0.558029 0.43484515 0
2.1090002 -0.56081229 0.43482709 0
2.108 -0.56359196 0.43480906 0
2.197 -0.40580022 0.433173 0
2.194 -0.40843558 0.4331243 0
2.1910002 -0.41106012 0.43307561 0
2.1880002 -0.41367385 0.43302691 0
2.1850002 -0.41627672 0.43297818 0
2.1820002 -0.41886881 0.43292949 0
2.1790001 -0.42145005 0.43288079 0
2.1760001 -0.4240205 0.43283209 0
2.154 -0.42566556 0.43247494 0
2.1530001 -0.42861119 0.4324587 0
2.1520002 -0.43155321 0.43244246 0
2.151 -0.43449157 0.43242621 0
2.1500001 -0.43742639 0.43241 0
2.1490002 -0.4403576 0.43239376 0
2.148 -0.44328514 0.43237752 0
2.1470001 -0.44620913 0.4323613 0
2.1460001 -0.44912949 0.43234506 0
2.1450002 -0.45204625 0.43232882 0
2.1420002 -0.45449042 0.43228012 0
2.1390002 -0.45692375 0.43223143 0
2.1370001 -0.45958439 0.43219894 0
2.1340001 -0.46199787 0.43215024 0
2.131 -0.46440053 0.43210155 0
2.128 -0.46679237 0.43205285 0
2.1260002 -0.46941873 0.43202037 0
2.1230001 -0.47179073 0.43197167 0
2.1200001 -0.47415191 0.43192297 0
2.1170001 -0.4765023 0.43187428 0
2.115 -0.47909436 0.43184179 0
2.1120002 -0.4814249 0.43179309 0
2.1090002 -0.48374456 0.4317444 0
2.1070001 -0.48631141 0.43171191 0
2.1040001 -0.48861128 0.43166322 0
2.1010001 -0.49090031 0.43161452 0
2.0990002 -0.49344185 0.43158203 0
2.0960002 -0.49571103 0.43153334 0
2.0940001 -0.49823639 0.43150088 0
2.0910001 -0.50048572 0.43145218 0
2.0880001 -0.50272423 0.43140346 0
2.0910001 -0.50658619 0.43145218 0
2.095 -0.51073313 0.43151709 0
2.098 -0.51461852 0.43156582 0
2.102 -0.51879251 0.43163076 0
2.1060002 -0.52298105 0.4316957 0
2.1090002 -0.52690244 0.4317444 0
2.1130002 -0.53111798 0.43180934 0
2.1170001 -0.53534788 0.43187428 0
2.1170001 -0.53844506 0.43187428 0
2.1160002 -0.54125357 0.43185803 0
2.115 -0.54405844 0.43184179 0
2.1140001 -0.54685986 0.43182555 0
2.1130002 -0.54965758 0.43180934 0
2.1120002 -0.55245167 0.43179309 0
2.1110001 -0.55524212 0.43177685 0
2.1100001 -0.558029 0.43176061 0
2.1090002 -0.56081229 0.4317444 0
2.108 -0.56359196 0.43172815 0
2.197 -0.40580022 0.42993155 0
2.194 -0.40843558 0.42988828 0
2.1910002 -0.41106012 0.42984498 0
2.1880002 -0.41367385 0.4298017 0
2.1850002 -0.41627672 0.4297584 0
2.1820002 -0.41886881 0.4297151 0
2.1790001 -0.42145005 0.42967182 0
2.1760001 -0.4240205 0.42962852 0
2.154 -0.42566556 0.42931104 0
2.1530001 -0.42861119 0.42929661 0
2.1520002 -0.43155321 0.42928219 0
2.151 -0.43449157 0.42926776 0
2.1500001 -0.43742639 0.42925334 0
2.1490002 -0.4403576 0.42923889 0
2.148 -0.44328514 0.42922446 0
2.1470001 -0.44620913 0.42921004 0
2.1460001 -0.44912949 0.42919561 0
2.1450002 -0.45204625 0.42918119 0
2.1420002 -0.45449042 0.42913789 0
2.1390002 -0.45692375 0.42909458 0
2.1370001 -0.45958439 0.42906573 0
2.1340001 -0.46199787 0.42902243 0
2.131 -0.46440053 0.42897916 0
2.128 -0.46679237 0.42893586 0
2.1260002 -0.46941873 0.42890701 0
2.1230001 -0.47179073 0.4288637 0
2.1200001 -0.47415191 0.4288204 0
2.1170001 -0.4765023 0.42877713 0
2.115 -0.47909436 0.42874825 0
2.1120002 -0.4814249 0.42870498 0
2.1090002 -0.48374456 0.42866167 0
2.1070001 -0.48631141 0.42863283 0
2.1040001 -0.48861128 0.42858952 0
2.1010001 -0.49090031 0.42854625 0
2.0990002 -0.49344185 0.42851737 0
2.0960002 -0.49571103 0.42847407 0
2.0940001 -0.49823639 0.42844522 0
2.0910001 -0.50048572 0.42840195 0
2.0880001 -0.50272423 0.42835864 0
2.0910001 -0.50658619 0.42840195 0
2.095 -0.51073313 0.42845964 0
2.098 -0.51461852 0.42850295 0
2.102 -0.51879251 0.42856067 0
2.1060002 -0.52298105 0.4286184 0
2.1090002 -0.52690244 0.42866167 0
2.1130002 -0.53111798 0.4287194 0
2.1170001 -0.53534788 0.42877713 0
2.1170001 -0.53844506 0.42877713 0
2.1160002 -0.54125357 0.4287627 0
2.115 -0.54405844 0.42874825 0
2.1140001 -0.54685986 0.42873383 0
2.1130002 -0.54965758 0.4287194 0
2.1120002 -0.55245167 0.42870498 0
2.1110001 -0.55524212 0.42869055 0
2.1100001 -0.558029 0.4286761 0
2.1090002 -0.56081229 0.42866167 0
2.108 -0.56359196 0.42864725 0
2.197 -0.40580022 0.42669013 0
2.194 -0.40843558 0.42665225 0
2.1910002 -0.41106012 0.42661434 0
2.1880002 -0.41367385 0.42657647 0
2.1850002 -0.41627672 0.42653859 0
2.1820002 -0.41886881 0.42650071 0
2.1790001 -0.42145005 0.42646283 0
2.1760001 -0.4240205 0.42642495 0
2.154 -0.42566556 0.42614716 0
2.1530001 -0.42861119 0.42613456 0
2.1520002 -0.43155321 0.42612192 0
2.151 -0.43449157 0.42610928 0
2.1500001 -0.43742639 0.42609668 0
2.1490002 -0.4403576 0.42608404 0
2.148 -0.44328514 0.42607141 0
2.1470001 -0.44620913 0.4260588 0
2.1460001 -0.44912949 0.42604616 0
2.1450002 -0.45204625 0.42603353 0
2.1420002 -0.45449042 0.42599565 0
2.1390002 -0.45692375 0.42595777 0
2.1370001 -0.45958439 0.42593253 0
2.1340001 -0.46199787 0.42589465 0
2.131 -0.46440053 0.42585677 0
2.128 -0.46679237 0.42581889 0
2.1260002 -0.46941873 0.42579362 0
2.1230001 -0.47179073 0.42575574 0
2.1200001 -0.47415191 0.42571786 0
2.1170001 -0.4765023 0.42567998 0
2.115 -0.47909436 0.42565474 0
2.1120002 -0.4814249 0.42561686 0
2.1090002 -0.48374456 0.42557898 0
2.1070001 -0.48631141 0.42555371 0
2.1040001 -0.48861128 0.42551583 0
2.1010001 -0.49090031 0.42547795 0
2.0990002 -0.49344185 0.42545271 0
2.0960002 -0.49571103 0.42541483 0
2.0940001 -0.49823639 0.42538959 0
2.0910001 -0.50048572 0.42535168 0
2.0880001 -0.50272423 0.4253138 0
2.0910001 -0.50658619 0.42535168 0
2.095 -0.51073313 0.42540219 0
2.098 -0.51461852 0.42544007 0
2.102 -0.51879251 0.42549059 0
2.1060002 -0.52298105 0.4255411 0
2.1090002 -0.52690244 0.42557898 0
2.1130002 -0.53111798 0.42562947 0
2.1170001 -0.53534788 0.42567998 0
2.1170001 -0.53844506 0.42567998 0
2.1160002 -0.54125357 0.42566735 0
2.115 -0.54405844 0.42565474 0
2.1140001 -0.54685986 0.4256421 0
2.1130002 -0.54965758 0.42562947 0
2.1120002 -0.55245167 0.42561686 0
2.1110001 -0.55524212 0.42560422 0
2.1100001 -0.558029 0.42559159 0
2.1090002 -0.56081229 0.42557898 0
2.108 -0.56359196 0.42556635 0
2.197 -0.40580022 0.42344868 0
2.194 -0.40843558 0.4234162 0
2.1910002 -0.41106012 0.42338374 0
2.1880002 -0.41367385 0.42335126 0
2.1850002 -0.41627672 0.4233188 0
2.1820002 -0.41886881 0.42328632 0
2.1790001 -0.42145005 0.42325386 0
2.1760001 -0.4240205 0.42322141 0
2.154 -0.42566556 0.42298329 0
2.1530001 -0.42861119 0.42297247 0
2.1520002 -0.43155321 0.42296165 0
2.151 -0.43449157 0.42295083 0
2.1500001 -0.43742639 0.42294002 0
2.1490002 -0.4403576 0.42292917 0
2.148 -0.44328514 0.42291835 0
2.1470001 -0.44620913 0.42290753 0
2.1460001 -0.44912949 0.42289671 0
2.1450002 -0.45204625 0.42288589 0
2.1420002 -0.45449042 0.42285341 0
2.1390002 -0.45692375 0.42282096 0
2.1370001 -0.45958439 0.42279929 0
2.1340001 -0.46199787 0.42276683 0
2.131 -0.46440053 0.42273438 0
2.128 -0.46679237 0.4227019 0
2.1260002 -0.46941873 0.42268026 0
2.1230001 -0.47179073 0.42264777 0
2.1200001 -0.47415191 0.42261532 0
2.1170001 -0.4765023 0.42258283 0
2.115 -0.47909436 0.4225612 0
2.1120002 -0.4814249 0.42252874 0
2.1090002 -0.48374456 0.42249626 0
2.1070001 -0.48631141 0.42247462 0
2.1040001 -0.48861128 0.42244214 0
2.1010001 -0.49090031 0.42240968 0
2.0990002 -0.49344185 0.42238805 0
2.0960002 -0.49571103 0.42235556 0
2.0940001 -0.49823639 0.42233393 0
2.0910001 -0.50048572 0.42230144 0
2.0880001 -0.50272423 0.42226899 0
2.0910001 -0.50658619 0.42230144 0
2.095 -0.51073313 0.42234474 0
2.098 -0.51461852 0.4223772 0
2.102 -0.51879251 0.4224205 0
2.1060002 -0.52298105 0.4224638 0
2.1090002 -0.52690244 0.42249626 0
2.1130002 -0.53111798 0.42253956 0
2.1170001 -0.53534788 0.42258283 0
2.1170001 -0.53844506 0.42258283 0
2.1160002 -0.54125357 0.42257202 0
2.115 -0.54405844 0.4225612 0
2.1140001 -0.54685986 0.42255038 0
2.1130002 -0.54965758 0.42253956 0
2.1120002 -0.55245167 0.42252874 0
2.1110001 -0.55524212 0.4225179 0
2.1100001 -0.558029 0.42250708 0
2.1090002 -0.56081229 0.42249626 0
2.108 -0.56359196 0.42248544 0
2.197 -0.40580022 0.42020723 0
2.194 -0.40843558 0.42018017 0
2.1910002 -0.41106012 0.42015311 0
2.1880002 -0.41367385 0.42012605 0
2.1850002 -0.41627672 0.42009899 0
2.1820002 -0.41886881 0.42007196 0
2.1790001 -0.42145005 0.4200449 0
2.1760001 -0.4240205 0.42001784 0
2.154 -0.42566556 0.41981941 0
2.1530001 -0.42861119 0.41981038 0
2.1520002 -0.43155321 0.41980138 0
2.151 -0.43449157 0.41979235 0
2.1500001 -0.43742639 0.41978332 0
2.1490002 -0.4403576 0.41977432 0
2.148 -0.44328514 0.41976529 0
2.1470001 -0.44620913 0.41975629 0
2.1460001 -0.44912949 0.41974726 0
2.1450002 -0.45204625 0.41973823 0
2.1420002 -0.45449042 0.41971117 0
2.1390002 -0.45692375 0.41968411 0
2.1370001 -0.45958439 0.41966608 0
2.1340001 -0.46199787 0.41963902 0
2.131 -0.46440053 0.41961196 0
2.128 -0.46679237 0.41958493 0
2.1260002 -0.46941873 0.41956687 0
2.1230001 -0.47179073 0.41953981 0
2.1200001 -0.47415191 0.41951278 0
2.1170001 -0.4765023 0.41948572 0
2.115 -0.47909436 0.41946766 0
2.1120002 -0.4814249 0.41944063 0
2.1090002 -0.48374456 0.41941357 0
2.1070001 -0.48631141 0.41939551 0
2.1040001 -0.48861128 0.41936845 0
2.1010001 -0.49090031 0.41934142 0
2.0990002 -0.49344185 0.41932335 0
2.0960002 -0.49571103 0.41929629 0
2.0940001 -0.49823639 0.41927826 0
2.0910001 -0.50048572 0.4192512 0
2.0880001 -0.50272423 0.41922414 0
2.0910001 -0.50658619 0.4192512 0
2.095 -0.51073313 0.41928729 0
2.098 -0.51461852 0.41931435 0
2.102 -0.51879251 0.41935042 0
2.1060002 -0.52298105 0.41938651 0
2.1090002 -0.52690244 0.41941357 0
2.1130002 -0.53111798 0.41944963 0
2.1170001 -0.53534788 0.41948572 0
2.1170001 -0.53844506 0.41948572 0
2.1160002 -0.54125357 0.41947669 0
2.115 -0.54405844 0.41946766 0
2.1140001 -0.54685986 0.41945866 0
2.1130002 -0.54965758 0.41944963 0
2.1120002 -0.55245167 0.41944063 0
2.1110001 -0.55524212 0.4194316 0
2.1100001 -0.558029 0.41942257 0
2.1090002 -0.56081229 0.41941357 0
2.108 -0.56359196 0.41940454 0
2.197 -0.40580022 0.41696578 0
2.194 -0.40843558 0.41694415 0
2.1910002 -0.41106012 0.41692251 0
2.1880002 -0.41367385 0.41690084 0
2.1850002 -0.41627672 0.41687921 0
2.1820002 -0.41886881 0.41685757 0
2.1790001 -0.42145005 0.4168359 0
2.1760001 -0.4240205 0.41681427 0
2.154 -0.42566556 0.41665554 0
2.1530001 -0.42861119 0.41664833 0
2.1520002 -0.43155321 0.41664112 0
2.151 -0.43449157 0.41663387 0
2.1500001 -0.43742639 0.41662666 0
2.1490002 -0.4403576 0.41661945 0
2.148 -0.44328514 0.41661224 0
2.1470001 -0.44620913 0.41660503 0
2.1460001 -0.44912949 0.41659781 0
2.1450002 -0.45204625 0.4165906 0
2.1420002 -0.45449042 0.41656893 0
2.1390002 -0.45692375 0.4165473 0
2.1370001 -0.45958439 0.41653287 0
2.1340001 -0.46199787 0.41651124 0
2.131 -0.46440053 0.41648957 0
2.128 -0.46679237 0.41646793 0
2.1260002 -0.46941873 0.41645351 0
2.1230001 -0.47179073 0.41643187 0
2.1200001 -0.47415191 0.41641021 0
2.1170001 -0.4765023 0.41638857 0
2.115 -0.47909436 0.41637415 0
2.1120002 -0.4814249 0.41635248 0
2.1090002 -0.48374456 0.41633084 0
2.1070001 -0.48631141 0.41631642 0
2.1040001 -0.48861128 0.41629478 0
2.1010001 -0.49090031 0.41627312 0
2.0990002 -0.49344185 0.41625869 0
2.0960002 -0.49571103 0.41623706 0
2.0940001 -0.49823639 0.41622263 0
2.0910001 -0.50048572 0.41620097 0
2.0880001 -0.50272423 0.41617933 0
2.0910001 -0.50658619 0.41620097 0
2.095 -0.51073313 0.41622984 0
2.098 -0.51461852 0.41625148 0
2.102 -0.51879251 0.41628033 0
2.1060002 -0.52298105 0.41630921 0
2.1090002 -0.52690244 0.41633084 0
2.1130002 -0.53111798 0.41635972 0
2.1170001 -0.53534788 0.41638857 0
2.1170001 -0.53844506 0.41638857 0
2.1160002 -0.54125357 0.41638136 0
2.115 -0.54405844 0.41637415 0
2.1140001 -0.54685986 0.41636693 0
2.1130002 -0.54965758 0.41635972 0
2.1120002 -0.55245167 0.41635248 0
2.1110001 -0.55524212 0.41634527 0
2.1100001 -0.558029 0.41633806 0
2.1090002 -0.56081229 0.41633084 0
2.108 -0.56359196 0.41632363 0
2.197 -0.40580022 0.41372433 0
2.194 -0.40843558 0.41370812 0
2.1910002 -0.41106012 0.41369188 0
2.1880002 -0.41367385 0.41367564 0
2.1850002 -0.41627672 0.41365939 0
2.1820002 -0.41886881 0.41364318 0
2.1790001 -0.42145005 0.41362694 0
2.1760001 -0.4240205 0.4136107 0
2.154 -0.42566556 0.41349167 0
2.1530001 -0.42861119 0.41348624 0
2.1520002 -0.43155321 0.41348082 0
2.151 -0.43449157 0.41347542 0
2.1500001 -0.43742639 0.41347 0
2.1490002 -0.4403576 0.41346461 0
2.148 -0.44328514 0.41345918 0
2.1470001 -0.44620913 0.41345376 0
2.1460001 -0.44912949 0.41344836 0
2.1450002 -0.45204625 0.41344294 0
2.1420002 -0.45449042 0.41342673 0
2.1390002 -0.45692375 0.41341048 0
2.1370001 -0.45958439 0.41339967 0
2.1340001 -0.46199787 0.41338342 0
2.131 -0.46440053 0.41336718 0
2.128 -0.46679237 0.41335097 0
2.1260002 -0.46941873 0.41334012 0
2.1230001 -0.47179073 0.41332391 0
2.1200001 -0.47415191 0.41330767 0
2.1170001 -0.4765023 0.41329142 0
2.115 -0.47909436 0.41328061 0
2.1120002 -0.4814249 0.41326436 0
2.1090002 -0.48374456 0.41324815 0
2.1070001 -0.48631141 0.4132373 0
2.1040001 -0.48861128 0.41322109 0
2.1010001 -0.49090031 0.41320485 0
2.0990002 -0.49344185 0.41319403 0
2.0960002 -0.49571103 0.41317779 0
2.0940001 -0.49823639 0.41316697 0
2.0910001 -0.50048572 0.41315073 0
2.0880001 -0.50272423 0.41313449 0
2.0910001 -0.50658619 0.41315073 0
2.095 -0.51073313 0.41317236 0
2.098 -0.51461852 0.41318861 0
2.102 -0.51879251 0.41321027 0
2.1060002 -0.52298105 0.41323191 0
2.1090002 -0.52690244 0.41324815 0
2.1130002 -0.53111798 0.41326979 0
2.1170001 -0.53534788 0.41329142 0
2.1170001 -0.53844506 0.41329142 0
2.1160002 -0.54125357 0.41328603 0
2.115 -0.54405844 0.41328061 0
2.1140001 -0.54685986 0.41327518 0
2.1130002 -0.54965758 0.41326979 0
2.1120002 -0.55245167 0.41326436 0
2.1110001 -0.55524212 0.41325897 0
2.1100001 -0.558029 0.41325355 0
2.1090002 -0.56081229 0.41324815 0
2.108 -0.56359196 0.41324273 0
2.197 -0.40580022 0.41048291 0
2.194 -0.40843558 0.41047207 0
2.1910002 -0.41106012 0.41046125 0
2.1880002 -0.41367385 0.41045043 0
2.1850002 -0.41627672 0.41043961 0
2.1820002 -0.41886881 0.41042879 0
2.1790001 -0.42145005 0.41041797 0
2.1760001 -0.4240205 0.41040716 0
2.154 -0.42566556 0.41032776 0
2.1530001 -0.42861119 0.41032416 0
2.1520002 -0.43155321 0.41032055 0
2.151 -0.43449157 0.41031694 0
2.1500001 -0.43742639 0.41031334 0
2.1490002 -0.4403576 0.41030973 0
2.148 -0.44328514 0.41030613 0
2.1470001 -0.44620913 0.41030252 0
2.1460001 -0.44912949 0.41029891 0
2.1450002 -0.45204625 0.41029531 0
2.1420002 -0.45449042 0.41028449 0
2.1390002 -0.45692375 0.41027367 0
2.1370001 -0.45958439 0.41026646 0
2.1340001 -0.46199787 0.41025561 0
2.131 -0.46440053 0.41024479 0
2.128 -0.46679237 0.41023397 0
2.1260002 -0.46941873 0.41022676 0
2.1230001 -0.47179073 0.41021594 0
2.1200001 -0.47415191 0.41020513 0
2.1170001 -0.4765023 0.41019428 0
2.115 -0.47909436 0.41018707 0
2.1120002 -0.4814249 0.41017625 0
2.1090002 -0.48374456 0.41016543 0
2.1070001 -0.48631141 0.41015822 0
2.1040001 -0.48861128 0.4101474 0
2.1010001 -0.49090031 0.41013658 0
2.0990002 -0.49344185 0.41012937 0
2.0960002 -0.49571103 0.41011852 0
2.0940001 -0.49823639 0.41011131 0
