# .PCD v0.7 - Point Cloud Data file format
VERSION 0.7
FIELDS x y z intensity
SIZE 4 4 4 4
TYPE F F F F
COUNT 1 1 1 1
WIDTH 1455
HEIGHT 1
VIEWPOINT 0 0 0 1 0 0 0
POINTS 1455
DATA ascii
4.23 0.61031562 0.34873134 0
4.2270002 0.60289836 0.34877461 0
4.2260003 0.59582746 0.34878904 0
4.2260003 0.58892602 0.34878904 0
4.2280002 0.58235294 0.34876019 0
4.2309999 0.57593501 0.34871691 0
4.237 0.56998789 0.34863031 0
4.2480001 0.56481278 0.34847158 0
4.2460003 1.1749907 0.34156299 0
4.2390003 1.1658434 0.34167662 0
4.2360001 1.1579771 0.34172535 0
4.2340002 1.1504335 0.3417578 0
4.2330003 1.1432074 0.34177405 0
4.2330003 1.1362935 0.34177405 0
4.2350001 1.1299928 0.34174156 0
4.237 1.1236848 0.34170911 0
4.2400002 1.1176727 0.34166041 0
4.243 1.1116498 0.34161168 0
4.2480001 1.106215 0.34153053 0
4.2540002 1.1010597 0.34143311 0
4.2620001 1.0964744 0.34130323 0
4.2740002 1.0930364 0.34110844 0
4.1440001 1.0277998 0.34321889 0
4.1389999 1.0196214 0.34330007 0
4.1370001 1.0123105 0.34333253 0
4.1370001 1.0055697 0.34333253 0
4.138 0.99910843 0.34331629 0
4.1410003 0.99319911 0.34326759 0
4.145 0.98755515 0.34320265 0
4.152 0.98271906 0.34308901 0
4.1630001 0.97894728 0.34291044 0
4.4530001 1.0360035 0.33820251 0
4.4480004 1.0273669 0.33828366 0
4.4450002 1.019275 0.33833238 0
4.4430003 1.0114555 0.33836484 0
4.4430003 1.0041627 0.33836484 0
4.4440002 0.99712777 0.33834863 0
4.4460001 0.99034548 0.33831614 0
4.4480004 0.98355603 0.33828366 0
4.4520001 0.97726429 0.33821875 0
4.4570003 0.97120893 0.33813757 0
4.4640002 0.96563339 0.33802393 0
4.4730005 0.96052682 0.33787781 0
3.9880002 0.78242415 0.34575143 0
3.9790003 0.77389038 0.34589756 0
3.9750004 0.76652545 0.34596246 0
3.9740002 0.75985128 0.34597874 0
3.9740002 0.7534045 0.34597874 0
3.9750004 0.74717963 0.34596246 0
3.9780002 0.74139118 0.3459138 0
3.9820004 0.73581016 0.34584886 0
3.9890003 0.73086411 0.34573519 0
4.0009999 0.72696608 0.3455404 0
4.23 0.61031562 0.34182274 0
4.2270002 0.60289836 0.34187144 0
4.2260003 0.59582746 0.34188768 0
4.2260003 0.58892602 0.34188768 0
4.2280002 0.58235294 0.34185523 0
4.2309999 0.57593501 0.3418065 0
4.237 0.56998789 0.34170911 0
4.2480001 0.56481278 0.34153053 0
4.2460003 1.1749907 0.33462554 0
4.2390003 1.1658434 0.33475181 0
4.2360001 1.1579771 0.33480594 0
4.2340002 1.1504335 0.33484203 0
4.2330003 1.1432074 0.33486003 0
4.2330003 1.1362935 0.33486003 0
4.2350001 1.1299928 0.33482397 0
4.237 1.1236848 0.33478791 0
4.2400002 1.1176727 0.33473378 0
4.243 1.1116498 0.33467966 0
4.2480001 1.106215 0.33458948 0
4.2540002 1.1010597 0.33448124 0
4.2620001 1.0964744 0.33433694 0
4.2740002 1.0930364 0.33412048 0
4.1440001 1.0277998 0.33646542 0
4.1389999 1.0196214 0.33655563 0
4.1370001 1.0123105 0.33659169 0
4.1370001 1.0055697 0.33659169 0
4.138 0.99910843 0.33657366 0
4.1410003 0.99319911 0.33651954 0
4.145 0.98755515 0.33644739 0
4.152 0.98271906 0.33632112 0
4.1630001 0.97894728 0.33612272 0
4.4530001 1.0360035 0.33089167 0
4.4480004 1.0273669 0.33098185 0
4.4450002 1.019275 0.33103597 0
4.4430003 1.0114555 0.33107203 0
4.4430003 1.0041627 0.33107203 0
4.4440002 0.99712777 0.331054 0
4.4460001 0.99034548 0.33101794 0
4.4480004 0.98355603 0.33098185 0
4.4520001 0.97726429 0.3309097 0
4.4570003 0.97120893 0.33081952 0
4.4640002 0.96563339 0.33069324 0
4.4730005 0.96052682 0.33053091 0
3.9880002 0.78242415 0.33927938 0
3.9790003 0.77389038 0.33944172 0
3.9750004 0.76652545 0.33951387 0
3.9740002 0.75985128 0.3395319 0
3.9740002 0.7534045 0.3395319 0
3.9750004 0.74717963 0.33951387 0
3.9780002 0.74139118 0.33945978 0
3.9820004 0.73581016 0.3393876 0
3.9890003 0.73086411 0.33926132 0
4.0009999 0.72696608 0.33904487 0
4.2390003 0.6187827 0.33475181 0
4.23 0.61031562 0.33491415 0
4.2270002 0.60289836 0.33496827 0
4.2260003 0.59582746 0.33498633 0
4.2260003 0.58892602 0.33498633 0
4.2280002 0.58235294 0.33495024 0
4.2309999 0.57593501 0.33489612 0
4.237 0.56998789 0.33478791 0
4.2480001 0.56481278 0.33458948 0
4.2460003 1.1749907 0.3276881 0
4.2390003 1.1658434 0.32782698 0
4.2360001 1.1579771 0.32788652 0
4.2340002 1.1504335 0.32792622 0
4.2330003 1.1432074 0.32794604 0
4.2330003 1.1362935 0.32794604 0
4.2350001 1.1299928 0.32790637 0
4.237 1.1236848 0.32786667 0
4.2400002 1.1176727 0.32780716 0
4.243 1.1116498 0.32774764 0
4.2480001 1.106215 0.3276484 0
4.2540002 1.1010597 0.32752937 0
4.2620001 1.0964744 0.32737064 0
4.2740002 1.0930364 0.32713252 0
4.1440001 1.0277998 0.32971197 0
4.1389999 1.0196214 0.32981119 0
4.1370001 1.0123105 0.32985085 0
4.1370001 1.0055697 0.32985085 0
4.138 0.99910843 0.32983103 0
4.1410003 0.99319911 0.32977152 0
4.145 0.98755515 0.32969213 0
4.152 0.98271906 0.32955325 0
4.1630001 0.97894728 0.32933497 0
4.4530001 1.0360035 0.32358083 0
4.4480004 1.0273669 0.32368004 0
4.4450002 1.019275 0.32373956 0
4.4430003 1.0114555 0.32377926 0
4.4430003 1.0041627 0.32377926 0
4.4440002 0.99712777 0.32375941 0
4.4460001 0.99034548 0.32371974 0
4.4480004 0.98355603 0.32368004 0
4.4520001 0.97726429 0.32360068 0
4.4570003 0.97120893 0.32350147 0
4.4640002 0.96563339 0.32336259 0
4.4730005 0.96052682 0.32318398 0
3.9880002 0.78242415 0.3328073 0
3.9790003 0.77389038 0.33298588 0
3.9750004 0.76652545 0.33306524 0
3.9740002 0.75985128 0.33308509 0
3.9740002 0.7534045 0.33308509 0
3.9750004 0.74717963 0.33306524 0
3.9780002 0.74139118 0.33300573 0
3.9820004 0.73581016 0.33292636 0
3.9890003 0.73086411 0.33278745 0
4.0009999 0.72696608 0.33254936 0
4.2390003 0.6187827 0.32782698 0
4.23 0.61031562 0.32800558 0
4.2270002 0.60289836 0.3280651 0
4.2260003 0.59582746 0.32808495 0
4.2260003 0.58892602 0.32808495 0
4.2280002 0.58235294 0.32804525 0
4.2309999 0.57593501 0.32798573 0
4.237 0.56998789 0.32786667 0
4.2480001 0.56481278 0.3276484 0
4.2460003 1.1749907 0.32075065 0
4.2390003 1.1658434 0.32090217 0
4.2360001 1.1579771 0.32096711 0
4.2340002 1.1504335 0.32101041 0
4.2330003 1.1432074 0.32103205 0
4.2330003 1.1362935 0.32103205 0
4.2350001 1.1299928 0.32098874 0
4.237 1.1236848 0.32094547 0
4.2400002 1.1176727 0.32088053 0
4.243 1.1116498 0.32081559 0
4.2480001 1.106215 0.32070738 0
4.2540002 1.1010597 0.3205775 0
4.2620001 1.0964744 0.32040432 0
4.2740002 1.0930364 0.32014459 0
4.1440001 1.0277998 0.32295853 0
4.1389999 1.0196214 0.32306674 0
4.1370001 1.0123105 0.32311004 0
4.1370001 1.0055697 0.32311004 0
4.138 0.99910843 0.32308841 0
4.1410003 0.99319911 0.32302344 0
4.145 0.98755515 0.32293686 0
4.152 0.98271906 0.32278535 0
4.1630001 0.97894728 0.32254726 0
4.4530001 1.0360035 0.31626999 0
4.4480004 1.0273669 0.31637824 0
4.4450002 1.019275 0.31644318 0
4.4430003 1.0114555 0.31648645 0
4.4430003 1.0041627 0.31648645 0
4.4440002 0.99712777 0.31646481 0
4.4460001 0.99034548 0.31642151 0
4.4480004 0.98355603 0.31637824 0
4.4520001 0.97726429 0.31629163 0
4.4570003 0.97120893 0.31618342 0
4.4640002 0.96563339 0.3160319 0
4.4730005 0.96052682 0.31583709 0
3.9880002 0.78242415 0.32633525 0
3.9790003 0.77389038 0.32653007 0
3.9750004 0.76652545 0.32661664 0
3.9740002 0.75985128 0.32663828 0
3.9740002 0.7534045 0.32663828 0
3.9750004 0.74717963 0.32661664 0
3.9780002 0.74139118 0.32655171 0
3.9820004 0.73581016 0.32646513 0
3.9890003 0.73086411 0.32631361 0
4.0009999 0.72696608 0.32605386 0
4.2390003 0.6187827 0.32090217 0
4.23 0.61031562 0.32109699 0
4.2270002 0.60289836 0.32116193 0
4.2260003 0.59582746 0.32118356 0
4.2260003 0.58892602 0.32118356 0
4.2280002 0.58235294 0.32114029 0
4.2309999 0.57593501 0.32107535 0
4.237 0.56998789 0.32094547 0
4.2480001 0.56481278 0.32070738 0
4.2460003 1.1749907 0.31381321 0
4.2390003 1.1658434 0.31397736 0
4.2360001 1.1579771 0.31404769 0
4.2340002 1.1504335 0.3140946 0
4.2330003 1.1432074 0.31411806 0
4.2330003 1.1362935 0.31411806 0
4.2350001 1.1299928 0.31407115 0
4.237 1.1236848 0.31402427 0
4.2400002 1.1176727 0.31395391 0
4.243 1.1116498 0.31388354 0
4.2480001 1.106215 0.3137663 0
4.2540002 1.1010597 0.31362563 0
4.2620001 1.0964744 0.31343803 0
4.2740002 1.0930364 0.31315663 0
4.1440001 1.0277998 0.31620505 0
4.1389999 1.0196214 0.3163223 0
4.1370001 1.0123105 0.31636921 0
4.1370001 1.0055697 0.31636921 0
4.138 0.99910843 0.31634575 0
4.1410003 0.99319911 0.31627542 0
4.145 0.98755515 0.3161816 0
4.152 0.98271906 0.31601745 0
4.1630001 0.97894728 0.31575951 0
4.4530001 1.0360035 0.30895919 0
4.4480004 1.0273669 0.3090764 0
4.4450002 1.019275 0.30914676 0
4.4430003 1.0114555 0.30919367 0
4.4430003 1.0041627 0.30919367 0
4.4440002 0.99712777 0.30917022 0
4.4460001 0.99034548 0.30912331 0
4.4480004 0.98355603 0.3090764 0
4.4520001 0.97726429 0.30898261 0
4.4570003 0.97120893 0.30886537 0
4.4640002 0.96563339 0.30870122 0
4.4730005 0.96052682 0.30849016 0
3.9880002 0.78242415 0.3198632 0
3.9790003 0.77389038 0.32007423 0
3.9750004 0.76652545 0.32016802 0
3.9740002 0.75985128 0.32019147 0
3.9740002 0.7534045 0.32019147 0
3.9750004 0.74717963 0.32016802 0
3.9780002 0.74139118 0.32009768 0
3.9820004 0.73581016 0.32000387 0
3.9890003 0.73086411 0.31983975 0
4.0009999 0.72696608 0.31955835 0
4.2390003 0.6187827 0.31397736 0
4.23 0.61031562 0.31418842 0
4.2270002 0.60289836 0.31425875 0
4.2260003 0.59582746 0.31428221 0
4.2260003 0.58892602 0.31428221 0
4.2280002 0.58235294 0.3142353 0
4.2309999 0.57593501 0.31416494 0
4.237 0.56998789 0.31402427 0
4.2480001 0.56481278 0.3137663 0
4.2460003 1.1749907 0.30687577 0
4.2390003 1.1658434 0.30705255 0
4.2360001 1.1579771 0.30712831 0
4.2340002 1.1504335 0.3071788 0
4.2330003 1.1432074 0.30720407 0
4.2330003 1.1362935 0.30720407 0
4.2350001 1.1299928 0.30715355 0
4.237 1.1236848 0.30710304 0
4.2400002 1.1176727 0.30702728 0
4.243 1.1116498 0.30695152 0
4.2480001 1.106215 0.30682525 0
4.2540002 1.1010597 0.30667374 0
4.2620001 1.0964744 0.30647171 0
4.2740002 1.0930364 0.30616868 0
4.1440001 1.0277998 0.30945161 0
4.1389999 1.0196214 0.30957788 0
4.1370001 1.0123105 0.30962837 0
4.1370001 1.0055697 0.30962837 0
4.138 0.99910843 0.30960312 0
4.1410003 0.99319911 0.30952737 0
4.145 0.98755515 0.30942637 0
4.152 0.98271906 0.30924958 0
4.1630001 0.97894728 0.30897179 0
4.4530001 1.0360035 0.30164832 0
4.4480004 1.0273669 0.30177459 0
4.4450002 1.019275 0.30185035 0
4.4430003 1.0114555 0.30190086 0
4.4430003 1.0041627 0.30190086 0
4.4440002 0.99712777 0.30187562 0
4.4460001 0.99034548 0.30182511 0
4.4480004 0.98355603 0.30177459 0
4.4520001 0.97726429 0.30167359 0
4.4570003 0.97120893 0.30154732 0
4.4640002 0.96563339 0.30137053 0
4.4730005 0.96052682 0.30114326 0
3.9880002 0.78242415 0.31339112 0
3.9790003 0.77389038 0.31361839 0
3.9750004 0.76652545 0.31371942 0
3.9740002 0.75985128 0.31374466 0
3.9740002 0.7534045 0.31374466 0
3.9750004 0.74717963 0.31371942 0
3.9780002 0.74139118 0.31364363 0
3.9820004 0.73581016 0.31354263 0
3.9890003 0.73086411 0.31336588 0
4.0009999 0.72696608 0.31306282 0
4.2390003 0.6187827 0.30705255 0
4.23 0.61031562 0.30727983 0
4.2270002 0.60289836 0.30735558 0
4.2260003 0.59582746 0.30738083 0
4.2260003 0.58892602 0.30738083 0
4.2280002 0.58235294 0.30733031 0
4.2309999 0.57593501 0.30725455 0
4.237 0.56998789 0.30710304 0
4.2480001 0.56481278 0.30682525 0
4.2460003 1.1749907 0.29993832 0
4.2390003 1.1658434 0.30012771 0
4.2360001 1.1579771 0.30020887 0
4.2340002 1.1504335 0.30026299 0
4.2330003 1.1432074 0.30029005 0
4.2330003 1.1362935 0.30029005 0
4.2350001 1.1299928 0.30023593 0
4.237 1.1236848 0.30018184 0
4.2400002 1.1176727 0.30010065 0
4.243 1.1116498 0.3000195 0
4.2480001 1.106215 0.2998842 0
4.2540002 1.1010597 0.29972187 0
4.2620001 1.0964744 0.29950541 0
4.2740002 1.0930364 0.29918072 0
4.1440001 1.0277998 0.30269814 0
4.1389999 1.0196214 0.30283344 0
4.1370001 1.0123105 0.30288756 0
4.1370001 1.0055697 0.30288756 0
4.138 0.99910843 0.3028605 0
4.1410003 0.99319911 0.30277932 0
4.145 0.98755515 0.30267107 0
4.152 0.98271906 0.30248168 0
4.1630001 0.97894728 0.30218405 0
4.4530001 1.0360035 0.29433751 0
4.4480004 1.0273669 0.29447278 0
4.4450002 1.019275 0.29455394 0
4.4430003 1.0114555 0.29460806 0
4.4430003 1.0041627 0.29460806 0
4.4440002 0.99712777 0.294581 0
4.4460001 0.99034548 0.2945269 0
4.4480004 0.98355603 0.29447278 0
4.4520001 0.97726429 0.29436457 0
4.4570003 0.97120893 0.29422927 0
4.4640002 0.96563339 0.29403988 0
4.4730005 0.96052682 0.29379636 0
3.9880002 0.78242415 0.30691907 0
3.9790003 0.77389038 0.30716258 0
3.9750004 0.76652545 0.3072708 0
3.9740002 0.75985128 0.30729786 0
3.9740002 0.7534045 0.30729786 0
3.9750004 0.74717963 0.3072708 0
3.9780002 0.74139118 0.30718964 0
3.9820004 0.73581016 0.3070814 0
3.9890003 0.73086411 0.30689201 0
4.0009999 0.72696608 0.30656731 0
4.2390003 0.6187827 0.30012771 0
4.23 0.61031562 0.30037123 0
4.2270002 0.60289836 0.30045241 0
4.2260003 0.59582746 0.30047947 0
4.2260003 0.58892602 0.30047947 0
4.2280002 0.58235294 0.30042535 0
4.2309999 0.57593501 0.30034417 0
4.237 0.56998789 0.30018184 0
4.2480001 0.56481278 0.2998842 0
4.2460003 1.1749907 0.29300088 0
4.2390003 1.1658434 0.29320291 0
4.2360001 1.1579771 0.29328948 0
4.2340002 1.1504335 0.29334721 0
4.2330003 1.1432074 0.29337606 0
4.2330003 1.1362935 0.29337606 0
4.2350001 1.1299928 0.29331833 0
4.237 1.1236848 0.29326063 0
4.2400002 1.1176727 0.29317403 0
4.243 1.1116498 0.29308745 0
4.2480001 1.106215 0.29294315 0
4.2540002 1.1010597 0.29276997 0
4.2620001 1.0964744 0.29253909 0
4.2740002 1.0930364 0.29219276 0
4.1440001 1.0277998 0.29594469 0
4.1389999 1.0196214 0.29608899 0
4.1370001 1.0123105 0.29614672 0
4.1370001 1.0055697 0.29614672 0
4.138 0.99910843 0.29611784 0
4.1410003 0.99319911 0.29603127 0
4.145 0.98755515 0.29591584 0
4.152 0.98271906 0.29571378 0
4.1630001 0.97894728 0.29539633 0
4.4530001 1.0360035 0.28702667 0
4.4480004 1.0273669 0.28717095 0
4.4450002 1.019275 0.28725755 0
4.4430003 1.0114555 0.28731525 0
4.4430003 1.0041627 0.28731525 0
4.4440002 0.99712777 0.2872864 0
4.4460001 0.99034548 0.2872287 0
4.4480004 0.98355603 0.28717095 0
4.4520001 0.97726429 0.28705552 0
4.4570003 0.97120893 0.28691122 0
4.4640002 0.96563339 0.28670919 0
4.4730005 0.96052682 0.28644943 0
3.9880002 0.78242415 0.30044699 0
3.9790003 0.77389038 0.30070674 0
3.9750004 0.76652545 0.3008222 0
3.9740002 0.75985128 0.30085105 0
3.9740002 0.7534045 0.30085105 0
3.9750004 0.74717963 0.3008222 0
3.9780002 0.74139118 0.30073559 0
3.9820004 0.73581016 0.30062014 0
3.9890003 0.73086411 0.30041814 0
4.0009999 0.72696608 0.30007181 0
4.2390003 0.6187827 0.29320291 0
4.23 0.61031562 0.29346263 0
4.2270002 0.60289836 0.29354924 0
4.2260003 0.59582746 0.29357809 0
4.2260003 0.58892602 0.29357809 0
4.2280002 0.58235294 0.29352036 0
4.2309999 0.57593501 0.29343379 0
4.237 0.56998789 0.29326063 0
4.2480001 0.56481278 0.29294315 0
4.2460003 1.1749907 0.28606343 0
4.2390003 1.1658434 0.28627807 0
4.2360001 1.1579771 0.28637007 0
4.2340002 1.1504335 0.2864314 0
4.2330003 1.1432074 0.28646207 0
4.2330003 1.1362935 0.28646207 0
4.2350001 1.1299928 0.28640074 0
4.237 1.1236848 0.2863394 0
4.2400002 1.1176727 0.28624743 0
4.243 1.1116498 0.28615543 0
4.2480001 1.106215 0.2860021 0
4.2540002 1.1010597 0.2858181 0
4.2620001 1.0964744 0.28557277 0
4.2740002 1.0930364 0.28520483 0
4.1440001 1.0277998 0.28919125 0
4.1389999 1.0196214 0.28934455 0
4.1370001 1.0123105 0.28940588 0
4.1370001 1.0055697 0.28940588 0
4.138 0.99910843 0.28937522 0
4.1410003 0.99319911 0.28928322 0
4.145 0.98755515 0.28916055 0
4.152 0.98271906 0.28894591 0
4.1630001 0.97894728 0.28860861 0
4.4530001 1.0360035 0.27971584 0
4.4480004 1.0273669 0.27986914 0
4.4450002 1.019275 0.27996114 0
4.4430003 1.0114555 0.28002247 0
4.4430003 1.0041627 0.28002247 0
4.4440002 0.99712777 0.27999181 0
4.4460001 0.99034548 0.27993047 0
4.4480004 0.98355603 0.27986914 0
4.4520001 0.97726429 0.27974647 0
4.4570003 0.97120893 0.27959317 0
4.4640002 0.96563339 0.2793785 0
4.4730005 0.96052682 0.27910253 0
3.9880002 0.78242415 0.29397494 0
3.9790003 0.77389038 0.29425091 0
3.9750004 0.76652545 0.29437357 0
3.9740002 0.75985128 0.29440424 0
3.9740002 0.7534045 0.29440424 0
3.9750004 0.74717963 0.29437357 0
3.9780002 0.74139118 0.29428157 0
3.9820004 0.73581016 0.29415891 0
3.9890003 0.73086411 0.29394427 0
4.0009999 0.72696608 0.2935763 0
4.2390003 0.6187827 0.28627807 0
4.23 0.61031562 0.28655407 0
4.2270002 0.60289836 0.28664607 0
4.2260003 0.59582746 0.2866767 0
4.2260003 0.58892602 0.2866767 0
4.2280002 0.58235294 0.28661537 0
4.2309999 0.57593501 0.2865234 0
4.237 0.56998789 0.2863394 0
4.2480001 0.56481278 0.2860021 0
4.2460003 1.1749907 0.27912599 0
4.2390003 1.1658434 0.27935326 0
4.2360001 1.1579771 0.27945065 0
4.2340002 1.1504335 0.27951559 0
4.2330003 1.1432074 0.27954808 0
4.2330003 1.1362935 0.27954808 0
4.2350001 1.1299928 0.27948314 0
4.237 1.1236848 0.2794182 0
4.2400002 1.1176727 0.27932078 0
4.243 1.1116498 0.27922338 0
4.2480001 1.106215 0.27906102 0
4.2540002 1.1010597 0.27886623 0
4.2620001 1.0964744 0.27860647 0
4.2740002 1.0930364 0.27821684 0
4.1440001 1.0277998 0.28243777 0
4.1389999 1.0196214 0.2826001 0
4.1370001 1.0123105 0.28266504 0
4.1370001 1.0055697 0.28266504 0
4.138 0.99910843 0.28263259 0
4.1410003 0.99319911 0.28253517 0
4.145 0.98755515 0.28240532 0
4.152 0.98271906 0.28217801 0
4.1630001 0.97894728 0.28182086 0
4.4530001 1.0360035 0.27240497 0
4.4480004 1.0273669 0.27256733 0
4.4450002 1.019275 0.27266473 0
4.4430003 1.0114555 0.27272969 0
4.4430003 1.0041627 0.27272969 0
4.4440002 0.99712777 0.27269721 0
4.4460001 0.99034548 0.27263227 0
4.4480004 0.98355603 0.27256733 0
4.4520001 0.97726429 0.27243745 0
4.4570003 0.97120893 0.27227512 0
4.4640002 0.96563339 0.27204782 0
4.4730005 0.96052682 0.27175561 0
3.9880002 0.78242415 0.28750288 0
3.9790003 0.77389038 0.28779507 0
3.9750004 0.76652545 0.28792495 0
3.9740002 0.75985128 0.28795743 0
3.9740002 0.7534045 0.28795743 0
3.9750004 0.74717963 0.28792495 0
3.9780002 0.74139118 0.28782755 0
3.9820004 0.73581016 0.28769767 0
3.9890003 0.73086411 0.2874704 0
4.0009999 0.72696608 0.28708076 0
4.2390003 0.6187827 0.27935326 0
4.23 0.61031562 0.27964547 0
4.2270002 0.60289836 0.2797429 0
4.2260003 0.59582746 0.27977535 0
4.2260003 0.58892602 0.27977535 0
4.2280002 0.58235294 0.27971041 0
4.2309999 0.57593501 0.27961302 0
4.237 0.56998789 0.2794182 0
4.2480001 0.56481278 0.27906102 0
4.2460003 1.1749907 0.27218854 0
4.2390003 1.1658434 0.27242845 0
4.2360001 1.1579771 0.27253127 0
4.2340002 1.1504335 0.27259982 0
4.2330003 1.1432074 0.27263409 0
4.2330003 1.1362935 0.27263409 0
4.2350001 1.1299928 0.27256554 0
4.237 1.1236848 0.272497 0
4.2400002 1.1176727 0.27239418 0
4.243 1.1116498 0.27229136 0
4.2480001 1.106215 0.27212 0
4.2540002 1.1010597 0.27191436 0
4.2620001 1.0964744 0.27164018 0
4.2740002 1.0930364 0.27122891 0
4.1440001 1.0277998 0.2756843 0
4.1389999 1.0196214 0.27585566 0
4.1370001 1.0123105 0.27592421 0
4.1370001 1.0055697 0.27592421 0
4.138 0.99910843 0.27588993 0
4.1410003 0.99319911 0.27578712 0
4.145 0.98755515 0.27565005 0
4.152 0.98271906 0.27541012 0
4.1630001 0.97894728 0.27503315 0
4.4530001 1.0360035 0.26509416 0
4.4480004 1.0273669 0.26526552 0
4.4450002 1.019275 0.26536834 0
4.4430003 1.0114555 0.26543689 0
4.4430003 1.0041627 0.26543689 0
4.4440002 0.99712777 0.26540262 0
4.4460001 0.99034548 0.26533407 0
4.4480004 0.98355603 0.26526552 0
4.4520001 0.97726429 0.26512843 0
4.4570003 0.97120893 0.26495707 0
4.4640002 0.96563339 0.26471716 0
4.4730005 0.96052682 0.26440871 0
3.9880002 0.78242415 0.2810308 0
3.9790003 0.77389038 0.28133923 0
3.9750004 0.76652545 0.28147635 0
3.9740002 0.75985128 0.28151059 0
3.9740002 0.7534045 0.28151059 0
3.9750004 0.74717963 0.28147635 0
3.9780002 0.74139118 0.28137353 0
3.9820004 0.73581016 0.28123641 0
3.9890003 0.73086411 0.28099653 0
4.0009999 0.72696608 0.28058526 0
4.2390003 0.6187827 0.27242845 0
4.23 0.61031562 0.27273691 0
4.2270002 0.60289836 0.27283973 0
4.2260003 0.59582746 0.272874 0
4.2260003 0.58892602 0.272874 0
4.2280002 0.58235294 0.27280545 0
4.2309999 0.57593501 0.27270263 0
4.237 0.56998789 0.272497 0
4.2480001 0.56481278 0.27212 0
4.2460003 1.1749907 0.2652511 0
4.2390003 1.1658434 0.26550362 0
4.2360001 1.1579771 0.26561186 0
4.2340002 1.1504335 0.26568401 0
4.2330003 1.1432074 0.26572007 0
4.2330003 1.1362935 0.26572007 0
4.2350001 1.1299928 0.26564792 0
4.237 1.1236848 0.26557577 0
4.2400002 1.1176727 0.26546752 0
4.243 1.1116498 0.26535931 0
4.2480001 1.106215 0.26517892 0
4.2540002 1.1010597 0.26496249 0
4.2620001 1.0964744 0.26467386 0
4.2740002 1.0930364 0.26424095 0
4.1440001 1.0277998 0.26893085 0
4.1389999 1.0196214 0.26911125 0
4.1370001 1.0123105 0.2691834 0
4.1370001 1.0055697 0.2691834 0
4.138 0.99910843 0.26914731 0
4.1410003 0.99319911 0.26903909 0
4.145 0.98755515 0.26889479 0
4.152 0.98271906 0.26864225 0
4.1630001 0.97894728 0.2682454 0
4.4530001 1.0360035 0.25778332 0
4.4480004 1.0273669 0.25796369 0
4.4450002 1.019275 0.25807193 0
4.4430003 1.0114555 0.25814408 0
4.4430003 1.0041627 0.25814408 0
4.4440002 0.99712777 0.25810802 0
4.4460001 0.99034548 0.25803587 0
4.4480004 0.98355603 0.25796369 0
4.4520001 0.97726429 0.25781941 0
4.4570003 0.97120893 0.25763902 0
4.4640002 0.96563339 0.25738651 0
4.4730005 0.96052682 0.25706178 0
3.9880002 0.78242415 0.27455872 0
3.9790003 0.77389038 0.27488342 0
3.9750004 0.76652545 0.27502772 0
3.9740002 0.75985128 0.27506381 0
3.9740002 0.7534045 0.27506381 0
3.9750004 0.74717963 0.27502772 0
3.9780002 0.74139118 0.27491951 0
3.9820004 0.73581016 0.27477521 0
3.9890003 0.73086411 0.27452266 0
4.0009999 0.72696608 0.27408975 0
4.2390003 0.6187827 0.26550362 0
4.23 0.61031562 0.26582831 0
4.2270002 0.60289836 0.26593655 0
4.2260003 0.59582746 0.26597261 0
4.2260003 0.58892602 0.26597261 0
4.2280002 0.58235294 0.26590046 0
4.2309999 0.57593501 0.26579225 0
4.237 0.56998789 0.26557577 0
4.2480001 0.56481278 0.26517892 0
4.2460003 1.1749907 0.25831366 0
4.2390003 1.1658434 0.25857878 0
4.2360001 1.1579771 0.25869244 0
4.2340002 1.1504335 0.2587682 0
4.2330003 1.1432074 0.25880608 0
4.2330003 1.1362935 0.25880608 0
4.2350001 1.1299928 0.25873032 0
4.237 1.1236848 0.25865456 0
4.2400002 1.1176727 0.25854093 0
4.243 1.1116498 0.25842726 0
4.2480001 1.106215 0.25823787 0
4.2540002 1.1010597 0.2580106 0
4.2620001 1.0964744 0.25770754 0
4.2740002 1.0930364 0.25725299 0
4.1440001 1.0277998 0.26217741 0
4.1389999 1.0196214 0.26236677 0
4.1370001 1.0123105 0.26244256 0
4.1370001 1.0055697 0.26244256 0
4.138 0.99910843 0.26240468 0
4.1410003 0.99319911 0.26229101 0
4.145 0.98755515 0.2621395 0
4.152 0.98271906 0.26187438 0
4.1630001 0.97894728 0.26145768 0
4.4530001 1.0360035 0.25047249 0
4.4480004 1.0273669 0.25066185 0
4.4450002 1.019275 0.25077552 0
4.4430003 1.0114555 0.25085127 0
4.4430003 1.0041627 0.25085127 0
4.4440002 0.99712777 0.25081342 0
4.4460001 0.99034548 0.25073767 0
4.4480004 0.98355603 0.25066185 0
4.4520001 0.97726429 0.25051036 0
4.4570003 0.97120893 0.25032097 0
4.4640002 0.96563339 0.25005579 0
4.4730005 0.96052682 0.24971487 0
3.9880002 0.78242415 0.26808667 0
3.9790003 0.77389038 0.26842761 0
3.9750004 0.76652545 0.26857913 0
3.9740002 0.75985128 0.26861697 0
3.9740002 0.7534045 0.26861697 0
3.9750004 0.74717963 0.26857913 0
3.9780002 0.74139118 0.26846546 0
3.9820004 0.73581016 0.26831394 0
3.9890003 0.73086411 0.26804879 0
4.0009999 0.72696608 0.26759422 0
4.2390003 0.6187827 0.25857878 0
4.23 0.61031562 0.25891972 0
4.2270002 0.60289836 0.25903335 0
4.2260003 0.59582746 0.25907123 0
4.2260003 0.58892602 0.25907123 0
4.2280002 0.58235294 0.25899547 0
4.2309999 0.57593501 0.25888184 0
4.237 0.56998789 0.25865456 0
4.2480001 0.56481278 0.25823787 0
4.2460003 1.1749907 0.25137618 0
4.2390003 1.1658434 0.25165397 0
4.2360001 1.1579771 0.25177303 0
4.2340002 1.1504335 0.25185239 0
4.2330003 1.1432074 0.25189209 0
4.2330003 1.1362935 0.25189209 0
4.2350001 1.1299928 0.2518127 0
4.237 1.1236848 0.25173336 0
4.2400002 1.1176727 0.2516143 0
4.243 1.1116498 0.25149524 0
4.2480001 1.106215 0.25129682 0
4.2540002 1.1010597 0.25105873 0
4.2620001 1.0964744 0.25074124 0
4.2740002 1.0930364 0.25026506 0
4.1440001 1.0277998 0.25542393 0
4.1389999 1.0196214 0.25562236 0
4.1370001 1.0123105 0.25570172 0
4.1370001 1.0055697 0.25570172 0
4.138 0.99910843 0.25566205 0
4.1410003 0.99319911 0.25554299 0
4.145 0.98755515 0.25538427 0
4.152 0.98271906 0.25510648 0
4.1630001 0.97894728 0.25466996 0
4.4530001 1.0360035 0.24316166 0
4.4480004 1.0273669 0.24336006 0
4.4450002 1.019275 0.24347912 0
4.4430003 1.0114555 0.24355848 0
4.4430003 1.0041627 0.24355848 0
4.4440002 0.99712777 0.2435188 0
4.4460001 0.99034548 0.24343944 0
4.4480004 0.98355603 0.24336006 0
4.4520001 0.97726429 0.24320135 0
4.4570003 0.97120893 0.24300291 0
4.4640002 0.96563339 0.24272513 0
4.4730005 0.96052682 0.24236797 0
3.9880002 0.78242415 0.26161462 0
3.9790003 0.77389038 0.26197177 0
3.9750004 0.76652545 0.2621305 0
3.9740002 0.75985128 0.2621702 0
3.9740002 0.7534045 0.2621702 0
3.9750004 0.74717963 0.2621305 0
3.9780002 0.74139118 0.26201144 0
3.9820004 0.73581016 0.26185268 0
3.9890003 0.73086411 0.26157492 0
4.0009999 0.72696608 0.26109874 0
4.2390003 0.6187827 0.25165397 0
4.23 0.61031562 0.25201112 0
4.2270002 0.60289836 0.25213021 0
4.2260003 0.59582746 0.25216985 0
4.2260003 0.58892602 0.25216985 0
4.2280002 0.58235294 0.25209051 0
4.2309999 0.57593501 0.25197145 0
4.237 0.56998789 0.25173336 0
4.2480001 0.56481278 0.25129682 0
4.2460003 1.1749907 0.24443874 0
4.2390003 1.1658434 0.24472916 0
4.2360001 1.1579771 0.24485362 0
4.2340002 1.1504335 0.2449366 0
4.2330003 1.1432074 0.24497809 0
4.2330003 1.1362935 0.24497809 0
4.2350001 1.1299928 0.2448951 0
4.237 1.1236848 0.24481215 0
4.2400002 1.1176727 0.24468766 0
4.243 1.1116498 0.24456321 0
4.2480001 1.106215 0.24435577 0
4.2540002 1.1010597 0.24410686 0
4.2620001 1.0964744 0.24377495 0
4.2740002 1.0930364 0.24327709 0
4.1440001 1.0277998 0.24867047 0
4.1389999 1.0196214 0.24887793 0
4.1370001 1.0123105 0.2489609 0
4.1370001 1.0055697 0.2489609 0
4.138 0.99910843 0.2489194 0
4.1410003 0.99319911 0.24879494 0
4.145 0.98755515 0.24862899 0
4.152 0.98271906 0.24833858 0
4.1630001 0.97894728 0.24788222 0
4.4530001 1.0360035 0.23585083 0
4.4480004 1.0273669 0.23605825 0
4.4450002 1.019275 0.23618272 0
4.4430003 1.0114555 0.23626569 0
4.4430003 1.0041627 0.23626569 0
4.4440002 0.99712777 0.2362242 0
4.4460001 0.99034548 0.23614123 0
4.4480004 0.98355603 0.23605825 0
4.4520001 0.97726429 0.23589231 0
4.4570003 0.97120893 0.23568486 0
4.4640002 0.96563339 0.23539446 0
4.4730005 0.96052682 0.23502105 0
3.9880002 0.78242415 0.25514254 0
3.9790003 0.77389038 0.25551593 0
3.9750004 0.76652545 0.25568187 0
3.9740002 0.75985128 0.25572336 0
3.9740002 0.7534045 0.25572336 0
3.9750004 0.74717963 0.25568187 0
3.9780002 0.74139118 0.25555742 0
3.9820004 0.73581016 0.25539148 0
3.9890003 0.73086411 0.25510105 0
4.0009999 0.72696608 0.25460321 0
4.2390003 0.6187827 0.24472916 0
4.23 0.61031562 0.24510255 0
4.2270002 0.60289836 0.24522701 0
4.2260003 0.59582746 0.24526851 0
4.2260003 0.58892602 0.24526851 0
4.2280002 0.58235294 0.24518554 0
4.2309999 0.57593501 0.24506107 0
4.237 0.56998789 0.24481215 0
4.2480001 0.56481278 0.24435577 0
4.2460003 1.1749907 0.23750131 0
4.2390003 1.1658434 0.23780434 0
4.2360001 1.1579771 0.23793422 0
4.2340002 1.1504335 0.23802079 0
4.2330003 1.1432074 0.23806408 0
4.2330003 1.1362935 0.23806408 0
4.2350001 1.1299928 0.23797749 0
4.237 1.1236848 0.23789091 0
4.2400002 1.1176727 0.23776105 0
4.243 1.1116498 0.23763117 0
4.2480001 1.106215 0.23741472 0
4.2540002 1.1010597 0.23715498 0
4.2620001 1.0964744 0.23680864 0
4.2740002 1.0930364 0.23628916 0
4.1440001 1.0277998 0.24191703 0
4.1389999 1.0196214 0.24213348 0
4.1370001 1.0123105 0.24222006 0
4.1370001 1.0055697 0.24222006 0
4.138 0.99910843 0.24217677 0
4.1410003 0.99319911 0.24204689 0
4.145 0.98755515 0.24187373 0
4.152 0.98271906 0.2415707 0
4.1630001 0.97894728 0.24109448 0
4.4530001 1.0360035 0.22853999 0
4.4480004 1.0273669 0.22875643 0
4.4450002 1.019275 0.22888632 0
4.4430003 1.0114555 0.2289729 0
4.4430003 1.0041627 0.2289729 0
4.4440002 0.99712777 0.22892961 0
4.4460001 0.99034548 0.22884302 0
4.4480004 0.98355603 0.22875643 0
4.4520001 0.97726429 0.22858328 0
4.4570003 0.97120893 0.22836682 0
4.4640002 0.96563339 0.22806378 0
4.4730005 0.96052682 0.22767414 0
3.9880002 0.78242415 0.24867049 0
3.9790003 0.77389038 0.24906011 0
3.9750004 0.76652545 0.24923328 0
3.9740002 0.75985128 0.24927656 0
3.9740002 0.7534045 0.24927656 0
3.9750004 0.74717963 0.24923328 0
3.9780002 0.74139118 0.2491034 0
3.9820004 0.73581016 0.24893023 0
3.9890003 0.73086411 0.24862719 0
4.0009999 0.72696608 0.24810769 0
4.2390003 0.6187827 0.23780434 0
4.23 0.61031562 0.23819396 0
4.2270002 0.60289836 0.23832384 0
4.2260003 0.59582746 0.23836713 0
4.2260003 0.58892602 0.23836713 0
4.2280002 0.58235294 0.23828055 0
4.2309999 0.57593501 0.23815067 0
4.237 0.56998789 0.23789091 0
4.2480001 0.56481278 0.23741472 0
4.2460003 1.1749907 0.23056386 0
4.2390003 1.1658434 0.23087952 0
4.2360001 1.1579771 0.2310148 0
4.2340002 1.1504335 0.23110498 0
4.2330003 1.1432074 0.23115009 0
4.2330003 1.1362935 0.23115009 0
4.2350001 1.1299928 0.23105989 0
4.237 1.1236848 0.23096971 0
4.2400002 1.1176727 0.23083442 0
4.243 1.1116498 0.23069914 0
4.2480001 1.106215 0.23047367 0
4.2540002 1.1010597 0.23020309 0
4.2620001 1.0964744 0.22984233 0
4.2740002 1.0930364 0.2293012 0
4.1440001 1.0277998 0.23516355 0
4.1389999 1.0196214 0.23538905 0
4.1370001 1.0123105 0.23547924 0
4.1370001 1.0055697 0.23547924 0
4.138 0.99910843 0.23543413 0
4.1410003 0.99319911 0.23529886 0
4.145 0.98755515 0.23511848 0
4.152 0.98271906 0.2348028 0
4.1630001 0.97894728 0.23430675 0
4.4530001 1.0360035 0.22122917 0
4.4480004 1.0273669 0.22145461 0
4.4450002 1.019275 0.22158991 0
4.4430003 1.0114555 0.2216801 0
4.4430003 1.0041627 0.2216801 0
4.4440002 0.99712777 0.221635 0
4.4460001 0.99034548 0.22154482 0
4.4480004 0.98355603 0.22145461 0
4.4520001 0.97726429 0.22127424 0
4.4570003 0.97120893 0.22104877 0
4.4640002 0.96563339 0.22073309 0
4.4730005 0.96052682 0.22032723 0
3.9880002 0.78242415 0.24219841 0
3.9790003 0.77389038 0.24260427 0
3.9750004 0.76652545 0.24278465 0
3.9740002 0.75985128 0.24282974 0
3.9740002 0.7534045 0.24282974 0
3.9750004 0.74717963 0.24278465 0
3.9780002 0.74139118 0.24264936 0
3.9820004 0.73581016 0.24246898 0
3.9890003 0.73086411 0.24215332 0
4.0009999 0.72696608 0.24161218 0
4.2390003 0.6187827 0.23087952 0
4.23 0.61031562 0.23128536 0
4.2270002 0.60289836 0.23142067 0
4.2260003 0.59582746 0.23146574 0
4.2260003 0.58892602 0.23146574 0
4.2280002 0.58235294 0.23137556 0
4.2309999 0.57593501 0.23124029 0
4.237 0.56998789 0.23096971 0
4.2480001 0.56481278 0.23047367 0
4.2460003 1.1749907 0.22362641 0
4.2390003 1.1658434 0.22395471 0
4.2360001 1.1579771 0.22409539 0
4.2340002 1.1504335 0.22418919 0
4.2330003 1.1432074 0.22423609 0
4.2330003 1.1362935 0.22423609 0
4.2350001 1.1299928 0.2241423 0
4.237 1.1236848 0.22404851 0
4.2400002 1.1176727 0.2239078 0
4.243 1.1116498 0.2237671 0
4.2480001 1.106215 0.2235326 0
4.2540002 1.1010597 0.22325122 0
4.2620001 1.0964744 0.22287603 0
4.2740002 1.0930364 0.22231324 0
4.1440001 1.0277998 0.22841011 0
4.1389999 1.0196214 0.22864459 0
4.1370001 1.0123105 0.2287384 0
4.1370001 1.0055697 0.2287384 0
4.138 0.99910843 0.2286915 0
4.1410003 0.99319911 0.22855079 0
4.145 0.98755515 0.22836322 0
4.152 0.98271906 0.22803491 0
4.1630001 0.97894728 0.22751902 0
4.4530001 1.0360035 0.21391833 0
4.4480004 1.0273669 0.2141528 0
4.4450002 1.019275 0.21429351 0
4.4430003 1.0114555 0.2143873 0
4.4430003 1.0041627 0.2143873 0
4.4440002 0.99712777 0.2143404 0
4.4460001 0.99034548 0.21424662 0
4.4480004 0.98355603 0.2141528 0
4.4520001 0.97726429 0.21396521 0
4.4570003 0.97120893 0.21373072 0
4.4640002 0.96563339 0.21340242 0
4.4730005 0.96052682 0.21298032 0
3.9880002 0.78242415 0.23572636 0
3.9790003 0.77389038 0.23614843 0
3.9750004 0.76652545 0.23633604 0
3.9740002 0.75985128 0.23638295 0
3.9740002 0.7534045 0.23638295 0
3.9750004 0.74717963 0.23633604 0
3.9780002 0.74139118 0.23619536 0
3.9820004 0.73581016 0.23600775 0
3.9890003 0.73086411 0.23567946 0
4.0009999 0.72696608 0.23511668 0
4.2390003 0.6187827 0.22395471 0
4.23 0.61031562 0.2243768 0
4.2270002 0.60289836 0.22451748 0
4.2260003 0.59582746 0.22456439 0
4.2260003 0.58892602 0.22456439 0
4.2280002 0.58235294 0.2244706 0
4.2309999 0.57593501 0.22432989 0
4.237 0.56998789 0.22404851 0
4.2480001 0.56481278 0.2235326 0
4.2460003 1.1749907 0.21668896 0
4.2390003 1.1658434 0.21702987 0
4.2360001 1.1579771 0.21717599 0
4.2340002 1.1504335 0.2172734 0
4.2330003 1.1432074 0.2173221 0
4.2330003 1.1362935 0.2173221 0
4.2350001 1.1299928 0.21722469 0
4.237 1.1236848 0.21712728 0
4.2400002 1.1176727 0.21698117 0
4.243 1.1116498 0.21683507 0
4.2480001 1.106215 0.21659154 0
4.2540002 1.1010597 0.21629936 0
4.2620001 1.0964744 0.2159097 0
4.2740002 1.0930364 0.2153253 0
4.1440001 1.0277998 0.22165665 0
4.1389999 1.0196214 0.22190017 0
4.1370001 1.0123105 0.22199756 0
4.1370001 1.0055697 0.22199756 0
4.138 0.99910843 0.22194886 0
4.1410003 0.99319911 0.22180276 0
4.145 0.98755515 0.22160794 0
4.152 0.98271906 0.22126703 0
4.1630001 0.97894728 0.22073129 0
4.4530001 1.0360035 0.20660749 0
4.4480004 1.0273669 0.20685099 0
4.4450002 1.019275 0.2069971 0
4.4430003 1.0114555 0.20709451 0
4.4430003 1.0041627 0.20709451 0
4.4440002 0.99712777 0.20704581 0
4.4460001 0.99034548 0.20694841 0
4.4480004 0.98355603 0.20685099 0
4.4520001 0.97726429 0.20665619 0
4.4570003 0.97120893 0.20641267 0
4.4640002 0.96563339 0.20607175 0
4.4730005 0.96052682 0.20563342 0
3.9880002 0.78242415 0.22925429 0
3.9790003 0.77389038 0.22969261 0
3.9750004 0.76652545 0.22988741 0
3.9740002 0.75985128 0.22993614 0
3.9740002 0.7534045 0.22993614 0
3.9750004 0.74717963 0.22988741 0
3.9780002 0.74139118 0.22974132 0
3.9820004 0.73581016 0.2295465 0
3.9890003 0.73086411 0.22920558 0
4.0009999 0.72696608 0.22862116 0
4.2390003 0.6187827 0.21702987 0
4.23 0.61031562 0.2174682 0
4.2270002 0.60289836 0.21761432 0
4.2260003 0.59582746 0.21766302 0
4.2260003 0.58892602 0.21766302 0
4.2280002 0.58235294 0.21756561 0
4.2309999 0.57593501 0.21741951 0
4.237 0.56998789 0.21712728 0
4.2480001 0.56481278 0.21659154 0
4.2460003 1.1749907 0.20975152 0
4.2390003 1.1658434 0.21010506 0
4.2360001 1.1579771 0.21025658 0
4.2340002 1.1504335 0.21035759 0
4.2330003 1.1432074 0.21040811 0
4.2330003 1.1362935 0.21040811 0
4.2350001 1.1299928 0.21030709 0
4.237 1.1236848 0.21020608 0
4.2400002 1.1176727 0.21005456 0
4.243 1.1116498 0.20990303 0
4.2480001 1.106215 0.20965049 0
4.2540002 1.1010597 0.20934747 0
4.2620001 1.0964744 0.2089434 0
4.2740002 1.0930364 0.20833734 0
4.1440001 1.0277998 0.21490319 0
4.1389999 1.0196214 0.21515574 0
4.1370001 1.0123105 0.21525672 0
4.1370001 1.0055697 0.21525672 0
4.138 0.99910843 0.21520624 0
4.1410003 0.99319911 0.21505472 0
4.145 0.98755515 0.21485269 0
4.152 0.98271906 0.21449915 0
4.1630001 0.97894728 0.21394356 0
4.4530001 1.0360035 0.19929665 0
4.4480004 1.0273669 0.19954917 0
4.4450002 1.019275 0.1997007 0
4.4430003 1.0114555 0.1998017 0
4.4430003 1.0041627 0.1998017 0
4.4440002 0.99712777 0.19975121 0
4.4460001 0.99034548 0.1996502 0
4.4480004 0.98355603 0.19954917 0
4.4520001 0.97726429 0.19934715 0
4.4570003 0.97120893 0.19909461 0
4.4640002 0.96563339 0.19874106 0
4.4730005 0.96052682 0.19828649 0
3.9880002 0.78242415 0.22278222 0
3.9790003 0.77389038 0.22323678 0
3.9750004 0.76652545 0.22343881 0
3.9740002 0.75985128 0.22348931 0
3.9740002 0.7534045 0.22348931 0
3.9750004 0.74717963 0.22343881 0
3.9780002 0.74139118 0.22328728 0
3.9820004 0.73581016 0.22308527 0
3.9890003 0.73086411 0.22273172 0
4.0009999 0.72696608 0.22212563 0
4.2390003 0.6187827 0.21010506 0
4.23 0.61031562 0.21055962 0
4.2270002 0.60289836 0.21071114 0
4.2260003 0.59582746 0.21076165 0
4.2260003 0.58892602 0.21076165 0
4.2280002 0.58235294 0.21066064 0
4.2309999 0.57593501 0.21050911 0
4.237 0.56998789 0.21020608 0
4.2480001 0.56481278 0.20965049 0
4.2460003 1.1749907 0.20281407 0
4.2390003 1.1658434 0.20318024 0
4.2360001 1.1579771 0.20333718 0
4.2340002 1.1504335 0.2034418 0
4.2330003 1.1432074 0.2034941 0
4.2330003 1.1362935 0.2034941 0
4.2350001 1.1299928 0.20338947 0
4.237 1.1236848 0.20328486 0
4.2400002 1.1176727 0.20312794 0
4.243 1.1116498 0.202971 0
4.2480001 1.106215 0.20270944 0
4.2540002 1.1010597 0.20239559 0
4.2620001 1.0964744 0.20197709 0
4.2740002 1.0930364 0.20134938 0
4.1440001 1.0277998 0.20814973 0
4.1389999 1.0196214 0.20841129 0
4.1370001 1.0123105 0.2085159 0
4.1370001 1.0055697 0.2085159 0
4.138 0.99910843 0.20846359 0
4.1410003 0.99319911 0.20830666 0
4.145 0.98755515 0.20809743 0
4.152 0.98271906 0.20773125 0
4.1630001 0.97894728 0.20715582 0
4.4530001 1.0360035 0.19198582 0
4.4480004 1.0273669 0.19224735 0
4.4450002 1.019275 0.1924043 0
4.4430003 1.0114555 0.19250891 0
4.4430003 1.0041627 0.19250891 0
4.4440002 0.99712777 0.1924566 0
4.4460001 0.99034548 0.192352 0
4.4480004 0.98355603 0.19224735 0
4.4520001 0.97726429 0.19203812 0
4.4570003 0.97120893 0.19177656 0
4.4640002 0.96563339 0.19141039 0
4.4730005 0.96052682 0.19093959 0
3.9880002 0.78242415 0.21631016 0
3.9790003 0.77389038 0.21678095 0
3.9750004 0.76652545 0.21699019 0
3.9740002 0.75985128 0.21704251 0
3.9740002 0.7534045 0.21704251 0
3.9750004 0.74717963 0.21699019 0
3.9780002 0.74139118 0.21683328 0
3.9820004 0.73581016 0.21662402 0
3.9890003 0.73086411 0.21625784 0
4.0009999 0.72696608 0.21563013 0
4.2390003 0.6187827 0.20318024 0
4.23 0.61031562 0.20365103 0
4.2270002 0.60289836 0.20380796 0
4.2260003 0.59582746 0.20386027 0
4.2260003 0.58892602 0.20386027 0
4.2280002 0.58235294 0.20375566 0
4.2309999 0.57593501 0.20359874 0
4.237 0.56998789 0.20328486 0
4.2480001 0.56481278 0.20270944 0
4.2460003 1.1749907 0.19587663 0
4.2390003 1.1658434 0.19625542 0
4.2360001 1.1579771 0.19641775 0
4.2340002 1.1504335 0.19652599 0
4.2330003 1.1432074 0.19658011 0
4.2330003 1.1362935 0.19658011 0
4.2350001 1.1299928 0.19647187 0
4.237 1.1236848 0.19636366 0
4.2400002 1.1176727 0.19620131 0
4.243 1.1116498 0.19603896 0
4.2480001 1.106215 0.19576839 0
4.2540002 1.1010597 0.1954437 0
4.2620001 1.0964744 0.19501078 0
4.2740002 1.0930364 0.19436143 0
4.1440001 1.0277998 0.20139627 0
4.1389999 1.0196214 0.20166685 0
4.1370001 1.0123105 0.20177507 0
4.1370001 1.0055697 0.20177507 0
4.138 0.99910843 0.20172095 0
4.1410003 0.99319911 0.20155862 0
4.145 0.98755515 0.20134215 0
4.152 0.98271906 0.20096336 0
4.1630001 0.97894728 0.20036811 0
4.4530001 1.0360035 0.18467499 0
4.4480004 1.0273669 0.18494554 0
4.4450002 1.019275 0.18510789 0
4.4430003 1.0114555 0.18521611 0
4.4430003 1.0041627 0.18521611 0
4.4440002 0.99712777 0.18516199 0
4.4460001 0.99034548 0.18505378 0
4.4480004 0.98355603 0.18494554 0
4.4520001 0.97726429 0.1847291 0
4.4570003 0.97120893 0.18445851 0
4.4640002 0.96563339 0.18407972 0
4.4730005 0.96052682 0.18359268 0
3.9880002 0.78242415 0.20983811 0
3.9790003 0.77389038 0.21032512 0
3.9750004 0.76652545 0.21054158 0
3.9740002 0.75985128 0.2105957 0
3.9740002 0.7534045 0.2105957 0
3.9750004 0.74717963 0.21054158 0
3.9780002 0.74139118 0.21037924 0
3.9820004 0.73581016 0.21016277 0
3.9890003 0.73086411 0.20978399 0
4.0009999 0.72696608 0.20913462 0
4.2390003 0.6187827 0.19625542 0
4.23 0.61031562 0.19674246 0
4.2270002 0.60289836 0.19690479 0
4.2260003 0.59582746 0.1969589 0
4.2260003 0.58892602 0.1969589 0
4.2280002 0.58235294 0.19685067 0
4.2309999 0.57593501 0.19668834 0
4.237 0.56998789 0.19636366 0
4.2480001 0.56481278 0.19576839 0
4.2460003 1.1749907 0.18893917 0
4.2390003 1.1658434 0.18933059 0
4.2360001 1.1579771 0.18949835 0
4.2340002 1.1504335 0.1896102 0
4.2330003 1.1432074 0.18966611 0
4.2330003 1.1362935 0.18966611 0
4.2350001 1.1299928 0.18955426 0
4.237 1.1236848 0.18944244 0
4.2400002 1.1176727 0.18927468 0
4.243 1.1116498 0.18910693 0
4.2480001 1.106215 0.18882734 0
4.2540002 1.1010597 0.18849184 0
4.2620001 1.0964744 0.18804449 0
4.2740002 1.0930364 0.18737347 0
4.1440001 1.0277998 0.19464283 0
4.1389999 1.0196214 0.1949224 0
4.1370001 1.0123105 0.19503424 0
4.1370001 1.0055697 0.19503424 0
4.138 0.99910843 0.19497833 0
4.1410003 0.99319911 0.19481057 0
4.145 0.98755515 0.1945869 0
4.152 0.98271906 0.19419548 0
4.1630001 0.97894728 0.19358037 0
4.4530001 1.0360035 0.17736416 0
4.4480004 1.0273669 0.17764373 0
4.4450002 1.019275 0.17781149 0
4.4430003 1.0114555 0.17792331 0
4.4430003 1.0041627 0.17792331 0
4.4440002 0.99712777 0.1778674 0
4.4460001 0.99034548 0.17775556 0
4.4480004 0.98355603 0.17764373 0
4.4520001 0.97726429 0.17742006 0
4.4570003 0.97120893 0.17714046 0
4.4640002 0.96563339 0.17674905 0
4.4730005 0.96052682 0.17624576 0
3.9880002 0.78242415 0.20336603 0
3.9790003 0.77389038 0.2038693 0
3.9750004 0.76652545 0.20409295 0
3.9740002 0.75985128 0.20414889 0
3.9740002 0.7534045 0.20414889 0
3.9750004 0.74717963 0.20409295 0
3.9780002 0.74139118 0.20392522 0
3.9820004 0.73581016 0.20370154 0
3.9890003 0.73086411 0.2033101 0
4.0009999 0.72696608 0.2026391 0
4.2390003 0.6187827 0.18933059 0
4.23 0.61031562 0.18983386 0
4.2270002 0.60289836 0.19000162 0
4.2260003 0.59582746 0.19005755 0
4.2260003 0.58892602 0.19005755 0
4.2280002 0.58235294 0.18994571 0
4.2309999 0.57593501 0.18977796 0
4.237 0.56998789 0.18944244 0
4.2480001 0.56481278 0.18882734 0
4.2460003 1.1749907 0.18200172 0
4.2390003 1.1658434 0.18240578 0
4.2360001 1.1579771 0.18257895 0
4.2340002 1.1504335 0.18269439 0
4.2330003 1.1432074 0.18275212 0
4.2330003 1.1362935 0.18275212 0
4.2350001 1.1299928 0.18263666 0
4.237 1.1236848 0.18252122 0
4.2400002 1.1176727 0.18234806 0
4.243 1.1116498 0.18217489 0
4.2480001 1.106215 0.18188627 0
4.2540002 1.1010597 0.18153995 0
4.2620001 1.0964744 0.18107818 0
4.2740002 1.0930364 0.18038552 0
4.1440001 1.0277998 0.18788935 0
4.1389999 1.0196214 0.18817797 0
4.1370001 1.0123105 0.18829341 0
4.1370001 1.0055697 0.18829341 0
4.138 0.99910843 0.18823569 0
4.1410003 0.99319911 0.18806252 0
4.145 0.98755515 0.18783164 0
4.152 0.98271906 0.18742758 0
4.1630001 0.97894728 0.18679264 0
4.4530001 1.0360035 0.17005332 0
4.4480004 1.0273669 0.17034191 0
4.4450002 1.019275 0.17051509 0
4.4430003 1.0114555 0.17063051 0
4.4430003 1.0041627 0.17063051 0
4.4440002 0.99712777 0.1705728 0
4.4460001 0.99034548 0.17045736 0
4.4480004 0.98355603 0.17034191 0
4.4520001 0.97726429 0.17011103 0
4.4570003 0.97120893 0.16982241 0
4.4640002 0.96563339 0.16941836 0
4.4730005 0.96052682 0.16889885 0
3.9880002 0.78242415 0.19689398 0
3.9790003 0.77389038 0.19741346 0
3.9750004 0.76652545 0.19764435 0
3.9740002 0.75985128 0.19770208 0
3.9740002 0.7534045 0.19770208 0
3.9750004 0.74717963 0.19764435 0
3.9780002 0.74139118 0.19747119 0
3.9820004 0.73581016 0.19724029 0
3.9890003 0.73086411 0.19683625 0
4.0009999 0.72696608 0.19614358 0
4.2390003 0.6187827 0.18240578 0
4.23 0.61031562 0.18292528 0
4.2270002 0.60289836 0.18309845 0
4.2260003 0.59582746 0.18315616 0
4.2260003 0.58892602 0.18315616 0
4.2280002 0.58235294 0.18304072 0
4.2309999 0.57593501 0.18286756 0
4.237 0.56998789 0.18252122 0
4.2480001 0.56481278 0.18188627 0
4.2460003 1.1749907 0.17506428 0
4.2390003 1.1658434 0.17548096 0
4.2360001 1.1579771 0.17565954 0
4.2340002 1.1504335 0.1757786 0
4.2330003 1.1432074 0.17583811 0
4.2330003 1.1362935 0.17583811 0
4.2350001 1.1299928 0.17571905 0
4.237 1.1236848 0.17560002 0
4.2400002 1.1176727 0.17542145 0
4.243 1.1116498 0.17524286 0
4.2480001 1.106215 0.17494522 0
4.2540002 1.1010597 0.17458807 0
4.2620001 1.0964744 0.17411187 0
4.2740002 1.0930364 0.17339757 0
4.1440001 1.0277998 0.18113589 0
4.1389999 1.0196214 0.18143354 0
4.1370001 1.0123105 0.18155257 0
4.1370001 1.0055697 0.18155257 0
4.138 0.99910843 0.18149306 0
4.1410003 0.99319911 0.18131448 0
4.145 0.98755515 0.18107638 0
4.152 0.98271906 0.1806597 0
4.1630001 0.97894728 0.18000491 0
4.4530001 1.0360035 0.1627425 0
4.4480004 1.0273669 0.16304009 0
4.4450002 1.019275 0.16321868 0
4.4430003 1.0114555 0.16333772 0
4.4430003 1.0041627 0.16333772 0
4.4440002 0.99712777 0.16327819 0
4.4460001 0.99034548 0.16315915 0
4.4480004 0.98355603 0.16304009 0
4.4520001 0.97726429 0.162802 0
4.4570003 0.97120893 0.16250436 0
4.4640002 0.96563339 0.16208769 0
4.4730005 0.96052682 0.16155194 0
3.9880002 0.78242415 0.19042191 0
3.9790003 0.77389038 0.19095762 0
3.9750004 0.76652545 0.19119574 0
3.9740002 0.75985128 0.19125527 0
3.9740002 0.7534045 0.19125527 0
3.9750004 0.74717963 0.19119574 0
3.9780002 0.74139118 0.19101717 0
3.9820004 0.73581016 0.19077905 0
3.9890003 0.73086411 0.19036238 0
4.0009999 0.72696608 0.18964808 0
4.2390003 0.6187827 0.17548096 0
4.23 0.61031562 0.17601669 0
4.2270002 0.60289836 0.17619526 0
4.2260003 0.59582746 0.17625478 0
4.2260003 0.58892602 0.17625478 0
4.2280002 0.58235294 0.17613575 0
4.2309999 0.57593501 0.17595717 0
4.237 0.56998789 0.17560002 0
4.2480001 0.56481278 0.17494522 0
4.2460003 1.1749907 0.16812684 0
4.2390003 1.1658434 0.16855615 0
4.2360001 1.1579771 0.16874012 0
4.2340002 1.1504335 0.16886279 0
4.2330003 1.1432074 0.16892412 0
4.2330003 1.1362935 0.16892412 0
4.2350001 1.1299928 0.16880144 0
4.237 1.1236848 0.16867879 0
4.2400002 1.1176727 0.16849482 0
4.243 1.1116498 0.16831084 0
4.2480001 1.106215 0.16800416 0
4.2540002 1.1010597 0.16763619 0
4.2620001 1.0964744 0.16714555 0
4.2730002 1.0927423 0.16647093 0
4.1440001 1.0277998 0.17438245 0
4.1389999 1.0196214 0.1746891 0
4.1370001 1.0123105 0.17481175 0
4.1370001 1.0055697 0.17481175 0
4.138 0.99910843 0.17475042 0
4.1410003 0.99319911 0.17456643 0
4.145 0.98755515 0.17432112 0
4.152 0.98271906 0.17389181 0
4.1630001 0.97894728 0.17321718 0
4.4530001 1.0360035 0.15543164 0
4.4480004 1.0273669 0.15573825 0
4.4450002 1.019275 0.15592228 0
4.4430003 1.0114555 0.15604493 0
4.4430003 1.0041627 0.15604493 0
4.4440002 0.99712777 0.15598361 0
4.4460001 0.99034548 0.15586096 0
4.4480004 0.98355603 0.15573825 0
4.4520001 0.97726429 0.15549296 0
4.4570003 0.97120893 0.15518633 0
4.4640002 0.96563339 0.15475701 0
4.4730005 0.96052682 0.15420504 0
3.9880002 0.78242415 0.18394984 0
3.9790003 0.77389038 0.18450181 0
3.9750004 0.76652545 0.18474711 0
3.9740002 0.75985128 0.18480845 0
3.9740002 0.7534045 0.18480845 0
3.9750004 0.74717963 0.18474711 0
3.9780002 0.74139118 0.18456315 0
3.9820004 0.73581016 0.18431781 0
3.9890003 0.73086411 0.18388851 0
4.0009999 0.72696608 0.18315256 0
4.2390003 0.6187827 0.16855615 0
4.23 0.61031562 0.16910811 0
4.2270002 0.60289836 0.16929209 0
4.2260003 0.59582746 0.16935341 0
4.2260003 0.58892602 0.16935341 0
4.2280002 0.58235294 0.16923076 0
4.2309999 0.57593501 0.16904679 0
4.237 0.56998789 0.16867879 0
4.2480001 0.56481278 0.16800416 0
4.2460003 1.1749907 0.16118939 0
4.2390003 1.1658434 0.16163132 0
4.2360001 1.1579771 0.16182071 0
4.2340002 1.1504335 0.161947 0
4.2330003 1.1432074 0.16201013 0
4.2330003 1.1362935 0.16201013 0
4.2350001 1.1299928 0.16188386 0
4.237 1.1236848 0.1617576 0
4.2400002 1.1176727 0.16156818 0
4.243 1.1116498 0.16137879 0
4.2480001 1.106215 0.16106312 0
4.2540002 1.1010597 0.16068433 0
4.2620001 1.0964744 0.16017924 0
4.2730002 1.0927423 0.15948479 0
4.1440001 1.0277998 0.16762897 0
4.1389999 1.0196214 0.16794465 0
4.1370001 1.0123105 0.1680709 0
4.1370001 1.0055697 0.1680709 0
4.138 0.99910843 0.16800779 0
4.1410003 0.99319911 0.16781837 0
4.145 0.98755515 0.16756587 0
4.152 0.98271906 0.16712391 0
4.1630001 0.97894728 0.16642946 0
4.4530001 1.0360035 0.14812082 0
4.4480004 1.0273669 0.14843646 0
4.4450002 1.019275 0.14862588 0
4.4430003 1.0114555 0.14875212 0
4.4430003 1.0041627 0.14875212 0
4.4440002 0.99712777 0.148689 0
4.4460001 0.99034548 0.14856273 0
4.4480004 0.98355603 0.14843646 0
4.4520001 0.97726429 0.14818394 0
4.4570003 0.97120893 0.14786825 0
4.4640002 0.96563339 0.14742634 0
4.4730005 0.96052682 0.14685813 0
3.9880002 0.78242415 0.17747778 0
3.9790003 0.77389038 0.17804597 0
3.9750004 0.76652545 0.1782985 0
3.9740002 0.75985128 0.17836164 0
3.9740002 0.7534045 0.17836164 0
3.9750004 0.74717963 0.1782985 0
3.9780002 0.74139118 0.17810911 0
3.9820004 0.73581016 0.17785656 0
3.9890003 0.73086411 0.17741464 0
