# .PCD v0.7 - Point Cloud Data file format
VERSION 0.7
FIELDS x y z intensity
SIZE 4 4 4 4
TYPE F F F F
COUNT 1 1 1 1
WIDTH 1462
HEIGHT 1
VIEWPOINT 0 0 0 1 0 0 0
POINTS 1462
DATA ascii
3.6740003 1.3477377 0.72881174 0
3.6790001 1.3439515 0.72930777 0
3.6830003 1.3397251 0.72970468 0
3.6880002 1.3359046 0.73020071 0
3.6920002 1.3316476 0.7305975 0
3.6970003 1.327793 0.73109359 0
3.5480003 1.5212352 0.71063304 0
3.5500002 1.5165488 0.71082783 0
3.5510004 1.5113612 0.71092522 0
3.5530002 1.5066622 0.71112001 0
3.5550003 1.5019561 0.7113148 0
3.5440001 1.462532 0.71024334 0
3.5480003 1.458773 0.71063304 0
3.5520003 1.4549993 0.71102262 0
3.5560002 1.4512113 0.71141219 0
3.5600002 1.4474089 0.71180183 0
3.5650003 1.4440628 0.71228886 0
3.5690002 1.4402298 0.71267849 0
3.5730002 1.4363822 0.71306813 0
3.5770001 1.4325203 0.7134577 0
3.5800002 1.4281802 0.71374995 0
3.5810003 1.422906 0.7138474 0
3.5830002 1.418088 0.71404219 0
3.5850003 1.4132628 0.71423697 0
3.5860002 1.407974 0.71433437 0
3.5880003 1.4031363 0.71452922 0
3.5900002 1.3982911 0.71472406 0
3.5910003 1.3929881 0.71482146 0
3.6470003 1.3713856 0.72027612 0
3.6520002 1.3677021 0.72076315 0
3.6560001 1.3635678 0.72115278 0
3.6600003 1.3594192 0.72154242 0
3.6650002 1.3556852 0.72202945 0
3.6690001 1.3515058 0.72241902 0
3.6740003 1.3477377 0.72290611 0
3.6790001 1.3439515 0.72339308 0
3.6830003 1.3397251 0.72378278 0
3.6880002 1.3359046 0.72426975 0
3.6920002 1.3316476 0.72465938 0
3.6970003 1.327793 0.72514641 0
3.5480003 1.5212352 0.70495462 0
3.5500002 1.5165488 0.70514584 0
3.5510004 1.5113612 0.70524144 0
3.5530002 1.5066622 0.70543259 0
3.5550003 1.5019561 0.70562381 0
3.5440001 1.462532 0.7045722 0
3.5480003 1.458773 0.70495462 0
3.5520003 1.4549993 0.70533705 0
3.5560002 1.4512113 0.70571941 0
3.5600002 1.4474089 0.70610183 0
3.5650003 1.4440628 0.7065798 0
3.5690002 1.4402298 0.70696223 0
3.5730002 1.4363822 0.70734465 0
3.5770001 1.4325203 0.70772702 0
3.5800002 1.4281802 0.70801389 0
3.5810003 1.422906 0.7081095 0
3.5830002 1.418088 0.70830065 0
3.5850003 1.4132628 0.70849186 0
3.5860002 1.407974 0.70858747 0
3.5880003 1.4031363 0.70877862 0
3.5900002 1.3982911 0.70896983 0
3.5910003 1.3929881 0.7090655 0
3.6470003 1.3713856 0.71441919 0
3.6520002 1.3677021 0.71489716 0
3.6560001 1.3635678 0.71527958 0
3.6600003 1.3594192 0.715662 0
3.6650002 1.3556852 0.71614003 0
3.6690001 1.3515058 0.7165224 0
3.6740003 1.3477377 0.71700042 0
3.6790001 1.3439515 0.71747839 0
3.6830003 1.3397251 0.71786082 0
3.6880002 1.3359046 0.71833885 0
3.6920002 1.3316476 0.71872127 0
3.6970003 1.327793 0.7191993 0
3.5480003 1.5212352 0.69927621 0
3.5500002 1.5165488 0.69946378 0
3.5510004 1.5113612 0.69955766 0
3.5530002 1.5066622 0.69974518 0
3.5550003 1.5019561 0.69993281 0
3.5440001 1.462532 0.698901 0
3.5480003 1.458773 0.69927621 0
3.5520003 1.4549993 0.69965136 0
3.5560002 1.4512113 0.70002657 0
3.5600002 1.4474089 0.70040178 0
3.5650003 1.4440628 0.70087075 0
3.5690002 1.4402298 0.70124596 0
3.5730002 1.4363822 0.70162117 0
3.5770001 1.4325203 0.70199633 0
3.5800002 1.4281802 0.70227772 0
3.5810003 1.422906 0.7023716 0
3.5830002 1.418088 0.70255911 0
3.5850003 1.4132628 0.70274675 0
3.5860002 1.407974 0.70284057 0
3.5880003 1.4031363 0.70302814 0
3.5900002 1.3982911 0.70321572 0
3.5910003 1.3929881 0.70330954 0
3.6470003 1.3713856 0.70856225 0
3.6520002 1.3677021 0.70903122 0
3.6560001 1.3635678 0.70940638 0
3.6600003 1.3594192 0.70978165 0
3.6650002 1.3556852 0.71025056 0
3.6690001 1.3515058 0.71062577 0
3.6740003 1.3477377 0.71109474 0
3.6790001 1.3439515 0.71156371 0
3.6830003 1.3397251 0.71193898 0
3.6880002 1.3359046 0.71240795 0
3.6920002 1.3316476 0.7127831 0
3.6970003 1.327793 0.71325213 0
3.5480003 1.5212352 0.69359785 0
3.5500002 1.5165488 0.69378185 0
3.5510004 1.5113612 0.69387382 0
3.5530002 1.5066622 0.69405782 0
3.5550003 1.5019561 0.69424176 0
3.5440001 1.462532 0.69322985 0
3.5480003 1.458773 0.69359785 0
3.5520003 1.4549993 0.69396579 0
3.5560002 1.4512113 0.69433379 0
3.5600002 1.4474089 0.69470173 0
3.5650003 1.4440628 0.6951617 0
3.5690002 1.4402298 0.6955297 0
3.5730002 1.4363822 0.6958977 0
3.5770001 1.4325203 0.69626564 0
3.5800002 1.4281802 0.69654167 0
3.5810003 1.422906 0.69663364 0
3.5830002 1.418088 0.69681764 0
3.5850003 1.4132628 0.69700158 0
3.5860002 1.407974 0.69709361 0
3.5880003 1.4031363 0.69727761 0
3.5900002 1.3982911 0.69746161 0
3.5910003 1.3929881 0.69755358 0
3.6470003 1.3713856 0.70270526 0
3.6520002 1.3677021 0.70316517 0
3.6560001 1.3635678 0.70353317 0
3.6600003 1.3594192 0.70390117 0
3.6650002 1.3556852 0.70436114 0
3.6690001 1.3515058 0.70472908 0
3.6740003 1.3477377 0.70518911 0
3.6790001 1.3439515 0.70564902 0
3.6830003 1.3397251 0.70601702 0
3.6880002 1.3359046 0.70647699 0
3.6920002 1.3316476 0.70684493 0
3.6970003 1.327793 0.70730495 0
3.5480003 1.5212352 0.68791944 0
3.5500002 1.5165488 0.6880998 0
3.5510004 1.5113612 0.68818998 0
3.5530002 1.5066622 0.68837035 0
3.5550003 1.5019561 0.68855077 0
3.5440001 1.462532 0.68755865 0
3.5480003 1.458773 0.68791944 0
3.5520003 1.4549993 0.68828022 0
3.5560002 1.4512113 0.68864095 0
3.5600002 1.4474089 0.68900168 0
3.5650003 1.4440628 0.68945265 0
3.5690002 1.4402298 0.68981344 0
3.5730002 1.4363822 0.69017422 0
3.5770001 1.4325203 0.69053495 0
3.5800002 1.4281802 0.69080549 0
3.5810003 1.422906 0.69089574 0
3.5830002 1.418088 0.6910761 0
3.5850003 1.4132628 0.69125652 0
3.5860002 1.407974 0.69134665 0
3.5880003 1.4031363 0.69152701 0
3.5900002 1.3982911 0.69170737 0
3.5910003 1.3929881 0.69179761 0
3.6470003 1.3713856 0.69684827 0
3.6520002 1.3677021 0.69729924 0
3.6560001 1.3635678 0.69765997 0
3.6600003 1.3594192 0.69802076 0
3.6650002 1.3556852 0.69847167 0
3.6690001 1.3515058 0.69883245 0
3.6740003 1.3477377 0.69928342 0
3.6790001 1.3439515 0.69973433 0
3.6830003 1.3397251 0.70009518 0
3.6880002 1.3359046 0.70054609 0
3.6920002 1.3316476 0.70090687 0
3.6970003 1.327793 0.70135784 0
3.5480003 1.5212352 0.68224108 0
3.5500002 1.5165488 0.68241781 0
3.5510004 1.5113612 0.6825062 0
3.5530002 1.5066622 0.68268299 0
3.5550003 1.5019561 0.68285978 0
3.5440001 1.462532 0.68188751 0
3.5480003 1.458773 0.68224108 0
3.5520003 1.4549993 0.6825946 0
3.5560002 1.4512113 0.68294811 0
3.5600002 1.4474089 0.68330169 0
3.5650003 1.4440628 0.6837436 0
3.5690002 1.4402298 0.68409717 0
3.5730002 1.4363822 0.68445075 0
3.5770001 1.4325203 0.68480426 0
3.5800002 1.4281802 0.68506944 0
3.5810003 1.422906 0.68515778 0
3.5830002 1.418088 0.68533456 0
3.5850003 1.4132628 0.68551135 0
3.5860002 1.407974 0.68559968 0
3.5880003 1.4031363 0.68577647 0
3.5900002 1.3982911 0.68595326 0
3.5910003 1.3929881 0.68604165 0
3.6470003 1.3713856 0.69099128 0
3.6520002 1.3677021 0.69143325 0
3.6560001 1.3635678 0.69178677 0
3.6600003 1.3594192 0.69214034 0
3.6650002 1.3556852 0.69258225 0
3.6690001 1.3515058 0.69293582 0
3.6740003 1.3477377 0.69337773 0
3.6790001 1.3439515 0.69381964 0
3.6830003 1.3397251 0.69417322 0
3.6880002 1.3359046 0.69461513 0
3.6920002 1.3316476 0.6949687 0
3.6970003 1.327793 0.69541061 0
3.5480003 1.5212352 0.67656267 0
3.5500002 1.5165488 0.67673582 0
3.5510004 1.5113612 0.67682242 0
3.5530002 1.5066622 0.67699558 0
3.5550003 1.5019561 0.67716873 0
3.5440001 1.462532 0.6762163 0
3.5480003 1.458773 0.67656267 0
3.5520003 1.4549993 0.67690897 0
3.5560002 1.4512113 0.67725527 0
3.5600002 1.4474089 0.67760164 0
3.5650003 1.4440628 0.67803454 0
3.5690002 1.4402298 0.67838085 0
3.5730002 1.4363822 0.67872721 0
3.5770001 1.4325203 0.67907357 0
3.5800002 1.4281802 0.67933333 0
3.5810003 1.422906 0.67941988 0
3.5830002 1.418088 0.67959303 0
3.5850003 1.4132628 0.67976618 0
3.5860002 1.407974 0.67985284 0
3.5880003 1.4031363 0.68002599 0
3.5900002 1.3982911 0.68019915 0
3.5910003 1.3929881 0.68028569 0
3.6470003 1.3713856 0.68513441 0
3.6520002 1.3677021 0.68556726 0
3.6560001 1.3635678 0.68591356 0
3.6600003 1.3594192 0.68625993 0
3.6650002 1.3556852 0.68669283 0
3.6690001 1.3515058 0.68703914 0
3.6740003 1.3477377 0.68747211 0
3.6790001 1.3439515 0.68790495 0
3.6830003 1.3397251 0.68825138 0
3.6880002 1.3359046 0.68868423 0
3.6920002 1.3316476 0.68903059 0
3.6970003 1.327793 0.6894635 0
3.5480003 1.5212352 0.67088425 0
3.5500002 1.5165488 0.67105383 0
3.5510004 1.5113612 0.67113864 0
3.5530002 1.5066622 0.67130816 0
3.5550003 1.5019561 0.67147768 0
3.5440001 1.462532 0.67054516 0
3.5480003 1.458773 0.67088425 0
3.5520003 1.4549993 0.6712234 0
3.5560002 1.4512113 0.67156249 0
3.5600002 1.4474089 0.67190158 0
3.5650003 1.4440628 0.67232549 0
3.5690002 1.4402298 0.67266464 0
3.5730002 1.4363822 0.67300379 0
3.5770001 1.4325203 0.67334282 0
3.5800002 1.4281802 0.67359722 0
3.5810003 1.422906 0.67368197 0
3.5830002 1.418088 0.67385149 0
3.5850003 1.4132628 0.67402112 0
3.5860002 1.407974 0.67410588 0
3.5880003 1.4031363 0.6742754 0
3.5900002 1.3982911 0.67444497 0
3.5910003 1.3929881 0.67452979 0
3.6470003 1.3713856 0.67927742 0
3.6520002 1.3677021 0.67970127 0
3.6560001 1.3635678 0.68004036 0
3.6600003 1.3594192 0.68037951 0
3.6650002 1.3556852 0.68080342 0
3.6690001 1.3515058 0.68114251 0
3.6740003 1.3477377 0.68156642 0
3.6790001 1.3439515 0.68199033 0
3.6830003 1.3397251 0.68232942 0
3.6880002 1.3359046 0.68275332 0
3.6920002 1.3316476 0.68309242 0
3.6970003 1.327793 0.68351638 0
3.5480003 1.5212352 0.6652059 0
3.5500002 1.5165488 0.66537184 0
3.5510004 1.5113612 0.6654548 0
3.5530002 1.5066622 0.66562074 0
3.5550003 1.5019561 0.66578674 0
3.5440001 1.462532 0.66487396 0
3.5480003 1.458773 0.6652059 0
3.5520003 1.4549993 0.66553777 0
3.5560002 1.4512113 0.66586971 0
3.5600002 1.4474089 0.66620159 0
3.5650003 1.4440628 0.66661644 0
3.5690002 1.4402298 0.66694832 0
3.5730002 1.4363822 0.66728026 0
3.5770001 1.4325203 0.66761214 0
3.5800002 1.4281802 0.6678611 0
3.5810003 1.422906 0.66794407 0
3.5830002 1.418088 0.66811001 0
3.5850003 1.4132628 0.66827595 0
3.5860002 1.407974 0.66835892 0
3.5880003 1.4031363 0.66852486 0
3.5900002 1.3982911 0.6686908 0
3.5910003 1.3929881 0.66877383 0
3.6470003 1.3713856 0.67342043 0
3.6520002 1.3677021 0.67383528 0
3.6560001 1.3635678 0.67416716 0
3.6600003 1.3594192 0.67449909 0
3.6650002 1.3556852 0.674914 0
3.6690001 1.3515058 0.67524588 0
3.6740003 1.3477377 0.67566073 0
3.6790001 1.3439515 0.67607558 0
3.6830003 1.3397251 0.67640752 0
3.6880002 1.3359046 0.67682242 0
3.6920002 1.3316476 0.6771543 0
3.6970003 1.327793 0.67756915 0
3.5480003 1.5212352 0.65952748 0
3.5500002 1.5165488 0.65968978 0
3.5510004 1.5113612 0.65977103 0
3.5530002 1.5066622 0.65993333 0
3.5550003 1.5019561 0.66009569 0
3.5440001 1.462532 0.65920281 0
3.5480003 1.458773 0.65952748 0
3.5520003 1.4549993 0.65985215 0
3.5560002 1.4512113 0.66017687 0
3.5600002 1.4474089 0.66050154 0
3.5650003 1.4440628 0.66090739 0
3.5690002 1.4402298 0.66123211 0
3.5730002 1.4363822 0.66155678 0
3.5770001 1.4325203 0.66188145 0
3.5800002 1.4281802 0.66212499 0
3.5810003 1.422906 0.66220617 0
3.5830002 1.418088 0.66236848 0
3.5850003 1.4132628 0.66253084 0
3.5860002 1.407974 0.66261202 0
3.5880003 1.4031363 0.66277432 0
3.5900002 1.3982911 0.66293669 0
3.5910003 1.3929881 0.66301787 0
3.6470003 1.3713856 0.66756344 0
3.6520002 1.3677021 0.66796935 0
3.6560001 1.3635678 0.66829395 0
3.6600003 1.3594192 0.66861868 0
3.6650002 1.3556852 0.66902453 0
3.6690001 1.3515058 0.66934919 0
3.6740003 1.3477377 0.6697551 0
3.6790001 1.3439515 0.67016095 0
3.6830003 1.3397251 0.67048562 0
3.6880002 1.3359046 0.67089152 0
3.6920002 1.3316476 0.67121613 0
3.6970003 1.327793 0.67162204 0
3.5480003 1.5212352 0.65384912 0
3.5500002 1.5165488 0.65400779 0
3.5510004 1.5113612 0.65408719 0
3.5530002 1.5066622 0.65424597 0
3.5550003 1.5019561 0.65440464 0
3.5440001 1.462532 0.65353161 0
3.5480003 1.458773 0.65384912 0
3.5520003 1.4549993 0.65416658 0
3.5560002 1.4512113 0.65448403 0
3.5600002 1.4474089 0.65480149 0
3.5650003 1.4440628 0.65519834 0
3.5690002 1.4402298 0.65551579 0
3.5730002 1.4363822 0.65583324 0
3.5770001 1.4325203 0.6561507 0
3.5800002 1.4281802 0.65638888 0
3.5810003 1.422906 0.65646821 0
3.5830002 1.418088 0.65662694 0
3.5850003 1.4132628 0.65678573 0
3.5860002 1.407974 0.65686506 0
3.5880003 1.4031363 0.65702379 0
3.5900002 1.3982911 0.65718251 0
3.5910003 1.3929881 0.65726191 0
3.6470003 1.3713856 0.66170651 0
3.6520002 1.3677021 0.6621033 0
3.6560001 1.3635678 0.66242081 0
3.6600003 1.3594192 0.66273826 0
3.6650002 1.3556852 0.66313511 0
3.6690001 1.3515058 0.66345257 0
3.6740003 1.3477377 0.66384941 0
3.6790001 1.3439515 0.6642462 0
3.6830003 1.3397251 0.66456372 0
3.6880002 1.3359046 0.6649605 0
3.6920002 1.3316476 0.66527802 0
3.6970003 1.327793 0.66567487 0
3.5480003 1.5212352 0.64817071 0
3.5500002 1.5165488 0.6483258 0
3.5510004 1.5113612 0.64840341 0
3.5530002 1.5066622 0.64855856 0
3.5550003 1.5019561 0.64871365 0
3.5440001 1.462532 0.64786047 0
3.5480003 1.458773 0.64817071 0
3.5520003 1.4549993 0.64848101 0
3.5560002 1.4512113 0.64879119 0
3.5600002 1.4474089 0.6491015 0
3.5650003 1.4440628 0.64948928 0
3.5690002 1.4402298 0.64979959 0
3.5730002 1.4363822 0.65010983 0
3.5770001 1.4325203 0.65042007 0
3.5800002 1.4281802 0.65065277 0
3.5810003 1.422906 0.65073031 0
3.5830002 1.418088 0.65088546 0
3.5850003 1.4132628 0.65104055 0
3.5860002 1.407974 0.65111816 0
3.5880003 1.4031363 0.65127325 0
3.5900002 1.3982911 0.65142834 0
3.5910003 1.3929881 0.65150595 0
3.6470003 1.3713856 0.65584952 0
3.6520002 1.3677021 0.65623736 0
3.6560001 1.3635678 0.65654755 0
3.6600003 1.3594192 0.65685785 0
3.6650002 1.3556852 0.65724564 0
3.6690001 1.3515058 0.65755594 0
3.6740003 1.3477377 0.65794373 0
3.6790001 1.3439515 0.65833157 0
3.6830003 1.3397251 0.65864182 0
3.6880002 1.3359046 0.6590296 0
3.6920002 1.3316476 0.6593399 0
3.6970003 1.327793 0.65972769 0
3.5480003 1.5212352 0.64249229 0
3.5500002 1.5165488 0.64264381 0
3.5510004 1.5113612 0.64271963 0
3.5530002 1.5066622 0.64287114 0
3.5550003 1.5019561 0.64302266 0
3.5440001 1.462532 0.64218926 0
3.5480003 1.458773 0.64249229 0
3.5520003 1.4549993 0.64279532 0
3.5560002 1.4512113 0.64309841 0
3.5600002 1.4474089 0.64340144 0
3.5650003 1.4440628 0.64378023 0
3.5690002 1.4402298 0.64408326 0
3.5730002 1.4363822 0.64438629 0
3.5770001 1.4325203 0.64468938 0
3.5800002 1.4281802 0.64491665 0
3.5810003 1.422906 0.64499241 0
3.5830002 1.418088 0.64514393 0
3.5850003 1.4132628 0.64529544 0
3.5860002 1.407974 0.6453712 0
3.5880003 1.4031363 0.64552271 0
3.5900002 1.3982911 0.64567423 0
3.5910003 1.3929881 0.64574999 0
3.6470003 1.3713856 0.64999259 0
3.6520002 1.3677021 0.65037131 0
3.6560001 1.3635678 0.6506744 0
3.6600003 1.3594192 0.65097743 0
3.6650002 1.3556852 0.65135622 0
3.6690001 1.3515058 0.65165925 0
3.6740003 1.3477377 0.6520381 0
3.6790001 1.3439515 0.65241688 0
3.6830003 1.3397251 0.65271991 0
3.6880002 1.3359046 0.6530987 0
3.6920002 1.3316476 0.65340173 0
3.6970003 1.327793 0.65378058 0
3.5480003 1.5212352 0.63681394 0
3.5500002 1.5165488 0.63696182 0
3.5510004 1.5113612 0.63703585 0
3.5530002 1.5066622 0.63718373 0
3.5550003 1.5019561 0.6373316 0
3.5440001 1.462532 0.63651812 0
3.5480003 1.458773 0.63681394 0
3.5520003 1.4549993 0.63710976 0
3.5560002 1.4512113 0.63740557 0
3.5600002 1.4474089 0.63770139 0
3.5650003 1.4440628 0.63807118 0
3.5690002 1.4402298 0.638367 0
3.5730002 1.4363822 0.63866282 0
3.5770001 1.4325203 0.63895869 0
3.5800002 1.4281802 0.63918054 0
3.5810003 1.422906 0.63925445 0
3.5830002 1.418088 0.63940239 0
3.5850003 1.4132628 0.63955033 0
3.5860002 1.407974 0.63962424 0
3.5880003 1.4031363 0.63977218 0
3.5900002 1.3982911 0.63992012 0
3.5910003 1.3929881 0.63999403 0
3.6470003 1.3713856 0.64413559 0
3.6520002 1.3677021 0.64450538 0
3.6560001 1.3635678 0.6448012 0
3.6600003 1.3594192 0.64509702 0
3.6650002 1.3556852 0.6454668 0
3.6690001 1.3515058 0.64576262 0
3.6740003 1.3477377 0.64613241 0
3.6790001 1.3439515 0.64650214 0
3.6830003 1.3397251 0.64679801 0
3.6880002 1.3359046 0.6471678 0
3.6920002 1.3316476 0.64746362 0
3.6970003 1.327793 0.64783341 0
3.5480003 1.5212352 0.63113558 0
3.5500002 1.5165488 0.63127983 0
3.5510004 1.5113612 0.63135201 0
3.5530002 1.5066622 0.63149631 0
3.5550003 1.5019561 0.63164061 0
3.5440001 1.462532 0.63084692 0
3.5480003 1.458773 0.63113558 0
3.5520003 1.4549993 0.63142419 0
3.5560002 1.4512113 0.63171279 0
3.5600002 1.4474089 0.6320014 0
3.5650003 1.4440628 0.63236213 0
3.5690002 1.4402298 0.63265073 0
3.5730002 1.4363822 0.63293934 0
3.5770001 1.4325203 0.63322794 0
3.5800002 1.4281802 0.63344443 0
3.5810003 1.422906 0.63351655 0
3.5830002 1.418088 0.63366091 0
3.5850003 1.4132628 0.63380516 0
3.5860002 1.407974 0.63387734 0
3.5880003 1.4031363 0.63402164 0
3.5900002 1.3982911 0.63416594 0
3.5910003 1.3929881 0.63423812 0
3.6470003 1.3713856 0.6382786 0
3.6520002 1.3677021 0.63863939 0
3.6560001 1.3635678 0.638928 0
3.6600003 1.3594192 0.6392166 0
3.6650002 1.3556852 0.63957739 0
3.6690001 1.3515058 0.63986599 0
3.6740003 1.3477377 0.64022672 0
3.6790001 1.3439515 0.64058751 0
3.6830003 1.3397251 0.64087611 0
3.6880002 1.3359046 0.6412369 0
3.6920002 1.3316476 0.64152551 0
3.6970003 1.327793 0.64188623 0
3.5480003 1.5212352 0.62545717 0
3.5500002 1.5165488 0.62559783 0
3.5510004 1.5113612 0.62566823 0
3.5530002 1.5066622 0.62580889 0
3.5550003 1.5019561 0.62594962 0
3.5440001 1.462532 0.62517577 0
3.5480003 1.458773 0.62545717 0
3.5520003 1.4549993 0.62573856 0
3.5560002 1.4512113 0.62601995 0
3.5600002 1.4474089 0.62630135 0
3.5650003 1.4440628 0.62665308 0
3.5690002 1.4402298 0.62693447 0
3.5730002 1.4363822 0.62721586 0
3.5770001 1.4325203 0.62749726 0
3.5800002 1.4281802 0.62770832 0
3.5810003 1.422906 0.62777865 0
3.5830002 1.418088 0.62791932 0
3.5850003 1.4132628 0.62806004 0
3.5860002 1.407974 0.62813044 0
3.5880003 1.4031363 0.6282711 0
3.5900002 1.3982911 0.62841177 0
3.5910003 1.3929881 0.62848216 0
3.6470003 1.3713856 0.63242167 0
3.6520002 1.3677021 0.6327734 0
3.6560001 1.3635678 0.63305479 0
3.6600003 1.3594192 0.63333619 0
3.6650002 1.3556852 0.63368797 0
3.6690001 1.3515058 0.63396931 0
3.6740003 1.3477377 0.63432109 0
3.6790001 1.3439515 0.63467282 0
3.6830003 1.3397251 0.63495421 0
3.6880002 1.3359046 0.63530594 0
3.6920002 1.3316476 0.63558733 0
3.6970003 1.327793 0.63593912 0
3.5480003 1.5212352 0.61977875 0
3.5500002 1.5165488 0.61991584 0
3.5510004 1.5113612 0.61998439 0
3.5530002 1.5066622 0.62012148 0
3.5550003 1.5019561 0.62025857 0
3.5440001 1.462532 0.61950457 0
3.5480003 1.458773 0.61977875 0
3.5520003 1.4549993 0.62005293 0
3.5560002 1.4512113 0.62032712 0
3.5600002 1.4474089 0.6206013 0
3.5650003 1.4440628 0.62094402 0
3.5690002 1.4402298 0.6212182 0
3.5730002 1.4363822 0.62149239 0
3.5770001 1.4325203 0.62176657 0
3.5800002 1.4281802 0.6219722 0
3.5810003 1.422906 0.62204075 0
3.5830002 1.418088 0.62217784 0
3.5850003 1.4132628 0.62231493 0
3.5860002 1.407974 0.62238348 0
3.5880003 1.4031363 0.62252057 0
3.5900002 1.3982911 0.62265766 0
3.5910003 1.3929881 0.6227262 0
3.6470003 1.3713856 0.62656468 0
3.6520002 1.3677021 0.62690741 0
3.6560001 1.3635678 0.62718159 0
3.6600003 1.3594192 0.62745577 0
3.6650002 1.3556852 0.6277985 0
3.6690001 1.3515058 0.62807268 0
3.6740003 1.3477377 0.62841541 0
3.6790001 1.3439515 0.62875813 0
3.6830003 1.3397251 0.62903231 0
3.6880002 1.3359046 0.62937504 0
3.6920002 1.3316476 0.62964916 0
3.6970003 1.327793 0.62999195 0
3.5480003 1.5212352 0.6141004 0
3.5500002 1.5165488 0.61423385 0
3.5510004 1.5113612 0.61430061 0
3.5530002 1.5066622 0.61443406 0
3.5550003 1.5019561 0.61456758 0
3.5440001 1.462532 0.61383343 0
3.5480003 1.458773 0.6141004 0
3.5520003 1.4549993 0.61436737 0
3.5560002 1.4512113 0.61463428 0
3.5600002 1.4474089 0.6149013 0
3.5650003 1.4440628 0.61523497 0
3.5690002 1.4402298 0.61550194 0
3.5730002 1.4363822 0.61576891 0
3.5770001 1.4325203 0.61603588 0
3.5800002 1.4281802 0.61623609 0
3.5810003 1.422906 0.61630285 0
3.5830002 1.418088 0.6164363 0
3.5850003 1.4132628 0.61656982 0
3.5860002 1.407974 0.61663651 0
3.5880003 1.4031363 0.61677003 0
3.5900002 1.3982911 0.61690348 0
3.5910003 1.3929881 0.61697024 0
3.6470003 1.3713856 0.62070775 0
3.6520002 1.3677021 0.62104142 0
3.6560001 1.3635678 0.62130839 0
3.6600003 1.3594192 0.62157536 0
3.6650002 1.3556852 0.62190902 0
3.6690001 1.3515058 0.62217605 0
3.6740003 1.3477377 0.62250972 0
3.6790001 1.3439515 0.62284344 0
3.6830003 1.3397251 0.62311041 0
3.6880002 1.3359046 0.62344408 0
3.6920002 1.3316476 0.62371105 0
3.6970003 1.327793 0.62404478 0
3.5480003 1.5212352 0.60842198 0
3.5500002 1.5165488 0.60855186 0
3.5510004 1.5113612 0.60861683 0
3.5530002 1.5066622 0.60874665 0
3.5550003 1.5019561 0.60887659 0
3.5440001 1.462532 0.60816222 0
3.5480003 1.458773 0.60842198 0
3.5520003 1.4549993 0.60868174 0
3.5560002 1.4512113 0.6089415 0
3.5600002 1.4474089 0.60920125 0
3.5650003 1.4440628 0.60952592 0
3.5690002 1.4402298 0.60978568 0
3.5730002 1.4363822 0.61004543 0
3.5770001 1.4325203 0.61030519 0
3.5800002 1.4281802 0.61049998 0
3.5810003 1.422906 0.61056495 0
3.5830002 1.418088 0.61069477 0
3.5850003 1.4132628 0.61082464 0
3.5860002 1.407974 0.61088961 0
3.5880003 1.4031363 0.61101949 0
3.5900002 1.3982911 0.61114937 0
3.5910003 1.3929881 0.61121428 0
3.6470003 1.3713856 0.61485076 0
3.6520002 1.3677021 0.61517549 0
3.6560001 1.3635678 0.61543518 0
3.6600003 1.3594192 0.61569494 0
3.6650002 1.3556852 0.61601961 0
3.6690001 1.3515058 0.61627936 0
3.6740003 1.3477377 0.61660409 0
3.6790001 1.3439515 0.61692876 0
3.6830003 1.3397251 0.61718851 0
3.6880002 1.3359046 0.61751318 0
3.6920002 1.3316476 0.61777294 0
3.6970003 1.327793 0.61809766 0
3.5480003 1.5212352 0.60274363 0
3.5500002 1.5165488 0.60286987 0
3.5510004 1.5113612 0.60293305 0
3.5530002 1.5066622 0.60305929 0
3.5550003 1.5019561 0.60318553 0
3.5440001 1.462532 0.60249108 0
3.5480003 1.458773 0.60274363 0
3.5520003 1.4549993 0.60299611 0
3.5560002 1.4512113 0.60324866 0
3.5600002 1.4474089 0.6035012 0
3.5650003 1.4440628 0.60381687 0
3.5690002 1.4402298 0.60406941 0
3.5730002 1.4363822 0.60432196 0
3.5770001 1.4325203 0.60457444 0
3.5800002 1.4281802 0.60476387 0
3.5810003 1.422906 0.60482699 0
3.5830002 1.418088 0.60495329 0
3.5850003 1.4132628 0.60507953 0
3.5860002 1.407974 0.60514265 0
3.5880003 1.4031363 0.60526896 0
3.5900002 1.3982911 0.6053952 0
3.5910003 1.3929881 0.60545832 0
3.6470003 1.3713856 0.60899377 0
3.6520002 1.3677021 0.60930943 0
3.6560001 1.3635678 0.60956198 0
3.6600003 1.3594192 0.60981452 0
3.6650002 1.3556852 0.61013019 0
3.6690001 1.3515058 0.61038274 0
3.6740003 1.3477377 0.6106984 0
3.6790001 1.3439515 0.61101407 0
3.6830003 1.3397251 0.61126661 0
3.6880002 1.3359046 0.61158228 0
3.6920002 1.3316476 0.61183476 0
3.6970003 1.327793 0.61215043 0
3.5480003 1.5212352 0.59706521 0
3.5500002 1.5165488 0.59718788 0
3.5510004 1.5113612 0.59724921 0
3.5530002 1.5066622 0.59737188 0
3.5550003 1.5019561 0.59749454 0
3.5440001 1.462532 0.59681988 0
3.5480003 1.458773 0.59706521 0
3.5520003 1.4549993 0.59731054 0
3.5560002 1.4512113 0.59755588 0
3.5600002 1.4474089 0.59780115 0
3.5650003 1.4440628 0.59810781 0
3.5690002 1.4402298 0.59835315 0
3.5730002 1.4363822 0.59859848 0
3.5770001 1.4325203 0.59884375 0
3.5800002 1.4281802 0.59902775 0
3.5810003 1.422906 0.59908909 0
3.5830002 1.418088 0.59921175 0
3.5850003 1.4132628 0.59933442 0
3.5860002 1.407974 0.59939575 0
3.5880003 1.4031363 0.59951842 0
3.5900002 1.3982911 0.59964103 0
3.5910003 1.3929881 0.59970236 0
3.6470003 1.3713856 0.60313684 0
3.6520002 1.3677021 0.6034435 0
3.6560001 1.3635678 0.60368878 0
3.6600003 1.3594192 0.60393411 0
3.6650002 1.3556852 0.60424078 0
3.6690001 1.3515058 0.60448611 0
3.6740003 1.3477377 0.60479271 0
3.6790001 1.3439515 0.60509938 0
3.6830003 1.3397251 0.60534471 0
3.6880002 1.3359046 0.60565138 0
3.6920002 1.3316476 0.60589665 0
3.6970003 1.327793 0.60620332 0
3.5480003 1.5212352 0.59138685 0
3.5500002 1.5165488 0.59150589 0
3.5510004 1.5113612 0.59156543 0
3.5530002 1.5066622 0.59168446 0
3.5550003 1.5019561 0.59180349 0
3.5440001 1.462532 0.59114873 0
3.5480003 1.458773 0.59138685 0
3.5520003 1.4549993 0.59162492 0
3.5560002 1.4512113 0.59186304 0
3.5600002 1.4474089 0.59210116 0
3.5650003 1.4440628 0.59239876 0
3.5690002 1.4402298 0.59263688 0
3.5730002 1.4363822 0.59287494 0
3.5770001 1.4325203 0.59311306 0
3.5800002 1.4281802 0.59329164 0
3.5810003 1.422906 0.59335119 0
3.5830002 1.418088 0.59347022 0
3.5850003 1.4132628 0.59358931 0
3.5860002 1.407974 0.59364879 0
3.5880003 1.4031363 0.59376788 0
3.5900002 1.3982911 0.59388691 0
3.5910003 1.3929881 0.59394646 0
3.6470003 1.3713856 0.59727991 0
3.6520002 1.3677021 0.59757751 0
3.6560001 1.3635678 0.59781557 0
3.6600003 1.3594192 0.59805369 0
3.6650002 1.3556852 0.59835136 0
3.6690001 1.3515058 0.59858942 0
3.6740003 1.3477377 0.59888709 0
3.6790001 1.3439515 0.59918469 0
3.6830003 1.3397251 0.59942281 0
3.6880002 1.3359046 0.59972042 0
3.6920002 1.3316476 0.59995854 0
3.6970003 1.327793 0.60025615 0
3.5480003 1.5212352 0.58570844 0
3.5500002 1.5165488 0.58582389 0
3.5510004 1.5113612 0.58588159 0
3.5530002 1.5066622 0.58599705 0
3.5550003 1.5019561 0.5861125 0
3.5440001 1.462532 0.58547753 0
3.5480003 1.458773 0.58570844 0
3.5520003 1.4549993 0.58593935 0
3.5560002 1.4512113 0.5861702 0
3.5600002 1.4474089 0.5864011 0
3.5650003 1.4440628 0.58668971 0
3.5690002 1.4402298 0.58692062 0
3.5730002 1.4363822 0.58715147 0
3.5770001 1.4325203 0.58738238 0
3.5800002 1.4281802 0.58755553 0
3.5810003 1.422906 0.58761328 0
3.5830002 1.418088 0.58772874 0
3.5850003 1.4132628 0.58784413 0
3.5860002 1.407974 0.58790189 0
3.5880003 1.4031363 0.58801734 0
3.5900002 1.3982911 0.58813274 0
3.5910003 1.3929881 0.5881905 0
3.6470003 1.3713856 0.59142292 0
3.6520002 1.3677021 0.59171152 0
3.6560001 1.3635678 0.59194243 0
3.6600003 1.3594192 0.59217328 0
3.6650002 1.3556852 0.59246188 0
3.6690001 1.3515058 0.59269279 0
3.6740003 1.3477377 0.5929814 0
3.6790001 1.3439515 0.59327 0
3.6830003 1.3397251 0.59350091 0
3.6880002 1.3359046 0.59378952 0
3.6920002 1.3316476 0.59402037 0
3.6970003 1.327793 0.59430897 0
3.5480003 1.5212352 0.58003008 0
3.5500002 1.5165488 0.5801419 0
3.5510004 1.5113612 0.58019781 0
3.5530002 1.5066622 0.58030963 0
3.5550003 1.5019561 0.58042145 0
3.5440001 1.462532 0.57980639 0
3.5480003 1.458773 0.58003008 0
3.5520003 1.4549993 0.58025372 0
3.5560002 1.4512113 0.58047742 0
3.5600002 1.4474089 0.58070105 0
3.5650003 1.4440628 0.58098066 0
3.5690002 1.4402298 0.58120435 0
3.5730002 1.4363822 0.58142799 0
3.5770001 1.4325203 0.58165169 0
3.5800002 1.4281802 0.58181942 0
3.5810003 1.422906 0.58187532 0
3.5830002 1.418088 0.5819872 0
3.5850003 1.4132628 0.58209902 0
3.5860002 1.407974 0.58215493 0
3.5880003 1.4031363 0.58226681 0
3.5900002 1.3982911 0.58237863 0
3.5910003 1.3929881 0.58243454 0
3.6470003 1.3713856 0.58556592 0
3.6520002 1.3677021 0.58584553 0
3.6560001 1.3635678 0.58606923 0
3.6600003 1.3594192 0.58629286 0
3.6650002 1.3556852 0.58657247 0
3.6690001 1.3515058 0.58679616 0
3.6740003 1.3477377 0.58707571 0
3.6790001 1.3439515 0.58735532 0
3.6830003 1.3397251 0.58757901 0
3.6880002 1.3359046 0.58785856 0
3.6920002 1.3316476 0.58808225 0
3.6970003 1.327793 0.58836186 0
3.5480003 1.5212352 0.57435167 0
3.5500002 1.5165488 0.57445991 0
3.5510004 1.5113612 0.57451403 0
3.5530002 1.5066622 0.57462221 0
3.5550003 1.5019561 0.57473046 0
3.5440001 1.462532 0.57413518 0
3.5480003 1.458773 0.57435167 0
3.5520003 1.4549993 0.57456815 0
3.5560002 1.4512113 0.57478458 0
3.5600002 1.4474089 0.575001 0
3.5650003 1.4440628 0.57527161 0
3.5690002 1.4402298 0.57548809 0
3.5730002 1.4363822 0.57570451 0
3.5770001 1.4325203 0.57592094 0
3.5800002 1.4281802 0.5760833 0
3.5810003 1.422906 0.57613742 0
3.5830002 1.418088 0.57624567 0
3.5850003 1.4132628 0.57635391 0
3.5860002 1.407974 0.57640803 0
3.5880003 1.4031363 0.57651627 0
3.5900002 1.3982911 0.57662445 0
3.5910003 1.3929881 0.57667857 0
3.6470003 1.3713856 0.57970899 0
3.6520002 1.3677021 0.57997954 0
3.6560001 1.3635678 0.58019602 0
3.6600003 1.3594192 0.58041245 0
3.6650002 1.3556852 0.58068305 0
3.6690001 1.3515058 0.58089948 0
3.6740003 1.3477377 0.58117008 0
3.6790001 1.3439515 0.58144063 0
3.6830003 1.3397251 0.58165705 0
3.6880002 1.3359046 0.58192766 0
3.6920002 1.3316476 0.58214414 0
3.6970003 1.327793 0.58241469 0
3.5480003 1.5212352 0.56867325 0
3.5500002 1.5165488 0.56877792 0
3.5510004 1.5113612 0.56883019 0
3.5530002 1.5066622 0.5689348 0
3.5550003 1.5019561 0.56903946 0
3.5440001 1.462532 0.56846404 0
3.5480003 1.458773 0.56867325 0
3.5520003 1.4549993 0.56888252 0
3.5560002 1.4512113 0.56909174 0
3.5600002 1.4474089 0.56930101 0
3.5650003 1.4440628 0.56956255 0
3.5690002 1.4402298 0.56977177 0
3.5730002 1.4363822 0.56998104 0
3.5770001 1.4325203 0.57019031 0
3.5800002 1.4281802 0.57034719 0
3.5810003 1.422906 0.57039952 0
3.5830002 1.418088 0.57050413 0
3.5850003 1.4132628 0.57060874 0
3.5860002 1.407974 0.57066107 0
3.5880003 1.4031363 0.57076567 0
3.5900002 1.3982911 0.57087028 0
3.5910003 1.3929881 0.57092261 0
3.6470003 1.3713856 0.573852 0
3.6520002 1.3677021 0.57411355 0
3.6560001 1.3635678 0.57432282 0
3.6600003 1.3594192 0.57453203 0
3.6650002 1.3556852 0.57479358 0
3.6690001 1.3515058 0.57500285 0
3.6740003 1.3477377 0.57526439 0
3.6790001 1.3439515 0.57552594 0
3.6830003 1.3397251 0.57573521 0
3.6880002 1.3359046 0.57599676 0
3.6920002 1.3316476 0.57620597 0
3.6970003 1.327793 0.57646751 0
3.5480003 1.5212352 0.5629949 0
3.5500002 1.5165488 0.56309593 0
3.5510004 1.5113612 0.56314641 0
3.5530002 1.5066622 0.56324744 0
3.5550003 1.5019561 0.56334841 0
3.5440001 1.462532 0.56279284 0
3.5480003 1.458773 0.5629949 0
3.5520003 1.4549993 0.5631969 0
3.5560002 1.4512113 0.56339896 0
3.5600002 1.4474089 0.56360096 0
3.5650003 1.4440628 0.5638535 0
3.5690002 1.4402298 0.5640555 0
3.5730002 1.4363822 0.56425756 0
3.5770001 1.4325203 0.56445956 0
3.5800002 1.4281802 0.56461108 0
3.5810003 1.422906 0.56466162 0
3.5830002 1.418088 0.56476259 0
3.5850003 1.4132628 0.56486362 0
3.5860002 1.407974 0.56491411 0
3.5880003 1.4031363 0.56501514 0
3.5900002 1.3982911 0.56511617 0
3.5910003 1.3929881 0.56516671 0
3.6470003 1.3713856 0.56799507 0
3.6520002 1.3677021 0.56824756 0
3.6560001 1.3635678 0.56844962 0
3.6600003 1.3594192 0.56865162 0
3.6650002 1.3556852 0.56890416 0
3.6690001 1.3515058 0.56910616 0
3.6740003 1.3477377 0.56935871 0
3.6790001 1.3439515 0.56961125 0
3.6830003 1.3397251 0.56981325 0
3.6880002 1.3359046 0.5700658 0
3.6920002 1.3316476 0.57026786 0
3.6970003 1.327793 0.5705204 0
3.5480003 1.5212352 0.55731654 0
3.5500002 1.5165488 0.55741394 0
3.5510004 1.5113612 0.55746257 0
3.5530002 1.5066622 0.55756003 0
3.5550003 1.5019561 0.55765742 0
3.5440001 1.462532 0.55712169 0
3.5480003 1.458773 0.55731654 0
3.5520003 1.4549993 0.55751133 0
3.5560002 1.4512113 0.55770612 0
3.5600002 1.4474089 0.55790091 0
3.5650003 1.4440628 0.55814445 0
3.5690002 1.4402298 0.55833924 0
3.5730002 1.4363822 0.55853409 0
3.5770001 1.4325203 0.55872887 0
3.5800002 1.4281802 0.55887496 0
3.5810003 1.422906 0.55892372 0
3.5830002 1.418088 0.55902112 0
3.5850003 1.4132628 0.55911851 0
3.5860002 1.407974 0.55916721 0
3.5880003 1.4031363 0.5592646 0
3.5900002 1.3982911 0.55936205 0
3.5910003 1.3929881 0.55941069 0
3.6470003 1.3713856 0.56213808 0
3.6520002 1.3677021 0.56238157 0
3.6560001 1.3635678 0.56257641 0
3.6600003 1.3594192 0.5627712 0
3.6650002 1.3556852 0.56301475 0
3.6690001 1.3515058 0.56320953 0
3.6740003 1.3477377 0.56345308 0
3.6790001 1.3439515 0.56369656 0
3.6830003 1.3397251 0.56389141 0
3.6880002 1.3359046 0.5641349 0
3.6920002 1.3316476 0.56432968 0
3.6970003 1.327793 0.56457323 0
3.5480003 1.5212352 0.55163813 0
3.5500002 1.5165488 0.55173188 0
3.5510004 1.5113612 0.55177879 0
3.5530002 1.5066622 0.55187261 0
3.5550003 1.5019561 0.55196643 0
3.5440001 1.462532 0.55145049 0
3.5480003 1.458773 0.55163813 0
3.5520003 1.4549993 0.5518257 0
3.5560002 1.4512113 0.55201328 0
3.5600002 1.4474089 0.55220091 0
3.5650003 1.4440628 0.5524354 0
3.5690002 1.4402298 0.55262297 0
3.5730002 1.4363822 0.55281055 0
3.5770001 1.4325203 0.55299819 0
3.5800002 1.4281802 0.55313885 0
3.5810003 1.422906 0.55318582 0
3.5830002 1.418088 0.55327958 0
3.5850003 1.4132628 0.5533734 0
3.5860002 1.407974 0.55342031 0
3.5880003 1.4031363 0.55351406 0
3.5900002 1.3982911 0.55360788 0
3.5910003 1.3929881 0.55365479 0
3.6470003 1.3713856 0.55628109 0
3.6520002 1.3677021 0.55651557 0
3.6560001 1.3635678 0.55670321 0
3.6600003 1.3594192 0.55689085 0
3.6650002 1.3556852 0.55712527 0
3.6690001 1.3515058 0.55731291 0
3.6740003 1.3477377 0.55754739 0
3.6790001 1.3439515 0.55778188 0
3.6830003 1.3397251 0.55796945 0
3.6880002 1.3359046 0.558204 0
3.6920002 1.3316476 0.55839157 0
3.6970003 1.327793 0.55862606 0
3.5480003 1.5212352 0.54595971 0
3.5500002 1.5165488 0.54604989 0
3.5510004 1.5113612 0.54609501 0
3.5530002 1.5066622 0.5461852 0
3.5550003 1.5019561 0.54627538 0
3.5440001 1.462532 0.54577935 0
3.5480003 1.458773 0.54595971 0
3.5520003 1.4549993 0.54614007 0
3.5560002 1.4512113 0.5463205 0
3.5600002 1.4474089 0.54650086 0
3.5650003 1.4440628 0.54672635 0
3.5690002 1.4402298 0.54690671 0
3.5730002 1.4363822 0.54708707 0
3.5770001 1.4325203 0.5472675 0
3.5800002 1.4281802 0.54740274 0
3.5810003 1.422906 0.54744786 0
3.5830002 1.418088 0.54753804 0
3.5850003 1.4132628 0.54762828 0
3.5860002 1.407974 0.54767334 0
3.5880003 1.4031363 0.54776353 0
3.5900002 1.3982911 0.54785371 0
3.5910003 1.3929881 0.54789883 0
3.6470003 1.3713856 0.55042416 0
3.6520002 1.3677021 0.55064964 0
3.6560001 1.3635678 0.55083001 0
3.6600003 1.3594192 0.55101037 0
3.6650002 1.3556852 0.55123585 0
3.6690001 1.3515058 0.55141622 0
3.6740003 1.3477377 0.5516417 0
3.6790001 1.3439515 0.55186719 0
3.6830003 1.3397251 0.55204761 0
3.6880002 1.3359046 0.55227304 0
3.6920002 1.3316476 0.5524534 0
3.6970003 1.327793 0.55267894 0
3.5480003 1.5212352 0.5402813 0
3.5500002 1.5165488 0.5403679 0
3.5510004 1.5113612 0.54041123 0
3.5530002 1.5066622 0.54049778 0
3.5550003 1.5019561 0.54058439 0
3.5440001 1.462532 0.54010814 0
3.5480003 1.458773 0.5402813 0
3.5520003 1.4549993 0.54045451 0
3.5560002 1.4512113 0.54062766 0
3.5600002 1.4474089 0.54080081 0
3.5650003 1.4440628 0.54101729 0
3.5690002 1.4402298 0.54119045 0
3.5730002 1.4363822 0.5413636 0
3.5770001 1.4325203 0.54153681 0
3.5800002 1.4281802 0.54166663 0
3.5810003 1.422906 0.54170996 0
3.5830002 1.418088 0.54179651 0
3.5850003 1.4132628 0.54188311 0
3.5860002 1.407974 0.54192638 0
3.5880003 1.4031363 0.54201299 0
3.5900002 1.3982911 0.5420996 0
3.5910003 1.3929881 0.54214287 0
3.6470003 1.3713856 0.54456723 0
3.6520002 1.3677021 0.54478365 0
3.6560001 1.3635678 0.5449568 0
3.6600003 1.3594192 0.54512995 0
3.6650002 1.3556852 0.54534644 0
3.6690001 1.3515058 0.54551959 0
3.6740003 1.3477377 0.54573607 0
3.6790001 1.3439515 0.5459525 0
3.6830003 1.3397251 0.54612565 0
3.6880002 1.3359046 0.54634213 0
3.6920002 1.3316476 0.54651529 0
3.6970003 1.327793 0.54673177 0
3.5480003 1.5212352 0.53460294 0
3.5500002 1.5165488 0.53468591 0
3.5510004 1.5113612 0.53472739 0
3.5530002 1.5066622 0.53481036 0
3.5550003 1.5019561 0.53489339 0
3.5440001 1.462532 0.534437 0
3.5480003 1.458773 0.53460294 0
3.5520003 1.4549993 0.53476888 0
3.5560002 1.4512113 0.53493488 0
3.5600002 1.4474089 0.53510082 0
3.5650003 1.4440628 0.53530824 0
3.5690002 1.4402298 0.53547418 0
3.5730002 1.4363822 0.53564012 0
3.5770001 1.4325203 0.53580606 0
3.5800002 1.4281802 0.53593051 0
3.5810003 1.422906 0.535972 0
3.5830002 1.418088 0.53605497 0
3.5850003 1.4132628 0.536138 0
3.5860002 1.407974 0.53617948 0
3.5880003 1.4031363 0.53626245 0
3.5900002 1.3982911 0.53634542 0
3.5910003 1.3929881 0.53638691 0
3.6470003 1.3713856 0.53871024 0
3.6520002 1.3677021 0.53891766 0
3.6560001 1.3635678 0.5390836 0
3.6600003 1.3594192 0.53924954 0
3.6650002 1.3556852 0.53945696 0
3.6690001 1.3515058 0.53962296 0
3.6740003 1.3477377 0.53983039 0
3.6790001 1.3439515 0.54003781 0
3.6830003 1.3397251 0.54020375 0
3.6880002 1.3359046 0.54041123 0
3.6920002 1.3316476 0.54057717 0
3.6970003 1.327793 0.5407846 0
3.5480003 1.5212352 0.52892458 0
3.5500002 1.5165488 0.52900392 0
3.5510004 1.5113612 0.52904361 0
3.5530002 1.5066622 0.52912295 0
3.5550003 1.5019561 0.52920234 0
3.5440001 1.462532 0.5287658 0
3.5480003 1.458773 0.52892458 0
3.5520003 1.4549993 0.52908331 0
3.5560002 1.4512113 0.52924204 0
3.5600002 1.4474089 0.52940077 0
3.5650003 1.4440628 0.52959919 0
3.5690002 1.4402298 0.52975792 0
3.5730002 1.4363822 0.52991664 0
3.5770001 1.4325203 0.53007537 0
3.5800002 1.4281802 0.5301944 0
3.5810003 1.422906 0.5302341 0
3.5830002 1.418088 0.53031349 0
3.5850003 1.4132628 0.53039289 0
3.5860002 1.407974 0.53043252 0
3.5880003 1.4031363 0.53051192 0
3.5900002 1.3982911 0.53059125 0
3.5910003 1.3929881 0.53063095 0
3.6470003 1.3713856 0.53285325 0
3.6520002 1.3677021 0.53305167 0
3.6560001 1.3635678 0.5332104 0
3.6600003 1.3594192 0.53336912 0
3.6650002 1.3556852 0.53356755 0
3.6690001 1.3515058 0.53372627 0
3.6740003 1.3477377 0.5339247 0
3.6790001 1.3439515 0.53412312 0
3.6830003 1.3397251 0.53428185 0
3.6880002 1.3359046 0.53448027 0
3.6920002 1.3316476 0.534639 0
3.6970003 1.327793 0.53483742 0
3.5480003 1.5212352 0.52324617 0
3.5500002 1.5165488 0.52332193 0
3.5510004 1.5113612 0.52335984 0
3.5530002 1.5066622 0.52343559 0
3.5550003 1.5019561 0.52351135 0
3.5440001 1.462532 0.52309465 0
3.5480003 1.458773 0.52324617 0
3.5520003 1.4549993 0.52339768 0
3.5560002 1.4512113 0.5235492 0
3.5600002 1.4474089 0.52370071 0
3.5650003 1.4440628 0.52389014 0
3.5690002 1.4402298 0.52404165 0
3.5730002 1.4363822 0.52419317 0
3.5770001 1.4325203 0.52434468 0
3.5800002 1.4281802 0.52445829 0
3.5810003 1.422906 0.5244962 0
3.5830002 1.418088 0.52457196 0
3.5850003 1.4132628 0.52464771 0
3.5860002 1.407974 0.52468562 0
3.5880003 1.4031363 0.52476138 0
3.5900002 1.3982911 0.52483714 0
3.5910003 1.3929881 0.52487499 0
3.6470003 1.3713856 0.52699625 0
3.6520002 1.3677021 0.52718568 0
3.6560001 1.3635678 0.52733719 0
3.6600003 1.3594192 0.52748871 0
3.6650002 1.3556852 0.52767813 0
3.6690001 1.3515058 0.52782965 0
3.6740003 1.3477377 0.52801907 0
3.6790001 1.3439515 0.52820843 0
3.6830003 1.3397251 0.52835995 0
3.6880002 1.3359046 0.52854937 0
3.6920002 1.3316476 0.52870089 0
3.6970003 1.327793 0.52889031 0
3.5480003 1.5212352 0.51756775 0
3.5500002 1.5165488 0.51763994 0
3.5510004 1.5113612 0.517676 0
3.5530002 1.5066622 0.51774818 0
3.5550003 1.5019561 0.5178203 0
3.5440001 1.462532 0.51742345 0
3.5480003 1.458773 0.51756775 0
3.5520003 1.4549993 0.51771212 0
3.5560002 1.4512113 0.51785636 0
3.5600002 1.4474089 0.51800072 0
3.5650003 1.4440628 0.51818109 0
3.5690002 1.4402298 0.51832539 0
3.5730002 1.4363822 0.51846969 0
3.5770001 1.4325203 0.51861399 0
3.5800002 1.4281802 0.51872224 0
3.5810003 1.422906 0.5187583 0
3.5830002 1.418088 0.51883042 0
3.5850003 1.4132628 0.5189026 0
3.5860002 1.407974 0.51893866 0
3.5880003 1.4031363 0.51901084 0
3.5900002 1.3982911 0.51908296 0
3.5910003 1.3929881 0.51911902 0
3.6470003 1.3713856 0.52113932 0
3.6520002 1.3677021 0.52131969 0
3.6560001 1.3635678 0.52146399 0
3.6600003 1.3594192 0.52160829 0
3.6650002 1.3556852 0.52178872 0
3.6690001 1.3515058 0.52193302 0
3.6740003 1.3477377 0.52211338 0
3.6790001 1.3439515 0.52229375 0
3.6830003 1.3397251 0.52243805 0
3.6880002 1.3359046 0.52261841 0
3.6920002 1.3316476 0.52276278 0
3.6970003 1.327793 0.52294314 0
3.5480003 1.5212352 0.5118894 0
3.5500002 1.5165488 0.51195794 0
3.5510004 1.5113612 0.51199222 0
3.5530002 1.5066622 0.51206076 0
3.5550003 1.5019561 0.51212931 0
3.5440001 1.462532 0.51175231 0
3.5480003 1.458773 0.5118894 0
3.5520003 1.4549993 0.51202649 0
3.5560002 1.4512113 0.51216358 0
3.5600002 1.4474089 0.51230067 0
3.5650003 1.4440628 0.51247203 0
3.5690002 1.4402298 0.51260912 0
3.5730002 1.4363822 0.51274621 0
3.5770001 1.4325203 0.51288331 0
3.5800002 1.4281802 0.51298612 0
3.5810003 1.422906 0.5130204 0
3.5830002 1.418088 0.51308894 0
3.5850003 1.4132628 0.51315749 0
3.5860002 1.407974 0.51319176 0
3.5880003 1.4031363 0.5132603 0
3.5900002 1.3982911 0.51332885 0
3.5910003 1.3929881 0.51336312 0
3.6470003 1.3713856 0.51528233 0
3.6520002 1.3677021 0.5154537 0
3.6560001 1.3635678 0.51559079 0
3.6600003 1.3594192 0.51572788 0
3.6650002 1.3556852 0.51589924 0
3.6690001 1.3515058 0.51603633 0
3.6740003 1.3477377 0.5162077 0
3.6790001 1.3439515 0.51637906 0
3.6830003 1.3397251 0.51651615 0
3.6880002 1.3359046 0.51668751 0
3.6920002 1.3316476 0.5168246 0
3.6970003 1.327793 0.51699597 0
3.5480003 1.5212352 0.50621098 0
3.5500002 1.5165488 0.50627595 0
3.5510004 1.5113612 0.50630844 0
3.5530002 1.5066622 0.50637335 0
3.5550003 1.5019561 0.50643826 0
3.5440001 1.462532 0.5060811 0
3.5480003 1.458773 0.50621098 0
3.5520003 1.4549993 0.50634086 0
3.5560002 1.4512113 0.50647074 0
3.5600002 1.4474089 0.50660062 0
3.5650003 1.4440628 0.50676298 0
3.5690002 1.4402298 0.50689286 0
3.5730002 1.4363822 0.50702274 0
3.5770001 1.4325203 0.50715256 0
3.5800002 1.4281802 0.50725001 0
3.5810003 1.422906 0.5072825 0
3.5830002 1.418088 0.5073474 0
3.5850003 1.4132628 0.50741231 0
3.5860002 1.407974 0.5074448 0
3.5880003 1.4031363 0.50750977 0
3.5900002 1.3982911 0.50757468 0
3.5910003 1.3929881 0.50760716 0
3.6470003 1.3713856 0.5094254 0
3.6520002 1.3677021 0.50958776 0
3.6560001 1.3635678 0.50971758 0
3.6600003 1.3594192 0.50984746 0
3.6650002 1.3556852 0.51000983 0
3.6690001 1.3515058 0.5101397 0
3.6740003 1.3477377 0.51030207 0
3.6790001 1.3439515 0.51046437 0
3.6830003 1.3397251 0.51059425 0
3.6880002 1.3359046 0.51075661 0
3.6920002 1.3316476 0.51088649 0
3.6970003 1.327793 0.51104879 0
3.5480003 1.5212352 0.50053263 0
3.5500002 1.5165488 0.50059396 0
3.5510004 1.5113612 0.5006246 0
3.5530002 1.5066622 0.50068593 0
3.5550003 1.5019561 0.50074726 0
3.5440001 1.462532 0.50040996 0
3.5480003 1.458773 0.50053263 0
3.5520003 1.4549993 0.50065529 0
3.5560002 1.4512113 0.50077796 0
3.5600002 1.4474089 0.50090057 0
3.5650003 1.4440628 0.50105393 0
3.5690002 1.4402298 0.5011766 0
3.5730002 1.4363822 0.50129926 0
3.5770001 1.4325203 0.50142187 0
3.5800002 1.4281802 0.5015139 0
3.5810003 1.422906 0.50154454 0
3.5830002 1.418088 0.50160587 0
3.5850003 1.4132628 0.5016672 0
3.5860002 1.407974 0.5016979 0
3.5880003 1.4031363 0.50175923 0
3.5900002 1.3982911 0.5018205 0
3.5910003 1.3929881 0.5018512 0
3.6470003 1.3713856 0.50356841 0
3.6520002 1.3677021 0.50372171 0
3.6560001 1.3635678 0.50384438 0
3.6600003 1.3594192 0.50396705 0
3.6650002 1.3556852 0.50412041 0
3.6690001 1.3515058 0.50424302 0
3.6740003 1.3477377 0.50439638 0
3.6790001 1.3439515 0.50454968 0
3.6830003 1.3397251 0.50467235 0
3.6880002 1.3359046 0.50482571 0
3.6920002 1.3316476 0.50494832 0
3.6970003 1.327793 0.50510168 0
3.5480003 1.5212352 0.49485421 0
3.5500002 1.5165488 0.49491194 0
3.5510004 1.5113612 0.49494082 0
3.5530002 1.5066622 0.49499851 0
3.5550003 1.5019561 0.49505627 0
3.5440001 1.462532 0.49473879 0
3.5480003 1.458773 0.49485421 0
3.5520003 1.4549993 0.49496967 0
3.5560002 1.4512113 0.49508512 0
3.5600002 1.4474089 0.49520057 0
3.5650003 1.4440628 0.49534488 0
3.5690002 1.4402298 0.4954603 0
3.5730002 1.4363822 0.49557576 0
3.5770001 1.4325203 0.49569118 0
3.5800002 1.4281802 0.49577779 0
3.5810003 1.422906 0.49580663 0
3.5830002 1.418088 0.49586436 0
3.5850003 1.4132628 0.49592209 0
3.5860002 1.407974 0.49595094 0
3.5880003 1.4031363 0.49600866 0
3.5900002 1.3982911 0.49606639 0
3.5910003 1.3929881 0.49609524 0
3.6470003 1.3713856 0.49771148 0
3.6520002 1.3677021 0.49785575 0
3.6560001 1.3635678 0.49797121 0
3.6600003 1.3594192 0.49808666 0
3.6650002 1.3556852 0.49823096 0
3.6690001 1.3515058 0.49834639 0
3.6740003 1.3477377 0.49849069 0
3.6790001 1.3439515 0.49863499 0
3.6830003 1.3397251 0.49875045 0
3.6880002 1.3359046 0.49889475 0
3.6920002 1.3316476 0.49901021 0
3.6970003 1.327793 0.49915451 0
3.5480003 1.5212352 0.48917586 0
3.5500002 1.5165488 0.48922995 0
3.5510004 1.5113612 0.48925701 0
3.5530002 1.5066622 0.48931113 0
3.5550003 1.5019561 0.48936525 0
3.5440001 1.462532 0.48906761 0
3.5480003 1.458773 0.48917586 0
3.5520003 1.4549993 0.48928407 0
3.5560002 1.4512113 0.48939228 0
3.5600002 1.4474089 0.48950052 0
3.5650003 1.4440628 0.48963583 0
3.5690002 1.4402298 0.48974404 0
3.5730002 1.4363822 0.48985225 0
3.5770001 1.4325203 0.48996049 0
3.5800002 1.4281802 0.49004167 0
3.5810003 1.422906 0.49006873 0
3.5830002 1.418088 0.49012285 0
3.5850003 1.4132628 0.49017695 0
3.5860002 1.407974 0.49020401 0
3.5880003 1.4031363 0.49025813 0
3.5900002 1.3982911 0.49031225 0
3.5910003 1.3929881 0.49033928 0
3.6470003 1.3713856 0.49185449 0
3.6520002 1.3677021 0.49198979 0
3.6560001 1.3635678 0.492098 0
3.6600003 1.3594192 0.49220625 0
3.6650002 1.3556852 0.49234152 0
3.6690001 1.3515058 0.49244976 0
3.6740003 1.3477377 0.49258503 0
3.6790001 1.3439515 0.49272031 0
3.6830003 1.3397251 0.49282855 0
3.6880002 1.3359046 0.49296382 0
3.6920002 1.3316476 0.49307206 0
3.6970003 1.327793 0.49320734 0
3.5480003 1.5212352 0.48349744 0
3.5500002 1.5165488 0.48354796 0
3.5510004 1.5113612 0.4835732 0
3.5530002 1.5066622 0.48362371 0
3.5550003 1.5019561 0.48367423 0
3.5440001 1.462532 0.48339644 0
3.5480003 1.458773 0.48349744 0
3.5520003 1.4549993 0.48359847 0
3.5560002 1.4512113 0.48369947 0
3.5600002 1.4474089 0.4838005 0
3.5650003 1.4440628 0.48392677 0
3.5690002 1.4402298 0.48402777 0
3.5730002 1.4363822 0.48412877 0
3.5770001 1.4325203 0.4842298 0
3.5800002 1.4281802 0.48430556 0
3.5810003 1.422906 0.4843308 0
3.5830002 1.418088 0.48438132 0
3.5850003 1.4132628 0.48443183 0
3.5860002 1.407974 0.48445708 0
3.5880003 1.4031363 0.48450759 0
3.5900002 1.3982911 0.48455808 0
3.5910003 1.3929881 0.48458335 0
3.6470003 1.3713856 0.48599753 0
3.6520002 1.3677021 0.4861238 0
3.6560001 1.3635678 0.4862248 0
3.6600003 1.3594192 0.48632583 0
3.6650002 1.3556852 0.4864521 0
3.6690001 1.3515058 0.4865531 0
3.6740003 1.3477377 0.48667938 0
3.6790001 1.3439515 0.48680562 0
3.6830003 1.3397251 0.48690665 0
3.6880002 1.3359046 0.48703292 0
3.6920002 1.3316476 0.48713392 0
3.6970003 1.327793 0.48726019 0
3.5480003 1.5212352 0.47781906 0
3.5500002 1.5165488 0.47786596 0
3.5510004 1.5113612 0.47788942 0
3.5530002 1.5066622 0.47793633 0
3.5550003 1.5019561 0.47798321 0
3.5440001 1.462532 0.47772527 0
3.5480003 1.458773 0.47781906 0
3.5520003 1.4549993 0.47791284 0
3.5560002 1.4512113 0.47800666 0
3.5600002 1.4474089 0.47810045 0
3.5650003 1.4440628 0.47821772 0
3.5690002 1.4402298 0.47831151 0
3.5730002 1.4363822 0.4784053 0
3.5770001 1.4325203 0.47849911 0
3.5800002 1.4281802 0.47856945 0
3.5810003 1.422906 0.4785929 0
3.5830002 1.418088 0.47863978 0
3.5850003 1.4132628 0.47868669 0
3.5860002 1.407974 0.47871014 0
3.5880003 1.4031363 0.47875705 0
3.5900002 1.3982911 0.47880393 0
3.5910003 1.3929881 0.47882739 0
3.6470003 1.3713856 0.48014057 0
3.6520002 1.3677021 0.48025781 0
3.6560001 1.3635678 0.4803516 0
3.6600003 1.3594192 0.48044541 0
3.6650002 1.3556852 0.48056266 0
3.6690001 1.3515058 0.48065645 0
3.6740003 1.3477377 0.48077369 0
3.6790001 1.3439515 0.48089093 0
3.6830003 1.3397251 0.48098475 0
3.6880002 1.3359046 0.48110199 0
3.6920002 1.3316476 0.48119581 0
3.6970003 1.327793 0.48131305 0
3.5480003 1.5212352 0.47214067 0
3.5500002 1.5165488 0.47218397 0
3.5510004 1.5113612 0.47220561 0
3.5530002 1.5066622 0.47224891 0
3.5550003 1.5019561 0.47229218 0
3.5440001 1.462532 0.47205409 0
3.5480003 1.458773 0.47214067 0
3.5520003 1.4549993 0.47222725 0
3.5560002 1.4512113 0.47231382 0
3.5600002 1.4474089 0.47240043 0
3.5650003 1.4440628 0.47250867 0
3.5690002 1.4402298 0.47259521 0
3.5730002 1.4363822 0.47268182 0
3.5770001 1.4325203 0.4727684 0
3.5800002 1.4281802 0.47283334 0
3.5810003 1.422906 0.47285497 0
3.5830002 1.418088 0.47289827 0
3.5850003 1.4132628 0.47294158 0
3.5860002 1.407974 0.47296321 0
3.5880003 1.4031363 0.47300652 0
3.5900002 1.3982911 0.47304979 0
3.5910003 1.3929881 0.47307146 0
3.6470003 1.3713856 0.47428361 0
3.6520002 1.3677021 0.47439182 0
3.6560001 1.3635678 0.47447839 0
3.6600003 1.3594192 0.474565 0
3.6650002 1.3556852 0.47467321 0
3.6690001 1.3515058 0.47475982 0
