# .PCD v0.7 - Point Cloud Data file format
VERSION 0.7
FIELDS x y z intensity
SIZE 4 4 4 4
TYPE F F F F
COUNT 1 1 1 1
WIDTH 1300
HEIGHT 1
VIEWPOINT 0 0 0 1 0 0 0
POINTS 1300
DATA ascii
6.5360003 -0.47765851 1.1344991 0
6.5320005 -0.4884381 1.1340228 0
6.5290003 -0.49927714 1.1336657 0
6.5270004 -0.51018119 1.1334276 0
6.5270004 -0.52123314 1.1334276 0
6.5290003 -0.53244376 1.1336657 0
6.5310006 -0.54366165 1.1339039 0
6.5320005 -0.46631619 1.1229619 0
6.5270004 -0.47702542 1.1223757 0
6.5230002 -0.48778871 1.1219066 0
6.5200005 -0.49861157 1.121555 0
6.5190005 -0.50957513 1.1214377 0
6.5200005 -0.52069014 1.121555 0
6.5210004 -0.53180885 1.1216722 0
6.5230002 -0.54301226 1.1219066 0
6.5270004 -0.55438894 1.1223757 0
6.5400004 -0.44471377 1.1128246 0
6.5320005 -0.45525524 1.1119009 0
6.5260005 -0.46590492 1.1112083 0
6.5210004 -0.4766033 1.1106311 0
6.5170002 -0.4873558 1.1101693 0
6.5150003 -0.49824178 1.1099384 0
6.5140004 -0.50919634 1.109823 0
6.5130005 -0.5201472 1.1097075 0
6.5140004 -0.53125328 1.109823 0
6.5170002 -0.54252529 1.1101693 0
6.5200005 -0.55380809 1.1105156 0
6.5250006 -0.56527132 1.1110928 0
6.5340004 -0.44432414 1.1010673 0
6.5270004 -0.45492151 1.1002718 0
6.5210004 -0.46556219 1.0995899 0
6.5160003 -0.47625154 1.0990218 0
6.5130005 -0.48706719 1.0986809 0
6.5100002 -0.49787199 1.0983399 0
6.5090003 -0.50881749 1.0982263 0
6.5090003 -0.51983696 1.0982263 0
6.5100002 -0.53093576 1.0983399 0
6.5120006 -0.54211938 1.0985672 0
6.5150003 -0.55339319 1.0989082 0
6.5200005 -0.56484741 1.0994763 0
6.5260005 -0.57640624 1.1001582 0
6.5390005 -0.43357527 1.0905619 0
6.5300002 -0.44406441 1.0895554 0
6.5230002 -0.45465457 1.0887725 0
6.5170002 -0.46528798 1.0881015 0
6.5130005 -0.47604051 1.0876541 0
6.5090003 -0.48677859 1.0872068 0
6.5070004 -0.49765012 1.0869832 0
6.5060005 -0.50859022 1.0868713 0
6.5060005 -0.51960427 1.0868713 0
6.5070004 -0.5306977 1.0869832 0
6.5090003 -0.54187584 1.0872068 0
6.5120006 -0.55314428 1.0875423 0
6.5160003 -0.56450826 1.0879897 0
6.5220003 -0.57605988 1.0886607 0
6.5300002 -0.58780986 1.0895554 0
6.5360003 -0.43338585 1.0791582 0
6.5270004 -0.44386959 1.0781679 0
6.5200005 -0.45445436 1.0773977 0
6.5150003 -0.46515092 1.0768476 0
6.5110002 -0.47589982 1.0764074 0
6.5070004 -0.48663428 1.0759673 0
6.5050006 -0.49750224 1.0757473 0
6.5040002 -0.50843871 1.0756371 0
6.5040002 -0.51944917 1.0756371 0
6.5040002 -0.53045952 1.0756371 0
6.5060005 -0.54163241 1.0758573 0
6.5100002 -0.55297834 1.0762974 0
6.5140004 -0.56433868 1.0767375 0
6.5200005 -0.57588673 1.0773977 0
6.5270004 -0.58754474 1.0781679 0
6.5450006 -0.42286968 1.0690641 0
6.5340004 -0.43325961 1.0678736 0
6.5260005 -0.44380465 1.0670078 0
6.5190005 -0.45438761 1.0662502 0
6.5140004 -0.46508238 1.065709 0
6.5090003 -0.47575912 1.0651679 0
6.5060005 -0.48656213 1.0648432 0
6.5040002 -0.49742827 1.0646267 0
6.5030003 -0.50836295 1.0645186 0
6.5030003 -0.51937157 1.0645186 0
6.5040002 -0.53045952 1.0646267 0
6.5060005 -0.54163241 1.0648432 0
6.5090003 -0.55289537 1.0651679 0
6.5130005 -0.56425393 1.0656009 0
6.5180006 -0.57571357 1.066142 0
6.5260005 -0.58745635 1.0670078 0
6.5440001 -0.42280829 1.0578732 0
6.5340004 -0.43325961 1.0568091 0
6.5260005 -0.44380465 1.0559577 0
6.5190005 -0.45438761 1.0552127 0
6.5140004 -0.46508238 1.0546806 0
6.5090003 -0.47575912 1.0541484 0
6.5060005 -0.48656213 1.0538292 0
6.5040002 -0.49742827 1.0536163 0
6.5030003 -0.50836295 1.0535098 0
6.5030003 -0.51937157 1.0535098 0
6.5040002 -0.53045952 1.0536163 0
6.5060005 -0.54163241 1.0538292 0
6.5080004 -0.5528124 1.054042 0
6.5130005 -0.56425393 1.0545741 0
6.5180006 -0.57571357 1.0551063 0
6.5250006 -0.58736795 1.0558512 0
6.5350003 -0.59931815 1.0569155 0
6.5450006 -0.42286968 1.0468954 0
6.5350003 -0.43332273 1.0458491 0
6.5270004 -0.44386959 1.0450121 0
6.5200005 -0.45445436 1.0442798 0
6.5150003 -0.46515092 1.0437567 0
6.5100002 -0.47582945 1.0432335 0
6.5070004 -0.48663428 1.0429198 0
6.5050006 -0.49750224 1.0427105 0
6.5040002 -0.50843871 1.0426059 0
6.5040002 -0.51944917 1.0426059 0
6.5050006 -0.53053898 1.0427105 0
6.5070004 -0.54171354 1.0429198 0
6.5090003 -0.55289537 1.043129 0
6.5140004 -0.56433868 1.0436521 0
6.5190005 -0.57580018 1.0441751 0
6.5260005 -0.58745635 1.0449075 0
6.5360003 -0.59940839 1.0459536 0
6.5470004 -0.42299232 1.0360166 0
6.5360003 -0.43338585 1.0348855 0
6.5280004 -0.4439345 1.034063 0
6.5220003 -0.45458782 1.0334461 0
6.5160003 -0.46521947 1.0328292 0
6.5120006 -0.47597018 1.032418 0
6.5090003 -0.48677859 1.0321095 0
6.5070004 -0.49765012 1.0319039 0
6.5060005 -0.50859022 1.0318011 0
6.5060005 -0.51960427 1.0318011 0
6.5070004 -0.5306977 1.0319039 0
6.5080004 -0.54179472 1.0320066 0
6.5110002 -0.55306131 1.0323151 0
6.5160003 -0.56450826 1.0328292 0
6.5210004 -0.57597327 1.0333433 0
6.5280004 -0.58763307 1.034063 0
6.5510006 -0.42323765 1.0253326 0
6.5410004 -0.43370155 1.0243225 0
6.5320005 -0.44419429 1.0234133 0
6.5250006 -0.45478806 1.0227063 0
6.5200005 -0.46549365 1.0222012 0
6.5160003 -0.47625154 1.0217971 0
6.5120006 -0.48699504 1.0213931 0
6.5100002 -0.49787199 1.021191 0
6.5090003 -0.50881749 1.02109 0
6.5090003 -0.51983696 1.02109 0
6.5100002 -0.53093576 1.021191 0
6.5120006 -0.54211938 1.0213931 0
6.5140004 -0.55331028 1.0215951 0
6.5190005 -0.56476265 1.0221002 0
6.5250006 -0.57631963 1.0227063 0
6.5320005 -0.58798665 1.0234133 0
6.5450006 -0.43395406 1.0136422 0
6.5360003 -0.44445401 1.0127492 0
6.5290003 -0.455055 1.0120547 0
6.5240002 -0.4657678 1.0115587 0
6.5190005 -0.47646263 1.0110626 0
6.5160003 -0.48728365 1.010765 0
6.5140004 -0.49816781 1.0105666 0
6.5130005 -0.50912052 1.0104674 0
6.5130005 -0.5201472 1.0104674 0
6.5140004 -0.53125328 1.0105666 0
6.5160003 -0.54244405 1.010765 0
6.5190005 -0.55372512 1.0110626 0
6.5230002 -0.56510174 1.0114595 0
6.5290003 -0.57666594 1.0120547 0
6.5370002 -0.58842856 1.0128484 0
6.5520005 -0.434396 1.0032395 0
6.5430002 -0.44490859 1.0023628 0
6.5350003 -0.45545545 1.0015836 0
6.5290003 -0.46611056 1.0009992 0
6.5250006 -0.47688469 1.0006096 0
6.5210004 -0.4876444 1.0002199 0
6.5190005 -0.4985376 1.0000252 0
6.5180006 -0.50949937 0.99992776 0
6.5180006 -0.52053505 0.99992776 0
6.5190005 -0.53165013 1.0000252 0
6.5210004 -0.54284996 1.0002199 0
6.5240002 -0.55413997 1.0005121 0
6.5290003 -0.56561041 1.0009992 0
6.5360003 -0.57727206 1.001681 0
6.5490003 -0.44529822 0.99185574 0
6.5420003 -0.45592263 0.9911865 0
6.5350003 -0.4665218 0.99051726 0
6.5310006 -0.47730681 0.99013484 0
6.5280004 -0.48814946 0.98984814 0
6.5260005 -0.4990553 0.98965681 0
6.5250006 -0.51002967 0.98956132 0
6.5240002 -0.52100039 0.98946559 0
6.5250006 -0.53212637 0.98956132 0
6.5280004 -0.54341817 0.98984814 0
6.5310006 -0.55472088 0.99013484 0
6.5370002 -0.56628859 0.99070847 0
6.5510006 -0.45652333 0.98095167 0
6.5450006 -0.46720725 0.980389 0
6.5400004 -0.4779399 0.97991991 0
6.5360003 -0.48872668 0.97954476 0
6.5330005 -0.49957299 0.97926331 0
6.5320005 -0.51055998 0.97916949 0
6.5320005 -0.52162093 0.97916949 0
6.5340004 -0.53284067 0.97935712 0
6.5360003 -0.5440675 0.97954476 0
6.5400004 -0.55546761 0.97991991 0
6.5460005 -0.56705171 0.9804827 0
6.5540004 -0.46782416 0.97013247 0
6.5490003 -0.47857305 0.96967244 0
6.5460005 -0.48944822 0.96939647 0
6.5430002 -0.50031251 0.9691205 0
6.5420003 -0.51131761 0.96902847 0
6.5420003 -0.52239656 0.96902847 0
6.5430002 -0.53355491 0.9691205 0
6.5460005 -0.5448792 0.96939647 0
6.5510006 -0.55638033 0.9698565 0
6.5570002 -0.49024189 0.95930231 0
6.5550003 -0.50120002 0.95912194 0
6.5540004 -0.5122267 0.95903182 0
6.5540004 -0.52332735 0.95903182 0
6.5560002 -0.53458673 0.95921218 0
6.5600004 -0.54601562 0.95957303 0
6.5180006 -0.46535659 0.94474924 0
6.5340004 -0.47751784 0.94616342 0
6.5510006 -0.48980901 0.94766605 0
6.5670004 -0.50208747 0.94908023 0
6.5690002 -0.51336306 0.9492569 0
6.5700002 -0.52456832 0.94934535 0
6.5190005 -0.47646263 0.93380022 0
6.5330005 -0.48851022 0.93501234 0
6.5480003 -0.50068229 0.93631101 0
6.5620003 -0.51283276 0.93752313 0
6.4870005 -0.41931254 0.92004967 0
6.4860005 -0.43022919 0.91996491 0
6.4860005 -0.44120717 0.91996491 0
6.4900002 -0.45245209 0.92030406 0
6.4980006 -0.46398568 0.92098224 0
6.5110002 -0.47589982 0.92208445 0
6.5250006 -0.48793304 0.9232713 0
6.5390005 -0.50001675 0.92445827 0
6.5530005 -0.51215094 0.92564511 0
6.4900002 -0.40851134 0.9093188 0
6.4860005 -0.41925123 0.90898693 0
6.4840002 -0.43010291 0.90882099 0
6.4850006 -0.44114223 0.90890396 0
6.4890003 -0.45238537 0.90923595 0
6.4960003 -0.46384856 0.90981674 0
6.5080004 -0.47568876 0.91081238 0
6.4980006 -0.39798793 0.89898306 0
6.4900002 -0.40851134 0.89833367 0
6.4860005 -0.41925123 0.898009 0
6.4850006 -0.4301661 0.89792776 0
6.4850006 -0.44114223 0.89792776 0
6.4890003 -0.45238537 0.89825249 0
6.4960003 -0.46384856 0.89882064 0
6.5080004 -0.47568876 0.89979476 0
6.5070004 -0.38749158 0.88869774 0
6.4980006 -0.39798793 0.88798344 0
6.4900002 -0.40851134 0.88734847 0
6.4860005 -0.41925123 0.88703102 0
6.4850006 -0.4301661 0.88695168 0
6.4850006 -0.44114223 0.88695168 0
6.4890003 -0.45238537 0.88726914 0
6.4960003 -0.46384856 0.88782465 0
6.5080004 -0.47568876 0.88877708 0
6.5080004 -0.38754749 0.87775946 0
6.4980006 -0.39798793 0.87698376 0
6.4900002 -0.40851134 0.87636328 0
6.4860005 -0.41925123 0.87605304 0
6.4850006 -0.4301661 0.87597549 0
6.4850006 -0.44114223 0.87597549 0
6.4890003 -0.45238537 0.87628567 0
6.4960003 -0.46384856 0.87682867 0
6.5080004 -0.47568876 0.87775946 0
6.5210004 -0.4876444 0.87876773 0
6.5080004 -0.38754749 0.86674178 0
6.4980006 -0.39798793 0.8659842 0
6.4900002 -0.40851134 0.86537802 0
6.4860005 -0.41925123 0.86507505 0
6.4850006 -0.4301661 0.86499929 0
6.4850006 -0.44114223 0.86499929 0
6.4890003 -0.45238537 0.86530232 0
6.4960003 -0.46384856 0.86583269 0
6.5080004 -0.47568876 0.86674178 0
6.5210004 -0.4876444 0.86772662 0
6.5170002 -0.37701684 0.85638964 0
6.5100002 -0.38765931 0.85587204 0
6.4980006 -0.39798793 0.85498452 0
6.4900002 -0.40851134 0.85439289 0
6.4860005 -0.41925123 0.85409707 0
6.4850006 -0.4301661 0.8540231 0
6.4850006 -0.44114223 0.8540231 0
6.4890003 -0.45238537 0.85431892 0
6.4960003 -0.46384856 0.85483658 0
6.5080004 -0.47568876 0.8557241 0
6.5180006 -0.37707096 0.84542799 0
6.5120006 -0.38777116 0.84499502 0
6.4980006 -0.39798793 0.84398496 0
6.4900002 -0.40851134 0.84340769 0
6.4860005 -0.41925123 0.84311914 0
6.4850006 -0.4301661 0.84304696 0
6.4850006 -0.44114223 0.84304696 0
6.4890003 -0.45238537 0.84333551 0
6.4960003 -0.46384856 0.8438406 0
6.5080004 -0.47568876 0.84470642 0
6.5190005 -0.37712508 0.83446264 0
6.5120006 -0.38777116 0.83397019 0
6.4980006 -0.39798793 0.83298528 0
6.4900002 -0.40851134 0.83242249 0
6.4860005 -0.41925123 0.83214116 0
6.4850006 -0.4301661 0.83207077 0
6.4850006 -0.44114223 0.83207077 0
6.4890003 -0.45238537 0.83235216 0
6.4960003 -0.46384856 0.83284461 0
6.5080004 -0.47568876 0.83368874 0
6.5270004 -0.36650607 0.82397348 0
6.5210004 -0.3772333 0.8235622 0
6.5120006 -0.38777116 0.8229453 0
6.4980006 -0.39798793 0.82198572 0
6.4900002 -0.40851134 0.82143736 0
6.4860005 -0.41925123 0.82116318 0
6.4850006 -0.4301661 0.82109463 0
6.4850006 -0.44114223 0.82109463 0
6.4890003 -0.45238537 0.82136875 0
6.4960003 -0.46384856 0.82184857 0
6.5080004 -0.47568876 0.82267112 0
6.3550005 -0.5401172 0.81218374 0
6.3680005 -0.551961 0.81307483 0
6.3810005 -0.56385171 0.81396592 0
6.5280004 -0.36655837 0.81298828 0
6.5230002 -0.37734154 0.81265461 0
6.5120006 -0.38777116 0.8119204 0
6.4980006 -0.39798793 0.81098604 0
6.4900002 -0.40851134 0.8104521 0
6.4860005 -0.41925123 0.81018519 0
6.4850006 -0.4301661 0.81011844 0
6.4850006 -0.44114223 0.81011844 0
6.4890003 -0.45238537 0.81038535 0
6.4960003 -0.46384856 0.81085253 0
6.5080004 -0.47568876 0.81165349 0
6.3550005 -0.5401172 0.80144215 0
6.3680005 -0.551961 0.80230975 0
6.3810005 -0.56385171 0.80317736 0
6.5360003 -0.35590866 0.80245399 0
6.5290003 -0.36661068 0.80199945 0
6.5250006 -0.37744978 0.80173975 0
6.5120006 -0.38777116 0.80089557 0
6.4980006 -0.39798793 0.79998642 0
6.4900002 -0.40851134 0.79946691 0
6.4860005 -0.41925123 0.79920721 0
6.4850006 -0.4301661 0.79914224 0
6.4850006 -0.44114223 0.79914224 0
6.4890003 -0.45238537 0.799402 0
6.4960003 -0.46384856 0.79985654 0
6.5080004 -0.47568876 0.80063581 0
6.3550005 -0.5401172 0.79070044 0
6.3680005 -0.551961 0.79154462 0
6.3810005 -0.56385171 0.7923888 0
6.3950005 -0.57587767 0.79329789 0
6.5370002 -0.35595918 0.79144895 0
6.5310006 -0.36671531 0.79107022 0
6.5280004 -0.37761211 0.7908808 0
6.5120006 -0.38777116 0.78987068 0
6.4980006 -0.39798793 0.7889868 0
6.4900002 -0.40851134 0.78848171 0
6.4860005 -0.41925123 0.78822923 0
6.4850006 -0.4301661 0.78816611 0
6.4850006 -0.44114223 0.78816611 0
6.4890003 -0.45238537 0.78841859 0
6.4960003 -0.46384856 0.78886056 0
6.5080004 -0.47568876 0.78961813 0
6.3470006 -0.52872616 0.77945369 0
6.3550005 -0.5401172 0.77995872 0
6.3680005 -0.551961 0.78077948 0
6.3810005 -0.56385171 0.78160024 0
6.3950005 -0.57587767 0.78248405 0
6.5450006 -0.34527886 0.78086972 0
6.5380006 -0.35600972 0.78044033 0
6.5340004 -0.36687222 0.78019506 0
6.5320005 -0.37782857 0.78007245 0
6.5120006 -0.38777116 0.77884579 0
6.4980006 -0.39798793 0.77798718 0
6.4900002 -0.40851134 0.77749652 0
6.4860005 -0.41925123 0.77725124 0
6.4850006 -0.4301661 0.77718991 0
6.4850006 -0.44114223 0.77718991 0
6.4890003 -0.45238537 0.77743518 0
6.4960003 -0.46384856 0.77786452 0
6.5080004 -0.47568876 0.77860045 0
6.3470006 -0.52872616 0.76872647 0
6.3550005 -0.5401172 0.76921707 0
6.3680005 -0.551961 0.77001441 0
6.3810005 -0.56385171 0.77081168 0
6.3950005 -0.57587767 0.77167022 0
6.5460005 -0.34532756 0.76984477 0
6.5400004 -0.35611072 0.76948762 0
6.5370002 -0.36702916 0.76930904 0
6.5360003 -0.37804502 0.76924956 0
6.5120006 -0.38777116 0.76782095 0
6.4980006 -0.39798793 0.76698756 0
6.4900002 -0.40851134 0.76651132 0
6.4860005 -0.41925123 0.76627326 0
6.4850006 -0.4301661 0.76621377 0
6.4850006 -0.44114223 0.76621377 0
6.4890003 -0.45238537 0.76645184 0
6.4960003 -0.46384856 0.76686847 0
6.5080004 -0.47568876 0.76758277 0
6.3470006 -0.52872616 0.75799918 0
6.3550005 -0.5401172 0.75847542 0
6.3680005 -0.551961 0.75924921 0
6.3810005 -0.56385171 0.76002306 0
6.3950005 -0.57587767 0.76085639 0
6.5550003 -0.33466342 0.75927806 0
6.5470004 -0.34537625 0.7588163 0
6.5430002 -0.35626221 0.75858545 0
6.5410004 -0.3672384 0.75846994 0
6.5400004 -0.37826148 0.75841224 0
6.5120006 -0.38777116 0.75679606 0
6.4980006 -0.39798793 0.75598794 0
6.4900002 -0.40851134 0.75552619 0
6.4860005 -0.41925123 0.75529528 0
6.4850006 -0.4301661 0.75523758 0
6.4850006 -0.44114223 0.75523758 0
6.4890003 -0.45238537 0.75546843 0
6.4960003 -0.46384856 0.75587249 0
6.5080004 -0.47568876 0.75656515 0
6.3470006 -0.52872616 0.74727196 0
6.3550005 -0.5401172 0.74773371 0
6.3680005 -0.551961 0.74848413 0
6.3810005 -0.56385171 0.7492345 0
6.3950005 -0.57587767 0.75004256 0
6.5550003 -0.33466342 0.74817562 0
6.5490003 -0.34547368 0.74784017 0
6.5460005 -0.35641375 0.74767244 0
6.5440001 -0.36739531 0.7475605 0
6.5450006 -0.37853205 0.74761647 0
6.5120006 -0.38777116 0.74577117 0
6.4980006 -0.39798793 0.74498832 0
6.4900002 -0.40851134 0.74454093 0
6.4860005 -0.41925123 0.74431729 0
6.4850006 -0.4301661 0.74426138 0
6.4850006 -0.44114223 0.74426138 0
6.4890003 -0.45238537 0.74448502 0
6.4960003 -0.46384856 0.7448765 0
6.5080004 -0.47568876 0.74554753 0
6.3470006 -0.52872616 0.73654473 0
6.3550005 -0.5401172 0.736992 0
6.3680005 -0.551961 0.73771894 0
6.3810005 -0.56385171 0.73844588 0
6.3950005 -0.57587767 0.73922873 0
6.5640006 -0.32396686 0.73756027 0
6.5570002 -0.33475721 0.73718143 0
6.5520005 -0.34561977 0.73691088 0
6.5490003 -0.35656527 0.73674852 0
6.5490003 -0.36765689 0.73674852 0
6.5500002 -0.3788026 0.73680258 0
6.5120006 -0.38777116 0.73474634 0
6.4980006 -0.39798793 0.7339887 0
6.4900002 -0.40851134 0.73355579 0
6.4860005 -0.41925123 0.73333931 0
6.4850006 -0.4301661 0.73328519 0
6.4850006 -0.44114223 0.73328519 0
6.4890003 -0.45238537 0.73350167 0
6.4960003 -0.46384856 0.73388046 0
6.5080004 -0.47568876 0.73452985 0
6.3470006 -0.52872616 0.72581744 0
6.3550005 -0.5401172 0.72625035 0
6.3680005 -0.551961 0.72695386 0
6.3810005 -0.56385171 0.72765732 0
6.3950005 -0.57587767 0.72841489 0
6.5650005 -0.32401195 0.7264939 0
6.5580006 -0.33480415 0.72612774 0
6.5540004 -0.34571716 0.72591841 0
6.5530005 -0.3567673 0.72586614 0
6.5530005 -0.36786613 0.72586614 0
6.5120006 -0.38777116 0.72372144 0
6.4980006 -0.39798793 0.72298908 0
6.4900002 -0.40851134 0.72257054 0
6.4860005 -0.41925123 0.72236133 0
6.4850006 -0.4301661 0.72230905 0
6.4850006 -0.44114223 0.72230905 0
6.4890003 -0.45238537 0.72251827 0
6.4960003 -0.46384856 0.72288442 0
6.5080004 -0.47568876 0.72351217 0
6.3470006 -0.52872616 0.71509022 0
6.3550005 -0.5401172 0.7155087 0
6.3680005 -0.551961 0.71618867 0
6.3810005 -0.56385171 0.71686876 0
6.3950005 -0.57587767 0.71760106 0
6.5740004 -0.31328109 0.71582794 0
6.5660005 -0.32405704 0.71542394 0
6.5600004 -0.33489794 0.71512085 0
6.5580006 -0.34591198 0.71501982 0
6.5570002 -0.3569693 0.71496928 0
6.5580006 -0.3681277 0.71501982 0
6.5120006 -0.38777116 0.71269655 0
6.4980006 -0.39798793 0.71198946 0
6.4900002 -0.40851134 0.7115854 0
6.4860005 -0.41925123 0.7113834 0
6.4850006 -0.4301661 0.71133292 0
6.4850006 -0.44114223 0.71133292 0
6.4890003 -0.45238537 0.71153486 0
6.4960003 -0.46384856 0.71188843 0
6.5080004 -0.47568876 0.71249449 0
6.3470006 -0.52872616 0.70436299 0
6.3550005 -0.5401172 0.70476699 0
6.3680005 -0.551961 0.70542359 0
6.3810005 -0.56385171 0.7060802 0
6.3950005 -0.57587767 0.70678729 0
6.5740004 -0.31328109 0.70469129 0
6.5670004 -0.32410213 0.70435035 0
6.5630002 -0.33503863 0.7041555 0
6.5610003 -0.34605807 0.70405805 0
6.5610003 -0.35717136 0.70405805 0
6.5640006 -0.36844155 0.7042042 0
6.4980006 -0.39798793 0.70098984 0
6.4900002 -0.40851134 0.70060021 0
6.4860005 -0.41925123 0.70040536 0
6.4850006 -0.4301661 0.70035672 0
6.4850006 -0.44114223 0.70035672 0
6.4890003 -0.45238537 0.70055151 0
6.4960003 -0.46384856 0.70089245 0
6.5080004 -0.47568876 0.70147681 0
6.3470006 -0.52872616 0.6936357 0
6.3550005 -0.5401172 0.69402528 0
6.3680005 -0.551961 0.69465852 0
6.3810005 -0.56385171 0.69529164 0
6.3950005 -0.57587767 0.6959734 0
6.5830002 -0.30251774 0.69397664 0
6.5750003 -0.31332439 0.69360143 0
6.5690002 -0.32419232 0.69332004 0
6.5660005 -0.33517933 0.69317937 0
6.5650005 -0.34625292 0.6931324 0
6.5660005 -0.3574239 0.69317937 0
6.4980006 -0.39798793 0.68999022 0
6.4900002 -0.40851134 0.68961501 0
6.4860005 -0.41925123 0.68942738 0
6.4850006 -0.4301661 0.68938053 0
6.4850006 -0.44114223 0.68938053 0
6.4890003 -0.45238537 0.6895681 0
6.4960003 -0.46384856 0.6898964 0
6.5080004 -0.47568876 0.69045919 0
6.3470006 -0.52872616 0.68290842 0
6.3550005 -0.5401172 0.68328369 0
6.3680005 -0.551961 0.68389332 0
6.3810005 -0.56385171 0.68450302 0
6.3950005 -0.57587767 0.68515956 0
6.6000004 -0.29203945 0.68359029 0
6.5840006 -0.30255926 0.68286878 0
6.5760002 -0.31336766 0.68250799 0
6.5720005 -0.32432762 0.68232763 0
6.5700002 -0.3353669 0.68223739 0
6.5700002 -0.3464964 0.68223739 0
6.5720005 -0.35772693 0.68232763 0
6.4980006 -0.39798793 0.6789906 0
6.4900002 -0.40851134 0.67862982 0
6.4860005 -0.41925123 0.67844945 0
6.4850006 -0.4301661 0.67840433 0
6.4850006 -0.44114223 0.67840433 0
6.4890003 -0.45238537 0.67858469 0
6.4960003 -0.46384856 0.67890036 0
6.5080004 -0.47568876 0.67944157 0
6.3470006 -0.52872616 0.67218125 0
6.3550005 -0.5401172 0.67254198 0
6.3680005 -0.551961 0.67312825 0
6.3810005 -0.56385171 0.6737144 0
6.3950005 -0.57587767 0.67434579 0
6.6030002 -0.28096947 0.67253655 0
6.6010003 -0.29207912 0.67244995 0
6.5890002 -0.30276668 0.67193049 0
6.5800004 -0.31354085 0.67154086 0
6.5750003 -0.32446289 0.67132437 0
6.5740004 -0.33555451 0.6712811 0
6.5750003 -0.34673992 0.67132437 0
6.4980006 -0.39798793 0.66799098 0
6.4900002 -0.40851134 0.66764462 0
6.4860005 -0.41925123 0.66747147 0
6.4850006 -0.4301661 0.66742814 0
6.4850006 -0.44114223 0.66742814 0
6.4890003 -0.45238537 0.66760135 0
6.4960003 -0.46384856 0.66790438 0
6.5080004 -0.47568876 0.66842389 0
6.3470006 -0.52872616 0.66145396 0
6.3550005 -0.5401172 0.66180027 0
6.3680005 -0.551961 0.66236305 0
6.3810005 -0.56385171 0.66292584 0
6.3950005 -0.57587767 0.6635319 0
6.6130004 -0.27014121 0.66176236 0
6.6040006 -0.28100735 0.66138899 0
6.5970006 -0.29192039 0.6610986 0
6.5990005 -0.30318159 0.66118157 0
6.5880003 -0.31388718 0.66072524 0
6.5820003 -0.32477856 0.66047633 0
6.4980006 -0.39798793 0.65699136 0
6.4900002 -0.40851134 0.65665942 0
6.4860005 -0.41925123 0.65649348 0
6.4850006 -0.4301661 0.656452 0
6.4850006 -0.44114223 0.656452 0
6.4890003 -0.45238537 0.656618 0
6.4960003 -0.46384856 0.65690839 0
6.5080004 -0.47568876 0.65740621 0
6.3470006 -0.52872616 0.65072668 0
6.3550005 -0.5401172 0.65105861 0
6.3680005 -0.551961 0.65159798 0
6.3810005 -0.56385171 0.65213728 0
6.3950005 -0.57587767 0.65271813 0
6.6230006 -0.25927687 0.65095222 0
6.6150002 -0.27021337 0.65063471 0
6.6080003 -0.28115886 0.65035689 0
6.6020002 -0.29211879 0.65011883 0
6.5980005 -0.3031401 0.6499601 0
6.6020002 -0.31449324 0.65011883 0
6.4980006 -0.39798793 0.64599168 0
6.4900002 -0.40851134 0.64567423 0
6.4860005 -0.41925123 0.6455155 0
6.4850006 -0.4301661 0.64547586 0
6.4850006 -0.44114223 0.64547586 0
6.4890003 -0.45238537 0.64563453 0
6.4960003 -0.46384856 0.64591235 0
6.5080004 -0.47568876 0.64638853 0
6.3470006 -0.52872616 0.63999951 0
6.3550005 -0.5401172 0.64031696 0
6.3680005 -0.551961 0.64083278 0
6.3810005 -0.56385171 0.64134872 0
6.3950005 -0.57587767 0.64190429 0
6.6330004 -0.24837647 0.6401059 0
6.6250005 -0.25934541 0.63980281 0
6.6190004 -0.27035767 0.6395756 0
6.6130004 -0.28134826 0.63934827 0
6.6090002 -0.29239661 0.63919675 0
6.6070004 -0.30351347 0.639121 0
6.4980006 -0.39798793 0.63499212 0
6.4900002 -0.40851134 0.63468903 0
6.4860005 -0.41925123 0.63453752 0
6.4850006 -0.4301661 0.63449967 0
6.4850006 -0.44114223 0.63449967 0
6.4890003 -0.45238537 0.63465118 0
6.4960003 -0.46384856 0.63491631 0
6.5080004 -0.47568876 0.63537085 0
6.3470006 -0.52872616 0.62927222 0
6.3550005 -0.5401172 0.62957525 0
6.3680005 -0.551961 0.63006771 0
6.3810005 -0.56385171 0.63056016 0
6.3950005 -0.57587767 0.63109046 0
6.6430006 -0.23743999 0.62922353 0
6.6360002 -0.24847387 0.62897098 0
6.6300006 -0.25951678 0.6287545 0
6.6250005 -0.27057412 0.62857413 0
6.6210003 -0.28165132 0.62842983 0
6.4980006 -0.39798793 0.62399244 0
6.4900002 -0.40851134 0.62370384 0
6.4860005 -0.41925123 0.62355959 0
6.4850006 -0.4301661 0.62352347 0
6.4850006 -0.44114223 0.62352347 0
6.4890003 -0.45238537 0.62366778 0
6.4960003 -0.46384856 0.62392032 0
6.5080004 -0.47568876 0.62435323 0
6.3470006 -0.52872616 0.61854494 0
6.3550005 -0.5401172 0.61883354 0
6.3680005 -0.551961 0.61930257 0
6.3810005 -0.56385171 0.6197716 0
6.3950005 -0.57587767 0.62027663 0
6.6710005 -0.20436355 0.618922 0
6.6620002 -0.21543171 0.61861348 0
6.6530004 -0.22646742 0.61830509 0
6.6460004 -0.23753197 0.61806512 0
6.6410003 -0.24863622 0.61789382 0
6.6360002 -0.25972241 0.61772239 0
6.6320004 -0.27082667 0.6175853 0
6.4980006 -0.39798793 0.61299288 0
6.4900002 -0.40851134 0.6127187 0
6.4860005 -0.41925123 0.61258161 0
6.4850006 -0.4301661 0.61254734 0
6.4850006 -0.44114223 0.61254734 0
6.4890003 -0.45238537 0.61268437 0
6.4960003 -0.46384856 0.61292428 0
6.5080004 -0.47568876 0.61333555 0
6.3470006 -0.52872616 0.60781771 0
6.3550005 -0.5401172 0.60809189 0
6.3680005 -0.551961 0.60853744 0
6.3810005 -0.56385171 0.60898298 0
6.3950005 -0.57587767 0.6094628 0
6.6920004 -0.18219474 0.6082921 0
6.6810002 -0.19328634 0.60793495 0
6.6720004 -0.2043888 0.60764277 0
6.6640005 -0.21548583 0.60738301 0
6.6570005 -0.22658285 0.60715574 0
6.6520004 -0.23771596 0.60699338 0
6.6470003 -0.24883103 0.60683107 0
6.4980006 -0.39798793 0.6019932 0
6.4900002 -0.40851134 0.60173345 0
6.4860005 -0.41925123 0.60160363 0
6.4850006 -0.4301661 0.60157114 0
6.4850006 -0.44114223 0.60157114 0
6.4890003 -0.45238537 0.60170102 0
6.4960003 -0.46384856 0.60192829 0
6.5080004 -0.47568876 0.60231793 0
6.3470006 -0.52872616 0.59709048 0
6.3550005 -0.5401172 0.59735024 0
6.3680005 -0.551961 0.5977723 0
6.3810005 -0.56385171 0.59819442 0
6.3950005 -0.57587767 0.59864897 0
6.6920004 -0.17084518 0.59694254 0
6.6900005 -0.18215145 0.59688127 0
6.6820002 -0.1933098 0.59663588 0
6.6750002 -0.20446454 0.59642124 0
6.6680002 -0.21559405 0.59620661 0
6.6630006 -0.22675602 0.5960533 0
6.6590004 -0.23793061 0.59593064 0
6.4980006 -0.39798793 0.59099358 0
6.4900002 -0.40851134 0.59074825 0
6.4860005 -0.41925123 0.59062564 0
6.4850006 -0.4301661 0.59059495 0
6.4850006 -0.44114223 0.59059495 0
6.4890003 -0.45238537 0.59071761 0
6.4960003 -0.46384856 0.59093225 0
6.5080004 -0.47568876 0.59130025 0
6.3470006 -0.52872616 0.5863632 0
6.3550005 -0.5401172 0.58660853 0
6.3680005 -0.551961 0.58700716 0
6.3810005 -0.56385171 0.5874058 0
6.3950005 -0.57587767 0.58783513 0
6.6900005 -0.17080548 0.58553529 0
6.6870003 -0.18208651 0.58544868 0
6.6850004 -0.19338015 0.58539099 0
6.6790004 -0.20456557 0.58521783 0
6.6740003 -0.21575639 0.58507347 0
6.6710005 -0.22698691 0.58498693 0
6.6680002 -0.23820658 0.58490032 0
6.4980006 -0.39798793 0.57999396 0
6.4900002 -0.40851134 0.57976305 0
6.4860005 -0.41925123 0.57964766 0
6.4850006 -0.4301661 0.57961881 0
6.4850006 -0.44114223 0.57961881 0
6.4890003 -0.45238537 0.57973421 0
6.4960003 -0.46384856 0.57993627 0
6.5080004 -0.47568876 0.58028257 0
6.3470006 -0.52872616 0.57563597 0
6.3550005 -0.5401172 0.57586688 0
6.3680005 -0.551961 0.57624209 0
6.3810005 -0.56385171 0.57661724 0
6.3950005 -0.57587767 0.5770213 0
6.6940002 -0.15953168 0.57429755 0
6.6890006 -0.17078567 0.57416224 0
6.6870003 -0.18208651 0.57410812 0
6.6870003 -0.19342706 0.57410812 0
6.6860003 -0.20474234 0.57408106 0
6.6830006 -0.21599992 0.57399994 0
6.6810002 -0.22727551 0.57394582 0
6.4980006 -0.39798793 0.56899434 0
6.4900002 -0.40851134 0.56877792 0
6.4860005 -0.41925123 0.56866968 0
6.4850006 -0.4301661 0.56864262 0
6.4850006 -0.44114223 0.56864262 0
6.4890003 -0.45238537 0.56875086 0
6.4960003 -0.46384856 0.56894022 0
6.5080004 -0.47568876 0.56926489 0
6.3470006 -0.52872616 0.56490874 0
6.3550005 -0.5401172 0.56512517 0
6.3680005 -0.551961 0.56547689 0
6.3810005 -0.56385171 0.56582868 0
6.3950005 -0.57587767 0.56620747 0
6.6960006 -0.15956777 0.5629949 0
6.6910005 -0.17082533 0.5628686 0
6.6890006 -0.1821298 0.56281811 0
6.6890006 -0.19347395 0.56281811 0
6.6900005 -0.20484336 0.56284338 0
6.6930003 -0.21627048 0.56291914 0
6.6940002 -0.2276507 0.56294441 0
6.4980006 -0.39798793 0.55799472 0
6.4900002 -0.40851134 0.55779266 0
6.4860005 -0.41925123 0.55769169 0
6.4850006 -0.4301661 0.55766642 0
6.4850006 -0.44114223 0.55766642 0
6.4890003 -0.45238537 0.55776745 0
6.4960003 -0.46384856 0.55794424 0
6.5080004 -0.47568876 0.55824727 0
6.3470006 -0.52872616 0.55418146 0
6.3550005 -0.5401172 0.55438352 0
6.3680005 -0.551961 0.55471182 0
6.3810005 -0.56385171 0.55504012 0
6.3950005 -0.57587767 0.55539364 0
6.7010002 -0.15965796 0.55175537 0
6.6950002 -0.1709047 0.55161464 0
6.6930003 -0.18221639 0.55156779 0
6.6930003 -0.19356775 0.55156779 0
6.6940002 -0.20494437 0.55159122 0
6.6990004 -0.21643282 0.55170846 0
6.4980006 -0.39798793 0.5469951 0
6.4900002 -0.40851134 0.54680753 0
6.4860005 -0.41925123 0.54671371 0
6.4850006 -0.4301661 0.54669029 0
6.4850006 -0.44114223 0.54669029 0
6.4890003 -0.45238537 0.54678404 0
6.4960003 -0.46384856 0.54694819 0
6.5080004 -0.47568876 0.54722959 0
6.3470006 -0.52872616 0.54345423 0
6.3550005 -0.5401172 0.54364181 0
6.3680005 -0.551961 0.54394668 0
6.3810005 -0.56385171 0.5442515 0
6.3950005 -0.57587767 0.5445798 0
6.7080002 -0.15978423 0.54054105 0
6.7020006 -0.1710436 0.54041123 0
6.7000003 -0.18236791 0.5403679 0
6.6990004 -0.19370845 0.54034626 0
6.7010002 -0.20512114 0.54038954 0
6.7060003 -0.21662222 0.54049778 0
6.4980006 -0.39798793 0.53599548 0
6.4900002 -0.40851134 0.53582233 0
6.4860005 -0.41925123 0.53573573 0
6.4850006 -0.4301661 0.53571409 0
6.4850006 -0.44114223 0.53571409 0
6.4890003 -0.45238537 0.5358007 0
6.4960003 -0.46384856 0.53595221 0
6.5080004 -0.47568876 0.53621197 0
6.3470006 -0.52872616 0.532727 0
6.3550005 -0.5401172 0.53290015 0
6.3680005 -0.551961 0.53318155 0
6.3810005 -0.56385171 0.53346294 0
6.3950005 -0.57587767 0.53376597 0
6.7140002 -0.1712817 0.52928174 0
6.7100005 -0.18258436 0.52920234 0
6.7100005 -0.1939664 0.52920234 0
6.7070003 -0.20527266 0.5291428 0
6.6970005 -0.21637872 0.52894437 0
6.4980006 -0.39798793 0.52499586 0
6.4900002 -0.40851134 0.52483714 0
6.4860005 -0.41925123 0.52475774 0
6.4850006 -0.4301661 0.52473795 0
6.4850006 -0.44114223 0.52473795 0
6.4890003 -0.45238537 0.52481729 0
6.4960003 -0.46384856 0.52495617 0
6.5080004 -0.47568876 0.52519429 0
6.3470006 -0.52872616 0.52199972 0
6.3550005 -0.5401172 0.5221585 0
6.3680005 -0.551961 0.52241641 0
6.3810005 -0.56385171 0.52267438 0
6.3950005 -0.57587767 0.52295214 0
6.7080002 -0.18254106 0.51778424 0
6.6980004 -0.19368501 0.51760387 0
6.6880002 -0.20479284 0.51742345 0
6.6770005 -0.21583757 0.51722503 0
6.4980006 -0.39798793 0.51399624 0
6.4900002 -0.40851134 0.51385194 0
6.4860005 -0.41925123 0.51377976 0
6.4850006 -0.4301661 0.51376176 0
6.4850006 -0.44114223 0.51376176 0
6.4890003 -0.45238537 0.51383388 0
6.4960003 -0.46384856 0.51396018 0
6.5080004 -0.47568876 0.51417661 0
6.3470006 -0.52872616 0.51127249 0
6.3550005 -0.5401172 0.51141679 0
6.3680005 -0.551961 0.51165128 0
6.3810005 -0.56385171 0.51188576 0
6.3950005 -0.57587767 0.51213831 0
6.7080002 -0.17116265 0.50640583 0
6.6980004 -0.18232462 0.50624347 0
6.6880002 -0.1934505 0.5060811 0
6.6780005 -0.20454033 0.5059188 0
6.6680002 -0.21559405 0.50575644 0
6.4980006 -0.39798793 0.50299662 0
6.4900002 -0.40851134 0.50286674 0
6.4860005 -0.41925123 0.50280178 0
6.4850006 -0.4301661 0.50278556 0
6.4850006 -0.44114223 0.50278556 0
6.4890003 -0.45238537 0.50285053 0
6.4960003 -0.46384856 0.50296414 0
6.5080004 -0.47568876 0.50315899 0
6.3470006 -0.52872616 0.50054526 0
6.3550005 -0.5401172 0.50067514 0
6.3680005 -0.551961 0.50088614 0
6.3810005 -0.56385171 0.5010972 0
6.3950005 -0.57587767 0.50132447 0
6.7020006 -0.1710436 0.49494082 0
6.6920004 -0.18219474 0.49479651 0
6.6820002 -0.1933098 0.49465221 0
6.6720004 -0.2043888 0.49450791 0
6.6630006 -0.21545878 0.49437803 0
6.5940003 -0.29180133 0.49338233 0
6.5840006 -0.30255926 0.49323803 0
6.5750003 -0.31332439 0.49310815 0
6.5650005 -0.32401195 0.49296385 0
6.4980006 -0.39798793 0.491997 0
6.4900002 -0.40851134 0.49188155 0
6.4860005 -0.41925123 0.49182382 0
6.4850006 -0.4301661 0.4918094 0
6.4850006 -0.44114223 0.4918094 0
6.4890003 -0.45238537 0.49186713 0
6.4960003 -0.46384856 0.49196813 0
6.5080004 -0.47568876 0.49214131 0
6.3560004 -0.51871324 0.48994786 0
6.3470006 -0.52872616 0.48981801 0
6.3550005 -0.5401172 0.48993343 0
6.3680005 -0.551961 0.49012104 0
6.3810005 -0.56385171 0.49030864 0
6.3950005 -0.57587767 0.49051064 0
6.7010002 -0.17102376 0.48356059 0
6.6910005 -0.1821731 0.48343432 0
6.6810002 -0.19328634 0.48330805 0
6.6710005 -0.20436355 0.48318177 0
6.6610003 -0.21540464 0.4830555 0
6.6220002 -0.25924259 0.48256308 0
6.6130004 -0.27014121 0.48244944 0
6.6030002 -0.28096947 0.48232317 0
6.5930004 -0.29176164 0.4821969 0
6.5840006 -0.30255926 0.48208326 0
6.5740004 -0.31328109 0.48195699 0
6.5640006 -0.32396686 0.48183072 0
6.5550003 -0.33466342 0.48171711 0
6.5630002 -0.35727236 0.48181811 0
6.4980006 -0.39798793 0.48099738 0
6.4900002 -0.40851134 0.48089635 0
6.4860005 -0.41925123 0.48084587 0
6.4850006 -0.4301661 0.48083323 0
6.4850006 -0.44114223 0.48083323 0
6.4890003 -0.45238537 0.48088372 0
6.4960003 -0.46384856 0.48097211 0
6.5080004 -0.47568876 0.48112363 0
6.3560004 -0.51871324 0.47920439 0
6.3470006 -0.52872616 0.47909075 0
6.3550005 -0.5401172 0.47919175 0
6.3680005 -0.551961 0.4793559 0
6.3810005 -0.56385171 0.47952005 0
6.3950005 -0.57587767 0.47969684 0
6.7030005 -0.17106345 0.47221643 0
6.6930003 -0.18221639 0.47210822 0
6.6830006 -0.19333327 0.47199997 0
6.6740003 -0.2044393 0.47190258 0
6.6640005 -0.21548583 0.47179434 0
6.6340003 -0.24840893 0.47146964 0
6.6250005 -0.25934541 0.47137225 0
6.6150002 -0.27021337 0.471264 0
6.6050005 -0.28104523 0.47115579 0
6.5960002 -0.2918807 0.4710584 0
6.5860004 -0.30264226 0.47095016 0
6.5760002 -0.31336766 0.47084194 0
6.5670004 -0.32410213 0.47074452 0
6.5570002 -0.33475721 0.47063631 0
6.5500002 -0.34552234 0.47056055 0
6.5630002 -0.35727236 0.47070122 0
6.4980006 -0.39798793 0.46999776 0
6.4900002 -0.40851134 0.46991116 0
6.4860005 -0.41925123 0.46986789 0
6.4850006 -0.4301661 0.46985704 0
6.4850006 -0.44114223 0.46985704 0
6.4890003 -0.45238537 0.46990034 0
6.4960003 -0.46384856 0.4699761 0
6.5080004 -0.47568876 0.47010598 0
6.3560004 -0.51871324 0.46846092 0
6.3470006 -0.52872616 0.46836349 0
6.3550005 -0.5401172 0.46845007 0
6.3680005 -0.551961 0.4685908 0
6.3810005 -0.56385171 0.46873146 0
6.3950005 -0.57587767 0.46888298 0
6.7050004 -0.17110312 0.46086508 0
6.6990004 -0.18234627 0.46081096 0
6.6890006 -0.19347395 0.46072078 0
6.6800003 -0.20459083 0.4606396 0
6.6700006 -0.21564816 0.46054941 0
6.6210003 -0.27042982 0.46010748 0
6.6110005 -0.28127253 0.46001726 0
6.6020002 -0.29211879 0.45993611 0
6.5920005 -0.30289117 0.45984593 0
6.5820003 -0.31362742 0.45975572 0
6.5730004 -0.32437271 0.45967457 0
6.5630002 -0.33503863 0.45958436 0
6.5540004 -0.34571716 0.4595032 0
6.4980006 -0.39798793 0.45899814 0
6.4900002 -0.40851134 0.45892596 0
6.4860005 -0.41925123 0.4588899 0
6.4850006 -0.4301661 0.45888087 0
6.4850006 -0.44114223 0.45888087 0
6.4890003 -0.45238537 0.45891696 0
6.4960003 -0.46384856 0.45898008 0
6.3560004 -0.51871324 0.45771742 0
6.3470006 -0.52872616 0.45763624 0
6.3550005 -0.5401172 0.45770842 0
6.3680005 -0.551961 0.45782566 0
6.3810005 -0.56385171 0.4579429 0
6.3950005 -0.57587767 0.45806918 0
6.7050004 -0.17110312 0.44949207 0
6.7020006 -0.18241121 0.4494704 0
6.7000003 -0.19373189 0.44945598 0
6.6900005 -0.20484336 0.44938383 0
6.6800003 -0.21591873 0.44931167 0
6.5930004 -0.31410363 0.44868395 0
6.5840006 -0.32486877 0.44861901 0
6.5740004 -0.33555451 0.44854686 0
6.4980006 -0.39798793 0.44799849 0
6.4900002 -0.40851134 0.44794077 0
6.4860005 -0.41925123 0.44791192 0
6.4850006 -0.4301661 0.44790471 0
6.4850006 -0.44114223 0.44790471 0
6.3650002 -0.50866777 0.44703889 0
6.3560004 -0.51871324 0.44697395 0
6.3470006 -0.52872616 0.44690901 0
6.3550005 -0.5401172 0.44696674 0
6.3680005 -0.551961 0.44706053 0
6.3810005 -0.56385171 0.44715431 0
6.3950005 -0.57587767 0.44725534 0
6.7050004 -0.17110312 0.43811905 0
6.7020006 -0.18241121 0.43810281 0
6.7010002 -0.19375534 0.43809739 0
6.7040005 -0.2051969 0.43811363 0
6.4900002 -0.40851134 0.4369556 0
6.4860005 -0.41925123 0.43693393 0
6.4850006 -0.4301661 0.43692854 0
6.3650002 -0.50866777 0.43627918 0
6.3560004 -0.51871324 0.43623045 0
6.3470006 -0.52872616 0.43618175 0
6.3550005 -0.5401172 0.43622506 0
6.3680005 -0.551961 0.43629539 0
6.3810005 -0.56385171 0.43636575 0
6.3950005 -0.57587767 0.43644151 0
6.7050004 -0.17110312 0.42674604 0
6.7020006 -0.18241121 0.42673522 0
6.7010002 -0.19375534 0.42673162 0
6.7040005 -0.2051969 0.42674243 0
6.3740005 -0.49858993 0.42555192 0
6.3650002 -0.50866777 0.42551944 0
6.3560004 -0.51871324 0.42548698 0
6.3470006 -0.52872616 0.4254545 0
6.3550005 -0.5401172 0.42548338 0
6.3680005 -0.551961 0.42553025 0
6.3810005 -0.56385171 0.42557716 0
6.3950005 -0.57587767 0.42562768 0
6.7050004 -0.17110312 0.41537303 0
6.7020006 -0.18241121 0.4153676 0
6.7010002 -0.19375534 0.41536582 0
6.7040005 -0.2051969 0.41537121 0
6.3740005 -0.49858993 0.41477597 0
6.3650002 -0.50866777 0.41475973 0
6.3560004 -0.51871324 0.41474348 0
6.3470006 -0.52872616 0.41472727 0
6.3550005 -0.5401172 0.41474169 0
6.3680005 -0.551961 0.41476515 0
6.3810005 -0.56385171 0.4147886 0
6.3950005 -0.57587767 0.41481385 0
6.7050004 -0.17110312 0.40400001 0
6.7020006 -0.18241121 0.40400001 0
6.7010002 -0.19375534 0.40400001 0
6.7040005 -0.2051969 0.40400001 0
6.3740005 -0.49858993 0.40400001 0
6.3650002 -0.50866777 0.40400001 0
6.3560004 -0.51871324 0.40400001 0
6.3470006 -0.52872616 0.40400001 0
6.3550005 -0.5401172 0.40400001 0
6.3680005 -0.551961 0.40400001 0
6.3810005 -0.56385171 0.40400001 0
6.7050004 -0.17110312 0.392627 0
6.7020006 -0.18241121 0.39263242 0
6.7010002 -0.19375534 0.39263421 0
6.7040005 -0.2051969 0.39262882 0
6.7090006 -0.2167034 0.39261979 0
6.3740005 -0.49858993 0.39322406 0
6.3650002 -0.50866777 0.3932403 0
6.3560004 -0.51871324 0.39325655 0
6.3470006 -0.52872616 0.39327276 0
6.3550005 -0.5401172 0.39325833 0
6.3680005 -0.551961 0.39323488 0
6.3810005 -0.56385171 0.39321142 0
6.7120004 -0.15985638 0.38122874 0
6.7050004 -0.17110312 0.38125399 0
6.7020006 -0.18241121 0.38126481 0
6.7010002 -0.19375534 0.38126841 0
6.7040005 -0.2051969 0.38125759 0
6.7090006 -0.2167034 0.38123956 0
6.3650002 -0.50866777 0.38248059 0
6.3560004 -0.51871324 0.38251305 0
6.3550005 -0.5401172 0.38251665 0
6.3680005 -0.551961 0.38246977 0
6.3810005 -0.56385171 0.38242286 0
6.7120004 -0.15985638 0.3698431 0
6.7050004 -0.17110312 0.36988097 0
6.7020006 -0.18241121 0.36989722 0
6.7010002 -0.19375534 0.36990264 0
6.7040005 -0.2051969 0.3698864 0
6.7090006 -0.2167034 0.36985934 0
6.3650002 -0.50866777 0.37172085 0
6.3560004 -0.51871324 0.37176958 0
6.3550005 -0.5401172 0.37177497 0
6.3680005 -0.551961 0.37170464 0
6.7120004 -0.15985638 0.35845748 0
6.7050004 -0.17110312 0.35850796 0
6.7020006 -0.18241121 0.35852963 0
6.7010002 -0.19375534 0.35853684 0
6.7040005 -0.2051969 0.35851517 0
6.7090006 -0.2167034 0.35847911 0
6.7120004 -0.15985638 0.34707183 0
6.7050004 -0.17110312 0.34713495 0
6.7020006 -0.18241121 0.34716201 0
6.7010002 -0.19375534 0.34717104 0
6.7040005 -0.2051969 0.34714398 0
6.7090006 -0.2167034 0.34709889 0
6.3860002 -0.5210942 0.35001203 0
6.3860002 -0.53189176 0.35001203 0
6.3900003 -0.54302132 0.34997594 0
6.7120004 -0.15985638 0.33568621 0
6.7050004 -0.17110312 0.33576196 0
6.7020006 -0.18241121 0.33579442 0
6.7010002 -0.19375534 0.33580524 0
6.7040005 -0.2051969 0.33577278 0
6.7090006 -0.2167034 0.33571866 0
6.3860002 -0.5210942 0.33921444 0
6.3860002 -0.53189176 0.33921444 0
6.3900003 -0.54302132 0.33917114 0
6.7120004 -0.15985638 0.32430056 0
6.7050004 -0.17110312 0.32438892 0
6.7020006 -0.18241121 0.32442683 0
6.7010002 -0.19375534 0.32443944 0
6.7040005 -0.2051969 0.32440156 0
6.7090006 -0.2167034 0.32433844 0
6.3860002 -0.5210942 0.32841685 0
6.3860002 -0.53189176 0.32841685 0
6.3900003 -0.54302132 0.32836634 0
6.7120004 -0.15985638 0.31291491 0
6.7050004 -0.17110312 0.31301594 0
6.7020006 -0.18241121 0.31305921 0
6.7010002 -0.19375534 0.31307364 0
6.7040005 -0.2051969 0.31303036 0
6.7090006 -0.2167034 0.31295821 0
6.3860002 -0.5210942 0.31761926 0
6.3860002 -0.53189176 0.31761926 0
6.7120004 -0.15985638 0.30152929 0
6.7050004 -0.17110312 0.30164292 0
6.7020006 -0.18241121 0.30169162 0
6.7010002 -0.19375534 0.30170786 0
6.7040005 -0.2051969 0.30165914 0
6.7090006 -0.2167034 0.30157799 0
6.3860002 -0.5210942 0.30682164 0
6.3860002 -0.53189176 0.30682164 0
6.7120004 -0.15985638 0.29014364 0
6.7050004 -0.17110312 0.29026991 0
6.7020006 -0.18241121 0.29032403 0
6.7010002 -0.19375534 0.29034206 0
6.7040005 -0.2051969 0.29028794 0
6.7090006 -0.2167034 0.29019776 0
6.3860002 -0.5210942 0.29602405 0
6.3860002 -0.53189176 0.29602405 0
6.7120004 -0.15985638 0.27875799 0
6.7050004 -0.17110312 0.2788969 0
6.7020006 -0.18241121 0.27895641 0
6.7010002 -0.19375534 0.27897626 0
6.7040005 -0.2051969 0.27891672 0
6.7090006 -0.2167034 0.27881753 0
6.3860002 -0.5210942 0.28522646 0
6.3860002 -0.53189176 0.28522646 0
6.7120004 -0.15985638 0.26737237 0
6.7050004 -0.17110312 0.26752388 0
6.7020006 -0.18241121 0.26758879 0
6.7010002 -0.19375534 0.26761049 0
6.7040005 -0.2051969 0.26754552 0
6.7090006 -0.2167034 0.26743728 0
6.3860002 -0.5210942 0.27442884 0
6.3860002 -0.53189176 0.27442884 0
6.7120004 -0.15985638 0.25598675 0
6.7050004 -0.17110312 0.25615087 0
6.7020006 -0.18241121 0.2562212 0
6.7010002 -0.19375534 0.25624466 0
6.7040005 -0.2051969 0.25617433 0
6.7090006 -0.2167034 0.25605708 0
6.3860002 -0.5210942 0.26363128 0
6.3860002 -0.53189176 0.26363128 0
6.7120004 -0.15985638 0.24460109 0
6.7050004 -0.17110312 0.24477786 0
6.7020006 -0.18241121 0.24485362 0
6.7010002 -0.19375534 0.24487887 0
6.7040005 -0.2051969 0.24480312 0
6.7090006 -0.2167034 0.24467684 0
6.3860002 -0.5210942 0.25283366 0
6.3860002 -0.53189176 0.25283366 0
6.7120004 -0.15985638 0.23321545 0
6.7050004 -0.17110312 0.23340484 0
6.7020006 -0.18241121 0.23348601 0
6.7010002 -0.19375534 0.23351309 0
6.7040005 -0.2051969 0.23343191 0
6.7090006 -0.2167034 0.23329662 0
6.3860002 -0.5210942 0.24203607 0
6.3860002 -0.53189176 0.24203607 0
6.7120004 -0.15985638 0.22182982 0
6.7050004 -0.17110312 0.22203185 0
6.7020006 -0.18241121 0.22211842 0
6.7010002 -0.19375534 0.22214729 0
6.7040005 -0.2051969 0.2220607 0
6.7090006 -0.2167034 0.22191639 0
6.3860002 -0.5210942 0.23123848 0
6.3860002 -0.53189176 0.23123848 0
6.7120004 -0.15985638 0.21044418 0
6.7050004 -0.17110312 0.21065883 0
6.7020006 -0.18241121 0.21075082 0
6.7010002 -0.19375534 0.21078148 0
6.7040005 -0.2051969 0.21068949 0
6.7090006 -0.2167034 0.21053617 0
6.3860002 -0.5210942 0.22044089 0
6.3860002 -0.53189176 0.22044089 0
6.7120004 -0.15985638 0.19905853 0
6.7050004 -0.17110312 0.19928582 0
6.7020006 -0.18241121 0.19938321 0
6.7010002 -0.19375534 0.1994157 0
6.7040005 -0.2051969 0.19931827 0
6.7090006 -0.2167034 0.19915593 0
6.3860002 -0.5210942 0.20964329 0
6.3860002 -0.53189176 0.20964329 0
6.7120004 -0.15985638 0.1876729 0
6.7050004 -0.17110312 0.18791281 0
6.7020006 -0.18241121 0.18801562 0
6.7010002 -0.19375534 0.1880499 0
6.7040005 -0.2051969 0.18794708 0
6.7090006 -0.2167034 0.18777572 0
6.3860002 -0.5210942 0.1988457 0
6.3860002 -0.53189176 0.1988457 0
6.7120004 -0.15985638 0.17628726 0
6.7050004 -0.17110312 0.17653979 0
6.7020006 -0.18241121 0.17664802 0
6.7010002 -0.19375534 0.1766841 0
6.7040005 -0.2051969 0.17657587 0
6.7090006 -0.2167034 0.17639549 0
6.3860002 -0.5210942 0.18804809 0
6.3860002 -0.53189176 0.18804809 0
6.7120004 -0.15985638 0.16490163 0
6.7050004 -0.17110312 0.1651668 0
6.7020006 -0.18241121 0.16528042 0
6.7010002 -0.19375534 0.16531833 0
6.7040005 -0.2051969 0.16520467 0
6.7090006 -0.2167034 0.16501525 0
6.3860002 -0.5210942 0.1772505 0
6.3860002 -0.53189176 0.1772505 0
6.7120004 -0.15985638 0.15351596 0
6.7050004 -0.17110312 0.15379378 0
6.7020006 -0.18241121 0.15391281 0
6.7010002 -0.19375534 0.15395251 0
6.7040005 -0.2051969 0.15383345 0
6.7090006 -0.2167034 0.15363505 0
6.3860002 -0.5210942 0.16645291 0
6.3860002 -0.53189176 0.16645291 0
6.7120004 -0.15985638 0.14213035 0
6.7050004 -0.17110312 0.14242074 0
6.7020006 -0.18241121 0.14254522 0
6.7010002 -0.19375534 0.14258671 0
6.7040005 -0.2051969 0.14246225 0
6.7090006 -0.2167034 0.1422548 0
6.3860002 -0.5210942 0.15565529 0
6.3860002 -0.53189176 0.15565529 0
6.7120004 -0.15985638 0.13074473 0
6.7050004 -0.17110312 0.13104776 0
6.7020006 -0.18241121 0.1311776 0
6.7010002 -0.19375534 0.13122094 0
6.7040005 -0.2051969 0.13109106 0
6.7090006 -0.2167034 0.13087457 0
6.3860002 -0.5210942 0.1448577 0
6.3860002 -0.53189176 0.1448577 0
6.7120004 -0.15985638 0.11935908 0
6.7050004 -0.17110312 0.11967474 0
6.7020006 -0.18241121 0.11981001 0
6.7010002 -0.19375534 0.11985511 0
6.7040005 -0.2051969 0.11971983 0
6.7090006 -0.2167034 0.11949435 0
6.3860002 -0.5210942 0.13406014 0
6.3860002 -0.53189176 0.13406014 0
6.7120004 -0.15985638 0.10797346 0
6.7050004 -0.17110312 0.10830173 0
6.7020006 -0.18241121 0.1084424 0
6.7010002 -0.19375534 0.10848933 0
6.7040005 -0.2051969 0.10834864 0
6.7090006 -0.2167034 0.10811412 0
6.3860002 -0.5210942 0.12326252 0
6.3860002 -0.53189176 0.12326252 0
6.7120004 -0.15985638 0.096587807 0
6.7050004 -0.17110312 0.096928716 0
6.7020006 -0.18241121 0.097074836 0
6.7010002 -0.19375534 0.097123533 0
6.7040005 -0.2051969 0.096977413 0
6.7090006 -0.2167034 0.096733898 0
6.3860002 -0.5210942 0.1124649 0
6.3860002 -0.53189176 0.1124649 0
6.7120004 -0.15985638 0.085202157 0
6.7050004 -0.17110312 0.085555702 0
6.7020006 -0.18241121 0.085707217 0
6.7010002 -0.19375534 0.085757732 0
6.7040005 -0.2051969 0.085606217 0
6.7090006 -0.2167034 0.085353673 0
6.3860002 -0.5210942 0.10166734 0
6.3860002 -0.53189176 0.10166734 0
6.7110004 -0.15983833 0.073868841 0
6.7010002 -0.17102376 0.074391961 0
6.6960006 -0.18228132 0.074653476 0
6.6960006 -0.1936381 0.074653476 0
6.6960006 -0.20499487 0.074653476 0
6.7060003 -0.21662222 0.074130386 0
6.3860002 -0.5210942 0.090869755 0
6.3860002 -0.53189176 0.090869755 0
6.7110004 -0.15983833 0.06248498 0
6.7010002 -0.17102376 0.06302616 0
6.6910005 -0.1821731 0.063567281 0
6.6810002 -0.19328634 0.064108431 0
6.6930003 -0.20491911 0.063459069 0
6.7060003 -0.21662222 0.062755585 0
6.7110004 -0.15983833 0.051101178 0
6.7010002 -0.17102376 0.051660359 0
6.6910005 -0.1821731 0.05221951 0
6.6930003 -0.20491911 0.052107692 0
6.7060003 -0.21662222 0.051380754 0
