# .PCD v0.7 - Point Cloud Data file format
VERSION 0.7
FIELDS x y z intensity
SIZE 4 4 4 4
TYPE F F F F
COUNT 1 1 1 1
WIDTH 1318
HEIGHT 1
VIEWPOINT 0 0 0 1 0 0 0
POINTS 1318
DATA ascii
5.4090004 2.8181825 0.85576379 0
5.4160004 2.8131371 0.85639513 0
5.4230003 2.8080666 0.85702646 0
5.4290004 2.8024044 0.85756761 0
5.4360003 2.7972851 0.85819894 0
5.3950005 2.8281972 0.84549111 0
5.4020004 2.8232024 0.84610987 0
5.4090004 2.8181825 0.8467285 0
5.4160004 2.8131371 0.84734726 0
5.4230003 2.8080666 0.84796596 0
5.4290004 2.8024044 0.84849626 0
5.4360003 2.7972851 0.84911495 0
5.4440002 2.7927034 0.84982204 0
5.4510002 2.7875321 0.85044074 0
5.4580002 2.782335 0.85105944 0
5.4650002 2.777113 0.85167813 0
5.4720001 2.7718658 0.85229683 0
5.4790006 2.7665935 0.85291559 0
5.4860005 2.7612958 0.85353428 0
5.4930005 2.7559726 0.85415304 0
5.5000005 2.7506244 0.85477173 0
5.3880005 2.8331666 0.83587503 0
5.3950005 2.8281972 0.83648109 0
5.4020004 2.8232024 0.83708715 0
5.4090004 2.8181825 0.83769321 0
5.4160004 2.8131371 0.83829927 0
5.4230003 2.8080666 0.83890539 0
5.4290004 2.8024044 0.83942491 0
5.4360003 2.7972851 0.84003097 0
5.4440002 2.7927034 0.84072363 0
5.4510002 2.7875321 0.84132969 0
5.4580002 2.782335 0.84193575 0
5.4650002 2.777113 0.84254181 0
5.4720001 2.7718658 0.84314793 0
5.4790006 2.7665935 0.84375405 0
5.4860005 2.7612958 0.84436011 0
5.4930005 2.7559726 0.84496617 0
5.5000005 2.7506244 0.84557229 0
5.5080004 2.7457974 0.84626496 0
5.3880005 2.8331666 0.82687759 0
5.3950005 2.8281972 0.82747102 0
5.4020004 2.8232024 0.8280645 0
5.4090004 2.8181825 0.82865798 0
5.4160004 2.8131371 0.82925141 0
5.4230003 2.8080666 0.82984483 0
5.4290004 2.8024044 0.8303535 0
5.4360003 2.7972851 0.83094704 0
5.4440002 2.7927034 0.83162522 0
5.4510002 2.7875321 0.83221865 0
5.4580002 2.782335 0.83281207 0
5.4650002 2.777113 0.83340561 0
5.4720001 2.7718658 0.83399904 0
5.4790006 2.7665935 0.83459252 0
5.4860005 2.7612958 0.835186 0
5.4930005 2.7559726 0.83577943 0
5.5000005 2.7506244 0.83637285 0
5.5080004 2.7457974 0.83705109 0
5.5150003 2.7403967 0.83764458 0
5.3880005 2.8331666 0.81788021 0
5.3950005 2.8281972 0.81846106 0
5.4020004 2.8232024 0.81904185 0
5.4090004 2.8181825 0.8196227 0
5.4160004 2.8131371 0.82020354 0
5.4230003 2.8080666 0.82078433 0
5.4290004 2.8024044 0.82128221 0
5.4360003 2.7972851 0.821863 0
5.4440002 2.7927034 0.82252681 0
5.4510002 2.7875321 0.8231076 0
5.4580002 2.782335 0.82368845 0
5.4650002 2.777113 0.82426929 0
5.4720001 2.7718658 0.82485008 0
5.4790006 2.7665935 0.82543099 0
5.4860005 2.7612958 0.82601178 0
5.4930005 2.7559726 0.82659256 0
5.5000005 2.7506244 0.82717347 0
5.5080004 2.7457974 0.82783723 0
5.5150003 2.7403967 0.82841802 0
5.5220003 2.7349708 0.82899892 0
5.3880005 2.8331666 0.80888283 0
5.3950005 2.8281972 0.80945098 0
5.4020004 2.8232024 0.81001925 0
5.4090004 2.8181825 0.81058741 0
5.4160004 2.8131371 0.81115562 0
5.4230003 2.8080666 0.81172383 0
5.4290004 2.8024044 0.8122108 0
5.4360003 2.7972851 0.81277907 0
5.4440002 2.7927034 0.8134284 0
5.4510002 2.7875321 0.81399655 0
5.4580002 2.782335 0.81456482 0
5.4650002 2.777113 0.81513298 0
5.4720001 2.7718658 0.81570119 0
5.4790006 2.7665935 0.8162694 0
5.4860005 2.7612958 0.81683767 0
5.4930005 2.7559726 0.81740582 0
5.5000005 2.7506244 0.81797397 0
5.5080004 2.7457974 0.81862342 0
5.5150003 2.7403967 0.81919158 0
5.5220003 2.7349708 0.81975973 0
5.3880005 2.8331666 0.79988539 0
5.3950005 2.8281972 0.80044103 0
5.4020004 2.8232024 0.80099654 0
5.4090004 2.8181825 0.80155218 0
5.4160004 2.8131371 0.80210769 0
5.4230003 2.8080666 0.80266327 0
5.4290004 2.8024044 0.80313951 0
5.4360003 2.7972851 0.80369508 0
5.4440002 2.7927034 0.80432999 0
5.4510002 2.7875321 0.80488557 0
5.4580002 2.782335 0.80544114 0
5.4650002 2.777113 0.80599666 0
5.4720001 2.7718658 0.80655229 0
5.4790006 2.7665935 0.80710787 0
5.4860005 2.7612958 0.80766344 0
5.4930005 2.7559726 0.80821902 0
5.5000005 2.7506244 0.80877459 0
5.5080004 2.7457974 0.8094095 0
5.5150003 2.7403967 0.80996513 0
5.5220003 2.7349708 0.81052065 0
5.3880005 2.8331666 0.79088807 0
5.3950005 2.8281972 0.79143095 0
5.4020004 2.8232024 0.79197395 0
5.4090004 2.8181825 0.79251683 0
5.4160004 2.8131371 0.79305983 0
5.4230003 2.8080666 0.79360276 0
5.4290004 2.8024044 0.7940681 0
5.4360003 2.7972851 0.7946111 0
5.4440002 2.7927034 0.79523158 0
5.4510002 2.7875321 0.79577452 0
5.4580002 2.782335 0.79631746 0
5.4650002 2.777113 0.7968604 0
5.4720001 2.7718658 0.79740334 0
5.4790006 2.7665935 0.79794633 0
5.4860005 2.7612958 0.79848927 0
5.4930005 2.7559726 0.79903221 0
5.5000005 2.7506244 0.79957521 0
5.5080004 2.7457974 0.80019569 0
5.5150003 2.7403967 0.80073857 0
5.5220003 2.7349708 0.80128157 0
5.3880005 2.8331666 0.78189063 0
5.3950005 2.8281972 0.78242093 0
5.4020004 2.8232024 0.78295124 0
5.4090004 2.8181825 0.7834816 0
5.4160004 2.8131371 0.7840119 0
5.4230003 2.8080666 0.7845422 0
5.4290004 2.8024044 0.78499681 0
5.4360003 2.7972851 0.78552711 0
5.4440002 2.7927034 0.78613317 0
5.4510002 2.7875321 0.78666347 0
5.4580002 2.782335 0.78719378 0
5.4650002 2.777113 0.78772414 0
5.4720001 2.7718658 0.78825444 0
5.4790006 2.7665935 0.7887848 0
5.4860005 2.7612958 0.7893151 0
5.4930005 2.7559726 0.78984547 0
5.5000005 2.7506244 0.79037571 0
5.5080004 2.7457974 0.79098183 0
5.5150003 2.7403967 0.79151213 0
5.5220003 2.7349708 0.79204249 0
5.3880005 2.8331666 0.77289319 0
5.3950005 2.8281972 0.77341092 0
5.4020004 2.8232024 0.77392864 0
5.4090004 2.8181825 0.77444631 0
5.4160004 2.8131371 0.77496397 0
5.4230003 2.8080666 0.7754817 0
5.4290004 2.8024044 0.7759254 0
5.4360003 2.7972851 0.77644312 0
5.4440002 2.7927034 0.77703476 0
5.4510002 2.7875321 0.77755249 0
5.4580002 2.782335 0.77807015 0
5.4650002 2.777113 0.77858782 0
5.4720001 2.7718658 0.77910554 0
5.4790006 2.7665935 0.77962327 0
5.4860005 2.7612958 0.78014094 0
5.4930005 2.7559726 0.7806586 0
5.5000005 2.7506244 0.78117633 0
5.5080004 2.7457974 0.78176796 0
5.5150003 2.7403967 0.78228569 0
5.5220003 2.7349708 0.78280336 0
5.3880005 2.8331666 0.76389587 0
5.3950005 2.8281972 0.76440096 0
5.4020004 2.8232024 0.76490599 0
5.4090004 2.8181825 0.76541102 0
5.4160004 2.8131371 0.76591611 0
5.4230003 2.8080666 0.7664212 0
5.4290004 2.8024044 0.76685405 0
5.4360003 2.7972851 0.76735914 0
5.4440002 2.7927034 0.76793635 0
5.4510002 2.7875321 0.76844144 0
5.4580002 2.782335 0.76894653 0
5.4650002 2.777113 0.76945156 0
5.4720001 2.7718658 0.76995659 0
5.4790006 2.7665935 0.77046168 0
5.4860005 2.7612958 0.77096677 0
5.4930005 2.7559726 0.77147186 0
5.5000005 2.7506244 0.77197695 0
5.5080004 2.7457974 0.7725541 0
5.5150003 2.7403967 0.77305913 0
5.5220003 2.7349708 0.77356422 0
5.3880005 2.8331666 0.75489843 0
5.3950005 2.8281972 0.75539088 0
5.4020004 2.8232024 0.75588334 0
5.4090004 2.8181825 0.75637579 0
5.4160004 2.8131371 0.75686818 0
5.4230003 2.8080666 0.75736064 0
5.4290004 2.8024044 0.7577827 0
5.4360003 2.7972851 0.75827515 0
5.4440002 2.7927034 0.75883794 0
5.4510002 2.7875321 0.75933039 0
5.4580002 2.782335 0.75982285 0
5.4650002 2.777113 0.7603153 0
5.4720001 2.7718658 0.76080769 0
5.4790006 2.7665935 0.76130021 0
5.4860005 2.7612958 0.7617926 0
5.4930005 2.7559726 0.76228505 0
5.5000005 2.7506244 0.76277745 0
5.5080004 2.7457974 0.76334023 0
5.5150003 2.7403967 0.76383269 0
5.5220003 2.7349708 0.76432514 0
5.3880005 2.8331666 0.74590111 0
5.3950005 2.8281972 0.74638087 0
5.4020004 2.8232024 0.74686068 0
5.4090004 2.8181825 0.74734044 0
5.4160004 2.8131371 0.74782032 0
5.4230003 2.8080666 0.74830008 0
5.4290004 2.8024044 0.74871135 0
5.4360003 2.7972851 0.74919116 0
5.4440002 2.7927034 0.74973953 0
5.4510002 2.7875321 0.75021935 0
5.4580002 2.782335 0.75069916 0
5.4650002 2.777113 0.75117898 0
5.4720001 2.7718658 0.7516588 0
5.4790006 2.7665935 0.75213861 0
5.4860005 2.7612958 0.75261843 0
5.4930005 2.7559726 0.75309825 0
5.5000005 2.7506244 0.75357807 0
5.5080004 2.7457974 0.75412643 0
5.5150003 2.7403967 0.75460625 0
5.5220003 2.7349708 0.755086 0
5.3880005 2.8331666 0.73690367 0
5.3950005 2.8281972 0.73737085 0
5.4020004 2.8232024 0.73783803 0
5.4090004 2.8181825 0.73830521 0
5.4160004 2.8131371 0.73877239 0
5.4230003 2.8080666 0.73923957 0
5.4290004 2.8024044 0.73964 0
5.4360003 2.7972851 0.74010718 0
5.4440002 2.7927034 0.74064112 0
5.4510002 2.7875321 0.7411083 0
5.4580002 2.782335 0.74157548 0
5.4650002 2.777113 0.74204266 0
5.4720001 2.7718658 0.74250984 0
5.4790006 2.7665935 0.74297708 0
5.4860005 2.7612958 0.74344426 0
5.4930005 2.7559726 0.74391145 0
5.5000005 2.7506244 0.74437863 0
5.5080004 2.7457974 0.74491256 0
5.5150003 2.7403967 0.74537975 0
5.5220003 2.7349708 0.74584693 0
5.3880005 2.8331666 0.72790623 0
5.3950005 2.8281972 0.72836077 0
5.4020004 2.8232024 0.72881538 0
5.4090004 2.8181825 0.72926992 0
5.4160004 2.8131371 0.72972447 0
5.4230003 2.8080666 0.73017907 0
5.4290004 2.8024044 0.73056865 0
5.4360003 2.7972851 0.73102319 0
5.4440002 2.7927034 0.73154271 0
5.4510002 2.7875321 0.73199725 0
5.4580002 2.782335 0.7324518 0
5.4650002 2.777113 0.73290634 0
5.4720001 2.7718658 0.73336095 0
5.4790006 2.7665935 0.73381555 0
5.4860005 2.7612958 0.7342701 0
5.4930005 2.7559726 0.73472464 0
5.5000005 2.7506244 0.73517919 0
5.5080004 2.7457974 0.7356987 0
5.5150003 2.7403967 0.73615324 0
5.5220003 2.7349708 0.73660779 0
5.3880005 2.8331666 0.71890891 0
5.3950005 2.8281972 0.71935081 0
5.4020004 2.8232024 0.71979272 0
5.4090004 2.8181825 0.72023463 0
5.4160004 2.8131371 0.7206766 0
5.4230003 2.8080666 0.72111851 0
5.4290004 2.8024044 0.7214973 0
5.4360003 2.7972851 0.72193927 0
5.4440002 2.7927034 0.7224443 0
5.4510002 2.7875321 0.7228862 0
5.4580002 2.782335 0.72332817 0
5.4650002 2.777113 0.72377014 0
5.4720001 2.7718658 0.72421205 0
5.4790006 2.7665935 0.72465396 0
5.4860005 2.7612958 0.72509593 0
5.4930005 2.7559726 0.7255379 0
5.5000005 2.7506244 0.7259798 0
5.5080004 2.7457974 0.72648489 0
5.5150003 2.7403967 0.7269268 0
5.5220003 2.7349708 0.72736871 0
5.3880005 2.8331666 0.70991147 0
5.3950005 2.8281972 0.71034074 0
5.4020004 2.8232024 0.71077007 0
5.4090004 2.8181825 0.7111994 0
5.4160004 2.8131371 0.71162868 0
5.4230003 2.8080666 0.71205801 0
5.4290004 2.8024044 0.71242595 0
5.4360003 2.7972851 0.71285528 0
5.4440002 2.7927034 0.71334589 0
5.4510002 2.7875321 0.71377522 0
5.4580002 2.782335 0.71420455 0
5.4650002 2.777113 0.71463382 0
5.4720001 2.7718658 0.7150631 0
5.4790006 2.7665935 0.71549249 0
5.4860005 2.7612958 0.71592176 0
5.4930005 2.7559726 0.71635103 0
5.5000005 2.7506244 0.71678036 0
5.5080004 2.7457974 0.71727097 0
5.5150003 2.7403967 0.7177003 0
5.5220003 2.7349708 0.71812963 0
5.3880005 2.8331666 0.70091408 0
5.3950005 2.8281972 0.70133078 0
5.4020004 2.8232024 0.70174742 0
5.4090004 2.8181825 0.70216411 0
5.4160004 2.8131371 0.70258081 0
5.4230003 2.8080666 0.70299745 0
5.4290004 2.8024044 0.7033546 0
5.4360003 2.7972851 0.70377129 0
5.4440002 2.7927034 0.70424747 0
5.4510002 2.7875321 0.70466417 0
5.4580002 2.782335 0.70508087 0
5.4650002 2.777113 0.7054975 0
5.4720001 2.7718658 0.70591426 0
5.4790006 2.7665935 0.7063309 0
5.4860005 2.7612958 0.70674759 0
5.4930005 2.7559726 0.70716429 0
5.5000005 2.7506244 0.70758092 0
5.5080004 2.7457974 0.70805717 0
5.5150003 2.7403967 0.7084738 0
5.5220003 2.7349708 0.7088905 0
5.3880005 2.8331666 0.6919167 0
5.3950005 2.8281972 0.6923207 0
5.4020004 2.8232024 0.69272482 0
5.4090004 2.8181825 0.69312882 0
5.4160004 2.8131371 0.69353288 0
5.4230003 2.8080666 0.69393694 0
5.4290004 2.8024044 0.69428325 0
5.4360003 2.7972851 0.69468731 0
5.4440002 2.7927034 0.69514906 0
5.4510002 2.7875321 0.69555318 0
5.4580002 2.782335 0.69595718 0
5.4650002 2.777113 0.69636124 0
5.4720001 2.7718658 0.6967653 0
5.4790006 2.7665935 0.69716936 0
5.4860005 2.7612958 0.69757342 0
5.4930005 2.7559726 0.69797748 0
5.5000005 2.7506244 0.69838154 0
5.5080004 2.7457974 0.6988433 0
5.5150003 2.7403967 0.69924736 0
5.5220003 2.7349708 0.69965136 0
5.3880005 2.8331666 0.68291926 0
5.3950005 2.8281972 0.68331075 0
5.4020004 2.8232024 0.68370211 0
5.4090004 2.8181825 0.68409359 0
5.4160004 2.8131371 0.68448496 0
5.4230003 2.8080666 0.68487644 0
5.4290004 2.8024044 0.6852119 0
5.4360003 2.7972851 0.68560338 0
5.4440002 2.7927034 0.68605065 0
5.4510002 2.7875321 0.68644214 0
5.4580002 2.782335 0.6868335 0
5.4650002 2.777113 0.68722498 0
5.4720001 2.7718658 0.68761635 0
5.4790006 2.7665935 0.68800783 0
5.4860005 2.7612958 0.68839926 0
5.4930005 2.7559726 0.68879068 0
5.5000005 2.7506244 0.6891821 0
5.5080004 2.7457974 0.68962944 0
5.5150003 2.7403967 0.69002086 0
5.5220003 2.7349708 0.69041228 0
5.3880005 2.8331666 0.67392188 0
5.3950005 2.8281972 0.67430067 0
5.4020004 2.8232024 0.67467952 0
5.4090004 2.8181825 0.67505825 0
5.4160004 2.8131371 0.67543709 0
5.4230003 2.8080666 0.67581588 0
5.4290004 2.8024044 0.67614055 0
5.4360003 2.7972851 0.67651939 0
5.4440002 2.7927034 0.67695224 0
5.4510002 2.7875321 0.67733109 0
5.4580002 2.782335 0.67770988 0
5.4650002 2.777113 0.67808867 0
5.4720001 2.7718658 0.67846751 0
5.4790006 2.7665935 0.67884624 0
5.4860005 2.7612958 0.67922509 0
5.4930005 2.7559726 0.67960387 0
5.5000005 2.7506244 0.67998266 0
5.5080004 2.7457974 0.68041557 0
5.5150003 2.7403967 0.68079436 0
5.5220003 2.7349708 0.68117321 0
5.3880005 2.8331666 0.6649245 0
5.3950005 2.8281972 0.66529065 0
5.4020004 2.8232024 0.66565681 0
5.4090004 2.8181825 0.66602302 0
5.4160004 2.8131371 0.66638917 0
5.4230003 2.8080666 0.66675532 0
5.4290004 2.8024044 0.6670692 0
5.4360003 2.7972851 0.66743541 0
5.4440002 2.7927034 0.66785383 0
5.4510002 2.7875321 0.66822004 0
5.4580002 2.782335 0.66858625 0
5.4650002 2.777113 0.66895235 0
5.4720001 2.7718658 0.66931856 0
5.4790006 2.7665935 0.66968477 0
5.4860005 2.7612958 0.67005092 0
5.4930005 2.7559726 0.67041707 0
5.5000005 2.7506244 0.67078328 0
5.5080004 2.7457974 0.67120171 0
5.5150003 2.7403967 0.67156792 0
5.5220003 2.7349708 0.67193413 0
5.3880005 2.8331666 0.65592706 0
5.3950005 2.8281972 0.65628064 0
5.4020004 2.8232024 0.65663421 0
5.4090004 2.8181825 0.65698773 0
5.4160004 2.8131371 0.65734124 0
5.4230003 2.8080666 0.65769482 0
5.4290004 2.8024044 0.65799785 0
5.4360003 2.7972851 0.65835142 0
5.4440002 2.7927034 0.65875542 0
5.4510002 2.7875321 0.659109 0
5.4580002 2.782335 0.65946257 0
5.4650002 2.777113 0.65981609 0
5.4720001 2.7718658 0.6601696 0
5.4790006 2.7665935 0.66052318 0
5.4860005 2.7612958 0.66087675 0
5.4930005 2.7559726 0.66123027 0
5.5000005 2.7506244 0.66158384 0
5.5080004 2.7457974 0.6619879 0
5.5150003 2.7403967 0.66234142 0
5.5220003 2.7349708 0.66269493 0
5.3880005 2.8331666 0.64692968 0
5.3950005 2.8281972 0.64727062 0
5.4020004 2.8232024 0.64761156 0
5.4090004 2.8181825 0.64795244 0
5.4160004 2.8131371 0.64829338 0
5.4230003 2.8080666 0.64863431 0
5.4290004 2.8024044 0.6489265 0
5.4360003 2.7972851 0.64926744 0
5.4440002 2.7927034 0.64965701 0
5.4510002 2.7875321 0.64999795 0
5.4580002 2.782335 0.65033889 0
5.4650002 2.777113 0.65067983 0
5.4720001 2.7718658 0.65102071 0
5.4790006 2.7665935 0.65136164 0
5.4860005 2.7612958 0.65170258 0
5.4930005 2.7559726 0.65204352 0
5.5000005 2.7506244 0.6523844 0
5.5080004 2.7457974 0.65277404 0
5.5150003 2.7403967 0.65311497 0
5.5220003 2.7349708 0.65345585 0
5.3880005 2.8331666 0.6379323 0
5.3950005 2.8281972 0.6382606 0
5.4020004 2.8232024 0.63858891 0
5.4090004 2.8181825 0.63891721 0
5.4160004 2.8131371 0.63924545 0
5.4230003 2.8080666 0.63957375 0
5.4290004 2.8024044 0.63985515 0
5.4360003 2.7972851 0.64018345 0
5.4440002 2.7927034 0.6405586 0
5.4510002 2.7875321 0.6408869 0
5.4580002 2.782335 0.64121521 0
5.4650002 2.777113 0.64154351 0
5.4720001 2.7718658 0.64187181 0
5.4790006 2.7665935 0.64220011 0
5.4860005 2.7612958 0.64252841 0
5.4930005 2.7559726 0.64285672 0
5.5000005 2.7506244 0.64318502 0
5.5080004 2.7457974 0.64356017 0
5.5150003 2.7403967 0.64388847 0
5.5220003 2.7349708 0.64421678 0
5.3880005 2.8331666 0.62893492 0
5.3950005 2.8281972 0.62925059 0
5.4020004 2.8232024 0.62956625 0
5.4090004 2.8181825 0.62988192 0
5.4160004 2.8131371 0.63019758 0
5.4230003 2.8080666 0.63051325 0
5.4290004 2.8024044 0.6307838 0
5.4360003 2.7972851 0.63109946 0
5.4440002 2.7927034 0.63146025 0
5.4510002 2.7875321 0.63177586 0
5.4580002 2.782335 0.63209158 0
5.4650002 2.777113 0.63240719 0
5.4720001 2.7718658 0.63272291 0
5.4790006 2.7665935 0.63303858 0
5.4860005 2.7612958 0.63335425 0
5.4930005 2.7559726 0.63366991 0
5.5000005 2.7506244 0.63398558 0
5.5080004 2.7457974 0.63434631 0
5.5150003 2.7403967 0.63466197 0
5.5220003 2.7349708 0.63497764 0
5.3880005 2.8331666 0.61993754 0
5.3950005 2.8281972 0.62024057 0
5.4020004 2.8232024 0.6205436 0
5.4090004 2.8181825 0.62084663 0
5.4160004 2.8131371 0.62114966 0
5.4230003 2.8080666 0.62145269 0
5.4290004 2.8024044 0.62171245 0
5.4360003 2.7972851 0.62201548 0
5.4440002 2.7927034 0.62236178 0
5.4510002 2.7875321 0.62266487 0
5.4580002 2.782335 0.6229679 0
5.4650002 2.777113 0.62327093 0
5.4720001 2.7718658 0.62357396 0
5.4790006 2.7665935 0.62387705 0
5.4860005 2.7612958 0.62418008 0
5.4930005 2.7559726 0.62448311 0
5.5000005 2.7506244 0.62478614 0
5.5080004 2.7457974 0.6251325 0
5.5150003 2.7403967 0.62543553 0
5.5220003 2.7349708 0.62573856 0
5.3880005 2.8331666 0.6109401 0
5.3950005 2.8281972 0.61123055 0
5.4020004 2.8232024 0.61152095 0
5.4090004 2.8181825 0.61181134 0
5.4160004 2.8131371 0.61210179 0
5.4230003 2.8080666 0.61239219 0
5.4290004 2.8024044 0.6126411 0
5.4360003 2.7972851 0.61293149 0
5.4440002 2.7927034 0.61326343 0
5.4510002 2.7875321 0.61355382 0
5.4580002 2.782335 0.61384422 0
5.4650002 2.777113 0.61413467 0
5.4720001 2.7718658 0.61442506 0
5.4790006 2.7665935 0.61471546 0
5.4860005 2.7612958 0.61500591 0
5.4930005 2.7559726 0.6152963 0
5.5000005 2.7506244 0.61558676 0
5.5080004 2.7457974 0.61591864 0
5.5150003 2.7403967 0.61620903 0
5.5220003 2.7349708 0.61649942 0
5.3880005 2.8331666 0.60194272 0
5.3950005 2.8281972 0.60222054 0
5.4020004 2.8232024 0.60249829 0
5.4090004 2.8181825 0.60277605 0
5.4160004 2.8131371 0.60305387 0
5.4230003 2.8080666 0.60333163 0
5.4290004 2.8024044 0.60356975 0
5.4360003 2.7972851 0.6038475 0
5.4440002 2.7927034 0.60416502 0
5.4510002 2.7875321 0.60444278 0
5.4580002 2.782335 0.60472059 0
5.4650002 2.777113 0.60499835 0
5.4720001 2.7718658 0.60527611 0
5.4790006 2.7665935 0.60555393 0
5.4860005 2.7612958 0.60583174 0
5.4930005 2.7559726 0.6061095 0
5.5000005 2.7506244 0.60638732 0
5.5080004 2.7457974 0.60670477 0
5.5150003 2.7403967 0.60698259 0
5.5220003 2.7349708 0.60726035 0
5.3880005 2.8331666 0.59294534 0
5.3950005 2.8281972 0.59321046 0
5.4020004 2.8232024 0.59347564 0
5.4090004 2.8181825 0.59374082 0
5.4160004 2.8131371 0.59400594 0
5.4230003 2.8080666 0.59427112 0
5.4290004 2.8024044 0.5944984 0
5.4360003 2.7972851 0.59476358 0
5.4440002 2.7927034 0.59506661 0
5.4510002 2.7875321 0.59533173 0
5.4580002 2.782335 0.59559691 0
5.4650002 2.777113 0.59586203 0
5.4720001 2.7718658 0.59612721 0
5.4790006 2.7665935 0.59639239 0
5.4860005 2.7612958 0.59665757 0
5.4930005 2.7559726 0.59692276 0
5.5000005 2.7506244 0.59718788 0
5.5080004 2.7457974 0.59749091 0
5.5150003 2.7403967 0.59775609 0
5.5220003 2.7349708 0.59802127 0
5.3880005 2.8331666 0.5839479 0
5.3950005 2.8281972 0.5842005 0
5.4020004 2.8232024 0.58445299 0
5.4090004 2.8181825 0.58470553 0
5.4160004 2.8131371 0.58495808 0
5.4230003 2.8080666 0.58521056 0
5.4290004 2.8024044 0.58542705 0
5.4360003 2.7972851 0.58567959 0
5.4440002 2.7927034 0.5859682 0
5.4510002 2.7875321 0.58622074 0
5.4580002 2.782335 0.58647323 0
5.4650002 2.777113 0.58672577 0
5.4720001 2.7718658 0.58697832 0
5.4790006 2.7665935 0.58723086 0
5.4860005 2.7612958 0.58748341 0
5.4930005 2.7559726 0.58773589 0
5.5000005 2.7506244 0.5879885 0
5.5080004 2.7457974 0.58827704 0
5.5150003 2.7403967 0.58852959 0
5.5220003 2.7349708 0.58878213 0
5.3880005 2.8331666 0.57495058 0
5.3950005 2.8281972 0.57519042 0
5.4020004 2.8232024 0.57543033 0
5.4090004 2.8181825 0.57567024 0
5.4160004 2.8131371 0.57591015 0
5.4230003 2.8080666 0.57615006 0
5.4290004 2.8024044 0.5763557 0
5.4360003 2.7972851 0.5765956 0
5.4440002 2.7927034 0.57686979 0
5.4510002 2.7875321 0.57710969 0
5.4580002 2.782335 0.5773496 0
5.4650002 2.777113 0.57758951 0
5.4720001 2.7718658 0.57782942 0
5.4790006 2.7665935 0.57806933 0
5.4860005 2.7612958 0.57830924 0
5.4930005 2.7559726 0.57854915 0
5.5000005 2.7506244 0.57878906 0
5.5080004 2.7457974 0.57906318 0
5.5150003 2.7403967 0.57930315 0
5.5220003 2.7349708 0.57954299 0
5.3880005 2.8331666 0.56595314 0
5.3950005 2.8281972 0.56618041 0
5.4020004 2.8232024 0.56640768 0
5.4090004 2.8181825 0.56663495 0
5.4160004 2.8131371 0.56686223 0
5.4230003 2.8080666 0.56708956 0
5.4290004 2.8024044 0.56728435 0
5.4360003 2.7972851 0.56751162 0
5.4440002 2.7927034 0.56777138 0
5.4510002 2.7875321 0.56799865 0
5.4580002 2.782335 0.56822592 0
5.4650002 2.777113 0.56845319 0
5.4720001 2.7718658 0.56868047 0
5.4790006 2.7665935 0.5689078 0
5.4860005 2.7612958 0.56913507 0
5.4930005 2.7559726 0.56936234 0
5.5000005 2.7506244 0.56958961 0
5.5080004 2.7457974 0.56984937 0
5.5150003 2.7403967 0.57007664 0
5.5220003 2.7349708 0.57030392 0
5.3880005 2.8331666 0.55695575 0
5.3950005 2.8281972 0.55717039 0
5.4020004 2.8232024 0.55738503 0
5.4090004 2.8181825 0.55759972 0
5.4160004 2.8131371 0.55781436 0
5.4230003 2.8080666 0.558029 0
5.4290004 2.8024044 0.558213 0
5.4360003 2.7972851 0.55842763 0
5.4440002 2.7927034 0.55867296 0
5.4510002 2.7875321 0.5588876 0
5.4580002 2.782335 0.5591023 0
5.4650002 2.777113 0.55931693 0
5.4720001 2.7718658 0.55953157 0
5.4790006 2.7665935 0.55974627 0
5.4860005 2.7612958 0.5599609 0
5.4930005 2.7559726 0.56017554 0
5.5000005 2.7506244 0.56039017 0
5.5080004 2.7457974 0.56063551 0
5.5150003 2.7403967 0.56085014 0
5.5220003 2.7349708 0.56106484 0
5.3880005 2.8331666 0.54795837 0
5.3950005 2.8281972 0.54816037 0
5.4020004 2.8232024 0.54836237 0
5.4090004 2.8181825 0.54856443 0
5.4160004 2.8131371 0.54876643 0
5.4230003 2.8080666 0.54896849 0
5.4290004 2.8024044 0.54914165 0
5.4360003 2.7972851 0.54934365 0
5.4440002 2.7927034 0.54957455 0
5.4510002 2.7875321 0.54977655 0
5.4580002 2.782335 0.54997861 0
5.4650002 2.777113 0.55018061 0
5.4720001 2.7718658 0.55038267 0
5.4790006 2.7665935 0.55058467 0
5.4860005 2.7612958 0.55078673 0
5.4930005 2.7559726 0.55098873 0
5.5000005 2.7506244 0.55119073 0
5.5080004 2.7457974 0.55142164 0
5.5150003 2.7403967 0.5516237 0
5.5220003 2.7349708 0.5518257 0
5.3880005 2.8331666 0.53896093 0
5.3950005 2.8281972 0.53915036 0
5.4020004 2.8232024 0.53933978 0
5.4090004 2.8181825 0.53952914 0
5.4160004 2.8131371 0.53971857 0
5.4230003 2.8080666 0.53990793 0
5.4290004 2.8024044 0.5400703 0
5.4360003 2.7972851 0.54025972 0
5.4440002 2.7927034 0.54047614 0
5.4510002 2.7875321 0.54066551 0
5.4580002 2.782335 0.54085493 0
5.4650002 2.777113 0.54104435 0
5.4720001 2.7718658 0.54123378 0
5.4790006 2.7665935 0.54142314 0
5.4860005 2.7612958 0.54161257 0
5.4930005 2.7559726 0.54180193 0
5.5000005 2.7506244 0.54199135 0
5.5080004 2.7457974 0.54220778 0
5.5150003 2.7403967 0.5423972 0
5.5220003 2.7349708 0.54258657 0
5.3880005 2.8331666 0.52996355 0
5.3950005 2.8281972 0.53014034 0
5.4020004 2.8232024 0.53031707 0
5.4090004 2.8181825 0.53049386 0
5.4160004 2.8131371 0.53067064 0
5.4230003 2.8080666 0.53084743 0
5.4290004 2.8024044 0.53099895 0
5.4360003 2.7972851 0.53117573 0
5.4440002 2.7927034 0.53137773 0
5.4510002 2.7875321 0.53155452 0
5.4580002 2.782335 0.53173125 0
5.4650002 2.777113 0.53190804 0
5.4720001 2.7718658 0.53208482 0
5.4790006 2.7665935 0.53226161 0
5.4860005 2.7612958 0.5324384 0
5.4930005 2.7559726 0.53261513 0
5.5000005 2.7506244 0.53279191 0
5.5080004 2.7457974 0.53299391 0
5.5150003 2.7403967 0.5331707 0
5.5220003 2.7349708 0.53334749 0
5.3880005 2.8331666 0.52096617 0
5.3950005 2.8281972 0.52113032 0
5.4020004 2.8232024 0.52129447 0
5.4090004 2.8181825 0.52145863 0
5.4160004 2.8131371 0.52162272 0
5.4230003 2.8080666 0.52178687 0
5.4290004 2.8024044 0.5219276 0
5.4360003 2.7972851 0.52209175 0
5.4440002 2.7927034 0.52227932 0
5.4510002 2.7875321 0.52244347 0
5.4580002 2.782335 0.52260762 0
5.4650002 2.777113 0.52277178 0
5.4720001 2.7718658 0.52293593 0
5.4790006 2.7665935 0.52310008 0
5.4860005 2.7612958 0.52326423 0
5.4930005 2.7559726 0.52342838 0
5.5000005 2.7506244 0.52359247 0
5.5080004 2.7457974 0.52378011 0
5.5150003 2.7403967 0.52394426 0
5.5220003 2.7349708 0.52410841 0
5.3880005 2.8331666 0.51196873 0
5.3950005 2.8281972 0.51212025 0
5.4020004 2.8232024 0.51227182 0
5.4090004 2.8181825 0.51242334 0
5.4160004 2.8131371 0.51257485 0
5.4230003 2.8080666 0.51272637 0
5.4290004 2.8024044 0.51285625 0
5.4360003 2.7972851 0.51300776 0
5.4440002 2.7927034 0.51318091 0
5.4510002 2.7875321 0.51333243 0
5.4580002 2.782335 0.51348394 0
5.4650002 2.777113 0.51363546 0
5.4720001 2.7718658 0.51378697 0
5.4790006 2.7665935 0.51393855 0
5.4860005 2.7612958 0.51409006 0
5.4930005 2.7559726 0.51424158 0
5.5000005 2.7506244 0.51439309 0
5.5080004 2.7457974 0.51456624 0
5.5150003 2.7403967 0.51471776 0
5.5220003 2.7349708 0.51486927 0
5.3880005 2.8331666 0.50297135 0
5.3950005 2.8281972 0.50311029 0
5.4020004 2.8232024 0.50324917 0
5.4090004 2.8181825 0.50338805 0
5.4160004 2.8131371 0.50352693 0
5.4230003 2.8080666 0.5036658 0
5.4290004 2.8024044 0.50378489 0
5.4360003 2.7972851 0.50392377 0
5.4440002 2.7927034 0.5040825 0
5.4510002 2.7875321 0.50422138 0
5.4580002 2.782335 0.50436032 0
5.4650002 2.777113 0.5044992 0
5.4720001 2.7718658 0.50463808 0
5.4790006 2.7665935 0.50477695 0
5.4860005 2.7612958 0.50491589 0
5.4930005 2.7559726 0.50505477 0
5.5000005 2.7506244 0.50519365 0
5.5080004 2.7457974 0.50535238 0
5.5150003 2.7403967 0.50549126 0
5.5220003 2.7349708 0.5056302 0
5.3880005 2.8331666 0.49397397 0
5.3950005 2.8281972 0.49410024 0
5.4020004 2.8232024 0.49422652 0
5.4090004 2.8181825 0.49435276 0
5.4160004 2.8131371 0.49447903 0
5.4220004 2.8074982 0.49458727 0
5.4290004 2.8024044 0.49471354 0
5.4360003 2.7972851 0.49483979 0
5.4440002 2.7927034 0.49498409 0
5.4510002 2.7875321 0.49511036 0
5.4580002 2.782335 0.49523664 0
5.4650002 2.777113 0.49536291 0
5.4720001 2.7718658 0.49548918 0
5.4790006 2.7665935 0.49561542 0
5.4860005 2.7612958 0.4957417 0
5.4930005 2.7559726 0.49586797 0
5.5000005 2.7506244 0.49599424 0
5.5080004 2.7457974 0.49613854 0
5.5150003 2.7403967 0.49626482 0
5.5220003 2.7349708 0.49639106 0
5.3880005 2.8331666 0.48497659 0
5.3950005 2.8281972 0.4850902 0
5.4020004 2.8232024 0.48520386 0
5.4090004 2.8181825 0.4853175 0
5.4160004 2.8131371 0.48543113 0
5.4220004 2.8074982 0.48552853 0
5.4290004 2.8024044 0.48564219 0
5.4360003 2.7972851 0.4857558 0
5.4440002 2.7927034 0.48588568 0
5.4510002 2.7875321 0.48599935 0
5.4580002 2.782335 0.48611295 0
5.4650002 2.777113 0.48622662 0
5.4720001 2.7718658 0.48634025 0
5.4790006 2.7665935 0.48645389 0
5.4860005 2.7612958 0.48656753 0
5.4930005 2.7559726 0.48668116 0
5.5000005 2.7506244 0.48679483 0
5.5080004 2.7457974 0.48692471 0
5.5150003 2.7403967 0.48703831 0
5.5220003 2.7349708 0.48715198 0
5.3880005 2.8331666 0.47597918 0
5.3950005 2.8281972 0.47608018 0
5.4020004 2.8232024 0.47618121 0
5.4090004 2.8181825 0.47628221 0
5.4160004 2.8131371 0.47638324 0
5.4220004 2.8074982 0.47646981 0
5.4290004 2.8024044 0.47657084 0
5.4360003 2.7972851 0.47667184 0
5.4440002 2.7927034 0.47678727 0
5.4510002 2.7875321 0.4768883 0
5.4580002 2.782335 0.4769893 0
5.4650002 2.777113 0.47709033 0
5.4720001 2.7718658 0.47719133 0
5.4790006 2.7665935 0.47729236 0
5.4860005 2.7612958 0.47739336 0
5.4930005 2.7559726 0.47749439 0
5.5000005 2.7506244 0.47759539 0
5.5080004 2.7457974 0.47771084 0
5.5150003 2.7403967 0.47781184 0
5.5220003 2.7349708 0.47791284 0
5.3880005 2.8331666 0.46698177 0
5.3950005 2.8281972 0.46707016 0
5.4020004 2.8232024 0.46715856 0
5.4090004 2.8181825 0.46724695 0
5.4160004 2.8131371 0.46733534 0
5.4220004 2.8074982 0.4674111 0
5.4290004 2.8024044 0.46749949 0
5.4360003 2.7972851 0.46758786 0
5.4440002 2.7927034 0.46768886 0
5.4510002 2.7875321 0.46777725 0
5.4580002 2.782335 0.46786565 0
5.4650002 2.777113 0.46795404 0
5.4720001 2.7718658 0.46804243 0
5.4790006 2.7665935 0.4681308 0
5.4860005 2.7612958 0.46821919 0
5.4930005 2.7559726 0.46830758 0
5.5000005 2.7506244 0.46839598 0
5.5080004 2.7457974 0.46849698 0
5.5150003 2.7403967 0.46858537 0
5.5220003 2.7349708 0.46867377 0
5.3880005 2.8331666 0.45798439 0
5.3950005 2.8281972 0.45806015 0
5.4020004 2.8232024 0.4581359 0
5.4090004 2.8181825 0.45821166 0
5.4160004 2.8131371 0.45828742 0
5.4220004 2.8074982 0.45835236 0
5.4290004 2.8024044 0.45842811 0
5.4360003 2.7972851 0.45850387 0
5.4440002 2.7927034 0.45859045 0
5.4510002 2.7875321 0.45866624 0
5.4580002 2.782335 0.45874199 0
5.4650002 2.777113 0.45881775 0
5.4720001 2.7718658 0.45889351 0
5.4790006 2.7665935 0.45896927 0
5.4860005 2.7612958 0.45904502 0
5.4930005 2.7559726 0.45912078 0
5.5000005 2.7506244 0.45919654 0
5.5080004 2.7457974 0.45928314 0
5.5150003 2.7403967 0.4593589 0
5.5220003 2.7349708 0.45943466 0
5.3880005 2.8331666 0.44898701 0
5.3950005 2.8281972 0.44905013 0
5.4020004 2.8232024 0.44911325 0
5.4090004 2.8181825 0.4491764 0
5.4160004 2.8131371 0.44923952 0
5.4220004 2.8074982 0.44929364 0
5.4290004 2.8024044 0.44935676 0
5.4360003 2.7972851 0.44941992 0
5.4440002 2.7927034 0.44949207 0
5.4510002 2.7875321 0.44955519 0
5.4580002 2.782335 0.44961834 0
5.4650002 2.777113 0.44968146 0
5.4720001 2.7718658 0.44974458 0
5.4790006 2.7665935 0.44980773 0
5.4860005 2.7612958 0.44987085 0
5.4930005 2.7559726 0.44993401 0
5.5000005 2.7506244 0.44999713 0
5.5080004 2.7457974 0.45006928 0
5.5150003 2.7403967 0.4501324 0
5.5220003 2.7349708 0.45019555 0
5.3880005 2.8331666 0.4399896 0
5.3950005 2.8281972 0.44004011 0
5.4020004 2.8232024 0.4400906 0
5.4090004 2.8181825 0.44014111 0
5.4160004 2.8131371 0.44019163 0
5.4220004 2.8074982 0.4402349 0
5.4290004 2.8024044 0.44028541 0
5.4360003 2.7972851 0.44033593 0
5.4440002 2.7927034 0.44039366 0
5.4510002 2.7875321 0.44044417 0
5.4580002 2.782335 0.44049466 0
5.4650002 2.777113 0.44054517 0
5.4720001 2.7718658 0.44059569 0
5.4790006 2.7665935 0.44064617 0
5.4860005 2.7612958 0.44069669 0
5.4930005 2.7559726 0.4407472 0
5.5000005 2.7506244 0.44079769 0
5.5080004 2.7457974 0.44085541 0
5.5150003 2.7403967 0.44090593 0
5.5220003 2.7349708 0.44095644 0
5.3880005 2.8331666 0.43099219 0
5.3950005 2.8281972 0.43103009 0
5.4020004 2.8232024 0.43106797 0
5.4090004 2.8181825 0.43110585 0
5.4160004 2.8131371 0.43114373 0
5.4220004 2.8074982 0.43117619 0
5.4290004 2.8024044 0.43121406 0
5.4360003 2.7972851 0.43125194 0
5.4440002 2.7927034 0.43129525 0
5.4510002 2.7875321 0.43133312 0
5.4580002 2.782335 0.431371 0
5.4650002 2.777113 0.43140888 0
5.4720001 2.7718658 0.43144676 0
5.4790006 2.7665935 0.43148464 0
5.4860005 2.7612958 0.43152252 0
5.4930005 2.7559726 0.4315604 0
5.5000005 2.7506244 0.43159828 0
5.5080004 2.7457974 0.43164158 0
5.5150003 2.7403967 0.43167946 0
5.5220003 2.7349708 0.43171734 0
5.3880005 2.8331666 0.42199481 0
5.3950005 2.8281972 0.42202005 0
5.4020004 2.8232024 0.42204532 0
5.4090004 2.8181825 0.42207056 0
5.4160004 2.8131371 0.42209581 0
5.4220004 2.8074982 0.42211747 0
5.4290004 2.8024044 0.42214271 0
5.4360003 2.7972851 0.42216796 0
5.4440002 2.7927034 0.42219684 0
5.4510002 2.7875321 0.42222208 0
5.4580002 2.782335 0.42224735 0
5.4650002 2.777113 0.42227259 0
5.4720001 2.7718658 0.42229784 0
5.4790006 2.7665935 0.42232311 0
5.4860005 2.7612958 0.42234835 0
5.4930005 2.7559726 0.42237359 0
5.5000005 2.7506244 0.42239887 0
5.5080004 2.7457974 0.42242771 0
5.5150003 2.7403967 0.42245299 0
5.5220003 2.7349708 0.42247823 0
5.3880005 2.8331666 0.41299742 0
5.3950005 2.8281972 0.41301003 0
5.4020004 2.8232024 0.41302267 0
5.4090004 2.8181825 0.4130353 0
5.4160004 2.8131371 0.41304791 0
5.4220004 2.8074982 0.41305873 0
5.4290004 2.8024044 0.41307136 0
5.4360003 2.7972851 0.413084 0
5.4440002 2.7927034 0.41309842 0
5.4510002 2.7875321 0.41311106 0
5.4580002 2.782335 0.41312367 0
5.4650002 2.777113 0.4131363 0
5.4720001 2.7718658 0.41314894 0
5.4790006 2.7665935 0.41316155 0
5.4860005 2.7612958 0.41317418 0
5.4930005 2.7559726 0.41318682 0
5.5000005 2.7506244 0.41319942 0
5.5080004 2.7457974 0.41321388 0
5.5150003 2.7403967 0.41322649 0
5.5220003 2.7349708 0.41323912 0
5.3880005 2.8331666 0.40400001 0
5.3950005 2.8281972 0.40400001 0
5.4020004 2.8232024 0.40400001 0
5.4090004 2.8181825 0.40400001 0
5.4160004 2.8131371 0.40400001 0
5.4220004 2.8074982 0.40400001 0
5.4290004 2.8024044 0.40400001 0
5.4360003 2.7972851 0.40400001 0
5.4440002 2.7927034 0.40400001 0
5.4510002 2.7875321 0.40400001 0
5.4580002 2.782335 0.40400001 0
5.4650002 2.777113 0.40400001 0
5.4720001 2.7718658 0.40400001 0
5.4790006 2.7665935 0.40400001 0
5.4860005 2.7612958 0.40400001 0
5.4930005 2.7559726 0.40400001 0
5.5000005 2.7506244 0.40400001 0
5.5080004 2.7457974 0.40400001 0
5.5150003 2.7403967 0.40400001 0
5.5220003 2.7349708 0.40400001 0
5.3880005 2.8331666 0.3950026 0
5.3950005 2.8281972 0.39499 0
5.4020004 2.8232024 0.39497736 0
5.4090004 2.8181825 0.39496472 0
5.4160004 2.8131371 0.39495212 0
5.4220004 2.8074982 0.3949413 0
5.4290004 2.8024044 0.39492866 0
5.4360003 2.7972851 0.39491603 0
5.4440002 2.7927034 0.3949016 0
5.4510002 2.7875321 0.39488897 0
5.4580002 2.782335 0.39487636 0
5.4650002 2.777113 0.39486372 0
5.4720001 2.7718658 0.39485109 0
5.4790006 2.7665935 0.39483848 0
5.4860005 2.7612958 0.39482585 0
5.4930005 2.7559726 0.39481321 0
5.5000005 2.7506244 0.3948006 0
5.5080004 2.7457974 0.39478615 0
5.5150003 2.7403967 0.39477354 0
5.5220003 2.7349708 0.39476091 0
5.3880005 2.8331666 0.38600522 0
5.3950005 2.8281972 0.38597998 0
5.4020004 2.8232024 0.38595471 0
5.4090004 2.8181825 0.38592947 0
5.4160004 2.8131371 0.38590422 0
5.4220004 2.8074982 0.38588256 0
5.4290004 2.8024044 0.38585731 0
5.4360003 2.7972851 0.38583207 0
5.4440002 2.7927034 0.38580319 0
5.4510002 2.7875321 0.38577795 0
5.4580002 2.782335 0.38575268 0
5.4650002 2.777113 0.38572744 0
5.4720001 2.7718658 0.38570219 0
5.4790006 2.7665935 0.38567692 0
5.4860005 2.7612958 0.38565168 0
5.4930005 2.7559726 0.38562644 0
5.5000005 2.7506244 0.38560116 0
5.5080004 2.7457974 0.38557231 0
5.5150003 2.7403967 0.38554704 0
5.5220003 2.7349708 0.3855218 0
5.3880005 2.8331666 0.37700784 0
5.3950005 2.8281972 0.37696993 0
5.4020004 2.8232024 0.37693205 0
5.4090004 2.8181825 0.37689418 0
5.4160004 2.8131371 0.3768563 0
5.4220004 2.8074982 0.37682384 0
5.4290004 2.8024044 0.37678596 0
5.4360003 2.7972851 0.37674809 0
5.4440002 2.7927034 0.37670478 0
5.4510002 2.7875321 0.3766669 0
5.4580002 2.782335 0.37662902 0
5.4650002 2.777113 0.37659115 0
5.4720001 2.7718658 0.37655327 0
5.4790006 2.7665935 0.37651539 0
5.4860005 2.7612958 0.37647751 0
5.4930005 2.7559726 0.37643963 0
5.5000005 2.7506244 0.37640175 0
5.5080004 2.7457974 0.37635845 0
5.5150003 2.7403967 0.37632057 0
5.3950005 2.8281972 0.36795992 0
5.4020004 2.8232024 0.36790943 0
5.4090004 2.8181825 0.36785892 0
5.4160004 2.8131371 0.3678084 0
5.4220004 2.8074982 0.36776513 0
5.4290004 2.8024044 0.36771461 0
5.4360003 2.7972851 0.3676641 0
5.4440002 2.7927034 0.36760637 0
5.4510002 2.7875321 0.36755586 0
5.4580002 2.782335 0.36750537 0
5.4650002 2.777113 0.36745486 0
5.4720001 2.7718658 0.36740434 0
5.4790006 2.7665935 0.36735386 0
5.4860005 2.7612958 0.36730334 0
5.4930005 2.7559726 0.36725283 0
5.5000005 2.7506244 0.36720234 0
5.5080004 2.7457974 0.36714461 0
5.5150003 2.7403967 0.3670941 0
5.4090004 2.8181825 0.35882363 0
5.4160004 2.8131371 0.35876051 0
5.4220004 2.8074982 0.35870638 0
5.4290004 2.8024044 0.35864326 0
5.4360003 2.7972851 0.35858011 0
5.4440002 2.7927034 0.35850796 0
5.4510002 2.7875321 0.35844484 0
5.4850001 2.7974329 0.3581382 0
5.4870005 2.7893755 0.35812014 0
5.4920001 2.7829773 0.35807505 0
5.4980001 2.7771149 0.35802096 0
5.5080004 2.7734389 0.35793075 0
5.4880004 2.8174663 0.34893334 0
5.4840002 2.8060443 0.34897664 0
5.4850001 2.7974329 0.34896582 0
5.4870005 2.7893755 0.34894419 0
5.4920001 2.7829773 0.34889007 0
5.4980001 2.7771149 0.34882513 0
5.5080004 2.7734389 0.34871688 0
5.4880004 2.8174663 0.33975559 0
5.4840002 2.8060443 0.33980608 0
5.4850001 2.7974329 0.33979344 0
5.4870005 2.7893755 0.3397682 0
5.4920001 2.7829773 0.33970508 0
5.4980001 2.7771149 0.33962932 0
5.5080004 2.7734389 0.33950305 0
5.4880004 2.8174663 0.33057779 0
5.4840002 2.8060443 0.33063552 0
5.4850001 2.7974329 0.33062109 0
5.4870005 2.7893755 0.33059222 0
5.4920001 2.7829773 0.33052009 0
5.4980001 2.7771149 0.33043349 0
5.5080004 2.7734389 0.33028919 0
5.4880004 2.8174663 0.32140002 0
5.4840002 2.8060443 0.32146496 0
5.4850001 2.7974329 0.32144874 0
5.4870005 2.7893755 0.32141626 0
5.4920001 2.7829773 0.32133508 0
5.4980001 2.7771149 0.32123768 0
5.5080004 2.7734389 0.32107532 0
5.4880004 2.8174663 0.31222224 0
5.4840002 2.8060443 0.31229442 0
5.4850001 2.7974329 0.31227636 0
5.4870005 2.7893755 0.3122403 0
5.4920001 2.7829773 0.31215012 0
5.4980001 2.7771149 0.31204188 0
5.5080004 2.7734389 0.31186149 0
5.4880004 2.8174663 0.30304447 0
5.4840002 2.8060443 0.30312383 0
5.4850001 2.7974329 0.30310401 0
5.4870005 2.7893755 0.30306432 0
5.4920001 2.7829773 0.3029651 0
5.4980001 2.7771149 0.30284607 0
5.5080004 2.7734389 0.30264765 0
5.4880004 2.8174663 0.29386669 0
5.4840002 2.8060443 0.29395327 0
5.4850001 2.7974329 0.29393163 0
5.4870005 2.7893755 0.29388833 0
5.4920001 2.7829773 0.29378012 0
5.4980001 2.7771149 0.29365024 0
5.5080004 2.7734389 0.29343379 0
5.4880004 2.8174663 0.28468892 0
5.4840002 2.8060443 0.28478271 0
5.4850001 2.7974329 0.28475928 0
5.4870005 2.7893755 0.28471237 0
5.4920001 2.7829773 0.28459513 0
5.4980001 2.7771149 0.28445444 0
5.5080004 2.7734389 0.28421992 0
5.4880004 2.8174663 0.27551115 0
5.4840002 2.8060443 0.27561218 0
5.4850001 2.7974329 0.2755869 0
5.4870005 2.7893755 0.27553642 0
5.4920001 2.7829773 0.27541012 0
5.4980001 2.7771149 0.2752586 0
5.5080004 2.7734389 0.27500609 0
5.4880004 2.8174663 0.26633334 0
5.4840002 2.8060443 0.26644158 0
5.4850001 2.7974329 0.26641452 0
5.4870005 2.7893755 0.2663604 0
5.4920001 2.7829773 0.26622516 0
5.4980001 2.7771149 0.2660628 0
5.5080004 2.7734389 0.26579225 0
5.4880004 2.8174663 0.2571556 0
5.4840002 2.8060443 0.25727105 0
5.4850001 2.7974329 0.2572422 0
5.4870005 2.7893755 0.25718445 0
5.4920001 2.7829773 0.25704014 0
5.4980001 2.7771149 0.25686699 0
5.5080004 2.7734389 0.25657839 0
5.4880004 2.8174663 0.24797782 0
5.4840002 2.8060443 0.24810047 0
5.4850001 2.7974329 0.24806982 0
5.4870005 2.7893755 0.24800849 0
5.4920001 2.7829773 0.24785516 0
5.4980001 2.7771149 0.24767117 0
5.5080004 2.7734389 0.24736452 0
5.4880004 2.8174663 0.23880003 0
5.4840002 2.8060443 0.23892993 0
5.4850001 2.7974329 0.23889746 0
5.4870005 2.7893755 0.2388325 0
5.4920001 2.7829773 0.23867017 0
5.4980001 2.7771149 0.23847537 0
5.5080004 2.7734389 0.23815066 0
5.4880004 2.8174663 0.22962226 0
5.4840002 2.8060443 0.22975937 0
5.4850001 2.7974329 0.22972509 0
5.4870005 2.7893755 0.22965653 0
5.4920001 2.7829773 0.22948518 0
5.4980001 2.7771149 0.22927955 0
5.5080004 2.7734389 0.22893682 0
5.4880004 2.8174663 0.22044449 0
5.4840002 2.8060443 0.2205888 0
5.4850001 2.7974329 0.22055273 0
5.4870005 2.7893755 0.22048056 0
5.4920001 2.7829773 0.2203002 0
5.4980001 2.7771149 0.22008374 0
5.5080004 2.7734389 0.21972297 0
5.4880004 2.8174663 0.21126671 0
5.4840002 2.8060443 0.21141824 0
5.4850001 2.7974329 0.21138035 0
5.4870005 2.7893755 0.21130458 0
5.4920001 2.7829773 0.2111152 0
5.4980001 2.7771149 0.21088792 0
5.5080004 2.7734389 0.21050911 0
5.4880004 2.8174663 0.20208894 0
5.4840002 2.8060443 0.20224768 0
5.4850001 2.7974329 0.202208 0
5.4870005 2.7893755 0.20212862 0
5.4920001 2.7829773 0.20193021 0
5.4980001 2.7771149 0.2016921 0
5.5080004 2.7734389 0.20129526 0
5.4880004 2.8174663 0.19291115 0
5.4840002 2.8060443 0.19307712 0
5.4850001 2.7974329 0.19303563 0
5.4870005 2.7893755 0.19295265 0
5.4920001 2.7829773 0.19274522 0
5.4980001 2.7771149 0.1924963 0
5.5080004 2.7734389 0.19208141 0
5.4880004 2.8174663 0.18373337 0
5.4840002 2.8060443 0.18390654 0
5.4850001 2.7974329 0.18386327 0
5.4870005 2.7893755 0.18377666 0
5.4920001 2.7829773 0.18356022 0
5.4980001 2.7771149 0.18330047 0
5.5080004 2.7734389 0.18286754 0
5.4880004 2.8174663 0.17455561 0
5.4840002 2.8060443 0.17473599 0
5.4850001 2.7974329 0.1746909 0
5.4870005 2.7893755 0.17460069 0
5.4920001 2.7829773 0.17437524 0
5.4980001 2.7771149 0.17410466 0
5.5080004 2.7734389 0.17365371 0
5.4880004 2.8174663 0.16537783 0
5.4840002 2.8060443 0.16556543 0
5.4850001 2.7974329 0.16551852 0
5.4870005 2.7893755 0.16542472 0
5.4920001 2.7829773 0.16519025 0
5.4980001 2.7771149 0.16490884 0
5.5080004 2.7734389 0.16443984 0
5.4880004 2.8174663 0.15620005 0
5.4840002 2.8060443 0.15639487 0
5.4850001 2.7974329 0.15634617 0
5.4870005 2.7893755 0.15624875 0
5.4920001 2.7829773 0.15600526 0
5.4980001 2.7771149 0.15571305 0
5.5080004 2.7734389 0.15522601 0
5.4880004 2.8174663 0.14702228 0
5.4840002 2.8060443 0.14722431 0
5.4850001 2.7974329 0.14717379 0
5.4870005 2.7893755 0.14707279 0
5.4920001 2.7829773 0.14682025 0
5.4980001 2.7771149 0.14651722 0
5.5080004 2.7734389 0.14601216 0
5.4880004 2.8174663 0.1378445 0
5.4840002 2.8060443 0.13805375 0
5.4850001 2.7974329 0.13800144 0
5.4870005 2.7893755 0.13789681 0
5.4920001 2.7829773 0.13763526 0
5.4980001 2.7771149 0.13732141 0
5.5080004 2.7734389 0.13679829 0
5.4880004 2.8174663 0.1286667 0
5.4840002 2.8060443 0.12888318 0
5.4850001 2.7974329 0.12882906 0
5.4870005 2.7893755 0.12872082 0
5.4920001 2.7829773 0.1284503 0
5.4980001 2.7771149 0.12812558 0
5.5080004 2.7734389 0.12758446 0
5.4880004 2.8174663 0.11948895 0
5.4840002 2.8060443 0.11971262 0
5.4850001 2.7974329 0.11965671 0
5.4870005 2.7893755 0.11954486 0
5.4920001 2.7829773 0.11926529 0
5.4980001 2.7771149 0.1189298 0
5.5080004 2.7734389 0.11837059 0
5.4880004 2.8174663 0.11031118 0
5.4840002 2.8060443 0.11054206 0
5.4850001 2.7974329 0.11048436 0
5.4870005 2.7893755 0.11036888 0
5.4920001 2.7829773 0.1100803 0
5.4980001 2.7771149 0.10973397 0
5.5080004 2.7734389 0.10915673 0
5.4880004 2.8174663 0.10113341 0
5.4840002 2.8060443 0.1013715 0
5.4850001 2.7974329 0.10131198 0
5.4870005 2.7893755 0.10119289 0
5.4920001 2.7829773 0.10089532 0
5.4980001 2.7771149 0.10053813 0
5.5080004 2.7734389 0.099942893 0
5.4880004 2.8174663 0.091955632 0
5.4840002 2.8060443 0.092200935 0
5.4850001 2.7974329 0.092139632 0
5.4870005 2.7893755 0.092016965 0
5.4920001 2.7829773 0.091710299 0
5.4980001 2.7771149 0.09134233 0
5.5080004 2.7734389 0.090729028 0
5.4880004 2.8174663 0.082777828 0
5.4840002 2.8060443 0.083030403 0
5.4850001 2.7974329 0.082967252 0
5.4870005 2.7893755 0.082840979 0
5.4920001 2.7829773 0.082525313 0
5.4980001 2.7771149 0.082146525 0
5.5080004 2.7734389 0.081515163 0
5.4880004 2.8174663 0.073600054 0
5.4840002 2.8060443 0.073859841 0
5.4850001 2.7974329 0.073794901 0
5.4870005 2.7893755 0.073664993 0
5.4920001 2.7829773 0.073340327 0
5.4980001 2.7771149 0.072950721 0
5.5080004 2.7734389 0.072301298 0
5.4880004 2.8174663 0.06442228 0
5.4840002 2.8060443 0.064689279 0
5.4850001 2.7974329 0.064622521 0
5.4870005 2.7893755 0.064489037 0
5.4920001 2.7829773 0.06415534 0
5.4980001 2.7771149 0.063754886 0
5.5080004 2.7734389 0.063087463 0
5.4880004 2.8174663 0.055244505 0
5.4840002 2.8060443 0.055518717 0
5.4850001 2.7974329 0.055450171 0
5.4870005 2.7893755 0.055313051 0
5.4920001 2.7829773 0.054970354 0
5.4980001 2.7771149 0.054559082 0
5.5080004 2.7734389 0.053873628 0
