# .PCD v0.7 - Point Cloud Data file format
VERSION 0.7
FIELDS x y z intensity
SIZE 4 4 4 4
TYPE F F F F
COUNT 1 1 1 1
WIDTH 1413
HEIGHT 1
VIEWPOINT 0 0 0 1 0 0 0
POINTS 1413
DATA ascii
5.2770004 -1.3919674 0.65911806 0
5.2760005 -1.4004868 0.65906572 0
5.2760005 -1.4092823 0.65906572 0
5.2780004 -1.4186403 0.65917033 0
5.2830005 -1.4288553 0.65943193 0
5.2940001 -1.4407983 0.66000724 0
5.1930003 -1.5244067 0.65472394 0
5.1900005 -1.5321215 0.654567 0
5.1870003 -1.5398256 0.65441006 0
5.1840005 -1.5475188 0.65425313 0
5.1800003 -1.5548856 0.65404391 0
5.3970003 -1.1456628 0.65638161 0
5.3880005 -1.1526797 0.65592706 0
5.3810005 -1.1601113 0.65557355 0
5.3750005 -1.1677433 0.65527052 0
5.3690004 -1.1753535 0.65496743 0
5.3650002 -1.1834003 0.65476543 0
5.3600001 -1.1912017 0.65451288 0
5.3560004 -1.1992179 0.65431088 0
5.3530002 -1.2074541 0.65415937 0
5.3500004 -1.2156794 0.65400779 0
5.3470001 -1.223894 0.65385634 0
5.3450003 -1.2323376 0.65375531 0
5.3430004 -1.240774 0.65365428 0
5.3410006 -1.2492032 0.65355325 0
5.3400002 -1.2578706 0.65350276 0
5.3450003 -1.2680169 0.65375531 0
5.3420005 -1.27619 0.65360379 0
5.3410006 -1.2848538 0.65355325 0
5.3420005 -1.2940189 0.65360379 0
5.3470001 -1.3042048 0.65385634 0
5.3260002 -1.3521771 0.65279567 0
5.3070002 -1.3559904 0.65183604 0
5.2960005 -1.3618853 0.65128052 0
5.2890005 -1.3688228 0.65092695 0
5.2830005 -1.3760074 0.65062392 0
5.2790003 -1.3837186 0.65042186 0
5.2770004 -1.3919674 0.65032089 0
5.2760005 -1.4004868 0.65027034 0
5.2760005 -1.4092823 0.65027034 0
5.2780004 -1.4186403 0.65037137 0
5.2830005 -1.4288553 0.65062392 0
5.2940001 -1.4407983 0.65117943 0
5.1930003 -1.5244067 0.64607829 0
5.1900005 -1.5321215 0.64592677 0
5.1870003 -1.5398256 0.64577526 0
5.1840005 -1.5475188 0.64562374 0
5.1800003 -1.5548856 0.64542174 0
5.4060001 -1.1295837 0.64780635 0
5.3970003 -1.1366493 0.64736801 0
5.3890004 -1.1439023 0.64697838 0
5.3830004 -1.1515703 0.6466862 0
5.3770003 -1.1592166 0.64639395 0
5.3720002 -1.1670668 0.64615047 0
5.3670001 -1.1748989 0.64590693 0
5.3630004 -1.1829422 0.64571214 0
5.3590002 -1.1909709 0.64551729 0
5.3560004 -1.1992179 0.6453712 0
5.3530002 -1.2074541 0.64522511 0
5.3510003 -1.2159158 0.64512765 0
5.3490005 -1.2243702 0.64503032 0
5.3480005 -1.2330574 0.64498156 0
5.3460002 -1.2414992 0.64488417 0
5.3460002 -1.2504208 0.64488417 0
5.3460002 -1.2593424 0.64488417 0
5.3570004 -1.2709824 0.6454199 0
5.3540006 -1.2791771 0.6452738 0
5.3530002 -1.2878623 0.64522511 0
5.3070002 -1.3559904 0.64298475 0
5.2960005 -1.3618853 0.64244902 0
5.2890005 -1.3688228 0.64210808 0
5.2830005 -1.3760074 0.6418159 0
5.2790003 -1.3837186 0.64162111 0
5.2770004 -1.3919674 0.64152372 0
5.2760005 -1.4004868 0.64147496 0
5.2760005 -1.4092823 0.64147496 0
5.2780004 -1.4186403 0.64157236 0
5.2830005 -1.4288553 0.6418159 0
5.2940001 -1.4407983 0.64235163 0
5.1930003 -1.5244067 0.63743263 0
5.1900005 -1.5321215 0.63728654 0
5.1870003 -1.5398256 0.63714039 0
5.1840005 -1.5475188 0.63699436 0
5.1800003 -1.5548856 0.63679951 0
5.4150004 -1.1134396 0.6391986 0
5.4050002 -1.1203392 0.63872957 0
5.3970003 -1.1276356 0.63835442 0
5.3900003 -1.1351213 0.63802612 0
5.3840003 -1.142802 0.63774467 0
5.3790002 -1.1506828 0.63751018 0
5.3740005 -1.1585457 0.6372757 0
5.3700004 -1.166616 0.63708812 0
5.3660002 -1.1746716 0.63690048 0
5.3630004 -1.1829422 0.63675982 0
5.3600001 -1.1912017 0.63661909 0
5.3580003 -1.1996833 0.63652533 0
5.3550005 -1.2079231 0.63638467 0
5.3540006 -1.2166247 0.63633776 0
5.3530002 -1.2253226 0.63629079 0
5.3520002 -1.234017 0.63624394 0
5.3520002 -1.2429494 0.63624394 0
5.3520002 -1.2518818 0.63624394 0
5.3540006 -1.2613051 0.63633776 0
5.3570004 -1.2709824 0.63647842 0
5.3070002 -1.3559904 0.63413346 0
5.2960005 -1.3618853 0.63361758 0
5.2890005 -1.3688228 0.63328934 0
5.2830005 -1.3760074 0.63300788 0
5.2790003 -1.3837186 0.63282031 0
5.2770004 -1.3919674 0.63272649 0
5.2760005 -1.4004868 0.63267958 0
5.2760005 -1.4092823 0.63267958 0
5.2780004 -1.4186403 0.6327734 0
5.2830005 -1.4288553 0.63300788 0
5.2940001 -1.4407983 0.63352376 0
5.1930003 -1.5244067 0.62878698 0
5.1900005 -1.5321215 0.62864631 0
5.1870003 -1.5398256 0.62850559 0
5.1840005 -1.5475188 0.62836492 0
5.1800003 -1.5548856 0.62817729 0
5.4160004 -1.0865088 0.63019758 0
5.4130001 -1.0949289 0.63006228 0
5.4130001 -1.1039714 0.63006228 0
5.4050002 -1.1113111 0.6297015 0
5.3980002 -1.1188366 0.62938583 0
5.3920002 -1.1265533 0.62911528 0
5.3860002 -1.1342484 0.62884474 0
5.3810005 -1.1421418 0.62861925 0
5.3770003 -1.1502391 0.62843883 0
5.3730001 -1.1583219 0.62825847 0
5.3700004 -1.166616 0.62812316 0
5.3670001 -1.1748989 0.62798786 0
5.3640003 -1.1831713 0.62785262 0
5.3620005 -1.1916636 0.62776244 0
5.3600001 -1.2001487 0.6276722 0
5.3590002 -1.2088611 0.62762713 0
5.3580003 -1.2175698 0.62758207 0
5.3580003 -1.2265131 0.62758207 0
5.3580003 -1.2354563 0.62758207 0
5.3590002 -1.2446414 0.62762713 0
5.3620005 -1.254317 0.62776244 0
5.3070002 -1.3559904 0.62528217 0
5.2960005 -1.3618853 0.62478614 0
5.2890005 -1.3688228 0.62447047 0
5.2830005 -1.3760074 0.62419993 0
5.2790003 -1.3837186 0.6240195 0
5.2770004 -1.3919674 0.62392932 0
5.2760005 -1.4004868 0.62388426 0
5.2760005 -1.4092823 0.62388426 0
5.2780004 -1.4186403 0.62397444 0
5.2830005 -1.4288553 0.62419993 0
5.2940001 -1.4407983 0.62469596 0
5.1930003 -1.5244067 0.62014133 0
5.1900005 -1.5321215 0.62000608 0
5.1870003 -1.5398256 0.61987078 0
5.1840005 -1.5475188 0.61973548 0
5.1800003 -1.5548856 0.61955512 0
5.4160004 -1.068413 0.62114966 0
5.4100003 -1.0762271 0.6208899 0
5.4050002 -1.0842268 0.62067342 0
5.4030004 -1.0928365 0.62058687 0
5.4020004 -1.1016499 0.6205436 0
5.4000001 -1.1102468 0.62045699 0
5.3940005 -1.1179781 0.6201973 0
5.3890004 -1.125904 0.61998081 0
5.3840003 -1.1338118 0.61976433 0
5.3800001 -1.1419216 0.61959118 0
5.3760004 -1.1500173 0.61941803 0
5.3730001 -1.1583219 0.61928815 0
5.3700004 -1.166616 0.61915827 0
5.3680005 -1.1751263 0.61907172 0
5.3660002 -1.1836294 0.61898512 0
5.3650002 -1.1923562 0.61894178 0
5.3640003 -1.2010794 0.61889851 0
5.3630004 -1.2097991 0.61885524 0
5.3630004 -1.2187513 0.61885524 0
5.3650002 -1.2281798 0.61894178 0
5.3670001 -1.2376156 0.61902839 0
5.3710003 -1.2475419 0.61920154 0
5.3070002 -1.3559904 0.61643088 0
5.2960005 -1.3618853 0.6159547 0
5.2890005 -1.3688228 0.61565167 0
5.2830005 -1.3760074 0.61539191 0
5.2790003 -1.3837186 0.61521876 0
5.2770004 -1.3919674 0.61513215 0
5.2760005 -1.4004868 0.61508888 0
5.2760005 -1.4092823 0.61508888 0
5.2780004 -1.4186403 0.61517549 0
5.2830005 -1.4288553 0.61539191 0
5.2940001 -1.4407983 0.61586809 0
5.1930003 -1.5244067 0.61149567 0
5.1900005 -1.5321215 0.6113658 0
5.1870003 -1.5398256 0.61123592 0
5.1840005 -1.5475188 0.61110604 0
5.1800003 -1.5548856 0.61093289 0
5.4160004 -1.059365 0.61210179 0
5.4080005 -1.0667824 0.61176986 0
5.4020004 -1.074582 0.61152095 0
5.3990002 -1.0829823 0.61139649 0
5.3960004 -1.0913718 0.61127198 0
5.3950005 -1.1001726 0.61123055 0
5.3960004 -1.1093954 0.61127198 0
5.3910003 -1.117334 0.61106455 0
5.3870006 -1.1254711 0.61089861 0
5.3830004 -1.1335936 0.61073267 0
5.3800001 -1.1419216 0.61060822 0
5.3770003 -1.1502391 0.61048377 0
5.3750005 -1.1587692 0.6104008 0
5.3730001 -1.1672922 0.61031777 0
5.3710003 -1.1758081 0.61023486 0
5.3700004 -1.1845458 0.61019331 0
5.3690004 -1.1932797 0.61015189 0
5.3690004 -1.2022429 0.61015189 0
5.3700004 -1.2114406 0.61019331 0
5.3710003 -1.2206417 0.61023486 0
5.3750005 -1.2305609 0.6104008 0
5.3070002 -1.3559904 0.60757959 0
5.2960005 -1.3618853 0.60712326 0
5.2890005 -1.3688228 0.60683286 0
5.2830005 -1.3760074 0.60658389 0
5.2790003 -1.3837186 0.60641795 0
5.2770004 -1.3919674 0.60633498 0
5.2760005 -1.4004868 0.6062935 0
5.2760005 -1.4092823 0.6062935 0
5.2780004 -1.4186403 0.60637647 0
5.2830005 -1.4288553 0.60658389 0
5.2940001 -1.4407983 0.60704029 0
5.1930003 -1.5244067 0.60285002 0
5.1900005 -1.5321215 0.60272557 0
5.1870003 -1.5398256 0.60260111 0
5.1840005 -1.5475188 0.60247666 0
5.1800003 -1.5548856 0.60231066 0
5.4190001 -1.0509177 0.6031729 0
5.4100003 -1.0581528 0.60281575 0
5.4030004 -1.0657632 0.60253799 0
5.3980002 -1.0737594 0.60233957 0
5.3940005 -1.0819452 0.60218084 0
5.3920002 -1.0905348 0.60210145 0
5.3910003 -1.0993284 0.60206175 0
5.3910003 -1.1083312 0.60206175 0
5.3900003 -1.1171194 0.60202205 0
5.3870006 -1.1254711 0.60190302 0
5.3840003 -1.1338118 0.60178399 0
5.3810005 -1.1421418 0.6016649 0
5.3790002 -1.1506828 0.60158557 0
5.3770003 -1.1592166 0.60150617 0
5.3760004 -1.1679688 0.60146654 0
5.3750005 -1.1767172 0.60142684 0
5.3750005 -1.1856912 0.60142684 0
5.3750005 -1.1946651 0.60142684 0
5.3770003 -1.2041044 0.60150617 0
5.3800001 -1.2137854 0.6016252 0
5.3070002 -1.3559904 0.5987283 0
5.2960005 -1.3618853 0.59829181 0
5.2890005 -1.3688228 0.598014 0
5.2830005 -1.3760074 0.59777594 0
5.2790003 -1.3837186 0.59761715 0
5.2770004 -1.3919674 0.59753782 0
5.2760005 -1.4004868 0.59749812 0
5.2760005 -1.4092823 0.59749812 0
5.2780004 -1.4186403 0.59757751 0
5.2830005 -1.4288553 0.59777594 0
5.2940001 -1.4407983 0.59821242 0
5.1930003 -1.5244067 0.59420437 0
5.1900005 -1.5321215 0.59408534 0
5.1870003 -1.5398256 0.59396625 0
5.1840005 -1.5475188 0.59384722 0
5.1800003 -1.5548856 0.59368849 0
5.4150004 -1.0501169 0.59396809 0
5.4060001 -1.0573447 0.59362715 0
5.4000001 -1.0651516 0.59339988 0
5.3950005 -1.0731425 0.59321046 0
5.3910003 -1.0813228 0.59305894 0
5.3890004 -1.0899072 0.59298319 0
5.3880005 -1.0986954 0.59294534 0
5.3880005 -1.1076927 0.59294534 0
5.3890004 -1.1169047 0.59298319 0
5.3880005 -1.1256875 0.59294534 0
5.3860002 -1.1342484 0.59286952 0
5.3830004 -1.1425819 0.59275591 0
5.3820004 -1.1513485 0.59271806 0
5.3810005 -1.1601113 0.59268016 0
5.3810005 -1.1690961 0.59268016 0
5.3810005 -1.1780809 0.59268016 0
5.3820004 -1.1872947 0.59271806 0
5.3850002 -1.1969739 0.59283167 0
5.3070002 -1.3559904 0.58987701 0
5.2960005 -1.3618853 0.58946037 0
5.2890005 -1.3688228 0.58919519 0
5.2830005 -1.3760074 0.58896792 0
5.2790003 -1.3837186 0.5888164 0
5.2770004 -1.3919674 0.58874065 0
5.2760005 -1.4004868 0.5887028 0
5.2760005 -1.4092823 0.5887028 0
5.2780004 -1.4186403 0.5887785 0
5.2830005 -1.4288553 0.58896792 0
5.2940001 -1.4407983 0.58938462 0
5.1930003 -1.5244067 0.58555871 0
5.1900005 -1.5321215 0.58544511 0
5.1870003 -1.5398256 0.58533144 0
5.1840005 -1.5475188 0.58521783 0
5.1800003 -1.5548856 0.58506632 0
5.4250002 -1.0430549 0.58528274 0
5.4130001 -1.0497164 0.58484983 0
5.4040003 -1.0569407 0.58452511 0
5.3980002 -1.0647439 0.58430868 0
5.3930001 -1.0727313 0.58412826 0
5.3890004 -1.0809079 0.58398402 0
5.3870006 -1.0894887 0.58391184 0
5.3860002 -1.0982732 0.58387578 0
5.3860002 -1.1072669 0.58387578 0
5.3880005 -1.11669 0.5839479 0
5.3900003 -1.1261204 0.58402008 0
5.3880005 -1.1346849 0.5839479 0
5.3870006 -1.1434623 0.58391184 0
5.3870006 -1.1524578 0.58391184 0
5.3870006 -1.1614535 0.58391184 0
5.3880005 -1.1706744 0.5839479 0
5.3890004 -1.1798991 0.58398402 0
5.3930001 -1.1898147 0.58412826 0
5.3070002 -1.3559904 0.58102572 0
5.2960005 -1.3618853 0.58062893 0
5.2890005 -1.3688228 0.58037639 0
5.2830005 -1.3760074 0.5801599 0
5.2790003 -1.3837186 0.5800156 0
5.2770004 -1.3919674 0.57994348 0
5.2760005 -1.4004868 0.57990742 0
5.2760005 -1.4092823 0.57990742 0
5.2780004 -1.4186403 0.57997954 0
5.2830005 -1.4288553 0.5801599 0
5.2940001 -1.4407983 0.58055675 0
5.1930003 -1.5244067 0.57691306 0
5.1900005 -1.5321215 0.57680488 0
5.1870003 -1.5398256 0.57669663 0
5.1840005 -1.5475188 0.57658839 0
5.1800003 -1.5548856 0.57644409 0
5.4240003 -1.0428566 0.57618433 0
5.4120002 -1.0495162 0.57577306 0
5.4040003 -1.0569407 0.57549888 0
5.3970003 -1.0645401 0.57525897 0
5.3930001 -1.0727313 0.57512188 0
5.3890004 -1.0809079 0.57498479 0
5.3870006 -1.0894887 0.57491624 0
5.3860002 -1.0982732 0.57488197 0
5.3860002 -1.1072669 0.57488197 0
5.3870006 -1.1164755 0.57491624 0
5.3900003 -1.1261204 0.57501906 0
5.3930001 -1.1357762 0.57512188 0
5.3920002 -1.1445625 0.57508761 0
5.3930001 -1.1537889 0.57512188 0
5.3940005 -1.1630191 0.57515615 0
5.3980002 -1.1729292 0.57529324 0
5.3070002 -1.3559904 0.57217443 0
5.2960005 -1.3618853 0.57179749 0
5.2890005 -1.3688228 0.57155758 0
5.2830005 -1.3760074 0.57135195 0
5.2790003 -1.3837186 0.57121485 0
5.2770004 -1.3919674 0.57114631 0
5.2760005 -1.4004868 0.57111204 0
5.2760005 -1.4092823 0.57111204 0
5.2780004 -1.4186403 0.57118058 0
5.2830005 -1.4288553 0.57135195 0
5.2940001 -1.4407983 0.57172894 0
5.1930003 -1.5244067 0.56826741 0
5.1900005 -1.5321215 0.56816459 0
5.1870003 -1.5398256 0.56806177 0
5.1840005 -1.5475188 0.56795895 0
5.1800003 -1.5548856 0.56782186 0
5.4250002 -1.0430549 0.56715447 0
5.4130001 -1.0497164 0.56676483 0
5.4050002 -1.0571427 0.56650507 0
5.3980002 -1.0647439 0.5662778 0
5.3940005 -1.0729369 0.56614792 0
5.3900003 -1.0811154 0.5660181 0
5.3880005 -1.0896978 0.56595314 0
5.3870006 -1.0984843 0.56592065 0
5.3870006 -1.1074799 0.56592065 0
5.3890004 -1.1169047 0.56598556 0
5.3920002 -1.1265533 0.56608301 0
5.3970003 -1.1366493 0.56624532 0
5.4000001 -1.146323 0.56634271 0
5.4030004 -1.1560076 0.56644017 0
5.4080005 -1.1661506 0.56660247 0
5.3070002 -1.3559904 0.5633232 0
5.2960005 -1.3618853 0.56296605 0
5.2890005 -1.3688228 0.56273878 0
5.2830005 -1.3760074 0.56254393 0
5.2790003 -1.3837186 0.56241405 0
5.2770004 -1.3919674 0.56234914 0
5.2760005 -1.4004868 0.56231666 0
5.2760005 -1.4092823 0.56231666 0
5.2780004 -1.4186403 0.56238157 0
5.2830005 -1.4288553 0.56254393 0
5.2940001 -1.4407983 0.56290108 0
5.1930003 -1.5244067 0.55962175 0
5.1900005 -1.5321215 0.55952436 0
5.1870003 -1.5398256 0.55942696 0
5.1840005 -1.5475188 0.55932957 0
5.1800003 -1.5548856 0.55919969 0
5.4160004 -1.050317 0.55781436 0
5.4080005 -1.0577489 0.55756903 0
5.4010005 -1.0653555 0.55735439 0
5.3960004 -1.0733482 0.55720103 0
5.3920002 -1.0815302 0.55707836 0
5.3900003 -1.0901164 0.55701709 0
5.3890004 -1.0989063 0.55698639 0
5.3890004 -1.1079055 0.55698639 0
5.3910003 -1.117334 0.55704772 0
5.3950005 -1.1272026 0.55717039 0
5.4010005 -1.1375222 0.55735439 0
5.4110003 -1.1487437 0.55766106 0
5.3070002 -1.3559904 0.55447185 0
5.2960005 -1.3618853 0.55413461 0
5.2890005 -1.3688228 0.55391991 0
5.2830005 -1.3760074 0.55373597 0
5.2790003 -1.3837186 0.55361331 0
5.2770004 -1.3919674 0.55355197 0
5.2760005 -1.4004868 0.55352128 0
5.2760005 -1.4092823 0.55352128 0
5.2780004 -1.4186403 0.55358261 0
5.2830005 -1.4288553 0.55373597 0
5.2940001 -1.4407983 0.55407321 0
5.1930003 -1.5244067 0.5509761 0
5.1900005 -1.5321215 0.55088413 0
5.1870003 -1.5398256 0.5507921 0
5.1840005 -1.5475188 0.55070013 0
5.1800003 -1.5548856 0.55057746 0
5.4220004 -1.0515184 0.54893959 0
5.4120002 -1.0585569 0.54865098 0
5.4050002 -1.0661708 0.54844898 0
5.4000001 -1.0741706 0.54830468 0
5.3960004 -1.08236 0.54818922 0
5.3940005 -1.0909535 0.54813153 0
5.3930001 -1.0997505 0.54810262 0
5.3930001 -1.1087569 0.54810262 0
5.3950005 -1.1181927 0.54816037 0
5.3990002 -1.1280684 0.54827583 0
5.4060001 -1.1386135 0.54847783 0
5.4190001 -1.1505042 0.54885304 0
5.3070002 -1.3559904 0.54562062 0
5.2960005 -1.3618853 0.54530311 0
5.2890005 -1.3688228 0.54510111 0
5.2830005 -1.3760074 0.54492795 0
5.2790003 -1.3837186 0.5448125 0
5.2770004 -1.3919674 0.5447548 0
5.2760005 -1.4004868 0.54472589 0
5.2760005 -1.4092823 0.54472589 0
5.2780004 -1.4186403 0.54478365 0
5.2830005 -1.4288553 0.54492795 0
5.2940001 -1.4407983 0.54524541 0
5.1930003 -1.5244067 0.54233044 0
5.1900005 -1.5321215 0.5422439 0
5.1870003 -1.5398256 0.54215729 0
5.1840005 -1.5475188 0.54207075 0
5.1800003 -1.5548856 0.54195523 0
5.4300003 -1.0531203 0.54009736 0
5.4190001 -1.0599711 0.53979969 0
5.4110003 -1.0673938 0.53958327 0
5.4050002 -1.0751989 0.5394209 0
5.4020004 -1.0836047 0.53933978 0
5.3990002 -1.0919995 0.5392586 0
5.3980002 -1.1008056 0.53923154 0
5.3990002 -1.110034 0.5392586 0
5.4010005 -1.1194805 0.53931272 0
5.4060001 -1.1295837 0.53944796 0
5.4150004 -1.1405779 0.53969151 0
5.3260002 -1.3521771 0.53728342 0
5.3070002 -1.3559904 0.53676933 0
5.2960005 -1.3618853 0.53647172 0
5.2890005 -1.3688228 0.5362823 0
5.2830005 -1.3760074 0.53611994 0
5.2790003 -1.3837186 0.5360117 0
5.2770004 -1.3919674 0.53595757 0
5.2760005 -1.4004868 0.53593057 0
5.2760005 -1.4092823 0.53593057 0
5.2780004 -1.4186403 0.53598464 0
5.2830005 -1.4288553 0.53611994 0
5.2940001 -1.4407983 0.5364176 0
5.1930003 -1.5244067 0.53368479 0
5.1900005 -1.5321215 0.53360367 0
5.1870003 -1.5398256 0.53352249 0
5.1840005 -1.5475188 0.53344131 0
5.1800003 -1.5548856 0.53333306 0
5.4300003 -1.0621934 0.53102422 0
5.4200006 -1.0692283 0.53077167 0
5.4140005 -1.0770496 0.53062016 0
5.4090004 -1.0850567 0.53049386 0
5.4070005 -1.0936736 0.53044337 0
5.4060001 -1.1024941 0.5304181 0
5.4070005 -1.1117369 0.53044337 0
5.4110003 -1.1216271 0.5305444 0
5.4170003 -1.1319647 0.53069592 0
5.4170003 -1.1410143 0.53069592 0
5.4130001 -1.1491839 0.53059489 0
5.4090004 -1.157339 0.53049386 0
5.4050002 -1.1654794 0.53039289 0
5.4020004 -1.1738311 0.53031707 0
5.3980002 -1.1819446 0.5302161 0
5.3940005 -1.1900437 0.53011507 0
5.3260002 -1.3521771 0.52839786 0
5.3070002 -1.3559904 0.52791804 0
5.2960005 -1.3618853 0.52764022 0
5.2890005 -1.3688228 0.5274635 0
5.2830005 -1.3760074 0.52731198 0
5.2790003 -1.3837186 0.52721095 0
5.2770004 -1.3919674 0.52716047 0
5.2760005 -1.4004868 0.52713519 0
5.2760005 -1.4092823 0.52713519 0
5.2780004 -1.4186403 0.52718568 0
5.2830005 -1.4288553 0.52731198 0
5.2940001 -1.4407983 0.52758974 0
5.1930003 -1.5244067 0.52503914 0
5.1900005 -1.5321215 0.52496338 0
5.1870003 -1.5398256 0.52488762 0
5.1840005 -1.5475188 0.52481186 0
5.1800003 -1.5548856 0.52471089 0
5.4350004 -1.0722857 0.52206826 0
5.4260001 -1.0795171 0.5218572 0
5.4210005 -1.087546 0.52173996 0
5.4180002 -1.0959752 0.52166963 0
5.4150004 -1.1043936 0.52159929 0
5.4110003 -1.1125882 0.52150548 0
5.4080005 -1.1209831 0.52143514 0
5.4040003 -1.1291507 0.52134132 0
5.4010005 -1.1375222 0.52127099 0
5.3970003 -1.1456628 0.52117723 0
5.3930001 -1.1537889 0.52108341 0
5.3900003 -1.1621244 0.52101302 0
5.3860002 -1.1702235 0.52091926 0
5.3830004 -1.1785355 0.52084893 0
5.3790002 -1.1866075 0.52075511 0
5.3760004 -1.194896 0.52068478 0
5.3720002 -1.2029409 0.52059096 0
5.3690004 -1.211206 0.52052063 0
5.3650002 -1.219224 0.52042681 0
5.3620005 -1.2274656 0.52035648 0
5.3580003 -1.2354563 0.52026266 0
5.3550005 -1.2436745 0.52019233 0
5.3510003 -1.2516383 0.52009851 0
5.3480005 -1.2598331 0.52002817 0
5.3440003 -1.2677698 0.51993436 0
5.3410006 -1.2759411 0.51986402 0
5.3380003 -1.2841015 0.51979369 0
5.3340001 -1.2919985 0.51969987 0
5.3310003 -1.3001356 0.51962954 0
5.3270001 -1.3080056 0.51953572 0
5.3240004 -1.3161191 0.51946539 0
5.3260002 -1.3521771 0.5195123 0
5.3070002 -1.3559904 0.51906675 0
5.2960005 -1.3618853 0.51880878 0
5.2890005 -1.3688228 0.51864469 0
5.2830005 -1.3760074 0.51850396 0
5.2790003 -1.3837186 0.51841015 0
5.2770004 -1.3919674 0.51836324 0
5.2760005 -1.4004868 0.51833981 0
5.2760005 -1.4092823 0.51833981 0
5.2780004 -1.4186403 0.51838672 0
5.2830005 -1.4288553 0.51850396 0
5.2940001 -1.4407983 0.51876187 0
5.1930003 -1.5244067 0.51639348 0
5.1900005 -1.5321215 0.51632315 0
5.1870003 -1.5398256 0.51625282 0
5.1840005 -1.5475188 0.51618248 0
5.1800003 -1.5548856 0.51608866 0
5.4380002 -1.0638095 0.51305103 0
5.4250002 -1.0702474 0.51276964 0
5.4180002 -1.077872 0.51261812 0
5.4130001 -1.0858864 0.51250988 0
5.4100003 -1.0943012 0.51244497 0
5.4060001 -1.1024941 0.51235837 0
5.4030004 -1.1108854 0.51229346 0
5.3990002 -1.1190512 0.51220685 0
5.3960004 -1.1274191 0.51214194 0
5.3920002 -1.1355578 0.51205534 0
5.3890004 -1.1439023 0.51199043 0
5.3850002 -1.152014 0.51190382 0
5.3820004 -1.1603351 0.51183891 0
5.3780003 -1.1684196 0.51175231 0
5.3750005 -1.1767172 0.5116874 0
5.3710003 -1.1847748 0.51160079 0
5.3680005 -1.193049 0.51153588 0
5.3640003 -1.2010794 0.51144928 0
5.3610005 -1.2093301 0.51138431 0
5.3570004 -1.2173336 0.51129776 0
5.3540006 -1.2255608 0.51123279 0
5.3510003 -1.233777 0.51116788 0
5.3470001 -1.2417408 0.51108128 0
5.3440003 -1.2499338 0.51101637 0
5.3400002 -1.2578706 0.51092976 0
5.3370004 -1.26604 0.51086485 0
5.3330002 -1.2739496 0.51077825 0
5.3300004 -1.2820957 0.51071334 0
5.3270001 -1.2902309 0.51064837 0
5.3230004 -1.2981009 0.51056182 0
5.3200002 -1.3062125 0.51049685 0
5.3170004 -1.3143135 0.51043195 0
5.3260002 -1.3521771 0.51062673 0
5.3070002 -1.3559904 0.51021546 0
5.2960005 -1.3618853 0.50997734 0
5.2890005 -1.3688228 0.50982583 0
5.2830005 -1.3760074 0.50969595 0
5.2790003 -1.3837186 0.5096094 0
5.2770004 -1.3919674 0.50956607 0
5.2760005 -1.4004868 0.50954443 0
5.2760005 -1.4092823 0.50954443 0
5.2780004 -1.4186403 0.50958776 0
5.2830005 -1.4288553 0.50969595 0
5.2940001 -1.4407983 0.50993407 0
5.1930003 -1.5244067 0.50774783 0
5.1900005 -1.5321215 0.50768292 0
5.1870003 -1.5398256 0.50761795 0
5.1840005 -1.5475188 0.50755304 0
5.1800003 -1.5548856 0.50746644 0
5.4290004 -1.0619915 0.50378489 0
5.4190001 -1.0690244 0.50358647 0
5.4120002 -1.0766382 0.50344753 0
5.4080005 -1.0848492 0.5033682 0
5.4050002 -1.0932549 0.50330865 0
5.4010005 -1.1014389 0.50322932 0
5.3980002 -1.1098212 0.50316978 0
5.3940005 -1.1179781 0.50309044 0
5.3910003 -1.1263368 0.5030309 0
5.3870006 -1.1344666 0.5029515 0
5.3840003 -1.142802 0.50289202 0
5.3800001 -1.1509047 0.50281262 0
5.3770003 -1.1592166 0.50275308 0
5.3730001 -1.1672922 0.50267375 0
5.3700004 -1.1755807 0.5026142 0
5.3660002 -1.1836294 0.50253487 0
5.3630004 -1.1918944 0.50247532 0
5.3600001 -1.2001487 0.50241578 0
5.3560004 -1.2081575 0.50233644 0
5.3530002 -1.2163883 0.5022769 0
5.3490005 -1.2243702 0.5021975 0
5.3460002 -1.2325774 0.50213802 0
5.3430004 -1.240774 0.50207847 0
5.3390002 -1.2487161 0.50199914 0
5.3360004 -1.2568892 0.50193959 0
5.3320003 -1.2648044 0.5018602 0
5.3290005 -1.272954 0.50180072 0
5.3260002 -1.2810926 0.50174117 0
5.3220005 -1.2889682 0.50166178 0
5.3190002 -1.2970835 0.50160229 0
5.3160005 -1.3051881 0.50154275 0
5.3120003 -1.3130237 0.50146335 0
5.3260002 -1.3521771 0.50174117 0
5.3070002 -1.3559904 0.50136417 0
5.2960005 -1.3618853 0.5011459 0
5.2890005 -1.3688228 0.50100702 0
5.2830005 -1.3760074 0.50088799 0
5.2790003 -1.3837186 0.5008086 0
5.2770004 -1.3919674 0.5007689 0
5.2760005 -1.4004868 0.50074905 0
5.2760005 -1.4092823 0.50074905 0
5.2780004 -1.4186403 0.50078875 0
5.2830005 -1.4288553 0.50088799 0
5.2940001 -1.4407983 0.5011062 0
5.1930003 -1.5244067 0.49910221 0
5.1900005 -1.5321215 0.49904269 0
5.1870003 -1.5398256 0.49898314 0
5.1840005 -1.5475188 0.49892363 0
5.1800003 -1.5548856 0.49884427 0
5.4240003 -1.0609812 0.49462333 0
5.4150004 -1.0682092 0.494461 0
5.4090004 -1.0760214 0.49435276 0
5.4050002 -1.0842268 0.49428061 0
5.4020004 -1.0926273 0.49422652 0
5.3980002 -1.1008056 0.49415433 0
5.3950005 -1.1091826 0.49410024 0
5.3910003 -1.117334 0.49402809 0
5.3880005 -1.1256875 0.49397397 0
5.3840003 -1.1338118 0.49390182 0
5.3810005 -1.1421418 0.4938477 0
5.3770003 -1.1502391 0.49377555 0
5.3740005 -1.1585457 0.49372143 0
5.3710003 -1.1668413 0.4936673 0
5.3670001 -1.1748989 0.49359515 0
5.3640003 -1.1831713 0.49354106 0
5.3600001 -1.1912017 0.49346888 0
5.3570004 -1.1994505 0.49341479 0
5.3530002 -1.2074541 0.49334264 0
5.3500004 -1.2156794 0.49328852 0
5.3470001 -1.223894 0.4932344 0
5.3430004 -1.2318579 0.49316227 0
5.3400002 -1.2400489 0.49310815 0
5.3370004 -1.2482293 0.49305403 0
5.3330002 -1.2561532 0.49298188 0
5.3300004 -1.2643101 0.49292776 0
5.3260002 -1.2722071 0.49285561 0
5.3230004 -1.2803407 0.49280149 0
5.3200002 -1.288463 0.49274737 0
5.3160005 -1.2963206 0.49267524 0
5.3130002 -1.3044195 0.49262112 0
5.3100004 -1.312508 0.492567 0
5.3260002 -1.3521771 0.49285561 0
5.3070002 -1.3559904 0.49251288 0
5.2960005 -1.3618853 0.49231446 0
5.2890005 -1.3688228 0.49218822 0
5.2830005 -1.3760074 0.49207997 0
5.2790003 -1.3837186 0.49200782 0
5.2770004 -1.3919674 0.49197173 0
5.2760005 -1.4004868 0.4919537 0
5.2760005 -1.4092823 0.4919537 0
5.2780004 -1.4186403 0.49198979 0
5.2830005 -1.4288553 0.49207997 0
5.2940001 -1.4407983 0.4922784 0
5.1930003 -1.5244067 0.49045652 0
5.1900005 -1.5321215 0.49040243 0
5.1870003 -1.5398256 0.49034831 0
5.1840005 -1.5475188 0.49029422 0
5.1800003 -1.5548856 0.49022204 0
5.4230003 -1.0607792 0.48554477 0
5.4140005 -1.0680053 0.48539865 0
5.4080005 -1.0758158 0.48530126 0
5.4040003 -1.0840194 0.48523632 0
5.4010005 -1.0924181 0.48518762 0
5.3970003 -1.1005948 0.48512268 0
5.3940005 -1.1089698 0.48507398 0
5.3900003 -1.1171194 0.48500904 0
5.3870006 -1.1254711 0.48496035 0
5.3830004 -1.1335936 0.48489541 0
5.3800001 -1.1419216 0.48484671 0
5.3760004 -1.1500173 0.48478177 0
5.3730001 -1.1583219 0.48473305 0
5.3700004 -1.166616 0.48468435 0
5.3660002 -1.1746716 0.48461941 0
5.3630004 -1.1829422 0.48457071 0
5.3590002 -1.1909709 0.48450577 0
5.3560004 -1.1992179 0.48445708 0
5.3530002 -1.2074541 0.48440838 0
5.3490005 -1.2154431 0.48434344 0
5.3460002 -1.2236558 0.48429471 0
5.3420005 -1.2316179 0.4842298 0
5.3390002 -1.2398071 0.48418111 0
5.3360004 -1.2479857 0.48413241 0
5.3320003 -1.2559079 0.48406744 0
5.3290005 -1.2640631 0.48401874 0
5.3260002 -1.2722071 0.48397005 0
5.3220005 -1.28009 0.48390511 0
5.3190002 -1.2882106 0.48385641 0
5.3150005 -1.2960663 0.48379147 0
5.3120003 -1.3041635 0.48374277 0
5.3090005 -1.31225 0.48369408 0
5.3260002 -1.3521771 0.48397005 0
5.3070002 -1.3559904 0.48366159 0
5.2960005 -1.3618853 0.48348302 0
5.2890005 -1.3688228 0.48336938 0
5.2830005 -1.3760074 0.48327196 0
5.2790003 -1.3837186 0.48320705 0
5.2770004 -1.3919674 0.48317456 0
5.2760005 -1.4004868 0.48315835 0
5.2760005 -1.4092823 0.48315835 0
5.2780004 -1.4186403 0.4831908 0
5.2830005 -1.4288553 0.48327196 0
5.2940001 -1.4407983 0.48345053 0
5.1930003 -1.5244067 0.4818109 0
5.1900005 -1.5321215 0.4817622 0
5.1870003 -1.5398256 0.48171347 0
5.1840005 -1.5475188 0.48166478 0
5.1800003 -1.5548856 0.48159984 0
5.4230003 -1.0607792 0.47648424 0
5.4140005 -1.0680053 0.47635436 0
5.4080005 -1.0758158 0.47626778 0
5.4040003 -1.0840194 0.47621006 0
5.4010005 -1.0924181 0.47616678 0
5.3980002 -1.1008056 0.47612348 0
5.3940005 -1.1089698 0.47606575 0
5.3910003 -1.117334 0.47602248 0
5.3870006 -1.1254711 0.47596475 0
5.3840003 -1.1338118 0.47592145 0
5.3810005 -1.1421418 0.47587818 0
5.3770003 -1.1502391 0.47582045 0
5.3740005 -1.1585457 0.47577715 0
5.3700004 -1.166616 0.47571942 0
5.3670001 -1.1748989 0.47567612 0
5.3630004 -1.1829422 0.47561842 0
5.3600001 -1.1912017 0.47557512 0
5.3570004 -1.1994505 0.47553182 0
5.3530002 -1.2074541 0.47547412 0
5.3500004 -1.2156794 0.47543082 0
5.3470001 -1.223894 0.47538751 0
5.3430004 -1.2318579 0.47532982 0
5.3400002 -1.2400489 0.47528651 0
5.3360004 -1.2479857 0.47522879 0
5.3330002 -1.2561532 0.47518551 0
5.3300004 -1.2643101 0.47514221 0
5.3260002 -1.2722071 0.47508448 0
5.3230004 -1.2803407 0.47504121 0
5.3200002 -1.288463 0.47499791 0
5.3160005 -1.2963206 0.47494018 0
5.3130002 -1.3044195 0.47489691 0
5.3100004 -1.312508 0.47485361 0
5.3260002 -1.3521771 0.47508448 0
5.3070002 -1.3559904 0.4748103 0
5.2960005 -1.3618853 0.47465158 0
5.2890005 -1.3688228 0.47455058 0
5.2830005 -1.3760074 0.474464 0
5.2790003 -1.3837186 0.47440624 0
5.2770004 -1.3919674 0.47437739 0
5.2760005 -1.4004868 0.47436297 0
5.2760005 -1.4092823 0.47436297 0
5.2780004 -1.4186403 0.47439182 0
5.2830005 -1.4288553 0.474464 0
5.1930003 -1.5244067 0.47316524 0
5.1900005 -1.5321215 0.47312194 0
5.1870003 -1.5398256 0.47307867 0
5.1840005 -1.5475188 0.47303537 0
5.1800003 -1.5548856 0.47297764 0
5.4230003 -1.0607792 0.46742371 0
5.4140005 -1.0680053 0.46731007 0
5.4080005 -1.0758158 0.46723431 0
5.4040003 -1.0840194 0.4671838 0
5.4010005 -1.0924181 0.46714592 0
5.4000001 -1.1012278 0.46713328 0
5.3970003 -1.1096083 0.46709543 0
5.3930001 -1.1177633 0.46704492 0
5.3900003 -1.1261204 0.46700704 0
5.3860002 -1.1342484 0.46695653 0
5.3830004 -1.1425819 0.46691865 0
5.3790002 -1.1506828 0.46686813 0
5.3760004 -1.158993 0.46683025 0
5.3730001 -1.1672922 0.46679237 0
5.3690004 -1.1753535 0.46674186 0
5.3660002 -1.1836294 0.46670401 0
5.3620005 -1.1916636 0.4666535 0
5.3590002 -1.1999159 0.46661562 0
5.3560004 -1.2081575 0.46657774 0
5.3520002 -1.2161521 0.46652722 0
5.3490005 -1.2243702 0.46648934 0
5.3450003 -1.2323376 0.46643883 0
5.3420005 -1.2405323 0.46640095 0
5.3390002 -1.2487161 0.46636307 0
5.3350005 -1.2566439 0.46631256 0
5.3320003 -1.2648044 0.46627468 0
5.3290005 -1.272954 0.4662368 0
5.3250003 -1.2808419 0.46618631 0
5.3220005 -1.2889682 0.46614844 0
5.3190002 -1.2970835 0.46611056 0
5.3150005 -1.3049319 0.46606004 0
5.3120003 -1.3130237 0.46602216 0
5.3260002 -1.3521771 0.46619892 0
5.3070002 -1.3559904 0.46595901 0
5.2960005 -1.3618853 0.46582013 0
5.2890005 -1.3688228 0.46573174 0
5.2830005 -1.3760074 0.46565598 0
5.2790003 -1.3837186 0.46560547 0
5.2770004 -1.3919674 0.46558022 0
5.2760005 -1.4004868 0.46556759 0
5.2760005 -1.4092823 0.46556759 0
5.2780004 -1.4186403 0.46559286 0
5.2830005 -1.4288553 0.46565598 0
5.1930003 -1.5244067 0.46451959 0
5.1900005 -1.5321215 0.46448171 0
5.1870003 -1.5398256 0.46444383 0
5.1840005 -1.5475188 0.46440595 0
5.1800003 -1.5548856 0.46435544 0
5.4230003 -1.0607792 0.45836318 0
5.4140005 -1.0680053 0.45826578 0
5.4080005 -1.0758158 0.45820084 0
5.4040003 -1.0840194 0.45815754 0
5.4010005 -1.0924181 0.45812508 0
5.4010005 -1.1014389 0.45812508 0
5.4010005 -1.1104597 0.45812508 0
5.3970003 -1.1186219 0.45808178 0
5.3940005 -1.1269861 0.45804933 0
5.3900003 -1.1351213 0.45800602 0
5.3870006 -1.1434623 0.45797357 0
5.3840003 -1.1517922 0.45794109 0
5.3800001 -1.1598877 0.45789781 0
5.3770003 -1.1681942 0.45786533 0
5.3730001 -1.1762626 0.45782205 0
5.3700004 -1.1845458 0.45778957 0
5.3670001 -1.1928179 0.45775712 0
5.3630004 -1.2008468 0.45771381 0
5.3600001 -1.2090955 0.45768136 0
5.3560004 -1.2170973 0.45763806 0
5.3530002 -1.2253226 0.4576056 0
5.3500004 -1.2335372 0.45757312 0
5.3460002 -1.2414992 0.45752981 0
5.3430004 -1.2496903 0.45749736 0
5.3400002 -1.2578706 0.45746487 0
5.3360004 -1.2657928 0.4574216 0
5.3330002 -1.2739496 0.45738912 0
5.3300004 -1.2820957 0.45735666 0
5.3260002 -1.2899783 0.45731336 0
5.3230004 -1.2981009 0.4572809 0
5.3200002 -1.3062125 0.45724842 0
5.3160005 -1.3140556 0.45720515 0
5.3260002 -1.3521771 0.45731336 0
5.3070002 -1.3559904 0.45710772 0
5.2960005 -1.3618853 0.45698869 0
5.2890005 -1.3688228 0.45691293 0
5.2830005 -1.3760074 0.456848 0
5.2790003 -1.3837186 0.45680469 0
5.2770004 -1.3919674 0.45678306 0
5.2760005 -1.4004868 0.45677224 0
5.2760005 -1.4092823 0.45677224 0
5.2780004 -1.4186403 0.45679387 0
5.2830005 -1.4288553 0.456848 0
5.1930003 -1.5244067 0.45587394 0
5.1900005 -1.5321215 0.45584145 0
5.1870003 -1.5398256 0.455809 0
5.1840005 -1.5475188 0.45577651 0
5.1800003 -1.5548856 0.45573324 0
5.4230003 -1.0607792 0.44930267 0
5.4140005 -1.0680053 0.44922149 0
5.4080005 -1.0758158 0.44916737 0
5.4040003 -1.0840194 0.44913131 0
5.4010005 -1.0924181 0.44910425 0
5.4010005 -1.1014389 0.44910425 0
5.4010005 -1.1104597 0.44910425 0
5.4040003 -1.1201245 0.44913131 0
5.4010005 -1.1285014 0.44910425 0
5.3970003 -1.1366493 0.44906816 0
5.3940005 -1.1450027 0.4490411 0
5.3900003 -1.1531234 0.44900504 0
5.3870006 -1.1614535 0.44897798 0
5.3830004 -1.1695471 0.44894189 0
5.3800001 -1.1778535 0.44891483 0
5.3770003 -1.1861494 0.4488878 0
5.3730001 -1.1942033 0.4488517 0
5.3700004 -1.2024755 0.44882464 0
5.3670001 -1.210737 0.44879758 0
5.3630004 -1.2187513 0.44876152 0
5.3600001 -1.2269894 0.44873446 0
5.3560004 -1.2349766 0.44869837 0
5.3530002 -1.2431911 0.44867131 0
5.3500004 -1.2513949 0.44864428 0
5.3460002 -1.2593424 0.44860819 0
5.3430004 -1.2675227 0.44858113 0
5.3400002 -1.2756921 0.44855407 0
5.3360004 -1.2836001 0.44851801 0
5.3330002 -1.291746 0.44849095 0
5.3300004 -1.2998813 0.44846389 0
5.3260002 -1.3077494 0.4484278 0
5.3230004 -1.3158612 0.44840077 0
5.3070002 -1.3559904 0.44825643 0
5.2960005 -1.3618853 0.44815725 0
5.2890005 -1.3688228 0.4480941 0
5.2830005 -1.3760074 0.44803998 0
5.2790003 -1.3837186 0.44800392 0
5.2770004 -1.3919674 0.44798589 0
5.2760005 -1.4004868 0.44797686 0
5.2760005 -1.4092823 0.44797686 0
5.2780004 -1.4186403 0.44799489 0
5.2830005 -1.4288553 0.44803998 0
5.1930003 -1.5244067 0.44722828 0
5.1900005 -1.5321215 0.44720122 0
5.1870003 -1.5398256 0.44717416 0
5.1840005 -1.5475188 0.4471471 0
5.1800003 -1.5548856 0.44711104 0
5.4230003 -1.0607792 0.44024214 0
5.4140005 -1.0680053 0.4401772 0
5.4080005 -1.0758158 0.4401339 0
5.4040003 -1.0840194 0.44010505 0
5.4010005 -1.0924181 0.44008338 0
5.4010005 -1.1014389 0.44008338 0
5.4010005 -1.1104597 0.44008338 0
5.4040003 -1.1201245 0.44010505 0
5.4090004 -1.130233 0.44014111 0
5.4090004 -1.1392684 0.44014111 0
5.4050002 -1.1474233 0.44011226 0
5.4020004 -1.1557858 0.4400906 0
5.3990002 -1.1641375 0.44006896 0
5.3950005 -1.1722528 0.44004011 0
5.3920002 -1.1805809 0.44001845 0
5.3880005 -1.1886693 0.4399896 0
5.3850002 -1.1969739 0.43996796 0
5.3820004 -1.2052679 0.43994629 0
5.3780003 -1.2133164 0.43991745 0
5.3750005 -1.2215869 0.43989581 0
5.3720002 -1.2298465 0.43987414 0
5.3680005 -1.2378556 0.43984529 0
5.3650002 -1.2460916 0.43982366 0
5.3620005 -1.254317 0.43980199 0
5.3580003 -1.2622862 0.43977314 0
5.3550005 -1.2704883 0.43975151 0
5.3520002 -1.2786793 0.43972984 0
5.3480005 -1.2866088 0.43970099 0
5.3450003 -1.2947764 0.43967932 0
5.3420005 -1.3029333 0.43965769 0
5.3070002 -1.3559904 0.43940517 0
5.2960005 -1.3618853 0.43932581 0
5.2890005 -1.3688228 0.43927529 0
5.2830005 -1.3760074 0.43923199 0
5.2790003 -1.3837186 0.43920314 0
5.2770004 -1.3919674 0.43918872 0
5.2760005 -1.4004868 0.43918151 0
5.2760005 -1.4092823 0.43918151 0
5.2780004 -1.4186403 0.43919593 0
5.2830005 -1.4288553 0.43923199 0
5.1930003 -1.5244067 0.43858263 0
5.1900005 -1.5321215 0.43856099 0
5.1870003 -1.5398256 0.43853933 0
5.1840005 -1.5475188 0.43851769 0
5.1800003 -1.5548856 0.43848884 0
5.4230003 -1.0607792 0.43118161 0
5.4140005 -1.0680053 0.43113291 0
5.4080005 -1.0758158 0.43110043 0
5.4040003 -1.0840194 0.43107879 0
5.4010005 -1.0924181 0.43106255 0
5.4010005 -1.1014389 0.43106255 0
5.4010005 -1.1104597 0.43106255 0
5.4040003 -1.1201245 0.43107879 0
5.4090004 -1.130233 0.43110585 0
5.4200006 -1.1416693 0.43116537 0
5.3070002 -1.3559904 0.43055388 0
5.2960005 -1.3618853 0.43049434 0
5.2890005 -1.3688228 0.43045646 0
5.2830005 -1.3760074 0.430424 0
5.2790003 -1.3837186 0.43040237 0
5.2770004 -1.3919674 0.43039152 0
5.2760005 -1.4004868 0.43038613 0
5.2760005 -1.4092823 0.43038613 0
5.2780004 -1.4186403 0.43039694 0
5.2830005 -1.4288553 0.430424 0
5.1930003 -1.5244067 0.42993698 0
5.1900005 -1.5321215 0.42992073 0
5.1870003 -1.5398256 0.42990449 0
5.1840005 -1.5475188 0.42988828 0
5.1800003 -1.5548856 0.42986661 0
5.4230003 -1.0607792 0.42212108 0
5.4140005 -1.0680053 0.42208859 0
5.4080005 -1.0758158 0.42206696 0
5.4040003 -1.0840194 0.42205253 0
5.4010005 -1.0924181 0.42204171 0
5.4010005 -1.1014389 0.42204171 0
5.4010005 -1.1104597 0.42204171 0
5.4040003 -1.1201245 0.42205253 0
5.4090004 -1.130233 0.42207056 0
5.4200006 -1.1416693 0.42211026 0
5.3240004 -1.2095356 0.42176393 0
5.3210001 -1.2177033 0.42175311 0
5.3180003 -1.2258602 0.42174226 0
5.3140001 -1.2337644 0.42172784 0
5.3110003 -1.2418978 0.42171702 0
5.3080006 -1.2500204 0.4217062 0
5.3040004 -1.257885 0.42169178 0
5.3010001 -1.2659841 0.42168093 0
5.2980003 -1.2740723 0.42167011 0
5.2940001 -1.2818973 0.42165568 0
5.2910004 -1.2899621 0.42164487 0
5.2880001 -1.2980161 0.42163405 0
5.2840004 -1.3058014 0.42161962 0
5.2810001 -1.3138318 0.42160878 0
5.2780004 -1.3218516 0.42159796 0
5.2740002 -1.3295971 0.42158353 0
5.2710004 -1.3375934 0.42157272 0
5.2680001 -1.3455788 0.4215619 0
5.2650003 -1.3535535 0.42155108 0
5.2610002 -1.3612467 0.42153662 0
5.2580004 -1.369198 0.42152581 0
5.2550001 -1.3771383 0.42151499 0
5.2510004 -1.384792 0.42150056 0
5.2480001 -1.3927087 0.42148975 0
5.2450004 -1.4006149 0.42147893 0
5.2420001 -1.4085101 0.42146808 0
5.2380004 -1.4161115 0.42145365 0
5.2350001 -1.4239831 0.42144284 0
5.2320004 -1.4318442 0.42143202 0
5.2120004 -1.4781877 0.42135987 0
5.2090001 -1.4859692 0.42134905 0
5.2060003 -1.4937401 0.42133823 0
5.2030005 -1.5015001 0.42132741 0
5.2000003 -1.5092492 0.42131656 0
5.1960001 -1.5166808 0.42130214 0
5.1930003 -1.5244067 0.42129132 0
5.1900005 -1.5321215 0.4212805 0
5.1870003 -1.5398256 0.42126969 0
5.1840005 -1.5475188 0.42125887 0
5.1800003 -1.5548856 0.42124441 0
5.4230003 -1.0607792 0.41306055 0
5.4140005 -1.0680053 0.4130443 0
5.4080005 -1.0758158 0.41303349 0
5.4040003 -1.0840194 0.41302627 0
5.4010005 -1.0924181 0.41302085 0
5.4010005 -1.1014389 0.41302085 0
5.4010005 -1.1104597 0.41302085 0
5.4040003 -1.1201245 0.41302627 0
5.4090004 -1.130233 0.4130353 0
5.4200006 -1.1416693 0.41305512 0
5.3240004 -1.2095356 0.41288197 0
5.3210001 -1.2177033 0.41287655 0
5.3180003 -1.2258602 0.41287115 0
5.3140001 -1.2337644 0.41286394 0
5.3110003 -1.2418978 0.41285852 0
5.3080006 -1.2500204 0.41285309 0
5.3040004 -1.257885 0.41284588 0
5.3010001 -1.2659841 0.41284049 0
5.2980003 -1.2740723 0.41283506 0
5.2940001 -1.2818973 0.41282785 0
5.2910004 -1.2899621 0.41282243 0
5.2880001 -1.2980161 0.41281703 0
5.2840004 -1.3058014 0.41280982 0
5.2810001 -1.3138318 0.41280439 0
5.2780004 -1.3218516 0.412799 0
5.2740002 -1.3295971 0.41279179 0
5.2710004 -1.3375934 0.41278636 0
5.2680001 -1.3455788 0.41278094 0
5.2650003 -1.3535535 0.41277555 0
5.2610002 -1.3612467 0.41276833 0
5.2580004 -1.369198 0.41276291 0
5.2550001 -1.3771383 0.41275752 0
5.2510004 -1.384792 0.41275027 0
5.2480001 -1.3927087 0.41274488 0
5.2450004 -1.4006149 0.41273946 0
5.2420001 -1.4085101 0.41273406 0
5.2380004 -1.4161115 0.41272685 0
5.2350001 -1.4239831 0.41272143 0
5.2320004 -1.4318442 0.412716 0
5.2290001 -1.4396944 0.41271061 0
5.2190003 -1.462886 0.41269258 0
5.2160006 -1.4706911 0.41268715 0
5.2120004 -1.4781877 0.41267994 0
5.2090001 -1.4859692 0.41267452 0
5.2060003 -1.4937401 0.41266912 0
5.2030005 -1.5015001 0.4126637 0
5.2000003 -1.5092492 0.4126583 0
5.1960001 -1.5166808 0.41265109 0
5.1930003 -1.5244067 0.41264567 0
5.1900005 -1.5321215 0.41264024 0
5.1870003 -1.5398256 0.41263485 0
5.1840005 -1.5475188 0.41262943 0
5.1800003 -1.5548856 0.41262221 0
5.4230003 -1.0607792 0.40400001 0
5.4140005 -1.0680053 0.40400001 0
5.4080005 -1.0758158 0.40400001 0
5.4040003 -1.0840194 0.40400001 0
5.4010005 -1.0924181 0.40400001 0
5.4010005 -1.1014389 0.40400001 0
5.4010005 -1.1104597 0.40400001 0
5.4040003 -1.1201245 0.40400001 0
5.4090004 -1.130233 0.40400001 0
5.4200006 -1.1416693 0.40400001 0
5.3240004 -1.2095356 0.40400001 0
5.3210001 -1.2177033 0.40400001 0
5.3180003 -1.2258602 0.40400001 0
5.3140001 -1.2337644 0.40400001 0
5.3110003 -1.2418978 0.40400001 0
5.3080006 -1.2500204 0.40400001 0
5.3040004 -1.257885 0.40400001 0
5.3010001 -1.2659841 0.40400001 0
5.2980003 -1.2740723 0.40400001 0
5.2940001 -1.2818973 0.40400001 0
5.2910004 -1.2899621 0.40400001 0
5.2880001 -1.2980161 0.40400001 0
5.2840004 -1.3058014 0.40400001 0
5.2810001 -1.3138318 0.40400001 0
5.2780004 -1.3218516 0.40400001 0
5.2740002 -1.3295971 0.40400001 0
5.2710004 -1.3375934 0.40400001 0
5.2680001 -1.3455788 0.40400001 0
5.2650003 -1.3535535 0.40400001 0
5.2610002 -1.3612467 0.40400001 0
5.2580004 -1.369198 0.40400001 0
5.2550001 -1.3771383 0.40400001 0
5.2510004 -1.384792 0.40400001 0
5.2480001 -1.3927087 0.40400001 0
5.2450004 -1.4006149 0.40400001 0
5.2420001 -1.4085101 0.40400001 0
5.2380004 -1.4161115 0.40400001 0
5.2350001 -1.4239831 0.40400001 0
5.2320004 -1.4318442 0.40400001 0
5.2220001 -1.45507 0.40400001 0
5.2190003 -1.462886 0.40400001 0
5.2160006 -1.4706911 0.40400001 0
5.2120004 -1.4781877 0.40400001 0
5.2090001 -1.4859692 0.40400001 0
5.2060003 -1.4937401 0.40400001 0
5.2030005 -1.5015001 0.40400001 0
5.2000003 -1.5092492 0.40400001 0
5.1960001 -1.5166808 0.40400001 0
5.1930003 -1.5244067 0.40400001 0
5.1900005 -1.5321215 0.40400001 0
5.1870003 -1.5398256 0.40400001 0
5.1840005 -1.5475188 0.40400001 0
5.1800003 -1.5548856 0.40400001 0
5.4230003 -1.0607792 0.39493948 0
5.4140005 -1.0680053 0.39495572 0
5.4080005 -1.0758158 0.39496654 0
5.4040003 -1.0840194 0.39497375 0
5.4010005 -1.0924181 0.39497918 0
5.4010005 -1.1014389 0.39497918 0
5.4010005 -1.1104597 0.39497918 0
5.4040003 -1.1201245 0.39497375 0
5.4090004 -1.130233 0.39496472 0
5.3240004 -1.2095356 0.39511806 0
5.3210001 -1.2177033 0.39512348 0
5.3180003 -1.2258602 0.39512888 0
5.3140001 -1.2337644 0.39513609 0
5.3110003 -1.2418978 0.39514151 0
5.3080006 -1.2500204 0.39514694 0
5.3040004 -1.257885 0.39515415 0
5.3010001 -1.2659841 0.39515954 0
5.2980003 -1.2740723 0.39516497 0
5.2940001 -1.2818973 0.39517218 0
5.2910004 -1.2899621 0.3951776 0
5.2680001 -1.3455788 0.39521909 0
5.2650003 -1.3535535 0.39522448 0
5.2610002 -1.3612467 0.39523169 0
5.2580004 -1.369198 0.39523712 0
5.2550001 -1.3771383 0.39524251 0
5.2510004 -1.384792 0.39524975 0
5.2480001 -1.3927087 0.39525515 0
5.2450004 -1.4006149 0.39526057 0
5.2420001 -1.4085101 0.39526597 0
5.2190003 -1.462886 0.39530745 0
5.2160006 -1.4706911 0.39531288 0
5.2120004 -1.4781877 0.39532009 0
5.2090001 -1.4859692 0.39532551 0
5.2060003 -1.4937401 0.39533091 0
5.2030005 -1.5015001 0.39533633 0
5.2000003 -1.5092492 0.39534172 0
5.1960001 -1.5166808 0.39534894 0
5.1930003 -1.5244067 0.39535436 0
5.1900005 -1.5321215 0.39535978 0
5.1870003 -1.5398256 0.39536518 0
5.1840005 -1.5475188 0.3953706 0
5.1800003 -1.5548856 0.39537781 0
5.4230003 -1.0607792 0.38587895 0
5.4140005 -1.0680053 0.38591143 0
5.4080005 -1.0758158 0.38593307 0
5.4040003 -1.0840194 0.3859475 0
5.4010005 -1.0924181 0.38595831 0
5.4010005 -1.1014389 0.38595831 0
5.4010005 -1.1104597 0.38595831 0
5.4040003 -1.1201245 0.3859475 0
5.4090004 -1.130233 0.38592947 0
5.3530002 -1.2253226 0.3861315 0
5.3410006 -1.2313781 0.38617477 0
5.3340001 -1.2385986 0.38620004 0
5.3310003 -1.2467681 0.38621086 0
5.3300004 -1.2554173 0.38621446 0
5.3320003 -1.2648044 0.38620725 0
5.3390002 -1.2754432 0.38618201 0
5.2360005 -1.5027772 0.38655359 0
5.2250004 -1.5081669 0.38659325 0
5.2190003 -1.5150412 0.38661492 0
5.2160006 -1.522814 0.38662574 0
5.1930003 -1.5244067 0.38670871 0
5.1900005 -1.5321215 0.38671952 0
5.1870003 -1.5398256 0.38673034 0
5.1840005 -1.5475188 0.38674116 0
5.1800003 -1.5548856 0.38675562 0
5.4230003 -1.0607792 0.37681842 0
5.4140005 -1.0680053 0.37686712 0
5.4080005 -1.0758158 0.3768996 0
5.4040003 -1.0840194 0.37692124 0
5.4010005 -1.0924181 0.37693748 0
5.4010005 -1.1014389 0.37693748 0
5.4010005 -1.1104597 0.37693748 0
5.4040003 -1.1201245 0.37692124 0
5.4090004 -1.130233 0.37689418 0
5.3530002 -1.2253226 0.37719724 0
5.3410006 -1.2313781 0.37726218 0
5.3340001 -1.2385986 0.37730005 0
5.3310003 -1.2467681 0.37731627 0
5.3300004 -1.2554173 0.37732169 0
5.3320003 -1.2648044 0.37731087 0
5.3390002 -1.2754432 0.37727299 0
5.2360005 -1.5027772 0.37783036 0
5.2250004 -1.5081669 0.3778899 0
5.2190003 -1.5150412 0.37792236 0
5.2160006 -1.522814 0.3779386 0
5.1930003 -1.5244067 0.37806305 0
5.1900005 -1.5321215 0.3780793 0
5.1870003 -1.5398256 0.37809554 0
5.1840005 -1.5475188 0.37811175 0
5.1800003 -1.5548856 0.37813342 0
5.4230003 -1.0607792 0.36775789 0
5.4140005 -1.0680053 0.36782283 0
5.4080005 -1.0758158 0.36786613 0
5.4040003 -1.0840194 0.36789498 0
5.4010005 -1.0924181 0.36791664 0
5.4010005 -1.1014389 0.36791664 0
5.4010005 -1.1104597 0.36791664 0
5.4040003 -1.1201245 0.36789498 0
5.4090004 -1.130233 0.36785892 0
5.3530002 -1.2253226 0.36826298 0
5.3410006 -1.2313781 0.36834955 0
5.3340001 -1.2385986 0.36840007 0
5.3310003 -1.2467681 0.3684217 0
5.3300004 -1.2554173 0.36842892 0
5.3320003 -1.2648044 0.36841449 0
5.3390002 -1.2754432 0.36836398 0
5.2360005 -1.5027772 0.36910716 0
5.2250004 -1.5081669 0.36918652 0
5.2190003 -1.5150412 0.36922979 0
5.2160006 -1.522814 0.36925146 0
5.1930003 -1.5244067 0.3694174 0
5.1900005 -1.5321215 0.36943904 0
5.1870003 -1.5398256 0.3694607 0
5.1840005 -1.5475188 0.36948234 0
5.4230003 -1.0607792 0.35869735 0
5.4140005 -1.0680053 0.35877854 0
5.4080005 -1.0758158 0.35883266 0
5.4040003 -1.0840194 0.35886872 0
5.4010005 -1.0924181 0.35889578 0
5.4010005 -1.1014389 0.35889578 0
5.4010005 -1.1104597 0.35889578 0
5.4040003 -1.1201245 0.35886872 0
5.4090004 -1.130233 0.35882363 0
5.3530002 -1.2253226 0.35932872 0
5.3410006 -1.2313781 0.35943693 0
5.3350005 -1.2388403 0.35949105 0
5.3310003 -1.2467681 0.35952711 0
5.3300004 -1.2554173 0.35953614 0
5.3320003 -1.2648044 0.35951811 0
5.3390002 -1.2754432 0.35945496 0
5.2360005 -1.5027772 0.36038393 0
5.2250004 -1.5081669 0.36048314 0
5.2190003 -1.5150412 0.36053726 0
5.2160006 -1.522814 0.36056432 0
5.1930003 -1.5244067 0.36077175 0
5.1900005 -1.5321215 0.36079881 0
5.1870003 -1.5398256 0.36082587 0
5.1840005 -1.5475188 0.36085293 0
5.4230003 -1.0607792 0.34963685 0
5.4140005 -1.0680053 0.34973425 0
5.4080005 -1.0758158 0.34979919 0
5.4040003 -1.0840194 0.34984249 0
5.4010005 -1.0924181 0.34987494 0
5.4010005 -1.1014389 0.34987494 0
5.4010005 -1.1104597 0.34987494 0
5.4040003 -1.1201245 0.34984249 0
5.4090004 -1.130233 0.34978837 0
5.3530002 -1.2253226 0.35039443 0
5.3410006 -1.2313781 0.35052431 0
5.3350005 -1.2388403 0.35058925 0
5.3310003 -1.2467681 0.35063255 0
5.3300004 -1.2554173 0.35064337 0
5.3320003 -1.2648044 0.35062173 0
5.3390002 -1.2754432 0.35054597 0
5.2360005 -1.5027772 0.35166073 0
5.2250004 -1.5081669 0.35177976 0
5.2190003 -1.5150412 0.3518447 0
5.2160006 -1.522814 0.35187715 0
5.2150002 -1.5311924 0.351888 0
5.2160006 -1.5401882 0.35187715 0
5.2220001 -1.5507475 0.35181224 0
5.4230003 -1.0607792 0.34057632 0
5.4140005 -1.0680053 0.34068996 0
5.4080005 -1.0758158 0.34076571 0
5.4040003 -1.0840194 0.34081623 0
5.4010005 -1.0924181 0.34085411 0
5.4010005 -1.1014389 0.34085411 0
5.4010005 -1.1104597 0.34085411 0
5.4040003 -1.1201245 0.34081623 0
5.4090004 -1.130233 0.34075308 0
5.3530002 -1.2253226 0.34146017 0
5.3410006 -1.2313781 0.34161168 0
5.3350005 -1.2388403 0.34168747 0
5.3310003 -1.2467681 0.34173796 0
5.3300004 -1.2554173 0.34175059 0
5.3320003 -1.2648044 0.34172535 0
5.3390002 -1.2754432 0.34163696 0
5.2360005 -1.5027772 0.3429375 0
5.2250004 -1.5081669 0.34307641 0
5.2190003 -1.5150412 0.34315217 0
5.2160006 -1.522814 0.34319001 0
5.2150002 -1.5311924 0.34320265 0
5.2160006 -1.5401882 0.34319001 0
5.2220001 -1.5507475 0.34311426 0
5.4230003 -1.0607792 0.33151579 0
5.4140005 -1.0680053 0.33164567 0
5.4080005 -1.0758158 0.33173224 0
5.4040003 -1.0840194 0.33178997 0
5.4010005 -1.0924181 0.33183324 0
5.4010005 -1.1014389 0.33183324 0
5.4010005 -1.1104597 0.33183324 0
5.4040003 -1.1201245 0.33178997 0
5.4090004 -1.130233 0.33171782 0
5.3530002 -1.2253226 0.33252591 0
5.3410006 -1.2313781 0.33269906 0
5.3350005 -1.2388403 0.33278567 0
5.3310003 -1.2467681 0.33284339 0
5.3300004 -1.2554173 0.33285782 0
5.3320003 -1.2648044 0.33282894 0
5.3390002 -1.2754432 0.33272794 0
5.2360005 -1.5027772 0.33421427 0
5.2250004 -1.5081669 0.334373 0
5.2190003 -1.5150412 0.3344596 0
5.2160006 -1.522814 0.33450288 0
5.2150002 -1.5311924 0.33451733 0
5.2160006 -1.5401882 0.33450288 0
5.2220001 -1.5507475 0.3344163 0
5.4230003 -1.0607792 0.32245526 0
5.4140005 -1.0680053 0.32260138 0
5.4080005 -1.0758158 0.32269877 0
5.4040003 -1.0840194 0.32276371 0
5.4010005 -1.0924181 0.32281241 0
5.4010005 -1.1014389 0.32281241 0
5.4010005 -1.1104597 0.32281241 0
5.4040003 -1.1201245 0.32276371 0
5.4090004 -1.130233 0.32268253 0
5.3530002 -1.2253226 0.32359165 0
5.3410006 -1.2313781 0.32378647 0
5.3350005 -1.2388403 0.32388386 0
5.3310003 -1.2467681 0.3239488 0
5.3300004 -1.2554173 0.32396504 0
5.3320003 -1.2648044 0.32393259 0
5.3390002 -1.2754432 0.32381892 0
5.2360005 -1.5027772 0.32549107 0
5.2250004 -1.5081669 0.32566965 0
5.2190003 -1.5150412 0.32576704 0
5.2160006 -1.522814 0.32581574 0
5.2150002 -1.5311924 0.32583198 0
5.2160006 -1.5401882 0.32581574 0
5.2220001 -1.5507475 0.32571834 0
5.4230003 -1.0607792 0.31339473 0
5.4140005 -1.0680053 0.31355706 0
5.4080005 -1.0758158 0.3136653 0
5.4040003 -1.0840194 0.31373745 0
