# .PCD v0.7 - Point Cloud Data file format
VERSION 0.7
FIELDS x y z intensity
SIZE 4 4 4 4
TYPE F F F F
COUNT 1 1 1 1
WIDTH 1459
HEIGHT 1
VIEWPOINT 0 0 0 1 0 0 0
POINTS 1459
DATA ascii
3.6880002 1.8103784 0.73613161 0
3.6910002 1.8061358 0.73643464 0
3.6950002 1.8024434 0.7368387 0
3.6990004 1.7987367 0.73724282 0
3.7040002 1.7955728 0.73774779 0
3.7090003 1.7923908 0.73825288 0
3.7160003 1.7902985 0.73896003 0
3.8260002 1.6967168 0.75007141 0
3.8190002 1.6869888 0.74936438 0
3.8220003 1.6823369 0.74966741 0
3.8270001 1.6786805 0.75017244 0
3.8330002 1.6755077 0.75077856 0
3.8380003 1.6718135 0.75128365 0
3.8430002 1.6681012 0.75178862 0
3.6790001 1.840785 0.72930777 0
3.6800003 1.8354441 0.72940701 0
3.6800003 1.8295276 0.72940701 0
3.6810002 1.8241811 0.72950625 0
3.6830003 1.8193992 0.72970468 0
3.6850002 1.81461 0.72990304 0
3.6880002 1.8103784 0.73020071 0
3.6910002 1.8061358 0.73049831 0
3.6950002 1.8024434 0.73089516 0
3.6990004 1.7987367 0.73129201 0
3.7040002 1.7955728 0.73178804 0
3.7090003 1.7923908 0.73228407 0
3.7160003 1.7902985 0.73297858 0
3.8260002 1.6967168 0.7438916 0
3.8190002 1.6869888 0.74319714 0
3.8220003 1.6823369 0.74349475 0
3.8270001 1.6786805 0.74399078 0
3.8330002 1.6755077 0.74458605 0
3.8380003 1.6718135 0.74508214 0
3.8430002 1.6681012 0.74557817 0
3.6790001 1.840785 0.72339308 0
3.6800003 1.8354441 0.72349054 0
3.6800003 1.8295276 0.72349054 0
3.6810002 1.8241811 0.72358793 0
3.6830003 1.8193992 0.72378278 0
3.6850002 1.81461 0.72397757 0
3.6880002 1.8103784 0.72426975 0
3.6910002 1.8061358 0.72456199 0
3.6950002 1.8024434 0.72495162 0
3.6990004 1.7987367 0.7253412 0
3.7040002 1.7955728 0.72582829 0
3.7090003 1.7923908 0.72631532 0
3.7160003 1.7902985 0.72699714 0
3.8260002 1.6967168 0.73771179 0
3.8190002 1.6869888 0.73702991 0
3.8220003 1.6823369 0.73732209 0
3.8270001 1.6786805 0.73780918 0
3.8330002 1.6755077 0.73839355 0
3.8380003 1.6718135 0.73888063 0
3.8430002 1.6681012 0.7393676 0
3.6790001 1.840785 0.71747839 0
3.6800003 1.8354441 0.717574 0
3.6800003 1.8295276 0.717574 0
3.6810002 1.8241811 0.71766961 0
3.6830003 1.8193992 0.71786082 0
3.6850002 1.81461 0.71805203 0
3.6880002 1.8103784 0.71833885 0
3.6910002 1.8061358 0.71862566 0
3.6950002 1.8024434 0.71900809 0
3.6990004 1.7987367 0.71939051 0
3.7040002 1.7955728 0.71986848 0
3.7090003 1.7923908 0.72034651 0
3.7160003 1.7902985 0.72101569 0
3.8260002 1.6967168 0.73153186 0
3.8190002 1.6869888 0.73086268 0
3.8220003 1.6823369 0.73114949 0
3.8270001 1.6786805 0.73162746 0
3.8330002 1.6755077 0.7322011 0
3.8380003 1.6718135 0.73267913 0
3.8430002 1.6681012 0.73315716 0
3.6790001 1.840785 0.71156371 0
3.6800003 1.8354441 0.71165752 0
3.6800003 1.8295276 0.71165752 0
3.6810002 1.8241811 0.71175134 0
3.6830003 1.8193992 0.71193898 0
3.6850002 1.81461 0.71212649 0
3.6880002 1.8103784 0.71240795 0
3.6910002 1.8061358 0.71268928 0
3.6950002 1.8024434 0.71306449 0
3.6990004 1.7987367 0.7134397 0
3.7040002 1.7955728 0.71390867 0
3.7090003 1.7923908 0.7143777 0
3.7160003 1.7902985 0.71503425 0
3.8260002 1.6967168 0.72535205 0
3.8190002 1.6869888 0.72469544 0
3.8220003 1.6823369 0.7249769 0
3.8270001 1.6786805 0.72544587 0
3.8330002 1.6755077 0.72600865 0
3.8380003 1.6718135 0.72647762 0
3.8430002 1.6681012 0.72694659 0
3.6790001 1.840785 0.70564902 0
3.6800003 1.8354441 0.70574105 0
3.6800003 1.8295276 0.70574105 0
3.6810002 1.8241811 0.70583308 0
3.6830003 1.8193992 0.70601702 0
3.6850002 1.81461 0.70620102 0
3.6880002 1.8103784 0.70647699 0
3.6910002 1.8061358 0.70675302 0
3.6950002 1.8024434 0.70712095 0
3.6990004 1.7987367 0.70748895 0
3.7040002 1.7955728 0.70794892 0
3.7090003 1.7923908 0.70840889 0
3.7160003 1.7902985 0.70905286 0
3.8260002 1.6967168 0.71917224 0
3.8190002 1.6869888 0.71852827 0
3.8220003 1.6823369 0.71880424 0
3.8270001 1.6786805 0.71926421 0
3.8330002 1.6755077 0.71981621 0
3.8380003 1.6718135 0.72027612 0
3.8430002 1.6681012 0.72073615 0
3.6790001 1.840785 0.69973433 0
3.6800003 1.8354441 0.69982457 0
3.6800003 1.8295276 0.69982457 0
3.6810002 1.8241811 0.69991475 0
3.6830003 1.8193992 0.70009518 0
3.6850002 1.81461 0.70027554 0
3.6880002 1.8103784 0.70054609 0
3.6910002 1.8061358 0.70081663 0
3.6950002 1.8024434 0.70117742 0
3.6990004 1.7987367 0.70153821 0
3.7040002 1.7955728 0.70198917 0
3.7090003 1.7923908 0.70244008 0
3.7160003 1.7902985 0.70307148 0
3.8260002 1.6967168 0.71299231 0
3.8190002 1.6869888 0.71236104 0
3.8220003 1.6823369 0.71263158 0
3.8270001 1.6786805 0.71308255 0
3.8330002 1.6755077 0.7136237 0
3.8380003 1.6718135 0.71407461 0
3.8430002 1.6681012 0.71452558 0
3.6790001 1.840785 0.69381964 0
3.6800003 1.8354441 0.6939081 0
3.6800003 1.8295276 0.6939081 0
3.6810002 1.8241811 0.69399643 0
3.6830003 1.8193992 0.69417322 0
3.6850002 1.81461 0.69435 0
3.6880002 1.8103784 0.69461513 0
3.6910002 1.8061358 0.69488031 0
3.6950002 1.8024434 0.69523382 0
3.6990004 1.7987367 0.6955874 0
3.7040002 1.7955728 0.69602937 0
3.7090003 1.7923908 0.69647127 0
3.7160003 1.7902985 0.69709003 0
3.8260002 1.6967168 0.7068125 0
3.8190002 1.6869888 0.7061938 0
3.8220003 1.6823369 0.70645899 0
3.8270001 1.6786805 0.70690089 0
3.8330002 1.6755077 0.7074312 0
3.8380003 1.6718135 0.70787317 0
3.8430002 1.6681012 0.70831507 0
3.6790001 1.840785 0.68790495 0
3.6800003 1.8354441 0.68799156 0
3.6800003 1.8295276 0.68799156 0
3.6810002 1.8241811 0.68807817 0
3.6830003 1.8193992 0.68825138 0
3.6850002 1.81461 0.68842447 0
3.6880002 1.8103784 0.68868423 0
3.6910002 1.8061358 0.68894398 0
3.6950002 1.8024434 0.68929029 0
3.6990004 1.7987367 0.68963671 0
3.7040002 1.7955728 0.69006956 0
3.7090003 1.7923908 0.69050252 0
3.7160003 1.7902985 0.69110858 0
3.8260002 1.6967168 0.70063269 0
3.8190002 1.6869888 0.70002657 0
3.8220003 1.6823369 0.70028639 0
3.8270001 1.6786805 0.70071924 0
3.8330002 1.6755077 0.70123875 0
3.8380003 1.6718135 0.70167172 0
3.8430002 1.6681012 0.70210457 0
3.6790001 1.840785 0.68199033 0
3.6800003 1.8354441 0.68207508 0
3.6800003 1.8295276 0.68207508 0
3.6810002 1.8241811 0.6821599 0
3.6830003 1.8193992 0.68232942 0
3.6850002 1.81461 0.68249899 0
3.6880002 1.8103784 0.68275332 0
3.6910002 1.8061358 0.68300766 0
3.6950002 1.8024434 0.68334675 0
3.6990004 1.7987367 0.6836859 0
3.7040002 1.7955728 0.68410981 0
3.7090003 1.7923908 0.68453372 0
3.7160003 1.7902985 0.68512714 0
3.8260002 1.6967168 0.69445282 0
3.8190002 1.6869888 0.69385934 0
3.8220003 1.6823369 0.69411373 0
3.8270001 1.6786805 0.69453758 0
3.8330002 1.6755077 0.69504625 0
3.8380003 1.6718135 0.69547021 0
3.8430002 1.6681012 0.69589406 0
3.6790001 1.840785 0.67607558 0
3.6800003 1.8354441 0.67615861 0
3.6800003 1.8295276 0.67615861 0
3.6810002 1.8241811 0.67624158 0
3.6830003 1.8193992 0.67640752 0
3.6850002 1.81461 0.67657346 0
3.6880002 1.8103784 0.67682242 0
3.6910002 1.8061358 0.67707133 0
3.6950002 1.8024434 0.67740321 0
3.6990004 1.7987367 0.67773515 0
3.7040002 1.7955728 0.67815 0
3.7090003 1.7923908 0.67856491 0
3.7160003 1.7902985 0.67914569 0
3.8260002 1.6967168 0.68827295 0
3.8190002 1.6869888 0.68769217 0
3.8220003 1.6823369 0.68794107 0
3.8270001 1.6786805 0.68835592 0
3.8330002 1.6755077 0.6888538 0
3.8380003 1.6718135 0.68926871 0
3.8430002 1.6681012 0.68968356 0
3.6790001 1.840785 0.67016095 0
3.6800003 1.8354441 0.67024207 0
3.6800003 1.8295276 0.67024207 0
3.6810002 1.8241811 0.67032325 0
3.6830003 1.8193992 0.67048562 0
3.6850002 1.81461 0.67064798 0
3.6880002 1.8103784 0.67089152 0
3.6910002 1.8061358 0.67113495 0
3.6950002 1.8024434 0.67145967 0
3.6990004 1.7987367 0.6717844 0
3.7040002 1.7955728 0.67219019 0
3.7090003 1.7923908 0.6725961 0
3.7160003 1.7902985 0.67316431 0
3.8260002 1.6967168 0.68209314 0
3.8190002 1.6869888 0.68152493 0
3.8220003 1.6823369 0.68176842 0
3.8270001 1.6786805 0.68217432 0
3.8330002 1.6755077 0.68266129 0
3.8380003 1.6718135 0.6830672 0
3.8430002 1.6681012 0.68347299 0
3.6790001 1.840785 0.6642462 0
3.6800003 1.8354441 0.66432559 0
3.6800003 1.8295276 0.66432559 0
3.6810002 1.8241811 0.66440499 0
3.6830003 1.8193992 0.66456372 0
3.6850002 1.81461 0.66472244 0
3.6880002 1.8103784 0.6649605 0
3.6910002 1.8061358 0.66519868 0
3.6950002 1.8024434 0.66551614 0
3.6990004 1.7987367 0.66583359 0
3.7040002 1.7955728 0.66623044 0
3.7090003 1.7923908 0.66662729 0
3.7160003 1.7902985 0.66718286 0
3.8260002 1.6967168 0.67591327 0
3.8190002 1.6869888 0.6753577 0
3.8220003 1.6823369 0.67559582 0
3.8270001 1.6786805 0.67599261 0
3.8330002 1.6755077 0.67646885 0
3.8380003 1.6718135 0.6768657 0
3.8430002 1.6681012 0.67726254 0
3.6790001 1.840785 0.65833157 0
3.6800003 1.8354441 0.65840912 0
3.6800003 1.8295276 0.65840912 0
3.6810002 1.8241811 0.65848672 0
3.6830003 1.8193992 0.65864182 0
3.6850002 1.81461 0.65879691 0
3.6880002 1.8103784 0.6590296 0
3.6910002 1.8061358 0.6592623 0
3.6950002 1.8024434 0.6595726 0
3.6990004 1.7987367 0.65988284 0
3.7040002 1.7955728 0.66027069 0
3.7090003 1.7923908 0.66065848 0
3.7160003 1.7902985 0.66120148 0
3.8260002 1.6967168 0.66973341 0
3.8190002 1.6869888 0.66919053 0
3.8220003 1.6823369 0.66942322 0
3.8270001 1.6786805 0.66981101 0
3.8330002 1.6755077 0.6702764 0
3.8380003 1.6718135 0.67066419 0
3.8430002 1.6681012 0.67105198 0
3.6790001 1.840785 0.65241688 0
3.6800003 1.8354441 0.65249264 0
3.6800003 1.8295276 0.65249264 0
3.6810002 1.8241811 0.6525684 0
3.6830003 1.8193992 0.65271991 0
3.6850002 1.81461 0.65287143 0
3.6880002 1.8103784 0.6530987 0
3.6910002 1.8061358 0.65332597 0
3.6950002 1.8024434 0.653629 0
3.6990004 1.7987367 0.65393209 0
3.7040002 1.7955728 0.65431088 0
3.7090003 1.7923908 0.65468967 0
3.7160003 1.7902985 0.65522003 0
3.8260002 1.6967168 0.6635536 0
3.8190002 1.6869888 0.66302323 0
3.8220003 1.6823369 0.66325057 0
3.8270001 1.6786805 0.66362935 0
3.8330002 1.6755077 0.6640839 0
3.8380003 1.6718135 0.66446269 0
3.8430002 1.6681012 0.66484153 0
3.6790001 1.840785 0.64650214 0
3.6800003 1.8354441 0.64657617 0
3.6800003 1.8295276 0.64657617 0
3.6810002 1.8241811 0.64665008 0
3.6830003 1.8193992 0.64679801 0
3.6850002 1.81461 0.64694589 0
3.6880002 1.8103784 0.6471678 0
3.6910002 1.8061358 0.64738965 0
3.6950002 1.8024434 0.64768547 0
3.6990004 1.7987367 0.64798135 0
3.7040002 1.7955728 0.64835107 0
3.7090003 1.7923908 0.64872086 0
3.7160003 1.7902985 0.64923859 0
3.8260002 1.6967168 0.65737373 0
3.8190002 1.6869888 0.65685606 0
3.8220003 1.6823369 0.65707791 0
3.8270001 1.6786805 0.6574477 0
3.8330002 1.6755077 0.65789139 0
3.8380003 1.6718135 0.65826118 0
3.8430002 1.6681012 0.65863097 0
3.6790001 1.840785 0.64058751 0
3.6800003 1.8354441 0.64065969 0
3.6800003 1.8295276 0.64065969 0
3.6810002 1.8241811 0.64073181 0
3.6830003 1.8193992 0.64087611 0
3.6850002 1.81461 0.64102042 0
3.6880002 1.8103784 0.6412369 0
3.6910002 1.8061358 0.64145333 0
3.6950002 1.8024434 0.64174193 0
3.6990004 1.7987367 0.64203054 0
3.7040002 1.7955728 0.64239132 0
3.7090003 1.7923908 0.64275211 0
3.7160003 1.7902985 0.64325714 0
3.8260002 1.6967168 0.65119392 0
3.8190002 1.6869888 0.65068883 0
3.8220003 1.6823369 0.65090525 0
3.8270001 1.6786805 0.65126604 0
3.8330002 1.6755077 0.65169895 0
3.8380003 1.6718135 0.65205973 0
3.8430002 1.6681012 0.65242046 0
3.6790001 1.840785 0.63467282 0
3.6790001 1.8348706 0.63467282 0
3.6800003 1.8295276 0.63474315 0
3.6810002 1.8241811 0.63481355 0
3.6830003 1.8193992 0.63495421 0
3.6850002 1.81461 0.63509488 0
3.6880002 1.8103784 0.63530594 0
3.6910002 1.8061358 0.635517 0
3.6950002 1.8024434 0.63579839 0
3.6990004 1.7987367 0.63607979 0
3.7040002 1.7955728 0.63643152 0
3.7090003 1.7923908 0.63678324 0
3.7160003 1.7902985 0.6372757 0
3.8260002 1.6967168 0.64501405 0
3.8190002 1.6869888 0.64452159 0
3.8220003 1.6823369 0.64473265 0
3.8270001 1.6786805 0.64508438 0
3.8330002 1.6755077 0.6455065 0
3.8380003 1.6718135 0.64585823 0
3.8430002 1.6681012 0.64620996 0
3.6790001 1.840785 0.62875813 0
3.6790001 1.8348706 0.62875813 0
3.6800003 1.8295276 0.62882668 0
3.6810002 1.8241811 0.62889522 0
3.6830003 1.8193992 0.62903231 0
3.6850002 1.81461 0.6291694 0
3.6880002 1.8103784 0.62937504 0
3.6910002 1.8061358 0.62958068 0
3.6950002 1.8024434 0.62985486 0
3.6990004 1.7987367 0.63012904 0
3.7040002 1.7955728 0.63047171 0
3.7090003 1.7923908 0.63081449 0
3.7160003 1.7902985 0.63129431 0
3.8260002 1.6967168 0.63883418 0
3.8190002 1.6869888 0.63835442 0
3.8220003 1.6823369 0.63856006 0
3.8270001 1.6786805 0.63890272 0
3.8330002 1.6755077 0.63931406 0
3.8380003 1.6718135 0.63965678 0
3.8430002 1.6681012 0.63999945 0
3.6790001 1.840785 0.62284344 0
3.6790001 1.8348706 0.62284344 0
3.6800003 1.8295276 0.6229102 0
3.6810002 1.8241811 0.6229769 0
3.6830003 1.8193992 0.62311041 0
3.6850002 1.81461 0.62324387 0
3.6880002 1.8103784 0.62344408 0
3.6910002 1.8061358 0.62364435 0
3.6950002 1.8024434 0.62391126 0
3.6990004 1.7987367 0.62417829 0
3.7040002 1.7955728 0.62451196 0
3.7090003 1.7923908 0.62484568 0
3.7160003 1.7902985 0.62531286 0
3.8260002 1.6967168 0.63265431 0
3.8190002 1.6869888 0.63218719 0
3.8220003 1.6823369 0.6323874 0
3.8270001 1.6786805 0.63272107 0
3.8330002 1.6755077 0.63312155 0
3.8380003 1.6718135 0.63345528 0
3.8430002 1.6681012 0.63378894 0
3.6790001 1.840785 0.61692876 0
3.6790001 1.8348706 0.61692876 0
3.6800003 1.8295276 0.61699367 0
3.6810002 1.8241811 0.61705863 0
3.6830003 1.8193992 0.61718851 0
3.6850002 1.81461 0.61731839 0
3.6880002 1.8103784 0.61751318 0
3.6910002 1.8061358 0.61770797 0
3.6950002 1.8024434 0.61796772 0
3.6990004 1.7987367 0.61822748 0
3.7040002 1.7955728 0.61855221 0
3.7090003 1.7923908 0.61887687 0
3.7160003 1.7902985 0.61933142 0
3.8260002 1.6967168 0.6264745 0
3.8190002 1.6869888 0.62601995 0
3.8220003 1.6823369 0.62621474 0
3.8270001 1.6786805 0.62653947 0
3.8330002 1.6755077 0.62692904 0
3.8380003 1.6718135 0.62725377 0
3.8430002 1.6681012 0.62757844 0
3.6790001 1.840785 0.61101407 0
3.6790001 1.8348706 0.61101407 0
3.6800003 1.8295276 0.61107719 0
3.6810002 1.8241811 0.61114037 0
3.6830003 1.8193992 0.61126661 0
3.6850002 1.81461 0.61139286 0
3.6880002 1.8103784 0.61158228 0
3.6910002 1.8061358 0.61177164 0
3.6950002 1.8024434 0.61202419 0
3.6990004 1.7987367 0.61227673 0
3.7040002 1.7955728 0.6125924 0
3.7090003 1.7923908 0.61290807 0
3.7160003 1.7902985 0.61335003 0
3.8260002 1.6967168 0.62029469 0
3.8190002 1.6869888 0.61985272 0
3.8220003 1.6823369 0.62004215 0
3.8270001 1.6786805 0.62035775 0
3.8330002 1.6755077 0.6207366 0
3.8380003 1.6718135 0.62105227 0
3.8430002 1.6681012 0.62136793 0
3.6790001 1.840785 0.60509938 0
3.6790001 1.8348706 0.60509938 0
3.6800003 1.8295276 0.60516071 0
3.6810002 1.8241811 0.60522205 0
3.6830003 1.8193992 0.60534471 0
3.6850002 1.81461 0.60546732 0
3.6880002 1.8103784 0.60565138 0
3.6910002 1.8061358 0.60583532 0
3.6950002 1.8024434 0.60608065 0
3.6990004 1.7987367 0.60632598 0
3.7040002 1.7955728 0.60663259 0
3.7090003 1.7923908 0.60693926 0
3.7160003 1.7902985 0.60736859 0
3.8260002 1.6967168 0.61411482 0
3.8190002 1.6869888 0.61368549 0
3.8220003 1.6823369 0.61386949 0
3.8270001 1.6786805 0.61417615 0
3.8330002 1.6755077 0.61454409 0
3.8380003 1.6718135 0.61485076 0
3.8430002 1.6681012 0.61515743 0
3.6790001 1.840785 0.59918469 0
3.6790001 1.8348706 0.59918469 0
3.6800003 1.8295276 0.59924424 0
3.6810002 1.8241811 0.59930372 0
3.6830003 1.8193992 0.59942281 0
3.6850002 1.81461 0.59954184 0
3.6880002 1.8103784 0.59972042 0
3.6910002 1.8061358 0.59989899 0
3.6950002 1.8024434 0.60013711 0
3.6990004 1.7987367 0.60037524 0
3.7040002 1.7955728 0.60067284 0
3.7090003 1.7923908 0.60097045 0
3.7160003 1.7902985 0.60138714 0
3.8260002 1.6967168 0.60793495 0
3.8190002 1.6869888 0.60751832 0
3.8220003 1.6823369 0.60769689 0
3.8270001 1.6786805 0.6079945 0
3.8330002 1.6755077 0.60835165 0
3.8380003 1.6718135 0.60864925 0
3.8430002 1.6681012 0.60894692 0
3.6790001 1.840785 0.59327 0
3.6790001 1.8348706 0.59327 0
3.6800003 1.8295276 0.59332776 0
3.6810002 1.8241811 0.59338546 0
3.6830003 1.8193992 0.59350091 0
3.6850002 1.81461 0.59361637 0
3.6880002 1.8103784 0.59378952 0
3.6910002 1.8061358 0.59396267 0
3.6950002 1.8024434 0.59419358 0
3.6990004 1.7987367 0.59442443 0
3.7040002 1.7955728 0.59471303 0
3.7090003 1.7923908 0.5950017 0
3.7160003 1.7902985 0.5954057 0
3.8260002 1.6967168 0.60175514 0
3.8190002 1.6869888 0.60135108 0
3.8220003 1.6823369 0.60152423 0
3.8270001 1.6786805 0.60181284 0
3.8330002 1.6755077 0.60215914 0
3.8380003 1.6718135 0.60244775 0
3.8430002 1.6681012 0.60273635 0
3.6790001 1.840785 0.58735532 0
3.6790001 1.8348706 0.58735532 0
3.6800003 1.8295276 0.58741122 0
3.6810002 1.8241811 0.58746713 0
3.6830003 1.8193992 0.58757901 0
3.6850002 1.81461 0.58769083 0
3.6880002 1.8103784 0.58785856 0
3.6910002 1.8061358 0.58802634 0
3.6950002 1.8024434 0.58825004 0
3.6990004 1.7987367 0.58847368 0
3.7040002 1.7955728 0.58875328 0
3.7090003 1.7923908 0.58903289 0
3.7160003 1.7902985 0.58942425 0
3.8260002 1.6967168 0.59557527 0
3.8190002 1.6869888 0.59518385 0
3.8220003 1.6823369 0.59535158 0
3.8270001 1.6786805 0.59563118 0
3.8330002 1.6755077 0.5959667 0
3.8380003 1.6718135 0.5962463 0
3.8430002 1.6681012 0.59652591 0
3.6790001 1.840785 0.58144063 0
3.6790001 1.8348706 0.58144063 0
3.6800003 1.8295276 0.58149475 0
3.6810002 1.8241811 0.58154887 0
3.6830003 1.8193992 0.58165705 0
3.6850002 1.81461 0.58176529 0
3.6880002 1.8103784 0.58192766 0
3.6910002 1.8061358 0.58209002 0
3.6950002 1.8024434 0.58230644 0
3.6990004 1.7987367 0.58252293 0
3.7040002 1.7955728 0.58279347 0
3.7090003 1.7923908 0.58306408 0
3.7160003 1.7902985 0.58344287 0
3.8260002 1.6967168 0.5893954 0
3.8190002 1.6869888 0.58901662 0
3.8220003 1.6823369 0.58917898 0
3.8270001 1.6786805 0.58944952 0
3.8330002 1.6755077 0.58977425 0
3.8380003 1.6718135 0.5900448 0
3.8430002 1.6681012 0.59031534 0
3.6790001 1.840785 0.57552594 0
3.6790001 1.8348706 0.57552594 0
3.6800003 1.8295276 0.57557821 0
3.6810002 1.8241811 0.57563055 0
3.6830003 1.8193992 0.57573521 0
3.6850002 1.81461 0.57583982 0
3.6880002 1.8103784 0.57599676 0
3.6910002 1.8061358 0.57615364 0
3.6950002 1.8024434 0.57636291 0
3.6990004 1.7987367 0.57657218 0
3.7040002 1.7955728 0.57683372 0
3.7090003 1.7923908 0.57709527 0
3.7160003 1.7902985 0.57746142 0
3.8260002 1.6967168 0.58321559 0
3.8190002 1.6869888 0.58284938 0
3.8220003 1.6823369 0.58300632 0
3.8270001 1.6786805 0.58326787 0
3.8330002 1.6755077 0.58358175 0
3.8380003 1.6718135 0.58384329 0
3.8430002 1.6681012 0.58410484 0
3.6790001 1.840785 0.56961125 0
3.6790001 1.8348706 0.56961125 0
3.6800003 1.8295276 0.56966174 0
3.6810002 1.8241811 0.56971228 0
3.6830003 1.8193992 0.56981325 0
3.6850002 1.81461 0.56991428 0
3.6880002 1.8103784 0.5700658 0
3.6910002 1.8061358 0.57021731 0
3.6950002 1.8024434 0.57041937 0
3.6990004 1.7987367 0.57062137 0
3.7040002 1.7955728 0.57087392 0
3.7090003 1.7923908 0.57112646 0
3.7160003 1.7902985 0.57148004 0
3.8260002 1.6967168 0.57703573 0
3.8190002 1.6869888 0.57668221 0
3.8220003 1.6823369 0.57683372 0
3.8270001 1.6786805 0.57708621 0
3.8330002 1.6755077 0.57738924 0
3.8380003 1.6718135 0.57764184 0
3.8430002 1.6681012 0.57789433 0
3.6790001 1.840785 0.56369656 0
3.6790001 1.8348706 0.56369656 0
3.6800003 1.8295276 0.56374526 0
3.6810002 1.8241811 0.56379396 0
3.6830003 1.8193992 0.56389141 0
3.6850002 1.81461 0.5639888 0
3.6880002 1.8103784 0.5641349 0
3.6910002 1.8061358 0.56428099 0
3.6950002 1.8024434 0.56447583 0
3.6990004 1.7987367 0.56467062 0
3.7040002 1.7955728 0.56491411 0
3.7090003 1.7923908 0.56515765 0
3.7160003 1.7902985 0.56549859 0
3.8260002 1.6967168 0.57085586 0
3.8190002 1.6869888 0.57051498 0
3.8220003 1.6823369 0.57066107 0
3.8270001 1.6786805 0.57090461 0
3.8330002 1.6755077 0.57119679 0
3.8380003 1.6718135 0.57144034 0
3.8430002 1.6681012 0.57168382 0
3.6790001 1.840785 0.55778188 0
3.6790001 1.8348706 0.55778188 0
3.6800003 1.8295276 0.55782878 0
3.6810002 1.8241811 0.55787569 0
3.6830003 1.8193992 0.55796945 0
3.6850002 1.81461 0.55806327 0
3.6880002 1.8103784 0.558204 0
3.6910002 1.8061358 0.55834466 0
3.6950002 1.8024434 0.55853224 0
3.6990004 1.7987367 0.55871987 0
3.7040002 1.7955728 0.55895436 0
3.7090003 1.7923908 0.55918884 0
3.7160003 1.7902985 0.55951715 0
3.8260002 1.6967168 0.56467605 0
3.8190002 1.6869888 0.56434774 0
3.8220003 1.6823369 0.56448841 0
3.8270001 1.6786805 0.56472296 0
3.8330002 1.6755077 0.56500435 0
3.8380003 1.6718135 0.56523883 0
3.8430002 1.6681012 0.56547332 0
3.6790001 1.840785 0.55186719 0
3.6790001 1.8348706 0.55186719 0
3.6800003 1.8295276 0.55191231 0
3.6810002 1.8241811 0.55195737 0
3.6830003 1.8193992 0.55204761 0
3.6850002 1.81461 0.55213773 0
3.6880002 1.8103784 0.55227304 0
3.6910002 1.8061358 0.55240834 0
3.6950002 1.8024434 0.5525887 0
3.6990004 1.7987367 0.55276906 0
3.7040002 1.7955728 0.55299461 0
3.7090003 1.7923908 0.55322003 0
3.7160003 1.7902985 0.5535357 0
3.8260002 1.6967168 0.55849618 0
3.8190002 1.6869888 0.55818051 0
3.8220003 1.6823369 0.55831581 0
3.8270001 1.6786805 0.5585413 0
3.8330002 1.6755077 0.55881184 0
3.8380003 1.6718135 0.55903733 0
3.8430002 1.6681012 0.55926281 0
3.6790001 1.840785 0.5459525 0
3.6790001 1.8348706 0.5459525 0
3.6800003 1.8295276 0.54599577 0
3.6810002 1.8241811 0.5460391 0
3.6830003 1.8193992 0.54612565 0
3.6850002 1.81461 0.54621226 0
3.6880002 1.8103784 0.54634213 0
3.6910002 1.8061358 0.54647201 0
3.6950002 1.8024434 0.54664516 0
3.6990004 1.7987367 0.54681838 0
3.7040002 1.7955728 0.5470348 0
3.7090003 1.7923908 0.54725122 0
3.7160003 1.7902985 0.54755431 0
3.8260002 1.6967168 0.55231631 0
3.8190002 1.6869888 0.55201328 0
3.8220003 1.6823369 0.55214322 0
3.8270001 1.6786805 0.55235964 0
3.8330002 1.6755077 0.55261934 0
3.8380003 1.6718135 0.55283582 0
3.8430002 1.6681012 0.55305231 0
3.6790001 1.840785 0.54003781 0
3.6790001 1.8348706 0.54003781 0
3.6800003 1.8295276 0.5400793 0
3.6810002 1.8241811 0.54012078 0
3.6830003 1.8193992 0.54020375 0
3.6850002 1.81461 0.54028672 0
3.6880002 1.8103784 0.54041123 0
3.6910002 1.8061358 0.54053569 0
3.6950002 1.8024434 0.54070163 0
3.6990004 1.7987367 0.54086757 0
3.7040002 1.7955728 0.54107499 0
3.7090003 1.7923908 0.54128242 0
3.7160003 1.7902985 0.54157287 0
3.8260002 1.6967168 0.5461365 0
3.8190002 1.6869888 0.5458461 0
3.8220003 1.6823369 0.54597056 0
3.8270001 1.6786805 0.54617798 0
3.8330002 1.6755077 0.54642689 0
3.8380003 1.6718135 0.54663432 0
3.8430002 1.6681012 0.5468418 0
3.6790001 1.840785 0.53412312 0
3.6790001 1.8348706 0.53412312 0
3.6800003 1.8295276 0.53416282 0
3.6810002 1.8241811 0.53420252 0
3.6830003 1.8193992 0.53428185 0
3.6850002 1.81461 0.53436124 0
3.6880002 1.8103784 0.53448027 0
3.6910002 1.8061358 0.5345993 0
3.6950002 1.8024434 0.53475809 0
3.6990004 1.7987367 0.53491682 0
3.7040002 1.7955728 0.53511524 0
3.7090003 1.7923908 0.53531367 0
3.7160003 1.7902985 0.53559142 0
3.8260002 1.6967168 0.53995663 0
3.8190002 1.6869888 0.53967887 0
3.8220003 1.6823369 0.5397979 0
3.8270001 1.6786805 0.53999633 0
3.8330002 1.6755077 0.54023445 0
3.8380003 1.6718135 0.54043287 0
3.8430002 1.6681012 0.54063129 0
3.6790001 1.840785 0.52820843 0
3.6790001 1.8348706 0.52820843 0
3.6800003 1.8295276 0.52824634 0
3.6810002 1.8241811 0.52828419 0
3.6830003 1.8193992 0.52835995 0
3.6850002 1.81461 0.52843571 0
3.6880002 1.8103784 0.52854937 0
3.6910002 1.8061358 0.52866298 0
3.6950002 1.8024434 0.52881449 0
3.6990004 1.7987367 0.52896607 0
3.7040002 1.7955728 0.52915543 0
3.7090003 1.7923908 0.52934486 0
3.7160003 1.7902985 0.52961004 0
3.8260002 1.6967168 0.53377676 0
3.8190002 1.6869888 0.53351164 0
3.8220003 1.6823369 0.5336253 0
3.8270001 1.6786805 0.53381467 0
3.8330002 1.6755077 0.53404194 0
3.8380003 1.6718135 0.53423136 0
3.8430002 1.6681012 0.53442073 0
3.6790001 1.840785 0.52229375 0
3.6790001 1.8348706 0.52229375 0
3.6800003 1.8295276 0.52232981 0
3.6810002 1.8241811 0.52236593 0
3.6830003 1.8193992 0.52243805 0
3.6850002 1.81461 0.52251023 0
3.6880002 1.8103784 0.52261841 0
3.6910002 1.8061358 0.52272666 0
3.6950002 1.8024434 0.52287096 0
3.6990004 1.7987367 0.52301526 0
3.7040002 1.7955728 0.52319568 0
3.7090003 1.7923908 0.52337605 0
3.7160003 1.7902985 0.52362859 0
3.8260002 1.6967168 0.52759695 0
3.8190002 1.6869888 0.52734441 0
3.8220003 1.6823369 0.52745265 0
3.8270001 1.6786805 0.52763301 0
3.8330002 1.6755077 0.5278495 0
3.8380003 1.6718135 0.52802986 0
3.8430002 1.6681012 0.52821022 0
3.6790001 1.840785 0.51637906 0
3.6790001 1.8348706 0.51637906 0
3.6800003 1.8295276 0.51641333 0
3.6810002 1.8241811 0.5164476 0
3.6830003 1.8193992 0.51651615 0
3.6850002 1.81461 0.51658469 0
3.6880002 1.8103784 0.51668751 0
3.6910002 1.8061358 0.51679033 0
3.6950002 1.8024434 0.51692742 0
3.6990004 1.7987367 0.51706451 0
3.7040002 1.7955728 0.51723588 0
3.7090003 1.7923908 0.51740724 0
3.7160003 1.7902985 0.51764715 0
3.8260002 1.6967168 0.52141708 0
3.8190002 1.6869888 0.52117723 0
3.8220003 1.6823369 0.52128005 0
3.8270001 1.6786805 0.52145135 0
3.8330002 1.6755077 0.52165699 0
3.8380003 1.6718135 0.52182841 0
3.8430002 1.6681012 0.52199972 0
3.6790001 1.840785 0.51046437 0
3.6790001 1.8348706 0.51046437 0
3.6800003 1.8295276 0.51049685 0
3.6810002 1.8241811 0.51052934 0
3.6830003 1.8193992 0.51059425 0
3.6850002 1.81461 0.51065922 0
3.6880002 1.8103784 0.51075661 0
3.6910002 1.8061358 0.51085401 0
3.6950002 1.8024434 0.51098388 0
3.6990004 1.7987367 0.51111376 0
3.7040002 1.7955728 0.51127613 0
3.7090003 1.7923908 0.51143843 0
3.7160003 1.7902985 0.5116657 0
3.8260002 1.6967168 0.51523727 0
3.8190002 1.6869888 0.51501 0
3.8220003 1.6823369 0.51510739 0
3.8270001 1.6786805 0.51526976 0
3.8330002 1.6755077 0.51546454 0
3.8380003 1.6718135 0.51562691 0
3.8430002 1.6681012 0.51578921 0
3.6790001 1.840785 0.50454968 0
3.6790001 1.8348706 0.50454968 0
3.6800003 1.8295276 0.50458038 0
3.6810002 1.8241811 0.50461102 0
3.6830003 1.8193992 0.50467235 0
3.6850002 1.81461 0.50473368 0
3.6880002 1.8103784 0.50482571 0
3.6910002 1.8061358 0.50491768 0
3.6950002 1.8024434 0.50504035 0
3.6990004 1.7987367 0.50516301 0
3.7040002 1.7955728 0.50531632 0
3.7090003 1.7923908 0.50546962 0
3.7160003 1.7902985 0.50568432 0
3.8260002 1.6967168 0.5090574 0
3.8190002 1.6869888 0.50884277 0
3.8220003 1.6823369 0.50893474 0
3.8270001 1.6786805 0.5090881 0
3.8330002 1.6755077 0.50927204 0
3.8380003 1.6718135 0.5094254 0
3.8430002 1.6681012 0.5095787 0
3.6790001 1.840785 0.49863499 0
3.6790001 1.8348706 0.49863499 0
3.6800003 1.8295276 0.49866387 0
3.6810002 1.8241811 0.49869272 0
3.6830003 1.8193992 0.49875045 0
3.6850002 1.81461 0.49880818 0
3.6880002 1.8103784 0.49889475 0
3.6910002 1.8061358 0.49898136 0
3.6950002 1.8024434 0.49909678 0
3.6990004 1.7987367 0.49921224 0
3.7040002 1.7955728 0.49935654 0
3.7090003 1.7923908 0.49950084 0
3.7160003 1.7902985 0.49970287 0
3.8260002 1.6967168 0.50287759 0
3.8190002 1.6869888 0.50267553 0
3.8220003 1.6823369 0.50276214 0
3.8270001 1.6786805 0.50290644 0
3.8330002 1.6755077 0.50307959 0
3.8380003 1.6718135 0.5032239 0
3.8430002 1.6681012 0.5033682 0
3.6790001 1.840785 0.49272031 0
3.6790001 1.8348706 0.49272031 0
3.6800003 1.8295276 0.49274737 0
3.6810002 1.8241811 0.49277443 0
3.6830003 1.8193992 0.49282855 0
3.6850002 1.81461 0.49288267 0
3.6880002 1.8103784 0.49296382 0
3.6910002 1.8061358 0.493045 0
3.6950002 1.8024434 0.49315324 0
3.6990004 1.7987367 0.49326146 0
3.7040002 1.7955728 0.49339676 0
3.7090003 1.7923908 0.49353203 0
3.7160003 1.7902985 0.49372143 0
3.8260002 1.6967168 0.49669772 0
3.8190002 1.6869888 0.49650833 0
3.8220003 1.6823369 0.49658948 0
3.8270001 1.6786805 0.49672478 0
3.8330002 1.6755077 0.49688712 0
3.8380003 1.6718135 0.49702239 0
3.8430002 1.6681012 0.49715769 0
3.6790001 1.840785 0.48680562 0
3.6790001 1.8348706 0.48680562 0
3.6800003 1.8295276 0.48683089 0
3.6810002 1.8241811 0.48685613 0
3.6830003 1.8193992 0.48690665 0
3.6850002 1.81461 0.48695716 0
3.6880002 1.8103784 0.48703292 0
3.6910002 1.8061358 0.48710868 0
3.6950002 1.8024434 0.48720968 0
3.6990004 1.7987367 0.48731071 0
3.7040002 1.7955728 0.48743695 0
3.7090003 1.7923908 0.48756325 0
3.7160003 1.7902985 0.48774001 0
3.8260002 1.6967168 0.49051785 0
3.8190002 1.6869888 0.4903411 0
3.8220003 1.6823369 0.49041685 0
3.8270001 1.6786805 0.49054313 0
3.8330002 1.6755077 0.49069464 0
3.8380003 1.6718135 0.49082091 0
3.8430002 1.6681012 0.49094719 0
3.6790001 1.840785 0.48089093 0
3.6790001 1.8348706 0.48089093 0
3.6800003 1.8295276 0.48091441 0
3.6810002 1.8241811 0.48093784 0
3.6830003 1.8193992 0.48098475 0
3.6850002 1.81461 0.48103166 0
3.6880002 1.8103784 0.48110199 0
3.6910002 1.8061358 0.48117232 0
3.6950002 1.8024434 0.48126614 0
3.6990004 1.7987367 0.48135996 0
3.7040002 1.7955728 0.4814772 0
3.7090003 1.7923908 0.48159444 0
3.7160003 1.7902985 0.48175859 0
3.8260002 1.6967168 0.48433802 0
3.8190002 1.6869888 0.48417389 0
3.8220003 1.6823369 0.48424423 0
3.8270001 1.6786805 0.48436147 0
3.8330002 1.6755077 0.48450217 0
3.8380003 1.6718135 0.48461944 0
3.8430002 1.6681012 0.48473668 0
3.6790001 1.840785 0.47497624 0
3.6790001 1.8348706 0.47497624 0
3.6800003 1.8295276 0.47499791 0
3.6810002 1.8241811 0.47501954 0
3.6830003 1.8193992 0.47506285 0
3.6850002 1.81461 0.47510612 0
3.6880002 1.8103784 0.47517109 0
3.6910002 1.8061358 0.475236 0
3.6950002 1.8024434 0.4753226 0
3.6990004 1.7987367 0.47540918 0
3.7040002 1.7955728 0.47551739 0
3.7090003 1.7923908 0.47562563 0
3.7160003 1.7902985 0.47577715 0
3.8260002 1.6967168 0.47815818 0
3.8190002 1.6869888 0.47800666 0
3.8220003 1.6823369 0.4780716 0
3.8270001 1.6786805 0.47817981 0
3.8330002 1.6755077 0.47830969 0
3.8380003 1.6718135 0.47841793 0
3.8430002 1.6681012 0.47852615 0
3.6790001 1.840785 0.46906155 0
3.6790001 1.8348706 0.46906155 0
3.6800003 1.8295276 0.4690814 0
3.6810002 1.8241811 0.46910125 0
3.6830003 1.8193992 0.46914095 0
3.6850002 1.81461 0.46918064 0
3.6880002 1.8103784 0.46924013 0
3.6910002 1.8061358 0.46929967 0
3.6950002 1.8024434 0.46937904 0
3.6990004 1.7987367 0.4694584 0
3.7040002 1.7955728 0.46955761 0
3.7090003 1.7923908 0.46965683 0
3.7160003 1.7902985 0.46979573 0
3.8260002 1.6967168 0.47197834 0
3.8190002 1.6869888 0.47183943 0
3.8220003 1.6823369 0.47189897 0
3.8270001 1.6786805 0.47199816 0
3.8330002 1.6755077 0.47211722 0
3.8380003 1.6718135 0.47221643 0
3.8430002 1.6681012 0.47231564 0
3.6790001 1.840785 0.4631469 0
3.6790001 1.8348706 0.4631469 0
3.6800003 1.8295276 0.46316493 0
3.6810002 1.8241811 0.46318296 0
3.6830003 1.8193992 0.46321905 0
3.6850002 1.81461 0.46325511 0
3.6880002 1.8103784 0.46330923 0
3.6910002 1.8061358 0.46336335 0
3.6950002 1.8024434 0.4634355 0
3.6990004 1.7987367 0.46350765 0
3.7040002 1.7955728 0.46359783 0
3.7090003 1.7923908 0.46368805 0
3.7160003 1.7902985 0.46381429 0
3.8260002 1.6967168 0.4657985 0
3.8190002 1.6869888 0.46567222 0
3.8220003 1.6823369 0.46572632 0
3.8270001 1.6786805 0.46581653 0
3.8330002 1.6755077 0.46592474 0
3.8380003 1.6718135 0.46601495 0
3.8430002 1.6681012 0.46610513 0
3.6790001 1.840785 0.45723221 0
3.6790001 1.8348706 0.45723221 0
3.6800003 1.8295276 0.45724845 0
3.6810002 1.8241811 0.45726466 0
3.6830003 1.8193992 0.45729715 0
3.6850002 1.81461 0.4573296 0
3.6880002 1.8103784 0.4573783 0
3.6910002 1.8061358 0.45742702 0
3.6950002 1.8024434 0.45749193 0
3.6990004 1.7987367 0.45755687 0
3.7040002 1.7955728 0.45763806 0
3.7090003 1.7923908 0.45771924 0
3.7160003 1.7902985 0.45783287 0
3.8260002 1.6967168 0.45961863 0
3.8190002 1.6869888 0.45950499 0
3.8220003 1.6823369 0.45955369 0
3.8270001 1.6786805 0.45963487 0
3.8330002 1.6755077 0.45973226 0
3.8380003 1.6718135 0.45981345 0
3.8430002 1.6681012 0.45989463 0
3.6790001 1.840785 0.45131752 0
3.6790001 1.8348706 0.45131752 0
3.6800003 1.8295276 0.45133194 0
3.6810002 1.8241811 0.45134637 0
3.6830003 1.8193992 0.45137525 0
3.6850002 1.81461 0.45140409 0
3.6880002 1.8103784 0.4514474 0
3.6910002 1.8061358 0.45149067 0
3.6950002 1.8024434 0.4515484 0
3.6990004 1.7987367 0.45160612 0
3.7040002 1.7955728 0.45167828 0
3.7090003 1.7923908 0.45175043 0
3.7160003 1.7902985 0.45185143 0
3.8260002 1.6967168 0.45343879 0
3.8190002 1.6869888 0.45333779 0
3.8220003 1.6823369 0.45338106 0
3.8270001 1.6786805 0.45345321 0
3.8330002 1.6755077 0.45353979 0
3.8380003 1.6718135 0.45361197 0
3.8430002 1.6681012 0.45368409 0
3.6790001 1.840785 0.44540283 0
3.6790001 1.8348706 0.44540283 0
3.6800003 1.8295276 0.44541544 0
3.6810002 1.8241811 0.44542807 0
3.6830003 1.8193992 0.44545335 0
3.6850002 1.81461 0.44547859 0
3.6880002 1.8103784 0.44551647 0
3.6910002 1.8061358 0.44555435 0
3.6950002 1.8024434 0.44560486 0
3.6990004 1.7987367 0.44565535 0
3.7040002 1.7955728 0.4457185 0
3.7090003 1.7923908 0.44578162 0
3.7160003 1.7902985 0.44587001 0
3.8260002 1.6967168 0.44725895 0
3.8190002 1.6869888 0.44717056 0
3.8220003 1.6823369 0.44720843 0
3.8270001 1.6786805 0.44727156 0
3.8330002 1.6755077 0.44734734 0
3.8380003 1.6718135 0.44741046 0
3.8430002 1.6681012 0.44747359 0
3.6790001 1.8348706 0.43948814 0
3.6800003 1.8295276 0.43949896 0
3.6810002 1.8241811 0.43950978 0
3.6830003 1.8193992 0.43953145 0
3.6850002 1.81461 0.43955308 0
3.6880002 1.8103784 0.43958554 0
3.6910002 1.8061358 0.43961802 0
3.6950002 1.8024434 0.43966129 0
3.6990004 1.7987367 0.4397046 0
3.7040002 1.7955728 0.43975872 0
3.7090003 1.7923908 0.43981284 0
3.7160003 1.7902985 0.4398886 0
3.8260002 1.6967168 0.44107908 0
3.8190002 1.6869888 0.44100332 0
3.8220003 1.6823369 0.44103581 0
3.8270001 1.6786805 0.44108993 0
3.8330002 1.6755077 0.44115484 0
3.8380003 1.6718135 0.44120896 0
3.8430002 1.6681012 0.44126308 0
3.6800003 1.8295276 0.43358248 0
3.6810002 1.8241811 0.43359149 0
3.6830003 1.8193992 0.43360952 0
3.6850002 1.81461 0.43362758 0
3.6880002 1.8103784 0.43365461 0
3.6910002 1.8061358 0.43368167 0
3.6950002 1.8024434 0.43371776 0
3.6990004 1.7987367 0.43375382 0
3.7040002 1.7955728 0.43379894 0
3.7090003 1.7923908 0.43384403 0
3.8260002 1.6967168 0.43489924 0
3.8190002 1.6869888 0.43483612 0
3.8220003 1.6823369 0.43486318 0
3.8270001 1.6786805 0.43490827 0
3.8330002 1.6755077 0.43496239 0
3.8380003 1.6718135 0.43500748 0
3.8430002 1.6681012 0.43505257 0
3.6830003 1.8193992 0.42768762 0
3.6850002 1.81461 0.42770207 0
3.6880002 1.8103784 0.42772371 0
3.6910002 1.8061358 0.42774534 0
3.6950002 1.8024434 0.42777419 0
3.6990004 1.7987367 0.42780307 0
3.7040002 1.7955728 0.42783913 0
3.7090003 1.7923908 0.42787522 0
3.8260002 1.6967168 0.4287194 0
3.8190002 1.6869888 0.42866889 0
3.8220003 1.6823369 0.42869055 0
3.8270001 1.6786805 0.42872661 0
3.8330002 1.6755077 0.42876992 0
3.8380003 1.6718135 0.42880598 0
3.8430002 1.6681012 0.42884207 0
3.6600003 1.7945698 0.42164126 0
3.6650002 1.7915034 0.42166832 0
3.6690001 1.7878578 0.42168996 0
3.6740003 1.7847571 0.42171702 0
3.6790001 1.7816383 0.42174408 0
3.6840003 1.7785015 0.42177114 0
3.6880002 1.7747928 0.42179278 0
3.6930003 1.7716218 0.42181984 0
3.6980002 1.7684326 0.4218469 0
3.7030003 1.7652255 0.42187396 0
3.8020003 1.6967818 0.42240968 0
3.8070002 1.6931976 0.42243674 0
3.8120003 1.6895953 0.4224638 0
3.8170002 1.6859751 0.42249086 0
3.8220003 1.6823369 0.4225179 0
3.8270001 1.6786805 0.42254496 0
3.8330002 1.6755077 0.42257744 0
3.8380003 1.6718135 0.4226045 0
3.8430002 1.6681012 0.42263156 0
3.6510003 1.801217 0.41572839 0
3.6550002 1.7976182 0.41574281 0
3.6600003 1.7945698 0.41576084 0
3.6650002 1.7915034 0.41577888 0
3.6690001 1.7878578 0.4157933 0
3.6740003 1.7847571 0.41581136 0
3.6790001 1.7816383 0.41582939 0
3.6840003 1.7785015 0.41584742 0
3.6880002 1.7747928 0.41586185 0
3.6930003 1.7716218 0.41587991 0
3.6980002 1.7684326 0.41589794 0
3.7030003 1.7652255 0.41591597 0
3.7080002 1.7620002 0.415934 0
3.7120004 1.7582123 0.41594845 0
3.7170002 1.7549528 0.41596648 0
3.7220004 1.7516754 0.41598451 0
3.7970002 1.7003479 0.41625509 0
3.8020003 1.6967818 0.41627312 0
3.8070002 1.6931976 0.41629118 0
3.8120003 1.6895953 0.41630921 0
3.8170002 1.6859751 0.41632724 0
3.8220003 1.6823369 0.41634527 0
3.8270001 1.6786805 0.41636333 0
3.8330002 1.6755077 0.41638497 0
3.8380003 1.6718135 0.416403 0
3.8430002 1.6681012 0.41642103 0
3.6510003 1.801217 0.40986419 0
3.6550002 1.7976182 0.4098714 0
3.6600003 1.7945698 0.40988043 0
3.6650002 1.7915034 0.40988946 0
3.6690001 1.7878578 0.40989667 0
3.6740003 1.7847571 0.40990567 0
3.6790001 1.7816383 0.4099147 0
3.6840003 1.7785015 0.40992373 0
3.6880002 1.7747928 0.40993094 0
3.6930003 1.7716218 0.40993994 0
3.6980002 1.7684326 0.40994897 0
3.7030003 1.7652255 0.409958 0
3.7080002 1.7620002 0.40996701 0
3.7120004 1.7582123 0.40997422 0
3.7170002 1.7549528 0.40998325 0
3.7220004 1.7516754 0.40999228 0
3.7270002 1.7483797 0.41000128 0
3.7320004 1.7450662 0.41001031 0
3.7370002 1.7417345 0.41001931 0
3.7420003 1.7383848 0.41002834 0
3.7470002 1.7350171 0.41003737 0
3.7520003 1.7316314 0.41004637 0
3.7560003 1.727699 0.41005358 0
3.7610002 1.7242789 0.41006261 0
3.7660003 1.7208409 0.41007164 0
3.7710001 1.7173848 0.41008064 0
3.7760003 1.7139108 0.41008967 0
3.7810001 1.7104186 0.4100987 0
3.7870002 1.7074261 0.41010952 0
3.7920003 1.703896 0.41011852 0
3.7970002 1.7003479 0.41012755 0
3.8020003 1.6967818 0.41013658 0
3.8070002 1.6931976 0.41014558 0
3.8120003 1.6895953 0.41015461 0
3.8170002 1.6859751 0.41016364 0
3.8220003 1.6823369 0.41017264 0
3.8270001 1.6786805 0.41018167 0
3.8330002 1.6755077 0.41019249 0
3.8380003 1.6718135 0.41020152 0
3.8430002 1.6681012 0.41021052 0
3.6510003 1.801217 0.40400001 0
3.6550002 1.7976182 0.40400001 0
3.6600003 1.7945698 0.40400001 0
3.6650002 1.7915034 0.40400001 0
3.6690001 1.7878578 0.40400001 0
3.6740003 1.7847571 0.40400001 0
3.6790001 1.7816383 0.40400001 0
3.6840003 1.7785015 0.40400001 0
3.6880002 1.7747928 0.40400001 0
3.6930003 1.7716218 0.40400001 0
3.6980002 1.7684326 0.40400001 0
3.7030003 1.7652255 0.40400001 0
3.7080002 1.7620002 0.40400001 0
3.7120004 1.7582123 0.40400001 0
3.7170002 1.7549528 0.40400001 0
3.7220004 1.7516754 0.40400001 0
3.7270002 1.7483797 0.40400001 0
3.7320004 1.7450662 0.40400001 0
3.7370002 1.7417345 0.40400001 0
3.7420003 1.7383848 0.40400001 0
3.7470002 1.7350171 0.40400001 0
3.7520003 1.7316314 0.40400001 0
3.7560003 1.727699 0.40400001 0
3.7610002 1.7242789 0.40400001 0
3.7660003 1.7208409 0.40400001 0
3.7710001 1.7173848 0.40400001 0
3.7760003 1.7139108 0.40400001 0
3.7810001 1.7104186 0.40400001 0
3.7870002 1.7074261 0.40400001 0
3.7920003 1.703896 0.40400001 0
3.7970002 1.7003479 0.40400001 0
3.8020003 1.6967818 0.40400001 0
3.8070002 1.6931976 0.40400001 0
3.8120003 1.6895953 0.40400001 0
3.8170002 1.6859751 0.40400001 0
3.8220003 1.6823369 0.40400001 0
3.8270001 1.6786805 0.40400001 0
3.8330002 1.6755077 0.40400001 0
3.8380003 1.6718135 0.40400001 0
3.8430002 1.6681012 0.40400001 0
3.6550002 1.7976182 0.39812863 0
3.6600003 1.7945698 0.3981196 0
3.6650002 1.7915034 0.39811057 0
3.6690001 1.7878578 0.39810336 0
3.6740003 1.7847571 0.39809436 0
3.6790001 1.7816383 0.39808533 0
3.6840003 1.7785015 0.3980763 0
3.6880002 1.7747928 0.39806908 0
3.6930003 1.7716218 0.39806008 0
3.6980002 1.7684326 0.39805105 0
3.7030003 1.7652255 0.39804202 0
3.7080002 1.7620002 0.39803302 0
3.7810001 1.7104186 0.39790133 0
3.7870002 1.7074261 0.39789051 0
3.7920003 1.703896 0.39788151 0
3.7970002 1.7003479 0.39787248 0
3.8020003 1.6967818 0.39786345 0
3.8070002 1.6931976 0.39785445 0
3.8120003 1.6895953 0.39784542 0
3.8170002 1.6859751 0.39783639 0
3.8220003 1.6823369 0.39782739 0
3.8270001 1.6786805 0.39781836 0
3.8330002 1.6755077 0.39780754 0
3.8380003 1.6718135 0.39779851 0
3.8430002 1.6681012 0.39778951 0
3.7920003 1.703896 0.39176297 0
3.7970002 1.7003479 0.39174494 0
3.8020003 1.6967818 0.39172691 0
3.8070002 1.6931976 0.39170885 0
3.8120003 1.6895953 0.39169082 0
3.8170002 1.6859751 0.39167279 0
3.8220003 1.6823369 0.39165476 0
3.8270001 1.6786805 0.3916367 0
3.8330002 1.6755077 0.39161506 0
3.8380003 1.6718135 0.39159703 0
3.8430002 1.6681012 0.391579 0
3.8090003 1.7249645 0.38555247 0
3.8110003 1.7198508 0.38554165 0
3.8140004 1.7152456 0.38552541 0
3.8170002 1.7106296 0.38550916 0
3.8220003 1.7070274 0.38548213 0
3.8280003 1.7039177 0.38544965 0
3.8260002 1.6967168 0.38546047 0
3.8190002 1.6869888 0.38549834 0
3.8220003 1.6823369 0.38548213 0
3.8270001 1.6786805 0.38545507 0
3.8330002 1.6755077 0.38542259 0
3.8380003 1.6718135 0.38539553 0
3.8080003 1.7305924 0.37941051 0
3.8090003 1.7249645 0.37940329 0
3.8110003 1.7198508 0.37938887 0
3.8140004 1.7152456 0.3793672 0
3.8170002 1.7106296 0.37934557 0
3.8220003 1.7070274 0.37930948 0
3.8280003 1.7039177 0.3792662 0
3.8260002 1.6967168 0.37928063 0
3.8190002 1.6869888 0.37933114 0
3.8220003 1.6823369 0.37930948 0
3.8270001 1.6786805 0.37927341 0
3.8330002 1.6755077 0.37923011 0
3.8380003 1.6718135 0.37919405 0
3.9790003 1.9746747 0.37172085 0
3.9810002 1.9693444 0.37170282 0
3.9830003 1.9640071 0.37168479 0
3.9860003 1.9592214 0.37165773 0
3.9910002 1.9555397 0.37161264 0
3.8080003 1.7305924 0.37326312 0
3.8090003 1.7249645 0.37325409 0
3.8110003 1.7198508 0.37323606 0
3.8140004 1.7152456 0.373209 0
3.8170002 1.7106296 0.37318194 0
3.8220003 1.7070274 0.37313685 0
3.8280003 1.7039177 0.37308273 0
3.8260002 1.6967168 0.37310079 0
3.8190002 1.6869888 0.37316391 0
3.8220003 1.6823369 0.37313685 0
3.8270001 1.6786805 0.37309176 0
3.8330002 1.6755077 0.37303764 0
3.9790003 1.9811304 0.36526504 0
3.9790003 1.9746747 0.36526504 0
3.9810002 1.9693444 0.36524341 0
3.9830003 1.9640071 0.36522174 0
3.9860003 1.9592214 0.36518928 0
3.9910002 1.9555397 0.36513516 0
3.9960003 1.9518404 0.36508104 0
3.8090003 1.7372628 0.36710492 0
3.8080003 1.7305924 0.36711574 0
3.8090003 1.7249645 0.36710492 0
3.8110003 1.7198508 0.36708328 0
3.8140004 1.7152456 0.3670508 0
3.8170002 1.7106296 0.36701834 0
3.8220003 1.7070274 0.36696422 0
3.8280003 1.7039177 0.36689928 0
3.8260002 1.6967168 0.36692095 0
3.8190002 1.6869888 0.36699671 0
3.8220003 1.6823369 0.36696422 0
3.8270001 1.6786805 0.3669101 0
3.9790003 1.9811304 0.3588092 0
3.9790003 1.9746747 0.3588092 0
3.9810002 1.9693444 0.35878396 0
3.9830003 1.9640071 0.35875869 0
3.9860003 1.9592214 0.35872081 0
3.9910002 1.9555397 0.35865769 0
3.9960003 1.9518404 0.35859457 0
3.9990003 1.9470152 0.35855669 0
3.8090003 1.7372628 0.36095574 0
3.8080003 1.7305924 0.36096835 0
3.8090003 1.7249645 0.36095574 0
3.8110003 1.7198508 0.36093047 0
3.8140004 1.7152456 0.36089259 0
3.8170002 1.7106296 0.36085472 0
3.8220003 1.7070274 0.36079159 0
3.8280003 1.7039177 0.36071584 0
3.8260002 1.6967168 0.36074108 0
3.8190002 1.6869888 0.36082947 0
3.8220003 1.6823369 0.36079159 0
3.9790003 1.9811304 0.35235336 0
3.9790003 1.9746747 0.35235336 0
3.9810002 1.9693444 0.35232452 0
3.9830003 1.9640071 0.35229567 0
3.9860003 1.9592214 0.35225236 0
3.9910002 1.9555397 0.35218021 0
3.9960003 1.9518404 0.35210806 0
3.8110003 1.7444619 0.35477769 0
3.8090003 1.7372628 0.35480654 0
3.8080003 1.7305924 0.354821 0
3.8090003 1.7249645 0.35480654 0
3.8110003 1.7198508 0.35477769 0
3.8140004 1.7152456 0.35473439 0
3.8170002 1.7106296 0.35469112 0
3.8220003 1.7070274 0.35461897 0
3.8280003 1.7039177 0.35453236 0
3.9790003 1.9811304 0.34589756 0
3.9790003 1.9746747 0.34589756 0
3.9810002 1.9693444 0.34586507 0
3.9830003 1.9640071 0.34583262 0
3.9860003 1.9592214 0.34578392 0
3.9910002 1.9555397 0.34570274 0
3.9960003 1.9518404 0.34562156 0
3.8110003 1.7444619 0.34862491 0
3.8090003 1.7372628 0.34865737 0
3.8080003 1.7305924 0.34867361 0
3.8090003 1.7249645 0.34865737 0
3.8110003 1.7198508 0.34862491 0
3.8140004 1.7152456 0.34857619 0
3.8170002 1.7106296 0.34852749 0
3.8220003 1.7070274 0.34844634 0
3.8280003 1.7039177 0.34834892 0
3.9790003 1.9811304 0.33944172 0
3.9790003 1.9746747 0.33944172 0
3.9810002 1.9693444 0.33940566 0
3.9830003 1.9640071 0.33936957 0
3.9860003 1.9592214 0.33931544 0
3.9910002 1.9555397 0.33922526 0
3.9960003 1.9518404 0.33913505 0
3.8110003 1.7444619 0.34247211 0
3.8090003 1.7372628 0.3425082 0
3.8080003 1.7305924 0.34252623 0
3.8090003 1.7249645 0.3425082 0
3.8110003 1.7198508 0.34247211 0
3.8140004 1.7152456 0.34241799 0
3.8170002 1.7106296 0.34236389 0
3.8220003 1.7070274 0.34227371 0
3.8280003 1.7039177 0.34216547 0
3.9790003 1.9811304 0.33298588 0
3.9790003 1.9746747 0.33298588 0
3.9810002 1.9693444 0.33294621 0
3.9830003 1.9640071 0.33290651 0
3.9860003 1.9592214 0.332847 0
3.9910002 1.9555397 0.33274779 0
3.9960003 1.9518404 0.33264858 0
3.8110003 1.7444619 0.33631933 0
3.8090003 1.7372628 0.33635902 0
3.8080003 1.7305924 0.33637884 0
3.8090003 1.7249645 0.33635902 0
3.8110003 1.7198508 0.33631933 0
3.8140004 1.7152456 0.33625978 0
3.8170002 1.7106296 0.33620027 0
3.8220003 1.7070274 0.33610106 0
3.8280003 1.7039177 0.33598202 0
3.9790003 1.9811304 0.32653007 0
3.9790003 1.9746747 0.32653007 0
3.9810002 1.9693444 0.32648677 0
3.9830003 1.9640071 0.32644349 0
3.9860003 1.9592214 0.32637852 0
3.9910002 1.9555397 0.32627031 0
3.9960003 1.9518404 0.3261621 0
3.8110003 1.7444619 0.33016652 0
3.8090003 1.7372628 0.33020982 0
3.8080003 1.7305924 0.33023149 0
3.8090003 1.7249645 0.33020982 0
3.8110003 1.7198508 0.33016652 0
3.8140004 1.7152456 0.33010161 0
3.8170002 1.7106296 0.33003667 0
3.8220003 1.7070274 0.32992843 0
3.8280003 1.7039177 0.32979855 0
3.9790003 1.9811304 0.32007423 0
3.9790003 1.9746747 0.32007423 0
3.9810002 1.9693444 0.32002732 0
3.9830003 1.9640071 0.31998044 0
3.9860003 1.9592214 0.31991008 0
3.9910002 1.9555397 0.31979284 0
3.9960003 1.9518404 0.31967559 0
3.8110003 1.7444619 0.32401374 0
3.8090003 1.7372628 0.32406065 0
3.8080003 1.7305924 0.3240841 0
3.8090003 1.7249645 0.32406065 0
3.8110003 1.7198508 0.32401374 0
3.8140004 1.7152456 0.32394338 0
3.8170002 1.7106296 0.32387304 0
3.8220003 1.7070274 0.3237558 0
3.8280003 1.7039177 0.3236151 0
3.9790003 1.9811304 0.31361839 0
3.9790003 1.9746747 0.31361839 0
3.9810002 1.9693444 0.31356788 0
3.9830003 1.9640071 0.31351739 0
3.9860003 1.9592214 0.31344163 0
3.9910002 1.9555397 0.31331536 0
3.9960003 1.9518404 0.31318909 0
3.8110003 1.7444619 0.31786096 0
3.8090003 1.7372628 0.31791145 0
3.8080003 1.7305924 0.31793672 0
3.8090003 1.7249645 0.31791145 0
3.8110003 1.7198508 0.31786096 0
3.8140004 1.7152456 0.3177852 0
3.8170002 1.7106296 0.31770945 0
3.8220003 1.7070274 0.31758317 0
3.8280003 1.7039177 0.31743163 0
3.9790003 1.9811304 0.30716258 0
3.9790003 1.9746747 0.30716258 0
3.9810002 1.9693444 0.30710846 0
3.9830003 1.9640071 0.30705434 0
3.9860003 1.9592214 0.30697316 0
3.9910002 1.9555397 0.30683789 0
3.9960003 1.9518404 0.30670261 0
3.8110003 1.7444619 0.31170815 0
3.8090003 1.7372628 0.31176227 0
3.8080003 1.7305924 0.31178933 0
3.8090003 1.7249645 0.31176227 0
3.8110003 1.7198508 0.31170815 0
3.8140004 1.7152456 0.311627 0
3.8170002 1.7106296 0.31154582 0
3.8220003 1.7070274 0.31141055 0
3.8280003 1.7039177 0.31124818 0
3.9790003 1.9811304 0.30070674 0
3.9790003 1.9746747 0.30070674 0
3.9810002 1.9693444 0.30064902 0
3.9830003 1.9640071 0.30059129 0
3.9860003 1.9592214 0.30050471 0
3.9910002 1.9555397 0.30036041 0
3.9960003 1.9518404 0.30021611 0
3.8110003 1.7444619 0.30555537 0
3.8090003 1.7372628 0.3056131 0
3.8080003 1.7305924 0.30564195 0
3.8090003 1.7249645 0.3056131 0
3.8110003 1.7198508 0.30555537 0
3.8140004 1.7152456 0.3054688 0
3.8170002 1.7106296 0.30538222 0
3.8220003 1.7070274 0.30523789 0
3.8280003 1.7039177 0.30506474 0
3.9790003 1.9811304 0.29425091 0
3.9790003 1.9746747 0.29425091 0
3.9810002 1.9693444 0.29418957 0
3.9830003 1.9640071 0.29412824 0
3.9860003 1.9592214 0.29403627 0
3.9910002 1.9555397 0.29388294 0
3.9960003 1.9518404 0.2937296 0
3.8110003 1.7444619 0.29940259 0
3.8090003 1.7372628 0.29946393 0
3.8080003 1.7305924 0.29949456 0
3.8090003 1.7249645 0.29946393 0
3.8110003 1.7198508 0.29940259 0
3.8140004 1.7152456 0.29931059 0
3.8170002 1.7106296 0.2992186 0
3.8220003 1.7070274 0.29906526 0
3.8280003 1.7039177 0.29888129 0
3.9790003 1.9811304 0.28779507 0
3.9790003 1.9746747 0.28779507 0
3.9810002 1.9693444 0.28773016 0
3.9830003 1.9640071 0.28766519 0
3.9860003 1.9592214 0.28756779 0
3.9910002 1.9555397 0.28740546 0
3.9960003 1.9518404 0.28724313 0
3.8110003 1.7444619 0.29324979 0
3.8090003 1.7372628 0.29331473 0
3.8080003 1.7305924 0.29334718 0
3.8090003 1.7249645 0.29331473 0
3.8110003 1.7198508 0.29324979 0
3.8140004 1.7152456 0.29315239 0
