# .PCD v0.7 - Point Cloud Data file format
VERSION 0.7
FIELDS x y z intensity
SIZE 4 4 4 4
TYPE F F F F
COUNT 1 1 1 1
WIDTH 1414
HEIGHT 1
VIEWPOINT 0 0 0 1 0 0 0
POINTS 1414
DATA ascii
3.5320003 -0.43016788 1.4152654 0
3.5260003 -0.43507063 1.4133282 0
3.5200002 -0.43995172 1.4113909 0
3.5140002 -0.44481117 1.4094535 0
3.5080001 -0.44964898 1.4075162 0
3.5020003 -0.45446518 1.4055791 0
3.4960003 -0.45925969 1.4036417 0
3.4900002 -0.46403256 1.4017044 0
3.4840002 -0.46878377 1.399767 0
3.4780002 -0.47351336 1.3978298 0
3.4730003 -0.47836202 1.3962154 0
3.4670002 -0.48305011 1.3942782 0
3.4610002 -0.48771656 1.3923408 0
3.4550002 -0.49236137 1.3904035 0
3.4490004 -0.49698454 1.3884662 0
3.4440002 -0.50173575 1.3868519 0
3.4380002 -0.50631744 1.3849145 0
3.4320002 -0.51087743 1.3829772 0
3.4260004 -0.51541585 1.38104 0
3.4210002 -0.52008951 1.3794255 0
3.4150002 -0.52458638 1.3774883 0
3.4090002 -0.52906162 1.375551 0
3.4040003 -0.53367758 1.3739365 0
3.3980002 -0.53811139 1.3719993 0
3.3930001 -0.54268944 1.3703848 0
3.3870003 -0.54708171 1.3684475 0
3.3810003 -0.55145234 1.3665104 0
3.3760002 -0.55597264 1.3648959 0
3.3700001 -0.56030178 1.3629586 0
3.3650002 -0.56478429 1.3613442 0
3.3600001 -0.56924868 1.3597298 0
3.3540003 -0.57351649 1.3577925 0
3.3490002 -0.57794309 1.356178 0
3.3430002 -0.58216935 1.3542408 0
3.3380003 -0.58655804 1.3526264 0
3.3330002 -0.59092861 1.351012 0
3.3270001 -0.59509367 1.3490746 0
3.3220003 -0.59942645 1.3474603 0
3.3170002 -0.60374111 1.3458458 0
3.3110003 -0.60784477 1.3439085 0
3.3060002 -0.61212164 1.3422941 0
3.3010001 -0.61638039 1.3406796 0
3.2960002 -0.6206212 1.3390653 0
3.2900002 -0.62464362 1.337128 0
3.2850003 -0.62884653 1.3355137 0
3.2800002 -0.63303131 1.3338993 0
3.2750003 -0.63719815 1.3322849 0
3.2700002 -0.64134693 1.3306705 0
3.2650003 -0.64547765 1.329056 0
3.2600002 -0.64959031 1.3274416 0
3.2540002 -0.65347207 1.3255043 0
3.2490003 -0.65754694 1.32389 0
3.2440002 -0.66160363 1.3222755 0
3.2390003 -0.66564238 1.3206611 0
3.2340002 -0.66966307 1.3190466 0
3.2290003 -0.67366576 1.3174323 0
3.2240002 -0.67765039 1.3158178 0
3.2190003 -0.68161696 1.3142035 0
3.2150002 -0.68579274 1.3129119 0
3.2100003 -0.68972504 1.3112975 0
3.2050002 -0.69363928 1.3096831 0
3.2000003 -0.69753551 1.3080688 0
3.1950002 -0.70141369 1.3064543 0
3.1950002 -0.70645535 1.3064543 0
3.1950002 -0.71149701 1.3064543 0
3.1950002 -0.71653867 1.3064543 0
3.1950002 -0.72158027 1.3064543 0
3.1950002 -0.72662193 1.3064543 0
3.1950002 -0.73166353 1.3064543 0
3.8120003 -0.20601945 1.4995178 0
3.8040001 -0.21178441 1.4969491 0
3.7970002 -0.21757104 1.4947015 0
3.7900002 -0.22333239 1.4924541 0
3.7830002 -0.2290685 1.4902065 0
3.7760003 -0.23477936 1.4879589 0
3.7690003 -0.24046497 1.4857113 0
3.7620003 -0.24612531 1.4834639 0
3.7550004 -0.25176039 1.4812163 0
3.7480001 -0.25737023 1.4789687 0
3.7410002 -0.26295483 1.4767212 0
3.7340002 -0.26851416 1.4744736 0
3.7270002 -0.27404824 1.4722261 0
3.7200003 -0.27955711 1.4699786 0
3.7130003 -0.28504065 1.467731 0
3.7060003 -0.29049897 1.4654834 0
3.7000003 -0.29600781 1.463557 0
3.6930003 -0.30141747 1.4613096 0
3.6860003 -0.30680183 1.4590619 0
3.6790001 -0.31216094 1.4568143 0
3.6730003 -0.31757778 1.454888 0
3.6660004 -0.3228882 1.4526403 0
3.6590002 -0.32817334 1.4503927 0
3.6530004 -0.33352163 1.4484664 0
3.6460001 -0.33875808 1.4462188 0
3.6400003 -0.34406129 1.4442923 0
3.6330001 -0.34924901 1.4420447 0
3.6270003 -0.35450712 1.4401184 0
3.6200004 -0.3596462 1.4378707 0
3.6140003 -0.36485919 1.4359443 0
3.6070004 -0.36994955 1.4336969 0
3.6010003 -0.37511745 1.4317703 0
3.5950003 -0.38026372 1.4298438 0
3.5880003 -0.38528189 1.4275963 0
3.5820003 -0.39038306 1.4256699 0
3.5760002 -0.3954626 1.4237432 0
3.5690002 -0.40040866 1.4214958 0
3.5630002 -0.40544307 1.4195694 0
3.5570002 -0.41045585 1.4176428 0
3.5510004 -0.415447 1.4157164 0
3.5450003 -0.42041647 1.41379 0
3.5390003 -0.42536435 1.4118634 0
3.5320003 -0.43016788 1.4096159 0
3.5260003 -0.43507063 1.4076895 0
3.5200002 -0.43995172 1.405763 0
3.5140002 -0.44481117 1.4038364 0
3.5080001 -0.44964898 1.4019099 0
3.5020003 -0.45446518 1.3999836 0
3.4960003 -0.45925969 1.3980571 0
3.4900002 -0.46403256 1.3961306 0
3.4840002 -0.46878377 1.3942041 0
3.4780002 -0.47351336 1.3922777 0
3.4730003 -0.47836202 1.3906723 0
3.4670002 -0.48305011 1.3887458 0
3.4610002 -0.48771656 1.3868194 0
3.4550002 -0.49236137 1.3848929 0
3.4490004 -0.49698454 1.3829665 0
3.4440002 -0.50173575 1.381361 0
3.4380002 -0.50631744 1.3794346 0
3.4320002 -0.51087743 1.377508 0
3.4260004 -0.51541585 1.3755817 0
3.4210002 -0.52008951 1.3739762 0
3.4150002 -0.52458638 1.3720498 0
3.4090002 -0.52906162 1.3701233 0
3.4040003 -0.53367758 1.368518 0
3.3980002 -0.53811139 1.3665915 0
3.3930001 -0.54268944 1.3649861 0
3.3870003 -0.54708171 1.3630596 0
3.3810003 -0.55145234 1.3611332 0
3.3760002 -0.55597264 1.3595277 0
3.3700001 -0.56030178 1.3576013 0
3.3650002 -0.56478429 1.3559959 0
3.3600001 -0.56924868 1.3543905 0
3.3540003 -0.57351649 1.352464 0
3.3490002 -0.57794309 1.3508586 0
3.3430002 -0.58216935 1.3489321 0
3.3380003 -0.58655804 1.3473269 0
3.3330002 -0.59092861 1.3457214 0
3.3270001 -0.59509367 1.3437948 0
3.3220003 -0.59942645 1.3421896 0
3.3170002 -0.60374111 1.3405842 0
3.3110003 -0.60784477 1.3386576 0
3.3060002 -0.61212164 1.3370522 0
3.3010001 -0.61638039 1.3354468 0
3.2960002 -0.6206212 1.3338416 0
3.2900002 -0.62464362 1.331915 0
3.2850003 -0.62884653 1.3303096 0
3.2800002 -0.63303131 1.3287042 0
3.2750003 -0.63719815 1.3270988 0
3.2700002 -0.64134693 1.3254935 0
3.2650003 -0.64547765 1.3238881 0
3.2600002 -0.64959031 1.3222827 0
3.2540002 -0.65347207 1.3203562 0
3.2490003 -0.65754694 1.3187509 0
3.2440002 -0.66160363 1.3171455 0
3.2390003 -0.66564238 1.3155401 0
3.2340002 -0.66966307 1.3139347 0
3.2290003 -0.67366576 1.3123293 0
3.2240002 -0.67765039 1.3107239 0
3.2190003 -0.68161696 1.3091185 0
3.2150002 -0.68579274 1.3078341 0
3.2110002 -0.6899541 1.3065499 0
3.2110002 -0.69502461 1.3065499 0
3.2110002 -0.70009512 1.3065499 0
3.2110002 -0.70516568 1.3065499 0
3.2110002 -0.71023619 1.3065499 0
3.2110002 -0.71530664 1.3065499 0
3.8120003 -0.20601945 1.4933631 0
3.8040001 -0.21178441 1.4908088 0
3.7970002 -0.21757104 1.488574 0
3.7900002 -0.22333239 1.4863391 0
3.7830002 -0.2290685 1.4841042 0
3.7760003 -0.23477936 1.4818692 0
3.7690003 -0.24046497 1.4796344 0
3.7620003 -0.24612531 1.4773995 0
3.7550004 -0.25176039 1.4751645 0
3.7480001 -0.25737023 1.4729296 0
3.7410002 -0.26295483 1.4706947 0
3.7340002 -0.26851416 1.4684597 0
3.7270002 -0.27404824 1.4662248 0
3.7200003 -0.27955711 1.4639899 0
3.7130003 -0.28504065 1.461755 0
3.7060003 -0.29049897 1.4595201 0
3.7000003 -0.29600781 1.4576044 0
3.6930003 -0.30141747 1.4553695 0
3.6860003 -0.30680183 1.4531347 0
3.6790001 -0.31216094 1.4508996 0
3.6730003 -0.31757778 1.448984 0
3.6660004 -0.3228882 1.4467491 0
3.6590002 -0.32817334 1.4445142 0
3.6530004 -0.33352163 1.4425986 0
3.6460001 -0.33875808 1.4403635 0
3.6400003 -0.34406129 1.4384481 0
3.6330001 -0.34924901 1.436213 0
3.6270003 -0.35450712 1.4342974 0
3.6200004 -0.3596462 1.4320626 0
3.6140003 -0.36485919 1.4301469 0
3.6070004 -0.36994955 1.427912 0
3.6010003 -0.37511745 1.4259963 0
3.5950003 -0.38026372 1.4240806 0
3.5880003 -0.38528189 1.4218458 0
3.5820003 -0.39038306 1.4199301 0
3.5760002 -0.3954626 1.4180145 0
3.5690002 -0.40040866 1.4157795 0
3.5630002 -0.40544307 1.4138639 0
3.5570002 -0.41045585 1.4119482 0
3.5510004 -0.415447 1.4100326 0
3.5450003 -0.42041647 1.4081169 0
3.5390003 -0.42536435 1.4062014 0
3.5320003 -0.43016788 1.4039663 0
3.5260003 -0.43507063 1.4020506 0
3.5200002 -0.43995172 1.4001352 0
3.5140002 -0.44481117 1.3982195 0
3.5080001 -0.44964898 1.3963038 0
3.5020003 -0.45446518 1.3943881 0
3.4960003 -0.45925969 1.3924725 0
3.4900002 -0.46403256 1.3905569 0
3.4840002 -0.46878377 1.3886412 0
3.4780002 -0.47351336 1.3867255 0
3.4730003 -0.47836202 1.3851292 0
3.4670002 -0.48305011 1.3832135 0
3.4610002 -0.48771656 1.3812978 0
3.4550002 -0.49236137 1.3793821 0
3.4490004 -0.49698454 1.3774667 0
3.4440002 -0.50173575 1.3758702 0
3.4380002 -0.50631744 1.3739545 0
3.4320002 -0.51087743 1.372039 0
3.4260004 -0.51541585 1.3701234 0
3.4210002 -0.52008951 1.3685269 0
3.4150002 -0.52458638 1.3666114 0
3.4090002 -0.52906162 1.3646957 0
3.4040003 -0.53367758 1.3630992 0
3.3980002 -0.53811139 1.3611836 0
3.3930001 -0.54268944 1.3595872 0
3.3870003 -0.54708171 1.3576716 0
3.3810003 -0.55145234 1.3557559 0
3.3760002 -0.55597264 1.3541596 0
3.3700001 -0.56030178 1.3522439 0
3.3650002 -0.56478429 1.3506477 0
3.3600001 -0.56924868 1.3490511 0
3.3540003 -0.57351649 1.3471355 0
3.3490002 -0.57794309 1.3455392 0
3.3430002 -0.58216935 1.3436235 0
3.3380003 -0.58655804 1.3420273 0
3.3330002 -0.59092861 1.3404307 0
3.3270001 -0.59509367 1.338515 0
3.3220003 -0.59942645 1.3369188 0
3.3170002 -0.60374111 1.3353224 0
3.3110003 -0.60784477 1.3334069 0
3.3060002 -0.61212164 1.3318104 0
3.3010001 -0.61638039 1.330214 0
3.2960002 -0.6206212 1.3286177 0
3.2900002 -0.62464362 1.326702 0
3.2850003 -0.62884653 1.3251057 0
3.2800002 -0.63303131 1.3235092 0
3.2750003 -0.63719815 1.3219129 0
3.2700002 -0.64134693 1.3203166 0
3.2650003 -0.64547765 1.3187202 0
3.2600002 -0.64959031 1.3171239 0
3.2540002 -0.65347207 1.3152082 0
3.2490003 -0.65754694 1.3136119 0
3.2440002 -0.66160363 1.3120154 0
3.2390003 -0.66564238 1.3104191 0
3.2340002 -0.66966307 1.3088226 0
3.2290003 -0.67366576 1.3072263 0
3.2270002 -0.67832136 1.3065878 0
3.2270002 -0.68342078 1.3065878 0
3.2270002 -0.68852013 1.3065878 0
3.2270002 -0.69361949 1.3065878 0
3.2270002 -0.69871885 1.3065878 0
3.2270002 -0.7038182 1.3065878 0
3.8120003 -0.20601945 1.4872085 0
3.8040001 -0.21178441 1.4846687 0
3.7970002 -0.21757104 1.4824464 0
3.7900002 -0.22333239 1.4802241 0
3.7830002 -0.2290685 1.4780018 0
3.7760003 -0.23477936 1.4757797 0
3.7690003 -0.24046497 1.4735574 0
3.7620003 -0.24612531 1.4713351 0
3.7550004 -0.25176039 1.4691128 0
3.7480001 -0.25737023 1.4668903 0
3.7410002 -0.26295483 1.464668 0
3.7340002 -0.26851416 1.4624459 0
3.7270002 -0.27404824 1.4602236 0
3.7200003 -0.27955711 1.4580013 0
3.7130003 -0.28504065 1.455779 0
3.7060003 -0.29049897 1.4535567 0
3.7000003 -0.29600781 1.4516519 0
3.6930003 -0.30141747 1.4494296 0
3.6860003 -0.30680183 1.4472073 0
3.6790001 -0.31216094 1.4449849 0
3.6730003 -0.31757778 1.4430802 0
3.6660004 -0.3228882 1.4408579 0
3.6590002 -0.32817334 1.4386355 0
3.6530004 -0.33352163 1.4367309 0
3.6460001 -0.33875808 1.4345084 0
3.6400003 -0.34406129 1.4326037 0
3.6330001 -0.34924901 1.4303813 0
3.6270003 -0.35450712 1.4284766 0
3.6200004 -0.3596462 1.4262543 0
3.6140003 -0.36485919 1.4243495 0
3.6070004 -0.36994955 1.4221272 0
3.6010003 -0.37511745 1.4202223 0
3.5950003 -0.38026372 1.4183174 0
3.5880003 -0.38528189 1.4160951 0
3.5820003 -0.39038306 1.4141904 0
3.5760002 -0.3954626 1.4122856 0
3.5690002 -0.40040866 1.4100633 0
3.5630002 -0.40544307 1.4081584 0
3.5570002 -0.41045585 1.4062536 0
3.5510004 -0.415447 1.4043489 0
3.5450003 -0.42041647 1.4024439 0
3.5390003 -0.42536435 1.4005392 0
3.5320003 -0.43016788 1.3983169 0
3.5260003 -0.43507063 1.396412 0
3.5200002 -0.43995172 1.3945072 0
3.5140002 -0.44481117 1.3926023 0
3.5080001 -0.44964898 1.3906975 0
3.5020003 -0.45446518 1.3887928 0
3.4960003 -0.45925969 1.3868879 0
3.4900002 -0.46403256 1.3849831 0
3.4840002 -0.46878377 1.3830782 0
3.4780002 -0.47351336 1.3811735 0
3.4730003 -0.47836202 1.3795861 0
3.4670002 -0.48305011 1.3776814 0
3.4610002 -0.48771656 1.3757764 0
3.4550002 -0.49236137 1.3738716 0
3.4490004 -0.49698454 1.3719668 0
3.4440002 -0.50173575 1.3703794 0
3.4380002 -0.50631744 1.3684746 0
3.4320002 -0.51087743 1.3665698 0
3.4260004 -0.51541585 1.364665 0
3.4210002 -0.52008951 1.3630776 0
3.4150002 -0.52458638 1.3611728 0
3.4090002 -0.52906162 1.359268 0
3.4040003 -0.53367758 1.3576807 0
3.3980002 -0.53811139 1.3557758 0
3.3930001 -0.54268944 1.3541884 0
3.3870003 -0.54708171 1.3522837 0
3.3810003 -0.55145234 1.3503788 0
3.3760002 -0.55597264 1.3487915 0
3.3700001 -0.56030178 1.3468866 0
3.3650002 -0.56478429 1.3452994 0
3.3600001 -0.56924868 1.343712 0
3.3540003 -0.57351649 1.3418071 0
3.3490002 -0.57794309 1.3402199 0
3.3430002 -0.58216935 1.3383149 0
3.3380003 -0.58655804 1.3367276 0
3.3330002 -0.59092861 1.3351402 0
3.3270001 -0.59509367 1.3332354 0
3.3220003 -0.59942645 1.3316481 0
3.3170002 -0.60374111 1.3300607 0
3.3110003 -0.60784477 1.328156 0
3.3060002 -0.61212164 1.3265686 0
3.3010001 -0.61638039 1.3249811 0
3.2960002 -0.6206212 1.3233938 0
3.2900002 -0.62464362 1.321489 0
3.2850003 -0.62884653 1.3199017 0
3.2800002 -0.63303131 1.3183143 0
3.2750003 -0.63719815 1.316727 0
3.2700002 -0.64134693 1.3151397 0
3.2650003 -0.64547765 1.3135524 0
3.2600002 -0.64959031 1.3119649 0
3.2540002 -0.65347207 1.3100601 0
3.2490003 -0.65754694 1.3084728 0
3.2440002 -0.66160363 1.3068854 0
3.2430003 -0.66651547 1.3065679 0
3.2430003 -0.67164367 1.3065679 0
3.2430003 -0.67677194 1.3065679 0
3.2430003 -0.68190014 1.3065679 0
3.2430003 -0.68702841 1.3065679 0
3.8120003 -0.20601945 1.4810539 0
3.8040001 -0.21178441 1.4785286 0
3.7970002 -0.21757104 1.476319 0
3.7900002 -0.22333239 1.4741092 0
3.7830002 -0.2290685 1.4718996 0
3.7760003 -0.23477936 1.46969 0
3.7690003 -0.24046497 1.4674803 0
3.7620003 -0.24612531 1.4652706 0
3.7550004 -0.25176039 1.463061 0
3.7480001 -0.25737023 1.4608513 0
3.7410002 -0.26295483 1.4586415 0
3.7340002 -0.26851416 1.456432 0
3.7270002 -0.27404824 1.4542223 0
3.7200003 -0.27955711 1.4520125 0
3.7130003 -0.28504065 1.449803 0
3.7060003 -0.29049897 1.4475933 0
3.7000003 -0.29600781 1.4456993 0
3.6930003 -0.30141747 1.4434897 0
3.6860003 -0.30680183 1.44128 0
3.6790001 -0.31216094 1.4390702 0
3.6730003 -0.31757778 1.4371763 0
3.6660004 -0.3228882 1.4349667 0
3.6590002 -0.32817334 1.4327569 0
3.6530004 -0.33352163 1.430863 0
3.6460001 -0.33875808 1.4286532 0
3.6400003 -0.34406129 1.4267594 0
3.6330001 -0.34924901 1.4245497 0
3.6270003 -0.35450712 1.4226557 0
3.6200004 -0.3596462 1.420446 0
3.6140003 -0.36485919 1.4185519 0
3.6070004 -0.36994955 1.4163424 0
3.6010003 -0.37511745 1.4144484 0
3.5950003 -0.38026372 1.4125543 0
3.5880003 -0.38528189 1.4103446 0
3.5820003 -0.39038306 1.4084507 0
3.5760002 -0.3954626 1.4065567 0
3.5690002 -0.40040866 1.4043469 0
3.5630002 -0.40544307 1.4024529 0
3.5570002 -0.41045585 1.4005589 0
3.5510004 -0.415447 1.398665 0
3.5450003 -0.42041647 1.3967711 0
3.5390003 -0.42536435 1.394877 0
3.5320003 -0.43016788 1.3926673 0
3.5260003 -0.43507063 1.3907733 0
3.5200002 -0.43995172 1.3888793 0
3.5140002 -0.44481117 1.3869853 0
3.5080001 -0.44964898 1.3850913 0
3.5020003 -0.45446518 1.3831973 0
3.4960003 -0.45925969 1.3813033 0
3.4900002 -0.46403256 1.3794093 0
3.4840002 -0.46878377 1.3775153 0
3.4780002 -0.47351336 1.3756213 0
3.4730003 -0.47836202 1.374043 0
3.4670002 -0.48305011 1.372149 0
3.4610002 -0.48771656 1.370255 0
3.4550002 -0.49236137 1.368361 0
3.4490004 -0.49698454 1.3664671 0
3.4440002 -0.50173575 1.3648887 0
3.4380002 -0.50631744 1.3629947 0
3.4320002 -0.51087743 1.3611007 0
3.4260004 -0.51541585 1.3592067 0
3.4210002 -0.52008951 1.3576283 0
3.4150002 -0.52458638 1.3557342 0
3.4090002 -0.52906162 1.3538404 0
3.4040003 -0.53367758 1.352262 0
3.3980002 -0.53811139 1.350368 0
3.3930001 -0.54268944 1.3487897 0
3.3870003 -0.54708171 1.3468957 0
3.3810003 -0.55145234 1.3450017 0
3.3760002 -0.55597264 1.3434232 0
3.3700001 -0.56030178 1.3415293 0
3.3650002 -0.56478429 1.3399509 0
3.3600001 -0.56924868 1.3383726 0
3.3540003 -0.57351649 1.3364787 0
3.3490002 -0.57794309 1.3349004 0
3.3430002 -0.58216935 1.3330064 0
3.3380003 -0.58655804 1.3314281 0
3.3330002 -0.59092861 1.3298497 0
3.3270001 -0.59509367 1.3279557 0
3.3220003 -0.59942645 1.3263774 0
3.3170002 -0.60374111 1.3247989 0
3.3110003 -0.60784477 1.3229051 0
3.3060002 -0.61212164 1.3213267 0
3.3010001 -0.61638039 1.3197484 0
3.2960002 -0.6206212 1.3181701 0
3.2900002 -0.62464362 1.3162761 0
3.2850003 -0.62884653 1.3146977 0
3.2800002 -0.63303131 1.3131194 0
3.2750003 -0.63719815 1.3115411 0
3.2700002 -0.64134693 1.3099627 0
3.2650003 -0.64547765 1.3083844 0
3.2600002 -0.64959031 1.3068061 0
3.2590003 -0.65453637 1.3064904 0
3.2590003 -0.65969348 1.3064904 0
3.2590003 -0.66485053 1.3064904 0
3.2590003 -0.67000765 1.3064904 0
3.2590003 -0.67516476 1.3064904 0
3.8120003 -0.20601945 1.4748994 0
3.8040001 -0.21178441 1.4723884 0
3.7970002 -0.21757104 1.4701914 0
3.7900002 -0.22333239 1.4679945 0
3.7830002 -0.2290685 1.4657973 0
3.7760003 -0.23477936 1.4636003 0
3.7690003 -0.24046497 1.4614033 0
3.7620003 -0.24612531 1.4592062 0
3.7550004 -0.25176039 1.4570092 0
3.7480001 -0.25737023 1.454812 0
3.7410002 -0.26295483 1.452615 0
3.7340002 -0.26851416 1.4504181 0
3.7270002 -0.27404824 1.448221 0
3.7200003 -0.27955711 1.4460241 0
3.7130003 -0.28504065 1.4438269 0
3.7060003 -0.29049897 1.4416299 0
3.7000003 -0.29600781 1.4397467 0
3.6930003 -0.30141747 1.4375497 0
3.6860003 -0.30680183 1.4353527 0
3.6790001 -0.31216094 1.4331557 0
3.6730003 -0.31757778 1.4312724 0
3.6660004 -0.3228882 1.4290755 0
3.6590002 -0.32817334 1.4268783 0
3.6530004 -0.33352163 1.4249952 0
3.6460001 -0.33875808 1.4227982 0
3.6400003 -0.34406129 1.420915 0
3.6330001 -0.34924901 1.4187179 0
3.6270003 -0.35450712 1.4168348 0
3.6200004 -0.3596462 1.4146377 0
3.6140003 -0.36485919 1.4127545 0
3.6070004 -0.36994955 1.4105576 0
3.6010003 -0.37511745 1.4086744 0
3.5950003 -0.38026372 1.4067912 0
3.5880003 -0.38528189 1.4045942 0
3.5820003 -0.39038306 1.4027109 0
3.5760002 -0.3954626 1.4008278 0
3.5690002 -0.40040866 1.3986306 0
3.5630002 -0.40544307 1.3967475 0
3.5570002 -0.41045585 1.3948643 0
3.5510004 -0.415447 1.3929812 0
3.5450003 -0.42041647 1.391098 0
3.5390003 -0.42536435 1.3892149 0
3.5320003 -0.43016788 1.3870177 0
3.5260003 -0.43507063 1.3851346 0
3.5200002 -0.43995172 1.3832514 0
3.5140002 -0.44481117 1.3813682 0
3.5080001 -0.44964898 1.379485 0
3.5020003 -0.45446518 1.377602 0
3.4960003 -0.45925969 1.3757187 0
3.4900002 -0.46403256 1.3738356 0
3.4840002 -0.46878377 1.3719524 0
3.4780002 -0.47351336 1.3700691 0
3.4730003 -0.47836202 1.3684999 0
3.4670002 -0.48305011 1.3666167 0
3.4610002 -0.48771656 1.3647335 0
3.4550002 -0.49236137 1.3628503 0
3.4490004 -0.49698454 1.3609673 0
3.4440002 -0.50173575 1.3593979 0
3.4380002 -0.50631744 1.3575146 0
3.4320002 -0.51087743 1.3556315 0
3.4260004 -0.51541585 1.3537484 0
3.4210002 -0.52008951 1.3521791 0
3.4150002 -0.52458638 1.3502959 0
3.4090002 -0.52906162 1.3484128 0
3.4040003 -0.53367758 1.3468434 0
3.3980002 -0.53811139 1.3449602 0
3.3930001 -0.54268944 1.3433908 0
3.3870003 -0.54708171 1.3415077 0
3.3810003 -0.55145234 1.3396245 0
3.3760002 -0.55597264 1.3380553 0
3.3700001 -0.56030178 1.336172 0
3.3650002 -0.56478429 1.3346027 0
3.3600001 -0.56924868 1.3330333 0
3.3540003 -0.57351649 1.3311503 0
3.3490002 -0.57794309 1.3295809 0
3.3430002 -0.58216935 1.3276978 0
3.3380003 -0.58655804 1.3261285 0
3.3330002 -0.59092861 1.3245591 0
3.3270001 -0.59509367 1.3226759 0
3.3220003 -0.59942645 1.3211067 0
3.3170002 -0.60374111 1.3195373 0
3.3110003 -0.60784477 1.3176541 0
3.3060002 -0.61212164 1.3160849 0
3.3010001 -0.61638039 1.3145155 0
3.2960002 -0.6206212 1.3129462 0
3.2900002 -0.62464362 1.3110631 0
3.2850003 -0.62884653 1.3094938 0
3.2800002 -0.63303131 1.3079244 0
3.2760003 -0.63740379 1.306669 0
3.2760003 -0.64259154 1.306669 0
3.2760003 -0.64777929 1.306669 0
3.2760003 -0.65296704 1.306669 0
3.2760003 -0.65815479 1.306669 0
3.2760003 -0.66334254 1.306669 0
3.8120003 -0.20601945 1.4687448 0
3.8040001 -0.21178441 1.4662483 0
3.7970002 -0.21757104 1.4640639 0
3.7900002 -0.22333239 1.4618795 0
3.7830002 -0.2290685 1.4596951 0
3.7760003 -0.23477936 1.4575106 0
3.7690003 -0.24046497 1.4553262 0
3.7620003 -0.24612531 1.4531418 0
3.7550004 -0.25176039 1.4509574 0
3.7480001 -0.25737023 1.4487729 0
3.7410002 -0.26295483 1.4465886 0
3.7340002 -0.26851416 1.4444042 0
3.7270002 -0.27404824 1.4422197 0
3.7200003 -0.27955711 1.4400353 0
3.7130003 -0.28504065 1.437851 0
3.7060003 -0.29049897 1.4356666 0
3.7000003 -0.29600781 1.4337941 0
3.6930003 -0.30141747 1.4316097 0
3.6860003 -0.30680183 1.4294254 0
3.6790001 -0.31216094 1.427241 0
3.6730003 -0.31757778 1.4253687 0
3.6660004 -0.3228882 1.4231843 0
3.6590002 -0.32817334 1.4209998 0
3.6530004 -0.33352163 1.4191275 0
3.6460001 -0.33875808 1.416943 0
3.6400003 -0.34406129 1.4150707 0
3.6330001 -0.34924901 1.4128863 0
3.6270003 -0.35450712 1.411014 0
3.6200004 -0.3596462 1.4088296 0
3.6140003 -0.36485919 1.4069571 0
3.6070004 -0.36994955 1.4047728 0
3.6010003 -0.37511745 1.4029003 0
3.5950003 -0.38026372 1.401028 0
3.5880003 -0.38528189 1.3988435 0
3.5820003 -0.39038306 1.3969712 0
3.5760002 -0.3954626 1.3950988 0
3.5690002 -0.40040866 1.3929144 0
3.5630002 -0.40544307 1.3910421 0
3.5570002 -0.41045585 1.3891697 0
3.5510004 -0.415447 1.3872974 0
3.5450003 -0.42041647 1.385425 0
3.5390003 -0.42536435 1.3835527 0
3.5320003 -0.43016788 1.3813683 0
3.5260003 -0.43507063 1.3794959 0
3.5200002 -0.43995172 1.3776236 0
3.5140002 -0.44481117 1.3757511 0
3.5080001 -0.44964898 1.3738788 0
3.5020003 -0.45446518 1.3720065 0
3.4960003 -0.45925969 1.3701341 0
3.4900002 -0.46403256 1.3682617 0
3.4840002 -0.46878377 1.3663895 0
3.4780002 -0.47351336 1.3645171 0
3.4730003 -0.47836202 1.3629568 0
3.4670002 -0.48305011 1.3610843 0
3.4610002 -0.48771656 1.3592122 0
3.4550002 -0.49236137 1.3573397 0
3.4490004 -0.49698454 1.3554674 0
3.4440002 -0.50173575 1.353907 0
3.4380002 -0.50631744 1.3520347 0
3.4320002 -0.51087743 1.3501624 0
3.4260004 -0.51541585 1.3482901 0
3.4210002 -0.52008951 1.3467296 0
3.4150002 -0.52458638 1.3448573 0
3.4090002 -0.52906162 1.342985 0
3.4040003 -0.53367758 1.3414247 0
3.3980002 -0.53811139 1.3395524 0
3.3930001 -0.54268944 1.3379921 0
3.3870003 -0.54708171 1.3361198 0
3.3810003 -0.55145234 1.3342474 0
3.3760002 -0.55597264 1.332687 0
3.3700001 -0.56030178 1.3308147 0
3.3650002 -0.56478429 1.3292544 0
3.3600001 -0.56924868 1.3276942 0
3.3540003 -0.57351649 1.3258219 0
3.3490002 -0.57794309 1.3242615 0
3.3430002 -0.58216935 1.3223891 0
3.3380003 -0.58655804 1.3208289 0
3.3330002 -0.59092861 1.3192686 0
3.3270001 -0.59509367 1.3173962 0
3.3220003 -0.59942645 1.315836 0
3.3170002 -0.60374111 1.3142756 0
3.3110003 -0.60784477 1.3124033 0
3.3060002 -0.61212164 1.310843 0
3.3010001 -0.61638039 1.3092827 0
3.2960002 -0.6206212 1.3077223 0
3.2920003 -0.62504411 1.3064742 0
3.2920003 -0.63026071 1.3064742 0
3.2920003 -0.6354773 1.3064742 0
3.2920003 -0.64069396 1.3064742 0
3.2920003 -0.64591056 1.3064742 0
3.8120003 -0.20601945 1.4625901 0
3.8040001 -0.21178441 1.4601082 0
3.7970002 -0.21757104 1.4579363 0
3.7900002 -0.22333239 1.4557645 0
3.7830002 -0.2290685 1.4535928 0
3.7760003 -0.23477936 1.451421 0
3.7690003 -0.24046497 1.4492491 0
3.7620003 -0.24612531 1.4470774 0
3.7550004 -0.25176039 1.4449056 0
3.7480001 -0.25737023 1.4427338 0
3.7410002 -0.26295483 1.4405621 0
3.7340002 -0.26851416 1.4383903 0
3.7270002 -0.27404824 1.4362185 0
3.7200003 -0.27955711 1.4340467 0
3.7130003 -0.28504065 1.431875 0
3.7060003 -0.29049897 1.4297031 0
3.7000003 -0.29600781 1.4278417 0
3.6930003 -0.30141747 1.4256699 0
3.6860003 -0.30680183 1.423498 0
3.6790001 -0.31216094 1.4213263 0
3.6730003 -0.31757778 1.4194647 0
3.6660004 -0.3228882 1.4172931 0
3.6590002 -0.32817334 1.4151212 0
3.6530004 -0.33352163 1.4132596 0
3.6460001 -0.33875808 1.4110878 0
3.6400003 -0.34406129 1.4092263 0
3.6330001 -0.34924901 1.4070544 0
3.6270003 -0.35450712 1.4051931 0
3.6200004 -0.3596462 1.4030212 0
3.6140003 -0.36485919 1.4011596 0
3.6070004 -0.36994955 1.3989879 0
3.6010003 -0.37511745 1.3971263 0
3.5950003 -0.38026372 1.3952649 0
3.5880003 -0.38528189 1.3930931 0
3.5820003 -0.39038306 1.3912314 0
3.5760002 -0.3954626 1.38937 0
3.5690002 -0.40040866 1.3871982 0
3.5630002 -0.40544307 1.3853366 0
3.5570002 -0.41045585 1.3834751 0
3.5510004 -0.415447 1.3816136 0
3.5450003 -0.42041647 1.3797522 0
3.5390003 -0.42536435 1.3778905 0
3.5320003 -0.43016788 1.3757187 0
3.5260003 -0.43507063 1.3738573 0
3.5200002 -0.43995172 1.3719957 0
3.5140002 -0.44481117 1.3701341 0
3.5080001 -0.44964898 1.3682725 0
3.5020003 -0.45446518 1.3664112 0
3.4960003 -0.45925969 1.3645495 0
3.4900002 -0.46403256 1.3626881 0
3.4840002 -0.46878377 1.3608265 0
3.4780002 -0.47351336 1.3589649 0
3.4730003 -0.47836202 1.3574136 0
3.4670002 -0.48305011 1.3555522 0
3.4610002 -0.48771656 1.3536906 0
3.4550002 -0.49236137 1.3518291 0
3.4490004 -0.49698454 1.3499676 0
3.4440002 -0.50173575 1.3484163 0
3.4380002 -0.50631744 1.3465548 0
3.4320002 -0.51087743 1.3446932 0
3.4260004 -0.51541585 1.3428317 0
3.4210002 -0.52008951 1.3412803 0
3.4150002 -0.52458638 1.3394189 0
3.4090002 -0.52906162 1.3375574 0
3.4040003 -0.53367758 1.3360062 0
3.3980002 -0.53811139 1.3341445 0
3.3930001 -0.54268944 1.3325933 0
3.3870003 -0.54708171 1.3307317 0
3.3810003 -0.55145234 1.3288703 0
3.3760002 -0.55597264 1.3273189 0
3.3700001 -0.56030178 1.3254573 0
3.3650002 -0.56478429 1.3239062 0
3.3600001 -0.56924868 1.3223548 0
3.3540003 -0.57351649 1.3204933 0
3.3490002 -0.57794309 1.3189421 0
3.3430002 -0.58216935 1.3170805 0
3.3380003 -0.58655804 1.3155292 0
3.3330002 -0.59092861 1.313978 0
3.3270001 -0.59509367 1.3121164 0
3.3220003 -0.59942645 1.3105651 0
3.3170002 -0.60374111 1.3090138 0
3.3110003 -0.60784477 1.3071524 0
3.3090003 -0.61270607 1.3065319 0
3.3090003 -0.61795336 1.3065319 0
3.3090003 -0.6232006 1.3065319 0
3.3090003 -0.62844789 1.3065319 0
3.3090003 -0.63369513 1.3065319 0
3.8120003 -0.20601945 1.4564356 0
3.8040001 -0.21178441 1.4539679 0
3.7970002 -0.21757104 1.4518088 0
3.7900002 -0.22333239 1.4496496 0
3.7830002 -0.2290685 1.4474905 0
3.7760003 -0.23477936 1.4453313 0
3.7690003 -0.24046497 1.4431722 0
3.7620003 -0.24612531 1.441013 0
3.7550004 -0.25176039 1.4388539 0
3.7480001 -0.25737023 1.4366946 0
3.7410002 -0.26295483 1.4345355 0
3.7340002 -0.26851416 1.4323764 0
3.7270002 -0.27404824 1.4302173 0
3.7200003 -0.27955711 1.428058 0
3.7130003 -0.28504065 1.4258989 0
3.7060003 -0.29049897 1.4237398 0
3.7000003 -0.29600781 1.4218891 0
3.6930003 -0.30141747 1.4197298 0
3.6860003 -0.30680183 1.4175708 0
3.6790001 -0.31216094 1.4154115 0
3.6730003 -0.31757778 1.4135609 0
3.6660004 -0.3228882 1.4114016 0
3.6590002 -0.32817334 1.4092425 0
3.6530004 -0.33352163 1.4073919 0
3.6460001 -0.33875808 1.4052325 0
3.6400003 -0.34406129 1.4033819 0
3.6330001 -0.34924901 1.4012227 0
3.6270003 -0.35450712 1.3993721 0
3.6200004 -0.3596462 1.397213 0
3.6140003 -0.36485919 1.3953623 0
3.6070004 -0.36994955 1.393203 0
3.6010003 -0.37511745 1.3913523 0
3.5950003 -0.38026372 1.3895017 0
3.5880003 -0.38528189 1.3873425 0
3.5820003 -0.39038306 1.3854917 0
3.5760002 -0.3954626 1.383641 0
3.5690002 -0.40040866 1.3814819 0
3.5630002 -0.40544307 1.3796313 0
3.5570002 -0.41045585 1.3777804 0
3.5510004 -0.415447 1.3759298 0
3.5450003 -0.42041647 1.3740791 0
3.5390003 -0.42536435 1.3722284 0
3.5320003 -0.43016788 1.3700691 0
3.5260003 -0.43507063 1.3682184 0
3.5200002 -0.43995172 1.3663678 0
3.5140002 -0.44481117 1.3645171 0
3.5080001 -0.44964898 1.3626664 0
3.5020003 -0.45446518 1.3608156 0
3.4960003 -0.45925969 1.3589649 0
3.4900002 -0.46403256 1.3571142 0
3.4840002 -0.46878377 1.3552635 0
3.4780002 -0.47351336 1.3534129 0
3.4730003 -0.47836202 1.3518705 0
3.4670002 -0.48305011 1.3500199 0
3.4610002 -0.48771656 1.3481692 0
3.4550002 -0.49236137 1.3463185 0
3.4490004 -0.49698454 1.3444678 0
3.4440002 -0.50173575 1.3429255 0
3.4380002 -0.50631744 1.3410748 0
3.4320002 -0.51087743 1.339224 0
3.4260004 -0.51541585 1.3373734 0
3.4210002 -0.52008951 1.335831 0
3.4150002 -0.52458638 1.3339803 0
3.4090002 -0.52906162 1.3321296 0
3.4040003 -0.53367758 1.3305874 0
3.3980002 -0.53811139 1.3287368 0
3.3930001 -0.54268944 1.3271945 0
3.3870003 -0.54708171 1.3253438 0
3.3810003 -0.55145234 1.3234931 0
3.3760002 -0.55597264 1.3219508 0
3.3700001 -0.56030178 1.3201001 0
3.3650002 -0.56478429 1.3185579 0
3.3600001 -0.56924868 1.3170155 0
3.3540003 -0.57351649 1.3151649 0
3.3490002 -0.57794309 1.3136226 0
3.3430002 -0.58216935 1.3117719 0
3.3380003 -0.58655804 1.3102297 0
3.3330002 -0.59092861 1.3086874 0
3.3270001 -0.59509367 1.3068366 0
3.3260002 -0.60018402 1.3065282 0
3.3260002 -0.60546196 1.3065282 0
3.3260002 -0.61073989 1.3065282 0
3.3260002 -0.61601788 1.3065282 0
3.8120003 -0.20601945 1.450281 0
3.8040001 -0.21178441 1.4478277 0
3.7970002 -0.21757104 1.4456812 0
3.7900002 -0.22333239 1.4435346 0
3.7830002 -0.2290685 1.4413882 0
3.7760003 -0.23477936 1.4392416 0
3.7690003 -0.24046497 1.4370952 0
3.7620003 -0.24612531 1.4349486 0
3.7550004 -0.25176039 1.4328021 0
3.7480001 -0.25737023 1.4306556 0
3.7410002 -0.26295483 1.428509 0
3.7340002 -0.26851416 1.4263625 0
3.7270002 -0.27404824 1.4242159 0
3.7200003 -0.27955711 1.4220694 0
3.7130003 -0.28504065 1.4199228 0
3.7060003 -0.29049897 1.4177763 0
3.7000003 -0.29600781 1.4159365 0
3.6930003 -0.30141747 1.41379 0
3.6860003 -0.30680183 1.4116435 0
3.6790001 -0.31216094 1.4094968 0
3.6730003 -0.31757778 1.407657 0
3.6660004 -0.3228882 1.4055104 0
3.6590002 -0.32817334 1.4033639 0
3.6530004 -0.33352163 1.4015241 0
3.6460001 -0.33875808 1.3993775 0
3.6400003 -0.34406129 1.3975376 0
3.6330001 -0.34924901 1.395391 0
3.6270003 -0.35450712 1.3935512 0
3.6200004 -0.3596462 1.3914046 0
3.6140003 -0.36485919 1.3895649 0
3.6070004 -0.36994955 1.3874183 0
3.6010003 -0.37511745 1.3855784 0
3.5950003 -0.38026372 1.3837384 0
3.5880003 -0.38528189 1.3815919 0
3.5820003 -0.39038306 1.379752 0
3.5760002 -0.3954626 1.3779122 0
3.5700002 -0.40052047 1.3760723 0
3.5630002 -0.40544307 1.3739257 0
3.5570002 -0.41045585 1.3720858 0
3.5510004 -0.415447 1.3702461 0
3.5450003 -0.42041647 1.3684061 0
3.5390003 -0.42536435 1.3665662 0
3.5320003 -0.43016788 1.3644197 0
3.5260003 -0.43507063 1.3625798 0
3.5200002 -0.43995172 1.3607399 0
3.5140002 -0.44481117 1.3589 0
3.5080001 -0.44964898 1.3570601 0
3.5020003 -0.45446518 1.3552202 0
3.4960003 -0.45925969 1.3533803 0
3.4900002 -0.46403256 1.3515406 0
3.4840002 -0.46878377 1.3497006 0
3.4780002 -0.47351336 1.3478607 0
3.4730003 -0.47836202 1.3463275 0
3.4670002 -0.48305011 1.3444875 0
3.4610002 -0.48771656 1.3426477 0
3.4550002 -0.49236137 1.3408078 0
3.4490004 -0.49698454 1.3389679 0
3.4440002 -0.50173575 1.3374348 0
3.4380002 -0.50631744 1.3355948 0
3.4320002 -0.51087743 1.3337549 0
3.4260004 -0.51541585 1.331915 0
3.4210002 -0.52008951 1.3303818 0
3.4150002 -0.52458638 1.3285419 0
3.4090002 -0.52906162 1.326702 0
3.4040003 -0.53367758 1.3251688 0
3.3980002 -0.53811139 1.323329 0
3.3930001 -0.54268944 1.3217956 0
3.3870003 -0.54708171 1.3199558 0
3.3810003 -0.55145234 1.3181159 0
3.3760002 -0.55597264 1.3165827 0
3.3700001 -0.56030178 1.3147427 0
3.3650002 -0.56478429 1.3132095 0
3.3600001 -0.56924868 1.3116763 0
3.3540003 -0.57351649 1.3098365 0
3.3490002 -0.57794309 1.3083032 0
3.3430002 -0.58216935 1.3064634 0
3.3430002 -0.58747798 1.3064634 0
3.3430002 -0.59278655 1.3064634 0
3.3430002 -0.59809524 1.3064634 0
3.3440003 -0.60359323 1.30677 0
3.8120003 -0.20601945 1.4441264 0
3.8040001 -0.21178441 1.4416876 0
3.7970002 -0.21757104 1.4395537 0
3.7900002 -0.22333239 1.4374198 0
3.7830002 -0.2290685 1.4352859 0
3.7760003 -0.23477936 1.433152 0
3.7690003 -0.24046497 1.4310181 0
3.7620003 -0.24612531 1.4288843 0
3.7550004 -0.25176039 1.4267503 0
3.7480001 -0.25737023 1.4246163 0
3.7410002 -0.26295483 1.4224825 0
3.7340002 -0.26851416 1.4203486 0
3.7270002 -0.27404824 1.4182147 0
3.7200003 -0.27955711 1.4160807 0
3.7130003 -0.28504065 1.4139469 0
3.7060003 -0.29049897 1.411813 0
3.7000003 -0.29600781 1.4099839 0
3.6930003 -0.30141747 1.40785 0
3.6860003 -0.30680183 1.4057161 0
3.6790001 -0.31216094 1.4035821 0
3.6730003 -0.31757778 1.4017531 0
3.6660004 -0.3228882 1.3996192 0
3.6590002 -0.32817334 1.3974853 0
3.6530004 -0.33352163 1.3956562 0
3.6460001 -0.33875808 1.3935224 0
3.6400003 -0.34406129 1.3916934 0
3.6330001 -0.34924901 1.3895593 0
3.6270003 -0.35450712 1.3877304 0
3.6200004 -0.3596462 1.3855964 0
3.6140003 -0.36485919 1.3837672 0
3.6070004 -0.36994955 1.3816334 0
3.6010003 -0.37511745 1.3798044 0
3.5950003 -0.38026372 1.3779752 0
3.5880003 -0.38528189 1.3758414 0
3.5820003 -0.39038306 1.3740124 0
3.5760002 -0.3954626 1.3721832 0
3.5700002 -0.40052047 1.3703542 0
3.5630002 -0.40544307 1.3682202 0
3.5570002 -0.41045585 1.3663912 0
3.5510004 -0.415447 1.3645622 0
3.5450003 -0.42041647 1.3627331 0
3.5390003 -0.42536435 1.3609041 0
3.5320003 -0.43016788 1.3587701 0
3.5260003 -0.43507063 1.3569411 0
3.5200002 -0.43995172 1.3551121 0
3.5140002 -0.44481117 1.3532829 0
3.5080001 -0.44964898 1.3514539 0
3.5020003 -0.45446518 1.3496249 0
3.4960003 -0.45925969 1.3477958 0
3.4900002 -0.46403256 1.3459667 0
3.4840002 -0.46878377 1.3441377 0
3.4780002 -0.47351336 1.3423085 0
3.4730003 -0.47836202 1.3407844 0
3.4670002 -0.48305011 1.3389553 0
3.4610002 -0.48771656 1.3371263 0
3.4550002 -0.49236137 1.3352971 0
3.4490004 -0.49698454 1.3334682 0
3.4440002 -0.50173575 1.3319439 0
3.4380002 -0.50631744 1.3301148 0
3.4320002 -0.51087743 1.3282858 0
3.4260004 -0.51541585 1.3264568 0
3.4210002 -0.52008951 1.3249325 0
3.4150002 -0.52458638 1.3231034 0
3.4090002 -0.52906162 1.3212743 0
3.4040003 -0.53367758 1.3197502 0
3.3980002 -0.53811139 1.317921 0
3.3930001 -0.54268944 1.3163968 0
3.3870003 -0.54708171 1.3145678 0
3.3810003 -0.55145234 1.3127388 0
3.3760002 -0.55597264 1.3112144 0
3.3700001 -0.56030178 1.3093854 0
3.3650002 -0.56478429 1.3078612 0
3.3610003 -0.56942546 1.3066419 0
3.3610003 -0.57476652 1.3066419 0
3.3610003 -0.58010763 1.3066419 0
3.3610003 -0.58544874 1.3066419 0
3.8120003 -0.20601945 1.4379717 0
3.8040001 -0.21178441 1.4355475 0
3.7970002 -0.21757104 1.4334261 0
3.7900002 -0.22333239 1.4313049 0
3.7830002 -0.2290685 1.4291836 0
3.7760003 -0.23477936 1.4270624 0
3.7690003 -0.24046497 1.4249411 0
3.7620003 -0.24612531 1.4228199 0
3.7550004 -0.25176039 1.4206985 0
3.7480001 -0.25737023 1.4185772 0
3.7410002 -0.26295483 1.416456 0
3.7340002 -0.26851416 1.4143347 0
3.7270002 -0.27404824 1.4122134 0
3.7200003 -0.27955711 1.4100921 0
3.7130003 -0.28504065 1.4079709 0
3.7060003 -0.29049897 1.4058496 0
3.7000003 -0.29600781 1.4040313 0
3.6930003 -0.30141747 1.4019101 0
3.6860003 -0.30680183 1.3997887 0
3.6790001 -0.31216094 1.3976674 0
3.6730003 -0.31757778 1.3958492 0
3.6660004 -0.3228882 1.393728 0
3.6590002 -0.32817334 1.3916067 0
3.6530004 -0.33352163 1.3897884 0
3.6460001 -0.33875808 1.3876671 0
3.6400003 -0.34406129 1.385849 0
3.6330001 -0.34924901 1.3837276 0
3.6270003 -0.35450712 1.3819095 0
3.6200004 -0.3596462 1.3797882 0
3.6140003 -0.36485919 1.3779699 0
3.6070004 -0.36994955 1.3758487 0
3.6010003 -0.37511745 1.3740305 0
3.5950003 -0.38026372 1.3722121 0
3.5880003 -0.38528189 1.3700908 0
3.5820003 -0.39038306 1.3682727 0
3.5760002 -0.3954626 1.3664544 0
3.5700002 -0.40052047 1.3646361 0
3.5630002 -0.40544307 1.3625149 0
3.5570002 -0.41045585 1.3606967 0
3.5510004 -0.415447 1.3588784 0
3.5450003 -0.42041647 1.3570602 0
3.5390003 -0.42536435 1.3552419 0
3.5320003 -0.43016788 1.3531206 0
3.5260003 -0.43507063 1.3513024 0
3.5200002 -0.43995172 1.3494842 0
3.5140002 -0.44481117 1.3476659 0
3.5080001 -0.44964898 1.3458476 0
3.5020003 -0.45446518 1.3440294 0
3.4960003 -0.45925969 1.3422112 0
3.4900002 -0.46403256 1.3403929 0
3.4840002 -0.46878377 1.3385746 0
3.4780002 -0.47351336 1.3367565 0
3.4730003 -0.47836202 1.3352413 0
3.4670002 -0.48305011 1.333423 0
3.4610002 -0.48771656 1.3316048 0
3.4550002 -0.49236137 1.3297865 0
3.4490004 -0.49698454 1.3279684 0
3.4440002 -0.50173575 1.3264531 0
3.4380002 -0.50631744 1.3246349 0
3.4320002 -0.51087743 1.3228166 0
3.4260004 -0.51541585 1.3209984 0
3.4210002 -0.52008951 1.3194832 0
3.4150002 -0.52458638 1.317665 0
3.4090002 -0.52906162 1.3158467 0
3.4040003 -0.53367758 1.3143315 0
3.3980002 -0.53811139 1.3125134 0
3.3930001 -0.54268944 1.3109981 0
3.3870003 -0.54708171 1.3091799 0
3.3810003 -0.55145234 1.3073616 0
3.3790002 -0.55648673 1.3067555 0
3.3790002 -0.56186026 1.3067555 0
3.3790002 -0.56723386 1.3067555 0
3.3790002 -0.5726074 1.3067555 0
3.8120003 -0.20601945 1.4318172 0
3.8040001 -0.21178441 1.4294072 0
3.7970002 -0.21757104 1.4272987 0
3.7900002 -0.22333239 1.42519 0
3.7830002 -0.2290685 1.4230813 0
3.7760003 -0.23477936 1.4209727 0
3.7690003 -0.24046497 1.4188641 0
3.7620003 -0.24612531 1.4167554 0
3.7550004 -0.25176039 1.4146467 0
3.7480001 -0.25737023 1.4125381 0
3.7410002 -0.26295483 1.4104295 0
3.7340002 -0.26851416 1.4083208 0
3.7270002 -0.27404824 1.4062121 0
3.7200003 -0.27955711 1.4041034 0
3.7130003 -0.28504065 1.4019948 0
3.7060003 -0.29049897 1.3998863 0
3.7000003 -0.29600781 1.3980788 0
3.6930003 -0.30141747 1.3959701 0
3.6860003 -0.30680183 1.3938614 0
3.6790001 -0.31216094 1.3917527 0
3.6730003 -0.31757778 1.3899454 0
3.6660004 -0.3228882 1.3878368 0
3.6590002 -0.32817334 1.385728 0
3.6530004 -0.33352163 1.3839207 0
3.6460001 -0.33875808 1.381812 0
3.6400003 -0.34406129 1.3800045 0
3.6330001 -0.34924901 1.377896 0
3.6270003 -0.35450712 1.3760886 0
3.6200004 -0.3596462 1.3739799 0
3.6140003 -0.36485919 1.3721725 0
3.6070004 -0.36994955 1.3700638 0
3.6010003 -0.37511745 1.3682563 0
3.5950003 -0.38026372 1.3664489 0
3.5880003 -0.38528189 1.3643403 0
3.5820003 -0.39038306 1.362533 0
3.5760002 -0.3954626 1.3607255 0
3.5700002 -0.40052047 1.3589181 0
3.5630002 -0.40544307 1.3568094 0
3.5570002 -0.41045585 1.3550019 0
3.5510004 -0.415447 1.3531946 0
3.5450003 -0.42041647 1.3513871 0
3.5390003 -0.42536435 1.3495797 0
3.5320003 -0.43016788 1.347471 0
3.5260003 -0.43507063 1.3456637 0
3.5200002 -0.43995172 1.3438563 0
3.5140002 -0.44481117 1.3420489 0
3.5080001 -0.44964898 1.3402414 0
3.5020003 -0.45446518 1.3384341 0
3.4960003 -0.45925969 1.3366266 0
3.4900002 -0.46403256 1.3348192 0
3.4840002 -0.46878377 1.3330117 0
3.4780002 -0.47351336 1.3312043 0
3.4730003 -0.47836202 1.3296982 0
3.4670002 -0.48305011 1.3278908 0
3.4610002 -0.48771656 1.3260833 0
3.4550002 -0.49236137 1.3242759 0
3.4490004 -0.49698454 1.3224685 0
3.4440002 -0.50173575 1.3209623 0
3.4380002 -0.50631744 1.3191549 0
3.4320002 -0.51087743 1.3173475 0
3.4260004 -0.51541585 1.3155401 0
3.4210002 -0.52008951 1.3140339 0
3.4150002 -0.52458638 1.3122264 0
3.4090002 -0.52906162 1.3104191 0
3.4040003 -0.53367758 1.3089129 0
3.3980002 -0.53811139 1.3071054 0
3.3970003 -0.54335326 1.3068042 0
3.3970003 -0.54875922 1.3068042 0
3.3970003 -0.55416524 1.3068042 0
3.8120003 -0.20601945 1.4256626 0
3.8040001 -0.21178441 1.4232671 0
3.7970002 -0.21757104 1.4211712 0
3.7900002 -0.22333239 1.419075 0
3.7830002 -0.2290685 1.4169791 0
3.7760003 -0.23477936 1.414883 0
3.7690003 -0.24046497 1.412787 0
3.7620003 -0.24612531 1.410691 0
3.7550004 -0.25176039 1.408595 0
3.7480001 -0.25737023 1.4064989 0
3.7410002 -0.26295483 1.4044029 0
3.7340002 -0.26851416 1.4023069 0
3.7270002 -0.27404824 1.4002109 0
3.7200003 -0.27955711 1.3981149 0
3.7130003 -0.28504065 1.3960187 0
3.7060003 -0.29049897 1.3939228 0
3.7000003 -0.29600781 1.3921262 0
3.6930003 -0.30141747 1.3900301 0
3.6860003 -0.30680183 1.3879341 0
3.6790001 -0.31216094 1.385838 0
3.6730003 -0.31757778 1.3840415 0
3.6660004 -0.3228882 1.3819455 0
3.6590002 -0.32817334 1.3798494 0
3.6530004 -0.33352163 1.3780529 0
3.6460001 -0.33875808 1.3759568 0
3.6400003 -0.34406129 1.3741603 0
3.6330001 -0.34924901 1.3720641 0
3.6270003 -0.35450712 1.3702677 0
3.6200004 -0.3596462 1.3681716 0
3.6140003 -0.36485919 1.3663751 0
3.6070004 -0.36994955 1.364279 0
3.6010003 -0.37511745 1.3624824 0
3.5950003 -0.38026372 1.3606858 0
3.5880003 -0.38528189 1.3585898 0
3.5820003 -0.39038306 1.3567932 0
3.5760002 -0.3954626 1.3549966 0
3.5700002 -0.40052047 1.3532 0
3.5630002 -0.40544307 1.351104 0
3.5570002 -0.41045585 1.3493073 0
3.5510004 -0.415447 1.3475108 0
3.5450003 -0.42041647 1.3457141 0
3.5390003 -0.42536435 1.3439176 0
3.5320003 -0.43016788 1.3418216 0
3.5260003 -0.43507063 1.3400249 0
3.5200002 -0.43995172 1.3382285 0
3.5140002 -0.44481117 1.3364317 0
3.5080001 -0.44964898 1.3346351 0
3.5020003 -0.45446518 1.3328387 0
3.4960003 -0.45925969 1.3310421 0
3.4900002 -0.46403256 1.3292453 0
3.4840002 -0.46878377 1.3274488 0
3.4780002 -0.47351336 1.3256521 0
3.4730003 -0.47836202 1.3241551 0
3.4670002 -0.48305011 1.3223585 0
3.4610002 -0.48771656 1.3205619 0
3.4550002 -0.49236137 1.3187653 0
3.4490004 -0.49698454 1.3169687 0
3.4440002 -0.50173575 1.3154715 0
3.4380002 -0.50631744 1.3136749 0
3.4320002 -0.51087743 1.3118783 0
3.4260004 -0.51541585 1.3100817 0
3.4210002 -0.52008951 1.3085846 0
3.4150002 -0.52458638 1.306788 0
3.4150002 -0.53002489 1.306788 0
3.4150002 -0.53546333 1.306788 0
3.4150002 -0.54090184 1.306788 0
3.8120003 -0.20601945 1.419508 0
3.8040001 -0.21178441 1.417127 0
3.7970002 -0.21757104 1.4150436 0
3.7900002 -0.22333239 1.4129602 0
3.7830002 -0.2290685 1.4108768 0
3.7760003 -0.23477936 1.4087934 0
3.7690003 -0.24046497 1.4067099 0
3.7620003 -0.24612531 1.4046266 0
3.7550004 -0.25176039 1.4025432 0
3.7480001 -0.25737023 1.4004596 0
3.7410002 -0.26295483 1.3983763 0
3.7340002 -0.26851416 1.396293 0
3.7270002 -0.27404824 1.3942095 0
3.7200003 -0.27955711 1.3921262 0
3.7130003 -0.28504065 1.3900428 0
3.7060003 -0.29049897 1.3879594 0
3.7000003 -0.29600781 1.3861736 0
3.6930003 -0.30141747 1.3840902 0
3.6860003 -0.30680183 1.3820069 0
3.6790001 -0.31216094 1.3799235 0
3.6730003 -0.31757778 1.3781377 0
3.6660004 -0.3228882 1.3760542 0
3.6590002 -0.32817334 1.3739707 0
3.6530004 -0.33352163 1.3721851 0
3.6460001 -0.33875808 1.3701017 0
3.6400003 -0.34406129 1.3683159 0
3.6330001 -0.34924901 1.3662325 0
3.6270003 -0.35450712 1.3644468 0
3.6200004 -0.3596462 1.3623633 0
3.6140003 -0.36485919 1.3605776 0
3.6070004 -0.36994955 1.3584942 0
3.6010003 -0.37511745 1.3567084 0
3.5950003 -0.38026372 1.3549227 0
3.5880003 -0.38528189 1.3528392 0
3.5820003 -0.39038306 1.3510535 0
3.5760002 -0.3954626 1.3492677 0
3.5700002 -0.40052047 1.3474818 0
3.5630002 -0.40544307 1.3453985 0
3.5570002 -0.41045585 1.3436128 0
3.5510004 -0.415447 1.341827 0
3.5450003 -0.42041647 1.3400413 0
3.5390003 -0.42536435 1.3382555 0
3.5320003 -0.43016788 1.336172 0
3.5260003 -0.43507063 1.3343862 0
3.5200002 -0.43995172 1.3326006 0
3.5140002 -0.44481117 1.3308147 0
3.5080001 -0.44964898 1.329029 0
3.5020003 -0.45446518 1.3272432 0
3.4960003 -0.45925969 1.3254575 0
3.4900002 -0.46403256 1.3236717 0
3.4840002 -0.46878377 1.3218858 0
3.4780002 -0.47351336 1.3201001 0
3.4730003 -0.47836202 1.318612 0
3.4670002 -0.48305011 1.3168262 0
3.4610002 -0.48771656 1.3150405 0
3.4550002 -0.49236137 1.3132546 0
3.4490004 -0.49698454 1.311469 0
3.4440002 -0.50173575 1.3099808 0
3.4380002 -0.50631744 1.308195 0
3.4330003 -0.51650172 1.3067069 0
3.4330003 -0.52197272 1.3067069 0
3.8120003 -0.20601945 1.4133534 0
3.8040001 -0.21178441 1.4109868 0
3.7970002 -0.21757104 1.408916 0
3.7900002 -0.22333239 1.4068452 0
3.7830002 -0.2290685 1.4047744 0
3.7760003 -0.23477936 1.4027036 0
3.7690003 -0.24046497 1.400633 0
3.7620003 -0.24612531 1.3985622 0
3.7550004 -0.25176039 1.3964914 0
3.7480001 -0.25737023 1.3944206 0
3.7410002 -0.26295483 1.3923498 0
3.7340002 -0.26851416 1.3902791 0
3.7270002 -0.27404824 1.3882084 0
3.7200003 -0.27955711 1.3861376 0
3.7130003 -0.28504065 1.3840667 0
3.7060003 -0.29049897 1.3819959 0
3.7000003 -0.29600781 1.380221 0
3.6930003 -0.30141747 1.3781503 0
3.6860003 -0.30680183 1.3760796 0
3.6790001 -0.31216094 1.3740087 0
3.6730003 -0.31757778 1.3722337 0
3.6660004 -0.3228882 1.370163 0
3.6590002 -0.32817334 1.3680922 0
3.6530004 -0.33352163 1.3663174 0
3.6460001 -0.33875808 1.3642465 0
3.6400003 -0.34406129 1.3624716 0
3.6330001 -0.34924901 1.3604008 0
3.6270003 -0.35450712 1.3586259 0
3.6200004 -0.3596462 1.3565551 0
3.6140003 -0.36485919 1.3547801 0
3.6070004 -0.36994955 1.3527094 0
3.6010003 -0.37511745 1.3509344 0
3.5950003 -0.38026372 1.3491595 0
3.5880003 -0.38528189 1.3470887 0
3.5820003 -0.39038306 1.3453138 0
3.5760002 -0.3954626 1.3435388 0
3.5700002 -0.40052047 1.3417639 0
3.5630002 -0.40544307 1.3396931 0
3.5570002 -0.41045585 1.337918 0
3.5510004 -0.415447 1.3361433 0
3.5450003 -0.42041647 1.3343682 0
3.5390003 -0.42536435 1.3325933 0
3.5320003 -0.43016788 1.3305225 0
3.5260003 -0.43507063 1.3287475 0
3.5200002 -0.43995172 1.3269726 0
3.5140002 -0.44481117 1.3251977 0
3.5080001 -0.44964898 1.3234227 0
3.5020003 -0.45446518 1.3216478 0
3.4960003 -0.45925969 1.3198729 0
3.4900002 -0.46403256 1.3180978 0
3.4840002 -0.46878377 1.3163229 0
3.4780002 -0.47351336 1.314548 0
3.4730003 -0.47836202 1.3130689 0
3.4670002 -0.48305011 1.311294 0
3.4610002 -0.48771656 1.3095189 0
3.4550002 -0.49236137 1.307744 0
3.4520001 -0.49742827 1.3068565 0
3.4520001 -0.50293344 1.3068565 0
3.4520001 -0.50843871 1.3068565 0
3.8120003 -0.20601945 1.4071988 0
3.8040001 -0.21178441 1.4048465 0
3.7970002 -0.21757104 1.4027884 0
3.7900002 -0.22333239 1.4007303 0
3.7830002 -0.2290685 1.3986722 0
3.7760003 -0.23477936 1.3966141 0
3.7690003 -0.24046497 1.3945559 0
3.7620003 -0.24612531 1.3924978 0
3.7550004 -0.25176039 1.3904396 0
3.7480001 -0.25737023 1.3883814 0
3.7410002 -0.26295483 1.3863233 0
3.7340002 -0.26851416 1.3842652 0
3.7270002 -0.27404824 1.382207 0
3.7200003 -0.27955711 1.3801489 0
3.7130003 -0.28504065 1.3780907 0
3.7060003 -0.29049897 1.3760326 0
3.7000003 -0.29600781 1.3742684 0
3.6930003 -0.30141747 1.3722104 0
3.6860003 -0.30680183 1.3701522 0
3.6790001 -0.31216094 1.368094 0
3.6730003 -0.31757778 1.3663299 0
3.6660004 -0.3228882 1.3642718 0
3.6590002 -0.32817334 1.3622135 0
3.6530004 -0.33352163 1.3604494 0
3.6460001 -0.33875808 1.3583913 0
3.6400003 -0.34406129 1.3566272 0
3.6330001 -0.34924901 1.3545691 0
3.6270003 -0.35450712 1.352805 0
3.6200004 -0.3596462 1.3507469 0
3.6140003 -0.36485919 1.3489827 0
3.6070004 -0.36994955 1.3469245 0
3.6010003 -0.37511745 1.3451605 0
3.5950003 -0.38026372 1.3433963 0
3.5880003 -0.38528189 1.3413382 0
3.5820003 -0.39038306 1.339574 0
3.5760002 -0.3954626 1.3378099 0
3.5700002 -0.40052047 1.3360457 0
3.5630002 -0.40544307 1.3339876 0
3.5570002 -0.41045585 1.3322234 0
3.5510004 -0.415447 1.3304594 0
3.5450003 -0.42041647 1.3286952 0
3.5390003 -0.42536435 1.3269311 0
3.5320003 -0.43016788 1.324873 0
3.5260003 -0.43507063 1.3231089 0
3.5200002 -0.43995172 1.3213447 0
3.5140002 -0.44481117 1.3195806 0
3.5080001 -0.44964898 1.3178165 0
3.5020003 -0.45446518 1.3160524 0
3.4960003 -0.45925969 1.3142883 0
3.4900002 -0.46403256 1.3125241 0
3.4840002 -0.46878377 1.31076 0
3.4790003 -0.4736523 1.3092899 0
3.8120003 -0.20601945 1.4010441 0
3.8040001 -0.21178441 1.3987064 0
3.7970002 -0.21757104 1.3966609 0
3.7900002 -0.22333239 1.3946154 0
3.7830002 -0.2290685 1.3925699 0
3.7760003 -0.23477936 1.3905244 0
3.7690003 -0.24046497 1.3884789 0
3.7620003 -0.24612531 1.3864334 0
3.7550004 -0.25176039 1.3843879 0
3.7480001 -0.25737023 1.3823423 0
3.7410002 -0.26295483 1.3802967 0
3.7340002 -0.26851416 1.3782513 0
3.7270002 -0.27404824 1.3762057 0
3.7200003 -0.27955711 1.3741603 0
3.7130003 -0.28504065 1.3721148 0
3.7060003 -0.29049897 1.3700691 0
3.7000003 -0.29600781 1.3683159 0
3.6930003 -0.30141747 1.3662704 0
3.6860003 -0.30680183 1.3642249 0
3.6790001 -0.31216094 1.3621793 0
3.6730003 -0.31757778 1.3604261 0
3.6660004 -0.3228882 1.3583806 0
3.6590002 -0.32817334 1.3563349 0
3.6530004 -0.33352163 1.3545817 0
3.6460001 -0.33875808 1.3525361 0
3.6400003 -0.34406129 1.350783 0
3.6330001 -0.34924901 1.3487374 0
3.6270003 -0.35450712 1.3469841 0
3.6200004 -0.3596462 1.3449385 0
3.6140003 -0.36485919 1.3431853 0
3.6070004 -0.36994955 1.3411398 0
3.6010003 -0.37511745 1.3393863 0
3.5950003 -0.38026372 1.3376331 0
3.5880003 -0.38528189 1.3355876 0
3.5820003 -0.39038306 1.3338343 0
3.5760002 -0.3954626 1.332081 0
3.5700002 -0.40052047 1.3303277 0
3.5630002 -0.40544307 1.3282821 0
3.5570002 -0.41045585 1.3265289 0
3.5510004 -0.415447 1.3247756 0
3.5450003 -0.42041647 1.3230222 0
3.5390003 -0.42536435 1.321269 0
3.5320003 -0.43016788 1.3192235 0
3.5260003 -0.43507063 1.3174702 0
3.5200002 -0.43995172 1.3157169 0
3.5140002 -0.44481117 1.3139635 0
3.5080001 -0.44964898 1.3122102 0
