# .PCD v0.7 - Point Cloud Data file format
VERSION 0.7
FIELDS x y z intensity
SIZE 4 4 4 4
TYPE F F F F
COUNT 1 1 1 1
WIDTH 1380
HEIGHT 1
VIEWPOINT 0 0 0 1 0 0 0
POINTS 1380
DATA ascii
5.5010004 -0.15641472 1.0756896 0
5.4990005 -0.16556904 1.0754261 0
5.4980001 -0.1747414 1.0752944 0
5.4980001 -0.18393722 1.0752944 0
5.4980001 -0.19313303 1.0752944 0
5.4980001 -0.20232885 1.0752944 0
5.5000005 -0.2115896 1.0755578 0
5.5020003 -0.22085756 1.0758212 0
5.5050001 -0.23016882 1.0762162 0
5.5090003 -0.23952878 1.0767429 0
5.5140004 -0.24894287 1.0774013 0
5.5200005 -0.25841647 1.0781914 0
5.5280004 -0.26799828 1.0792449 0
5.5310001 -0.10153204 1.0703845 0
5.5230002 -0.11068636 1.0693455 0
5.5160003 -0.11982626 1.0684364 0
5.5110002 -0.12897336 1.0677869 0
5.5070004 -0.13812049 1.0672675 0
5.5030003 -0.14725317 1.066748 0
5.5000005 -0.15639307 1.0663584 0
5.4980001 -0.16554558 1.0660986 0
5.4970002 -0.17471614 1.0659688 0
5.4970002 -0.18391016 1.0659688 0
5.4970002 -0.19310416 1.0659688 0
5.4970002 -0.20229818 1.0659688 0
5.4990005 -0.21155713 1.0662285 0
5.5010004 -0.2208233 1.0664883 0
5.5040002 -0.23013274 1.0668778 0
5.5080004 -0.23949091 1.0673975 0
5.5130005 -0.24890319 1.0680468 0
5.5190005 -0.25837496 1.068826 0
5.5270004 -0.26795498 1.069865 0
5.5300002 -0.10152122 1.0610011 0
5.5220003 -0.11067374 1.0599766 0
5.5150003 -0.11981183 1.05908 0
5.5100002 -0.12895714 1.0584396 0
5.5060005 -0.13810246 1.0579274 0
5.5030003 -0.14725317 1.0575432 0
5.5000005 -0.15639307 1.0571591 0
5.4980001 -0.16554558 1.0569028 0
5.4970002 -0.17471614 1.0567747 0
5.4960003 -0.1838831 1.0566467 0
5.4960003 -0.19307531 1.0566467 0
5.4970002 -0.20229818 1.0567747 0
5.4980001 -0.21152465 1.0569028 0
5.5010004 -0.2208233 1.0572871 0
5.5040002 -0.23013274 1.0576712 0
5.5070004 -0.23945303 1.0580555 0
5.5120006 -0.2488635 1.0586958 0
5.5180001 -0.25833347 1.0594642 0
5.5260005 -0.2679117 1.0604888 0
5.5300002 -0.10152122 1.0517476 0
5.5230002 -0.11068636 1.0508636 0
5.5160003 -0.11982626 1.0499798 0
5.5110002 -0.12897336 1.0493485 0
5.5070004 -0.13812049 1.0488434 0
5.5030003 -0.14725317 1.0483384 0
5.5010004 -0.15641472 1.0480858 0
5.4990005 -0.16556904 1.0478333 0
5.4980001 -0.1747414 1.047707 0
5.4970002 -0.18391016 1.0475807 0
5.4970002 -0.19310416 1.0475807 0
5.4980001 -0.20232885 1.047707 0
5.4990005 -0.21155713 1.0478333 0
5.5020003 -0.22085756 1.0482121 0
5.5040002 -0.23013274 1.0484645 0
5.5080004 -0.23949091 1.0489697 0
5.5130005 -0.24890319 1.0496011 0
5.5190005 -0.25837496 1.0503587 0
5.5260005 -0.2679117 1.0512425 0
5.5310001 -0.10153204 1.0426184 0
5.5240002 -0.110699 1.0417472 0
5.5170002 -0.1198407 1.0408759 0
5.5120006 -0.12898961 1.0402538 0
5.5080004 -0.13813852 1.0397558 0
5.5040002 -0.147273 1.0392579 0
5.5020003 -0.15643635 1.0390091 0
5.5000005 -0.16559249 1.0387602 0
5.4980001 -0.1747414 1.0385112 0
5.4980001 -0.18393722 1.0385112 0
5.4980001 -0.19313303 1.0385112 0
5.4990005 -0.20235951 1.0386357 0
5.5000005 -0.2115896 1.0387602 0
5.5020003 -0.22085756 1.0390091 0
5.5050001 -0.23016882 1.0393825 0
5.5090003 -0.23952878 1.0398803 0
5.5140004 -0.24894287 1.0405027 0
5.5200005 -0.25841647 1.0412494 0
5.5270004 -0.26795498 1.0421207 0
5.5330005 -0.10155369 1.0336084 0
5.5260005 -0.11072426 1.0327499 0
5.5190005 -0.11986956 1.0318912 0
5.5140004 -0.12902208 1.0312779 0
5.5100002 -0.13817459 1.0307872 0
5.5060005 -0.1473127 1.0302967 0
5.5030003 -0.15645799 1.0299287 0
5.5010004 -0.16561593 1.0296834 0
5.5000005 -0.17479192 1.0295607 0
5.5000005 -0.18399134 1.0295607 0
5.5000005 -0.19319075 1.0295607 0
5.5010004 -0.20242085 1.0296834 0
5.5020003 -0.21165454 1.029806 0
5.5040002 -0.22092611 1.0300514 0
5.5070004 -0.23024099 1.0304193 0
5.5110002 -0.23960453 1.0309099 0
5.5160003 -0.24902222 1.0315232 0
5.5220003 -0.25849944 1.0322592 0
5.5300002 -0.26808485 1.0332404 0
5.5370002 -0.10159698 1.024833 0
5.5290003 -0.11076212 1.0238661 0
5.5220003 -0.11991285 1.0230201 0
5.5170002 -0.12907077 1.0224159 0
5.5120006 -0.13821068 1.0218116 0
5.5090003 -0.14737222 1.021449 0
5.5060005 -0.15652294 1.0210865 0
5.5040002 -0.16568629 1.0208447 0
5.5030003 -0.17486767 1.0207238 0
5.5020003 -0.18404545 1.0206029 0
5.5020003 -0.19324848 1.0206029 0
5.5030003 -0.20248216 1.0207238 0
5.5050001 -0.21175194 1.0209656 0
5.5070004 -0.22102892 1.0212073 0
5.5100002 -0.2303492 1.0215698 0
5.5140004 -0.23971818 1.0220532 0
5.5190005 -0.24914129 1.0226575 0
5.5250006 -0.2586239 1.0233827 0
5.5330005 -0.26821473 1.0243495 0
5.5400004 -0.10162945 1.015924 0
5.5320005 -0.11080001 1.0149715 0
5.5250006 -0.11995614 1.0141382 0
5.5200005 -0.12911949 1.0135429 0
5.5150003 -0.13826479 1.0129477 0
5.5120006 -0.14743175 1.0125905 0
5.5090003 -0.15658787 1.0122333 0
5.5070004 -0.16575664 1.0119952 0
5.5060005 -0.17494345 1.0118762 0
5.5050001 -0.1841266 1.0117571 0
5.5050001 -0.19333506 1.0117571 0
5.5060005 -0.20257418 1.0118762 0
5.5080004 -0.21184936 1.0121143 0
5.5100002 -0.22113174 1.0123523 0
5.5130005 -0.23045744 1.0127096 0
5.5170002 -0.23983182 1.0131857 0
5.5230002 -0.2493 1.0139 0
5.5290003 -0.25878984 1.0146143 0
5.5370002 -0.26838791 1.0155667 0
5.5370002 -0.11086313 1.0063006 0
5.5300002 -0.12002829 1.0054798 0
5.5250006 -0.12920065 1.0048937 0
5.5200005 -0.13835499 1.0043074 0
5.5160003 -0.14751111 1.0038384 0
5.5130005 -0.15667446 1.0034866 0
5.5110002 -0.16585043 1.0032521 0
5.5100002 -0.17504445 1.0031348 0
5.5100002 -0.1842619 1.0031348 0
5.5100002 -0.19347936 1.0031348 0
5.5110002 -0.20272748 1.0032521 0
5.5120006 -0.21197923 1.0033695 0
5.5150003 -0.22130311 1.0037211 0
5.5180001 -0.2306378 1.0040729 0
5.5220003 -0.24002123 1.0045419 0
5.5270004 -0.24945875 1.0051281 0
5.5340004 -0.25899729 1.0059489 0
5.5430002 -0.11093889 0.99772704 0
5.5350003 -0.12010044 0.99680352 0
5.5300002 -0.12928182 0.99622631 0
5.5250006 -0.13844517 0.9956491 0
5.5210004 -0.14761032 0.9951874 0
5.5180001 -0.15678269 0.99484098 0
5.5160003 -0.16596767 0.99461007 0
5.5150003 -0.1751707 0.99449468 0
5.5140004 -0.18437015 0.99437928 0
5.5140004 -0.19359481 0.99437928 0
5.5150003 -0.20285015 0.99449468 0
5.5170002 -0.21214156 0.99472558 0
5.5190005 -0.22144021 0.99495649 0
5.5230002 -0.2308182 0.99541819 0
5.5270004 -0.24021062 0.99588001 0
5.5330005 -0.24969687 0.99657273 0
5.5400004 -0.2592462 0.99738073 0
5.5430002 -0.12021588 0.98845005 0
5.5360003 -0.12937923 0.98765469 0
5.5310001 -0.1385534 0.98708642 0
5.5270004 -0.14772937 0.98663187 0
5.5240002 -0.15691255 0.98629093 0
5.5220003 -0.16610838 0.9860636 0
5.5200005 -0.17529699 0.98583639 0
5.5200005 -0.18453248 0.98583639 0
5.5200005 -0.19376798 0.98583639 0
5.5210004 -0.20303415 0.98594999 0
5.5230002 -0.21233638 0.98617733 0
5.5260005 -0.2216801 0.98651826 0
5.5290003 -0.23103465 0.9868592 0
5.5340004 -0.24047577 0.98742735 0
5.5390005 -0.24993496 0.98799551 0
5.5380001 -0.13867967 0.97861397 0
5.5340004 -0.14786826 0.97816658 0
5.5310001 -0.15706408 0.97783113 0
5.5290003 -0.16627252 0.97760737 0
5.5270004 -0.17547376 0.97738373 0
5.5270004 -0.18472189 0.97738373 0
5.5270004 -0.19397001 0.97738373 0
5.5280004 -0.20324878 0.97749555 0
5.5300002 -0.21256365 0.97771919 0
5.5320005 -0.22188576 0.97794294 0
5.5360003 -0.23128718 0.97839022 0
5.5420003 -0.24077882 0.97906125 0
5.5350003 -0.19420089 0.96901584 0
5.5360003 -0.2034941 0.96912599 0
5.5380001 -0.21282341 0.96934593 0
5.5410004 -0.22219419 0.96967602 0
5.4540005 -0.14628091 0.92363751 0
5.4510002 -0.15533242 0.923329 0
5.4500003 -0.16442001 0.92322624 0
5.4500003 -0.17352925 0.92322624 0
5.4530005 -0.18271965 0.92353463 0
5.4560003 -0.13720055 0.91472304 0
5.4520001 -0.14624122 0.91431892 0
5.4490004 -0.15528914 0.91401601 0
5.4480004 -0.16437311 0.91391492 0
5.4480004 -0.17347874 0.91391492 0
5.4510002 -0.18266553 0.91421795 0
5.4550004 -0.19189201 0.91462207 0
5.4600005 -0.12814543 0.9059999 0
5.4550004 -0.1371825 0.90550387 0
5.4510002 -0.14622138 0.9051069 0
5.4490004 -0.15528914 0.90490854 0
5.4480004 -0.16437311 0.90480936 0
5.4480004 -0.17347874 0.90480936 0
5.4500003 -0.18263847 0.90500772 0
5.4550004 -0.19189201 0.90550387 0
5.4640002 -0.11907588 0.89726216 0
5.4570003 -0.12809671 0.89658034 0
5.4530005 -0.13714644 0.89619076 0
5.4500003 -0.14620155 0.89589852 0
5.4490004 -0.15528914 0.89580113 0
5.4480004 -0.16437311 0.89570367 0
5.4480004 -0.17347874 0.89570367 0
5.4510002 -0.18266553 0.89599586 0
5.4550004 -0.19189201 0.89638555 0
5.4610004 -0.11903259 0.88784099 0
5.4560003 -0.12808049 0.8873629 0
5.4520001 -0.13712838 0.88698053 0
5.4500003 -0.14620155 0.88678932 0
5.4490004 -0.15528914 0.88669372 0
5.4480004 -0.16437311 0.88659811 0
5.4480004 -0.17347874 0.88659811 0
5.4510002 -0.18266553 0.88688487 0
5.4550004 -0.19189201 0.88726729 0
5.4620004 -0.20122491 0.88793647 0
5.4650002 -0.10995401 0.87908697 0
5.4580002 -0.11898929 0.87843037 0
5.4540005 -0.12804802 0.87805521 0
5.4520001 -0.13712838 0.87786764 0
5.4510002 -0.14622138 0.87777388 0
5.4490004 -0.15528914 0.87758625 0
5.4480004 -0.16437311 0.87749249 0
5.4480004 -0.17347874 0.87749249 0
5.4510002 -0.18266553 0.87777388 0
5.4550004 -0.19189201 0.87814903 0
5.4620004 -0.20122491 0.87880564 0
5.4620004 -0.10991614 0.8696748 0
5.4570003 -0.11897486 0.86921477 0
5.4540005 -0.12804802 0.8689388 0
5.4520001 -0.13712838 0.8687548 0
5.4510002 -0.14622138 0.86866283 0
5.4490004 -0.15528914 0.86847889 0
5.4480004 -0.16437311 0.86838686 0
5.4480004 -0.17347874 0.86838686 0
5.4510002 -0.18266553 0.86866283 0
5.4550004 -0.19189201 0.86903083 0
5.4620004 -0.20122491 0.8696748 0
5.4650002 -0.10081773 0.86081445 0
5.4600005 -0.10989089 0.86036348 0
5.4560003 -0.11896044 0.86000276 0
5.4530005 -0.12803179 0.85973215 0
5.4520001 -0.13712838 0.85964197 0
5.4520001 -0.14624122 0.85964197 0
5.4490004 -0.15528914 0.85937142 0
5.4480004 -0.16437311 0.85928124 0
5.4480004 -0.17347874 0.85928124 0
5.4510002 -0.18266553 0.85955179 0
5.4550004 -0.19189201 0.85991251 0
5.4620004 -0.20122491 0.86054385 0
5.4700003 -0.091726542 0.85212004 0
5.4630003 -0.10079609 0.85150135 0
5.4580002 -0.10986564 0.85105944 0
5.4550004 -0.118946 0.85079432 0
5.4540005 -0.12804802 0.85070592 0
5.4530005 -0.13714644 0.85061753 0
5.4520001 -0.14624122 0.85052913 0
5.4490004 -0.15528914 0.85026395 0
5.4480004 -0.16437311 0.85017562 0
5.4480004 -0.17347874 0.85017562 0
5.4510002 -0.18266553 0.85044074 0
5.4550004 -0.19189201 0.85079432 0
5.4620004 -0.20122491 0.85141301 0
5.4660006 -0.091690466 0.84262848 0
5.4610004 -0.10077444 0.84219551 0
5.4570003 -0.10985301 0.84184921 0
5.4550004 -0.118946 0.84167606 0
5.4540005 -0.12804802 0.84158945 0
5.4550004 -0.1371825 0.84167606 0
5.4520001 -0.14624122 0.84141624 0
5.4490004 -0.15528914 0.8411566 0
5.4480004 -0.16437311 0.84106994 0
5.4480004 -0.17347874 0.84106994 0
5.4510002 -0.18266553 0.84132969 0
5.4550004 -0.19189201 0.84167606 0
5.4620004 -0.20122491 0.84228212 0
5.4700003 -0.08258123 0.83382946 0
5.4640002 -0.091672421 0.8333208 0
5.4590001 -0.10075279 0.83289689 0
5.4570003 -0.10985301 0.83272731 0
5.4550004 -0.118946 0.8325578 0
5.4550004 -0.12806426 0.8325578 0
5.4560003 -0.13720055 0.83264256 0
5.4520001 -0.14624122 0.8323034 0
5.4490004 -0.15528914 0.83204913 0
5.4480004 -0.16437311 0.83196437 0
5.4480004 -0.17347874 0.83196437 0
5.4510002 -0.18266553 0.83221865 0
5.4550004 -0.19189201 0.8325578 0
5.4620004 -0.20122491 0.83315122 0
5.4670005 -0.082559586 0.82443523 0
5.4620004 -0.09165439 0.82402039 0
5.4590001 -0.10075279 0.82377142 0
5.4560003 -0.10984038 0.82352251 0
5.4560003 -0.11896044 0.82352251 0
5.4560003 -0.12808049 0.82352251 0
5.4570003 -0.13721858 0.82360548 0
5.4520001 -0.14624122 0.82319057 0
5.4490004 -0.15528914 0.82294166 0
5.4480004 -0.16437311 0.82285869 0
5.4480004 -0.17347874 0.82285869 0
5.4510002 -0.18266553 0.8231076 0
5.4550004 -0.19189201 0.82343954 0
5.4620004 -0.20122491 0.82402039 0
5.4710002 -0.073441334 0.81562006 0
5.4650002 -0.082545154 0.81513298 0
5.4600005 -0.091636352 0.81472719 0
5.4580002 -0.10074197 0.81456482 0
5.4570003 -0.10985301 0.81448364 0
5.4570003 -0.11897486 0.81448364 0
5.4580002 -0.12811296 0.81456482 0
5.4570003 -0.13721858 0.81448364 0
5.4520001 -0.14624122 0.81407773 0
5.4490004 -0.15528914 0.81383431 0
5.4480004 -0.16437311 0.81375313 0
5.4480004 -0.17347874 0.81375313 0
5.4510002 -0.18266553 0.81399655 0
5.4550004 -0.19189201 0.81432128 0
5.4620004 -0.20122491 0.81488949 0
5.4680004 -0.073425099 0.80623484 0
5.4630003 -0.082530722 0.80583799 0
5.4600005 -0.091636352 0.80559993 0
5.4580002 -0.10074197 0.80544114 0
5.4580002 -0.10986564 0.80544114 0
5.4580002 -0.11898929 0.80544114 0
5.4610004 -0.12816167 0.80567926 0
5.4570003 -0.13721858 0.80536175 0
5.4520001 -0.14624122 0.8049649 0
5.4490004 -0.15528914 0.80472684 0
5.4480004 -0.16437311 0.80464745 0
5.4480004 -0.17347874 0.80464745 0
5.4510002 -0.18266553 0.80488557 0
5.4550004 -0.19189201 0.80520308 0
5.4620004 -0.20122491 0.8057586 0
5.4720001 -0.064297833 0.79740334 0
5.4660006 -0.073414281 0.796938 0
5.4620004 -0.08252351 0.79662776 0
5.4590001 -0.09162733 0.79639506 0
5.4590001 -0.10075279 0.79639506 0
5.4590001 -0.10987826 0.79639506 0
5.4600005 -0.11901817 0.79647261 0
5.4630003 -0.12819412 0.79670531 0
5.4570003 -0.13721858 0.79623991 0
5.4520001 -0.14624122 0.79585207 0
5.4490004 -0.15528914 0.79561937 0
5.4480004 -0.16437311 0.79554188 0
5.4480004 -0.17347874 0.79554188 0
5.4510002 -0.18266553 0.79577452 0
5.4550004 -0.19189201 0.79608482 0
5.4620004 -0.20122491 0.79662776 0
5.4760003 -0.05515613 0.78855753 0
5.4690003 -0.064287007 0.78802717 0
5.4640002 -0.073403455 0.78764838 0
5.4610004 -0.082516298 0.78742111 0
5.4600005 -0.091636352 0.78734535 0
5.4590001 -0.10075279 0.78726959 0
5.4600005 -0.10989089 0.78734535 0
5.4630003 -0.11906146 0.78757262 0
5.4650002 -0.12822659 0.78772414 0
5.4570003 -0.13721858 0.78711808 0
5.4520001 -0.14624122 0.78673923 0
5.4490004 -0.15528914 0.78651202 0
5.4480004 -0.16437311 0.7864362 0
5.4480004 -0.17347874 0.7864362 0
5.4510002 -0.18266553 0.78666347 0
5.4550004 -0.19189201 0.78696656 0
5.4620004 -0.20122491 0.78749681 0
5.4730005 -0.055150717 0.77917951 0
5.4670005 -0.064279795 0.77873576 0
5.4630003 -0.073398046 0.77843994 0
5.4610004 -0.082516298 0.77829206 0
5.4600005 -0.091636352 0.77821809 0
5.4610004 -0.10077444 0.77829206 0
5.4620004 -0.10991614 0.77836597 0
5.4660006 -0.11910474 0.77866185 0
5.4650002 -0.12822659 0.77858782 0
5.4570003 -0.13721858 0.77799618 0
5.4520001 -0.14624122 0.7776264 0
5.4490004 -0.15528914 0.77740455 0
5.4480004 -0.16437311 0.77733064 0
5.4480004 -0.17347874 0.77733064 0
5.4510002 -0.18266553 0.77755249 0
5.4550004 -0.19189201 0.77784824 0
5.4620004 -0.20122491 0.77836597 0
5.4770002 -0.046 0.77031738 0
5.4700003 -0.055145308 0.76981235 0
5.4660006 -0.064276189 0.76952374 0
5.4630003 -0.073398046 0.76930726 0
5.4610004 -0.082516298 0.76916295 0
5.4610004 -0.091645367 0.76916295 0
5.4620004 -0.10078526 0.76923513 0
5.4650002 -0.10995401 0.76945156 0
5.4690003 -0.11914803 0.76974016 0
5.4650002 -0.12822659 0.76945156 0
5.4570003 -0.13721858 0.76887429 0
5.4520001 -0.14624122 0.76851356 0
5.4490004 -0.15528914 0.76829708 0
5.4480004 -0.16437311 0.76822495 0
5.4480004 -0.17347874 0.76822495 0
5.4510002 -0.18266553 0.76844144 0
5.4550004 -0.19189201 0.76873004 0
5.4620004 -0.20122491 0.76923513 0
5.4740005 -0.046 0.76094842 0
5.4680004 -0.055141702 0.7605263 0
5.4650002 -0.064272575 0.7603153 0
5.4630003 -0.073398046 0.76017457 0
5.4620004 -0.08252351 0.76010424 0
5.4630003 -0.091663405 0.76017457 0
5.4650002 -0.10081773 0.7603153 0
5.4680004 -0.10999191 0.7605263 0
5.4730005 -0.11920576 0.76087809 0
5.4650002 -0.12822659 0.7603153 0
5.4570003 -0.13721858 0.75975251 0
5.4520001 -0.14624122 0.75940073 0
5.4490004 -0.15528914 0.75918972 0
5.4480004 -0.16437311 0.75911939 0
5.4480004 -0.17347874 0.75911939 0
5.4510002 -0.18266553 0.75933039 0
5.4550004 -0.19189201 0.75961185 0
5.4620004 -0.20122491 0.76010424 0
5.4770002 -0.036842067 0.75200152 0
5.4710002 -0.046 0.75159025 0
5.4670005 -0.055139896 0.75131607 0
5.4640002 -0.064268969 0.75111043 0
5.4630003 -0.073398046 0.75104189 0
5.4630003 -0.082530722 0.75104189 0
5.4640002 -0.091672421 0.75111043 0
5.4670005 -0.10083938 0.75131607 0
5.4710002 -0.11002979 0.75159025 0
5.4780002 -0.11927791 0.75207007 0
5.4650002 -0.12822659 0.75117898 0
5.4570003 -0.13721858 0.75063062 0
5.4520001 -0.14624122 0.75028789 0
5.4490004 -0.15528914 0.75008225 0
5.4480004 -0.16437311 0.75001371 0
5.4480004 -0.17347874 0.75001371 0
5.4510002 -0.18266553 0.75021935 0
5.4550004 -0.19189201 0.75049353 0
5.4620004 -0.20122491 0.75097334 0
5.4750004 -0.036845673 0.74271011 0
5.4690003 -0.046 0.74230969 0
5.4660006 -0.055138092 0.74210942 0
5.4640002 -0.064268969 0.74197596 0
5.4640002 -0.073403455 0.74197596 0
5.4640002 -0.082537934 0.74197596 0
5.4670005 -0.091699481 0.74217618 0
5.4700003 -0.10087185 0.74237645 0
5.4760003 -0.11009291 0.74277687 0
5.4810004 -0.1193212 0.74311054 0
5.4650002 -0.12822659 0.74204266 0
5.4570003 -0.13721858 0.74150878 0
5.4520001 -0.14624122 0.74117506 0
5.4490004 -0.15528914 0.74097484 0
5.4480004 -0.16437311 0.74090815 0
5.4480004 -0.17347874 0.74090815 0
5.4510002 -0.18266553 0.7411083 0
5.4550004 -0.19189201 0.74137527 0
5.4620004 -0.20122491 0.74184251 0
5.4780002 -0.027680524 0.73375058 0
5.4720001 -0.036851086 0.73336095 0
5.4680004 -0.046 0.73310125 0
5.4660006 -0.055138092 0.73297137 0
5.4650002 -0.064272575 0.73290634 0
5.4650002 -0.073408864 0.73290634 0
5.4660006 -0.082552373 0.73297137 0
5.4690003 -0.091717519 0.73316616 0
5.4740005 -0.10091513 0.73349082 0
5.4820004 -0.11016868 0.73401034 0
5.4810004 -0.1193212 0.73394537 0
5.4650002 -0.12822659 0.73290634 0
5.4570003 -0.13721858 0.73238689 0
5.4520001 -0.14624122 0.73206222 0
5.4490004 -0.15528914 0.73186743 0
5.4480004 -0.16437311 0.73180246 0
5.4480004 -0.17347874 0.73180246 0
5.4510002 -0.18266553 0.73199725 0
5.4550004 -0.19189201 0.73225701 0
5.4620004 -0.20122491 0.73271155 0
5.4830003 -0.018493729 0.7249065 0
5.4750004 -0.027691346 0.72440147 0
5.4710002 -0.036852889 0.72414887 0
5.4680004 -0.046 0.72395951 0
5.4660006 -0.055138092 0.72383326 0
5.4650002 -0.064272575 0.72377014 0
5.4660006 -0.073414281 0.72383326 0
5.4690003 -0.082574017 0.72402263 0
5.4730005 -0.091753602 0.72427517 0
5.4790006 -0.10096925 0.72465396 0
5.4890003 -0.11025706 0.72528529 0
5.4810004 -0.1193212 0.72478026 0
5.4650002 -0.12822659 0.72377014 0
5.4570003 -0.13721858 0.72326505 0
5.4520001 -0.14624122 0.72294939 0
5.4490004 -0.15528914 0.72275996 0
5.4480004 -0.16437311 0.72269684 0
5.4480004 -0.17347874 0.72269684 0
5.4510002 -0.18266553 0.7228862 0
5.4550004 -0.19189201 0.72313881 0
5.4620004 -0.20122491 0.72358072 0
5.4880004 -0.0092888959 0.71604443 0
5.4790006 -0.018515373 0.71549249 0
5.4730005 -0.027698562 0.71512449 0
5.4690003 -0.036856495 0.71487916 0
5.4670005 -0.046 0.71475649 0
5.4660006 -0.055138092 0.71469522 0
5.4670005 -0.064279795 0.71475649 0
5.4680004 -0.073425099 0.71481782 0
5.4720001 -0.082595661 0.7150631 0
5.4770002 -0.09178967 0.71536982 0
5.4850001 -0.10103419 0.71586037 0
5.4810004 -0.1193212 0.71561515 0
5.4650002 -0.12822659 0.71463382 0
5.4570003 -0.13721858 0.71414316 0
5.4520001 -0.14624122 0.71383655 0
5.4490004 -0.15528914 0.71365261 0
5.4480004 -0.16437311 0.71359122 0
5.4480004 -0.17347874 0.71359122 0
5.4510002 -0.18266553 0.71377522 0
5.4550004 -0.19189201 0.71402055 0
5.4620004 -0.20122491 0.71444982 0
5.4830003 -0.0093249716 0.70656902 0
5.4760003 -0.018531609 0.70615232 0
5.4720001 -0.027702169 0.70591426 0
5.4690003 -0.036856495 0.70573568 0
5.4680004 -0.046 0.70567608 0
5.4670005 -0.055139896 0.70561659 0
5.4680004 -0.064283401 0.70567608 0
5.4710002 -0.073441334 0.70585465 0
5.4750004 -0.082617313 0.70609283 0
5.4810004 -0.091825753 0.70644999 0
5.4920001 -0.10110995 0.70710468 0
5.4810004 -0.1193212 0.70644999 0
5.4650002 -0.12822659 0.7054975 0
5.4570003 -0.13721858 0.70502138 0
5.4520001 -0.14624122 0.70472372 0
5.4490004 -0.15528914 0.70454514 0
5.4480004 -0.16437311 0.70448565 0
5.4480004 -0.17347874 0.70448565 0
5.4510002 -0.18266553 0.70466417 0
5.4550004 -0.19189201 0.70490229 0
5.4620004 -0.20122491 0.70531893 0
5.4900002 0.018269684 0.69780433 0
5.4840002 0.0090233684 0.69745797 0
5.4900002 -9.3080103e-05 0.69780433 0
5.4800005 -0.0093466155 0.69722712 0
5.4740005 -0.018542431 0.69688076 0
5.4710002 -0.027705777 0.69670761 0
5.4690003 -0.036856495 0.69659215 0
5.4680004 -0.046 0.6965344 0
5.4690003 -0.055143505 0.69659215 0
5.4710002 -0.064294219 0.69670761 0
5.4740005 -0.073457569 0.69688076 0
5.4790006 -0.082646169 0.69716936 0
5.4880004 -0.091888882 0.69768882 0
5.4810004 -0.1193212 0.69728482 0
5.4650002 -0.12822659 0.69636124 0
5.4570003 -0.13721858 0.69589949 0
5.4520001 -0.14624122 0.69561088 0
5.4490004 -0.15528914 0.69543767 0
5.4480004 -0.16437311 0.69537997 0
5.4480004 -0.17347874 0.69537997 0
5.4510002 -0.18266553 0.69555318 0
5.4550004 -0.19189201 0.69578403 0
5.4620004 -0.20122491 0.69618809 0
5.4880004 0.027422208 0.68851107 0
5.4840002 0.018193927 0.68828738 0
5.4800005 0.0089800768 0.68806374 0
5.4770002 -0.00021032989 0.68789601 0
5.4800005 -0.0093466155 0.68806374 0
5.4740005 -0.018542431 0.68772823 0
5.4700003 -0.027709385 0.68750453 0
5.4690003 -0.036856495 0.68744862 0
5.4690003 -0.046 0.68744862 0
5.4700003 -0.055145308 0.68750453 0
5.4730005 -0.064301439 0.68767232 0
5.4770002 -0.073473804 0.68789601 0
5.4840002 -0.082682244 0.68828738 0
5.4810004 -0.1193212 0.68811965 0
5.4650002 -0.12822659 0.68722498 0
5.4570003 -0.13721858 0.68677759 0
5.4520001 -0.14624122 0.68649805 0
5.4490004 -0.15528914 0.68633032 0
5.4480004 -0.16437311 0.68627435 0
5.4480004 -0.17347874 0.68627435 0
5.4510002 -0.18266553 0.68644214 0
5.4550004 -0.19189201 0.68666577 0
5.4620004 -0.20122491 0.68705726 0
5.4930005 0.045867953 0.67960387 0
5.4880004 0.03659999 0.67933333 0
5.4840002 0.027364489 0.67911685 0
5.4800005 0.018143419 0.67890036 0
5.4770002 0.0089476071 0.678738 0
5.4750004 -0.00022836402 0.67862988 0
5.4810004 -0.0093393996 0.67895448 0
5.4750004 -0.01853702 0.67862988 0
5.4720001 -0.027702169 0.67846751 0
5.4700003 -0.036854692 0.67835927 0
5.4710002 -0.046 0.67841339 0
5.4730005 -0.055150717 0.67852163 0
5.4760003 -0.064312264 0.67868388 0
5.4820004 -0.073500857 0.6790086 0
5.4650002 -0.12822659 0.67808867 0
5.4570003 -0.13721858 0.67765576 0
5.4520001 -0.14624122 0.67738521 0
5.4490004 -0.15528914 0.67722285 0
5.4480004 -0.16437311 0.67716873 0
5.4480004 -0.17347874 0.67716873 0
5.4510002 -0.18266553 0.67733109 0
5.4550004 -0.19189201 0.67754757 0
5.4620004 -0.20122491 0.67792636 0
5.4970002 0.064328119 0.67062628 0
5.4920001 0.055034902 0.67036474 0
5.4880004 0.045777764 0.67015553 0
5.4840002 0.036535043 0.66994631 0
5.4810004 0.027321201 0.66978937 0
5.4790006 0.01813079 0.66968477 0
5.4770002 0.0089476071 0.6695801 0
5.4750004 -0.00022836402 0.6694755 0
5.4740005 -0.0093899071 0.66942322 0
5.4790006 -0.018515373 0.66968477 0
5.4750004 -0.027691346 0.6694755 0
5.4740005 -0.036847476 0.66942322 0
5.4740005 -0.046 0.66942322 0
5.4760003 -0.05515613 0.66952777 0
5.4800005 -0.064326689 0.66973704 0
5.4650002 -0.12822659 0.66895235 0
5.4570003 -0.13721858 0.66853392 0
5.4520001 -0.14624122 0.66827232 0
5.4490004 -0.15528914 0.66811538 0
5.4480004 -0.16437311 0.66806316 0
5.4480004 -0.17347874 0.66806316 0
5.4510002 -0.18266553 0.66822004 0
5.4550004 -0.19189201 0.66842926 0
5.4620004 -0.20122491 0.66879547 0
5.4960003 0.073498681 0.66138184 0
5.4920001 0.064219892 0.66117978 0
5.4880004 0.054955538 0.66097772 0
5.4840002 0.045705605 0.66077572 0
5.4820004 0.036502581 0.66067469 0
5.4800005 0.027306769 0.66057372 0
5.4780002 0.018118169 0.66047269 0
5.4770002 0.0089476071 0.66042221 0
5.4760003 -0.00021934882 0.66037166 0
5.4760003 -0.0093754791 0.66037166 0
5.4780002 -0.018520785 0.66047269 0
5.4810004 -0.0276697 0.66062421 0
5.4790006 -0.036838457 0.66052318 0
5.4790006 -0.046 0.66052318 0
5.4810004 -0.055165149 0.66062421 0
5.4650002 -0.12822659 0.65981609 0
5.4570003 -0.13721858 0.65941203 0
5.4520001 -0.14624122 0.65915948 0
5.4490004 -0.15528914 0.65900803 0
5.4480004 -0.16437311 0.65895748 0
5.4480004 -0.17347874 0.65895748 0
5.4510002 -0.18266553 0.659109 0
5.4550004 -0.19189201 0.65931106 0
5.4620004 -0.20122491 0.65966457 0
5.5000005 0.091991335 0.6523844 0
5.4960003 0.082690895 0.65218961 0
5.4910002 0.073381439 0.65194607 0
5.4880004 0.064133316 0.65179998 0
5.4850001 0.054896008 0.65165389 0
5.4830003 0.045687575 0.65155643 0
5.4810004 0.036486346 0.6514591 0
5.4800005 0.027306769 0.65141034 0
5.4790006 0.01813079 0.65136164 0
5.4790006 0.0089692548 0.65136164 0
5.4780002 -0.00020131096 0.65131295 0
5.4790006 -0.0093538314 0.65136164 0
5.4800005 -0.018509962 0.65141034 0
5.4900002 -0.027637232 0.65189737 0
5.4870005 -0.036824025 0.65175128 0
5.4650002 -0.12822659 0.65067983 0
5.4570003 -0.13721858 0.65029019 0
5.4520001 -0.14624122 0.65004671 0
5.4490004 -0.15528914 0.64990056 0
5.4480004 -0.16437311 0.64985186 0
5.4480004 -0.17347874 0.64985186 0
5.4510002 -0.18266553 0.64999795 0
5.4550004 -0.19189201 0.6501928 0
5.4620004 -0.20122491 0.65053368 0
5.5050001 0.11054349 0.64341944 0
5.5000005 0.10119075 0.64318502 0
5.4950004 0.091856033 0.64295048 0
5.4920001 0.08258988 0.64280975 0
5.4890003 0.073334545 0.64266908 0
5.4860005 0.064090028 0.64252841 0
5.4840002 0.054876167 0.6424346 0
5.4830003 0.045687575 0.64238769 0
5.4820004 0.036502581 0.64234078 0
5.4810004 0.027321201 0.64229393 0
5.4810004 0.018156048 0.64229393 0
5.4820004 0.0090017207 0.64234078 0
5.4820004 -0.00016523153 0.64234078 0
5.4840002 -0.0093177557 0.6424346 0
5.4860005 -0.018477494 0.64252841 0
5.4890003 -0.02764084 0.64266908 0
5.4650002 -0.12822659 0.64154351 0
5.4570003 -0.13721858 0.64116836 0
5.4520001 -0.14624122 0.64093381 0
5.4490004 -0.15528914 0.64079314 0
5.4480004 -0.16437311 0.64074624 0
5.4480004 -0.17347874 0.64074624 0
5.4510002 -0.18266553 0.6408869 0
5.4550004 -0.19189201 0.64107454 0
5.4620004 -0.20122491 0.64140284 0
5.5040002 0.11971946 0.63416594 0
5.4990005 0.1103595 0.63394046 0
5.4950004 0.10104644 0.63376009 0
5.4920001 0.091774851 0.63362479 0
5.4900002 0.082539365 0.63353461 0
5.4880004 0.07331109 0.63344443 0
5.4860005 0.064090028 0.63335425 0
5.4850001 0.054896008 0.63330913 0
5.4840002 0.045705605 0.63326406 0
5.4840002 0.036535043 0.63326406 0
5.4840002 0.027364489 0.63326406 0
5.4850001 0.018206555 0.63330913 0
5.4860005 0.0090450123 0.63335425 0
5.4880004 -0.00011111796 0.63344443 0
5.4910002 -0.0092672519 0.63357973 0
5.4650002 -0.12822659 0.63240719 0
5.4570003 -0.13721858 0.63204646 0
5.4520001 -0.14624122 0.63182098 0
5.4490004 -0.15528914 0.63168573 0
5.4480004 -0.16437311 0.63164061 0
5.4480004 -0.17347874 0.63164061 0
5.4510002 -0.18266553 0.63177586 0
5.4550004 -0.19189201 0.63195628 0
5.4620004 -0.20122491 0.63227195 0
5.5080004 0.1474909 0.6251325 0
5.5080004 0.13827704 0.6251325 0
5.5030003 0.12889183 0.62491602 0
5.4990005 0.11955713 0.62474287 0
5.4960003 0.11026751 0.62461299 0
5.4930005 0.10098873 0.62448311 0
5.4910002 0.091747805 0.6243965 0
5.4890003 0.082514122 0.6243099 0
5.4880004 0.07331109 0.62426662 0
5.4870005 0.06411168 0.62422335 0
5.4860005 0.054915864 0.62418008 0
5.4860005 0.045741688 0.62418008 0
5.4870005 0.036583755 0.62422335 0
5.4880004 0.027422208 0.62426662 0
5.4900002 0.018269684 0.62435323 0
5.4920001 0.0091099478 0.62443984 0
5.4960003 -3.8966537e-05 0.62461299 0
5.4650002 -0.12822659 0.62327093 0
5.4570003 -0.13721858 0.62292463 0
5.4520001 -0.14624122 0.62270814 0
5.4490004 -0.15528914 0.62257826 0
5.4480004 -0.16437311 0.62253499 0
5.4480004 -0.17347874 0.62253499 0
5.4510002 -0.18266553 0.62266487 0
5.4550004 -0.19189201 0.62283802 0
5.4620004 -0.20122491 0.62314105 0
5.5000005 0.16558671 0.61558676 0
5.4990005 0.1563476 0.61554527 0
5.5000005 0.14718786 0.61558676 0
5.5020003 0.1380606 0.61566973 0
5.4990005 0.12875475 0.61554527 0
5.4960003 0.11945972 0.61542076 0
5.4940004 0.11020619 0.61533779 0
5.4920001 0.10095985 0.61525482 0
5.4910002 0.091747805 0.61521333 0
5.4900002 0.082539365 0.61517185 0
5.4890003 0.073334545 0.61513036 0
5.4890003 0.064154953 0.61513036 0
5.4890003 0.054975387 0.61513036 0
5.4900002 0.04581384 0.61517185 0
5.4920001 0.036664922 0.61525482 0
5.4940004 0.027508792 0.61533779 0
5.4970002 0.01835807 0.61546224 0
5.4650002 -0.12822659 0.61413467 0
5.4570003 -0.13721858 0.61380273 0
5.4520001 -0.14624122 0.61359531 0
5.4490004 -0.15528914 0.61347085 0
5.4480004 -0.16437311 0.61342937 0
5.4480004 -0.17347874 0.61342937 0
5.4510002 -0.18266553 0.61355382 0
5.4550004 -0.19189201 0.61371976 0
5.4620004 -0.20122491 0.61401021 0
5.4970002 0.17465624 0.60626823 0
5.4940004 0.16533779 0.6061492 0
5.4930005 0.1561095 0.6061095 0
5.4940004 0.14696059 0.6061492 0
5.4960003 0.13784413 0.60622859 0
5.4970002 0.12868619 0.60626823 0
5.4950004 0.11942725 0.60618889 0
5.4940004 0.11020619 0.6061492 0
5.4930005 0.10098873 0.6061095 0
5.4920001 0.091774851 0.6060698 0
5.4920001 0.08258988 0.6060698 0
5.4920001 0.073404878 0.6060698 0
5.4930005 0.064241543 0.6061095 0
5.4940004 0.055074591 0.6061492 0
5.4960003 0.045922067 0.60622859 0
5.4990005 0.036778565 0.60634762 0
5.4650002 -0.12822659 0.60499835 0
5.4570003 -0.13721858 0.6046809 0
5.4520001 -0.14624122 0.60448247 0
5.4490004 -0.15528914 0.60436344 0
5.4480004 -0.16437311 0.60432374 0
5.4480004 -0.17347874 0.60432374 0
5.4510002 -0.18266553 0.60444278 0
5.4550004 -0.19189201 0.6046015 0
5.4620004 -0.20122491 0.60487932 0
5.4970002 0.18385026 0.59707421 0
5.4930005 0.17448309 0.59692276 0
5.4910002 0.1652133 0.59684694 0
5.4900002 0.15599044 0.59680903 0
5.4900002 0.14680904 0.59680903 0
5.4920001 0.13769981 0.59688485 0
5.4950004 0.12861766 0.59699845 0
5.4960003 0.11945972 0.59703636 0
5.4940004 0.11020619 0.5969606 0
5.4940004 0.10101758 0.5969606 0
5.4940004 0.091828987 0.5969606 0
5.4950004 0.082665637 0.59699845 0
5.4960003 0.073498681 0.59703636 0
5.4980001 0.064349771 0.59711212 0
5.5000005 0.055193651 0.59718788 0
5.4650002 -0.12822659 0.59586203 0
5.4570003 -0.13721858 0.59555906 0
5.4520001 -0.14624122 0.59536964 0
5.4490004 -0.15528914 0.59525597 0
5.4480004 -0.16437311 0.59521812 0
5.4480004 -0.17347874 0.59521812 0
5.4510002 -0.18266553 0.59533173 0
5.4550004 -0.19189201 0.5954833 0
5.4620004 -0.20122491 0.59574842 0
5.5010004 0.19323187 0.5880245 0
5.4950004 0.18376008 0.58780807 0
5.4910002 0.1743965 0.58766377 0
5.4880004 0.16508886 0.58755553 0
5.4870005 0.15587139 0.58751947 0
5.4880004 0.1467333 0.58755553 0
5.4900002 0.13762768 0.58762771 0
5.4930005 0.12854911 0.58773589 0
5.4970002 0.11949219 0.58788025 0
5.4970002 0.11029817 0.58788025 0
5.4970002 0.10110416 0.58788025 0
5.4980001 0.091937214 0.58791625 0
5.5000005 0.08279191 0.5879885 0
5.5020003 0.073639393 0.58806062 0
5.5050001 0.064501286 0.58816886 0
5.4650002 -0.12822659 0.58672577 0
5.4570003 -0.13721858 0.58643717 0
5.4520001 -0.14624122 0.5862568 0
5.4490004 -0.15528914 0.58614856 0
5.4480004 -0.16437311 0.5861125 0
5.4480004 -0.17347874 0.5861125 0
5.4510002 -0.18266553 0.58622074 0
5.4550004 -0.19189201 0.58636504 0
5.4620004 -0.20122491 0.58661759 0
5.4990005 0.19313806 0.57875478 0
5.4940004 0.18371497 0.57858336 0
5.4900002 0.17435321 0.57844633 0
5.4880004 0.16508886 0.57837778 0
5.4870005 0.15587139 0.57834351 0
5.4870005 0.14669544 0.57834351 0
5.4890003 0.1375916 0.57841206 0
5.4920001 0.12851483 0.57851481 0
5.4970002 0.11949219 0.57868624 0
5.5010004 0.11042084 0.57882333 0
5.5020003 0.10124847 0.57885754 0
5.5040002 0.092099547 0.57892609 0
5.5070004 0.082968667 0.57902896 0
5.4650002 -0.12822659 0.57758951 0
5.4570003 -0.13721858 0.57731533 0
5.4520001 -0.14624122 0.57714397 0
5.4490004 -0.15528914 0.57704115 0
5.4480004 -0.16437311 0.57700688 0
5.4480004 -0.17347874 0.57700688 0
5.4510002 -0.18266553 0.57710969 0
5.4550004 -0.19189201 0.57724679 0
5.4620004 -0.20122491 0.57748669 0
5.5000005 0.19318497 0.56958961 0
5.4940004 0.18371497 0.56939483 0
5.4900002 0.17435321 0.56926489 0
5.4880004 0.16508886 0.56919998 0
5.4870005 0.15587139 0.56916749 0
5.4880004 0.1467333 0.56919998 0
5.4900002 0.13762768 0.56926489 0
5.4930005 0.12854911 0.56936234 0
5.4980001 0.11952464 0.56952465 0
5.5050001 0.11054349 0.56975198 0
5.5080004 0.10142164 0.56984937 0
5.5120006 0.092316017 0.56997925 0
5.4650002 -0.12822659 0.56845319 0
5.4570003 -0.13721858 0.56819344 0
5.4520001 -0.14624122 0.56803113 0
5.4490004 -0.15528914 0.56793368 0
5.4480004 -0.16437311 0.56790125 0
5.4480004 -0.17347874 0.56790125 0
5.4510002 -0.18266553 0.56799865 0
5.4550004 -0.19189201 0.56812853 0
5.4620004 -0.20122491 0.5683558 0
5.5020003 0.19327877 0.56045151 0
5.4960003 0.18380515 0.56026751 0
5.4920001 0.17443979 0.5601449 0
5.4900002 0.16517183 0.56008351 0
5.4890003 0.15595077 0.56005287 0
5.4900002 0.14680904 0.56008351 0
5.4920001 0.13769981 0.5601449 0
5.4950004 0.12861766 0.56023687 0
5.5000005 0.1195896 0.56039017 0
5.5070004 0.11060482 0.56060481 0
5.5180001 0.10171025 0.56094217 0
5.4650002 -0.12822659 0.55931693 0
5.4570003 -0.13721858 0.5590716 0
5.4520001 -0.14624122 0.5589183 0
5.4490004 -0.15528914 0.55882633 0
5.4480004 -0.16437311 0.55879563 0
5.4480004 -0.17347874 0.55879563 0
5.4510002 -0.18266553 0.5588876 0
5.4550004 -0.19189201 0.55901027 0
5.4620004 -0.20122491 0.5592249 0
5.5000005 0.18398555 0.55119073 0
5.4960003 0.17461295 0.55107534 0
5.4930005 0.16529629 0.55098873 0
5.4920001 0.1560698 0.55095989 0
5.4930005 0.14692271 0.55098873 0
5.4950004 0.13780807 0.55104649 0
5.4980001 0.12872046 0.55113304 0
5.5040002 0.11971946 0.55130619 0
5.5120006 0.11075816 0.5515371 0
5.4650002 -0.12822659 0.55018061 0
5.4570003 -0.13721858 0.54994977 0
5.4520001 -0.14624122 0.5498054 0
5.4490004 -0.15528914 0.54971886 0
5.4480004 -0.16437311 0.54969001 0
5.4480004 -0.17347874 0.54969001 0
5.4510002 -0.18266553 0.54977655 0
5.4550004 -0.19189201 0.54989201 0
5.4620004 -0.20122491 0.55009407 0
5.5060005 0.18425612 0.54215372 0
5.5010004 0.17482942 0.54201841 0
5.4980001 0.16550371 0.54193723 0
5.4970002 0.15626822 0.54191017 0
5.4980001 0.14711209 0.54193723 0
5.5000005 0.13798845 0.54199135 0
5.5040002 0.1289261 0.5420996 0
5.5100002 0.11991428 0.5422619 0
5.5190005 0.11097281 0.54250544 0
5.4650002 -0.12822659 0.54104435 0
5.4570003 -0.13721858 0.54082787 0
5.4520001 -0.14624122 0.54069257 0
5.4490004 -0.15528914 0.54061145 0
5.4480004 -0.16437311 0.54058439 0
5.4480004 -0.17347874 0.54058439 0
5.4510002 -0.18266553 0.54066551 0
5.4550004 -0.19189201 0.54077375 0
5.4620004 -0.20122491 0.54096317 0
5.5150003 0.18466197 0.5331707 0
5.5090003 0.17517574 0.53301919 0
5.5060005 0.16583563 0.53294349 0
5.5050001 0.15658568 0.53291821 0
5.5050001 0.14737725 0.53291821 0
5.5080004 0.13827704 0.53299391 0
5.5120006 0.12920028 0.533095 0
5.5190005 0.12020649 0.53327173 0
5.4650002 -0.12822659 0.53190804 0
5.4570003 -0.13721858 0.53170604 0
5.4520001 -0.14624122 0.53157973 0
5.4490004 -0.15528914 0.53150403 0
5.4480004 -0.16437311 0.53147876 0
5.4480004 -0.17347874 0.53147876 0
5.4510002 -0.18266553 0.53155452 0
5.4550004 -0.19189201 0.53165555 0
5.4620004 -0.20122491 0.53183228 0
5.5220003 0.17573854 0.52410841 0
5.5170002 0.16629198 0.52399117 0
5.5150003 0.15698254 0.52394426 0
5.5160003 0.14779393 0.52396768 0
5.5190005 0.13867389 0.52403808 0
5.5180001 0.12940592 0.52401459 0
5.5160003 0.1201091 0.52396768 0
5.5150003 0.11085014 0.52394426 0
5.5130005 0.10156594 0.52389735 0
5.5110002 0.092288956 0.52385044 0
5.5100002 0.08304444 0.52382696 0
5.4650002 -0.12822659 0.52277178 0
5.4570003 -0.13721858 0.5225842 0
5.4520001 -0.14624122 0.5224669 0
5.4490004 -0.15528914 0.52239656 0
5.4480004 -0.16437311 0.52237314 0
5.4480004 -0.17347874 0.52237314 0
5.4510002 -0.18266553 0.52244347 0
5.4550004 -0.19189201 0.52253729 0
5.4620004 -0.20122491 0.52270138 0
5.5190005 0.17560866 0.51480436 0
5.5140004 0.16616753 0.51469612 0
5.5130005 0.15690318 0.51467448 0
5.5110002 0.14760453 0.51463115 0
5.5090003 0.13831313 0.51458788 0
5.5080004 0.12906319 0.51456624 0
5.5060005 0.1197844 0.51452297 0
5.5050001 0.11054349 0.51450133 0
5.5030003 0.10127732 0.514458 0
5.5010004 0.092018396 0.51441473 0
5.5000005 0.08279191 0.51439309 0
5.4980001 0.07354559 0.51434982 0
5.4970002 0.064328119 0.51432812 0
5.4950004 0.055094432 0.51428485 0
5.4940004 0.045885991 0.51426321 0
5.4920001 0.036664922 0.51421988 0
5.4900002 0.027451072 0.51417661 0
5.4890003 0.018257063 0.51415497 0
5.4870005 0.009055838 0.5141117 0
5.4860005 -0.00012915581 0.51409006 0
5.4840002 -0.0093177557 0.51404673 0
5.4820004 -0.01849914 0.51400346 0
5.4810004 -0.0276697 0.51398182 0
5.4790006 -0.036838457 0.51393855 0
5.4780002 -0.046 0.51391685 0
5.4760003 -0.05515613 0.51387358 0
5.4750004 -0.064308658 0.51385194 0
5.4650002 -0.12822659 0.51363546 0
5.4570003 -0.13721858 0.51346231 0
5.4520001 -0.14624122 0.51335406 0
5.4490004 -0.15528914 0.51328915 0
5.4480004 -0.16437311 0.51326752 0
5.4480004 -0.17347874 0.51326752 0
5.4510002 -0.18266553 0.51333243 0
5.4550004 -0.19189201 0.51341903 0
5.4620004 -0.20122491 0.51357055 0
5.5120006 0.17530563 0.50543177 0
5.5080004 0.1659186 0.50535238 0
5.5070004 0.15666506 0.50533253 0
5.5050001 0.14737725 0.50529283 0
5.5030003 0.13809666 0.5052532 0
5.5020003 0.12885755 0.50523335 0
5.5000005 0.1195896 0.50519365 0
5.4990005 0.1103595 0.5051738 0
5.4970002 0.10110416 0.50513411 0
5.4950004 0.091856033 0.50509447 0
5.4940004 0.08264038 0.50507462 0
5.4920001 0.073404878 0.50503492 0
5.4910002 0.064198256 0.50501508 0
5.4890003 0.054975387 0.50497538 0
5.4880004 0.045777764 0.50495553 0
5.4860005 0.03656752 0.50491589 0
5.4840002 0.027364489 0.5048762 0
5.4830003 0.018181298 0.50485635 0
5.4810004 0.0089908987 0.50481665 0
5.4800005 -0.00018326938 0.5047968 0
5.4780002 -0.0093610473 0.50475717 0
5.4770002 -0.018526196 0.50473726 0
5.4750004 -0.027691346 0.50469762 0
5.4740005 -0.036847476 0.50467777 0
5.4720001 -0.046 0.50463808 0
5.4700003 -0.055145308 0.50459838 0
5.4690003 -0.064287007 0.50457859 0
5.4670005 -0.07341969 0.50453889 0
5.4650002 -0.12822659 0.5044992 0
5.4570003 -0.13721858 0.50434047 0
5.4520001 -0.14624122 0.50424123 0
5.4490004 -0.15528914 0.50418174 0
5.4480004 -0.16437311 0.50416189 0
5.4480004 -0.17347874 0.50416189 0
5.4510002 -0.18266553 0.50422138 0
5.4550004 -0.19189201 0.50430077 0
5.4620004 -0.20122491 0.50443965 0
5.5140004 0.18461688 0.49624676 0
5.5080004 0.17513247 0.49613854 0
5.5050001 0.16579413 0.49608442 0
5.5030003 0.15650633 0.49604833 0
5.5010004 0.14722575 0.49601227 0
5.5000005 0.13798845 0.49599424 0
5.4980001 0.12872046 0.49595815 0
5.4970002 0.11949219 0.49594012 0
5.4950004 0.11023685 0.49590406 0
5.4940004 0.10101758 0.495886 0
5.4920001 0.091774851 0.49584991 0
5.4910002 0.082564622 0.49583188 0
5.4890003 0.073334545 0.49579582 0
5.4870005 0.06411168 0.49575973 0
5.4860005 0.054915864 0.4957417 0
5.4840002 0.045705605 0.4957056 0
5.4830003 0.036518816 0.4956876 0
5.4810004 0.027321201 0.49565151 0
5.4800005 0.018143419 0.49563348 0
5.4780002 0.0089584291 0.49559739 0
5.4760003 -0.00021934882 0.4955613 0
5.4750004 -0.0093826912 0.4955433 0
5.4730005 -0.01854784 0.49550721 0
5.4720001 -0.027702169 0.49548918 0
5.4700003 -0.036854692 0.49545309 0
5.4690003 -0.046 0.49543506 0
5.4670005 -0.055139896 0.495399 0
5.4660006 -0.064276189 0.49538094 0
5.4640002 -0.073403455 0.49534485 0
5.4650002 -0.12822659 0.49536291 0
5.4570003 -0.13721858 0.49521858 0
5.4520001 -0.14624122 0.49512839 0
5.4490004 -0.15528914 0.49507427 0
5.4480004 -0.16437311 0.49505627 0
5.4480004 -0.17347874 0.49505627 0
5.4510002 -0.18266553 0.49511036 0
5.4550004 -0.19189201 0.49518251 0
5.4620004 -0.20122491 0.49530879 0
5.5120006 0.1845267 0.48698962 0
5.5060005 0.17504588 0.48689222 0
5.5030003 0.16571116 0.48684353 0
5.5020003 0.15646665 0.48682728 0
5.5000005 0.14718786 0.48679483 0
5.4980001 0.13791627 0.48676234 0
5.4970002 0.12868619 0.4867461 0
5.4950004 0.11942725 0.48671365 0
5.4940004 0.11020619 0.48669741 0
5.4920001 0.10095985 0.48666495 0
5.4910002 0.091747805 0.48664871 0
5.4890003 0.082514122 0.48661625 0
5.4880004 0.07331109 0.48660001 0
5.4860005 0.064090028 0.48656753 0
5.4840002 0.054876167 0.48653507 0
5.4830003 0.045687575 0.48651883 0
5.4810004 0.036486346 0.48648638 0
5.4800005 0.027306769 0.48647013 0
5.4780002 0.018118169 0.48643765 0
5.4770002 0.0089476071 0.48642141 0
5.4750004 -0.00022836402 0.48638895 0
5.4740005 -0.0093899071 0.48637271 0
5.4720001 -0.018553255 0.48634025 0
5.4700003 -0.027709385 0.4863078 0
5.4690003 -0.036856495 0.48629156 0
5.4670005 -0.046 0.4862591 0
5.4660006 -0.055138092 0.48624286 0
5.4640002 -0.064268969 0.48621038 0
5.4630003 -0.073398046 0.48619413 0
5.4650002 -0.12822659 0.48622662 0
5.4570003 -0.13721858 0.48609674 0
5.4520001 -0.14624122 0.48601556 0
5.4490004 -0.15528914 0.48596686 0
5.4480004 -0.16437311 0.48595065 0
5.4480004 -0.17347874 0.48595065 0
5.4510002 -0.18266553 0.48599935 0
5.4550004 -0.19189201 0.48606426 0
5.4620004 -0.20122491 0.48617792 0
5.5120006 0.1845267 0.47776854 0
5.5060005 0.17504588 0.47768196 0
5.5030003 0.16571116 0.47763866 0
5.5020003 0.15646665 0.47762424 0
5.5000005 0.14718786 0.47759539 0
5.4990005 0.13795237 0.47758096 0
5.4970002 0.12868619 0.47755209 0
5.4960003 0.11945972 0.47753766 0
5.4940004 0.11020619 0.47750881 0
5.4920001 0.10095985 0.47747993 0
5.4910002 0.091747805 0.47746551 0
5.4890003 0.082514122 0.47743666 0
5.4880004 0.07331109 0.47742224 0
5.4860005 0.064090028 0.47739336 0
5.4850001 0.054896008 0.47737893 0
5.4830003 0.045687575 0.47735006 0
5.4820004 0.036502581 0.47733563 0
5.4800005 0.027306769 0.47730678 0
5.4790006 0.01813079 0.47729236 0
5.4770002 0.0089476071 0.47726348 0
5.4750004 -0.00022836402 0.47723463 0
5.4740005 -0.0093899071 0.47722021 0
5.4720001 -0.018553255 0.47719133 0
5.4710002 -0.027705777 0.4771769 0
5.4690003 -0.036856495 0.47714806 0
5.4680004 -0.046 0.47713363 0
5.4660006 -0.055138092 0.47710475 0
5.4650002 -0.064272575 0.47709033 0
5.4630003 -0.073398046 0.47706145 0
5.4620004 -0.08252351 0.47704703 0
5.4650002 -0.12822659 0.47709033 0
5.4570003 -0.13721858 0.47697487 0
5.4520001 -0.14624122 0.47690272 0
5.4490004 -0.15528914 0.47685945 0
5.4480004 -0.16437311 0.476845 0
5.4480004 -0.17347874 0.476845 0
5.4510002 -0.18266553 0.4768883 0
5.4550004 -0.19189201 0.47694603 0
5.4620004 -0.20122491 0.47704703 0
5.5120006 0.1845267 0.46854749 0
5.5060005 0.17504588 0.46847174 0
5.5030003 0.16571116 0.46843386 0
5.5020003 0.15646665 0.46842122 0
5.5020003 0.14726362 0.46842122 0
5.5010004 0.13802451 0.46840858 0
5.4990005 0.12875475 0.46838334 0
5.4980001 0.11952464 0.46837071 0
5.4960003 0.11026751 0.46834546 0
5.4950004 0.10104644 0.46833283 0
5.4930005 0.091801926 0.46830758 0
5.4910002 0.082564622 0.46828234 0
5.4900002 0.073357984 0.46826971 0
5.4880004 0.064133316 0.46824443 0
5.4870005 0.054935697 0.46823183 0
5.4850001 0.045723643 0.46820658 0
5.4840002 0.036535043 0.46819395 0
5.4820004 0.027335625 0.46816868 0
5.4810004 0.018156048 0.46815607 0
5.4790006 0.0089692548 0.4681308 0
5.4780002 -0.00020131096 0.46811819 0
5.4760003 -0.0093754791 0.46809292 0
5.4740005 -0.018542431 0.46806768 0
5.4730005 -0.027698562 0.46805504 0
5.4710002 -0.036852889 0.4680298 0
5.4700003 -0.046 0.46801716 0
5.4680004 -0.055141702 0.46799192 0
5.4670005 -0.064279795 0.46797928 0
5.4650002 -0.073408864 0.46795404 0
5.4640002 -0.082537934 0.4679414 0
5.4650002 -0.12822659 0.46795404 0
5.4570003 -0.13721858 0.46785301 0
5.4520001 -0.14624122 0.46778989 0
5.4490004 -0.15528914 0.46775201 0
5.4480004 -0.16437311 0.46773937 0
5.4480004 -0.17347874 0.46773937 0
5.4510002 -0.18266553 0.46777725 0
5.4550004 -0.19189201 0.46782777 0
5.5120006 0.1845267 0.45932642 0
5.5060005 0.17504588 0.45926148 0
5.5030003 0.16571116 0.45922902 0
5.5020003 0.15646665 0.4592182 0
5.5020003 0.14726362 0.4592182 0
5.5050001 0.13816881 0.45925066 0
5.5030003 0.12889183 0.45922902 0
5.5020003 0.11965454 0.4592182 0
5.5000005 0.11039017 0.45919654 0
5.4990005 0.1011619 0.45918572 0
5.4970002 0.091910154 0.45916408 0
5.4960003 0.082690895 0.45915326 0
5.4940004 0.073451802 0.4591316 0
5.4920001 0.064219892 0.45910996 0
5.4910002 0.055015061 0.45909914 0
5.4890003 0.045795802 0.45907748 0
5.4880004 0.03659999 0.45906669 0
5.4860005 0.027393352 0.45904502 0
5.4850001 0.018206555 0.4590342 0
5.4830003 0.0090125427 0.45901257 0
5.4820004 -0.00016523153 0.45900172 0
5.4800005 -0.0093466155 0.45898008 0
5.4790006 -0.018515373 0.45896927 0
5.4770002 -0.027684132 0.45894763 0
5.4750004 -0.036845673 0.45892596 0
5.4740005 -0.046 0.45891514 0
5.4720001 -0.055148914 0.45889351 0
5.4710002 -0.064294219 0.45888269 0
5.4690003 -0.073430508 0.45886105 0
5.4650002 -0.12822659 0.45881775 0
5.4570003 -0.13721858 0.45873117 0
5.4520001 -0.14624122 0.45867705 0
5.4490004 -0.15528914 0.45864457 0
5.4480004 -0.16437311 0.45863375 0
5.4480004 -0.17347874 0.45863375 0
5.4510002 -0.18266553 0.45866624 0
5.4550004 -0.19189201 0.45870951 0
5.5120006 0.1845267 0.45010537 0
5.5060005 0.17504588 0.45005125 0
5.5030003 0.16571116 0.45002419 0
5.5020003 0.15646665 0.45001516 0
5.5020003 0.14726362 0.45001516 0
5.5050001 0.13816881 0.45004222 0
5.5090003 0.12909746 0.45007831 0
5.5080004 0.11984935 0.45006928 0
5.5070004 0.11060482 0.45006025 0
5.5050001 0.10133505 0.45004222 0
5.5040002 0.092099547 0.45003319 0
5.5020003 0.08284241 0.45001516 0
5.5010004 0.073615938 0.45000613 0
5.4990005 0.064371422 0.4499881 0
5.4980001 0.055153955 0.44997907 0
5.4960003 0.045922067 0.44996104 0
5.4940004 0.036697399 0.44994301 0
5.4930005 0.027494367 0.44993401 0
5.4910002 0.018282313 0.44991595 0
5.4900002 0.0090883039 0.44990695 0
5.4880004 -0.00011111796 0.44988889 0
5.4870005 -0.009296108 0.44987988 0
5.4850001 -0.018482907 0.44986182 0
5.4840002 -0.027658878 0.44985282 0
5.4820004 -0.036833048 0.44983479 0
5.4810004 -0.046 0.44982576 0
5.4790006 -0.055161543 0.44980773 0
5.4780002 -0.064319476 0.4497987 0
5.4570003 -0.13721858 0.44960931 0
5.4520001 -0.14624122 0.44956422 0
5.4490004 -0.15528914 0.44953716 0
5.4480004 -0.16437311 0.44952813 0
5.4480004 -0.17347874 0.44952813 0
5.4510002 -0.18266553 0.44955519 0
5.4550004 -0.19189201 0.44959128 0
5.3950005 -0.32531071 0.44905013 0
5.3930001 -0.33420527 0.44903207 0
5.5120006 0.1845267 0.44088429 0
5.5060005 0.17504588 0.44084099 0
5.5030003 0.16571116 0.44081935 0
5.5020003 0.15646665 0.44081214 0
5.5020003 0.14726362 0.44081214 0
5.5050001 0.13816881 0.44083378 0
5.5090003 0.12909746 0.44086263 0
5.5150003 0.12007663 0.44090593 0
5.5180001 0.11094213 0.44092757 0
5.5170002 0.10168138 0.44092035 0
5.4570003 -0.13721858 0.44048744 0
5.4520001 -0.14624122 0.44045138 0
5.4490004 -0.15528914 0.44042972 0
5.4480004 -0.16437311 0.44042251 0
5.4480004 -0.17347874 0.44042251 0
5.4510002 -0.18266553 0.44044417 0
5.4550004 -0.19189201 0.44047302 0
5.3960004 -0.31635478 0.44004732 0
5.3950005 -0.32531071 0.44004011 0
5.3930001 -0.33420527 0.44002569 0
5.5120006 0.1845267 0.43166322 0
5.5060005 0.17504588 0.43163076 0
5.5030003 0.16571116 0.43161452 0
5.5020003 0.15646665 0.43160909 0
5.5020003 0.14726362 0.43160909 0
5.5050001 0.13816881 0.43162534 0
5.5090003 0.12909746 0.43164697 0
5.5150003 0.12007663 0.43167946 0
5.4570003 -0.13721858 0.43136558 0
5.4520001 -0.14624122 0.43133852 0
5.4490004 -0.15528914 0.43132231 0
5.4480004 -0.16437311 0.43131688 0
5.4480004 -0.17347874 0.43131688 0
5.4510002 -0.18266553 0.43133312 0
5.3960004 -0.31635478 0.43103549 0
5.3950005 -0.32531071 0.43103009 0
5.3930001 -0.33420527 0.43101925 0
5.5120006 0.1845267 0.42244214 0
5.5060005 0.17504588 0.4224205 0
5.5030003 0.16571116 0.42240968 0
5.5020003 0.15646665 0.42240608 0
5.5020003 0.14726362 0.42240608 0
5.5050001 0.13816881 0.4224169 0
5.5090003 0.12909746 0.42243132 0
5.5150003 0.12007663 0.42245299 0
5.4260001 -0.1366594 0.4221319 0
5.4250002 -0.14570549 0.42212829 0
5.4230003 -0.15472634 0.42212108 0
5.4220004 -0.16376342 0.42211747 0
5.4200006 -0.17277165 0.42211026 0
5.4190001 -0.18179971 0.42210665 0
5.3990002 -0.29848263 0.4220345 0
5.3980002 -0.30744755 0.42203087 0
5.3960004 -0.31635478 0.42202365 0
