# .PCD v0.7 - Point Cloud Data file format
VERSION 0.7
FIELDS x y z intensity
SIZE 4 4 4 4
TYPE F F F F
COUNT 1 1 1 1
WIDTH 459
HEIGHT 1
VIEWPOINT 0 0 0 1 0 0 0
POINTS 459
DATA ascii
5.9980001 -0.20756349 2.4639347 0
6.0020003 -0.19757402 2.4553015 0
5.9980001 -0.20756349 2.4538369 0
5.9910002 -0.21744657 2.4512737 0
6.0020003 -0.19757402 2.4451966 0
5.9980001 -0.20756349 2.4437392 0
5.9910002 -0.21744657 2.4411883 0
6.0020003 -0.19757402 2.4350917 0
5.9980001 -0.20756349 2.4336414 0
5.9910002 -0.21744657 2.4311035 0
6.0020003 -0.19757402 2.4249868 0
5.9980001 -0.20756349 2.4235437 0
5.9910002 -0.21744657 2.4210184 0
6.0020003 -0.19757402 2.4148819 0
5.9980001 -0.20756349 2.4134459 0
5.9910002 -0.21744657 2.4109333 0
6.0020003 -0.19757402 2.4047768 0
5.9980001 -0.20756349 2.4033482 0
5.9910002 -0.21744657 2.4008482 0
6.0020003 -0.19757402 2.3946719 0
5.9980001 -0.20756349 2.3932505 0
5.9910002 -0.21744657 2.390763 0
6.0020003 -0.19757402 2.384567 0
5.9980001 -0.20756349 2.3831527 0
5.9910002 -0.21744657 2.3806779 0
6.0020003 -0.19757402 2.3744619 0
5.9980001 -0.20756349 2.373055 0
5.9910002 -0.21744657 2.3705928 0
6.0020003 -0.19757402 2.3643572 0
5.9980001 -0.20756349 2.3629572 0
5.9910002 -0.21744657 2.3605077 0
6.0020003 -0.19757402 2.3542521 0
5.9980001 -0.20756349 2.3528597 0
5.9910002 -0.21744657 2.3504226 0
6.0020003 -0.19757402 2.3441472 0
5.9980001 -0.20756349 2.342762 0
5.9910002 -0.21744657 2.3403375 0
6.0020003 -0.19757402 2.3340423 0
5.9980001 -0.20756349 2.3326643 0
5.9910002 -0.21744657 2.3302524 0
6.0020003 -0.19757402 2.3239374 0
5.9980001 -0.20756349 2.3225665 0
5.9910002 -0.21744657 2.3201673 0
6.0020003 -0.19757402 2.3138325 0
5.9980001 -0.20756349 2.3124685 0
5.9910002 -0.21744657 2.3100822 0
6.0020003 -0.19757402 2.3037274 0
5.9980001 -0.20756349 2.3023708 0
5.9910002 -0.21744657 2.2999973 0
6.0020003 -0.19757402 2.2936227 0
5.9980001 -0.20756349 2.2922733 0
5.9910002 -0.21744657 2.289912 0
6.0020003 -0.19757402 2.2835176 0
5.9980001 -0.20756349 2.2821755 0
5.9910002 -0.21744657 2.2798271 0
6.0020003 -0.19757402 2.2734127 0
5.9980001 -0.20756349 2.2720778 0
5.9910002 -0.21744657 2.2697418 0
6.0020003 -0.19757402 2.2633078 0
5.9980001 -0.20756349 2.2619801 0
5.9910002 -0.21744657 2.2596569 0
6.0020003 -0.19757402 2.2532027 0
5.9980001 -0.20756349 2.2518823 0
5.9910002 -0.21744657 2.2495718 0
6.0020003 -0.19757402 2.2430978 0
5.9980001 -0.20756349 2.2417846 0
5.9910002 -0.21744657 2.2394867 0
6.0020003 -0.19757402 2.2329929 0
5.9980001 -0.20756349 2.2316871 0
5.9910002 -0.21744657 2.2294016 0
6.0020003 -0.19757402 2.222888 0
5.9980001 -0.20756349 2.2215893 0
5.9910002 -0.21744657 2.2193165 0
6.0020003 -0.19757402 2.2127831 0
5.9980001 -0.20756349 2.2114916 0
5.9910002 -0.21744657 2.2092314 0
6.0020003 -0.19757402 2.2026782 0
5.9980001 -0.20756349 2.2013938 0
5.9910002 -0.21744657 2.1991463 0
6.0020003 -0.19757402 2.1925733 0
5.9980001 -0.20756349 2.1912961 0
5.9910002 -0.21744657 2.1890612 0
6.0020003 -0.19757402 2.1824682 0
5.9980001 -0.20756349 2.1811984 0
5.9910002 -0.21744657 2.1789761 0
6.0020003 -0.19757402 2.1723633 0
5.9980001 -0.20756349 2.1711006 0
5.9910002 -0.21744657 2.168891 0
6.0020003 -0.19757402 2.1622584 0
5.9980001 -0.20756349 2.1610029 0
5.9910002 -0.21744657 2.1588058 0
6.0020003 -0.19757402 2.1521535 0
5.9980001 -0.20756349 2.1509051 0
5.9910002 -0.21744657 2.148721 0
6.0020003 -0.19757402 2.1420486 0
5.9980001 -0.20756349 2.1408076 0
5.9910002 -0.21744657 2.1386359 0
6.0020003 -0.19757402 2.1319437 0
5.9980001 -0.20756349 2.1307096 0
5.9910002 -0.21744657 2.1285508 0
6.0020003 -0.19757402 2.1218386 0
5.9980001 -0.20756349 2.1206121 0
5.9910002 -0.21744657 2.1184657 0
6.0020003 -0.19757402 2.1117337 0
5.9980001 -0.20756349 2.1105144 0
5.9910002 -0.21744657 2.1083806 0
6.0020003 -0.19757402 2.1016288 0
5.9980001 -0.20756349 2.1004167 0
5.9910002 -0.21744657 2.0982955 0
6.0020003 -0.19757402 2.0915239 0
5.9980001 -0.20756349 2.0903189 0
5.9910002 -0.21744657 2.0882103 0
6.0020003 -0.19757402 2.081419 0
5.9980001 -0.20756349 2.0802212 0
5.9910002 -0.21744657 2.0781252 0
6.0020003 -0.19757402 2.0713141 0
5.9980001 -0.20756349 2.0701234 0
5.9910002 -0.21744657 2.0680401 0
6.0020003 -0.19757402 2.0612092 0
5.9980001 -0.20756349 2.0600257 0
5.9910002 -0.21744657 2.057955 0
6.0020003 -0.19757402 2.0511041 0
5.9980001 -0.20756349 2.0499279 0
5.9910002 -0.21744657 2.0478699 0
6.0020003 -0.19757402 2.0409992 0
5.9980001 -0.20756349 2.0398304 0
5.9910002 -0.21744657 2.0377848 0
6.0020003 -0.19757402 2.0308943 0
5.9980001 -0.20756349 2.0297327 0
5.9910002 -0.21744657 2.0276997 0
6.0020003 -0.19757402 2.0207894 0
5.9980001 -0.20756349 2.019635 0
5.9910002 -0.21744657 2.0176146 0
6.0020003 -0.19757402 2.0106845 0
5.9980001 -0.20756349 2.0095372 0
5.9910002 -0.21744657 2.0075295 0
6.0020003 -0.19757402 2.0005796 0
5.9980001 -0.20756349 1.9994395 0
5.9910002 -0.21744657 1.9974445 0
6.0020003 -0.19757402 1.9904746 0
5.9980001 -0.20756349 1.9893417 0
5.9910002 -0.21744657 1.9873594 0
6.0020003 -0.19757402 1.9803697 0
5.9980001 -0.20756349 1.9792441 0
5.9910002 -0.21744657 1.9772743 0
6.0020003 -0.19757402 1.9702648 0
5.9980001 -0.20756349 1.9691464 0
5.9910002 -0.21744657 1.9671893 0
6.0020003 -0.19757402 1.9601598 0
5.9980001 -0.20756349 1.9590486 0
5.9910002 -0.21744657 1.9571042 0
6.0020003 -0.19757402 1.9500549 0
5.9980001 -0.20756349 1.9489509 0
5.9910002 -0.21744657 1.9470191 0
6.0020003 -0.19757402 1.93995 0
5.9980001 -0.20756349 1.9388531 0
5.9910002 -0.21744657 1.936934 0
6.0020003 -0.19757402 1.929845 0
5.9980001 -0.20756349 1.9287555 0
5.9910002 -0.21744657 1.9268489 0
6.0020003 -0.19757402 1.9197401 0
5.9980001 -0.20756349 1.9186578 0
5.9910002 -0.21744657 1.9167638 0
6.0020003 -0.19757402 1.9096352 0
5.9980001 -0.20756349 1.90856 0
5.9910002 -0.21744657 1.9066787 0
6.0020003 -0.19757402 1.8995302 0
5.9980001 -0.20756349 1.8984624 0
5.9910002 -0.21744657 1.8965936 0
6.0020003 -0.19757402 1.8894253 0
5.9980001 -0.20756349 1.8883646 0
5.9910002 -0.21744657 1.8865085 0
6.0020003 -0.19757402 1.8793204 0
5.9980001 -0.20756349 1.8782668 0
5.9910002 -0.21744657 1.8764234 0
6.0020003 -0.19757402 1.8692155 0
5.9980001 -0.20756349 1.8681692 0
5.9910002 -0.21744657 1.8663383 0
6.0020003 -0.19757402 1.8591105 0
5.9980001 -0.20756349 1.8580714 0
5.9910002 -0.21744657 1.8562531 0
6.0020003 -0.19757402 1.8490056 0
5.9980001 -0.20756349 1.8479737 0
5.9910002 -0.21744657 1.8461682 0
6.0020003 -0.19757402 1.8389006 0
5.9980001 -0.20756349 1.8378761 0
5.9910002 -0.21744657 1.8360831 0
6.0020003 -0.19757402 1.8287957 0
5.9980001 -0.20756349 1.8277782 0
5.9910002 -0.21744657 1.8259979 0
6.0020003 -0.19757402 1.8186908 0
5.9980001 -0.20756349 1.8176806 0
5.9910002 -0.21744657 1.8159128 0
6.0020003 -0.19757402 1.8085859 0
5.9980001 -0.20756349 1.8075829 0
5.9910002 -0.21744657 1.8058277 0
6.0020003 -0.19757402 1.7984809 0
5.9980001 -0.20756349 1.7974851 0
5.9910002 -0.21744657 1.7957426 0
6.0020003 -0.19757402 1.788376 0
5.9980001 -0.20756349 1.7873875 0
5.9910002 -0.21744657 1.7856576 0
6.0020003 -0.19757402 1.778271 0
5.9980001 -0.20756349 1.7772897 0
5.9910002 -0.21744657 1.7755725 0
6.0020003 -0.19757402 1.7681661 0
5.9980001 -0.20756349 1.7671919 0
5.9910002 -0.21744657 1.7654874 0
6.0020003 -0.19757402 1.7580612 0
5.9980001 -0.20756349 1.7570943 0
5.9910002 -0.21744657 1.7554023 0
6.0020003 -0.19757402 1.7479563 0
5.9980001 -0.20756349 1.7469965 0
5.9910002 -0.21744657 1.7453172 0
6.0020003 -0.19757402 1.7378514 0
5.9980001 -0.20756349 1.7368989 0
5.9910002 -0.21744657 1.7352321 0
6.0020003 -0.19757402 1.7277464 0
5.9980001 -0.20756349 1.7268012 0
5.9910002 -0.21744657 1.725147 0
6.0020003 -0.19757402 1.7176414 0
5.9980001 -0.20756349 1.7167034 0
5.9910002 -0.21744657 1.7150619 0
6.0020003 -0.19757402 1.7075365 0
5.9980001 -0.20756349 1.7066057 0
5.9910002 -0.21744657 1.7049768 0
6.0020003 -0.19757402 1.6974316 0
5.9980001 -0.20756349 1.6965079 0
5.9910002 -0.21744657 1.6948918 0
6.0020003 -0.19757402 1.6873267 0
5.9980001 -0.20756349 1.6864102 0
5.9910002 -0.21744657 1.6848067 0
6.0020003 -0.19757402 1.6772218 0
5.9980001 -0.20756349 1.6763126 0
5.9910002 -0.21744657 1.6747216 0
6.0020003 -0.19757402 1.6671166 0
5.9980001 -0.20756349 1.6662148 0
5.9910002 -0.21744657 1.6646365 0
6.0020003 -0.19757402 1.6570117 0
5.9980001 -0.20756349 1.6561171 0
5.9910002 -0.21744657 1.6545514 0
6.0020003 -0.19757402 1.6469069 0
5.9980001 -0.20756349 1.6460193 0
5.9910002 -0.21744657 1.6444663 0
6.0020003 -0.19757402 1.636802 0
5.9980001 -0.20756349 1.6359216 0
5.9910002 -0.21744657 1.6343812 0
6.0020003 -0.19757402 1.6266971 0
5.9980001 -0.20756349 1.625824 0
5.9910002 -0.21744657 1.6242961 0
6.0020003 -0.19757402 1.6165922 0
5.9980001 -0.20756349 1.6157262 0
5.9910002 -0.21744657 1.614211 0
6.0020003 -0.19757402 1.6064872 0
5.9980001 -0.20756349 1.6056285 0
5.9910002 -0.21744657 1.6041259 0
6.0020003 -0.19757402 1.5963821 0
5.9980001 -0.20756349 1.5955309 0
5.9910002 -0.21744657 1.5940409 0
6.0020003 -0.19757402 1.5862772 0
5.9980001 -0.20756349 1.585433 0
5.9910002 -0.21744657 1.5839558 0
6.0020003 -0.19757402 1.5761724 0
5.9980001 -0.20756349 1.5753353 0
5.9910002 -0.21744657 1.5738707 0
6.0020003 -0.19757402 1.5660675 0
5.9980001 -0.20756349 1.5652376 0
5.9910002 -0.21744657 1.5637856 0
6.0020003 -0.19757402 1.5559626 0
5.9980001 -0.20756349 1.5551399 0
5.9910002 -0.21744657 1.5537004 0
6.0020003 -0.19757402 1.5458575 0
5.9980001 -0.20756349 1.5450423 0
5.9910002 -0.21744657 1.5436155 0
6.0020003 -0.19757402 1.5357525 0
5.9980001 -0.20756349 1.5349445 0
5.9910002 -0.21744657 1.5335304 0
6.0020003 -0.19757402 1.5256476 0
5.9980001 -0.20756349 1.5248467 0
5.9910002 -0.21744657 1.5234452 0
6.0020003 -0.19757402 1.5155427 0
5.9980001 -0.20756349 1.5147491 0
5.9910002 -0.21744657 1.5133601 0
6.0020003 -0.19757402 1.5054379 0
5.9980001 -0.20756349 1.5046513 0
5.9910002 -0.21744657 1.503275 0
6.0020003 -0.19757402 1.495333 0
5.9980001 -0.20756349 1.4945536 0
5.9910002 -0.21744657 1.4931899 0
6.0020003 -0.19757402 1.4852279 0
5.9980001 -0.20756349 1.4844559 0
5.9910002 -0.21744657 1.4831048 0
6.0020003 -0.19757402 1.475123 0
5.9980001 -0.20756349 1.4743582 0
5.9910002 -0.21744657 1.4730197 0
6.0020003 -0.19757402 1.465018 0
5.9980001 -0.20756349 1.4642603 0
5.9910002 -0.21744657 1.4629346 0
6.0020003 -0.19757402 1.4549131 0
5.9980001 -0.20756349 1.4541627 0
5.9910002 -0.21744657 1.4528495 0
6.0020003 -0.19757402 1.4448082 0
5.9980001 -0.20756349 1.444065 0
5.9910002 -0.21744657 1.4427644 0
6.0020003 -0.19757402 1.4347034 0
5.9980001 -0.20756349 1.4339674 0
5.9910002 -0.21744657 1.4326793 0
6.0020003 -0.19757402 1.4245983 0
5.9980001 -0.20756349 1.4238696 0
5.9910002 -0.21744657 1.4225942 0
6.0020003 -0.19757402 1.4144934 0
5.9980001 -0.20756349 1.4137719 0
5.9910002 -0.21744657 1.4125092 0
6.0020003 -0.19757402 1.4043884 0
5.9980001 -0.20756349 1.4036741 0
5.9910002 -0.21744657 1.4024241 0
6.0020003 -0.19757402 1.3942835 0
5.9980001 -0.20756349 1.3935764 0
5.9910002 -0.21744657 1.392339 0
6.0020003 -0.19757402 1.3841786 0
5.9980001 -0.20756349 1.3834786 0
5.9910002 -0.21744657 1.3822539 0
6.0020003 -0.19757402 1.3740736 0
5.9980001 -0.20756349 1.373381 0
5.9910002 -0.21744657 1.3721688 0
6.0020003 -0.19757402 1.3639687 0
5.9980001 -0.20756349 1.3632833 0
5.9910002 -0.21744657 1.3620837 0
6.0020003 -0.19757402 1.3538637 0
5.9980001 -0.20756349 1.3531854 0
5.9910002 -0.21744657 1.3519987 0
6.0020003 -0.19757402 1.3437588 0
5.9980001 -0.20756349 1.3430878 0
5.9910002 -0.21744657 1.3419136 0
6.0020003 -0.19757402 1.3336539 0
5.9980001 -0.20756349 1.3329901 0
5.9910002 -0.21744657 1.3318285 0
6.0020003 -0.19757402 1.3235489 0
5.9980001 -0.20756349 1.3228923 0
5.9910002 -0.21744657 1.3217434 0
6.0020003 -0.19757402 1.313444 0
5.9980001 -0.20756349 1.3127947 0
5.9910002 -0.21744657 1.3116583 0
6.0020003 -0.19757402 1.3033391 0
5.9980001 -0.20756349 1.3026969 0
5.9910002 -0.21744657 1.3015732 0
6.0020003 -0.19757402 1.2932341 0
5.9980001 -0.20756349 1.2925992 0
5.9910002 -0.21744657 1.2914881 0
6.0020003 -0.19757402 1.2831292 0
5.9980001 -0.20756349 1.2825015 0
5.9910002 -0.21744657 1.2814029 0
6.0020003 -0.19757402 1.2730243 0
5.9980001 -0.20756349 1.2724038 0
5.9910002 -0.21744657 1.271318 0
6.0020003 -0.19757402 1.2629193 0
5.9980001 -0.20756349 1.2623061 0
5.9910002 -0.21744657 1.2612329 0
6.0020003 -0.19757402 1.2528144 0
5.9980001 -0.20756349 1.2522084 0
5.9910002 -0.21744657 1.2511477 0
6.0020003 -0.19757402 1.2427095 0
5.9980001 -0.20756349 1.2421106 0
5.9910002 -0.21744657 1.2410626 0
6.0020003 -0.19757402 1.2326046 0
5.9980001 -0.20756349 1.2320129 0
5.9910002 -0.21744657 1.2309775 0
6.0020003 -0.19757402 1.2224996 0
5.9980001 -0.20756349 1.2219152 0
5.9910002 -0.21744657 1.2208924 0
6.0020003 -0.19757402 1.2123947 0
5.9980001 -0.20756349 1.2118175 0
5.9910002 -0.21744657 1.2108073 0
6.0020003 -0.19757402 1.2022898 0
5.9980001 -0.20756349 1.2017198 0
5.9910002 -0.21744657 1.2007222 0
6.0020003 -0.19757402 1.1921848 0
5.9980001 -0.20756349 1.191622 0
5.9910002 -0.21744657 1.1906371 0
6.0020003 -0.19757402 1.1820799 0
5.9980001 -0.20756349 1.1815243 0
5.9910002 -0.21744657 1.1805521 0
6.0020003 -0.19757402 1.171975 0
5.9980001 -0.20756349 1.1714265 0
5.9910002 -0.21744657 1.170467 0
6.0020003 -0.19757402 1.16187 0
5.9980001 -0.20756349 1.1613289 0
5.9910002 -0.21744657 1.1603819 0
6.0020003 -0.19757402 1.1517651 0
5.9980001 -0.20756349 1.1512312 0
5.9910002 -0.21744657 1.1502968 0
6.0020003 -0.19757402 1.1416602 0
5.9980001 -0.20756349 1.1411334 0
5.9910002 -0.21744657 1.1402117 0
6.0020003 -0.19757402 1.1315552 0
5.9980001 -0.20756349 1.1310357 0
5.9910002 -0.21744657 1.1301266 0
6.0020003 -0.19757402 1.1214503 0
5.9980001 -0.20756349 1.1209381 0
5.9910002 -0.21744657 1.1200415 0
6.0020003 -0.19757402 1.1113454 0
5.9980001 -0.20756349 1.1108403 0
5.9910002 -0.21744657 1.1099564 0
6.0020003 -0.19757402 1.1012404 0
5.9980001 -0.20756349 1.1007426 0
5.9910002 -0.21744657 1.0998713 0
6.0020003 -0.19757402 1.0911355 0
5.9980001 -0.20756349 1.0906448 0
5.9910002 -0.21744657 1.0897863 0
6.0020003 -0.19757402 1.0810306 0
5.9980001 -0.20756349 1.0805471 0
5.9910002 -0.21744657 1.0797012 0
6.0020003 -0.19757402 1.0709257 0
5.9980001 -0.20756349 1.0704495 0
5.9910002 -0.21744657 1.0696161 0
6.0020003 -0.19757402 1.0608207 0
5.9980001 -0.20756349 1.0603517 0
5.9910002 -0.21744657 1.059531 0
6.0020003 -0.19757402 1.0507158 0
5.9980001 -0.20756349 1.050254 0
5.9910002 -0.21744657 1.0494459 0
6.0020003 -0.19757402 1.0406109 0
5.9980001 -0.20756349 1.0401562 0
5.9910002 -0.21744657 1.0393608 0
6.0020003 -0.19757402 1.0305059 0
5.9980001 -0.20756349 1.0300585 0
5.9910002 -0.21744657 1.0292757 0
6.0020003 -0.19757402 1.020401 0
5.9980001 -0.20756349 1.0199608 0
5.9910002 -0.21744657 1.0191905 0
6.0020003 -0.19757402 1.0102961 0
5.9980001 -0.20756349 1.0098631 0
5.9910002 -0.21744657 1.0091054 0
6.0020003 -0.19757402 1.0001911 0
5.9980001 -0.20756349 0.9997654 0
5.9910002 -0.21744657 0.99902046 0
6.0020003 -0.19757402 0.9900862 0
5.9980001 -0.20756349 0.98966765 0
5.9910002 -0.21744657 0.98893535 0
6.0020003 -0.19757402 0.9799813 0
5.9980001 -0.20756349 0.97956991 0
5.9910002 -0.21744657 0.97885025 0
6.0020003 -0.19757402 0.96987629 0
5.9980001 -0.20756349 0.96947229 0
5.9910002 -0.21744657 0.96876514 0
6.0020003 -0.19757402 0.95977139 0
5.9980001 -0.20756349 0.95937455 0
5.9910002 -0.21744657 0.95868003 0
6.0020003 -0.19757402 0.9496665 0
5.9980001 -0.20756349 0.9492768 0
5.9910002 -0.21744657 0.94859493 0
6.0020003 -0.19757402 0.93956149 0
5.9980001 -0.20756349 0.93917906 0
5.9910002 -0.21744657 0.93850982 0
6.0020003 -0.19757402 0.92945659 0
5.9980001 -0.20756349 0.92908132 0
5.9910002 -0.21744657 0.92842472 0
5.9980001 -0.20756349 0.9189837 0
5.9910002 -0.21744657 0.91833961 0
