# .PCD v0.7 - Point Cloud Data file format
VERSION 0.7
FIELDS x y z intensity
SIZE 4 4 4 4
TYPE F F F F
COUNT 1 1 1 1
WIDTH 1503
HEIGHT 1
VIEWPOINT 0 0 0 1 0 0 0
POINTS 1503
DATA ascii
7.1150002 3.6241093 2.2208858 0
7.1240005 3.6168997 2.223321 0
7.1330004 3.6096573 2.2257559 0
7.1420002 3.6023824 2.2281911 0
7.1510005 3.5950754 2.2306263 0
7.1610003 3.588273 2.2333322 0
7.1700006 3.5808992 2.2357674 0
7.1790004 3.5734928 2.2382023 0
7.1890006 3.566586 2.2409081 0
7.1980004 3.5591128 2.2433434 0
7.2070003 3.5516071 2.2457783 0
7.2170005 3.5445957 2.2484841 0
7.2260003 3.5370233 2.2509191 0
7.2360005 3.5299418 2.2536249 0
7.2450004 3.5223024 2.2560599 0
7.2550006 3.5151503 2.2587659 0
7.2640004 3.5074446 2.2612011 0
7.2740006 3.500222 2.2639067 0
7.2840004 3.4929636 2.2666125 0
7.2930002 3.4851565 2.2690475 0
7.3030005 3.4778278 2.2717533 0
7.3130002 3.4704628 2.2744589 0
7.3220005 3.4625549 2.2768941 0
7.3320003 3.4551196 2.2795997 0
7.3420005 3.4476483 2.2823055 0
7.3520002 3.4401407 2.2850113 0
7.3620005 3.4325974 2.2877169 0
7.3710003 3.4245198 2.2901521 0
7.3810005 3.4169061 2.2928576 0
7.3910003 3.409256 2.2955635 0
7.4010005 3.4015698 2.2982693 0
7.4110003 3.3938477 2.3009748 0
7.4210005 3.3860898 2.3036807 0
7.4310002 3.3782952 2.3063862 0
7.4410005 3.370465 2.309092 0
7.4510002 3.3625987 2.3117976 0
7.4620004 3.3551779 2.314774 0
7.4720006 3.3472376 2.3174798 0
7.4820004 3.3392611 2.3201854 0
7.4920006 3.3312485 2.3228912 0
7.5020003 3.3231997 2.3255968 0
7.5130005 3.3155878 2.3285732 0
7.5230002 3.3074651 2.331279 0
6.9800005 3.7283607 2.1724896 0
6.9890003 3.7216377 2.1749086 0
6.9970002 3.7143126 2.1770587 0
7.0060005 3.7075267 2.1794777 0
7.0150003 3.7007082 2.1818964 0
7.0240006 3.6938574 2.1843154 0
7.0330005 3.6869738 2.1867344 0
7.0420003 3.6800582 2.1891532 0
7.0510006 3.6731098 2.1915722 0
7.0600004 3.6661294 2.1939909 0
7.0690002 3.6591158 2.1964099 0
7.0780005 3.6520705 2.1988289 0
7.0870004 3.6449919 2.2012477 0
7.0960002 3.6378813 2.2036667 0
7.1050005 3.6307383 2.2060857 0
7.1150002 3.6241093 2.2087731 0
7.1240005 3.6168997 2.2111921 0
7.1330004 3.6096573 2.2136111 0
7.1420002 3.6023824 2.2160299 0
7.1510005 3.5950754 2.2184489 0
7.1610003 3.588273 2.2211366 0
7.1700006 3.5808992 2.2235556 0
7.1790004 3.5734928 2.2259743 0
7.1890006 3.566586 2.228662 0
7.1980004 3.5591128 2.231081 0
7.2070003 3.5516071 2.2334998 0
7.2170005 3.5445957 2.2361875 0
7.2260003 3.5370233 2.2386065 0
7.2360005 3.5299418 2.2412941 0
7.2450004 3.5223024 2.2437129 0
7.2550006 3.5151503 2.2464008 0
7.2640004 3.5074446 2.2488196 0
7.2740006 3.500222 2.2515073 0
7.2840004 3.4929636 2.254195 0
7.2930002 3.4851565 2.2566137 0
7.3030005 3.4778278 2.2593014 0
7.3130002 3.4704628 2.2619891 0
7.3220005 3.4625549 2.2644081 0
7.3320003 3.4551196 2.2670958 0
7.3420005 3.4476483 2.2697835 0
7.3520002 3.4401407 2.2724712 0
7.3620005 3.4325974 2.2751586 0
7.3710003 3.4245198 2.2775779 0
7.3810005 3.4169061 2.2802653 0
7.3910003 3.409256 2.282953 0
7.4010005 3.4015698 2.2856407 0
7.4110003 3.3938477 2.2883284 0
7.4210005 3.3860898 2.2910161 0
7.4310002 3.3782952 2.2937038 0
7.4410005 3.370465 2.2963912 0
7.4510002 3.3625987 2.2990789 0
7.4620004 3.3551779 2.3020356 0
7.4720006 3.3472376 2.3047233 0
7.4820004 3.3392611 2.307411 0
7.4920006 3.3312485 2.3100986 0
7.5020003 3.3231997 2.3127861 0
7.5130005 3.3155878 2.3157427 0
7.5230002 3.3074651 2.3184304 0
6.9800005 3.7283607 2.1606207 0
6.9890003 3.7216377 2.1630232 0
6.9970002 3.7143126 2.165159 0
7.0060005 3.7075267 2.1675618 0
7.0150003 3.7007082 2.1699643 0
7.0240006 3.6938574 2.1723671 0
7.0330005 3.6869738 2.1747696 0
7.0420003 3.6800582 2.1771724 0
7.0510006 3.6731098 2.179575 0
7.0600004 3.6661294 2.1819777 0
7.0690002 3.6591158 2.1843803 0
7.0780005 3.6520705 2.1867831 0
7.0870004 3.6449919 2.1891856 0
7.0960002 3.6378813 2.1915882 0
7.1050005 3.6307383 2.1939912 0
7.1150002 3.6241093 2.1966605 0
7.1240005 3.6168997 2.1990633 0
7.1330004 3.6096573 2.2014661 0
7.1420002 3.6023824 2.2038686 0
7.1510005 3.5950754 2.2062714 0
7.1610003 3.588273 2.208941 0
7.1700006 3.5808992 2.2113438 0
7.1790004 3.5734928 2.2137463 0
7.1890006 3.566586 2.2164161 0
7.1980004 3.5591128 2.2188187 0
7.2070003 3.5516071 2.2212212 0
7.2170005 3.5445957 2.223891 0
7.2260003 3.5370233 2.2262936 0
7.2360005 3.5299418 2.2289634 0
7.2450004 3.5223024 2.2313659 0
7.2550006 3.5151503 2.2340357 0
7.2640004 3.5074446 2.2364383 0
7.2740006 3.500222 2.2391078 0
7.2840004 3.4929636 2.2417774 0
7.2930002 3.4851565 2.2441802 0
7.3030005 3.4778278 2.2468498 0
7.3130002 3.4704628 2.2495193 0
7.3220005 3.4625549 2.2519221 0
7.3320003 3.4551196 2.2545917 0
7.3420005 3.4476483 2.2572613 0
7.3520002 3.4401407 2.2599308 0
7.3620005 3.4325974 2.2626009 0
7.3710003 3.4245198 2.2650032 0
7.3810005 3.4169061 2.267673 0
7.3910003 3.409256 2.2703426 0
7.4010005 3.4015698 2.2730124 0
7.4110003 3.3938477 2.275682 0
7.4210005 3.3860898 2.2783515 0
7.4310002 3.3782952 2.2810211 0
7.4410005 3.370465 2.2836909 0
7.4510002 3.3625987 2.2863603 0
7.4620004 3.3551779 2.2892971 0
7.4720006 3.3472376 2.2919669 0
7.4820004 3.3392611 2.2946362 0
7.4920006 3.3312485 2.2973061 0
7.5020003 3.3231997 2.2999756 0
7.5130005 3.3155878 2.302912 0
7.5230002 3.3074651 2.3055818 0
6.9800005 3.7283607 2.1487515 0
6.9890003 3.7216377 2.1511378 0
6.9970002 3.7143126 2.1532593 0
7.0060005 3.7075267 2.1556458 0
7.0150003 3.7007082 2.1580322 0
7.0240006 3.6938574 2.1604187 0
7.0330005 3.6869738 2.1628051 0
7.0420003 3.6800582 2.1651914 0
7.0510006 3.6731098 2.167578 0
7.0600004 3.6661294 2.1699643 0
7.0690002 3.6591158 2.1723506 0
7.0780005 3.6520705 2.1747372 0
7.0870004 3.6449919 2.1771235 0
7.0960002 3.6378813 2.1795101 0
7.1050005 3.6307383 2.1818964 0
7.1150002 3.6241093 2.1845481 0
7.1240005 3.6168997 2.1869345 0
7.1330004 3.6096573 2.189321 0
7.1420002 3.6023824 2.1917074 0
7.1510005 3.5950754 2.1940939 0
7.1610003 3.588273 2.1967454 0
7.1700006 3.5808992 2.199132 0
7.1790004 3.5734928 2.2015183 0
7.1890006 3.566586 2.20417 0
7.1980004 3.5591128 2.2065563 0
7.2070003 3.5516071 2.2089429 0
7.2170005 3.5445957 2.2115943 0
7.2260003 3.5370233 2.2139809 0
7.2360005 3.5299418 2.2166326 0
7.2450004 3.5223024 2.2190189 0
7.2550006 3.5151503 2.2216704 0
7.2640004 3.5074446 2.224057 0
7.2740006 3.500222 2.2267087 0
7.2840004 3.4929636 2.2293601 0
7.2930002 3.4851565 2.2317464 0
7.3030005 3.4778278 2.2343981 0
7.3130002 3.4704628 2.2370496 0
7.3220005 3.4625549 2.2394361 0
7.3320003 3.4551196 2.2420878 0
7.3420005 3.4476483 2.2447393 0
7.3520002 3.4401407 2.247391 0
7.3620005 3.4325974 2.2500427 0
7.3710003 3.4245198 2.252429 0
7.3810005 3.4169061 2.2550807 0
7.3910003 3.409256 2.2577322 0
7.4010005 3.4015698 2.2603838 0
7.4110003 3.3938477 2.2630355 0
7.4210005 3.3860898 2.265687 0
7.4310002 3.3782952 2.2683384 0
7.4410005 3.370465 2.2709904 0
7.4510002 3.3625987 2.2736418 0
7.4620004 3.3551779 2.2765584 0
7.4720006 3.3472376 2.2792103 0
7.4820004 3.3392611 2.2818618 0
7.4920006 3.3312485 2.2845135 0
7.5020003 3.3231997 2.2871649 0
7.5130005 3.3155878 2.2900817 0
7.5230002 3.3074651 2.2927334 0
6.9800005 3.7283607 2.1368825 0
6.9890003 3.7216377 2.1392527 0
6.9970002 3.7143126 2.1413593 0
7.0060005 3.7075267 2.1437297 0
7.0150003 3.7007082 2.1461 0
7.0240006 3.6938574 2.1484702 0
7.0330005 3.6869738 2.1508403 0
7.0420003 3.6800582 2.1532106 0
7.0510006 3.6731098 2.1555808 0
7.0600004 3.6661294 2.1579509 0
7.0690002 3.6591158 2.160321 0
7.0780005 3.6520705 2.1626914 0
7.0870004 3.6449919 2.1650617 0
7.0960002 3.6378813 2.1674318 0
7.1050005 3.6307383 2.169802 0
7.1150002 3.6241093 2.1724355 0
7.1240005 3.6168997 2.1748056 0
7.1330004 3.6096573 2.177176 0
7.1420002 3.6023824 2.1795461 0
7.1510005 3.5950754 2.1819165 0
7.1610003 3.588273 2.1845498 0
7.1700006 3.5808992 2.1869202 0
7.1790004 3.5734928 2.1892903 0
7.1890006 3.566586 2.1919239 0
7.1980004 3.5591128 2.1942942 0
7.2070003 3.5516071 2.1966643 0
7.2170005 3.5445957 2.1992979 0
7.2260003 3.5370233 2.201668 0
7.2360005 3.5299418 2.2043016 0
7.2450004 3.5223024 2.2066717 0
7.2550006 3.5151503 2.2093055 0
7.2640004 3.5074446 2.2116756 0
7.2740006 3.500222 2.2143092 0
7.2840004 3.4929636 2.2169425 0
7.2930002 3.4851565 2.2193129 0
7.3030005 3.4778278 2.2219465 0
7.3130002 3.4704628 2.22458 0
7.3220005 3.4625549 2.2269502 0
7.3320003 3.4551196 2.2295837 0
7.3420005 3.4476483 2.2322173 0
7.3520002 3.4401407 2.2348509 0
7.3620005 3.4325974 2.2374845 0
7.3710003 3.4245198 2.2398546 0
7.3810005 3.4169061 2.2424884 0
7.3910003 3.409256 2.2451217 0
7.4010005 3.4015698 2.2477553 0
7.4110003 3.3938477 2.2503889 0
7.4210005 3.3860898 2.2530224 0
7.4310002 3.3782952 2.255656 0
7.4410005 3.370465 2.2582896 0
7.4510002 3.3625987 2.2609231 0
7.4620004 3.3551779 2.2638199 0
7.4720006 3.3472376 2.2664537 0
7.4820004 3.3392611 2.2690871 0
7.4920006 3.3312485 2.2717209 0
7.5020003 3.3231997 2.2743545 0
7.5130005 3.3155878 2.2772512 0
7.5230002 3.3074651 2.2798848 0
6.9800005 3.7283607 2.1250134 0
6.9890003 3.7216377 2.1273673 0
6.9970002 3.7143126 2.1294596 0
7.0060005 3.7075267 2.1318138 0
7.0150003 3.7007082 2.1341677 0
7.0240006 3.6938574 2.1365218 0
7.0330005 3.6869738 2.1388757 0
7.0420003 3.6800582 2.1412296 0
7.0510006 3.6731098 2.1435838 0
7.0600004 3.6661294 2.1459377 0
7.0690002 3.6591158 2.1482916 0
7.0780005 3.6520705 2.1506455 0
7.0870004 3.6449919 2.1529994 0
7.0960002 3.6378813 2.1553535 0
7.1050005 3.6307383 2.1577075 0
7.1150002 3.6241093 2.1603229 0
7.1240005 3.6168997 2.1626768 0
7.1330004 3.6096573 2.165031 0
7.1420002 3.6023824 2.1673849 0
7.1510005 3.5950754 2.169739 0
7.1610003 3.588273 2.1723542 0
7.1700006 3.5808992 2.1747084 0
7.1790004 3.5734928 2.1770623 0
7.1890006 3.566586 2.179678 0
7.1980004 3.5591128 2.1820319 0
7.2070003 3.5516071 2.1843858 0
7.2170005 3.5445957 2.1870012 0
7.2260003 3.5370233 2.1893551 0
7.2360005 3.5299418 2.1919708 0
7.2450004 3.5223024 2.1943247 0
7.2550006 3.5151503 2.1969404 0
7.2640004 3.5074446 2.1992943 0
7.2740006 3.500222 2.2019098 0
7.2840004 3.4929636 2.2045252 0
7.2930002 3.4851565 2.2068791 0
7.3030005 3.4778278 2.2094948 0
7.3130002 3.4704628 2.2121103 0
7.3220005 3.4625549 2.2144642 0
7.3320003 3.4551196 2.2170796 0
7.3420005 3.4476483 2.2196953 0
7.3520002 3.4401407 2.2223108 0
7.3620005 3.4325974 2.2249265 0
7.3710003 3.4245198 2.2272804 0
7.3810005 3.4169061 2.2298958 0
7.3910003 3.409256 2.2325113 0
7.4010005 3.4015698 2.235127 0
7.4110003 3.3938477 2.2377424 0
7.4210005 3.3860898 2.2403579 0
7.4310002 3.3782952 2.2429733 0
7.4410005 3.370465 2.245589 0
7.4510002 3.3625987 2.2482045 0
7.4620004 3.3551779 2.2510815 0
7.4720006 3.3472376 2.2536972 0
7.4820004 3.3392611 2.2563126 0
7.4920006 3.3312485 2.2589283 0
7.5020003 3.3231997 2.2615438 0
7.5130005 3.3155878 2.2644207 0
7.5230002 3.3074651 2.2670362 0
6.9800005 3.7283607 2.1131444 0
6.9890003 3.7216377 2.1154821 0
6.9970002 3.7143126 2.1175601 0
7.0060005 3.7075267 2.1198978 0
7.0150003 3.7007082 2.1222355 0
7.0240006 3.6938574 2.1245735 0
7.0330005 3.6869738 2.1269109 0
7.0420003 3.6800582 2.1292486 0
7.0510006 3.6731098 2.1315866 0
7.0600004 3.6661294 2.1339242 0
7.0690002 3.6591158 2.1362619 0
7.0780005 3.6520705 2.1385999 0
7.0870004 3.6449919 2.1409373 0
7.0960002 3.6378813 2.143275 0
7.1050005 3.6307383 2.145613 0
7.1150002 3.6241093 2.1482103 0
7.1240005 3.6168997 2.1505482 0
7.1330004 3.6096573 2.1528859 0
7.1420002 3.6023824 2.1552236 0
7.1510005 3.5950754 2.1575613 0
7.1610003 3.588273 2.1601589 0
7.1700006 3.5808992 2.1624966 0
7.1790004 3.5734928 2.1648343 0
7.1890006 3.566586 2.1674318 0
7.1980004 3.5591128 2.1697695 0
7.2070003 3.5516071 2.1721072 0
7.2170005 3.5445957 2.1747048 0
7.2260003 3.5370233 2.1770425 0
7.2360005 3.5299418 2.1796398 0
7.2450004 3.5223024 2.1819777 0
7.2550006 3.5151503 2.1845751 0
7.2640004 3.5074446 2.1869128 0
7.2740006 3.500222 2.1895103 0
7.2840004 3.4929636 2.1921079 0
7.2930002 3.4851565 2.1944456 0
7.3030005 3.4778278 2.1970432 0
7.3130002 3.4704628 2.1996405 0
7.3220005 3.4625549 2.2019784 0
7.3320003 3.4551196 2.2045758 0
7.3420005 3.4476483 2.2071733 0
7.3520002 3.4401407 2.2097707 0
7.3620005 3.4325974 2.2123682 0
7.3710003 3.4245198 2.2147059 0
7.3810005 3.4169061 2.2173035 0
7.3910003 3.409256 2.2199008 0
7.4010005 3.4015698 2.2224984 0
7.4110003 3.3938477 2.225096 0
7.4210005 3.3860898 2.2276933 0
7.4310002 3.3782952 2.2302909 0
7.4410005 3.370465 2.2328885 0
7.4510002 3.3625987 2.2354858 0
7.4620004 3.3551779 2.238343 0
7.4720006 3.3472376 2.2409406 0
7.4820004 3.3392611 2.2435381 0
7.4920006 3.3312485 2.2461355 0
7.5020003 3.3231997 2.248733 0
7.5130005 3.3155878 2.2515903 0
7.5230002 3.3074651 2.2541878 0
6.9800005 3.7283607 2.1012754 0
6.9890003 3.7216377 2.1035969 0
6.9970002 3.7143126 2.1056604 0
7.0060005 3.7075267 2.1079819 0
7.0150003 3.7007082 2.1103034 0
7.0240006 3.6938574 2.1126249 0
7.0330005 3.6869738 2.1149464 0
7.0420003 3.6800582 2.1172678 0
7.0510006 3.6731098 2.1195893 0
7.0600004 3.6661294 2.1219108 0
7.0690002 3.6591158 2.1242323 0
7.0780005 3.6520705 2.1265538 0
7.0870004 3.6449919 2.1288753 0
7.0960002 3.6378813 2.1311967 0
7.1050005 3.6307383 2.1335185 0
7.1150002 3.6241093 2.1360977 0
7.1240005 3.6168997 2.1384194 0
7.1330004 3.6096573 2.1407409 0
7.1420002 3.6023824 2.1430624 0
7.1510005 3.5950754 2.1453838 0
7.1610003 3.588273 2.1479633 0
7.1700006 3.5808992 2.1502848 0
7.1790004 3.5734928 2.1526062 0
7.1890006 3.566586 2.1551857 0
7.1980004 3.5591128 2.1575072 0
7.2070003 3.5516071 2.1598287 0
7.2170005 3.5445957 2.1624081 0
7.2260003 3.5370233 2.1647296 0
7.2360005 3.5299418 2.167309 0
7.2450004 3.5223024 2.1696305 0
7.2550006 3.5151503 2.1722102 0
7.2640004 3.5074446 2.1745317 0
7.2740006 3.500222 2.1771109 0
7.2840004 3.4929636 2.1796904 0
7.2930002 3.4851565 2.1820118 0
7.3030005 3.4778278 2.1845913 0
7.3130002 3.4704628 2.1871707 0
7.3220005 3.4625549 2.1894925 0
7.3320003 3.4551196 2.1920717 0
7.3420005 3.4476483 2.1946514 0
7.3520002 3.4401407 2.1972306 0
7.3620005 3.4325974 2.19981 0
7.3710003 3.4245198 2.2021315 0
7.3810005 3.4169061 2.2047112 0
7.3910003 3.409256 2.2072904 0
7.4010005 3.4015698 2.2098701 0
7.4110003 3.3938477 2.2124493 0
7.4210005 3.3860898 2.2150288 0
7.4310002 3.3782952 2.2176082 0
7.4410005 3.370465 2.2201877 0
7.4510002 3.3625987 2.2227671 0
7.4620004 3.3551779 2.2256045 0
7.4720006 3.3472376 2.228184 0
7.4820004 3.3392611 2.2307634 0
7.4920006 3.3312485 2.2333429 0
7.5020003 3.3231997 2.2359223 0
7.5130005 3.3155878 2.2387598 0
7.5230002 3.3074651 2.2413392 0
6.9800005 3.7283607 2.0894063 0
6.9890003 3.7216377 2.0917115 0
6.9970002 3.7143126 2.0937607 0
7.0060005 3.7075267 2.096066 0
7.0150003 3.7007082 2.098371 0
7.0240006 3.6938574 2.1006765 0
7.0330005 3.6869738 2.1029818 0
7.0420003 3.6800582 2.1052868 0
7.0510006 3.6731098 2.1075923 0
7.0600004 3.6661294 2.1098974 0
7.0690002 3.6591158 2.1122029 0
7.0780005 3.6520705 2.1145082 0
7.0870004 3.6449919 2.1168132 0
7.0960002 3.6378813 2.1191185 0
7.1050005 3.6307383 2.121424 0
7.1150002 3.6241093 2.1239853 0
7.1240005 3.6168997 2.1262906 0
7.1330004 3.6096573 2.1285958 0
7.1420002 3.6023824 2.1309011 0
7.1510005 3.5950754 2.1332064 0
7.1610003 3.588273 2.1357677 0
7.1700006 3.5808992 2.138073 0
7.1790004 3.5734928 2.1403782 0
7.1890006 3.566586 2.1429398 0
7.1980004 3.5591128 2.1452448 0
7.2070003 3.5516071 2.1475501 0
7.2170005 3.5445957 2.1501117 0
7.2260003 3.5370233 2.1524169 0
7.2360005 3.5299418 2.1549783 0
7.2450004 3.5223024 2.1572835 0
7.2550006 3.5151503 2.1598451 0
7.2640004 3.5074446 2.1621501 0
7.2740006 3.500222 2.1647117 0
7.2840004 3.4929636 2.167273 0
7.2930002 3.4851565 2.1695783 0
7.3030005 3.4778278 2.1721396 0
7.3130002 3.4704628 2.174701 0
7.3220005 3.4625549 2.1770065 0
7.3320003 3.4551196 2.1795678 0
7.3420005 3.4476483 2.1821291 0
7.3520002 3.4401407 2.1846905 0
7.3620005 3.4325974 2.187252 0
7.3710003 3.4245198 2.1895573 0
7.3810005 3.4169061 2.1921186 0
7.3910003 3.409256 2.1946802 0
7.4010005 3.4015698 2.1972415 0
7.4110003 3.3938477 2.1998029 0
7.4210005 3.3860898 2.2023644 0
7.4310002 3.3782952 2.2049258 0
7.4410005 3.370465 2.2074871 0
7.4510002 3.3625987 2.2100484 0
7.4620004 3.3551779 2.2128661 0
7.4720006 3.3472376 2.2154276 0
7.4820004 3.3392611 2.217989 0
7.4920006 3.3312485 2.2205503 0
7.5020003 3.3231997 2.2231116 0
7.5130005 3.3155878 2.2259293 0
7.5230002 3.3074651 2.2284906 0
6.9800005 3.7283607 2.0775371 0
6.9890003 3.7216377 2.0798261 0
6.9970002 3.7143126 2.0818608 0
7.0060005 3.7075267 2.0841498 0
7.0150003 3.7007082 2.0864389 0
7.0240006 3.6938574 2.088728 0
7.0330005 3.6869738 2.091017 0
7.0420003 3.6800582 2.0933061 0
7.0510006 3.6731098 2.0955951 0
7.0600004 3.6661294 2.0978842 0
7.0690002 3.6591158 2.1001732 0
7.0780005 3.6520705 2.1024623 0
7.0870004 3.6449919 2.1047513 0
7.0960002 3.6378813 2.1070402 0
7.1050005 3.6307383 2.1093292 0
7.1150002 3.6241093 2.1118727 0
7.1240005 3.6168997 2.1141617 0
7.1330004 3.6096573 2.1164508 0
7.1420002 3.6023824 2.1187396 0
7.1510005 3.5950754 2.1210289 0
7.1610003 3.588273 2.1235721 0
7.1700006 3.5808992 2.1258612 0
7.1790004 3.5734928 2.1281502 0
7.1890006 3.566586 2.1306937 0
7.1980004 3.5591128 2.1329827 0
7.2070003 3.5516071 2.1352718 0
7.2170005 3.5445957 2.137815 0
7.2260003 3.5370233 2.1401041 0
7.2360005 3.5299418 2.1426475 0
7.2450004 3.5223024 2.1449363 0
7.2550006 3.5151503 2.1474798 0
7.2640004 3.5074446 2.1497688 0
7.2740006 3.500222 2.1523123 0
7.2840004 3.4929636 2.1548557 0
7.2930002 3.4851565 2.1571445 0
7.3030005 3.4778278 2.159688 0
7.3130002 3.4704628 2.1622314 0
7.3220005 3.4625549 2.1645205 0
7.3320003 3.4551196 2.1670637 0
7.3420005 3.4476483 2.1696072 0
7.3520002 3.4401407 2.1721504 0
7.3620005 3.4325974 2.1746938 0
7.3710003 3.4245198 2.1769829 0
7.3810005 3.4169061 2.1795263 0
7.3910003 3.409256 2.1820695 0
7.4010005 3.4015698 2.184613 0
7.4110003 3.3938477 2.1871564 0
7.4210005 3.3860898 2.1896999 0
7.4310002 3.3782952 2.1922431 0
7.4410005 3.370465 2.1947865 0
7.4510002 3.3625987 2.19733 0
7.4620004 3.3551779 2.2001276 0
7.4720006 3.3472376 2.2026711 0
7.4820004 3.3392611 2.2052143 0
7.4920006 3.3312485 2.2077577 0
7.5020003 3.3231997 2.2103009 0
7.5130005 3.3155878 2.2130988 0
7.5230002 3.3074651 2.2156422 0
6.9800005 3.7283607 2.0656681 0
6.9890003 3.7216377 2.067941 0
6.9970002 3.7143126 2.0699611 0
7.0060005 3.7075267 2.0722342 0
7.0150003 3.7007082 2.0745068 0
7.0240006 3.6938574 2.0767796 0
7.0330005 3.6869738 2.0790524 0
7.0420003 3.6800582 2.0813251 0
7.0510006 3.6731098 2.0835981 0
7.0600004 3.6661294 2.0858707 0
7.0690002 3.6591158 2.0881436 0
7.0780005 3.6520705 2.0904164 0
7.0870004 3.6449919 2.0926893 0
7.0960002 3.6378813 2.0949619 0
7.1050005 3.6307383 2.0972347 0
7.1150002 3.6241093 2.0997601 0
7.1240005 3.6168997 2.1020329 0
7.1330004 3.6096573 2.1043057 0
7.1420002 3.6023824 2.1065784 0
7.1510005 3.5950754 2.1088514 0
7.1610003 3.588273 2.1113765 0
7.1700006 3.5808992 2.1136494 0
7.1790004 3.5734928 2.1159222 0
7.1890006 3.566586 2.1184475 0
7.1980004 3.5591128 2.1207204 0
7.2070003 3.5516071 2.1229932 0
7.2170005 3.5445957 2.1255186 0
7.2260003 3.5370233 2.1277912 0
7.2360005 3.5299418 2.1303165 0
7.2450004 3.5223024 2.1325893 0
7.2550006 3.5151503 2.1351149 0
7.2640004 3.5074446 2.1373875 0
7.2740006 3.500222 2.1399131 0
7.2840004 3.4929636 2.1424382 0
7.2930002 3.4851565 2.144711 0
7.3030005 3.4778278 2.1472363 0
7.3130002 3.4704628 2.1497617 0
7.3220005 3.4625549 2.1520345 0
7.3320003 3.4551196 2.1545599 0
7.3420005 3.4476483 2.1570852 0
7.3520002 3.4401407 2.1596105 0
7.3620005 3.4325974 2.1621358 0
7.3710003 3.4245198 2.1644084 0
7.3810005 3.4169061 2.166934 0
7.3910003 3.409256 2.1694593 0
7.4010005 3.4015698 2.1719847 0
7.4110003 3.3938477 2.17451 0
7.4210005 3.3860898 2.1770353 0
7.4310002 3.3782952 2.1795607 0
7.4410005 3.370465 2.182086 0
7.4510002 3.3625987 2.1846111 0
7.4620004 3.3551779 2.1873891 0
7.4720006 3.3472376 2.1899145 0
7.4820004 3.3392611 2.1924398 0
7.4920006 3.3312485 2.1949651 0
7.5020003 3.3231997 2.1974905 0
7.5130005 3.3155878 2.2002683 0
7.5230002 3.3074651 2.2027936 0
6.9800005 3.7283607 2.0537992 0
6.9890003 3.7216377 2.0560555 0
6.9970002 3.7143126 2.0580614 0
7.0060005 3.7075267 2.060318 0
7.0150003 3.7007082 2.0625746 0
7.0240006 3.6938574 2.0648313 0
7.0330005 3.6869738 2.0670877 0
7.0420003 3.6800582 2.0693443 0
7.0510006 3.6731098 2.0716009 0
7.0600004 3.6661294 2.0738575 0
7.0690002 3.6591158 2.0761139 0
7.0780005 3.6520705 2.0783706 0
7.0870004 3.6449919 2.0806272 0
7.0960002 3.6378813 2.0828836 0
7.1050005 3.6307383 2.0851402 0
7.1150002 3.6241093 2.0876474 0
7.1240005 3.6168997 2.0899041 0
7.1330004 3.6096573 2.0921607 0
7.1420002 3.6023824 2.0944171 0
7.1510005 3.5950754 2.0966737 0
7.1610003 3.588273 2.0991809 0
7.1700006 3.5808992 2.1014378 0
7.1790004 3.5734928 2.1036942 0
7.1890006 3.566586 2.1062016 0
7.1980004 3.5591128 2.108458 0
7.2070003 3.5516071 2.1107147 0
7.2170005 3.5445957 2.1132219 0
7.2260003 3.5370233 2.1154785 0
7.2360005 3.5299418 2.1179857 0
7.2450004 3.5223024 2.1202424 0
7.2550006 3.5151503 2.1227498 0
7.2640004 3.5074446 2.1250062 0
7.2740006 3.500222 2.1275136 0
7.2840004 3.4929636 2.1300209 0
7.2930002 3.4851565 2.1322773 0
7.3030005 3.4778278 2.1347847 0
7.3130002 3.4704628 2.1372919 0
7.3220005 3.4625549 2.1395485 0
7.3320003 3.4551196 2.1420557 0
7.3420005 3.4476483 2.1445632 0
7.3520002 3.4401407 2.1470704 0
7.3620005 3.4325974 2.1495779 0
7.3710003 3.4245198 2.1518342 0
7.3810005 3.4169061 2.1543417 0
7.3910003 3.409256 2.1568489 0
7.4010005 3.4015698 2.1593561 0
7.4110003 3.3938477 2.1618633 0
7.4210005 3.3860898 2.1643708 0
7.4310002 3.3782952 2.166878 0
7.4410005 3.370465 2.1693852 0
7.4510002 3.3625987 2.1718924 0
7.4620004 3.3551779 2.1746507 0
7.4720006 3.3472376 2.1771579 0
7.4820004 3.3392611 2.1796651 0
7.4920006 3.3312485 2.1821725 0
7.5020003 3.3231997 2.1846797 0
7.5130005 3.3155878 2.1874378 0
7.5230002 3.3074651 2.1899452 0
6.9800005 3.7283607 2.04193 0
6.9890003 3.7216377 2.0441704 0
6.9970002 3.7143126 2.0461617 0
7.0060005 3.7075267 2.0484021 0
7.0150003 3.7007082 2.0506425 0
7.0240006 3.6938574 2.0528827 0
7.0330005 3.6869738 2.0551231 0
7.0420003 3.6800582 2.0573633 0
7.0510006 3.6731098 2.0596037 0
7.0600004 3.6661294 2.0618441 0
7.0690002 3.6591158 2.0640843 0
7.0780005 3.6520705 2.0663247 0
7.0870004 3.6449919 2.0685651 0
7.0960002 3.6378813 2.0708053 0
7.1050005 3.6307383 2.0730457 0
7.1150002 3.6241093 2.0755351 0
7.1240005 3.6168997 2.0777752 0
7.1330004 3.6096573 2.0800157 0
7.1420002 3.6023824 2.0822558 0
7.1510005 3.5950754 2.0844963 0
7.1610003 3.588273 2.0869853 0
7.1700006 3.5808992 2.089226 0
7.1790004 3.5734928 2.0914662 0
7.1890006 3.566586 2.0939555 0
7.1980004 3.5591128 2.0961957 0
7.2070003 3.5516071 2.0984361 0
7.2170005 3.5445957 2.1009254 0
7.2260003 3.5370233 2.1031656 0
7.2360005 3.5299418 2.105655 0
7.2450004 3.5223024 2.1078954 0
7.2550006 3.5151503 2.1103845 0
7.2640004 3.5074446 2.1126249 0
7.2740006 3.500222 2.1151142 0
7.2840004 3.4929636 2.1176033 0
7.2930002 3.4851565 2.1198437 0
7.3030005 3.4778278 2.122333 0
7.3130002 3.4704628 2.1248221 0
7.3220005 3.4625549 2.1270626 0
7.3320003 3.4551196 2.1295519 0
7.3420005 3.4476483 2.132041 0
7.3520002 3.4401407 2.1345303 0
7.3620005 3.4325974 2.1370196 0
7.3710003 3.4245198 2.1392598 0
7.3810005 3.4169061 2.1417491 0
7.3910003 3.409256 2.1442382 0
7.4010005 3.4015698 2.1467278 0
7.4110003 3.3938477 2.1492169 0
7.4210005 3.3860898 2.1517062 0
7.4310002 3.3782952 2.1541953 0
7.4410005 3.370465 2.1566846 0
7.4510002 3.3625987 2.159174 0
7.4620004 3.3551779 2.1619122 0
7.4720006 3.3472376 2.1644015 0
7.4820004 3.3392611 2.1668906 0
7.4920006 3.3312485 2.1693799 0
7.5020003 3.3231997 2.171869 0
7.5130005 3.3155878 2.1746073 0
7.5230002 3.3074651 2.1770966 0
6.9800005 3.7283607 2.030061 0
6.9890003 3.7216377 2.032285 0
6.9970002 3.7143126 2.0342619 0
7.0060005 3.7075267 2.0364861 0
7.0150003 3.7007082 2.0387101 0
7.0240006 3.6938574 2.0409343 0
7.0330005 3.6869738 2.0431585 0
7.0420003 3.6800582 2.0453825 0
7.0510006 3.6731098 2.0476067 0
7.0600004 3.6661294 2.0498307 0
7.0690002 3.6591158 2.0520546 0
7.0780005 3.6520705 2.0542789 0
7.0870004 3.6449919 2.0565028 0
7.0960002 3.6378813 2.058727 0
7.1050005 3.6307383 2.0609512 0
7.1150002 3.6241093 2.0634224 0
7.1240005 3.6168997 2.0656464 0
7.1330004 3.6096573 2.0678706 0
7.1420002 3.6023824 2.0700946 0
7.1510005 3.5950754 2.0723188 0
7.1610003 3.588273 2.07479 0
7.1700006 3.5808992 2.0770142 0
7.1790004 3.5734928 2.0792382 0
7.1890006 3.566586 2.0817094 0
7.1980004 3.5591128 2.0839336 0
7.2070003 3.5516071 2.0861576 0
7.2170005 3.5445957 2.0886288 0
7.2260003 3.5370233 2.090853 0
7.2360005 3.5299418 2.0933242 0
7.2450004 3.5223024 2.0955482 0
7.2550006 3.5151503 2.0980194 0
7.2640004 3.5074446 2.1002436 0
7.2740006 3.500222 2.1027148 0
7.2840004 3.4929636 2.105186 0
7.2930002 3.4851565 2.10741 0
7.3030005 3.4778278 2.1098814 0
7.3130002 3.4704628 2.1123524 0
7.3220005 3.4625549 2.1145766 0
7.3320003 3.4551196 2.1170478 0
7.3420005 3.4476483 2.119519 0
7.3520002 3.4401407 2.1219902 0
7.3620005 3.4325974 2.1244614 0
7.3710003 3.4245198 2.1266856 0
7.3810005 3.4169061 2.1291568 0
7.3910003 3.409256 2.131628 0
7.4010005 3.4015698 2.1340992 0
7.4110003 3.3938477 2.1365705 0
7.4210005 3.3860898 2.1390417 0
7.4310002 3.3782952 2.1415129 0
7.4410005 3.370465 2.1439841 0
7.4510002 3.3625987 2.1464553 0
7.4620004 3.3551779 2.1491735 0
7.4720006 3.3472376 2.1516449 0
7.4820004 3.3392611 2.1541159 0
7.4920006 3.3312485 2.1565874 0
7.5020003 3.3231997 2.1590586 0
7.5130005 3.3155878 2.1617768 0
7.5230002 3.3074651 2.164248 0
6.9800005 3.7283607 2.0181921 0
6.9890003 3.7216377 2.0203996 0
6.9970002 3.7143126 2.0223622 0
7.0060005 3.7075267 2.0245702 0
7.0150003 3.7007082 2.026778 0
7.0240006 3.6938574 2.028986 0
7.0330005 3.6869738 2.0311937 0
7.0420003 3.6800582 2.0334015 0
7.0510006 3.6731098 2.0356095 0
7.0600004 3.6661294 2.0378175 0
7.0690002 3.6591158 2.0400252 0
7.0780005 3.6520705 2.042233 0
7.0870004 3.6449919 2.0444407 0
7.0960002 3.6378813 2.0466487 0
7.1050005 3.6307383 2.0488567 0
7.1150002 3.6241093 2.0513098 0
7.1240005 3.6168997 2.0535176 0
7.1330004 3.6096573 2.0557256 0
7.1420002 3.6023824 2.0579333 0
7.1510005 3.5950754 2.0601413 0
7.1610003 3.588273 2.0625944 0
7.1700006 3.5808992 2.0648024 0
7.1790004 3.5734928 2.0670102 0
7.1890006 3.566586 2.0694635 0
7.1980004 3.5591128 2.0716712 0
7.2070003 3.5516071 2.073879 0
7.2170005 3.5445957 2.0763323 0
7.2260003 3.5370233 2.0785401 0
7.2360005 3.5299418 2.0809932 0
7.2450004 3.5223024 2.0832012 0
7.2550006 3.5151503 2.0856545 0
7.2640004 3.5074446 2.0878623 0
7.2740006 3.500222 2.0903153 0
7.2840004 3.4929636 2.0927687 0
7.2930002 3.4851565 2.0949764 0
7.3030005 3.4778278 2.0974295 0
7.3130002 3.4704628 2.0998828 0
7.3220005 3.4625549 2.1020906 0
7.3320003 3.4551196 2.1045437 0
7.3420005 3.4476483 2.106997 0
7.3520002 3.4401407 2.1094501 0
7.3620005 3.4325974 2.1119034 0
7.3710003 3.4245198 2.1141112 0
7.3810005 3.4169061 2.1165645 0
7.3910003 3.409256 2.1190174 0
7.4010005 3.4015698 2.1214707 0
7.4110003 3.3938477 2.1239238 0
7.4210005 3.3860898 2.1263771 0
7.4310002 3.3782952 2.1288302 0
7.4410005 3.370465 2.1312835 0
7.4510002 3.3625987 2.1337366 0
7.4620004 3.3551779 2.136435 0
7.4720006 3.3472376 2.1388884 0
7.4820004 3.3392611 2.1413414 0
7.4920006 3.3312485 2.1437948 0
7.5020003 3.3231997 2.1462479 0
7.5130005 3.3155878 2.1489463 0
7.5230002 3.3074651 2.1513994 0
6.9800005 3.7283607 2.0063229 0
6.9890003 3.7216377 2.0085144 0
6.9970002 3.7143126 2.0104625 0
7.0060005 3.7075267 2.0126543 0
7.0150003 3.7007082 2.0148458 0
7.0240006 3.6938574 2.0170374 0
7.0330005 3.6869738 2.0192292 0
7.0420003 3.6800582 2.0214207 0
7.0510006 3.6731098 2.0236125 0
7.0600004 3.6661294 2.025804 0
7.0690002 3.6591158 2.0279956 0
7.0780005 3.6520705 2.0301874 0
7.0870004 3.6449919 2.0323789 0
7.0960002 3.6378813 2.0345705 0
7.1050005 3.6307383 2.036762 0
7.1150002 3.6241093 2.0391972 0
7.1240005 3.6168997 2.041389 0
7.1330004 3.6096573 2.0435805 0
7.1420002 3.6023824 2.0457721 0
7.1510005 3.5950754 2.0479639 0
7.1610003 3.588273 2.0503988 0
7.1700006 3.5808992 2.0525906 0
7.1790004 3.5734928 2.0547822 0
7.1890006 3.566586 2.0572174 0
7.1980004 3.5591128 2.0594089 0
7.2070003 3.5516071 2.0616004 0
7.2170005 3.5445957 2.0640357 0
7.2260003 3.5370233 2.0662272 0
7.2360005 3.5299418 2.0686624 0
7.2450004 3.5223024 2.0708539 0
7.2550006 3.5151503 2.0732892 0
7.2640004 3.5074446 2.0754807 0
7.2740006 3.500222 2.0779159 0
7.2840004 3.4929636 2.0803511 0
7.2930002 3.4851565 2.0825427 0
7.3030005 3.4778278 2.0849779 0
7.3130002 3.4704628 2.0874131 0
7.3220005 3.4625549 2.0896046 0
7.3320003 3.4551196 2.0920398 0
7.3420005 3.4476483 2.094475 0
7.3520002 3.4401407 2.09691 0
7.3620005 3.4325974 2.0993452 0
7.3710003 3.4245198 2.1015368 0
7.3810005 3.4169061 2.103972 0
7.3910003 3.409256 2.1064072 0
7.4010005 3.4015698 2.1088424 0
7.4110003 3.3938477 2.1112773 0
7.4210005 3.3860898 2.1137125 0
7.4310002 3.3782952 2.1161475 0
7.4410005 3.370465 2.1185827 0
7.4510002 3.3625987 2.1210179 0
7.4620004 3.3551779 2.1236966 0
7.4720006 3.3472376 2.1261318 0
7.4820004 3.3392611 2.1285667 0
7.4920006 3.3312485 2.1310019 0
7.5020003 3.3231997 2.1334372 0
7.5130005 3.3155878 2.1361158 0
7.5230002 3.3074651 2.138551 0
6.9800005 3.7283607 1.9944538 0
6.9890003 3.7216377 1.9966292 0
6.9970002 3.7143126 1.9985629 0
7.0060005 3.7075267 2.0007381 0
7.0150003 3.7007082 2.0029137 0
7.0240006 3.6938574 2.005089 0
7.0330005 3.6869738 2.0072644 0
7.0420003 3.6800582 2.0094397 0
7.0510006 3.6731098 2.0116153 0
7.0600004 3.6661294 2.0137906 0
7.0690002 3.6591158 2.0159659 0
7.0780005 3.6520705 2.0181415 0
7.0870004 3.6449919 2.0203168 0
7.0960002 3.6378813 2.0224922 0
7.1050005 3.6307383 2.0246675 0
7.1150002 3.6241093 2.0270846 0
7.1240005 3.6168997 2.0292602 0
7.1330004 3.6096573 2.0314355 0
7.1420002 3.6023824 2.0336108 0
7.1510005 3.5950754 2.0357862 0
7.1610003 3.588273 2.0382032 0
7.1700006 3.5808992 2.0403788 0
7.1790004 3.5734928 2.0425541 0
7.1890006 3.566586 2.0449712 0
7.1980004 3.5591128 2.0471466 0
7.2070003 3.5516071 2.0493219 0
7.2170005 3.5445957 2.051739 0
7.2260003 3.5370233 2.0539145 0
7.2360005 3.5299418 2.0563316 0
7.2450004 3.5223024 2.058507 0
7.2550006 3.5151503 2.0609241 0
7.2640004 3.5074446 2.0630996 0
7.2740006 3.500222 2.0655167 0
7.2840004 3.4929636 2.0679338 0
7.2930002 3.4851565 2.0701089 0
7.3030005 3.4778278 2.0725262 0
7.3130002 3.4704628 2.0749433 0
7.3220005 3.4625549 2.0771186 0
7.3320003 3.4551196 2.0795357 0
7.3420005 3.4476483 2.0819528 0
7.3520002 3.4401407 2.0843699 0
7.3620005 3.4325974 2.086787 0
7.3710003 3.4245198 2.0889626 0
7.3810005 3.4169061 2.0913796 0
7.3910003 3.409256 2.0937967 0
7.4010005 3.4015698 2.0962138 0
7.4110003 3.3938477 2.0986309 0
7.4210005 3.3860898 2.101048 0
7.4310002 3.3782952 2.1034651 0
7.4410005 3.370465 2.1058822 0
7.4510002 3.3625987 2.1082993 0
7.4620004 3.3551779 2.1109581 0
7.4720006 3.3472376 2.1133752 0
7.4820004 3.3392611 2.1157923 0
7.4920006 3.3312485 2.1182096 0
7.5020003 3.3231997 2.1206264 0
7.5130005 3.3155878 2.1232853 0
7.5230002 3.3074651 2.1257024 0
6.9800005 3.7283607 1.9825848 0
6.9890003 3.7216377 1.984744 0
6.9970002 3.7143126 1.9866631 0
7.0060005 3.7075267 1.9888225 0
7.0150003 3.7007082 1.9909815 0
7.0240006 3.6938574 1.9931407 0
7.0330005 3.6869738 1.9952998 0
7.0420003 3.6800582 1.9974589 0
7.0510006 3.6731098 1.9996182 0
7.0600004 3.6661294 2.0017772 0
7.0690002 3.6591158 2.0039363 0
7.0780005 3.6520705 2.0060956 0
7.0870004 3.6449919 2.0082548 0
7.0960002 3.6378813 2.0104139 0
7.1050005 3.6307383 2.012573 0
7.1150002 3.6241093 2.014972 0
7.1240005 3.6168997 2.0171313 0
7.1330004 3.6096573 2.0192904 0
7.1420002 3.6023824 2.0214496 0
7.1510005 3.5950754 2.0236087 0
7.1610003 3.588273 2.0260077 0
7.1700006 3.5808992 2.028167 0
7.1790004 3.5734928 2.0303261 0
7.1890006 3.566586 2.0327253 0
7.1980004 3.5591128 2.0348842 0
7.2070003 3.5516071 2.0370433 0
7.2170005 3.5445957 2.0394425 0
7.2260003 3.5370233 2.0416017 0
7.2360005 3.5299418 2.0440009 0
7.2450004 3.5223024 2.04616 0
7.2550006 3.5151503 2.0485592 0
7.2640004 3.5074446 2.0507181 0
7.2740006 3.500222 2.0531173 0
7.2840004 3.4929636 2.0555162 0
7.2930002 3.4851565 2.0576754 0
7.3030005 3.4778278 2.0600746 0
7.3130002 3.4704628 2.0624735 0
7.3220005 3.4625549 2.0646327 0
7.3320003 3.4551196 2.0670316 0
7.3420005 3.4476483 2.0694308 0
7.3520002 3.4401407 2.0718298 0
7.3620005 3.4325974 2.074229 0
7.3710003 3.4245198 2.0763881 0
7.3810005 3.4169061 2.0787873 0
7.3910003 3.409256 2.0811863 0
7.4010005 3.4015698 2.0835853 0
7.4110003 3.3938477 2.0859845 0
7.4210005 3.3860898 2.0883834 0
7.4310002 3.3782952 2.0907826 0
7.4410005 3.370465 2.0931816 0
7.4510002 3.3625987 2.0955806 0
7.4620004 3.3551779 2.0982196 0
7.4720006 3.3472376 2.1006188 0
7.4820004 3.3392611 2.1030178 0
7.4920006 3.3312485 2.105417 0
7.5020003 3.3231997 2.107816 0
7.5130005 3.3155878 2.1104548 0
7.5230002 3.3074651 2.1128538 0
6.9800005 3.7283607 1.9707158 0
6.9890003 3.7216377 1.9728587 0
6.9970002 3.7143126 1.9747634 0
7.0060005 3.7075267 1.9769064 0
7.0150003 3.7007082 1.9790493 0
7.0240006 3.6938574 1.9811922 0
7.0330005 3.6869738 1.9833351 0
7.0420003 3.6800582 1.985478 0
7.0510006 3.6731098 1.9876211 0
7.0600004 3.6661294 1.989764 0
7.0690002 3.6591158 1.9919069 0
7.0780005 3.6520705 1.9940498 0
7.0870004 3.6449919 1.9961927 0
7.0960002 3.6378813 1.9983356 0
7.1050005 3.6307383 2.0004785 0
7.1150002 3.6241093 2.0028594 0
7.1240005 3.6168997 2.0050025 0
7.1330004 3.6096573 2.0071454 0
7.1420002 3.6023824 2.0092883 0
7.1510005 3.5950754 2.0114312 0
7.1610003 3.588273 2.0138123 0
7.1700006 3.5808992 2.0159552 0
7.1790004 3.5734928 2.0180981 0
7.1890006 3.566586 2.0204792 0
7.1980004 3.5591128 2.0226221 0
7.2070003 3.5516071 2.024765 0
7.2170005 3.5445957 2.0271461 0
7.2260003 3.5370233 2.029289 0
7.2360005 3.5299418 2.0316699 0
7.2450004 3.5223024 2.0338128 0
7.2550006 3.5151503 2.0361938 0
7.2640004 3.5074446 2.0383368 0
7.2740006 3.500222 2.0407178 0
7.2840004 3.4929636 2.0430989 0
7.2930002 3.4851565 2.0452418 0
7.3030005 3.4778278 2.0476229 0
7.3130002 3.4704628 2.0500038 0
7.3220005 3.4625549 2.0521467 0
7.3320003 3.4551196 2.0545278 0
7.3420005 3.4476483 2.0569088 0
7.3520002 3.4401407 2.0592897 0
7.3620005 3.4325974 2.061671 0
7.3710003 3.4245198 2.0638137 0
7.3810005 3.4169061 2.0661948 0
7.3910003 3.409256 2.0685759 0
7.4010005 3.4015698 2.0709569 0
7.4110003 3.3938477 2.0733378 0
7.4210005 3.3860898 2.0757189 0
7.4310002 3.3782952 2.0781 0
7.4410005 3.370465 2.0804811 0
7.4510002 3.3625987 2.0828619 0
7.4620004 3.3551779 2.0854812 0
7.4720006 3.3472376 2.0878623 0
7.4820004 3.3392611 2.0902431 0
7.4920006 3.3312485 2.0926242 0
7.5020003 3.3231997 2.0950053 0
7.5130005 3.3155878 2.0976245 0
7.5230002 3.3074651 2.1000054 0
6.9800005 3.7283607 1.9588467 0
6.9890003 3.7216377 1.9609734 0
6.9970002 3.7143126 1.9628637 0
7.0060005 3.7075267 1.9649905 0
7.0150003 3.7007082 1.9671171 0
7.0240006 3.6938574 1.9692439 0
7.0330005 3.6869738 1.9713705 0
7.0420003 3.6800582 1.9734972 0
7.0510006 3.6731098 1.975624 0
7.0600004 3.6661294 1.9777505 0
7.0690002 3.6591158 1.9798772 0
7.0780005 3.6520705 1.9820039 0
7.0870004 3.6449919 1.9841306 0
7.0960002 3.6378813 1.9862573 0
7.1050005 3.6307383 1.988384 0
7.1150002 3.6241093 1.990747 0
7.1240005 3.6168997 1.9928737 0
7.1330004 3.6096573 1.9950004 0
7.1420002 3.6023824 1.9971271 0
7.1510005 3.5950754 1.9992537 0
7.1610003 3.588273 2.0016167 0
7.1700006 3.5808992 2.0037434 0
7.1790004 3.5734928 2.0058701 0
7.1890006 3.566586 2.0082331 0
7.1980004 3.5591128 2.0103598 0
7.2070003 3.5516071 2.0124865 0
7.2170005 3.5445957 2.0148494 0
7.2260003 3.5370233 2.0169761 0
7.2360005 3.5299418 2.0193391 0
7.2450004 3.5223024 2.0214658 0
7.2550006 3.5151503 2.0238287 0
7.2640004 3.5074446 2.0259554 0
7.2740006 3.500222 2.0283186 0
7.2840004 3.4929636 2.0306814 0
7.2930002 3.4851565 2.0328081 0
7.3030005 3.4778278 2.035171 0
7.3130002 3.4704628 2.037534 0
7.3220005 3.4625549 2.0396609 0
7.3320003 3.4551196 2.0420239 0
7.3420005 3.4476483 2.0443869 0
7.3520002 3.4401407 2.0467498 0
7.3620005 3.4325974 2.0491128 0
7.3710003 3.4245198 2.0512395 0
7.3810005 3.4169061 2.0536025 0
7.3910003 3.409256 2.0559654 0
7.4010005 3.4015698 2.0583284 0
7.4110003 3.3938477 2.0606914 0
7.4210005 3.3860898 2.0630543 0
7.4310002 3.3782952 2.0654173 0
7.4410005 3.370465 2.0677803 0
7.4510002 3.3625987 2.0701435 0
7.4620004 3.3551779 2.0727427 0
7.4720006 3.3472376 2.0751057 0
7.4820004 3.3392611 2.0774686 0
7.4920006 3.3312485 2.0798316 0
7.5020003 3.3231997 2.0821946 0
7.5130005 3.3155878 2.0847938 0
7.5230002 3.3074651 2.0871568 0
6.9800005 3.7283607 1.9469776 0
6.9890003 3.7216377 1.949088 0
6.9970002 3.7143126 1.950964 0
7.0060005 3.7075267 1.9530745 0
7.0150003 3.7007082 1.9551849 0
7.0240006 3.6938574 1.9572954 0
7.0330005 3.6869738 1.9594059 0
7.0420003 3.6800582 1.9615163 0
7.0510006 3.6731098 1.9636267 0
7.0600004 3.6661294 1.9657372 0
7.0690002 3.6591158 1.9678477 0
7.0780005 3.6520705 1.9699582 0
7.0870004 3.6449919 1.9720687 0
7.0960002 3.6378813 1.974179 0
7.1050005 3.6307383 1.9762895 0
7.1150002 3.6241093 1.9786344 0
7.1240005 3.6168997 1.980745 0
7.1330004 3.6096573 1.9828553 0
7.1420002 3.6023824 1.9849658 0
7.1510005 3.5950754 1.9870763 0
7.1610003 3.588273 1.9894211 0
7.1700006 3.5808992 1.9915316 0
7.1790004 3.5734928 1.9936421 0
7.1890006 3.566586 1.9959872 0
7.1980004 3.5591128 1.9980975 0
7.2070003 3.5516071 2.0002079 0
7.2170005 3.5445957 2.0025527 0
7.2260003 3.5370233 2.0046632 0
7.2360005 3.5299418 2.0070083 0
7.2450004 3.5223024 2.0091188 0
7.2550006 3.5151503 2.0114639 0
7.2640004 3.5074446 2.0135741 0
7.2740006 3.500222 2.0159192 0
7.2840004 3.4929636 2.0182641 0
7.2930002 3.4851565 2.0203745 0
7.3030005 3.4778278 2.0227196 0
7.3130002 3.4704628 2.0250642 0
7.3220005 3.4625549 2.0271749 0
7.3320003 3.4551196 2.0295198 0
7.3420005 3.4476483 2.0318646 0
7.3520002 3.4401407 2.0342097 0
7.3620005 3.4325974 2.0365546 0
7.3710003 3.4245198 2.0386651 0
7.3810005 3.4169061 2.0410101 0
7.3910003 3.409256 2.043355 0
7.4010005 3.4015698 2.0457001 0
7.4110003 3.3938477 2.0480449 0
7.4210005 3.3860898 2.0503898 0
7.4310002 3.3782952 2.0527349 0
7.4410005 3.370465 2.0550799 0
7.4510002 3.3625987 2.0574245 0
7.4620004 3.3551779 2.0600042 0
7.4720006 3.3472376 2.0623491 0
7.4820004 3.3392611 2.0646942 0
7.4920006 3.3312485 2.067039 0
7.5020003 3.3231997 2.0693839 0
7.5130005 3.3155878 2.0719635 0
7.5230002 3.3074651 2.0743082 0
6.9800005 3.7283607 1.9351085 0
6.9890003 3.7216377 1.9372027 0
6.9970002 3.7143126 1.9390643 0
7.0060005 3.7075267 1.9411585 0
7.0150003 3.7007082 1.9432527 0
7.0240006 3.6938574 1.9453471 0
7.0330005 3.6869738 1.9474412 0
7.0420003 3.6800582 1.9495355 0
7.0510006 3.6731098 1.9516296 0
7.0600004 3.6661294 1.9537238 0
7.0690002 3.6591158 1.9558181 0
7.0780005 3.6520705 1.9579123 0
7.0870004 3.6449919 1.9600065 0
7.0960002 3.6378813 1.9621006 0
7.1050005 3.6307383 1.964195 0
7.1150002 3.6241093 1.9665219 0
7.1240005 3.6168997 1.9686161 0
7.1330004 3.6096573 1.9707103 0
7.1420002 3.6023824 1.9728045 0
7.1510005 3.5950754 1.9748987 0
7.1610003 3.588273 1.9772257 0
7.1700006 3.5808992 1.9793199 0
7.1790004 3.5734928 1.9814141 0
7.1890006 3.566586 1.983741 0
7.1980004 3.5591128 1.9858352 0
7.2070003 3.5516071 1.9879295 0
7.2170005 3.5445957 1.9902564 0
7.2260003 3.5370233 1.9923506 0
7.2360005 3.5299418 1.9946775 0
7.2450004 3.5223024 1.9967717 0
7.2550006 3.5151503 1.9990987 0
7.2640004 3.5074446 2.0011928 0
7.2740006 3.500222 2.0035198 0
7.2840004 3.4929636 2.0058465 0
7.2930002 3.4851565 2.0079408 0
7.3030005 3.4778278 2.0102677 0
7.3130002 3.4704628 2.0125947 0
7.3220005 3.4625549 2.014689 0
7.3320003 3.4551196 2.0170157 0
7.3420005 3.4476483 2.0193427 0
7.3520002 3.4401407 2.0216696 0
7.3620005 3.4325974 2.0239966 0
7.3710003 3.4245198 2.0260909 0
7.3810005 3.4169061 2.0284178 0
7.3910003 3.409256 2.0307446 0
7.4010005 3.4015698 2.0330715 0
7.4110003 3.3938477 2.0353982 0
7.4210005 3.3860898 2.0377254 0
7.4310002 3.3782952 2.0400522 0
7.4410005 3.370465 2.0423791 0
7.4510002 3.3625987 2.0447061 0
7.4620004 3.3551779 2.0472658 0
7.4720006 3.3472376 2.0495927 0
7.4820004 3.3392611 2.0519195 0
7.4920006 3.3312485 2.0542464 0
7.5020003 3.3231997 2.0565734 0
7.5130005 3.3155878 2.0591328 0
7.5230002 3.3074651 2.0614598 0
6.9800005 3.7283607 1.9232395 0
6.9890003 3.7216377 1.9253174 0
6.9970002 3.7143126 1.9271646 0
7.0060005 3.7075267 1.9292426 0
7.0150003 3.7007082 1.9313205 0
7.0240006 3.6938574 1.9333986 0
7.0330005 3.6869738 1.9354765 0
7.0420003 3.6800582 1.9375545 0
7.0510006 3.6731098 1.9396325 0
7.0600004 3.6661294 1.9417105 0
7.0690002 3.6591158 1.9437884 0
7.0780005 3.6520705 1.9458665 0
7.0870004 3.6449919 1.9479444 0
7.0960002 3.6378813 1.9500223 0
7.1050005 3.6307383 1.9521004 0
7.1150002 3.6241093 1.9544092 0
7.1240005 3.6168997 1.9564873 0
7.1330004 3.6096573 1.9585652 0
7.1420002 3.6023824 1.9606432 0
7.1510005 3.5950754 1.9627212 0
7.1610003 3.588273 1.9650301 0
7.1700006 3.5808992 1.9671081 0
7.1790004 3.5734928 1.9691861 0
7.1890006 3.566586 1.971495 0
7.1980004 3.5591128 1.973573 0
7.2070003 3.5516071 1.9756509 0
7.2170005 3.5445957 1.9779599 0
7.2260003 3.5370233 1.9800378 0
7.2360005 3.5299418 1.9823467 0
7.2450004 3.5223024 1.9844247 0
7.2550006 3.5151503 1.9867336 0
7.2640004 3.5074446 1.9888115 0
7.2740006 3.500222 1.9911205 0
7.2840004 3.4929636 1.9934293 0
7.2930002 3.4851565 1.9955072 0
7.3030005 3.4778278 1.9978161 0
7.3130002 3.4704628 2.0001249 0
7.3220005 3.4625549 2.002203 0
7.3320003 3.4551196 2.0045118 0
7.3420005 3.4476483 2.0068207 0
7.3520002 3.4401407 2.0091295 0
7.3620005 3.4325974 2.0114384 0
7.3710003 3.4245198 2.0135164 0
7.3810005 3.4169061 2.0158253 0
7.3910003 3.409256 2.0181341 0
7.4010005 3.4015698 2.020443 0
7.4110003 3.3938477 2.0227518 0
7.4210005 3.3860898 2.0250609 0
7.4310002 3.3782952 2.0273697 0
7.4410005 3.370465 2.0296786 0
7.4510002 3.3625987 2.0319874 0
7.4620004 3.3551779 2.0345271 0
7.4720006 3.3472376 2.0368361 0
7.4820004 3.3392611 2.039145 0
7.4920006 3.3312485 2.0414538 0
7.5020003 3.3231997 2.0437627 0
7.5130005 3.3155878 2.0463026 0
7.5230002 3.3074651 2.0486112 0
6.9800005 3.7283607 1.9113704 0
6.9890003 3.7216377 1.9134322 0
6.9970002 3.7143126 1.9152648 0
7.0060005 3.7075267 1.9173266 0
7.0150003 3.7007082 1.9193884 0
7.0240006 3.6938574 1.9214501 0
7.0330005 3.6869738 1.9235119 0
7.0420003 3.6800582 1.9255736 0
7.0510006 3.6731098 1.9276354 0
7.0600004 3.6661294 1.9296972 0
7.0690002 3.6591158 1.9317589 0
7.0780005 3.6520705 1.9338207 0
7.0870004 3.6449919 1.9358823 0
7.0960002 3.6378813 1.9379441 0
7.1050005 3.6307383 1.9400059 0
7.1150002 3.6241093 1.9422966 0
7.1240005 3.6168997 1.9443585 0
7.1330004 3.6096573 1.9464203 0
7.1420002 3.6023824 1.9484819 0
7.1510005 3.5950754 1.9505438 0
7.1610003 3.588273 1.9528346 0
7.1700006 3.5808992 1.9548963 0
7.1790004 3.5734928 1.9569581 0
7.1890006 3.566586 1.9592489 0
7.1980004 3.5591128 1.9613107 0
7.2070003 3.5516071 1.9633723 0
7.2170005 3.5445957 1.9656632 0
7.2260003 3.5370233 1.967725 0
7.2360005 3.5299418 1.9700159 0
7.2450004 3.5223024 1.9720776 0
7.2550006 3.5151503 1.9743685 0
7.2640004 3.5074446 1.9764302 0
7.2740006 3.500222 1.978721 0
7.2840004 3.4929636 1.9810119 0
7.2930002 3.4851565 1.9830736 0
7.3030005 3.4778278 1.9853644 0
7.3130002 3.4704628 1.9876552 0
7.3220005 3.4625549 1.989717 0
7.3320003 3.4551196 1.9920079 0
7.3420005 3.4476483 1.9942987 0
7.3520002 3.4401407 1.9965894 0
7.3620005 3.4325974 1.9988804 0
7.3710003 3.4245198 2.000942 0
7.3810005 3.4169061 2.003233 0
7.3910003 3.409256 2.0055237 0
7.4010005 3.4015698 2.0078146 0
7.4110003 3.3938477 2.0101054 0
7.4210005 3.3860898 2.0123963 0
7.4310002 3.3782952 2.0146871 0
7.4410005 3.370465 2.016978 0
7.4510002 3.3625987 2.0192688 0
7.4620004 3.3551779 2.0217886 0
7.4720006 3.3472376 2.0240796 0
7.4820004 3.3392611 2.0263703 0
7.4920006 3.3312485 2.0286613 0
7.5020003 3.3231997 2.030952 0
7.5130005 3.3155878 2.0334721 0
7.5230002 3.3074651 2.0357628 0
6.9800005 3.7283607 1.8995014 0
6.9890003 3.7216377 1.901547 0
6.9970002 3.7143126 1.9033651 0
7.0060005 3.7075267 1.9054108 0
7.0150003 3.7007082 1.9074562 0
7.0240006 3.6938574 1.9095018 0
7.0330005 3.6869738 1.9115472 0
7.0420003 3.6800582 1.9135927 0
7.0510006 3.6731098 1.9156383 0
7.0600004 3.6661294 1.9176837 0
7.0690002 3.6591158 1.9197292 0
7.0780005 3.6520705 1.9217747 0
7.0870004 3.6449919 1.9238203 0
7.0960002 3.6378813 1.9258658 0
7.1050005 3.6307383 1.9279114 0
7.1150002 3.6241093 1.9301841 0
7.1240005 3.6168997 1.9322298 0
7.1330004 3.6096573 1.9342752 0
7.1420002 3.6023824 1.9363207 0
7.1510005 3.5950754 1.9383662 0
7.1610003 3.588273 1.940639 0
7.1700006 3.5808992 1.9426847 0
7.1790004 3.5734928 1.94473 0
7.1890006 3.566586 1.9470029 0
7.1980004 3.5591128 1.9490484 0
7.2070003 3.5516071 1.9510938 0
7.2170005 3.5445957 1.9533668 0
7.2260003 3.5370233 1.9554123 0
7.2360005 3.5299418 1.957685 0
7.2450004 3.5223024 1.9597305 0
7.2550006 3.5151503 1.9620034 0
7.2640004 3.5074446 1.9640487 0
7.2740006 3.500222 1.9663217 0
7.2840004 3.4929636 1.9685944 0
7.2930002 3.4851565 1.9706399 0
7.3030005 3.4778278 1.9729127 0
7.3130002 3.4704628 1.9751855 0
7.3220005 3.4625549 1.9772311 0
7.3320003 3.4551196 1.9795039 0
7.3420005 3.4476483 1.9817767 0
7.3520002 3.4401407 1.9840494 0
7.3620005 3.4325974 1.9863223 0
7.3710003 3.4245198 1.9883677 0
7.3810005 3.4169061 1.9906406 0
7.3910003 3.409256 1.9929134 0
7.4010005 3.4015698 1.9951862 0
7.4110003 3.3938477 1.9974589 0
7.4210005 3.3860898 1.9997318 0
7.4310002 3.3782952 2.0020044 0
7.4410005 3.370465 2.0042772 0
7.4510002 3.3625987 2.0065501 0
7.4620004 3.3551779 2.0090501 0
7.4720006 3.3472376 2.011323 0
7.4820004 3.3392611 2.0135958 0
7.4920006 3.3312485 2.0158687 0
7.5020003 3.3231997 2.0181415 0
7.5130005 3.3155878 2.0206416 0
7.5230002 3.3074651 2.0229142 0
6.9800005 3.7283607 1.8876324 0
6.9890003 3.7216377 1.8896616 0
6.9970002 3.7143126 1.8914653 0
7.0060005 3.7075267 1.8934947 0
7.0150003 3.7007082 1.895524 0
7.0240006 3.6938574 1.8975533 0
7.0330005 3.6869738 1.8995826 0
7.0420003 3.6800582 1.9016118 0
7.0510006 3.6731098 1.9036411 0
7.0600004 3.6661294 1.9056704 0
7.0690002 3.6591158 1.9076996 0
7.0780005 3.6520705 1.909729 0
7.0870004 3.6449919 1.9117583 0
7.0960002 3.6378813 1.9137875 0
7.1050005 3.6307383 1.9158169 0
7.1150002 3.6241093 1.9180715 0
7.1240005 3.6168997 1.9201009 0
7.1330004 3.6096573 1.9221302 0
7.1420002 3.6023824 1.9241594 0
7.1510005 3.5950754 1.9261887 0
7.1610003 3.588273 1.9284434 0
7.1700006 3.5808992 1.9304729 0
7.1790004 3.5734928 1.932502 0
7.1890006 3.566586 1.9347569 0
7.1980004 3.5591128 1.9367862 0
7.2070003 3.5516071 1.9388154 0
7.2170005 3.5445957 1.9410702 0
7.2260003 3.5370233 1.9430994 0
7.2360005 3.5299418 1.9453542 0
7.2450004 3.5223024 1.9473835 0
7.2550006 3.5151503 1.9496382 0
7.2640004 3.5074446 1.9516675 0
7.2740006 3.500222 1.9539223 0
7.2840004 3.4929636 1.9561771 0
7.2930002 3.4851565 1.9582063 0
7.3030005 3.4778278 1.9604611 0
7.3130002 3.4704628 1.9627157 0
7.3220005 3.4625549 1.9647452 0
7.3320003 3.4551196 1.9669998 0
7.3420005 3.4476483 1.9692547 0
7.3520002 3.4401407 1.9715093 0
7.3620005 3.4325974 1.9737642 0
7.3710003 3.4245198 1.9757934 0
7.3810005 3.4169061 1.9780482 0
7.3910003 3.409256 1.9803029 0
7.4010005 3.4015698 1.9825578 0
7.4110003 3.3938477 1.9848124 0
7.4210005 3.3860898 1.9870672 0
7.4310002 3.3782952 1.9893219 0
7.4410005 3.370465 1.9915768 0
7.4510002 3.3625987 1.9938314 0
7.4620004 3.3551779 1.9963118 0
7.4720006 3.3472376 1.9985665 0
7.4820004 3.3392611 2.0008214 0
7.4920006 3.3312485 2.0030761 0
7.5020003 3.3231997 2.0053306 0
7.5130005 3.3155878 2.0078111 0
7.5230002 3.3074651 2.0100656 0
6.9800005 3.7283607 1.8757633 0
6.9890003 3.7216377 1.8777763 0
6.9970002 3.7143126 1.8795656 0
7.0060005 3.7075267 1.8815787 0
7.0150003 3.7007082 1.8835918 0
7.0240006 3.6938574 1.885605 0
7.0330005 3.6869738 1.8876179 0
7.0420003 3.6800582 1.8896309 0
7.0510006 3.6731098 1.891644 0
7.0600004 3.6661294 1.893657 0
