# .PCD v0.7 - Point Cloud Data file format
VERSION 0.7
FIELDS x y z intensity
SIZE 4 4 4 4
TYPE F F F F
COUNT 1 1 1 1
WIDTH 1401
HEIGHT 1
VIEWPOINT 0 0 0 1 0 0 0
POINTS 1401
DATA ascii
5.4770002 0.11884281 0.71536982 0
5.4680004 0.091125503 0.71481782 0
5.4580002 0.08173126 0.71420455 0
5.4520001 0.07246691 0.71383655 0
5.4490004 0.063289136 0.71365261 0
5.4470005 0.054142024 0.71352988 0
5.4470005 0.045038205 0.71352988 0
5.4490004 0.035966847 0.71365261 0
5.4530005 0.026917148 0.71389788 0
5.4590001 0.01787826 0.71426582 0
5.4800005 0.21057367 0.70639044 0
5.4720001 0.2010207 0.70591426 0
5.4670005 0.19163729 0.70561659 0
5.4640002 0.18236212 0.70543802 0
5.4620004 0.17314105 0.70531893 0
5.4620004 0.16401018 0.70531893 0
5.4630003 0.15491897 0.70537853 0
5.4650002 0.14586204 0.7054975 0
5.4690003 0.13687007 0.70573568 0
5.4750004 0.12793221 0.70609283 0
5.4840002 0.11907008 0.70662856 0
5.4680004 0.091125503 0.70567608 0
5.4580002 0.08173126 0.70508087 0
5.4520001 0.07246691 0.70472372 0
5.4490004 0.063289136 0.70454514 0
5.4470005 0.054142024 0.70442605 0
5.4470005 0.045038205 0.70442605 0
5.4490004 0.035966847 0.70454514 0
5.4530005 0.026917148 0.7047832 0
5.4590001 0.01787826 0.70514035 0
5.4780002 0.22879213 0.69711161 0
5.4740005 0.21942317 0.69688076 0
5.4770002 0.21042216 0.69705391 0
5.4700003 0.20092329 0.69664985 0
5.4660006 0.19159043 0.696419 0
5.4640002 0.18236212 0.69630349 0
5.4630003 0.17318435 0.69624579 0
5.4630003 0.16405167 0.69624579 0
5.4650002 0.15499833 0.69636124 0
5.4680004 0.14597571 0.6965344 0
5.4730005 0.13701439 0.696823 0
5.4800005 0.12810357 0.69722712 0
5.4680004 0.091125503 0.6965344 0
5.4580002 0.08173126 0.69595718 0
5.4520001 0.07246691 0.69561088 0
5.4490004 0.063289136 0.69543767 0
5.4470005 0.054142024 0.69532228 0
5.4470005 0.045038205 0.69532228 0
5.4490004 0.035966847 0.69543767 0
5.4530005 0.026917148 0.69566858 0
5.4590001 0.01787826 0.69601488 0
5.4820004 0.2473425 0.68817556 0
5.4770002 0.23789597 0.68789601 0
5.4730005 0.22852159 0.68767232 0
5.4710002 0.21926624 0.68756044 0
5.4760003 0.21037164 0.68784004 0
5.4690003 0.2008746 0.68744862 0
5.4650002 0.19154349 0.68722498 0
5.4630003 0.18231702 0.68711311 0
5.4630003 0.17318435 0.68711311 0
5.4640002 0.16409314 0.68716908 0
5.4670005 0.15507771 0.6873368 0
5.4710002 0.14608935 0.68756044 0
5.4770002 0.13715868 0.68789601 0
5.4680004 0.091125503 0.68739271 0
5.4580002 0.08173126 0.6868335 0
5.4520001 0.07246691 0.68649805 0
5.4490004 0.063289136 0.68633032 0
5.4470005 0.054142024 0.68621844 0
5.4470005 0.045038205 0.68621844 0
5.4490004 0.035966847 0.68633032 0
5.4530005 0.026917148 0.68655396 0
5.4590001 0.01787826 0.68688941 0
5.4810004 0.25644994 0.67895448 0
5.4770002 0.24705389 0.678738 0
5.4730005 0.2376723 0.67852163 0
5.4710002 0.22841334 0.67841339 0
5.4690003 0.2191616 0.67830515 0
5.4670005 0.2099171 0.67819691 0
5.4710002 0.20097201 0.67841339 0
5.4670005 0.19163729 0.67819691 0
5.4650002 0.1824072 0.67808867 0
5.4650002 0.17327091 0.67808867 0
5.4660006 0.16417614 0.67814279 0
5.4700003 0.15519676 0.67835927 0
5.4750004 0.14624086 0.67862988 0
5.4580002 0.08173126 0.67770988 0
5.4520001 0.07246691 0.67738521 0
5.4490004 0.063289136 0.67722285 0
5.4470005 0.054142024 0.67711461 0
5.4470005 0.045038205 0.67711461 0
5.4490004 0.035966847 0.67722285 0
5.4530005 0.026917148 0.67743933 0
5.4590001 0.01787826 0.677764 0
5.4840002 0.27496961 0.66994631 0
5.4800005 0.26555377 0.66973704 0
5.4760003 0.2561523 0.66952777 0
5.4740005 0.24688074 0.66942322 0
5.4710002 0.23756045 0.66926622 0
5.4700003 0.22835922 0.66921389 0
5.4680004 0.21910933 0.66910934 0
5.4680004 0.20996761 0.66910934 0
5.4750004 0.20116682 0.6694755 0
5.4700003 0.191778 0.66921389 0
5.4680004 0.1825425 0.66910934 0
5.4680004 0.17340079 0.66910934 0
5.4700003 0.16434206 0.66921389 0
5.4730005 0.15531583 0.66937089 0
5.4580002 0.08173126 0.66858625 0
5.4520001 0.07246691 0.66827232 0
5.4490004 0.063289136 0.66811538 0
5.4470005 0.054142024 0.66801083 0
5.4470005 0.045038205 0.66801083 0
5.4490004 0.035966847 0.66811538 0
5.4530005 0.026917148 0.66832471 0
5.4590001 0.01787826 0.66863847 0
5.4880004 0.29357773 0.66097772 0
5.4830003 0.28407526 0.66072524 0
5.4790006 0.27465397 0.66052318 0
5.4760003 0.26530844 0.66037166 0
5.4740005 0.25603327 0.66027069 0
5.4720001 0.24676529 0.6601696 0
5.4700003 0.23750451 0.66006863 0
5.4700003 0.22835922 0.66006863 0
5.4690003 0.2191616 0.66001809 0
5.4690003 0.2100181 0.66001809 0
5.4690003 0.2008746 0.66001809 0
5.4760003 0.1920594 0.66037166 0
5.4740005 0.18281306 0.66027069 0
5.4730005 0.17361727 0.66022015 0
5.4750004 0.16454951 0.66032118 0
5.4580002 0.08173126 0.65946257 0
5.4520001 0.07246691 0.65915948 0
5.4490004 0.063289136 0.65900803 0
5.4470005 0.054142024 0.658907 0
5.4470005 0.045038205 0.658907 0
5.4490004 0.035966847 0.65900803 0
5.4530005 0.026917148 0.65921003 0
5.4590001 0.01787826 0.65951306 0
5.4910002 0.31214428 0.65194607 0
5.4860005 0.30261841 0.65170258 0
5.4820004 0.29317728 0.65150774 0
5.4790006 0.28381553 0.65136164 0
5.4770002 0.2745277 0.65126425 0
5.4750004 0.26524711 0.65116686 0
5.4730005 0.25597373 0.6510694 0
5.4720001 0.24676529 0.65102071 0
5.4710002 0.23756045 0.65097201 0
5.4710002 0.22841334 0.65097201 0
5.4710002 0.21926624 0.65097201 0
5.4720001 0.21016961 0.65102071 0
5.4730005 0.20106941 0.6510694 0
5.4750004 0.1920125 0.65116686 0
5.4820004 0.18317382 0.65150774 0
5.4820004 0.17400688 0.65150774 0
5.4580002 0.08173126 0.65033889 0
5.4520001 0.07246691 0.65004671 0
5.4490004 0.063289136 0.64990056 0
5.4470005 0.054142024 0.64980316 0
5.4470005 0.045038205 0.64980316 0
5.4490004 0.035966847 0.64990056 0
5.4530005 0.026917148 0.6500954 0
5.4590001 0.01787826 0.65038759 0
5.4900002 0.32125536 0.64271599 0
5.4860005 0.31179258 0.64252841 0
5.4820004 0.30234423 0.64234078 0
5.4790006 0.29297706 0.64220011 0
5.4770002 0.28368562 0.64210629 0
5.4760003 0.27446455 0.64205945 0
5.4740005 0.26518577 0.64196563 0
5.4740005 0.25603327 0.64196563 0
5.4730005 0.24682301 0.64191872 0
5.4730005 0.2376723 0.64191872 0
5.4740005 0.22857571 0.64196563 0
5.4750004 0.21947548 0.64201254 0
5.4760003 0.21037164 0.64205945 0
5.4790006 0.20136164 0.64220011 0
5.4820004 0.19234078 0.64234078 0
5.4580002 0.08173126 0.64121521 0
5.4520001 0.07246691 0.64093381 0
5.4490004 0.063289136 0.64079314 0
5.4470005 0.054142024 0.64069939 0
5.4470005 0.045038205 0.64069939 0
5.4490004 0.035966847 0.64079314 0
5.4530005 0.026917148 0.64098072 0
5.4590001 0.01787826 0.64126211 0
5.4930005 0.33984542 0.63366991 0
5.4890003 0.33036277 0.63348949 0
5.4850001 0.32089457 0.63330913 0
5.4820004 0.31151119 0.63317382 0
5.4800005 0.30220714 0.63308364 0
5.4780002 0.29291031 0.63299346 0
5.4760003 0.28362069 0.63290328 0
5.4760003 0.27446455 0.63290328 0
5.4750004 0.26524711 0.63285816 0
5.4750004 0.25609279 0.63285816 0
5.4750004 0.24693847 0.63285816 0
5.4770002 0.23789597 0.6329484 0
5.4780002 0.22879213 0.63299346 0
5.4800005 0.21973702 0.63308364 0
5.4830003 0.21072519 0.63321894 0
5.4860005 0.20170255 0.63335425 0
5.4580002 0.08173126 0.63209158 0
5.4520001 0.07246691 0.63182098 0
5.4490004 0.063289136 0.63168573 0
5.4470005 0.054142024 0.63159549 0
5.4470005 0.045038205 0.63159549 0
5.4490004 0.035966847 0.63168573 0
5.4530005 0.026917148 0.6318661 0
5.4590001 0.01787826 0.63213664 0
5.4940004 0.36748695 0.62452638 0
5.4960003 0.35845709 0.62461299 0
5.4920001 0.34895459 0.62443984 0
5.4880004 0.3394666 0.62426662 0
5.4850001 0.33006695 0.62413675 0
5.4820004 0.32067814 0.62400687 0
5.4810004 0.31144083 0.62396359 0
5.4790006 0.3021386 0.62387705 0
5.4780002 0.29291031 0.62383372 0
5.4770002 0.28368562 0.62379044 0
5.4770002 0.2745277 0.62379044 0
5.4770002 0.26536977 0.62379044 0
5.4780002 0.25627136 0.62383372 0
5.4790006 0.24716935 0.62387705 0
5.4810004 0.23811966 0.62396359 0
5.4840002 0.22911683 0.62409347 0
5.4870005 0.2201032 0.62422335 0
5.4580002 0.08173126 0.6229679 0
5.4520001 0.07246691 0.62270814 0
5.4490004 0.063289136 0.62257826 0
5.4470005 0.054142024 0.62249172 0
5.4470005 0.045038205 0.62249172 0
5.4490004 0.035966847 0.62257826 0
5.4530005 0.026917148 0.62275147 0
5.4590001 0.01787826 0.62301117 0
5.4870005 0.38527071 0.6150474 0
5.4860005 0.37601179 0.61500591 0
5.4860005 0.36683762 0.61500591 0
5.4880004 0.35782215 0.61508888 0
5.4880004 0.34864438 0.61508888 0
5.4850001 0.33923933 0.61496437 0
5.4830003 0.32991904 0.6148814 0
5.4810004 0.32060599 0.61479843 0
5.4800005 0.31137049 0.61475694 0
5.4800005 0.30220714 0.61475694 0
5.4790006 0.29297706 0.61471546 0
5.4790006 0.28381553 0.61471546 0
5.4800005 0.27471712 0.61475694 0
5.4810004 0.26561511 0.61479843 0
5.4830003 0.256569 0.6148814 0
5.4850001 0.24751565 0.61496437 0
5.4880004 0.23851106 0.61508888 0
5.4580002 0.08173126 0.61384422 0
5.4520001 0.07246691 0.61359531 0
5.4490004 0.063289136 0.61347085 0
5.4470005 0.054142024 0.61338788 0
5.4470005 0.045038205 0.61338788 0
5.4490004 0.035966847 0.61347085 0
5.4530005 0.026917148 0.61363679 0
5.4590001 0.01787826 0.6138857 0
5.4840002 0.39418694 0.60575235 0
5.4810004 0.38476205 0.60563332 0
5.4800005 0.37551391 0.60559362 0
5.4800005 0.36635059 0.60559362 0
5.4820004 0.35734597 0.60567302 0
5.4860005 0.34848925 0.60583174 0
5.4840002 0.33916354 0.60575235 0
5.4830003 0.32991904 0.60571265 0
5.4820004 0.32067814 0.60567302 0
5.4810004 0.31144083 0.60563332 0
5.4810004 0.30227569 0.60563332 0
5.4810004 0.29311052 0.60563332 0
5.4830003 0.28407526 0.60571265 0
5.4840002 0.27496961 0.60575235 0
5.4860005 0.26592174 0.60583174 0
5.4890003 0.25692615 0.60595077 0
5.4580002 0.08173126 0.60472059 0
5.4520001 0.07246691 0.60448247 0
5.4490004 0.063289136 0.60436344 0
5.4470005 0.054142024 0.60428405 0
5.4470005 0.045038205 0.60428405 0
5.4490004 0.035966847 0.60436344 0
5.4530005 0.026917148 0.60452217 0
5.4590001 0.01787826 0.60476029 0
5.4840002 0.40335748 0.59658182 0
5.4800005 0.39384061 0.5964303 0
5.4770002 0.3844229 0.59631664 0
5.4760003 0.37518197 0.59627879 0
5.4770002 0.36610705 0.59631664 0
5.4780002 0.35702848 0.59635448 0
5.4820004 0.34817901 0.59650606 0
5.4840002 0.33916354 0.59658182 0
5.4830003 0.32991904 0.59654391 0
5.4830003 0.3207503 0.59654391 0
5.4830003 0.31158152 0.59654391 0
5.4840002 0.30248129 0.59658182 0
5.4850001 0.29337749 0.59661967 0
5.4870005 0.28433502 0.59669542 0
5.4900002 0.27534842 0.59680903 0
5.4940004 0.26641238 0.5969606 0
5.4580002 0.08173126 0.59559691 0
5.4520001 0.07246691 0.59536964 0
5.4490004 0.063289136 0.59525597 0
5.4470005 0.054142024 0.59518027 0
5.4470005 0.045038205 0.59518027 0
5.4490004 0.035966847 0.59525597 0
5.4530005 0.026917148 0.59540749 0
5.4590001 0.01787826 0.59563482 0
5.4820004 0.40318069 0.5873391 0
5.4780002 0.39366743 0.5871948 0
5.4750004 0.38425335 0.58708656 0
5.4740005 0.37501606 0.5870505 0
5.4750004 0.36594471 0.58708656 0
5.4760003 0.35686973 0.58712262 0
5.4790006 0.34794632 0.58723086 0
5.4840002 0.33916354 0.58741122 0
5.4850001 0.33006695 0.58744729 0
5.4860005 0.32096675 0.58748341 0
5.4870005 0.31186295 0.58751947 0
5.4890003 0.30282402 0.58759165 0
5.4910002 0.29377794 0.58766377 0
5.4940004 0.28478959 0.58777201 0
5.4580002 0.08173126 0.58647323 0
5.4520001 0.07246691 0.5862568 0
5.4490004 0.063289136 0.58614856 0
5.4470005 0.054142024 0.58607644 0
5.4470005 0.045038205 0.58607644 0
5.4490004 0.035966847 0.58614856 0
5.4530005 0.026917148 0.58629286 0
5.4590001 0.01787826 0.58650935 0
5.4810004 0.40309232 0.57813787 0
5.4770002 0.39358085 0.57800078 0
5.4740005 0.38416857 0.57789797 0
5.4740005 0.37501606 0.57789797 0
5.4740005 0.36586353 0.57789797 0
5.4760003 0.35686973 0.57796645 0
5.4790006 0.34794632 0.57806933 0
5.4830003 0.33908778 0.57820642 0
5.4890003 0.33036277 0.57841206 0
5.4900002 0.32125536 0.57844633 0
5.4920001 0.31221464 0.57851481 0
5.4950004 0.30323532 0.57861769 0
5.4990005 0.29431188 0.57875478 0
5.4580002 0.08173126 0.5773496 0
5.4520001 0.07246691 0.57714397 0
5.4490004 0.063289136 0.57704115 0
5.4470005 0.054142024 0.5769726 0
5.4470005 0.045038205 0.5769726 0
5.4490004 0.035966847 0.57704115 0
5.4530005 0.026917148 0.57717824 0
5.4590001 0.01787826 0.57738388 0
5.4810004 0.40309232 0.56897271 0
5.4770002 0.39358085 0.56884283 0
5.4750004 0.38425335 0.56877792 0
5.4740005 0.37501606 0.56874543 0
5.4750004 0.36594471 0.56877792 0
5.4760003 0.35686973 0.56881034 0
5.4790006 0.34794632 0.5689078 0
5.4840002 0.33916354 0.5690701 0
5.4910002 0.33051068 0.56929737 0
5.4960003 0.32168826 0.56945974 0
5.5000005 0.31277746 0.56958961 0
5.5050001 0.30392075 0.56975198 0
5.4580002 0.08173126 0.56822592 0
5.4520001 0.07246691 0.56803113 0
5.4490004 0.063289136 0.56793368 0
5.4470005 0.054142024 0.56786877 0
5.4470005 0.045038205 0.56786877 0
5.4490004 0.035966847 0.56793368 0
5.4530005 0.026917148 0.56806362 0
5.4590001 0.01787826 0.5682584 0
5.4840002 0.40335748 0.55989957 0
5.4800005 0.39384061 0.5597769 0
5.4770002 0.3844229 0.55968487 0
5.4760003 0.37518197 0.55965424 0
5.4760003 0.36602587 0.55965424 0
5.4780002 0.35702848 0.55971557 0
5.4810004 0.34810144 0.55980754 0
5.4860005 0.33931509 0.5599609 0
5.4930005 0.33065861 0.56017554 0
5.5020003 0.3221212 0.56045151 0
5.5110002 0.31355128 0.56072748 0
5.4580002 0.08173126 0.5591023 0
5.4520001 0.07246691 0.5589183 0
5.4490004 0.063289136 0.55882633 0
5.4470005 0.054142024 0.55876493 0
5.4470005 0.045038205 0.55876493 0
5.4490004 0.035966847 0.55882633 0
5.4530005 0.026917148 0.55894893 0
5.4590001 0.01787826 0.55913293 0
5.4880004 0.40371102 0.55084443 0
5.4830003 0.39410034 0.55070013 0
5.4810004 0.38476205 0.55064243 0
5.4790006 0.37543094 0.55058467 0
5.4800005 0.36635059 0.55061352 0
5.4820004 0.35734597 0.55067128 0
5.4850001 0.34841168 0.55075783 0
5.4900002 0.33961809 0.55090213 0
5.4970002 0.33095443 0.55110419 0
5.5080004 0.32255408 0.55142164 0
5.4580002 0.08173126 0.54997861 0
5.4520001 0.07246691 0.5498054 0
5.4490004 0.063289136 0.54971886 0
5.4470005 0.054142024 0.54966116 0
5.4470005 0.045038205 0.54966116 0
5.4490004 0.035966847 0.54971886 0
5.4530005 0.026917148 0.54983431 0
5.4590001 0.01787826 0.55000746 0
5.4940004 0.40424135 0.54182899 0
5.4890003 0.39461982 0.54169369 0
5.4860005 0.38518596 0.54161257 0
5.4840002 0.37584579 0.54155844 0
5.4850001 0.36675638 0.54158551 0
5.4870005 0.35774279 0.54163963 0
5.4900002 0.3487995 0.54172075 0
5.4960003 0.34007269 0.54188311 0
5.5040002 0.33147213 0.5420996 0
5.4580002 0.08173126 0.54085493 0
5.4520001 0.07246691 0.54069257 0
5.4490004 0.063289136 0.54061145 0
5.4470005 0.054142024 0.54055732 0
5.4470005 0.045038205 0.54055732 0
5.4490004 0.035966847 0.54061145 0
5.4530005 0.026917148 0.54071963 0
5.4590001 0.01787826 0.54088199 0
5.4970002 0.39531249 0.53271616 0
5.4930005 0.38577938 0.53261513 0
5.4920001 0.37650958 0.53258991 0
5.4920001 0.36732459 0.53258991 0
5.4940004 0.35829836 0.5326404 0
5.4980001 0.34942001 0.53274143 0
5.5050001 0.34075451 0.53291821 0
5.5150003 0.33228564 0.5331707 0
5.4580002 0.08173126 0.53173125 0
5.4520001 0.07246691 0.53157973 0
5.4490004 0.063289136 0.53150403 0
5.4470005 0.054142024 0.53145349 0
5.4470005 0.045038205 0.53145349 0
5.4490004 0.035966847 0.53150403 0
5.4530005 0.026917148 0.53160501 0
5.4590001 0.01787826 0.53175652 0
5.5110002 0.39652464 0.52385044 0
5.5050001 0.38679671 0.52370971 0
5.5030003 0.37742233 0.52366287 0
5.5030003 0.3682175 0.52366287 0
5.5050001 0.35917136 0.52370971 0
5.5060005 0.35004053 0.5237332 0
5.5040002 0.34067875 0.52368629 0
5.5030003 0.33139816 0.52366287 0
5.5020003 0.3221212 0.52363938 0
5.5010004 0.31284779 0.52361596 0
5.4990005 0.3035095 0.52356905 0
5.4980001 0.29424512 0.52354562 0
5.4970002 0.28498438 0.52352214 0
5.4580002 0.08173126 0.52260762 0
5.4520001 0.07246691 0.5224669 0
5.4490004 0.063289136 0.52239656 0
5.4470005 0.054142024 0.52234972 0
5.4470005 0.045038205 0.52234972 0
5.4490004 0.035966847 0.52239656 0
5.4530005 0.026917148 0.52249038 0
5.4590001 0.01787826 0.52263105 0
5.5070004 0.39617833 0.51454461 0
5.5020003 0.38654238 0.51443636 0
5.4990005 0.37709045 0.51437145 0
5.4980001 0.36781162 0.51434982 0
5.4970002 0.35853645 0.51432812 0
5.4960003 0.34926489 0.51430649 0
5.4950004 0.3399969 0.51428485 0
5.4930005 0.33065861 0.51424158 0
5.4920001 0.32139963 0.51421988 0
5.4910002 0.31214428 0.51419824 0
5.4900002 0.3028926 0.51417661 0
5.4890003 0.29364446 0.51415497 0
5.4870005 0.28433502 0.5141117 0
5.4860005 0.27509591 0.51409006 0
5.4850001 0.26586038 0.51406837 0
5.4840002 0.25662851 0.51404673 0
5.4820004 0.2473425 0.51400346 0
5.4810004 0.23811966 0.51398182 0
5.4800005 0.22890037 0.51396018 0
5.4790006 0.21968472 0.51393855 0
5.4780002 0.21047267 0.51391685 0
5.4760003 0.20121552 0.51387358 0
5.4750004 0.1920125 0.51385194 0
5.4740005 0.18281306 0.5138303 0
5.4730005 0.17361727 0.51380867 0
5.4720001 0.16442503 0.51378697 0
5.4700003 0.15519676 0.5137437 0
5.4580002 0.08173126 0.51348394 0
5.4520001 0.07246691 0.51335406 0
5.4490004 0.063289136 0.51328915 0
5.4470005 0.054142024 0.51324588 0
5.4470005 0.045038205 0.51324588 0
5.4490004 0.035966847 0.51328915 0
5.4530005 0.026917148 0.51337576 0
5.4590001 0.01787826 0.51350558 0
5.5000005 0.39557227 0.50519365 0
5.4950004 0.38594893 0.50509447 0
5.4940004 0.37667558 0.50507462 0
5.4920001 0.36732459 0.50503492 0
5.4910002 0.35806024 0.50501508 0
5.4900002 0.3487995 0.50499523 0
5.4890003 0.33954236 0.50497538 0
5.4880004 0.33028883 0.50495553 0
5.4860005 0.32096675 0.50491589 0
5.4850001 0.31172222 0.50489604 0
5.4840002 0.30248129 0.5048762 0
5.4830003 0.29324403 0.50485635 0
5.4810004 0.28394538 0.50481665 0
5.4800005 0.27471712 0.5047968 0
5.4790006 0.26549244 0.50477695 0
5.4780002 0.25627136 0.50475717 0
5.4770002 0.24705389 0.50473726 0
5.4750004 0.23778415 0.50469762 0
5.4740005 0.22857571 0.50467777 0
5.4730005 0.21937087 0.50465792 0
5.4720001 0.21016961 0.50463808 0
5.4710002 0.20097201 0.50461823 0
5.4690003 0.1917311 0.50457859 0
5.4680004 0.1825425 0.50455874 0
5.4670005 0.17335752 0.50453889 0
5.4660006 0.16417614 0.50451905 0
5.4650002 0.15499833 0.5044992 0
5.4630003 0.1457863 0.5044595 0
5.4580002 0.08173126 0.50436032 0
5.4520001 0.07246691 0.50424123 0
5.4490004 0.063289136 0.50418174 0
5.4470005 0.054142024 0.50414205 0
5.4470005 0.045038205 0.50414205 0
5.4490004 0.035966847 0.50418174 0
5.4530005 0.026917148 0.50426108 0
5.4590001 0.01787826 0.50438011 0
5.4960003 0.39522591 0.49592209 0
5.4920001 0.38569459 0.49584991 0
5.4900002 0.37634367 0.49581385 0
5.4890003 0.36708108 0.49579582 0
5.4880004 0.35782215 0.49577779 0
5.4870005 0.34856683 0.49575973 0
5.4850001 0.33923933 0.49572366 0
5.4840002 0.32999298 0.4957056 0
5.4830003 0.3207503 0.4956876 0
5.4820004 0.31151119 0.49566954 0
5.4810004 0.30227569 0.49565151 0
5.4790006 0.29297706 0.49561542 0
5.4780002 0.28375056 0.49559739 0
5.4770002 0.2745277 0.49557936 0
5.4760003 0.26530844 0.4955613 0
5.4750004 0.25609279 0.4955433 0
5.4730005 0.24682301 0.49550721 0
5.4720001 0.23761636 0.49548918 0
5.4710002 0.22841334 0.49547112 0
5.4700003 0.2192139 0.49545309 0
5.4690003 0.2100181 0.49543506 0
5.4670005 0.20077719 0.495399 0
5.4660006 0.19159043 0.49538094 0
5.4650002 0.1824072 0.49536291 0
5.4640002 0.17322762 0.49534485 0
5.4630003 0.16405167 0.49532682 0
5.4610004 0.15483962 0.49529076 0
5.4600005 0.14567266 0.49527273 0
5.4580002 0.08173126 0.49523664 0
5.4520001 0.07246691 0.49512839 0
5.4490004 0.063289136 0.49507427 0
5.4470005 0.054142024 0.49503821 0
5.4470005 0.045038205 0.49503821 0
5.4490004 0.035966847 0.49507427 0
5.4530005 0.026917148 0.49514645 0
5.4590001 0.01787826 0.49525467 0
5.4940004 0.39505279 0.48669741 0
5.4900002 0.38552505 0.48663247 0
5.4890003 0.37626067 0.48661625 0
5.4880004 0.36699992 0.48660001 0
5.4860005 0.35766345 0.48656753 0
5.4850001 0.34841168 0.48655128 0
5.4840002 0.33916354 0.48653507 0
5.4830003 0.32991904 0.48651883 0
5.4820004 0.32067814 0.48650259 0
5.4800005 0.31137049 0.48647013 0
5.4790006 0.3021386 0.48645389 0
5.4780002 0.29291031 0.48643765 0
5.4770002 0.28368562 0.48642141 0
5.4760003 0.27446455 0.48640519 0
5.4740005 0.26518577 0.48637271 0
5.4730005 0.25597373 0.4863565 0
5.4720001 0.24676529 0.48634025 0
5.4710002 0.23756045 0.48632401 0
5.4700003 0.22835922 0.4863078 0
5.4680004 0.21910933 0.48627532 0
5.4670005 0.2099171 0.4862591 0
5.4660006 0.20072851 0.48624286 0
5.4650002 0.19154349 0.48622662 0
5.4640002 0.18236212 0.48621038 0
5.4620004 0.17314105 0.48617792 0
5.4610004 0.16396868 0.48616168 0
5.4600005 0.15479994 0.48614544 0
5.4590001 0.14563477 0.48612919 0
5.4580002 0.13647324 0.48611295 0
5.4580002 0.08173126 0.48611295 0
5.4520001 0.07246691 0.48601556 0
5.4490004 0.063289136 0.48596686 0
5.4470005 0.054142024 0.48593441 0
5.4470005 0.045038205 0.48593441 0
5.4490004 0.035966847 0.48596686 0
5.4530005 0.026917148 0.4860318 0
5.4590001 0.01787826 0.48612919 0
5.4940004 0.39505279 0.47750881 0
5.4900002 0.38552505 0.47745109 0
5.4890003 0.37626067 0.47743666 0
5.4880004 0.36699992 0.47742224 0
5.4870005 0.35774279 0.47740781 0
5.4850001 0.34841168 0.47737893 0
5.4840002 0.33916354 0.47736451 0
5.4830003 0.32991904 0.47735006 0
5.4820004 0.32067814 0.47733563 0
5.4810004 0.31144083 0.47732121 0
5.4790006 0.3021386 0.47729236 0
5.4780002 0.29291031 0.47727793 0
5.4770002 0.28368562 0.47726348 0
5.4760003 0.27446455 0.47724906 0
5.4750004 0.26524711 0.47723463 0
5.4730005 0.25597373 0.47720575 0
5.4720001 0.24676529 0.47719133 0
5.4710002 0.23756045 0.4771769 0
5.4700003 0.22835922 0.47716248 0
5.4690003 0.2191616 0.47714806 0
5.4680004 0.20996761 0.47713363 0
5.4660006 0.20072851 0.47710475 0
5.4650002 0.19154349 0.47709033 0
5.4640002 0.18236212 0.47707587 0
5.4630003 0.17318435 0.47706145 0
5.4620004 0.16401018 0.47704703 0
5.4600005 0.15479994 0.47701818 0
5.4590001 0.14563477 0.47700375 0
5.4580002 0.13647324 0.4769893 0
5.4580002 0.08173126 0.4769893 0
5.4520001 0.07246691 0.47690272 0
5.4490004 0.063289136 0.47685945 0
5.4470005 0.054142024 0.47683057 0
5.4470005 0.045038205 0.47683057 0
5.4490004 0.035966847 0.47685945 0
5.4530005 0.026917148 0.47691715 0
5.4590001 0.01787826 0.47700375 0
5.5000005 0.40477169 0.46839598 0
5.4940004 0.39505279 0.46832019 0
5.4900002 0.38552505 0.46826971 0
5.4890003 0.37626067 0.46825707 0
5.4890003 0.36708108 0.46825707 0
5.4890003 0.35790154 0.46825707 0
5.4880004 0.34864438 0.46824443 0
5.4860005 0.33931509 0.46821919 0
5.4850001 0.33006695 0.46820658 0
5.4840002 0.32082242 0.46819395 0
5.4830003 0.31158152 0.46818131 0
5.4820004 0.30234423 0.46816868 0
5.4800005 0.29304382 0.46814343 0
5.4790006 0.28381553 0.4681308 0
5.4780002 0.27459082 0.46811819 0
5.4770002 0.26536977 0.46810555 0
5.4760003 0.2561523 0.46809292 0
5.4740005 0.24688074 0.46806768 0
5.4730005 0.2376723 0.46805504 0
5.4720001 0.22846746 0.46804243 0
5.4710002 0.21926624 0.4680298 0
5.4700003 0.21006861 0.46801716 0
5.4680004 0.20082591 0.46799192 0
5.4670005 0.19163729 0.46797928 0
5.4660006 0.18245232 0.46796668 0
5.4650002 0.17327091 0.46795404 0
5.4640002 0.16409314 0.4679414 0
5.4630003 0.15491897 0.46792877 0
5.4610004 0.14571054 0.46790352 0
5.4600005 0.1365454 0.46789092 0
5.4580002 0.08173126 0.46786565 0
5.4520001 0.07246691 0.46778989 0
5.4490004 0.063289136 0.46775201 0
5.4470005 0.054142024 0.46772677 0
5.4470005 0.045038205 0.46772677 0
5.4490004 0.035966847 0.46775201 0
5.4530005 0.026917148 0.46780252 0
5.4590001 0.01787826 0.46787828 0
5.5000005 0.40477169 0.45919654 0
5.4940004 0.39505279 0.4591316 0
5.4900002 0.38552505 0.45908833 0
5.4890003 0.37626067 0.45907748 0
5.4890003 0.36708108 0.45907748 0
5.4910002 0.35806024 0.45909914 0
5.4920001 0.34895459 0.45910996 0
5.4900002 0.33961809 0.45908833 0
5.4890003 0.33036277 0.45907748 0
5.4880004 0.32111105 0.45906669 0
5.4870005 0.31186295 0.45905584 0
5.4860005 0.30261841 0.45904502 0
5.4840002 0.29331073 0.45902339 0
5.4830003 0.28407526 0.45901257 0
5.4820004 0.27484336 0.45900172 0
5.4810004 0.26561511 0.4589909 0
5.4800005 0.25639042 0.45898008 0
5.4790006 0.24716935 0.45896927 0
5.4770002 0.23789597 0.45894763 0
5.4760003 0.22868389 0.45893681 0
5.4750004 0.21947548 0.45892596 0
5.4740005 0.21027064 0.45891514 0
5.4730005 0.20106941 0.45890433 0
5.4710002 0.1918249 0.45888269 0
5.4700003 0.1826327 0.45887187 0
5.4690003 0.17344409 0.45886105 0
5.4680004 0.16425911 0.4588502 0
5.4670005 0.15507771 0.45883939 0
5.4650002 0.14586204 0.45881775 0
5.4580002 0.08173126 0.45874199 0
5.4520001 0.07246691 0.45867705 0
5.4490004 0.063289136 0.45864457 0
5.4470005 0.054142024 0.45862293 0
5.4470005 0.045038205 0.45862293 0
5.4490004 0.035966847 0.45864457 0
5.4530005 0.026917148 0.45868787 0
5.4590001 0.01787826 0.45875281 0
5.5000005 0.40477169 0.44999713 0
5.4940004 0.39505279 0.44994301 0
5.4900002 0.38552505 0.44990695 0
5.4890003 0.37626067 0.44989792 0
5.4890003 0.36708108 0.44989792 0
5.4910002 0.35806024 0.44991595 0
5.4950004 0.34918731 0.44995204 0
5.4970002 0.34014842 0.44997007 0
5.4960003 0.33088046 0.44996104 0
5.4950004 0.32161614 0.44995204 0
5.4940004 0.31235537 0.44994301 0
5.4920001 0.30302966 0.44992498 0
5.4910002 0.29377794 0.44991595 0
5.4900002 0.28452981 0.44990695 0
5.4890003 0.2752853 0.44989792 0
5.4880004 0.26604438 0.44988889 0
5.4860005 0.25674757 0.44987085 0
5.4850001 0.24751565 0.44986182 0
5.4840002 0.23828739 0.44985282 0
5.4830003 0.22906271 0.44984379 0
5.4820004 0.21984163 0.44983479 0
5.4800005 0.21057367 0.44981673 0
5.4790006 0.20136164 0.44980773 0
5.4780002 0.19215317 0.4497987 0
5.4770002 0.18294835 0.44978967 0
5.4760003 0.17374712 0.44978067 0
5.4750004 0.16454951 0.44977164 0
5.4730005 0.15531583 0.44975361 0
5.4580002 0.08173126 0.44961834 0
5.4520001 0.07246691 0.44956422 0
5.4490004 0.063289136 0.44953716 0
5.4470005 0.054142024 0.44951913 0
5.4470005 0.045038205 0.44951913 0
5.4490004 0.035966847 0.44953716 0
5.4530005 0.026917148 0.44957322 0
5.4000001 -0.10913329 0.44909522 0
5.3990002 -0.1181379 0.44908619 0
5.5000005 0.40477169 0.44079769 0
5.4940004 0.39505279 0.44075441 0
5.4900002 0.38552505 0.44072556 0
5.4890003 0.37626067 0.44071832 0
5.4890003 0.36708108 0.44071832 0
5.4910002 0.35806024 0.44073278 0
5.4950004 0.34918731 0.44076163 0
5.5010004 0.34045151 0.44080493 0
5.5070004 0.33169398 0.4408482 0
5.5060005 0.32240981 0.44084099 0
5.5050001 0.31312919 0.44083378 0
5.4520001 0.07246691 0.44045138 0
5.4490004 0.063289136 0.44042972 0
5.4470005 0.054142024 0.44041529 0
5.4470005 0.045038205 0.44041529 0
5.4490004 0.035966847 0.44042972 0
5.4530005 0.026917148 0.4404586 0
5.4020004 -0.10013589 0.4400906 0
5.4000001 -0.10913329 0.44007617 0
5.3990002 -0.1181379 0.44006896 0
5.5000005 0.40477169 0.43159828 0
5.4940004 0.39505279 0.43156582 0
5.4900002 0.38552505 0.43154415 0
5.4890003 0.37626067 0.43153876 0
5.4890003 0.36708108 0.43153876 0
5.4910002 0.35806024 0.43154958 0
5.4950004 0.34918731 0.43157122 0
5.5010004 0.34045151 0.4316037 0
5.5100002 0.33191586 0.4316524 0
5.4520001 0.07246691 0.43133852 0
5.4490004 0.063289136 0.43132231 0
5.4470005 0.054142024 0.43131149 0
5.4470005 0.045038205 0.43131149 0
5.4490004 0.035966847 0.43132231 0
5.4530005 0.026917148 0.43134394 0
5.4020004 -0.10013589 0.43106797 0
5.4000001 -0.10913329 0.43105713 0
5.3990002 -0.1181379 0.43105173 0
5.3980002 -0.1271389 0.43104631 0
5.5000005 0.40477169 0.42239887 0
5.4940004 0.39505279 0.4223772 0
5.4900002 0.38552505 0.42236277 0
5.4890003 0.37626067 0.42235917 0
5.4890003 0.36708108 0.42235917 0
5.4910002 0.35806024 0.42236638 0
5.4950004 0.34918731 0.42238081 0
5.5010004 0.34045151 0.42240247 0
5.5100002 0.33191586 0.42243493 0
5.4250002 0.080897897 0.42212829 0
5.4240003 0.07181032 0.42212468 0
5.4230003 0.062726349 0.42212108 0
5.4210005 0.053626131 0.42211387 0
5.4200006 0.044551175 0.42211026 0
5.4190001 0.035479818 0.42210665 0
5.4040003 -0.082105026 0.42205253 0
5.4030004 -0.091122262 0.42204893 0
5.4020004 -0.10013589 0.42204532 0
5.4000001 -0.10913329 0.42203811 0
5.3990002 -0.1181379 0.4220345 0
5.3980002 -0.1271389 0.42203087 0
5.5000005 0.40477169 0.41319942 0
5.4940004 0.39505279 0.41318861 0
5.4900002 0.38552505 0.41318139 0
5.4890003 0.37626067 0.41317961 0
5.4890003 0.36708108 0.41317961 0
5.4910002 0.35806024 0.41318321 0
5.4950004 0.34918731 0.41319042 0
5.5010004 0.34045151 0.41320124 0
5.5100002 0.33191586 0.41321748 0
5.4420004 0.20865443 0.41309482 0
5.4400005 0.19946223 0.41309121 0
5.4390001 0.19032413 0.41308939 0
5.4240003 0.07181032 0.41306233 0
5.4230003 0.062726349 0.41306055 0
5.4210005 0.053626131 0.41305694 0
5.4200006 0.044551175 0.41305512 0
5.4050002 -0.073084176 0.41302806 0
5.4040003 -0.082105026 0.41302627 0
5.4030004 -0.091122262 0.41302446 0
5.4020004 -0.10013589 0.41302267 0
5.4000001 -0.10913329 0.41301906 0
5.3990002 -0.1181379 0.41301724 0
5.3980002 -0.1271389 0.41301546 0
5.5000005 0.40477169 0.40400001 0
5.4940004 0.39505279 0.40400001 0
5.4900002 0.38552505 0.40400001 0
5.4890003 0.37626067 0.40400001 0
5.4890003 0.36708108 0.40400001 0
5.4910002 0.35806024 0.40400001 0
5.4950004 0.34918731 0.40400001 0
5.5010004 0.34045151 0.40400001 0
5.5100002 0.33191586 0.40400001 0
5.4420004 0.20865443 0.40400001 0
5.4400005 0.19946223 0.40400001 0
5.4390001 0.19032413 0.40400001 0
5.4060001 -0.064059727 0.40400001 0
5.4050002 -0.073084176 0.40400001 0
5.4040003 -0.082105026 0.40400001 0
5.4030004 -0.091122262 0.40400001 0
5.4020004 -0.10013589 0.40400001 0
5.4000001 -0.10913329 0.40400001 0
5.3990002 -0.1181379 0.40400001 0
5.3980002 -0.1271389 0.40400001 0
5.5000005 0.40477169 0.3948006 0
5.4940004 0.39505279 0.39481142 0
5.4900002 0.38552505 0.39481863 0
5.4890003 0.37626067 0.39482042 0
5.4890003 0.36708108 0.39482042 0
5.4910002 0.35806024 0.39481682 0
5.4950004 0.34918731 0.3948096 0
5.5010004 0.34045151 0.39479879 0
5.5100002 0.33191586 0.39478254 0
5.4420004 0.20865443 0.39490521 0
5.4400005 0.19946223 0.39490882 0
5.4390001 0.19032413 0.39491063 0
5.4050002 -0.073084176 0.39497197 0
5.4040003 -0.082105026 0.39497375 0
5.4030004 -0.091122262 0.39497557 0
5.4020004 -0.10013589 0.39497736 0
5.4000001 -0.10913329 0.39498097 0
5.3990002 -0.1181379 0.39498278 0
5.3980002 -0.1271389 0.39498457 0
5.5000005 0.40477169 0.38560116 0
5.4940004 0.39505279 0.38562283 0
5.4900002 0.38552505 0.38563725 0
5.4890003 0.37626067 0.38564086 0
5.4890003 0.36708108 0.38564086 0
5.4910002 0.35806024 0.38563365 0
5.4950004 0.34918731 0.38561922 0
5.5010004 0.34045151 0.38559756 0
5.4660006 0.21900469 0.38572383 0
5.4620004 0.20966455 0.38573825 0
5.4610004 0.20048498 0.38574186 0
5.4630003 0.19144969 0.38573465 0
5.4260001 -0.08226376 0.38586813 0
5.4230003 -0.091302648 0.38587895 0
5.4020004 -0.10013589 0.38595471 0
5.4000001 -0.10913329 0.38596192 0
5.3990002 -0.1181379 0.38596553 0
5.5000005 0.40477169 0.37640175 0
5.4940004 0.39505279 0.37643421 0
5.4900002 0.38552505 0.37645587 0
5.4890003 0.37626067 0.37646127 0
5.4890003 0.36708108 0.37646127 0
5.4910002 0.35806024 0.37645045 0
5.4950004 0.34918731 0.37642881 0
5.5010004 0.34045151 0.37639633 0
5.4660006 0.21900469 0.37658572 0
5.4620004 0.20966455 0.37660739 0
5.4610004 0.20048498 0.37661278 0
5.4630003 0.19144969 0.37660196 0
5.4260001 -0.08226376 0.37680221 0
5.4230003 -0.091302648 0.37681842 0
5.4020004 -0.10013589 0.37693205 0
5.4000001 -0.10913329 0.3769429 0
5.3990002 -0.1181379 0.3769483 0
5.5000005 0.40477169 0.36720234 0
5.4940004 0.39505279 0.36724561 0
5.4900002 0.38552505 0.36727446 0
5.4890003 0.37626067 0.36728171 0
5.4890003 0.36708108 0.36728171 0
5.4910002 0.35806024 0.36726725 0
5.4950004 0.34918731 0.3672384 0
5.5010004 0.34045151 0.3671951 0
5.4660006 0.21900469 0.36744764 0
5.4620004 0.20966455 0.36747649 0
5.4610004 0.20048498 0.36748374 0
5.4630003 0.19144969 0.36746928 0
5.4260001 -0.08226376 0.36773625 0
5.4230003 -0.091302648 0.36775789 0
5.4020004 -0.10013589 0.36790943 0
5.4000001 -0.10913329 0.36792386 0
5.5000005 0.40477169 0.3580029 0
5.4940004 0.39505279 0.35805702 0
5.4900002 0.38552505 0.35809308 0
5.4890003 0.37626067 0.35810211 0
5.4890003 0.36708108 0.35810211 0
5.4910002 0.35806024 0.35808408 0
5.4950004 0.34918731 0.35804799 0
5.5010004 0.34045151 0.3579939 0
5.4660006 0.21900469 0.35830957 0
5.4620004 0.20966455 0.35834563 0
5.4610004 0.20048498 0.35835466 0
5.4630003 0.19144969 0.3583366 0
5.4230003 -0.091302648 0.35869735 0
5.4020004 -0.10013589 0.35888678 0
5.4000001 -0.10913329 0.35890481 0
5.5000005 0.40477169 0.34880349 0
5.4940004 0.39505279 0.34886843 0
5.4900002 0.38552505 0.3489117 0
5.4890003 0.37626067 0.34892255 0
5.4890003 0.36708108 0.34892255 0
5.4910002 0.35806024 0.34890088 0
5.4950004 0.34918731 0.34885758 0
5.5010004 0.34045151 0.34879267 0
5.4660006 0.21900469 0.34917146 0
5.4620004 0.20966455 0.34921476 0
5.4610004 0.20048498 0.34922558 0
5.4630003 0.19144969 0.34920391 0
5.4690003 0.18258759 0.34913898 0
5.4230003 -0.091302648 0.34963685 0
5.4230003 -0.10036317 0.34963685 0
5.4260001 -0.10946158 0.34960437 0
5.5000005 0.40477169 0.33960405 0
5.4940004 0.39505279 0.33967984 0
5.4900002 0.38552505 0.33973032 0
5.4890003 0.37626067 0.33974296 0
5.4890003 0.36708108 0.33974296 0
5.4910002 0.35806024 0.33971769 0
5.4950004 0.34918731 0.3396672 0
5.5010004 0.34045151 0.33959144 0
5.4660006 0.21900469 0.34003335 0
5.4620004 0.20966455 0.34008387 0
5.4610004 0.20048498 0.3400965 0
5.4630003 0.19144969 0.34007126 0
5.4690003 0.18258759 0.3399955 0
5.4230003 -0.091302648 0.34057632 0
5.4230003 -0.10036317 0.34057632 0
5.4260001 -0.10946158 0.34053844 0
5.5000005 0.40477169 0.33040464 0
5.4940004 0.39505279 0.33049121 0
5.4900002 0.38552505 0.33054894 0
5.4890003 0.37626067 0.33056337 0
5.4890003 0.36708108 0.33056337 0
5.4910002 0.35806024 0.33053452 0
5.4950004 0.34918731 0.33047679 0
5.5010004 0.34045151 0.33039021 0
5.4660006 0.21900469 0.33089527 0
5.4620004 0.20966455 0.330953 0
5.4610004 0.20048498 0.33096743 0
5.4630003 0.19144969 0.33093858 0
5.4690003 0.18258759 0.33085197 0
5.4230003 -0.091302648 0.33151579 0
5.4230003 -0.10036317 0.33151579 0
5.4260001 -0.10946158 0.33147249 0
5.5000005 0.40477169 0.3212052 0
5.4940004 0.39505279 0.32130262 0
5.4900002 0.38552505 0.32136756 0
5.4890003 0.37626067 0.32138377 0
5.4890003 0.36708108 0.32138377 0
5.4910002 0.35806024 0.32135132 0
5.4950004 0.34918731 0.32128638 0
5.5010004 0.34045151 0.32118899 0
5.4660006 0.21900469 0.32175717 0
5.4620004 0.20966455 0.32182211 0
5.4610004 0.20048498 0.32183835 0
5.4630003 0.19144969 0.32180589 0
5.4690003 0.18258759 0.32170847 0
5.4230003 -0.091302648 0.32245526 0
5.4230003 -0.10036317 0.32245526 0
5.5000005 0.40477169 0.31200579 0
5.4940004 0.39505279 0.31211403 0
5.4900002 0.38552505 0.31218618 0
5.4890003 0.37626067 0.31220421 0
5.4890003 0.36708108 0.31220421 0
5.4910002 0.35806024 0.31216815 0
5.4950004 0.34918731 0.31209597 0
5.5010004 0.34045151 0.31198776 0
5.4660006 0.21900469 0.31261909 0
5.4620004 0.20966455 0.31269124 0
5.4610004 0.20048498 0.31270927 0
5.4630003 0.19144969 0.31267321 0
5.4690003 0.18258759 0.31256497 0
5.4230003 -0.091302648 0.31339473 0
5.4230003 -0.10036317 0.31339473 0
5.5000005 0.40477169 0.30280638 0
5.4940004 0.39505279 0.30292541 0
5.4900002 0.38552505 0.3030048 0
5.4890003 0.37626067 0.30302462 0
5.4890003 0.36708108 0.30302462 0
5.4910002 0.35806024 0.30298495 0
5.4950004 0.34918731 0.30290559 0
5.5010004 0.34045151 0.30278653 0
5.4660006 0.21900469 0.30348098 0
5.4620004 0.20966455 0.30356038 0
5.4610004 0.20048498 0.30358019 0
5.4630003 0.19144969 0.30354053 0
5.4690003 0.18258759 0.30342147 0
5.4230003 -0.091302648 0.30433419 0
5.4230003 -0.10036317 0.30433419 0
5.5000005 0.40477169 0.29360694 0
5.4940004 0.39505279 0.29373682 0
5.4900002 0.38552505 0.29382342 0
5.4890003 0.37626067 0.29384506 0
5.4890003 0.36708108 0.29384506 0
5.4910002 0.35806024 0.29380175 0
5.4950004 0.34918731 0.29371518 0
5.5010004 0.34045151 0.2935853 0
5.4660006 0.21900469 0.29434291 0
5.4620004 0.20966455 0.29442948 0
5.4610004 0.20048498 0.29445112 0
5.4630003 0.19144969 0.29440784 0
5.4690003 0.18258759 0.29427797 0
5.4230003 -0.091302648 0.29527366 0
5.4230003 -0.10036317 0.29527366 0
5.5000005 0.40477169 0.28440753 0
5.4940004 0.39505279 0.28454822 0
5.4900002 0.38552505 0.28464204 0
5.4890003 0.37626067 0.28466547 0
5.4890003 0.36708108 0.28466547 0
5.4910002 0.35806024 0.28461859 0
5.4950004 0.34918731 0.2845248 0
5.5010004 0.34045151 0.28438407 0
5.4660006 0.21900469 0.2852048 0
5.4620004 0.20966455 0.28529862 0
5.4610004 0.20048498 0.28532207 0
5.4630003 0.19144969 0.28527516 0
5.4690003 0.18258759 0.28513446 0
5.4230003 -0.091302648 0.28621313 0
5.4230003 -0.10036317 0.28621313 0
5.5000005 0.40477169 0.27520812 0
5.4940004 0.39505279 0.27535963 0
5.4900002 0.38552505 0.27546066 0
5.4890003 0.37626067 0.27548587 0
5.4890003 0.36708108 0.27548587 0
5.4910002 0.35806024 0.27543539 0
5.4950004 0.34918731 0.27533436 0
5.5010004 0.34045151 0.27518284 0
5.4660006 0.21900469 0.27606672 0
5.4620004 0.20966455 0.27616775 0
5.4610004 0.20048498 0.27619296 0
5.4630003 0.19144969 0.27614248 0
5.4690003 0.18258759 0.27599096 0
5.4230003 -0.091302648 0.2771526 0
5.4230003 -0.10036317 0.2771526 0
5.5000005 0.40477169 0.26600868 0
5.4940004 0.39505279 0.26617104 0
5.4900002 0.38552505 0.26627925 0
5.4890003 0.37626067 0.26630631 0
5.4890003 0.36708108 0.26630631 0
5.4910002 0.35806024 0.26625222 0
5.4950004 0.34918731 0.26614398 0
5.5010004 0.34045151 0.26598161 0
5.4660006 0.21900469 0.26692861 0
5.4620004 0.20966455 0.26703686 0
5.4610004 0.20048498 0.26706392 0
5.4630003 0.19144969 0.26700979 0
5.4690003 0.18258759 0.26684746 0
5.4230003 -0.091302648 0.2680921 0
5.4230003 -0.10036317 0.2680921 0
5.5000005 0.40477169 0.25680926 0
5.4940004 0.39505279 0.25698245 0
5.4900002 0.38552505 0.25709787 0
5.4890003 0.37626067 0.25712675 0
5.4890003 0.36708108 0.25712675 0
5.4910002 0.35806024 0.25706902 0
5.4950004 0.34918731 0.25695357 0
5.5010004 0.34045151 0.25678039 0
5.4660006 0.21900469 0.25779051 0
5.4620004 0.20966455 0.25790596 0
5.4610004 0.20048498 0.25793484 0
5.4630003 0.19144969 0.25787711 0
5.4690003 0.18258759 0.25770396 0
5.4230003 -0.091302648 0.25903153 0
5.4230003 -0.10036317 0.25903153 0
5.5000005 0.40477169 0.24760984 0
5.4940004 0.39505279 0.24779382 0
5.4900002 0.38552505 0.2479165 0
5.4890003 0.37626067 0.24794716 0
5.4890003 0.36708108 0.24794716 0
5.4910002 0.35806024 0.24788582 0
5.4950004 0.34918731 0.24776316 0
5.5010004 0.34045151 0.24757917 0
5.4660006 0.21900469 0.24865243 0
5.4620004 0.20966455 0.24877511 0
5.4610004 0.20048498 0.24880576 0
5.4630003 0.19144969 0.24874443 0
5.4690003 0.18258759 0.24856044 0
5.4230003 -0.091302648 0.24997102 0
5.4230003 -0.10036317 0.24997102 0
5.5000005 0.40477169 0.23841041 0
5.4940004 0.39505279 0.23860522 0
5.4900002 0.38552505 0.23873511 0
5.4890003 0.37626067 0.23876756 0
5.4890003 0.36708108 0.23876756 0
5.4910002 0.35806024 0.23870264 0
5.4950004 0.34918731 0.23857276 0
5.5010004 0.34045151 0.23837794 0
5.4660006 0.21900469 0.23951434 0
5.4620004 0.20966455 0.23964423 0
5.4610004 0.20048498 0.23967668 0
5.4630003 0.19144969 0.23961176 0
5.4690003 0.18258759 0.23941694 0
5.4230003 -0.091302648 0.2409105 0
5.4230003 -0.10036317 0.2409105 0
5.5000005 0.40477169 0.22921099 0
5.4940004 0.39505279 0.22941664 0
5.4900002 0.38552505 0.22955371 0
5.4890003 0.37626067 0.229588 0
5.4890003 0.36708108 0.229588 0
5.4910002 0.35806024 0.22951944 0
5.4950004 0.34918731 0.22938235 0
5.5010004 0.34045151 0.22917672 0
5.4660006 0.21900469 0.23037626 0
5.4620004 0.20966455 0.23051333 0
5.4610004 0.20048498 0.23054762 0
5.4630003 0.19144969 0.23047908 0
5.4690003 0.18258759 0.23027344 0
5.4230003 -0.091302648 0.23184997 0
5.4230003 -0.10036317 0.23184997 0
5.5000005 0.40477169 0.22001156 0
5.4940004 0.39505279 0.22022803 0
5.4900002 0.38552505 0.22037233 0
5.4890003 0.37626067 0.22040841 0
5.4890003 0.36708108 0.22040841 0
5.4910002 0.35806024 0.22033627 0
5.4950004 0.34918731 0.22019194 0
5.5010004 0.34045151 0.2199755 0
5.4660006 0.21900469 0.22123817 0
5.4620004 0.20966455 0.22138247 0
5.4610004 0.20048498 0.22141854 0
5.4630003 0.19144969 0.22134639 0
5.4690003 0.18258759 0.22112994 0
5.4230003 -0.091302648 0.22278944 0
5.4230003 -0.10036317 0.22278944 0
5.5000005 0.40477169 0.21081215 0
5.4940004 0.39505279 0.21103942 0
5.4900002 0.38552505 0.21119097 0
5.4890003 0.37626067 0.21122883 0
5.4890003 0.36708108 0.21122883 0
5.4910002 0.35806024 0.21115308 0
5.4950004 0.34918731 0.21100156 0
5.5010004 0.34045151 0.21077426 0
5.4660006 0.21900469 0.21210006 0
5.4620004 0.20966455 0.2122516 0
5.4610004 0.20048498 0.21228947 0
5.4630003 0.19144969 0.21221371 0
5.4690003 0.18258759 0.21198644 0
5.4230003 -0.091302648 0.21372892 0
5.4230003 -0.10036317 0.21372892 0
5.5000005 0.40477169 0.20161271 0
5.4940004 0.39505279 0.20185083 0
5.4900002 0.38552505 0.20200957 0
5.4890003 0.37626067 0.20204924 0
5.4890003 0.36708108 0.20204924 0
5.4910002 0.35806024 0.20196989 0
5.4950004 0.34918731 0.20181115 0
5.5010004 0.34045151 0.20157304 0
5.4660006 0.21900469 0.20296197 0
5.4620004 0.20966455 0.20312071 0
5.4610004 0.20048498 0.20316039 0
5.4630003 0.19144969 0.20308104 0
5.4690003 0.18258759 0.20284292 0
5.4230003 -0.091302648 0.20466839 0
5.4230003 -0.10036317 0.20466839 0
5.5000005 0.40477169 0.1924133 0
5.4940004 0.39505279 0.19266222 0
5.4900002 0.38552505 0.19282818 0
5.4890003 0.37626067 0.19286968 0
5.4890003 0.36708108 0.19286968 0
5.4910002 0.35806024 0.19278671 0
5.4950004 0.34918731 0.19262075 0
5.5010004 0.34045151 0.19237182 0
5.4660006 0.21900469 0.19382387 0
5.4620004 0.20966455 0.19398983 0
5.4610004 0.20048498 0.19403133 0
5.4630003 0.19144969 0.19394834 0
5.4690003 0.18258759 0.19369942 0
5.4230003 -0.091302648 0.19560786 0
5.4230003 -0.10036317 0.19560786 0
5.5000005 0.40477169 0.18321387 0
5.4940004 0.39505279 0.18347362 0
5.4900002 0.38552505 0.1836468 0
5.4890003 0.37626067 0.1836901 0
5.4890003 0.36708108 0.1836901 0
5.4910002 0.35806024 0.18360351 0
5.4950004 0.34918731 0.18343034 0
5.5010004 0.34045151 0.18317059 0
5.4660006 0.21900469 0.18468578 0
5.4620004 0.20966455 0.18485896 0
5.4610004 0.20048498 0.18490225 0
5.4630003 0.19144969 0.18481566 0
5.4690003 0.18258759 0.18455592 0
5.4230003 -0.091302648 0.18654732 0
5.4230003 -0.10036317 0.18654732 0
5.5000005 0.40477169 0.17401446 0
5.4940004 0.39505279 0.17428504 0
5.4900002 0.38552505 0.17446543 0
5.4890003 0.37626067 0.17451051 0
5.4890003 0.36708108 0.17451051 0
5.4910002 0.35806024 0.17442033 0
5.4950004 0.34918731 0.17423993 0
5.5010004 0.34045151 0.17396936 0
5.4660006 0.21900469 0.17554769 0
5.4620004 0.20966455 0.17572808 0
5.4610004 0.20048498 0.17577317 0
5.4630003 0.19144969 0.17568299 0
5.4690003 0.18258759 0.17541242 0
5.4230003 -0.091302648 0.17748679 0
5.4230003 -0.10036317 0.17748679 0
5.5000005 0.40477169 0.16481504 0
5.4940004 0.39505279 0.16509642 0
5.4900002 0.38552505 0.16528405 0
5.4890003 0.37626067 0.16533092 0
5.4890003 0.36708108 0.16533092 0
5.4910002 0.35806024 0.16523714 0
5.4950004 0.34918731 0.16504955 0
5.5010004 0.34045151 0.16476814 0
5.4660006 0.21900469 0.16640958 0
5.4620004 0.20966455 0.16659722 0
5.4610004 0.20048498 0.1666441 0
5.4630003 0.19144969 0.16655032 0
5.4690003 0.18258759 0.16626891 0
5.4230003 -0.091302648 0.16842626 0
5.4230003 -0.10036317 0.16842626 0
5.5000005 0.40477169 0.15561561 0
5.4940004 0.39505279 0.15590782 0
5.4900002 0.38552505 0.15610264 0
5.4890003 0.37626067 0.15615137 0
5.4890003 0.36708108 0.15615137 0
5.4910002 0.35806024 0.15605396 0
5.4950004 0.34918731 0.15585914 0
5.5010004 0.34045151 0.15556692 0
5.4660006 0.21900469 0.1572715 0
5.4620004 0.20966455 0.15746632 0
5.4610004 0.20048498 0.15751503 0
5.4630003 0.19144969 0.15741763 0
5.4690003 0.18258759 0.15712541 0
5.4230003 -0.091302648 0.15936574 0
5.4230003 -0.10036317 0.15936574 0
5.5000005 0.40477169 0.14641619 0
5.4940004 0.39505279 0.14671925 0
5.4900002 0.38552505 0.14692128 0
5.4890003 0.37626067 0.14697176 0
5.4890003 0.36708108 0.14697176 0
5.4910002 0.35806024 0.14687076 0
5.4950004 0.34918731 0.14666873 0
5.5010004 0.34045151 0.1463657 0
5.4660006 0.21900469 0.14813343 0
5.4620004 0.20966455 0.14833546 0
5.4610004 0.20048498 0.14838594 0
5.4630003 0.19144969 0.14828494 0
5.4690003 0.18258759 0.14798191 0
5.4230003 -0.091302648 0.15030521 0
5.4230003 -0.10036317 0.15030521 0
5.5000005 0.40477169 0.13721678 0
5.4940004 0.39505279 0.13753062 0
5.4900002 0.38552505 0.1377399 0
5.4890003 0.37626067 0.1377922 0
5.4890003 0.36708108 0.1377922 0
5.4910002 0.35806024 0.13768756 0
5.4950004 0.34918731 0.13747832 0
5.5010004 0.34045151 0.13716444 0
5.4660006 0.21900469 0.13899532 0
5.4620004 0.20966455 0.13920459 0
5.4610004 0.20048498 0.13925686 0
5.4630003 0.19144969 0.13915226 0
5.4690003 0.18258759 0.13883841 0
5.4230003 -0.091302648 0.14124468 0
5.4230003 -0.10036317 0.14124468 0
5.5000005 0.40477169 0.12801734 0
5.4940004 0.39505279 0.12834203 0
5.4900002 0.38552505 0.12855849 0
5.4890003 0.37626067 0.12861261 0
5.4890003 0.36708108 0.12861261 0
5.4910002 0.35806024 0.1285044 0
5.4950004 0.34918731 0.12828794 0
5.5010004 0.34045151 0.12796322 0
5.4660006 0.21900469 0.12985724 0
5.4620004 0.20966455 0.13007367 0
5.4610004 0.20048498 0.13012779 0
5.4630003 0.19144969 0.13001961 0
5.4690003 0.18258759 0.12969491 0
5.4230003 -0.091302648 0.13218415 0
5.4230003 -0.10036317 0.13218415 0
5.5000005 0.40477169 0.11881793 0
5.4940004 0.39505279 0.11915341 0
5.4900002 0.38552505 0.11937711 0
5.4890003 0.37626067 0.11943305 0
5.4890003 0.36708108 0.11943305 0
5.4910002 0.35806024 0.1193212 0
5.4950004 0.34918731 0.11909753 0
5.5010004 0.34045151 0.11876202 0
5.4660006 0.21900469 0.12071913 0
5.4620004 0.20966455 0.1209428 0
5.4610004 0.20048498 0.12099874 0
5.4630003 0.19144969 0.12088692 0
5.4690003 0.18258759 0.12055138 0
5.4230003 -0.091302648 0.12312362 0
5.4230003 -0.10036317 0.12312362 0
5.5000005 0.40477169 0.10961851 0
5.4940004 0.39505279 0.10996485 0
5.4900002 0.38552505 0.11019573 0
5.4890003 0.37626067 0.11025345 0
5.4890003 0.36708108 0.11025345 0
5.4910002 0.35806024 0.11013803 0
5.4950004 0.34918731 0.10990712 0
5.5010004 0.34045151 0.10956079 0
5.4660006 0.21900469 0.11158103 0
5.4620004 0.20966455 0.11181194 0
5.4610004 0.20048498 0.11186966 0
5.4630003 0.19144969 0.11175421 0
5.4690003 0.18258759 0.11140788 0
5.4230003 -0.091302648 0.11406308 0
5.4230003 -0.10036317 0.11406308 0
5.5000005 0.40477169 0.10041907 0
5.4940004 0.39505279 0.10077626 0
5.4900002 0.38552505 0.10101435 0
5.4890003 0.37626067 0.10107386 0
5.4890003 0.36708108 0.10107386 0
5.4910002 0.35806024 0.10095483 0
5.4950004 0.34918731 0.10071671 0
5.5010004 0.34045151 0.10035956 0
5.4660006 0.21900469 0.10244295 0
5.4620004 0.20966455 0.10268107 0
5.4610004 0.20048498 0.10274059 0
5.4630003 0.19144969 0.10262153 0
5.4690003 0.18258759 0.10226437 0
5.4230003 -0.091302648 0.10500258 0
5.4230003 -0.10036317 0.10500258 0
5.5000005 0.40477169 0.091219664 0
5.4940004 0.39505279 0.091587633 0
5.4900002 0.38552505 0.091832995 0
5.4890003 0.37626067 0.091894299 0
5.4890003 0.36708108 0.091894299 0
5.4910002 0.35806024 0.091771632 0
5.4950004 0.34918731 0.0915263 0
5.5010004 0.34045151 0.09115833 0
5.4660006 0.21900469 0.093304843 0
5.4620004 0.20966455 0.093550205 0
5.4610004 0.20048498 0.093611509 0
5.4630003 0.19144969 0.093488842 0
5.4690003 0.18258759 0.093120873 0
5.4230003 -0.091302648 0.09594202 0
5.4230003 -0.10036317 0.09594202 0
5.5000005 0.40477169 0.082020223 0
5.4940004 0.39505279 0.08239904 0
5.4900002 0.38552505 0.082651585 0
5.4890003 0.37626067 0.082714707 0
5.4890003 0.36708108 0.082714707 0
5.4910002 0.35806024 0.082588464 0
5.4950004 0.34918731 0.082335889 0
5.5010004 0.34045151 0.081957132 0
5.4660006 0.21900469 0.084166765 0
5.4620004 0.20966455 0.08441931 0
5.4610004 0.20048498 0.084482431 0
5.4630003 0.19144969 0.084356189 0
5.4690003 0.18258759 0.083977371 0
5.4230003 -0.091302648 0.086881518 0
5.4230003 -0.10036317 0.086881518 0
5.4970002 0.44128251 0.07301563 0
5.4960003 0.43199474 0.07308057 0
5.4940004 0.42261854 0.073210418 0
5.4930005 0.41333979 0.073275357 0
5.4920001 0.40406457 0.073340327 0
5.4910002 0.394793 0.073405266 0
