# .PCD v0.7 - Point Cloud Data file format
VERSION 0.7
FIELDS x y z intensity
SIZE 4 4 4 4
TYPE F F F F
COUNT 1 1 1 1
WIDTH 1505
HEIGHT 1
VIEWPOINT 0 0 0 1 0 0 0
POINTS 1505
DATA ascii
6.0000005 2.560142 1.9798069 0
6.0010004 2.5505042 1.9800884 0
6.0020003 2.540863 1.9803697 0
6.0030003 2.5312181 1.9806511 0
6.0040002 2.5215695 1.9809325 0
6.0050006 2.5119176 1.9812139 0
6.0060005 2.5022616 1.9814954 0
6.0070004 2.4926021 1.9817767 0
6.0080004 2.4829392 1.982058 0
6.0090003 2.4732723 1.9823394 0
6.0100002 2.4636023 1.9826208 0
6.0110002 2.4539285 1.9829023 0
6.0120006 2.4442511 1.9831836 0
6.0130005 2.4345701 1.9834651 0
6.0140004 2.4248853 1.9837464 0
6.0150003 2.4151971 1.9840279 0
6.0150003 2.4050689 1.9840279 0
6.0160003 2.395375 1.9843092 0
6.0170002 2.3856778 1.9845905 0
6.0180001 2.3759768 1.984872 0
6.0190005 2.3662727 1.9851534 0
6.0200005 2.3565643 1.9854348 0
6.0210004 2.3468525 1.9857162 0
6.0220003 2.3371372 1.9859976 0
6.0230002 2.3274183 1.986279 0
6.0240002 2.3176956 1.9865603 0
6.0250006 2.3079698 1.9868418 0
6.0260005 2.2982399 1.9871233 0
6.0270004 2.2885067 1.9874046 0
6.0280004 2.2787695 1.9876859 0
6.0290003 2.2690289 1.9879673 0
6.0300002 2.259285 1.9882487 0
6.0310001 2.249537 1.9885302 0
6.0320005 2.2397859 1.9888115 0
6.0330005 2.2300308 1.9890929 0
6.0340004 2.2202723 1.9893743 0
6.0350003 2.21051 1.9896557 0
6.0360003 2.2007442 1.9899371 0
6.0370002 2.1909747 1.9902184 0
6.0380006 2.1812019 1.9905 0
6.0390005 2.1714251 1.9907813 0
6.0400004 2.1616449 1.9910626 0
6.0410004 2.151861 1.9913441 0
6.0420003 2.1420734 1.9916254 0
6.0430002 2.1322825 1.9919069 0
6.0440001 2.1224875 1.9921882 0
6.0450006 2.1126895 1.9924697 0
6.0460005 2.1028876 1.9927511 0
6.0470004 2.0930822 1.9930325 0
6.0480003 2.0832729 1.9933138 0
6.0490003 2.0734603 1.9935952 0
6.0500002 2.0636439 1.9938766 0
6.0510006 2.0538239 1.9941581 0
6.0520005 2.0440004 1.9944394 0
6.0530005 2.0341733 1.9947208 0
6.0530005 2.0239763 1.9947208 0
6.0540004 2.0141437 1.9950022 0
6.0550003 2.0043075 1.9952836 0
6.0560002 1.994468 1.9955649 0
6.0570002 1.9846244 1.9958463 0
6.0580006 1.9747775 1.9961278 0
6.0590005 1.964927 1.9964092 0
6.0600004 1.9550729 1.9966905 0
6.0610003 1.9452149 1.996972 0
6.0700002 1.9381528 1.9995044 0
5.9420004 3.1429489 1.9534894 0
5.9430003 3.1335258 1.953769 0
5.9440002 3.124099 1.9540485 0
5.9450002 3.1146686 1.9543281 0
5.9460006 3.1052351 1.9546077 0
5.9470005 3.0957975 1.9548873 0
5.9480004 3.0863562 1.9551669 0
5.9490004 3.0769114 1.9554465 0
5.9490004 3.0669024 1.9554465 0
5.9500003 3.057452 1.955726 0
5.9510002 3.0479982 1.9560057 0
5.9520001 3.0385408 1.9562851 0
5.9530005 3.0290799 1.9565649 0
5.9540005 3.0196157 1.9568444 0
5.9550004 3.0101473 1.957124 0
5.9560003 3.0006754 1.9574037 0
5.9570003 2.9911997 1.9576832 0
5.9580002 2.9817209 1.9579628 0
5.9590006 2.9722385 1.9582424 0
5.9600005 2.9627521 1.958522 0
5.9610004 2.9532623 1.9588016 0
5.9620004 2.9437687 1.9590812 0
5.9630003 2.9342718 1.9593607 0
5.9640002 2.9247711 1.9596404 0
5.9650002 2.9152668 1.9599199 0
5.9660006 2.9057591 1.9601995 0
5.9670005 2.8962476 1.9604791 0
5.9670005 2.8862057 1.9604791 0
5.9680004 2.876689 1.9607587 0
5.9690003 2.8671682 1.9610384 0
5.9700003 2.8576443 1.9613179 0
5.9710002 2.8481164 1.9615974 0
5.9720001 2.8385851 1.9618771 0
5.9730005 2.8290505 1.9621567 0
5.9740005 2.8195117 1.9624362 0
5.9750004 2.8099694 1.9627159 0
5.9760003 2.8004239 1.9629954 0
5.9770002 2.7908742 1.963275 0
5.9780002 2.7813213 1.9635546 0
5.9790006 2.771765 1.9638342 0
5.9800005 2.7622046 1.9641138 0
5.9810004 2.752641 1.9643934 0
5.9820004 2.7430737 1.9646729 0
5.9830003 2.7335026 1.9649526 0
5.9840002 2.7239277 1.9652321 0
5.9850001 2.7143497 1.9655117 0
5.9860005 2.7047679 1.9657913 0
5.9870005 2.6951823 1.9660709 0
5.9880004 2.6855934 1.9663506 0
5.9880004 2.6755137 1.9663506 0
5.9890003 2.6659193 1.9666301 0
5.9900002 2.656321 1.9669096 0
5.9910002 2.6467195 1.9671893 0
5.9920006 2.6371145 1.967469 0
5.9930005 2.6275055 1.9677484 0
5.9940004 2.6178927 1.9680281 0
5.9950004 2.6082768 1.9683076 0
5.9960003 2.5986571 1.9685872 0
5.9970002 2.5890336 1.9688668 0
5.9980001 2.5794067 1.9691464 0
5.9990005 2.5697763 1.969426 0
6.0000005 2.560142 1.9697056 0
6.0010004 2.5505042 1.9699851 0
6.0020003 2.540863 1.9702648 0
6.0030003 2.5312181 1.9705443 0
6.0040002 2.5215695 1.9708239 0
6.0050006 2.5119176 1.9711037 0
6.0060005 2.5022616 1.9713831 0
6.0070004 2.4926021 1.9716628 0
6.0080004 2.4829392 1.9719423 0
6.0090003 2.4732723 1.9722219 0
6.0100002 2.4636023 1.9725015 0
6.0110002 2.4539285 1.9727811 0
6.0120006 2.4442511 1.9730607 0
6.0130005 2.4345701 1.9733403 0
6.0140004 2.4248853 1.9736198 0
6.0150003 2.4151971 1.9738994 0
6.0150003 2.4050689 1.9738994 0
6.0160003 2.395375 1.974179 0
6.0170002 2.3856778 1.9744586 0
6.0180001 2.3759768 1.9747381 0
6.0190005 2.3662727 1.9750179 0
6.0200005 2.3565643 1.9752973 0
6.0210004 2.3468525 1.975577 0
6.0220003 2.3371372 1.9758565 0
6.0230002 2.3274183 1.9761361 0
6.0240002 2.3176956 1.9764158 0
6.0250006 2.3079698 1.9766954 0
6.0260005 2.2982399 1.9769751 0
6.0270004 2.2885067 1.9772545 0
6.0280004 2.2787695 1.9775341 0
6.0290003 2.2690289 1.9778137 0
6.0300002 2.259285 1.9780933 0
6.0310001 2.249537 1.9783728 0
6.0320005 2.2397859 1.9786526 0
6.0330005 2.2300308 1.9789321 0
6.0340004 2.2202723 1.9792116 0
6.0350003 2.21051 1.9794912 0
6.0360003 2.2007442 1.9797708 0
6.0370002 2.1909747 1.9800503 0
6.0380006 2.1812019 1.9803301 0
6.0390005 2.1714251 1.9806097 0
6.0400004 2.1616449 1.9808892 0
6.0410004 2.151861 1.9811687 0
6.0420003 2.1420734 1.9814483 0
6.0430002 2.1322825 1.981728 0
6.0440001 2.1224875 1.9820075 0
6.0450006 2.1126895 1.9822873 0
6.0460005 2.1028876 1.9825668 0
6.0470004 2.0930822 1.9828463 0
6.0480003 2.0832729 1.9831259 0
6.0490003 2.0734603 1.9834055 0
6.0500002 2.0636439 1.983685 0
6.0510006 2.0538239 1.9839648 0
6.0520005 2.0440004 1.9842443 0
6.0530005 2.0341733 1.9845239 0
6.0530005 2.0239763 1.9845239 0
6.0540004 2.0141437 1.9848034 0
6.0550003 2.0043075 1.985083 0
6.0560002 1.994468 1.9853625 0
6.0570002 1.9846244 1.9856422 0
6.0580006 1.9747775 1.9859219 0
6.0590005 1.964927 1.9862015 0
6.0600004 1.9550729 1.9864811 0
6.0610003 1.9452149 1.9867605 0
6.0700002 1.9381528 1.9892769 0
5.9420004 3.1429489 1.9434927 0
5.9430003 3.1335258 1.9437704 0
5.9440002 3.124099 1.9440482 0
5.9450002 3.1146686 1.9443259 0
5.9460006 3.1052351 1.9446038 0
5.9470005 3.0957975 1.9448816 0
5.9480004 3.0863562 1.9451593 0
5.9490004 3.0769114 1.9454371 0
5.9490004 3.0669024 1.9454371 0
5.9500003 3.057452 1.9457148 0
5.9510002 3.0479982 1.9459927 0
5.9520001 3.0385408 1.9462705 0
5.9530005 3.0290799 1.9465483 0
5.9540005 3.0196157 1.9468261 0
5.9550004 3.0101473 1.9471039 0
5.9560003 3.0006754 1.9473816 0
5.9570003 2.9911997 1.9476594 0
5.9580002 2.9817209 1.9479371 0
5.9590006 2.9722385 1.948215 0
5.9600005 2.9627521 1.9484928 0
5.9610004 2.9532623 1.9487706 0
5.9620004 2.9437687 1.9490484 0
5.9630003 2.9342718 1.9493262 0
5.9640002 2.9247711 1.9496039 0
5.9650002 2.9152668 1.9498817 0
5.9660006 2.9057591 1.9501595 0
5.9670005 2.8962476 1.9504373 0
5.9670005 2.8862057 1.9504373 0
5.9680004 2.876689 1.9507151 0
5.9690003 2.8671682 1.9509928 0
5.9700003 2.8576443 1.9512707 0
5.9710002 2.8481164 1.9515485 0
5.9720001 2.8385851 1.9518262 0
5.9730005 2.8290505 1.9521041 0
5.9740005 2.8195117 1.9523818 0
5.9750004 2.8099694 1.9526596 0
5.9760003 2.8004239 1.9529374 0
5.9770002 2.7908742 1.9532151 0
5.9780002 2.7813213 1.9534929 0
5.9790006 2.771765 1.9537708 0
5.9800005 2.7622046 1.9540486 0
5.9810004 2.752641 1.9543264 0
5.9820004 2.7430737 1.9546041 0
5.9830003 2.7335026 1.9548819 0
5.9840002 2.7239277 1.9551597 0
5.9850001 2.7143497 1.9554374 0
5.9860005 2.7047679 1.9557153 0
5.9870005 2.6951823 1.9559931 0
5.9880004 2.6855934 1.9562708 0
5.9880004 2.6755137 1.9562708 0
5.9890003 2.6659193 1.9565487 0
5.9900002 2.656321 1.9568264 0
5.9910002 2.6467195 1.9571042 0
5.9920006 2.6371145 1.9573821 0
5.9930005 2.6275055 1.9576598 0
5.9940004 2.6178927 1.9579376 0
5.9950004 2.6082768 1.9582154 0
5.9960003 2.5986571 1.9584931 0
5.9970002 2.5890336 1.9587708 0
5.9980001 2.5794067 1.9590486 0
5.9990005 2.5697763 1.9593266 0
6.0000005 2.560142 1.9596044 0
6.0010004 2.5505042 1.9598821 0
6.0020003 2.540863 1.9601598 0
6.0030003 2.5312181 1.9604375 0
6.0040002 2.5215695 1.9607153 0
6.0050006 2.5119176 1.9609933 0
6.0060005 2.5022616 1.9612709 0
6.0070004 2.4926021 1.9615487 0
6.0080004 2.4829392 1.9618266 0
6.0090003 2.4732723 1.9621043 0
6.0100002 2.4636023 1.9623821 0
6.0110002 2.4539285 1.9626598 0
6.0120006 2.4442511 1.9629377 0
6.0130005 2.4345701 1.9632155 0
6.0140004 2.4248853 1.9634932 0
6.0150003 2.4151971 1.963771 0
6.0150003 2.4050689 1.963771 0
6.0160003 2.395375 1.9640487 0
6.0170002 2.3856778 1.9643266 0
6.0180001 2.3759768 1.9646044 0
6.0190005 2.3662727 1.9648823 0
6.0200005 2.3565643 1.96516 0
6.0210004 2.3468525 1.9654378 0
6.0220003 2.3371372 1.9657155 0
6.0230002 2.3274183 1.9659933 0
6.0240002 2.3176956 1.966271 0
6.0250006 2.3079698 1.9665489 0
6.0260005 2.2982399 1.9668267 0
6.0270004 2.2885067 1.9671046 0
6.0280004 2.2787695 1.9673823 0
6.0290003 2.2690289 1.9676601 0
6.0300002 2.259285 1.9679378 0
6.0310001 2.249537 1.9682156 0
6.0320005 2.2397859 1.9684935 0
6.0330005 2.2300308 1.9687712 0
6.0340004 2.2202723 1.969049 0
6.0350003 2.21051 1.9693267 0
6.0360003 2.2007442 1.9696046 0
6.0370002 2.1909747 1.9698824 0
6.0380006 2.1812019 1.9701602 0
6.0390005 2.1714251 1.970438 0
6.0400004 2.1616449 1.9707158 0
6.0410004 2.151861 1.9709935 0
6.0420003 2.1420734 1.9712713 0
6.0430002 2.1322825 1.971549 0
6.0440001 2.1224875 1.9718268 0
6.0450006 2.1126895 1.9721047 0
6.0460005 2.1028876 1.9723825 0
6.0470004 2.0930822 1.9726603 0
6.0480003 2.0832729 1.9729381 0
6.0490003 2.0734603 1.9732158 0
6.0500002 2.0636439 1.9734936 0
6.0510006 2.0538239 1.9737715 0
6.0520005 2.0440004 1.9740492 0
6.0530005 2.0341733 1.974327 0
6.0530005 2.0239763 1.974327 0
6.0540004 2.0141437 1.9746047 0
6.0550003 2.0043075 1.9748826 0
6.0560002 1.994468 1.9751604 0
6.0570002 1.9846244 1.9754381 0
6.0580006 1.9747775 1.975716 0
6.0590005 1.964927 1.9759938 0
6.0600004 1.9550729 1.9762715 0
6.0610003 1.9452149 1.9765493 0
6.0700002 1.9381528 1.9790492 0
5.9420004 3.1429489 1.9334959 0
5.9430003 3.1335258 1.933772 0
5.9440002 3.124099 1.9340478 0
5.9450002 3.1146686 1.9343238 0
5.9460006 3.1052351 1.9346 0
5.9470005 3.0957975 1.9348758 0
5.9480004 3.0863562 1.9351518 0
5.9490004 3.0769114 1.9354279 0
5.9490004 3.0669024 1.9354279 0
5.9500003 3.057452 1.9357038 0
5.9510002 3.0479982 1.9359798 0
5.9520001 3.0385408 1.9362557 0
5.9530005 3.0290799 1.9365318 0
5.9540005 3.0196157 1.9368079 0
5.9550004 3.0101473 1.9370837 0
5.9560003 3.0006754 1.9373597 0
5.9570003 2.9911997 1.9376357 0
5.9580002 2.9817209 1.9379116 0
5.9590006 2.9722385 1.9381877 0
5.9600005 2.9627521 1.9384637 0
5.9610004 2.9532623 1.9387397 0
5.9620004 2.9437687 1.9390155 0
5.9630003 2.9342718 1.9392916 0
5.9640002 2.9247711 1.9395674 0
5.9650002 2.9152668 1.9398435 0
5.9660006 2.9057591 1.9401196 0
5.9670005 2.8962476 1.9403955 0
5.9670005 2.8862057 1.9403955 0
5.9680004 2.876689 1.9406716 0
5.9690003 2.8671682 1.9409474 0
5.9700003 2.8576443 1.9412234 0
5.9710002 2.8481164 1.9414995 0
5.9720001 2.8385851 1.9417753 0
5.9730005 2.8290505 1.9420514 0
5.9740005 2.8195117 1.9423275 0
5.9750004 2.8099694 1.9426033 0
5.9760003 2.8004239 1.9428793 0
5.9770002 2.7908742 1.9431553 0
5.9780002 2.7813213 1.9434313 0
5.9790006 2.771765 1.9437073 0
5.9800005 2.7622046 1.9439833 0
5.9810004 2.752641 1.9442593 0
5.9820004 2.7430737 1.9445353 0
5.9830003 2.7335026 1.9448112 0
5.9840002 2.7239277 1.9450871 0
5.9850001 2.7143497 1.9453632 0
5.9860005 2.7047679 1.9456393 0
5.9870005 2.6951823 1.9459151 0
5.9880004 2.6855934 1.9461912 0
5.9880004 2.6755137 1.9461912 0
5.9890003 2.6659193 1.946467 0
5.9900002 2.656321 1.9467431 0
5.9910002 2.6467195 1.9470191 0
5.9920006 2.6371145 1.9472951 0
5.9930005 2.6275055 1.9475712 0
5.9940004 2.6178927 1.9478471 0
5.9950004 2.6082768 1.948123 0
5.9960003 2.5986571 1.9483991 0
5.9970002 2.5890336 1.9486749 0
5.9980001 2.5794067 1.9489509 0
5.9990005 2.5697763 1.9492271 0
6.0000005 2.560142 1.9495029 0
6.0010004 2.5505042 1.9497789 0
6.0020003 2.540863 1.9500549 0
6.0030003 2.5312181 1.9503309 0
6.0040002 2.5215695 1.9506068 0
6.0050006 2.5119176 1.9508829 0
6.0060005 2.5022616 1.9511589 0
6.0070004 2.4926021 1.9514349 0
6.0080004 2.4829392 1.9517108 0
6.0090003 2.4732723 1.9519867 0
6.0100002 2.4636023 1.9522628 0
6.0110002 2.4539285 1.9525387 0
6.0120006 2.4442511 1.9528147 0
6.0130005 2.4345701 1.9530908 0
6.0140004 2.4248853 1.9533668 0
6.0150003 2.4151971 1.9536426 0
6.0150003 2.4050689 1.9536426 0
6.0160003 2.395375 1.9539187 0
6.0170002 2.3856778 1.9541945 0
6.0180001 2.3759768 1.9544706 0
6.0190005 2.3662727 1.9547467 0
6.0200005 2.3565643 1.9550226 0
6.0210004 2.3468525 1.9552987 0
6.0220003 2.3371372 1.9555745 0
6.0230002 2.3274183 1.9558505 0
6.0240002 2.3176956 1.9561265 0
6.0250006 2.3079698 1.9564025 0
6.0260005 2.2982399 1.9566785 0
6.0270004 2.2885067 1.9569545 0
6.0280004 2.2787695 1.9572304 0
6.0290003 2.2690289 1.9575064 0
6.0300002 2.259285 1.9577824 0
6.0310001 2.249537 1.9580584 0
6.0320005 2.2397859 1.9583344 0
6.0330005 2.2300308 1.9586104 0
6.0340004 2.2202723 1.9588864 0
6.0350003 2.21051 1.9591624 0
6.0360003 2.2007442 1.9594383 0
6.0370002 2.1909747 1.9597142 0
6.0380006 2.1812019 1.9599904 0
6.0390005 2.1714251 1.9602664 0
6.0400004 2.1616449 1.9605422 0
6.0410004 2.151861 1.9608183 0
6.0420003 2.1420734 1.9610941 0
6.0430002 2.1322825 1.9613701 0
6.0440001 2.1224875 1.9616461 0
6.0450006 2.1126895 1.9619222 0
6.0460005 2.1028876 1.9621983 0
6.0470004 2.0930822 1.9624741 0
6.0480003 2.0832729 1.9627501 0
6.0490003 2.0734603 1.963026 0
6.0500002 2.0636439 1.963302 0
6.0510006 2.0538239 1.9635781 0
6.0520005 2.0440004 1.9638541 0
6.0530005 2.0341733 1.96413 0
6.0530005 2.0239763 1.96413 0
6.0540004 2.0141437 1.964406 0
6.0550003 2.0043075 1.964682 0
6.0560002 1.994468 1.964958 0
6.0570002 1.9846244 1.9652339 0
6.0580006 1.9747775 1.96551 0
6.0590005 1.964927 1.965786 0
6.0600004 1.9550729 1.9660619 0
6.0610003 1.9452149 1.9663379 0
6.0700002 1.9381528 1.9688216 0
5.9420004 3.1429489 1.9234992 0
5.9430003 3.1335258 1.9237734 0
5.9440002 3.124099 1.9240476 0
5.9450002 3.1146686 1.9243218 0
5.9460006 3.1052351 1.924596 0
5.9470005 3.0957975 1.9248701 0
5.9480004 3.0863562 1.9251443 0
5.9490004 3.0769114 1.9254185 0
5.9490004 3.0669024 1.9254185 0
5.9500003 3.057452 1.9256927 0
5.9510002 3.0479982 1.9259669 0
5.9520001 3.0385408 1.9262409 0
5.9530005 3.0290799 1.9265153 0
5.9540005 3.0196157 1.9267894 0
5.9550004 3.0101473 1.9270636 0
5.9560003 3.0006754 1.9273378 0
5.9570003 2.9911997 1.9276118 0
5.9580002 2.9817209 1.9278861 0
5.9590006 2.9722385 1.9281603 0
5.9600005 2.9627521 1.9284345 0
5.9610004 2.9532623 1.9287087 0
5.9620004 2.9437687 1.9289829 0
5.9630003 2.9342718 1.929257 0
5.9640002 2.9247711 1.9295311 0
5.9650002 2.9152668 1.9298053 0
5.9660006 2.9057591 1.9300796 0
5.9670005 2.8962476 1.9303538 0
5.9670005 2.8862057 1.9303538 0
5.9680004 2.876689 1.9306279 0
5.9690003 2.8671682 1.930902 0
5.9700003 2.8576443 1.9311762 0
5.9710002 2.8481164 1.9314504 0
5.9720001 2.8385851 1.9317245 0
5.9730005 2.8290505 1.9319988 0
5.9740005 2.8195117 1.932273 0
5.9750004 2.8099694 1.9325471 0
5.9760003 2.8004239 1.9328213 0
5.9770002 2.7908742 1.9330955 0
5.9780002 2.7813213 1.9333696 0
5.9790006 2.771765 1.9336439 0
5.9800005 2.7622046 1.933918 0
5.9810004 2.752641 1.9341923 0
5.9820004 2.7430737 1.9344664 0
5.9830003 2.7335026 1.9347405 0
5.9840002 2.7239277 1.9350147 0
5.9850001 2.7143497 1.9352888 0
5.9860005 2.7047679 1.9355632 0
5.9870005 2.6951823 1.9358373 0
5.9880004 2.6855934 1.9361115 0
5.9880004 2.6755137 1.9361115 0
5.9890003 2.6659193 1.9363856 0
5.9900002 2.656321 1.9366598 0
5.9910002 2.6467195 1.936934 0
5.9920006 2.6371145 1.9372082 0
5.9930005 2.6275055 1.9374824 0
5.9940004 2.6178927 1.9377565 0
5.9950004 2.6082768 1.9380307 0
5.9960003 2.5986571 1.9383049 0
5.9970002 2.5890336 1.9385791 0
5.9980001 2.5794067 1.9388531 0
5.9990005 2.5697763 1.9391276 0
6.0000005 2.560142 1.9394016 0
6.0010004 2.5505042 1.9396758 0
6.0020003 2.540863 1.93995 0
6.0030003 2.5312181 1.9402241 0
6.0040002 2.5215695 1.9404982 0
6.0050006 2.5119176 1.9407725 0
6.0060005 2.5022616 1.9410467 0
6.0070004 2.4926021 1.9413209 0
6.0080004 2.4829392 1.941595 0
6.0090003 2.4732723 1.9418693 0
6.0100002 2.4636023 1.9421434 0
6.0110002 2.4539285 1.9424175 0
6.0120006 2.4442511 1.9426918 0
6.0130005 2.4345701 1.942966 0
6.0140004 2.4248853 1.9432402 0
6.0150003 2.4151971 1.9435143 0
6.0150003 2.4050689 1.9435143 0
6.0160003 2.395375 1.9437884 0
6.0170002 2.3856778 1.9440626 0
6.0180001 2.3759768 1.9443368 0
6.0190005 2.3662727 1.9446111 0
6.0200005 2.3565643 1.9448853 0
6.0210004 2.3468525 1.9451593 0
6.0220003 2.3371372 1.9454335 0
6.0230002 2.3274183 1.9457077 0
6.0240002 2.3176956 1.9459819 0
6.0250006 2.3079698 1.9462562 0
6.0260005 2.2982399 1.9465302 0
6.0270004 2.2885067 1.9468045 0
6.0280004 2.2787695 1.9470786 0
6.0290003 2.2690289 1.9473528 0
6.0300002 2.259285 1.9476269 0
6.0310001 2.249537 1.947901 0
6.0320005 2.2397859 1.9481754 0
6.0330005 2.2300308 1.9484496 0
6.0340004 2.2202723 1.9487237 0
6.0350003 2.21051 1.9489979 0
6.0360003 2.2007442 1.9492719 0
6.0370002 2.1909747 1.9495462 0
6.0380006 2.1812019 1.9498205 0
6.0390005 2.1714251 1.9500946 0
6.0400004 2.1616449 1.9503688 0
6.0410004 2.151861 1.9506429 0
6.0420003 2.1420734 1.9509171 0
6.0430002 2.1322825 1.9511913 0
6.0440001 2.1224875 1.9514654 0
6.0450006 2.1126895 1.9517397 0
6.0460005 2.1028876 1.9520139 0
6.0470004 2.0930822 1.952288 0
6.0480003 2.0832729 1.9525622 0
6.0490003 2.0734603 1.9528363 0
6.0500002 2.0636439 1.9531105 0
6.0510006 2.0538239 1.9533849 0
6.0520005 2.0440004 1.9536589 0
6.0530005 2.0341733 1.9539331 0
6.0530005 2.0239763 1.9539331 0
6.0540004 2.0141437 1.9542072 0
6.0550003 2.0043075 1.9544815 0
6.0560002 1.994468 1.9547557 0
6.0570002 1.9846244 1.9550297 0
6.0580006 1.9747775 1.955304 0
6.0590005 1.964927 1.9555782 0
6.0600004 1.9550729 1.9558524 0
6.0610003 1.9452149 1.9561266 0
6.0700002 1.9381528 1.9585941 0
5.9420004 3.1429489 1.9135026 0
5.9430003 3.1335258 1.913775 0
5.9440002 3.124099 1.9140472 0
5.9450002 3.1146686 1.9143195 0
5.9460006 3.1052351 1.914592 0
5.9470005 3.0957975 1.9148644 0
5.9480004 3.0863562 1.9151368 0
5.9490004 3.0769114 1.9154092 0
5.9490004 3.0669024 1.9154092 0
5.9500003 3.057452 1.9156816 0
5.9510002 3.0479982 1.9159539 0
5.9520001 3.0385408 1.9162261 0
5.9530005 3.0290799 1.9164987 0
5.9540005 3.0196157 1.9167711 0
5.9550004 3.0101473 1.9170434 0
5.9560003 3.0006754 1.9173158 0
5.9570003 2.9911997 1.9175881 0
5.9580002 2.9817209 1.9178605 0
5.9590006 2.9722385 1.9181329 0
5.9600005 2.9627521 1.9184053 0
5.9610004 2.9532623 1.9186777 0
5.9620004 2.9437687 1.9189501 0
5.9630003 2.9342718 1.9192224 0
5.9640002 2.9247711 1.9194947 0
5.9650002 2.9152668 1.9197671 0
5.9660006 2.9057591 1.9200395 0
5.9670005 2.8962476 1.9203119 0
5.9670005 2.8862057 1.9203119 0
5.9680004 2.876689 1.9205843 0
5.9690003 2.8671682 1.9208567 0
5.9700003 2.8576443 1.921129 0
5.9710002 2.8481164 1.9214014 0
5.9720001 2.8385851 1.9216738 0
5.9730005 2.8290505 1.9219462 0
5.9740005 2.8195117 1.9222186 0
5.9750004 2.8099694 1.922491 0
5.9760003 2.8004239 1.9227632 0
5.9770002 2.7908742 1.9230356 0
5.9780002 2.7813213 1.923308 0
5.9790006 2.771765 1.9235805 0
5.9800005 2.7622046 1.9238528 0
5.9810004 2.752641 1.9241252 0
5.9820004 2.7430737 1.9243975 0
5.9830003 2.7335026 1.9246699 0
5.9840002 2.7239277 1.9249423 0
5.9850001 2.7143497 1.9252146 0
5.9860005 2.7047679 1.9254872 0
5.9870005 2.6951823 1.9257594 0
5.9880004 2.6855934 1.9260317 0
5.9880004 2.6755137 1.9260317 0
5.9890003 2.6659193 1.9263041 0
5.9900002 2.656321 1.9265765 0
5.9910002 2.6467195 1.9268489 0
5.9920006 2.6371145 1.9271214 0
5.9930005 2.6275055 1.9273938 0
5.9940004 2.6178927 1.9276661 0
5.9950004 2.6082768 1.9279383 0
5.9960003 2.5986571 1.9282107 0
5.9970002 2.5890336 1.9284831 0
5.9980001 2.5794067 1.9287555 0
5.9990005 2.5697763 1.929028 0
6.0000005 2.560142 1.9293003 0
6.0010004 2.5505042 1.9295727 0
6.0020003 2.540863 1.929845 0
6.0030003 2.5312181 1.9301174 0
6.0040002 2.5215695 1.9303898 0
6.0050006 2.5119176 1.9306623 0
6.0060005 2.5022616 1.9309345 0
6.0070004 2.4926021 1.9312069 0
6.0080004 2.4829392 1.9314793 0
6.0090003 2.4732723 1.9317517 0
6.0100002 2.4636023 1.932024 0
6.0110002 2.4539285 1.9322963 0
6.0120006 2.4442511 1.9325688 0
6.0130005 2.4345701 1.9328412 0
6.0140004 2.4248853 1.9331136 0
6.0150003 2.4151971 1.933386 0
6.0150003 2.4050689 1.933386 0
6.0160003 2.395375 1.9336584 0
6.0170002 2.3856778 1.9339305 0
6.0180001 2.3759768 1.9342029 0
6.0190005 2.3662727 1.9344754 0
6.0200005 2.3565643 1.9347478 0
6.0210004 2.3468525 1.9350202 0
6.0220003 2.3371372 1.9352926 0
6.0230002 2.3274183 1.9355649 0
6.0240002 2.3176956 1.9358373 0
6.0250006 2.3079698 1.9361097 0
6.0260005 2.2982399 1.9363821 0
6.0270004 2.2885067 1.9366544 0
6.0280004 2.2787695 1.9369268 0
6.0290003 2.2690289 1.9371991 0
6.0300002 2.259285 1.9374715 0
6.0310001 2.249537 1.9377439 0
6.0320005 2.2397859 1.9380163 0
6.0330005 2.2300308 1.9382887 0
6.0340004 2.2202723 1.9385611 0
6.0350003 2.21051 1.9388334 0
6.0360003 2.2007442 1.9391057 0
6.0370002 2.1909747 1.9393781 0
6.0380006 2.1812019 1.9396507 0
6.0390005 2.1714251 1.9399229 0
6.0400004 2.1616449 1.9401953 0
6.0410004 2.151861 1.9404676 0
6.0420003 2.1420734 1.94074 0
6.0430002 2.1322825 1.9410124 0
6.0440001 2.1224875 1.9412848 0
6.0450006 2.1126895 1.9415573 0
6.0460005 2.1028876 1.9418296 0
6.0470004 2.0930822 1.9421018 0
6.0480003 2.0832729 1.9423742 0
6.0490003 2.0734603 1.9426466 0
6.0500002 2.0636439 1.942919 0
6.0510006 2.0538239 1.9431915 0
6.0520005 2.0440004 1.9434639 0
6.0530005 2.0341733 1.9437362 0
6.0530005 2.0239763 1.9437362 0
6.0540004 2.0141437 1.9440085 0
6.0550003 2.0043075 1.9442809 0
6.0560002 1.994468 1.9445533 0
6.0570002 1.9846244 1.9448256 0
6.0580006 1.9747775 1.9450982 0
6.0590005 1.964927 1.9453704 0
6.0600004 1.9550729 1.9456428 0
6.0610003 1.9452149 1.9459151 0
6.0700002 1.9381528 1.9483664 0
5.9420004 3.1429489 1.9035058 0
5.9430003 3.1335258 1.9037764 0
5.9440002 3.124099 1.904047 0
5.9450002 3.1146686 1.9043175 0
5.9460006 3.1052351 1.9045882 0
5.9470005 3.0957975 1.9048587 0
5.9480004 3.0863562 1.9051293 0
5.9490004 3.0769114 1.9053998 0
5.9490004 3.0669024 1.9053998 0
5.9500003 3.057452 1.9056703 0
5.9510002 3.0479982 1.9059409 0
5.9520001 3.0385408 1.9062115 0
5.9530005 3.0290799 1.9064822 0
5.9540005 3.0196157 1.9067527 0
5.9550004 3.0101473 1.9070233 0
5.9560003 3.0006754 1.9072938 0
5.9570003 2.9911997 1.9075644 0
5.9580002 2.9817209 1.9078349 0
5.9590006 2.9722385 1.9081056 0
5.9600005 2.9627521 1.9083761 0
5.9610004 2.9532623 1.9086467 0
5.9620004 2.9437687 1.9089173 0
5.9630003 2.9342718 1.9091878 0
5.9640002 2.9247711 1.9094584 0
5.9650002 2.9152668 1.9097289 0
5.9660006 2.9057591 1.9099996 0
5.9670005 2.8962476 1.9102701 0
5.9670005 2.8862057 1.9102701 0
5.9680004 2.876689 1.9105407 0
5.9690003 2.8671682 1.9108113 0
5.9700003 2.8576443 1.9110818 0
5.9710002 2.8481164 1.9113524 0
5.9720001 2.8385851 1.9116229 0
5.9730005 2.8290505 1.9118936 0
5.9740005 2.8195117 1.9121641 0
5.9750004 2.8099694 1.9124347 0
5.9760003 2.8004239 1.9127052 0
5.9770002 2.7908742 1.9129758 0
5.9780002 2.7813213 1.9132464 0
5.9790006 2.771765 1.9135171 0
5.9800005 2.7622046 1.9137876 0
5.9810004 2.752641 1.9140581 0
5.9820004 2.7430737 1.9143287 0
5.9830003 2.7335026 1.9145992 0
5.9840002 2.7239277 1.9148698 0
5.9850001 2.7143497 1.9151403 0
5.9860005 2.7047679 1.915411 0
5.9870005 2.6951823 1.9156816 0
5.9880004 2.6855934 1.9159522 0
5.9880004 2.6755137 1.9159522 0
5.9890003 2.6659193 1.9162227 0
5.9900002 2.656321 1.9164932 0
5.9910002 2.6467195 1.9167638 0
5.9920006 2.6371145 1.9170344 0
5.9930005 2.6275055 1.917305 0
5.9940004 2.6178927 1.9175755 0
5.9950004 2.6082768 1.9178461 0
5.9960003 2.5986571 1.9181167 0
5.9970002 2.5890336 1.9183873 0
5.9980001 2.5794067 1.9186578 0
5.9990005 2.5697763 1.9189285 0
6.0000005 2.560142 1.919199 0
6.0010004 2.5505042 1.9194695 0
6.0020003 2.540863 1.9197401 0
6.0030003 2.5312181 1.9200106 0
6.0040002 2.5215695 1.9202813 0
6.0050006 2.5119176 1.9205519 0
6.0060005 2.5022616 1.9208225 0
6.0070004 2.4926021 1.921093 0
6.0080004 2.4829392 1.9213635 0
6.0090003 2.4732723 1.9216341 0
6.0100002 2.4636023 1.9219046 0
6.0110002 2.4539285 1.9221752 0
6.0120006 2.4442511 1.9224458 0
6.0130005 2.4345701 1.9227165 0
6.0140004 2.4248853 1.922987 0
6.0150003 2.4151971 1.9232576 0
6.0150003 2.4050689 1.9232576 0
6.0160003 2.395375 1.9235281 0
6.0170002 2.3856778 1.9237986 0
6.0180001 2.3759768 1.9240692 0
6.0190005 2.3662727 1.9243398 0
6.0200005 2.3565643 1.9246104 0
6.0210004 2.3468525 1.924881 0
6.0220003 2.3371372 1.9251516 0
6.0230002 2.3274183 1.9254221 0
6.0240002 2.3176956 1.9256927 0
6.0250006 2.3079698 1.9259633 0
6.0260005 2.2982399 1.9262339 0
6.0270004 2.2885067 1.9265044 0
6.0280004 2.2787695 1.9267749 0
6.0290003 2.2690289 1.9270455 0
6.0300002 2.259285 1.9273161 0
6.0310001 2.249537 1.9275867 0
6.0320005 2.2397859 1.9278573 0
6.0330005 2.2300308 1.9281279 0
6.0340004 2.2202723 1.9283984 0
6.0350003 2.21051 1.928669 0
6.0360003 2.2007442 1.9289395 0
6.0370002 2.1909747 1.9292099 0
6.0380006 2.1812019 1.9294807 0
6.0390005 2.1714251 1.9297513 0
6.0400004 2.1616449 1.9300219 0
6.0410004 2.151861 1.9302924 0
6.0420003 2.1420734 1.930563 0
6.0430002 2.1322825 1.9308335 0
6.0440001 2.1224875 1.9311041 0
6.0450006 2.1126895 1.9313747 0
6.0460005 2.1028876 1.9316453 0
6.0470004 2.0930822 1.9319159 0
6.0480003 2.0832729 1.9321864 0
6.0490003 2.0734603 1.932457 0
6.0500002 2.0636439 1.9327275 0
6.0510006 2.0538239 1.9329982 0
6.0520005 2.0440004 1.9332687 0
6.0530005 2.0341733 1.9335393 0
6.0530005 2.0239763 1.9335393 0
6.0540004 2.0141437 1.9338098 0
6.0550003 2.0043075 1.9340804 0
6.0560002 1.994468 1.934351 0
6.0570002 1.9846244 1.9346215 0
6.0580006 1.9747775 1.9348922 0
6.0590005 1.964927 1.9351627 0
6.0600004 1.9550729 1.9354333 0
6.0610003 1.9452149 1.9357038 0
6.0700002 1.9381528 1.9381388 0
5.9420004 3.1429489 1.8935091 0
5.9430003 3.1335258 1.8937778 0
5.9440002 3.124099 1.8940467 0
5.9450002 3.1146686 1.8943154 0
5.9460006 3.1052351 1.8945843 0
5.9470005 3.0957975 1.894853 0
5.9480004 3.0863562 1.8951217 0
5.9490004 3.0769114 1.8953905 0
5.9490004 3.0669024 1.8953905 0
5.9500003 3.057452 1.8956592 0
5.9510002 3.0479982 1.8959279 0
5.9520001 3.0385408 1.8961967 0
5.9530005 3.0290799 1.8964657 0
5.9540005 3.0196157 1.8967344 0
5.9550004 3.0101473 1.8970032 0
5.9560003 3.0006754 1.8972719 0
5.9570003 2.9911997 1.8975407 0
5.9580002 2.9817209 1.8978094 0
5.9590006 2.9722385 1.8980782 0
5.9600005 2.9627521 1.898347 0
5.9610004 2.9532623 1.8986157 0
5.9620004 2.9437687 1.8988844 0
5.9630003 2.9342718 1.8991532 0
5.9640002 2.9247711 1.8994219 0
5.9650002 2.9152668 1.8996907 0
5.9660006 2.9057591 1.8999596 0
5.9670005 2.8962476 1.9002283 0
5.9670005 2.8862057 1.9002283 0
5.9680004 2.876689 1.9004971 0
5.9690003 2.8671682 1.9007658 0
5.9700003 2.8576443 1.9010346 0
5.9710002 2.8481164 1.9013034 0
5.9720001 2.8385851 1.9015721 0
5.9730005 2.8290505 1.9018409 0
5.9740005 2.8195117 1.9021097 0
5.9750004 2.8099694 1.9023784 0
5.9760003 2.8004239 1.9026473 0
5.9770002 2.7908742 1.902916 0
5.9780002 2.7813213 1.9031847 0
5.9790006 2.771765 1.9034536 0
5.9800005 2.7622046 1.9037223 0
5.9810004 2.752641 1.903991 0
5.9820004 2.7430737 1.9042598 0
5.9830003 2.7335026 1.9045285 0
5.9840002 2.7239277 1.9047973 0
5.9850001 2.7143497 1.905066 0
5.9860005 2.7047679 1.9053349 0
5.9870005 2.6951823 1.9056038 0
5.9880004 2.6855934 1.9058725 0
5.9880004 2.6755137 1.9058725 0
5.9890003 2.6659193 1.9061412 0
5.9900002 2.656321 1.90641 0
5.9910002 2.6467195 1.9066787 0
5.9920006 2.6371145 1.9069475 0
5.9930005 2.6275055 1.9072163 0
5.9940004 2.6178927 1.907485 0
5.9950004 2.6082768 1.9077538 0
5.9960003 2.5986571 1.9080225 0
5.9970002 2.5890336 1.9082912 0
5.9980001 2.5794067 1.90856 0
5.9990005 2.5697763 1.9088289 0
6.0000005 2.560142 1.9090977 0
6.0010004 2.5505042 1.9093665 0
6.0020003 2.540863 1.9096352 0
6.0030003 2.5312181 1.909904 0
6.0040002 2.5215695 1.9101727 0
6.0050006 2.5119176 1.9104415 0
6.0060005 2.5022616 1.9107103 0
6.0070004 2.4926021 1.910979 0
6.0080004 2.4829392 1.9112477 0
6.0090003 2.4732723 1.9115165 0
6.0100002 2.4636023 1.9117852 0
6.0110002 2.4539285 1.9120541 0
6.0120006 2.4442511 1.9123229 0
6.0130005 2.4345701 1.9125916 0
6.0140004 2.4248853 1.9128604 0
6.0150003 2.4151971 1.9131291 0
6.0150003 2.4050689 1.9131291 0
6.0160003 2.395375 1.9133978 0
6.0170002 2.3856778 1.9136667 0
6.0180001 2.3759768 1.9139354 0
6.0190005 2.3662727 1.9142042 0
6.0200005 2.3565643 1.9144731 0
6.0210004 2.3468525 1.9147418 0
6.0220003 2.3371372 1.9150106 0
6.0230002 2.3274183 1.9152793 0
6.0240002 2.3176956 1.915548 0
6.0250006 2.3079698 1.9158169 0
6.0260005 2.2982399 1.9160856 0
6.0270004 2.2885067 1.9163543 0
6.0280004 2.2787695 1.9166231 0
6.0290003 2.2690289 1.9168918 0
6.0300002 2.259285 1.9171606 0
6.0310001 2.249537 1.9174293 0
6.0320005 2.2397859 1.9176983 0
6.0330005 2.2300308 1.9179671 0
6.0340004 2.2202723 1.9182358 0
6.0350003 2.21051 1.9185045 0
6.0360003 2.2007442 1.9187733 0
6.0370002 2.1909747 1.919042 0
6.0380006 2.1812019 1.9193108 0
6.0390005 2.1714251 1.9195796 0
6.0400004 2.1616449 1.9198483 0
6.0410004 2.151861 1.9201171 0
6.0420003 2.1420734 1.9203858 0
6.0430002 2.1322825 1.9206545 0
6.0440001 2.1224875 1.9209234 0
6.0450006 2.1126895 1.9211922 0
6.0460005 2.1028876 1.9214609 0
6.0470004 2.0930822 1.9217298 0
6.0480003 2.0832729 1.9219985 0
6.0490003 2.0734603 1.9222672 0
6.0500002 2.0636439 1.922536 0
6.0510006 2.0538239 1.9228048 0
6.0520005 2.0440004 1.9230736 0
6.0530005 2.0341733 1.9233423 0
6.0530005 2.0239763 1.9233423 0
6.0540004 2.0141437 1.923611 0
6.0550003 2.0043075 1.9238799 0
6.0560002 1.994468 1.9241486 0
6.0570002 1.9846244 1.9244173 0
6.0580006 1.9747775 1.9246862 0
6.0590005 1.964927 1.9249549 0
6.0600004 1.9550729 1.9252237 0
6.0610003 1.9452149 1.9254924 0
6.0700002 1.9381528 1.9279113 0
5.9420004 3.1429489 1.8835125 0
5.9430003 3.1335258 1.8837793 0
5.9440002 3.124099 1.8840463 0
5.9450002 3.1146686 1.8843133 0
5.9460006 3.1052351 1.8845803 0
5.9470005 3.0957975 1.8848473 0
5.9480004 3.0863562 1.8851142 0
5.9490004 3.0769114 1.8853811 0
5.9490004 3.0669024 1.8853811 0
5.9500003 3.057452 1.8856481 0
5.9510002 3.0479982 1.885915 0
5.9520001 3.0385408 1.886182 0
5.9530005 3.0290799 1.8864491 0
5.9540005 3.0196157 1.886716 0
5.9550004 3.0101473 1.8869829 0
5.9560003 3.0006754 1.8872498 0
5.9570003 2.9911997 1.8875169 0
5.9580002 2.9817209 1.8877838 0
5.9590006 2.9722385 1.8880508 0
5.9600005 2.9627521 1.8883178 0
5.9610004 2.9532623 1.8885849 0
5.9620004 2.9437687 1.8888516 0
5.9630003 2.9342718 1.8891187 0
5.9640002 2.9247711 1.8893856 0
5.9650002 2.9152668 1.8896525 0
5.9660006 2.9057591 1.8899196 0
5.9670005 2.8962476 1.8901865 0
5.9670005 2.8862057 1.8901865 0
5.9680004 2.876689 1.8904535 0
5.9690003 2.8671682 1.8907205 0
5.9700003 2.8576443 1.8909874 0
5.9710002 2.8481164 1.8912543 0
5.9720001 2.8385851 1.8915212 0
5.9730005 2.8290505 1.8917884 0
5.9740005 2.8195117 1.8920553 0
5.9750004 2.8099694 1.8923222 0
5.9760003 2.8004239 1.8925892 0
5.9770002 2.7908742 1.8928561 0
5.9780002 2.7813213 1.893123 0
5.9790006 2.771765 1.8933902 0
5.9800005 2.7622046 1.8936571 0
5.9810004 2.752641 1.893924 0
5.9820004 2.7430737 1.894191 0
5.9830003 2.7335026 1.8944579 0
5.9840002 2.7239277 1.8947248 0
5.9850001 2.7143497 1.8949918 0
5.9860005 2.7047679 1.8952589 0
5.9870005 2.6951823 1.8955258 0
5.9880004 2.6855934 1.8957927 0
5.9880004 2.6755137 1.8957927 0
5.9890003 2.6659193 1.8960598 0
5.9900002 2.656321 1.8963267 0
5.9910002 2.6467195 1.8965936 0
5.9920006 2.6371145 1.8968607 0
5.9930005 2.6275055 1.8971275 0
5.9940004 2.6178927 1.8973945 0
5.9950004 2.6082768 1.8976616 0
5.9960003 2.5986571 1.8979284 0
5.9970002 2.5890336 1.8981954 0
5.9980001 2.5794067 1.8984624 0
5.9990005 2.5697763 1.8987293 0
6.0000005 2.560142 1.8989964 0
6.0010004 2.5505042 1.8992633 0
6.0020003 2.540863 1.8995302 0
6.0030003 2.5312181 1.8997972 0
6.0040002 2.5215695 1.9000641 0
6.0050006 2.5119176 1.9003313 0
6.0060005 2.5022616 1.900598 0
6.0070004 2.4926021 1.9008651 0
6.0080004 2.4829392 1.9011321 0
6.0090003 2.4732723 1.9013989 0
6.0100002 2.4636023 1.9016659 0
6.0110002 2.4539285 1.9019328 0
6.0120006 2.4442511 1.9021999 0
6.0130005 2.4345701 1.9024669 0
6.0140004 2.4248853 1.9027338 0
6.0150003 2.4151971 1.9030007 0
6.0150003 2.4050689 1.9030007 0
6.0160003 2.395375 1.9032677 0
6.0170002 2.3856778 1.9035347 0
6.0180001 2.3759768 1.9038016 0
6.0190005 2.3662727 1.9040687 0
6.0200005 2.3565643 1.9043356 0
6.0210004 2.3468525 1.9046025 0
6.0220003 2.3371372 1.9048694 0
6.0230002 2.3274183 1.9051365 0
6.0240002 2.3176956 1.9054034 0
6.0250006 2.3079698 1.9056704 0
6.0260005 2.2982399 1.9059374 0
6.0270004 2.2885067 1.9062043 0
6.0280004 2.2787695 1.9064713 0
6.0290003 2.2690289 1.9067383 0
6.0300002 2.259285 1.9070051 0
6.0310001 2.249537 1.9072721 0
6.0320005 2.2397859 1.9075392 0
6.0330005 2.2300308 1.9078062 0
6.0340004 2.2202723 1.9080731 0
6.0350003 2.21051 1.9083401 0
6.0360003 2.2007442 1.908607 0
6.0370002 2.1909747 1.9088739 0
6.0380006 2.1812019 1.9091409 0
6.0390005 2.1714251 1.909408 0
6.0400004 2.1616449 1.9096749 0
6.0410004 2.151861 1.9099418 0
6.0420003 2.1420734 1.9102088 0
6.0430002 2.1322825 1.9104757 0
6.0440001 2.1224875 1.9107426 0
6.0450006 2.1126895 1.9110098 0
6.0460005 2.1028876 1.9112766 0
6.0470004 2.0930822 1.9115436 0
6.0480003 2.0832729 1.9118106 0
6.0490003 2.0734603 1.9120774 0
6.0500002 2.0636439 1.9123445 0
6.0510006 2.0538239 1.9126115 0
6.0520005 2.0440004 1.9128785 0
6.0530005 2.0341733 1.9131454 0
6.0530005 2.0239763 1.9131454 0
6.0540004 2.0141437 1.9134123 0
6.0550003 2.0043075 1.9136792 0
6.0560002 1.994468 1.9139463 0
6.0570002 1.9846244 1.9142132 0
6.0580006 1.9747775 1.9144803 0
6.0590005 1.964927 1.9147471 0
6.0600004 1.9550729 1.9150141 0
6.0610003 1.9452149 1.9152812 0
6.0700002 1.9381528 1.9176837 0
5.9420004 3.1429489 1.8735157 0
5.9430003 3.1335258 1.8737808 0
5.9440002 3.124099 1.874046 0
5.9450002 3.1146686 1.8743111 0
5.9460006 3.1052351 1.8745764 0
5.9470005 3.0957975 1.8748416 0
5.9480004 3.0863562 1.8751067 0
5.9490004 3.0769114 1.8753719 0
5.9490004 3.0669024 1.8753719 0
5.9500003 3.057452 1.8756369 0
5.9510002 3.0479982 1.8759021 0
5.9520001 3.0385408 1.8761672 0
5.9530005 3.0290799 1.8764325 0
5.9540005 3.0196157 1.8766977 0
5.9550004 3.0101473 1.8769628 0
5.9560003 3.0006754 1.877228 0
5.9570003 2.9911997 1.8774931 0
5.9580002 2.9817209 1.8777581 0
5.9590006 2.9722385 1.8780235 0
5.9600005 2.9627521 1.8782886 0
5.9610004 2.9532623 1.8785537 0
5.9620004 2.9437687 1.8788189 0
5.9630003 2.9342718 1.8790841 0
5.9640002 2.9247711 1.8793492 0
5.9650002 2.9152668 1.8796144 0
5.9660006 2.9057591 1.8798796 0
5.9670005 2.8962476 1.8801447 0
5.9670005 2.8862057 1.8801447 0
5.9680004 2.876689 1.8804098 0
5.9690003 2.8671682 1.8806751 0
5.9700003 2.8576443 1.8809402 0
5.9710002 2.8481164 1.8812053 0
5.9720001 2.8385851 1.8814704 0
5.9730005 2.8290505 1.8817357 0
5.9740005 2.8195117 1.8820008 0
5.9750004 2.8099694 1.8822659 0
5.9760003 2.8004239 1.8825312 0
5.9770002 2.7908742 1.8827963 0
5.9780002 2.7813213 1.8830614 0
5.9790006 2.771765 1.8833268 0
5.9800005 2.7622046 1.8835919 0
5.9810004 2.752641 1.883857 0
5.9820004 2.7430737 1.884122 0
5.9830003 2.7335026 1.8843873 0
5.9840002 2.7239277 1.8846524 0
5.9850001 2.7143497 1.8849175 0
5.9860005 2.7047679 1.8851829 0
5.9870005 2.6951823 1.885448 0
5.9880004 2.6855934 1.8857131 0
5.9880004 2.6755137 1.8857131 0
5.9890003 2.6659193 1.8859782 0
5.9900002 2.656321 1.8862433 0
5.9910002 2.6467195 1.8865085 0
5.9920006 2.6371145 1.8867737 0
5.9930005 2.6275055 1.8870389 0
5.9940004 2.6178927 1.8873041 0
5.9950004 2.6082768 1.8875692 0
5.9960003 2.5986571 1.8878343 0
5.9970002 2.5890336 1.8880994 0
5.9980001 2.5794067 1.8883646 0
5.9990005 2.5697763 1.8886298 0
6.0000005 2.560142 1.888895 0
6.0010004 2.5505042 1.8891602 0
6.0020003 2.540863 1.8894253 0
6.0030003 2.5312181 1.8896905 0
6.0040002 2.5215695 1.8899556 0
6.0050006 2.5119176 1.8902208 0
6.0060005 2.5022616 1.890486 0
6.0070004 2.4926021 1.8907511 0
6.0080004 2.4829392 1.8910162 0
6.0090003 2.4732723 1.8912814 0
6.0100002 2.4636023 1.8915466 0
6.0110002 2.4539285 1.8918117 0
6.0120006 2.4442511 1.892077 0
6.0130005 2.4345701 1.8923421 0
6.0140004 2.4248853 1.8926072 0
6.0150003 2.4151971 1.8928723 0
6.0150003 2.4050689 1.8928723 0
6.0160003 2.395375 1.8931375 0
6.0170002 2.3856778 1.8934027 0
6.0180001 2.3759768 1.8936678 0
6.0190005 2.3662727 1.8939331 0
6.0200005 2.3565643 1.8941983 0
6.0210004 2.3468525 1.8944633 0
6.0220003 2.3371372 1.8947284 0
6.0230002 2.3274183 1.8949935 0
6.0240002 2.3176956 1.8952588 0
6.0250006 2.3079698 1.895524 0
6.0260005 2.2982399 1.8957891 0
6.0270004 2.2885067 1.8960544 0
6.0280004 2.2787695 1.8963195 0
6.0290003 2.2690289 1.8965845 0
6.0300002 2.259285 1.8968498 0
6.0310001 2.249537 1.8971149 0
6.0320005 2.2397859 1.8973801 0
6.0330005 2.2300308 1.8976452 0
6.0340004 2.2202723 1.8979105 0
6.0350003 2.21051 1.8981756 0
6.0360003 2.2007442 1.8984407 0
6.0370002 2.1909747 1.8987058 0
6.0380006 2.1812019 1.8989711 0
6.0390005 2.1714251 1.8992362 0
6.0400004 2.1616449 1.8995014 0
6.0410004 2.151861 1.8997666 0
6.0420003 2.1420734 1.9000317 0
6.0430002 2.1322825 1.9002968 0
6.0440001 2.1224875 1.900562 0
6.0450006 2.1126895 1.9008272 0
6.0460005 2.1028876 1.9010923 0
6.0470004 2.0930822 1.9013575 0
6.0480003 2.0832729 1.9016227 0
6.0490003 2.0734603 1.9018878 0
6.0500002 2.0636439 1.9021529 0
6.0510006 2.0538239 1.9024183 0
6.0520005 2.0440004 1.9026834 0
6.0530005 2.0341733 1.9029484 0
6.0530005 2.0239763 1.9029484 0
6.0540004 2.0141437 1.9032136 0
6.0550003 2.0043075 1.9034787 0
6.0560002 1.994468 1.9037439 0
6.0570002 1.9846244 1.904009 0
6.0580006 1.9747775 1.9042743 0
6.0590005 1.964927 1.9045395 0
6.0600004 1.9550729 1.9048046 0
6.0610003 1.9452149 1.9050697 0
6.0700002 1.9381528 1.907456 0
5.9420004 3.1429489 1.863519 0
5.9430003 3.1335258 1.8637823 0
5.9440002 3.124099 1.8640456 0
5.9450002 3.1146686 1.8643091 0
5.9460006 3.1052351 1.8645725 0
5.9470005 3.0957975 1.8648359 0
5.9480004 3.0863562 1.8650992 0
5.9490004 3.0769114 1.8653625 0
5.9490004 3.0669024 1.8653625 0
5.9500003 3.057452 1.8656259 0
5.9510002 3.0479982 1.8658892 0
5.9520001 3.0385408 1.8661524 0
5.9530005 3.0290799 1.866416 0
5.9540005 3.0196157 1.8666793 0
5.9550004 3.0101473 1.8669426 0
5.9560003 3.0006754 1.867206 0
5.9570003 2.9911997 1.8674693 0
5.9580002 2.9817209 1.8677326 0
5.9590006 2.9722385 1.8679961 0
5.9600005 2.9627521 1.8682594 0
5.9610004 2.9532623 1.8685228 0
5.9620004 2.9437687 1.8687862 0
5.9630003 2.9342718 1.8690495 0
5.9640002 2.9247711 1.8693128 0
5.9650002 2.9152668 1.8695761 0
5.9660006 2.9057591 1.8698395 0
5.9670005 2.8962476 1.8701029 0
5.9670005 2.8862057 1.8701029 0
5.9680004 2.876689 1.8703662 0
5.9690003 2.8671682 1.8706297 0
5.9700003 2.8576443 1.870893 0
5.9710002 2.8481164 1.8711563 0
5.9720001 2.8385851 1.8714197 0
5.9730005 2.8290505 1.8716831 0
5.9740005 2.8195117 1.8719465 0
5.9750004 2.8099694 1.8722097 0
5.9760003 2.8004239 1.872473 0
5.9770002 2.7908742 1.8727365 0
5.9780002 2.7813213 1.8729998 0
5.9790006 2.771765 1.8732632 0
5.9800005 2.7622046 1.8735266 0
5.9810004 2.752641 1.8737899 0
5.9820004 2.7430737 1.8740532 0
5.9830003 2.7335026 1.8743166 0
5.9840002 2.7239277 1.8745799 0
5.9850001 2.7143497 1.8748434 0
5.9860005 2.7047679 1.8751068 0
5.9870005 2.6951823 1.87537 0
5.9880004 2.6855934 1.8756334 0
5.9880004 2.6755137 1.8756334 0
5.9890003 2.6659193 1.8758967 0
5.9900002 2.656321 1.87616 0
5.9910002 2.6467195 1.8764234 0
5.9920006 2.6371145 1.8766868 0
5.9930005 2.6275055 1.8769503 0
5.9940004 2.6178927 1.8772136 0
5.9950004 2.6082768 1.8774769 0
5.9960003 2.5986571 1.8777403 0
5.9970002 2.5890336 1.8780035 0
5.9980001 2.5794067 1.8782668 0
5.9990005 2.5697763 1.8785303 0
6.0000005 2.560142 1.8787936 0
6.0010004 2.5505042 1.879057 0
6.0020003 2.540863 1.8793204 0
6.0030003 2.5312181 1.8795837 0
6.0040002 2.5215695 1.879847 0
6.0050006 2.5119176 1.8801105 0
6.0060005 2.5022616 1.8803738 0
6.0070004 2.4926021 1.8806372 0
6.0080004 2.4829392 1.8809005 0
6.0090003 2.4732723 1.8811638 0
6.0100002 2.4636023 1.8814272 0
6.0110002 2.4539285 1.8816905 0
6.0120006 2.4442511 1.881954 0
6.0130005 2.4345701 1.8822173 0
6.0140004 2.4248853 1.8824806 0
6.0150003 2.4151971 1.882744 0
6.0150003 2.4050689 1.882744 0
6.0160003 2.395375 1.8830073 0
6.0170002 2.3856778 1.8832707 0
6.0180001 2.3759768 1.8835341 0
6.0190005 2.3662727 1.8837975 0
6.0200005 2.3565643 1.8840609 0
6.0210004 2.3468525 1.8843241 0
6.0220003 2.3371372 1.8845874 0
6.0230002 2.3274183 1.8848507 0
6.0240002 2.3176956 1.8851142 0
6.0250006 2.3079698 1.8853776 0
6.0260005 2.2982399 1.885641 0
6.0270004 2.2885067 1.8859043 0
6.0280004 2.2787695 1.8861676 0
6.0290003 2.2690289 1.886431 0
6.0300002 2.259285 1.8866943 0
6.0310001 2.249537 1.8869575 0
6.0320005 2.2397859 1.8872211 0
6.0330005 2.2300308 1.8874844 0
6.0340004 2.2202723 1.8877478 0
6.0350003 2.21051 1.8880111 0
6.0360003 2.2007442 1.8882744 0
6.0370002 2.1909747 1.8885378 0
6.0380006 2.1812019 1.8888012 0
6.0390005 2.1714251 1.8890646 0
6.0400004 2.1616449 1.8893279 0
6.0410004 2.151861 1.8895913 0
6.0420003 2.1420734 1.8898547 0
6.0430002 2.1322825 1.8901179 0
6.0440001 2.1224875 1.8903812 0
6.0450006 2.1126895 1.8906447 0
6.0460005 2.1028876 1.890908 0
6.0470004 2.0930822 1.8911713 0
6.0480003 2.0832729 1.8914348 0
6.0490003 2.0734603 1.8916981 0
6.0500002 2.0636439 1.8919615 0
6.0510006 2.0538239 1.8922249 0
6.0520005 2.0440004 1.8924882 0
6.0530005 2.0341733 1.8927516 0
6.0530005 2.0239763 1.8927516 0
6.0540004 2.0141437 1.8930149 0
6.0550003 2.0043075 1.8932781 0
6.0560002 1.994468 1.8935416 0
6.0570002 1.9846244 1.8938049 0
6.0580006 1.9747775 1.8940684 0
6.0590005 1.964927 1.8943317 0
6.0600004 1.9550729 1.894595 0
6.0610003 1.9452149 1.8948584 0
6.0700002 1.9381528 1.8972285 0
5.9420004 3.1429489 1.8535223 0
5.9430003 3.1335258 1.8537838 0
5.9440002 3.124099 1.8540454 0
5.9450002 3.1146686 1.8543069 0
5.9460006 3.1052351 1.8545685 0
5.9470005 3.0957975 1.8548301 0
5.9480004 3.0863562 1.8550916 0
5.9490004 3.0769114 1.8553531 0
5.9490004 3.0669024 1.8553531 0
5.9500003 3.057452 1.8556147 0
5.9510002 3.0479982 1.8558762 0
5.9520001 3.0385408 1.8561378 0
5.9530005 3.0290799 1.8563994 0
5.9540005 3.0196157 1.856661 0
5.9550004 3.0101473 1.8569225 0
5.9560003 3.0006754 1.8571841 0
5.9570003 2.9911997 1.8574456 0
5.9580002 2.9817209 1.8577071 0
5.9590006 2.9722385 1.8579687 0
5.9600005 2.9627521 1.8582304 0
5.9610004 2.9532623 1.8584918 0
5.9620004 2.9437687 1.8587533 0
5.9630003 2.9342718 1.8590149 0
5.9640002 2.9247711 1.8592764 0
5.9650002 2.9152668 1.859538 0
5.9660006 2.9057591 1.8597996 0
5.9670005 2.8962476 1.860061 0
5.9670005 2.8862057 1.860061 0
5.9680004 2.876689 1.8603227 0
5.9690003 2.8671682 1.8605841 0
5.9700003 2.8576443 1.8608457 0
5.9710002 2.8481164 1.8611073 0
5.9720001 2.8385851 1.8613688 0
5.9730005 2.8290505 1.8616306 0
5.9740005 2.8195117 1.861892 0
5.9750004 2.8099694 1.8621535 0
5.9760003 2.8004239 1.8624151 0
5.9770002 2.7908742 1.8626766 0
5.9780002 2.7813213 1.8629382 0
5.9790006 2.771765 1.8631998 0
5.9800005 2.7622046 1.8634613 0
5.9810004 2.752641 1.8637229 0
5.9820004 2.7430737 1.8639843 0
5.9830003 2.7335026 1.8642459 0
5.9840002 2.7239277 1.8645074 0
5.9850001 2.7143497 1.864769 0
5.9860005 2.7047679 1.8650306 0
5.9870005 2.6951823 1.8652922 0
5.9880004 2.6855934 1.8655537 0
5.9880004 2.6755137 1.8655537 0
5.9890003 2.6659193 1.8658153 0
5.9900002 2.656321 1.8660768 0
5.9910002 2.6467195 1.8663383 0
5.9920006 2.6371145 1.8666 0
5.9930005 2.6275055 1.8668615 0
5.9940004 2.6178927 1.867123 0
5.9950004 2.6082768 1.8673846 0
5.9960003 2.5986571 1.8676461 0
5.9970002 2.5890336 1.8679076 0
5.9980001 2.5794067 1.8681692 0
5.9990005 2.5697763 1.8684307 0
6.0000005 2.560142 1.8686924 0
6.0010004 2.5505042 1.8689538 0
6.0020003 2.540863 1.8692155 0
6.0030003 2.5312181 1.8694769 0
6.0040002 2.5215695 1.8697385 0
6.0050006 2.5119176 1.8700002 0
6.0060005 2.5022616 1.8702617 0
6.0070004 2.4926021 1.8705232 0
6.0080004 2.4829392 1.8707848 0
6.0090003 2.4732723 1.8710463 0
6.0100002 2.4636023 1.8713078 0
6.0110002 2.4539285 1.8715694 0
6.0120006 2.4442511 1.8718309 0
6.0130005 2.4345701 1.8720926 0
6.0140004 2.4248853 1.872354 0
6.0150003 2.4151971 1.8726156 0
6.0150003 2.4050689 1.8726156 0
6.0160003 2.395375 1.8728771 0
6.0170002 2.3856778 1.8731387 0
6.0180001 2.3759768 1.8734002 0
6.0190005 2.3662727 1.8736619 0
6.0200005 2.3565643 1.8739233 0
6.0210004 2.3468525 1.874185 0
6.0220003 2.3371372 1.8744464 0
6.0230002 2.3274183 1.8747081 0
6.0240002 2.3176956 1.8749695 0
6.0250006 2.3079698 1.8752311 0
6.0260005 2.2982399 1.8754928 0
6.0270004 2.2885067 1.8757542 0
6.0280004 2.2787695 1.8760158 0
6.0290003 2.2690289 1.8762773 0
6.0300002 2.259285 1.8765389 0
6.0310001 2.249537 1.8768004 0
6.0320005 2.2397859 1.8770621 0
6.0330005 2.2300308 1.8773235 0
6.0340004 2.2202723 1.8775852 0
6.0350003 2.21051 1.8778466 0
6.0360003 2.2007442 1.8781081 0
6.0370002 2.1909747 1.8783697 0
6.0380006 2.1812019 1.8786314 0
6.0390005 2.1714251 1.8788929 0
6.0400004 2.1616449 1.8791544 0
6.0410004 2.151861 1.879416 0
6.0420003 2.1420734 1.8796775 0
6.0430002 2.1322825 1.8799391 0
6.0440001 2.1224875 1.8802005 0
6.0450006 2.1126895 1.8804623 0
6.0460005 2.1028876 1.8807237 0
6.0470004 2.0930822 1.8809854 0
6.0480003 2.0832729 1.8812468 0
6.0490003 2.0734603 1.8815084 0
6.0500002 2.0636439 1.8817699 0
6.0510006 2.0538239 1.8820316 0
6.0520005 2.0440004 1.882293 0
6.0530005 2.0341733 1.8825547 0
6.0530005 2.0239763 1.8825547 0
6.0540004 2.0141437 1.8828161 0
6.0550003 2.0043075 1.8830777 0
6.0560002 1.994468 1.8833392 0
6.0570002 1.9846244 1.8836007 0
6.0580006 1.9747775 1.8838625 0
6.0590005 1.964927 1.8841239 0
6.0600004 1.9550729 1.8843855 0
6.0610003 1.9452149 1.884647 0
6.0700002 1.9381528 1.8870009 0
5.9420004 3.1429489 1.8435256 0
5.9430003 3.1335258 1.8437853 0
5.9440002 3.124099 1.844045 0
5.9450002 3.1146686 1.8443047 0
5.9460006 3.1052351 1.8445647 0
5.9470005 3.0957975 1.8448244 0
5.9480004 3.0863562 1.8450841 0
5.9490004 3.0769114 1.8453438 0
5.9490004 3.0669024 1.8453438 0
5.9500003 3.057452 1.8456036 0
5.9510002 3.0479982 1.8458632 0
5.9520001 3.0385408 1.8461231 0
5.9530005 3.0290799 1.8463829 0
5.9540005 3.0196157 1.8466426 0
5.9550004 3.0101473 1.8469024 0
5.9560003 3.0006754 1.847162 0
5.9570003 2.9911997 1.8474218 0
5.9580002 2.9817209 1.8476815 0
5.9590006 2.9722385 1.8479414 0
5.9600005 2.9627521 1.8482012 0
5.9610004 2.9532623 1.8484608 0
5.9620004 2.9437687 1.8487206 0
5.9630003 2.9342718 1.8489803 0
5.9640002 2.9247711 1.8492399 0
5.9650002 2.9152668 1.8494997 0
5.9660006 2.9057591 1.8497597 0
5.9670005 2.8962476 1.8500193 0
5.9670005 2.8862057 1.8500193 0
5.9680004 2.876689 1.8502791 0
5.9690003 2.8671682 1.8505388 0
5.9700003 2.8576443 1.8507985 0
5.9710002 2.8481164 1.8510582 0
5.9720001 2.8385851 1.851318 0
5.9730005 2.8290505 1.8515779 0
5.9740005 2.8195117 1.8518376 0
5.9750004 2.8099694 1.8520973 0
5.9760003 2.8004239 1.852357 0
5.9770002 2.7908742 1.8526168 0
5.9780002 2.7813213 1.8528764 0
5.9790006 2.771765 1.8531364 0
5.9800005 2.7622046 1.8533961 0
5.9810004 2.752641 1.8536558 0
5.9820004 2.7430737 1.8539156 0
5.9830003 2.7335026 1.8541752 0
5.9840002 2.7239277 1.854435 0
5.9850001 2.7143497 1.8546947 0
5.9860005 2.7047679 1.8549545 0
5.9870005 2.6951823 1.8552144 0
5.9880004 2.6855934 1.8554741 0
5.9880004 2.6755137 1.8554741 0
5.9890003 2.6659193 1.8557338 0
5.9900002 2.656321 1.8559935 0
5.9910002 2.6467195 1.8562531 0
5.9920006 2.6371145 1.856513 0
