# .PCD v0.7 - Point Cloud Data file format
VERSION 0.7
FIELDS x y z intensity
SIZE 4 4 4 4
TYPE F F F F
COUNT 1 1 1 1
WIDTH 1484
HEIGHT 1
VIEWPOINT 0 0 0 1 0 0 0
POINTS 1484
DATA ascii
1.679 0.68534142 0.48013335 0
1.687 0.68759435 0.48060954 0
1.8690001 0.78868526 0.49144322 0
1.8710001 0.7871682 0.49156228 0
1.873 0.78564394 0.49168134 0
1.875 0.78411251 0.49180037 0
1.8770001 0.78257394 0.49191943 0
1.8790001 0.78102803 0.49203849 0
1.881 0.77947497 0.49215752 0
1.883 0.77791464 0.49227658 0
1.886 0.77690095 0.49245515 0
1.8890001 0.7758764 0.49263373 0
1.8920001 0.77484101 0.49281234 0
1.8950001 0.77379477 0.49299091 0
1.899 0.77328426 0.493229 0
1.903 0.77275932 0.49346709 0
1.908 0.77276295 0.49376473 0
1.9150001 0.77383083 0.49418139 0
1.6670001 0.68533605 0.47713363 0
1.6700001 0.68477684 0.47730678 0
1.6750001 0.68535411 0.47759539 0
1.679 0.68534142 0.47782627 0
1.687 0.68759435 0.47828805 0
1.8690001 0.78868526 0.48879343 0
1.87 0.78660178 0.48885116 0
1.8720001 0.78507936 0.48896658 0
1.8740001 0.78354979 0.48908204 0
1.876 0.78201288 0.48919749 0
1.878 0.78046888 0.48931292 0
1.88 0.77891755 0.48942837 0
1.883 0.77791464 0.48960155 0
1.885 0.77634716 0.48971698 0
1.888 0.77532434 0.48989016 0
1.891 0.7742908 0.49006331 0
1.8940001 0.77324641 0.49023646 0
1.898 0.77273774 0.49046737 0
1.9020001 0.77221465 0.49069825 0
1.9070001 0.77222002 0.49098685 0
1.9130001 0.77274853 0.49133319 0
1.6670001 0.68533605 0.47484821 0
1.6700001 0.68477684 0.47501594 0
1.6750001 0.68535411 0.47529554 0
1.679 0.68534142 0.47551921 0
1.687 0.68759435 0.47596654 0
1.8690001 0.78868526 0.48614365 0
1.87 0.78660178 0.48619956 0
1.8720001 0.78507936 0.48631138 0
1.8740001 0.78354979 0.48642322 0
1.876 0.78201288 0.48653507 0
1.878 0.78046888 0.48664689 0
1.88 0.77891755 0.48675874 0
1.8820001 0.77735907 0.48687059 0
1.885 0.77634716 0.48703831 0
1.8870001 0.77477247 0.48715016 0
1.8900001 0.77374071 0.48731792 0
1.8940001 0.77324641 0.48754159 0
1.8970001 0.77219123 0.48770934 0
1.901 0.77166986 0.48793301 0
1.906 0.77167708 0.48821259 0
1.9120001 0.77220744 0.4885481 0
1.6670001 0.68533605 0.47256276 0
1.6700001 0.68477684 0.47272509 0
1.6750001 0.68535411 0.4729957 0
1.679 0.68534142 0.47321212 0
1.687 0.68759435 0.47364503 0
1.868 0.78811699 0.48343974 0
1.87 0.78660178 0.48354796 0
1.8720001 0.78507936 0.4836562 0
1.873 0.78298694 0.48371029 0
1.875 0.78145188 0.48381853 0
1.8770001 0.77990967 0.48392677 0
1.88 0.77891755 0.48408911 0
1.8820001 0.77735907 0.48419732 0
1.8840001 0.77579337 0.48430556 0
1.8870001 0.77477247 0.48446789 0
1.8900001 0.77374071 0.48463026 0
1.893 0.77269804 0.48479259 0
1.8970001 0.77219123 0.48500904 0
1.901 0.77166986 0.4852255 0
1.9050001 0.7711342 0.48544195 0
1.911 0.77166629 0.48576665 0
1.6670001 0.68533605 0.47027734 0
1.6700001 0.68477684 0.47043428 0
1.6750001 0.68535411 0.47069582 0
1.679 0.68534142 0.47090507 0
1.687 0.68759435 0.47132355 0
1.868 0.78811699 0.48079175 0
1.87 0.78660178 0.48089635 0
1.8720001 0.78507936 0.48100099 0
1.873 0.78298694 0.48105329 0
1.875 0.78145188 0.4811579 0
1.8770001 0.77990967 0.48126253 0
1.8790001 0.77836019 0.48136717 0
1.8820001 0.77735907 0.48152408 0
1.8840001 0.77579337 0.48162872 0
1.8870001 0.77477247 0.48178566 0
1.8900001 0.77374071 0.48194256 0
1.893 0.77269804 0.4820995 0
1.8970001 0.77219123 0.48230875 0
1.901 0.77166986 0.48251799 0
1.9050001 0.7711342 0.48272723 0
1.9100001 0.77112514 0.48298877 0
1.6670001 0.68533605 0.46799192 0
1.6700001 0.68477684 0.46814343 0
1.6750001 0.68535411 0.46839598 0
1.679 0.68534142 0.46859801 0
1.687 0.68759435 0.46900207 0
1.868 0.78811699 0.47814375 0
1.87 0.78660178 0.47824475 0
1.8720001 0.78507936 0.47834578 0
1.873 0.78298694 0.4783963 0
1.875 0.78145188 0.4784973 0
1.8770001 0.77990967 0.4785983 0
1.8790001 0.77836019 0.47869933 0
1.8820001 0.77735907 0.47885084 0
1.8840001 0.77579337 0.47895187 0
1.8870001 0.77477247 0.47910339 0
1.8900001 0.77374071 0.4792549 0
1.893 0.77269804 0.47940642 0
1.896 0.77164465 0.47955793 0
1.9000001 0.77112514 0.47975996 0
1.9050001 0.7711342 0.48001251 0
1.9100001 0.77112514 0.48026502 0
1.9170001 0.7721768 0.48061857 0
1.6670001 0.68533605 0.4657065 0
1.6700001 0.68477684 0.46585259 0
1.6750001 0.68535411 0.4660961 0
1.679 0.68534142 0.46629092 0
1.687 0.68759435 0.46668053 0
1.868 0.78811699 0.47549576 0
1.87 0.78660178 0.47559315 0
1.8720001 0.78507936 0.47569057 0
1.873 0.78298694 0.47573927 0
1.875 0.78145188 0.47583666 0
1.8770001 0.77990967 0.47593409 0
1.88 0.77891755 0.47608018 0
1.8820001 0.77735907 0.4761776 0
1.8840001 0.77579337 0.476275 0
1.8870001 0.77477247 0.47642112 0
1.8900001 0.77374071 0.47656721 0
1.893 0.77269804 0.47671333 0
1.8970001 0.77219123 0.47690815 0
1.9000001 0.77112514 0.47705424 0
1.9050001 0.7711342 0.47729775 0
1.9100001 0.77112514 0.47754127 0
1.9170001 0.7721768 0.47788221 0
1.6670001 0.68533605 0.46342108 0
1.6700001 0.68477684 0.46356177 0
1.6750001 0.68535411 0.46379626 0
1.679 0.68534142 0.46398386 0
1.687 0.68759435 0.46435905 0
1.868 0.78811699 0.47284776 0
1.87 0.78660178 0.47294158 0
1.8720001 0.78507936 0.47303537 0
1.873 0.78298694 0.47308224 0
1.875 0.78145188 0.47317606 0
1.8770001 0.77990967 0.47326988 0
1.88 0.77891755 0.47341055 0
1.8820001 0.77735907 0.47350436 0
1.8840001 0.77579337 0.47359815 0
1.8870001 0.77477247 0.47373885 0
1.8900001 0.77374071 0.47387955 0
1.893 0.77269804 0.47402024 0
1.8970001 0.77219123 0.47420782 0
1.9000001 0.77112514 0.47434855 0
1.9050001 0.7711342 0.47458303 0
1.9100001 0.77112514 0.47481751 0
1.9170001 0.7721768 0.47514582 0
1.6670001 0.68533605 0.46113563 0
1.6700001 0.68477684 0.46127093 0
1.6750001 0.68535411 0.46149641 0
1.679 0.68534142 0.46167678 0
1.687 0.68759435 0.46203756 0
1.868 0.78811699 0.47019976 0
1.87 0.78660178 0.47028995 0
1.8720001 0.78507936 0.47038016 0
1.873 0.78298694 0.47042525 0
1.875 0.78145188 0.47051543 0
1.8770001 0.77990967 0.47060564 0
1.88 0.77891755 0.47074091 0
1.8820001 0.77735907 0.4708311 0
1.8840001 0.77579337 0.47092131 0
1.8870001 0.77477247 0.47105658 0
1.8900001 0.77374071 0.47119188 0
1.893 0.77269804 0.47132716 0
1.8970001 0.77219123 0.47150755 0
1.9000001 0.77112514 0.47164282 0
1.9050001 0.7711342 0.47186831 0
1.9100001 0.77112514 0.47209376 0
1.9170001 0.7721768 0.47240943 0
1.6670001 0.68533605 0.4588502 0
1.6700001 0.68477684 0.45898008 0
1.6750001 0.68535411 0.45919654 0
1.679 0.68534142 0.45936972 0
1.687 0.68759435 0.45971605 0
1.868 0.78811699 0.4675518 0
1.87 0.78660178 0.46763837 0
1.8720001 0.78507936 0.46772495 0
1.873 0.78298694 0.46776825 0
1.875 0.78145188 0.46785483 0
1.8770001 0.77990967 0.4679414 0
1.88 0.77891755 0.46807128 0
1.8820001 0.77735907 0.46815786 0
1.8840001 0.77579337 0.46824443 0
1.8870001 0.77477247 0.46837431 0
1.8900001 0.77374071 0.46850419 0
1.893 0.77269804 0.46863407 0
1.8970001 0.77219123 0.46880722 0
1.9000001 0.77112514 0.4689371 0
1.9050001 0.7711342 0.46915358 0
1.9100001 0.77112514 0.46937001 0
1.9170001 0.7721768 0.46967307 0
1.6670001 0.68533605 0.45656478 0
1.6700001 0.68477684 0.45668924 0
1.6750001 0.68535411 0.45689669 0
1.679 0.68534142 0.45706263 0
1.687 0.68759435 0.45739454 0
1.868 0.78811699 0.4649038 0
1.87 0.78660178 0.46498677 0
1.8720001 0.78507936 0.46506974 0
1.873 0.78298694 0.46511123 0
1.875 0.78145188 0.4651942 0
1.8770001 0.77990967 0.46527719 0
1.88 0.77891755 0.46540165 0
1.8820001 0.77735907 0.46548462 0
1.8840001 0.77579337 0.46556759 0
1.8870001 0.77477247 0.46569207 0
1.8900001 0.77374071 0.46581653 0
1.893 0.77269804 0.46594098 0
1.8970001 0.77219123 0.46610695 0
1.9000001 0.77112514 0.46623141 0
1.9050001 0.7711342 0.46643883 0
1.9100001 0.77112514 0.46664628 0
1.9170001 0.7721768 0.46693671 0
1.6670001 0.68533605 0.45427936 0
1.6700001 0.68477684 0.45439842 0
1.6750001 0.68535411 0.45459685 0
1.679 0.68534142 0.45475557 0
1.687 0.68759435 0.45507303 0
1.868 0.78811699 0.46225581 0
1.87 0.78660178 0.46233517 0
1.8720001 0.78507936 0.46241453 0
1.873 0.78298694 0.46245423 0
1.875 0.78145188 0.46253359 0
1.8770001 0.77990967 0.46261296 0
1.88 0.77891755 0.46273202 0
1.8820001 0.77735907 0.46281138 0
1.8840001 0.77579337 0.46289074 0
1.8870001 0.77477247 0.4630098 0
1.8900001 0.77374071 0.46312886 0
1.893 0.77269804 0.4632479 0
1.8970001 0.77219123 0.46340662 0
1.9000001 0.77112514 0.46352568 0
1.9050001 0.7711342 0.46372411 0
1.9100001 0.77112514 0.46392253 0
1.9170001 0.7721768 0.46420032 0
1.6670001 0.68533605 0.45199394 0
1.6700001 0.68477684 0.45210758 0
1.6750001 0.68535411 0.45229697 0
1.679 0.68534142 0.45244849 0
1.687 0.68759435 0.45275155 0
1.868 0.78811699 0.45960781 0
1.87 0.78660178 0.45968357 0
1.8720001 0.78507936 0.45975932 0
1.873 0.78298694 0.4597972 0
1.875 0.78145188 0.45987296 0
1.8770001 0.77990967 0.45994872 0
1.88 0.77891755 0.46006238 0
1.8820001 0.77735907 0.46013814 0
1.8840001 0.77579337 0.4602139 0
1.8870001 0.77477247 0.46032754 0
1.8900001 0.77374071 0.46044117 0
1.893 0.77269804 0.46055481 0
1.8970001 0.77219123 0.46070632 0
1.9000001 0.77112514 0.46081996 0
1.9050001 0.7711342 0.46100938 0
1.9100001 0.77112514 0.46119878 0
1.9170001 0.7721768 0.46146393 0
1.6670001 0.68533605 0.44970852 0
1.6700001 0.68477684 0.44981673 0
1.6750001 0.68535411 0.44999713 0
1.679 0.68534142 0.45014143 0
1.687 0.68759435 0.45043004 0
1.868 0.78811699 0.45695981 0
1.87 0.78660178 0.45703197 0
1.8720001 0.78507936 0.45710415 0
1.873 0.78298694 0.45714021 0
1.875 0.78145188 0.45721236 0
1.8770001 0.77990967 0.45728451 0
1.88 0.77891755 0.45739275 0
1.8820001 0.77735907 0.4574649 0
1.8840001 0.77579337 0.45753706 0
1.8870001 0.77477247 0.45764527 0
1.8900001 0.77374071 0.45775351 0
1.893 0.77269804 0.45786172 0
1.8970001 0.77219123 0.45800602 0
1.9000001 0.77112514 0.45811427 0
1.9050001 0.7711342 0.45829463 0
1.9100001 0.77112514 0.45847502 0
1.9170001 0.7721768 0.45872757 0
1.6670001 0.68533605 0.4474231 0
1.6700001 0.68477684 0.44752592 0
1.6750001 0.68535411 0.44769728 0
1.679 0.68534142 0.44783437 0
1.687 0.68759435 0.44810852 0
1.868 0.78811699 0.45431185 0
1.87 0.78660178 0.45438036 0
1.8720001 0.78507936 0.45444894 0
1.873 0.78298694 0.45448321 0
1.875 0.78145188 0.45455173 0
1.8770001 0.77990967 0.4546203 0
1.88 0.77891755 0.45472309 0
1.8820001 0.77735907 0.45479167 0
1.8840001 0.77579337 0.45486018 0
1.8870001 0.77477247 0.454963 0
1.8900001 0.77374071 0.45506582 0
1.893 0.77269804 0.45516863 0
1.8970001 0.77219123 0.45530573 0
1.9000001 0.77112514 0.45540854 0
1.9050001 0.7711342 0.45557991 0
1.9100001 0.77112514 0.45575127 0
1.9170001 0.7721768 0.45599118 0
1.6670001 0.68533605 0.44513768 0
1.6700001 0.68477684 0.44523507 0
1.6750001 0.68535411 0.44539741 0
1.679 0.68534142 0.44552729 0
1.687 0.68759435 0.44578704 0
1.868 0.78811699 0.45166385 0
1.87 0.78660178 0.45172879 0
1.8720001 0.78507936 0.45179373 0
1.873 0.78298694 0.45182618 0
1.875 0.78145188 0.45189112 0
1.8770001 0.77990967 0.45195606 0
1.88 0.77891755 0.45205346 0
1.8820001 0.77735907 0.4521184 0
1.8840001 0.77579337 0.45218334 0
1.8870001 0.77477247 0.45228076 0
1.8900001 0.77374071 0.45237815 0
1.893 0.77269804 0.45247555 0
1.8970001 0.77219123 0.45260543 0
1.9000001 0.77112514 0.45270285 0
1.9050001 0.7711342 0.45286518 0
1.9100001 0.77112514 0.45302752 0
1.9170001 0.7721768 0.45325482 0
1.6670001 0.68533605 0.44285223 0
1.6700001 0.68477684 0.44294423 0
1.6750001 0.68535411 0.44309756 0
1.679 0.68534142 0.4432202 0
1.687 0.68759435 0.44346553 0
1.868 0.78811699 0.44901586 0
1.87 0.78660178 0.44907719 0
1.8720001 0.78507936 0.44913852 0
1.873 0.78298694 0.44916916 0
1.875 0.78145188 0.44923049 0
1.8770001 0.77990967 0.44929183 0
1.88 0.77891755 0.44938383 0
1.8820001 0.77735907 0.44944516 0
1.8840001 0.77579337 0.44950649 0
1.8870001 0.77477247 0.44959849 0
1.8900001 0.77374071 0.44969046 0
1.893 0.77269804 0.44978246 0
1.8970001 0.77219123 0.44990513 0
1.9000001 0.77112514 0.44999713 0
1.9050001 0.7711342 0.45015046 0
1.9100001 0.77112514 0.45030376 0
1.9170001 0.7721768 0.45051843 0
1.6670001 0.68533605 0.44056681 0
1.6700001 0.68477684 0.44065338 0
1.6750001 0.68535411 0.44079769 0
1.679 0.68534142 0.44091314 0
1.687 0.68759435 0.44114405 0
1.868 0.78811699 0.44636786 0
1.87 0.78660178 0.44642559 0
1.8720001 0.78507936 0.44648331 0
1.873 0.78298694 0.44651216 0
1.875 0.78145188 0.44656989 0
1.8770001 0.77990967 0.44662762 0
1.88 0.77891755 0.44671419 0
1.8820001 0.77735907 0.44677192 0
1.8840001 0.77579337 0.44682965 0
1.8870001 0.77477247 0.44691622 0
1.8900001 0.77374071 0.4470028 0
1.893 0.77269804 0.44708937 0
1.8970001 0.77219123 0.44720483 0
1.9000001 0.77112514 0.4472914 0
1.9050001 0.7711342 0.44743571 0
1.9100001 0.77112514 0.44758001 0
1.9170001 0.7721768 0.44778204 0
1.6670001 0.68533605 0.43828139 0
1.6700001 0.68477684 0.43836257 0
1.6750001 0.68535411 0.43849784 0
1.679 0.68534142 0.43860608 0
1.687 0.68759435 0.43882254 0
1.868 0.78811699 0.44371986 0
1.87 0.78660178 0.44377398 0
1.8720001 0.78507936 0.44382811 0
1.873 0.78298694 0.44385517 0
1.875 0.78145188 0.44390926 0
1.8770001 0.77990967 0.44396338 0
1.88 0.77891755 0.44404456 0
1.8820001 0.77735907 0.44409868 0
1.8840001 0.77579337 0.44415277 0
1.8870001 0.77477247 0.44423395 0
1.8900001 0.77374071 0.44431514 0
1.893 0.77269804 0.44439629 0
1.8970001 0.77219123 0.44450453 0
1.9000001 0.77112514 0.44458571 0
1.9050001 0.7711342 0.44472098 0
1.9100001 0.77112514 0.44485629 0
1.9170001 0.7721768 0.44504568 0
1.6670001 0.68533605 0.43599597 0
1.6700001 0.68477684 0.43607172 0
1.6750001 0.68535411 0.436198 0
1.679 0.68534142 0.436299 0
1.687 0.68759435 0.43650103 0
1.868 0.78811699 0.44107187 0
1.87 0.78660178 0.44112238 0
1.8720001 0.78507936 0.4411729 0
1.873 0.78298694 0.44119814 0
1.875 0.78145188 0.44124866 0
1.8770001 0.77990967 0.44129917 0
1.88 0.77891755 0.44137493 0
1.8820001 0.77735907 0.44142544 0
1.8840001 0.77579337 0.44147593 0
1.8870001 0.77477247 0.44155169 0
1.8900001 0.77374071 0.44162744 0
1.893 0.77269804 0.4417032 0
1.8970001 0.77219123 0.44180423 0
1.9000001 0.77112514 0.44187999 0
1.9050001 0.7711342 0.44200626 0
1.9100001 0.77112514 0.44213253 0
1.9170001 0.7721768 0.44230929 0
1.6670001 0.68533605 0.43371055 0
1.6700001 0.68477684 0.43378088 0
1.6750001 0.68535411 0.43389815 0
1.679 0.68534142 0.43399194 0
1.687 0.68759435 0.43417954 0
1.868 0.78811699 0.4384239 0
1.87 0.78660178 0.43847078 0
1.8720001 0.78507936 0.43851769 0
1.873 0.78298694 0.43854114 0
1.875 0.78145188 0.43858802 0
1.8770001 0.77990967 0.43863493 0
1.88 0.77891755 0.4387053 0
1.8820001 0.77735907 0.43875217 0
1.8840001 0.77579337 0.43879908 0
1.8870001 0.77477247 0.43886942 0
1.8900001 0.77374071 0.43893978 0
1.893 0.77269804 0.43901014 0
1.8970001 0.77219123 0.43910393 0
1.9000001 0.77112514 0.43917426 0
1.9050001 0.7711342 0.43929154 0
1.9100001 0.77112514 0.43940878 0
1.9170001 0.7721768 0.43957293 0
1.6670001 0.68533605 0.43142512 0
1.6700001 0.68477684 0.43149006 0
1.6750001 0.68535411 0.43159828 0
1.679 0.68534142 0.43168485 0
1.687 0.68759435 0.43185803 0
1.868 0.78811699 0.43577591 0
1.87 0.78660178 0.43581918 0
1.8720001 0.78507936 0.43586248 0
1.873 0.78298694 0.43588412 0
1.875 0.78145188 0.43592742 0
1.8770001 0.77990967 0.43597072 0
1.88 0.77891755 0.43603563 0
1.8820001 0.77735907 0.43607894 0
1.8840001 0.77579337 0.43612224 0
1.8870001 0.77477247 0.43618718 0
1.8900001 0.77374071 0.43625212 0
1.893 0.77269804 0.43631703 0
1.8970001 0.77219123 0.43640363 0
1.9000001 0.77112514 0.43646857 0
1.9050001 0.7711342 0.43657678 0
1.9100001 0.77112514 0.43668503 0
1.9170001 0.7721768 0.43683654 0
1.6670001 0.68533605 0.4291397 0
1.6700001 0.68477684 0.42919922 0
1.6750001 0.68535411 0.42929843 0
1.679 0.68534142 0.42937779 0
1.687 0.68759435 0.42953652 0
1.868 0.78811699 0.43312791 0
1.87 0.78660178 0.43316758 0
1.8720001 0.78507936 0.43320727 0
1.873 0.78298694 0.43322712 0
1.875 0.78145188 0.43326679 0
1.8770001 0.77990967 0.43330649 0
1.88 0.77891755 0.433366 0
1.8820001 0.77735907 0.4334057 0
1.8840001 0.77579337 0.43344539 0
1.8870001 0.77477247 0.43350491 0
1.8900001 0.77374071 0.43356442 0
1.893 0.77269804 0.43362397 0
1.8970001 0.77219123 0.43370333 0
1.9000001 0.77112514 0.43376285 0
1.9050001 0.7711342 0.43386206 0
1.9100001 0.77112514 0.43396127 0
1.9170001 0.7721768 0.43410015 0
1.6670001 0.68533605 0.42685425 0
1.6700001 0.68477684 0.42690837 0
1.6750001 0.68535411 0.42699856 0
1.679 0.68534142 0.42707074 0
1.687 0.68759435 0.42721504 0
1.868 0.78811699 0.43047991 0
1.87 0.78660178 0.430516 0
1.8720001 0.78507936 0.43055207 0
1.873 0.78298694 0.4305701 0
1.875 0.78145188 0.43060619 0
1.8770001 0.77990967 0.43064225 0
1.88 0.77891755 0.43069637 0
1.8820001 0.77735907 0.43073246 0
1.8840001 0.77579337 0.43076852 0
1.8870001 0.77477247 0.43082264 0
1.8900001 0.77374071 0.43087676 0
1.893 0.77269804 0.43093088 0
1.8970001 0.77219123 0.43100303 0
1.9000001 0.77112514 0.43105713 0
1.9050001 0.7711342 0.43114734 0
1.9100001 0.77112514 0.43123752 0
1.9170001 0.7721768 0.43136379 0
1.6670001 0.68533605 0.42456883 0
1.6700001 0.68477684 0.42461753 0
1.6750001 0.68535411 0.42469871 0
1.679 0.68534142 0.42476365 0
1.687 0.68759435 0.42489353 0
1.868 0.78811699 0.42783192 0
1.87 0.78660178 0.4278644 0
1.8720001 0.78507936 0.42789686 0
1.873 0.78298694 0.4279131 0
1.875 0.78145188 0.42794555 0
1.8770001 0.77990967 0.42797804 0
1.88 0.77891755 0.42802674 0
1.8820001 0.77735907 0.42805922 0
1.8840001 0.77579337 0.42809168 0
1.8870001 0.77477247 0.42814037 0
1.8900001 0.77374071 0.42818907 0
1.893 0.77269804 0.4282378 0
1.8970001 0.77219123 0.42830274 0
1.9000001 0.77112514 0.42835143 0
1.9050001 0.7711342 0.42843258 0
1.9100001 0.77112514 0.42851377 0
1.9170001 0.7721768 0.4286274 0
1.6670001 0.68533605 0.42228341 0
1.6700001 0.68477684 0.42232671 0
1.6750001 0.68535411 0.42239887 0
1.679 0.68534142 0.42245659 0
1.687 0.68759435 0.42257202 0
1.868 0.78811699 0.42518395 0
1.87 0.78660178 0.4252128 0
1.8720001 0.78507936 0.42524165 0
1.873 0.78298694 0.4252561 0
1.875 0.78145188 0.42528495 0
1.8770001 0.77990967 0.4253138 0
1.88 0.77891755 0.4253571 0
1.8820001 0.77735907 0.42538595 0
1.8840001 0.77579337 0.42541483 0
1.8870001 0.77477247 0.4254581 0
1.8900001 0.77374071 0.42550141 0
1.893 0.77269804 0.42554471 0
1.8970001 0.77219123 0.42560244 0
1.9000001 0.77112514 0.42564571 0
1.9050001 0.7711342 0.42571786 0
1.9100001 0.77112514 0.42579001 0
1.9170001 0.7721768 0.42589104 0
1.6670001 0.68533605 0.41999799 0
1.6700001 0.68477684 0.42003587 0
1.6750001 0.68535411 0.42009899 0
1.679 0.68534142 0.42014951 0
1.687 0.68759435 0.42025054 0
1.868 0.78811699 0.42253596 0
1.87 0.78660178 0.4225612 0
1.8720001 0.78507936 0.42258644 0
1.873 0.78298694 0.42259908 0
1.875 0.78145188 0.42262432 0
1.8770001 0.77990967 0.42264959 0
1.88 0.77891755 0.42268747 0
1.8820001 0.77735907 0.42271271 0
1.8840001 0.77579337 0.42273799 0
1.8870001 0.77477247 0.42277586 0
1.8900001 0.77374071 0.42281374 0
1.893 0.77269804 0.42285162 0
1.8970001 0.77219123 0.42290211 0
1.9000001 0.77112514 0.42294002 0
1.9050001 0.7711342 0.42300314 0
1.9100001 0.77112514 0.42306626 0
1.9170001 0.7721768 0.42315465 0
1.6670001 0.68533605 0.41771257 0
1.6700001 0.68477684 0.41774502 0
1.6750001 0.68535411 0.41779914 0
1.679 0.68534142 0.41784245 0
1.687 0.68759435 0.41792902 0
1.868 0.78811699 0.41988796 0
1.87 0.78660178 0.4199096 0
1.8720001 0.78507936 0.41993126 0
1.873 0.78298694 0.41994208 0
1.875 0.78145188 0.41996372 0
1.8770001 0.77990967 0.41998535 0
1.88 0.77891755 0.42001784 0
1.8820001 0.77735907 0.42003947 0
1.8840001 0.77579337 0.42006111 0
1.8870001 0.77477247 0.4200936 0
1.8900001 0.77374071 0.42012605 0
1.893 0.77269804 0.42015854 0
1.8970001 0.77219123 0.42020181 0
1.9000001 0.77112514 0.42023429 0
1.9050001 0.7711342 0.42028841 0
1.9100001 0.77112514 0.4203425 0
1.9170001 0.7721768 0.42041826 0
1.6670001 0.68533605 0.41542715 0
1.6700001 0.68477684 0.41545421 0
1.6750001 0.68535411 0.4154993 0
1.679 0.68534142 0.41553536 0
1.687 0.68759435 0.41560751 0
1.868 0.78811699 0.41723996 0
1.87 0.78660178 0.41725799 0
1.8720001 0.78507936 0.41727605 0
1.873 0.78298694 0.41728505 0
1.875 0.78145188 0.41730309 0
1.8770001 0.77990967 0.41732115 0
1.88 0.77891755 0.41734821 0
1.8820001 0.77735907 0.41736624 0
1.8840001 0.77579337 0.41738427 0
1.8870001 0.77477247 0.41741133 0
1.8900001 0.77374071 0.41743839 0
1.893 0.77269804 0.41746545 0
1.8970001 0.77219123 0.41750151 0
1.9000001 0.77112514 0.41752857 0
1.9050001 0.7711342 0.41757366 0
1.9100001 0.77112514 0.41761875 0
1.9170001 0.7721768 0.4176819 0
1.6670001 0.68533605 0.41314173 0
1.6700001 0.68477684 0.41316336 0
1.6750001 0.68535411 0.41319942 0
1.679 0.68534142 0.4132283 0
1.687 0.68759435 0.41328603 0
1.868 0.78811699 0.41459197 0
1.87 0.78660178 0.41460639 0
1.8720001 0.78507936 0.41462085 0
1.873 0.78298694 0.41462806 0
1.875 0.78145188 0.41464248 0
1.8770001 0.77990967 0.41465691 0
1.88 0.77891755 0.41467857 0
1.8820001 0.77735907 0.414693 0
1.8840001 0.77579337 0.41470742 0
1.8870001 0.77477247 0.41472906 0
1.8900001 0.77374071 0.41475073 0
1.893 0.77269804 0.41477236 0
1.8970001 0.77219123 0.41480121 0
1.9000001 0.77112514 0.41482288 0
1.9050001 0.7711342 0.41485894 0
1.9100001 0.77112514 0.41489503 0
1.9170001 0.7721768 0.41494551 0
1.6670001 0.68533605 0.41085628 0
1.6700001 0.68477684 0.41087252 0
1.6750001 0.68535411 0.41089958 0
1.679 0.68534142 0.41092122 0
1.687 0.68759435 0.41096452 0
1.868 0.78811699 0.41194397 0
1.87 0.78660178 0.41195482 0
1.8720001 0.78507936 0.41196564 0
1.873 0.78298694 0.41197103 0
1.875 0.78145188 0.41198188 0
1.8770001 0.77990967 0.4119927 0
1.88 0.77891755 0.41200891 0
1.8820001 0.77735907 0.41201976 0
1.8840001 0.77579337 0.41203058 0
1.8870001 0.77477247 0.41204679 0
1.8900001 0.77374071 0.41206303 0
1.893 0.77269804 0.41207927 0
1.8970001 0.77219123 0.41210091 0
1.9000001 0.77112514 0.41211715 0
1.9050001 0.7711342 0.41214421 0
1.9100001 0.77112514 0.41217127 0
1.9170001 0.7721768 0.41220915 0
1.6670001 0.68533605 0.40857086 0
1.6700001 0.68477684 0.40858167 0
1.6750001 0.68535411 0.40859973 0
1.679 0.68534142 0.40861416 0
1.687 0.68759435 0.40864301 0
1.868 0.78811699 0.40929601 0
1.87 0.78660178 0.40930322 0
1.8720001 0.78507936 0.40931043 0
1.873 0.78298694 0.40931404 0
1.875 0.78145188 0.40932125 0
1.8770001 0.77990967 0.40932846 0
1.88 0.77891755 0.40933928 0
1.8820001 0.77735907 0.40934649 0
1.8840001 0.77579337 0.4093537 0
1.8870001 0.77477247 0.40936455 0
1.8900001 0.77374071 0.40937537 0
1.893 0.77269804 0.40938619 0
1.8970001 0.77219123 0.40940061 0
1.9000001 0.77112514 0.40941143 0
1.9050001 0.7711342 0.40942949 0
1.9100001 0.77112514 0.40944752 0
1.9170001 0.7721768 0.40947276 0
1.6670001 0.68533605 0.40628543 0
1.6700001 0.68477684 0.40629086 0
1.6750001 0.68535411 0.40629986 0
1.679 0.68534142 0.40630707 0
1.687 0.68759435 0.40632153 0
1.868 0.78811699 0.40664801 0
1.87 0.78660178 0.40665162 0
1.8720001 0.78507936 0.40665522 0
1.873 0.78298694 0.40665701 0
1.875 0.78145188 0.40666062 0
1.8770001 0.77990967 0.40666425 0
1.88 0.77891755 0.40666965 0
1.8820001 0.77735907 0.40667325 0
1.8840001 0.77579337 0.40667686 0
1.8870001 0.77477247 0.40668228 0
1.8900001 0.77374071 0.40668768 0
1.893 0.77269804 0.4066931 0
1.8970001 0.77219123 0.40670031 0
1.9000001 0.77112514 0.40670574 0
1.9050001 0.7711342 0.40671474 0
1.9100001 0.77112514 0.40672377 0
1.9170001 0.7721768 0.4067364 0
1.6670001 0.68533605 0.40400001 0
1.6700001 0.68477684 0.40400001 0
1.6750001 0.68535411 0.40400001 0
1.679 0.68534142 0.40400001 0
1.687 0.68759435 0.40400001 0
1.868 0.78811699 0.40400001 0
1.87 0.78660178 0.40400001 0
1.8720001 0.78507936 0.40400001 0
1.873 0.78298694 0.40400001 0
1.875 0.78145188 0.40400001 0
1.8770001 0.77990967 0.40400001 0
1.88 0.77891755 0.40400001 0
1.8820001 0.77735907 0.40400001 0
1.8840001 0.77579337 0.40400001 0
1.8870001 0.77477247 0.40400001 0
1.8900001 0.77374071 0.40400001 0
1.893 0.77269804 0.40400001 0
1.8970001 0.77219123 0.40400001 0
1.9000001 0.77112514 0.40400001 0
1.9050001 0.7711342 0.40400001 0
1.9100001 0.77112514 0.40400001 0
1.9170001 0.7721768 0.40400001 0
1.6670001 0.68533605 0.40171459 0
1.6700001 0.68477684 0.40170917 0
1.6750001 0.68535411 0.40170017 0
1.679 0.68534142 0.40169296 0
1.687 0.68759435 0.4016785 0
1.868 0.78811699 0.40135202 0
1.87 0.78660178 0.40134841 0
1.8720001 0.78507936 0.40134481 0
1.873 0.78298694 0.40134302 0
1.875 0.78145188 0.40133941 0
1.8770001 0.77990967 0.40133578 0
1.88 0.77891755 0.40133038 0
1.8820001 0.77735907 0.40132678 0
1.8840001 0.77579337 0.40132317 0
1.8870001 0.77477247 0.40131775 0
1.8900001 0.77374071 0.40131235 0
1.893 0.77269804 0.40130693 0
1.8970001 0.77219123 0.40129972 0
1.9000001 0.77112514 0.40129429 0
1.9050001 0.7711342 0.40128529 0
1.9100001 0.77112514 0.40127626 0
1.9170001 0.7721768 0.40126362 0
1.6670001 0.68533605 0.39942917 0
1.6700001 0.68477684 0.39941835 0
1.6750001 0.68535411 0.39940029 0
1.679 0.68534142 0.39938587 0
1.687 0.68759435 0.39935702 0
1.868 0.78811699 0.39870402 0
1.87 0.78660178 0.39869681 0
1.8720001 0.78507936 0.3986896 0
1.873 0.78298694 0.39868599 0
1.875 0.78145188 0.39867878 0
1.8770001 0.77990967 0.39867157 0
1.88 0.77891755 0.39866075 0
1.8820001 0.77735907 0.39865354 0
1.8840001 0.77579337 0.39864632 0
1.8870001 0.77477247 0.39863548 0
1.8900001 0.77374071 0.39862466 0
1.893 0.77269804 0.39861384 0
1.8970001 0.77219123 0.39859942 0
1.9000001 0.77112514 0.3985886 0
1.9050001 0.7711342 0.39857054 0
1.9100001 0.77112514 0.39855251 0
1.9170001 0.7721768 0.39852726 0
1.6670001 0.68533605 0.39714375 0
1.6700001 0.68477684 0.39712751 0
1.6750001 0.68535411 0.39710045 0
1.679 0.68534142 0.39707881 0
1.687 0.68759435 0.39703551 0
1.868 0.78811699 0.39605606 0
1.87 0.78660178 0.39604521 0
1.8720001 0.78507936 0.39603439 0
1.873 0.78298694 0.396029 0
1.875 0.78145188 0.39601815 0
1.8770001 0.77990967 0.39600733 0
1.88 0.77891755 0.39599112 0
1.8820001 0.77735907 0.39598027 0
1.8840001 0.77579337 0.39596945 0
1.8870001 0.77477247 0.39595324 0
1.8900001 0.77374071 0.395937 0
1.893 0.77269804 0.39592075 0
1.8970001 0.77219123 0.39589912 0
1.9000001 0.77112514 0.39588287 0
1.9050001 0.7711342 0.39585581 0
1.9100001 0.77112514 0.39582875 0
1.9170001 0.7721768 0.39579087 0
1.6670001 0.68533605 0.3948583 0
1.6700001 0.68477684 0.39483666 0
1.6750001 0.68535411 0.3948006 0
1.679 0.68534142 0.39477172 0
1.687 0.68759435 0.394714 0
1.868 0.78811699 0.39340806 0
1.87 0.78660178 0.39339364 0
1.8720001 0.78507936 0.39337918 0
1.873 0.78298694 0.39337197 0
1.875 0.78145188 0.39335755 0
1.8770001 0.77990967 0.39334312 0
1.88 0.77891755 0.39332145 0
1.8820001 0.77735907 0.39330703 0
1.8840001 0.77579337 0.39329261 0
1.8870001 0.77477247 0.39327097 0
1.8900001 0.77374071 0.3932493 0
1.893 0.77269804 0.39322767 0
1.8970001 0.77219123 0.39319882 0
1.9000001 0.77112514 0.39317715 0
1.9050001 0.7711342 0.39314109 0
1.9100001 0.77112514 0.393105 0
1.9170001 0.7721768 0.39305452 0
1.6670001 0.68533605 0.39257288 0
1.6700001 0.68477684 0.39254582 0
1.6750001 0.68535411 0.39250073 0
1.679 0.68534142 0.39246467 0
1.687 0.68759435 0.39239252 0
1.868 0.78811699 0.39076006 0
1.87 0.78660178 0.39074203 0
1.8720001 0.78507936 0.39072397 0
1.873 0.78298694 0.39071497 0
1.875 0.78145188 0.39069694 0
1.8770001 0.77990967 0.39067888 0
1.88 0.77891755 0.39065182 0
1.8820001 0.77735907 0.39063379 0
1.8840001 0.77579337 0.39061576 0
1.8870001 0.77477247 0.3905887 0
1.8900001 0.77374071 0.39056164 0
1.893 0.77269804 0.39053458 0
1.8970001 0.77219123 0.39049852 0
1.9000001 0.77112514 0.39047146 0
1.9050001 0.7711342 0.39042637 0
1.9100001 0.77112514 0.39038128 0
1.9170001 0.7721768 0.39031813 0
1.6670001 0.68533605 0.39028746 0
1.6700001 0.68477684 0.390255 0
1.6750001 0.68535411 0.39020088 0
1.679 0.68534142 0.39015758 0
1.687 0.68759435 0.390071 0
1.868 0.78811699 0.38811207 0
1.87 0.78660178 0.38809043 0
1.8720001 0.78507936 0.38806877 0
1.873 0.78298694 0.38805795 0
1.875 0.78145188 0.38803631 0
1.8770001 0.77990967 0.38801467 0
1.88 0.77891755 0.38798219 0
1.8820001 0.77735907 0.38796055 0
1.8840001 0.77579337 0.38793892 0
1.8870001 0.77477247 0.38790643 0
1.8900001 0.77374071 0.38787398 0
1.893 0.77269804 0.38784149 0
1.8970001 0.77219123 0.38779822 0
1.9000001 0.77112514 0.38776574 0
1.9050001 0.7711342 0.38771161 0
1.9100001 0.77112514 0.38765752 0
1.9170001 0.7721768 0.38758177 0
1.6670001 0.68533605 0.38800204 0
1.6700001 0.68477684 0.38796416 0
1.6750001 0.68535411 0.38790104 0
1.679 0.68534142 0.38785052 0
1.687 0.68759435 0.38774949 0
1.868 0.78811699 0.38546407 0
1.87 0.78660178 0.38543883 0
1.8720001 0.78507936 0.38541359 0
1.873 0.78298694 0.38540095 0
1.875 0.78145188 0.38537571 0
1.8770001 0.77990967 0.38535044 0
1.88 0.77891755 0.38531256 0
1.8820001 0.77735907 0.38528731 0
1.8840001 0.77579337 0.38526204 0
1.8870001 0.77477247 0.38522416 0
1.8900001 0.77374071 0.38518628 0
1.893 0.77269804 0.38514841 0
1.8970001 0.77219123 0.38509792 0
1.9000001 0.77112514 0.38506001 0
1.9050001 0.7711342 0.38499689 0
1.9100001 0.77112514 0.38493377 0
1.9170001 0.7721768 0.38484538 0
1.6670001 0.68533605 0.38571662 0
1.6700001 0.68477684 0.38567331 0
1.6750001 0.68535411 0.38560116 0
1.679 0.68534142 0.38554344 0
1.687 0.68759435 0.38542801 0
1.868 0.78811699 0.38281608 0
1.87 0.78660178 0.38278723 0
1.8720001 0.78507936 0.38275838 0
1.873 0.78298694 0.38274392 0
1.875 0.78145188 0.38271508 0
1.8770001 0.77990967 0.38268623 0
1.88 0.77891755 0.38264292 0
1.8820001 0.77735907 0.38261408 0
1.8840001 0.77579337 0.3825852 0
1.8870001 0.77477247 0.38254192 0
1.8900001 0.77374071 0.38249862 0
1.893 0.77269804 0.38245532 0
1.8970001 0.77219123 0.38239759 0
1.9000001 0.77112514 0.38235432 0
1.9050001 0.7711342 0.38228217 0
1.9100001 0.77112514 0.38221002 0
1.9170001 0.7721768 0.38210899 0
1.6670001 0.68533605 0.3834312 0
1.6700001 0.68477684 0.3833825 0
1.6750001 0.68535411 0.38330132 0
1.679 0.68534142 0.38323638 0
1.687 0.68759435 0.3831065 0
1.868 0.78811699 0.38016811 0
1.87 0.78660178 0.38013563 0
1.8720001 0.78507936 0.38010317 0
1.873 0.78298694 0.38008693 0
1.875 0.78145188 0.38005447 0
1.8770001 0.77990967 0.38002199 0
1.88 0.77891755 0.37997329 0
1.8820001 0.77735907 0.37994081 0
1.8840001 0.77579337 0.37990835 0
1.8870001 0.77477247 0.37985966 0
1.8900001 0.77374071 0.37981096 0
1.893 0.77269804 0.37976223 0
1.8970001 0.77219123 0.37969729 0
1.9000001 0.77112514 0.3796486 0
1.9050001 0.7711342 0.37956744 0
1.9100001 0.77112514 0.37948626 0
1.9170001 0.7721768 0.37937263 0
1.6670001 0.68533605 0.38114578 0
1.6700001 0.68477684 0.38109165 0
1.6750001 0.68535411 0.38100147 0
1.679 0.68534142 0.38092929 0
1.687 0.68759435 0.38078499 0
1.868 0.78811699 0.37752011 0
1.87 0.78660178 0.37748402 0
1.8720001 0.78507936 0.37744796 0
1.873 0.78298694 0.37742993 0
1.875 0.78145188 0.37739384 0
1.8770001 0.77990967 0.37735778 0
1.88 0.77891755 0.37730366 0
1.8820001 0.77735907 0.37726757 0
1.8840001 0.77579337 0.37723151 0
1.8870001 0.77477247 0.37717739 0
1.8900001 0.77374071 0.37712327 0
1.893 0.77269804 0.37706915 0
1.8970001 0.77219123 0.37699699 0
1.9000001 0.77112514 0.3769429 0
1.9050001 0.7711342 0.37685269 0
1.9100001 0.77112514 0.37676251 0
1.9170001 0.7721768 0.37663624 0
1.6670001 0.68533605 0.37886032 0
1.6700001 0.68477684 0.37880081 0
1.6750001 0.68535411 0.3787016 0
1.679 0.68534142 0.37862223 0
1.687 0.68759435 0.37846351 0
1.868 0.78811699 0.37487212 0
1.87 0.78660178 0.37483245 0
1.8720001 0.78507936 0.37479275 0
1.873 0.78298694 0.37477291 0
1.875 0.78145188 0.37473324 0
1.8770001 0.77990967 0.37469354 0
1.88 0.77891755 0.37463403 0
1.8820001 0.77735907 0.37459433 0
1.8840001 0.77579337 0.37455463 0
1.8870001 0.77477247 0.37449512 0
1.8900001 0.77374071 0.3744356 0
1.893 0.77269804 0.37437606 0
1.8970001 0.77219123 0.37429669 0
1.9000001 0.77112514 0.37423718 0
1.9050001 0.7711342 0.37413797 0
1.9100001 0.77112514 0.37403876 0
1.9170001 0.7721768 0.37389988 0
1.6670001 0.68533605 0.3765749 0
1.6700001 0.68477684 0.37650996 0
1.6750001 0.68535411 0.37640175 0
1.679 0.68534142 0.37631518 0
1.687 0.68759435 0.376142 0
1.868 0.78811699 0.37222412 0
1.87 0.78660178 0.37218085 0
1.8720001 0.78507936 0.37213755 0
1.873 0.78298694 0.37211591 0
1.875 0.78145188 0.37207261 0
1.8770001 0.77990967 0.3720293 0
1.88 0.77891755 0.3719644 0
1.8820001 0.77735907 0.37192109 0
1.8840001 0.77579337 0.37187779 0
1.8870001 0.77477247 0.37181285 0
1.8900001 0.77374071 0.37174791 0
1.893 0.77269804 0.371683 0
1.8970001 0.77219123 0.3715964 0
1.9000001 0.77112514 0.37153146 0
1.9050001 0.7711342 0.37142324 0
1.9100001 0.77112514 0.371315 0
1.9170001 0.7721768 0.37116349 0
1.6670001 0.68533605 0.37428948 0
1.6700001 0.68477684 0.37421915 0
1.6750001 0.68535411 0.37410188 0
1.679 0.68534142 0.37400809 0
1.687 0.68759435 0.37382048 0
1.868 0.78811699 0.36957613 0
1.87 0.78660178 0.36952925 0
1.8720001 0.78507936 0.36948234 0
1.873 0.78298694 0.36945888 0
1.875 0.78145188 0.369412 0
1.8770001 0.77990967 0.3693651 0
1.88 0.77891755 0.36929473 0
1.8820001 0.77735907 0.36924785 0
1.8840001 0.77579337 0.36920094 0
1.8870001 0.77477247 0.36913061 0
1.8900001 0.77374071 0.36906025 0
1.893 0.77269804 0.36898988 0
1.8970001 0.77219123 0.3688961 0
1.9000001 0.77112514 0.36882576 0
1.9050001 0.7711342 0.36870849 0
1.9100001 0.77112514 0.36859125 0
1.9170001 0.7721768 0.3684271 0
1.6670001 0.68533605 0.37200406 0
1.6700001 0.68477684 0.3719283 0
1.6750001 0.68535411 0.37180203 0
1.679 0.68534142 0.37170103 0
1.687 0.68759435 0.371499 0
1.868 0.78811699 0.36692816 0
1.87 0.78660178 0.36687765 0
1.8720001 0.78507936 0.36682713 0
1.873 0.78298694 0.36680189 0
1.875 0.78145188 0.36675137 0
1.8770001 0.77990967 0.36670086 0
1.88 0.77891755 0.3666251 0
1.8820001 0.77735907 0.36657459 0
1.8840001 0.77579337 0.3665241 0
1.8870001 0.77477247 0.36644834 0
1.8900001 0.77374071 0.36637259 0
1.893 0.77269804 0.36629683 0
1.8970001 0.77219123 0.3661958 0
1.9000001 0.77112514 0.36612004 0
1.9050001 0.7711342 0.36599377 0
1.9100001 0.77112514 0.3658675 0
1.9170001 0.7721768 0.36569074 0
1.6670001 0.68533605 0.36971864 0
1.6700001 0.68477684 0.36963746 0
1.6750001 0.68535411 0.36950219 0
1.679 0.68534142 0.36939394 0
1.687 0.68759435 0.36917749 0
1.868 0.78811699 0.36428016 0
1.87 0.78660178 0.36422604 0
1.8720001 0.78507936 0.36417192 0
1.873 0.78298694 0.36414486 0
1.875 0.78145188 0.36409077 0
1.8770001 0.77990967 0.36403665 0
1.88 0.77891755 0.36395547 0
1.8820001 0.77735907 0.36390135 0
1.8840001 0.77579337 0.36384726 0
1.8870001 0.77477247 0.36376607 0
1.8900001 0.77374071 0.36368489 0
1.893 0.77269804 0.36360374 0
1.8970001 0.77219123 0.3634955 0
1.9000001 0.77112514 0.36341432 0
1.9050001 0.7711342 0.36327904 0
1.9100001 0.77112514 0.36314374 0
1.9170001 0.7721768 0.36295435 0
1.6670001 0.68533605 0.36743322 0
1.6700001 0.68477684 0.36734664 0
1.6750001 0.68535411 0.36720234 0
1.679 0.68534142 0.36708689 0
1.687 0.68759435 0.36685598 0
1.868 0.78811699 0.36163217 0
1.87 0.78660178 0.36157444 0
1.8720001 0.78507936 0.36151671 0
1.873 0.78298694 0.36148787 0
1.875 0.78145188 0.36143014 0
1.8770001 0.77990967 0.36137241 0
1.88 0.77891755 0.36128584 0
1.8820001 0.77735907 0.36122811 0
1.8840001 0.77579337 0.36117038 0
1.8870001 0.77477247 0.36108381 0
1.8900001 0.77374071 0.36099723 0
1.893 0.77269804 0.36091065 0
1.8970001 0.77219123 0.3607952 0
1.9000001 0.77112514 0.36070862 0
1.9050001 0.7711342 0.36056432 0
1.9100001 0.77112514 0.36042002 0
1.9170001 0.7721768 0.36021799 0
1.6670001 0.68533605 0.3651478 0
1.6700001 0.68477684 0.3650558 0
1.6750001 0.68535411 0.36490247 0
1.679 0.68534142 0.36477983 0
1.687 0.68759435 0.3645345 0
1.868 0.78811699 0.35898417 0
1.87 0.78660178 0.35892284 0
1.8720001 0.78507936 0.35886151 0
1.873 0.78298694 0.35883087 0
1.875 0.78145188 0.35876954 0
1.8770001 0.77990967 0.3587082 0
1.88 0.77891755 0.3586162 0
1.8820001 0.77735907 0.35855487 0
1.8840001 0.77579337 0.35849354 0
1.8870001 0.77477247 0.35840154 0
1.8900001 0.77374071 0.35830957 0
1.893 0.77269804 0.35821757 0
1.8970001 0.77219123 0.3580949 0
1.9000001 0.77112514 0.3580029 0
1.9050001 0.7711342 0.35784957 0
1.9100001 0.77112514 0.35769626 0
1.9170001 0.7721768 0.3574816 0
1.6670001 0.68533605 0.36286235 0
1.6700001 0.68477684 0.36276495 0
1.6750001 0.68535411 0.36260262 0
1.679 0.68534142 0.36247274 0
1.687 0.68759435 0.36221299 0
1.868 0.78811699 0.35633618 0
1.87 0.78660178 0.35627124 0
1.8720001 0.78507936 0.3562063 0
1.873 0.78298694 0.35617384 0
1.875 0.78145188 0.3561089 0
1.8770001 0.77990967 0.35604396 0
1.88 0.77891755 0.35594657 0
1.8820001 0.77735907 0.35588163 0
1.8840001 0.77579337 0.35581669 0
1.8870001 0.77477247 0.35571927 0
1.8900001 0.77374071 0.35562187 0
1.893 0.77269804 0.35552448 0
1.8970001 0.77219123 0.3553946 0
1.9000001 0.77112514 0.35529718 0
1.9050001 0.7711342 0.35513484 0
1.9100001 0.77112514 0.35497251 0
1.9170001 0.7721768 0.35474521 0
1.6670001 0.68533605 0.36057693 0
1.6700001 0.68477684 0.36047411 0
1.6750001 0.68535411 0.36030275 0
1.679 0.68534142 0.36016566 0
1.687 0.68759435 0.3598915 0
1.868 0.78811699 0.35368818 0
1.87 0.78660178 0.35361966 0
1.8720001 0.78507936 0.35355109 0
1.873 0.78298694 0.35351682 0
1.875 0.78145188 0.3534483 0
1.8770001 0.77990967 0.35337973 0
1.88 0.77891755 0.35327694 0
1.8820001 0.77735907 0.35320836 0
1.8840001 0.77579337 0.35313985 0
1.8870001 0.77477247 0.35303703 0
1.8900001 0.77374071 0.35293421 0
1.893 0.77269804 0.35283139 0
1.8970001 0.77219123 0.3526943 0
1.9000001 0.77112514 0.35259148 0
1.9050001 0.7711342 0.35242012 0
1.9100001 0.77112514 0.35224876 0
1.9170001 0.7721768 0.35200885 0
1.6670001 0.68533605 0.35829151 0
1.6700001 0.68477684 0.35818329 0
1.6750001 0.68535411 0.3580029 0
1.679 0.68534142 0.3578586 0
1.687 0.68759435 0.35756999 0
1.868 0.78811699 0.35104021 0
1.87 0.78660178 0.35096806 0
1.8720001 0.78507936 0.35089588 0
1.873 0.78298694 0.35085982 0
1.875 0.78145188 0.35078767 0
1.8770001 0.77990967 0.35071552 0
1.88 0.77891755 0.35060728 0
1.8820001 0.77735907 0.35053512 0
1.8840001 0.77579337 0.35046297 0
1.8870001 0.77477247 0.35035476 0
1.8900001 0.77374071 0.35024652 0
1.893 0.77269804 0.35013831 0
1.8970001 0.77219123 0.349994 0
1.9000001 0.77112514 0.34988576 0
1.9050001 0.7711342 0.3497054 0
1.9100001 0.77112514 0.349525 0
1.9170001 0.7721768 0.34927246 0
1.6670001 0.68533605 0.35600609 0
1.6700001 0.68477684 0.35589245 0
1.6750001 0.68535411 0.35570306 0
1.679 0.68534142 0.35555154 0
1.687 0.68759435 0.35524848 0
1.868 0.78811699 0.34839222 0
1.87 0.78660178 0.34831646 0
1.8720001 0.78507936 0.3482407 0
1.873 0.78298694 0.34820282 0
1.875 0.78145188 0.34812707 0
1.8770001 0.77990967 0.34805131 0
1.88 0.77891755 0.34793764 0
1.8820001 0.77735907 0.34786189 0
1.8840001 0.77579337 0.34778613 0
1.8870001 0.77477247 0.34767249 0
1.8900001 0.77374071 0.34755886 0
1.893 0.77269804 0.34744522 0
1.8970001 0.77219123 0.3472937 0
1.9000001 0.77112514 0.34718007 0
1.9050001 0.7711342 0.34699064 0
1.9100001 0.77112514 0.34680125 0
1.9170001 0.7721768 0.3465361 0
1.6670001 0.68533605 0.35372066 0
1.6700001 0.68477684 0.3536016 0
1.6750001 0.68535411 0.35340318 0
1.679 0.68534142 0.35324445 0
1.687 0.68759435 0.352927 0
1.868 0.78811699 0.34574422 0
1.87 0.78660178 0.34566486 0
1.8720001 0.78507936 0.3455855 0
1.873 0.78298694 0.3455458 0
1.875 0.78145188 0.34546643 0
1.8770001 0.77990967 0.34538707 0
1.88 0.77891755 0.34526801 0
1.8820001 0.77735907 0.34518865 0
1.8840001 0.77579337 0.34510928 0
1.8870001 0.77477247 0.34499022 0
1.8900001 0.77374071 0.34487116 0
1.893 0.77269804 0.34475213 0
1.8970001 0.77219123 0.34459341 0
1.9000001 0.77112514 0.34447435 0
1.9050001 0.7711342 0.34427592 0
1.9100001 0.77112514 0.3440775 0
1.9170001 0.7721768 0.34379971 0
1.6670001 0.68533605 0.35143524 0
1.6700001 0.68477684 0.35131079 0
1.6750001 0.68535411 0.35110334 0
1.679 0.68534142 0.3509374 0
1.687 0.68759435 0.35060549 0
1.868 0.78811699 0.34309623 0
1.87 0.78660178 0.34301326 0
1.8720001 0.78507936 0.34293029 0
1.873 0.78298694 0.3428888 0
1.875 0.78145188 0.34280583 0
1.8770001 0.77990967 0.34272283 0
1.88 0.77891755 0.34259838 0
1.8820001 0.77735907 0.34251541 0
1.8840001 0.77579337 0.34243244 0
1.8870001 0.77477247 0.34230796 0
1.8900001 0.77374071 0.3421835 0
1.893 0.77269804 0.34205905 0
1.8970001 0.77219123 0.34189308 0
1.9000001 0.77112514 0.34176862 0
1.9050001 0.7711342 0.3415612 0
1.9100001 0.77112514 0.34135374 0
1.9170001 0.7721768 0.34106332 0
1.6670001 0.68533605 0.34914982 0
1.6700001 0.68477684 0.34901994 0
1.6750001 0.68535411 0.34880349 0
1.679 0.68534142 0.34863031 0
1.687 0.68759435 0.34828398 0
1.868 0.78811699 0.34044823 0
1.87 0.78660178 0.34036165 0
1.8720001 0.78507936 0.34027508 0
1.873 0.78298694 0.34023178 0
1.875 0.78145188 0.3401452 0
1.8770001 0.77990967 0.34005862 0
1.88 0.77891755 0.33992875 0
1.8820001 0.77735907 0.33984217 0
1.8840001 0.77579337 0.33975559 0
1.8870001 0.77477247 0.33962572 0
1.8900001 0.77374071 0.33949584 0
1.893 0.77269804 0.33936596 0
1.8970001 0.77219123 0.33919281 0
1.9000001 0.77112514 0.33906293 0
1.9050001 0.7711342 0.33884645 0
1.9100001 0.77112514 0.33863002 0
1.9170001 0.7721768 0.33832696 0
1.6670001 0.68533605 0.3468644 0
1.6700001 0.68477684 0.3467291 0
1.6750001 0.68535411 0.34650362 0
1.679 0.68534142 0.34632325 0
1.687 0.68759435 0.34596246 0
1.868 0.78811699 0.33780026 0
1.87 0.78660178 0.33771008 0
1.8720001 0.78507936 0.33761987 0
1.873 0.78298694 0.33757478 0
1.875 0.78145188 0.3374846 0
1.8770001 0.77990967 0.33739439 0
1.88 0.77891755 0.33725911 0
1.8820001 0.77735907 0.33716893 0
1.8840001 0.77579337 0.33707872 0
1.8870001 0.77477247 0.33694345 0
1.8900001 0.77374071 0.33680815 0
1.893 0.77269804 0.33667287 0
1.8970001 0.77219123 0.33649248 0
1.9000001 0.77112514 0.33635721 0
1.9050001 0.7711342 0.33613172 0
1.9100001 0.77112514 0.33590627 0
1.9170001 0.7721768 0.3355906 0
1.6670001 0.68533605 0.34457895 0
1.6700001 0.68477684 0.34443825 0
1.6750001 0.68535411 0.34420377 0
1.679 0.68534142 0.34401616 0
1.687 0.68759435 0.34364098 0
1.868 0.78811699 0.33515227 0
1.87 0.78660178 0.33505845 0
1.8720001 0.78507936 0.33496466 0
1.873 0.78298694 0.33491778 0
1.875 0.78145188 0.33482397 0
1.8770001 0.77990967 0.33473015 0
1.88 0.77891755 0.33458948 0
1.8820001 0.77735907 0.33449566 0
1.8840001 0.77579337 0.33440188 0
1.8870001 0.77477247 0.33426118 0
1.8900001 0.77374071 0.33412048 0
1.893 0.77269804 0.33397979 0
1.8970001 0.77219123 0.33379221 0
1.9000001 0.77112514 0.33365148 0
1.9050001 0.7711342 0.333417 0
1.9100001 0.77112514 0.33318251 0
1.9170001 0.7721768 0.33285421 0
1.6670001 0.68533605 0.34229353 0
1.6700001 0.68477684 0.34214744 0
1.6750001 0.68535411 0.34190392 0
1.679 0.68534142 0.34170911 0
1.687 0.68759435 0.3413195 0
1.868 0.78811699 0.33250427 0
1.87 0.78660178 0.33240688 0
1.8720001 0.78507936 0.33230945 0
1.873 0.78298694 0.33226076 0
1.875 0.78145188 0.33216336 0
1.8770001 0.77990967 0.33206594 0
1.88 0.77891755 0.33191985 0
1.8820001 0.77735907 0.33182243 0
1.8840001 0.77579337 0.33172503 0
1.8870001 0.77477247 0.33157891 0
1.8900001 0.77374071 0.33143282 0
1.893 0.77269804 0.3312867 0
1.8970001 0.77219123 0.33109188 0
1.9000001 0.77112514 0.33094579 0
1.9050001 0.7711342 0.33070228 0
1.9100001 0.77112514 0.33045876 0
1.9170001 0.7721768 0.33011782 0
1.6670001 0.68533605 0.34000811 0
1.6700001 0.68477684 0.33985659 0
1.6750001 0.68535411 0.33960405 0
1.679 0.68534142 0.33940202 0
1.687 0.68759435 0.33899796 0
1.868 0.78811699 0.32985628 0
1.87 0.78660178 0.32975528 0
1.8720001 0.78507936 0.32965425 0
1.873 0.78298694 0.32960373 0
1.875 0.78145188 0.32950273 0
1.8770001 0.77990967 0.32940173 0
1.88 0.77891755 0.32925022 0
1.8820001 0.77735907 0.32914919 0
1.8840001 0.77579337 0.32904816 0
1.8870001 0.77477247 0.32889664 0
1.8900001 0.77374071 0.32874513 0
1.893 0.77269804 0.32859361 0
1.8970001 0.77219123 0.32839158 0
1.9000001 0.77112514 0.32824007 0
1.9050001 0.7711342 0.32798752 0
1.9100001 0.77112514 0.32773501 0
1.9170001 0.7721768 0.32738146 0
1.6670001 0.68533605 0.33772269 0
1.6700001 0.68477684 0.33756575 0
1.6750001 0.68535411 0.3373042 0
1.679 0.68534142 0.33709496 0
1.687 0.68759435 0.33667648 0
1.868 0.78811699 0.32720828 0
1.87 0.78660178 0.32710367 0
1.8720001 0.78507936 0.32699904 0
1.873 0.78298694 0.32694674 0
1.875 0.78145188 0.32684213 0
1.8770001 0.77990967 0.32673749 0
1.88 0.77891755 0.32658055 0
1.8820001 0.77735907 0.32647595 0
1.8840001 0.77579337 0.32637131 0
1.8870001 0.77477247 0.32621437 0
1.8900001 0.77374071 0.32605746 0
1.893 0.77269804 0.32590052 0
1.8970001 0.77219123 0.32569128 0
1.9000001 0.77112514 0.32553434 0
1.9050001 0.7711342 0.3252728 0
1.9100001 0.77112514 0.32501125 0
1.9170001 0.7721768 0.32464507 0
1.6670001 0.68533605 0.33543727 0
1.6700001 0.68477684 0.33527493 0
1.6750001 0.68535411 0.33500433 0
1.679 0.68534142 0.33478791 0
1.687 0.68759435 0.334355 0
1.868 0.78811699 0.32456028 0
1.87 0.78660178 0.32445207 0
1.8720001 0.78507936 0.32434383 0
1.873 0.78298694 0.32428974 0
1.875 0.78145188 0.3241815 0
1.8770001 0.77990967 0.32407326 0
1.88 0.77891755 0.32391092 0
1.8820001 0.77735907 0.32380271 0
1.8840001 0.77579337 0.32369447 0
1.8870001 0.77477247 0.32353213 0
1.8900001 0.77374071 0.32336977 0
1.893 0.77269804 0.32320744 0
1.8970001 0.77219123 0.32299098 0
1.9000001 0.77112514 0.32282865 0
1.9050001 0.7711342 0.32255808 0
1.9100001 0.77112514 0.3222875 0
1.9170001 0.7721768 0.32190871 0
1.6670001 0.68533605 0.33315182 0
1.6700001 0.68477684 0.33298409 0
1.6750001 0.68535411 0.33270448 0
1.679 0.68534142 0.33248082 0
1.687 0.68759435 0.33203349 0
1.868 0.78811699 0.32191229 0
1.87 0.78660178 0.32180047 0
1.8720001 0.78507936 0.32168865 0
1.873 0.78298694 0.32163271 0
1.875 0.78145188 0.32152086 0
1.8770001 0.77990967 0.32140905 0
1.88 0.77891755 0.32124129 0
1.8820001 0.77735907 0.32112944 0
1.8840001 0.77579337 0.32101762 0
1.8870001 0.77477247 0.32084987 0
1.8900001 0.77374071 0.32068211 0
1.893 0.77269804 0.32051435 0
1.8970001 0.77219123 0.32029068 0
1.9000001 0.77112514 0.32012293 0
1.9050001 0.7711342 0.31984335 0
1.9100001 0.77112514 0.31956375 0
1.9170001 0.7721768 0.31917232 0
1.6670001 0.68533605 0.3308664 0
1.6700001 0.68477684 0.33069324 0
1.6750001 0.68535411 0.33040464 0
1.679 0.68534142 0.33017376 0
1.687 0.68759435 0.32971197 0
1.868 0.78811699 0.31926432 0
1.87 0.78660178 0.31914887 0
1.8720001 0.78507936 0.31903344 0
1.873 0.78298694 0.31897572 0
1.875 0.78145188 0.31886026 0
1.8770001 0.77990967 0.31874481 0
1.88 0.77891755 0.31857166 0
1.8820001 0.77735907 0.3184562 0
1.8840001 0.77579337 0.31834078 0
1.8870001 0.77477247 0.3181676 0
1.8900001 0.77374071 0.31799442 0
1.893 0.77269804 0.31782126 0
1.8970001 0.77219123 0.31759039 0
1.9000001 0.77112514 0.3174172 0
1.9050001 0.7711342 0.3171286 0
1.9100001 0.77112514 0.31683999 0
1.9170001 0.7721768 0.31643593 0
1.6670001 0.68533605 0.32858098 0
1.6700001 0.68477684 0.3284024 0
1.6750001 0.68535411 0.32810479 0
1.679 0.68534142 0.32786667 0
1.687 0.68759435 0.32739049 0
1.868 0.78811699 0.31661633 0
1.87 0.78660178 0.31649727 0
1.8720001 0.78507936 0.31637824 0
1.873 0.78298694 0.31631869 0
1.875 0.78145188 0.31619966 0
1.8770001 0.77990967 0.3160806 0
1.88 0.77891755 0.31590202 0
1.8820001 0.77735907 0.31578296 0
1.8840001 0.77579337 0.3156639 0
1.8870001 0.77477247 0.31548533 0
1.8900001 0.77374071 0.31530675 0
1.893 0.77269804 0.31512821 0
1.8970001 0.77219123 0.31489009 0
1.9000001 0.77112514 0.31471151 0
1.9050001 0.7711342 0.31441388 0
1.9100001 0.77112514 0.31411624 0
1.9170001 0.7721768 0.31369957 0
1.6670001 0.68533605 0.32629555 0
1.6700001 0.68477684 0.32611156 0
1.6750001 0.68535411 0.32580492 0
1.679 0.68534142 0.32555962 0
1.687 0.68759435 0.32506898 0
1.868 0.78811699 0.31396833 0
1.87 0.78660178 0.31384569 0
1.8720001 0.78507936 0.31372303 0
1.873 0.78298694 0.31366169 0
1.875 0.78145188 0.31353903 0
1.8770001 0.77990967 0.31341636 0
1.88 0.77891755 0.31323239 0
1.8820001 0.77735907 0.31310973 0
1.8840001 0.77579337 0.31298706 0
1.8870001 0.77477247 0.31280309 0
1.8900001 0.77374071 0.31261909 0
1.893 0.77269804 0.31243509 0
1.8970001 0.77219123 0.31218979 0
