# .PCD v0.7 - Point Cloud Data file format
VERSION 0.7
FIELDS x y z intensity
SIZE 4 4 4 4
TYPE F F F F
COUNT 1 1 1 1
WIDTH 607
HEIGHT 1
VIEWPOINT 0 0 0 1 0 0 0
POINTS 607
DATA ascii
6.3780003 -3.3132992 1.2774364 0
6.3770003 -3.323534 1.2772903 0
6.3750005 -3.333215 1.2769982 0
6.3740005 -3.343441 1.276852 0
6.3730001 -3.353663 1.2767059 0
6.3720002 -3.3638813 1.2765597 0
6.3790002 -3.3030608 1.2667975 0
6.3780003 -3.3132992 1.2666533 0
6.3770003 -3.323534 1.2665089 0
6.3750005 -3.333215 1.2662203 0
6.3740005 -3.343441 1.2660761 0
6.3730001 -3.353663 1.2659317 0
6.3720002 -3.3638813 1.2657874 0
6.3710003 -3.3740964 1.2656431 0
6.3700004 -3.3843079 1.2654989 0
6.3790002 -3.3030608 1.2560126 0
6.3780003 -3.3132992 1.2558701 0
6.3770003 -3.323534 1.2557275 0
6.3750005 -3.333215 1.2554426 0
6.3740005 -3.343441 1.2553002 0
6.3730001 -3.353663 1.2551576 0
6.3720002 -3.3638813 1.2550151 0
6.3710003 -3.3740964 1.2548726 0
6.3700004 -3.3843079 1.2547301 0
6.3790002 -3.3030608 1.2452276 0
6.3780003 -3.3132992 1.2450869 0
6.3770003 -3.323534 1.2449462 0
6.3750005 -3.333215 1.2446648 0
6.3740005 -3.343441 1.2445242 0
6.3730001 -3.353663 1.2443835 0
6.3720002 -3.3638813 1.2442427 0
6.3710003 -3.3740964 1.244102 0
6.3700004 -3.3843079 1.2439613 0
6.3790002 -3.3030608 1.2344426 0
6.3780003 -3.3132992 1.2343037 0
6.3770003 -3.323534 1.2341648 0
6.3750005 -3.333215 1.2338871 0
6.3740005 -3.343441 1.2337482 0
6.3730001 -3.353663 1.2336092 0
6.3720002 -3.3638813 1.2334703 0
6.3710003 -3.3740964 1.2333316 0
6.3700004 -3.3843079 1.2331927 0
6.3790002 -3.3030608 1.2236576 0
6.3780003 -3.3132992 1.2235205 0
6.3770003 -3.323534 1.2233835 0
6.3750005 -3.333215 1.2231094 0
6.3740005 -3.343441 1.2229723 0
6.3730001 -3.353663 1.2228351 0
6.3720002 -3.3638813 1.2226981 0
6.3710003 -3.3740964 1.222561 0
6.3700004 -3.3843079 1.2224239 0
6.3790002 -3.3030608 1.2128727 0
6.3780003 -3.3132992 1.2127374 0
6.3770003 -3.323534 1.2126021 0
6.3750005 -3.333215 1.2123317 0
6.3740005 -3.343441 1.2121964 0
6.3730001 -3.353663 1.2120609 0
6.3720002 -3.3638813 1.2119257 0
6.3710003 -3.3740964 1.2117904 0
6.3700004 -3.3843079 1.2116551 0
6.3790002 -3.3030608 1.2020878 0
6.3780003 -3.3132992 1.2019542 0
6.3770003 -3.323534 1.2018207 0
6.3750005 -3.333215 1.2015538 0
6.3740005 -3.343441 1.2014203 0
6.3730001 -3.353663 1.2012868 0
6.3720002 -3.3638813 1.2011534 0
6.3710003 -3.3740964 1.2010199 0
6.3700004 -3.3843079 1.2008865 0
6.3790002 -3.3030608 1.1913028 0
6.3780003 -3.3132992 1.1911711 0
6.3770003 -3.323534 1.1910394 0
6.3750005 -3.333215 1.1907761 0
6.3740005 -3.343441 1.1906444 0
6.3730001 -3.353663 1.1905127 0
6.3720002 -3.3638813 1.1903809 0
6.3710003 -3.3740964 1.1902493 0
6.3700004 -3.3843079 1.1901177 0
6.3790002 -3.3030608 1.1805178 0
6.3780003 -3.3132992 1.180388 0
6.3770003 -3.323534 1.180258 0
6.3750005 -3.333215 1.1799983 0
6.3740005 -3.343441 1.1798685 0
6.3730001 -3.353663 1.1797385 0
6.3720002 -3.3638813 1.1796087 0
6.3710003 -3.3740964 1.1794788 0
6.3700004 -3.3843079 1.1793489 0
6.3790002 -3.3030608 1.1697328 0
6.3780003 -3.3132992 1.1696048 0
6.3770003 -3.323534 1.1694766 0
6.3750005 -3.333215 1.1692206 0
6.3740005 -3.343441 1.1690925 0
6.3730001 -3.353663 1.1689644 0
6.3720002 -3.3638813 1.1688364 0
6.3710003 -3.3740964 1.1687082 0
6.3700004 -3.3843079 1.1685802 0
6.3790002 -3.3030608 1.1589478 0
6.3780003 -3.3132992 1.1588216 0
6.3770003 -3.323534 1.1586953 0
6.3750005 -3.333215 1.1584429 0
6.3740005 -3.343441 1.1583165 0
6.3730001 -3.353663 1.1581903 0
6.3720002 -3.3638813 1.158064 0
6.3710003 -3.3740964 1.1579378 0
6.3700004 -3.3843079 1.1578115 0
6.3790002 -3.3030608 1.1481628 0
6.3780003 -3.3132992 1.1480385 0
6.3770003 -3.323534 1.1479139 0
6.3750005 -3.333215 1.147665 0
6.3740005 -3.343441 1.1475406 0
6.3730001 -3.353663 1.1474161 0
6.3720002 -3.3638813 1.1472917 0
6.3710003 -3.3740964 1.1471672 0
6.3700004 -3.3843079 1.1470428 0
6.3790002 -3.3030608 1.137378 0
6.3780003 -3.3132992 1.1372552 0
6.3770003 -3.323534 1.1371326 0
6.3750005 -3.333215 1.1368873 0
6.3740005 -3.343441 1.1367646 0
6.3730001 -3.353663 1.136642 0
6.3720002 -3.3638813 1.1365193 0
6.3710003 -3.3740964 1.1363966 0
6.3700004 -3.3843079 1.136274 0
6.3790002 -3.3030608 1.126593 0
6.3780003 -3.3132992 1.1264721 0
6.3770003 -3.323534 1.1263512 0
6.3750005 -3.333215 1.1261095 0
6.3740005 -3.343441 1.1259887 0
6.3730001 -3.353663 1.1258678 0
6.3720002 -3.3638813 1.125747 0
6.3710003 -3.3740964 1.1256261 0
6.3700004 -3.3843079 1.1255053 0
6.3790002 -3.3030608 1.115808 0
6.3780003 -3.3132992 1.1156889 0
6.3770003 -3.323534 1.1155699 0
6.3750005 -3.333215 1.1153318 0
6.3740005 -3.343441 1.1152128 0
6.3730001 -3.353663 1.1150937 0
6.3720002 -3.3638813 1.1149746 0
6.3710003 -3.3740964 1.1148555 0
6.3700004 -3.3843079 1.1147366 0
6.3790002 -3.3030608 1.105023 0
6.3780003 -3.3132992 1.1049057 0
6.3770003 -3.323534 1.1047885 0
6.3750005 -3.333215 1.1045541 0
6.3740005 -3.343441 1.1044368 0
6.3730001 -3.353663 1.1043195 0
6.3720002 -3.3638813 1.1042023 0
6.3710003 -3.3740964 1.1040851 0
6.3700004 -3.3843079 1.1039678 0
6.3790002 -3.3030608 1.094238 0
6.3780003 -3.3132992 1.0941226 0
6.3770003 -3.323534 1.0940071 0
6.3750005 -3.333215 1.0937763 0
6.3740005 -3.343441 1.0936608 0
6.3730001 -3.353663 1.0935453 0
6.3720002 -3.3638813 1.0934299 0
6.3710003 -3.3740964 1.0933145 0
6.3700004 -3.3843079 1.093199 0
6.3790002 -3.3030608 1.0834531 0
6.3780003 -3.3132992 1.0833395 0
6.3770003 -3.323534 1.0832258 0
6.3750005 -3.333215 1.0829985 0
6.3740005 -3.343441 1.0828849 0
6.3730001 -3.353663 1.0827712 0
6.3720002 -3.3638813 1.0826576 0
6.3710003 -3.3740964 1.082544 0
6.3700004 -3.3843079 1.0824304 0
6.3790002 -3.3030608 1.0726681 0
6.3780003 -3.3132992 1.0725563 0
6.3770003 -3.323534 1.0724444 0
6.3750005 -3.333215 1.0722208 0
6.3740005 -3.343441 1.072109 0
6.3730001 -3.353663 1.071997 0
6.3720002 -3.3638813 1.0718852 0
6.3710003 -3.3740964 1.0717734 0
6.3700004 -3.3843079 1.0716616 0
6.3790002 -3.3030608 1.0618831 0
6.3780003 -3.3132992 1.0617732 0
6.3770003 -3.323534 1.061663 0
6.3750005 -3.333215 1.0614431 0
6.3740005 -3.343441 1.0613331 0
6.3730001 -3.353663 1.0612229 0
6.3720002 -3.3638813 1.0611129 0
6.3710003 -3.3740964 1.0610029 0
6.3700004 -3.3843079 1.0608928 0
6.3790002 -3.3030608 1.0510981 0
6.3780003 -3.3132992 1.05099 0
6.3770003 -3.323534 1.0508817 0
6.3750005 -3.333215 1.0506653 0
6.3740005 -3.343441 1.050557 0
6.3730001 -3.353663 1.0504488 0
6.3720002 -3.3638813 1.0503405 0
6.3710003 -3.3740964 1.0502323 0
6.3700004 -3.3843079 1.0501242 0
6.3790002 -3.3030608 1.0403132 0
6.3780003 -3.3132992 1.0402068 0
6.3770003 -3.323534 1.0401003 0
6.3750005 -3.333215 1.0398875 0
6.3740005 -3.343441 1.0397811 0
6.3730001 -3.353663 1.0396746 0
6.3720002 -3.3638813 1.0395683 0
6.3710003 -3.3740964 1.0394617 0
6.3700004 -3.3843079 1.0393554 0
6.3790002 -3.3030608 1.0295283 0
6.3780003 -3.3132992 1.0294236 0
6.3770003 -3.323534 1.029319 0
6.3750005 -3.333215 1.0291097 0
6.3740005 -3.343441 1.0290052 0
6.3730001 -3.353663 1.0289005 0
6.3720002 -3.3638813 1.0287958 0
6.3710003 -3.3740964 1.0286913 0
6.3700004 -3.3843079 1.0285866 0
6.3790002 -3.3030608 1.0187433 0
6.3780003 -3.3132992 1.0186404 0
6.3770003 -3.323534 1.0185376 0
6.3750005 -3.333215 1.018332 0
6.3740005 -3.343441 1.0182292 0
6.3730001 -3.353663 1.0181264 0
6.3720002 -3.3638813 1.0180235 0
6.3710003 -3.3740964 1.0179207 0
6.3700004 -3.3843079 1.0178179 0
6.3790002 -3.3030608 1.0079583 0
6.3780003 -3.3132992 1.0078573 0
6.3770003 -3.323534 1.0077562 0
6.3750005 -3.333215 1.0075543 0
6.3740005 -3.343441 1.0074533 0
6.3730001 -3.353663 1.0073522 0
6.3720002 -3.3638813 1.0072511 0
6.3710003 -3.3740964 1.0071502 0
6.3700004 -3.3843079 1.0070492 0
6.3790002 -3.3030608 0.99717331 0
6.3780003 -3.3132992 0.99707413 0
6.3770003 -3.323534 0.99697495 0
6.3750005 -3.333215 0.99677658 0
6.3740005 -3.343441 0.99667728 0
6.3730001 -3.353663 0.9965781 0
6.3720002 -3.3638813 0.99647892 0
6.3710003 -3.3740964 0.99637961 0
6.3700004 -3.3843079 0.99628043 0
6.3790002 -3.3030608 0.98638833 0
6.3780003 -3.3132992 0.98629093 0
6.3770003 -3.323534 0.98619354 0
6.3750005 -3.333215 0.98599875 0
6.3740005 -3.343441 0.98590136 0
6.3730001 -3.353663 0.98580384 0
6.3720002 -3.3638813 0.98570645 0
6.3710003 -3.3740964 0.98560917 0
6.3700004 -3.3843079 0.98551166 0
6.3790002 -3.3030608 0.97560334 0
6.3780003 -3.3132992 0.97550774 0
6.3770003 -3.323534 0.97541213 0
6.3750005 -3.333215 0.97522104 0
6.3740005 -3.343441 0.97512543 0
6.3730001 -3.353663 0.97502971 0
6.3720002 -3.3638813 0.9749341 0
6.3710003 -3.3740964 0.97483861 0
6.3700004 -3.3843079 0.97474301 0
6.3790002 -3.3030608 0.96481848 0
6.3780003 -3.3132992 0.96472466 0
6.3770003 -3.323534 0.96463084 0
6.3750005 -3.333215 0.96444321 0
6.3740005 -3.343441 0.96434939 0
6.3730001 -3.353663 0.96425557 0
6.3720002 -3.3638813 0.96416187 0
6.3710003 -3.3740964 0.96406806 0
6.3700004 -3.3843079 0.96397424 0
6.3790002 -3.3030608 0.95403349 0
6.3780003 -3.3132992 0.95394146 0
6.3770003 -3.323534 0.95384943 0
6.3750005 -3.333215 0.95366549 0
6.3740005 -3.343441 0.95357347 0
6.3730001 -3.353663 0.95348144 0
6.3720002 -3.3638813 0.95338953 0
6.3710003 -3.3740964 0.9532975 0
6.3700004 -3.3843079 0.95320547 0
6.3790002 -3.3030608 0.94324851 0
6.3780003 -3.3132992 0.94315827 0
6.3770003 -3.323534 0.94306815 0
6.3750005 -3.333215 0.94288778 0
6.3740005 -3.343441 0.94279754 0
6.3730001 -3.353663 0.9427073 0
6.3720002 -3.3638813 0.94261718 0
6.3710003 -3.3740964 0.94252694 0
6.3700004 -3.3843079 0.9424367 0
6.3790002 -3.3030608 0.93246353 0
6.3780003 -3.3132992 0.93237507 0
6.3770003 -3.323534 0.93228674 0
6.3750005 -3.333215 0.93210995 0
6.3740005 -3.343441 0.93202162 0
6.3730001 -3.353663 0.93193316 0
6.3720002 -3.3638813 0.93184471 0
6.3710003 -3.3740964 0.93175638 0
6.3700004 -3.3843079 0.93166804 0
6.3790002 -3.3030608 0.92167854 0
6.3780003 -3.3132992 0.921592 0
6.3770003 -3.323534 0.92150533 0
6.3750005 -3.333215 0.92133224 0
6.3740005 -3.343441 0.92124557 0
6.3730001 -3.353663 0.92115903 0
6.3720002 -3.3638813 0.92107248 0
6.3710003 -3.3740964 0.92098582 0
6.3700004 -3.3843079 0.92089927 0
6.3790002 -3.3030608 0.91089356 0
6.3780003 -3.3132992 0.9108088 0
6.3770003 -3.323534 0.91072404 0
6.3750005 -3.333215 0.91055441 0
6.3740005 -3.343441 0.91046965 0
6.3730001 -3.353663 0.91038489 0
6.3720002 -3.3638813 0.91030014 0
6.3710003 -3.3740964 0.91021538 0
6.3700004 -3.3843079 0.91013062 0
6.3790002 -3.3030608 0.90010858 0
6.3780003 -3.3132992 0.90002561 0
6.3770003 -3.323534 0.89994264 0
6.3750005 -3.333215 0.8997767 0
6.3740005 -3.343441 0.89969373 0
6.3730001 -3.353663 0.89961076 0
6.3720002 -3.3638813 0.89952779 0
6.3710003 -3.3740964 0.89944482 0
6.3700004 -3.3843079 0.89936185 0
6.3790002 -3.3030608 0.88932359 0
6.3780003 -3.3132992 0.88924247 0
6.3770003 -3.323534 0.88916123 0
6.3750005 -3.333215 0.88899899 0
6.3740005 -3.343441 0.8889178 0
6.3730001 -3.353663 0.88883662 0
6.3720002 -3.3638813 0.88875544 0
6.3710003 -3.3740964 0.88867426 0
6.3700004 -3.3843079 0.88859308 0
6.3790002 -3.3030608 0.87853861 0
6.3780003 -3.3132992 0.87845933 0
6.3770003 -3.323534 0.87837994 0
6.3750005 -3.333215 0.87822121 0
6.3740005 -3.343441 0.87814188 0
6.3730001 -3.353663 0.87806249 0
6.3720002 -3.3638813 0.87798309 0
6.3710003 -3.3740964 0.8779037 0
6.3700004 -3.3843079 0.87782437 0
6.3790002 -3.3030608 0.86775374 0
6.3780003 -3.3132992 0.86767614 0
6.3770003 -3.323534 0.86759859 0
6.3750005 -3.333215 0.86744344 0
6.3740005 -3.343441 0.8673659 0
6.3730001 -3.353663 0.86728823 0
6.3720002 -3.3638813 0.86721075 0
6.3710003 -3.3740964 0.8671332 0
6.3700004 -3.3843079 0.86705565 0
6.3790002 -3.3030608 0.85696876 0
6.3780003 -3.3132992 0.85689294 0
6.3770003 -3.323534 0.85681725 0
6.3750005 -3.333215 0.85666573 0
6.3740005 -3.343441 0.85658991 0
6.3730001 -3.353663 0.85651416 0
6.3720002 -3.3638813 0.8564384 0
6.3710003 -3.3740964 0.85636264 0
6.3700004 -3.3843079 0.85628688 0
6.3790002 -3.3030608 0.84618378 0
6.3780003 -3.3132992 0.84610981 0
6.3770003 -3.323534 0.84603584 0
6.3750005 -3.333215 0.84588796 0
6.3740005 -3.343441 0.84581399 0
6.3730001 -3.353663 0.84574002 0
6.3720002 -3.3638813 0.84566605 0
6.3710003 -3.3740964 0.84559214 0
6.3700004 -3.3843079 0.84551811 0
6.3790002 -3.3030608 0.83539879 0
6.3780003 -3.3132992 0.83532667 0
6.3770003 -3.323534 0.83525449 0
6.3750005 -3.333215 0.83511019 0
6.3740005 -3.343441 0.83503807 0
6.3730001 -3.353663 0.83496583 0
6.3720002 -3.3638813 0.8348937 0
6.3710003 -3.3740964 0.83482158 0
6.3700004 -3.3843079 0.83474946 0
6.3790002 -3.3030608 0.82461381 0
6.3780003 -3.3132992 0.82454348 0
6.3770003 -3.323534 0.82447314 0
6.3750005 -3.333215 0.82433242 0
6.3740005 -3.343441 0.82426214 0
6.3730001 -3.353663 0.82419169 0
6.3720002 -3.3638813 0.82412136 0
6.3710003 -3.3740964 0.82405102 0
6.3700004 -3.3843079 0.82398069 0
6.3790002 -3.3030608 0.81382883 0
6.3780003 -3.3132992 0.81376028 0
6.3770003 -3.323534 0.81369174 0
6.3750005 -3.333215 0.81355464 0
6.3740005 -3.343441 0.81348616 0
6.3730001 -3.353663 0.81341755 0
6.3720002 -3.3638813 0.81334901 0
6.3710003 -3.3740964 0.81328046 0
6.3700004 -3.3843079 0.81321192 0
6.3790002 -3.3030608 0.80304384 0
6.3780003 -3.3132992 0.80297714 0
6.3770003 -3.323534 0.80291039 0
6.3750005 -3.333215 0.80277693 0
6.3740005 -3.343441 0.80271018 0
6.3730001 -3.353663 0.80264342 0
6.3720002 -3.3638813 0.80257666 0
6.3710003 -3.3740964 0.8025099 0
6.3700004 -3.3843079 0.80244327 0
6.3790002 -3.3030608 0.79225886 0
6.3780003 -3.3132992 0.79219401 0
6.3770003 -3.323534 0.79212904 0
6.3750005 -3.333215 0.79199916 0
6.3740005 -3.343441 0.79193425 0
6.3730001 -3.353663 0.79186928 0
6.3720002 -3.3638813 0.79180431 0
6.3710003 -3.3740964 0.7917394 0
6.3700004 -3.3843079 0.79167449 0
6.3790002 -3.3030608 0.78147393 0
6.3780003 -3.3132992 0.78141081 0
6.3770003 -3.323534 0.78134763 0
6.3750005 -3.333215 0.78122139 0
6.3740005 -3.343441 0.78115827 0
6.3730001 -3.353663 0.78109515 0
6.3720002 -3.3638813 0.78103197 0
6.3710003 -3.3740964 0.7809689 0
6.3700004 -3.3843079 0.78090572 0
6.3790002 -3.3030608 0.77068901 0
6.3780003 -3.3132992 0.77062762 0
6.3770003 -3.323534 0.77056634 0
6.3750005 -3.333215 0.77044368 0
6.3740005 -3.343441 0.77038234 0
6.3730001 -3.353663 0.77032101 0
6.3720002 -3.3638813 0.77025962 0
6.3710003 -3.3740964 0.77019835 0
6.3700004 -3.3843079 0.77013701 0
6.3790002 -3.3030608 0.75990403 0
6.3780003 -3.3132992 0.75984442 0
6.3770003 -3.323534 0.75978494 0
6.3750005 -3.333215 0.75966591 0
6.3740005 -3.343441 0.75960636 0
6.3730001 -3.353663 0.75954688 0
6.3720002 -3.3638813 0.75948727 0
6.3710003 -3.3740964 0.75942779 0
6.3700004 -3.3843079 0.7593683 0
6.3790002 -3.3030608 0.74911904 0
6.3780003 -3.3132992 0.74906135 0
6.3770003 -3.323534 0.74900359 0
6.3750005 -3.333215 0.74888813 0
6.3740005 -3.343441 0.74883044 0
6.3730001 -3.353663 0.74877268 0
6.3720002 -3.3638813 0.74871498 0
6.3710003 -3.3740964 0.74865723 0
6.3700004 -3.3843079 0.74859953 0
6.3790002 -3.3030608 0.73833406 0
6.3780003 -3.3132992 0.73827815 0
6.3770003 -3.323534 0.73822224 0
6.3750005 -3.333215 0.73811042 0
6.3740005 -3.343441 0.73805451 0
6.3730001 -3.353663 0.73799855 0
6.3720002 -3.3638813 0.73794264 0
6.3710003 -3.3740964 0.73788673 0
6.3700004 -3.3843079 0.73783076 0
6.3790002 -3.3030608 0.72754908 0
6.3780003 -3.3132992 0.72749496 0
6.3770003 -3.323534 0.72744083 0
6.3750005 -3.333215 0.72733265 0
6.3740005 -3.343441 0.72727853 0
6.3730001 -3.353663 0.72722441 0
6.3720002 -3.3638813 0.72717029 0
6.3710003 -3.3740964 0.72711617 0
6.3700004 -3.3843079 0.72706211 0
6.3790002 -3.3030608 0.71676409 0
6.3780003 -3.3132992 0.71671176 0
6.3770003 -3.323534 0.71665955 0
6.3750005 -3.333215 0.71655488 0
6.3740005 -3.343441 0.71650255 0
6.3730001 -3.353663 0.71645021 0
6.3720002 -3.3638813 0.71639794 0
6.3710003 -3.3740964 0.71634567 0
6.3700004 -3.3843079 0.71629333 0
6.3790002 -3.3030608 0.70597911 0
6.3780003 -3.3132992 0.70592868 0
6.3770003 -3.323534 0.70587814 0
6.3750005 -3.333215 0.70577717 0
6.3740005 -3.343441 0.70572662 0
6.3730001 -3.353663 0.70567608 0
6.3720002 -3.3638813 0.70562559 0
6.3710003 -3.3740964 0.70557511 0
6.3700004 -3.3843079 0.70552456 0
6.3790002 -3.3030608 0.69519418 0
6.3780003 -3.3132992 0.69514549 0
6.3770003 -3.323534 0.69509679 0
6.3750005 -3.333215 0.6949994 0
6.3740005 -3.343441 0.6949507 0
6.3730001 -3.353663 0.69490194 0
6.3720002 -3.3638813 0.69485325 0
6.3710003 -3.3740964 0.69480455 0
6.3700004 -3.3843079 0.69475585 0
6.3790002 -3.3030608 0.68440926 0
6.3780003 -3.3132992 0.68436229 0
6.3770003 -3.323534 0.68431544 0
6.3750005 -3.333215 0.68422163 0
6.3740005 -3.343441 0.68417472 0
6.3730001 -3.353663 0.68412781 0
6.3720002 -3.3638813 0.68408096 0
6.3710003 -3.3740964 0.68403399 0
6.3700004 -3.3843079 0.68398714 0
6.3790002 -3.3030608 0.67362428 0
6.3780003 -3.3132992 0.6735791 0
6.3770003 -3.323534 0.67353404 0
6.3750005 -3.333215 0.67344391 0
6.3740005 -3.343441 0.67339873 0
6.3730001 -3.353663 0.67335367 0
6.3720002 -3.3638813 0.67330861 0
6.3710003 -3.3740964 0.67326349 0
6.3700004 -3.3843079 0.67321837 0
6.3790002 -3.3030608 0.66283929 0
6.3780003 -3.3132992 0.66279602 0
6.3770003 -3.323534 0.66275269 0
6.3750005 -3.333215 0.66266608 0
6.3740005 -3.343441 0.66262281 0
6.3730001 -3.353663 0.66257954 0
6.3720002 -3.3638813 0.66253626 0
6.3710003 -3.3740964 0.66249293 0
6.3700004 -3.3843079 0.66244966 0
6.3790002 -3.3030608 0.65205431 0
6.3780003 -3.3132992 0.65201283 0
6.3770003 -3.323534 0.65197134 0
6.3750005 -3.333215 0.65188837 0
6.3740005 -3.343441 0.65184689 0
6.3730001 -3.353663 0.6518054 0
6.3720002 -3.3638813 0.65176392 0
6.3710003 -3.3740964 0.65172243 0
6.3700004 -3.3843079 0.65168095 0
6.3790002 -3.3030608 0.64126933 0
6.3780003 -3.3132992 0.64122963 0
6.3770003 -3.323534 0.64118993 0
6.3750005 -3.333215 0.6411106 0
6.3740005 -3.343441 0.64107096 0
6.3730001 -3.353663 0.64103127 0
6.3720002 -3.3638813 0.64099157 0
6.3710003 -3.3740964 0.64095187 0
6.3700004 -3.3843079 0.64091218 0
6.3790002 -3.3030608 0.63048434 0
6.3780003 -3.3132992 0.63044649 0
6.3770003 -3.323534 0.63040864 0
6.3750005 -3.333215 0.63033283 0
6.3740005 -3.343441 0.63029498 0
6.3730001 -3.353663 0.63025707 0
6.3720002 -3.3638813 0.63021922 0
6.3710003 -3.3740964 0.63018131 0
6.3700004 -3.3843079 0.63014346 0
6.3790002 -3.3030608 0.61969936 0
6.3780003 -3.3132992 0.61966336 0
6.3770003 -3.323534 0.61962724 0
6.3750005 -3.333215 0.61955512 0
6.3740005 -3.343441 0.619519 0
6.3730001 -3.353663 0.61948293 0
6.3720002 -3.3638813 0.61944687 0
6.3710003 -3.3740964 0.61941081 0
6.3700004 -3.3843079 0.61937475 0
6.3790002 -3.3030608 0.60891443 0
6.3780003 -3.3132992 0.60888016 0
6.3770003 -3.323534 0.60884589 0
6.3750005 -3.333215 0.60877734 0
6.3740005 -3.343441 0.60874307 0
6.3730001 -3.353663 0.6087088 0
6.3720002 -3.3638813 0.60867453 0
6.3710003 -3.3740964 0.60864025 0
6.3700004 -3.3843079 0.60860598 0
6.3790002 -3.3030608 0.59812945 0
6.3780003 -3.3132992 0.59809697 0
6.3770003 -3.323534 0.59806454 0
6.3750005 -3.333215 0.59799957 0
6.3740005 -3.343441 0.59796715 0
6.3730001 -3.353663 0.59793466 0
6.3720002 -3.3638813 0.59790218 0
6.3710003 -3.3740964 0.59786969 0
6.3700004 -3.3843079 0.59783727 0
6.3790002 -3.3030608 0.58734453 0
6.3780003 -3.3132992 0.58731383 0
6.3770003 -3.323534 0.58728313 0
6.3750005 -3.333215 0.58722186 0
6.3740005 -3.343441 0.58719116 0
6.3730001 -3.353663 0.58716047 0
6.3720002 -3.3638813 0.58712983 0
6.3710003 -3.3740964 0.58709919 0
6.3700004 -3.3843079 0.5870685 0
6.3790002 -3.3030608 0.57655954 0
6.3780003 -3.3132992 0.57653069 0
6.3770003 -3.323534 0.57650179 0
6.3750005 -3.333215 0.57644409 0
6.3740005 -3.343441 0.57641524 0
6.3730001 -3.353663 0.57638633 0
6.3720002 -3.3638813 0.57635748 0
6.3710003 -3.3740964 0.57632864 0
6.3700004 -3.3843079 0.57629979 0
6.3790002 -3.3030608 0.56577456 0
6.3780003 -3.3132992 0.5657475 0
6.3770003 -3.323534 0.56572044 0
6.3750005 -3.333215 0.56566632 0
6.3740005 -3.343441 0.56563926 0
6.3730001 -3.353663 0.5656122 0
6.3720002 -3.3638813 0.56558514 0
6.3710003 -3.3740964 0.56555808 0
6.3700004 -3.3843079 0.56553102 0
6.3790002 -3.3030608 0.55498958 0
6.3780003 -3.3132992 0.5549643 0
6.3770003 -3.323534 0.55493909 0
6.3750005 -3.333215 0.55488861 0
6.3740005 -3.343441 0.55486333 0
6.3730001 -3.353663 0.55483806 0
6.3720002 -3.3638813 0.55481279 0
