# .PCD v0.7 - Point Cloud Data file format
VERSION 0.7
FIELDS x y z intensity
SIZE 4 4 4 4
TYPE F F F F
COUNT 1 1 1 1
WIDTH 1416
HEIGHT 1
VIEWPOINT 0 0 0 1 0 0 0
POINTS 1416
DATA ascii
5.2400002 -1.4515996 0.90163457 0
5.2360005 -1.4591612 0.90122342 0
5.2330003 -1.4670023 0.90091491 0
5.2290001 -1.4745367 0.90050364 0
5.2250004 -1.4820569 0.90009236 0
5.2220001 -1.4898618 0.89978391 0
5.2180004 -1.497355 0.89937264 0
5.2140002 -1.5048335 0.89896142 0
5.2110004 -1.5126026 0.89865291 0
5.2070003 -1.520054 0.8982417 0
5.2040005 -1.5277996 0.89793324 0
5.2000003 -1.5352241 0.89752197 0
5.1960001 -1.542634 0.8971107 0
5.1930003 -1.5503436 0.89680225 0
5.1890001 -1.5577265 0.89639091 0
5.1860003 -1.5654126 0.89608252 0
5.1820002 -1.5727684 0.89567125 0
5.1780005 -1.5801101 0.89525998 0
5.1750002 -1.58776 0.89495152 0
5.1710005 -1.5950745 0.89454031 0
5.1680002 -1.6027008 0.8942318 0
5.1640005 -1.6099885 0.89382058 0
5.1610003 -1.6175913 0.89351207 0
5.1570005 -1.6248518 0.89310086 0
5.1540003 -1.6324313 0.89279234 0
5.1500001 -1.6396645 0.89238107 0
5.1470003 -1.6472207 0.89207268 0
5.1440005 -1.6547661 0.89176416 0
5.1420002 -1.6626415 0.89155853 0
5.2510004 -1.4285433 0.89401531 0
5.2470002 -1.4361463 0.89361131 0
5.2430005 -1.443735 0.89320719 0
5.2400002 -1.4515996 0.89290416 0
5.2360005 -1.4591612 0.89250016 0
5.2330003 -1.4670023 0.89219713 0
5.2290001 -1.4745367 0.89179301 0
5.2250004 -1.4820569 0.89138901 0
5.2220001 -1.4898618 0.89108598 0
5.2180004 -1.497355 0.89068192 0
5.2140002 -1.5048335 0.89027786 0
5.2110004 -1.5126026 0.88997483 0
5.2070003 -1.520054 0.88957077 0
5.2040005 -1.5277996 0.88926774 0
5.2000003 -1.5352241 0.88886368 0
5.1960001 -1.542634 0.88845956 0
5.1710005 -1.5950745 0.88593429 0
5.1680002 -1.6027008 0.8856312 0
5.1640005 -1.6099885 0.8852272 0
5.1610003 -1.6175913 0.88492411 0
5.1570005 -1.6248518 0.88452011 0
5.1540003 -1.6324313 0.88421702 0
5.1500001 -1.6396645 0.88381302 0
5.0550003 -1.4902371 0.84902656 0
5.0520005 -1.4976977 0.8487398 0
5.0480003 -1.5048335 0.84835732 0
5.0450006 -1.5122707 0.84807056 0
5.0410004 -1.5193794 0.84768814 0
5.0380001 -1.526793 0.84740126 0
5.0340004 -1.5338749 0.84701896 0
5.0310001 -1.541265 0.84673214 0
5.0270004 -1.5483197 0.84634972 0
5.0240002 -1.5556865 0.8460629 0
5.0210004 -1.5630424 0.84577608 0
5.0170002 -1.5700574 0.84539366 0
5.0140004 -1.57739 0.8451069 0
5.0100002 -1.5843779 0.84472448 0
5.0070004 -1.5916868 0.84443772 0
5.0030003 -1.5986478 0.84405529 0
5.0000005 -1.6059334 0.84376848 0
4.9970002 -1.6132081 0.84348166 0
4.9930005 -1.6201295 0.84309924 0
5.1260004 -1.3417693 0.8472895 0
5.1220002 -1.3491901 0.84691429 0
5.1190004 -1.3568745 0.84663296 0
5.1150002 -1.3642681 0.84625769 0
5.1120005 -1.371929 0.84597635 0
5.1080003 -1.3792956 0.84560114 0
5.1050005 -1.3869331 0.84531975 0
5.1010003 -1.3942727 0.84494454 0
5.0970001 -1.401598 0.84456933 0
5.0940003 -1.4091991 0.84428799 0
5.0900002 -1.4164975 0.84391272 0
5.0870004 -1.4240752 0.84363139 0
5.0830002 -1.4313463 0.84325618 0
5.0800004 -1.4389008 0.84297478 0
5.0760002 -1.4461447 0.84259963 0
5.0730004 -1.4536757 0.84231818 0
5.0690002 -1.4608927 0.84194303 0
5.0660005 -1.4684002 0.84166163 0
5.0620003 -1.4755902 0.84128642 0
5.0590005 -1.4830743 0.84100509 0
5.0550003 -1.4902371 0.84062982 0
5.0520005 -1.4976977 0.84034848 0
5.0480003 -1.5048335 0.83997321 0
5.0450006 -1.5122707 0.83969188 0
5.0410004 -1.5193794 0.83931667 0
5.0380001 -1.526793 0.83903527 0
5.0340004 -1.5338749 0.83866012 0
5.0310001 -1.541265 0.83837867 0
5.0270004 -1.5483197 0.83800352 0
5.0240002 -1.5556865 0.83772206 0
5.0210004 -1.5630424 0.83744073 0
5.0170002 -1.5700574 0.83706546 0
5.0140004 -1.57739 0.83678412 0
5.0100002 -1.5843779 0.83640891 0
5.0070004 -1.5916868 0.83612752 0
5.0030003 -1.5986478 0.83575231 0
5.0000005 -1.6059334 0.83547091 0
4.9970002 -1.6132081 0.83518958 0
4.9930005 -1.6201295 0.83481443 0
4.9900002 -1.6273806 0.83453298 0
5.1370001 -1.3191512 0.83977664 0
5.1330004 -1.3266137 0.83940864 0
5.1300001 -1.3343339 0.83913267 0
5.1260004 -1.3417693 0.83876467 0
5.1220002 -1.3491901 0.83839667 0
5.1190004 -1.3568745 0.83812076 0
5.1150002 -1.3642681 0.83775276 0
5.1120005 -1.371929 0.83747679 0
5.1080003 -1.3792956 0.83710879 0
5.1050005 -1.3869331 0.83683282 0
5.1010003 -1.3942727 0.83646482 0
5.0970001 -1.401598 0.83609688 0
5.0940003 -1.4091991 0.83582091 0
5.0900002 -1.4164975 0.83545291 0
5.0870004 -1.4240752 0.83517694 0
5.0830002 -1.4313463 0.83480895 0
5.0800004 -1.4389008 0.83453298 0
5.0760002 -1.4461447 0.83416498 0
5.0730004 -1.4536757 0.83388901 0
5.0690002 -1.4608927 0.83352101 0
5.0660005 -1.4684002 0.83324504 0
5.0620003 -1.4755902 0.83287704 0
5.0590005 -1.4830743 0.83260107 0
5.0550003 -1.4902371 0.83223307 0
5.0520005 -1.4976977 0.8319571 0
5.0480003 -1.5048335 0.83158916 0
5.0450006 -1.5122707 0.83131319 0
5.0410004 -1.5193794 0.83094519 0
5.0380001 -1.526793 0.83066916 0
5.0340004 -1.5338749 0.83030123 0
5.0310001 -1.541265 0.8300252 0
5.0270004 -1.5483197 0.82965732 0
5.0240002 -1.5556865 0.82938129 0
5.0210004 -1.5630424 0.82910532 0
5.0170002 -1.5700574 0.82873732 0
5.0140004 -1.57739 0.82846135 0
5.0100002 -1.5843779 0.82809335 0
5.0070004 -1.5916868 0.82781738 0
5.0030003 -1.5986478 0.82744944 0
5.0000005 -1.6059334 0.82717347 0
4.9970002 -1.6132081 0.82689744 0
4.9930005 -1.6201295 0.8265295 0
4.9900002 -1.6273806 0.82625347 0
4.9860005 -1.6342748 0.82588553 0
5.1400003 -1.3114076 0.83150256 0
5.1370001 -1.3191512 0.83123195 0
5.1330004 -1.3266137 0.83087122 0
5.1300001 -1.3343339 0.83060062 0
5.1260004 -1.3417693 0.83023989 0
5.1220002 -1.3491901 0.82987916 0
5.1190004 -1.3568745 0.82960856 0
5.1150002 -1.3642681 0.82924777 0
5.1120005 -1.371929 0.82897723 0
5.1080003 -1.3792956 0.8286165 0
5.1050005 -1.3869331 0.82834589 0
5.1010003 -1.3942727 0.82798517 0
5.0970001 -1.401598 0.82762438 0
5.0940003 -1.4091991 0.82735384 0
5.0900002 -1.4164975 0.82699299 0
5.0870004 -1.4240752 0.8267225 0
5.0830002 -1.4313463 0.82636172 0
5.0800004 -1.4389008 0.82609117 0
5.0760002 -1.4461447 0.82573032 0
5.0730004 -1.4536757 0.82545984 0
5.0690002 -1.4608927 0.82509905 0
5.0660005 -1.4684002 0.82482851 0
5.0620003 -1.4755902 0.82446772 0
5.0590005 -1.4830743 0.82419717 0
5.0550003 -1.4902371 0.82383639 0
5.0520005 -1.4976977 0.82356584 0
5.0480003 -1.5048335 0.82320505 0
5.0450006 -1.5122707 0.82293451 0
5.0410004 -1.5193794 0.82257372 0
5.0380001 -1.526793 0.82230312 0
5.0340004 -1.5338749 0.82194239 0
5.0310001 -1.541265 0.82167178 0
5.0270004 -1.5483197 0.82131106 0
5.0240002 -1.5556865 0.82104045 0
5.0210004 -1.5630424 0.82076991 0
5.0170002 -1.5700574 0.82040918 0
5.0140004 -1.57739 0.82013857 0
5.0100002 -1.5843779 0.81977779 0
5.0070004 -1.5916868 0.81950724 0
5.0030003 -1.5986478 0.81914651 0
5.0000005 -1.6059334 0.81887591 0
4.9970002 -1.6132081 0.8186053 0
4.9930005 -1.6201295 0.81824458 0
4.9900002 -1.6273806 0.81797397 0
4.9860005 -1.6342748 0.81761324 0
4.9830003 -1.6415026 0.81734264 0
5.1400003 -1.3114076 0.82295251 0
5.1370001 -1.3191512 0.82268739 0
5.1330004 -1.3266137 0.82233381 0
5.1300001 -1.3343339 0.82206863 0
5.1260004 -1.3417693 0.82171512 0
5.1220002 -1.3491901 0.82136154 0
5.1190004 -1.3568745 0.82109642 0
5.1150002 -1.3642681 0.82074285 0
5.1120005 -1.371929 0.82047772 0
5.1080003 -1.3792956 0.82012415 0
5.1050005 -1.3869331 0.81985903 0
5.1010003 -1.3942727 0.81950545 0
5.0970001 -1.401598 0.81915188 0
5.0940003 -1.4091991 0.81888676 0
5.0900002 -1.4164975 0.81853318 0
5.0870004 -1.4240752 0.81826806 0
5.0830002 -1.4313463 0.81791449 0
5.0800004 -1.4389008 0.8176493 0
5.0760002 -1.4461447 0.81729579 0
5.0730004 -1.4536757 0.81703067 0
5.0690002 -1.4608927 0.81667709 0
5.0660005 -1.4684002 0.81641191 0
5.0620003 -1.4755902 0.81605834 0
5.0590005 -1.4830743 0.81579322 0
5.0550003 -1.4902371 0.8154397 0
5.0520005 -1.4976977 0.81517452 0
5.0480003 -1.5048335 0.81482095 0
5.0450006 -1.5122707 0.81455582 0
5.0410004 -1.5193794 0.81420225 0
5.0380001 -1.526793 0.81393707 0
5.0340004 -1.5338749 0.81358349 0
5.0310001 -1.541265 0.81331837 0
5.0270004 -1.5483197 0.81296486 0
5.0240002 -1.5556865 0.81269968 0
5.0210004 -1.5630424 0.81243455 0
5.0170002 -1.5700574 0.81208098 0
5.0140004 -1.57739 0.8118158 0
5.0100002 -1.5843779 0.81146222 0
5.0070004 -1.5916868 0.8111971 0
5.0030003 -1.5986478 0.81084359 0
5.0000005 -1.6059334 0.81057841 0
4.9970002 -1.6132081 0.81031322 0
4.9930005 -1.6201295 0.80995971 0
4.9900002 -1.6273806 0.80969453 0
4.9860005 -1.6342748 0.80934095 0
4.9830003 -1.6415026 0.80907583 0
5.1400003 -1.3114076 0.81440246 0
5.1370001 -1.3191512 0.8141427 0
5.1330004 -1.3266137 0.8137964 0
5.1300001 -1.3343339 0.81353664 0
5.1260004 -1.3417693 0.81319034 0
5.1220002 -1.3491901 0.81284398 0
5.1190004 -1.3568745 0.81258428 0
5.1150002 -1.3642681 0.81223786 0
5.1120005 -1.371929 0.81197816 0
5.1080003 -1.3792956 0.8116318 0
5.1050005 -1.3869331 0.8113721 0
5.1010003 -1.3942727 0.81102574 0
5.0970001 -1.401598 0.81067938 0
5.0940003 -1.4091991 0.81041968 0
5.0900002 -1.4164975 0.81007326 0
5.0870004 -1.4240752 0.80981362 0
5.0830002 -1.4313463 0.8094672 0
5.0800004 -1.4389008 0.8092075 0
5.0760002 -1.4461447 0.80886114 0
5.0730004 -1.4536757 0.80860144 0
5.0690002 -1.4608927 0.80825508 0
5.0660005 -1.4684002 0.80799532 0
5.0620003 -1.4755902 0.80764902 0
5.0590005 -1.4830743 0.80738926 0
5.0550003 -1.4902371 0.8070429 0
5.0520005 -1.4976977 0.8067832 0
5.0480003 -1.5048335 0.80643684 0
5.0450006 -1.5122707 0.80617714 0
5.0410004 -1.5193794 0.80583072 0
5.0380001 -1.526793 0.80557096 0
5.0340004 -1.5338749 0.80522466 0
5.0310001 -1.541265 0.8049649 0
5.0270004 -1.5483197 0.8046186 0
5.0240002 -1.5556865 0.80435884 0
5.0210004 -1.5630424 0.80409908 0
5.0170002 -1.5700574 0.80375278 0
5.0140004 -1.57739 0.80349302 0
5.0100002 -1.5843779 0.80314672 0
5.0070004 -1.5916868 0.80288696 0
5.0030003 -1.5986478 0.8025406 0
5.0000005 -1.6059334 0.8022809 0
4.9970002 -1.6132081 0.80202115 0
4.9930005 -1.6201295 0.80167484 0
4.9900002 -1.6273806 0.80141503 0
4.9860005 -1.6342748 0.80106872 0
4.9830003 -1.6415026 0.80080897 0
5.1400003 -1.3114076 0.80585241 0
5.1370001 -1.3191512 0.80559802 0
5.1330004 -1.3266137 0.80525899 0
5.1300001 -1.3343339 0.8050046 0
5.1260004 -1.3417693 0.80466551 0
5.1220002 -1.3491901 0.80432642 0
5.1190004 -1.3568745 0.80407202 0
5.1150002 -1.3642681 0.80373293 0
5.1120005 -1.371929 0.8034786 0
5.1080003 -1.3792956 0.80313945 0
5.1050005 -1.3869331 0.80288517 0
5.1010003 -1.3942727 0.80254602 0
5.0970001 -1.401598 0.80220687 0
5.0940003 -1.4091991 0.8019526 0
5.0900002 -1.4164975 0.80161345 0
5.0870004 -1.4240752 0.80135918 0
5.0830002 -1.4313463 0.80102003 0
5.0800004 -1.4389008 0.80076569 0
5.0760002 -1.4461447 0.80042654 0
5.0730004 -1.4536757 0.80017221 0
5.0690002 -1.4608927 0.79983306 0
5.0660005 -1.4684002 0.79957879 0
5.0620003 -1.4755902 0.79923964 0
5.0590005 -1.4830743 0.79898536 0
5.0550003 -1.4902371 0.79864621 0
5.0520005 -1.4976977 0.79839188 0
5.0480003 -1.5048335 0.79805273 0
5.0450006 -1.5122707 0.7977984 0
5.0410004 -1.5193794 0.7974593 0
5.0380001 -1.526793 0.79720497 0
5.0340004 -1.5338749 0.79686582 0
5.0310001 -1.541265 0.79661149 0
5.0270004 -1.5483197 0.7962724 0
5.0240002 -1.5556865 0.796018 0
5.0210004 -1.5630424 0.79576373 0
5.0170002 -1.5700574 0.79542458 0
5.0140004 -1.57739 0.79517031 0
5.0100002 -1.5843779 0.79483116 0
5.0070004 -1.5916868 0.79457682 0
5.0030003 -1.5986478 0.79423767 0
5.0000005 -1.6059334 0.79398334 0
4.9970002 -1.6132081 0.79372901 0
4.9930005 -1.6201295 0.79338992 0
4.9900002 -1.6273806 0.79313552 0
4.9860005 -1.6342748 0.79279649 0
4.9830003 -1.6415026 0.7925421 0
5.1400003 -1.3114076 0.79730237 0
5.1370001 -1.3191512 0.7970534 0
5.1330004 -1.3266137 0.79672158 0
5.1300001 -1.3343339 0.79647255 0
5.1260004 -1.3417693 0.79614067 0
5.1220002 -1.3491901 0.79580879 0
5.1190004 -1.3568745 0.79555988 0
5.1150002 -1.3642681 0.795228 0
5.1120005 -1.371929 0.7949791 0
5.1080003 -1.3792956 0.79464716 0
5.1050005 -1.3869331 0.79439825 0
5.1010003 -1.3942727 0.79406631 0
5.0970001 -1.401598 0.79373443 0
5.0940003 -1.4091991 0.79348552 0
5.0900002 -1.4164975 0.79315358 0
5.0870004 -1.4240752 0.79290473 0
5.0830002 -1.4313463 0.79257274 0
5.0800004 -1.4389008 0.79232383 0
5.0760002 -1.4461447 0.79199195 0
5.0730004 -1.4536757 0.79174304 0
5.0690002 -1.4608927 0.7914111 0
5.0660005 -1.4684002 0.79116225 0
5.0620003 -1.4755902 0.79083025 0
5.0590005 -1.4830743 0.79058141 0
5.0550003 -1.4902371 0.79024947 0
5.0520005 -1.4976977 0.79000056 0
5.0480003 -1.5048335 0.78966868 0
5.0450006 -1.5122707 0.78941971 0
5.0410004 -1.5193794 0.78908777 0
5.0380001 -1.526793 0.78883886 0
5.0340004 -1.5338749 0.78850698 0
5.0310001 -1.541265 0.78825808 0
5.0270004 -1.5483197 0.7879262 0
5.0240002 -1.5556865 0.78767723 0
5.0210004 -1.5630424 0.78742832 0
5.0170002 -1.5700574 0.78709638 0
5.0140004 -1.57739 0.78684747 0
5.0100002 -1.5843779 0.78651559 0
5.0070004 -1.5916868 0.78626668 0
5.0030003 -1.5986478 0.78593475 0
5.0000005 -1.6059334 0.7856859 0
4.9970002 -1.6132081 0.78543687 0
4.9930005 -1.6201295 0.78510499 0
4.9900002 -1.6273806 0.78485608 0
4.9860005 -1.6342748 0.7845242 0
4.9830003 -1.6415026 0.78427529 0
5.1400003 -1.3114076 0.78875232 0
5.1370001 -1.3191512 0.78850877 0
5.1330004 -1.3266137 0.78818411 0
5.1300001 -1.3343339 0.78794062 0
5.1260004 -1.3417693 0.7876159 0
5.1220002 -1.3491901 0.78729123 0
5.1190004 -1.3568745 0.78704774 0
5.1150002 -1.3642681 0.78672302 0
5.1120005 -1.371929 0.78647953 0
5.1080003 -1.3792956 0.78615487 0
5.1050005 -1.3869331 0.78591132 0
5.1010003 -1.3942727 0.7855866 0
5.0970001 -1.401598 0.78526193 0
5.0940003 -1.4091991 0.78501844 0
5.0900002 -1.4164975 0.78469372 0
5.0870004 -1.4240752 0.78445023 0
5.0830002 -1.4313463 0.78412557 0
5.0800004 -1.4389008 0.78388202 0
5.0760002 -1.4461447 0.7835573 0
5.0730004 -1.4536757 0.78331387 0
5.0690002 -1.4608927 0.78298914 0
5.0660005 -1.4684002 0.7827456 0
5.0620003 -1.4755902 0.78242093 0
5.0590005 -1.4830743 0.78217745 0
5.0550003 -1.4902371 0.78185272 0
5.0520005 -1.4976977 0.7816093 0
5.0480003 -1.5048335 0.78128457 0
5.0450006 -1.5122707 0.78104103 0
5.0410004 -1.5193794 0.78071636 0
5.0380001 -1.526793 0.78047282 0
5.0340004 -1.5338749 0.78014815 0
5.0310001 -1.541265 0.7799046 0
5.0270004 -1.5483197 0.77957994 0
5.0240002 -1.5556865 0.77933645 0
5.0210004 -1.5630424 0.77909291 0
5.0170002 -1.5700574 0.77876818 0
5.0140004 -1.57739 0.77852476 0
5.0100002 -1.5843779 0.77820003 0
5.0070004 -1.5916868 0.77795655 0
5.0030003 -1.5986478 0.77763182 0
5.0000005 -1.6059334 0.77738833 0
4.9970002 -1.6132081 0.77714479 0
4.9930005 -1.6201295 0.77682012 0
4.9900002 -1.6273806 0.77657658 0
4.9860005 -1.6342748 0.77625191 0
4.9830003 -1.6415026 0.77600843 0
5.1400003 -1.3114076 0.78020227 0
5.1370001 -1.3191512 0.77996409 0
5.1330004 -1.3266137 0.77964669 0
5.1300001 -1.3343339 0.77940857 0
5.1260004 -1.3417693 0.77909112 0
5.1220002 -1.3491901 0.77877367 0
5.1190004 -1.3568745 0.77853554 0
5.1150002 -1.3642681 0.77821803 0
5.1120005 -1.371929 0.77797997 0
5.1080003 -1.3792956 0.77766252 0
5.1050005 -1.3869331 0.77742445 0
5.1010003 -1.3942727 0.77710688 0
5.0970001 -1.401598 0.77678943 0
5.0940003 -1.4091991 0.77655137 0
5.0900002 -1.4164975 0.77623385 0
5.0870004 -1.4240752 0.77599579 0
5.0830002 -1.4313463 0.77567828 0
5.0800004 -1.4389008 0.77544022 0
5.0760002 -1.4461447 0.77512276 0
5.0730004 -1.4536757 0.77488464 0
5.0690002 -1.4608927 0.77456713 0
5.0660005 -1.4684002 0.77432907 0
5.0620003 -1.4755902 0.77401161 0
5.0590005 -1.4830743 0.77377349 0
5.0550003 -1.4902371 0.77345598 0
5.0520005 -1.4976977 0.77321792 0
5.0480003 -1.5048335 0.77290046 0
5.0450006 -1.5122707 0.7726624 0
5.0410004 -1.5193794 0.77234483 0
5.0380001 -1.526793 0.77210677 0
5.0340004 -1.5338749 0.77178931 0
5.0310001 -1.541265 0.77155119 0
5.0270004 -1.5483197 0.77123374 0
5.0240002 -1.5556865 0.77099562 0
5.0210004 -1.5630424 0.7707575 0
5.0170002 -1.5700574 0.77044004 0
5.0140004 -1.57739 0.77020198 0
5.0100002 -1.5843779 0.76988447 0
5.0070004 -1.5916868 0.76964641 0
5.0030003 -1.5986478 0.76932895 0
5.0000005 -1.6059334 0.76909083 0
4.9970002 -1.6132081 0.76885271 0
4.9930005 -1.6201295 0.76853526 0
4.9900002 -1.6273806 0.76829708 0
4.9860005 -1.6342748 0.76797968 0
4.9830003 -1.6415026 0.76774156 0
5.1400003 -1.3114076 0.77165222 0
5.1370001 -1.3191512 0.77141953 0
5.1330004 -1.3266137 0.77110922 0
5.1300001 -1.3343339 0.77087653 0
5.1260004 -1.3417693 0.77056634 0
5.1220002 -1.3491901 0.77025604 0
5.1190004 -1.3568745 0.77002335 0
5.1150002 -1.3642681 0.7697131 0
5.1120005 -1.371929 0.76948047 0
5.1080003 -1.3792956 0.76917017 0
5.1050005 -1.3869331 0.76893747 0
5.1010003 -1.3942727 0.76862723 0
5.0970001 -1.401598 0.76831698 0
5.0940003 -1.4091991 0.76808429 0
5.0900002 -1.4164975 0.76777399 0
5.0870004 -1.4240752 0.76754135 0
5.0830002 -1.4313463 0.76723111 0
5.0800004 -1.4389008 0.76699841 0
5.0760002 -1.4461447 0.76668811 0
5.0730004 -1.4536757 0.76645541 0
5.0690002 -1.4608927 0.76614523 0
5.0660005 -1.4684002 0.76591253 0
5.0620003 -1.4755902 0.76560223 0
5.0590005 -1.4830743 0.76536953 0
5.0550003 -1.4902371 0.76505929 0
5.0520005 -1.4976977 0.7648266 0
5.0480003 -1.5048335 0.76451635 0
5.0450006 -1.5122707 0.76428366 0
5.0410004 -1.5193794 0.76397341 0
5.0380001 -1.526793 0.76374066 0
5.0340004 -1.5338749 0.76343048 0
5.0310001 -1.541265 0.76319772 0
5.0270004 -1.5483197 0.76288748 0
5.0240002 -1.5556865 0.76265478 0
5.0210004 -1.5630424 0.76242214 0
5.0170002 -1.5700574 0.7621119 0
5.0140004 -1.57739 0.76187921 0
5.0100002 -1.5843779 0.7615689 0
5.0070004 -1.5916868 0.76133621 0
5.0030003 -1.5986478 0.76102597 0
5.0000005 -1.6059334 0.76079333 0
4.9970002 -1.6132081 0.76056057 0
4.9930005 -1.6201295 0.76025033 0
4.9900002 -1.6273806 0.76001763 0
4.9860005 -1.6342748 0.75970739 0
4.9830003 -1.6415026 0.75947469 0
5.1400003 -1.3114076 0.76310217 0
5.1370001 -1.3191512 0.76287484 0
5.1330004 -1.3266137 0.76257181 0
5.1300001 -1.3343339 0.76234454 0
5.1260004 -1.3417693 0.76204157 0
5.1220002 -1.3491901 0.76173848 0
5.1190004 -1.3568745 0.76151121 0
5.1150002 -1.3642681 0.76120818 0
5.1120005 -1.371929 0.7609809 0
5.1080003 -1.3792956 0.76067781 0
5.1050005 -1.3869331 0.7604506 0
5.1010003 -1.3942727 0.76014757 0
5.0970001 -1.401598 0.75984442 0
5.0940003 -1.4091991 0.75961721 0
5.0900002 -1.4164975 0.75931418 0
5.0870004 -1.4240752 0.75908685 0
5.0830002 -1.4313463 0.75878382 0
5.0800004 -1.4389008 0.7585566 0
5.0760002 -1.4461447 0.75825351 0
5.0730004 -1.4536757 0.75802624 0
5.0690002 -1.4608927 0.75772321 0
5.0660005 -1.4684002 0.75749594 0
5.0620003 -1.4755902 0.75719285 0
5.0590005 -1.4830743 0.75696564 0
5.0550003 -1.4902371 0.75666261 0
5.0520005 -1.4976977 0.75643528 0
5.0480003 -1.5048335 0.75613225 0
5.0450006 -1.5122707 0.75590503 0
5.0410004 -1.5193794 0.75560194 0
5.0380001 -1.526793 0.75537467 0
5.0340004 -1.5338749 0.75507164 0
5.0310001 -1.541265 0.75484431 0
5.0270004 -1.5483197 0.75454128 0
5.0240002 -1.5556865 0.75431401 0
5.0210004 -1.5630424 0.75408673 0
5.0170002 -1.5700574 0.7537837 0
5.0140004 -1.57739 0.75355637 0
5.0100002 -1.5843779 0.75325334 0
5.0070004 -1.5916868 0.75302613 0
5.0030003 -1.5986478 0.75272304 0
5.0000005 -1.6059334 0.75249577 0
4.9970002 -1.6132081 0.75226843 0
4.9930005 -1.6201295 0.75196546 0
4.9900002 -1.6273806 0.75173819 0
4.9860005 -1.6342748 0.75143516 0
4.9830003 -1.6415026 0.75120783 0
5.1400003 -1.3114076 0.75455213 0
5.1370001 -1.3191512 0.75433022 0
5.1330004 -1.3266137 0.7540344 0
5.1300001 -1.3343339 0.75381255 0
5.1260004 -1.3417693 0.75351667 0
5.1220002 -1.3491901 0.75322092 0
5.1190004 -1.3568745 0.75299907 0
5.1150002 -1.3642681 0.75270319 0
5.1120005 -1.371929 0.75248134 0
5.1080003 -1.3792956 0.75218552 0
5.1050005 -1.3869331 0.75196362 0
5.1010003 -1.3942727 0.75166786 0
5.0970001 -1.401598 0.75137198 0
5.0940003 -1.4091991 0.75115013 0
5.0900002 -1.4164975 0.75085425 0
5.0870004 -1.4240752 0.75063241 0
5.0830002 -1.4313463 0.75033659 0
5.0800004 -1.4389008 0.75011474 0
5.0760002 -1.4461447 0.74981892 0
5.0730004 -1.4536757 0.74959707 0
5.0690002 -1.4608927 0.7493012 0
5.0660005 -1.4684002 0.74907935 0
5.0620003 -1.4755902 0.74878353 0
5.0590005 -1.4830743 0.74856162 0
5.0550003 -1.4902371 0.74826586 0
5.0520005 -1.4976977 0.74804401 0
5.0480003 -1.5048335 0.74774814 0
5.0450006 -1.5122707 0.74752629 0
5.0410004 -1.5193794 0.74723041 0
5.0380001 -1.526793 0.74700856 0
5.0340004 -1.5338749 0.7467128 0
5.0310001 -1.541265 0.74649084 0
5.0270004 -1.5483197 0.74619508 0
5.0240002 -1.5556865 0.74597317 0
5.0210004 -1.5630424 0.74575132 0
5.0170002 -1.5700574 0.7454555 0
5.0140004 -1.57739 0.74523365 0
5.0100002 -1.5843779 0.74493778 0
5.0070004 -1.5916868 0.74471593 0
5.0030003 -1.5986478 0.74442011 0
5.0000005 -1.6059334 0.74419826 0
4.9970002 -1.6132081 0.74397635 0
4.9930005 -1.6201295 0.7436806 0
4.9900002 -1.6273806 0.74345869 0
4.9860005 -1.6342748 0.74316287 0
4.9830003 -1.6415026 0.74294102 0
5.1400003 -1.3114076 0.74600208 0
5.1370001 -1.3191512 0.74578559 0
5.1330004 -1.3266137 0.74549699 0
5.1300001 -1.3343339 0.7452805 0
5.1260004 -1.3417693 0.7449919 0
5.1220002 -1.3491901 0.74470329 0
5.1190004 -1.3568745 0.74448687 0
5.1150002 -1.3642681 0.7441982 0
5.1120005 -1.371929 0.74398178 0
5.1080003 -1.3792956 0.74369317 0
5.1050005 -1.3869331 0.74347675 0
5.1010003 -1.3942727 0.74318814 0
5.0970001 -1.401598 0.74289954 0
5.0940003 -1.4091991 0.74268305 0
5.0900002 -1.4164975 0.74239445 0
5.0870004 -1.4240752 0.74217796 0
5.0830002 -1.4313463 0.74188936 0
5.0800004 -1.4389008 0.74167293 0
5.0760002 -1.4461447 0.74138427 0
5.0730004 -1.4536757 0.74116784 0
5.0690002 -1.4608927 0.74087924 0
5.0660005 -1.4684002 0.74066281 0
5.0620003 -1.4755902 0.74037421 0
5.0590005 -1.4830743 0.74015772 0
5.0550003 -1.4902371 0.73986912 0
5.0520005 -1.4976977 0.73965263 0
5.0480003 -1.5048335 0.73936403 0
5.0450006 -1.5122707 0.7391476 0
5.0410004 -1.5193794 0.738859 0
5.0380001 -1.526793 0.73864251 0
5.0340004 -1.5338749 0.73835391 0
5.0310001 -1.541265 0.73813748 0
5.0270004 -1.5483197 0.73784888 0
5.0240002 -1.5556865 0.73763239 0
5.0210004 -1.5630424 0.73741591 0
5.0170002 -1.5700574 0.7371273 0
5.0140004 -1.57739 0.73691088 0
5.0100002 -1.5843779 0.73662221 0
5.0070004 -1.5916868 0.73640579 0
5.0030003 -1.5986478 0.73611718 0
5.0000005 -1.6059334 0.73590076 0
4.9970002 -1.6132081 0.73568428 0
4.9930005 -1.6201295 0.73539567 0
4.9900002 -1.6273806 0.73517919 0
4.9860005 -1.6342748 0.73489058 0
4.9830003 -1.6415026 0.7346741 0
5.1400003 -1.3114076 0.73745203 0
5.1370001 -1.3191512 0.73724091 0
5.1330004 -1.3266137 0.73695958 0
5.1300001 -1.3343339 0.73674852 0
5.1260004 -1.3417693 0.73646712 0
5.1220002 -1.3491901 0.73618573 0
5.1190004 -1.3568745 0.73597467 0
5.1150002 -1.3642681 0.73569334 0
5.1120005 -1.371929 0.73548228 0
5.1080003 -1.3792956 0.73520082 0
5.1050005 -1.3869331 0.73498982 0
5.1010003 -1.3942727 0.73470843 0
5.0970001 -1.401598 0.73442698 0
5.0940003 -1.4091991 0.73421597 0
5.0900002 -1.4164975 0.73393458 0
5.0870004 -1.4240752 0.73372352 0
5.0830002 -1.4313463 0.73344213 0
5.0800004 -1.4389008 0.73323107 0
5.0760002 -1.4461447 0.73294967 0
5.0730004 -1.4536757 0.73273861 0
5.0690002 -1.4608927 0.73245728 0
5.0660005 -1.4684002 0.73224622 0
5.0620003 -1.4755902 0.73196483 0
5.0590005 -1.4830743 0.73175383 0
5.0550003 -1.4902371 0.73147237 0
5.0520005 -1.4976977 0.73126137 0
5.0480003 -1.5048335 0.73097992 0
5.0450006 -1.5122707 0.73076892 0
5.0410004 -1.5193794 0.73048747 0
5.0380001 -1.526793 0.73027647 0
5.0340004 -1.5338749 0.72999507 0
5.0310001 -1.541265 0.72978401 0
5.0270004 -1.5483197 0.72950268 0
5.0240002 -1.5556865 0.72929156 0
5.0210004 -1.5630424 0.72908056 0
5.0170002 -1.5700574 0.7287991 0
5.0140004 -1.57739 0.7285881 0
5.0100002 -1.5843779 0.72830671 0
5.0070004 -1.5916868 0.72809565 0
5.0030003 -1.5986478 0.72781426 0
5.0000005 -1.6059334 0.7276032 0
4.9970002 -1.6132081 0.7273922 0
4.9930005 -1.6201295 0.72711074 0
4.9900002 -1.6273806 0.72689974 0
4.9860005 -1.6342748 0.72661835 0
4.9830003 -1.6415026 0.72640729 0
5.1400003 -1.3114076 0.72890198 0
5.1370001 -1.3191512 0.72869629 0
5.1330004 -1.3266137 0.72842216 0
5.1300001 -1.3343339 0.72821653 0
5.1260004 -1.3417693 0.72794235 0
5.1220002 -1.3491901 0.72766817 0
5.1190004 -1.3568745 0.72746253 0
5.1150002 -1.3642681 0.72718835 0
5.1120005 -1.371929 0.72698271 0
5.1080003 -1.3792956 0.72670853 0
5.1050005 -1.3869331 0.7265029 0
5.1010003 -1.3942727 0.72622871 0
5.0970001 -1.401598 0.72595453 0
5.0940003 -1.4091991 0.7257489 0
5.0900002 -1.4164975 0.72547472 0
5.0870004 -1.4240752 0.72526908 0
5.0830002 -1.4313463 0.7249949 0
5.0800004 -1.4389008 0.72478926 0
5.0760002 -1.4461447 0.72451508 0
5.0730004 -1.4536757 0.72430944 0
5.0690002 -1.4608927 0.72403526 0
5.0660005 -1.4684002 0.72382963 0
5.0620003 -1.4755902 0.72355545 0
5.0590005 -1.4830743 0.72334987 0
5.0550003 -1.4902371 0.72307563 0
5.0520005 -1.4976977 0.72286999 0
5.0480003 -1.5048335 0.72259581 0
5.0450006 -1.5122707 0.72239017 0
5.0410004 -1.5193794 0.72211605 0
5.0380001 -1.526793 0.72191036 0
5.0340004 -1.5338749 0.72163618 0
5.0310001 -1.541265 0.72143054 0
5.0270004 -1.5483197 0.72115642 0
5.0240002 -1.5556865 0.72095072 0
5.0210004 -1.5630424 0.72074509 0
5.0170002 -1.5700574 0.72047091 0
5.0140004 -1.57739 0.72026533 0
5.0100002 -1.5843779 0.71999115 0
5.0070004 -1.5916868 0.71978551 0
5.0030003 -1.5986478 0.71951127 0
5.0000005 -1.6059334 0.71930575 0
4.9970002 -1.6132081 0.71910006 0
4.9930005 -1.6201295 0.71882588 0
4.9900002 -1.6273806 0.71862024 0
4.9860005 -1.6342748 0.71834612 0
4.9830003 -1.6415026 0.71814042 0
5.1400003 -1.3114076 0.72035193 0
5.1370001 -1.3191512 0.72015166 0
5.1330004 -1.3266137 0.71988475 0
5.1300001 -1.3343339 0.71968448 0
5.1260004 -1.3417693 0.71941757 0
5.1220002 -1.3491901 0.71915054 0
5.1190004 -1.3568745 0.71895039 0
5.1150002 -1.3642681 0.71868336 0
5.1120005 -1.371929 0.71848315 0
5.1080003 -1.3792956 0.71821618 0
5.1050005 -1.3869331 0.71801603 0
5.1010003 -1.3942727 0.717749 0
5.0970001 -1.401598 0.71748203 0
5.0940003 -1.4091991 0.71728182 0
5.0900002 -1.4164975 0.71701485 0
5.0870004 -1.4240752 0.71681464 0
5.0830002 -1.4313463 0.71654761 0
5.0800004 -1.4389008 0.71634746 0
5.0760002 -1.4461447 0.71608049 0
5.0730004 -1.4536757 0.71588027 0
5.0690002 -1.4608927 0.71561331 0
5.0660005 -1.4684002 0.71541309 0
5.0620003 -1.4755902 0.71514606 0
5.0590005 -1.4830743 0.71494591 0
5.0550003 -1.4902371 0.71467888 0
5.0520005 -1.4976977 0.71447873 0
5.0480003 -1.5048335 0.71421176 0
5.0450006 -1.5122707 0.71401155 0
5.0410004 -1.5193794 0.71374452 0
5.0380001 -1.526793 0.71354431 0
5.0340004 -1.5338749 0.71327734 0
5.0310001 -1.541265 0.71307713 0
5.0270004 -1.5483197 0.71281016 0
5.0240002 -1.5556865 0.71260995 0
5.0210004 -1.5630424 0.71240973 0
5.0170002 -1.5700574 0.71214277 0
5.0140004 -1.57739 0.71194255 0
5.0100002 -1.5843779 0.71167558 0
5.0070004 -1.5916868 0.71147537 0
5.0030003 -1.5986478 0.7112084 0
5.0000005 -1.6059334 0.71100819 0
4.9970002 -1.6132081 0.71080792 0
4.9930005 -1.6201295 0.71054101 0
4.9900002 -1.6273806 0.71034074 0
4.9860005 -1.6342748 0.71007383 0
4.9830003 -1.6415026 0.70987356 0
5.1400003 -1.3114076 0.71180189 0
5.1370001 -1.3191512 0.71160698 0
5.1330004 -1.3266137 0.71134734 0
5.1300001 -1.3343339 0.71115243 0
5.1260004 -1.3417693 0.71089274 0
5.1220002 -1.3491901 0.71063298 0
5.1190004 -1.3568745 0.71043819 0
5.1150002 -1.3642681 0.71017838 0
5.1120005 -1.371929 0.70998365 0
5.1080003 -1.3792956 0.70972383 0
5.1050005 -1.3869331 0.70952904 0
5.1010003 -1.3942727 0.70926929 0
5.0970001 -1.401598 0.70900953 0
5.0940003 -1.4091991 0.70881474 0
5.0900002 -1.4164975 0.70855498 0
5.0870004 -1.4240752 0.7083602 0
5.0830002 -1.4313463 0.70810044 0
5.0800004 -1.4389008 0.70790565 0
5.0760002 -1.4461447 0.70764589 0
5.0730004 -1.4536757 0.70745111 0
5.0690002 -1.4608927 0.70719129 0
5.0660005 -1.4684002 0.7069965 0
5.0620003 -1.4755902 0.70673674 0
5.0590005 -1.4830743 0.70654196 0
5.0550003 -1.4902371 0.7062822 0
5.0520005 -1.4976977 0.70608741 0
5.0480003 -1.5048335 0.70582759 0
5.0450006 -1.5122707 0.70563281 0
5.0410004 -1.5193794 0.70537305 0
5.0380001 -1.526793 0.70517826 0
5.0340004 -1.5338749 0.7049185 0
5.0310001 -1.541265 0.70472372 0
5.0270004 -1.5483197 0.70446396 0
5.0240002 -1.5556865 0.70426917 0
5.0210004 -1.5630424 0.70407438 0
5.0170002 -1.5700574 0.70381463 0
5.0140004 -1.57739 0.70361978 0
5.0100002 -1.5843779 0.70336002 0
5.0070004 -1.5916868 0.70316523 0
5.0030003 -1.5986478 0.70290548 0
5.0000005 -1.6059334 0.70271063 0
4.9970002 -1.6132081 0.70251584 0
4.9930005 -1.6201295 0.70225608 0
4.9900002 -1.6273806 0.7020613 0
4.9860005 -1.6342748 0.70180154 0
4.9830003 -1.6415026 0.70160675 0
5.1400003 -1.3114076 0.70325184 0
5.1370001 -1.3191512 0.70306242 0
5.1330004 -1.3266137 0.70280987 0
5.1300001 -1.3343339 0.70262045 0
5.1260004 -1.3417693 0.7023679 0
5.1220002 -1.3491901 0.70211542 0
5.1190004 -1.3568745 0.70192599 0
5.1150002 -1.3642681 0.70167351 0
5.1120005 -1.371929 0.70148408 0
5.1080003 -1.3792956 0.70123148 0
5.1050005 -1.3869331 0.70104218 0
5.1010003 -1.3942727 0.70078957 0
5.0970001 -1.401598 0.70053709 0
5.0940003 -1.4091991 0.70034766 0
5.0900002 -1.4164975 0.70009518 0
5.0870004 -1.4240752 0.69990575 0
5.0830002 -1.4313463 0.69965315 0
5.0800004 -1.4389008 0.69946384 0
5.0760002 -1.4461447 0.69921124 0
5.0730004 -1.4536757 0.69902188 0
5.0690002 -1.4608927 0.69876933 0
5.0660005 -1.4684002 0.69857991 0
5.0620003 -1.4755902 0.69832742 0
5.0590005 -1.4830743 0.698138 0
5.0550003 -1.4902371 0.69788545 0
5.0520005 -1.4976977 0.69769609 0
5.0480003 -1.5048335 0.69744354 0
5.0450006 -1.5122707 0.69725418 0
5.0410004 -1.5193794 0.69700158 0
5.0380001 -1.526793 0.69681215 0
5.0340004 -1.5338749 0.69655967 0
5.0310001 -1.541265 0.69637024 0
5.0270004 -1.5483197 0.69611776 0
5.0240002 -1.5556865 0.69592834 0
5.0210004 -1.5630424 0.69573891 0
5.0170002 -1.5700574 0.69548643 0
5.0140004 -1.57739 0.695297 0
5.0100002 -1.5843779 0.69504446 0
5.0070004 -1.5916868 0.69485509 0
5.0030003 -1.5986478 0.69460255 0
5.0000005 -1.6059334 0.69441319 0
4.9970002 -1.6132081 0.69422376 0
4.9930005 -1.6201295 0.69397122 0
4.9900002 -1.6273806 0.69378185 0
4.9860005 -1.6342748 0.69352925 0
4.9830003 -1.6415026 0.69333982 0
5.1400003 -1.3114076 0.69470173 0
5.1370001 -1.3191512 0.69451773 0
5.1330004 -1.3266137 0.69427246 0
5.1300001 -1.3343339 0.69408846 0
5.1260004 -1.3417693 0.69384313 0
5.1220002 -1.3491901 0.69359779 0
5.1190004 -1.3568745 0.69341385 0
5.1150002 -1.3642681 0.69316852 0
5.1120005 -1.371929 0.69298452 0
5.1080003 -1.3792956 0.69273919 0
5.1050005 -1.3869331 0.69255519 0
5.1010003 -1.3942727 0.69230992 0
5.0970001 -1.401598 0.69206452 0
5.0940003 -1.4091991 0.69188058 0
5.0900002 -1.4164975 0.69163525 0
5.0870004 -1.4240752 0.69145131 0
5.0830002 -1.4313463 0.69120598 0
5.0800004 -1.4389008 0.69102198 0
5.0760002 -1.4461447 0.69077671 0
5.0730004 -1.4536757 0.69059271 0
5.0690002 -1.4608927 0.69034731 0
5.0660005 -1.4684002 0.69016337 0
5.0620003 -1.4755902 0.68991804 0
5.0590005 -1.4830743 0.6897341 0
5.0550003 -1.4902371 0.68948877 0
5.0520005 -1.4976977 0.68930477 0
5.0480003 -1.5048335 0.68905944 0
5.0450006 -1.5122707 0.68887544 0
5.0410004 -1.5193794 0.6886301 0
5.0380001 -1.526793 0.68844616 0
5.0340004 -1.5338749 0.68820083 0
5.0310001 -1.541265 0.68801677 0
5.0270004 -1.5483197 0.68777156 0
5.0240002 -1.5556865 0.6875875 0
5.0210004 -1.5630424 0.68740356 0
5.0170002 -1.5700574 0.68715823 0
5.0140004 -1.57739 0.68697423 0
5.0100002 -1.5843779 0.68672895 0
5.0070004 -1.5916868 0.68654495 0
5.0030003 -1.5986478 0.68629956 0
5.0000005 -1.6059334 0.68611562 0
4.9970002 -1.6132081 0.68593162 0
4.9930005 -1.6201295 0.68568635 0
4.9900002 -1.6273806 0.68550229 0
4.9860005 -1.6342748 0.68525702 0
4.9830003 -1.6415026 0.68507302 0
5.1400003 -1.3114076 0.68615174 0
5.1370001 -1.3191512 0.68597311 0
5.1330004 -1.3266137 0.68573499 0
5.1300001 -1.3343339 0.68555641 0
5.1260004 -1.3417693 0.68531835 0
5.1220002 -1.3491901 0.68508023 0
5.1190004 -1.3568745 0.68490165 0
5.1150002 -1.3642681 0.68466353 0
5.1120005 -1.371929 0.68448496 0
5.1080003 -1.3792956 0.6842469 0
5.1050005 -1.3869331 0.68406832 0
5.1010003 -1.3942727 0.6838302 0
5.0970001 -1.401598 0.68359208 0
5.0940003 -1.4091991 0.68341351 0
5.0900002 -1.4164975 0.68317544 0
5.0870004 -1.4240752 0.68299687 0
5.0830002 -1.4313463 0.68275869 0
5.0800004 -1.4389008 0.68258011 0
5.0760002 -1.4461447 0.68234205 0
5.0730004 -1.4536757 0.68216348 0
5.0690002 -1.4608927 0.68192542 0
5.0660005 -1.4684002 0.68174684 0
5.0620003 -1.4755902 0.68150866 0
5.0590005 -1.4830743 0.68133008 0
5.0550003 -1.4902371 0.68109202 0
5.0520005 -1.4976977 0.68091345 0
5.0480003 -1.5048335 0.68067533 0
5.0450006 -1.5122707 0.68049681 0
5.0410004 -1.5193794 0.68025863 0
5.0380001 -1.526793 0.68008006 0
5.0340004 -1.5338749 0.679842 0
5.0310001 -1.541265 0.67966342 0
5.0270004 -1.5483197 0.6794253 0
5.0240002 -1.5556865 0.67924666 0
5.0210004 -1.5630424 0.67906815 0
5.0170002 -1.5700574 0.67883003 0
5.0140004 -1.57739 0.67865145 0
5.0100002 -1.5843779 0.67841339 0
5.0070004 -1.5916868 0.67823482 0
5.0030003 -1.5986478 0.67799664 0
5.0000005 -1.6059334 0.67781812 0
4.9970002 -1.6132081 0.67763948 0
4.9930005 -1.6201295 0.67740142 0
4.9900002 -1.6273806 0.67722285 0
4.9860005 -1.6342748 0.67698479 0
4.9830003 -1.6415026 0.67680621 0
5.1410003 -1.3116745 0.67765939 0
5.1370001 -1.3191512 0.67742848 0
5.1330004 -1.3266137 0.67719758 0
5.1300001 -1.3343339 0.67702442 0
5.1260004 -1.3417693 0.67679358 0
5.1220002 -1.3491901 0.67656267 0
5.1190004 -1.3568745 0.67638946 0
5.1150002 -1.3642681 0.67615861 0
5.1120005 -1.371929 0.67598546 0
5.1080003 -1.3792956 0.67575455 0
5.1050005 -1.3869331 0.6755814 0
5.1010003 -1.3942727 0.67535049 0
5.0970001 -1.401598 0.67511964 0
5.0940003 -1.4091991 0.67494643 0
5.0900002 -1.4164975 0.67471552 0
5.0870004 -1.4240752 0.67454243 0
5.0830002 -1.4313463 0.67431152 0
5.0800004 -1.4389008 0.67413831 0
5.0760002 -1.4461447 0.6739074 0
5.0730004 -1.4536757 0.67373431 0
5.0690002 -1.4608927 0.6735034 0
5.0660005 -1.4684002 0.67333025 0
5.0620003 -1.4755902 0.67309934 0
5.0590005 -1.4830743 0.67292619 0
5.0550003 -1.4902371 0.67269528 0
5.0520005 -1.4976977 0.67252213 0
5.0480003 -1.5048335 0.67229128 0
5.0450006 -1.5122707 0.67211807 0
5.0410004 -1.5193794 0.67188716 0
5.0380001 -1.526793 0.67171401 0
5.0340004 -1.5338749 0.67148316 0
5.0310001 -1.541265 0.67130995 0
5.0270004 -1.5483197 0.67107904 0
5.0240002 -1.5556865 0.67090589 0
5.0210004 -1.5630424 0.67073274 0
5.0170002 -1.5700574 0.67050183 0
5.0140004 -1.57739 0.67032874 0
5.0100002 -1.5843779 0.67009783 0
5.0070004 -1.5916868 0.66992462 0
5.0030003 -1.5986478 0.66969371 0
5.0000005 -1.6059334 0.66952062 0
4.9970002 -1.6132081 0.66934741 0
4.9930005 -1.6201295 0.66911656 0
4.9900002 -1.6273806 0.66894341 0
4.9860005 -1.6342748 0.6687125 0
4.9830003 -1.6415026 0.66853929 0
5.1410003 -1.3116745 0.66910756 0
5.1370001 -1.3191512 0.6688838 0
5.1330004 -1.3266137 0.66866016 0
5.1300001 -1.3343339 0.66849244 0
5.1260004 -1.3417693 0.66826874 0
5.1220002 -1.3491901 0.66804504 0
5.1190004 -1.3568745 0.66787732 0
5.1150002 -1.3642681 0.66765368 0
5.1120005 -1.371929 0.66748589 0
5.1080003 -1.3792956 0.6672622 0
5.1050005 -1.3869331 0.66709447 0
5.1010003 -1.3942727 0.66687077 0
5.0970001 -1.401598 0.66664708 0
5.0940003 -1.4091991 0.66647935 0
5.0900002 -1.4164975 0.66625571 0
5.0870004 -1.4240752 0.66608799 0
5.0830002 -1.4313463 0.66586423 0
5.0800004 -1.4389008 0.6656965 0
5.0760002 -1.4461447 0.66547287 0
5.0730004 -1.4536757 0.66530508 0
5.0690002 -1.4608927 0.66508138 0
5.0660005 -1.4684002 0.66491365 0
5.0620003 -1.4755902 0.66469002 0
5.0590005 -1.4830743 0.66452229 0
5.0550003 -1.4902371 0.66429853 0
5.0520005 -1.4976977 0.66413081 0
5.0480003 -1.5048335 0.66390717 0
5.0450006 -1.5122707 0.66373938 0
5.0410004 -1.5193794 0.66351569 0
5.0380001 -1.526793 0.66334796 0
5.0340004 -1.5338749 0.66312432 0
5.0310001 -1.541265 0.66295654 0
5.0270004 -1.5483197 0.66273284 0
5.0240002 -1.5556865 0.66256511 0
5.0210004 -1.5630424 0.66239738 0
5.0170002 -1.5700574 0.66217363 0
5.0140004 -1.57739 0.6620059 0
5.0100002 -1.5843779 0.66178226 0
5.0070004 -1.5916868 0.66161454 0
5.0030003 -1.5986478 0.66139078 0
5.0000005 -1.6059334 0.66122305 0
4.9970002 -1.6132081 0.66105533 0
4.9930005 -1.6201295 0.66083169 0
4.9900002 -1.6273806 0.6606639 0
4.9860005 -1.6342748 0.66044021 0
4.9830003 -1.6415026 0.66027248 0
5.1410003 -1.3116745 0.66055566 0
5.1370001 -1.3191512 0.66033918 0
5.1330004 -1.3266137 0.66012275 0
5.1300001 -1.3343339 0.65996039 0
5.1260004 -1.3417693 0.65974396 0
5.1220002 -1.3491901 0.65952748 0
5.1190004 -1.3568745 0.65936518 0
5.1150002 -1.3642681 0.65914869 0
5.1120005 -1.371929 0.65898633 0
5.1080003 -1.3792956 0.65876985 0
5.1050005 -1.3869331 0.65860754 0
5.1010003 -1.3942727 0.65839112 0
5.0970001 -1.401598 0.65817463 0
5.0940003 -1.4091991 0.65801227 0
5.0900002 -1.4164975 0.65779579 0
5.0870004 -1.4240752 0.65763354 0
5.0830002 -1.4313463 0.65741706 0
5.0800004 -1.4389008 0.6572547 0
5.0760002 -1.4461447 0.65703821 0
5.0730004 -1.4536757 0.65687585 0
5.0690002 -1.4608927 0.65665942 0
5.0660005 -1.4684002 0.65649712 0
5.0620003 -1.4755902 0.65628064 0
5.0590005 -1.4830743 0.65611827 0
5.0550003 -1.4902371 0.65590185 0
5.0520005 -1.4976977 0.65573955 0
5.0480003 -1.5048335 0.65552306 0
5.0450006 -1.5122707 0.6553607 0
5.0410004 -1.5193794 0.65514421 0
5.0380001 -1.526793 0.65498185 0
5.0340004 -1.5338749 0.65476543 0
5.0310001 -1.541265 0.65460312 0
5.0270004 -1.5483197 0.65438664 0
5.0240002 -1.5556865 0.65422428 0
5.0210004 -1.5630424 0.65406191 0
5.0170002 -1.5700574 0.65384549 0
5.0140004 -1.57739 0.65368319 0
5.0100002 -1.5843779 0.6534667 0
5.0070004 -1.5916868 0.65330434 0
5.0030003 -1.5986478 0.65308791 0
5.0000005 -1.6059334 0.65292555 0
4.9970002 -1.6132081 0.65276319 0
4.9930005 -1.6201295 0.65254676 0
4.9900002 -1.6273806 0.6523844 0
4.9860005 -1.6342748 0.65216798 0
4.9830003 -1.6415026 0.65200561 0
5.1410003 -1.3116745 0.65200377 0
5.1370001 -1.3191512 0.65179455 0
5.1330004 -1.3266137 0.65158534 0
5.1300001 -1.3343339 0.65142834 0
5.1260004 -1.3417693 0.65121913 0
5.1220002 -1.3491901 0.65100992 0
5.1190004 -1.3568745 0.65085298 0
5.1150002 -1.3642681 0.65064371 0
5.1120005 -1.371929 0.65048683 0
5.1080003 -1.3792956 0.65027755 0
5.1050005 -1.3869331 0.65012062 0
5.1010003 -1.3942727 0.6499114 0
5.0970001 -1.401598 0.64970213 0
5.0940003 -1.4091991 0.64954519 0
5.0900002 -1.4164975 0.64933598 0
5.0870004 -1.4240752 0.64917904 0
5.0830002 -1.4313463 0.64896977 0
5.0800004 -1.4389008 0.64881289 0
5.0760002 -1.4461447 0.64860362 0
5.0730004 -1.4536757 0.64844668 0
5.0690002 -1.4608927 0.64823747 0
5.0660005 -1.4684002 0.64808053 0
5.0620003 -1.4755902 0.64787126 0
5.0590005 -1.4830743 0.64771438 0
5.0550003 -1.4902371 0.6475051 0
5.0520005 -1.4976977 0.64734817 0
5.0480003 -1.5048335 0.64713895 0
5.0450006 -1.5122707 0.64698201 0
5.0410004 -1.5193794 0.64677274 0
5.0380001 -1.526793 0.6466158 0
5.0340004 -1.5338749 0.64640659 0
5.0310001 -1.541265 0.64624965 0
5.0270004 -1.5483197 0.64604044 0
5.0240002 -1.5556865 0.6458835 0
5.0210004 -1.5630424 0.64572656 0
5.0170002 -1.5700574 0.64551729 0
5.0140004 -1.57739 0.64536041 0
5.0100002 -1.5843779 0.64515114 0
5.0070004 -1.5916868 0.6449942 0
5.0030003 -1.5986478 0.64478493 0
5.0000005 -1.6059334 0.64462805 0
4.9970002 -1.6132081 0.64447111 0
4.9930005 -1.6201295 0.64426184 0
4.9900002 -1.6273806 0.6441049 0
4.9860005 -1.6342748 0.64389575 0
4.9830003 -1.6415026 0.64373875 0
5.1410003 -1.3116745 0.64345193 0
5.1370001 -1.3191512 0.64324993 0
5.1330004 -1.3266137 0.64304787 0
5.1300001 -1.3343339 0.64289635 0
5.1260004 -1.3417693 0.64269435 0
5.1220002 -1.3491901 0.64249229 0
5.1190004 -1.3568745 0.64234078 0
5.1150002 -1.3642681 0.64213878 0
5.1120005 -1.371929 0.64198726 0
5.1080003 -1.3792956 0.64178526 0
5.1050005 -1.3869331 0.64163369 0
5.1010003 -1.3942727 0.64143169 0
5.0970001 -1.401598 0.64122963 0
5.0940003 -1.4091991 0.64107811 0
5.0900002 -1.4164975 0.64087611 0
5.0870004 -1.4240752 0.6407246 0
5.0830002 -1.4313463 0.6405226 0
5.0800004 -1.4389008 0.64037108 0
5.0760002 -1.4461447 0.64016902 0
5.0730004 -1.4536757 0.64001751 0
5.0690002 -1.4608927 0.63981545 0
5.0660005 -1.4684002 0.63966393 0
5.0620003 -1.4755902 0.63946193 0
5.0590005 -1.4830743 0.63931042 0
5.0550003 -1.4902371 0.63910842 0
5.0520005 -1.4976977 0.6389569 0
5.0480003 -1.5048335 0.63875484 0
5.0450006 -1.5122707 0.63860333 0
5.0410004 -1.5193794 0.63840127 0
5.0380001 -1.526793 0.63824975 0
5.0340004 -1.5338749 0.63804775 0
5.0310001 -1.541265 0.63789618 0
5.0270004 -1.5483197 0.63769424 0
5.0240002 -1.5556865 0.63754267 0
5.0210004 -1.5630424 0.63739115 0
5.0170002 -1.5700574 0.63718915 0
5.0140004 -1.57739 0.63703763 0
5.0100002 -1.5843779 0.63683558 0
5.0070004 -1.5916868 0.63668406 0
5.0030003 -1.5986478 0.636482 0
5.0000005 -1.6059334 0.63633054 0
4.9970002 -1.6132081 0.63617897 0
4.9930005 -1.6201295 0.63597697 0
4.9900002 -1.6273806 0.63582546 0
4.9860005 -1.6342748 0.63562346 0
4.9830003 -1.6415026 0.63547188 0
5.1410003 -1.3116745 0.63490009 0
5.1370001 -1.3191512 0.63470531 0
5.1330004 -1.3266137 0.63451046 0
5.1300001 -1.3343339 0.63436437 0
5.1260004 -1.3417693 0.63416958 0
5.1220002 -1.3491901 0.63397473 0
5.1190004 -1.3568745 0.63382864 0
5.1150002 -1.3642681 0.63363385 0
5.1120005 -1.371929 0.6334877 0
5.1080003 -1.3792956 0.63329291 0
5.1050005 -1.3869331 0.63314682 0
5.1010003 -1.3942727 0.63295197 0
5.0970001 -1.401598 0.63275719 0
5.0940003 -1.4091991 0.63261104 0
5.0900002 -1.4164975 0.63241625 0
5.0870004 -1.4240752 0.63227016 0
5.0830002 -1.4313463 0.63207531 0
5.0800004 -1.4389008 0.63192922 0
5.0760002 -1.4461447 0.63173443 0
5.0730004 -1.4536757 0.63158828 0
5.0690002 -1.4608927 0.63139349 0
5.0660005 -1.4684002 0.6312474 0
5.0620003 -1.4755902 0.63105255 0
5.0590005 -1.4830743 0.63090646 0
5.0550003 -1.4902371 0.63071167 0
5.0520005 -1.4976977 0.63056552 0
5.0480003 -1.5048335 0.63037074 0
5.0450006 -1.5122707 0.63022465 0
5.0410004 -1.5193794 0.6300298 0
5.0380001 -1.526793 0.62988371 0
5.0340004 -1.5338749 0.62968892 0
5.0310001 -1.541265 0.62954277 0
5.0270004 -1.5483197 0.62934798 0
5.0240002 -1.5556865 0.62920189 0
5.0210004 -1.5630424 0.62905574 0
5.0170002 -1.5700574 0.62886095 0
5.0140004 -1.57739 0.62871486 0
5.0100002 -1.5843779 0.62852001 0
5.0070004 -1.5916868 0.62837392 0
5.0030003 -1.5986478 0.62817907 0
5.0000005 -1.6059334 0.62803304 0
4.9970002 -1.6132081 0.62788689 0
4.9930005 -1.6201295 0.6276921 0
4.9900002 -1.6273806 0.62754595 0
4.9860005 -1.6342748 0.62735116 0
4.9830003 -1.6415026 0.62720501 0
5.1410003 -1.3116745 0.62634826 0
5.1370001 -1.3191512 0.62616062 0
5.1330004 -1.3266137 0.62597305 0
5.1300001 -1.3343339 0.62583232 0
5.1260004 -1.3417693 0.62564474 0
5.1220002 -1.3491901 0.62545717 0
5.1190004 -1.3568745 0.6253165 0
5.1150002 -1.3642681 0.62512887 0
5.1120005 -1.371929 0.6249882 0
5.1080003 -1.3792956 0.62480056 0
5.1050005 -1.3869331 0.6246599 0
5.1010003 -1.3942727 0.62447226 0
5.0970001 -1.401598 0.62428468 0
5.0940003 -1.4091991 0.62414396 0
5.0900002 -1.4164975 0.62395638 0
5.0870004 -1.4240752 0.62381572 0
5.0830002 -1.4313463 0.62362808 0
5.0800004 -1.4389008 0.62348741 0
5.0760002 -1.4461447 0.62329984 0
5.0730004 -1.4536757 0.62315911 0
5.0690002 -1.4608927 0.62297153 0
5.0660005 -1.4684002 0.62283081 0
5.0620003 -1.4755902 0.62264323 0
5.0590005 -1.4830743 0.62250257 0
5.0550003 -1.4902371 0.62231493 0
5.0520005 -1.4976977 0.62217426 0
5.0480003 -1.5048335 0.62198663 0
5.0450006 -1.5122707 0.62184596 0
5.0410004 -1.5193794 0.62165833 0
5.0380001 -1.526793 0.62151766 0
5.0340004 -1.5338749 0.62133002 0
5.0310001 -1.541265 0.62118936 0
5.0270004 -1.5483197 0.62100178 0
5.0240002 -1.5556865 0.62086105 0
5.0210004 -1.5630424 0.62072039 0
5.0170002 -1.5700574 0.62053275 0
5.0140004 -1.57739 0.62039208 0
5.0100002 -1.5843779 0.62020445 0
5.0070004 -1.5916868 0.62006378 0
5.0030003 -1.5986478 0.61987615 0
5.0000005 -1.6059334 0.61973548 0
4.9970002 -1.6132081 0.61959481 0
4.9930005 -1.6201295 0.61940718 0
4.9900002 -1.6273806 0.61926651 0
4.9860005 -1.6342748 0.61907887 0
4.9830003 -1.6415026 0.61893821 0
5.1410003 -1.3116745 0.61779636 0
5.1370001 -1.3191512 0.617616 0
5.1330004 -1.3266137 0.61743563 0
5.1300001 -1.3343339 0.61730033 0
5.1260004 -1.3417693 0.61711997 0
5.1220002 -1.3491901 0.61693954 0
5.1190004 -1.3568745 0.6168043 0
5.1150002 -1.3642681 0.61662388 0
5.1120005 -1.371929 0.61648864 0
5.1080003 -1.3792956 0.61630821 0
5.1050005 -1.3869331 0.61617297 0
5.1010003 -1.3942727 0.61599255 0
5.0970001 -1.401598 0.61581218 0
5.0940003 -1.4091991 0.61567688 0
5.0900002 -1.4164975 0.61549652 0
5.0870004 -1.4240752 0.61536121 0
5.0830002 -1.4313463 0.61518085 0
5.0800004 -1.4389008 0.61504555 0
5.0760002 -1.4461447 0.61486518 0
5.0730004 -1.4536757 0.61472994 0
5.0690002 -1.4608927 0.61454952 0
5.0660005 -1.4684002 0.61441422 0
5.0620003 -1.4755902 0.61423385 0
5.0590005 -1.4830743 0.61409855 0
5.0550003 -1.4902371 0.61391819 0
5.0520005 -1.4976977 0.61378294 0
5.0480003 -1.5048335 0.61360252 0
5.0450006 -1.5122707 0.61346728 0
5.0410004 -1.5193794 0.61328685 0
5.0380001 -1.526793 0.61315155 0
5.0340004 -1.5338749 0.61297119 0
5.0310001 -1.541265 0.61283588 0
5.0270004 -1.5483197 0.61265552 0
5.0240002 -1.5556865 0.61252022 0
5.0210004 -1.5630424 0.61238497 0
5.0170002 -1.5700574 0.61220455 0
5.0140004 -1.57739 0.61206931 0
5.0100002 -1.5843779 0.61188889 0
5.0070004 -1.5916868 0.61175364 0
5.0030003 -1.5986478 0.61157322 0
5.0000005 -1.6059334 0.61143798 0
4.9970002 -1.6132081 0.61130267 0
4.9930005 -1.6201295 0.61112231 0
4.9900002 -1.6273806 0.61098701 0
4.9860005 -1.6342748 0.61080664 0
4.9830003 -1.6415026 0.61067134 0
5.1410003 -1.3116745 0.60924453 0
5.1370001 -1.3191512 0.60907137 0
5.1330004 -1.3266137 0.60889822 0
5.1300001 -1.3343339 0.60876834 0
5.1260004 -1.3417693 0.60859513 0
5.1220002 -1.3491901 0.60842198 0
5.1190004 -1.3568745 0.6082921 0
5.1150002 -1.3642681 0.60811895 0
5.1120005 -1.371929 0.60798907 0
5.1080003 -1.3792956 0.60781592 0
5.1050005 -1.3869331 0.60768604 0
5.1010003 -1.3942727 0.60751289 0
5.0970001 -1.401598 0.60733968 0
5.0940003 -1.4091991 0.6072098 0
5.0900002 -1.4164975 0.60703665 0
5.0870004 -1.4240752 0.60690677 0
5.0830002 -1.4313463 0.60673362 0
5.0800004 -1.4389008 0.60660374 0
5.0760002 -1.4461447 0.60643059 0
5.0730004 -1.4536757 0.60630071 0
5.0690002 -1.4608927 0.60612756 0
5.0660005 -1.4684002 0.60599768 0
5.0620003 -1.4755902 0.60582447 0
5.0590005 -1.4830743 0.60569465 0
5.0550003 -1.4902371 0.60552144 0
5.0520005 -1.4976977 0.60539162 0
5.0480003 -1.5048335 0.60521841 0
5.0450006 -1.5122707 0.60508859 0
5.0410004 -1.5193794 0.60491538 0
5.0380001 -1.526793 0.6047855 0
5.0340004 -1.5338749 0.60461235 0
5.0310001 -1.541265 0.60448247 0
5.0270004 -1.5483197 0.60430932 0
5.0240002 -1.5556865 0.60417944 0
5.0210004 -1.5630424 0.60404956 0
5.0170002 -1.5700574 0.60387635 0
5.0140004 -1.57739 0.60374653 0
5.0100002 -1.5843779 0.60357332 0
5.0070004 -1.5916868 0.6034435 0
5.0030003 -1.5986478 0.60327029 0
5.0000005 -1.6059334 0.60314047 0
4.9970002 -1.6132081 0.60301054 0
4.9930005 -1.6201295 0.60283744 0
4.9900002 -1.6273806 0.60270751 0
4.9860005 -1.6342748 0.60253435 0
4.9830003 -1.6415026 0.60240448 0
5.1410003 -1.3116745 0.60069269 0
5.1370001 -1.3191512 0.60052669 0
5.1330004 -1.3266137 0.60036075 0
5.1300001 -1.3343339 0.6002363 0
5.1260004 -1.3417693 0.60007036 0
5.1220002 -1.3491901 0.59990442 0
5.1190004 -1.3568745 0.59977996 0
5.1150002 -1.3642681 0.59961402 0
5.1120005 -1.371929 0.59948957 0
5.1080003 -1.3792956 0.59932357 0
5.1050005 -1.3869331 0.59919912 0
5.1010003 -1.3942727 0.59903318 0
5.0970001 -1.401598 0.59886718 0
5.0940003 -1.4091991 0.59874272 0
5.0900002 -1.4164975 0.59857678 0
5.0870004 -1.4240752 0.59845233 0
5.0830002 -1.4313463 0.59828639 0
5.0800004 -1.4389008 0.59816194 0
5.0760002 -1.4461447 0.597996 0
