# .PCD v0.7 - Point Cloud Data file format
VERSION 0.7
FIELDS x y z intensity
SIZE 4 4 4 4
TYPE F F F F
COUNT 1 1 1 1
WIDTH 521
HEIGHT 1
VIEWPOINT 0 0 0 1 0 0 0
POINTS 521
DATA ascii
3.1320002 -0.14456008 1.567009 0
3.1280003 -0.14933656 1.5653062 0
3.1240003 -0.15409863 1.5636035 0
3.1200001 -0.15884624 1.5619005 0
3.1170003 -0.16362274 1.5606235 0
3.1130002 -0.16834329 1.5589207 0
3.1090002 -0.17304944 1.557218 0
3.1050003 -0.17774114 1.5555152 0
3.1020002 -0.18246892 1.5542381 0
3.0980003 -0.18713357 1.5525353 0
3.0940003 -0.19178379 1.5508325 0
3.0910003 -0.19647549 1.5495554 0
3.0870001 -0.20109865 1.5478525 0
3.1620002 -0.10578541 1.5747979 0
3.1580002 -0.11067374 1.5731022 0
3.1550002 -0.11557288 1.5718306 0
3.1510003 -0.12043415 1.570135 0
3.1470003 -0.12528098 1.5684395 0
3.1430001 -0.13011338 1.5667437 0
3.1390002 -0.13493136 1.5650483 0
3.1350002 -0.13973489 1.5633527 0
3.1320002 -0.14456008 1.562081 0
3.1280003 -0.14933656 1.5603853 0
3.1240003 -0.15409863 1.55869 0
3.1200001 -0.15884624 1.5569942 0
3.1170003 -0.16362274 1.5557226 0
3.1130002 -0.16834329 1.554027 0
3.1090002 -0.17304944 1.5523314 0
3.1050003 -0.17774114 1.5506359 0
3.1020002 -0.18246892 1.5493642 0
3.0980003 -0.18713357 1.5476686 0
3.0940003 -0.19178379 1.5459731 0
3.0910003 -0.19647549 1.5447013 0
3.1660001 -0.10088266 1.5715041 0
3.1620002 -0.10578541 1.5698158 0
3.1580002 -0.11067374 1.5681273 0
3.1550002 -0.11557288 1.5668612 0
3.1510003 -0.12043415 1.5651727 0
3.1470003 -0.12528098 1.5634844 0
3.1430001 -0.13011338 1.5617959 0
3.1390002 -0.13493136 1.5601076 0
3.1350002 -0.13973489 1.5584193 0
3.1320002 -0.14456008 1.557153 0
3.1280003 -0.14933656 1.5554646 0
3.1240003 -0.15409863 1.5537764 0
3.1200001 -0.15884624 1.5520878 0
3.1170003 -0.16362274 1.5508217 0
3.1130002 -0.16834329 1.5491333 0
3.1090002 -0.17304944 1.5474448 0
3.1050003 -0.17774114 1.5457566 0
3.1020002 -0.18246892 1.5444902 0
3.0980003 -0.18713357 1.5428019 0
3.0940003 -0.19178379 1.5411136 0
3.0910003 -0.19647549 1.5398473 0
3.1660001 -0.10088266 1.5665147 0
3.1620002 -0.10578541 1.5648336 0
3.1580002 -0.11067374 1.5631524 0
3.1550002 -0.11557288 1.5618917 0
3.1510003 -0.12043415 1.5602105 0
3.1470003 -0.12528098 1.5585293 0
3.1430001 -0.13011338 1.5568482 0
3.1390002 -0.13493136 1.555167 0
3.1350002 -0.13973489 1.5534859 0
3.1320002 -0.14456008 1.552225 0
3.1280003 -0.14933656 1.5505438 0
3.1240003 -0.15409863 1.5488628 0
3.1200001 -0.15884624 1.5471815 0
3.1170003 -0.16362274 1.5459207 0
3.1130002 -0.16834329 1.5442395 0
3.1090002 -0.17304944 1.5425584 0
3.1050003 -0.17774114 1.5408772 0
3.1020002 -0.18246892 1.5396163 0
3.0980003 -0.18713357 1.5379353 0
3.0940003 -0.19178379 1.536254 0
3.1660001 -0.10088266 1.5615255 0
3.1620002 -0.10578541 1.5598514 0
3.1580002 -0.11067374 1.5581776 0
3.1550002 -0.11557288 1.5569221 0
3.1510003 -0.12043415 1.5552483 0
3.1470003 -0.12528098 1.5535743 0
3.1430001 -0.13011338 1.5519003 0
3.1390002 -0.13493136 1.5502263 0
3.1350002 -0.13973489 1.5485524 0
3.1320002 -0.14456008 1.547297 0
3.1280003 -0.14933656 1.5456231 0
3.1240003 -0.15409863 1.5439492 0
3.1200001 -0.15884624 1.5422751 0
3.1170003 -0.16362274 1.5410198 0
3.1130002 -0.16834329 1.5393457 0
3.1090002 -0.17304944 1.5376719 0
3.1050003 -0.17774114 1.535998 0
3.1020002 -0.18246892 1.5347425 0
3.0980003 -0.18713357 1.5330685 0
3.1660001 -0.10088266 1.556536 0
3.1620002 -0.10578541 1.5548694 0
3.1580002 -0.11067374 1.5532026 0
3.1550002 -0.11557288 1.5519526 0
3.1510003 -0.12043415 1.5502859 0
3.1470003 -0.12528098 1.5486193 0
3.1430001 -0.13011338 1.5469524 0
3.1390002 -0.13493136 1.5452858 0
3.1350002 -0.13973489 1.543619 0
3.1320002 -0.14456008 1.542369 0
3.1280003 -0.14933656 1.5407022 0
3.1240003 -0.15409863 1.5390357 0
3.1200001 -0.15884624 1.5373688 0
3.1170003 -0.16362274 1.5361189 0
3.1130002 -0.16834329 1.5344521 0
3.1090002 -0.17304944 1.5327854 0
3.1050003 -0.17774114 1.5311186 0
3.1020002 -0.18246892 1.5298686 0
3.1660001 -0.10088266 1.5515467 0
3.1620002 -0.10578541 1.5498872 0
3.1580002 -0.11067374 1.5482278 0
3.1550002 -0.11557288 1.5469831 0
3.1510003 -0.12043415 1.5453236 0
3.1470003 -0.12528098 1.5436642 0
3.1430001 -0.13011338 1.5420046 0
3.1390002 -0.13493136 1.5403451 0
3.1350002 -0.13973489 1.5386857 0
3.1320002 -0.14456008 1.537441 0
3.1280003 -0.14933656 1.5357815 0
3.1240003 -0.15409863 1.534122 0
3.1200001 -0.15884624 1.5324625 0
3.1170003 -0.16362274 1.5312178 0
3.1130002 -0.16834329 1.5295583 0
3.1090002 -0.17304944 1.5278988 0
3.1050003 -0.17774114 1.5262393 0
3.1660001 -0.10088266 1.5465574 0
3.1620002 -0.10578541 1.5449052 0
3.1580002 -0.11067374 1.5432528 0
3.1550002 -0.11557288 1.5420136 0
3.1510003 -0.12043415 1.5403614 0
3.1470003 -0.12528098 1.538709 0
3.1430001 -0.13011338 1.5370568 0
3.1390002 -0.13493136 1.5354044 0
3.1350002 -0.13973489 1.5337522 0
3.1320002 -0.14456008 1.532513 0
3.1280003 -0.14933656 1.5308607 0
3.1240003 -0.15409863 1.5292084 0
3.1200001 -0.15884624 1.5275561 0
3.1170003 -0.16362274 1.526317 0
3.1130002 -0.16834329 1.5246646 0
3.1090002 -0.17304944 1.5230123 0
3.1660001 -0.10088266 1.541568 0
3.1620002 -0.10578541 1.5399231 0
3.1580002 -0.11067374 1.538278 0
3.1550002 -0.11557288 1.5370442 0
3.1510003 -0.12043415 1.5353991 0
3.1470003 -0.12528098 1.533754 0
3.1430001 -0.13011338 1.5321089 0
3.1390002 -0.13493136 1.5304638 0
3.1350002 -0.13973489 1.5288187 0
3.1320002 -0.14456008 1.5275849 0
3.1280003 -0.14933656 1.5259398 0
3.1240003 -0.15409863 1.5242949 0
3.1200001 -0.15884624 1.5226498 0
3.1170003 -0.16362274 1.5214161 0
3.1130002 -0.16834329 1.5197709 0
3.1660001 -0.10088266 1.5365788 0
3.1620002 -0.10578541 1.5349408 0
3.1580002 -0.11067374 1.533303 0
3.1550002 -0.11557288 1.5320746 0
3.1510003 -0.12043415 1.5304369 0
3.1470003 -0.12528098 1.5287989 0
3.1430001 -0.13011338 1.527161 0
3.1390002 -0.13493136 1.5255232 0
3.1350002 -0.13973489 1.5238854 0
3.1320002 -0.14456008 1.5226569 0
3.1280003 -0.14933656 1.5210191 0
3.1240003 -0.15409863 1.5193813 0
3.1200001 -0.15884624 1.5177433 0
3.1170003 -0.16362274 1.516515 0
3.1130002 -0.16834329 1.5148771 0
3.1660001 -0.10088266 1.5315894 0
3.1620002 -0.10578541 1.5299588 0
3.1580002 -0.11067374 1.5283282 0
3.1550002 -0.11557288 1.5271051 0
3.1510003 -0.12043415 1.5254745 0
3.1470003 -0.12528098 1.5238439 0
3.1430001 -0.13011338 1.5222132 0
3.1390002 -0.13493136 1.5205826 0
3.1350002 -0.13973489 1.518952 0
3.1320002 -0.14456008 1.5177289 0
3.1280003 -0.14933656 1.5160983 0
3.1240003 -0.15409863 1.5144677 0
3.1200001 -0.15884624 1.5128371 0
3.1170003 -0.16362274 1.5116141 0
3.1660001 -0.10088266 1.5266001 0
3.1620002 -0.10578541 1.5249766 0
3.1580002 -0.11067374 1.5233532 0
3.1550002 -0.11557288 1.5221356 0
3.1510003 -0.12043415 1.5205122 0
3.1470003 -0.12528098 1.518889 0
3.1430001 -0.13011338 1.5172653 0
3.1390002 -0.13493136 1.5156419 0
3.1350002 -0.13973489 1.5140185 0
3.1320002 -0.14456008 1.5128009 0
3.1280003 -0.14933656 1.5111775 0
3.1240003 -0.15409863 1.5095541 0
3.1200001 -0.15884624 1.5079306 0
3.1660001 -0.10088266 1.5216107 0
3.1620002 -0.10578541 1.5199945 0
3.1580002 -0.11067374 1.5183784 0
3.1550002 -0.11557288 1.5171661 0
3.1510003 -0.12043415 1.51555 0
3.1470003 -0.12528098 1.5139338 0
3.1430001 -0.13011338 1.5123175 0
3.1390002 -0.13493136 1.5107013 0
3.1350002 -0.13973489 1.5090851 0
3.1320002 -0.14456008 1.5078729 0
3.1280003 -0.14933656 1.5062567 0
3.1240003 -0.15409863 1.5046406 0
3.1200001 -0.15884624 1.5030243 0
3.1660001 -0.10088266 1.5166214 0
3.1620002 -0.10578541 1.5150124 0
3.1580002 -0.11067374 1.5134035 0
3.1550002 -0.11557288 1.5121968 0
3.1510003 -0.12043415 1.5105877 0
3.1470003 -0.12528098 1.5089787 0
3.1430001 -0.13011338 1.5073696 0
3.1390002 -0.13493136 1.5057607 0
3.1350002 -0.13973489 1.5041517 0
3.1320002 -0.14456008 1.5029449 0
3.1280003 -0.14933656 1.501336 0
3.1240003 -0.15409863 1.499727 0
3.1660001 -0.10088266 1.5116321 0
3.1620002 -0.10578541 1.5100303 0
3.1580002 -0.11067374 1.5084285 0
3.1550002 -0.11557288 1.5072272 0
3.1510003 -0.12043415 1.5056255 0
3.1470003 -0.12528098 1.5040237 0
3.1430001 -0.13011338 1.5024217 0
3.1390002 -0.13493136 1.50082 0
3.1350002 -0.13973489 1.4992183 0
3.1320002 -0.14456008 1.498017 0
3.1280003 -0.14933656 1.4964151 0
3.1240003 -0.15409863 1.4948134 0
3.1660001 -0.10088266 1.5066427 0
3.1620002 -0.10578541 1.5050482 0
3.1580002 -0.11067374 1.5034536 0
3.1550002 -0.11557288 1.5022577 0
3.1510003 -0.12043415 1.5006632 0
3.1470003 -0.12528098 1.4990686 0
3.1430001 -0.13011338 1.497474 0
3.1390002 -0.13493136 1.4958794 0
3.1350002 -0.13973489 1.4942849 0
3.1320002 -0.14456008 1.493089 0
3.1280003 -0.14933656 1.4914944 0
3.1660001 -0.10088266 1.5016534 0
3.1620002 -0.10578541 1.500066 0
3.1580002 -0.11067374 1.4984787 0
3.1550002 -0.11557288 1.4972882 0
3.1510003 -0.12043415 1.4957008 0
3.1470003 -0.12528098 1.4941136 0
3.1430001 -0.13011338 1.4925262 0
3.1390002 -0.13493136 1.4909388 0
3.1350002 -0.13973489 1.4893514 0
3.1320002 -0.14456008 1.488161 0
3.1280003 -0.14933656 1.4865736 0
3.1660001 -0.10088266 1.496664 0
3.1620002 -0.10578541 1.4950839 0
3.1580002 -0.11067374 1.4935038 0
3.1550002 -0.11557288 1.4923187 0
3.1510003 -0.12043415 1.4907386 0
3.1470003 -0.12528098 1.4891584 0
3.1430001 -0.13011338 1.4875783 0
3.1390002 -0.13493136 1.4859982 0
3.1350002 -0.13973489 1.484418 0
3.1320002 -0.14456008 1.483233 0
3.1660001 -0.10088266 1.4916748 0
3.1620002 -0.10578541 1.4901018 0
3.1580002 -0.11067374 1.4885288 0
3.1550002 -0.11557288 1.4873493 0
3.1510003 -0.12043415 1.4857763 0
3.1470003 -0.12528098 1.4842035 0
3.1430001 -0.13011338 1.4826304 0
3.1390002 -0.13493136 1.4810575 0
3.1350002 -0.13973489 1.4794847 0
3.1320002 -0.14456008 1.478305 0
3.1660001 -0.10088266 1.4866854 0
3.1620002 -0.10578541 1.4851197 0
3.1580002 -0.11067374 1.483554 0
3.1550002 -0.11557288 1.4823797 0
3.1510003 -0.12043415 1.4808141 0
3.1470003 -0.12528098 1.4792484 0
3.1430001 -0.13011338 1.4776826 0
3.1390002 -0.13493136 1.4761169 0
3.1350002 -0.13973489 1.4745513 0
3.1320002 -0.14456008 1.4733769 0
3.1660001 -0.10088266 1.481696 0
3.1620002 -0.10578541 1.4801376 0
3.1580002 -0.11067374 1.4785792 0
3.1550002 -0.11557288 1.4774102 0
3.1510003 -0.12043415 1.4758518 0
3.1470003 -0.12528098 1.4742934 0
3.1430001 -0.13011338 1.4727348 0
3.1390002 -0.13493136 1.4711763 0
3.1350002 -0.13973489 1.4696177 0
3.1660001 -0.10088266 1.4767067 0
3.1620002 -0.10578541 1.4751555 0
3.1580002 -0.11067374 1.4736042 0
3.1550002 -0.11557288 1.4724407 0
3.1510003 -0.12043415 1.4708894 0
3.1470003 -0.12528098 1.4693382 0
3.1430001 -0.13011338 1.4677869 0
3.1390002 -0.13493136 1.4662356 0
3.1350002 -0.13973489 1.4646844 0
3.1660001 -0.10088266 1.4717174 0
3.1620002 -0.10578541 1.4701734 0
3.1580002 -0.11067374 1.4686294 0
3.1550002 -0.11557288 1.4674712 0
3.1510003 -0.12043415 1.4659272 0
3.1470003 -0.12528098 1.4643831 0
3.1430001 -0.13011338 1.462839 0
3.1390002 -0.13493136 1.461295 0
3.1350002 -0.13973489 1.459751 0
3.1660001 -0.10088266 1.4667281 0
3.1620002 -0.10578541 1.4651912 0
3.1580002 -0.11067374 1.4636544 0
3.1550002 -0.11557288 1.4625018 0
3.1510003 -0.12043415 1.4609649 0
3.1470003 -0.12528098 1.4594281 0
3.1430001 -0.13011338 1.4578912 0
3.1390002 -0.13493136 1.4563544 0
3.1660001 -0.10088266 1.4617387 0
3.1620002 -0.10578541 1.4602091 0
3.1580002 -0.11067374 1.4586796 0
3.1550002 -0.11557288 1.4575322 0
3.1510003 -0.12043415 1.4560027 0
3.1470003 -0.12528098 1.4544731 0
3.1430001 -0.13011338 1.4529433 0
3.1390002 -0.13493136 1.4514138 0
3.1660001 -0.10088266 1.4567493 0
3.1620002 -0.10578541 1.455227 0
3.1580002 -0.11067374 1.4537046 0
3.1550002 -0.11557288 1.4525628 0
3.1510003 -0.12043415 1.4510404 0
3.1470003 -0.12528098 1.4495181 0
3.1430001 -0.13011338 1.4479955 0
3.1390002 -0.13493136 1.4464731 0
3.1660001 -0.10088266 1.4517601 0
3.1620002 -0.10578541 1.4502449 0
3.1580002 -0.11067374 1.4487298 0
3.1550002 -0.11557288 1.4475933 0
3.1510003 -0.12043415 1.4460781 0
3.1470003 -0.12528098 1.4445629 0
3.1430001 -0.13011338 1.4430478 0
3.1390002 -0.13493136 1.4415325 0
3.1660001 -0.10088266 1.4467707 0
3.1620002 -0.10578541 1.4452627 0
3.1580002 -0.11067374 1.4437548 0
3.1550002 -0.11557288 1.4426239 0
3.1510003 -0.12043415 1.4411159 0
3.1470003 -0.12528098 1.4396079 0
3.1430001 -0.13011338 1.4380997 0
3.1660001 -0.10088266 1.4417814 0
3.1620002 -0.10578541 1.4402807 0
3.1580002 -0.11067374 1.4387798 0
3.1550002 -0.11557288 1.4376544 0
3.1510003 -0.12043415 1.4361535 0
3.1470003 -0.12528098 1.4346528 0
3.1430001 -0.13011338 1.433152 0
3.1660001 -0.10088266 1.436792 0
3.1620002 -0.10578541 1.4352986 0
3.1580002 -0.11067374 1.433805 0
3.1550002 -0.11557288 1.4326848 0
3.1510003 -0.12043415 1.4311913 0
3.1470003 -0.12528098 1.4296978 0
3.1430001 -0.13011338 1.4282042 0
3.1660001 -0.10088266 1.4318027 0
3.1620002 -0.10578541 1.4303164 0
3.1580002 -0.11067374 1.42883 0
3.1550002 -0.11557288 1.4277153 0
3.1510003 -0.12043415 1.426229 0
3.1470003 -0.12528098 1.4247427 0
3.1430001 -0.13011338 1.4232563 0
3.1660001 -0.10088266 1.4268135 0
3.1620002 -0.10578541 1.4253343 0
3.1580002 -0.11067374 1.4238552 0
3.1550002 -0.11557288 1.4227458 0
3.1510003 -0.12043415 1.4212667 0
3.1470003 -0.12528098 1.4197876 0
3.1660001 -0.10088266 1.421824 0
3.1620002 -0.10578541 1.4203521 0
3.1580002 -0.11067374 1.4188802 0
3.1550002 -0.11557288 1.4177763 0
3.1510003 -0.12043415 1.4163045 0
3.1470003 -0.12528098 1.4148326 0
3.1660001 -0.10088266 1.4168347 0
3.1620002 -0.10578541 1.4153701 0
3.1580002 -0.11067374 1.4139054 0
3.1550002 -0.11557288 1.4128069 0
3.1510003 -0.12043415 1.4113423 0
3.1470003 -0.12528098 1.4098775 0
3.1660001 -0.10088266 1.4118453 0
3.1620002 -0.10578541 1.4103879 0
3.1580002 -0.11067374 1.4089304 0
3.1550002 -0.11557288 1.4078374 0
3.1510003 -0.12043415 1.4063799 0
3.1470003 -0.12528098 1.4049225 0
3.1660001 -0.10088266 1.4068561 0
3.1620002 -0.10578541 1.4054058 0
3.1580002 -0.11067374 1.4039556 0
3.1550002 -0.11557288 1.4028678 0
3.1510003 -0.12043415 1.4014176 0
3.1470003 -0.12528098 1.3999673 0
3.1660001 -0.10088266 1.4018667 0
3.1620002 -0.10578541 1.4004236 0
3.1580002 -0.11067374 1.3989806 0
3.1550002 -0.11557288 1.3978983 0
3.1510003 -0.12043415 1.3964553 0
3.1470003 -0.12528098 1.3950123 0
3.1660001 -0.10088266 1.3968774 0
3.1620002 -0.10578541 1.3954415 0
3.1580002 -0.11067374 1.3940058 0
3.1550002 -0.11557288 1.3929288 0
3.1510003 -0.12043415 1.3914931 0
3.1470003 -0.12528098 1.3900572 0
3.1660001 -0.10088266 1.391888 0
3.1620002 -0.10578541 1.3904594 0
3.1580002 -0.11067374 1.3890308 0
3.1550002 -0.11557288 1.3879594 0
3.1510003 -0.12043415 1.3865308 0
3.1470003 -0.12528098 1.3851022 0
3.1660001 -0.10088266 1.3868986 0
3.1620002 -0.10578541 1.3854773 0
3.1580002 -0.11067374 1.384056 0
3.1550002 -0.11557288 1.3829899 0
3.1510003 -0.12043415 1.3815684 0
3.1470003 -0.12528098 1.3801471 0
3.1660001 -0.10088266 1.3819094 0
3.1620002 -0.10578541 1.3804952 0
3.1580002 -0.11067374 1.3790811 0
3.1550002 -0.11557288 1.3780204 0
3.1510003 -0.12043415 1.3766062 0
3.1470003 -0.12528098 1.375192 0
3.1660001 -0.10088266 1.37692 0
3.1620002 -0.10578541 1.3755131 0
3.1580002 -0.11067374 1.374106 0
3.1550002 -0.11557288 1.3730509 0
3.1510003 -0.12043415 1.3716439 0
3.1470003 -0.12528098 1.370237 0
3.1430001 -0.13011338 1.36883 0
3.1660001 -0.10088266 1.3719307 0
3.1620002 -0.10578541 1.370531 0
3.1580002 -0.11067374 1.3691312 0
3.1550002 -0.11557288 1.3680815 0
3.1510003 -0.12043415 1.3666817 0
3.1470003 -0.12528098 1.3652819 0
3.1430001 -0.13011338 1.3638822 0
3.1660001 -0.10088266 1.3669413 0
3.1620002 -0.10578541 1.3655488 0
3.1580002 -0.11067374 1.3641562 0
3.1550002 -0.11557288 1.3631119 0
3.1510003 -0.12043415 1.3617194 0
3.1470003 -0.12528098 1.3603268 0
3.1430001 -0.13011338 1.3589342 0
3.1660001 -0.10088266 1.3619521 0
3.1620002 -0.10578541 1.3605667 0
3.1580002 -0.11067374 1.3591814 0
3.1550002 -0.11557288 1.3581424 0
3.1510003 -0.12043415 1.356757 0
3.1470003 -0.12528098 1.3553718 0
3.1430001 -0.13011338 1.3539864 0
3.1660001 -0.10088266 1.3569627 0
3.1620002 -0.10578541 1.3555845 0
3.1580002 -0.11067374 1.3542064 0
3.1550002 -0.11557288 1.3531729 0
3.1510003 -0.12043415 1.3517948 0
3.1470003 -0.12528098 1.3504168 0
3.1430001 -0.13011338 1.3490386 0
3.1660001 -0.10088266 1.3519733 0
3.1620002 -0.10578541 1.3506025 0
3.1580002 -0.11067374 1.3492316 0
3.1550002 -0.11557288 1.3482034 0
3.1510003 -0.12043415 1.3468325 0
3.1470003 -0.12528098 1.3454617 0
3.1430001 -0.13011338 1.3440907 0
3.1390002 -0.13493136 1.3427199 0
3.1660001 -0.10088266 1.346984 0
3.1620002 -0.10578541 1.3456204 0
3.1580002 -0.11067374 1.3442568 0
3.1550002 -0.11557288 1.3432339 0
3.1510003 -0.12043415 1.3418703 0
3.1470003 -0.12528098 1.3405067 0
3.1430001 -0.13011338 1.3391429 0
3.1390002 -0.13493136 1.3377792 0
3.1660001 -0.10088266 1.3419946 0
3.1620002 -0.10578541 1.3406383 0
3.1580002 -0.11067374 1.3392818 0
3.1550002 -0.11557288 1.3382645 0
3.1510003 -0.12043415 1.336908 0
3.1470003 -0.12528098 1.3355515 0
3.1430001 -0.13011338 1.334195 0
3.1390002 -0.13493136 1.3328385 0
3.1660001 -0.10088266 1.3370054 0
3.1620002 -0.10578541 1.3356562 0
3.1580002 -0.11067374 1.334307 0
3.1550002 -0.11557288 1.3332949 0
3.1510003 -0.12043415 1.3319457 0
3.1470003 -0.12528098 1.3305964 0
3.1430001 -0.13011338 1.3292471 0
3.1390002 -0.13493136 1.3278979 0
3.1350002 -0.13973489 1.3265487 0
3.1700003 -0.09596549 1.333358 0
3.1660001 -0.10088266 1.332016 0
3.1620002 -0.10578541 1.3306739 0
3.1580002 -0.11067374 1.329332 0
3.1550002 -0.11557288 1.3283254 0
3.1510003 -0.12043415 1.3269835 0
3.1470003 -0.12528098 1.3256414 0
3.1430001 -0.13011338 1.3242993 0
3.1390002 -0.13493136 1.3229573 0
3.1700003 -0.09596549 1.3283615 0
3.1660001 -0.10088266 1.3270267 0
3.1620002 -0.10578541 1.3256918 0
3.1580002 -0.11067374 1.324357 0
3.1550002 -0.11557288 1.3233559 0
3.1510003 -0.12043415 1.3220211 0
3.1470003 -0.12528098 1.3206863 0
