# .PCD v0.7 - Point Cloud Data file format
VERSION 0.7
FIELDS x y z intensity
SIZE 4 4 4 4
TYPE F F F F
COUNT 1 1 1 1
WIDTH 1460
HEIGHT 1
VIEWPOINT 0 0 0 1 0 0 0
POINTS 1460
DATA ascii
5.1840005 1.7834368 0.61973548 0
5.1850004 1.775188 0.61978054 0
5.1860003 1.7669355 0.61982566 0
5.1880002 1.7590564 0.61991584 0
5.1890001 1.7507949 0.61996096 0
5.1920004 1.7432767 0.62009627 0
5.1940002 1.735376 0.62018645 0
5.1970005 1.727838 0.62032175 0
5.2000003 1.720289 0.62045699 0
5.2040005 1.7130955 0.62063742 0
5.2080002 1.7058873 0.62081778 0
5.2120004 1.6986649 0.62099814 0
5.2180004 1.6921496 0.62126875 0
5.2250004 1.555421 0.62158442 0
5.2200003 1.5450671 0.62135893 0
5.2180004 1.5357162 0.62126875 0
5.2180004 1.5270253 0.62126875 0
5.2190003 1.5186594 0.62131381 0
5.2220001 1.5109353 0.62144911 0
5.2260003 1.5035217 0.62162948 0
5.2310004 1.496413 0.62185496 0
5.2380004 1.4899211 0.62217063 0
5.2480001 1.4843509 0.62262154 0
5.1710005 1.8645252 0.61054325 0
5.1690001 1.8551217 0.61045671 0
5.1700006 1.8469166 0.61049998 0
5.1710005 1.8387073 0.61054325 0
5.1740003 1.8312809 0.61067313 0
5.1780005 1.8242353 0.61084634 0
5.1820002 1.817175 0.61101949 0
5.1820002 1.8085493 0.61101949 0
5.1820002 1.7999235 0.61101949 0
5.1830001 1.7916819 0.61106277 0
5.1840005 1.7834368 0.61110604 0
5.1850004 1.775188 0.61114937 0
5.1870003 1.7673142 0.61123592 0
5.1890001 1.7594334 0.61132252 0
5.1920004 1.7519207 0.6114524 0
5.1940002 1.7440234 0.61153895 0
5.1970005 1.7364908 0.61166883 0
5.2010002 1.7293171 0.61184204 0
5.2050004 1.722129 0.61201519 0
5.2090001 1.7149262 0.61218834 0
5.2150002 1.7084379 0.6124481 0
5.2250004 1.555421 0.612881 0
5.2200003 1.5450671 0.61266458 0
5.2180004 1.5357162 0.61257797 0
5.2180004 1.5270253 0.61257797 0
5.2190003 1.5186594 0.61262125 0
5.2220001 1.5109353 0.61275113 0
5.2260003 1.5035217 0.61292428 0
5.2310004 1.496413 0.61314076 0
5.2380004 1.4899211 0.61344379 0
5.2480001 1.4843509 0.6138767 0
5.1680002 1.8719243 0.60181284 0
5.1660004 1.8625228 0.60172987 0
5.1650004 1.8535273 0.60168839 0
5.1650004 1.8449322 0.60168839 0
5.1670003 1.8371271 0.60177135 0
5.1700006 1.8297081 0.60189581 0
5.1730003 1.8222783 0.60202026 0
5.1780005 1.8156167 0.60222769 0
5.1810002 1.8081615 0.60235214 0
5.1820002 1.7999235 0.60239363 0
5.1830001 1.7916819 0.60243517 0
5.1850004 1.7838191 0.60251814 0
5.1870003 1.7759491 0.60260111 0
5.1890001 1.7680718 0.60268408 0
5.1920004 1.7605644 0.60280854 0
5.1950002 1.753046 0.60293299 0
5.1980004 1.7455171 0.60305744 0
5.2020001 1.7383487 0.60322344 0
5.2070003 1.7315358 0.60343087 0
5.2120004 1.7247047 0.60363829 0
5.2250004 1.555421 0.60417765 0
5.2200003 1.5450671 0.60397017 0
5.2180004 1.5357162 0.6038872 0
5.2180004 1.5270253 0.6038872 0
5.2190003 1.5186594 0.60392869 0
5.2220001 1.5109353 0.60405314 0
5.2260003 1.5035217 0.60421908 0
5.2310004 1.496413 0.60442656 0
5.2380004 1.4899211 0.60471702 0
5.2480001 1.4843509 0.60513186 0
5.1650004 1.8707176 0.59309328 0
5.1630001 1.8613214 0.59301388 0
5.1620002 1.8523313 0.59297419 0
5.1630001 1.8441384 0.59301388 0
5.1640005 1.8359419 0.59305358 0
5.1670003 1.8285283 0.59317261 0
5.1710005 1.8214954 0.59333134 0
5.1750002 1.8144478 0.59349006 0
5.1810002 1.8081615 0.59372818 0
5.1820002 1.7999235 0.59376788 0
5.1850004 1.7924504 0.59388691 0
5.1870003 1.7845839 0.59396625 0
5.1890001 1.7767103 0.59404564 0
5.1920004 1.7692083 0.59416467 0
5.1960001 1.7620723 0.5943234 0
5.2000003 1.7549222 0.59448218 0
5.2040005 1.7477576 0.59464091 0
5.2090001 1.7409497 0.59483933 0
5.2250004 1.555421 0.59547424 0
5.2200003 1.5450671 0.59527582 0
5.2180004 1.5357162 0.59519649 0
5.2180004 1.5270253 0.59519649 0
5.2190003 1.5186594 0.59523618 0
5.2220001 1.5109353 0.59535521 0
5.2260003 1.5035217 0.59551394 0
5.2310004 1.496413 0.59571236 0
5.2380004 1.4899211 0.59599018 0
5.2480001 1.4843509 0.59638697 0
5.1630001 1.8699131 0.58442235 0
5.1610003 1.8605206 0.58434653 0
5.1610003 1.8519328 0.58434653 0
5.1610003 1.8433448 0.58434653 0
5.1630001 1.835547 0.58442235 0
5.1650004 1.8277419 0.58449811 0
5.1690001 1.8207124 0.58464956 0
5.1740003 1.8140583 0.58483899 0
5.1790004 1.807386 0.58502841 0
5.1840005 1.8006955 0.58521783 0
5.1870003 1.7932187 0.58533144 0
5.1900005 1.7857313 0.58544511 0
5.1930003 1.7782328 0.58555871 0
5.1970005 1.7711023 0.58571023 0
5.2010002 1.7639573 0.58586174 0
5.2060003 1.7571733 0.58605117 0
5.2110004 1.7503712 0.58624053 0
5.2250004 1.555421 0.58677089 0
5.2200003 1.5450671 0.58658147 0
5.2180004 1.5357162 0.58650571 0
5.2180004 1.5270253 0.58650571 0
5.2190003 1.5186594 0.58654362 0
5.2220001 1.5109353 0.58665723 0
5.2260003 1.5035217 0.5868088 0
5.2310004 1.496413 0.58699816 0
5.2380004 1.4899211 0.58726335 0
5.2480001 1.4843509 0.58764213 0
5.1660004 1.8797169 0.575939 0
5.1620002 1.8695108 0.5757947 0
5.1610003 1.8605206 0.57575864 0
5.1600003 1.8515341 0.57572258 0
5.1610003 1.8433448 0.57575864 0
5.1630001 1.835547 0.57583082 0
5.1650004 1.8277419 0.57590294 0
5.1690001 1.8207124 0.57604724 0
5.1730003 1.8136685 0.57619154 0
5.1790004 1.807386 0.57640803 0
5.1860003 1.8014677 0.57666051 0
5.1900005 1.7943715 0.57680488 0
5.1940002 1.7872608 0.57694912 0
5.1980004 1.7801358 0.57709348 0
5.2030005 1.7733752 0.57727385 0
5.2080002 1.7665963 0.57745421 0
5.2250004 1.555421 0.57806754 0
5.2200003 1.5450671 0.57788712 0
5.2180004 1.5357162 0.577815 0
5.2180004 1.5270253 0.577815 0
5.2190003 1.5186594 0.57785106 0
5.2220001 1.5109353 0.5779593 0
5.2260003 1.5035217 0.5781036 0
5.2310004 1.496413 0.57828397 0
5.2380004 1.4899211 0.57853651 0
5.2480001 1.4843509 0.57889724 0
5.1630001 1.8699131 0.56723922 0
5.1610003 1.8605206 0.56717068 0
5.1610003 1.8519328 0.56717068 0
5.1620002 1.8437415 0.56720495 0
5.1630001 1.835547 0.56723922 0
5.1660004 1.8281351 0.56734204 0
5.1690001 1.8207124 0.56744486 0
5.1740003 1.8140583 0.56761622 0
5.1790004 1.807386 0.56778759 0
5.1860003 1.8014677 0.5680275 0
5.1950002 1.7962924 0.56833595 0
5.2000003 1.7895552 0.56850731 0
5.2050004 1.7828 0.56867868 0
5.2120004 1.7767843 0.56891859 0
5.2250004 1.555421 0.56936413 0
5.2200003 1.5450671 0.56919277 0
5.2180004 1.5357162 0.56912422 0
5.2180004 1.5270253 0.56912422 0
5.2190003 1.5186594 0.56915849 0
5.2220001 1.5109353 0.56926131 0
5.2260003 1.5035217 0.5693984 0
5.2310004 1.496413 0.56956977 0
5.2380004 1.4899211 0.56980968 0
5.2480001 1.4843509 0.5701524 0
5.1660004 1.87112 0.55874515 0
5.1630001 1.8613214 0.55864769 0
5.1630001 1.85273 0.55864769 0
5.1630001 1.8441384 0.55864769 0
5.1650004 1.836337 0.55871266 0
5.1680002 1.8289216 0.55881006 0
5.1710005 1.8214954 0.55890745 0
5.1760001 1.8148373 0.55906981 0
5.1810002 1.8081615 0.55923212 0
5.1880002 1.8022397 0.55945945 0
5.1970005 1.797061 0.55975163 0
5.2080002 1.7926145 0.56010878 0
5.2250004 1.555421 0.56066078 0
5.2200003 1.5450671 0.56049842 0
5.2180004 1.5357162 0.56043351 0
5.2180004 1.5270253 0.56043351 0
5.2190003 1.5186594 0.56046593 0
5.2220001 1.5109353 0.56056333 0
5.2260003 1.5035217 0.56069326 0
5.2310004 1.496413 0.56085557 0
5.2380004 1.4899211 0.56108284 0
5.2480001 1.4843509 0.56140751 0
5.1700006 1.8727289 0.55027086 0
5.1670003 1.8629234 0.55017883 0
5.1660004 1.8539258 0.55014813 0
5.1670003 1.8457258 0.55017883 0
5.1680002 1.837522 0.55020952 0
5.1710005 1.8301014 0.55030149 0
5.1740003 1.8226695 0.55039346 0
5.1790004 1.8160063 0.55054682 0
5.1850004 1.8097128 0.55073082 0
5.1920004 1.8037837 0.55094546 0
5.2010002 1.7985977 0.55122143 0
5.2130003 1.7945265 0.55158943 0
5.2250004 1.555421 0.55195737 0
5.2200003 1.5450671 0.55180407 0
5.2180004 1.5357162 0.55174273 0
5.2180004 1.5270253 0.55174273 0
5.2190003 1.5186594 0.55177343 0
5.2220001 1.5109353 0.5518654 0
5.2260003 1.5035217 0.55198807 0
5.2310004 1.496413 0.55214137 0
5.2380004 1.4899211 0.552356 0
5.2480001 1.4843509 0.55266267 0
5.1750002 1.8747401 0.54181099 0
5.1720004 1.8649255 0.54172438 0
5.1710005 1.8559192 0.54169554 0
5.1710005 1.8473133 0.54169554 0
5.1720004 1.8391024 0.54172438 0
5.1750002 1.8316742 0.54181099 0
5.1790004 1.8246268 0.54192638 0
5.1830001 1.8175648 0.54204184 0
5.1890001 1.811264 0.54221499 0
5.1970005 1.8057139 0.5424459 0
5.2070003 1.800903 0.5427345 0
5.2250004 1.555421 0.54325402 0
5.2200003 1.5450671 0.54310971 0
5.2180004 1.5357162 0.54305196 0
5.2180004 1.5270253 0.54305196 0
5.2190003 1.5186594 0.54308087 0
5.2220001 1.5109353 0.54316741 0
5.2260003 1.5035217 0.54328287 0
5.2310004 1.496413 0.54342717 0
5.2380004 1.4899211 0.54362917 0
5.2480001 1.4843509 0.54391778 0
5.1800003 1.8681291 0.53333306 0
5.1780005 1.8587098 0.53327894 0
5.1770005 1.8496943 0.53325188 0
5.1790004 1.8418676 0.533306 0
5.1810002 1.8340336 0.53336012 0
5.1850004 1.8269753 0.53346837 0
5.1900005 1.8202924 0.53360367 0
5.1960001 1.8139788 0.53376597 0
5.2050004 1.8088019 0.53400952 0
5.2250004 1.555421 0.53455067 0
5.2200003 1.5450671 0.53441536 0
5.2180004 1.5357162 0.53436124 0
5.2180004 1.5270253 0.53436124 0
5.2190003 1.5186594 0.5343883 0
5.2220001 1.5109353 0.53446949 0
5.2260003 1.5035217 0.53457767 0
5.2310004 1.496413 0.53471297 0
5.2380004 1.4899211 0.53490239 0
5.2480001 1.4843509 0.53517294 0
5.1880002 1.8626961 0.52491289 0
5.1870003 1.8536625 0.52488762 0
5.1880002 1.8454227 0.52491289 0
5.1900005 1.8375727 0.52496338 0
5.1940002 1.830498 0.52506441 0
5.2000003 1.8241884 0.52521592 0
5.2030005 1.8166937 0.52529168 0
5.2040005 1.8084159 0.52531695 0
5.2050004 1.8001347 0.52534223 0
5.2060003 1.7918497 0.52536744 0
5.2070003 1.7835612 0.52539271 0
5.2080002 1.775269 0.52541792 0
5.2250004 1.555421 0.52584726 0
5.2200003 1.5450671 0.52572101 0
5.2180004 1.5357162 0.52567047 0
5.2180004 1.5270253 0.52567047 0
5.2190003 1.5186594 0.52569574 0
5.2220001 1.5109353 0.5257715 0
5.2260003 1.5035217 0.52587253 0
5.2310004 1.496413 0.52599877 0
5.2380004 1.4899211 0.52617556 0
5.2480001 1.4843509 0.5264281 0
5.1890001 1.8630947 0.51629972 0
5.1880002 1.8540593 0.51627624 0
5.1880002 1.8454227 0.51627624 0
5.1900005 1.8375727 0.51632315 0
5.1910005 1.8293239 0.51634657 0
5.1920004 1.8210714 0.51637006 0
5.1930003 1.8128153 0.51639348 0
5.1940002 1.8045557 0.51641697 0
5.1950002 1.7962924 0.51644039 0
5.1960001 1.7880256 0.51646388 0
5.1970005 1.7797552 0.5164873 0
5.1980004 1.7714812 0.51651073 0
5.1990004 1.7632034 0.51653421 0
5.2010002 1.7552973 0.51658112 0
5.2020001 1.7470106 0.51660454 0
5.2030005 1.7387204 0.51662803 0
5.2040005 1.7304264 0.51665145 0
5.2050004 1.722129 0.51667488 0
5.2060003 1.7138277 0.51669836 0
5.2070003 1.705523 0.51672179 0
5.2080002 1.6972146 0.51674521 0
5.2090001 1.6889026 0.51676869 0
5.2110004 1.6809462 0.5168156 0
5.2120004 1.6726252 0.51683903 0
5.2130003 1.6643006 0.51686251 0
5.2140002 1.6559724 0.51688594 0
5.2150002 1.6476406 0.51690936 0
5.2160006 1.6393054 0.51693285 0
5.2250004 1.555421 0.51714391 0
5.2200003 1.5450671 0.51702666 0
5.2180004 1.5357162 0.51697975 0
5.2180004 1.5270253 0.51697975 0
5.2190003 1.5186594 0.51700318 0
5.2220001 1.5109353 0.51707351 0
5.2260003 1.5035217 0.51716733 0
5.2310004 1.496413 0.51728457 0
5.2380004 1.4899211 0.51744872 0
5.2480001 1.4843509 0.51768321 0
5.1850004 1.8701313 0.50757468 0
5.1820002 1.8603041 0.50750977 0
5.1810002 1.8512816 0.50748813 0
5.1820002 1.8430526 0.50750977 0
5.1840005 1.8352133 0.50755304 0
5.1850004 1.8269753 0.50757468 0
5.1860003 1.8187336 0.50759631 0
5.1870003 1.8104885 0.50761795 0
5.1880002 1.8022397 0.50763965 0
5.1890001 1.7939872 0.50766128 0
5.1900005 1.7857313 0.50768292 0
5.1910005 1.7774715 0.50770456 0
5.1920004 1.7692083 0.50772619 0
5.1930003 1.7609415 0.50774783 0
5.1950002 1.753046 0.50779116 0
5.1960001 1.7447702 0.5078128 0
5.1970005 1.7364908 0.50783443 0
5.1980004 1.7282078 0.50785607 0
5.1990004 1.719921 0.50787771 0
5.2000003 1.7116307 0.50789934 0
5.2010002 1.7033367 0.50792098 0
5.2020001 1.6950393 0.50794268 0
5.2030005 1.6867383 0.50796431 0
5.2040005 1.6784335 0.50798595 0
5.2060003 1.6704823 0.50802922 0
5.2070003 1.6621684 0.50805092 0
5.2080002 1.6538512 0.5080725 0
5.2090001 1.6455301 0.50809419 0
5.2100005 1.6372057 0.50811583 0
5.2110004 1.6288775 0.50813746 0
5.2120004 1.6205456 0.5081591 0
5.2130003 1.6122102 0.50818074 0
5.2250004 1.555421 0.50844049 0
5.2200003 1.5450671 0.50833225 0
5.2180004 1.5357162 0.50828898 0
5.2180004 1.5270253 0.50828898 0
5.2190003 1.5186594 0.50831062 0
5.2220001 1.5109353 0.50837559 0
5.2260003 1.5035217 0.50846213 0
5.2310004 1.496413 0.50857037 0
5.2380004 1.4899211 0.50872189 0
5.2480001 1.4843509 0.50893837 0
5.1810002 1.8685297 0.49886408 0
5.1780005 1.8587098 0.49880457 0
5.1780005 1.850091 0.49880457 0
5.1790004 1.8418676 0.49882442 0
5.1800003 1.8336403 0.49884427 0
5.1810002 1.8254095 0.49886408 0
5.1820002 1.817175 0.49888393 0
5.1830001 1.8089371 0.49890378 0
5.1840005 1.8006955 0.49892363 0
5.1850004 1.7924504 0.49894345 0
5.1860003 1.7842016 0.4989633 0
5.1880002 1.7763296 0.49900299 0
5.1890001 1.7680718 0.49902284 0
5.1900005 1.7598106 0.49904269 0
5.1910005 1.7515454 0.49906251 0
5.1920004 1.7432767 0.49908236 0
5.1930003 1.7350044 0.49910221 0
5.1940002 1.7267286 0.49912202 0
5.1950002 1.718449 0.49914187 0
5.1960001 1.710166 0.49916172 0
5.1970005 1.7018794 0.49918157 0
5.1980004 1.6935891 0.49920142 0
5.2000003 1.685656 0.49924108 0
5.2010002 1.6773566 0.49926093 0
5.2020001 1.6690536 0.49928075 0
5.2030005 1.6607472 0.4993006 0
5.2040005 1.652437 0.49932045 0
5.2050004 1.6441232 0.4993403 0
5.2060003 1.635806 0.49936014 0
5.2070003 1.6274849 0.49937999 0
5.2080002 1.6191602 0.49939981 0
5.2090001 1.610832 0.49941966 0
5.2110004 1.6028432 0.49945936 0
5.2250004 1.555421 0.49973714 0
5.2200003 1.5450671 0.49963793 0
5.2180004 1.5357162 0.49959826 0
5.2180004 1.5270253 0.49959826 0
5.2190003 1.5186594 0.49961808 0
5.2220001 1.5109353 0.4996776 0
5.2260003 1.5035217 0.49975699 0
5.2310004 1.496413 0.49985617 0
5.2380004 1.4899211 0.49999508 0
5.2480001 1.4843509 0.50019348 0
5.1780005 1.8673283 0.49018598 0
5.1760001 1.8579122 0.49014989 0
5.1760001 1.8492973 0.49014989 0
5.1770005 1.8410774 0.49016795 0
5.1780005 1.832854 0.49018598 0
5.1790004 1.8246268 0.49020401 0
5.1800003 1.816396 0.49022204 0
5.1810002 1.8081615 0.4902401 0
5.1820002 1.7999235 0.49025813 0
5.1830001 1.7916819 0.49027616 0
5.1840005 1.7834368 0.49029422 0
5.1860003 1.7755686 0.49033028 0
5.1870003 1.7673142 0.49034831 0
5.1880002 1.7590564 0.49036634 0
5.1890001 1.7507949 0.4903844 0
5.1900005 1.7425301 0.49040243 0
5.1910005 1.7342613 0.49042046 0
5.1920004 1.7259891 0.49043852 0
5.1930003 1.7177131 0.49045652 0
5.1940002 1.7094337 0.49047458 0
5.1950002 1.7011505 0.49049261 0
5.1960001 1.6928638 0.49051064 0
5.1970005 1.6845737 0.4905287 0
5.1990004 1.6766386 0.49056476 0
5.2000003 1.6683393 0.49058282 0
5.2010002 1.6600363 0.49060085 0
5.2020001 1.6517298 0.49061888 0
5.2030005 1.6434197 0.49063694 0
5.2040005 1.6351061 0.49065498 0
5.2050004 1.6267886 0.49067301 0
5.2060003 1.6184677 0.49069104 0
5.2070003 1.6101431 0.49070907 0
5.2080002 1.6018149 0.49072713 0
5.2250004 1.555421 0.49103376 0
5.2200003 1.5450671 0.49094355 0
5.2180004 1.5357162 0.49090749 0
5.2180004 1.5270253 0.49090749 0
5.2190003 1.5186594 0.49092555 0
5.2220001 1.5109353 0.49097964 0
5.2260003 1.5035217 0.49105179 0
5.2310004 1.496413 0.491142 0
5.2380004 1.4899211 0.49126828 0
5.2480001 1.4843509 0.49144864 0
5.2160006 1.3439425 0.49087143 0
5.1780005 1.8673283 0.48156738 0
5.1760001 1.8579122 0.4815349 0
5.1750002 1.8489004 0.48151869 0
5.1760001 1.8406823 0.4815349 0
5.1770005 1.8324608 0.48155114 0
5.1790004 1.8246268 0.4815836 0
5.1800003 1.816396 0.48159984 0
5.1810002 1.8081615 0.48161608 0
5.1820002 1.7999235 0.48163232 0
5.1830001 1.7916819 0.48164853 0
5.1840005 1.7834368 0.48166478 0
5.1850004 1.775188 0.48168102 0
5.1860003 1.7669355 0.48169726 0
5.1870003 1.7586794 0.48171347 0
5.1880002 1.7504199 0.48172972 0
5.1890001 1.7421565 0.48174596 0
5.1900005 1.7338898 0.4817622 0
5.1920004 1.7259891 0.48179466 0
5.1930003 1.7177131 0.4818109 0
5.1940002 1.7094337 0.48182711 0
5.1950002 1.7011505 0.48184335 0
5.1960001 1.6928638 0.48185959 0
5.1970005 1.6845737 0.48187584 0
5.1980004 1.6762798 0.48189205 0
5.1990004 1.6679821 0.48190829 0
5.2000003 1.6596811 0.48192453 0
5.2010002 1.6513762 0.48194075 0
5.2020001 1.643068 0.48195699 0
5.2030005 1.6347561 0.48197323 0
5.2050004 1.6267886 0.48200572 0
5.2060003 1.6184677 0.48202193 0
5.2070003 1.6101431 0.48203817 0
5.2080002 1.6018149 0.48205441 0
5.2310004 1.6009834 0.48242781 0
5.2250004 1.555421 0.48233038 0
5.2200003 1.5450671 0.4822492 0
5.2180004 1.5357162 0.48221675 0
5.2180004 1.5270253 0.48221675 0
5.2190003 1.5186594 0.48223299 0
5.2220001 1.5109353 0.48228168 0
5.2260003 1.5035217 0.48234662 0
5.2310004 1.496413 0.48242781 0
5.2380004 1.4899211 0.48254144 0
5.2480001 1.4843509 0.48270378 0
5.2160006 1.3439425 0.48218429 0
5.1780005 1.8673283 0.47294879 0
5.1760001 1.8579122 0.47291991 0
5.1750002 1.8489004 0.47290549 0
5.1770005 1.8410774 0.47293437 0
5.1780005 1.832854 0.47294879 0
5.1790004 1.8246268 0.47296321 0
5.1810002 1.8167856 0.47299206 0
5.1820002 1.8085493 0.47300649 0
5.1830001 1.8003095 0.47302091 0
5.1840005 1.7920662 0.47303537 0
5.1850004 1.7838191 0.47304979 0
5.1860003 1.7755686 0.47306421 0
5.1870003 1.7673142 0.47307867 0
5.1880002 1.7590564 0.47309309 0
5.1890001 1.7507949 0.47310752 0
5.1900005 1.7425301 0.47312194 0
5.1910005 1.7342613 0.47313637 0
5.1920004 1.7259891 0.47315079 0
5.1930003 1.7177131 0.47316524 0
5.1950002 1.7097998 0.47319409 0
5.1960001 1.7015148 0.47320852 0
5.1970005 1.6932266 0.47322297 0
5.1980004 1.6849345 0.4732374 0
5.1990004 1.6766386 0.47325182 0
5.2000003 1.6683393 0.47326624 0
5.2010002 1.6600363 0.47328067 0
5.2020001 1.6517298 0.47329509 0
5.2030005 1.6434197 0.47330955 0
5.2040005 1.6351061 0.47332397 0
5.2050004 1.6267886 0.4733384 0
5.2060003 1.6184677 0.47335285 0
5.2080002 1.6104876 0.4733817 0
5.2090001 1.6021576 0.47339612 0
5.2310004 1.6009834 0.47371361 0
5.2250004 1.555421 0.47362703 0
5.2200003 1.5450671 0.47355485 0
5.2180004 1.5357162 0.473526 0
5.2180004 1.5270253 0.473526 0
5.2190003 1.5186594 0.47354043 0
5.2220001 1.5109353 0.47358373 0
5.2260003 1.5035217 0.47364146 0
5.2310004 1.496413 0.47371361 0
5.2380004 1.4899211 0.47381461 0
5.2160006 1.3439425 0.47349715 0
5.1780005 1.8673283 0.4643302 0
5.1760001 1.8579122 0.46430492 0
5.1750002 1.8489004 0.46429229 0
5.1770005 1.8410774 0.46431756 0
5.1790004 1.8332471 0.4643428 0
5.1820002 1.8258008 0.46438068 0
5.1830001 1.8175648 0.46439332 0
5.1840005 1.809325 0.46440595 0
5.1850004 1.8010815 0.46441856 0
5.1860003 1.7928345 0.4644312 0
5.1870003 1.7845839 0.46444383 0
5.1880002 1.7763296 0.46445644 0
5.1890001 1.7680718 0.46446908 0
5.1910005 1.7601875 0.46449435 0
5.1920004 1.7519207 0.46450695 0
5.1930003 1.7436502 0.46451959 0
5.1940002 1.735376 0.4645322 0
5.1950002 1.7270983 0.46454483 0
5.1960001 1.718817 0.46455747 0
5.1970005 1.7105323 0.46457011 0
5.1980004 1.7022437 0.46458271 0
5.1990004 1.6939516 0.46459535 0
5.2000003 1.685656 0.46460798 0
5.2010002 1.6773566 0.46462059 0
5.2020001 1.6690536 0.46463323 0
5.2040005 1.6611025 0.46465847 0
5.2050004 1.6527904 0.46467111 0
5.2060003 1.644475 0.46468374 0
5.2070003 1.6361558 0.46469635 0
5.2080002 1.627833 0.46470898 0
5.2090001 1.6195066 0.46472162 0
5.2100005 1.6111767 0.46473423 0
5.2110004 1.6028432 0.46474686 0
5.2250004 1.555421 0.46492362 0
5.2200003 1.5450671 0.4648605 0
5.2180004 1.5357162 0.46483526 0
5.2180004 1.5270253 0.46483526 0
5.2190003 1.5186594 0.46484786 0
5.2220001 1.5109353 0.46488577 0
5.2260003 1.5035217 0.46493626 0
5.2310004 1.496413 0.46499941 0
5.2380004 1.4899211 0.46508777 0
5.2160006 1.3439425 0.46481001 0
5.2170005 1.3355422 0.46482262 0
5.1820002 1.8775557 0.45575488 0
5.1780005 1.8673283 0.4557116 0
5.1760001 1.8579122 0.45568994 0
5.1750002 1.8489004 0.45567912 0
5.1770005 1.8410774 0.45570076 0
5.1790004 1.8332471 0.45572242 0
5.1830001 1.8261924 0.45576569 0
5.1870003 1.8191233 0.455809 0
5.1880002 1.8108763 0.45581982 0
5.1900005 1.8030117 0.45584145 0
5.1910005 1.7947557 0.4558523 0
5.1920004 1.786496 0.45586312 0
5.1930003 1.7782328 0.45587394 0
5.1940002 1.7699659 0.45588475 0
5.1950002 1.7616954 0.45589557 0
5.1960001 1.7534213 0.45590639 0
5.1970005 1.7451438 0.45591724 0
5.1980004 1.7368624 0.45592806 0
5.1990004 1.7285775 0.45593888 0
5.2000003 1.720289 0.45594969 0
5.2010002 1.7119969 0.45596051 0
5.2020001 1.7037011 0.45597133 0
5.2040005 1.6957644 0.455993 0
5.2050004 1.6874597 0.45600381 0
5.2060003 1.6791514 0.45601463 0
5.2070003 1.6708393 0.45602545 0
5.2080002 1.6625239 0.45603627 0
5.2090001 1.6542046 0.45604709 0
5.2100005 1.645882 0.45605791 0
5.2110004 1.6375556 0.45606875 0
5.2120004 1.6292256 0.45607957 0
5.2130003 1.620892 0.45609039 0
5.2140002 1.6125547 0.45610121 0
5.2250004 1.555421 0.45622027 0
5.2200003 1.5450671 0.45616615 0
5.2180004 1.5357162 0.45614451 0
5.2180004 1.5270253 0.45614451 0
5.2190003 1.5186594 0.45615533 0
5.2220001 1.5109353 0.45618778 0
5.2260003 1.5035217 0.45623109 0
5.2310004 1.496413 0.45628521 0
5.2380004 1.4899211 0.45636097 0
5.2150002 1.3523391 0.45611203 0
5.2160006 1.3439425 0.45612288 0
5.2170005 1.3355422 0.45613369 0
5.1820002 1.8775557 0.44712907 0
5.1780005 1.8673283 0.44709298 0
5.1760001 1.8579122 0.44707495 0
5.1750002 1.8489004 0.44706595 0
5.1770005 1.8410774 0.44708398 0
5.1790004 1.8332471 0.44710201 0
5.1830001 1.8261924 0.44713807 0
5.1880002 1.8195128 0.44718319 0
5.1940002 1.8132032 0.44723731 0
5.1960001 1.8053277 0.44725534 0
5.1980004 1.7974452 0.44727337 0
5.1990004 1.7891729 0.4472824 0
5.2000003 1.780897 0.4472914 0
5.2010002 1.7726175 0.44730043 0
5.2020001 1.7643343 0.44730943 0
5.2030005 1.7560478 0.44731846 0
5.2040005 1.7477576 0.44732749 0
5.2050004 1.7394636 0.44733649 0
5.2060003 1.731166 0.44734553 0
5.2070003 1.7228649 0.44735456 0
5.2080002 1.7145602 0.44736356 0
5.2090001 1.7062517 0.44737259 0
5.2100005 1.6979399 0.44738162 0
5.2120004 1.689985 0.44739965 0
5.2130003 1.6816641 0.44740865 0
5.2140002 1.6733394 0.44741768 0
5.2150002 1.6650112 0.44742671 0
5.2160006 1.6566796 0.44743571 0
5.2170005 1.6483442 0.44744474 0
5.2180004 1.6400052 0.44745377 0
5.2190003 1.6316625 0.44746277 0
5.2200003 1.6233163 0.4474718 0
5.2200003 1.5450671 0.4474718 0
5.2180004 1.5357162 0.44745377 0
5.2180004 1.5270253 0.44745377 0
5.2190003 1.5186594 0.44746277 0
5.2220001 1.5109353 0.44748983 0
5.2260003 1.5035217 0.44752592 0
5.2310004 1.496413 0.44757101 0
5.2380004 1.4899211 0.44763413 0
5.2140002 1.3607323 0.44741768 0
5.2150002 1.3523391 0.44742671 0
5.2160006 1.3439425 0.44743571 0
5.2170005 1.3355422 0.44744474 0
5.1820002 1.8775557 0.43850327 0
5.1780005 1.8673283 0.43847439 0
5.1760001 1.8579122 0.43845996 0
5.1750002 1.8489004 0.43845275 0
5.1770005 1.8410774 0.43846717 0
5.1790004 1.8332471 0.43848163 0
5.1830001 1.8261924 0.43851048 0
5.1880002 1.8195128 0.43854654 0
5.1940002 1.8132032 0.43858984 0
5.2020001 1.8076439 0.43864757 0
5.2090001 1.8016714 0.43869805 0
5.2110004 1.7937617 0.43871251 0
5.2200003 1.5450671 0.43877745 0
5.2180004 1.5357162 0.43876302 0
5.2180004 1.5270253 0.43876302 0
5.2190003 1.5186594 0.43877023 0
5.2220001 1.5109353 0.43879187 0
5.2260003 1.5035217 0.43882072 0
5.2310004 1.496413 0.43885681 0
5.2140002 1.3607323 0.43873414 0
5.2150002 1.3523391 0.43874136 0
5.2160006 1.3439425 0.43874857 0
5.2170005 1.3355422 0.43875578 0
5.1820002 1.8775557 0.42987746 0
5.1780005 1.8673283 0.42985579 0
5.1760001 1.8579122 0.42984498 0
5.1750002 1.8489004 0.42983955 0
5.1770005 1.8410774 0.4298504 0
5.1790004 1.8332471 0.42986122 0
5.1830001 1.8261924 0.42988285 0
5.1880002 1.8195128 0.42990991 0
5.1940002 1.8132032 0.42994237 0
5.2020001 1.8076439 0.42998567 0
5.2140002 1.8035926 0.43005061 0
5.2200003 1.5450671 0.4300831 0
5.2180004 1.5357162 0.43007225 0
5.2180004 1.5270253 0.43007225 0
5.2190003 1.5186594 0.43007767 0
5.2220001 1.5109353 0.43009391 0
5.2260003 1.5035217 0.43011555 0
5.2310004 1.496413 0.43014261 0
5.2140002 1.3607323 0.43005061 0
5.2150002 1.3523391 0.43005604 0
5.2160006 1.3439425 0.43006143 0
5.2170005 1.3355422 0.43006685 0
5.1820002 1.8775557 0.42125162 0
5.1780005 1.8673283 0.4212372 0
5.1760001 1.8579122 0.42122999 0
5.1750002 1.8489004 0.42122638 0
5.1770005 1.8410774 0.42123359 0
5.1790004 1.8332471 0.42124081 0
5.1830001 1.8261924 0.42125523 0
5.1880002 1.8195128 0.42127329 0
5.1940002 1.8132032 0.42129493 0
5.2020001 1.8076439 0.42132378 0
5.2140002 1.8035926 0.42136708 0
5.1910005 1.5354943 0.42128411 0
5.1920004 1.5271806 0.42128772 0
5.1930003 1.5188631 0.42129132 0
5.1940002 1.5105422 0.42129493 0
5.1960001 1.5025405 0.42130214 0
5.1970005 1.4942106 0.42130575 0
5.2120004 1.3775077 0.42135987 0
5.2130003 1.3691218 0.42136347 0
5.2140002 1.3607323 0.42136708 0
5.2150002 1.3523391 0.42137069 0
5.2160006 1.3439425 0.42137429 0
5.2170005 1.3355422 0.4213779 0
5.2190003 1.3274232 0.42138511 0
5.1820002 1.8775557 0.41262582 0
5.1780005 1.8673283 0.41261861 0
5.1760001 1.8579122 0.412615 0
5.1750002 1.8489004 0.41261321 0
5.1770005 1.8410774 0.41261682 0
5.1790004 1.8332471 0.41262043 0
5.1830001 1.8261924 0.41262764 0
5.1880002 1.8195128 0.41263664 0
5.1940002 1.8132032 0.41264749 0
5.2020001 1.8076439 0.41266191 0
5.2140002 1.8035926 0.41268355 0
5.1740003 1.6676648 0.4126114 0
5.1750002 1.6594105 0.41261321 0
5.1910005 1.5354943 0.41264206 0
5.1920004 1.5271806 0.41264385 0
5.1930003 1.5188631 0.41264567 0
5.1940002 1.5105422 0.41264749 0
5.1960001 1.5025405 0.41265109 0
5.2110004 1.3858901 0.41267812 0
5.2120004 1.3775077 0.41267994 0
5.2130003 1.3691218 0.41268176 0
5.2140002 1.3607323 0.41268355 0
5.2150002 1.3523391 0.41268536 0
5.2160006 1.3439425 0.41268715 0
5.2170005 1.3355422 0.41268897 0
5.2190003 1.3274232 0.41269258 0
5.1820002 1.8775557 0.40400001 0
5.1780005 1.8673283 0.40400001 0
5.1760001 1.8579122 0.40400001 0
5.1750002 1.8489004 0.40400001 0
5.1770005 1.8410774 0.40400001 0
5.1790004 1.8332471 0.40400001 0
5.1830001 1.8261924 0.40400001 0
5.1880002 1.8195128 0.40400001 0
5.1940002 1.8132032 0.40400001 0
5.2020001 1.8076439 0.40400001 0
5.1730003 1.6759154 0.40400001 0
5.1740003 1.6676648 0.40400001 0
5.1750002 1.6594105 0.40400001 0
5.1760001 1.6511526 0.40400001 0
5.2110004 1.3858901 0.40400001 0
5.2120004 1.3775077 0.40400001 0
5.2130003 1.3691218 0.40400001 0
5.2140002 1.3607323 0.40400001 0
5.2150002 1.3523391 0.40400001 0
5.2160006 1.3439425 0.40400001 0
5.2170005 1.3355422 0.40400001 0
5.1820002 1.8775557 0.39537421 0
5.1780005 1.8673283 0.39538142 0
5.1760001 1.8579122 0.39538503 0
5.1750002 1.8489004 0.39538682 0
5.1770005 1.8410774 0.39538321 0
5.1790004 1.8332471 0.3953796 0
5.1830001 1.8261924 0.39537239 0
5.1880002 1.8195128 0.39536339 0
5.1940002 1.8132032 0.39535254 0
5.2020001 1.8076439 0.39533812 0
5.1730003 1.6759154 0.39539045 0
5.1740003 1.6676648 0.39538863 0
5.1750002 1.6594105 0.39538682 0
5.1760001 1.6511526 0.39538503 0
5.1770005 1.6428913 0.39538321 0
5.2110004 1.3858901 0.39532191 0
5.2120004 1.3775077 0.39532009 0
5.2130003 1.3691218 0.39531827 0
5.2140002 1.3607323 0.39531648 0
5.2150002 1.3523391 0.39531466 0
5.2160006 1.3439425 0.39531288 0
5.2170005 1.3355422 0.39531106 0
5.1820002 1.8775557 0.3867484 0
5.1780005 1.8673283 0.38676283 0
5.1760001 1.8579122 0.38677004 0
5.1750002 1.8489004 0.38677365 0
5.1770005 1.8410774 0.38676643 0
5.1790004 1.8332471 0.38675922 0
5.1830001 1.8261924 0.3867448 0
5.1880002 1.8195128 0.38672674 0
5.1940002 1.8132032 0.3867051 0
5.2020001 1.8076439 0.38667625 0
5.1940002 1.6834913 0.3867051 0
5.1930003 1.674485 0.38670871 0
5.1950002 1.6665535 0.38670149 0
5.1980004 1.6589704 0.38669068 0
5.2330003 1.3750023 0.3865644 0
5.2140002 1.3607323 0.38663295 0
5.2150002 1.3523391 0.38662934 0
5.2160006 1.3439425 0.38662574 0
5.2170005 1.3355422 0.38662213 0
5.1820002 1.8775557 0.37812257 0
5.1780005 1.8673283 0.37814423 0
5.1760001 1.8579122 0.37815505 0
5.1750002 1.8489004 0.37816048 0
5.1770005 1.8410774 0.37814963 0
5.1790004 1.8332471 0.37813881 0
5.1830001 1.8261924 0.37811717 0
5.1880002 1.8195128 0.37809011 0
5.1940002 1.8132032 0.37805766 0
5.2020001 1.8076439 0.37801436 0
5.1940002 1.6834913 0.37805766 0
5.1930003 1.674485 0.37806305 0
5.1950002 1.6665535 0.37805223 0
5.1980004 1.6589704 0.37803599 0
5.2040005 1.652437 0.37800354 0
5.2330003 1.3750023 0.3778466 0
5.2140002 1.3607323 0.37794942 0
5.2150002 1.3523391 0.37794399 0
5.2160006 1.3439425 0.3779386 0
5.2170005 1.3355422 0.37793317 0
5.1820002 1.8775557 0.36949676 0
5.1780005 1.8673283 0.36952564 0
5.1760001 1.8579122 0.36954007 0
5.1750002 1.8489004 0.36954728 0
5.1770005 1.8410774 0.36953285 0
5.1790004 1.8332471 0.3695184 0
5.1830001 1.8261924 0.36948955 0
5.1880002 1.8195128 0.36945349 0
5.1940002 1.8132032 0.36941019 0
5.2020001 1.8076439 0.36935246 0
5.1940002 1.6834913 0.36941019 0
5.1930003 1.674485 0.3694174 0
5.1950002 1.6665535 0.36940297 0
5.1980004 1.6589704 0.36938134 0
5.2040005 1.652437 0.36933804 0
5.2330003 1.3750023 0.36912879 0
5.2140002 1.3607323 0.36926588 0
5.2150002 1.3523391 0.36925867 0
5.2160006 1.3439425 0.36925146 0
5.1820002 1.8775557 0.36087096 0
5.1780005 1.8673283 0.36090705 0
5.1760001 1.8579122 0.36092508 0
5.1750002 1.8489004 0.36093408 0
5.1770005 1.8410774 0.36091605 0
5.1790004 1.8332471 0.36089802 0
5.1830001 1.8261924 0.36086196 0
5.1880002 1.8195128 0.36081684 0
5.1940002 1.8132032 0.36076272 0
5.2020001 1.8076439 0.36069059 0
5.1940002 1.6834913 0.36076272 0
5.1930003 1.674485 0.36077175 0
5.1950002 1.6665535 0.36075372 0
5.1980004 1.6589704 0.36072665 0
5.2040005 1.652437 0.36067253 0
5.2330003 1.3750023 0.36041099 0
5.2140002 1.3607323 0.36058235 0
5.2150002 1.3523391 0.36057332 0
5.1820002 1.8775557 0.35224515 0
5.1780005 1.8673283 0.35228842 0
5.1760001 1.8579122 0.35231009 0
5.1750002 1.8489004 0.35232091 0
5.1770005 1.8410774 0.35229927 0
5.1790004 1.8332471 0.35227761 0
5.1830001 1.8261924 0.35223433 0
5.1880002 1.8195128 0.35218021 0
5.1940002 1.8132032 0.35211527 0
5.2020001 1.8076439 0.3520287 0
5.1940002 1.6834913 0.35211527 0
5.1930003 1.674485 0.35212609 0
5.1950002 1.6665535 0.35210446 0
5.1980004 1.6589704 0.35207197 0
5.2040005 1.652437 0.35200703 0
5.2330003 1.3750023 0.35169318 0
5.2350001 1.3668689 0.35167155 0
5.2390003 1.3593091 0.35162824 0
5.1820002 1.8775557 0.34361935 0
5.1780005 1.8673283 0.34366983 0
5.1760001 1.8579122 0.3436951 0
5.1750002 1.8489004 0.34370774 0
5.1770005 1.8410774 0.34368247 0
5.1790004 1.8332471 0.34365723 0
5.1830001 1.8261924 0.34360671 0
5.1880002 1.8195128 0.34354359 0
5.1940002 1.8132032 0.34346783 0
5.2020001 1.8076439 0.3433668 0
5.1940002 1.6834913 0.34346783 0
5.1930003 1.674485 0.34348044 0
5.1950002 1.6665535 0.3434552 0
5.1980004 1.6589704 0.34341732 0
5.2040005 1.652437 0.34334156 0
5.2330003 1.3750023 0.34297538 0
5.2350001 1.3668689 0.34295014 0
5.2390003 1.3593091 0.34289962 0
5.1820002 1.8775557 0.33499354 0
5.1780005 1.8673283 0.33505124 0
5.1760001 1.8579122 0.33508012 0
5.1750002 1.8489004 0.33509454 0
5.1770005 1.8410774 0.33506566 0
5.1790004 1.8332471 0.33503681 0
5.1830001 1.8261924 0.33497912 0
5.1880002 1.8195128 0.33490694 0
5.1940002 1.8132032 0.33482036 0
5.2020001 1.8076439 0.33470494 0
5.1940002 1.6834913 0.33482036 0
5.1930003 1.674485 0.33483478 0
5.1950002 1.6665535 0.33480594 0
5.1980004 1.6589704 0.33476263 0
5.2040005 1.652437 0.33467606 0
5.4910002 1.717172 0.33053452 0
5.4920001 1.7083334 0.33052009 0
5.4950004 1.7001766 0.33047679 0
5.2330003 1.3750023 0.33425757 0
5.2350001 1.3668689 0.33422872 0
5.2390003 1.3593091 0.334171 0
5.1820002 1.8775557 0.32636771 0
5.1780005 1.8673283 0.32643265 0
5.1760001 1.8579122 0.32646513 0
5.1750002 1.8489004 0.32648134 0
5.1770005 1.8410774 0.32644889 0
5.1790004 1.8332471 0.32641643 0
5.1830001 1.8261924 0.32635149 0
5.1880002 1.8195128 0.32627031 0
5.1940002 1.8132032 0.32617292 0
5.2020001 1.8076439 0.32604304 0
5.1940002 1.6834913 0.32617292 0
5.1930003 1.674485 0.32618913 0
5.1950002 1.6665535 0.32615668 0
5.1980004 1.6589704 0.32610798 0
5.2040005 1.652437 0.32601056 0
5.4910002 1.717172 0.32135132 0
5.4920001 1.7083334 0.32133508 0
5.4950004 1.7001766 0.32128638 0
5.2330003 1.38372 0.32553977 0
5.2330003 1.3750023 0.32553977 0
5.2350001 1.3668689 0.32550731 0
5.2390003 1.3593091 0.32544237 0
5.1820002 1.8775557 0.3177419 0
5.1780005 1.8673283 0.31781405 0
5.1760001 1.8579122 0.31785014 0
5.1750002 1.8489004 0.31786817 0
5.1770005 1.8410774 0.31783208 0
5.1790004 1.8332471 0.31779602 0
5.1830001 1.8261924 0.31772387 0
5.1880002 1.8195128 0.31763369 0
5.1940002 1.8132032 0.31752545 0
5.2020001 1.8076439 0.31738114 0
5.1940002 1.6834913 0.31752545 0
5.1930003 1.674485 0.31754351 0
5.1950002 1.6665535 0.31750742 0
5.1980004 1.6589704 0.31745329 0
5.2040005 1.652437 0.31734505 0
5.4910002 1.717172 0.31216815 0
5.4920001 1.7083334 0.31215012 0
5.4950004 1.7001766 0.31209597 0
5.2330003 1.38372 0.31682196 0
5.2330003 1.3750023 0.31682196 0
5.2350001 1.3668689 0.3167859 0
5.2390003 1.3593091 0.31671375 0
5.1820002 1.8775557 0.3091161 0
5.1780005 1.8673283 0.30919546 0
5.1760001 1.8579122 0.30923516 0
5.1750002 1.8489004 0.309255 0
5.1770005 1.8410774 0.30921531 0
5.1790004 1.8332471 0.30917561 0
5.1830001 1.8261924 0.30909625 0
5.1880002 1.8195128 0.30899704 0
5.1940002 1.8132032 0.308878 0
5.2020001 1.8076439 0.30871928 0
5.1940002 1.6834913 0.308878 0
5.1930003 1.674485 0.30889782 0
5.1950002 1.6665535 0.30885816 0
5.1980004 1.6589704 0.30879861 0
5.2040005 1.652437 0.30867958 0
5.4910002 1.717172 0.30298495 0
5.4920001 1.7083334 0.3029651 0
5.4950004 1.7001766 0.30290559 0
5.2330003 1.38372 0.30810416 0
5.2330003 1.3750023 0.30810416 0
5.2350001 1.3668689 0.30806446 0
5.2390003 1.3593091 0.3079851 0
5.2470002 1.3528893 0.30782637 0
5.1820002 1.8775557 0.30049029 0
5.1780005 1.8673283 0.30057687 0
5.1760001 1.8579122 0.30062017 0
5.1750002 1.8489004 0.3006418 0
5.1770005 1.8410774 0.3005985 0
5.1790004 1.8332471 0.30055523 0
5.1830001 1.8261924 0.30046862 0
5.1880002 1.8195128 0.30036041 0
5.1940002 1.8132032 0.30023053 0
5.2020001 1.8076439 0.30005738 0
5.1940002 1.6834913 0.30023053 0
5.1930003 1.674485 0.30025217 0
5.1950002 1.6665535 0.3002089 0
5.1980004 1.6589704 0.30014396 0
5.2040005 1.652437 0.30001408 0
5.4910002 1.717172 0.29380175 0
5.4920001 1.7083334 0.29378012 0
5.4950004 1.7001766 0.29371518 0
5.2330003 1.38372 0.29938635 0
5.2330003 1.3750023 0.29938635 0
5.2350001 1.3668689 0.29934305 0
5.2390003 1.3593091 0.29925647 0
5.2470002 1.3528893 0.29908332 0
5.1820002 1.8775557 0.29186448 0
5.1780005 1.8673283 0.29195827 0
5.1760001 1.8579122 0.29200518 0
5.1750002 1.8489004 0.29202861 0
5.1770005 1.8410774 0.2919817 0
5.1790004 1.8332471 0.29193482 0
5.1830001 1.8261924 0.29184103 0
5.1880002 1.8195128 0.29172379 0
5.1940002 1.8132032 0.29158306 0
5.2020001 1.8076439 0.29139549 0
5.1940002 1.6834913 0.29158306 0
5.1930003 1.674485 0.29160655 0
5.1950002 1.6665535 0.29155964 0
5.1980004 1.6589704 0.29148927 0
5.2040005 1.652437 0.29134858 0
5.4910002 1.717172 0.28461859 0
5.4920001 1.7083334 0.28459513 0
5.4950004 1.7001766 0.2845248 0
5.2330003 1.38372 0.29066855 0
5.2330003 1.3750023 0.29066855 0
5.2350001 1.3668689 0.29062164 0
5.2390003 1.3593091 0.29052785 0
5.2470002 1.3528893 0.29034024 0
5.1820002 1.8775557 0.28323868 0
5.1780005 1.8673283 0.28333968 0
5.1760001 1.8579122 0.28339019 0
5.1750002 1.8489004 0.28341544 0
5.1770005 1.8410774 0.28336492 0
5.1790004 1.8332471 0.28331441 0
5.1830001 1.8261924 0.28321341 0
5.1880002 1.8195128 0.28308713 0
5.1940002 1.8132032 0.28293562 0
5.2020001 1.8076439 0.28273362 0
5.1940002 1.6834913 0.28293562 0
5.1930003 1.674485 0.28296086 0
5.1950002 1.6665535 0.28291035 0
5.1980004 1.6589704 0.28283459 0
5.2040005 1.652437 0.28268307 0
5.4910002 1.717172 0.27543539 0
5.4920001 1.7083334 0.27541012 0
5.4950004 1.7001766 0.27533436 0
5.2330003 1.38372 0.28195074 0
5.2330003 1.3750023 0.28195074 0
5.2350001 1.3668689 0.28190023 0
5.2390003 1.3593091 0.28179923 0
5.2470002 1.3528893 0.2815972 0
5.1820002 1.8775557 0.27461284 0
5.1780005 1.8673283 0.27472109 0
5.1760001 1.8579122 0.27477521 0
5.1750002 1.8489004 0.27480227 0
5.1770005 1.8410774 0.27474815 0
5.1790004 1.8332471 0.27469403 0
5.1830001 1.8261924 0.27458578 0
5.1880002 1.8195128 0.27445051 0
5.1940002 1.8132032 0.27428818 0
5.2020001 1.8076439 0.27407169 0
5.1940002 1.6834913 0.27428818 0
5.1930003 1.674485 0.27431524 0
5.1950002 1.6665535 0.27426112 0
5.1980004 1.6589704 0.27417994 0
5.2040005 1.652437 0.27401757 0
5.4910002 1.717172 0.26625222 0
5.4920001 1.7083334 0.26622516 0
5.4950004 1.7001766 0.26614398 0
5.2330003 1.38372 0.27323294 0
5.2330003 1.3750023 0.27323294 0
5.2350001 1.3668689 0.27317882 0
5.2390003 1.3593091 0.27307057 0
5.2470002 1.3528893 0.27285415 0
5.1820002 1.8775557 0.26598704 0
5.1780005 1.8673283 0.26610249 0
5.1760001 1.8579122 0.26616019 0
5.1750002 1.8489004 0.26618907 0
5.1770005 1.8410774 0.26613134 0
5.1790004 1.8332471 0.26607361 0
5.1830001 1.8261924 0.26595819 0
5.1880002 1.8195128 0.26581389 0
5.1940002 1.8132032 0.26564071 0
5.2020001 1.8076439 0.26540983 0
5.1940002 1.6834913 0.26564071 0
5.1930003 1.674485 0.26566958 0
5.1950002 1.6665535 0.26561186 0
5.1980004 1.6589704 0.26552528 0
5.2040005 1.652437 0.2653521 0
5.4910002 1.717172 0.25706902 0
5.4920001 1.7083334 0.25704014 0
5.4950004 1.7001766 0.25695357 0
5.2330003 1.38372 0.26451513 0
5.2330003 1.3750023 0.26451513 0
5.2350001 1.3668689 0.2644574 0
5.2390003 1.3593091 0.26434195 0
5.2470002 1.3528893 0.2641111 0
5.1820002 1.8775557 0.25736123 0
5.1780005 1.8673283 0.2574839 0
5.1760001 1.8579122 0.25754523 0
5.1750002 1.8489004 0.25757587 0
5.1770005 1.8410774 0.25751454 0
5.1790004 1.8332471 0.2574532 0
5.1830001 1.8261924 0.2573306 0
5.1880002 1.8195128 0.25717723 0
5.1940002 1.8132032 0.25699323 0
5.2020001 1.8076439 0.25674793 0
5.1940002 1.6834913 0.25699323 0
5.1930003 1.674485 0.25702393 0
5.1950002 1.6665535 0.2569626 0
5.1980004 1.6589704 0.25687057 0
5.2040005 1.652437 0.2566866 0
5.4910002 1.717172 0.24788582 0
5.4920001 1.7083334 0.24785516 0
5.4950004 1.7001766 0.24776316 0
5.2330003 1.38372 0.25579733 0
5.2330003 1.3750023 0.25579733 0
5.2350001 1.3668689 0.25573599 0
5.2390003 1.3593091 0.25561333 0
5.2470002 1.3528893 0.25536802 0
5.1820002 1.8775557 0.24873541 0
5.1780005 1.8673283 0.24886529 0
5.1760001 1.8579122 0.24893023 0
5.1750002 1.8489004 0.2489627 0
5.1770005 1.8410774 0.24889775 0
5.1790004 1.8332471 0.24883282 0
5.1830001 1.8261924 0.24870296 0
5.1880002 1.8195128 0.2485406 0
5.1940002 1.8132032 0.24834581 0
5.2020001 1.8076439 0.24808605 0
5.1940002 1.6834913 0.24834581 0
5.1930003 1.674485 0.24837826 0
5.1950002 1.6665535 0.24831334 0
5.1980004 1.6589704 0.24821591 0
5.2040005 1.652437 0.2480211 0
5.4910002 1.717172 0.23870264 0
5.4920001 1.7083334 0.23867017 0
5.4950004 1.7001766 0.23857276 0
5.2330003 1.38372 0.24707952 0
5.2330003 1.3750023 0.24707952 0
5.2350001 1.3668689 0.2470146 0
5.2390003 1.3593091 0.2468847 0
5.2470002 1.3528893 0.24662496 0
5.1820002 1.8775557 0.24010961 0
5.1780005 1.8673283 0.2402467 0
5.1760001 1.8579122 0.24031524 0
5.1750002 1.8489004 0.24034952 0
5.1770005 1.8410774 0.24028096 0
5.1790004 1.8332471 0.24021243 0
5.1830001 1.8261924 0.24007535 0
5.1880002 1.8195128 0.23990399 0
5.1940002 1.8132032 0.23969834 0
5.2020001 1.8076439 0.23942417 0
5.1940002 1.6834913 0.23969834 0
5.1930003 1.674485 0.23973261 0
5.1950002 1.6665535 0.23966406 0
5.1980004 1.6589704 0.23956124 0
5.2040005 1.652437 0.23935561 0
5.4910002 1.717172 0.22951944 0
5.4920001 1.7083334 0.22948518 0
5.4950004 1.7001766 0.22938235 0
5.2330003 1.38372 0.23836172 0
5.2330003 1.3750023 0.23836172 0
5.2350001 1.3668689 0.23829319 0
5.2390003 1.3593091 0.23815608 0
5.2470002 1.3528893 0.2378819 0
5.1820002 1.8775557 0.2314838 0
5.1780005 1.8673283 0.23162811 0
5.1760001 1.8579122 0.23170026 0
5.1750002 1.8489004 0.23173633 0
5.1770005 1.8410774 0.23166417 0
5.1790004 1.8332471 0.23159203 0
5.1830001 1.8261924 0.23144773 0
5.1880002 1.8195128 0.23126735 0
5.1940002 1.8132032 0.23105088 0
5.2020001 1.8076439 0.23076227 0
5.1940002 1.6834913 0.23105088 0
5.1930003 1.674485 0.23108697 0
5.1950002 1.6665535 0.2310148 0
5.1980004 1.6589704 0.23090658 0
5.2040005 1.652437 0.23069011 0
5.4910002 1.717172 0.22033627 0
5.4920001 1.7083334 0.2203002 0
5.4950004 1.7001766 0.22019194 0
5.2330003 1.38372 0.22964391 0
5.2330003 1.3750023 0.22964391 0
5.2350001 1.3668689 0.22957177 0
5.2390003 1.3593091 0.22942746 0
5.2470002 1.3528893 0.22913885 0
5.1820002 1.8775557 0.22285798 0
5.1780005 1.8673283 0.2230095 0
5.1760001 1.8579122 0.22308527 0
5.1750002 1.8489004 0.22312315 0
5.1770005 1.8410774 0.22304738 0
5.1790004 1.8332471 0.22297162 0
5.1830001 1.8261924 0.22282012 0
5.1880002 1.8195128 0.22263071 0
5.1940002 1.8132032 0.22240342 0
5.2020001 1.8076439 0.22210039 0
5.1940002 1.6834913 0.22240342 0
5.1930003 1.674485 0.2224413 0
5.1950002 1.6665535 0.22236556 0
5.1980004 1.6589704 0.22225189 0
5.2040005 1.652437 0.22202462 0
5.4910002 1.717172 0.21115308 0
5.4920001 1.7083334 0.2111152 0
5.4950004 1.7001766 0.21100156 0
5.2330003 1.38372 0.22092611 0
5.2330003 1.3750023 0.22092611 0
5.2350001 1.3668689 0.22085035 0
5.2390003 1.3593091 0.22069883 0
5.2470002 1.3528893 0.22039579 0
5.1820002 1.8775557 0.21423218 0
5.1780005 1.8673283 0.2143909 0
5.1760001 1.8579122 0.21447028 0
5.1750002 1.8489004 0.21450996 0
5.1770005 1.8410774 0.21443059 0
5.1790004 1.8332471 0.21435122 0
5.1830001 1.8261924 0.21419249 0
5.1880002 1.8195128 0.21399409 0
5.1940002 1.8132032 0.21375597 0
5.2020001 1.8076439 0.21343851 0
5.1940002 1.6834913 0.21375597 0
5.1930003 1.674485 0.21379565 0
5.1950002 1.6665535 0.21371628 0
5.1980004 1.6589704 0.21359722 0
5.2040005 1.652437 0.21335912 0
5.4910002 1.717172 0.20196989 0
5.4920001 1.7083334 0.20193021 0
5.4950004 1.7001766 0.20181115 0
5.2330003 1.38372 0.2122083 0
5.2330003 1.3750023 0.2122083 0
5.2350001 1.3668689 0.21212894 0
5.2390003 1.3593091 0.2119702 0
5.2470002 1.3528893 0.21165273 0
5.1820002 1.8775557 0.20560637 0
5.1780005 1.8673283 0.20577231 0
5.1760001 1.8579122 0.2058553 0
5.1750002 1.8489004 0.20589678 0
5.1770005 1.8410774 0.2058138 0
5.1790004 1.8332471 0.20573083 0
5.1830001 1.8261924 0.20556487 0
5.1880002 1.8195128 0.20535745 0
5.1940002 1.8132032 0.20510852 0
5.2020001 1.8076439 0.20477661 0
5.1940002 1.6834913 0.20510852 0
5.1930003 1.674485 0.20514999 0
5.1950002 1.6665535 0.20506702 0
5.1980004 1.6589704 0.20494257 0
5.2040005 1.652437 0.20469362 0
5.4910002 1.717172 0.19278671 0
5.4920001 1.7083334 0.19274522 0
5.4950004 1.7001766 0.19262075 0
5.2330003 1.38372 0.2034905 0
5.2330003 1.3750023 0.2034905 0
5.2350001 1.3668689 0.20340753 0
5.2390003 1.3593091 0.20324157 0
5.2470002 1.3528893 0.20290968 0
5.1820002 1.8775557 0.19698055 0
5.1780005 1.8673283 0.1971537 0
5.1760001 1.8579122 0.19724031 0
5.1750002 1.8489004 0.1972836 0
5.1770005 1.8410774 0.19719701 0
5.1790004 1.8332471 0.19711043 0
5.1830001 1.8261924 0.19693726 0
5.1880002 1.8195128 0.19672081 0
5.1940002 1.8132032 0.19646107 0
5.2020001 1.8076439 0.19611473 0
5.1940002 1.6834913 0.19646107 0
5.1930003 1.674485 0.19650434 0
5.1950002 1.6665535 0.19641776 0
5.1980004 1.6589704 0.19628789 0
5.2040005 1.652437 0.19602814 0
5.4910002 1.717172 0.18360351 0
5.4920001 1.7083334 0.18356022 0
5.4950004 1.7001766 0.18343034 0
5.2330003 1.38372 0.19477269 0
5.2330003 1.3750023 0.19477269 0
5.2350001 1.3668689 0.19468611 0
5.2390003 1.3593091 0.19451295 0
5.2470002 1.3528893 0.19416662 0
5.1820002 1.8775557 0.18835475 0
5.1780005 1.8673283 0.18853511 0
5.1760001 1.8579122 0.18862532 0
5.1750002 1.8489004 0.18867041 0
5.1770005 1.8410774 0.1885802 0
5.1790004 1.8332471 0.18849002 0
5.1830001 1.8261924 0.18830965 0
5.1880002 1.8195128 0.18808417 0
5.1940002 1.8132032 0.18781359 0
5.2020001 1.8076439 0.18745284 0
5.1940002 1.6834913 0.18781359 0
5.1930003 1.674485 0.1878587 0
5.1950002 1.6665535 0.18776852 0
5.1980004 1.6589704 0.1876332 0
5.2040005 1.652437 0.18736264 0
5.4910002 1.717172 0.17442033 0
5.4920001 1.7083334 0.17437524 0
5.4950004 1.7001766 0.17423993 0
5.2330003 1.38372 0.18605489 0
5.2330003 1.3750023 0.18605489 0
5.2350001 1.3668689 0.1859647 0
5.2390003 1.3593091 0.18578431 0
5.2470002 1.3528893 0.18542355 0
5.1820002 1.8775557 0.17972894 0
5.1780005 1.8673283 0.17991652 0
5.1760001 1.8579122 0.18001033 0
5.1750002 1.8489004 0.18005723 0
5.1770005 1.8410774 0.17996341 0
5.1790004 1.8332471 0.17986962 0
5.1830001 1.8261924 0.17968203 0
5.1880002 1.8195128 0.17944753 0
5.1940002 1.8132032 0.17916614 0
5.2020001 1.8076439 0.17879096 0
5.1940002 1.6834913 0.17916614 0
5.1930003 1.674485 0.17921305 0
5.1950002 1.6665535 0.17911926 0
5.1980004 1.6589704 0.17897853 0
5.2040005 1.652437 0.17869715 0
5.4910002 1.717172 0.16523714 0
5.4920001 1.7083334 0.16519025 0
5.4950004 1.7001766 0.16504955 0
5.2330003 1.38372 0.17733708 0
5.2330003 1.3750023 0.17733708 0
5.2350001 1.3668689 0.17724329 0
5.2390003 1.3593091 0.17705569 0
5.2470002 1.3528893 0.17668051 0
5.1820002 1.8775557 0.17110313 0
5.1780005 1.8673283 0.17129792 0
5.1760001 1.8579122 0.17139535 0
5.1750002 1.8489004 0.17144404 0
5.1770005 1.8410774 0.17134663 0
5.1790004 1.8332471 0.17124923 0
5.1830001 1.8261924 0.17105441 0
5.1880002 1.8195128 0.17081091 0
5.1940002 1.8132032 0.17051868 0
5.2020001 1.8076439 0.17012906 0
5.1940002 1.6834913 0.17051868 0
5.1930003 1.674485 0.17056738 0
5.1950002 1.6665535 0.17047 0
5.1980004 1.6589704 0.17032388 0
5.2040005 1.652437 0.17003165 0
5.4910002 1.717172 0.15605396 0
5.4920001 1.7083334 0.15600526 0
5.4950004 1.7001766 0.15585914 0
5.2330003 1.38372 0.16861929 0
5.2330003 1.3750023 0.16861929 0
5.2350001 1.3668689 0.16852188 0
5.2390003 1.3593091 0.16832706 0
5.2470002 1.3528893 0.16793744 0
5.1820002 1.8775557 0.16247733 0
5.1780005 1.8673283 0.16267933 0
5.1760001 1.8579122 0.16278036 0
5.1750002 1.8489004 0.16283087 0
5.1770005 1.8410774 0.16272983 0
5.1790004 1.8332471 0.16262881 0
5.1830001 1.8261924 0.16242681 0
5.1880002 1.8195128 0.16217428 0
5.1940002 1.8132032 0.16187122 0
5.2020001 1.8076439 0.16146719 0
5.1940002 1.6834913 0.16187122 0
5.1930003 1.674485 0.16192172 0
5.1950002 1.6665535 0.16182071 0
5.1980004 1.6589704 0.16166919 0
5.2040005 1.652437 0.16136615 0
5.4910002 1.717172 0.14687076 0
5.4920001 1.7083334 0.14682025 0
5.4950004 1.7001766 0.14666873 0
5.2330003 1.38372 0.15990147 0
5.2330003 1.3750023 0.15990147 0
5.2350001 1.3668689 0.15980045 0
5.2390003 1.3593091 0.15959844 0
5.2470002 1.3528893 0.15919438 0
5.1820002 1.8775557 0.15385148 0
5.1780005 1.8673283 0.15406072 0
5.1760001 1.8579122 0.15416537 0
5.1750002 1.8489004 0.15421768 0
5.1770005 1.8410774 0.15411302 0
5.1790004 1.8332471 0.15400843 0
5.1830001 1.8261924 0.15379921 0
5.1880002 1.8195128 0.15353763 0
5.1940002 1.8132032 0.15322378 0
5.2020001 1.8076439 0.1528053 0
5.1940002 1.6834913 0.15322378 0
5.1930003 1.674485 0.15327609 0
5.1950002 1.6665535 0.15317145 0
5.1980004 1.6589704 0.15301451 0
5.2040005 1.652437 0.15270066 0
5.4910002 1.717172 0.13768756 0
5.4920001 1.7083334 0.13763526 0
5.4950004 1.7001766 0.13747832 0
5.2330003 1.38372 0.15118366 0
5.2330003 1.3750023 0.15118366 0
5.2350001 1.3668689 0.15107906 0
5.2390003 1.3593091 0.15086979 0
5.2470002 1.3528893 0.15045133 0
5.1820002 1.8775557 0.14522567 0
5.1780005 1.8673283 0.14544213 0
5.1760001 1.8579122 0.14555037 0
5.1750002 1.8489004 0.14560449 0
5.1770005 1.8410774 0.14549625 0
5.1790004 1.8332471 0.14538801 0
5.1830001 1.8261924 0.14517158 0
5.1880002 1.8195128 0.14490101 0
5.1940002 1.8132032 0.14457631 0
5.2020001 1.8076439 0.1441434 0
5.1940002 1.6834913 0.14457631 0
5.1930003 1.674485 0.14463043 0
5.1950002 1.6665535 0.14452219 0
5.1980004 1.6589704 0.14435986 0
5.2040005 1.652437 0.14403516 0
5.4910002 1.717172 0.1285044 0
5.4920001 1.7083334 0.1284503 0
5.4950004 1.7001766 0.12828794 0
5.2330003 1.38372 0.14246586 0
5.2330003 1.3750023 0.14246586 0
5.2350001 1.3668689 0.14235765 0
5.2390003 1.3593091 0.14214116 0
5.2470002 1.3528893 0.14170825 0
5.1820002 1.8775557 0.13659987 0
