# .PCD v0.7 - Point Cloud Data file format
VERSION 0.7
FIELDS x y z intensity
SIZE 4 4 4 4
TYPE F F F F
COUNT 1 1 1 1
WIDTH 1379
HEIGHT 1
VIEWPOINT 0 0 0 1 0 0 0
POINTS 1379
DATA ascii
3.9190001 -0.39511806 0.34687161 0
3.9110003 -0.40065756 0.34700149 0
3.9030004 -0.40616822 0.34713134 0
3.8950002 -0.41164997 0.34726122 0
3.8870003 -0.4171029 0.3473911 0
3.8790002 -0.42252693 0.34752098 0
3.8710003 -0.42792213 0.34765086 0
3.8640003 -0.4334003 0.34776449 0
3.8560002 -0.43873957 0.34789437 0
3.8480003 -0.44404998 0.34802425 0
3.8400002 -0.44933152 0.34815413 0
3.8330002 -0.45470324 0.34826776 0
3.8250003 -0.4599289 0.34839761 0
3.8180003 -0.46524832 0.34851128 0
3.8100002 -0.47041804 0.34864116 0
3.8020003 -0.47555891 0.34877101 0
3.7950003 -0.48079896 0.34888464 0
3.7880003 -0.48601377 0.34899831 0
3.7800002 -0.49107164 0.34912816 0
3.7730002 -0.49623415 0.34924179 0
3.7650003 -0.50123608 0.34937167 0
3.7580004 -0.50634629 0.34948531 0
3.7510002 -0.51143122 0.34959897 0
3.7430003 -0.51635021 0.34972882 0
3.7360003 -0.52138281 0.34984249 0
3.7290003 -0.52639019 0.34995613 0
3.7220004 -0.53137237 0.35006976 0
3.7150002 -0.53632921 0.3501834 0
3.7080002 -0.54126078 0.35029703 0
3.7000003 -0.54601562 0.35042691 0
3.6930003 -0.55089498 0.35054055 0
3.6860003 -0.555749 0.35065418 0
3.6790001 -0.56057781 0.35076782 0
3.6720002 -0.56538129 0.35088146 0
3.6650002 -0.57015961 0.35099512 0
3.6590002 -0.57507497 0.35109252 0
3.6520002 -0.57980454 0.35120615 0
3.6450002 -0.5845089 0.35131979 0
3.6380002 -0.58918798 0.35143343 0
3.6310003 -0.59384185 0.35154706 0
3.6250002 -0.59864175 0.35164449 0
3.6180003 -0.60324687 0.35175812 0
3.6110003 -0.60782671 0.35187176 0
3.6040003 -0.6123814 0.35198539 0
3.5980003 -0.61708933 0.35208279 0
3.5910003 -0.62159526 0.35219646 0
3.5850003 -0.62625808 0.35229385 0
3.5780003 -0.63071531 0.35240749 0
3.5710003 -0.63514727 0.35252112 0
3.5650003 -0.63974154 0.35261855 0
3.5580003 -0.64412481 0.35273218 0
3.5520003 -0.64867401 0.35282958 0
3.5460002 -0.65320152 0.352927 0
3.5390003 -0.65751266 0.35304064 0
3.5330002 -0.66199511 0.35313803 0
3.5260003 -0.6662575 0.35325167 0
3.5200002 -0.67069483 0.35334909 0
3.5140002 -0.67511058 0.35344648 0
3.5070002 -0.67930084 0.35356012 0
3.5010002 -0.68367147 0.35365754 0
3.4950001 -0.68802047 0.35375494 0
3.4890003 -0.69234782 0.35385233 0
3.4830003 -0.69665349 0.35394976 0
3.4760003 -0.70072466 0.35406339 0
3.4700003 -0.70498526 0.35416079 0
3.4640002 -0.70922422 0.35425821 0
3.4580002 -0.71344149 0.3543556 0
3.4520001 -0.71763712 0.35445303 0
3.4460003 -0.72181118 0.35455042 0
3.4400003 -0.72596353 0.35464782 0
3.4340003 -0.73009431 0.35474521 0
3.4280002 -0.73420334 0.35484263 0
3.4220002 -0.73829079 0.35494006 0
3.4160001 -0.74235654 0.35503745 0
3.4100003 -0.74640071 0.35513484 0
3.4050002 -0.75065768 0.35521603 0
3.3990002 -0.75466037 0.35531342 0
3.3930001 -0.7586413 0.35541084 0
3.3870003 -0.76260072 0.35550824 0
3.3810003 -0.76653838 0.35560563 0
3.3760002 -0.77069801 0.35568681 0
3.3700001 -0.77459419 0.35578424 0
3.3640003 -0.77846879 0.35588163 0
3.3580003 -0.78232175 0.35597903 0
3.3530002 -0.78640372 0.35606021 0
3.3470001 -0.79021519 0.3561576 0
3.3410003 -0.79400504 0.35625502 0
3.3360002 -0.7980293 0.35633618 0
3.3300002 -0.8017776 0.3564336 0
3.3250003 -0.80576402 0.35651475 0
3.3190002 -0.80947089 0.35661218 0
3.3140001 -0.81341934 0.35669333 0
3.3080003 -0.81708479 0.35679075 0
3.3030002 -0.82099539 0.3568719 0
3.2970002 -0.82461923 0.35696933 0
3.2920003 -0.82849199 0.35705048 0
3.2860003 -0.83207434 0.3571479 0
3.2810001 -0.83590925 0.35722908 0
3.2760003 -0.83972615 0.35731024 0
3.2700002 -0.84324718 0.35740766 0
3.2650003 -0.84702617 0.35748881 0
3.2600002 -0.8507871 0.35756999 0
3.2540002 -0.85424674 0.35766739 0
3.2490003 -0.85796988 0.35774857 0
3.2440002 -0.86167485 0.35782975 0
3.2390003 -0.86536193 0.3579109 0
3.2330003 -0.86874044 0.35800833 0
3.2280002 -0.8723895 0.35808948 0
3.2230003 -0.87602055 0.35817066 0
3.2180002 -0.87963355 0.35825184 0
3.2130003 -0.8832286 0.35833299 0
3.2070003 -0.88650614 0.35843042 0
3.2020001 -0.89006323 0.35851157 0
3.1970003 -0.89360231 0.35859275 0
3.1920002 -0.89712334 0.35867393 0
3.1870003 -0.90062636 0.35875508 0
3.1820002 -0.90411127 0.35883626 0
3.1770003 -0.90757823 0.35891744 0
3.1720002 -0.91102701 0.3589986 0
3.1670003 -0.91445792 0.35907978 0
3.1620002 -0.9178707 0.35916096 0
3.1570003 -0.92126548 0.35924211 0
3.1520002 -0.92464215 0.35932329 0
3.1470003 -0.92800093 0.35940447 0
2.9390001 -1.0718907 0.3627812 0
2.9350002 -1.0748471 0.36284614 0
2.9310002 -1.0777892 0.36291108 0
2.9270003 -1.0807167 0.36297601 0
2.9230001 -1.0836298 0.36304095 0
3.9600003 -0.36707789 0.33978444 0
3.9510002 -0.37267148 0.33994678 0
3.9430003 -0.37832642 0.34009111 0
3.9350002 -0.3839525 0.34023538 0
3.9270003 -0.3895497 0.34037971 0
3.9190001 -0.39511806 0.34052402 0
3.9110003 -0.40065756 0.34066832 0
3.9030004 -0.40616822 0.34081262 0
3.8950002 -0.41164997 0.34095693 0
3.8870003 -0.4171029 0.34110123 0
3.8790002 -0.42252693 0.34124553 0
3.8710003 -0.42792213 0.34138983 0
3.8640003 -0.4334003 0.34151608 0
3.8560002 -0.43873957 0.34166041 0
3.8480003 -0.44404998 0.34180471 0
3.8400002 -0.44933152 0.34194902 0
3.8330002 -0.45470324 0.34207529 0
3.8250003 -0.4599289 0.34221959 0
3.8180003 -0.46524832 0.34234586 0
3.8100002 -0.47041804 0.34249014 0
3.8020003 -0.47555891 0.34263447 0
3.7950003 -0.48079896 0.34276074 0
3.7880003 -0.48601377 0.34288698 0
3.7800002 -0.49107164 0.34303129 0
3.7730002 -0.49623415 0.34315756 0
3.7650003 -0.50123608 0.34330186 0
3.7580004 -0.50634629 0.34342813 0
3.7510002 -0.51143122 0.34355441 0
3.7430003 -0.51635021 0.34369871 0
3.7360003 -0.52138281 0.34382498 0
3.7290003 -0.52639019 0.34395123 0
3.7220004 -0.53137237 0.3440775 0
3.7150002 -0.53632921 0.34420377 0
3.7080002 -0.54126078 0.34433004 0
3.7000003 -0.54601562 0.34447435 0
3.6930003 -0.55089498 0.34460062 0
3.6860003 -0.555749 0.34472686 0
3.6790001 -0.56057781 0.34485313 0
3.6720002 -0.56538129 0.34497941 0
3.6650002 -0.57015961 0.34510568 0
3.6590002 -0.57507497 0.34521389 0
3.6520002 -0.57980454 0.34534016 0
3.6450002 -0.5845089 0.34546643 0
3.6380002 -0.58918798 0.34559271 0
3.6310003 -0.59384185 0.34571898 0
3.6250002 -0.59864175 0.34582719 0
3.6180003 -0.60324687 0.34595346 0
3.6110003 -0.60782671 0.34607974 0
3.6040003 -0.6123814 0.34620601 0
3.5980003 -0.61708933 0.34631422 0
3.5910003 -0.62159526 0.34644049 0
3.5850003 -0.62625808 0.34654874 0
3.5780003 -0.63071531 0.34667498 0
3.5710003 -0.63514727 0.34680125 0
3.5650003 -0.63974154 0.34690949 0
3.5580003 -0.64412481 0.34703577 0
3.5520003 -0.64867401 0.34714398 0
3.5460002 -0.65320152 0.34725222 0
3.5390003 -0.65751266 0.34737846 0
3.5330002 -0.66199511 0.3474867 0
3.5260003 -0.6662575 0.34761298 0
3.5200002 -0.67069483 0.34772119 0
3.5140002 -0.67511058 0.34782943 0
3.5070002 -0.67930084 0.3479557 0
3.5010002 -0.68367147 0.34806392 0
3.4950001 -0.68802047 0.34817216 0
3.4890003 -0.69234782 0.34828037 0
3.4830003 -0.69665349 0.34838861 0
3.4760003 -0.70072466 0.34851485 0
3.4700003 -0.70498526 0.3486231 0
3.4640002 -0.70922422 0.34873134 0
3.4580002 -0.71344149 0.34883955 0
3.4520001 -0.71763712 0.34894779 0
3.4460003 -0.72181118 0.34905601 0
3.4400003 -0.72596353 0.34916425 0
3.4340003 -0.73009431 0.34927246 0
3.4280002 -0.73420334 0.3493807 0
3.4220002 -0.73829079 0.34948891 0
3.4160001 -0.74235654 0.34959716 0
3.4100003 -0.74640071 0.3497054 0
3.4050002 -0.75065768 0.34979558 0
3.3990002 -0.75466037 0.34990379 0
3.3930001 -0.7586413 0.35001203 0
3.3870003 -0.76260072 0.35012025 0
3.3810003 -0.76653838 0.35022849 0
3.3760002 -0.77069801 0.35031867 0
3.3700001 -0.77459419 0.35042691 0
3.3640003 -0.77846879 0.35053512 0
3.3580003 -0.78232175 0.35064337 0
3.3530002 -0.78640372 0.35073355 0
3.3470001 -0.79021519 0.35084179 0
3.3410003 -0.79400504 0.35095 0
3.3360002 -0.7980293 0.35104021 0
3.3300002 -0.8017776 0.35114843 0
3.3250003 -0.80576402 0.35123861 0
3.3190002 -0.80947089 0.35134685 0
3.3140001 -0.81341934 0.35143703 0
3.3080003 -0.81708479 0.35154527 0
3.3030002 -0.82099539 0.35163546 0
3.2970002 -0.82461923 0.3517437 0
3.2920003 -0.82849199 0.35183388 0
3.2860003 -0.83207434 0.35194212 0
3.2810001 -0.83590925 0.3520323 0
3.2760003 -0.83972615 0.35212249 0
3.2700002 -0.84324718 0.35223073 0
3.2650003 -0.84702617 0.35232091 0
3.2600002 -0.8507871 0.35241109 0
3.2540002 -0.85424674 0.35251933 0
3.2490003 -0.85796988 0.35260952 0
3.2440002 -0.86167485 0.3526997 0
3.2390003 -0.86536193 0.35278988 0
3.2330003 -0.86874044 0.35289812 0
3.2280002 -0.8723895 0.3529883 0
3.2230003 -0.87602055 0.35307851 0
3.2180002 -0.87963355 0.3531687 0
3.2130003 -0.8832286 0.35325888 0
3.2070003 -0.88650614 0.35336712 0
3.2020001 -0.89006323 0.3534573 0
3.1970003 -0.89360231 0.35354751 0
3.1920002 -0.89712334 0.3536377 0
3.1870003 -0.90062636 0.35372788 0
3.1820002 -0.90411127 0.35381806 0
3.1770003 -0.90757823 0.35390824 0
3.1720002 -0.91102701 0.35399845 0
3.1670003 -0.91445792 0.35408863 0
3.1620002 -0.9178707 0.35417885 0
3.1570003 -0.92126548 0.35426903 0
3.1520002 -0.92464215 0.35435921 0
3.1470003 -0.92800093 0.35444939 0
2.9430003 -1.0689199 0.35812917 0
2.9390001 -1.0718907 0.35820132 0
2.9350002 -1.0748471 0.35827348 0
2.9310002 -1.0777892 0.35834563 0
2.9270003 -1.0807167 0.35841778 0
2.9230001 -1.0836298 0.35848993 0
3.9600003 -0.36707789 0.33336288 0
3.9510002 -0.37267148 0.33354145 0
3.9430003 -0.37832642 0.33370018 0
3.9350002 -0.3839525 0.33385894 0
3.9270003 -0.3895497 0.33401766 0
3.9190001 -0.39511806 0.33417642 0
3.9110003 -0.40065756 0.33433515 0
3.9030004 -0.40616822 0.33449388 0
3.8950002 -0.41164997 0.3346526 0
3.8870003 -0.4171029 0.33481133 0
3.8790002 -0.42252693 0.33497009 0
3.8710003 -0.42792213 0.33512881 0
3.8640003 -0.4334003 0.33526769 0
3.8560002 -0.43873957 0.33542645 0
3.8480003 -0.44404998 0.33558518 0
3.8400002 -0.44933152 0.3357439 0
3.8330002 -0.45470324 0.33588281 0
3.8250003 -0.4599289 0.33604154 0
3.8180003 -0.46524832 0.33618042 0
3.8100002 -0.47041804 0.33633918 0
3.8020003 -0.47555891 0.3364979 0
3.7950003 -0.48079896 0.33663678 0
3.7880003 -0.48601377 0.33677569 0
3.7800002 -0.49107164 0.33693442 0
3.7730002 -0.49623415 0.33707333 0
3.7650003 -0.50123608 0.33723205 0
3.7580004 -0.50634629 0.33737093 0
3.7510002 -0.51143122 0.33750984 0
3.7430003 -0.51635021 0.33766857 0
3.7360003 -0.52138281 0.33780748 0
3.7290003 -0.52639019 0.33794636 0
3.7220004 -0.53137237 0.33808523 0
3.7150002 -0.53632921 0.33822414 0
3.7080002 -0.54126078 0.33836305 0
3.7000003 -0.54601562 0.33852178 0
3.6930003 -0.55089498 0.33866066 0
3.6860003 -0.555749 0.33879957 0
3.6790001 -0.56057781 0.33893847 0
3.6720002 -0.56538129 0.33907735 0
3.6650002 -0.57015961 0.33921623 0
3.6590002 -0.57507497 0.33933529 0
3.6520002 -0.57980454 0.3394742 0
3.6450002 -0.5845089 0.33961308 0
3.6380002 -0.58918798 0.33975196 0
3.6310003 -0.59384185 0.33989087 0
3.6250002 -0.59864175 0.34000993 0
3.6180003 -0.60324687 0.34014881 0
3.6110003 -0.60782671 0.34028769 0
3.6040003 -0.6123814 0.34042659 0
3.5980003 -0.61708933 0.34054565 0
3.5910003 -0.62159526 0.34068453 0
3.5850003 -0.62625808 0.34080359 0
3.5780003 -0.63071531 0.34094247 0
3.5710003 -0.63514727 0.34108138 0
3.5650003 -0.63974154 0.34120041 0
3.5580003 -0.64412481 0.34133932 0
3.5520003 -0.64867401 0.34145838 0
3.5460002 -0.65320152 0.34157741 0
3.5390003 -0.65751266 0.34171632 0
3.5330002 -0.66199511 0.34183538 0
3.5260003 -0.6662575 0.34197426 0
3.5200002 -0.67069483 0.34209332 0
3.5140002 -0.67511058 0.34221238 0
3.5070002 -0.67930084 0.34235126 0
3.5010002 -0.68367147 0.34247032 0
3.4950001 -0.68802047 0.34258938 0
3.4890003 -0.69234782 0.34270841 0
3.4830003 -0.69665349 0.34282747 0
3.4760003 -0.70072466 0.34296635 0
3.4700003 -0.70498526 0.34308541 0
3.4640002 -0.70922422 0.34320447 0
3.4580002 -0.71344149 0.34332353 0
3.4520001 -0.71763712 0.34344256 0
3.4460003 -0.72181118 0.34356162 0
3.4400003 -0.72596353 0.34368068 0
3.4340003 -0.73009431 0.34379971 0
3.4280002 -0.73420334 0.34391877 0
3.4220002 -0.73829079 0.34403783 0
3.4160001 -0.74235654 0.34415686 0
3.4100003 -0.74640071 0.34427592 0
3.4050002 -0.75065768 0.34437513 0
3.3990002 -0.75466037 0.34449419 0
3.3930001 -0.7586413 0.34461325 0
3.3870003 -0.76260072 0.34473228 0
3.3810003 -0.76653838 0.34485134 0
3.3760002 -0.77069801 0.34495056 0
3.3700001 -0.77459419 0.34506959 0
3.3640003 -0.77846879 0.34518865 0
3.3580003 -0.78232175 0.34530771 0
3.3530002 -0.78640372 0.34540692 0
3.3470001 -0.79021519 0.34552598 0
3.3410003 -0.79400504 0.34564501 0
3.3360002 -0.7980293 0.34574422 0
3.3300002 -0.8017776 0.34586328 0
3.3250003 -0.80576402 0.34596246 0
3.3190002 -0.80947089 0.34608153 0
3.3140001 -0.81341934 0.34618074 0
3.3080003 -0.81708479 0.3462998 0
3.3030002 -0.82099539 0.34639901 0
3.2970002 -0.82461923 0.34651807 0
3.2920003 -0.82849199 0.34661728 0
3.2860003 -0.83207434 0.34673631 0
3.2810001 -0.83590925 0.34683552 0
3.2760003 -0.83972615 0.34693474 0
3.2700002 -0.84324718 0.3470538 0
3.2650003 -0.84702617 0.34715301 0
3.2600002 -0.8507871 0.34725222 0
3.2540002 -0.85424674 0.34737125 0
3.2490003 -0.85796988 0.34747046 0
3.2440002 -0.86167485 0.34756967 0
3.2390003 -0.86536193 0.34766889 0
3.2330003 -0.86874044 0.34778795 0
3.2280002 -0.8723895 0.34788716 0
3.2230003 -0.87602055 0.34798634 0
3.2180002 -0.87963355 0.34808558 0
3.2130003 -0.8832286 0.34818476 0
3.2070003 -0.88650614 0.34830382 0
3.2020001 -0.89006323 0.34840304 0
3.1970003 -0.89360231 0.34850225 0
3.1920002 -0.89712334 0.34860146 0
3.1870003 -0.90062636 0.34870067 0
3.1820002 -0.90411127 0.34879988 0
3.1770003 -0.90757823 0.34889907 0
3.1720002 -0.91102701 0.34899831 0
3.1670003 -0.91445792 0.34909749 0
3.1620002 -0.9178707 0.3491967 0
3.1570003 -0.92126548 0.34929591 0
3.1520002 -0.92464215 0.34939513 0
3.1470003 -0.92800093 0.34949434 0
2.9430003 -1.0689199 0.35354209 0
2.9390001 -1.0718907 0.35362145 0
2.9350002 -1.0748471 0.35370082 0
2.9310002 -1.0777892 0.35378018 0
2.9270003 -1.0807167 0.35385954 0
2.9230001 -1.0836298 0.35393894 0
3.9600003 -0.36707789 0.32694131 0
3.9510002 -0.37267148 0.32713616 0
3.9430003 -0.37832642 0.32730931 0
3.9350002 -0.3839525 0.32748246 0
3.9270003 -0.3895497 0.32765564 0
3.9190001 -0.39511806 0.32782879 0
3.9110003 -0.40065756 0.32800198 0
3.9030004 -0.40616822 0.32817513 0
3.8950002 -0.41164997 0.32834828 0
3.8870003 -0.4171029 0.32852146 0
3.8790002 -0.42252693 0.32869464 0
3.8710003 -0.42792213 0.32886779 0
3.8640003 -0.4334003 0.32901931 0
3.8560002 -0.43873957 0.32919249 0
3.8480003 -0.44404998 0.32936564 0
3.8400002 -0.44933152 0.32953882 0
3.8330002 -0.45470324 0.32969034 0
3.8250003 -0.4599289 0.32986349 0
3.8180003 -0.46524832 0.330015 0
3.8100002 -0.47041804 0.33018818 0
3.8020003 -0.47555891 0.33036137 0
3.7950003 -0.48079896 0.33051288 0
3.7880003 -0.48601377 0.3306644 0
3.7800002 -0.49107164 0.33083755 0
3.7730002 -0.49623415 0.33098906 0
3.7650003 -0.50123608 0.33116221 0
3.7580004 -0.50634629 0.33131376 0
3.7510002 -0.51143122 0.33146527 0
3.7430003 -0.51635021 0.33163846 0
3.7360003 -0.52138281 0.33178997 0
3.7290003 -0.52639019 0.33194149 0
3.7220004 -0.53137237 0.332093 0
3.7150002 -0.53632921 0.33224452 0
3.7080002 -0.54126078 0.33239603 0
3.7000003 -0.54601562 0.33256921 0
3.6930003 -0.55089498 0.33272073 0
3.6860003 -0.555749 0.33287224 0
3.6790001 -0.56057781 0.33302379 0
3.6720002 -0.56538129 0.3331753 0
3.6650002 -0.57015961 0.33332682 0
3.6590002 -0.57507497 0.3334567 0
3.6520002 -0.57980454 0.33360821 0
3.6450002 -0.5845089 0.33375973 0
3.6380002 -0.58918798 0.33391124 0
3.6310003 -0.59384185 0.33406276 0
3.6250002 -0.59864175 0.33419263 0
3.6180003 -0.60324687 0.33434415 0
3.6110003 -0.60782671 0.33449566 0
3.6040003 -0.6123814 0.33464718 0
3.5980003 -0.61708933 0.33477706 0
3.5910003 -0.62159526 0.33492857 0
3.5850003 -0.62625808 0.33505845 0
3.5780003 -0.63071531 0.33520997 0
3.5710003 -0.63514727 0.33536151 0
3.5650003 -0.63974154 0.33549136 0
3.5580003 -0.64412481 0.3356429 0
3.5520003 -0.64867401 0.33577278 0
3.5460002 -0.65320152 0.33590263 0
3.5390003 -0.65751266 0.33605415 0
3.5330002 -0.66199511 0.33618402 0
3.5260003 -0.6662575 0.33633557 0
3.5200002 -0.67069483 0.33646542 0
3.5140002 -0.67511058 0.3365953 0
3.5070002 -0.67930084 0.33674681 0
3.5010002 -0.68367147 0.33687669 0
3.4950001 -0.68802047 0.33700657 0
3.4890003 -0.69234782 0.33713645 0
3.4830003 -0.69665349 0.33726633 0
3.4760003 -0.70072466 0.33741784 0
3.4700003 -0.70498526 0.33754772 0
3.4640002 -0.70922422 0.3376776 0
3.4580002 -0.71344149 0.33780748 0
3.4520001 -0.71763712 0.33793736 0
3.4460003 -0.72181118 0.33806723 0
3.4400003 -0.72596353 0.33819708 0
3.4340003 -0.73009431 0.33832696 0
3.4280002 -0.73420334 0.33845684 0
3.4220002 -0.73829079 0.33858672 0
3.4160001 -0.74235654 0.3387166 0
3.4100003 -0.74640071 0.33884645 0
3.4050002 -0.75065768 0.33895469 0
3.3990002 -0.75466037 0.33908457 0
3.3930001 -0.7586413 0.33921444 0
3.3870003 -0.76260072 0.33934432 0
3.3810003 -0.76653838 0.3394742 0
3.3760002 -0.77069801 0.33958241 0
3.3700001 -0.77459419 0.33971229 0
3.3640003 -0.77846879 0.33984217 0
3.3580003 -0.78232175 0.33997202 0
3.3530002 -0.78640372 0.34008026 0
3.3470001 -0.79021519 0.34021014 0
3.3410003 -0.79400504 0.34034002 0
3.3360002 -0.7980293 0.34044823 0
3.3300002 -0.8017776 0.34057811 0
3.3250003 -0.80576402 0.34068635 0
3.3190002 -0.80947089 0.34081623 0
3.3140001 -0.81341934 0.34092444 0
3.3080003 -0.81708479 0.34105432 0
3.3030002 -0.82099539 0.34116256 0
3.2970002 -0.82461923 0.34129244 0
3.2920003 -0.82849199 0.34140065 0
3.2860003 -0.83207434 0.34153053 0
3.2810001 -0.83590925 0.34163877 0
3.2760003 -0.83972615 0.34174699 0
3.2700002 -0.84324718 0.34187686 0
3.2650003 -0.84702617 0.34198508 0
3.2600002 -0.8507871 0.34209332 0
3.2540002 -0.85424674 0.3422232 0
3.2490003 -0.85796988 0.34233141 0
3.2440002 -0.86167485 0.34243965 0
3.2390003 -0.86536193 0.34254786 0
3.2330003 -0.86874044 0.34267774 0
3.2280002 -0.8723895 0.34278598 0
3.2230003 -0.87602055 0.3428942 0
3.2180002 -0.87963355 0.34300244 0
3.2130003 -0.8832286 0.34311065 0
3.2070003 -0.88650614 0.34324053 0
3.2020001 -0.89006323 0.34334877 0
3.1970003 -0.89360231 0.34345698 0
3.1920002 -0.89712334 0.34356523 0
3.1870003 -0.90062636 0.34367347 0
3.1820002 -0.90411127 0.34378168 0
3.1770003 -0.90757823 0.34388992 0
3.1720002 -0.91102701 0.34399813 0
3.1670003 -0.91445792 0.34410638 0
3.1620002 -0.9178707 0.34421459 0
3.1570003 -0.92126548 0.34432283 0
3.1520002 -0.92464215 0.34443104 0
3.1470003 -0.92800093 0.34453928 0
2.9430003 -1.0689199 0.34895501 0
2.9390001 -1.0718907 0.34904158 0
2.9350002 -1.0748471 0.34912816 0
2.9310002 -1.0777892 0.34921476 0
2.9270003 -1.0807167 0.34930134 0
2.9230001 -1.0836298 0.34938791 0
3.9600003 -0.36707789 0.32051978 0
3.9510002 -0.37267148 0.32073081 0
3.9430003 -0.37832642 0.32091841 0
3.9350002 -0.3839525 0.32110602 0
3.9270003 -0.3895497 0.32129359 0
3.9190001 -0.39511806 0.3214812 0
3.9110003 -0.40065756 0.3216688 0
3.9030004 -0.40616822 0.32185638 0
3.8950002 -0.41164997 0.32204399 0
3.8870003 -0.4171029 0.32223159 0
3.8790002 -0.42252693 0.32241917 0
3.8710003 -0.42792213 0.32260677 0
3.8640003 -0.4334003 0.32277092 0
3.8560002 -0.43873957 0.32295853 0
3.8480003 -0.44404998 0.3231461 0
3.8400002 -0.44933152 0.32333371 0
3.8330002 -0.45470324 0.32349786 0
3.8250003 -0.4599289 0.32368547 0
3.8180003 -0.46524832 0.32384959 0
3.8100002 -0.47041804 0.32403719 0
3.8020003 -0.47555891 0.3242248 0
3.7950003 -0.48079896 0.32438892 0
3.7880003 -0.48601377 0.32455307 0
3.7800002 -0.49107164 0.32474068 0
3.7730002 -0.49623415 0.32490483 0
3.7650003 -0.50123608 0.32509243 0
3.7580004 -0.50634629 0.32525659 0
3.7510002 -0.51143122 0.32542074 0
3.7430003 -0.51635021 0.32560831 0
3.7360003 -0.52138281 0.32577246 0
3.7290003 -0.52639019 0.32593662 0
3.7220004 -0.53137237 0.32610074 0
3.7150002 -0.53632921 0.32626492 0
3.7080002 -0.54126078 0.32642904 0
3.7000003 -0.54601562 0.32661664 0
3.6930003 -0.55089498 0.3267808 0
3.6860003 -0.555749 0.32694495 0
3.6790001 -0.56057781 0.3271091 0
3.6720002 -0.56538129 0.32727325 0
3.6660004 -0.57032013 0.32741392 0
3.6590002 -0.57507497 0.32757807 0
3.6520002 -0.57980454 0.32774222 0
3.6450002 -0.5845089 0.32790637 0
3.6380002 -0.58918798 0.32807052 0
3.6310003 -0.59384185 0.32823467 0
3.6250002 -0.59864175 0.32837534 0
3.6180003 -0.60324687 0.32853949 0
3.6110003 -0.60782671 0.32870364 0
3.6040003 -0.6123814 0.32886779 0
3.5980003 -0.61708933 0.32900849 0
3.5910003 -0.62159526 0.32917264 0
3.5850003 -0.62625808 0.32931334 0
3.5780003 -0.63071531 0.32947749 0
3.5710003 -0.63514727 0.32964164 0
3.5650003 -0.63974154 0.32978231 0
3.5580003 -0.64412481 0.32994646 0
3.5520003 -0.64867401 0.33008718 0
3.5460002 -0.65320152 0.33022785 0
3.5390003 -0.65751266 0.330392 0
3.5330002 -0.66199511 0.33053273 0
3.5260003 -0.6662575 0.33069685 0
3.5200002 -0.67069483 0.33083755 0
3.5140002 -0.67511058 0.33097824 0
3.5070002 -0.67930084 0.3311424 0
3.5010002 -0.68367147 0.33128309 0
3.4950001 -0.68802047 0.33142379 0
3.4890003 -0.69234782 0.33156449 0
3.4830003 -0.69665349 0.33170518 0
3.4760003 -0.70072466 0.33186933 0
3.4700003 -0.70498526 0.33201003 0
3.4640002 -0.70922422 0.33215073 0
3.4580002 -0.71344149 0.33229142 0
3.4520001 -0.71763712 0.33243212 0
3.4460003 -0.72181118 0.33257282 0
3.4400003 -0.72596353 0.33271351 0
3.4340003 -0.73009431 0.33285421 0
3.4280002 -0.73420334 0.33299491 0
3.4220002 -0.73829079 0.3331356 0
3.4160001 -0.74235654 0.3332763 0
3.4100003 -0.74640071 0.333417 0
3.4050002 -0.75065768 0.33353424 0
3.3990002 -0.75466037 0.33367494 0
3.3930001 -0.7586413 0.33381563 0
3.3870003 -0.76260072 0.33395633 0
3.3810003 -0.76653838 0.33409703 0
3.3760002 -0.77069801 0.33421427 0
3.3700001 -0.77459419 0.334355 0
3.3640003 -0.77846879 0.33449566 0
3.3580003 -0.78232175 0.33463636 0
3.3530002 -0.78640372 0.33475363 0
3.3470001 -0.79021519 0.33489433 0
3.3410003 -0.79400504 0.33503503 0
3.3360002 -0.7980293 0.33515227 0
3.3300002 -0.8017776 0.33529297 0
3.3250003 -0.80576402 0.33541021 0
3.3190002 -0.80947089 0.3355509 0
3.3140001 -0.81341934 0.33566815 0
3.3080003 -0.81708479 0.33580884 0
3.3030002 -0.82099539 0.33592609 0
3.2970002 -0.82461923 0.33606678 0
3.2920003 -0.82849199 0.33618402 0
3.2860003 -0.83207434 0.33632475 0
3.2810001 -0.83590925 0.33644199 0
3.2760003 -0.83972615 0.33655924 0
3.2700002 -0.84324718 0.33669993 0
3.2650003 -0.84702617 0.33681718 0
3.2600002 -0.8507871 0.33693442 0
3.2540002 -0.85424674 0.33707511 0
3.2490003 -0.85796988 0.33719236 0
3.2440002 -0.86167485 0.33730963 0
3.2390003 -0.86536193 0.33742687 0
3.2330003 -0.86874044 0.33756757 0
3.2280002 -0.8723895 0.33768481 0
3.2230003 -0.87602055 0.33780205 0
3.2180002 -0.87963355 0.33791929 0
3.2130003 -0.8832286 0.33803654 0
3.2070003 -0.88650614 0.33817726 0
3.2020001 -0.89006323 0.33829451 0
3.1970003 -0.89360231 0.33841175 0
3.1920002 -0.89712334 0.33852899 0
3.1870003 -0.90062636 0.33864623 0
3.1820002 -0.90411127 0.33876348 0
3.1770003 -0.90757823 0.33888072 0
3.1720002 -0.91102701 0.33899799 0
3.1670003 -0.91445792 0.33911523 0
3.1620002 -0.9178707 0.33923247 0
3.1570003 -0.92126548 0.33934972 0
3.1520002 -0.92464215 0.33946699 0
3.1470003 -0.92800093 0.33958423 0
2.9430003 -1.0689199 0.34436792 0
2.9390001 -1.0718907 0.34446171 0
2.9350002 -1.0748471 0.3445555 0
2.9310002 -1.0777892 0.34464931 0
2.9270003 -1.0807167 0.3447431 0
2.9230001 -1.0836298 0.34483692 0
3.9600003 -0.36707789 0.31409821 0
3.9510002 -0.37267148 0.31432551 0
3.9430003 -0.37832642 0.31452751 0
3.9350002 -0.3839525 0.31472954 0
3.9270003 -0.3895497 0.31493157 0
3.9190001 -0.39511806 0.3151336 0
3.9110003 -0.40065756 0.31533563 0
3.9030004 -0.40616822 0.31553763 0
3.8950002 -0.41164997 0.31573969 0
3.8870003 -0.4171029 0.31594169 0
3.8790002 -0.42252693 0.31614372 0
3.8710003 -0.42792213 0.31634575 0
3.8640003 -0.4334003 0.31652254 0
3.8560002 -0.43873957 0.31672454 0
3.8480003 -0.44404998 0.3169266 0
3.8400002 -0.44933152 0.3171286 0
3.8330002 -0.45470324 0.31730539 0
3.8250003 -0.4599289 0.31750742 0
3.8180003 -0.46524832 0.31768417 0
3.8100002 -0.47041804 0.3178862 0
3.8020003 -0.47555891 0.31808823 0
3.7950003 -0.48079896 0.31826502 0
3.7880003 -0.48601377 0.31844178 0
3.7800002 -0.49107164 0.31864381 0
3.7730002 -0.49623415 0.3188206 0
3.7650003 -0.50123608 0.3190226 0
3.7580004 -0.50634629 0.31919938 0
3.7510002 -0.51143122 0.31937617 0
3.7430003 -0.51635021 0.31957817 0
3.7360003 -0.52138281 0.31975496 0
3.7290003 -0.52639019 0.31993172 0
3.7220004 -0.53137237 0.3201085 0
3.7150002 -0.53632921 0.32028526 0
3.7080002 -0.54126078 0.32046205 0
3.7000003 -0.54601562 0.32066408 0
3.6930003 -0.55089498 0.32084084 0
3.6860003 -0.555749 0.32101762 0
3.6790001 -0.56057781 0.32119441 0
3.6720002 -0.56538129 0.32137117 0
3.6660004 -0.57032013 0.32152268 0
3.6590002 -0.57507497 0.32169947 0
3.6520002 -0.57980454 0.32187623 0
3.6450002 -0.5845089 0.32205302 0
3.6380002 -0.58918798 0.32222977 0
3.6310003 -0.59384185 0.32240656 0
3.6250002 -0.59864175 0.32255808 0
3.6180003 -0.60324687 0.32273483 0
3.6110003 -0.60782671 0.32291162 0
3.6040003 -0.6123814 0.32308841 0
3.5980003 -0.61708933 0.32323992 0
3.5910003 -0.62159526 0.32341668 0
3.5850003 -0.62625808 0.3235682 0
3.5780003 -0.63071531 0.32374498 0
3.5710003 -0.63514727 0.32392174 0
3.5650003 -0.63974154 0.32407326 0
3.5580003 -0.64412481 0.32425004 0
3.5520003 -0.64867401 0.32440156 0
3.5460002 -0.65320152 0.32455307 0
3.5390003 -0.65751266 0.32472986 0
3.5330002 -0.66199511 0.32488137 0
3.5260003 -0.6662575 0.32505816 0
3.5200002 -0.67069483 0.32520968 0
3.5140002 -0.67511058 0.32536119 0
3.5070002 -0.67930084 0.32553798 0
3.5010002 -0.68367147 0.32568949 0
3.4950001 -0.68802047 0.32584101 0
3.4890003 -0.69234782 0.32599252 0
3.4830003 -0.69665349 0.32614404 0
3.4760003 -0.70072466 0.32632083 0
3.4700003 -0.70498526 0.32647234 0
3.4640002 -0.70922422 0.32662386 0
3.4580002 -0.71344149 0.32677537 0
3.4520001 -0.71763712 0.32692689 0
3.4460003 -0.72181118 0.3270784 0
3.4400003 -0.72596353 0.32722995 0
3.4340003 -0.73009431 0.32738146 0
3.4280002 -0.73420334 0.32753298 0
3.4220002 -0.73829079 0.32768449 0
3.4160001 -0.74235654 0.32783604 0
3.4100003 -0.74640071 0.32798752 0
3.4050002 -0.75065768 0.32811379 0
3.3990002 -0.75466037 0.32826531 0
3.3930001 -0.7586413 0.32841685 0
3.3870003 -0.76260072 0.32856834 0
3.3810003 -0.76653838 0.32871988 0
3.3760002 -0.77069801 0.32884616 0
3.3700001 -0.77459419 0.32899767 0
3.3640003 -0.77846879 0.32914919 0
3.3580003 -0.78232175 0.3293007 0
3.3530002 -0.78640372 0.32942697 0
3.3470001 -0.79021519 0.32957849 0
3.3410003 -0.79400504 0.32973 0
3.3360002 -0.7980293 0.32985628 0
3.3300002 -0.8017776 0.33000779 0
3.3250003 -0.80576402 0.33013406 0
3.3190002 -0.80947089 0.33028558 0
3.3140001 -0.81341934 0.33041185 0
3.3080003 -0.81708479 0.33056337 0
3.3030002 -0.82099539 0.33068964 0
3.2970002 -0.82461923 0.33084115 0
3.2920003 -0.82849199 0.33096743 0
3.2860003 -0.83207434 0.33111894 0
3.2810001 -0.83590925 0.33124521 0
3.2760003 -0.83972615 0.33137149 0
3.2700002 -0.84324718 0.331523 0
3.2650003 -0.84702617 0.33164924 0
3.2600002 -0.8507871 0.33177555 0
3.2540002 -0.85424674 0.33192706 0
3.2490003 -0.85796988 0.3320533 0
3.2440002 -0.86167485 0.33217958 0
3.2390003 -0.86536193 0.33230585 0
3.2330003 -0.86874044 0.33245736 0
3.2280002 -0.8723895 0.33258364 0
3.2230003 -0.87602055 0.33270991 0
3.2180002 -0.87963355 0.33283618 0
3.2130003 -0.8832286 0.33296245 0
3.2070003 -0.88650614 0.33311397 0
3.2020001 -0.89006323 0.33324021 0
3.1970003 -0.89360231 0.33336648 0
3.1920002 -0.89712334 0.33349276 0
3.1870003 -0.90062636 0.33361903 0
3.1820002 -0.90411127 0.3337453 0
3.1770003 -0.90757823 0.33387154 0
3.1720002 -0.91102701 0.33399782 0
3.1670003 -0.91445792 0.33412409 0
3.1620002 -0.9178707 0.33425036 0
3.1570003 -0.92126548 0.33437663 0
3.1520002 -0.92464215 0.33450288 0
3.1470003 -0.92800093 0.33462915 0
2.9430003 -1.0689199 0.33978084 0
2.9390001 -1.0718907 0.33988184 0
2.9350002 -1.0748471 0.33998287 0
2.9310002 -1.0777892 0.34008387 0
2.9270003 -1.0807167 0.34018487 0
2.9230001 -1.0836298 0.3402859 0
3.9600003 -0.36707789 0.30767667 0
3.9510002 -0.37267148 0.30792016 0
3.9430003 -0.37832642 0.30813661 0
3.9350002 -0.3839525 0.30835307 0
3.9270003 -0.3895497 0.30856955 0
3.9190001 -0.39511806 0.308786 0
3.9110003 -0.40065756 0.30900246 0
3.9030004 -0.40616822 0.30921891 0
3.8950002 -0.41164997 0.30943537 0
3.8870003 -0.4171029 0.30965182 0
3.8790002 -0.42252693 0.30986828 0
3.8710003 -0.42792213 0.31008473 0
3.8640003 -0.4334003 0.31027412 0
3.8560002 -0.43873957 0.31049061 0
3.8480003 -0.44404998 0.31070706 0
3.8400002 -0.44933152 0.31092352 0
3.8330002 -0.45470324 0.31111291 0
3.8250003 -0.4599289 0.31132936 0
3.8180003 -0.46524832 0.31151876 0
3.8100002 -0.47041804 0.31173521 0
3.8020003 -0.47555891 0.3119517 0
3.7950003 -0.48079896 0.31214106 0
3.7880003 -0.48601377 0.31233048 0
3.7800002 -0.49107164 0.31254694 0
3.7730002 -0.49623415 0.31273633 0
3.7650003 -0.50123608 0.31295279 0
3.7580004 -0.50634629 0.31314218 0
3.7510002 -0.51143122 0.3133316 0
3.7430003 -0.51635021 0.31354803 0
3.7360003 -0.52138281 0.31373745 0
3.7290003 -0.52639019 0.31392685 0
3.7220004 -0.53137237 0.31411624 0
3.7150002 -0.53632921 0.31430566 0
3.7080002 -0.54126078 0.31449506 0
3.7000003 -0.54601562 0.31471151 0
3.6930003 -0.55089498 0.3149009 0
3.6860003 -0.555749 0.3150903 0
3.6790001 -0.56057781 0.31527972 0
3.6720002 -0.56538129 0.31546912 0
3.6660004 -0.57032013 0.31563145 0
3.6590002 -0.57507497 0.31582084 0
3.6520002 -0.57980454 0.31601024 0
3.6450002 -0.5845089 0.31619966 0
3.6380002 -0.58918798 0.31638905 0
3.6310003 -0.59384185 0.31657845 0
3.6250002 -0.59864175 0.31674078 0
3.6180003 -0.60324687 0.31693017 0
3.6110003 -0.60782671 0.3171196 0
3.6040003 -0.6123814 0.31730899 0
3.5980003 -0.61708933 0.31747133 0
3.5910003 -0.62159526 0.31766075 0
3.5850003 -0.62625808 0.31782308 0
3.5780003 -0.63071531 0.31801248 0
3.5710003 -0.63514727 0.31820187 0
3.5650003 -0.63974154 0.3183642 0
3.5580003 -0.64412481 0.31855363 0
3.5520003 -0.64867401 0.31871596 0
3.5460002 -0.65320152 0.31887829 0
3.5390003 -0.65751266 0.31906772 0
3.5330002 -0.66199511 0.31923005 0
3.5260003 -0.6662575 0.31941944 0
3.5200002 -0.67069483 0.31958178 0
3.5140002 -0.67511058 0.31974414 0
3.5070002 -0.67930084 0.31993353 0
3.5010002 -0.68367147 0.3200959 0
3.4950001 -0.68802047 0.32025823 0
3.4890003 -0.69234782 0.32042056 0
3.4830003 -0.69665349 0.3205829 0
3.4760003 -0.70072466 0.32077229 0
3.4700003 -0.70498526 0.32093465 0
3.4640002 -0.70922422 0.32109699 0
3.4580002 -0.71344149 0.32125932 0
3.4520001 -0.71763712 0.32142168 0
3.4460003 -0.72181118 0.32158402 0
3.4400003 -0.72596353 0.32174635 0
3.4340003 -0.73009431 0.32190871 0
3.4280002 -0.73420334 0.32207105 0
3.4220002 -0.73829079 0.32223338 0
3.4160001 -0.74235654 0.32239574 0
3.4100003 -0.74640071 0.32255808 0
3.4050002 -0.75065768 0.32269335 0
3.3990002 -0.75466037 0.32285571 0
3.3930001 -0.7586413 0.32301804 0
3.3870003 -0.76260072 0.32318038 0
3.3810003 -0.76653838 0.32334274 0
3.3760002 -0.77069801 0.32347801 0
3.3700001 -0.77459419 0.32364035 0
3.3640003 -0.77846879 0.32380271 0
3.3580003 -0.78232175 0.32396504 0
3.3530002 -0.78640372 0.32410032 0
3.3470001 -0.79021519 0.32426268 0
3.3410003 -0.79400504 0.32442501 0
3.3360002 -0.7980293 0.32456028 0
3.3300002 -0.8017776 0.32472265 0
3.3250003 -0.80576402 0.32485792 0
3.3190002 -0.80947089 0.32502025 0
3.3140001 -0.81341934 0.32515556 0
3.3080003 -0.81708479 0.32531789 0
3.3030002 -0.82099539 0.32545319 0
3.2970002 -0.82461923 0.32561553 0
3.2920003 -0.82849199 0.3257508 0
3.2860003 -0.83207434 0.32591316 0
3.2810001 -0.83590925 0.32604843 0
3.2760003 -0.83972615 0.32618374 0
3.2700002 -0.84324718 0.32634607 0
3.2650003 -0.84702617 0.32648134 0
3.2600002 -0.8507871 0.32661664 0
3.2540002 -0.85424674 0.32677898 0
3.2490003 -0.85796988 0.32691425 0
3.2440002 -0.86167485 0.32704955 0
3.2390003 -0.86536193 0.32718486 0
3.2330003 -0.86874044 0.32734719 0
3.2280002 -0.8723895 0.32748246 0
3.2230003 -0.87602055 0.32761776 0
3.2180002 -0.87963355 0.32775304 0
3.2130003 -0.8832286 0.32788831 0
3.2070003 -0.88650614 0.32805067 0
3.2020001 -0.89006323 0.32818598 0
3.1970003 -0.89360231 0.32832125 0
3.1920002 -0.89712334 0.32845652 0
3.1870003 -0.90062636 0.32859182 0
3.1820002 -0.90411127 0.3287271 0
3.1770003 -0.90757823 0.32886237 0
3.1720002 -0.91102701 0.32899767 0
3.1670003 -0.91445792 0.32913294 0
3.1620002 -0.9178707 0.32926825 0
3.1570003 -0.92126548 0.32940352 0
3.1520002 -0.92464215 0.32953882 0
3.1470003 -0.92800093 0.32967409 0
2.9430003 -1.0689199 0.33519375 0
2.9390001 -1.0718907 0.335302 0
2.9350002 -1.0748471 0.33541021 0
2.9310002 -1.0777892 0.33551842 0
2.9270003 -1.0807167 0.33562666 0
2.9230001 -1.0836298 0.3357349 0
2.9180002 -1.0861155 0.33587018 0
2.9140003 -1.088998 0.33597839 0
2.9100003 -1.0918661 0.33608663 0
2.9060001 -1.0947196 0.33619487 0
2.8200002 -1.1547648 0.33852178 0
2.8160002 -1.1572901 0.33863002 0
2.8120003 -1.1598011 0.33873823 0
2.8080003 -1.1622976 0.33884645 0
2.8050003 -1.1652451 0.33892763 0
2.8010001 -1.1677144 0.33903587 0
2.7970002 -1.1701694 0.33914408 0
2.7930002 -1.1726099 0.33925232 0
2.7900002 -1.1755087 0.33933347 0
2.7860003 -1.1779222 0.33944172 0
2.7820003 -1.1803213 0.33954996 0
2.7790003 -1.1831839 0.33963111 0
2.7750001 -1.1855558 0.33973935 0
2.7710001 -1.1879134 0.33984756 0
2.7680001 -1.19074 0.33992875 0
2.7640002 -1.1930705 0.34003699 0
2.7600002 -1.1953865 0.3401452 0
2.7570002 -1.1981771 0.34022638 0
2.7530003 -1.2004662 0.34033459 0
2.7500002 -1.2032332 0.34041578 0
2.7460003 -1.2054952 0.34052402 0
2.7420001 -1.2077426 0.34063223 0
2.7390003 -1.2104738 0.34071338 0
3.9600003 -0.36707789 0.30125511 0
3.9510002 -0.37267148 0.30151486 0
3.9430003 -0.37832642 0.30174574 0
3.9350002 -0.3839525 0.30197662 0
3.9270003 -0.3895497 0.3022075 0
3.9190001 -0.39511806 0.30243841 0
3.9110003 -0.40065756 0.30266929 0
3.9030004 -0.40616822 0.30290017 0
3.8950002 -0.41164997 0.30313104 0
3.8870003 -0.4171029 0.30336195 0
3.8790002 -0.42252693 0.30359283 0
3.8710003 -0.42792213 0.30382371 0
3.8640003 -0.4334003 0.30402574 0
3.8560002 -0.43873957 0.30425662 0
3.8480003 -0.44404998 0.30448753 0
3.8400002 -0.44933152 0.30471841 0
3.8330002 -0.45470324 0.30492043 0
3.8250003 -0.4599289 0.30515131 0
3.8180003 -0.46524832 0.30535334 0
3.8100002 -0.47041804 0.30558425 0
3.8020003 -0.47555891 0.30581513 0
3.7950003 -0.48079896 0.30601716 0
3.7880003 -0.48601377 0.30621916 0
3.7800002 -0.49107164 0.30645007 0
3.7730002 -0.49623415 0.3066521 0
3.7650003 -0.50123608 0.30688298 0
3.7580004 -0.50634629 0.30708501 0
3.7510002 -0.51143122 0.30728704 0
3.7430003 -0.51635021 0.30751792 0
3.7360003 -0.52138281 0.30771995 0
3.7290003 -0.52639019 0.30792198 0
3.7220004 -0.53137237 0.30812401 0
3.7150002 -0.53632921 0.30832604 0
3.7080002 -0.54126078 0.30852807 0
3.7000003 -0.54601562 0.30875894 0
3.6930003 -0.55089498 0.30896097 0
3.6860003 -0.555749 0.30916297 0
3.6790001 -0.56057781 0.30936503 0
3.6720002 -0.56538129 0.30956703 0
3.6660004 -0.57032013 0.30974022 0
3.6590002 -0.57507497 0.30994225 0
3.6520002 -0.57980454 0.31014428 0
3.6450002 -0.5845089 0.31034631 0
3.6380002 -0.58918798 0.31054831 0
3.6310003 -0.59384185 0.31075034 0
3.6250002 -0.59864175 0.31092352 0
3.6180003 -0.60324687 0.31112552 0
3.6110003 -0.60782671 0.31132758 0
3.6040003 -0.6123814 0.31152958 0
3.5980003 -0.61708933 0.31170276 0
3.5910003 -0.62159526 0.31190479 0
3.5850003 -0.62625808 0.31207794 0
3.5780003 -0.63071531 0.31227997 0
3.5710003 -0.63514727 0.312482 0
3.5650003 -0.63974154 0.31265515 0
3.5580003 -0.64412481 0.31285718 0
3.5520003 -0.64867401 0.31303036 0
3.5460002 -0.65320152 0.31320351 0
3.5390003 -0.65751266 0.31340554 0
3.5330002 -0.66199511 0.31357872 0
3.5260003 -0.6662575 0.31378073 0
3.5200002 -0.67069483 0.31395391 0
3.5140002 -0.67511058 0.31412709 0
3.5070002 -0.67930084 0.31432909 0
3.5010002 -0.68367147 0.31450227 0
3.4950001 -0.68802047 0.31467545 0
3.4890003 -0.69234782 0.3148486 0
3.4830003 -0.69665349 0.31502175 0
3.4760003 -0.70072466 0.31522378 0
3.4700003 -0.70498526 0.31539696 0
3.4640002 -0.70922422 0.31557012 0
3.4580002 -0.71344149 0.3157433 0
3.4520001 -0.71763712 0.31591645 0
3.4460003 -0.72181118 0.31608963 0
3.4400003 -0.72596353 0.31626278 0
3.4340003 -0.73009431 0.31643593 0
3.4280002 -0.73420334 0.31660911 0
3.4220002 -0.73829079 0.3167823 0
3.4160001 -0.74235654 0.31695545 0
3.4100003 -0.74640071 0.3171286 0
3.4050002 -0.75065768 0.3172729 0
3.3990002 -0.75466037 0.31744608 0
3.3930001 -0.7586413 0.31761926 0
3.3870003 -0.76260072 0.31779242 0
3.3810003 -0.76653838 0.31796557 0
3.3760002 -0.77069801 0.31810987 0
3.3700001 -0.77459419 0.31828305 0
3.3640003 -0.77846879 0.3184562 0
3.3580003 -0.78232175 0.31862938 0
3.3530002 -0.78640372 0.31877369 0
3.3470001 -0.79021519 0.31894684 0
3.3410003 -0.79400504 0.31912002 0
3.3360002 -0.7980293 0.31926432 0
3.3300002 -0.8017776 0.3194375 0
3.3250003 -0.80576402 0.31958178 0
3.3190002 -0.80947089 0.31975496 0
3.3140001 -0.81341934 0.31989926 0
3.3080003 -0.81708479 0.32007241 0
3.3030002 -0.82099539 0.32021672 0
3.2970002 -0.82461923 0.3203899 0
3.2920003 -0.82849199 0.3205342 0
3.2860003 -0.83207434 0.32070738 0
3.2810001 -0.83590925 0.32085168 0
3.2760003 -0.83972615 0.32099599 0
3.2700002 -0.84324718 0.32116914 0
3.2650003 -0.84702617 0.32131344 0
3.2600002 -0.8507871 0.32145774 0
3.2540002 -0.85424674 0.32163092 0
3.2490003 -0.85796988 0.32177523 0
3.2440002 -0.86167485 0.32191953 0
3.2390003 -0.86536193 0.32206383 0
3.2330003 -0.86874044 0.32223698 0
3.2280002 -0.8723895 0.32238132 0
3.2230003 -0.87602055 0.32252562 0
3.2180002 -0.87963355 0.32266992 0
3.2130003 -0.8832286 0.32281423 0
3.2070003 -0.88650614 0.32298738 0
3.2020001 -0.89006323 0.32313168 0
3.1970003 -0.89360231 0.32327598 0
3.1920002 -0.89712334 0.32342029 0
3.1870003 -0.90062636 0.32356459 0
3.1820002 -0.90411127 0.32370889 0
3.1770003 -0.90757823 0.32385319 0
3.1720002 -0.91102701 0.3239975 0
3.1670003 -0.91445792 0.3241418 0
3.1620002 -0.9178707 0.32428613 0
3.1570003 -0.92126548 0.32443041 0
3.1520002 -0.92464215 0.32457474 0
3.1470003 -0.92800093 0.32471904 0
2.9430003 -1.0689199 0.33060667 0
2.9390001 -1.0718907 0.33072209 0
2.9350002 -1.0748471 0.33083755 0
2.9310002 -1.0777892 0.330953 0
2.9270003 -1.0807167 0.33106846 0
2.9230001 -1.0836298 0.33118388 0
2.9180002 -1.0861155 0.33132818 0
2.9140003 -1.088998 0.33144364 0
2.9100003 -1.0918661 0.33155906 0
2.9060001 -1.0947196 0.33167452 0
2.9020002 -1.0975589 0.33178997 0
2.8230002 -1.1517688 0.33406997 0
2.8200002 -1.1547648 0.33415657 0
2.8160002 -1.1572901 0.334272 0
2.8120003 -1.1598011 0.33438745 0
2.8080003 -1.1622976 0.33450288 0
2.8050003 -1.1652451 0.33458948 0
2.8010001 -1.1677144 0.33470494 0
2.7970002 -1.1701694 0.33482036 0
2.7930002 -1.1726099 0.33493581 0
2.7900002 -1.1755087 0.33502239 0
2.7860003 -1.1779222 0.33513784 0
2.7820003 -1.1803213 0.33525327 0
2.7790003 -1.1831839 0.33533984 0
2.7750001 -1.1855558 0.3354553 0
2.7710001 -1.1879134 0.33557075 0
2.7680001 -1.19074 0.33565733 0
2.7640002 -1.1930705 0.33577278 0
2.7600002 -1.1953865 0.33588821 0
2.7570002 -1.1981771 0.33597481 0
2.7530003 -1.2004662 0.33609024 0
2.7500002 -1.2032332 0.33617681 0
2.7460003 -1.2054952 0.33629227 0
2.7420001 -1.2077426 0.33640772 0
2.7390003 -1.2104738 0.3364943 0
2.7350001 -1.212694 0.33660975 0
2.7320001 -1.2154016 0.33669633 0
2.7280002 -1.2175951 0.33681178 0
2.7250001 -1.2202791 0.33689836 0
3.9600003 -0.36707789 0.29483354 0
3.9510002 -0.37267148 0.29510951 0
3.9430003 -0.37832642 0.29535484 0
3.9350002 -0.3839525 0.29560018 0
3.9270003 -0.3895497 0.29584548 0
3.9190001 -0.39511806 0.29609078 0
3.9110003 -0.40065756 0.29633611 0
3.9030004 -0.40616822 0.29658145 0
3.8950002 -0.41164997 0.29682675 0
3.8870003 -0.4171029 0.29707205 0
3.8790002 -0.42252693 0.29731739 0
3.8710003 -0.42792213 0.29756272 0
3.8640003 -0.4334003 0.29777735 0
3.8560002 -0.43873957 0.29802269 0
3.8480003 -0.44404998 0.29826799 0
3.8400002 -0.44933152 0.29851332 0
3.8330002 -0.45470324 0.29872796 0
3.8250003 -0.4599289 0.29897326 0
3.8180003 -0.46524832 0.29918793 0
3.8100002 -0.47041804 0.29943326 0
3.8020003 -0.47555891 0.29967856 0
3.7950003 -0.48079896 0.29989323 0
3.7880003 -0.48601377 0.30010787 0
3.7800002 -0.49107164 0.3003532 0
3.7730002 -0.49623415 0.30056784 0
3.7650003 -0.50123608 0.30081317 0
3.7580004 -0.50634629 0.3010278 0
3.7510002 -0.51143122 0.30124247 0
3.7430003 -0.51635021 0.3014878 0
3.7360003 -0.52138281 0.30170244 0
3.7290003 -0.52639019 0.30191711 0
3.7220004 -0.53137237 0.30213174 0
3.7150002 -0.53632921 0.30234641 0
3.7080002 -0.54126078 0.30256104 0
3.7000003 -0.54601562 0.30280638 0
3.6930003 -0.55089498 0.30302101 0
3.6860003 -0.555749 0.30323568 0
3.6790001 -0.56057781 0.30345035 0
3.6720002 -0.56538129 0.30366498 0
3.6660004 -0.57032013 0.30384898 0
3.6590002 -0.57507497 0.30406362 0
3.6520002 -0.57980454 0.30427828 0
3.6450002 -0.5845089 0.30449295 0
3.6380002 -0.58918798 0.30470759 0
3.6310003 -0.59384185 0.30492222 0
3.6250002 -0.59864175 0.30510622 0
3.6180003 -0.60324687 0.30532089 0
3.6110003 -0.60782671 0.30553553 0
3.6040003 -0.6123814 0.30575019 0
3.5980003 -0.61708933 0.30593416 0
3.5910003 -0.62159526 0.30614883 0
3.5850003 -0.62625808 0.30633283 0
3.5780003 -0.63071531 0.30654746 0
3.5710003 -0.63514727 0.30676213 0
3.5650003 -0.63974154 0.3069461 0
3.5580003 -0.64412481 0.30716076 0
3.5520003 -0.64867401 0.30734473 0
3.5460002 -0.65320152 0.30752873 0
3.5390003 -0.65751266 0.3077434 0
3.5330002 -0.66199511 0.30792737 0
3.5260003 -0.6662575 0.30814204 0
3.5200002 -0.67069483 0.30832604 0
3.5140002 -0.67511058 0.30851001 0
3.5070002 -0.67930084 0.30872467 0
3.5010002 -0.68367147 0.30890864 0
3.4950001 -0.68802047 0.30909264 0
3.4890003 -0.69234782 0.30927664 0
3.4830003 -0.69665349 0.30946061 0
3.4760003 -0.70072466 0.30967528 0
3.4700003 -0.70498526 0.30985928 0
3.4640002 -0.70922422 0.31004325 0
3.4580002 -0.71344149 0.31022725 0
3.4520001 -0.71763712 0.31041121 0
3.4460003 -0.72181118 0.31059521 0
3.4400003 -0.72596353 0.31077921 0
3.4340003 -0.73009431 0.31096318 0
3.4280002 -0.73420334 0.31114718 0
3.4220002 -0.73829079 0.31133118 0
3.4160001 -0.74235654 0.31151515 0
3.4100003 -0.74640071 0.31169915 0
3.4050002 -0.75065768 0.31185246 0
3.3990002 -0.75466037 0.31203645 0
3.3930001 -0.7586413 0.31222045 0
3.3870003 -0.76260072 0.31240442 0
3.3810003 -0.76653838 0.31258842 0
3.3760002 -0.77069801 0.31274176 0
3.3700001 -0.77459419 0.31292576 0
3.3640003 -0.77846879 0.31310973 0
3.3580003 -0.78232175 0.3132937 0
3.3530002 -0.78640372 0.31344706 0
3.3470001 -0.79021519 0.31363103 0
3.3410003 -0.79400504 0.313815 0
3.3360002 -0.7980293 0.31396833 0
3.3300002 -0.8017776 0.31415233 0
3.3250003 -0.80576402 0.31430566 0
3.3190002 -0.80947089 0.31448963 0
3.3140001 -0.81341934 0.31464297 0
3.3080003 -0.81708479 0.31482694 0
3.3030002 -0.82099539 0.31498027 0
3.2970002 -0.82461923 0.31516427 0
3.2920003 -0.82849199 0.31531757 0
3.2860003 -0.83207434 0.31550157 0
3.2810001 -0.83590925 0.3156549 0
3.2760003 -0.83972615 0.31580824 0
3.2700002 -0.84324718 0.31599221 0
3.2650003 -0.84702617 0.31614554 0
3.2600002 -0.8507871 0.31629884 0
3.2540002 -0.85424674 0.31648284 0
3.2490003 -0.85796988 0.31663617 0
3.2440002 -0.86167485 0.31678951 0
3.2390003 -0.86536193 0.31694281 0
3.2330003 -0.86874044 0.31712681 0
3.2280002 -0.8723895 0.31728014 0
3.2230003 -0.87602055 0.31743345 0
3.2180002 -0.87963355 0.31758678 0
3.2130003 -0.8832286 0.31774008 0
3.2070003 -0.88650614 0.31792408 0
3.2020001 -0.89006323 0.31807742 0
3.1970003 -0.89360231 0.31823075 0
3.1920002 -0.89712334 0.31838405 0
3.1870003 -0.90062636 0.31853738 0
3.1820002 -0.90411127 0.31869072 0
3.1770003 -0.90757823 0.31884402 0
3.1720002 -0.91102701 0.31899735 0
3.1670003 -0.91445792 0.31915069 0
3.1620002 -0.9178707 0.31930399 0
3.1570003 -0.92126548 0.31945732 0
3.1520002 -0.92464215 0.31961066 0
3.1470003 -0.92800093 0.31976396 0
2.9430003 -1.0689199 0.32601959 0
2.9390001 -1.0718907 0.32614225 0
2.9350002 -1.0748471 0.32626492 0
2.9310002 -1.0777892 0.32638755 0
2.9270003 -1.0807167 0.32651022 0
2.9230001 -1.0836298 0.32663289 0
2.9180002 -1.0861155 0.32678619 0
2.9140003 -1.088998 0.32690886 0
2.9100003 -1.0918661 0.32703149 0
2.9060001 -1.0947196 0.32715416 0
2.9020002 -1.0975589 0.32727683 0
2.8230002 -1.1517688 0.32969934 0
2.8200002 -1.1547648 0.32979134 0
2.8160002 -1.1572901 0.329914 0
2.8120003 -1.1598011 0.33003667 0
2.8080003 -1.1622976 0.33015931 0
2.8050003 -1.1652451 0.33025131 0
2.8010001 -1.1677144 0.33037397 0
2.7970002 -1.1701694 0.33049664 0
2.7930002 -1.1726099 0.33061928 0
2.7900002 -1.1755087 0.33071131 0
2.7860003 -1.1779222 0.33083394 0
2.7820003 -1.1803213 0.33095661 0
2.7790003 -1.1831839 0.33104861 0
2.7750001 -1.1855558 0.33117127 0
2.7710001 -1.1879134 0.33129391 0
2.7680001 -1.19074 0.33138591 0
2.7640002 -1.1930705 0.33150858 0
2.7600002 -1.1953865 0.33163124 0
2.7570002 -1.1981771 0.33172321 0
2.7530003 -1.2004662 0.33184588 0
2.7500002 -1.2032332 0.33193788 0
2.7460003 -1.2054952 0.33206052 0
2.7420001 -1.2077426 0.33218318 0
2.7390003 -1.2104738 0.33227518 0
2.7350001 -1.212694 0.33239785 0
2.7320001 -1.2154016 0.33248985 0
2.7280002 -1.2175951 0.33261251 0
2.7250001 -1.2202791 0.33270448 0
3.9600003 -0.36707789 0.28841197 0
3.9510002 -0.37267148 0.28870422 0
3.9430003 -0.37832642 0.28896394 0
3.9350002 -0.3839525 0.2892237 0
3.9270003 -0.3895497 0.28948343 0
3.9190001 -0.39511806 0.28974319 0
3.9110003 -0.40065756 0.29000294 0
3.9030004 -0.40616822 0.2902627 0
3.8950002 -0.41164997 0.29052243 0
3.8870003 -0.4171029 0.29078218 0
3.8790002 -0.42252693 0.29104194 0
3.8710003 -0.42792213 0.29130167 0
3.8640003 -0.4334003 0.29152897 0
3.8560002 -0.43873957 0.29178873 0
3.8480003 -0.44404998 0.29204845 0
3.8400002 -0.44933152 0.29230821 0
3.8330002 -0.45470324 0.29253548 0
3.8250003 -0.4599289 0.29279524 0
3.8180003 -0.46524832 0.29302251 0
3.8100002 -0.47041804 0.29328227 0
3.8020003 -0.47555891 0.29354203 0
3.7950003 -0.48079896 0.2937693 0
3.7880003 -0.48601377 0.29399657 0
3.7800002 -0.49107164 0.29425633 0
3.7730002 -0.49623415 0.2944836 0
3.7650003 -0.50123608 0.29474336 0
3.7580004 -0.50634629 0.29497063 0
3.7510002 -0.51143122 0.2951979 0
3.7430003 -0.51635021 0.29545766 0
3.7360003 -0.52138281 0.29568493 0
3.7290003 -0.52639019 0.29591221 0
3.7220004 -0.53137237 0.29613948 0
3.7150002 -0.53632921 0.29636678 0
3.7080002 -0.54126078 0.29659405 0
3.7000003 -0.54601562 0.29685381 0
3.6930003 -0.55089498 0.29708108 0
3.6860003 -0.555749 0.29730836 0
3.6790001 -0.56057781 0.29753566 0
3.6720002 -0.56538129 0.29776293 0
3.6660004 -0.57032013 0.29795772 0
3.6590002 -0.57507497 0.29818502 0
3.6520002 -0.57980454 0.29841229 0
3.6450002 -0.5845089 0.29863957 0
3.6380002 -0.58918798 0.29886687 0
3.6310003 -0.59384185 0.29909414 0
3.6250002 -0.59864175 0.29928893 0
3.6180003 -0.60324687 0.29951623 0
3.6110003 -0.60782671 0.2997435 0
3.6040003 -0.6123814 0.29997078 0
3.5980003 -0.61708933 0.30016559 0
3.5910003 -0.62159526 0.30039287 0
3.5850003 -0.62625808 0.30058768 0
3.5780003 -0.63071531 0.30081499 0
3.5710003 -0.63514727 0.30104226 0
3.5650003 -0.63974154 0.30123705 0
3.5580003 -0.64412481 0.30146432 0
3.5520003 -0.64867401 0.30165914 0
3.5460002 -0.65320152 0.30185395 0
3.5390003 -0.65751266 0.30208123 0
3.5330002 -0.66199511 0.30227605 0
3.5260003 -0.6662575 0.30250335 0
3.5200002 -0.67069483 0.30269814 0
3.5140002 -0.67511058 0.30289295 0
3.5070002 -0.67930084 0.30312023 0
3.5010002 -0.68367147 0.30331504 0
3.4950001 -0.68802047 0.30350986 0
3.4890003 -0.69234782 0.30370468 0
3.4830003 -0.69665349 0.30389947 0
3.4760003 -0.70072466 0.30412674 0
3.4700003 -0.70498526 0.30432159 0
3.4640002 -0.70922422 0.30451638 0
3.4580002 -0.71344149 0.30471119 0
3.4520001 -0.71763712 0.30490601 0
3.4460003 -0.72181118 0.3051008 0
3.4400003 -0.72596353 0.30529562 0
3.4340003 -0.73009431 0.30549043 0
3.4280002 -0.73420334 0.30568525 0
