# .PCD v0.7 - Point Cloud Data file format
VERSION 0.7
FIELDS x y z intensity
SIZE 4 4 4 4
TYPE F F F F
COUNT 1 1 1 1
WIDTH 1415
HEIGHT 1
VIEWPOINT 0 0 0 1 0 0 0
POINTS 1415
DATA ascii
2.4330001 -1.1168054 0.39666572 0
2.4300003 -1.1188871 0.39667654 0
2.4280002 -1.1214882 0.39668378 0
2.4250002 -1.1235499 0.3966946 0
2.4220002 -1.1256008 0.39670542 0
2.4190001 -1.127641 0.39671624 0
2.4160001 -1.1296703 0.39672706 0
2.4140003 -1.1322281 0.39673427 0
2.4110003 -1.1342375 0.39674509 0
2.4080002 -1.1362361 0.39675593 0
2.4050002 -1.1382239 0.39676675 0
2.4030001 -1.1407474 0.39677396 0
2.4000001 -1.1427153 0.39678478 0
2.3970001 -1.1446725 0.3967956 0
2.3940001 -1.1466188 0.39680642 0
2.3920002 -1.1491081 0.39681363 0
2.3890002 -1.1510345 0.39682448 0
2.3860002 -1.1529502 0.3968353 0
2.3830001 -1.154855 0.39684612 0
2.381 -1.15731 0.39685333 0
2.378 -1.1591949 0.39686415 0
2.3750002 -1.1610692 0.39687496 0
2.3730001 -1.1634989 0.39688218 0
2.3700001 -1.1653532 0.39689302 0
2.3670001 -1.1671966 0.39690384 0
2.3650002 -1.1696012 0.39691105 0
2.3620002 -1.1714247 0.39692187 0
2.3590002 -1.1732377 0.39693269 0
2.5340002 -1.0391263 0.39245203 0
2.5310001 -1.041574 0.39246827 0
2.5280001 -1.044011 0.39248452 0
2.5250001 -1.0464371 0.39250073 0
2.5220003 -1.0488524 0.39251697 0
2.5190003 -1.051257 0.39253321 0
2.5160003 -1.0536506 0.39254943 0
2.5130002 -1.0560335 0.39256567 0
2.5100002 -1.0584054 0.39258191 0
2.5070002 -1.0607666 0.39259815 0
2.5040002 -1.0631169 0.39261436 0
2.5010002 -1.0654565 0.39263061 0
2.4980001 -1.0677853 0.39264685 0
2.4950001 -1.070103 0.39266309 0
2.4920001 -1.0724101 0.3926793 0
2.4890001 -1.0747063 0.39269555 0
2.4860003 -1.0769918 0.39271179 0
2.4830003 -1.0792665 0.39272803 0
2.4800003 -1.0815302 0.39274424 0
2.4770002 -1.0837833 0.39276049 0
2.4740002 -1.0860254 0.39277673 0
2.4710002 -1.0882566 0.39279294 0
2.4680002 -1.0904771 0.39280918 0
2.4650002 -1.0926868 0.39282542 0
2.4620001 -1.0948856 0.39284167 0
2.4590001 -1.0970737 0.39285788 0
2.4560001 -1.0992508 0.39287412 0
2.4530003 -1.1014173 0.39289036 0
2.4500003 -1.1035728 0.39290661 0
2.4480002 -1.1062351 0.39291742 0
2.4450002 -1.1083709 0.39293364 0
2.4420002 -1.1104957 0.39294988 0
2.4390001 -1.1126097 0.39296612 0
2.4360001 -1.1147131 0.39298236 0
2.4330001 -1.1168054 0.39299858 0
2.4300003 -1.1188871 0.39301482 0
2.4280002 -1.1214882 0.39302564 0
2.4250002 -1.1235499 0.39304188 0
2.4220002 -1.1256008 0.39305812 0
2.4190001 -1.127641 0.39307433 0
2.4160001 -1.1296703 0.39309058 0
2.4140003 -1.1322281 0.39310139 0
2.4110003 -1.1342375 0.39311764 0
2.4080002 -1.1362361 0.39313388 0
2.4050002 -1.1382239 0.39315012 0
2.4030001 -1.1407474 0.39316094 0
2.4000001 -1.1427153 0.39317715 0
2.3970001 -1.1446725 0.39319339 0
2.3940001 -1.1466188 0.39320964 0
2.3920002 -1.1491081 0.39322045 0
2.3890002 -1.1510345 0.3932367 0
2.3860002 -1.1529502 0.39325294 0
2.3830001 -1.154855 0.39326915 0
2.381 -1.15731 0.39327997 0
2.378 -1.1591949 0.39329621 0
2.3750002 -1.1610692 0.39331245 0
2.3730001 -1.1634989 0.39332327 0
2.3700001 -1.1653532 0.39333951 0
2.3670001 -1.1671966 0.39335573 0
2.3650002 -1.1696012 0.39336658 0
2.3620002 -1.1714247 0.39338279 0
2.3590002 -1.1732377 0.39339903 0
2.5340002 -1.0391263 0.3886027 0
2.5310001 -1.041574 0.38862434 0
2.5280001 -1.044011 0.38864601 0
2.5250001 -1.0464371 0.38866764 0
2.5220003 -1.0488524 0.38868928 0
2.5190003 -1.051257 0.38871095 0
2.5160003 -1.0536506 0.38873258 0
2.5130002 -1.0560335 0.38875422 0
2.5100002 -1.0584054 0.38877589 0
2.5070002 -1.0607666 0.38879752 0
2.5040002 -1.0631169 0.38881916 0
2.5010002 -1.0654565 0.38884079 0
2.4980001 -1.0677853 0.38886246 0
2.4950001 -1.070103 0.3888841 0
2.4920001 -1.0724101 0.38890573 0
2.4890001 -1.0747063 0.3889274 0
2.4860003 -1.0769918 0.38894904 0
2.4830003 -1.0792665 0.38897067 0
2.4800003 -1.0815302 0.38899234 0
2.4770002 -1.0837833 0.38901398 0
2.4740002 -1.0860254 0.38903561 0
2.4710002 -1.0882566 0.38905728 0
2.4680002 -1.0904771 0.38907892 0
2.4650002 -1.0926868 0.38910055 0
2.4620001 -1.0948856 0.38912222 0
2.4590001 -1.0970737 0.38914385 0
2.4560001 -1.0992508 0.38916549 0
2.4530003 -1.1014173 0.38918713 0
2.4500003 -1.1035728 0.38920879 0
2.4480002 -1.1062351 0.38922322 0
2.4450002 -1.1083709 0.38924485 0
2.4420002 -1.1104957 0.38926652 0
2.4390001 -1.1126097 0.38928816 0
2.4360001 -1.1147131 0.38930979 0
2.4330001 -1.1168054 0.38933146 0
2.4300003 -1.1188871 0.3893531 0
2.4280002 -1.1214882 0.38936752 0
2.4250002 -1.1235499 0.38938916 0
2.4220002 -1.1256008 0.38941082 0
2.4190001 -1.127641 0.38943246 0
2.4160001 -1.1296703 0.3894541 0
2.4140003 -1.1322281 0.38946852 0
2.4110003 -1.1342375 0.38949019 0
2.4080002 -1.1362361 0.38951182 0
2.4050002 -1.1382239 0.38953346 0
2.4030001 -1.1407474 0.38954791 0
2.4000001 -1.1427153 0.38956955 0
2.3970001 -1.1446725 0.38959119 0
2.3940001 -1.1466188 0.38961285 0
2.3920002 -1.1491081 0.38962728 0
2.3890002 -1.1510345 0.38964891 0
2.3860002 -1.1529502 0.38967055 0
2.3830001 -1.154855 0.38969222 0
2.381 -1.15731 0.38970664 0
2.378 -1.1591949 0.38972828 0
2.3750002 -1.1610692 0.38974991 0
2.3730001 -1.1634989 0.38976437 0
2.3700001 -1.1653532 0.38978601 0
2.3670001 -1.1671966 0.38980764 0
2.3650002 -1.1696012 0.38982207 0
2.3620002 -1.1714247 0.38984373 0
2.3590002 -1.1732377 0.38986537 0
2.5340002 -1.0391263 0.38475338 0
2.5310001 -1.041574 0.38478044 0
2.5280001 -1.044011 0.3848075 0
2.5250001 -1.0464371 0.38483456 0
2.5220003 -1.0488524 0.38486162 0
2.5190003 -1.051257 0.38488865 0
2.5160003 -1.0536506 0.38491571 0
2.5130002 -1.0560335 0.38494277 0
2.5100002 -1.0584054 0.38496983 0
2.5070002 -1.0607666 0.38499689 0
2.5040002 -1.0631169 0.38502395 0
2.5010002 -1.0654565 0.38505101 0
2.4980001 -1.0677853 0.38507807 0
2.4950001 -1.070103 0.38510513 0
2.4920001 -1.0724101 0.38513219 0
2.4890001 -1.0747063 0.38515925 0
2.4860003 -1.0769918 0.38518628 0
2.4830003 -1.0792665 0.38521335 0
2.4800003 -1.0815302 0.38524041 0
2.4770002 -1.0837833 0.38526747 0
2.4740002 -1.0860254 0.38529453 0
2.4710002 -1.0882566 0.38532159 0
2.4680002 -1.0904771 0.38534865 0
2.4650002 -1.0926868 0.38537568 0
2.4620001 -1.0948856 0.38540274 0
2.4590001 -1.0970737 0.3854298 0
2.4560001 -1.0992508 0.38545686 0
2.4530003 -1.1014173 0.38548392 0
2.4500003 -1.1035728 0.38551098 0
2.4480002 -1.1062351 0.38552901 0
2.4450002 -1.1083709 0.38555607 0
2.4420002 -1.1104957 0.38558313 0
2.4390001 -1.1126097 0.38561019 0
2.4360001 -1.1147131 0.38563725 0
2.4330001 -1.1168054 0.38566431 0
2.4300003 -1.1188871 0.38569134 0
2.4280002 -1.1214882 0.3857094 0
2.4250002 -1.1235499 0.38573647 0
2.4220002 -1.1256008 0.38576353 0
2.4190001 -1.127641 0.38579056 0
2.4160001 -1.1296703 0.38581762 0
2.4140003 -1.1322281 0.38583568 0
2.4110003 -1.1342375 0.38586271 0
2.4080002 -1.1362361 0.38588977 0
2.4050002 -1.1382239 0.38591683 0
2.4030001 -1.1407474 0.38593489 0
2.4000001 -1.1427153 0.38596192 0
2.3970001 -1.1446725 0.38598898 0
2.3940001 -1.1466188 0.38601604 0
2.3920002 -1.1491081 0.38603407 0
2.3890002 -1.1510345 0.38606113 0
2.3860002 -1.1529502 0.38608819 0
2.3830001 -1.154855 0.38611525 0
2.381 -1.15731 0.38613328 0
2.378 -1.1591949 0.38616034 0
2.3750002 -1.1610692 0.3861874 0
2.3730001 -1.1634989 0.38620543 0
2.3700001 -1.1653532 0.3862325 0
2.3670001 -1.1671966 0.38625956 0
2.3650002 -1.1696012 0.38627759 0
2.3620002 -1.1714247 0.38630465 0
2.3590002 -1.1732377 0.38633171 0
2.5340002 -1.0391263 0.38090405 0
2.5310001 -1.041574 0.38093653 0
2.5280001 -1.044011 0.38096899 0
2.5250001 -1.0464371 0.38100147 0
2.5220003 -1.0488524 0.38103393 0
2.5190003 -1.051257 0.38106638 0
2.5160003 -1.0536506 0.38109887 0
2.5130002 -1.0560335 0.38113132 0
2.5100002 -1.0584054 0.38116381 0
2.5070002 -1.0607666 0.38119626 0
2.5040002 -1.0631169 0.38122874 0
2.5010002 -1.0654565 0.3812612 0
2.4980001 -1.0677853 0.38129368 0
2.4950001 -1.070103 0.38132614 0
2.4920001 -1.0724101 0.38135862 0
2.4890001 -1.0747063 0.38139108 0
2.4860003 -1.0769918 0.38142356 0
2.4830003 -1.0792665 0.38145602 0
2.4800003 -1.0815302 0.38148847 0
2.4770002 -1.0837833 0.38152096 0
2.4740002 -1.0860254 0.38155341 0
2.4710002 -1.0882566 0.3815859 0
2.4680002 -1.0904771 0.38161835 0
2.4650002 -1.0926868 0.38165084 0
2.4620001 -1.0948856 0.38168329 0
2.4590001 -1.0970737 0.38171577 0
2.4560001 -1.0992508 0.38174823 0
2.4530003 -1.1014173 0.38178071 0
2.4500003 -1.1035728 0.38181317 0
2.4480002 -1.1062351 0.38183481 0
2.4450002 -1.1083709 0.38186729 0
2.4420002 -1.1104957 0.38189974 0
2.4390001 -1.1126097 0.38193223 0
2.4360001 -1.1147131 0.38196468 0
2.4330001 -1.1168054 0.38199717 0
2.4300003 -1.1188871 0.38202962 0
2.4280002 -1.1214882 0.38205129 0
2.4250002 -1.1235499 0.38208374 0
2.4220002 -1.1256008 0.3821162 0
2.4190001 -1.127641 0.38214868 0
2.4160001 -1.1296703 0.38218114 0
2.4140003 -1.1322281 0.3822028 0
2.4110003 -1.1342375 0.38223526 0
2.4080002 -1.1362361 0.38226774 0
2.4050002 -1.1382239 0.3823002 0
2.4030001 -1.1407474 0.38232183 0
2.4000001 -1.1427153 0.38235432 0
2.3970001 -1.1446725 0.38238677 0
2.3940001 -1.1466188 0.38241926 0
2.3920002 -1.1491081 0.38244089 0
2.3890002 -1.1510345 0.38247338 0
2.3860002 -1.1529502 0.38250583 0
2.3830001 -1.154855 0.38253832 0
2.381 -1.15731 0.38255996 0
2.378 -1.1591949 0.38259241 0
2.3750002 -1.1610692 0.38262489 0
2.3730001 -1.1634989 0.38264653 0
2.3700001 -1.1653532 0.38267899 0
2.3670001 -1.1671966 0.38271147 0
2.3650002 -1.1696012 0.38273311 0
2.3620002 -1.1714247 0.38276559 0
2.3590002 -1.1732377 0.38279805 0
2.5340002 -1.0391263 0.37705472 0
2.5310001 -1.041574 0.3770926 0
2.5280001 -1.044011 0.37713048 0
2.5250001 -1.0464371 0.37716836 0
2.5220003 -1.0488524 0.37720624 0
2.5190003 -1.051257 0.37724411 0
2.5160003 -1.0536506 0.37728199 0
2.5130002 -1.0560335 0.37731987 0
2.5100002 -1.0584054 0.37735778 0
2.5070002 -1.0607666 0.37739566 0
2.5040002 -1.0631169 0.37743354 0
2.5010002 -1.0654565 0.37747142 0
2.4980001 -1.0677853 0.3775093 0
2.4950001 -1.070103 0.37754717 0
2.4920001 -1.0724101 0.37758505 0
2.4890001 -1.0747063 0.37762293 0
2.4860003 -1.0769918 0.37766081 0
2.4830003 -1.0792665 0.37769869 0
2.4800003 -1.0815302 0.37773657 0
2.4770002 -1.0837833 0.37777445 0
2.4740002 -1.0860254 0.37781233 0
2.4710002 -1.0882566 0.3778502 0
2.4680002 -1.0904771 0.37788808 0
2.4650002 -1.0926868 0.37792596 0
2.4620001 -1.0948856 0.37796384 0
2.4590001 -1.0970737 0.37800172 0
2.4560001 -1.0992508 0.3780396 0
2.4530003 -1.1014173 0.37807748 0
2.4500003 -1.1035728 0.37811536 0
2.4480002 -1.1062351 0.37814063 0
2.4450002 -1.1083709 0.37817851 0
2.4420002 -1.1104957 0.37821639 0
2.4390001 -1.1126097 0.37825426 0
2.4360001 -1.1147131 0.37829214 0
2.4330001 -1.1168054 0.37833002 0
2.4300003 -1.1188871 0.3783679 0
2.4280002 -1.1214882 0.37839314 0
2.4250002 -1.1235499 0.37843102 0
2.4220002 -1.1256008 0.3784689 0
2.4190001 -1.127641 0.37850678 0
2.4160001 -1.1296703 0.37854469 0
2.4140003 -1.1322281 0.37856993 0
2.4110003 -1.1342375 0.37860781 0
2.4080002 -1.1362361 0.37864569 0
2.4050002 -1.1382239 0.37868357 0
2.4030001 -1.1407474 0.37870881 0
2.4000001 -1.1427153 0.37874669 0
2.3970001 -1.1446725 0.37878457 0
2.3940001 -1.1466188 0.37882245 0
2.3920002 -1.1491081 0.37884772 0
2.3890002 -1.1510345 0.3788856 0
2.3860002 -1.1529502 0.37892348 0
2.3830001 -1.154855 0.37896135 0
2.381 -1.15731 0.3789866 0
2.378 -1.1591949 0.37902448 0
2.3750002 -1.1610692 0.37906235 0
2.3730001 -1.1634989 0.37908763 0
2.3700001 -1.1653532 0.37912551 0
2.3670001 -1.1671966 0.37916338 0
2.3650002 -1.1696012 0.37918863 0
2.3620002 -1.1714247 0.37922651 0
2.3590002 -1.1732377 0.37926438 0
2.5340002 -1.0391263 0.37320539 0
2.5310001 -1.041574 0.3732487 0
2.5280001 -1.044011 0.37329197 0
2.5250001 -1.0464371 0.37333527 0
2.5220003 -1.0488524 0.37337857 0
2.5190003 -1.051257 0.37342185 0
2.5160003 -1.0536506 0.37346515 0
2.5130002 -1.0560335 0.37350845 0
2.5100002 -1.0584054 0.37355173 0
2.5070002 -1.0607666 0.37359503 0
2.5040002 -1.0631169 0.3736383 0
2.5010002 -1.0654565 0.3736816 0
2.4980001 -1.0677853 0.37372491 0
2.4950001 -1.070103 0.37376818 0
2.4920001 -1.0724101 0.37381148 0
2.4890001 -1.0747063 0.37385479 0
2.4860003 -1.0769918 0.37389806 0
2.4830003 -1.0792665 0.37394136 0
2.4800003 -1.0815302 0.37398463 0
2.4770002 -1.0837833 0.37402794 0
2.4740002 -1.0860254 0.37407124 0
2.4710002 -1.0882566 0.37411451 0
2.4680002 -1.0904771 0.37415782 0
2.4650002 -1.0926868 0.37420109 0
2.4620001 -1.0948856 0.37424439 0
2.4590001 -1.0970737 0.37428769 0
2.4560001 -1.0992508 0.37433097 0
2.4530003 -1.1014173 0.37437427 0
2.4500003 -1.1035728 0.37441754 0
2.4480002 -1.1062351 0.37444642 0
2.4450002 -1.1083709 0.37448972 0
2.4420002 -1.1104957 0.374533 0
2.4390001 -1.1126097 0.3745763 0
2.4360001 -1.1147131 0.37461957 0
2.4330001 -1.1168054 0.37466288 0
2.4300003 -1.1188871 0.37470618 0
2.4280002 -1.1214882 0.37473503 0
2.4250002 -1.1235499 0.37477833 0
2.4220002 -1.1256008 0.3748216 0
2.4190001 -1.127641 0.37486491 0
2.4160001 -1.1296703 0.37490821 0
2.4140003 -1.1322281 0.37493706 0
2.4110003 -1.1342375 0.37498036 0
2.4080002 -1.1362361 0.37502363 0
2.4050002 -1.1382239 0.37506694 0
2.4030001 -1.1407474 0.37509578 0
2.4000001 -1.1427153 0.37513909 0
2.3970001 -1.1446725 0.37518236 0
2.3940001 -1.1466188 0.37522566 0
2.3920002 -1.1491081 0.37525451 0
2.3890002 -1.1510345 0.37529781 0
2.3860002 -1.1529502 0.37534112 0
2.3830001 -1.154855 0.37538439 0
2.381 -1.15731 0.37541327 0
2.378 -1.1591949 0.37545654 0
2.3750002 -1.1610692 0.37549984 0
2.3730001 -1.1634989 0.37552869 0
2.3700001 -1.1653532 0.375572 0
2.3670001 -1.1671966 0.3756153 0
2.3650002 -1.1696012 0.37564415 0
2.3620002 -1.1714247 0.37568745 0
2.3590002 -1.1732377 0.37573072 0
2.5340002 -1.0391263 0.36935607 0
2.5310001 -1.041574 0.36940479 0
2.5280001 -1.044011 0.36945349 0
2.5250001 -1.0464371 0.36950219 0
2.5220003 -1.0488524 0.36955088 0
2.5190003 -1.051257 0.36959958 0
2.5160003 -1.0536506 0.36964828 0
2.5130002 -1.0560335 0.36969697 0
2.5100002 -1.0584054 0.3697457 0
2.5070002 -1.0607666 0.3697944 0
2.5040002 -1.0631169 0.3698431 0
2.5010002 -1.0654565 0.36989179 0
2.4980001 -1.0677853 0.36994052 0
2.4950001 -1.070103 0.36998922 0
2.4920001 -1.0724101 0.37003791 0
2.4890001 -1.0747063 0.37008661 0
2.4860003 -1.0769918 0.37013531 0
2.4830003 -1.0792665 0.370184 0
2.4800003 -1.0815302 0.37023273 0
2.4770002 -1.0837833 0.37028143 0
2.4740002 -1.0860254 0.37033013 0
2.4710002 -1.0882566 0.37037882 0
2.4680002 -1.0904771 0.37042755 0
2.4650002 -1.0926868 0.37047625 0
2.4620001 -1.0948856 0.37052494 0
2.4590001 -1.0970737 0.37057364 0
2.4560001 -1.0992508 0.37062234 0
2.4530003 -1.1014173 0.37067103 0
2.4500003 -1.1035728 0.37071976 0
2.4480002 -1.1062351 0.37075222 0
2.4450002 -1.1083709 0.37080091 0
2.4420002 -1.1104957 0.37084964 0
2.4390001 -1.1126097 0.37089834 0
2.4360001 -1.1147131 0.37094703 0
2.4330001 -1.1168054 0.37099573 0
2.4300003 -1.1188871 0.37104443 0
2.4280002 -1.1214882 0.37107691 0
2.4250002 -1.1235499 0.37112561 0
2.4220002 -1.1256008 0.37117431 0
2.4190001 -1.127641 0.371223 0
2.4160001 -1.1296703 0.37127173 0
2.4140003 -1.1322281 0.37130418 0
2.4110003 -1.1342375 0.37135288 0
2.4080002 -1.1362361 0.37140161 0
2.4050002 -1.1382239 0.3714503 0
2.4030001 -1.1407474 0.37148276 0
2.4000001 -1.1427153 0.37153146 0
2.3970001 -1.1446725 0.37158018 0
2.3940001 -1.1466188 0.37162888 0
2.3920002 -1.1491081 0.37166134 0
2.3890002 -1.1510345 0.37171003 0
2.3860002 -1.1529502 0.37175876 0
2.3830001 -1.154855 0.37180746 0
2.381 -1.15731 0.37183991 0
2.378 -1.1591949 0.37188864 0
2.3750002 -1.1610692 0.37193733 0
2.3730001 -1.1634989 0.37196979 0
2.3700001 -1.1653532 0.37201849 0
2.3670001 -1.1671966 0.37206721 0
2.3650002 -1.1696012 0.37209967 0
2.3620002 -1.1714247 0.37214836 0
2.3590002 -1.1732377 0.37219706 0
2.5340002 -1.0391263 0.36550674 0
2.5310001 -1.041574 0.36556086 0
2.5280001 -1.044011 0.36561498 0
2.5250001 -1.0464371 0.3656691 0
2.5220003 -1.0488524 0.36572319 0
2.5190003 -1.051257 0.36577731 0
2.5160003 -1.0536506 0.36583143 0
2.5130002 -1.0560335 0.36588556 0
2.5100002 -1.0584054 0.36593965 0
2.5070002 -1.0607666 0.36599377 0
2.5040002 -1.0631169 0.36604789 0
2.5010002 -1.0654565 0.36610201 0
2.4980001 -1.0677853 0.36615613 0
2.4950001 -1.070103 0.36621022 0
2.4920001 -1.0724101 0.36626434 0
2.4890001 -1.0747063 0.36631846 0
2.4860003 -1.0769918 0.36637259 0
2.4830003 -1.0792665 0.36642668 0
2.4800003 -1.0815302 0.3664808 0
2.4770002 -1.0837833 0.36653492 0
2.4740002 -1.0860254 0.36658904 0
2.4710002 -1.0882566 0.36664313 0
2.4680002 -1.0904771 0.36669725 0
2.4650002 -1.0926868 0.36675137 0
2.4620001 -1.0948856 0.36680549 0
2.4590001 -1.0970737 0.36685961 0
2.4560001 -1.0992508 0.36691374 0
2.4530003 -1.1014173 0.36696783 0
2.4500003 -1.1035728 0.36702195 0
2.4480002 -1.1062351 0.36705801 0
2.4450002 -1.1083709 0.36711213 0
2.4420002 -1.1104957 0.36716625 0
2.4390001 -1.1126097 0.36722037 0
2.4360001 -1.1147131 0.36727446 0
2.4330001 -1.1168054 0.36732858 0
2.4300003 -1.1188871 0.36738271 0
2.4280002 -1.1214882 0.3674188 0
2.4250002 -1.1235499 0.36747289 0
2.4220002 -1.1256008 0.36752701 0
2.4190001 -1.127641 0.36758113 0
2.4160001 -1.1296703 0.36763525 0
2.4140003 -1.1322281 0.36767131 0
2.4110003 -1.1342375 0.36772543 0
2.4080002 -1.1362361 0.36777955 0
2.4050002 -1.1382239 0.36783367 0
2.4030001 -1.1407474 0.36786973 0
2.4000001 -1.1427153 0.36792386 0
2.3970001 -1.1446725 0.36797798 0
2.3940001 -1.1466188 0.36803207 0
2.3920002 -1.1491081 0.36806816 0
2.3890002 -1.1510345 0.36812228 0
2.3860002 -1.1529502 0.36817637 0
2.3830001 -1.154855 0.36823049 0
2.381 -1.15731 0.36826658 0
2.378 -1.1591949 0.3683207 0
2.3750002 -1.1610692 0.36837479 0
2.3730001 -1.1634989 0.36841089 0
2.3700001 -1.1653532 0.36846501 0
2.3670001 -1.1671966 0.3685191 0
2.3650002 -1.1696012 0.36855519 0
2.3620002 -1.1714247 0.36860931 0
2.3590002 -1.1732377 0.3686634 0
2.5310001 -1.041574 0.36171696 0
2.5280001 -1.044011 0.36177647 0
2.5250001 -1.0464371 0.36183599 0
2.5220003 -1.0488524 0.36189553 0
2.5190003 -1.051257 0.36195505 0
2.5160003 -1.0536506 0.36201456 0
2.5130002 -1.0560335 0.36207411 0
2.5100002 -1.0584054 0.36213362 0
2.5070002 -1.0607666 0.36219314 0
2.5040002 -1.0631169 0.36225268 0
2.5010002 -1.0654565 0.3623122 0
2.4980001 -1.0677853 0.36237174 0
2.4950001 -1.070103 0.36243126 0
2.4920001 -1.0724101 0.36249077 0
2.4890001 -1.0747063 0.36255032 0
2.4860003 -1.0769918 0.36260983 0
2.4830003 -1.0792665 0.36266935 0
2.4800003 -1.0815302 0.36272889 0
2.4770002 -1.0837833 0.36278841 0
2.4740002 -1.0860254 0.36284792 0
2.4710002 -1.0882566 0.36290747 0
2.4680002 -1.0904771 0.36296698 0
2.4650002 -1.0926868 0.3630265 0
2.4620001 -1.0948856 0.36308604 0
2.4590001 -1.0970737 0.36314556 0
2.4560001 -1.0992508 0.36320508 0
2.4530003 -1.1014173 0.36326462 0
2.4500003 -1.1035728 0.36332414 0
2.4480002 -1.1062351 0.36336383 0
2.4450002 -1.1083709 0.36342335 0
2.4420002 -1.1104957 0.36348286 0
2.4390001 -1.1126097 0.36354241 0
2.4360001 -1.1147131 0.36360192 0
2.4330001 -1.1168054 0.36366147 0
2.4300003 -1.1188871 0.36372098 0
2.4280002 -1.1214882 0.36376065 0
2.4250002 -1.1235499 0.3638202 0
2.4220002 -1.1256008 0.36387971 0
2.4190001 -1.127641 0.36393923 0
2.4160001 -1.1296703 0.36399877 0
2.4140003 -1.1322281 0.36403844 0
2.4110003 -1.1342375 0.36409798 0
2.4080002 -1.1362361 0.3641575 0
2.4050002 -1.1382239 0.36421701 0
2.4030001 -1.1407474 0.36425671 0
2.4000001 -1.1427153 0.36431623 0
2.3970001 -1.1446725 0.36437577 0
2.3940001 -1.1466188 0.36443529 0
2.3920002 -1.1491081 0.36447495 0
2.3890002 -1.1510345 0.3645345 0
2.3860002 -1.1529502 0.36459401 0
2.3830001 -1.154855 0.36465356 0
2.381 -1.15731 0.36469322 0
2.378 -1.1591949 0.36475277 0
2.3750002 -1.1610692 0.36481228 0
2.3730001 -1.1634989 0.36485195 0
2.3700001 -1.1653532 0.3649115 0
2.3670001 -1.1671966 0.36497101 0
2.3650002 -1.1696012 0.36501071 0
2.3620002 -1.1714247 0.36507022 0
2.3590002 -1.1732377 0.36512974 0
2.5280001 -1.044011 0.35793796 0
2.5250001 -1.0464371 0.3580029 0
2.5220003 -1.0488524 0.35806784 0
2.5190003 -1.051257 0.35813278 0
2.5160003 -1.0536506 0.35819772 0
2.5130002 -1.0560335 0.35826266 0
2.5100002 -1.0584054 0.3583276 0
2.5070002 -1.0607666 0.35839254 0
2.5040002 -1.0631169 0.35845748 0
2.5010002 -1.0654565 0.35852242 0
2.4980001 -1.0677853 0.35858732 0
2.4950001 -1.070103 0.35865229 0
2.4920001 -1.0724101 0.3587172 0
2.4890001 -1.0747063 0.35878214 0
2.4860003 -1.0769918 0.35884708 0
2.4830003 -1.0792665 0.35891202 0
2.4800003 -1.0815302 0.35897696 0
2.4770002 -1.0837833 0.3590419 0
2.4740002 -1.0860254 0.35910684 0
2.4710002 -1.0882566 0.35917178 0
2.4680002 -1.0904771 0.35923672 0
2.4650002 -1.0926868 0.35930166 0
2.4620001 -1.0948856 0.3593666 0
2.4590001 -1.0970737 0.35943154 0
2.4560001 -1.0992508 0.35949647 0
2.4530003 -1.1014173 0.35956138 0
2.4500003 -1.1035728 0.35962632 0
2.4480002 -1.1062351 0.35966963 0
2.4450002 -1.1083709 0.35973457 0
2.4420002 -1.1104957 0.3597995 0
2.4390001 -1.1126097 0.35986444 0
2.4360001 -1.1147131 0.35992938 0
2.4330001 -1.1168054 0.35999432 0
2.4300003 -1.1188871 0.36005923 0
2.4280002 -1.1214882 0.36010253 0
2.4250002 -1.1235499 0.36016747 0
2.4220002 -1.1256008 0.36023241 0
2.4190001 -1.127641 0.36029735 0
2.4160001 -1.1296703 0.36036229 0
2.4140003 -1.1322281 0.36040556 0
2.4110003 -1.1342375 0.3604705 0
2.4080002 -1.1362361 0.36053544 0
2.4050002 -1.1382239 0.36060038 0
2.4030001 -1.1407474 0.36064368 0
2.4000001 -1.1427153 0.36070862 0
2.3970001 -1.1446725 0.36077356 0
2.3940001 -1.1466188 0.3608385 0
2.3920002 -1.1491081 0.36088178 0
2.3890002 -1.1510345 0.36094671 0
2.3860002 -1.1529502 0.36101165 0
2.3830001 -1.154855 0.36107659 0
2.381 -1.15731 0.3611199 0
2.378 -1.1591949 0.36118484 0
2.3750002 -1.1610692 0.36124974 0
2.3730001 -1.1634989 0.36129305 0
2.3700001 -1.1653532 0.36135799 0
2.3670001 -1.1671966 0.36142293 0
2.3650002 -1.1696012 0.36146623 0
2.3620002 -1.1714247 0.36153114 0
2.3590002 -1.1732377 0.36159608 0
2.5210001 -1.0789869 0.3542636 0
2.5160003 -1.0803686 0.35438085 0
2.5120001 -1.0822228 0.35447466 0
2.5090003 -1.0845553 0.354545 0
2.5060003 -1.0868767 0.35461536 0
2.5040002 -1.0896834 0.35466224 0
2.5020001 -1.0924829 0.35470915 0
2.5000002 -1.0952753 0.35475606 0
2.4990003 -1.0985618 0.35477948 0
2.4980001 -1.1018448 0.35480297 0
2.4970002 -1.1051241 0.35482639 0
2.4970002 -1.1089066 0.35482639 0
2.4970002 -1.1126891 0.35482639 0
2.4980001 -1.1169822 0.35480297 0
2.4530003 -1.1014173 0.35585818 0
2.4500003 -1.1035728 0.35592854 0
2.4480002 -1.1062351 0.35597542 0
2.4450002 -1.1083709 0.35604578 0
2.4420002 -1.1104957 0.35611612 0
2.4390001 -1.1126097 0.35618648 0
2.4360001 -1.1147131 0.35625681 0
2.4330001 -1.1168054 0.35632718 0
2.4300003 -1.1188871 0.35639751 0
2.4280002 -1.1214882 0.35644442 0
2.4250002 -1.1235499 0.35651475 0
2.4220002 -1.1256008 0.35658512 0
2.4190001 -1.127641 0.35665545 0
2.4160001 -1.1296703 0.35672581 0
2.4140003 -1.1322281 0.35677269 0
2.4110003 -1.1342375 0.35684305 0
2.4080002 -1.1362361 0.35691339 0
2.4050002 -1.1382239 0.35698375 0
2.4030001 -1.1407474 0.35703066 0
2.4000001 -1.1427153 0.35710099 0
2.3970001 -1.1446725 0.35717136 0
2.3940001 -1.1466188 0.35724169 0
2.3920002 -1.1491081 0.3572886 0
2.3890002 -1.1510345 0.35735893 0
2.3860002 -1.1529502 0.3574293 0
2.3830001 -1.154855 0.35749963 0
2.381 -1.15731 0.35754654 0
2.378 -1.1591949 0.3576169 0
2.3750002 -1.1610692 0.35768723 0
2.3730001 -1.1634989 0.35773414 0
2.3700001 -1.1653532 0.35780448 0
2.3670001 -1.1671966 0.35787484 0
2.3650002 -1.1696012 0.35792172 0
2.3620002 -1.1714247 0.35799208 0
2.3590002 -1.1732377 0.35806245 0
2.5210001 -1.0789869 0.35043773 0
2.5160003 -1.0803686 0.350564 0
2.5120001 -1.0822228 0.350665 0
2.5090003 -1.0845553 0.35074076 0
2.5060003 -1.0868767 0.35081652 0
2.5040002 -1.0896834 0.35086703 0
2.5020001 -1.0924829 0.35091755 0
2.5000002 -1.0952753 0.35096806 0
2.4990003 -1.0985618 0.35099331 0
2.4980001 -1.1018448 0.35101855 0
2.4970002 -1.1051241 0.35104382 0
2.4970002 -1.1089066 0.35104382 0
2.4970002 -1.1126891 0.35104382 0
2.4980001 -1.1169822 0.35101855 0
2.5000002 -1.1217912 0.35096806 0
2.6980002 -1.3185614 0.34596789 0
2.6940002 -1.3204844 0.34606892 0
2.6910002 -1.3229502 0.34614468 0
2.6880002 -1.3254051 0.34622043 0
2.6850002 -1.3278493 0.34629619 0
2.6830001 -1.3308454 0.34634671 0
2.6820002 -1.3343989 0.34637195 0
2.6810002 -1.3379488 0.34639719 0
2.6800003 -1.3414952 0.34642246 0
2.6790001 -1.3450377 0.34644771 0
2.6800003 -1.3497205 0.34642246 0
2.5210001 -1.0789869 0.34661186 0
2.5160003 -1.0803686 0.34674713 0
2.5120001 -1.0822228 0.34685537 0
2.5090003 -1.0845553 0.34693652 0
2.5060003 -1.0868767 0.34701771 0
2.5040002 -1.0896834 0.34707183 0
2.5020001 -1.0924829 0.34712595 0
2.5000002 -1.0952753 0.34718007 0
2.4990003 -1.0985618 0.3472071 0
2.4980001 -1.1018448 0.34723416 0
2.4970002 -1.1051241 0.34726122 0
2.4970002 -1.1089066 0.34726122 0
2.4970002 -1.1126891 0.34726122 0
2.4980001 -1.1169822 0.34723416 0
2.5000002 -1.1217912 0.34718007 0
2.7030003 -1.3171762 0.34168747 0
2.6980002 -1.3185614 0.34182274 0
2.6940002 -1.3204844 0.34193099 0
2.6910002 -1.3229502 0.34201214 0
2.6880002 -1.3254051 0.34209332 0
2.6850002 -1.3278493 0.34217447 0
2.6830001 -1.3308454 0.34222859 0
2.6820002 -1.3343989 0.34225565 0
2.6810002 -1.3379488 0.34228271 0
2.6800003 -1.3414952 0.34230977 0
2.6790001 -1.3450377 0.34233683 0
2.6800003 -1.3497205 0.34230977 0
2.6800003 -1.3538331 0.34230977 0
2.5280001 -1.0785575 0.34258395 0
2.5210001 -1.0789869 0.34278598 0
2.5160003 -1.0803686 0.34293029 0
2.5120001 -1.0822228 0.34304574 0
2.5090003 -1.0845553 0.34313232 0
2.5060003 -1.0868767 0.34321889 0
2.5040002 -1.0896834 0.34327662 0
2.5020001 -1.0924829 0.34333435 0
2.5000002 -1.0952753 0.34339204 0
2.4990003 -1.0985618 0.34342092 0
2.4980001 -1.1018448 0.34344977 0
2.4970002 -1.1051241 0.34347865 0
2.4970002 -1.1089066 0.34347865 0
2.4970002 -1.1126891 0.34347865 0
2.4980001 -1.1169822 0.34344977 0
2.5000002 -1.1217912 0.34339204 0
2.5040002 -1.1276356 0.34327662 0
2.7090001 -1.3163229 0.33736014 0
2.7030003 -1.3171762 0.3375333 0
2.6980002 -1.3185614 0.3376776 0
2.6940002 -1.3204844 0.33779305 0
2.6910002 -1.3229502 0.33787963 0
2.6880002 -1.3254051 0.3379662 0
2.6850002 -1.3278493 0.33805278 0
2.6830001 -1.3308454 0.33811051 0
2.6820002 -1.3343989 0.33813936 0
2.6810002 -1.3379488 0.33816823 0
2.6800003 -1.3414952 0.33819708 0
2.6790001 -1.3450377 0.33822596 0
2.6800003 -1.3497205 0.33819708 0
2.6800003 -1.3538331 0.33819708 0
2.5280001 -1.0785575 0.33874545 0
2.5210001 -1.0789869 0.33896011 0
2.5160003 -1.0803686 0.33911341 0
2.5120001 -1.0822228 0.33923608 0
2.5090003 -1.0845553 0.33932808 0
2.5060003 -1.0868767 0.33942008 0
2.5040002 -1.0896834 0.33948141 0
2.5020001 -1.0924829 0.33954275 0
2.5000002 -1.0952753 0.33960408 0
2.4990003 -1.0985618 0.33963472 0
2.4980001 -1.1018448 0.33966538 0
2.4970002 -1.1051241 0.33969605 0
2.4970002 -1.1089066 0.33969605 0
2.4970002 -1.1126891 0.33969605 0
2.4980001 -1.1169822 0.33966538 0
2.5000002 -1.1217912 0.33960408 0
2.5040002 -1.1276356 0.33948141 0
2.7090001 -1.3163229 0.33319515 0
2.7030003 -1.3171762 0.33337912 0
2.6980002 -1.3185614 0.33353245 0
2.6940002 -1.3204844 0.33365512 0
2.6910002 -1.3229502 0.33374709 0
2.6880002 -1.3254051 0.33383909 0
2.6850002 -1.3278493 0.33393109 0
2.6830001 -1.3308454 0.33399242 0
2.6820002 -1.3343989 0.33402306 0
2.6810002 -1.3379488 0.33405375 0
2.6800003 -1.3414952 0.33408439 0
2.6790001 -1.3450377 0.33411509 0
2.6800003 -1.3497205 0.33408439 0
2.6800003 -1.3538331 0.33408439 0
2.6820002 -1.3590966 0.33402306 0
2.5280001 -1.0785575 0.33490694 0
2.5210001 -1.0789869 0.33513421 0
2.5160003 -1.0803686 0.33529657 0
2.5120001 -1.0822228 0.33542645 0
2.5090003 -1.0845553 0.33552384 0
2.5060003 -1.0868767 0.33562124 0
2.5040002 -1.0896834 0.33568621 0
2.5020001 -1.0924829 0.33575112 0
2.5000002 -1.0952753 0.33581606 0
2.4990003 -1.0985618 0.33584851 0
2.4980001 -1.1018448 0.33588099 0
2.4970002 -1.1051241 0.33591348 0
2.4970002 -1.1089066 0.33591348 0
2.4970002 -1.1126891 0.33591348 0
2.4980001 -1.1169822 0.33588099 0
2.5000002 -1.1217912 0.33581606 0
2.5040002 -1.1276356 0.33568621 0
2.7090001 -1.3163229 0.32903016 0
2.7030003 -1.3171762 0.32922494 0
2.6980002 -1.3185614 0.32938731 0
2.6940002 -1.3204844 0.32951716 0
2.6910002 -1.3229502 0.32961458 0
2.6880002 -1.3254051 0.32971197 0
2.6850002 -1.3278493 0.32980937 0
2.6830001 -1.3308454 0.32987434 0
2.6820002 -1.3343989 0.32990679 0
2.6810002 -1.3379488 0.32993925 0
2.6800003 -1.3414952 0.32997173 0
2.6790001 -1.3450377 0.33000422 0
2.6800003 -1.3497205 0.32997173 0
2.6800003 -1.3538331 0.32997173 0
2.6820002 -1.3590966 0.32990679 0
2.5280001 -1.0785575 0.33106846 0
2.5210001 -1.0789869 0.33130836 0
2.5160003 -1.0803686 0.3314797 0
2.5120001 -1.0822228 0.33161682 0
2.5090003 -1.0845553 0.33171961 0
2.5060003 -1.0868767 0.33182243 0
2.5040002 -1.0896834 0.33189097 0
2.5020001 -1.0924829 0.33195952 0
2.5000002 -1.0952753 0.33202806 0
2.4990003 -1.0985618 0.33206233 0
2.4980001 -1.1018448 0.33209661 0
2.4970002 -1.1051241 0.33213088 0
2.4970002 -1.1089066 0.33213088 0
2.4970002 -1.1126891 0.33213088 0
2.4980001 -1.1169822 0.33209661 0
2.5000002 -1.1217912 0.33202806 0
2.5040002 -1.1276356 0.33189097 0
2.7090001 -1.3163229 0.32486513 0
2.7030003 -1.3171762 0.32507077 0
2.6980002 -1.3185614 0.32524213 0
2.6940002 -1.3204844 0.32537922 0
2.6910002 -1.3229502 0.32548204 0
2.6880002 -1.3254051 0.32558486 0
2.6850002 -1.3278493 0.32568768 0
2.6830001 -1.3308454 0.32575622 0
2.6820002 -1.3343989 0.32579049 0
2.6810002 -1.3379488 0.32582477 0
2.6800003 -1.3414952 0.32585904 0
2.6790001 -1.3450377 0.32589331 0
2.6800003 -1.3497205 0.32585904 0
2.6800003 -1.3538331 0.32585904 0
2.6820002 -1.3590966 0.32579049 0
2.5280001 -1.0785575 0.32722995 0
2.5210001 -1.0789869 0.32748246 0
2.5160003 -1.0803686 0.32766286 0
2.5120001 -1.0822228 0.32780716 0
2.5090003 -1.0845553 0.32791537 0
2.5060003 -1.0868767 0.32802361 0
2.5040002 -1.0896834 0.32809576 0
2.5020001 -1.0924829 0.32816792 0
2.5000002 -1.0952753 0.32824007 0
2.4990003 -1.0985618 0.32827616 0
2.4980001 -1.1018448 0.32831222 0
2.4970002 -1.1051241 0.32834828 0
2.4970002 -1.1089066 0.32834828 0
2.4970002 -1.1126891 0.32834828 0
2.4980001 -1.1169822 0.32831222 0
2.5000002 -1.1217912 0.32824007 0
2.5040002 -1.1276356 0.32809576 0
2.7090001 -1.3163229 0.32070017 0
2.7030003 -1.3171762 0.32091659 0
2.6980002 -1.3185614 0.32109699 0
2.6940002 -1.3204844 0.32124129 0
2.6910002 -1.3229502 0.3213495 0
2.6880002 -1.3254051 0.32145774 0
2.6850002 -1.3278493 0.32156599 0
2.6830001 -1.3308454 0.32163814 0
2.6820002 -1.3343989 0.32167423 0
2.6810002 -1.3379488 0.32171029 0
2.6800003 -1.3414952 0.32174635 0
2.6790001 -1.3450377 0.32178244 0
2.6800003 -1.3497205 0.32174635 0
2.6800003 -1.3538331 0.32174635 0
2.6820002 -1.3590966 0.32167423 0
2.5280001 -1.0785575 0.32339144 0
2.5210001 -1.0789869 0.32365659 0
2.5160003 -1.0803686 0.32384598 0
2.5120001 -1.0822228 0.3239975 0
2.5090003 -1.0845553 0.32411116 0
2.5060003 -1.0868767 0.32422477 0
2.5040002 -1.0896834 0.32430056 0
2.5020001 -1.0924829 0.32437631 0
2.5000002 -1.0952753 0.32445207 0
2.4990003 -1.0985618 0.32448995 0
2.4980001 -1.1018448 0.32452783 0
2.4970002 -1.1051241 0.32456571 0
2.4970002 -1.1089066 0.32456571 0
2.4970002 -1.1126891 0.32456571 0
2.4980001 -1.1169822 0.32452783 0
2.5000002 -1.1217912 0.32445207 0
2.5040002 -1.1276356 0.32430056 0
2.7090001 -1.3163229 0.31653517 0
2.7030003 -1.3171762 0.31676245 0
2.6980002 -1.3185614 0.31695184 0
2.6940002 -1.3204844 0.31710336 0
2.6910002 -1.3229502 0.31721699 0
2.6880002 -1.3254051 0.31733063 0
2.6850002 -1.3278493 0.31744426 0
2.6830001 -1.3308454 0.31752002 0
2.6820002 -1.3343989 0.31755793 0
2.6810002 -1.3379488 0.31759578 0
2.6800003 -1.3414952 0.31763369 0
2.6790001 -1.3450377 0.31767157 0
2.6800003 -1.3497205 0.31763369 0
2.6800003 -1.3538331 0.31763369 0
2.6820002 -1.3590966 0.31755793 0
2.5280001 -1.0785575 0.31955293 0
2.5210001 -1.0789869 0.31983072 0
2.5160003 -1.0803686 0.32002914 0
2.5120001 -1.0822228 0.32018787 0
2.5090003 -1.0845553 0.32030693 0
2.5060003 -1.0868767 0.32042596 0
2.5040002 -1.0896834 0.32050532 0
2.5020001 -1.0924829 0.32058471 0
2.5000002 -1.0952753 0.32066408 0
2.4990003 -1.0985618 0.32070374 0
2.4980001 -1.1018448 0.32074344 0
2.4970002 -1.1051241 0.32078314 0
2.4970002 -1.1089066 0.32078314 0
2.4970002 -1.1126891 0.32078314 0
2.4980001 -1.1169822 0.32074344 0
2.5000002 -1.1217912 0.32066408 0
2.5040002 -1.1276356 0.32050532 0
2.7090001 -1.3163229 0.31237018 0
2.7030003 -1.3171762 0.31260827 0
2.6980002 -1.3185614 0.31280667 0
2.6940002 -1.3204844 0.31296542 0
2.6910002 -1.3229502 0.31308448 0
2.6880002 -1.3254051 0.31320351 0
2.6850002 -1.3278493 0.31332257 0
2.6830001 -1.3308454 0.31340194 0
2.6820002 -1.3343989 0.31344163 0
2.6810002 -1.3379488 0.3134813 0
2.6800003 -1.3414952 0.313521 0
2.6790001 -1.3450377 0.31356066 0
2.6800003 -1.3497205 0.313521 0
2.6800003 -1.3538331 0.313521 0
2.6820002 -1.3590966 0.31344163 0
2.5280001 -1.0785575 0.31571442 0
2.5210001 -1.0789869 0.31600484 0
2.5160003 -1.0803686 0.31621227 0
2.5120001 -1.0822228 0.31637824 0
2.5090003 -1.0845553 0.31650269 0
2.5060003 -1.0868767 0.31662714 0
2.5040002 -1.0896834 0.31671011 0
2.5020001 -1.0924829 0.31679311 0
2.5000002 -1.0952753 0.31687608 0
2.4990003 -1.0985618 0.31691757 0
2.4980001 -1.1018448 0.31695905 0
2.4970002 -1.1051241 0.31700054 0
2.4970002 -1.1089066 0.31700054 0
2.4970002 -1.1126891 0.31700054 0
2.4980001 -1.1169822 0.31695905 0
2.5000002 -1.1217912 0.31687608 0
2.5040002 -1.1276356 0.31671011 0
2.7090001 -1.3163229 0.30820519 0
2.7030003 -1.3171762 0.3084541 0
2.6980002 -1.3185614 0.30866152 0
2.6940002 -1.3204844 0.30882749 0
2.6910002 -1.3229502 0.30895194 0
2.6880002 -1.3254051 0.30907643 0
2.6850002 -1.3278493 0.30920088 0
2.6830001 -1.3308454 0.30928385 0
2.6820002 -1.3343989 0.30932534 0
2.6810002 -1.3379488 0.30936682 0
2.6800003 -1.3414952 0.30940831 0
2.6790001 -1.3450377 0.30944979 0
2.6800003 -1.3497205 0.30940831 0
2.6800003 -1.3538331 0.30940831 0
2.6820002 -1.3590966 0.30932534 0
2.5280001 -1.0785575 0.31187594 0
2.5210001 -1.0789869 0.31217897 0
2.5160003 -1.0803686 0.31239542 0
2.5120001 -1.0822228 0.3125686 0
2.5090003 -1.0845553 0.31269845 0
2.5060003 -1.0868767 0.31282833 0
2.5040002 -1.0896834 0.31291491 0
2.5020001 -1.0924829 0.31300151 0
2.5000002 -1.0952753 0.31308809 0
2.4990003 -1.0985618 0.31313136 0
2.4980001 -1.1018448 0.31317466 0
2.4970002 -1.1051241 0.31321794 0
2.4970002 -1.1089066 0.31321794 0
2.4970002 -1.1126891 0.31321794 0
2.4980001 -1.1169822 0.31317466 0
2.5000002 -1.1217912 0.31308809 0
2.5040002 -1.1276356 0.31291491 0
2.7090001 -1.3163229 0.30404019 0
2.7030003 -1.3171762 0.30429992 0
2.6980002 -1.3185614 0.30451638 0
2.6940002 -1.3204844 0.30468956 0
2.6910002 -1.3229502 0.30481943 0
2.6880002 -1.3254051 0.30494928 0
2.6850002 -1.3278493 0.30507916 0
2.6830001 -1.3308454 0.30516577 0
2.6820002 -1.3343989 0.30520904 0
2.6810002 -1.3379488 0.30525234 0
2.6800003 -1.3414952 0.30529562 0
2.6790001 -1.3450377 0.30533892 0
2.6800003 -1.3497205 0.30529562 0
2.6800003 -1.3538331 0.30529562 0
2.6820002 -1.3590966 0.30520904 0
2.5280001 -1.0785575 0.30803743 0
2.5210001 -1.0789869 0.30835307 0
2.5160003 -1.0803686 0.30857855 0
2.5120001 -1.0822228 0.30875894 0
2.5090003 -1.0845553 0.30889422 0
2.5060003 -1.0868767 0.30902952 0
2.5040002 -1.0896834 0.3091197 0
2.5020001 -1.0924829 0.30920988 0
2.5000002 -1.0952753 0.30930007 0
2.4990003 -1.0985618 0.30934519 0
2.4980001 -1.1018448 0.30939028 0
2.4970002 -1.1051241 0.30943537 0
2.4970002 -1.1089066 0.30943537 0
2.4970002 -1.1126891 0.30943537 0
2.4980001 -1.1169822 0.30939028 0
2.5000002 -1.1217912 0.30930007 0
2.5040002 -1.1276356 0.3091197 0
2.7090001 -1.3163229 0.2998752 0
2.7030003 -1.3171762 0.30014575 0
2.6980002 -1.3185614 0.30037123 0
2.6940002 -1.3204844 0.30055162 0
2.6910002 -1.3229502 0.3006869 0
2.6880002 -1.3254051 0.3008222 0
2.6850002 -1.3278493 0.30095747 0
2.6830001 -1.3308454 0.30104765 0
2.6820002 -1.3343989 0.30109274 0
2.6810002 -1.3379488 0.30113786 0
2.6800003 -1.3414952 0.30118293 0
2.6790001 -1.3450377 0.30122805 0
2.6800003 -1.3497205 0.30118293 0
2.6800003 -1.3538331 0.30118293 0
2.6820002 -1.3590966 0.30109274 0
2.5280001 -1.0785575 0.30419892 0
2.5210001 -1.0789869 0.30452722 0
2.5160003 -1.0803686 0.30476171 0
2.5120001 -1.0822228 0.30494931 0
2.5090003 -1.0845553 0.30508998 0
2.5060003 -1.0868767 0.30523068 0
2.5040002 -1.0896834 0.30532449 0
2.5020001 -1.0924829 0.30541828 0
2.5000002 -1.0952753 0.30551207 0
2.4990003 -1.0985618 0.30555898 0
2.4980001 -1.1018448 0.30560589 0
2.4970002 -1.1051241 0.3056528 0
2.4970002 -1.1089066 0.3056528 0
2.4970002 -1.1126891 0.3056528 0
2.4980001 -1.1169822 0.30560589 0
2.5000002 -1.1217912 0.30551207 0
2.5040002 -1.1276356 0.30532449 0
2.7090001 -1.3163229 0.29571021 0
2.7030003 -1.3171762 0.29599157 0
2.6980002 -1.3185614 0.29622608 0
2.6940002 -1.3204844 0.29641366 0
2.6910002 -1.3229502 0.29655439 0
2.6880002 -1.3254051 0.29669505 0
2.6850002 -1.3278493 0.29683578 0
2.6830001 -1.3308454 0.29692957 0
2.6820002 -1.3343989 0.29697648 0
2.6810002 -1.3379488 0.29702336 0
2.6800003 -1.3414952 0.29707026 0
2.6790001 -1.3450377 0.29711717 0
2.6800003 -1.3497205 0.29707026 0
2.6800003 -1.3538331 0.29707026 0
2.6820002 -1.3590966 0.29697648 0
2.5280001 -1.0785575 0.30036041 0
2.5210001 -1.0789869 0.30070132 0
2.5160003 -1.0803686 0.30094483 0
2.5120001 -1.0822228 0.30113965 0
2.5090003 -1.0845553 0.30128574 0
2.5060003 -1.0868767 0.30143186 0
2.5040002 -1.0896834 0.30152929 0
2.5020001 -1.0924829 0.30162668 0
2.5000002 -1.0952753 0.30172408 0
2.4990003 -1.0985618 0.30177277 0
2.4980001 -1.1018448 0.3018215 0
2.4970002 -1.1051241 0.3018702 0
2.4970002 -1.1089066 0.3018702 0
2.4970002 -1.1126891 0.3018702 0
2.4980001 -1.1169822 0.3018215 0
2.5000002 -1.1217912 0.30172408 0
2.5040002 -1.1276356 0.30152929 0
2.7090001 -1.3163229 0.29154521 0
2.7030003 -1.3171762 0.29183739 0
2.6980002 -1.3185614 0.29208094 0
2.6940002 -1.3204844 0.29227573 0
2.6910002 -1.3229502 0.29242185 0
2.6880002 -1.3254051 0.29256797 0
2.6850002 -1.3278493 0.29271406 0
2.6830001 -1.3308454 0.29281148 0
2.6820002 -1.3343989 0.29286018 0
2.6810002 -1.3379488 0.29290888 0
2.6800003 -1.3414952 0.29295757 0
2.6790001 -1.3450377 0.2930063 0
2.6800003 -1.3497205 0.29295757 0
2.6800003 -1.3538331 0.29295757 0
2.6820002 -1.3590966 0.29286018 0
2.5280001 -1.0785575 0.2965219 0
2.5210001 -1.0789869 0.29687545 0
2.5160003 -1.0803686 0.29712796 0
2.5120001 -1.0822228 0.29733002 0
2.5090003 -1.0845553 0.29748154 0
2.5060003 -1.0868767 0.29763305 0
2.5040002 -1.0896834 0.29773408 0
2.5020001 -1.0924829 0.29783508 0
2.5000002 -1.0952753 0.29793608 0
2.4990003 -1.0985618 0.2979866 0
2.4980001 -1.1018448 0.29803711 0
2.4970002 -1.1051241 0.2980876 0
2.4970002 -1.1089066 0.2980876 0
2.4970002 -1.1126891 0.2980876 0
2.4980001 -1.1169822 0.29803711 0
2.5000002 -1.1217912 0.29793608 0
2.5040002 -1.1276356 0.29773408 0
2.7090001 -1.3163229 0.28738022 0
2.7030003 -1.3171762 0.28768325 0
2.6980002 -1.3185614 0.28793579 0
2.6940002 -1.3204844 0.28813779 0
2.6910002 -1.3229502 0.28828931 0
2.6880002 -1.3254051 0.28844085 0
2.6850002 -1.3278493 0.28859237 0
2.6830001 -1.3308454 0.28869337 0
2.6820002 -1.3343989 0.28874388 0
2.6810002 -1.3379488 0.2887944 0
2.6800003 -1.3414952 0.28884488 0
2.6790001 -1.3450377 0.2888954 0
2.6800003 -1.3497205 0.28884488 0
2.6800003 -1.3538331 0.28884488 0
2.6820002 -1.3590966 0.28874388 0
2.5280001 -1.0785575 0.29268339 0
2.5210001 -1.0789869 0.29304957 0
2.5160003 -1.0803686 0.29331112 0
2.5120001 -1.0822228 0.29352036 0
2.5090003 -1.0845553 0.2936773 0
2.5060003 -1.0868767 0.29383421 0
2.5040002 -1.0896834 0.29393885 0
2.5020001 -1.0924829 0.29404348 0
2.5000002 -1.0952753 0.29414809 0
2.4990003 -1.0985618 0.29420039 0
2.4980001 -1.1018448 0.29425272 0
2.4970002 -1.1051241 0.29430503 0
2.4970002 -1.1089066 0.29430503 0
2.4970002 -1.1126891 0.29430503 0
2.4980001 -1.1169822 0.29425272 0
2.5000002 -1.1217912 0.29414809 0
2.5040002 -1.1276356 0.29393885 0
2.7090001 -1.3163229 0.28321522 0
2.7030003 -1.3171762 0.28352907 0
2.6980002 -1.3185614 0.28379062 0
2.6940002 -1.3204844 0.28399986 0
2.6910002 -1.3229502 0.2841568 0
2.6880002 -1.3254051 0.28431374 0
2.6850002 -1.3278493 0.28447068 0
2.6830001 -1.3308454 0.28457528 0
2.6820002 -1.3343989 0.28462759 0
2.6810002 -1.3379488 0.28467989 0
2.6800003 -1.3414952 0.28473222 0
2.6790001 -1.3450377 0.28478453 0
2.6800003 -1.3497205 0.28473222 0
2.6800003 -1.3538331 0.28473222 0
2.6820002 -1.3590966 0.28462759 0
2.5280001 -1.0785575 0.28884488 0
2.5210001 -1.0789869 0.2892237 0
2.5160003 -1.0803686 0.28949428 0
2.5120001 -1.0822228 0.28971073 0
2.5090003 -1.0845553 0.28987306 0
2.5060003 -1.0868767 0.2900354 0
2.5040002 -1.0896834 0.29014364 0
2.5020001 -1.0924829 0.29025188 0
2.5000002 -1.0952753 0.29036009 0
2.4990003 -1.0985618 0.29041421 0
2.4980001 -1.1018448 0.29046834 0
2.4970002 -1.1051241 0.29052243 0
2.4970002 -1.1089066 0.29052243 0
2.4970002 -1.1126891 0.29052243 0
2.4980001 -1.1169822 0.29046834 0
2.5000002 -1.1217912 0.29036009 0
2.5040002 -1.1276356 0.29014364 0
2.7090001 -1.3163229 0.27905023 0
2.7030003 -1.3171762 0.2793749 0
2.6980002 -1.3185614 0.27964547 0
2.6940002 -1.3204844 0.27986193 0
2.6910002 -1.3229502 0.28002429 0
2.6880002 -1.3254051 0.28018662 0
2.6850002 -1.3278493 0.28034896 0
2.6830001 -1.3308454 0.2804572 0
2.6820002 -1.3343989 0.28051132 0
2.6810002 -1.3379488 0.28056541 0
2.6800003 -1.3414952 0.2806195 0
2.6790001 -1.3450377 0.28067365 0
2.6800003 -1.3497205 0.2806195 0
2.6800003 -1.3538331 0.2806195 0
2.6820002 -1.3590966 0.28051132 0
2.5280001 -1.0785575 0.2850064 0
2.5210001 -1.0789869 0.28539783 0
2.5160003 -1.0803686 0.2856774 0
2.5120001 -1.0822228 0.28590107 0
2.5090003 -1.0845553 0.28606883 0
2.5060003 -1.0868767 0.28623658 0
2.5040002 -1.0896834 0.28634843 0
2.5020001 -1.0924829 0.28646028 0
2.5000002 -1.0952753 0.2865721 0
2.4990003 -1.0985618 0.28662801 0
2.4980001 -1.1018448 0.28668395 0
2.4970002 -1.1051241 0.28673986 0
2.4970002 -1.1089066 0.28673986 0
2.4970002 -1.1126891 0.28673986 0
2.4980001 -1.1169822 0.28668395 0
2.5000002 -1.1217912 0.2865721 0
2.5040002 -1.1276356 0.28634843 0
2.7090001 -1.3163229 0.27488524 0
2.7030003 -1.3171762 0.27522072 0
2.6980002 -1.3185614 0.2755003 0
2.6940002 -1.3204844 0.27572399 0
2.6910002 -1.3229502 0.27589175 0
2.6880002 -1.3254051 0.27605951 0
2.6850002 -1.3278493 0.27622727 0
2.6830001 -1.3308454 0.27633911 0
2.6820002 -1.3343989 0.27639502 0
2.6810002 -1.3379488 0.27645093 0
2.6800003 -1.3414952 0.27650684 0
2.6790001 -1.3450377 0.27656275 0
2.6800003 -1.3497205 0.27650684 0
2.6800003 -1.3538331 0.27650684 0
2.6820002 -1.3590966 0.27639502 0
2.5280001 -1.0785575 0.28116789 0
2.5210001 -1.0789869 0.28157195 0
2.5160003 -1.0803686 0.28186053 0
2.5120001 -1.0822228 0.28209144 0
2.5090003 -1.0845553 0.28226459 0
2.5060003 -1.0868767 0.28243777 0
2.5040002 -1.0896834 0.2825532 0
2.5020001 -1.0924829 0.28266865 0
2.5000002 -1.0952753 0.2827841 0
2.4990003 -1.0985618 0.2828418 0
2.4980001 -1.1018448 0.28289956 0
2.4970002 -1.1051241 0.28295726 0
2.4970002 -1.1089066 0.28295726 0
2.4970002 -1.1126891 0.28295726 0
2.4980001 -1.1169822 0.28289956 0
2.5000002 -1.1217912 0.2827841 0
2.5040002 -1.1276356 0.2825532 0
2.7090001 -1.3163229 0.27072024 0
2.7030003 -1.3171762 0.27106655 0
2.6980002 -1.3185614 0.27135515 0
2.6940002 -1.3204844 0.27158606 0
2.6910002 -1.3229502 0.27175921 0
2.6880002 -1.3254051 0.27193239 0
2.6850002 -1.3278493 0.27210557 0
2.6830001 -1.3308454 0.27222103 0
2.6820002 -1.3343989 0.27227873 0
2.6810002 -1.3379488 0.27233642 0
2.6800003 -1.3414952 0.27239418 0
2.6790001 -1.3450377 0.27245188 0
2.6800003 -1.3497205 0.27239418 0
2.6800003 -1.3538331 0.27239418 0
2.6820002 -1.3590966 0.27227873 0
2.5280001 -1.0785575 0.27732939 0
2.5210001 -1.0789869 0.27774608 0
2.5160003 -1.0803686 0.27804369 0
2.5120001 -1.0822228 0.27828181 0
2.5090003 -1.0845553 0.27846038 0
2.5060003 -1.0868767 0.27863896 0
2.5040002 -1.0896834 0.27875799 0
2.5020001 -1.0924829 0.27887708 0
2.5000002 -1.0952753 0.27899611 0
2.4990003 -1.0985618 0.27905563 0
2.4980001 -1.1018448 0.27911514 0
2.4970002 -1.1051241 0.27917469 0
2.4970002 -1.1089066 0.27917469 0
2.4970002 -1.1126891 0.27917469 0
2.4980001 -1.1169822 0.27911514 0
2.5000002 -1.1217912 0.27899611 0
2.5040002 -1.1276356 0.27875799 0
2.7090001 -1.3163229 0.26655525 0
2.7030003 -1.3171762 0.2669124 0
2.6980002 -1.3185614 0.26721001 0
2.6940002 -1.3204844 0.26744813 0
2.6910002 -1.3229502 0.2676267 0
2.6880002 -1.3254051 0.26780528 0
2.6850002 -1.3278493 0.26798385 0
2.6830001 -1.3308454 0.26810291 0
2.6820002 -1.3343989 0.26816243 0
2.6810002 -1.3379488 0.26822197 0
2.6800003 -1.3414952 0.26828146 0
2.6790001 -1.3450377 0.268341 0
2.6800003 -1.3497205 0.26828146 0
2.6800003 -1.3538331 0.26828146 0
2.6820002 -1.3590966 0.26816243 0
2.5280001 -1.0785575 0.27349091 0
2.5210001 -1.0789869 0.27392018 0
2.5160003 -1.0803686 0.27422684 0
2.5120001 -1.0822228 0.27447218 0
2.5090003 -1.0845553 0.27465612 0
2.5060003 -1.0868767 0.27484012 0
2.5040002 -1.0896834 0.27496278 0
2.5020001 -1.0924829 0.27508545 0
2.5000002 -1.0952753 0.27520812 0
2.4990003 -1.0985618 0.27526945 0
2.4980001 -1.1018448 0.27533078 0
2.4970002 -1.1051241 0.27539212 0
2.4970002 -1.1089066 0.27539212 0
2.4970002 -1.1126891 0.27539212 0
2.4980001 -1.1169822 0.27533078 0
2.5000002 -1.1217912 0.27520812 0
2.5040002 -1.1276356 0.27496278 0
2.7090001 -1.3163229 0.26239026 0
2.7030003 -1.3171762 0.2627582 0
2.6980002 -1.3185614 0.26306486 0
2.6940002 -1.3204844 0.26331019 0
2.6910002 -1.3229502 0.26349419 0
2.6880002 -1.3254051 0.26367816 0
2.6850002 -1.3278493 0.26386213 0
2.6830001 -1.3308454 0.2639848 0
2.6820002 -1.3343989 0.26404613 0
2.6810002 -1.3379488 0.26410747 0
2.6800003 -1.3414952 0.2641688 0
2.6790001 -1.3450377 0.26423013 0
2.6800003 -1.3497205 0.2641688 0
2.6800003 -1.3538331 0.2641688 0
2.6820002 -1.3590966 0.26404613 0
2.5280001 -1.0785575 0.26965237 0
2.5210001 -1.0789869 0.27009434 0
2.5160003 -1.0803686 0.27040997 0
2.5120001 -1.0822228 0.27066252 0
2.5090003 -1.0845553 0.27085191 0
2.5060003 -1.0868767 0.2710413 0
2.5040002 -1.0896834 0.27116758 0
2.5020001 -1.0924829 0.27129385 0
2.5000002 -1.0952753 0.27142012 0
2.4990003 -1.0985618 0.27148324 0
2.4980001 -1.1018448 0.27154636 0
2.4970002 -1.1051241 0.27160949 0
2.4970002 -1.1089066 0.27160949 0
2.4970002 -1.1126891 0.27160949 0
2.4980001 -1.1169822 0.27154636 0
2.5000002 -1.1217912 0.27142012 0
2.5040002 -1.1276356 0.27116758 0
2.7090001 -1.3163229 0.25822526 0
2.7030003 -1.3171762 0.25860405 0
2.6980002 -1.3185614 0.25891972 0
2.6940002 -1.3204844 0.25917226 0
2.6910002 -1.3229502 0.25936165 0
2.6880002 -1.3254051 0.25955105 0
2.6850002 -1.3278493 0.25974044 0
2.6830001 -1.3308454 0.25986671 0
2.6820002 -1.3343989 0.25992984 0
2.6810002 -1.3379488 0.25999296 0
2.6800003 -1.3414952 0.26005611 0
2.6790001 -1.3450377 0.26011926 0
2.6800003 -1.3497205 0.26005611 0
2.6800003 -1.3538331 0.26005611 0
2.6820002 -1.3590966 0.25992984 0
2.5280001 -1.0785575 0.26581389 0
2.5210001 -1.0789869 0.26626843 0
2.5160003 -1.0803686 0.2665931 0
2.5120001 -1.0822228 0.26685286 0
2.5090003 -1.0845553 0.26704764 0
2.5060003 -1.0868767 0.26724249 0
2.5040002 -1.0896834 0.26737237 0
2.5020001 -1.0924829 0.26750225 0
2.5000002 -1.0952753 0.26763213 0
2.4990003 -1.0985618 0.26769704 0
2.4980001 -1.1018448 0.26776201 0
2.4970002 -1.1051241 0.26782691 0
2.4970002 -1.1089066 0.26782691 0
2.4970002 -1.1126891 0.26782691 0
2.4980001 -1.1169822 0.26776201 0
2.5000002 -1.1217912 0.26763213 0
2.5040002 -1.1276356 0.26737237 0
2.7090001 -1.3163229 0.25406027 0
2.7030003 -1.3171762 0.25444987 0
2.6980002 -1.3185614 0.25477457 0
2.6940002 -1.3204844 0.25503433 0
2.6910002 -1.3229502 0.25522912 0
2.6880002 -1.3254051 0.25542393 0
2.6850002 -1.3278493 0.25561875 0
2.6830001 -1.3308454 0.25574863 0
2.6820002 -1.3343989 0.25581357 0
2.6810002 -1.3379488 0.25587851 0
2.6800003 -1.3414952 0.25594342 0
