# .PCD v0.7 - Point Cloud Data file format
VERSION 0.7
FIELDS x y z intensity
SIZE 4 4 4 4
TYPE F F F F
COUNT 1 1 1 1
WIDTH 1416
HEIGHT 1
VIEWPOINT 0 0 0 1 0 0 0
POINTS 1416
DATA ascii
6.0680003 -1.1706383 0.92542326 0
6.0710006 -1.1814631 0.92569923 0
6.0740004 -1.1922985 0.9259752 0
6.0760002 -1.2029409 0.92615926 0
6.0790005 -1.2137964 0.92643523 0
6.0820003 -1.2246623 0.9267112 0
6.0850005 -1.2355393 0.92698717 0
6.0880003 -1.2464272 0.92726314 0
6.0910006 -1.2573258 0.92753911 0
6.0930004 -1.2680206 0.92772317 0
6.0960002 -1.278939 0.92799902 0
6.0990005 -1.2898682 0.92827511 0
6.1020002 -1.3008084 0.92855108 0
6.1050005 -1.3117592 0.92882705 0
6.1080003 -1.322721 0.92910302 0
6.1110005 -1.3336936 0.92937899 0
6.1140003 -1.344677 0.92965496 0
6.0610003 -1.0977699 0.91456795 0
6.0570002 -1.1072309 0.9142071 0
6.0550003 -1.1170563 0.91402674 0
6.0550003 -1.1272568 0.91402674 0
6.0570002 -1.1378433 0.9142071 0
6.0600004 -1.1486319 0.91447783 0
6.0630002 -1.1594313 0.91474831 0
6.0650005 -1.1700431 0.91492867 0
6.0680003 -1.1808623 0.91519928 0
6.0710006 -1.1916925 0.91546988 0
6.0740004 -1.2025334 0.91574037 0
6.0760002 -1.2131793 0.91592085 0
6.0790005 -1.22404 0.91619134 0
6.0820003 -1.2349116 0.91646194 0
6.0850005 -1.2457941 0.91673255 0
6.0880003 -1.2566872 0.91700304 0
6.0900002 -1.2673765 0.9171834 0
6.0930004 -1.2782897 0.917454 0
6.0960002 -1.2892134 0.91772461 0
6.0990005 -1.3001481 0.91799521 0
6.1010003 -1.3108718 0.91817558 0
6.1040006 -1.3218265 0.91844606 0
6.1070004 -1.3327918 0.91871667 0
6.1100001 -1.3437679 0.91898727 0
6.0660005 -1.0884784 0.90479851 0
6.0600004 -1.0975841 0.90426826 0
6.0560002 -1.1070433 0.90391463 0
6.0540004 -1.1168668 0.9037379 0
6.0550003 -1.1272568 0.90382624 0
6.0570002 -1.1378433 0.90400302 0
6.0590005 -1.1484371 0.90417981 0
6.0620003 -1.1592346 0.90444493 0
6.0650005 -1.1700431 0.90471017 0
6.0680003 -1.1808623 0.9049753 0
6.0700002 -1.1914904 0.90515208 0
6.0730004 -1.2023294 0.9054172 0
6.0760002 -1.2131793 0.90568233 0
6.0780005 -1.2238326 0.90585911 0
6.0810003 -1.2347025 0.90612435 0
6.0840006 -1.2455831 0.90638947 0
6.0870004 -1.2564744 0.9066546 0
6.0890002 -1.267162 0.90683138 0
6.0920005 -1.2780732 0.90709662 0
6.0950003 -1.2889953 0.90736175 0
6.0980005 -1.2999282 0.90762687 0
6.1000004 -1.31065 0.90780365 0
6.1030002 -1.3216026 0.90806878 0
6.1060004 -1.3325663 0.90833402 0
6.1090002 -1.3435405 0.90859914 0
6.0660005 -1.0884784 0.8945781 0
6.0600004 -1.0975841 0.89405864 0
6.0560002 -1.1070433 0.89371228 0
6.0540004 -1.1168668 0.89353919 0
6.0550003 -1.1272568 0.89362574 0
6.0570002 -1.1378433 0.89379889 0
6.0590005 -1.1484371 0.89397204 0
6.0620003 -1.1592346 0.8942318 0
6.0650005 -1.1700431 0.89449155 0
6.0680003 -1.1808623 0.89475131 0
6.0700002 -1.1914904 0.8949244 0
6.0730004 -1.2023294 0.89518422 0
6.0760002 -1.2131793 0.89544392 0
6.0780005 -1.2238326 0.89561713 0
6.0810003 -1.2347025 0.89587688 0
6.0840006 -1.2455831 0.89613664 0
6.0870004 -1.2564744 0.8963964 0
6.0890002 -1.267162 0.89656955 0
6.0920005 -1.2780732 0.89682925 0
6.0950003 -1.2889953 0.897089 0
6.0980005 -1.2999282 0.89734882 0
6.1000004 -1.31065 0.89752197 0
6.1030002 -1.3216026 0.89778173 0
6.1060004 -1.3325663 0.89804143 0
6.0660005 -1.0884784 0.88435769 0
6.0600004 -1.0975841 0.88384908 0
6.0560002 -1.1070433 0.88350993 0
6.0540004 -1.1168668 0.88334036 0
6.0550003 -1.1272568 0.88342518 0
6.0570002 -1.1378433 0.88359475 0
6.0590005 -1.1484371 0.88376433 0
6.0660005 -1.0884784 0.8741374 0
6.0600004 -1.0975841 0.87363952 0
6.0560002 -1.1070433 0.87330759 0
6.0540004 -1.1168668 0.87314165 0
6.0550003 -1.1272568 0.87322462 0
6.0660005 -1.0884784 0.86391699 0
6.0600004 -1.0975841 0.86342996 0
5.9020004 -1.1377008 0.84068036 0
5.9050002 -1.148226 0.84091842 0
5.9070005 -1.1585602 0.84107721 0
5.9100003 -1.1691051 0.84131527 0
5.9120002 -1.1794553 0.841474 0
5.9150004 -1.1900203 0.84171212 0
5.8970003 -1.1168777 0.83036792 0
5.8990002 -1.1271863 0.83052307 0
5.9020004 -1.1377008 0.83075583 0
5.9050002 -1.148226 0.83098847 0
5.9070005 -1.1585602 0.83114362 0
5.9100003 -1.1691051 0.83137631 0
5.9120002 -1.1794553 0.83153141 0
5.9150004 -1.1900203 0.8317641 0
5.9180002 -1.200596 0.8319968 0
5.9200006 -1.2109715 0.83215195 0
5.9230003 -1.2215672 0.83238465 0
5.9260006 -1.2321736 0.83261734 0
5.9280005 -1.2425742 0.83277243 0
5.9310002 -1.2532005 0.83300513 0
5.9340005 -1.2638376 0.83323789 0
5.9360003 -1.2742635 0.83339298 0
5.9390001 -1.2849203 0.83362567 0
5.9420004 -1.2955883 0.83385837 0
5.9450002 -1.3062667 0.83409101 0
5.9470005 -1.316727 0.83424616 0
5.9500003 -1.3274254 0.83447886 0
5.9530005 -1.3381345 0.83471155 0
5.9550004 -1.3486201 0.83486664 0
5.9580002 -1.3593491 0.83509934 0
5.9610004 -1.3700891 0.83533204 0
5.9630003 -1.3805999 0.83548719 0
5.9660006 -1.3913596 0.83571988 0
5.9690003 -1.4021301 0.83595252 0
5.9720001 -1.4129114 0.83618522 0
5.9740005 -1.4234565 0.83634043 0
5.9770002 -1.4342577 0.83657306 0
5.8940005 -1.1063831 0.82022518 0
5.8970003 -1.1168777 0.82045245 0
5.8990002 -1.1271863 0.82060397 0
5.9020004 -1.1377008 0.82083124 0
5.9050002 -1.148226 0.82105851 0
5.9070005 -1.1585602 0.82121003 0
5.9100003 -1.1691051 0.82143736 0
5.9120002 -1.1794553 0.82158881 0
5.9150004 -1.1900203 0.82181615 0
5.9180002 -1.200596 0.82204342 0
5.9200006 -1.2109715 0.82219493 0
5.9230003 -1.2215672 0.82242215 0
5.9260006 -1.2321736 0.82264948 0
5.9280005 -1.2425742 0.82280099 0
5.9310002 -1.2532005 0.82302827 0
5.9340005 -1.2638376 0.82325554 0
5.9360003 -1.2742635 0.82340705 0
5.9390001 -1.2849203 0.82363433 0
5.9420004 -1.2955883 0.8238616 0
5.9450002 -1.3062667 0.82408893 0
5.9470005 -1.316727 0.82424045 0
5.9500003 -1.3274254 0.82446772 0
5.9530005 -1.3381345 0.82469499 0
5.9550004 -1.3486201 0.82484651 0
5.9580002 -1.3593491 0.82507378 0
5.9610004 -1.3700891 0.82530105 0
5.9630003 -1.3805999 0.82545257 0
5.9660006 -1.3913596 0.8256799 0
5.9690003 -1.4021301 0.82590711 0
5.9720001 -1.4129114 0.82613444 0
5.9740005 -1.4234565 0.82628596 0
5.9770002 -1.4342577 0.82651323 0
5.9800005 -1.4450698 0.8267405 0
5.8940005 -1.1063831 0.81031501 0
5.8970003 -1.1168777 0.81053692 0
5.8990002 -1.1271863 0.8106848 0
5.9020004 -1.1377008 0.81090665 0
5.9050002 -1.148226 0.8111285 0
5.9070005 -1.1585602 0.81127644 0
5.9100003 -1.1691051 0.81149828 0
5.9120002 -1.1794553 0.81164622 0
5.9150004 -1.1900203 0.81186813 0
5.9180002 -1.200596 0.81208998 0
5.9200006 -1.2109715 0.81223792 0
5.9230003 -1.2215672 0.81245977 0
5.9260006 -1.2321736 0.81268167 0
5.9280005 -1.2425742 0.81282955 0
5.9310002 -1.2532005 0.8130514 0
5.9340005 -1.2638376 0.81327331 0
5.9360003 -1.2742635 0.81342119 0
5.9390001 -1.2849203 0.81364304 0
5.9420004 -1.2955883 0.81386495 0
5.9450002 -1.3062667 0.81408679 0
5.9470005 -1.316727 0.81423473 0
5.9500003 -1.3274254 0.81445658 0
5.9530005 -1.3381345 0.81467843 0
5.9550004 -1.3486201 0.81482637 0
5.9580002 -1.3593491 0.81504822 0
5.9610004 -1.3700891 0.81527007 0
5.9630003 -1.3805999 0.815418 0
5.9660006 -1.3913596 0.81563991 0
5.9690003 -1.4021301 0.8158617 0
5.9720001 -1.4129114 0.81608355 0
5.9740005 -1.4234565 0.81623149 0
5.9770002 -1.4342577 0.8164534 0
5.9800005 -1.4450698 0.81667531 0
5.9820004 -1.4556401 0.81682318 0
5.8960004 -1.0968554 0.80054921 0
5.8940005 -1.1063831 0.80040491 0
5.8970003 -1.1168777 0.80062139 0
5.8990002 -1.1271863 0.80076563 0
5.9020004 -1.1377008 0.80098212 0
5.9050002 -1.148226 0.8011986 0
5.9070005 -1.1585602 0.8013429 0
5.9100003 -1.1691051 0.80155933 0
5.9120002 -1.1794553 0.80170369 0
5.9150004 -1.1900203 0.80192012 0
5.9180002 -1.200596 0.80213654 0
5.9200006 -1.2109715 0.8022809 0
5.9230003 -1.2215672 0.80249733 0
5.9260006 -1.2321736 0.80271381 0
5.9280005 -1.2425742 0.80285811 0
5.9310002 -1.2532005 0.80307454 0
5.9340005 -1.2638376 0.80329102 0
5.9360003 -1.2742635 0.80343533 0
5.9390001 -1.2849203 0.80365175 0
5.9420004 -1.2955883 0.80386817 0
5.9450002 -1.3062667 0.80408466 0
5.9470005 -1.316727 0.80422902 0
5.9500003 -1.3274254 0.80444539 0
5.9530005 -1.3381345 0.80466193 0
5.9550004 -1.3486201 0.80480623 0
5.9580002 -1.3593491 0.80502266 0
5.9610004 -1.3700891 0.80523914 0
5.9630003 -1.3805999 0.80538344 0
5.9660006 -1.3913596 0.80559993 0
5.9690003 -1.4021301 0.80581629 0
5.9720001 -1.4129114 0.80603278 0
5.9740005 -1.4234565 0.80617714 0
5.9770002 -1.4342577 0.8063935 0
5.9800005 -1.4450698 0.80660999 0
5.9820004 -1.4556401 0.80675435 0
5.8960004 -1.0968554 0.79063547 0
5.8940005 -1.1063831 0.7904948 0
5.8970003 -1.1168777 0.7907058 0
5.8990002 -1.1271863 0.79084647 0
5.9020004 -1.1377008 0.79105759 0
5.9050002 -1.148226 0.79126859 0
5.9070005 -1.1585602 0.79140931 0
5.9100003 -1.1691051 0.79162037 0
5.9120002 -1.1794553 0.79176104 0
5.9150004 -1.1900203 0.7919721 0
5.9180002 -1.200596 0.79218316 0
5.9200006 -1.2109715 0.79232383 0
5.9230003 -1.2215672 0.79253489 0
5.9260006 -1.2321736 0.79274595 0
5.9280005 -1.2425742 0.79288661 0
5.9310002 -1.2532005 0.79309767 0
5.9340005 -1.2638376 0.79330873 0
5.9360003 -1.2742635 0.7934494 0
5.9390001 -1.2849203 0.7936604 0
5.9420004 -1.2955883 0.79387152 0
5.9450002 -1.3062667 0.79408252 0
5.9470005 -1.316727 0.79422331 0
5.9500003 -1.3274254 0.79443431 0
5.9530005 -1.3381345 0.79464537 0
5.9550004 -1.3486201 0.7947861 0
5.9580002 -1.3593491 0.7949971 0
5.9610004 -1.3700891 0.79520816 0
5.9630003 -1.3805999 0.79534882 0
5.9660006 -1.3913596 0.79555988 0
5.9690003 -1.4021301 0.79577088 0
5.9720001 -1.4129114 0.79598194 0
5.9740005 -1.4234565 0.79612267 0
5.9770002 -1.4342577 0.79633367 0
5.9800005 -1.4450698 0.79654479 0
5.9820004 -1.4556401 0.79668546 0
5.8960004 -1.0968554 0.78072178 0
5.8940005 -1.1063831 0.78058469 0
5.8970003 -1.1168777 0.78079033 0
5.8990002 -1.1271863 0.78092742 0
5.9020004 -1.1377008 0.78113306 0
5.9050002 -1.148226 0.78133863 0
5.9070005 -1.1585602 0.78147578 0
5.9100003 -1.1691051 0.78168136 0
5.9120002 -1.1794553 0.78181851 0
5.9150004 -1.1900203 0.78202415 0
5.9180002 -1.200596 0.78222972 0
5.9200006 -1.2109715 0.78236687 0
5.9230003 -1.2215672 0.78257245 0
5.9260006 -1.2321736 0.78277814 0
5.9280005 -1.2425742 0.78291517 0
5.9310002 -1.2532005 0.78312081 0
5.9340005 -1.2638376 0.78332651 0
5.9360003 -1.2742635 0.78346354 0
5.9390001 -1.2849203 0.78366911 0
5.9420004 -1.2955883 0.78387481 0
5.9450002 -1.3062667 0.78408045 0
5.9470005 -1.316727 0.78421754 0
5.9500003 -1.3274254 0.78442317 0
5.9530005 -1.3381345 0.78462887 0
5.9550004 -1.3486201 0.7847659 0
5.9580002 -1.3593491 0.78497154 0
5.9610004 -1.3700891 0.78517717 0
5.9630003 -1.3805999 0.78531426 0
5.9660006 -1.3913596 0.7855199 0
5.9690003 -1.4021301 0.78572547 0
5.9720001 -1.4129114 0.78593111 0
5.9740005 -1.4234565 0.78606826 0
5.9770002 -1.4342577 0.78627384 0
5.9800005 -1.4450698 0.78647947 0
5.9820004 -1.4556401 0.78661656 0
5.8960004 -1.0968554 0.77080798 0
5.8940005 -1.1063831 0.77067459 0
5.8970003 -1.1168777 0.77087474 0
5.8990002 -1.1271863 0.77100825 0
5.9020004 -1.1377008 0.77120847 0
5.9050002 -1.148226 0.77140868 0
5.9070005 -1.1585602 0.77154219 0
5.9100003 -1.1691051 0.7717424 0
5.9120002 -1.1794553 0.77187586 0
5.9150004 -1.1900203 0.77207613 0
5.9180002 -1.200596 0.77227628 0
5.9200006 -1.2109715 0.7724098 0
5.9230003 -1.2215672 0.77261007 0
5.9260006 -1.2321736 0.77281028 0
5.9280005 -1.2425742 0.77294374 0
5.9310002 -1.2532005 0.77314395 0
5.9340005 -1.2638376 0.77334416 0
5.9360003 -1.2742635 0.77347767 0
5.9390001 -1.2849203 0.77367789 0
5.9420004 -1.2955883 0.7738781 0
5.9450002 -1.3062667 0.77407837 0
5.9470005 -1.316727 0.77421182 0
5.9500003 -1.3274254 0.77441204 0
5.9530005 -1.3381345 0.77461231 0
5.9550004 -1.3486201 0.7747457 0
5.9580002 -1.3593491 0.77494597 0
5.9610004 -1.3700891 0.77514625 0
5.9630003 -1.3805999 0.77527964 0
5.9660006 -1.3913596 0.77547991 0
5.9690003 -1.4021301 0.77568012 0
5.9720001 -1.4129114 0.77588034 0
5.9740005 -1.4234565 0.77601385 0
5.9770002 -1.4342577 0.776214 0
5.9800005 -1.4450698 0.77641428 0
5.9820004 -1.4556401 0.77654779 0
5.8960004 -1.0968554 0.7608943 0
5.8940005 -1.1063831 0.76076442 0
5.8970003 -1.1168777 0.76095927 0
5.8990002 -1.1271863 0.76108909 0
5.9020004 -1.1377008 0.76128387 0
5.9050002 -1.148226 0.76147872 0
5.9070005 -1.1585602 0.7616086 0
5.9100003 -1.1691051 0.76180339 0
5.9120002 -1.1794553 0.76193333 0
5.9150004 -1.1900203 0.76212811 0
5.9180002 -1.200596 0.7623229 0
5.9200006 -1.2109715 0.76245284 0
5.9230003 -1.2215672 0.76264763 0
5.9260006 -1.2321736 0.76284242 0
5.9280005 -1.2425742 0.7629723 0
5.9310002 -1.2532005 0.76316708 0
5.9340005 -1.2638376 0.76336193 0
5.9360003 -1.2742635 0.76349175 0
5.9390001 -1.2849203 0.7636866 0
5.9420004 -1.2955883 0.76388144 0
5.9450002 -1.3062667 0.76407617 0
5.9470005 -1.316727 0.76420611 0
5.9500003 -1.3274254 0.7644009 0
5.9530005 -1.3381345 0.76459575 0
5.9550004 -1.3486201 0.76472557 0
5.9580002 -1.3593491 0.76492035 0
5.9610004 -1.3700891 0.7651152 0
5.9630003 -1.3805999 0.76524508 0
5.9660006 -1.3913596 0.76543993 0
5.9690003 -1.4021301 0.76563472 0
5.9720001 -1.4129114 0.7658295 0
5.9740005 -1.4234565 0.76595938 0
5.9770002 -1.4342577 0.76615417 0
5.9800005 -1.4450698 0.76634902 0
5.9820004 -1.4556401 0.7664789 0
5.8960004 -1.0968554 0.75098062 0
5.8940005 -1.1063831 0.75085425 0
5.8970003 -1.1168777 0.75104368 0
5.8990002 -1.1271863 0.75116992 0
5.9020004 -1.1377008 0.75135934 0
5.9050002 -1.148226 0.75154877 0
5.9070005 -1.1585602 0.75167501 0
5.9100003 -1.1691051 0.75186443 0
5.9120002 -1.1794553 0.75199068 0
5.9150004 -1.1900203 0.7521801 0
5.9180002 -1.200596 0.75236952 0
5.9200006 -1.2109715 0.75249577 0
5.9230003 -1.2215672 0.75268519 0
5.9260006 -1.2321736 0.75287461 0
5.9280005 -1.2425742 0.75300086 0
5.9310002 -1.2532005 0.75319022 0
5.9340005 -1.2638376 0.75337964 0
5.9360003 -1.2742635 0.75350589 0
5.9390001 -1.2849203 0.75369525 0
5.9420004 -1.2955883 0.75388467 0
5.9450002 -1.3062667 0.7540741 0
5.9470005 -1.316727 0.75420034 0
5.9500003 -1.3274254 0.75438976 0
5.9530005 -1.3381345 0.75457919 0
5.9550004 -1.3486201 0.75470543 0
5.9580002 -1.3593491 0.75489485 0
5.9610004 -1.3700891 0.75508422 0
5.9630003 -1.3805999 0.75521052 0
5.9660006 -1.3913596 0.75539994 0
5.9690003 -1.4021301 0.75558931 0
5.9720001 -1.4129114 0.75577867 0
5.9740005 -1.4234565 0.75590497 0
5.9770002 -1.4342577 0.75609434 0
5.9800005 -1.4450698 0.75628376 0
5.9820004 -1.4556401 0.75641 0
5.8960004 -1.0968554 0.74106681 0
5.8940005 -1.1063831 0.74094421 0
5.8970003 -1.1168777 0.74112821 0
5.8990002 -1.1271863 0.74125081 0
5.9020004 -1.1377008 0.74143481 0
5.9050002 -1.148226 0.74161875 0
5.9070005 -1.1585602 0.74174148 0
5.9100003 -1.1691051 0.74192548 0
5.9120002 -1.1794553 0.74204814 0
5.9150004 -1.1900203 0.74223208 0
5.9180002 -1.200596 0.74241602 0
5.9200006 -1.2109715 0.74253881 0
5.9230003 -1.2215672 0.74272275 0
5.9260006 -1.2321736 0.74290675 0
5.9280005 -1.2425742 0.74302936 0
5.9310002 -1.2532005 0.74321336 0
5.9340005 -1.2638376 0.74339736 0
5.9360003 -1.2742635 0.74352002 0
5.9390001 -1.2849203 0.74370396 0
5.9420004 -1.2955883 0.74388802 0
5.9450002 -1.3062667 0.74407196 0
5.9470005 -1.316727 0.74419463 0
5.9500003 -1.3274254 0.74437863 0
5.9530005 -1.3381345 0.74456263 0
5.9550004 -1.3486201 0.74468529 0
5.9580002 -1.3593491 0.74486923 0
5.9610004 -1.3700891 0.74505323 0
5.9630003 -1.3805999 0.74517596 0
5.9660006 -1.3913596 0.7453599 0
5.9690003 -1.4021301 0.7455439 0
5.9720001 -1.4129114 0.7457279 0
5.9740005 -1.4234565 0.74585056 0
5.9770002 -1.4342577 0.7460345 0
5.9800005 -1.4450698 0.74621856 0
5.9820004 -1.4556401 0.74634117 0
5.8960004 -1.0968554 0.73115313 0
5.8940005 -1.1063831 0.73103404 0
5.8970003 -1.1168777 0.73121262 0
5.8990002 -1.1271863 0.73133165 0
5.9020004 -1.1377008 0.73151028 0
5.9050002 -1.148226 0.73168886 0
5.9070005 -1.1585602 0.73180795 0
5.9100003 -1.1691051 0.73198646 0
5.9120002 -1.1794553 0.73210549 0
5.9150004 -1.1900203 0.73228407 0
5.9180002 -1.200596 0.73246264 0
5.9200006 -1.2109715 0.73258173 0
5.9230003 -1.2215672 0.73276031 0
5.9260006 -1.2321736 0.73293889 0
5.9280005 -1.2425742 0.73305798 0
5.9310002 -1.2532005 0.73323655 0
5.9340005 -1.2638376 0.73341513 0
5.9360003 -1.2742635 0.7335341 0
5.9390001 -1.2849203 0.73371267 0
5.9420004 -1.2955883 0.73389131 0
5.9450002 -1.3062667 0.73406982 0
5.9470005 -1.316727 0.73418891 0
5.9500003 -1.3274254 0.73436749 0
5.9530005 -1.3381345 0.73454607 0
5.9550004 -1.3486201 0.7346651 0
5.9580002 -1.3593491 0.73484367 0
5.9610004 -1.3700891 0.73502231 0
5.9630003 -1.3805999 0.73514134 0
5.9660006 -1.3913596 0.73531991 0
5.9690003 -1.4021301 0.73549849 0
5.9720001 -1.4129114 0.73567706 0
5.9740005 -1.4234565 0.73579609 0
5.9770002 -1.4342577 0.73597467 0
5.9800005 -1.4450698 0.73615324 0
5.9820004 -1.4556401 0.73627234 0
5.8960004 -1.0968554 0.72123939 0
5.8940005 -1.1063831 0.72112393 0
5.8970003 -1.1168777 0.72129709 0
5.8990002 -1.1271863 0.72141254 0
5.9020004 -1.1377008 0.72158575 0
5.9050002 -1.148226 0.72175884 0
5.9070005 -1.1585602 0.72187436 0
5.9100003 -1.1691051 0.72204745 0
5.9120002 -1.1794553 0.7221629 0
5.9150004 -1.1900203 0.72233605 0
5.9180002 -1.200596 0.72250926 0
5.9200006 -1.2109715 0.72262472 0
5.9230003 -1.2215672 0.72279787 0
5.9260006 -1.2321736 0.72297108 0
5.9280005 -1.2425742 0.72308648 0
5.9310002 -1.2532005 0.72325963 0
5.9340005 -1.2638376 0.72343278 0
5.9370003 -1.2744853 0.72360599 0
5.9390001 -1.2849203 0.72372139 0
5.9420004 -1.2955883 0.7238946 0
5.9450002 -1.3062667 0.72406775 0
5.9470005 -1.316727 0.7241832 0
5.9500003 -1.3274254 0.72435635 0
5.9530005 -1.3381345 0.7245295 0
5.9550004 -1.3486201 0.72464496 0
5.9580002 -1.3593491 0.72481811 0
5.9610004 -1.3700891 0.72499132 0
5.9630003 -1.3805999 0.72510672 0
5.9660006 -1.3913596 0.72527993 0
5.9690003 -1.4021301 0.72545308 0
5.9720001 -1.4129114 0.72562623 0
5.9740005 -1.4234565 0.72574168 0
5.9770002 -1.4342577 0.72591484 0
5.9800005 -1.4450698 0.72608805 0
5.9820004 -1.4556401 0.72620344 0
5.8960004 -1.0968554 0.71132565 0
5.8940005 -1.1063831 0.71121383 0
5.8970003 -1.1168777 0.71138155 0
5.8990002 -1.1271863 0.71149337 0
5.9020004 -1.1377008 0.71166116 0
5.9050002 -1.148226 0.71182889 0
5.9070005 -1.1585602 0.71194077 0
5.9100003 -1.1691051 0.71210849 0
5.9120002 -1.1794553 0.71222031 0
5.9150004 -1.1900203 0.7123881 0
5.9180002 -1.200596 0.71255583 0
5.9200006 -1.2109715 0.7126677 0
5.9230003 -1.2215672 0.71283543 0
5.9260006 -1.2321736 0.71300316 0
5.9280005 -1.2425742 0.71311504 0
5.9310002 -1.2532005 0.71328276 0
5.9340005 -1.2638376 0.71345055 0
5.9370003 -1.2744853 0.71361828 0
5.9390001 -1.2849203 0.7137301 0
5.9420004 -1.2955883 0.71389782 0
5.9450002 -1.3062667 0.71406561 0
5.9470005 -1.316727 0.71417749 0
5.9500003 -1.3274254 0.71434522 0
5.9530005 -1.3381345 0.714513 0
5.9550004 -1.3486201 0.71462482 0
5.9580002 -1.3593491 0.71479255 0
5.9610004 -1.3700891 0.71496034 0
5.9630003 -1.3805999 0.71507215 0
5.9660006 -1.3913596 0.71523994 0
5.9690003 -1.4021301 0.71540767 0
5.9720001 -1.4129114 0.7155754 0
5.9740005 -1.4234565 0.71568727 0
5.9770002 -1.4342577 0.715855 0
5.9800005 -1.4450698 0.71602273 0
5.9820004 -1.4556401 0.71613461 0
5.8960004 -1.0968554 0.7014119 0
5.8940005 -1.1063831 0.70130372 0
5.8970003 -1.1168777 0.70146602 0
5.8990002 -1.1271863 0.70157421 0
5.9020004 -1.1377008 0.70173657 0
5.9050002 -1.148226 0.70189893 0
5.9070005 -1.1585602 0.70200717 0
5.9100003 -1.1691051 0.70216954 0
5.9120002 -1.1794553 0.70227772 0
5.9150004 -1.1900203 0.70244008 0
5.9180002 -1.200596 0.70260239 0
5.9200006 -1.2109715 0.70271063 0
5.9230003 -1.2215672 0.70287299 0
5.9260006 -1.2321736 0.70303535 0
5.9280005 -1.2425742 0.7031436 0
5.9310002 -1.2532005 0.7033059 0
5.9340005 -1.2638376 0.70346826 0
5.9370003 -1.2744853 0.70363057 0
5.9390001 -1.2849203 0.70373881 0
5.9420004 -1.2955883 0.70390117 0
5.9450002 -1.3062667 0.70406353 0
5.9470005 -1.316727 0.70417178 0
5.9500003 -1.3274254 0.70433408 0
5.9530005 -1.3381345 0.70449644 0
5.9550004 -1.3486201 0.70460463 0
5.9580002 -1.3593491 0.70476699 0
5.9610004 -1.3700891 0.70492935 0
5.9630003 -1.3805999 0.70503759 0
5.9660006 -1.3913596 0.70519996 0
5.9690003 -1.4021301 0.70536226 0
5.9720001 -1.4129114 0.70552456 0
5.9740005 -1.4234565 0.70563281 0
5.9770002 -1.4342577 0.70579517 0
5.9800005 -1.4450698 0.70595753 0
5.9820004 -1.4556401 0.70606577 0
5.8960004 -1.0968554 0.69149816 0
5.8940005 -1.1063831 0.69139361 0
5.8970003 -1.1168777 0.69155049 0
5.8990002 -1.1271863 0.69165516 0
5.9020004 -1.1377008 0.69181204 0
5.9050002 -1.148226 0.69196898 0
5.9070005 -1.1585602 0.69207358 0
5.9100003 -1.1691051 0.69223052 0
5.9120002 -1.1794553 0.69233513 0
5.9150004 -1.1900203 0.69249213 0
5.9180002 -1.200596 0.69264901 0
5.9200006 -1.2109715 0.69275367 0
5.9230003 -1.2215672 0.69291055 0
5.9260006 -1.2321736 0.69306755 0
5.9280005 -1.2425742 0.6931721 0
5.9310002 -1.2532005 0.69332904 0
5.9340005 -1.2638376 0.69348598 0
5.9370003 -1.2744853 0.69364285 0
5.9390001 -1.2849203 0.69374752 0
5.9420004 -1.2955883 0.69390446 0
5.9450002 -1.3062667 0.6940614 0
5.9470005 -1.316727 0.694166 0
5.9500003 -1.3274254 0.69432294 0
5.9530005 -1.3381345 0.69447994 0
5.9550004 -1.3486201 0.69458449 0
5.9580002 -1.3593491 0.69474143 0
5.9610004 -1.3700891 0.69489837 0
5.9630003 -1.3805999 0.69500303 0
5.9660006 -1.3913596 0.69515991 0
5.9690003 -1.4021301 0.69531685 0
5.9720001 -1.4129114 0.69547379 0
5.9740005 -1.4234565 0.6955784 0
5.9770002 -1.4342577 0.69573534 0
5.9800005 -1.4450698 0.69589227 0
5.9820004 -1.4556401 0.69599688 0
5.8960004 -1.0968554 0.68158448 0
5.8940005 -1.1063831 0.68148345 0
5.8970003 -1.1168777 0.68163496 0
5.8990002 -1.1271863 0.68173599 0
5.9020004 -1.1377008 0.68188751 0
5.9050002 -1.148226 0.68203902 0
5.9070005 -1.1585602 0.68214005 0
5.9100003 -1.1691051 0.68229151 0
5.9120002 -1.1794553 0.68239254 0
5.9150004 -1.1900203 0.68254411 0
5.9180002 -1.200596 0.68269563 0
5.9200006 -1.2109715 0.6827966 0
5.9230003 -1.2215672 0.68294811 0
5.9260006 -1.2321736 0.68309963 0
5.9280005 -1.2425742 0.68320072 0
5.9310002 -1.2532005 0.68335223 0
5.9340005 -1.2638376 0.68350375 0
5.9370003 -1.2744853 0.68365526 0
5.9390001 -1.2849203 0.68375623 0
5.9420004 -1.2955883 0.68390775 0
5.9450002 -1.3062667 0.68405926 0
5.9470005 -1.316727 0.68416029 0
5.9500003 -1.3274254 0.68431181 0
5.9530005 -1.3381345 0.68446332 0
5.9550004 -1.3486201 0.68456435 0
5.9580002 -1.3593491 0.68471587 0
5.9610004 -1.3700891 0.68486738 0
5.9630003 -1.3805999 0.68496841 0
5.9660006 -1.3913596 0.68511993 0
5.9690003 -1.4021301 0.68527144 0
5.9720001 -1.4129114 0.68542296 0
5.9740005 -1.4234565 0.68552399 0
5.9770002 -1.4342577 0.6856755 0
5.9800005 -1.4450698 0.68582702 0
5.9820004 -1.4556401 0.68592799 0
5.8960004 -1.0968554 0.67167073 0
5.8940005 -1.1063831 0.67157334 0
5.8970003 -1.1168777 0.67171943 0
5.8990002 -1.1271863 0.67181683 0
5.9020004 -1.1377008 0.67196298 0
5.9050002 -1.148226 0.67210907 0
5.9070005 -1.1585602 0.67220646 0
5.9100003 -1.1691051 0.67235255 0
5.9120002 -1.1794553 0.67244995 0
5.9150004 -1.1900203 0.6725961 0
5.9180002 -1.200596 0.67274219 0
5.9200006 -1.2109715 0.67283958 0
5.9230003 -1.2215672 0.67298567 0
5.9260006 -1.2321736 0.67313182 0
5.9280005 -1.2425742 0.67322922 0
5.9310002 -1.2532005 0.67337531 0
5.9340005 -1.2638376 0.67352146 0
5.9370003 -1.2744853 0.67366755 0
5.9390001 -1.2849203 0.67376494 0
5.9420004 -1.2955883 0.67391104 0
5.9450002 -1.3062667 0.67405713 0
5.9470005 -1.316727 0.67415458 0
5.9500003 -1.3274254 0.67430067 0
5.9530005 -1.3381345 0.67444682 0
5.9550004 -1.3486201 0.67454422 0
5.9580002 -1.3593491 0.67469031 0
5.9610004 -1.3700891 0.6748364 0
5.9630003 -1.3805999 0.67493379 0
5.9660006 -1.3913596 0.67507994 0
5.9690003 -1.4021301 0.67522603 0
5.9720001 -1.4129114 0.67537212 0
5.9740005 -1.4234565 0.67546952 0
5.9770002 -1.4342577 0.67561567 0
5.9800005 -1.4450698 0.67576176 0
5.9820004 -1.4556401 0.67585915 0
5.8960004 -1.0968554 0.66175699 0
5.8940005 -1.1063831 0.66166317 0
5.8970003 -1.1168777 0.6618039 0
5.8990002 -1.1271863 0.66189766 0
5.9020004 -1.1377008 0.66203839 0
5.9050002 -1.148226 0.66217911 0
5.9070005 -1.1585602 0.66227287 0
5.9100003 -1.1691051 0.6624136 0
5.9120002 -1.1794553 0.66250736 0
5.9150004 -1.1900203 0.66264808 0
5.9180002 -1.200596 0.66278875 0
5.9200006 -1.2109715 0.66288257 0
5.9230003 -1.2215672 0.66302323 0
5.9260006 -1.2321736 0.66316396 0
5.9280005 -1.2425742 0.66325778 0
5.9310002 -1.2532005 0.66339844 0
5.9340005 -1.2638376 0.66353917 0
5.9370003 -1.2744853 0.66367984 0
5.9390001 -1.2849203 0.66377366 0
5.9420004 -1.2955883 0.66391432 0
5.9450002 -1.3062667 0.66405499 0
5.9470005 -1.316727 0.66414887 0
5.9500003 -1.3274254 0.66428953 0
5.9530005 -1.3381345 0.66443026 0
5.9550004 -1.3486201 0.66452408 0
5.9580002 -1.3593491 0.66466475 0
5.9610004 -1.3700891 0.66480541 0
5.9630003 -1.3805999 0.66489923 0
5.9660006 -1.3913596 0.66503996 0
5.9690003 -1.4021301 0.66518062 0
5.9720001 -1.4129114 0.66532129 0
5.9740005 -1.4234565 0.66541517 0
5.9770002 -1.4342577 0.66555583 0
5.9800005 -1.4450698 0.6656965 0
5.9820004 -1.4556401 0.66579032 0
5.8960004 -1.0968554 0.65184325 0
5.8940005 -1.1063831 0.65175307 0
5.8970003 -1.1168777 0.65188837 0
5.8990002 -1.1271863 0.65197855 0
5.9020004 -1.1377008 0.6521138 0
5.9050002 -1.148226 0.6522491 0
5.9070005 -1.1585602 0.65233934 0
5.9100003 -1.1691051 0.65247458 0
5.9120002 -1.1794553 0.65256476 0
5.9150004 -1.1900203 0.65270007 0
5.9180002 -1.200596 0.65283537 0
5.9200006 -1.2109715 0.65292555 0
5.9230003 -1.2215672 0.65306085 0
5.9260006 -1.2321736 0.6531961 0
5.9280005 -1.2425742 0.65328634 0
5.9310002 -1.2532005 0.65342158 0
5.9340005 -1.2638376 0.65355688 0
5.9370003 -1.2744853 0.65369213 0
5.9390001 -1.2849203 0.65378237 0
5.9420004 -1.2955883 0.65391767 0
5.9450002 -1.3062667 0.65405291 0
5.9470005 -1.316727 0.6541431 0
5.9500003 -1.3274254 0.6542784 0
5.9530005 -1.3381345 0.6544137 0
5.9550004 -1.3486201 0.65450388 0
5.9580002 -1.3593491 0.65463912 0
5.9610004 -1.3700891 0.65477443 0
5.9630003 -1.3805999 0.65486467 0
5.9660006 -1.3913596 0.65499997 0
5.9690003 -1.4021301 0.65513521 0
5.9720001 -1.4129114 0.65527046 0
5.9740005 -1.4234565 0.6553607 0
5.9770002 -1.4342577 0.655496 0
5.9800005 -1.4450698 0.6556313 0
5.9820004 -1.4556401 0.65572143 0
5.8960004 -1.0968554 0.64192951 0
5.8940005 -1.1063831 0.64184296 0
5.8970003 -1.1168777 0.64197284 0
5.8990002 -1.1271863 0.64205939 0
5.9020004 -1.1377008 0.64218926 0
5.9050002 -1.148226 0.64231914 0
5.9070005 -1.1585602 0.64240575 0
5.9100003 -1.1691051 0.64253563 0
5.9120002 -1.1794553 0.64262217 0
5.9150004 -1.1900203 0.64275211 0
5.9180002 -1.200596 0.64288193 0
5.9200006 -1.2109715 0.64296854 0
5.9230003 -1.2215672 0.64309841 0
5.9260006 -1.2321736 0.64322829 0
5.9280005 -1.2425742 0.64331484 0
5.9310002 -1.2532005 0.64344472 0
5.9340005 -1.2638376 0.6435746 0
5.9370003 -1.2744853 0.64370447 0
5.9390001 -1.2849203 0.64379108 0
5.9420004 -1.2955883 0.64392096 0
5.9450002 -1.3062667 0.64405084 0
5.9470005 -1.316727 0.64413738 0
5.9500003 -1.3274254 0.64426726 0
5.9530005 -1.3381345 0.64439714 0
5.9550004 -1.3486201 0.64448375 0
5.9580002 -1.3593491 0.64461362 0
5.9610004 -1.3700891 0.64474344 0
5.9630003 -1.3805999 0.64483005 0
5.9660006 -1.3913596 0.64495993 0
5.9690003 -1.4021301 0.64508981 0
5.9720001 -1.4129114 0.64521968 0
5.9740005 -1.4234565 0.64530623 0
5.9770002 -1.4342577 0.64543617 0
5.9800005 -1.4450698 0.64556605 0
5.9820004 -1.4556401 0.64565259 0
5.8960004 -1.0968554 0.63201582 0
5.8940005 -1.1063831 0.63193285 0
5.8970003 -1.1168777 0.63205731 0
5.8990002 -1.1271863 0.63214028 0
5.9020004 -1.1377008 0.63226473 0
5.9050002 -1.148226 0.63238919 0
5.9070005 -1.1585602 0.63247216 0
5.9100003 -1.1691051 0.63259661 0
5.9120002 -1.1794553 0.63267958 0
5.9150004 -1.1900203 0.6328041 0
5.9180002 -1.200596 0.63292849 0
5.9200006 -1.2109715 0.63301152 0
5.9230003 -1.2215672 0.63313597 0
5.9260006 -1.2321736 0.63326043 0
5.9280005 -1.2425742 0.6333434 0
5.9310002 -1.2532005 0.63346785 0
5.9340005 -1.2638376 0.63359237 0
5.9370003 -1.2744853 0.63371682 0
5.9390001 -1.2849203 0.63379979 0
5.9420004 -1.2955883 0.63392425 0
5.9450002 -1.3062667 0.6340487 0
5.9470005 -1.316727 0.63413167 0
5.9500003 -1.3274254 0.63425612 0
5.9530005 -1.3381345 0.63438058 0
5.9550004 -1.3486201 0.63446355 0
5.9580002 -1.3593491 0.634588 0
5.9610004 -1.3700891 0.63471252 0
5.9630003 -1.3805999 0.63479549 0
5.9660006 -1.3913596 0.63491994 0
5.9690003 -1.4021301 0.6350444 0
5.9720001 -1.4129114 0.63516885 0
5.9740005 -1.4234565 0.63525188 0
5.9770002 -1.4342577 0.63537627 0
5.9800005 -1.4450698 0.63550079 0
5.9820004 -1.4556401 0.63558376 0
5.8960004 -1.0968554 0.62210208 0
5.8940005 -1.1063831 0.62202275 0
5.8970003 -1.1168777 0.62214178 0
5.8990002 -1.1271863 0.62222111 0
5.9020004 -1.1377008 0.6223402 0
5.9050002 -1.148226 0.62245923 0
5.9070005 -1.1585602 0.62253857 0
5.9100003 -1.1691051 0.62265766 0
5.9120002 -1.1794553 0.62273699 0
5.9150004 -1.1900203 0.62285608 0
5.9180002 -1.200596 0.62297511 0
5.9200006 -1.2109715 0.6230545 0
5.9230003 -1.2215672 0.62317353 0
5.9260006 -1.2321736 0.62329262 0
5.9280005 -1.2425742 0.62337196 0
5.9310002 -1.2532005 0.62349099 0
5.9340005 -1.2638376 0.62361008 0
5.9370003 -1.2744853 0.62372911 0
5.9390001 -1.2849203 0.6238085 0
5.9420004 -1.2955883 0.62392753 0
5.9450002 -1.3062667 0.62404656 0
5.9470005 -1.316727 0.62412596 0
5.9500003 -1.3274254 0.62424499 0
5.9530005 -1.3381345 0.62436402 0
5.9550004 -1.3486201 0.62444341 0
5.9580002 -1.3593491 0.62456244 0
5.9610004 -1.3700891 0.62468153 0
5.9630003 -1.3805999 0.62476087 0
5.9660006 -1.3913596 0.62487996 0
5.9690003 -1.4021301 0.62499899 0
5.9720001 -1.4129114 0.62511802 0
5.9740005 -1.4234565 0.62519741 0
5.9770002 -1.4342577 0.62531644 0
5.9800005 -1.4450698 0.62543553 0
5.9820004 -1.4556401 0.62551486 0
5.8960004 -1.0968554 0.61218834 0
5.8940005 -1.1063831 0.61211258 0
5.8970003 -1.1168777 0.61222625 0
5.8990002 -1.1271863 0.61230195 0
5.9020004 -1.1377008 0.61241561 0
5.9050002 -1.148226 0.61252928 0
5.9070005 -1.1585602 0.61260504 0
5.9100003 -1.1691051 0.6127187 0
5.9120002 -1.1794553 0.6127944 0
5.9150004 -1.1900203 0.61290807 0
5.9180002 -1.200596 0.61302173 0
5.9200006 -1.2109715 0.61309749 0
5.9230003 -1.2215672 0.6132111 0
5.9260006 -1.2321736 0.61332476 0
5.9280005 -1.2425742 0.61340052 0
5.9310002 -1.2532005 0.61351413 0
5.9340005 -1.2638376 0.61362779 0
5.9370003 -1.2744853 0.6137414 0
5.9390001 -1.2849203 0.61381716 0
5.9420004 -1.2955883 0.61393082 0
5.9450002 -1.3062667 0.61404443 0
5.9470005 -1.316727 0.61412024 0
5.9500003 -1.3274254 0.61423385 0
5.9530005 -1.3381345 0.61434752 0
5.9550004 -1.3486201 0.61442327 0
5.9580002 -1.3593491 0.61453688 0
5.9610004 -1.3700891 0.61465055 0
5.9630003 -1.3805999 0.61472631 0
5.9660006 -1.3913596 0.61483997 0
5.9690003 -1.4021301 0.61495358 0
5.9720001 -1.4129114 0.61506724 0
5.9740005 -1.4234565 0.615143 0
5.9770002 -1.4342577 0.61525661 0
5.9800005 -1.4450698 0.61537027 0
5.9820004 -1.4556401 0.61544603 0
5.8960004 -1.0968554 0.6022746 0
5.8940005 -1.1063831 0.60220248 0
5.8970003 -1.1168777 0.60231066 0
5.8990002 -1.1271863 0.60238284 0
5.9020004 -1.1377008 0.60249108 0
5.9050002 -1.148226 0.60259932 0
5.9070005 -1.1585602 0.60267144 0
5.9100003 -1.1691051 0.60277969 0
5.9120002 -1.1794553 0.60285187 0
5.9150004 -1.1900203 0.60296005 0
5.9180002 -1.200596 0.60306829 0
5.9200006 -1.2109715 0.60314047 0
5.9230003 -1.2215672 0.60324866 0
5.9260006 -1.2321736 0.6033569 0
5.9280005 -1.2425742 0.60342908 0
5.9310002 -1.2532005 0.60353726 0
5.9340005 -1.2638376 0.6036455 0
5.9370003 -1.2744853 0.60375375 0
5.9390001 -1.2849203 0.60382587 0
5.9420004 -1.2955883 0.60393411 0
5.9450002 -1.3062667 0.60404235 0
5.9470005 -1.316727 0.60411453 0
5.9500003 -1.3274254 0.60422271 0
5.9530005 -1.3381345 0.60433096 0
5.9550004 -1.3486201 0.60440314 0
5.9580002 -1.3593491 0.60451132 0
5.9610004 -1.3700891 0.60461956 0
5.9630003 -1.3805999 0.60469174 0
5.9660006 -1.3913596 0.60479999 0
5.9690003 -1.4021301 0.60490817 0
5.9720001 -1.4129114 0.60501641 0
5.9740005 -1.4234565 0.60508859 0
5.9770002 -1.4342577 0.60519677 0
5.9800005 -1.4450698 0.60530502 0
5.9820004 -1.4556401 0.6053772 0
5.8960004 -1.0968554 0.59236085 0
5.8940005 -1.1063831 0.59229237 0
5.8970003 -1.1168777 0.59239519 0
5.8990002 -1.1271863 0.59246373 0
5.9020004 -1.1377008 0.59256655 0
5.9050002 -1.148226 0.59266931 0
5.9070005 -1.1585602 0.59273791 0
5.9100003 -1.1691051 0.59284067 0
5.9120002 -1.1794553 0.59290922 0
5.9150004 -1.1900203 0.59301209 0
5.9180002 -1.200596 0.59311485 0
5.9200006 -1.2109715 0.5931834 0
5.9230003 -1.2215672 0.59328622 0
5.9260006 -1.2321736 0.59338903 0
5.9280005 -1.2425742 0.59345758 0
5.9310002 -1.2532005 0.5935604 0
5.9340005 -1.2638376 0.59366322 0
5.9370003 -1.2744853 0.59376603 0
5.9390001 -1.2849203 0.59383458 0
5.9420004 -1.2955883 0.5939374 0
5.9450002 -1.3062667 0.59404022 0
5.9470005 -1.316727 0.59410876 0
5.9500003 -1.3274254 0.59421158 0
5.9530005 -1.3381345 0.59431446 0
5.9550004 -1.3486201 0.59438294 0
5.9580002 -1.3593491 0.59448576 0
5.9610004 -1.3700891 0.59458858 0
5.9630003 -1.3805999 0.59465712 0
5.9660006 -1.3913596 0.59475994 0
5.9690003 -1.4021301 0.59486276 0
5.9720001 -1.4129114 0.59496558 0
5.9740005 -1.4234565 0.59503412 0
5.9770002 -1.4342577 0.59513694 0
5.9800005 -1.4450698 0.59523976 0
5.9820004 -1.4556401 0.5953083 0
5.8960004 -1.0968554 0.58244717 0
5.8940005 -1.1063831 0.5823822 0
5.8970003 -1.1168777 0.5824796 0
5.8990002 -1.1271863 0.58254457 0
5.9020004 -1.1377008 0.58264196 0
5.9050002 -1.148226 0.58273935 0
5.9070005 -1.1585602 0.58280432 0
5.9100003 -1.1691051 0.58290172 0
5.9120002 -1.1794553 0.58296669 0
5.9150004 -1.1900203 0.58306408 0
5.9180002 -1.200596 0.58316147 0
5.9200006 -1.2109715 0.58322644 0
5.9230003 -1.2215672 0.58332384 0
5.9260006 -1.2321736 0.58342123 0
5.9280005 -1.2425742 0.58348614 0
5.9310002 -1.2532005 0.58358353 0
5.9340005 -1.2638376 0.58368099 0
5.9370003 -1.2744853 0.58377838 0
5.9390001 -1.2849203 0.58384329 0
5.9420004 -1.2955883 0.58394074 0
5.9450002 -1.3062667 0.58403808 0
5.9470005 -1.316727 0.58410305 0
5.9500003 -1.3274254 0.58420044 0
5.9530005 -1.3381345 0.5842979 0
5.9550004 -1.3486201 0.5843628 0
5.9580002 -1.3593491 0.5844602 0
5.9610004 -1.3700891 0.58455759 0
5.9630003 -1.3805999 0.58462256 0
5.9660006 -1.3913596 0.58471996 0
5.9690003 -1.4021301 0.58481735 0
5.9720001 -1.4129114 0.58491474 0
5.9740005 -1.4234565 0.58497971 0
5.9770002 -1.4342577 0.58507711 0
5.9800005 -1.4450698 0.5851745 0
5.9820004 -1.4556401 0.58523947 0
5.8960004 -1.0968554 0.57253343 0
5.8940005 -1.1063831 0.5724721 0
5.8970003 -1.1168777 0.57256413 0
5.8990002 -1.1271863 0.5726254 0
5.9020004 -1.1377008 0.57271743 0
5.9050002 -1.148226 0.5728094 0
5.9070005 -1.1585602 0.57287073 0
5.9100003 -1.1691051 0.57296276 0
5.9120002 -1.1794553 0.57302403 0
5.9150004 -1.1900203 0.57311606 0
5.9180002 -1.200596 0.57320803 0
5.9200006 -1.2109715 0.57326937 0
5.9230003 -1.2215672 0.5733614 0
5.9260006 -1.2321736 0.57345337 0
5.9280005 -1.2425742 0.5735147 0
5.9310002 -1.2532005 0.57360667 0
5.9340005 -1.2638376 0.5736987 0
5.9370003 -1.2744853 0.57379067 0
5.9390001 -1.2849203 0.573852 0
5.9420004 -1.2955883 0.57394397 0
5.9450002 -1.3062667 0.574036 0
5.9470005 -1.316727 0.57409734 0
5.9500003 -1.3274254 0.57418931 0
5.9530005 -1.3381345 0.57428133 0
5.9550004 -1.3486201 0.57434267 0
5.9580002 -1.3593491 0.57443464 0
5.9610004 -1.3700891 0.57452661 0
5.9630003 -1.3805999 0.57458794 0
5.9660006 -1.3913596 0.57467997 0
5.9690003 -1.4021301 0.57477194 0
5.9720001 -1.4129114 0.57486391 0
5.9740005 -1.4234565 0.5749253 0
5.9770002 -1.4342577 0.57501727 0
5.9800005 -1.4450698 0.57510924 0
5.9820004 -1.4556401 0.57517058 0
5.8960004 -1.0968554 0.56261969 0
5.8940005 -1.1063831 0.56256199 0
5.8970003 -1.1168777 0.56264853 0
5.8990002 -1.1271863 0.56270629 0
5.9020004 -1.1377008 0.5627929 0
5.9050002 -1.148226 0.56287944 0
5.9070005 -1.1585602 0.56293714 0
5.9100003 -1.1691051 0.56302375 0
5.9120002 -1.1794553 0.56308144 0
5.9150004 -1.1900203 0.56316805 0
5.9180002 -1.200596 0.56325459 0
5.9200006 -1.2109715 0.56331235 0
5.9230003 -1.2215672 0.56339896 0
5.9260006 -1.2321736 0.5634855 0
5.9280005 -1.2425742 0.56354326 0
5.9310002 -1.2532005 0.56362981 0
5.9340005 -1.2638376 0.56371641 0
5.9370003 -1.2744853 0.56380296 0
5.9390001 -1.2849203 0.56386071 0
5.9420004 -1.2955883 0.56394732 0
5.9450002 -1.3062667 0.56403387 0
5.9470005 -1.316727 0.56409162 0
5.9500003 -1.3274254 0.56417817 0
5.9530005 -1.3381345 0.56426477 0
5.9550004 -1.3486201 0.56432247 0
5.9580002 -1.3593491 0.56440908 0
5.9610004 -1.3700891 0.56449568 0
5.9630003 -1.3805999 0.56455338 0
5.9660006 -1.3913596 0.56463999 0
5.9690003 -1.4021301 0.56472653 0
5.9720001 -1.4129114 0.56481314 0
5.9740005 -1.4234565 0.56487083 0
5.9770002 -1.4342577 0.56495744 0
5.9800005 -1.4450698 0.56504405 0
5.9820004 -1.4556401 0.56510174 0
5.8960004 -1.0968554 0.55270594 0
5.8940005 -1.1063831 0.55265188 0
5.8970003 -1.1168777 0.552733 0
5.8990002 -1.1271863 0.55278713 0
5.9020004 -1.1377008 0.55286831 0
5.9050002 -1.148226 0.55294949 0
5.9070005 -1.1585602 0.55300361 0
5.9100003 -1.1691051 0.55308473 0
5.9120002 -1.1794553 0.55313885 0
5.9150004 -1.1900203 0.55322003 0
5.9180002 -1.200596 0.55330122 0
5.9200006 -1.2109715 0.55335534 0
5.9230003 -1.2215672 0.55343652 0
5.9260006 -1.2321736 0.5535177 0
5.9280005 -1.2425742 0.55357182 0
5.9310002 -1.2532005 0.55365294 0
5.9340005 -1.2638376 0.55373412 0
5.9370003 -1.2744853 0.55381531 0
5.9390001 -1.2849203 0.55386943 0
5.9420004 -1.2955883 0.55395061 0
5.9450002 -1.3062667 0.55403173 0
5.9470005 -1.316727 0.55408591 0
5.9500003 -1.3274254 0.55416703 0
5.9530005 -1.3381345 0.55424821 0
5.9550004 -1.3486201 0.55430233 0
5.9580002 -1.3593491 0.55438352 0
5.9610004 -1.3700891 0.5544647 0
5.9630003 -1.3805999 0.55451882 0
5.9660006 -1.3913596 0.5546 0
5.9690003 -1.4021301 0.55468112 0
5.9720001 -1.4129114 0.5547623 0
5.9740005 -1.4234565 0.55481642 0
5.9770002 -1.4342577 0.55489755 0
5.9800005 -1.4450698 0.55497873 0
5.9820004 -1.4556401 0.55503285 0
5.8960004 -1.0968554 0.5427922 0
5.8940005 -1.1063831 0.54274172 0
5.8970003 -1.1168777 0.54281747 0
5.8990002 -1.1271863 0.54286802 0
5.9020004 -1.1377008 0.54294378 0
5.9050002 -1.148226 0.54301953 0
5.9070005 -1.1585602 0.54307002 0
5.9100003 -1.1691051 0.54314578 0
5.9120002 -1.1794553 0.54319626 0
5.9150004 -1.1900203 0.54327202 0
5.9180002 -1.200596 0.54334784 0
5.9200006 -1.2109715 0.54339832 0
5.9230003 -1.2215672 0.54347408 0
5.9260006 -1.2321736 0.54354984 0
5.9280005 -1.2425742 0.54360032 0
5.9310002 -1.2532005 0.54367614 0
5.9340005 -1.2638376 0.54375184 0
5.9370003 -1.2744853 0.54382765 0
5.9390001 -1.2849203 0.54387814 0
5.9420004 -1.2955883 0.5439539 0
5.9450002 -1.3062667 0.54402965 0
5.9470005 -1.316727 0.54408014 0
5.9500003 -1.3274254 0.5441559 0
5.9530005 -1.3381345 0.54423165 0
5.9550004 -1.3486201 0.5442822 0
5.9580002 -1.3593491 0.54435796 0
5.9610004 -1.3700891 0.54443371 0
5.9630003 -1.3805999 0.5444842 0
5.9660006 -1.3913596 0.54455996 0
5.9690003 -1.4021301 0.54463571 0
5.9720001 -1.4129114 0.54471147 0
5.9740005 -1.4234565 0.54476202 0
5.9770002 -1.4342577 0.54483777 0
5.9800005 -1.4450698 0.54491353 0
5.9820004 -1.4556401 0.54496402 0
5.8960004 -1.0968554 0.53287852 0
5.8940005 -1.1063831 0.53283161 0
5.8970003 -1.1168777 0.53290194 0
5.8990002 -1.1271863 0.53294885 0
5.9020004 -1.1377008 0.53301919 0
5.9050002 -1.148226 0.53308952 0
5.9070005 -1.1585602 0.53313643 0
5.9100003 -1.1691051 0.53320682 0
5.9120002 -1.1794553 0.53325367 0
5.9150004 -1.1900203 0.53332406 0
5.9180002 -1.200596 0.5333944 0
5.9200006 -1.2109715 0.53344131 0
5.9230003 -1.2215672 0.53351164 0
5.9260006 -1.2321736 0.53358197 0
5.9280005 -1.2425742 0.53362888 0
5.9310002 -1.2532005 0.53369921 0
5.9340005 -1.2638376 0.53376961 0
5.9370003 -1.2744853 0.53383994 0
5.9390001 -1.2849203 0.53388685 0
5.9420004 -1.2955883 0.53395718 0
5.9450002 -1.3062667 0.53402752 0
5.9470005 -1.316727 0.53407443 0
5.9500003 -1.3274254 0.53414476 0
5.9530005 -1.3381345 0.53421509 0
5.9550004 -1.3486201 0.53426206 0
5.9580002 -1.3593491 0.53433239 0
5.9610004 -1.3700891 0.53440273 0
5.9630003 -1.3805999 0.53444964 0
5.9660006 -1.3913596 0.53451997 0
5.9690003 -1.4021301 0.5345903 0
5.9720001 -1.4129114 0.53466064 0
5.9740005 -1.4234565 0.53470755 0
5.9770002 -1.4342577 0.53477788 0
5.9800005 -1.4450698 0.53484827 0
5.9820004 -1.4556401 0.53489518 0
5.8960004 -1.0968554 0.52296478 0
5.8940005 -1.1063831 0.5229215 0
5.8970003 -1.1168777 0.52298641 0
5.8990002 -1.1271863 0.52302969 0
5.9020004 -1.1377008 0.52309465 0
5.9050002 -1.148226 0.52315956 0
5.9070005 -1.1585602 0.5232029 0
5.9100003 -1.1691051 0.52326781 0
5.9120002 -1.1794553 0.52331108 0
5.9150004 -1.1900203 0.52337605 0
5.9180002 -1.200596 0.52344096 0
5.9200006 -1.2109715 0.52348429 0
5.9230003 -1.2215672 0.5235492 0
5.9260006 -1.2321736 0.52361417 0
5.9280005 -1.2425742 0.52365744 0
5.9310002 -1.2532005 0.52372235 0
5.9340005 -1.2638376 0.52378732 0
5.9370003 -1.2744853 0.52385223 0
5.9390001 -1.2849203 0.52389556 0
5.9420004 -1.2955883 0.52396047 0
5.9450002 -1.3062667 0.52402544 0
5.9470005 -1.316727 0.52406871 0
5.9500003 -1.3274254 0.52413362 0
5.9530005 -1.3381345 0.52419859 0
5.9550004 -1.3486201 0.52424186 0
5.9580002 -1.3593491 0.52430677 0
5.9610004 -1.3700891 0.52437174 0
5.9630003 -1.3805999 0.52441502 0
5.9660006 -1.3913596 0.52447999 0
5.9690003 -1.4021301 0.52454489 0
5.9720001 -1.4129114 0.52460986 0
5.9740005 -1.4234565 0.52465314 0
5.9770002 -1.4342577 0.52471805 0
5.9800005 -1.4450698 0.52478302 0
5.9820004 -1.4556401 0.52482629 0
5.8960004 -1.0968554 0.51305103 0
5.8940005 -1.1063831 0.51301134 0
5.8970003 -1.1168777 0.51307088 0
5.8990002 -1.1271863 0.51311058 0
5.9020004 -1.1377008 0.51317012 0
5.9050002 -1.148226 0.51322961 0
5.9070005 -1.1585602 0.51326931 0
5.9100003 -1.1691051 0.51332885 0
5.9120002 -1.1794553 0.51336849 0
5.9150004 -1.1900203 0.51342803 0
5.9180002 -1.200596 0.51348758 0
5.9200006 -1.2109715 0.51352727 0
5.9230003 -1.2215672 0.51358676 0
5.9260006 -1.2321736 0.5136463 0
5.9280005 -1.2425742 0.513686 0
5.9310002 -1.2532005 0.51374549 0
5.9340005 -1.2638376 0.51380503 0
5.9370003 -1.2744853 0.51386458 0
5.9390001 -1.2849203 0.51390421 0
5.9420004 -1.2955883 0.51396376 0
5.9450002 -1.3062667 0.5140233 0
5.9470005 -1.316727 0.514063 0
5.9500003 -1.3274254 0.51412249 0
5.9530005 -1.3381345 0.51418203 0
5.9550004 -1.3486201 0.51422173 0
5.9580002 -1.3593491 0.51428121 0
5.9610004 -1.3700891 0.51434076 0
5.9630003 -1.3805999 0.51438046 0
5.9660006 -1.3913596 0.51444 0
5.9690003 -1.4021301 0.51449949 0
5.9720001 -1.4129114 0.51455903 0
5.9740005 -1.4234565 0.51459873 0
5.9770002 -1.4342577 0.51465821 0
5.9800005 -1.4450698 0.51471776 0
5.9820004 -1.4556401 0.51475745 0
5.8960004 -1.0968554 0.50313729 0
5.8940005 -1.1063831 0.50310123 0
5.8970003 -1.1168777 0.50315535 0
5.8990002 -1.1271863 0.50319141 0
5.9020004 -1.1377008 0.50324553 0
5.9050002 -1.148226 0.50329965 0
5.9070005 -1.1585602 0.50333571 0
5.9100003 -1.1691051 0.50338984 0
5.9120002 -1.1794553 0.50342596 0
5.9150004 -1.1900203 0.50348002 0
5.9180002 -1.200596 0.50353414 0
5.9200006 -1.2109715 0.5035702 0
5.9230003 -1.2215672 0.50362432 0
5.9260006 -1.2321736 0.50367844 0
5.9280005 -1.2425742 0.50371456 0
5.9310002 -1.2532005 0.50376862 0
5.9340005 -1.2638376 0.50382274 0
5.9370003 -1.2744853 0.50387686 0
5.9390001 -1.2849203 0.50391293 0
5.9420004 -1.2955883 0.50396705 0
5.9450002 -1.3062667 0.50402117 0
5.9470005 -1.316727 0.50405729 0
5.9500003 -1.3274254 0.50411135 0
5.9530005 -1.3381345 0.50416547 0
5.9550004 -1.3486201 0.50420153 0
5.9580002 -1.3593491 0.50425565 0
5.9610004 -1.3700891 0.50430977 0
5.9630003 -1.3805999 0.50434589 0
5.9660006 -1.3913596 0.50440001 0
5.9690003 -1.4021301 0.50445408 0
5.9720001 -1.4129114 0.5045082 0
5.9740005 -1.4234565 0.50454426 0
5.9770002 -1.4342577 0.50459838 0
5.9800005 -1.4450698 0.5046525 0
5.9820004 -1.4556401 0.50468862 0
5.8960004 -1.0968554 0.49322358 0
5.8940005 -1.1063831 0.49319112 0
5.8970003 -1.1168777 0.49323982 0
5.8990002 -1.1271863 0.49327227 0
5.9020004 -1.1377008 0.493321 0
5.9050002 -1.148226 0.4933697 0
5.9070005 -1.1585602 0.49340215 0
5.9100003 -1.1691051 0.49345088 0
5.9120002 -1.1794553 0.49348333 0
5.9150004 -1.1900203 0.49353203 0
5.9180002 -1.200596 0.49358073 0
5.9200006 -1.2109715 0.49361321 0
5.9230003 -1.2215672 0.49366191 0
5.9260006 -1.2321736 0.49371061 0
5.9280005 -1.2425742 0.49374309 0
5.9310002 -1.2532005 0.49379179 0
5.9340005 -1.2638376 0.49384049 0
5.9370003 -1.2744853 0.49388918 0
5.9390001 -1.2849203 0.49392167 0
5.9420004 -1.2955883 0.49397036 0
5.9450002 -1.3062667 0.49401906 0
5.9470005 -1.316727 0.49405155 0
5.9500003 -1.3274254 0.49410024 0
5.9530005 -1.3381345 0.49414894 0
5.9550004 -1.3486201 0.49418139 0
5.9580002 -1.3593491 0.49423009 0
5.9610004 -1.3700891 0.49427882 0
5.9630003 -1.3805999 0.49431127 0
5.9660006 -1.3913596 0.49436 0
5.9690003 -1.4021301 0.4944087 0
5.9720001 -1.4129114 0.49445739 0
5.9740005 -1.4234565 0.49448985 0
5.9770002 -1.4342577 0.49453855 0
5.9800005 -1.4450698 0.49458727 0
5.9820004 -1.4556401 0.49461973 0
5.8960004 -1.0968554 0.48330986 0
5.8940005 -1.1063831 0.48328099 0
5.8970003 -1.1168777 0.48332429 0
5.8990002 -1.1271863 0.48335314 0
5.9020004 -1.1377008 0.48339644 0
5.9050002 -1.148226 0.48343974 0
5.9070005 -1.1585602 0.48346859 0
5.9100003 -1.1691051 0.48351187 0
5.9120002 -1.1794553 0.48354074 0
5.9150004 -1.1900203 0.48358405 0
5.9180002 -1.200596 0.48362732 0
5.9200006 -1.2109715 0.4836562 0
5.9230003 -1.2215672 0.48369947 0
5.9260006 -1.2321736 0.48374277 0
5.9280005 -1.2425742 0.48377162 0
5.9310002 -1.2532005 0.48381492 0
5.9340005 -1.2638376 0.48385823 0
5.9370003 -1.2744853 0.4839015 0
5.9390001 -1.2849203 0.48393035 0
5.9420004 -1.2955883 0.48397365 0
5.9450002 -1.3062667 0.48401695 0
5.9470005 -1.316727 0.4840458 0
5.9500003 -1.3274254 0.48408911 0
5.9530005 -1.3381345 0.48413241 0
5.9550004 -1.3486201 0.48416126 0
5.9580002 -1.3593491 0.48420453 0
5.9610004 -1.3700891 0.48424783 0
5.9630003 -1.3805999 0.48427671 0
5.9660006 -1.3913596 0.48431998 0
5.9690003 -1.4021301 0.48436329 0
5.9720001 -1.4129114 0.48440656 0
5.9740005 -1.4234565 0.48443544 0
5.9770002 -1.4342577 0.48447871 0
5.9800005 -1.4450698 0.48452201 0
5.9820004 -1.4556401 0.48455086 0
5.8960004 -1.0968554 0.47339612 0
5.8940005 -1.1063831 0.47337088 0
5.8970003 -1.1168777 0.47340876 0
5.8990002 -1.1271863 0.473434 0
5.9020004 -1.1377008 0.47347188 0
5.9050002 -1.148226 0.47350976 0
5.9070005 -1.1585602 0.47353503 0
5.9100003 -1.1691051 0.47357291 0
5.9120002 -1.1794553 0.47359815 0
5.9150004 -1.1900203 0.47363603 0
5.9180002 -1.200596 0.47367391 0
5.9200006 -1.2109715 0.47369915 0
5.9230003 -1.2215672 0.47373706 0
5.9260006 -1.2321736 0.47377491 0
5.9280005 -1.2425742 0.47380018 0
5.9310002 -1.2532005 0.47383806 0
5.9340005 -1.2638376 0.47387594 0
5.9370003 -1.2744853 0.47391382 0
5.9390001 -1.2849203 0.47393906 0
5.9420004 -1.2955883 0.47397697 0
5.9450002 -1.3062667 0.47401482 0
5.9470005 -1.316727 0.47404009 0
5.9500003 -1.3274254 0.47407797 0
5.9530005 -1.3381345 0.47411585 0
5.9550004 -1.3486201 0.47414109 0
5.9580002 -1.3593491 0.47417897 0
5.9610004 -1.3700891 0.47421685 0
5.9630003 -1.3805999 0.47424212 0
5.9660006 -1.3913596 0.47428 0
5.9690003 -1.4021301 0.47431788 0
5.9720001 -1.4129114 0.47435576 0
5.9740005 -1.4234565 0.474381 0
5.9770002 -1.4342577 0.47441888 0
5.9800005 -1.4450698 0.47445676 0
5.9820004 -1.4556401 0.474482 0
5.8960004 -1.0968554 0.46348238 0
5.8940005 -1.1063831 0.46346074 0
5.8970003 -1.1168777 0.46349323 0
5.8990002 -1.1271863 0.46351486 0
5.9020004 -1.1377008 0.46354732 0
5.9050002 -1.148226 0.4635798 0
5.9070005 -1.1585602 0.46360144 0
5.9100003 -1.1691051 0.46363392 0
5.9120002 -1.1794553 0.46365556 0
5.9150004 -1.1900203 0.46368805 0
5.9180002 -1.200596 0.4637205 0
5.9200006 -1.2109715 0.46374214 0
5.9230003 -1.2215672 0.46377462 0
5.9260006 -1.2321736 0.46380708 0
5.9280005 -1.2425742 0.46382874 0
5.9310002 -1.2532005 0.4638612 0
5.9340005 -1.2638376 0.46389365 0
5.9370003 -1.2744853 0.46392614 0
