# .PCD v0.7 - Point Cloud Data file format
VERSION 0.7
FIELDS x y z intensity
SIZE 4 4 4 4
TYPE F F F F
COUNT 1 1 1 1
WIDTH 1459
HEIGHT 1
VIEWPOINT 0 0 0 1 0 0 0
POINTS 1459
DATA ascii
5.0130005 1.6015517 0.66194999 0
5.0150003 1.5939412 0.66206181 0
5.0160003 1.5859702 0.66211772 0
5.0180001 1.5783473 0.6622296 0
5.0200005 1.5707173 0.66234148 0
5.0210004 1.5627317 0.66239738 0
5.0230002 1.555089 0.6625092 0
5.0250001 1.547439 0.66262102 0
5.0260005 1.5394392 0.66267693 0
5.0280004 1.5317767 0.66278875 0
5.0300002 1.5241067 0.66290057 0
5.0310001 1.5160924 0.66295654 0
5.0330005 1.5084102 0.66306841 0
5.0350003 1.5007205 0.66318023 0
5.0360003 1.4926918 0.66323614 0
5.0380001 1.4849894 0.66334796 0
5.0400004 1.47728 0.66345978 0
5.0410004 1.4692369 0.66351569 0
5.0430002 1.4615147 0.66362751 0
5.0450006 1.4537854 0.66373938 0
5.0460005 1.4457278 0.66379535 0
5.0480003 1.4379858 0.66390717 0
5.0500002 1.4302366 0.66401899 0
5.0520005 1.4224803 0.66413081 0
5.0530005 1.4144028 0.66418672 0
5.0550003 1.4066339 0.66429853 0
5.0670004 1.4019603 0.66496956 0
4.9730005 1.7852371 0.65146446 0
4.9750004 1.7777854 0.6515727 0
4.9760003 1.7699298 0.65162683 0
4.9780002 1.7624656 0.65173501 0
4.9800005 1.7549943 0.65184325 0
4.9810004 1.7471243 0.65189737 0
4.9830003 1.7396402 0.65200561 0
4.9850001 1.732149 0.6521138 0
4.9860005 1.7242647 0.65216798 0
4.9880004 1.7167609 0.65227616 0
4.9900002 1.7092496 0.6523844 0
4.9910002 1.7013507 0.65243852 0
4.9930005 1.6938273 0.65254676 0
4.9950004 1.6862962 0.65265501 0
4.9960003 1.6783829 0.65270913 0
4.9980001 1.6708393 0.65281731 0
5.0000005 1.6632888 0.65292555 0
5.0010004 1.6553611 0.65297967 0
5.0030003 1.6477976 0.65308791 0
5.0050001 1.640227 0.6531961 0
5.0060005 1.6322849 0.65325022 0
5.0080004 1.6247016 0.65335846 0
5.0100002 1.6171111 0.6534667 0
5.0110002 1.6091545 0.65352082 0
5.0130005 1.6015517 0.65362906 0
5.0150003 1.5939412 0.65373731 0
5.0160003 1.5859702 0.65379137 0
5.0180001 1.5783473 0.65389961 0
5.0200005 1.5707173 0.65400779 0
5.0210004 1.5627317 0.65406191 0
5.0230002 1.555089 0.65417016 0
5.0250001 1.547439 0.6542784 0
5.0260005 1.5394392 0.65433252 0
5.0280004 1.5317767 0.65444076 0
5.0300002 1.5241067 0.654549 0
5.0310001 1.5160924 0.65460312 0
5.0330005 1.5084102 0.65471131 0
5.0350003 1.5007205 0.65481955 0
5.0360003 1.4926918 0.65487367 0
5.0380001 1.4849894 0.65498185 0
5.0400004 1.47728 0.65509009 0
5.0410004 1.4692369 0.65514421 0
5.0430002 1.4615147 0.65525246 0
5.0450006 1.4537854 0.6553607 0
5.0460005 1.4457278 0.65541482 0
5.0480003 1.4379858 0.65552306 0
5.0500002 1.4302366 0.65563124 0
5.0520005 1.4224803 0.65573955 0
5.0530005 1.4144028 0.65579361 0
5.0550003 1.4066339 0.65590185 0
5.0670004 1.4019603 0.65655124 0
4.9730005 1.7852371 0.64321566 0
4.9750004 1.7777854 0.64332026 0
4.9760003 1.7699298 0.6433726 0
4.9780002 1.7624656 0.6434772 0
4.9800005 1.7549943 0.64358181 0
4.9810004 1.7471243 0.64363414 0
4.9830003 1.7396402 0.64373875 0
4.9850001 1.732149 0.64384335 0
4.9860005 1.7242647 0.64389575 0
4.9880004 1.7167609 0.64400029 0
4.9900002 1.7092496 0.6441049 0
4.9910002 1.7013507 0.64415723 0
4.9930005 1.6938273 0.64426184 0
4.9950004 1.6862962 0.6443665 0
4.9960003 1.6783829 0.64441884 0
4.9980001 1.6708393 0.64452338 0
5.0000005 1.6632888 0.64462805 0
5.0010004 1.6553611 0.64468038 0
5.0030003 1.6477976 0.64478493 0
5.0050001 1.640227 0.64488959 0
5.0060005 1.6322849 0.64494193 0
5.0080004 1.6247016 0.64504653 0
5.0100002 1.6171111 0.64515114 0
5.0110002 1.6091545 0.64520341 0
5.0130005 1.6015517 0.64530808 0
5.0150003 1.5939412 0.64541268 0
5.0160003 1.5859702 0.64546502 0
5.0180001 1.5783473 0.64556962 0
5.0200005 1.5707173 0.64567423 0
5.0210004 1.5627317 0.64572656 0
5.0230002 1.555089 0.64583117 0
5.0250001 1.547439 0.64593577 0
5.0260005 1.5394392 0.64598811 0
5.0280004 1.5317767 0.64609271 0
5.0300002 1.5241067 0.64619732 0
5.0310001 1.5160924 0.64624965 0
5.0330005 1.5084102 0.64635432 0
5.0350003 1.5007205 0.64645892 0
5.0360003 1.4926918 0.6465112 0
5.0380001 1.4849894 0.6466158 0
5.0400004 1.47728 0.64672047 0
5.0410004 1.4692369 0.64677274 0
5.0430002 1.4615147 0.64687741 0
5.0450006 1.4537854 0.64698201 0
5.0460005 1.4457278 0.64703429 0
5.0480003 1.4379858 0.64713895 0
5.0500002 1.4302366 0.64724356 0
5.0520005 1.4224803 0.64734817 0
5.0530005 1.4144028 0.6474005 0
5.0550003 1.4066339 0.6475051 0
5.0670004 1.4019603 0.6481328 0
4.9730005 1.7852371 0.63496685 0
4.9750004 1.7777854 0.63506782 0
4.9760003 1.7699298 0.63511837 0
4.9780002 1.7624656 0.63521934 0
4.9800005 1.7549943 0.63532037 0
4.9810004 1.7471243 0.63537085 0
4.9830003 1.7396402 0.63547188 0
4.9850001 1.732149 0.63557291 0
4.9860005 1.7242647 0.63562346 0
4.9880004 1.7167609 0.63572443 0
4.9900002 1.7092496 0.63582546 0
4.9910002 1.7013507 0.63587594 0
4.9930005 1.6938273 0.63597697 0
4.9950004 1.6862962 0.636078 0
4.9960003 1.6783829 0.63612849 0
4.9980001 1.6708393 0.63622952 0
5.0000005 1.6632888 0.63633054 0
5.0010004 1.6553611 0.63638103 0
5.0030003 1.6477976 0.636482 0
5.0050001 1.640227 0.63658303 0
5.0060005 1.6322849 0.63663357 0
5.0080004 1.6247016 0.63673455 0
5.0100002 1.6171111 0.63683558 0
5.0110002 1.6091545 0.63688606 0
5.0130005 1.6015517 0.63698709 0
5.0150003 1.5939412 0.63708812 0
5.0160003 1.5859702 0.63713861 0
5.0180001 1.5783473 0.63723963 0
5.0200005 1.5707173 0.63734066 0
5.0210004 1.5627317 0.63739115 0
5.0230002 1.555089 0.63749218 0
5.0250001 1.547439 0.63759315 0
5.0260005 1.5394392 0.63764369 0
5.0280004 1.5317767 0.63774472 0
5.0300002 1.5241067 0.6378457 0
5.0310001 1.5160924 0.63789618 0
5.0330005 1.5084102 0.63799727 0
5.0350003 1.5007205 0.63809824 0
5.0360003 1.4926918 0.63814873 0
5.0380001 1.4849894 0.63824975 0
5.0400004 1.47728 0.63835078 0
5.0410004 1.4692369 0.63840127 0
5.0430002 1.4615147 0.6385023 0
5.0450006 1.4537854 0.63860333 0
5.0460005 1.4457278 0.63865381 0
5.0480003 1.4379858 0.63875484 0
5.0500002 1.4302366 0.63885581 0
5.0520005 1.4224803 0.6389569 0
5.0530005 1.4144028 0.63900739 0
5.0550003 1.4066339 0.63910842 0
5.0670004 1.4019603 0.63971448 0
4.9730005 1.7852371 0.62671804 0
4.9750004 1.7777854 0.62681544 0
4.9760003 1.7699298 0.62686414 0
4.9780002 1.7624656 0.62696153 0
4.9800005 1.7549943 0.62705898 0
4.9810004 1.7471243 0.62710762 0
4.9830003 1.7396402 0.62720501 0
4.9850001 1.732149 0.62730241 0
4.9860005 1.7242647 0.62735116 0
4.9880004 1.7167609 0.62744856 0
4.9900002 1.7092496 0.62754595 0
4.9910002 1.7013507 0.62759465 0
4.9930005 1.6938273 0.6276921 0
4.9950004 1.6862962 0.6277895 0
4.9960003 1.6783829 0.62783819 0
4.9980001 1.6708393 0.62793559 0
5.0000005 1.6632888 0.62803304 0
5.0010004 1.6553611 0.62808168 0
5.0030003 1.6477976 0.62817907 0
5.0050001 1.640227 0.62827647 0
5.0060005 1.6322849 0.62832522 0
5.0080004 1.6247016 0.62842262 0
5.0100002 1.6171111 0.62852001 0
5.0110002 1.6091545 0.62856871 0
5.0130005 1.6015517 0.62866616 0
5.0150003 1.5939412 0.62876356 0
5.0160003 1.5859702 0.62881225 0
5.0180001 1.5783473 0.62890965 0
5.0200005 1.5707173 0.6290071 0
5.0210004 1.5627317 0.62905574 0
5.0230002 1.555089 0.62915313 0
5.0250001 1.547439 0.62925053 0
5.0260005 1.5394392 0.62929928 0
5.0280004 1.5317767 0.62939668 0
5.0300002 1.5241067 0.62949407 0
5.0310001 1.5160924 0.62954277 0
5.0330005 1.5084102 0.62964022 0
5.0350003 1.5007205 0.62973762 0
5.0360003 1.4926918 0.62978631 0
5.0380001 1.4849894 0.62988371 0
5.0400004 1.47728 0.6299811 0
5.0410004 1.4692369 0.6300298 0
5.0430002 1.4615147 0.63012719 0
5.0450006 1.4537854 0.63022465 0
5.0460005 1.4457278 0.63027334 0
5.0480003 1.4379858 0.63037074 0
5.0500002 1.4302366 0.63046813 0
5.0520005 1.4224803 0.63056552 0
5.0530005 1.4144028 0.63061428 0
5.0550003 1.4066339 0.63071167 0
5.0670004 1.4019603 0.6312961 0
4.9730005 1.7852371 0.61846924 0
4.9750004 1.7777854 0.618563 0
4.9760003 1.7699298 0.61860991 0
4.9780002 1.7624656 0.61870372 0
4.9800005 1.7549943 0.61879754 0
4.9810004 1.7471243 0.61884439 0
4.9830003 1.7396402 0.61893821 0
4.9850001 1.732149 0.61903197 0
4.9860005 1.7242647 0.61907887 0
4.9880004 1.7167609 0.61917269 0
4.9900002 1.7092496 0.61926651 0
4.9910002 1.7013507 0.61931336 0
4.9930005 1.6938273 0.61940718 0
4.9950004 1.6862962 0.61950099 0
4.9960003 1.6783829 0.61954784 0
4.9980001 1.6708393 0.61964166 0
5.0000005 1.6632888 0.61973548 0
5.0010004 1.6553611 0.61978239 0
5.0030003 1.6477976 0.61987615 0
5.0050001 1.640227 0.61996996 0
5.0060005 1.6322849 0.62001687 0
5.0080004 1.6247016 0.62011069 0
5.0100002 1.6171111 0.62020445 0
5.0110002 1.6091545 0.62025136 0
5.0130005 1.6015517 0.62034518 0
5.0150003 1.5939412 0.62043893 0
5.0160003 1.5859702 0.62048584 0
5.0180001 1.5783473 0.62057966 0
5.0200005 1.5707173 0.62067348 0
5.0210004 1.5627317 0.62072039 0
5.0230002 1.555089 0.62081414 0
5.0250001 1.547439 0.62090796 0
5.0260005 1.5394392 0.62095487 0
5.0280004 1.5317767 0.62104863 0
5.0300002 1.5241067 0.62114245 0
5.0310001 1.5160924 0.62118936 0
5.0330005 1.5084102 0.62128317 0
5.0350003 1.5007205 0.62137693 0
5.0360003 1.4926918 0.62142384 0
5.0380001 1.4849894 0.62151766 0
5.0400004 1.47728 0.62161148 0
5.0410004 1.4692369 0.62165833 0
5.0430002 1.4615147 0.62175214 0
5.0450006 1.4537854 0.62184596 0
5.0460005 1.4457278 0.62189281 0
5.0480003 1.4379858 0.62198663 0
5.0500002 1.4302366 0.62208045 0
5.0520005 1.4224803 0.62217426 0
5.0530005 1.4144028 0.62222111 0
5.0550003 1.4066339 0.62231493 0
5.0670004 1.4019603 0.62287772 0
4.9730005 1.7852371 0.61022043 0
4.9750004 1.7777854 0.61031055 0
4.9760003 1.7699298 0.61035568 0
4.9780002 1.7624656 0.61044586 0
4.9800005 1.7549943 0.61053604 0
4.9810004 1.7471243 0.61058116 0
4.9830003 1.7396402 0.61067134 0
4.9850001 1.732149 0.61076152 0
4.9860005 1.7242647 0.61080664 0
4.9880004 1.7167609 0.61089683 0
4.9900002 1.7092496 0.61098701 0
4.9910002 1.7013507 0.61103213 0
4.9930005 1.6938273 0.61112231 0
4.9950004 1.6862962 0.61121249 0
4.9960003 1.6783829 0.61125755 0
4.9980001 1.6708393 0.61134779 0
5.0000005 1.6632888 0.61143798 0
5.0010004 1.6553611 0.6114831 0
5.0030003 1.6477976 0.61157322 0
5.0050001 1.640227 0.61166346 0
5.0060005 1.6322849 0.61170852 0
5.0080004 1.6247016 0.6117987 0
5.0100002 1.6171111 0.61188889 0
5.0110002 1.6091545 0.61193401 0
5.0130005 1.6015517 0.61202419 0
5.0150003 1.5939412 0.61211443 0
5.0160003 1.5859702 0.61215949 0
5.0180001 1.5783473 0.61224967 0
5.0200005 1.5707173 0.61233985 0
5.0210004 1.5627317 0.61238497 0
5.0230002 1.555089 0.61247516 0
5.0250001 1.547439 0.61256534 0
5.0260005 1.5394392 0.61261046 0
5.0280004 1.5317767 0.61270064 0
5.0300002 1.5241067 0.61279082 0
5.0310001 1.5160924 0.61283588 0
5.0330005 1.5084102 0.61292613 0
5.0350003 1.5007205 0.61301631 0
5.0360003 1.4926918 0.61306137 0
5.0380001 1.4849894 0.61315155 0
5.0400004 1.47728 0.61324179 0
5.0410004 1.4692369 0.61328685 0
5.0430002 1.4615147 0.61337703 0
5.0450006 1.4537854 0.61346728 0
5.0460005 1.4457278 0.61351234 0
5.0480003 1.4379858 0.61360252 0
5.0500002 1.4302366 0.6136927 0
5.0520005 1.4224803 0.61378294 0
5.0530005 1.4144028 0.613828 0
5.0550003 1.4066339 0.61391819 0
5.0670004 1.4019603 0.61445934 0
4.9730005 1.7852371 0.60197163 0
4.9750004 1.7777854 0.60205817 0
4.9760003 1.7699298 0.60210145 0
4.9780002 1.7624656 0.60218799 0
4.9800005 1.7549943 0.60227466 0
4.9810004 1.7471243 0.60231793 0
4.9830003 1.7396402 0.60240448 0
4.9850001 1.732149 0.60249108 0
4.9860005 1.7242647 0.60253435 0
4.9880004 1.7167609 0.60262096 0
4.9900002 1.7092496 0.60270751 0
4.9910002 1.7013507 0.60275084 0
4.9930005 1.6938273 0.60283744 0
4.9950004 1.6862962 0.60292399 0
4.9960003 1.6783829 0.60296726 0
4.9980001 1.6708393 0.60305387 0
5.0000005 1.6632888 0.60314047 0
5.0010004 1.6553611 0.60318375 0
5.0030003 1.6477976 0.60327029 0
5.0050001 1.640227 0.6033569 0
5.0060005 1.6322849 0.60340023 0
5.0080004 1.6247016 0.60348678 0
5.0100002 1.6171111 0.60357332 0
5.0110002 1.6091545 0.60361665 0
5.0130005 1.6015517 0.60370326 0
5.0150003 1.5939412 0.60378981 0
5.0160003 1.5859702 0.60383308 0
5.0180001 1.5783473 0.60391968 0
5.0200005 1.5707173 0.60400629 0
5.0210004 1.5627317 0.60404956 0
5.0230002 1.555089 0.60413611 0
5.0250001 1.547439 0.60422271 0
5.0260005 1.5394392 0.60426605 0
5.0280004 1.5317767 0.60435259 0
5.0300002 1.5241067 0.6044392 0
5.0310001 1.5160924 0.60448247 0
5.0330005 1.5084102 0.60456908 0
5.0350003 1.5007205 0.60465562 0
5.0360003 1.4926918 0.60469896 0
5.0380001 1.4849894 0.6047855 0
5.0400004 1.47728 0.60487211 0
5.0410004 1.4692369 0.60491538 0
5.0430002 1.4615147 0.60500199 0
5.0450006 1.4537854 0.60508859 0
5.0460005 1.4457278 0.60513186 0
5.0480003 1.4379858 0.60521841 0
5.0500002 1.4302366 0.60530502 0
5.0520005 1.4224803 0.60539162 0
5.0530005 1.4144028 0.60543489 0
5.0550003 1.4066339 0.60552144 0
5.0670004 1.4019603 0.60604095 0
4.9730005 1.7852371 0.59372276 0
4.9750004 1.7777854 0.59380573 0
4.9760003 1.7699298 0.59384722 0
4.9780002 1.7624656 0.59393018 0
4.9800005 1.7549943 0.59401321 0
4.9810004 1.7471243 0.5940547 0
4.9830003 1.7396402 0.59413767 0
4.9850001 1.732149 0.59422064 0
4.9860005 1.7242647 0.59426212 0
4.9880004 1.7167609 0.59434509 0
4.9900002 1.7092496 0.59442806 0
4.9910002 1.7013507 0.59446955 0
4.9930005 1.6938273 0.59455252 0
4.9950004 1.6862962 0.59463549 0
4.9960003 1.6783829 0.59467697 0
4.9980001 1.6708393 0.59475994 0
5.0000005 1.6632888 0.59484291 0
5.0010004 1.6553611 0.5948844 0
5.0030003 1.6477976 0.59496737 0
5.0050001 1.640227 0.59505033 0
5.0060005 1.6322849 0.59509188 0
5.0080004 1.6247016 0.59517485 0
5.0100002 1.6171111 0.59525782 0
5.0110002 1.6091545 0.5952993 0
5.0130005 1.6015517 0.59538227 0
5.0150003 1.5939412 0.59546524 0
5.0160003 1.5859702 0.59550673 0
5.0180001 1.5783473 0.5955897 0
5.0200005 1.5707173 0.59567267 0
5.0210004 1.5627317 0.59571415 0
5.0230002 1.555089 0.59579712 0
5.0250001 1.547439 0.59588009 0
5.0260005 1.5394392 0.59592164 0
5.0280004 1.5317767 0.59600461 0
5.0300002 1.5241067 0.59608757 0
5.0310001 1.5160924 0.59612906 0
5.0330005 1.5084102 0.59621203 0
5.0350003 1.5007205 0.596295 0
5.0360003 1.4926918 0.59633648 0
5.0380001 1.4849894 0.59641945 0
5.0400004 1.47728 0.59650242 0
5.0410004 1.4692369 0.59654391 0
5.0430002 1.4615147 0.59662688 0
5.0450006 1.4537854 0.59670985 0
5.0460005 1.4457278 0.59675133 0
5.0480003 1.4379858 0.5968343 0
5.0500002 1.4302366 0.59691727 0
5.0520005 1.4224803 0.5970003 0
5.0530005 1.4144028 0.59704179 0
5.0550003 1.4066339 0.59712476 0
5.0670004 1.4019603 0.59762257 0
4.9730005 1.7852371 0.58547395 0
4.9750004 1.7777854 0.58555329 0
4.9760003 1.7699298 0.58559299 0
4.9780002 1.7624656 0.58567238 0
4.9800005 1.7549943 0.58575177 0
4.9810004 1.7471243 0.58579141 0
4.9830003 1.7396402 0.5858708 0
4.9850001 1.732149 0.58595014 0
4.9860005 1.7242647 0.58598983 0
4.9880004 1.7167609 0.58606923 0
4.9900002 1.7092496 0.58614856 0
4.9910002 1.7013507 0.58618826 0
4.9930005 1.6938273 0.58626759 0
4.9950004 1.6862962 0.58634698 0
4.9960003 1.6783829 0.58638668 0
4.9980001 1.6708393 0.58646601 0
5.0000005 1.6632888 0.58654541 0
5.0010004 1.6553611 0.5865851 0
5.0030003 1.6477976 0.58666444 0
5.0050001 1.640227 0.58674383 0
5.0060005 1.6322849 0.58678353 0
5.0080004 1.6247016 0.58686286 0
5.0100002 1.6171111 0.58694226 0
5.0110002 1.6091545 0.58698189 0
5.0130005 1.6015517 0.58706129 0
5.0150003 1.5939412 0.58714068 0
5.0160003 1.5859702 0.58718038 0
5.0180001 1.5783473 0.58725971 0
5.0200005 1.5707173 0.5873391 0
5.0210004 1.5627317 0.58737874 0
5.0230002 1.555089 0.58745813 0
5.0250001 1.547439 0.58753753 0
5.0260005 1.5394392 0.58757722 0
5.0280004 1.5317767 0.58765656 0
5.0300002 1.5241067 0.58773589 0
5.0310001 1.5160924 0.58777559 0
5.0330005 1.5084102 0.58785498 0
5.0350003 1.5007205 0.58793432 0
5.0360003 1.4926918 0.58797401 0
5.0380001 1.4849894 0.58805341 0
5.0400004 1.47728 0.58813274 0
5.0410004 1.4692369 0.58817244 0
5.0430002 1.4615147 0.58825183 0
5.0450006 1.4537854 0.58833122 0
5.0460005 1.4457278 0.58837086 0
5.0480003 1.4379858 0.58845019 0
5.0500002 1.4302366 0.58852959 0
5.0520005 1.4224803 0.58860898 0
5.0530005 1.4144028 0.58864868 0
5.0550003 1.4066339 0.58872801 0
5.0670004 1.4019603 0.58920419 0
4.9730005 1.7852371 0.57722515 0
4.9750004 1.7777854 0.57730091 0
4.9760003 1.7699298 0.57733876 0
4.9780002 1.7624656 0.57741451 0
4.9800005 1.7549943 0.57749033 0
4.9810004 1.7471243 0.57752818 0
4.9830003 1.7396402 0.57760394 0
4.9850001 1.732149 0.57767969 0
4.9860005 1.7242647 0.57771754 0
4.9880004 1.7167609 0.57779336 0
4.9900002 1.7092496 0.57786906 0
4.9910002 1.7013507 0.57790697 0
4.9930005 1.6938273 0.57798272 0
4.9950004 1.6862962 0.57805848 0
4.9960003 1.6783829 0.57809639 0
4.9980001 1.6708393 0.57817209 0
5.0000005 1.6632888 0.5782479 0
5.0010004 1.6553611 0.57828581 0
5.0030003 1.6477976 0.57836151 0
5.0050001 1.640227 0.57843727 0
5.0060005 1.6322849 0.57847518 0
5.0080004 1.6247016 0.57855093 0
5.0100002 1.6171111 0.57862669 0
5.0110002 1.6091545 0.57866454 0
5.0130005 1.6015517 0.57874036 0
5.0150003 1.5939412 0.57881612 0
5.0160003 1.5859702 0.57885396 0
5.0180001 1.5783473 0.57892972 0
5.0200005 1.5707173 0.57900548 0
5.0210004 1.5627317 0.57904339 0
5.0230002 1.555089 0.57911909 0
5.0250001 1.547439 0.5791949 0
5.0260005 1.5394392 0.57923281 0
5.0280004 1.5317767 0.57930851 0
5.0300002 1.5241067 0.57938427 0
5.0310001 1.5160924 0.57942218 0
5.0330005 1.5084102 0.57949793 0
5.0350003 1.5007205 0.57957369 0
5.0360003 1.4926918 0.57961154 0
5.0380001 1.4849894 0.57968736 0
5.0400004 1.47728 0.57976311 0
5.0410004 1.4692369 0.57980096 0
5.0430002 1.4615147 0.57987672 0
5.0450006 1.4537854 0.57995248 0
5.0460005 1.4457278 0.57999039 0
5.0480003 1.4379858 0.58006614 0
5.0500002 1.4302366 0.5801419 0
5.0520005 1.4224803 0.58021766 0
5.0530005 1.4144028 0.58025551 0
5.0550003 1.4066339 0.58033133 0
5.0670004 1.4019603 0.58078587 0
4.9730005 1.7852371 0.56897628 0
4.9750004 1.7777854 0.56904846 0
4.9760003 1.7699298 0.56908453 0
4.9780002 1.7624656 0.56915665 0
4.9800005 1.7549943 0.56922889 0
4.9810004 1.7471243 0.56926495 0
4.9830003 1.7396402 0.56933707 0
4.9850001 1.732149 0.56940925 0
4.9860005 1.7242647 0.56944531 0
4.9880004 1.7167609 0.56951749 0
4.9900002 1.7092496 0.56958961 0
4.9910002 1.7013507 0.56962568 0
4.9930005 1.6938273 0.56969786 0
4.9950004 1.6862962 0.56976998 0
4.9960003 1.6783829 0.5698061 0
4.9980001 1.6708393 0.56987822 0
5.0000005 1.6632888 0.56995034 0
5.0010004 1.6553611 0.56998646 0
5.0030003 1.6477976 0.57005858 0
5.0050001 1.640227 0.57013071 0
5.0060005 1.6322849 0.57016683 0
5.0080004 1.6247016 0.57023895 0
5.0100002 1.6171111 0.57031113 0
5.0110002 1.6091545 0.57034719 0
5.0130005 1.6015517 0.57041937 0
5.0150003 1.5939412 0.57049149 0
5.0160003 1.5859702 0.57052761 0
5.0180001 1.5783473 0.57059973 0
5.0200005 1.5707173 0.57067192 0
5.0210004 1.5627317 0.57070798 0
5.0230002 1.555089 0.57078016 0
5.0250001 1.547439 0.57085228 0
5.0260005 1.5394392 0.57088834 0
5.0280004 1.5317767 0.57096052 0
5.0300002 1.5241067 0.57103264 0
5.0310001 1.5160924 0.57106876 0
5.0330005 1.5084102 0.57114089 0
5.0350003 1.5007205 0.57121301 0
5.0360003 1.4926918 0.57124913 0
5.0380001 1.4849894 0.57132125 0
5.0400004 1.47728 0.57139343 0
5.0410004 1.4692369 0.57142949 0
5.0430002 1.4615147 0.57150161 0
5.0450006 1.4537854 0.57157379 0
5.0460005 1.4457278 0.57160985 0
5.0480003 1.4379858 0.57168204 0
5.0500002 1.4302366 0.57175416 0
5.0520005 1.4224803 0.57182634 0
5.0530005 1.4144028 0.5718624 0
5.0550003 1.4066339 0.57193458 0
5.0670004 1.4019603 0.57236749 0
4.9730005 1.7852371 0.56072748 0
4.9750004 1.7777854 0.56079602 0
4.9760003 1.7699298 0.5608303 0
4.9780002 1.7624656 0.56089884 0
4.9800005 1.7549943 0.56096739 0
4.9810004 1.7471243 0.56100166 0
4.9830003 1.7396402 0.5610702 0
4.9850001 1.732149 0.56113875 0
4.9860005 1.7242647 0.56117308 0
4.9880004 1.7167609 0.56124157 0
4.9900002 1.7092496 0.56131011 0
4.9910002 1.7013507 0.56134439 0
4.9930005 1.6938273 0.56141293 0
4.9950004 1.6862962 0.56148148 0
4.9960003 1.6783829 0.56151575 0
4.9980001 1.6708393 0.56158429 0
5.0000005 1.6632888 0.5616529 0
5.0010004 1.6553611 0.56168711 0
5.0030003 1.6477976 0.56175566 0
5.0050001 1.640227 0.5618242 0
5.0060005 1.6322849 0.56185848 0
5.0080004 1.6247016 0.56192702 0
5.0100002 1.6171111 0.56199557 0
5.0110002 1.6091545 0.56202984 0
5.0130005 1.6015517 0.56209838 0
5.0150003 1.5939412 0.56216693 0
5.0160003 1.5859702 0.5622012 0
5.0180001 1.5783473 0.56226975 0
5.0200005 1.5707173 0.56233829 0
5.0210004 1.5627317 0.56237257 0
5.0230002 1.555089 0.56244111 0
5.0250001 1.547439 0.56250966 0
5.0260005 1.5394392 0.56254393 0
5.0280004 1.5317767 0.56261247 0
5.0300002 1.5241067 0.56268102 0
5.0310001 1.5160924 0.56271529 0
5.0330005 1.5084102 0.56278384 0
5.0350003 1.5007205 0.56285238 0
5.0360003 1.4926918 0.56288666 0
5.0380001 1.4849894 0.5629552 0
5.0400004 1.47728 0.56302375 0
5.0410004 1.4692369 0.56305802 0
5.0430002 1.4615147 0.56312656 0
5.0450006 1.4537854 0.56319511 0
5.0460005 1.4457278 0.56322938 0
5.0480003 1.4379858 0.56329793 0
5.0500002 1.4302366 0.56336647 0
5.0520005 1.4224803 0.56343502 0
5.0530005 1.4144028 0.56346929 0
5.0550003 1.4066339 0.56353784 0
5.0670004 1.4019603 0.56394911 0
4.9730005 1.7852371 0.55247867 0
4.9750004 1.7777854 0.55254364 0
4.9760003 1.7699298 0.55257607 0
4.9780002 1.7624656 0.55264103 0
4.9800005 1.7549943 0.552706 0
4.9810004 1.7471243 0.55273843 0
4.9830003 1.7396402 0.5528034 0
4.9850001 1.732149 0.55286831 0
4.9860005 1.7242647 0.55290079 0
4.9880004 1.7167609 0.5529657 0
4.9900002 1.7092496 0.55303067 0
4.9910002 1.7013507 0.55306309 0
4.9930005 1.6938273 0.55312806 0
4.9950004 1.6862962 0.55319297 0
4.9960003 1.6783829 0.55322546 0
4.9980001 1.6708393 0.55329037 0
5.0000005 1.6632888 0.55335534 0
5.0010004 1.6553611 0.55338782 0
5.0030003 1.6477976 0.55345273 0
5.0050001 1.640227 0.5535177 0
5.0060005 1.6322849 0.55355012 0
5.0080004 1.6247016 0.55361509 0
5.0100002 1.6171111 0.55368 0
5.0110002 1.6091545 0.55371249 0
5.0130005 1.6015517 0.55377746 0
5.0150003 1.5939412 0.55384237 0
5.0160003 1.5859702 0.55387485 0
5.0180001 1.5783473 0.55393976 0
5.0200005 1.5707173 0.55400467 0
5.0210004 1.5627317 0.55403721 0
5.0230002 1.555089 0.55410212 0
5.0250001 1.547439 0.55416703 0
5.0260005 1.5394392 0.55419952 0
5.0280004 1.5317767 0.55426443 0
5.0300002 1.5241067 0.5543294 0
5.0310001 1.5160924 0.55436182 0
5.0330005 1.5084102 0.55442679 0
5.0350003 1.5007205 0.55449176 0
5.0360003 1.4926918 0.55452418 0
5.0380001 1.4849894 0.55458915 0
5.0400004 1.47728 0.55465406 0
5.0410004 1.4692369 0.55468655 0
5.0430002 1.4615147 0.55475152 0
5.0450006 1.4537854 0.55481642 0
5.0460005 1.4457278 0.55484891 0
5.0480003 1.4379858 0.55491382 0
5.0500002 1.4302366 0.55497873 0
5.0520005 1.4224803 0.5550437 0
5.0530005 1.4144028 0.55507618 0
5.0550003 1.4066339 0.55514109 0
5.0670004 1.4019603 0.55553073 0
4.9730005 1.7852371 0.54422987 0
4.9750004 1.7777854 0.5442912 0
4.9760003 1.7699298 0.54432189 0
4.9780002 1.7624656 0.54438317 0
4.9800005 1.7549943 0.54444456 0
4.9810004 1.7471243 0.5444752 0
4.9830003 1.7396402 0.54453653 0
4.9850001 1.732149 0.54459786 0
4.9860005 1.7242647 0.5446285 0
4.9880004 1.7167609 0.54468983 0
4.9900002 1.7092496 0.54475117 0
4.9910002 1.7013507 0.5447818 0
4.9930005 1.6938273 0.5448432 0
4.9950004 1.6862962 0.54490447 0
4.9960003 1.6783829 0.54493517 0
4.9980001 1.6708393 0.5449965 0
5.0000005 1.6632888 0.54505783 0
5.0010004 1.6553611 0.54508847 0
5.0030003 1.6477976 0.5451498 0
5.0050001 1.640227 0.54521114 0
5.0060005 1.6322849 0.54524183 0
5.0080004 1.6247016 0.54530311 0
5.0100002 1.6171111 0.5453645 0
5.0110002 1.6091545 0.54539514 0
5.0130005 1.6015517 0.54545647 0
5.0150003 1.5939412 0.5455178 0
5.0160003 1.5859702 0.54554844 0
5.0180001 1.5783473 0.54560977 0
5.0200005 1.5707173 0.54567111 0
5.0210004 1.5627317 0.5457018 0
5.0230002 1.555089 0.54576313 0
5.0250001 1.547439 0.54582441 0
5.0260005 1.5394392 0.5458551 0
5.0280004 1.5317767 0.54591644 0
5.0300002 1.5241067 0.54597777 0
5.0310001 1.5160924 0.54600841 0
5.0330005 1.5084102 0.54606974 0
5.0350003 1.5007205 0.54613107 0
5.0360003 1.4926918 0.54616177 0
5.0380001 1.4849894 0.54622304 0
5.0400004 1.47728 0.54628444 0
5.0410004 1.4692369 0.54631507 0
5.0430002 1.4615147 0.54637641 0
5.0450006 1.4537854 0.54643774 0
5.0460005 1.4457278 0.54646838 0
5.0480003 1.4379858 0.54652971 0
5.0500002 1.4302366 0.54659104 0
5.0520005 1.4224803 0.54665238 0
5.0530005 1.4144028 0.54668307 0
5.0550003 1.4066339 0.54674435 0
5.0670004 1.4019603 0.54711235 0
4.9730005 1.7852371 0.53598106 0
4.9750004 1.7777854 0.53603876 0
4.9760003 1.7699298 0.53606761 0
4.9780002 1.7624656 0.53612536 0
4.9800005 1.7549943 0.53618312 0
4.9810004 1.7471243 0.53621197 0
4.9830003 1.7396402 0.53626966 0
4.9850001 1.732149 0.53632736 0
4.9860005 1.7242647 0.53635627 0
4.9880004 1.7167609 0.53641397 0
4.9900002 1.7092496 0.53647172 0
4.9910002 1.7013507 0.53650057 0
4.9930005 1.6938273 0.53655827 0
4.9950004 1.6862962 0.53661597 0
4.9960003 1.6783829 0.53664488 0
4.9980001 1.6708393 0.53670257 0
5.0000005 1.6632888 0.53676033 0
5.0010004 1.6553611 0.53678918 0
5.0030003 1.6477976 0.53684688 0
5.0050001 1.640227 0.53690457 0
5.0060005 1.6322849 0.53693348 0
5.0080004 1.6247016 0.53699118 0
5.0100002 1.6171111 0.53704894 0
5.0110002 1.6091545 0.53707778 0
5.0130005 1.6015517 0.53713548 0
5.0150003 1.5939412 0.53719318 0
5.0160003 1.5859702 0.53722209 0
5.0180001 1.5783473 0.53727978 0
5.0200005 1.5707173 0.53733754 0
5.0210004 1.5627317 0.53736639 0
5.0230002 1.555089 0.53742409 0
5.0250001 1.547439 0.53748178 0
5.0260005 1.5394392 0.53751069 0
5.0280004 1.5317767 0.53756839 0
5.0300002 1.5241067 0.53762615 0
5.0310001 1.5160924 0.537655 0
5.0330005 1.5084102 0.53771269 0
5.0350003 1.5007205 0.53777045 0
5.0360003 1.4926918 0.5377993 0
5.0380001 1.4849894 0.537857 0
5.0400004 1.47728 0.53791475 0
5.0410004 1.4692369 0.5379436 0
5.0430002 1.4615147 0.5380013 0
5.0450006 1.4537854 0.53805906 0
5.0460005 1.4457278 0.5380879 0
5.0480003 1.4379858 0.53814566 0
5.0500002 1.4302366 0.53820336 0
5.0520005 1.4224803 0.53826106 0
5.0530005 1.4144028 0.5382899 0
5.0550003 1.4066339 0.53834766 0
5.0670004 1.4019603 0.53869396 0
4.9730005 1.7852371 0.52773225 0
4.9750004 1.7777854 0.52778637 0
4.9760003 1.7699298 0.52781343 0
4.9780002 1.7624656 0.5278675 0
4.9800005 1.7549943 0.52792162 0
4.9810004 1.7471243 0.52794868 0
4.9830003 1.7396402 0.5280028 0
4.9850001 1.732149 0.52805692 0
4.9860005 1.7242647 0.52808398 0
4.9880004 1.7167609 0.5281381 0
4.9900002 1.7092496 0.52819222 0
4.9910002 1.7013507 0.52821928 0
4.9930005 1.6938273 0.5282734 0
4.9950004 1.6862962 0.52832747 0
4.9960003 1.6783829 0.52835453 0
4.9980001 1.6708393 0.52840865 0
5.0000005 1.6632888 0.52846277 0
5.0010004 1.6553611 0.52848983 0
5.0030003 1.6477976 0.52854395 0
5.0050001 1.640227 0.52859807 0
5.0060005 1.6322849 0.52862513 0
5.0080004 1.6247016 0.52867925 0
5.0100002 1.6171111 0.52873337 0
5.0110002 1.6091545 0.52876043 0
5.0130005 1.6015517 0.52881455 0
5.0150003 1.5939412 0.52886868 0
5.0160003 1.5859702 0.52889568 0
5.0180001 1.5783473 0.5289498 0
5.0200005 1.5707173 0.52900392 0
5.0210004 1.5627317 0.52903098 0
5.0230002 1.555089 0.5290851 0
5.0250001 1.547439 0.52913922 0
5.0260005 1.5394392 0.52916628 0
5.0280004 1.5317767 0.5292204 0
5.0300002 1.5241067 0.52927446 0
5.0310001 1.5160924 0.52930152 0
5.0330005 1.5084102 0.52935565 0
5.0350003 1.5007205 0.52940977 0
5.0360003 1.4926918 0.52943683 0
5.0380001 1.4849894 0.52949095 0
5.0400004 1.47728 0.52954507 0
5.0410004 1.4692369 0.52957213 0
5.0430002 1.4615147 0.52962625 0
5.0450006 1.4537854 0.52968037 0
5.0460005 1.4457278 0.52970743 0
5.0480003 1.4379858 0.52976155 0
5.0500002 1.4302366 0.52981561 0
5.0520005 1.4224803 0.52986979 0
5.0530005 1.4144028 0.5298968 0
5.0550003 1.4066339 0.52995092 0
5.0670004 1.4019603 0.53027558 0
4.9730005 1.7852371 0.51948345 0
4.9750004 1.7777854 0.51953393 0
4.9760003 1.7699298 0.5195592 0
4.9780002 1.7624656 0.51960969 0
4.9800005 1.7549943 0.51966017 0
4.9810004 1.7471243 0.51968545 0
4.9830003 1.7396402 0.51973593 0
4.9850001 1.732149 0.51978648 0
4.9860005 1.7242647 0.51981175 0
4.9880004 1.7167609 0.51986223 0
4.9900002 1.7092496 0.51991272 0
4.9910002 1.7013507 0.51993799 0
4.9930005 1.6938273 0.51998848 0
4.9950004 1.6862962 0.52003896 0
4.9960003 1.6783829 0.52006423 0
4.9980001 1.6708393 0.52011478 0
5.0000005 1.6632888 0.52016526 0
5.0010004 1.6553611 0.52019054 0
5.0030003 1.6477976 0.52024102 0
5.0050001 1.640227 0.52029151 0
5.0060005 1.6322849 0.52031678 0
5.0080004 1.6247016 0.52036726 0
5.0100002 1.6171111 0.52041781 0
5.0110002 1.6091545 0.52044302 0
5.0130005 1.6015517 0.52049357 0
5.0150003 1.5939412 0.52054405 0
5.0160003 1.5859702 0.52056932 0
5.0180001 1.5783473 0.52061981 0
5.0200005 1.5707173 0.52067035 0
5.0210004 1.5627317 0.52069557 0
5.0230002 1.555089 0.52074611 0
5.0250001 1.547439 0.5207966 0
5.0260005 1.5394392 0.52082187 0
5.0280004 1.5317767 0.52087235 0
5.0300002 1.5241067 0.52092284 0
5.0310001 1.5160924 0.52094811 0
5.0330005 1.5084102 0.52099866 0
5.0350003 1.5007205 0.52104914 0
5.0360003 1.4926918 0.52107435 0
5.0380001 1.4849894 0.5211249 0
5.0400004 1.47728 0.52117538 0
5.0410004 1.4692369 0.52120066 0
5.0430002 1.4615147 0.52125114 0
5.0450006 1.4537854 0.52130169 0
5.0460005 1.4457278 0.5213269 0
5.0480003 1.4379858 0.52137744 0
5.0500002 1.4302366 0.52142793 0
5.0520005 1.4224803 0.52147841 0
5.0530005 1.4144028 0.52150369 0
5.0550003 1.4066339 0.52155423 0
5.0670004 1.4019603 0.52185726 0
4.9730005 1.7852371 0.51123464 0
4.9750004 1.7777854 0.51128149 0
4.9760003 1.7699298 0.51130497 0
4.9780002 1.7624656 0.51135182 0
4.9800005 1.7549943 0.51139879 0
4.9810004 1.7471243 0.51142222 0
4.9830003 1.7396402 0.51146913 0
4.9850001 1.732149 0.51151597 0
4.9860005 1.7242647 0.51153946 0
4.9880004 1.7167609 0.51158637 0
4.9900002 1.7092496 0.51163328 0
4.9910002 1.7013507 0.5116567 0
4.9930005 1.6938273 0.51170361 0
4.9950004 1.6862962 0.51175052 0
4.9960003 1.6783829 0.51177394 0
4.9980001 1.6708393 0.51182085 0
5.0000005 1.6632888 0.51186776 0
5.0010004 1.6553611 0.51189119 0
5.0030003 1.6477976 0.5119381 0
5.0050001 1.640227 0.511985 0
5.0060005 1.6322849 0.51200843 0
5.0080004 1.6247016 0.51205534 0
5.0100002 1.6171111 0.51210225 0
5.0110002 1.6091545 0.51212567 0
5.0130005 1.6015517 0.51217258 0
5.0150003 1.5939412 0.51221949 0
5.0160003 1.5859702 0.51224291 0
5.0180001 1.5783473 0.51228982 0
5.0200005 1.5707173 0.51233673 0
5.0210004 1.5627317 0.51236022 0
5.0230002 1.555089 0.51240706 0
5.0250001 1.547439 0.51245397 0
5.0260005 1.5394392 0.51247746 0
5.0280004 1.5317767 0.51252431 0
5.0300002 1.5241067 0.51257122 0
5.0310001 1.5160924 0.5125947 0
5.0330005 1.5084102 0.51264155 0
5.0350003 1.5007205 0.51268846 0
5.0360003 1.4926918 0.51271194 0
5.0380001 1.4849894 0.51275885 0
5.0400004 1.47728 0.5128057 0
5.0410004 1.4692369 0.51282918 0
5.0430002 1.4615147 0.51287609 0
5.0450006 1.4537854 0.512923 0
5.0460005 1.4457278 0.51294643 0
5.0480003 1.4379858 0.51299334 0
5.0500002 1.4302366 0.51304018 0
5.0520005 1.4224803 0.51308715 0
5.0530005 1.4144028 0.51311058 0
5.0550003 1.4066339 0.51315749 0
5.0670004 1.4019603 0.51343888 0
4.9730005 1.7852371 0.50298584 0
4.9750004 1.7777854 0.50302911 0
4.9760003 1.7699298 0.50305074 0
4.9780002 1.7624656 0.50309402 0
4.9800005 1.7549943 0.50313735 0
4.9810004 1.7471243 0.50315899 0
4.9830003 1.7396402 0.50320226 0
4.9850001 1.732149 0.50324553 0
4.9860005 1.7242647 0.50326717 0
4.9880004 1.7167609 0.5033105 0
4.9900002 1.7092496 0.50335377 0
4.9910002 1.7013507 0.50337541 0
4.9930005 1.6938273 0.50341868 0
4.9950004 1.6862962 0.50346202 0
4.9960003 1.6783829 0.50348365 0
4.9980001 1.6708393 0.50352693 0
5.0000005 1.6632888 0.5035702 0
5.0010004 1.6553611 0.5035919 0
5.0030003 1.6477976 0.50363517 0
5.0050001 1.640227 0.50367844 0
5.0060005 1.6322849 0.50370014 0
5.0080004 1.6247016 0.50374341 0
5.0100002 1.6171111 0.50378668 0
5.0110002 1.6091545 0.50380832 0
5.0130005 1.6015517 0.50385165 0
5.0150003 1.5939412 0.50389493 0
5.0160003 1.5859702 0.50391656 0
5.0180001 1.5783473 0.50395983 0
5.0200005 1.5707173 0.50400317 0
5.0210004 1.5627317 0.5040248 0
5.0230002 1.555089 0.50406808 0
5.0250001 1.547439 0.50411135 0
5.0260005 1.5394392 0.50413305 0
5.0280004 1.5317767 0.50417632 0
5.0300002 1.5241067 0.50421959 0
5.0310001 1.5160924 0.50424123 0
5.0330005 1.5084102 0.50428456 0
5.0350003 1.5007205 0.50432783 0
5.0360003 1.4926918 0.50434947 0
5.0380001 1.4849894 0.50439274 0
5.0400004 1.47728 0.50443608 0
5.0410004 1.4692369 0.50445771 0
5.0430002 1.4615147 0.50450099 0
5.0450006 1.4537854 0.50454426 0
5.0460005 1.4457278 0.50456595 0
5.0480003 1.4379858 0.50460923 0
5.0500002 1.4302366 0.5046525 0
5.0520005 1.4224803 0.50469583 0
5.0530005 1.4144028 0.50471747 0
5.0550003 1.4066339 0.50476074 0
5.0670004 1.4019603 0.5050205 0
4.9730005 1.7852371 0.49473697 0
4.9750004 1.7777854 0.49477667 0
4.9760003 1.7699298 0.49479651 0
4.9780002 1.7624656 0.49483618 0
4.9800005 1.7549943 0.49487588 0
4.9810004 1.7471243 0.4948957 0
4.9830003 1.7396402 0.49493539 0
4.9850001 1.732149 0.49497509 0
4.9860005 1.7242647 0.49499494 0
4.9880004 1.7167609 0.49503461 0
4.9900002 1.7092496 0.49507427 0
4.9910002 1.7013507 0.49509412 0
4.9930005 1.6938273 0.49513382 0
4.9950004 1.6862962 0.49517351 0
4.9960003 1.6783829 0.49519336 0
4.9980001 1.6708393 0.49523303 0
5.0000005 1.6632888 0.49527273 0
5.0010004 1.6553611 0.49529254 0
5.0030003 1.6477976 0.49533224 0
5.0050001 1.640227 0.49537191 0
5.0060005 1.6322849 0.49539176 0
5.0080004 1.6247016 0.49543145 0
5.0100002 1.6171111 0.49547112 0
5.0110002 1.6091545 0.49549097 0
5.0130005 1.6015517 0.49553066 0
5.0150003 1.5939412 0.49557033 0
5.0160003 1.5859702 0.49559018 0
5.0180001 1.5783473 0.49562985 0
5.0200005 1.5707173 0.49566954 0
5.0210004 1.5627317 0.49568939 0
5.0230002 1.555089 0.49572909 0
5.0250001 1.547439 0.49576876 0
5.0260005 1.5394392 0.4957886 0
5.0280004 1.5317767 0.49582827 0
5.0300002 1.5241067 0.49586797 0
5.0310001 1.5160924 0.49588782 0
5.0330005 1.5084102 0.49592751 0
5.0350003 1.5007205 0.49596718 0
5.0360003 1.4926918 0.49598703 0
5.0380001 1.4849894 0.49602669 0
5.0400004 1.47728 0.49606639 0
5.0410004 1.4692369 0.49608624 0
5.0430002 1.4615147 0.49612591 0
5.0450006 1.4537854 0.4961656 0
5.0460005 1.4457278 0.49618542 0
5.0480003 1.4379858 0.49622512 0
5.0500002 1.4302366 0.49626482 0
5.0520005 1.4224803 0.49630448 0
5.0530005 1.4144028 0.49632433 0
5.0550003 1.4066339 0.496364 0
5.0670004 1.4019603 0.49660212 0
4.9730005 1.7852371 0.48648816 0
4.9750004 1.7777854 0.48652425 0
4.9760003 1.7699298 0.48654228 0
4.9780002 1.7624656 0.48657835 0
4.9800005 1.7549943 0.48661444 0
4.9810004 1.7471243 0.48663247 0
4.9830003 1.7396402 0.48666853 0
4.9850001 1.732149 0.48670462 0
4.9860005 1.7242647 0.48672265 0
4.9880004 1.7167609 0.48675874 0
4.9900002 1.7092496 0.48679483 0
4.9910002 1.7013507 0.48681283 0
4.9930005 1.6938273 0.48684892 0
4.9950004 1.6862962 0.48688501 0
4.9960003 1.6783829 0.48690304 0
4.9980001 1.6708393 0.4869391 0
5.0000005 1.6632888 0.48697519 0
5.0010004 1.6553611 0.48699322 0
5.0030003 1.6477976 0.48702931 0
5.0050001 1.640227 0.48706537 0
5.0060005 1.6322849 0.48708344 0
5.0080004 1.6247016 0.4871195 0
5.0100002 1.6171111 0.48715556 0
5.0110002 1.6091545 0.48717362 0
5.0130005 1.6015517 0.48720968 0
5.0150003 1.5939412 0.48724577 0
5.0160003 1.5859702 0.4872638 0
5.0180001 1.5783473 0.48729986 0
5.0200005 1.5707173 0.48733595 0
5.0210004 1.5627317 0.48735398 0
5.0230002 1.555089 0.48739007 0
5.0250001 1.547439 0.48742613 0
5.0260005 1.5394392 0.48744419 0
5.0280004 1.5317767 0.48748025 0
5.0300002 1.5241067 0.48751634 0
5.0310001 1.5160924 0.48753437 0
5.0330005 1.5084102 0.48757046 0
5.0350003 1.5007205 0.48760653 0
5.0360003 1.4926918 0.48762456 0
5.0380001 1.4849894 0.48766065 0
5.0400004 1.47728 0.48769671 0
5.0410004 1.4692369 0.48771477 0
5.0430002 1.4615147 0.48775083 0
5.0450006 1.4537854 0.48778692 0
5.0460005 1.4457278 0.48780495 0
5.0480003 1.4379858 0.48784101 0
5.0500002 1.4302366 0.4878771 0
5.0520005 1.4224803 0.48791319 0
5.0530005 1.4144028 0.48793122 0
5.0550003 1.4066339 0.48796728 0
5.0670004 1.4019603 0.48818374 0
4.9730005 1.7852371 0.47823936 0
4.9750004 1.7777854 0.47827181 0
4.9760003 1.7699298 0.47828805 0
4.9780002 1.7624656 0.47832051 0
4.9800005 1.7549943 0.47835299 0
4.9810004 1.7471243 0.47836924 0
4.9830003 1.7396402 0.47840169 0
4.9850001 1.732149 0.47843415 0
4.9860005 1.7242647 0.47845039 0
4.9880004 1.7167609 0.47848287 0
4.9900002 1.7092496 0.47851533 0
4.9910002 1.7013507 0.47853157 0
4.9930005 1.6938273 0.47856402 0
4.9950004 1.6862962 0.47859651 0
4.9960003 1.6783829 0.47861272 0
4.9980001 1.6708393 0.47864521 0
5.0000005 1.6632888 0.47867769 0
5.0010004 1.6553611 0.4786939 0
5.0030003 1.6477976 0.47872639 0
5.0050001 1.640227 0.47875884 0
5.0060005 1.6322849 0.47877508 0
5.0080004 1.6247016 0.47880757 0
5.0100002 1.6171111 0.47884002 0
5.0110002 1.6091545 0.47885627 0
5.0130005 1.6015517 0.47888872 0
5.0150003 1.5939412 0.47892118 0
5.0160003 1.5859702 0.47893742 0
5.0180001 1.5783473 0.47896987 0
5.0200005 1.5707173 0.47900236 0
5.0210004 1.5627317 0.4790186 0
5.0230002 1.555089 0.47905105 0
5.0250001 1.547439 0.47908354 0
5.0260005 1.5394392 0.47909975 0
5.0280004 1.5317767 0.47913224 0
5.0300002 1.5241067 0.47916472 0
5.0310001 1.5160924 0.47918093 0
5.0330005 1.5084102 0.47921342 0
5.0350003 1.5007205 0.47924587 0
5.0360003 1.4926918 0.47926211 0
5.0380001 1.4849894 0.47929457 0
5.0400004 1.47728 0.47932705 0
5.0410004 1.4692369 0.4793433 0
5.0430002 1.4615147 0.47937575 0
5.0450006 1.4537854 0.4794082 0
5.0460005 1.4457278 0.47942445 0
5.0480003 1.4379858 0.4794569 0
5.0500002 1.4302366 0.47948939 0
5.0520005 1.4224803 0.47952187 0
5.0530005 1.4144028 0.47953808 0
5.0550003 1.4066339 0.47957057 0
5.0670004 1.4019603 0.47976536 0
4.9730005 1.7852371 0.46999055 0
4.9750004 1.7777854 0.4700194 0
4.9760003 1.7699298 0.47003382 0
4.9780002 1.7624656 0.47006267 0
4.9800005 1.7549943 0.47009155 0
4.9810004 1.7471243 0.47010598 0
4.9830003 1.7396402 0.47013485 0
4.9850001 1.732149 0.4701637 0
4.9860005 1.7242647 0.47017813 0
4.9880004 1.7167609 0.47020698 0
4.9900002 1.7092496 0.47023585 0
4.9910002 1.7013507 0.47025028 0
4.9930005 1.6938273 0.47027916 0
4.9950004 1.6862962 0.47030801 0
4.9960003 1.6783829 0.47032243 0
4.9980001 1.6708393 0.47035128 0
5.0000005 1.6632888 0.47038016 0
5.0010004 1.6553611 0.47039458 0
5.0030003 1.6477976 0.47042346 0
5.0050001 1.640227 0.47045231 0
5.0060005 1.6322849 0.47046673 0
5.0080004 1.6247016 0.47049561 0
5.0100002 1.6171111 0.47052446 0
5.0110002 1.6091545 0.47053888 0
5.0130005 1.6015517 0.47056776 0
5.0150003 1.5939412 0.47059661 0
5.0160003 1.5859702 0.47061104 0
5.0180001 1.5783473 0.47063988 0
5.0200005 1.5707173 0.47066876 0
5.0210004 1.5627317 0.47068319 0
5.0230002 1.555089 0.47071207 0
5.0250001 1.547439 0.47074091 0
5.0260005 1.5394392 0.47075534 0
5.0280004 1.5317767 0.47078422 0
5.0300002 1.5241067 0.47081307 0
5.0310001 1.5160924 0.47082749 0
5.0330005 1.5084102 0.47085637 0
5.0350003 1.5007205 0.47088522 0
5.0360003 1.4926918 0.47089964 0
5.0380001 1.4849894 0.47092852 0
5.0400004 1.47728 0.47095737 0
5.0410004 1.4692369 0.47097182 0
5.0430002 1.4615147 0.47100067 0
5.0450006 1.4537854 0.47102952 0
5.0460005 1.4457278 0.47104394 0
5.0480003 1.4379858 0.47107282 0
5.0500002 1.4302366 0.47110167 0
5.0520005 1.4224803 0.47113055 0
5.0530005 1.4144028 0.47114497 0
5.0550003 1.4066339 0.47117382 0
5.0670004 1.4019603 0.471347 0
4.9730005 1.7852371 0.46174172 0
4.9750004 1.7777854 0.46176696 0
4.9760003 1.7699298 0.46177959 0
4.9780002 1.7624656 0.46180487 0
4.9800005 1.7549943 0.46183011 0
4.9810004 1.7471243 0.46184272 0
4.9830003 1.7396402 0.46186799 0
4.9850001 1.732149 0.46189323 0
4.9860005 1.7242647 0.46190587 0
4.9880004 1.7167609 0.46193111 0
4.9900002 1.7092496 0.46195638 0
4.9910002 1.7013507 0.46196899 0
4.9930005 1.6938273 0.46199426 0
4.9950004 1.6862962 0.4620195 0
4.9960003 1.6783829 0.46203214 0
4.9980001 1.6708393 0.46205738 0
5.0000005 1.6632888 0.46208265 0
5.0010004 1.6553611 0.46209526 0
5.0030003 1.6477976 0.46212053 0
5.0050001 1.640227 0.46214578 0
5.0060005 1.6322849 0.46215841 0
5.0080004 1.6247016 0.46218365 0
5.0100002 1.6171111 0.4622089 0
5.0110002 1.6091545 0.46222153 0
5.0130005 1.6015517 0.46224678 0
5.0150003 1.5939412 0.46227205 0
5.0160003 1.5859702 0.46228465 0
5.0180001 1.5783473 0.46230993 0
5.0200005 1.5707173 0.46233517 0
5.0210004 1.5627317 0.46234781 0
5.0230002 1.555089 0.46237305 0
5.0250001 1.547439 0.46239829 0
5.0260005 1.5394392 0.46241093 0
5.0280004 1.5317767 0.4624362 0
5.0300002 1.5241067 0.46246144 0
5.0310001 1.5160924 0.46247405 0
5.0330005 1.5084102 0.46249932 0
5.0350003 1.5007205 0.46252456 0
5.0360003 1.4926918 0.4625372 0
5.0380001 1.4849894 0.46256244 0
5.0400004 1.47728 0.46258771 0
5.0410004 1.4692369 0.46260035 0
5.0430002 1.4615147 0.46262559 0
5.0450006 1.4537854 0.46265084 0
5.0460005 1.4457278 0.46266347 0
5.0480003 1.4379858 0.46268871 0
5.0500002 1.4302366 0.46271396 0
5.0520005 1.4224803 0.46273923 0
5.0530005 1.4144028 0.46275187 0
5.0550003 1.4066339 0.46277711 0
5.0670004 1.4019603 0.46292862 0
4.9730005 1.7852371 0.45349291 0
4.9750004 1.7777854 0.45351455 0
4.9760003 1.7699298 0.45352536 0
4.9780002 1.7624656 0.453547 0
4.9800005 1.7549943 0.45356867 0
4.9810004 1.7471243 0.45357949 0
4.9830003 1.7396402 0.45360112 0
4.9850001 1.732149 0.45362279 0
4.9860005 1.7242647 0.45363361 0
4.9880004 1.7167609 0.45365524 0
4.9900002 1.7092496 0.45367688 0
4.9910002 1.7013507 0.45368773 0
4.9930005 1.6938273 0.45370936 0
4.9950004 1.6862962 0.453731 0
4.9960003 1.6783829 0.45374182 0
4.9980001 1.6708393 0.45376348 0
5.0000005 1.6632888 0.45378512 0
5.0010004 1.6553611 0.45379594 0
5.0030003 1.6477976 0.45381758 0
5.0050001 1.640227 0.45383924 0
5.0060005 1.6322849 0.45385006 0
5.0080004 1.6247016 0.4538717 0
5.0100002 1.6171111 0.45389336 0
5.0110002 1.6091545 0.45390418 0
5.0130005 1.6015517 0.45392582 0
5.0150003 1.5939412 0.45394745 0
5.0160003 1.5859702 0.45395827 0
5.0180001 1.5783473 0.45397994 0
5.0200005 1.5707173 0.45400158 0
5.0210004 1.5627317 0.45401239 0
5.0230002 1.555089 0.45403403 0
5.0250001 1.547439 0.4540557 0
5.0260005 1.5394392 0.45406651 0
5.0280004 1.5317767 0.45408815 0
5.0300002 1.5241067 0.45410982 0
5.0310001 1.5160924 0.45412064 0
5.0330005 1.5084102 0.45414227 0
5.0350003 1.5007205 0.45416391 0
5.0360003 1.4926918 0.45417476 0
5.0380001 1.4849894 0.45419639 0
5.0400004 1.47728 0.45421803 0
5.0410004 1.4692369 0.45422885 0
5.0430002 1.4615147 0.45425051 0
5.0450006 1.4537854 0.45427215 0
5.0460005 1.4457278 0.45428297 0
5.0480003 1.4379858 0.45430461 0
5.0500002 1.4302366 0.45432627 0
5.0520005 1.4224803 0.45434791 0
5.0530005 1.4144028 0.45435873 0
5.0550003 1.4066339 0.45438036 0
5.0670004 1.4019603 0.45451024 0
4.9730005 1.7852371 0.44524407 0
4.9750004 1.7777854 0.44526213 0
4.9760003 1.7699298 0.44527113 0
4.9780002 1.7624656 0.44528919 0
4.9800005 1.7549943 0.44530722 0
4.9810004 1.7471243 0.44531626 0
4.9830003 1.7396402 0.44533429 0
4.9850001 1.732149 0.44535232 0
4.9860005 1.7242647 0.44536135 0
4.9880004 1.7167609 0.44537938 0
4.9900002 1.7092496 0.44539741 0
4.9910002 1.7013507 0.44540644 0
4.9930005 1.6938273 0.44542447 0
4.9950004 1.6862962 0.4454425 0
4.9960003 1.6783829 0.44545153 0
4.9980001 1.6708393 0.44546956 0
5.0000005 1.6632888 0.44548762 0
5.0010004 1.6553611 0.44549662 0
5.0030003 1.6477976 0.44551465 0
5.0050001 1.640227 0.44553268 0
5.0060005 1.6322849 0.44554171 0
5.0080004 1.6247016 0.44555974 0
5.0100002 1.6171111 0.4455778 0
5.0110002 1.6091545 0.4455868 0
5.0130005 1.6015517 0.44560486 0
5.0150003 1.5939412 0.44562289 0
5.0160003 1.5859702 0.44563192 0
5.0180001 1.5783473 0.44564995 0
5.0200005 1.5707173 0.44566798 0
5.0210004 1.5627317 0.44567701 0
5.0230002 1.555089 0.44569504 0
5.0250001 1.547439 0.44571307 0
5.0260005 1.5394392 0.4457221 0
5.0280004 1.5317767 0.44574013 0
5.0300002 1.5241067 0.44575816 0
5.0310001 1.5160924 0.44576719 0
5.0330005 1.5084102 0.44578522 0
5.0350003 1.5007205 0.44580328 0
5.0360003 1.4926918 0.44581228 0
5.0380001 1.4849894 0.44583032 0
5.0400004 1.47728 0.44584838 0
5.0410004 1.4692369 0.44585738 0
5.0430002 1.4615147 0.44587541 0
5.0450006 1.4537854 0.44589347 0
5.0460005 1.4457278 0.44590247 0
5.0480003 1.4379858 0.44592053 0
5.0500002 1.4302366 0.44593856 0
5.0520005 1.4224803 0.44595659 0
5.0530005 1.4144028 0.44596562 0
5.0550003 1.4066339 0.44598365 0
5.0670004 1.4019603 0.44609189 0
4.9730005 1.7852371 0.43699527 0
4.9750004 1.7777854 0.43700969 0
4.9760003 1.7699298 0.4370169 0
4.9780002 1.7624656 0.43703136 0
4.9800005 1.7549943 0.43704578 0
4.9810004 1.7471243 0.43705299 0
4.9830003 1.7396402 0.43706742 0
4.9850001 1.732149 0.43708184 0
4.9860005 1.7242647 0.43708909 0
4.9880004 1.7167609 0.43710351 0
4.9900002 1.7092496 0.43711793 0
4.9910002 1.7013507 0.43712515 0
4.9930005 1.6938273 0.43713957 0
4.9950004 1.6862962 0.437154 0
4.9960003 1.6783829 0.43716124 0
4.9980001 1.6708393 0.43717566 0
5.0000005 1.6632888 0.43719009 0
5.0010004 1.6553611 0.4371973 0
5.0030003 1.6477976 0.43721172 0
5.0050001 1.640227 0.43722618 0
5.0060005 1.6322849 0.43723339 0
5.0080004 1.6247016 0.43724781 0
5.0100002 1.6171111 0.43726224 0
5.0110002 1.6091545 0.43726945 0
5.0130005 1.6015517 0.43728387 0
5.0150003 1.5939412 0.4372983 0
5.0160003 1.5859702 0.43730554 0
5.0180001 1.5783473 0.43731996 0
5.0200005 1.5707173 0.43733439 0
5.0210004 1.5627317 0.4373416 0
5.0230002 1.555089 0.43735602 0
5.0250001 1.547439 0.43737048 0
5.0260005 1.5394392 0.43737769 0
5.0280004 1.5317767 0.43739212 0
5.0300002 1.5241067 0.43740654 0
5.0310001 1.5160924 0.43741375 0
5.0330005 1.5084102 0.43742818 0
5.0350003 1.5007205 0.43744263 0
5.0360003 1.4926918 0.43744984 0
5.0380001 1.4849894 0.43746427 0
5.0400004 1.47728 0.43747869 0
5.0410004 1.4692369 0.4374859 0
5.0430002 1.4615147 0.43750033 0
5.0450006 1.4537854 0.43751478 0
5.0460005 1.4457278 0.43752199 0
5.0480003 1.4379858 0.43753642 0
5.0500002 1.4302366 0.43755084 0
5.0520005 1.4224803 0.43756527 0
5.0530005 1.4144028 0.43757248 0
5.0550003 1.4066339 0.43758693 0
5.0670004 1.4019603 0.43767351 0
4.9730005 1.7852371 0.42874646 0
4.9750004 1.7777854 0.42875728 0
4.9760003 1.7699298 0.4287627 0
4.9780002 1.7624656 0.42877352 0
4.9800005 1.7549943 0.42878434 0
4.9810004 1.7471243 0.42878976 0
4.9830003 1.7396402 0.42880058 0
4.9850001 1.732149 0.4288114 0
4.9860005 1.7242647 0.4288168 0
4.9880004 1.7167609 0.42882764 0
4.9900002 1.7092496 0.42883846 0
4.9910002 1.7013507 0.42884386 0
4.9930005 1.6938273 0.4288547 0
4.9950004 1.6862962 0.42886552 0
4.9960003 1.6783829 0.42887092 0
4.9980001 1.6708393 0.42888173 0
5.0000005 1.6632888 0.42889255 0
5.0010004 1.6553611 0.42889798 0
5.0030003 1.6477976 0.4289088 0
5.0050001 1.640227 0.42891961 0
5.0060005 1.6322849 0.42892504 0
5.0080004 1.6247016 0.42893586 0
5.0100002 1.6171111 0.42894667 0
5.0110002 1.6091545 0.4289521 0
5.0130005 1.6015517 0.42896292 0
5.0150003 1.5939412 0.42897373 0
5.0160003 1.5859702 0.42897916 0
5.0180001 1.5783473 0.42898998 0
5.0200005 1.5707173 0.42900079 0
5.0210004 1.5627317 0.42900622 0
5.0230002 1.555089 0.42901704 0
5.0250001 1.547439 0.42902786 0
5.0260005 1.5394392 0.42903328 0
5.0280004 1.5317767 0.4290441 0
5.0300002 1.5241067 0.42905492 0
5.0310001 1.5160924 0.42906031 0
5.0330005 1.5084102 0.42907116 0
5.0350003 1.5007205 0.42908198 0
5.0360003 1.4926918 0.42908737 0
5.0380001 1.4849894 0.42909819 0
5.0400004 1.47728 0.42910904 0
5.0410004 1.4692369 0.42911443 0
5.0430002 1.4615147 0.42912525 0
5.0450006 1.4537854 0.4291361 0
5.0460005 1.4457278 0.42914149 0
5.0480003 1.4379858 0.42915231 0
5.0500002 1.4302366 0.42916313 0
5.0520005 1.4224803 0.42917398 0
5.0530005 1.4144028 0.42917937 0
5.0550003 1.4066339 0.42919019 0
5.0670004 1.4019603 0.42925513 0
4.9730005 1.7852371 0.42049766 0
4.9750004 1.7777854 0.42050487 0
4.9760003 1.7699298 0.42050847 0
4.9780002 1.7624656 0.42051569 0
