# .PCD v0.7 - Point Cloud Data file format
VERSION 0.7
FIELDS x y z intensity
SIZE 4 4 4 4
TYPE F F F F
COUNT 1 1 1 1
WIDTH 1432
HEIGHT 1
VIEWPOINT 0 0 0 1 0 0 0
POINTS 1432
DATA ascii
6.6970005 -3.6125944 1.4717066 0
6.6930003 -3.62168 1.4710283 0
6.6890006 -3.6307516 1.4703503 0
6.7340002 -3.5192976 1.4665549 0
6.7300005 -3.5285225 1.465884 0
6.7260003 -3.5377326 1.4652128 0
6.7230005 -3.5474823 1.4647096 0
6.7190003 -3.5566654 1.4640386 0
6.7150006 -3.5658343 1.4633676 0
6.7110004 -3.5749886 1.4626966 0
6.7080002 -3.5846894 1.4621933 0
6.7040005 -3.5938168 1.4615223 0
6.7000003 -3.6029294 1.4608513 0
6.6970005 -3.6125944 1.460348 0
6.6930003 -3.62168 1.459677 0
6.6890006 -3.6307516 1.4590061 0
6.7340002 -3.5192976 1.4551296 0
6.7300005 -3.5285225 1.4544659 0
6.7260003 -3.5377326 1.453802 0
6.7230005 -3.5474823 1.4533042 0
6.7190003 -3.5566654 1.4526403 0
6.7150006 -3.5658343 1.4519765 0
6.7110004 -3.5749886 1.4513128 0
6.7080002 -3.5846894 1.4508148 0
6.7040005 -3.5938168 1.4501511 0
6.7000003 -3.6029294 1.4494873 0
6.6970005 -3.6125944 1.4489895 0
6.6930003 -3.62168 1.4483256 0
6.6890006 -3.6307516 1.4476619 0
6.7340002 -3.5192976 1.4437042 0
6.7300005 -3.5285225 1.4430478 0
6.7260003 -3.5377326 1.442391 0
6.7230005 -3.5474823 1.4418987 0
6.7190003 -3.5566654 1.4412421 0
6.7150006 -3.5658343 1.4405855 0
6.7110004 -3.5749886 1.4399289 0
6.7080002 -3.5846894 1.4394364 0
6.7040005 -3.5938168 1.43878 0
6.7000003 -3.6029294 1.4381232 0
6.6970005 -3.6125944 1.4376309 0
6.6930003 -3.62168 1.4369743 0
6.6890006 -3.6307516 1.4363178 0
6.7340002 -3.5192976 1.4322789 0
6.7300005 -3.5285225 1.4316295 0
6.7260003 -3.5377326 1.4309802 0
6.7230005 -3.5474823 1.4304932 0
6.7190003 -3.5566654 1.4298438 0
6.7150006 -3.5658343 1.4291945 0
6.7110004 -3.5749886 1.4285451 0
6.7080002 -3.5846894 1.428058 0
6.7040005 -3.5938168 1.4274087 0
6.7000003 -3.6029294 1.4267592 0
6.6970005 -3.6125944 1.4262723 0
6.6930003 -3.62168 1.4256228 0
6.6890006 -3.6307516 1.4249736 0
6.7340002 -3.5192976 1.4208536 0
6.7300005 -3.5285225 1.4202116 0
6.7260003 -3.5377326 1.4195694 0
6.7230005 -3.5474823 1.4190876 0
6.7190003 -3.5566654 1.4184455 0
6.7150006 -3.5658343 1.4178034 0
6.7110004 -3.5749886 1.4171612 0
6.7080002 -3.5846894 1.4166795 0
6.7040005 -3.5938168 1.4160374 0
6.7000003 -3.6029294 1.4153953 0
6.6970005 -3.6125944 1.4149138 0
6.6930003 -3.62168 1.4142716 0
6.6890006 -3.6307516 1.4136294 0
6.7340002 -3.5192976 1.4094284 0
6.7300005 -3.5285225 1.4087934 0
6.7260003 -3.5377326 1.4081584 0
6.7230005 -3.5474823 1.4076822 0
6.7190003 -3.5566654 1.4070473 0
6.7150006 -3.5658343 1.4064124 0
6.7110004 -3.5749886 1.4057775 0
6.7080002 -3.5846894 1.4053012 0
6.7040005 -3.5938168 1.4046663 0
6.7000003 -3.6029294 1.4040313 0
6.6970005 -3.6125944 1.4035552 0
6.6930003 -3.62168 1.4029201 0
6.6890006 -3.6307516 1.4022853 0
6.7340002 -3.5192976 1.3980029 0
6.7300005 -3.5285225 1.3973752 0
6.7260003 -3.5377326 1.3967475 0
6.7230005 -3.5474823 1.3962767 0
6.7190003 -3.5566654 1.3956491 0
6.7150006 -3.5658343 1.3950213 0
6.7110004 -3.5749886 1.3943936 0
6.7080002 -3.5846894 1.3939228 0
6.7040005 -3.5938168 1.393295 0
6.7000003 -3.6029294 1.3926673 0
6.6970005 -3.6125944 1.3921965 0
6.6930003 -3.62168 1.3915688 0
6.6890006 -3.6307516 1.3909411 0
6.7340002 -3.5192976 1.3865776 0
6.7300005 -3.5285225 1.3859571 0
6.7260003 -3.5377326 1.3853366 0
6.7230005 -3.5474823 1.3848712 0
6.7190003 -3.5566654 1.3842508 0
6.7150006 -3.5658343 1.3836303 0
6.7110004 -3.5749886 1.3830097 0
6.7080002 -3.5846894 1.3825444 0
6.7040005 -3.5938168 1.3819239 0
6.7000003 -3.6029294 1.3813032 0
6.6970005 -3.6125944 1.380838 0
6.6930003 -3.62168 1.3802173 0
6.6890006 -3.6307516 1.3795969 0
6.7340002 -3.5192976 1.3751523 0
6.7300005 -3.5285225 1.374539 0
6.7260003 -3.5377326 1.3739257 0
6.7230005 -3.5474823 1.3734658 0
6.7190003 -3.5566654 1.3728524 0
6.7150006 -3.5658343 1.3722392 0
6.7110004 -3.5749886 1.3716259 0
6.7080002 -3.5846894 1.3711659 0
6.7040005 -3.5938168 1.3705527 0
6.7000003 -3.6029294 1.3699393 0
6.6970005 -3.6125944 1.3694794 0
6.6930003 -3.62168 1.3688661 0
6.6890006 -3.6307516 1.3682529 0
6.7340002 -3.5192976 1.363727 0
6.7300005 -3.5285225 1.3631209 0
6.7260003 -3.5377326 1.3625149 0
6.7230005 -3.5474823 1.3620603 0
6.7190003 -3.5566654 1.3614542 0
6.7150006 -3.5658343 1.3608481 0
6.7110004 -3.5749886 1.360242 0
6.7080002 -3.5846894 1.3597875 0
6.7040005 -3.5938168 1.3591814 0
6.7000003 -3.6029294 1.3585753 0
6.6970005 -3.6125944 1.3581208 0
6.6930003 -3.62168 1.3575146 0
6.6890006 -3.6307516 1.3569087 0
6.7340002 -3.5192976 1.3523016 0
6.7300005 -3.5285225 1.3517028 0
6.7260003 -3.5377326 1.351104 0
6.7230005 -3.5474823 1.3506548 0
6.7190003 -3.5566654 1.3500559 0
6.7150006 -3.5658343 1.349457 0
6.7110004 -3.5749886 1.3488582 0
6.7080002 -3.5846894 1.3484091 0
6.7040005 -3.5938168 1.3478103 0
6.7000003 -3.6029294 1.3472114 0
6.6970005 -3.6125944 1.3467623 0
6.6930003 -3.62168 1.3461634 0
6.6890006 -3.6307516 1.3455645 0
6.7340002 -3.5192976 1.3408763 0
6.7300005 -3.5285225 1.3402848 0
6.7260003 -3.5377326 1.3396931 0
6.7230005 -3.5474823 1.3392494 0
6.7190003 -3.5566654 1.3386576 0
6.7150006 -3.5658343 1.338066 0
6.7110004 -3.5749886 1.3374743 0
6.7080002 -3.5846894 1.3370305 0
6.7040005 -3.5938168 1.336439 0
6.7000003 -3.6029294 1.3358474 0
6.6970005 -3.6125944 1.3354036 0
6.6930003 -3.62168 1.3348119 0
6.6890006 -3.6307516 1.3342204 0
6.7340002 -3.5192976 1.3294511 0
6.7300005 -3.5285225 1.3288666 0
6.7260003 -3.5377326 1.3282821 0
6.7230005 -3.5474823 1.3278439 0
6.7190003 -3.5566654 1.3272594 0
6.7150006 -3.5658343 1.3266751 0
6.7110004 -3.5749886 1.3260906 0
6.7080002 -3.5846894 1.3256521 0
6.7040005 -3.5938168 1.3250678 0
6.7000003 -3.6029294 1.3244834 0
6.6970005 -3.6125944 1.3240451 0
6.6930003 -3.62168 1.3234606 0
6.6890006 -3.6307516 1.3228762 0
6.7340002 -3.5192976 1.3180257 0
6.7300005 -3.5285225 1.3174485 0
6.7260003 -3.5377326 1.3168713 0
6.7230005 -3.5474823 1.3164383 0
6.7190003 -3.5566654 1.3158611 0
6.7150006 -3.5658343 1.315284 0
6.7110004 -3.5749886 1.3147067 0
6.7080002 -3.5846894 1.3142738 0
6.7040005 -3.5938168 1.3136966 0
6.7000003 -3.6029294 1.3131193 0
6.6970005 -3.6125944 1.3126864 0
6.6930003 -3.62168 1.3121092 0
6.6890006 -3.6307516 1.311532 0
6.7340002 -3.5192976 1.3066003 0
6.7300005 -3.5285225 1.3060304 0
6.7260003 -3.5377326 1.3054605 0
6.7230005 -3.5474823 1.3050328 0
6.7190003 -3.5566654 1.3044629 0
6.7150006 -3.5658343 1.303893 0
6.7110004 -3.5749886 1.3033229 0
6.7080002 -3.5846894 1.3028953 0
6.7040005 -3.5938168 1.3023254 0
6.7000003 -3.6029294 1.3017553 0
6.6970005 -3.6125944 1.3013279 0
6.6930003 -3.62168 1.3007579 0
6.6890006 -3.6307516 1.3001879 0
6.7340002 -3.5192976 1.2951751 0
6.7300005 -3.5285225 1.2946123 0
6.7260003 -3.5377326 1.2940495 0
6.7230005 -3.5474823 1.2936274 0
6.7190003 -3.5566654 1.2930646 0
6.7150006 -3.5658343 1.2925018 0
6.7110004 -3.5749886 1.291939 0
6.7080002 -3.5846894 1.2915169 0
6.7040005 -3.5938168 1.2909542 0
6.7000003 -3.6029294 1.2903913 0
6.6970005 -3.6125944 1.2899693 0
6.6930003 -3.62168 1.2894064 0
6.6890006 -3.6307516 1.2888438 0
6.7340002 -3.5192976 1.2837497 0
6.7300005 -3.5285225 1.2831942 0
6.7260003 -3.5377326 1.2826385 0
6.7230005 -3.5474823 1.2822219 0
6.7190003 -3.5566654 1.2816664 0
6.7150006 -3.5658343 1.2811108 0
6.7110004 -3.5749886 1.2805552 0
6.7080002 -3.5846894 1.2801385 0
6.7040005 -3.5938168 1.279583 0
6.7000003 -3.6029294 1.2790273 0
6.6970005 -3.6125944 1.2786107 0
6.6930003 -3.62168 1.2780551 0
6.6890006 -3.6307516 1.2774996 0
6.7340002 -3.5192976 1.2723244 0
6.7300005 -3.5285225 1.2717761 0
6.7260003 -3.5377326 1.2712277 0
6.7230005 -3.5474823 1.2708164 0
6.7190003 -3.5566654 1.2702681 0
6.7150006 -3.5658343 1.2697197 0
6.7110004 -3.5749886 1.2691714 0
6.7080002 -3.5846894 1.2687601 0
6.7040005 -3.5938168 1.2682117 0
6.7000003 -3.6029294 1.2676634 0
6.6970005 -3.6125944 1.2672521 0
6.6930003 -3.62168 1.2667037 0
6.6890006 -3.6307516 1.2661555 0
6.7340002 -3.5192976 1.2608991 0
6.7300005 -3.5285225 1.260358 0
6.7260003 -3.5377326 1.2598168 0
6.7230005 -3.5474823 1.259411 0
6.7190003 -3.5566654 1.2588698 0
6.7150006 -3.5658343 1.2583287 0
6.7110004 -3.5749886 1.2577876 0
6.7080002 -3.5846894 1.2573817 0
6.7040005 -3.5938168 1.2568406 0
6.7000003 -3.6029294 1.2562994 0
6.6970005 -3.6125944 1.2558936 0
6.6930003 -3.62168 1.2553524 0
6.6890006 -3.6307516 1.2548113 0
6.7340002 -3.5192976 1.2494738 0
6.7300005 -3.5285225 1.2489399 0
6.7260003 -3.5377326 1.2484059 0
6.7230005 -3.5474823 1.2480055 0
6.7190003 -3.5566654 1.2474716 0
6.7150006 -3.5658343 1.2469376 0
6.7110004 -3.5749886 1.2464037 0
6.7080002 -3.5846894 1.2460033 0
6.7040005 -3.5938168 1.2454693 0
6.7000003 -3.6029294 1.2449354 0
6.6970005 -3.6125944 1.244535 0
6.6930003 -3.62168 1.244001 0
6.6890006 -3.6307516 1.2434672 0
6.7340002 -3.5192976 1.2380484 0
6.7300005 -3.5285225 1.2375218 0
6.7260003 -3.5377326 1.236995 0
6.7230005 -3.5474823 1.2366 0
6.7190003 -3.5566654 1.2360733 0
6.7150006 -3.5658343 1.2355466 0
6.7110004 -3.5749886 1.2350199 0
6.7080002 -3.5846894 1.2346249 0
6.7040005 -3.5938168 1.2340981 0
6.7000003 -3.6029294 1.2335714 0
6.6970005 -3.6125944 1.2331764 0
6.6930003 -3.62168 1.2326497 0
6.6890006 -3.6307516 1.232123 0
6.7340002 -3.5192976 1.2266232 0
6.7300005 -3.5285225 1.2261037 0
6.7260003 -3.5377326 1.2255841 0
6.7230005 -3.5474823 1.2251946 0
6.7190003 -3.5566654 1.2246751 0
6.7150006 -3.5658343 1.2241555 0
6.7110004 -3.5749886 1.223636 0
6.7080002 -3.5846894 1.2232463 0
6.7040005 -3.5938168 1.2227269 0
6.7000003 -3.6029294 1.2222074 0
6.6970005 -3.6125944 1.2218179 0
6.6930003 -3.62168 1.2212983 0
6.6890006 -3.6307516 1.2207788 0
6.7340002 -3.5192976 1.2151978 0
6.7300005 -3.5285225 1.2146856 0
6.7260003 -3.5377326 1.2141733 0
6.7230005 -3.5474823 1.2137891 0
6.7190003 -3.5566654 1.2132767 0
6.7150006 -3.5658343 1.2127645 0
6.7110004 -3.5749886 1.2122523 0
6.7080002 -3.5846894 1.2118679 0
6.7040005 -3.5938168 1.2113557 0
6.7000003 -3.6029294 1.2108434 0
6.6970005 -3.6125944 1.2104592 0
6.6930003 -3.62168 1.2099469 0
6.6890006 -3.6307516 1.2094347 0
6.7340002 -3.5192976 1.2037724 0
6.7300005 -3.5285225 1.2032675 0
6.7260003 -3.5377326 1.2027624 0
6.7230005 -3.5474823 1.2023835 0
6.7190003 -3.5566654 1.2018785 0
6.7150006 -3.5658343 1.2013735 0
6.7110004 -3.5749886 1.2008684 0
6.7080002 -3.5846894 1.2004895 0
6.7040005 -3.5938168 1.1999846 0
6.7000003 -3.6029294 1.1994795 0
6.6970005 -3.6125944 1.1991007 0
6.6930003 -3.62168 1.1985955 0
6.6890006 -3.6307516 1.1980906 0
6.7340002 -3.5192976 1.1923472 0
6.7300005 -3.5285225 1.1918494 0
6.7260003 -3.5377326 1.1913515 0
6.7230005 -3.5474823 1.1909781 0
6.7190003 -3.5566654 1.1904802 0
6.7150006 -3.5658343 1.1899824 0
6.7110004 -3.5749886 1.1894845 0
6.7080002 -3.5846894 1.1891111 0
6.7040005 -3.5938168 1.1886133 0
6.7000003 -3.6029294 1.1881155 0
6.6970005 -3.6125944 1.1877421 0
6.6930003 -3.62168 1.1872442 0
6.6890006 -3.6307516 1.1867464 0
6.7340002 -3.5192976 1.1809218 0
6.7300005 -3.5285225 1.1804312 0
6.7260003 -3.5377326 1.1799406 0
6.7230005 -3.5474823 1.1795726 0
6.7190003 -3.5566654 1.1790819 0
6.7150006 -3.5658343 1.1785914 0
6.7110004 -3.5749886 1.1781007 0
6.7080002 -3.5846894 1.1777327 0
6.7040005 -3.5938168 1.1772422 0
6.7000003 -3.6029294 1.1767515 0
6.6970005 -3.6125944 1.1763835 0
6.6930003 -3.62168 1.1758928 0
6.6890006 -3.6307516 1.1754023 0
6.7340002 -3.5192976 1.1694965 0
6.7300005 -3.5285225 1.1690131 0
6.7260003 -3.5377326 1.1685296 0
6.7230005 -3.5474823 1.1681671 0
6.7190003 -3.5566654 1.1676837 0
6.7150006 -3.5658343 1.1672003 0
6.7110004 -3.5749886 1.1667169 0
6.7080002 -3.5846894 1.1663543 0
6.7040005 -3.5938168 1.1658709 0
6.7000003 -3.6029294 1.1653874 0
6.6970005 -3.6125944 1.1650249 0
6.6930003 -3.62168 1.1645415 0
6.6890006 -3.6307516 1.1640581 0
6.7340002 -3.5192976 1.1580712 0
6.7300005 -3.5285225 1.157595 0
6.7260003 -3.5377326 1.1571188 0
6.7230005 -3.5474823 1.1567616 0
6.7190003 -3.5566654 1.1562854 0
6.7150006 -3.5658343 1.1558093 0
6.7110004 -3.5749886 1.155333 0
6.7080002 -3.5846894 1.1549759 0
6.7040005 -3.5938168 1.1544997 0
6.7000003 -3.6029294 1.1540235 0
6.6970005 -3.6125944 1.1536664 0
6.6930003 -3.62168 1.1531901 0
6.6890006 -3.6307516 1.1527139 0
6.7340002 -3.5192976 1.1466459 0
6.7300005 -3.5285225 1.1461769 0
6.7260003 -3.5377326 1.1457078 0
6.7230005 -3.5474823 1.1453562 0
6.7190003 -3.5566654 1.1448872 0
6.7150006 -3.5658343 1.1444182 0
6.7110004 -3.5749886 1.1439493 0
6.7080002 -3.5846894 1.1435975 0
6.7040005 -3.5938168 1.1431285 0
6.7000003 -3.6029294 1.1426594 0
6.6970005 -3.6125944 1.1423078 0
6.6930003 -3.62168 1.1418388 0
6.6890006 -3.6307516 1.1413698 0
6.7340002 -3.5192976 1.1352205 0
6.7300005 -3.5285225 1.1347588 0
6.7260003 -3.5377326 1.134297 0
6.7230005 -3.5474823 1.1339507 0
6.7190003 -3.5566654 1.1334889 0
6.7150006 -3.5658343 1.1330272 0
6.7110004 -3.5749886 1.1325654 0
6.7080002 -3.5846894 1.1322191 0
6.7040005 -3.5938168 1.1317573 0
6.7000003 -3.6029294 1.1312954 0
6.6970005 -3.6125944 1.1309491 0
6.6930003 -3.62168 1.1304873 0
6.6890006 -3.6307516 1.1300256 0
6.7340002 -3.5192976 1.1237952 0
6.7300005 -3.5285225 1.1233407 0
6.7260003 -3.5377326 1.1228862 0
6.7230005 -3.5474823 1.1225452 0
6.7190003 -3.5566654 1.1220907 0
6.7150006 -3.5658343 1.1216362 0
6.7110004 -3.5749886 1.1211815 0
6.7080002 -3.5846894 1.1208405 0
6.7040005 -3.5938168 1.1203861 0
6.7000003 -3.6029294 1.1199315 0
6.6970005 -3.6125944 1.1195906 0
6.6930003 -3.62168 1.119136 0
6.6890006 -3.6307516 1.1186814 0
6.7340002 -3.5192976 1.1123699 0
6.7300005 -3.5285225 1.1119226 0
6.7260003 -3.5377326 1.1114752 0
6.7230005 -3.5474823 1.1111398 0
6.7190003 -3.5566654 1.1106924 0
6.7150006 -3.5658343 1.1102451 0
6.7110004 -3.5749886 1.1097977 0
6.7080002 -3.5846894 1.1094621 0
6.7040005 -3.5938168 1.1090149 0
6.7000003 -3.6029294 1.1085675 0
6.6970005 -3.6125944 1.108232 0
6.6930003 -3.62168 1.1077846 0
6.6890006 -3.6307516 1.1073374 0
6.7340002 -3.5192976 1.1009445 0
6.7300005 -3.5285225 1.1005045 0
6.7260003 -3.5377326 1.1000644 0
6.7230005 -3.5474823 1.0997343 0
6.7190003 -3.5566654 1.0992941 0
6.7150006 -3.5658343 1.0988541 0
6.7110004 -3.5749886 1.0984138 0
6.7080002 -3.5846894 1.0980837 0
6.7040005 -3.5938168 1.0976437 0
6.7000003 -3.6029294 1.0972035 0
6.6970005 -3.6125944 1.0968734 0
6.6930003 -3.62168 1.0964333 0
6.6890006 -3.6307516 1.0959932 0
6.7340002 -3.5192976 1.0895193 0
6.7300005 -3.5285225 1.0890864 0
6.7260003 -3.5377326 1.0886534 0
6.7230005 -3.5474823 1.0883288 0
6.7190003 -3.5566654 1.0878959 0
6.7150006 -3.5658343 1.087463 0
6.7110004 -3.5749886 1.0870301 0
6.7080002 -3.5846894 1.0867053 0
6.7040005 -3.5938168 1.0862725 0
6.7000003 -3.6029294 1.0858395 0
6.6970005 -3.6125944 1.0855149 0
6.6930003 -3.62168 1.0850819 0
6.6890006 -3.6307516 1.0846491 0
6.7340002 -3.5192976 1.0780939 0
6.7300005 -3.5285225 1.0776683 0
6.7260003 -3.5377326 1.0772426 0
6.7230005 -3.5474823 1.0769234 0
6.7190003 -3.5566654 1.0764976 0
6.7150006 -3.5658343 1.0760719 0
6.7110004 -3.5749886 1.0756463 0
6.7080002 -3.5846894 1.0753269 0
6.7040005 -3.5938168 1.0749012 0
6.7000003 -3.6029294 1.0744755 0
6.6970005 -3.6125944 1.0741563 0
6.6930003 -3.62168 1.0737306 0
6.6890006 -3.6307516 1.0733049 0
6.7340002 -3.5192976 1.0666686 0
6.7300005 -3.5285225 1.0662502 0
6.7260003 -3.5377326 1.0658317 0
6.7230005 -3.5474823 1.0655179 0
6.7190003 -3.5566654 1.0650994 0
6.7150006 -3.5658343 1.0646808 0
6.7110004 -3.5749886 1.0642624 0
6.7080002 -3.5846894 1.0639485 0
6.7040005 -3.5938168 1.0635301 0
6.7000003 -3.6029294 1.0631115 0
6.6970005 -3.6125944 1.0627977 0
6.6930003 -3.62168 1.0623792 0
6.6890006 -3.6307516 1.0619607 0
6.7340002 -3.5192976 1.0552433 0
6.7300005 -3.5285225 1.0548321 0
6.7260003 -3.5377326 1.0544207 0
6.7230005 -3.5474823 1.0541123 0
6.7190003 -3.5566654 1.053701 0
6.7150006 -3.5658343 1.0532898 0
6.7110004 -3.5749886 1.0528785 0
6.7080002 -3.5846894 1.0525701 0
6.7040005 -3.5938168 1.0521588 0
6.7000003 -3.6029294 1.0517476 0
6.6970005 -3.6125944 1.051439 0
6.6930003 -3.62168 1.0510279 0
6.6890006 -3.6307516 1.0506166 0
6.7340002 -3.5192976 1.043818 0
6.7300005 -3.5285225 1.043414 0
6.7260003 -3.5377326 1.0430099 0
6.7230005 -3.5474823 1.0427068 0
6.7190003 -3.5566654 1.0423028 0
6.7150006 -3.5658343 1.0418987 0
6.7110004 -3.5749886 1.0414947 0
6.7080002 -3.5846894 1.0411917 0
6.7040005 -3.5938168 1.0407876 0
6.7000003 -3.6029294 1.0403836 0
6.6970005 -3.6125944 1.0400805 0
6.6930003 -3.62168 1.0396764 0
6.6890006 -3.6307516 1.0392724 0
6.7340002 -3.5192976 1.0323926 0
6.7300005 -3.5285225 1.0319959 0
6.7260003 -3.5377326 1.031599 0
6.7230005 -3.5474823 1.0313014 0
6.7190003 -3.5566654 1.0309045 0
6.7150006 -3.5658343 1.0305078 0
6.7110004 -3.5749886 1.0301108 0
6.7080002 -3.5846894 1.0298132 0
6.7040005 -3.5938168 1.0294164 0
6.7000003 -3.6029294 1.0290196 0
6.6970005 -3.6125944 1.0287219 0
6.6930003 -3.62168 1.0283251 0
6.6890006 -3.6307516 1.0279282 0
6.7340002 -3.5192976 1.0209674 0
6.7300005 -3.5285225 1.0205777 0
6.7260003 -3.5377326 1.0201881 0
6.7230005 -3.5474823 1.0198959 0
6.7190003 -3.5566654 1.0195063 0
6.7150006 -3.5658343 1.0191168 0
6.7110004 -3.5749886 1.0187271 0
6.7080002 -3.5846894 1.0184349 0
6.7040005 -3.5938168 1.0180452 0
6.7000003 -3.6029294 1.0176556 0
6.6970005 -3.6125944 1.0173634 0
6.6930003 -3.62168 1.0169737 0
6.6890006 -3.6307516 1.0165842 0
6.7340002 -3.5192976 1.009542 0
6.7300005 -3.5285225 1.0091597 0
6.7260003 -3.5377326 1.0087773 0
6.7230005 -3.5474823 1.0084904 0
6.7190003 -3.5566654 1.008108 0
6.7150006 -3.5658343 1.0077256 0
6.7110004 -3.5749886 1.0073433 0
6.7080002 -3.5846894 1.0070564 0
6.7040005 -3.5938168 1.0066741 0
6.7000003 -3.6029294 1.0062916 0
6.6970005 -3.6125944 1.0060048 0
6.6930003 -3.62168 1.0056224 0
6.6890006 -3.6307516 1.00524 0
6.7340002 -3.5192976 0.99811673 0
6.7300005 -3.5285225 0.99774158 0
6.7260003 -3.5377326 0.99736631 0
6.7230005 -3.5474823 0.99708498 0
6.7190003 -3.5566654 0.9967097 0
6.7150006 -3.5658343 0.99633455 0
6.7110004 -3.5749886 0.9959594 0
6.7080002 -3.5846894 0.99567795 0
6.7040005 -3.5938168 0.9953028 0
6.7000003 -3.6029294 0.99492753 0
6.6970005 -3.6125944 0.99464619 0
6.6930003 -3.62168 0.99427104 0
6.6890006 -3.6307516 0.99389577 0
6.7340002 -3.5192976 0.98669136 0
6.7300005 -3.5285225 0.98632348 0
6.7260003 -3.5377326 0.98595548 0
6.7230005 -3.5474823 0.98567951 0
6.7190003 -3.5566654 0.98531151 0
6.7150006 -3.5658343 0.98494351 0
6.7110004 -3.5749886 0.98457551 0
6.7080002 -3.5846894 0.98429954 0
6.7040005 -3.5938168 0.98393154 0
6.7000003 -3.6029294 0.98356366 0
6.6970005 -3.6125944 0.98328769 0
6.6930003 -3.62168 0.98291969 0
6.6890006 -3.6307516 0.98255169 0
6.7340002 -3.5192976 0.9752661 0
6.7300005 -3.5285225 0.97490537 0
6.7260003 -3.5377326 0.97454453 0
6.7230005 -3.5474823 0.97427404 0
6.7190003 -3.5566654 0.97391319 0
6.7150006 -3.5658343 0.97355247 0
6.7110004 -3.5749886 0.97319174 0
6.7080002 -3.5846894 0.97292113 0
6.7040005 -3.5938168 0.97256041 0
6.7000003 -3.6029294 0.97219956 0
6.6970005 -3.6125944 0.97192907 0
6.6930003 -3.62168 0.97156835 0
6.6890006 -3.6307516 0.9712075 0
6.7340002 -3.5192976 0.96384072 0
6.7300005 -3.5285225 0.96348727 0
6.7260003 -3.5377326 0.96313369 0
6.7230005 -3.5474823 0.96286857 0
6.7190003 -3.5566654 0.962515 0
6.7150006 -3.5658343 0.96216142 0
6.7110004 -3.5749886 0.96180785 0
6.7080002 -3.5846894 0.96154273 0
6.7040005 -3.5938168 0.96118915 0
6.7000003 -3.6029294 0.96083558 0
6.6970005 -3.6125944 0.96057045 0
6.6930003 -3.62168 0.96021688 0
6.6890006 -3.6307516 0.95986331 0
6.7340002 -3.5192976 0.95241547 0
6.7300005 -3.5285225 0.95206916 0
6.7260003 -3.5377326 0.95172274 0
6.7230005 -3.5474823 0.9514631 0
6.7190003 -3.5566654 0.95111668 0
6.7150006 -3.5658343 0.95077038 0
6.7110004 -3.5749886 0.95042408 0
6.7080002 -3.5846894 0.9501642 0
6.7040005 -3.5938168 0.9498179 0
6.7000003 -3.6029294 0.94947159 0
6.6970005 -3.6125944 0.94921184 0
6.6930003 -3.62168 0.94886553 0
6.6890006 -3.6307516 0.94851923 0
6.7340002 -3.5192976 0.94099009 0
6.7300005 -3.5285225 0.94065094 0
6.7260003 -3.5377326 0.94031191 0
6.7230005 -3.5474823 0.94005764 0
6.7190003 -3.5566654 0.93971848 0
6.7150006 -3.5658343 0.93937933 0
6.7110004 -3.5749886 0.93904018 0
6.7080002 -3.5846894 0.93878591 0
6.7040005 -3.5938168 0.93844676 0
6.7000003 -3.6029294 0.93810761 0
6.6970005 -3.6125944 0.93785334 0
6.6930003 -3.62168 0.93751419 0
6.6890006 -3.6307516 0.93717515 0
6.7340002 -3.5192976 0.92956483 0
6.7300005 -3.5285225 0.92923295 0
6.7260003 -3.5377326 0.92890096 0
6.7230005 -3.5474823 0.92865205 0
6.7190003 -3.5566654 0.92832017 0
6.7150006 -3.5658343 0.92798829 0
6.7110004 -3.5749886 0.92765641 0
6.7080002 -3.5846894 0.92740738 0
6.7040005 -3.5938168 0.92707551 0
6.7000003 -3.6029294 0.92674363 0
6.6970005 -3.6125944 0.92649472 0
6.6930003 -3.62168 0.92616284 0
6.6890006 -3.6307516 0.92583096 0
6.7340002 -3.5192976 0.91813946 0
6.7300005 -3.5285225 0.91781473 0
6.7260003 -3.5377326 0.91749012 0
6.7230005 -3.5474823 0.91724658 0
6.7190003 -3.5566654 0.91692185 0
6.7150006 -3.5658343 0.91659725 0
6.7110004 -3.5749886 0.91627252 0
6.7080002 -3.5846894 0.91602898 0
6.7040005 -3.5938168 0.91570437 0
6.7000003 -3.6029294 0.91537964 0
6.6970005 -3.6125944 0.9151361 0
6.6930003 -3.62168 0.91481137 0
6.6890006 -3.6307516 0.91448677 0
6.7340002 -3.5192976 0.9067142 0
6.7300005 -3.5285225 0.90639675 0
6.7260003 -3.5377326 0.90607917 0
6.7230005 -3.5474823 0.90584111 0
6.7190003 -3.5566654 0.90552366 0
6.7150006 -3.5658343 0.9052062 0
6.7110004 -3.5749886 0.90488875 0
6.7080002 -3.5846894 0.90465057 0
6.7040005 -3.5938168 0.90433311 0
6.7000003 -3.6029294 0.90401566 0
6.6970005 -3.6125944 0.9037776 0
6.6930003 -3.62168 0.90346003 0
6.6890006 -3.6307516 0.90314269 0
6.7340002 -3.5192976 0.89528883 0
6.7300005 -3.5285225 0.89497852 0
6.7260003 -3.5377326 0.89466834 0
6.7230005 -3.5474823 0.89443564 0
6.7190003 -3.5566654 0.89412534 0
6.7150006 -3.5658343 0.89381516 0
6.7110004 -3.5749886 0.89350486 0
6.7080002 -3.5846894 0.89327216 0
6.7040005 -3.5938168 0.89296198 0
6.7000003 -3.6029294 0.89265162 0
6.6970005 -3.6125944 0.89241898 0
6.6930003 -3.62168 0.89210868 0
6.6890006 -3.6307516 0.8917985 0
6.7340002 -3.5192976 0.88386351 0
6.7300005 -3.5285225 0.88356048 0
6.7260003 -3.5377326 0.88325745 0
6.7230005 -3.5474823 0.88303018 0
6.7190003 -3.5566654 0.88272715 0
6.7150006 -3.5658343 0.88242406 0
6.7110004 -3.5749886 0.88212103 0
6.7080002 -3.5846894 0.88189375 0
6.7040005 -3.5938168 0.88159072 0
6.7000003 -3.6029294 0.88128769 0
6.6970005 -3.6125944 0.88106042 0
6.6930003 -3.62168 0.88075733 0
6.6890006 -3.6307516 0.8804543 0
6.7340002 -3.5192976 0.87243819 0
6.7300005 -3.5285225 0.87214243 0
6.7260003 -3.5377326 0.87184656 0
6.7230005 -3.5474823 0.87162471 0
6.7190003 -3.5566654 0.87132883 0
6.7150006 -3.5658343 0.87103301 0
6.7110004 -3.5749886 0.8707372 0
6.7080002 -3.5846894 0.87051529 0
6.7040005 -3.5938168 0.87021953 0
6.7000003 -3.6029294 0.86992371 0
6.6970005 -3.6125944 0.8697018 0
6.6930003 -3.62168 0.86940598 0
6.6890006 -3.6307516 0.86911023 0
6.7340002 -3.5192976 0.86101282 0
6.7300005 -3.5285225 0.86072427 0
6.7260003 -3.5377326 0.86043561 0
6.7230005 -3.5474823 0.86021918 0
6.7190003 -3.5566654 0.85993057 0
6.7150006 -3.5658343 0.85964203 0
6.7110004 -3.5749886 0.85935336 0
6.7080002 -3.5846894 0.85913694 0
6.7040005 -3.5938168 0.85884833 0
6.7000003 -3.6029294 0.85855967 0
6.6970005 -3.6125944 0.85834324 0
6.6930003 -3.62168 0.85805464 0
6.6890006 -3.6307516 0.85776603 0
6.7340002 -3.5192976 0.84958756 0
6.7300005 -3.5285225 0.84930611 0
6.7260003 -3.5377326 0.84902477 0
6.7230005 -3.5474823 0.84881371 0
6.7190003 -3.5566654 0.84853232 0
6.7150006 -3.5658343 0.84825093 0
6.7110004 -3.5749886 0.84796953 0
6.7080002 -3.5846894 0.84775847 0
6.7040005 -3.5938168 0.84747708 0
6.7000003 -3.6029294 0.84719568 0
6.6970005 -3.6125944 0.84698468 0
6.6930003 -3.62168 0.84670323 0
6.6890006 -3.6307516 0.8464219 0
6.7340002 -3.5192976 0.83816218 0
6.7300005 -3.5285225 0.837888 0
6.7260003 -3.5377326 0.83761382 0
6.7230005 -3.5474823 0.83740824 0
6.7190003 -3.5566654 0.83713406 0
6.7150006 -3.5658343 0.83685988 0
6.7110004 -3.5749886 0.8365857 0
6.7080002 -3.5846894 0.83638006 0
6.7040005 -3.5938168 0.83610588 0
6.7000003 -3.6029294 0.8358317 0
6.6970005 -3.6125944 0.83562607 0
6.6930003 -3.62168 0.83535188 0
6.6890006 -3.6307516 0.83507776 0
6.7340002 -3.5192976 0.82673693 0
6.7300005 -3.5285225 0.82646996 0
6.7260003 -3.5377326 0.82620299 0
6.7230005 -3.5474823 0.82600278 0
6.7190003 -3.5566654 0.82573581 0
6.7150006 -3.5658343 0.82546884 0
6.7110004 -3.5749886 0.82520187 0
6.7080002 -3.5846894 0.8250016 0
6.7040005 -3.5938168 0.82473469 0
6.7000003 -3.6029294 0.82446772 0
6.6970005 -3.6125944 0.82426751 0
6.6930003 -3.62168 0.82400048 0
6.6890006 -3.6307516 0.82373357 0
6.7340002 -3.5192976 0.81531155 0
6.7300005 -3.5285225 0.81505185 0
6.7260003 -3.5377326 0.81479204 0
6.7230005 -3.5474823 0.81459725 0
6.7190003 -3.5566654 0.81433749 0
6.7150006 -3.5658343 0.81407779 0
6.7110004 -3.5749886 0.81381804 0
6.7080002 -3.5846894 0.81362319 0
6.7040005 -3.5938168 0.81336349 0
6.7000003 -3.6029294 0.81310368 0
6.6970005 -3.6125944 0.81290889 0
6.6930003 -3.62168 0.81264913 0
6.6890006 -3.6307516 0.81238943 0
6.7340002 -3.5192976 0.80388623 0
6.7300005 -3.5285225 0.80363375 0
6.7260003 -3.5377326 0.8033812 0
6.7230005 -3.5474823 0.80319178 0
6.7190003 -3.5566654 0.8029393 0
6.7150006 -3.5658343 0.80268675 0
6.7110004 -3.5749886 0.80243421 0
6.7080002 -3.5846894 0.80224478 0
6.7040005 -3.5938168 0.8019923 0
6.7000003 -3.6029294 0.80173969 0
6.6970005 -3.6125944 0.80155039 0
6.6930003 -3.62168 0.80129778 0
6.6890006 -3.6307516 0.8010453 0
6.7340002 -3.5192976 0.79246092 0
6.7300005 -3.5285225 0.79221565 0
6.7260003 -3.5377326 0.79197031 0
6.7230005 -3.5474823 0.79178631 0
6.7190003 -3.5566654 0.79154098 0
6.7150006 -3.5658343 0.79129571 0
6.7110004 -3.5749886 0.79105031 0
6.7080002 -3.5846894 0.79086637 0
6.7040005 -3.5938168 0.79062104 0
6.7000003 -3.6029294 0.79037571 0
6.6970005 -3.6125944 0.79019177 0
6.6930003 -3.62168 0.78994644 0
6.6890006 -3.6307516 0.7897011 0
6.7340002 -3.5192976 0.7810356 0
6.7300005 -3.5285225 0.78079748 0
6.7260003 -3.5377326 0.78055942 0
6.7230005 -3.5474823 0.78038085 0
6.7190003 -3.5566654 0.78014272 0
6.7150006 -3.5658343 0.7799046 0
6.7110004 -3.5749886 0.77966654 0
6.7080002 -3.5846894 0.77948797 0
6.7040005 -3.5938168 0.77924985 0
6.7000003 -3.6029294 0.77901173 0
6.6970005 -3.6125944 0.77883315 0
6.6930003 -3.62168 0.77859509 0
6.6890006 -3.6307516 0.77835697 0
6.7340002 -3.5192976 0.76961029 0
6.7300005 -3.5285225 0.76937938 0
6.7260003 -3.5377326 0.76914853 0
6.7230005 -3.5474823 0.76897538 0
6.7190003 -3.5566654 0.76874447 0
6.7150006 -3.5658343 0.76851356 0
6.7110004 -3.5749886 0.76828271 0
6.7080002 -3.5846894 0.76810956 0
6.7040005 -3.5938168 0.76787865 0
6.7000003 -3.6029294 0.76764774 0
6.6970005 -3.6125944 0.76747459 0
6.6930003 -3.62168 0.76724368 0
6.6890006 -3.6307516 0.76701283 0
6.7340002 -3.5192976 0.75818497 0
6.7300005 -3.5285225 0.75796127 0
6.7260003 -3.5377326 0.75773764 0
6.7230005 -3.5474823 0.75756991 0
6.7190003 -3.5566654 0.75734621 0
6.7150006 -3.5658343 0.75712252 0
6.7110004 -3.5749886 0.75689888 0
6.7080002 -3.5846894 0.75673109 0
6.7040005 -3.5938168 0.7565074 0
6.7000003 -3.6029294 0.75628376 0
6.6970005 -3.6125944 0.75611603 0
6.6930003 -3.62168 0.75589234 0
6.6890006 -3.6307516 0.75566864 0
6.7340002 -3.5192976 0.74675965 0
6.7300005 -3.5285225 0.74654317 0
6.7260003 -3.5377326 0.74632668 0
6.7230005 -3.5474823 0.74616444 0
6.7190003 -3.5566654 0.74594796 0
6.7150006 -3.5658343 0.74573147 0
6.7110004 -3.5749886 0.74551505 0
6.7080002 -3.5846894 0.74535269 0
6.7040005 -3.5938168 0.74513626 0
6.7000003 -3.6029294 0.74491978 0
6.6970005 -3.6125944 0.74475741 0
6.6930003 -3.62168 0.74454093 0
6.6890006 -3.6307516 0.74432456 0
6.7340002 -3.5192976 0.73533434 0
6.7300005 -3.5285225 0.73512506 0
6.7260003 -3.5377326 0.73491585 0
6.7230005 -3.5474823 0.73475897 0
6.7190003 -3.5566654 0.73454964 0
6.7150006 -3.5658343 0.73434043 0
6.7110004 -3.5749886 0.73413122 0
6.7080002 -3.5846894 0.73397422 0
6.7040005 -3.5938168 0.73376501 0
6.7000003 -3.6029294 0.73355579 0
6.6970005 -3.6125944 0.73339885 0
6.6930003 -3.62168 0.73318958 0
6.6890006 -3.6307516 0.73298037 0
6.7340002 -3.5192976 0.72390902 0
6.7300005 -3.5285225 0.72370696 0
6.7260003 -3.5377326 0.72350496 0
6.7230005 -3.5474823 0.72335345 0
6.7190003 -3.5566654 0.72315145 0
6.7150006 -3.5658343 0.72294939 0
6.7110004 -3.5749886 0.72274733 0
6.7080002 -3.5846894 0.72259581 0
6.7040005 -3.5938168 0.72239381 0
6.7000003 -3.6029294 0.72219181 0
6.6970005 -3.6125944 0.7220403 0
6.6930003 -3.62168 0.72183824 0
6.6890006 -3.6307516 0.72163618 0
6.7340002 -3.5192976 0.71248364 0
6.7300005 -3.5285225 0.71228886 0
6.7260003 -3.5377326 0.71209407 0
6.7230005 -3.5474823 0.71194792 0
6.7190003 -3.5566654 0.71175313 0
6.7150006 -3.5658343 0.71155834 0
6.7110004 -3.5749886 0.71136355 0
6.7080002 -3.5846894 0.7112174 0
6.7040005 -3.5938168 0.71102262 0
6.7000003 -3.6029294 0.71082783 0
6.6970005 -3.6125944 0.71068168 0
6.6930003 -3.62168 0.71048689 0
6.6890006 -3.6307516 0.7102921 0
6.7340002 -3.5192976 0.70105839 0
6.7300005 -3.5285225 0.70087075 0
6.7260003 -3.5377326 0.70068318 0
6.7230005 -3.5474823 0.70054245 0
6.7190003 -3.5566654 0.70035487 0
6.7150006 -3.5658343 0.7001673 0
6.7110004 -3.5749886 0.69997966 0
6.7080002 -3.5846894 0.699839 0
6.7040005 -3.5938168 0.69965136 0
6.7000003 -3.6029294 0.69946378 0
6.6970005 -3.6125944 0.69932312 0
6.6930003 -3.62168 0.69913554 0
6.6890006 -3.6307516 0.69894791 0
6.7340002 -3.5192976 0.68963301 0
6.7300005 -3.5285225 0.68945265 0
6.7260003 -3.5377326 0.68927228 0
6.7230005 -3.5474823 0.68913698 0
6.7190003 -3.5566654 0.68895662 0
6.7150006 -3.5658343 0.68877625 0
6.7110004 -3.5749886 0.68859589 0
6.7080002 -3.5846894 0.68846059 0
6.7040005 -3.5938168 0.68828022 0
6.7000003 -3.6029294 0.6880998 0
6.6970005 -3.6125944 0.68796456 0
6.6930003 -3.62168 0.68778419 0
6.6890006 -3.6307516 0.68760377 0
6.7340002 -3.5192976 0.67820776 0
6.7300005 -3.5285225 0.67803454 0
6.7260003 -3.5377326 0.67786139 0
6.7230005 -3.5474823 0.67773151 0
6.7190003 -3.5566654 0.67755836 0
6.7150006 -3.5658343 0.67738521 0
6.7110004 -3.5749886 0.677212 0
6.7080002 -3.5846894 0.67708212 0
6.7040005 -3.5938168 0.67690897 0
6.7000003 -3.6029294 0.67673582 0
6.6970005 -3.6125944 0.67660594 0
6.6930003 -3.62168 0.67643279 0
6.6890006 -3.6307516 0.67625964 0
6.7340002 -3.5192976 0.66678238 0
6.7300005 -3.5285225 0.66661644 0
6.7260003 -3.5377326 0.6664505 0
6.7230005 -3.5474823 0.66632605 0
6.7190003 -3.5566654 0.66616011 0
6.7150006 -3.5658343 0.66599417 0
6.7110004 -3.5749886 0.66582823 0
6.7080002 -3.5846894 0.66570371 0
6.7040005 -3.5938168 0.66553777 0
6.7000003 -3.6029294 0.66537184 0
6.6970005 -3.6125944 0.66524738 0
6.6930003 -3.62168 0.66508138 0
6.6890006 -3.6307516 0.66491544 0
6.7340002 -3.5192976 0.65535712 0
6.7300005 -3.5285225 0.65519834 0
6.7260003 -3.5377326 0.65503961 0
6.7230005 -3.5474823 0.65492058 0
6.7190003 -3.5566654 0.65476179 0
6.7150006 -3.5658343 0.65460312 0
6.7110004 -3.5749886 0.65444434 0
6.7080002 -3.5846894 0.65432531 0
6.7040005 -3.5938168 0.65416658 0
6.7000003 -3.6029294 0.65400779 0
6.6970005 -3.6125944 0.65388882 0
6.6930003 -3.62168 0.65373003 0
6.6890006 -3.6307516 0.65357137 0
6.7340002 -3.5192976 0.64393175 0
6.7300005 -3.5285225 0.64378023 0
6.7260003 -3.5377326 0.64362872 0
6.7230005 -3.5474823 0.64351511 0
6.7190003 -3.5566654 0.6433636 0
6.7150006 -3.5658343 0.64321202 0
6.7110004 -3.5749886 0.64306051 0
6.7080002 -3.5846894 0.64294684 0
6.7040005 -3.5938168 0.64279532 0
6.7000003 -3.6029294 0.64264381 0
6.6970005 -3.6125944 0.6425302 0
6.6930003 -3.62168 0.64237869 0
6.6890006 -3.6307516 0.64222717 0
6.7340002 -3.5192976 0.63250643 0
6.7300005 -3.5285225 0.63236213 0
6.7260003 -3.5377326 0.63221782 0
6.7230005 -3.5474823 0.63210958 0
6.7190003 -3.5566654 0.63196528 0
6.7150006 -3.5658343 0.63182104 0
6.7110004 -3.5749886 0.63167667 0
6.7080002 -3.5846894 0.63156843 0
6.7040005 -3.5938168 0.63142419 0
6.7000003 -3.6029294 0.63127983 0
6.6970005 -3.6125944 0.63117164 0
6.6930003 -3.62168 0.63102734 0
6.6890006 -3.6307516 0.63088304 0
6.7340002 -3.5192976 0.62108111 0
6.7300005 -3.5285225 0.62094402 0
6.7260003 -3.5377326 0.62080693 0
6.7230005 -3.5474823 0.62070411 0
6.7190003 -3.5566654 0.62056702 0
6.7150006 -3.5658343 0.62042993 0
6.7110004 -3.5749886 0.62029284 0
6.7080002 -3.5846894 0.62019002 0
6.7040005 -3.5938168 0.62005293 0
6.7000003 -3.6029294 0.61991584 0
6.6970005 -3.6125944 0.61981302 0
6.6930003 -3.62168 0.61967593 0
6.6890006 -3.6307516 0.6195389 0
6.7340002 -3.5192976 0.6096558 0
6.7300005 -3.5285225 0.60952592 0
6.7260003 -3.5377326 0.60939604 0
6.7230005 -3.5474823 0.60929865 0
6.7190003 -3.5566654 0.60916877 0
6.7150006 -3.5658343 0.60903889 0
6.7110004 -3.5749886 0.60890901 0
6.7080002 -3.5846894 0.60881162 0
6.7040005 -3.5938168 0.60868174 0
6.7000003 -3.6029294 0.60855186 0
6.6970005 -3.6125944 0.60845447 0
6.6930003 -3.62168 0.60832459 0
6.6890006 -3.6307516 0.60819471 0
6.7340002 -3.5192976 0.59823048 0
6.7300005 -3.5285225 0.59810781 0
6.7260003 -3.5377326 0.59798515 0
6.7230005 -3.5474823 0.59789318 0
6.7190003 -3.5566654 0.59777051 0
6.7150006 -3.5658343 0.59764785 0
6.7110004 -3.5749886 0.59752518 0
6.7080002 -3.5846894 0.59743321 0
6.7040005 -3.5938168 0.59731054 0
6.7000003 -3.6029294 0.59718788 0
6.6970005 -3.6125944 0.59709585 0
6.6930003 -3.62168 0.59697324 0
6.6890006 -3.6307516 0.59685057 0
6.7340002 -3.5192976 0.58680516 0
6.7300005 -3.5285225 0.58668971 0
6.7260003 -3.5377326 0.58657426 0
6.7230005 -3.5474823 0.58648771 0
6.7190003 -3.5566654 0.58637226 0
6.7150006 -3.5658343 0.5862568 0
6.7110004 -3.5749886 0.58614135 0
6.7080002 -3.5846894 0.5860548 0
6.7040005 -3.5938168 0.58593935 0
6.7000003 -3.6029294 0.58582389 0
6.6970005 -3.6125944 0.58573729 0
6.6930003 -3.62168 0.58562183 0
6.6890006 -3.6307516 0.58550644 0
6.7340002 -3.5192976 0.57537985 0
6.7300005 -3.5285225 0.57527161 0
6.7260003 -3.5377326 0.57516336 0
6.7230005 -3.5474823 0.57508218 0
6.7190003 -3.5566654 0.57497394 0
6.7150006 -3.5658343 0.57486576 0
6.7110004 -3.5749886 0.57475752 0
6.7080002 -3.5846894 0.57467633 0
6.7040005 -3.5938168 0.57456815 0
6.7000003 -3.6029294 0.57445991 0
6.6970005 -3.6125944 0.57437873 0
6.6930003 -3.62168 0.57427049 0
6.6890006 -3.6307516 0.57416224 0
6.7340002 -3.5192976 0.56395453 0
6.7300005 -3.5285225 0.5638535 0
6.7260003 -3.5377326 0.56375247 0
6.7230005 -3.5474823 0.56367671 0
6.7190003 -3.5566654 0.56357574 0
6.7150006 -3.5658343 0.56347471 0
6.7110004 -3.5749886 0.56337368 0
6.7080002 -3.5846894 0.56329793 0
6.7040005 -3.5938168 0.5631969 0
6.7000003 -3.6029294 0.56309593 0
6.6970005 -3.6125944 0.56302011 0
6.6930003 -3.62168 0.56291914 0
6.6890006 -3.6307516 0.56281811 0
6.7340002 -3.5192976 0.55252922 0
6.7300005 -3.5285225 0.5524354 0
6.7260003 -3.5377326 0.55234158 0
6.7230005 -3.5474823 0.55227125 0
6.7190003 -3.5566654 0.55217743 0
6.7150006 -3.5658343 0.55208367 0
6.7110004 -3.5749886 0.55198985 0
6.7080002 -3.5846894 0.55191946 0
6.7040005 -3.5938168 0.5518257 0
6.7000003 -3.6029294 0.55173188 0
6.6970005 -3.6125944 0.55166155 0
6.6930003 -3.62168 0.55156779 0
6.6890006 -3.6307516 0.55147398 0
6.7340002 -3.5192976 0.54110384 0
6.7300005 -3.5285225 0.54101729 0
6.7260003 -3.5377326 0.54093069 0
6.7230005 -3.5474823 0.54086578 0
6.7190003 -3.5566654 0.54077917 0
6.7150006 -3.5658343 0.54069263 0
6.7110004 -3.5749886 0.54060602 0
6.7080002 -3.5846894 0.54054105 0
6.7040005 -3.5938168 0.54045451 0
6.7000003 -3.6029294 0.5403679 0
6.6970005 -3.6125944 0.54030299 0
6.6930003 -3.62168 0.54021639 0
6.6890006 -3.6307516 0.54012978 0
6.7340002 -3.5192976 0.52967858 0
6.7300005 -3.5285225 0.52959919 0
6.7260003 -3.5377326 0.5295198 0
6.7230005 -3.5474823 0.52946031 0
6.7190003 -3.5566654 0.52938092 0
6.7150006 -3.5658343 0.52930152 0
6.7110004 -3.5749886 0.52922219 0
6.7080002 -3.5846894 0.52916265 0
6.7040005 -3.5938168 0.52908331 0
6.7000003 -3.6029294 0.52900392 0
6.6970005 -3.6125944 0.52894437 0
6.6930003 -3.62168 0.52886504 0
6.6890006 -3.6307516 0.52878571 0
6.7340002 -3.5192976 0.51825321 0
6.7300005 -3.5285225 0.51818109 0
6.7260003 -3.5377326 0.5181089 0
6.7230005 -3.5474823 0.51805478 0
6.7190003 -3.5566654 0.51798266 0
6.7150006 -3.5658343 0.51791048 0
6.7110004 -3.5749886 0.51783836 0
6.7080002 -3.5846894 0.51778424 0
6.7040005 -3.5938168 0.51771212 0
6.7000003 -3.6029294 0.51763994 0
6.6970005 -3.6125944 0.51758581 0
6.6930003 -3.62168 0.51751363 0
6.6890006 -3.6307516 0.51744151 0
6.7340002 -3.5192976 0.50682789 0
6.7300005 -3.5285225 0.50676298 0
6.7260003 -3.5377326 0.50669801 0
6.7230005 -3.5474823 0.50664932 0
6.7190003 -3.5566654 0.50658441 0
6.7150006 -3.5658343 0.50651944 0
6.7110004 -3.5749886 0.50645453 0
6.7080002 -3.5846894 0.50640583 0
6.7040005 -3.5938168 0.50634086 0
6.7000003 -3.6029294 0.50627595 0
6.6970005 -3.6125944 0.50622725 0
6.6930003 -3.62168 0.50616229 0
6.6890006 -3.6307516 0.50609738 0
6.7340002 -3.5192976 0.49540257 0
6.7300005 -3.5285225 0.49534488 0
6.7260003 -3.5377326 0.49528715 0
6.7230005 -3.5474823 0.49524385 0
6.7190003 -3.5566654 0.49518612 0
6.7150006 -3.5658343 0.49512839 0
6.7110004 -3.5749886 0.4950707 0
6.7080002 -3.5846894 0.49502739 0
6.7040005 -3.5938168 0.49496967 0
6.7000003 -3.6029294 0.49491194 0
6.6970005 -3.6125944 0.49486867 0
6.6930003 -3.62168 0.49481094 0
6.6890006 -3.6307516 0.49475321 0
6.7340002 -3.5192976 0.48397726 0
6.7300005 -3.5285225 0.48392677 0
6.7260003 -3.5377326 0.48387626 0
6.7230005 -3.5474823 0.48383838 0
6.7190003 -3.5566654 0.48378786 0
6.7150006 -3.5658343 0.48373735 0
6.7110004 -3.5749886 0.48368686 0
6.7080002 -3.5846894 0.48364896 0
6.7040005 -3.5938168 0.48359847 0
6.7000003 -3.6029294 0.48354796 0
6.6970005 -3.6125944 0.48351008 0
6.6930003 -3.62168 0.48345956 0
6.6890006 -3.6307516 0.48340905 0
6.7340002 -3.5192976 0.47255194 0
6.7300005 -3.5285225 0.47250867 0
6.7260003 -3.5377326 0.47246537 0
6.7230005 -3.5474823 0.47243291 0
6.7190003 -3.5566654 0.47238961 0
6.7150006 -3.5658343 0.47234631 0
6.7110004 -3.5749886 0.47230303 0
6.7080002 -3.5846894 0.47227055 0
6.7040005 -3.5938168 0.47222725 0
6.7000003 -3.6029294 0.47218397 0
6.6970005 -3.6125944 0.47215149 0
6.6930003 -3.62168 0.47210822 0
6.6890006 -3.6307516 0.47206491 0
6.7340002 -3.5192976 0.46112663 0
6.7300005 -3.5285225 0.46109053 0
6.7260003 -3.5377326 0.46105447 0
6.7230005 -3.5474823 0.46102741 0
6.7190003 -3.5566654 0.46099132 0
6.7150006 -3.5658343 0.46095526 0
6.7110004 -3.5749886 0.46091917 0
6.7080002 -3.5846894 0.46089214 0
6.7040005 -3.5938168 0.46085605 0
6.7000003 -3.6029294 0.46081996 0
6.6970005 -3.6125944 0.46079293 0
6.6930003 -3.62168 0.46075684 0
6.6890006 -3.6307516 0.46072078 0
6.7340002 -3.5192976 0.44970131 0
6.7300005 -3.5285225 0.44967243 0
6.7260003 -3.5377326 0.44964358 0
6.7230005 -3.5474823 0.44962195 0
6.7190003 -3.5566654 0.44959307 0
6.7150006 -3.5658343 0.44956422 0
6.7110004 -3.5749886 0.44953534 0
6.7080002 -3.5846894 0.4495137 0
6.7040005 -3.5938168 0.44948485 0
6.7000003 -3.6029294 0.44945598 0
6.6970005 -3.6125944 0.44943434 0
6.6930003 -3.62168 0.44940546 0
6.6890006 -3.6307516 0.44937661 0
6.7340002 -3.5192976 0.43827599 0
6.7300005 -3.5285225 0.43825433 0
6.7260003 -3.5377326 0.43823269 0
6.7230005 -3.5474823 0.43821645 0
6.7190003 -3.5566654 0.43819481 0
6.7150006 -3.5658343 0.43817317 0
6.7110004 -3.5749886 0.43815151 0
6.7080002 -3.5846894 0.43813527 0
6.7040005 -3.5938168 0.43811363 0
6.7000003 -3.6029294 0.43809199 0
6.6970005 -3.6125944 0.43807575 0
6.6930003 -3.62168 0.43805411 0
6.6890006 -3.6307516 0.43803245 0
6.7340002 -3.5192976 0.42685065 0
6.7300005 -3.5285225 0.42683622 0
6.7260003 -3.5377326 0.4268218 0
6.7230005 -3.5474823 0.42681098 0
6.7190003 -3.5566654 0.42679656 0
6.7150006 -3.5658343 0.4267821 0
6.7110004 -3.5749886 0.42676768 0
6.7080002 -3.5846894 0.42675686 0
6.7040005 -3.5938168 0.42674243 0
6.7000003 -3.6029294 0.42672801 0
6.6970005 -3.6125944 0.42671716 0
6.6930003 -3.62168 0.42670274 0
6.6890006 -3.6307516 0.42668831 0
6.7340002 -3.5192976 0.41542533 0
6.7300005 -3.5285225 0.41541812 0
6.7260003 -3.5377326 0.41541091 0
6.7230005 -3.5474823 0.41540548 0
6.7190003 -3.5566654 0.41539827 0
6.7150006 -3.5658343 0.41539106 0
6.7110004 -3.5749886 0.41538385 0
6.7080002 -3.5846894 0.41537845 0
6.7040005 -3.5938168 0.41537121 0
6.7000003 -3.6029294 0.415364 0
6.6970005 -3.6125944 0.4153586 0
6.6930003 -3.62168 0.41535139 0
6.6890006 -3.6307516 0.41534418 0
6.7340002 -3.5192976 0.40400001 0
6.7300005 -3.5285225 0.40400001 0
6.7260003 -3.5377326 0.40400001 0
6.7230005 -3.5474823 0.40400001 0
6.7190003 -3.5566654 0.40400001 0
6.7150006 -3.5658343 0.40400001 0
6.7110004 -3.5749886 0.40400001 0
6.7080002 -3.5846894 0.40400001 0
6.7040005 -3.5938168 0.40400001 0
6.7000003 -3.6029294 0.40400001 0
6.6970005 -3.6125944 0.40400001 0
6.6930003 -3.62168 0.40400001 0
6.6890006 -3.6307516 0.40400001 0
6.7340002 -3.5192976 0.3925747 0
6.7300005 -3.5285225 0.39258191 0
6.7260003 -3.5377326 0.39258912 0
6.7230005 -3.5474823 0.39259455 0
6.7190003 -3.5566654 0.39260176 0
6.7150006 -3.5658343 0.39260897 0
6.7110004 -3.5749886 0.39261618 0
6.7080002 -3.5846894 0.39262158 0
6.7040005 -3.5938168 0.39262882 0
6.7000003 -3.6029294 0.39263603 0
6.6970005 -3.6125944 0.39264143 0
6.6930003 -3.62168 0.39264864 0
6.6890006 -3.6307516 0.39265585 0
6.7340002 -3.5192976 0.38114938 0
6.7300005 -3.5285225 0.38116381 0
6.7260003 -3.5377326 0.38117823 0
6.7230005 -3.5474823 0.38118905 0
6.7190003 -3.5566654 0.38120347 0
6.7150006 -3.5658343 0.38121793 0
6.7110004 -3.5749886 0.38123235 0
6.7080002 -3.5846894 0.38124317 0
6.7040005 -3.5938168 0.38125759 0
6.7000003 -3.6029294 0.38127202 0
6.6970005 -3.6125944 0.38128287 0
6.6930003 -3.62168 0.38129729 0
6.6890006 -3.6307516 0.38131171 0
6.7340002 -3.5192976 0.36972404 0
6.7300005 -3.5285225 0.3697457 0
6.7260003 -3.5377326 0.36976734 0
6.7230005 -3.5474823 0.36978358 0
6.7190003 -3.5566654 0.36980522 0
6.7150006 -3.5658343 0.36982685 0
6.7110004 -3.5749886 0.36984852 0
6.7080002 -3.5846894 0.36986476 0
6.7040005 -3.5938168 0.3698864 0
6.7000003 -3.6029294 0.36990803 0
6.6970005 -3.6125944 0.36992428 0
6.6930003 -3.62168 0.36994591 0
6.6890006 -3.6307516 0.36996758 0
6.7340002 -3.5192976 0.35829872 0
6.7300005 -3.5285225 0.3583276 0
6.7260003 -3.5377326 0.35835645 0
6.7230005 -3.5474823 0.35837808 0
6.7190003 -3.5566654 0.35840696 0
6.7150006 -3.5658343 0.35843581 0
6.7110004 -3.5749886 0.35846469 0
6.7080002 -3.5846894 0.35848632 0
6.7040005 -3.5938168 0.35851517 0
6.7000003 -3.6029294 0.35854405 0
6.6970005 -3.6125944 0.35856569 0
6.6930003 -3.62168 0.35859457 0
6.6890006 -3.6307516 0.35862342 0
6.7340002 -3.5192976 0.3468734 0
6.7300005 -3.5285225 0.34690949 0
6.7260003 -3.5377326 0.34694555 0
6.7230005 -3.5474823 0.34697261 0
6.7190003 -3.5566654 0.34700871 0
6.7150006 -3.5658343 0.34704477 0
6.7110004 -3.5749886 0.34708086 0
6.7080002 -3.5846894 0.34710789 0
6.7040005 -3.5938168 0.34714398 0
6.7000003 -3.6029294 0.34718007 0
6.6970005 -3.6125944 0.3472071 0
6.6930003 -3.62168 0.34724319 0
6.6890006 -3.6307516 0.34727925 0
6.7340002 -3.5192976 0.33544809 0
6.7300005 -3.5285225 0.33549136 0
6.7260003 -3.5377326 0.33553466 0
6.7230005 -3.5474823 0.33556712 0
6.7190003 -3.5566654 0.33561042 0
6.7150006 -3.5658343 0.33565372 0
6.7110004 -3.5749886 0.335697 0
6.7080002 -3.5846894 0.33572948 0
6.7040005 -3.5938168 0.33577278 0
6.7000003 -3.6029294 0.33581606 0
6.6970005 -3.6125944 0.33584854 0
6.6930003 -3.62168 0.33589181 0
6.6890006 -3.6307516 0.33593512 0
6.7340002 -3.5192976 0.32402277 0
6.7300005 -3.5285225 0.32407326 0
6.7260003 -3.5377326 0.32412377 0
6.7230005 -3.5474823 0.32416165 0
6.7190003 -3.5566654 0.32421216 0
6.7150006 -3.5658343 0.32426268 0
6.7110004 -3.5749886 0.32431316 0
6.7080002 -3.5846894 0.32435107 0
6.7040005 -3.5938168 0.32440156 0
6.7000003 -3.6029294 0.32445207 0
6.6970005 -3.6125944 0.32448995 0
6.6930003 -3.62168 0.32454047 0
6.6890006 -3.6307516 0.32459098 0
6.7340002 -3.5192976 0.31259745 0
6.7300005 -3.5285225 0.31265515 0
6.7260003 -3.5377326 0.31271288 0
6.7230005 -3.5474823 0.31275618 0
6.7190003 -3.5566654 0.31281391 0
6.7150006 -3.5658343 0.31287163 0
6.7110004 -3.5749886 0.31292933 0
6.7080002 -3.5846894 0.31297264 0
6.7040005 -3.5938168 0.31303036 0
6.7000003 -3.6029294 0.31308809 0
6.6970005 -3.6125944 0.31313136 0
6.6930003 -3.62168 0.31318909 0
6.6890006 -3.6307516 0.31324682 0
6.7340002 -3.5192976 0.30117214 0
6.7300005 -3.5285225 0.30123705 0
6.7260003 -3.5377326 0.30130202 0
6.7230005 -3.5474823 0.30135071 0
6.7190003 -3.5566654 0.30141562 0
6.7150006 -3.5658343 0.30148056 0
6.7110004 -3.5749886 0.3015455 0
6.7080002 -3.5846894 0.30159423 0
6.7040005 -3.5938168 0.30165914 0
6.7000003 -3.6029294 0.30172408 0
6.6970005 -3.6125944 0.30177277 0
6.6930003 -3.62168 0.30183774 0
6.6890006 -3.6307516 0.30190265 0
6.7340002 -3.5192976 0.28974682 0
6.7300005 -3.5285225 0.28981894 0
6.7260003 -3.5377326 0.28989112 0
6.7230005 -3.5474823 0.28994521 0
6.7190003 -3.5566654 0.29001737 0
6.7150006 -3.5658343 0.29008952 0
6.7110004 -3.5749886 0.29016167 0
6.7080002 -3.5846894 0.29021579 0
6.7040005 -3.5938168 0.29028794 0
6.7000003 -3.6029294 0.29036009 0
6.6970005 -3.6125944 0.29041421 0
6.6930003 -3.62168 0.29048637 0
6.6890006 -3.6307516 0.29055852 0
6.7340002 -3.5192976 0.27832147 0
6.7300005 -3.5285225 0.27840084 0
6.7260003 -3.5377326 0.27848023 0
6.7230005 -3.5474823 0.27853975 0
6.7190003 -3.5566654 0.27861911 0
6.7150006 -3.5658343 0.27869847 0
6.7110004 -3.5749886 0.27877784 0
6.7080002 -3.5846894 0.27883738 0
6.7040005 -3.5938168 0.27891672 0
6.7000003 -3.6029294 0.27899611 0
6.6970005 -3.6125944 0.27905563 0
6.6930003 -3.62168 0.27913499 0
6.6890006 -3.6307516 0.27921435 0
6.7340002 -3.5192976 0.26689616 0
6.7300005 -3.5285225 0.26698273 0
6.7260003 -3.5377326 0.26706934 0
6.7230005 -3.5474823 0.26713425 0
6.7190003 -3.5566654 0.26722085 0
6.7150006 -3.5658343 0.2673074 0
6.7110004 -3.5749886 0.26739401 0
6.7080002 -3.5846894 0.26745898 0
6.7040005 -3.5938168 0.26754552 0
6.7000003 -3.6029294 0.26763213 0
6.6970005 -3.6125944 0.26769704 0
6.6930003 -3.62168 0.26778364 0
6.6890006 -3.6307516 0.26787022 0
6.7340002 -3.5192976 0.25547084 0
6.7300005 -3.5285225 0.25556463 0
6.7260003 -3.5377326 0.25565845 0
6.7230005 -3.5474823 0.25572878 0
6.7190003 -3.5566654 0.2558226 0
6.7150006 -3.5658343 0.25591636 0
6.7110004 -3.5749886 0.25601017 0
6.7080002 -3.5846894 0.25608054 0
6.7040005 -3.5938168 0.25617433 0
6.7000003 -3.6029294 0.25626814 0
6.6970005 -3.6125944 0.25633848 0
6.6930003 -3.62168 0.25643227 0
6.6890006 -3.6307516 0.25652605 0
6.7340002 -3.5192976 0.24404551 0
6.7300005 -3.5285225 0.24414653 0
6.7260003 -3.5377326 0.24424754 0
6.7230005 -3.5474823 0.2443233 0
6.7190003 -3.5566654 0.24442431 0
6.7150006 -3.5658343 0.24452533 0
6.7110004 -3.5749886 0.24462634 0
6.7080002 -3.5846894 0.2447021 0
6.7040005 -3.5938168 0.24480312 0
6.7000003 -3.6029294 0.24490413 0
6.6970005 -3.6125944 0.24497989 0
6.6930003 -3.62168 0.2450809 0
6.6890006 -3.6307516 0.24518192 0
6.7340002 -3.5192976 0.23262019 0
6.7300005 -3.5285225 0.23272842 0
6.7260003 -3.5377326 0.23283666 0
6.7230005 -3.5474823 0.23291782 0
6.7190003 -3.5566654 0.23302606 0
6.7150006 -3.5658343 0.23313427 0
6.7120004 -3.5755477 0.23321545 0
6.7080002 -3.5846894 0.23332368 0
6.7040005 -3.5938168 0.23343191 0
6.7000003 -3.6029294 0.23354015 0
6.6970005 -3.6125944 0.2336213 0
6.6930003 -3.62168 0.23372954 0
6.6890006 -3.6307516 0.23383775 0
6.7340002 -3.5192976 0.22119488 0
6.7300005 -3.5285225 0.22131032 0
6.7260003 -3.5377326 0.22142576 0
6.7230005 -3.5474823 0.22151233 0
6.7190003 -3.5566654 0.22162779 0
6.7150006 -3.5658343 0.22174323 0
6.7120004 -3.5755477 0.22182982 0
6.7080002 -3.5846894 0.22194526 0
6.7040005 -3.5938168 0.2220607 0
6.7000003 -3.6029294 0.22217615 0
6.6970005 -3.6125944 0.22226273 0
6.6930003 -3.62168 0.22237818 0
