# .PCD v0.7 - Point Cloud Data file format
VERSION 0.7
FIELDS x y z intensity
SIZE 4 4 4 4
TYPE F F F F
COUNT 1 1 1 1
WIDTH 1454
HEIGHT 1
VIEWPOINT 0 0 0 1 0 0 0
POINTS 1454
DATA ascii
2.5810001 -1.1947588 1.186887 0
2.5780003 -1.1971074 1.1858102 0
2.5750003 -1.1994452 1.1847334 0
2.5720003 -1.2017721 1.1836565 0
2.5690002 -1.2040882 1.1825796 0
2.5660002 -1.2063935 1.1815027 0
2.5630002 -1.2086879 1.1804258 0
2.5600002 -1.2109715 1.1793489 0
2.5570002 -1.2132443 1.178272 0
2.5550003 -1.2160493 1.1775541 0
2.5520003 -1.2183022 1.1764773 0
2.5490003 -1.2205443 1.1754004 0
2.5460002 -1.2227756 1.1743236 0
2.5430002 -1.2249962 1.1732466 0
2.5400002 -1.2272058 1.1721698 0
2.5370002 -1.2294046 1.171093 0
2.5350001 -1.2321482 1.170375 0
2.5320003 -1.2343273 1.1692982 0
2.5290003 -1.2364955 1.1682214 0
2.5260003 -1.2386527 1.1671444 0
2.5230002 -1.2407993 1.1660675 0
2.5210001 -1.2434995 1.1653496 0
2.5180001 -1.2456262 1.1642727 0
2.5150001 -1.2477421 1.1631958 0
2.5120001 -1.2498471 1.1621189 0
2.5090003 -1.2519414 1.1610421 0
2.5070002 -1.2545985 1.1603242 0
2.5040002 -1.2566727 1.1592473 0
2.6770003 -1.1179979 1.2172397 0
2.6730001 -1.1202147 1.215811 0
2.6700003 -1.1228917 1.2147397 0
2.6670003 -1.1255575 1.2136682 0
2.6640003 -1.1282128 1.2125968 0
2.6610003 -1.1308571 1.2115253 0
2.6570003 -1.1330092 1.2100967 0
2.6540003 -1.13563 1.2090251 0
2.6510003 -1.1382402 1.2079537 0
2.6480002 -1.1408395 1.2068822 0
2.6450002 -1.1434278 1.2058108 0
2.6420002 -1.1460055 1.2047393 0
2.6390002 -1.1485723 1.2036679 0
2.6350002 -1.1506341 1.2022393 0
2.6320002 -1.1531775 1.2011678 0
2.6290002 -1.1557101 1.2000964 0
2.6260002 -1.1582317 1.1990249 0
2.6230001 -1.1607426 1.1979535 0
2.6200001 -1.1632427 1.1968819 0
2.6170001 -1.165732 1.1958104 0
2.6140001 -1.1682104 1.194739 0
2.6110003 -1.1706781 1.1936677 0
2.6080003 -1.1731349 1.1925961 0
2.6050003 -1.1755807 1.1915246 0
2.6020002 -1.1780159 1.1904532 0
2.5990002 -1.1804403 1.1893817 0
2.5960002 -1.1828537 1.1883103 0
2.5930002 -1.1852565 1.1872388 0
2.5900002 -1.1876483 1.1861674 0
2.5870001 -1.1900293 1.1850958 0
2.5840001 -1.1923995 1.1840243 0
2.5810001 -1.1947588 1.1829529 0
2.5780003 -1.1971074 1.1818815 0
2.5750003 -1.1994452 1.1808101 0
2.5720003 -1.2017721 1.1797386 0
2.5690002 -1.2040882 1.1786672 0
2.5660002 -1.2063935 1.1775956 0
2.5630002 -1.2086879 1.1765242 0
2.5600002 -1.2109715 1.1754527 0
2.5570002 -1.2132443 1.1743813 0
2.5550003 -1.2160493 1.173667 0
2.5520003 -1.2183022 1.1725955 0
2.5490003 -1.2205443 1.171524 0
2.5460002 -1.2227756 1.1704526 0
2.5430002 -1.2249962 1.1693811 0
2.5400002 -1.2272058 1.1683097 0
2.5370002 -1.2294046 1.1672381 0
2.5350001 -1.2321482 1.1665238 0
2.5320003 -1.2343273 1.1654525 0
2.5290003 -1.2364955 1.1643809 0
2.5260003 -1.2386527 1.1633095 0
2.5230002 -1.2407993 1.162238 0
2.5210001 -1.2434995 1.1615237 0
2.5180001 -1.2456262 1.1604522 0
2.5150001 -1.2477421 1.1593807 0
2.5120001 -1.2498471 1.1583092 0
2.5090003 -1.2519414 1.1572379 0
2.5070002 -1.2545985 1.1565236 0
2.5040002 -1.2566727 1.1554521 0
2.6800003 -1.1152976 1.2141986 0
2.6770003 -1.1179979 1.2131325 0
2.6730001 -1.1202147 1.211711 0
2.6700003 -1.1228917 1.2106451 0
2.6670003 -1.1255575 1.209579 0
2.6640003 -1.1282128 1.2085129 0
2.6610003 -1.1308571 1.2074468 0
2.6570003 -1.1330092 1.2060255 0
2.6540003 -1.13563 1.2049594 0
2.6510003 -1.1382402 1.2038934 0
2.6480002 -1.1408395 1.2028273 0
2.6450002 -1.1434278 1.2017612 0
2.6420002 -1.1460055 1.2006952 0
2.6390002 -1.1485723 1.1996292 0
2.6350002 -1.1506341 1.1982077 0
2.6320002 -1.1531775 1.1971416 0
2.6290002 -1.1557101 1.1960757 0
2.6260002 -1.1582317 1.1950096 0
2.6230001 -1.1607426 1.1939435 0
2.6200001 -1.1632427 1.1928774 0
2.6170001 -1.165732 1.1918114 0
2.6140001 -1.1682104 1.1907454 0
2.6110003 -1.1706781 1.1896794 0
2.6080003 -1.1731349 1.1886133 0
2.6050003 -1.1755807 1.1875473 0
2.6020002 -1.1780159 1.1864812 0
2.5990002 -1.1804403 1.1854151 0
2.5960002 -1.1828537 1.1843491 0
2.5930002 -1.1852565 1.1832831 0
2.5900002 -1.1876483 1.182217 0
2.5870001 -1.1900293 1.1811509 0
2.5840001 -1.1923995 1.1800849 0
2.5810001 -1.1947588 1.1790189 0
2.5780003 -1.1971074 1.1779529 0
2.5750003 -1.1994452 1.1768868 0
2.5720003 -1.2017721 1.1758207 0
2.5690002 -1.2040882 1.1747546 0
2.5660002 -1.2063935 1.1736887 0
2.5630002 -1.2086879 1.1726226 0
2.5600002 -1.2109715 1.1715565 0
2.5570002 -1.2132443 1.1704904 0
2.5550003 -1.2160493 1.1697798 0
2.5520003 -1.2183022 1.1687137 0
2.5490003 -1.2205443 1.1676476 0
2.5460002 -1.2227756 1.1665816 0
2.5430002 -1.2249962 1.1655155 0
2.5400002 -1.2272058 1.1644495 0
2.5370002 -1.2294046 1.1633835 0
2.5350001 -1.2321482 1.1626728 0
2.5320003 -1.2343273 1.1616067 0
2.5290003 -1.2364955 1.1605407 0
2.5260003 -1.2386527 1.1594746 0
2.5230002 -1.2407993 1.1584085 0
2.5210001 -1.2434995 1.1576978 0
2.5180001 -1.2456262 1.1566317 0
2.5150001 -1.2477421 1.1555657 0
2.5120001 -1.2498471 1.1544997 0
2.5090003 -1.2519414 1.1534337 0
2.5070002 -1.2545985 1.152723 0
2.5040002 -1.2566727 1.1516569 0
2.6830001 -1.1125864 1.2111465 0
2.6800003 -1.1152976 1.2100859 0
2.6770003 -1.1179979 1.2090251 0
2.6730001 -1.1202147 1.207611 0
2.6700003 -1.1228917 1.2065504 0
2.6670003 -1.1255575 1.2054898 0
2.6640003 -1.1282128 1.2044291 0
2.6610003 -1.1308571 1.2033684 0
2.6570003 -1.1330092 1.2019542 0
2.6540003 -1.13563 1.2008936 0
2.6510003 -1.1382402 1.199833 0
2.6480002 -1.1408395 1.1987724 0
2.6450002 -1.1434278 1.1977117 0
2.6420002 -1.1460055 1.1966511 0
2.6390002 -1.1485723 1.1955905 0
2.6350002 -1.1506341 1.1941763 0
2.6320002 -1.1531775 1.1931156 0
2.6290002 -1.1557101 1.192055 0
2.6260002 -1.1582317 1.1909944 0
2.6230001 -1.1607426 1.1899337 0
2.6200001 -1.1632427 1.1888731 0
2.6170001 -1.165732 1.1878124 0
2.6140001 -1.1682104 1.1867517 0
2.6110003 -1.1706781 1.1856912 0
2.6080003 -1.1731349 1.1846305 0
2.6050003 -1.1755807 1.1835699 0
2.6020002 -1.1780159 1.1825093 0
2.5990002 -1.1804403 1.1814486 0
2.5960002 -1.1828537 1.180388 0
2.5930002 -1.1852565 1.1793272 0
2.5900002 -1.1876483 1.1782666 0
2.5870001 -1.1900293 1.177206 0
2.5840001 -1.1923995 1.1761453 0
2.5810001 -1.1947588 1.1750847 0
2.5780003 -1.1971074 1.1740241 0
2.5750003 -1.1994452 1.1729635 0
2.5720003 -1.2017721 1.1719029 0
2.5690002 -1.2040882 1.1708422 0
2.5660002 -1.2063935 1.1697816 0
2.5630002 -1.2086879 1.168721 0
2.5600002 -1.2109715 1.1676602 0
2.5570002 -1.2132443 1.1665996 0
2.5550003 -1.2160493 1.1658926 0
2.5520003 -1.2183022 1.1648319 0
2.5490003 -1.2205443 1.1637713 0
2.5460002 -1.2227756 1.1627107 0
2.5430002 -1.2249962 1.1616499 0
2.5400002 -1.2272058 1.1605893 0
2.5370002 -1.2294046 1.1595287 0
2.5350001 -1.2321482 1.1588216 0
2.5320003 -1.2343273 1.157761 0
2.5290003 -1.2364955 1.1567004 0
2.5260003 -1.2386527 1.1556398 0
2.5230002 -1.2407993 1.154579 0
2.5210001 -1.2434995 1.1538719 0
2.5180001 -1.2456262 1.1528113 0
2.5150001 -1.2477421 1.1517507 0
2.5120001 -1.2498471 1.15069 0
2.5090003 -1.2519414 1.1496295 0
2.5070002 -1.2545985 1.1489223 0
2.5040002 -1.2566727 1.1478617 0
2.6830001 -1.1125864 1.2070284 0
2.6800003 -1.1152976 1.2059731 0
2.6770003 -1.1179979 1.204918 0
2.6730001 -1.1202147 1.2035109 0
2.6700003 -1.1228917 1.2024558 0
2.6670003 -1.1255575 1.2014005 0
2.6640003 -1.1282128 1.2003453 0
2.6610003 -1.1308571 1.19929 0
2.6570003 -1.1330092 1.1978831 0
2.6540003 -1.13563 1.1968279 0
2.6510003 -1.1382402 1.1957726 0
2.6480002 -1.1408395 1.1947174 0
2.6450002 -1.1434278 1.1936622 0
2.6420002 -1.1460055 1.1926069 0
2.6390002 -1.1485723 1.1915517 0
2.6350002 -1.1506341 1.1901448 0
2.6320002 -1.1531775 1.1890895 0
2.6290002 -1.1557101 1.1880343 0
2.6260002 -1.1582317 1.1869791 0
2.6230001 -1.1607426 1.1859238 0
2.6200001 -1.1632427 1.1848686 0
2.6170001 -1.165732 1.1838133 0
2.6140001 -1.1682104 1.1827581 0
2.6110003 -1.1706781 1.181703 0
2.6080003 -1.1731349 1.1806477 0
2.6050003 -1.1755807 1.1795925 0
2.6020002 -1.1780159 1.1785372 0
2.5990002 -1.1804403 1.177482 0
2.5960002 -1.1828537 1.1764268 0
2.5930002 -1.1852565 1.1753715 0
2.5900002 -1.1876483 1.1743163 0
2.5870001 -1.1900293 1.173261 0
2.5840001 -1.1923995 1.1722058 0
2.5810001 -1.1947588 1.1711506 0
2.5780003 -1.1971074 1.1700954 0
2.5750003 -1.1994452 1.1690402 0
2.5720003 -1.2017721 1.167985 0
2.5690002 -1.2040882 1.1669297 0
2.5660002 -1.2063935 1.1658745 0
2.5630002 -1.2086879 1.1648192 0
2.5600002 -1.2109715 1.163764 0
2.5580001 -1.2137854 1.1630605 0
2.5550003 -1.2160493 1.1620053 0
2.5520003 -1.2183022 1.1609502 0
2.5490003 -1.2205443 1.1598948 0
2.5460002 -1.2227756 1.1588397 0
2.5430002 -1.2249962 1.1577843 0
2.5400002 -1.2272058 1.1567292 0
2.5370002 -1.2294046 1.155674 0
2.5350001 -1.2321482 1.1549704 0
2.5320003 -1.2343273 1.1539153 0
2.5290003 -1.2364955 1.15286 0
2.5260003 -1.2386527 1.1518048 0
2.5230002 -1.2407993 1.1507496 0
2.5210001 -1.2434995 1.150046 0
2.5180001 -1.2456262 1.1489909 0
2.5150001 -1.2477421 1.1479355 0
2.5120001 -1.2498471 1.1468804 0
2.5090003 -1.2519414 1.1458251 0
2.5070002 -1.2545985 1.1451217 0
2.5040002 -1.2566727 1.1440665 0
2.6860001 -1.1098645 1.2039601 0
2.6830001 -1.1125864 1.2029103 0
2.6800003 -1.1152976 1.2018605 0
2.6770003 -1.1179979 1.2008107 0
2.6730001 -1.1202147 1.1994109 0
2.6700003 -1.1228917 1.1983612 0
2.6670003 -1.1255575 1.1973113 0
2.6640003 -1.1282128 1.1962615 0
2.6610003 -1.1308571 1.1952116 0
2.6570003 -1.1330092 1.1938119 0
2.6540003 -1.13563 1.1927621 0
2.6510003 -1.1382402 1.1917123 0
2.6480002 -1.1408395 1.1906625 0
2.6450002 -1.1434278 1.1896126 0
2.6420002 -1.1460055 1.1885629 0
2.6390002 -1.1485723 1.187513 0
2.6350002 -1.1506341 1.1861132 0
2.6320002 -1.1531775 1.1850634 0
2.6290002 -1.1557101 1.1840136 0
2.6260002 -1.1582317 1.1829637 0
2.6230001 -1.1607426 1.181914 0
2.6200001 -1.1632427 1.1808641 0
2.6170001 -1.165732 1.1798142 0
2.6140001 -1.1682104 1.1787645 0
2.6110003 -1.1706781 1.1777147 0
2.6080003 -1.1731349 1.1766649 0
2.6050003 -1.1755807 1.1756151 0
2.6020002 -1.1780159 1.1745652 0
2.5990002 -1.1804403 1.1735154 0
2.5960002 -1.1828537 1.1724656 0
2.5930002 -1.1852565 1.1714158 0
2.5900002 -1.1876483 1.1703659 0
2.5870001 -1.1900293 1.1693162 0
2.5840001 -1.1923995 1.1682663 0
2.5810001 -1.1947588 1.1672165 0
2.5780003 -1.1971074 1.1661668 0
2.5750003 -1.1994452 1.1651169 0
2.5720003 -1.2017721 1.1640671 0
2.5690002 -1.2040882 1.1630173 0
2.5660002 -1.2063935 1.1619674 0
2.5630002 -1.2086879 1.1609176 0
2.5600002 -1.2109715 1.1598678 0
2.5580001 -1.2137854 1.1591679 0
2.5550003 -1.2160493 1.1581181 0
2.5520003 -1.2183022 1.1570684 0
2.5490003 -1.2205443 1.1560185 0
2.5460002 -1.2227756 1.1549687 0
2.5430002 -1.2249962 1.1539189 0
2.5400002 -1.2272058 1.1528691 0
2.5370002 -1.2294046 1.1518192 0
2.5350001 -1.2321482 1.1511194 0
2.5320003 -1.2343273 1.1500696 0
2.5290003 -1.2364955 1.1490197 0
2.5260003 -1.2386527 1.14797 0
2.5230002 -1.2407993 1.1469201 0
2.5210001 -1.2434995 1.1462202 0
2.5180001 -1.2456262 1.1451703 0
2.5150001 -1.2477421 1.1441206 0
2.5120001 -1.2498471 1.1430707 0
2.5090003 -1.2519414 1.1420209 0
2.5070002 -1.2545985 1.1413211 0
2.5040002 -1.2566727 1.1402713 0
2.6900003 -1.1075953 1.2012292 0
2.6860001 -1.1098645 1.1998366 0
2.6830001 -1.1125864 1.1987921 0
2.6800003 -1.1152976 1.1977478 0
2.6770003 -1.1179979 1.1967034 0
2.6730001 -1.1202147 1.1953108 0
2.6700003 -1.1228917 1.1942664 0
2.6670003 -1.1255575 1.193222 0
2.6640003 -1.1282128 1.1921777 0
2.6610003 -1.1308571 1.1911333 0
2.6570003 -1.1330092 1.1897408 0
2.6540003 -1.13563 1.1886963 0
2.6510003 -1.1382402 1.1876519 0
2.6480002 -1.1408395 1.1866075 0
2.6450002 -1.1434278 1.1855631 0
2.6420002 -1.1460055 1.1845187 0
2.6390002 -1.1485723 1.1834743 0
2.6350002 -1.1506341 1.1820817 0
2.6320002 -1.1531775 1.1810373 0
2.6290002 -1.1557101 1.1799929 0
2.6260002 -1.1582317 1.1789485 0
2.6230001 -1.1607426 1.177904 0
2.6200001 -1.1632427 1.1768596 0
2.6170001 -1.165732 1.1758152 0
2.6140001 -1.1682104 1.1747708 0
2.6110003 -1.1706781 1.1737266 0
2.6080003 -1.1731349 1.1726822 0
2.6050003 -1.1755807 1.1716377 0
2.6020002 -1.1780159 1.1705933 0
2.5990002 -1.1804403 1.1695489 0
2.5960002 -1.1828537 1.1685045 0
2.5930002 -1.1852565 1.1674601 0
2.5900002 -1.1876483 1.1664156 0
2.5870001 -1.1900293 1.1653712 0
2.5840001 -1.1923995 1.1643268 0
2.5810001 -1.1947588 1.1632824 0
2.5780003 -1.1971074 1.162238 0
2.5750003 -1.1994452 1.1611936 0
2.5720003 -1.2017721 1.1601492 0
2.5690002 -1.2040882 1.1591048 0
2.5660002 -1.2063935 1.1580604 0
2.5630002 -1.2086879 1.157016 0
2.5600002 -1.2109715 1.1559715 0
2.5580001 -1.2137854 1.1552752 0
2.5550003 -1.2160493 1.154231 0
2.5520003 -1.2183022 1.1531866 0
2.5490003 -1.2205443 1.152142 0
2.5460002 -1.2227756 1.1510978 0
2.5430002 -1.2249962 1.1500533 0
2.5400002 -1.2272058 1.1490089 0
2.5370002 -1.2294046 1.1479645 0
2.5350001 -1.2321482 1.1472682 0
2.5320003 -1.2343273 1.1462239 0
2.5290003 -1.2364955 1.1451794 0
2.5260003 -1.2386527 1.144135 0
2.5230002 -1.2407993 1.1430906 0
2.5210001 -1.2434995 1.1423943 0
2.5180001 -1.2456262 1.1413499 0
2.5150001 -1.2477421 1.1403055 0
2.5120001 -1.2498471 1.1392611 0
2.5090003 -1.2519414 1.1382167 0
2.5070002 -1.2545985 1.1375204 0
2.5040002 -1.2566727 1.136476 0
2.6900003 -1.1075953 1.1970985 0
2.6860001 -1.1098645 1.195713 0
2.6830001 -1.1125864 1.194674 0
2.6800003 -1.1152976 1.1936351 0
2.6770003 -1.1179979 1.1925961 0
2.6730001 -1.1202147 1.1912107 0
2.6700003 -1.1228917 1.1901718 0
2.6670003 -1.1255575 1.1891328 0
2.6640003 -1.1282128 1.1880939 0
2.6610003 -1.1308571 1.1870549 0
2.6570003 -1.1330092 1.1856695 0
2.6540003 -1.13563 1.1846305 0
2.6510003 -1.1382402 1.1835915 0
2.6480002 -1.1408395 1.1825526 0
2.6450002 -1.1434278 1.1815135 0
2.6420002 -1.1460055 1.1804745 0
2.6390002 -1.1485723 1.1794355 0
2.6350002 -1.1506341 1.1780502 0
2.6320002 -1.1531775 1.1770111 0
2.6290002 -1.1557101 1.1759722 0
2.6260002 -1.1582317 1.1749332 0
2.6230001 -1.1607426 1.1738942 0
2.6200001 -1.1632427 1.1728551 0
2.6170001 -1.165732 1.1718162 0
2.6140001 -1.1682104 1.1707772 0
2.6110003 -1.1706781 1.1697383 0
2.6080003 -1.1731349 1.1686993 0
2.6050003 -1.1755807 1.1676604 0
2.6020002 -1.1780159 1.1666213 0
2.5990002 -1.1804403 1.1655823 0
2.5960002 -1.1828537 1.1645433 0
2.5930002 -1.1852565 1.1635044 0
2.5900002 -1.1876483 1.1624653 0
2.5870001 -1.1900293 1.1614263 0
2.5840001 -1.1923995 1.1603873 0
2.5810001 -1.1947588 1.1593482 0
2.5780003 -1.1971074 1.1583093 0
2.5750003 -1.1994452 1.1572703 0
2.5720003 -1.2017721 1.1562314 0
2.5690002 -1.2040882 1.1551924 0
2.5660002 -1.2063935 1.1541533 0
2.5630002 -1.2086879 1.1531143 0
2.5600002 -1.2109715 1.1520754 0
2.5580001 -1.2137854 1.1513827 0
2.5550003 -1.2160493 1.1503438 0
2.5520003 -1.2183022 1.1493047 0
2.5490003 -1.2205443 1.1482657 0
2.5460002 -1.2227756 1.1472268 0
2.5430002 -1.2249962 1.1461878 0
2.5400002 -1.2272058 1.1451488 0
2.5370002 -1.2294046 1.1441097 0
2.5350001 -1.2321482 1.143417 0
2.5320003 -1.2343273 1.1423782 0
2.5290003 -1.2364955 1.1413392 0
2.5260003 -1.2386527 1.1403002 0
2.5230002 -1.2407993 1.1392611 0
2.5210001 -1.2434995 1.1385684 0
2.5180001 -1.2456262 1.1375294 0
2.5150001 -1.2477421 1.1364905 0
2.5120001 -1.2498471 1.1354514 0
2.5090003 -1.2519414 1.1344125 0
2.5070002 -1.2545985 1.1337198 0
2.5040002 -1.2566727 1.1326808 0
2.6930003 -1.1048499 1.1940013 0
2.6900003 -1.1075953 1.1929678 0
2.6860001 -1.1098645 1.1915896 0
2.6830001 -1.1125864 1.1905559 0
2.6800003 -1.1152976 1.1895225 0
2.6770003 -1.1179979 1.1884888 0
2.6730001 -1.1202147 1.1871107 0
2.6700003 -1.1228917 1.1860772 0
2.6670003 -1.1255575 1.1850436 0
2.6640003 -1.1282128 1.18401 0
2.6610003 -1.1308571 1.1829765 0
2.6570003 -1.1330092 1.1815983 0
2.6540003 -1.13563 1.1805648 0
2.6510003 -1.1382402 1.1795312 0
2.6480002 -1.1408395 1.1784976 0
2.6450002 -1.1434278 1.177464 0
2.6420002 -1.1460055 1.1764303 0
2.6390002 -1.1485723 1.1753968 0
2.6350002 -1.1506341 1.1740187 0
2.6320002 -1.1531775 1.1729851 0
2.6290002 -1.1557101 1.1719515 0
2.6260002 -1.1582317 1.170918 0
2.6230001 -1.1607426 1.1698843 0
2.6200001 -1.1632427 1.1688508 0
2.6170001 -1.165732 1.1678171 0
2.6140001 -1.1682104 1.1667836 0
2.6110003 -1.1706781 1.16575 0
2.6080003 -1.1731349 1.1647165 0
2.6050003 -1.1755807 1.1636829 0
2.6020002 -1.1780159 1.1626493 0
2.5990002 -1.1804403 1.1616157 0
2.5960002 -1.1828537 1.1605821 0
2.5930002 -1.1852565 1.1595485 0
2.5900002 -1.1876483 1.158515 0
2.5870001 -1.1900293 1.1574813 0
2.5840001 -1.1923995 1.1564478 0
2.5810001 -1.1947588 1.1554141 0
2.5780003 -1.1971074 1.1543807 0
2.5750003 -1.1994452 1.1533471 0
2.5720003 -1.2017721 1.1523135 0
2.5690002 -1.2040882 1.1512799 0
2.5660002 -1.2063935 1.1502463 0
2.5630002 -1.2086879 1.1492127 0
2.5600002 -1.2109715 1.1481792 0
2.5580001 -1.2137854 1.14749 0
2.5550003 -1.2160493 1.1464566 0
2.5520003 -1.2183022 1.1454229 0
2.5490003 -1.2205443 1.1443894 0
2.5460002 -1.2227756 1.1433557 0
2.5430002 -1.2249962 1.1423222 0
2.5400002 -1.2272058 1.1412886 0
2.5370002 -1.2294046 1.140255 0
2.5350001 -1.2321482 1.1395659 0
2.5320003 -1.2343273 1.1385324 0
2.5290003 -1.2364955 1.1374989 0
2.5260003 -1.2386527 1.1364652 0
2.5230002 -1.2407993 1.1354316 0
2.5210001 -1.2434995 1.1347426 0
2.5180001 -1.2456262 1.133709 0
2.5150001 -1.2477421 1.1326754 0
2.5120001 -1.2498471 1.1316417 0
2.5090003 -1.2519414 1.1306083 0
2.5070002 -1.2545985 1.1299192 0
2.5040002 -1.2566727 1.1288856 0
2.6930003 -1.1048499 1.1898652 0
2.6900003 -1.1075953 1.1888371 0
2.6860001 -1.1098645 1.187466 0
2.6830001 -1.1125864 1.1864378 0
2.6800003 -1.1152976 1.1854098 0
2.6770003 -1.1179979 1.1843816 0
2.6730001 -1.1202147 1.1830106 0
2.6700003 -1.1228917 1.1819825 0
2.6670003 -1.1255575 1.1809543 0
2.6640003 -1.1282128 1.1799262 0
2.6610003 -1.1308571 1.178898 0
2.6450002 -1.1434278 1.1734145 0
2.6420002 -1.1460055 1.1723862 0
2.6390002 -1.1485723 1.171358 0
2.6350002 -1.1506341 1.1699872 0
2.6320002 -1.1531775 1.168959 0
2.6290002 -1.1557101 1.1679308 0
2.6260002 -1.1582317 1.1669027 0
2.6230001 -1.1607426 1.1658745 0
2.6200001 -1.1632427 1.1648463 0
2.6170001 -1.165732 1.1638181 0
2.6140001 -1.1682104 1.1627899 0
2.6110003 -1.1706781 1.1617619 0
2.6080003 -1.1731349 1.1607337 0
2.6050003 -1.1755807 1.1597055 0
2.6020002 -1.1780159 1.1586773 0
2.5990002 -1.1804403 1.1576492 0
2.5960002 -1.1828537 1.156621 0
2.5930002 -1.1852565 1.1555928 0
2.5900002 -1.1876483 1.1545646 0
2.5870001 -1.1900293 1.1535364 0
2.5840001 -1.1923995 1.1525083 0
2.5810001 -1.1947588 1.1514801 0
2.5780003 -1.1971074 1.150452 0
2.5750003 -1.1994452 1.1494238 0
2.5720003 -1.2017721 1.1483957 0
2.5690002 -1.2040882 1.1473675 0
2.5660002 -1.2063935 1.1463393 0
2.5630002 -1.2086879 1.1453111 0
2.5600002 -1.2109715 1.1442829 0
2.5580001 -1.2137854 1.1435974 0
2.5550003 -1.2160493 1.1425693 0
2.5520003 -1.2183022 1.1415411 0
2.5490003 -1.2205443 1.1405129 0
2.5460002 -1.2227756 1.1394848 0
2.5430002 -1.2249962 1.1384566 0
2.5400002 -1.2272058 1.1374284 0
2.5370002 -1.2294046 1.1364003 0
2.5350001 -1.2321482 1.1357148 0
2.5320003 -1.2343273 1.1346867 0
2.5290003 -1.2364955 1.1336585 0
2.5260003 -1.2386527 1.1326303 0
2.5230002 -1.2407993 1.1316022 0
2.5210001 -1.2434995 1.1309167 0
2.5180001 -1.2456262 1.1298885 0
2.5150001 -1.2477421 1.1288604 0
2.5120001 -1.2498471 1.1278322 0
2.5090003 -1.2519414 1.1268041 0
2.5070002 -1.2545985 1.1261185 0
2.5040002 -1.2566727 1.1250904 0
2.6930003 -1.1048499 1.185729 0
2.6900003 -1.1075953 1.1847062 0
2.6860001 -1.1098645 1.1833426 0
2.6830001 -1.1125864 1.1823198 0
2.6800003 -1.1152976 1.1812971 0
2.6320002 -1.1531775 1.164933 0
2.6290002 -1.1557101 1.1639102 0
2.6260002 -1.1582317 1.1628873 0
2.6230001 -1.1607426 1.1618646 0
2.6200001 -1.1632427 1.1608418 0
2.6170001 -1.165732 1.1598191 0
2.6140001 -1.1682104 1.1587963 0
2.6110003 -1.1706781 1.1577736 0
2.6080003 -1.1731349 1.1567509 0
2.6050003 -1.1755807 1.1557281 0
2.6020002 -1.1780159 1.1547054 0
2.5990002 -1.1804403 1.1536826 0
2.5960002 -1.1828537 1.1526598 0
2.5930002 -1.1852565 1.1516371 0
2.5900002 -1.1876483 1.1506143 0
2.5870001 -1.1900293 1.1495916 0
2.5840001 -1.1923995 1.1485687 0
2.5810001 -1.1947588 1.1475459 0
2.5780003 -1.1971074 1.1465232 0
2.5750003 -1.1994452 1.1455005 0
2.5720003 -1.2017721 1.1444777 0
2.5690002 -1.2040882 1.143455 0
2.5660002 -1.2063935 1.1424322 0
2.5630002 -1.2086879 1.1414094 0
2.5600002 -1.2109715 1.1403867 0
2.5580001 -1.2137854 1.1397048 0
2.5550003 -1.2160493 1.1386821 0
2.5520003 -1.2183022 1.1376593 0
2.5490003 -1.2205443 1.1366366 0
2.5460002 -1.2227756 1.1356138 0
2.5430002 -1.2249962 1.1345911 0
2.5400002 -1.2272058 1.1335683 0
2.5370002 -1.2294046 1.1325455 0
2.5350001 -1.2321482 1.1318636 0
2.5320003 -1.2343273 1.1308409 0
2.5290003 -1.2364955 1.1298182 0
2.5260003 -1.2386527 1.1287954 0
2.5230002 -1.2407993 1.1277727 0
2.5210001 -1.2434995 1.1270908 0
2.5180001 -1.2456262 1.126068 0
2.5150001 -1.2477421 1.1250453 0
2.5120001 -1.2498471 1.1240225 0
2.5090003 -1.2519414 1.1229998 0
2.5070002 -1.2545985 1.1223179 0
2.5040002 -1.2566727 1.1212952 0
2.6230001 -1.1607426 1.1578548 0
2.6200001 -1.1632427 1.1568375 0
2.6170001 -1.165732 1.15582 0
2.6140001 -1.1682104 1.1548027 0
2.6110003 -1.1706781 1.1537853 0
2.6080003 -1.1731349 1.152768 0
2.6050003 -1.1755807 1.1517507 0
2.6020002 -1.1780159 1.1507334 0
2.5990002 -1.1804403 1.149716 0
2.5960002 -1.1828537 1.1486987 0
2.5930002 -1.1852565 1.1476814 0
2.5900002 -1.1876483 1.1466639 0
2.5870001 -1.1900293 1.1456466 0
2.5840001 -1.1923995 1.1446292 0
2.5810001 -1.1947588 1.1436118 0
2.5780003 -1.1971074 1.1425946 0
2.5750003 -1.1994452 1.1415772 0
2.5720003 -1.2017721 1.1405599 0
2.5690002 -1.2040882 1.1395426 0
2.5660002 -1.2063935 1.1385252 0
2.5630002 -1.2086879 1.1375078 0
2.5600002 -1.2109715 1.1364905 0
2.5580001 -1.2137854 1.1358122 0
2.5550003 -1.2160493 1.134795 0
2.5520003 -1.2183022 1.1337776 0
2.5490003 -1.2205443 1.1327602 0
2.5460002 -1.2227756 1.1317428 0
2.5430002 -1.2249962 1.1307255 0
2.5400002 -1.2272058 1.1297082 0
2.5370002 -1.2294046 1.1286908 0
2.5350001 -1.2321482 1.1280125 0
2.5320003 -1.2343273 1.1269952 0
2.5290003 -1.2364955 1.1259779 0
2.5260003 -1.2386527 1.1249605 0
2.5230002 -1.2407993 1.1239432 0
2.5210001 -1.2434995 1.1232649 0
2.5180001 -1.2456262 1.1222476 0
2.5150001 -1.2477421 1.1212302 0
2.5120001 -1.2498471 1.1202129 0
2.5090003 -1.2519414 1.1191956 0
2.5070002 -1.2545985 1.1185173 0
2.5040002 -1.2566727 1.1174999 0
2.6200001 -1.1632427 1.152833 0
2.6170001 -1.165732 1.151821 0
2.6140001 -1.1682104 1.150809 0
2.6110003 -1.1706781 1.1497972 0
2.6080003 -1.1731349 1.1487852 0
2.6050003 -1.1755807 1.1477733 0
2.6020002 -1.1780159 1.1467613 0
2.5990002 -1.1804403 1.1457494 0
2.5960002 -1.1828537 1.1447375 0
2.5930002 -1.1852565 1.1437255 0
2.5900002 -1.1876483 1.1427135 0
2.5870001 -1.1900293 1.1417016 0
2.5840001 -1.1923995 1.1406897 0
2.5810001 -1.1947588 1.1396778 0
2.5780003 -1.1971074 1.1386659 0
2.5750003 -1.1994452 1.1376539 0
2.5720003 -1.2017721 1.136642 0
2.5690002 -1.2040882 1.13563 0
2.5660002 -1.2063935 1.1346182 0
2.5630002 -1.2086879 1.1336062 0
2.5600002 -1.2109715 1.1325942 0
2.5580001 -1.2137854 1.1319195 0
2.5550003 -1.2160493 1.1309078 0
2.5520003 -1.2183022 1.1298958 0
2.5490003 -1.2205443 1.1288838 0
2.5460002 -1.2227756 1.1278719 0
2.5430002 -1.2249962 1.1268599 0
2.5400002 -1.2272058 1.1258481 0
2.5370002 -1.2294046 1.1248361 0
2.5350001 -1.2321482 1.1241614 0
2.5320003 -1.2343273 1.1231495 0
2.5290003 -1.2364955 1.1221377 0
2.5260003 -1.2386527 1.1211257 0
2.5230002 -1.2407993 1.1201137 0
2.5210001 -1.2434995 1.119439 0
2.5180001 -1.2456262 1.1184272 0
2.5150001 -1.2477421 1.1174152 0
2.5120001 -1.2498471 1.1164032 0
2.5090003 -1.2519414 1.1153914 0
2.5070002 -1.2545985 1.1147168 0
2.5040002 -1.2566727 1.1137048 0
2.6170001 -1.165732 1.1478219 0
2.6140001 -1.1682104 1.1468154 0
2.6110003 -1.1706781 1.1458089 0
2.6080003 -1.1731349 1.1448025 0
2.6050003 -1.1755807 1.143796 0
2.6020002 -1.1780159 1.1427894 0
2.5990002 -1.1804403 1.1417828 0
2.5960002 -1.1828537 1.1407763 0
2.5930002 -1.1852565 1.1397698 0
2.5900002 -1.1876483 1.1387632 0
2.5870001 -1.1900293 1.1377567 0
2.5840001 -1.1923995 1.1367502 0
2.5810001 -1.1947588 1.1357436 0
2.5780003 -1.1971074 1.1347371 0
2.5750003 -1.1994452 1.1337306 0
2.5720003 -1.2017721 1.1327242 0
2.5690002 -1.2040882 1.1317176 0
2.5660002 -1.2063935 1.1307111 0
2.5630002 -1.2086879 1.1297046 0
2.5600002 -1.2109715 1.128698 0
2.5580001 -1.2137854 1.128027 0
2.5550003 -1.2160493 1.1270205 0
2.5520003 -1.2183022 1.126014 0
2.5490003 -1.2205443 1.1250074 0
2.5460002 -1.2227756 1.1240009 0
2.5430002 -1.2249962 1.1229944 0
2.5400002 -1.2272058 1.1219878 0
2.5370002 -1.2294046 1.1209813 0
2.5350001 -1.2321482 1.1203102 0
2.5320003 -1.2343273 1.1193038 0
2.5290003 -1.2364955 1.1182973 0
2.5260003 -1.2386527 1.1172907 0
2.5230002 -1.2407993 1.1162843 0
2.5210001 -1.2434995 1.1156132 0
2.5180001 -1.2456262 1.1146066 0
2.5150001 -1.2477421 1.1136001 0
2.5120001 -1.2498471 1.1125935 0
2.5090003 -1.2519414 1.1115872 0
2.5070002 -1.2545985 1.110916 0
2.5040002 -1.2566727 1.1099095 0
2.6140001 -1.1682104 1.1428218 0
2.6110003 -1.1706781 1.1418208 0
2.6080003 -1.1731349 1.1408197 0
2.6050003 -1.1755807 1.1398184 0
2.6020002 -1.1780159 1.1388174 0
2.5990002 -1.1804403 1.1378163 0
2.5960002 -1.1828537 1.1368151 0
2.5930002 -1.1852565 1.1358141 0
2.5900002 -1.1876483 1.134813 0
2.5870001 -1.1900293 1.1338118 0
2.5840001 -1.1923995 1.1328107 0
2.5810001 -1.1947588 1.1318095 0
2.5780003 -1.1971074 1.1308085 0
2.5750003 -1.1994452 1.1298074 0
2.5720003 -1.2017721 1.1288062 0
2.5690002 -1.2040882 1.1278051 0
2.5660002 -1.2063935 1.126804 0
2.5630002 -1.2086879 1.1258029 0
2.5600002 -1.2109715 1.1248018 0
2.5580001 -1.2137854 1.1241343 0
2.5550003 -1.2160493 1.1231333 0
2.5520003 -1.2183022 1.1221322 0
2.5490003 -1.2205443 1.1211311 0
2.5460002 -1.2227756 1.1201299 0
2.5430002 -1.2249962 1.1191288 0
2.5400002 -1.2272058 1.1181277 0
2.5370002 -1.2294046 1.1171266 0
2.5350001 -1.2321482 1.1164591 0
2.5320003 -1.2343273 1.1154581 0
2.5290003 -1.2364955 1.1144569 0
2.5260003 -1.2386527 1.1134559 0
2.5230002 -1.2407993 1.1124548 0
2.5210001 -1.2434995 1.1117873 0
2.5180001 -1.2456262 1.1107862 0
2.5150001 -1.2477421 1.1097851 0
2.5120001 -1.2498471 1.108784 0
2.5090003 -1.2519414 1.1077828 0
2.5070002 -1.2545985 1.1071154 0
2.5040002 -1.2566727 1.1061144 0
2.6110003 -1.1706781 1.1378325 0
2.6080003 -1.1731349 1.1368368 0
2.6050003 -1.1755807 1.1358411 0
2.6020002 -1.1780159 1.1348454 0
2.5990002 -1.1804403 1.1338497 0
2.5960002 -1.1828537 1.132854 0
2.5930002 -1.1852565 1.1318583 0
2.5900002 -1.1876483 1.1308626 0
2.5870001 -1.1900293 1.1298668 0
2.5840001 -1.1923995 1.1288712 0
2.5810001 -1.1947588 1.1278754 0
2.5780003 -1.1971074 1.1268798 0
2.5750003 -1.1994452 1.1258841 0
2.5720003 -1.2017721 1.1248884 0
2.5690002 -1.2040882 1.1238927 0
2.5660002 -1.2063935 1.122897 0
2.5630002 -1.2086879 1.1219013 0
2.5600002 -1.2109715 1.1209055 0
2.5580001 -1.2137854 1.1202418 0
2.5550003 -1.2160493 1.1192461 0
2.5520003 -1.2183022 1.1182504 0
2.5490003 -1.2205443 1.1172546 0
2.5460002 -1.2227756 1.116259 0
2.5430002 -1.2249962 1.1152632 0
2.5400002 -1.2272058 1.1142675 0
2.5370002 -1.2294046 1.1132718 0
2.5350001 -1.2321482 1.112608 0
2.5320003 -1.2343273 1.1116123 0
2.5290003 -1.2364955 1.1106167 0
2.5260003 -1.2386527 1.1096209 0
2.5230002 -1.2407993 1.1086252 0
2.5210001 -1.2434995 1.1079614 0
2.5180001 -1.2456262 1.1069657 0
2.5150001 -1.2477421 1.10597 0
2.5120001 -1.2498471 1.1049743 0
2.5090003 -1.2519414 1.1039786 0
2.5070002 -1.2545985 1.1033149 0
2.5040002 -1.2566727 1.1023191 0
2.6080003 -1.1731349 1.132854 0
2.6050003 -1.1755807 1.1318637 0
2.6020002 -1.1780159 1.1308734 0
2.5990002 -1.1804403 1.1298832 0
2.5960002 -1.1828537 1.1288928 0
2.5930002 -1.1852565 1.1279025 0
2.5900002 -1.1876483 1.1269122 0
2.5870001 -1.1900293 1.125922 0
2.5840001 -1.1923995 1.1249316 0
2.5810001 -1.1947588 1.1239413 0
2.5780003 -1.1971074 1.1229511 0
2.5750003 -1.1994452 1.1219608 0
2.5720003 -1.2017721 1.1209705 0
2.5690002 -1.2040882 1.1199802 0
2.5660002 -1.2063935 1.1189899 0
2.5630002 -1.2086879 1.1179996 0
2.5600002 -1.2109715 1.1170094 0
2.5580001 -1.2137854 1.1163491 0
2.5550003 -1.2160493 1.1153589 0
2.5520003 -1.2183022 1.1143686 0
2.5490003 -1.2205443 1.1133783 0
2.5460002 -1.2227756 1.112388 0
2.5430002 -1.2249962 1.1113977 0
2.5400002 -1.2272058 1.1104074 0
2.5370002 -1.2294046 1.1094171 0
2.5350001 -1.2321482 1.1087569 0
2.5320003 -1.2343273 1.1077666 0
2.5290003 -1.2364955 1.1067764 0
2.5260003 -1.2386527 1.1057861 0
2.5230002 -1.2407993 1.1047958 0
2.5210001 -1.2434995 1.1041355 0
2.5180001 -1.2456262 1.1031452 0
2.5150001 -1.2477421 1.102155 0
2.5120001 -1.2498471 1.1011647 0
2.5090003 -1.2519414 1.1001744 0
2.5070002 -1.2545985 1.0995142 0
2.5040002 -1.2566727 1.0985239 0
2.6050003 -1.1755807 1.1278863 0
2.6020002 -1.1780159 1.1269015 0
2.5990002 -1.1804403 1.1259165 0
2.5960002 -1.1828537 1.1249317 0
2.5930002 -1.1852565 1.1239468 0
2.5900002 -1.1876483 1.1229619 0
2.5870001 -1.1900293 1.121977 0
2.5840001 -1.1923995 1.1209921 0
2.5810001 -1.1947588 1.1200072 0
2.5780003 -1.1971074 1.1190224 0
2.5750003 -1.1994452 1.1180376 0
2.5720003 -1.2017721 1.1170527 0
2.5690002 -1.2040882 1.1160678 0
2.5660002 -1.2063935 1.1150829 0
2.5630002 -1.2086879 1.114098 0
2.5600002 -1.2109715 1.1131132 0
2.5580001 -1.2137854 1.1124566 0
2.5550003 -1.2160493 1.1114717 0
2.5520003 -1.2183022 1.1104867 0
2.5490003 -1.2205443 1.109502 0
2.5460002 -1.2227756 1.1085171 0
2.5430002 -1.2249962 1.1075321 0
2.5400002 -1.2272058 1.1065472 0
2.5370002 -1.2294046 1.1055623 0
2.5350001 -1.2321482 1.1049057 0
2.5320003 -1.2343273 1.1039209 0
2.5290003 -1.2364955 1.102936 0
2.5260003 -1.2386527 1.1019511 0
2.5230002 -1.2407993 1.1009662 0
2.5210001 -1.2434995 1.1003096 0
2.5180001 -1.2456262 1.0993248 0
2.5150001 -1.2477421 1.0983399 0
2.5120001 -1.2498471 1.097355 0
2.5090003 -1.2519414 1.0963702 0
2.5070002 -1.2545985 1.0957136 0
2.5040002 -1.2566727 1.0947287 0
2.6050003 -1.1755807 1.123909 0
2.6020002 -1.1780159 1.1229295 0
2.5990002 -1.1804403 1.1219499 0
2.5960002 -1.1828537 1.1209705 0
2.5930002 -1.1852565 1.1199911 0
2.5900002 -1.1876483 1.1190115 0
2.5870001 -1.1900293 1.1180321 0
2.5840001 -1.1923995 1.1170527 0
2.5810001 -1.1947588 1.1160731 0
2.5780003 -1.1971074 1.1150937 0
2.5750003 -1.1994452 1.1141143 0
2.5720003 -1.2017721 1.1131347 0
2.5690002 -1.2040882 1.1121553 0
2.5660002 -1.2063935 1.1111758 0
2.5630002 -1.2086879 1.1101964 0
2.5600002 -1.2109715 1.1092169 0
2.5580001 -1.2137854 1.1085639 0
2.5550003 -1.2160493 1.1075845 0
2.5520003 -1.2183022 1.1066049 0
2.5490003 -1.2205443 1.1056255 0
2.5460002 -1.2227756 1.1046461 0
2.5430002 -1.2249962 1.1036665 0
2.5400002 -1.2272058 1.1026871 0
2.5370002 -1.2294046 1.1017077 0
2.5350001 -1.2321482 1.1010547 0
2.5320003 -1.2343273 1.1000752 0
2.5290003 -1.2364955 1.0990957 0
2.5260003 -1.2386527 1.0981163 0
2.5230002 -1.2407993 1.0971369 0
2.5210001 -1.2434995 1.0964838 0
2.5180001 -1.2456262 1.0955043 0
2.5150001 -1.2477421 1.0945249 0
2.5120001 -1.2498471 1.0935453 0
2.5090003 -1.2519414 1.092566 0
2.5070002 -1.2545985 1.091913 0
2.5040002 -1.2566727 1.0909334 0
2.6020002 -1.1780159 1.1189574 0
2.5990002 -1.1804403 1.1179833 0
2.5960002 -1.1828537 1.1170094 0
2.5930002 -1.1852565 1.1160352 0
2.5900002 -1.1876483 1.1150612 0
2.5870001 -1.1900293 1.1140871 0
2.5840001 -1.1923995 1.113113 0
2.5810001 -1.1947588 1.112139 0
2.5780003 -1.1971074 1.111165 0
2.5750003 -1.1994452 1.110191 0
2.5720003 -1.2017721 1.1092169 0
2.5690002 -1.2040882 1.1082429 0
2.5660002 -1.2063935 1.1072688 0
2.5630002 -1.2086879 1.1062948 0
2.5600002 -1.2109715 1.1053207 0
2.5580001 -1.2137854 1.1046712 0
2.5550003 -1.2160493 1.1036972 0
2.5520003 -1.2183022 1.1027232 0
2.5490003 -1.2205443 1.1017492 0
2.5460002 -1.2227756 1.1007751 0
2.5430002 -1.2249962 1.0998011 0
2.5400002 -1.2272058 1.0988269 0
2.5370002 -1.2294046 1.0978528 0
2.5350001 -1.2321482 1.0972035 0
2.5320003 -1.2343273 1.0962296 0
2.5290003 -1.2364955 1.0952554 0
2.5260003 -1.2386527 1.0942813 0
2.5230002 -1.2407993 1.0933073 0
2.5210001 -1.2434995 1.0926579 0
2.5180001 -1.2456262 1.0916839 0
2.5150001 -1.2477421 1.0907098 0
2.5120001 -1.2498471 1.0897357 0
2.5090003 -1.2519414 1.0887617 0
2.5070002 -1.2545985 1.0881124 0
2.5040002 -1.2566727 1.0871383 0
2.6020002 -1.1780159 1.1149855 0
2.5990002 -1.1804403 1.1140169 0
2.5960002 -1.1828537 1.1130482 0
2.5930002 -1.1852565 1.1120795 0
2.5900002 -1.1876483 1.1111108 0
2.5870001 -1.1900293 1.1101422 0
2.5840001 -1.1923995 1.1091735 0
2.5810001 -1.1947588 1.1082048 0
2.5780003 -1.1971074 1.1072363 0
2.5750003 -1.1994452 1.1062677 0
2.5720003 -1.2017721 1.105299 0
2.5690002 -1.2040882 1.1043304 0
2.5660002 -1.2063935 1.1033617 0
2.5630002 -1.2086879 1.1023932 0
2.5600002 -1.2109715 1.1014245 0
2.5580001 -1.2137854 1.1007787 0
2.5550003 -1.2160493 1.09981 0
2.5520003 -1.2183022 1.0988414 0
2.5490003 -1.2205443 1.0978727 0
2.5460002 -1.2227756 1.0969042 0
2.5430002 -1.2249962 1.0959355 0
2.5400002 -1.2272058 1.0949668 0
2.5370002 -1.2294046 1.0939982 0
2.5350001 -1.2321482 1.0933523 0
2.5320003 -1.2343273 1.0923839 0
2.5290003 -1.2364955 1.0914152 0
2.5260003 -1.2386527 1.0904465 0
2.5230002 -1.2407993 1.0894778 0
2.5210001 -1.2434995 1.088832 0
2.5180001 -1.2456262 1.0878633 0
2.5150001 -1.2477421 1.0868948 0
2.5120001 -1.2498471 1.0859261 0
2.5090003 -1.2519414 1.0849575 0
2.5070002 -1.2545985 1.0843117 0
2.5040002 -1.2566727 1.083343 0
2.6020002 -1.1780159 1.1110135 0
2.5990002 -1.1804403 1.1100502 0
2.5960002 -1.1828537 1.109087 0
2.5930002 -1.1852565 1.1081238 0
2.5900002 -1.1876483 1.1071606 0
2.5870001 -1.1900293 1.1061972 0
2.5840001 -1.1923995 1.105234 0
2.5810001 -1.1947588 1.1042708 0
2.5780003 -1.1971074 1.1033077 0
2.5750003 -1.1994452 1.1023444 0
2.5720003 -1.2017721 1.1013812 0
2.5690002 -1.2040882 1.100418 0
2.5660002 -1.2063935 1.0994546 0
2.5630002 -1.2086879 1.0984914 0
2.5600002 -1.2109715 1.0975282 0
2.5580001 -1.2137854 1.096886 0
2.5550003 -1.2160493 1.0959228 0
2.5520003 -1.2183022 1.0949596 0
2.5490003 -1.2205443 1.0939964 0
2.5460002 -1.2227756 1.0930332 0
2.5430002 -1.2249962 1.0920699 0
2.5400002 -1.2272058 1.0911067 0
2.5370002 -1.2294046 1.0901434 0
2.5350001 -1.2321482 1.0895013 0
2.5320003 -1.2343273 1.0885381 0
2.5290003 -1.2364955 1.0875748 0
2.5260003 -1.2386527 1.0866116 0
2.5230002 -1.2407993 1.0856483 0
2.5210001 -1.2434995 1.0850061 0
2.5180001 -1.2456262 1.0840429 0
2.5150001 -1.2477421 1.0830797 0
2.5120001 -1.2498471 1.0821165 0
2.5090003 -1.2519414 1.0811533 0
2.5070002 -1.2545985 1.0805111 0
2.5040002 -1.2566727 1.0795479 0
2.6020002 -1.1780159 1.1070415 0
2.5990002 -1.1804403 1.1060836 0
2.5960002 -1.1828537 1.1051258 0
2.5930002 -1.1852565 1.1041681 0
2.5900002 -1.1876483 1.1032102 0
2.5870001 -1.1900293 1.1022524 0
2.5840001 -1.1923995 1.1012945 0
2.5810001 -1.1947588 1.1003367 0
2.5780003 -1.1971074 1.0993789 0
2.5750003 -1.1994452 1.0984211 0
2.5720003 -1.2017721 1.0974633 0
2.5690002 -1.2040882 1.0965054 0
2.5660002 -1.2063935 1.0955477 0
2.5630002 -1.2086879 1.0945898 0
2.5600002 -1.2109715 1.093632 0
2.5580001 -1.2137854 1.0929934 0
2.5550003 -1.2160493 1.0920357 0
2.5520003 -1.2183022 1.0910778 0
2.5490003 -1.2205443 1.09012 0
2.5460002 -1.2227756 1.0891622 0
2.5430002 -1.2249962 1.0882044 0
2.5400002 -1.2272058 1.0872465 0
2.5370002 -1.2294046 1.0862887 0
2.5350001 -1.2321482 1.0856501 0
2.5320003 -1.2343273 1.0846924 0
2.5290003 -1.2364955 1.0837345 0
2.5260003 -1.2386527 1.0827767 0
2.5230002 -1.2407993 1.0818188 0
2.5210001 -1.2434995 1.0811803 0
2.5180001 -1.2456262 1.0802225 0
2.5150001 -1.2477421 1.0792646 0
2.5120001 -1.2498471 1.0783068 0
2.5090003 -1.2519414 1.0773491 0
2.5070002 -1.2545985 1.0767105 0
2.5040002 -1.2566727 1.0757526 0
2.5990002 -1.1804403 1.1021171 0
2.5960002 -1.1828537 1.1011647 0
2.5930002 -1.1852565 1.1002122 0
2.5900002 -1.1876483 1.0992599 0
2.5870001 -1.1900293 1.0983075 0
2.5840001 -1.1923995 1.097355 0
2.5810001 -1.1947588 1.0964025 0
2.5780003 -1.1971074 1.0954503 0
2.5750003 -1.1994452 1.0944979 0
2.5720003 -1.2017721 1.0935454 0
2.5690002 -1.2040882 1.092593 0
2.5660002 -1.2063935 1.0916406 0
2.5630002 -1.2086879 1.0906881 0
2.5600002 -1.2109715 1.0897357 0
2.5580001 -1.2137854 1.0891007 0
2.5550003 -1.2160493 1.0881485 0
2.5520003 -1.2183022 1.087196 0
2.5490003 -1.2205443 1.0862436 0
2.5460002 -1.2227756 1.0852911 0
2.5430002 -1.2249962 1.0843388 0
2.5400002 -1.2272058 1.0833863 0
2.5370002 -1.2294046 1.0824339 0
2.5350001 -1.2321482 1.081799 0
2.5320003 -1.2343273 1.0808465 0
2.5290003 -1.2364955 1.0798942 0
2.5260003 -1.2386527 1.0789418 0
2.5230002 -1.2407993 1.0779893 0
2.5210001 -1.2434995 1.0773544 0
2.5180001 -1.2456262 1.0764019 0
2.5150001 -1.2477421 1.0754496 0
2.5120001 -1.2498471 1.0744971 0
2.5090003 -1.2519414 1.0735447 0
2.5070002 -1.2545985 1.0729098 0
2.5040002 -1.2566727 1.0719575 0
2.5990002 -1.1804403 1.0981505 0
2.5960002 -1.1828537 1.0972035 0
2.5930002 -1.1852565 1.0962565 0
2.5900002 -1.1876483 1.0953095 0
2.5870001 -1.1900293 1.0943625 0
2.5840001 -1.1923995 1.0934155 0
2.5810001 -1.1947588 1.0924685 0
2.5780003 -1.1971074 1.0915215 0
2.5750003 -1.1994452 1.0905745 0
2.5720003 -1.2017721 1.0896275 0
2.5690002 -1.2040882 1.0886805 0
2.5660002 -1.2063935 1.0877335 0
2.5630002 -1.2086879 1.0867865 0
2.5600002 -1.2109715 1.0858395 0
2.5580001 -1.2137854 1.0852082 0
2.5550003 -1.2160493 1.0842612 0
2.5520003 -1.2183022 1.0833142 0
2.5490003 -1.2205443 1.0823672 0
2.5460002 -1.2227756 1.0814202 0
2.5430002 -1.2249962 1.0804732 0
2.5400002 -1.2272058 1.0795262 0
2.5370002 -1.2294046 1.0785792 0
2.5350001 -1.2321482 1.0779479 0
2.5320003 -1.2343273 1.0770009 0
2.5290003 -1.2364955 1.0760539 0
2.5260003 -1.2386527 1.0751069 0
2.5230002 -1.2407993 1.0741599 0
2.5210001 -1.2434995 1.0735285 0
2.5180001 -1.2456262 1.0725815 0
2.5150001 -1.2477421 1.0716345 0
2.5120001 -1.2498471 1.0706875 0
2.5090003 -1.2519414 1.0697405 0
2.5070002 -1.2545985 1.0691092 0
2.5040002 -1.2566727 1.0681622 0
2.5990002 -1.1804403 1.0941839 0
2.5960002 -1.1828537 1.0932423 0
2.5930002 -1.1852565 1.0923008 0
2.5900002 -1.1876483 1.0913591 0
2.5870001 -1.1900293 1.0904175 0
2.5840001 -1.1923995 1.089476 0
2.5810001 -1.1947588 1.0885344 0
2.5780003 -1.1971074 1.0875928 0
2.5750003 -1.1994452 1.0866513 0
2.5720003 -1.2017721 1.0857097 0
2.5690002 -1.2040882 1.0847681 0
2.5660002 -1.2063935 1.0838265 0
2.5630002 -1.2086879 1.0828849 0
2.5600002 -1.2109715 1.0819433 0
2.5580001 -1.2137854 1.0813155 0
2.5550003 -1.2160493 1.080374 0
2.5520003 -1.2183022 1.0794324 0
2.5490003 -1.2205443 1.0784909 0
2.5460002 -1.2227756 1.0775492 0
2.5430002 -1.2249962 1.0766076 0
2.5400002 -1.2272058 1.0756661 0
2.5370002 -1.2294046 1.0747244 0
2.5350001 -1.2321482 1.0740967 0
2.5320003 -1.2343273 1.0731552 0
2.5290003 -1.2364955 1.0722136 0
2.5260003 -1.2386527 1.071272 0
2.5230002 -1.2407993 1.0703304 0
2.5210001 -1.2434995 1.0697026 0
2.5180001 -1.2456262 1.0687611 0
2.5150001 -1.2477421 1.0678195 0
2.5120001 -1.2498471 1.0668778 0
2.5090003 -1.2519414 1.0659363 0
2.5070002 -1.2545985 1.0653086 0
2.5040002 -1.2566727 1.0643669 0
2.5990002 -1.1804403 1.0902174 0
2.5960002 -1.1828537 1.0892812 0
2.5930002 -1.1852565 1.0883451 0
2.5900002 -1.1876483 1.0874088 0
2.5870001 -1.1900293 1.0864726 0
2.5840001 -1.1923995 1.0855365 0
2.5810001 -1.1947588 1.0846002 0
2.5780003 -1.1971074 1.0836642 0
2.5750003 -1.1994452 1.0827279 0
2.5720003 -1.2017721 1.0817919 0
2.5690002 -1.2040882 1.0808556 0
2.5660002 -1.2063935 1.0799195 0
2.5630002 -1.2086879 1.0789832 0
2.5600002 -1.2109715 1.078047 0
2.5580001 -1.2137854 1.0774229 0
2.5550003 -1.2160493 1.0764868 0
2.5520003 -1.2183022 1.0755506 0
2.5490003 -1.2205443 1.0746144 0
2.5460002 -1.2227756 1.0736783 0
2.5430002 -1.2249962 1.0727421 0
2.5400002 -1.2272058 1.071806 0
2.5370002 -1.2294046 1.0708697 0
2.5350001 -1.2321482 1.0702456 0
2.5320003 -1.2343273 1.0693095 0
2.5290003 -1.2364955 1.0683733 0
2.5260003 -1.2386527 1.0674371 0
2.5230002 -1.2407993 1.0665009 0
2.5210001 -1.2434995 1.0658767 0
2.5180001 -1.2456262 1.0649406 0
2.5150001 -1.2477421 1.0640044 0
2.5120001 -1.2498471 1.0630683 0
2.5090003 -1.2519414 1.0621321 0
2.5070002 -1.2545985 1.0615079 0
2.5040002 -1.2566727 1.0605718 0
2.5990002 -1.1804403 1.0862508 0
2.5960002 -1.1828537 1.08532 0
2.5930002 -1.1852565 1.0843892 0
2.5900002 -1.1876483 1.0834585 0
2.5870001 -1.1900293 1.0825278 0
2.5840001 -1.1923995 1.081597 0
2.5810001 -1.1947588 1.0806662 0
2.5780003 -1.1971074 1.0797354 0
2.5750003 -1.1994452 1.0788047 0
2.5720003 -1.2017721 1.0778739 0
2.5690002 -1.2040882 1.0769432 0
2.5660002 -1.2063935 1.0760124 0
2.5630002 -1.2086879 1.0750816 0
2.5600002 -1.2109715 1.0741508 0
2.5580001 -1.2137854 1.0735303 0
2.5550003 -1.2160493 1.0725996 0
2.5520003 -1.2183022 1.0716689 0
2.5490003 -1.2205443 1.0707381 0
2.5460002 -1.2227756 1.0698073 0
2.5430002 -1.2249962 1.0688765 0
2.5400002 -1.2272058 1.0679457 0
2.5370002 -1.2294046 1.0670151 0
2.5350001 -1.2321482 1.0663944 0
2.5320003 -1.2343273 1.0654638 0
2.5290003 -1.2364955 1.064533 0
2.5260003 -1.2386527 1.0636022 0
2.5230002 -1.2407993 1.0626714 0
2.5210001 -1.2434995 1.0620509 0
2.5180001 -1.2456262 1.0611202 0
2.5150001 -1.2477421 1.0601894 0
2.5120001 -1.2498471 1.0592586 0
2.5090003 -1.2519414 1.0583279 0
2.5070002 -1.2545985 1.0577073 0
2.5040002 -1.2566727 1.0567765 0
2.5990002 -1.1804403 1.0822842 0
2.5960002 -1.1828537 1.0813589 0
2.5930002 -1.1852565 1.0804335 0
2.5900002 -1.1876483 1.0795082 0
2.5870001 -1.1900293 1.0785828 0
2.5840001 -1.1923995 1.0776573 0
2.5810001 -1.1947588 1.076732 0
2.5780003 -1.1971074 1.0758069 0
2.5750003 -1.1994452 1.0748814 0
2.5720003 -1.2017721 1.073956 0
2.5690002 -1.2040882 1.0730307 0
2.5660002 -1.2063935 1.0721053 0
2.5630002 -1.2086879 1.07118 0
2.5600002 -1.2109715 1.0702546 0
2.5580001 -1.2137854 1.0696377 0
2.5550003 -1.2160493 1.0687124 0
2.5520003 -1.2183022 1.0677871 0
2.5490003 -1.2205443 1.0668617 0
2.5460002 -1.2227756 1.0659363 0
2.5430002 -1.2249962 1.065011 0
2.5400002 -1.2272058 1.0640856 0
2.5370002 -1.2294046 1.0631602 0
2.5350001 -1.2321482 1.0625433 0
2.5320003 -1.2343273 1.061618 0
2.5290003 -1.2364955 1.0606927 0
2.5260003 -1.2386527 1.0597672 0
2.5230002 -1.2407993 1.0588419 0
2.5210001 -1.2434995 1.058225 0
2.5180001 -1.2456262 1.0572996 0
2.5150001 -1.2477421 1.0563743 0
2.5120001 -1.2498471 1.0554489 0
2.5090003 -1.2519414 1.0545237 0
2.5070002 -1.2545985 1.0539067 0
2.5040002 -1.2566727 1.0529814 0
2.5990002 -1.1804403 1.0783176 0
2.5960002 -1.1828537 1.0773977 0
2.5930002 -1.1852565 1.0764778 0
2.5900002 -1.1876483 1.0755578 0
2.5870001 -1.1900293 1.0746379 0
2.5840001 -1.1923995 1.073718 0
2.5810001 -1.1947588 1.0727979 0
2.5780003 -1.1971074 1.0718781 0
2.5750003 -1.1994452 1.0709581 0
2.5720003 -1.2017721 1.0700382 0
2.5690002 -1.2040882 1.0691183 0
2.5660002 -1.2063935 1.0681983 0
2.5630002 -1.2086879 1.0672784 0
2.5600002 -1.2109715 1.0663584 0
2.5580001 -1.2137854 1.065745 0
2.5550003 -1.2160493 1.0648252 0
2.5520003 -1.2183022 1.0639052 0
2.5490003 -1.2205443 1.0629853 0
2.5460002 -1.2227756 1.0620654 0
2.5430002 -1.2249962 1.0611454 0
2.5400002 -1.2272058 1.0602255 0
2.5370002 -1.2294046 1.0593055 0
2.5350001 -1.2321482 1.0586922 0
2.5320003 -1.2343273 1.0577723 0
2.5290003 -1.2364955 1.0568523 0
2.5260003 -1.2386527 1.0559324 0
2.5230002 -1.2407993 1.0550125 0
2.5210001 -1.2434995 1.0543991 0
2.5180001 -1.2456262 1.0534792 0
2.5150001 -1.2477421 1.0525593 0
2.5120001 -1.2498471 1.0516393 0
2.5090003 -1.2519414 1.0507194 0
2.5070002 -1.2545985 1.0501062 0
2.5040002 -1.2566727 1.0491861 0
2.5990002 -1.1804403 1.0743511 0
2.5960002 -1.1828537 1.0734365 0
2.5930002 -1.1852565 1.072522 0
2.5900002 -1.1876483 1.0716075 0
2.5870001 -1.1900293 1.0706929 0
2.5840001 -1.1923995 1.0697784 0
2.5810001 -1.1947588 1.0688639 0
2.5780003 -1.1971074 1.0679494 0
2.5750003 -1.1994452 1.0670348 0
2.5720003 -1.2017721 1.0661203 0
2.5690002 -1.2040882 1.0652058 0
2.5660002 -1.2063935 1.0642912 0
2.5630002 -1.2086879 1.0633767 0
2.5600002 -1.2109715 1.0624622 0
2.5580001 -1.2137854 1.0618525 0
2.5550003 -1.2160493 1.060938 0
2.5520003 -1.2183022 1.0600234 0
2.5490003 -1.2205443 1.059109 0
2.5460002 -1.2227756 1.0581944 0
2.5430002 -1.2249962 1.0572798 0
2.5400002 -1.2272058 1.0563653 0
2.5370002 -1.2294046 1.0554508 0
2.5350001 -1.2321482 1.054841 0
2.5320003 -1.2343273 1.0539266 0
2.5290003 -1.2364955 1.053012 0
2.5260003 -1.2386527 1.0520976 0
2.5230002 -1.2407993 1.051183 0
2.5210001 -1.2434995 1.0505732 0
2.5180001 -1.2456262 1.0496588 0
2.5150001 -1.2477421 1.0487442 0
2.5120001 -1.2498471 1.0478296 0
2.5090003 -1.2519414 1.0469152 0
2.5070002 -1.2545985 1.0463054 0
2.5040002 -1.2566727 1.045391 0
2.5990002 -1.1804403 1.0703845 0
2.5960002 -1.1828537 1.0694754 0
2.5930002 -1.1852565 1.0685662 0
2.5900002 -1.1876483 1.0676571 0
2.5870001 -1.1900293 1.066748 0
2.5840001 -1.1923995 1.0658388 0
2.5810001 -1.1947588 1.0649297 0
2.5780003 -1.1971074 1.0640206 0
2.5750003 -1.1994452 1.0631115 0
2.5720003 -1.2017721 1.0622025 0
2.5690002 -1.2040882 1.0612934 0
2.5660002 -1.2063935 1.0603842 0
2.5630002 -1.2086879 1.0594751 0
2.5600002 -1.2109715 1.058566 0
2.5580001 -1.2137854 1.0579598 0
2.5550003 -1.2160493 1.0570508 0
2.5520003 -1.2183022 1.0561416 0
2.5490003 -1.2205443 1.0552325 0
2.5460002 -1.2227756 1.0543234 0
2.5430002 -1.2249962 1.0534142 0
2.5400002 -1.2272058 1.0525051 0
2.5370002 -1.2294046 1.051596 0
2.5350001 -1.2321482 1.0509899 0
2.5320003 -1.2343273 1.0500809 0
2.5290003 -1.2364955 1.0491717 0
2.5260003 -1.2386527 1.0482626 0
2.5230002 -1.2407993 1.0473535 0
2.5210001 -1.2434995 1.0467473 0
2.5180001 -1.2456262 1.0458382 0
2.5150001 -1.2477421 1.0449291 0
2.5120001 -1.2498471 1.0440201 0
2.5090003 -1.2519414 1.043111 0
2.5070002 -1.2545985 1.0425048 0
2.5040002 -1.2566727 1.0415957 0
2.5990002 -1.1804403 1.0664179 0
2.5960002 -1.1828537 1.0655142 0
2.5930002 -1.1852565 1.0646105 0
2.5900002 -1.1876483 1.0637068 0
2.5870001 -1.1900293 1.062803 0
2.5840001 -1.1923995 1.0618993 0
2.5810001 -1.1947588 1.0609956 0
2.5780003 -1.1971074 1.060092 0
2.5750003 -1.1994452 1.0591882 0
2.5720003 -1.2017721 1.0582845 0
2.5690002 -1.2040882 1.0573808 0
2.5660002 -1.2063935 1.0564772 0
2.5630002 -1.2086879 1.0555735 0
2.5600002 -1.2109715 1.0546697 0
2.5580001 -1.2137854 1.0540671 0
2.5550003 -1.2160493 1.0531635 0
2.5520003 -1.2183022 1.0522598 0
2.5490003 -1.2205443 1.0513562 0
2.5460002 -1.2227756 1.0504525 0
2.5430002 -1.2249962 1.0495487 0
2.5400002 -1.2272058 1.048645 0
2.5370002 -1.2294046 1.0477413 0
2.5350001 -1.2321482 1.0471388 0
2.5320003 -1.2343273 1.0462352 0
2.5290003 -1.2364955 1.0453315 0
2.5260003 -1.2386527 1.0444278 0
2.5230002 -1.2407993 1.043524 0
2.5210001 -1.2434995 1.0429215 0
2.5180001 -1.2456262 1.0420178 0
2.5150001 -1.2477421 1.0411141 0
2.5120001 -1.2498471 1.0402104 0
2.5090003 -1.2519414 1.0393068 0
2.5070002 -1.2545985 1.0387042 0
2.5040002 -1.2566727 1.0378006 0
2.5990002 -1.1804403 1.0624514 0
2.5960002 -1.1828537 1.061553 0
2.5930002 -1.1852565 1.0606548 0
2.5900002 -1.1876483 1.0597564 0
2.5870001 -1.1900293 1.0588582 0
2.5840001 -1.1923995 1.0579598 0
2.5810001 -1.1947588 1.0570616 0
2.5780003 -1.1971074 1.0561633 0
2.5750003 -1.1994452 1.0552649 0
2.5720003 -1.2017721 1.0543667 0
2.5690002 -1.2040882 1.0534683 0
2.5660002 -1.2063935 1.0525701 0
2.5630002 -1.2086879 1.0516717 0
2.5600002 -1.2109715 1.0507735 0
2.5580001 -1.2137854 1.0501746 0
2.5550003 -1.2160493 1.0492764 0
2.5520003 -1.2183022 1.0483781 0
2.5490003 -1.2205443 1.0474797 0
2.5460002 -1.2227756 1.0465815 0
2.5430002 -1.2249962 1.0456831 0
2.5400002 -1.2272058 1.0447849 0
2.5370002 -1.2294046 1.0438865 0
2.5350001 -1.2321482 1.0432876 0
2.5320003 -1.2343273 1.0423894 0
2.5290003 -1.2364955 1.0414912 0
2.5260003 -1.2386527 1.0405928 0
2.5230002 -1.2407993 1.0396945 0
2.5210001 -1.2434995 1.0390956 0
2.5180001 -1.2456262 1.0381973 0
2.5150001 -1.2477421 1.037299 0
2.5120001 -1.2498471 1.0364008 0
2.5090003 -1.2519414 1.0355024 0
2.5070002 -1.2545985 1.0349036 0
2.5040002 -1.2566727 1.0340053 0
