# .PCD v0.7 - Point Cloud Data file format
VERSION 0.7
FIELDS x y z intensity
SIZE 4 4 4 4
TYPE F F F F
COUNT 1 1 1 1
WIDTH 1393
HEIGHT 1
VIEWPOINT 0 0 0 1 0 0 0
POINTS 1393
DATA ascii
2.5810001 0.14283706 0.40793413 0
2.5790002 0.13873342 0.40793052 0
2.5780003 0.13471995 0.40792871 0
2.5760002 0.1306289 0.4079251 0
2.5750003 0.12662446 0.40792331 0
2.5730002 0.12254603 0.40791968 0
2.5720003 0.1185506 0.40791789 0
2.5700002 0.1144848 0.40791428 0
2.5690002 0.11049841 0.40791246 0
2.5670002 0.10644524 0.40790886 0
2.5660002 0.10246785 0.40790707 0
2.5640001 0.098427311 0.40790346 0
2.5630002 0.094458938 0.40790164 0
2.5610001 0.090431035 0.40789804 0
2.5600002 0.086471677 0.40789625 0
2.5580001 0.08245638 0.40789264 0
2.5570002 0.078506052 0.40789083 0
2.5550003 0.074503422 0.40788722 0
2.5540001 0.070562094 0.4078854 0
2.5520003 0.06657207 0.4078818 0
2.5510001 0.062639758 0.40788001 0
2.5500002 0.058711071 0.40787819 0
2.5480001 0.054739077 0.40787458 0
2.5490003 0.050909605 0.4078764 0
2.5580001 0.04742283 0.40789264 0
2.5680003 0.0439451 0.40791067 0
2.5780003 0.04043128 0.40792871 0
2.5870001 0.036843497 0.40794495 0
2.5970001 0.033259336 0.40796298 0
2.6070001 0.029639084 0.40798101 0
2.6170001 0.025982764 0.40799907 0
2.6270001 0.022290375 0.4080171 0
2.6370001 0.018561903 0.40803513 0
2.6470003 0.014797356 0.40805316 0
2.6580002 0.011021987 0.40807301 0
2.6680002 0.007183481 0.40809104 0
2.6790001 0.0033305436 0.40811089 0
2.6890001 -0.0005819127 0.40812892 0
2.7000003 -0.0045124106 0.40814877 0
2.7110002 -0.0084825903 0.40816861 0
2.7220001 -0.012492459 0.40818846 0
2.7330003 -0.016542006 0.40820831 0
2.7440002 -0.020631241 0.40822813 0
2.7550001 -0.024760161 0.40824798 0
2.7660003 -0.028928759 0.40826783 0
2.7780001 -0.033131633 0.40828946 0
2.7900002 -0.037377797 0.40831113 0
2.8010001 -0.041669056 0.40833095 0
2.8130002 -0.046 0.40835261 0
2.8250003 -0.050374236 0.40837425 0
2.8370001 -0.054791763 0.40839589 0
2.8490002 -0.059252579 0.40841755 0
2.8610003 -0.063756689 0.40843919 0
2.8740003 -0.068313107 0.40846264 0
3.0250003 -0.08861497 0.40873501 0
3.0300002 -0.09344016 0.40874404 0
3.0350003 -0.09828338 0.40875304 0
3.0430002 -0.10320958 0.40876749 0
3.0620003 -0.10842259 0.40880176 0
2.6840003 0.42366835 0.40400001 0
2.6820002 0.41914079 0.40400001 0
2.6810002 0.41482249 0.40400001 0
2.6790001 0.41030756 0.40400001 0
2.6770003 0.40579987 0.40400001 0
2.6760001 0.40149593 0.40400001 0
2.6740003 0.39700088 0.40400001 0
2.6720002 0.39251298 0.40400001 0
2.6710002 0.38822353 0.40400001 0
2.6690001 0.38374829 0.40400001 0
2.6680002 0.37946784 0.40400001 0
2.6660001 0.37500522 0.40400001 0
2.6640003 0.37054986 0.40400001 0
2.6630001 0.3662838 0.40400001 0
2.6610003 0.36184105 0.40400001 0
2.6600001 0.35758403 0.40400001 0
2.6580002 0.35315391 0.40400001 0
2.6560001 0.34873095 0.40400001 0
2.6550002 0.34448841 0.40400001 0
2.6530001 0.34007809 0.40400001 0
2.6520002 0.33584455 0.40400001 0
2.6500001 0.33144686 0.40400001 0
2.6480002 0.32705641 0.40400001 0
2.6470003 0.32283732 0.40400001 0
2.6450002 0.31845945 0.40400001 0
2.6440003 0.31424937 0.40400001 0
2.6420002 0.30988413 0.40400001 0
2.6400001 0.30552614 0.40400001 0
2.6390002 0.30133048 0.40400001 0
2.6370001 0.29698509 0.40400001 0
2.6360002 0.29279846 0.40400001 0
2.6340003 0.28846574 0.40400001 0
2.6330001 0.28428811 0.40400001 0
2.6310003 0.27996799 0.40400001 0
2.6290002 0.27565509 0.40400001 0
2.6280003 0.27149189 0.40400001 0
2.6260002 0.26719162 0.40400001 0
2.6250002 0.26303744 0.40400001 0
2.6230001 0.25874978 0.40400001 0
2.6220002 0.25460464 0.40400001 0
2.6200001 0.25032958 0.40400001 0
2.6190002 0.2461935 0.40400001 0
2.6170001 0.24193105 0.40400001 0
2.6150002 0.23767591 0.40400001 0
2.6140001 0.23355418 0.40400001 0
2.6120002 0.22931165 0.40400001 0
2.6110003 0.22519895 0.40400001 0
2.6090002 0.22096902 0.40400001 0
2.6080003 0.21686536 0.40400001 0
2.6060002 0.21264803 0.40400001 0
2.6050003 0.20855343 0.40400001 0
2.6030002 0.20434871 0.40400001 0
2.6020002 0.2002631 0.40400001 0
2.6000001 0.19607104 0.40400001 0
2.5990002 0.19199444 0.40400001 0
2.5970001 0.18781503 0.40400001 0
2.5960002 0.18374744 0.40400001 0
2.5940001 0.17958063 0.40400001 0
2.5930002 0.17552207 0.40400001 0
2.5910003 0.17136791 0.40400001 0
2.5900002 0.16731834 0.40400001 0
2.5880003 0.16317682 0.40400001 0
2.5870001 0.15913627 0.40400001 0
2.5850003 0.15500738 0.40400001 0
2.5840001 0.15097584 0.40400001 0
2.5820003 0.14685957 0.40400001 0
2.5810001 0.14283706 0.40400001 0
2.5790002 0.13873342 0.40400001 0
2.5780003 0.13471995 0.40400001 0
2.5760002 0.1306289 0.40400001 0
2.5750003 0.12662446 0.40400001 0
2.5730002 0.12254603 0.40400001 0
2.5720003 0.1185506 0.40400001 0
2.5700002 0.1144848 0.40400001 0
2.5690002 0.11049841 0.40400001 0
2.5670002 0.10644524 0.40400001 0
2.5660002 0.10246785 0.40400001 0
2.5640001 0.098427311 0.40400001 0
2.5630002 0.094458938 0.40400001 0
2.5610001 0.090431035 0.40400001 0
2.5600002 0.086471677 0.40400001 0
2.5580001 0.08245638 0.40400001 0
2.5570002 0.078506052 0.40400001 0
2.5550003 0.074503422 0.40400001 0
2.5540001 0.070562094 0.40400001 0
2.5520003 0.06657207 0.40400001 0
2.5510001 0.062639758 0.40400001 0
2.5500002 0.058711071 0.40400001 0
2.5480001 0.054739077 0.40400001 0
2.5490003 0.050909605 0.40400001 0
2.5580001 0.04742283 0.40400001 0
2.5680003 0.0439451 0.40400001 0
2.5780003 0.04043128 0.40400001 0
2.5870001 0.036843497 0.40400001 0
2.5970001 0.033259336 0.40400001 0
2.6070001 0.029639084 0.40400001 0
2.6170001 0.025982764 0.40400001 0
2.6270001 0.022290375 0.40400001 0
2.6370001 0.018561903 0.40400001 0
2.6470003 0.014797356 0.40400001 0
2.6580002 0.011021987 0.40400001 0
2.6680002 0.007183481 0.40400001 0
2.6790001 0.0033305436 0.40400001 0
2.6890001 -0.0005819127 0.40400001 0
2.7000003 -0.0045124106 0.40400001 0
2.7110002 -0.0084825903 0.40400001 0
2.7220001 -0.012492459 0.40400001 0
2.7330003 -0.016542006 0.40400001 0
2.7440002 -0.020631241 0.40400001 0
2.7550001 -0.024760161 0.40400001 0
2.7660003 -0.028928759 0.40400001 0
2.7780001 -0.033131633 0.40400001 0
2.7900002 -0.037377797 0.40400001 0
2.8010001 -0.041669056 0.40400001 0
2.8130002 -0.046 0.40400001 0
2.8250003 -0.050374236 0.40400001 0
2.8370001 -0.054791763 0.40400001 0
2.8490002 -0.059252579 0.40400001 0
2.8610003 -0.063756689 0.40400001 0
2.8740003 -0.068313107 0.40400001 0
2.8860002 -0.0729056 0.40400001 0
3.0250003 -0.08861497 0.40400001 0
3.0300002 -0.09344016 0.40400001 0
3.0350003 -0.09828338 0.40400001 0
3.0430002 -0.10320958 0.40400001 0
3.0620003 -0.10842259 0.40400001 0
2.6840003 0.42366835 0.39988011 0
2.6820002 0.41914079 0.39988372 0
2.6810002 0.41482249 0.39988554 0
2.6790001 0.41030756 0.39988914 0
2.6770003 0.40579987 0.39989275 0
2.6760001 0.40149593 0.39989454 0
2.6740003 0.39700088 0.39989814 0
2.6720002 0.39251298 0.39990175 0
2.6710002 0.38822353 0.39990357 0
2.6690001 0.38374829 0.39990717 0
2.6680002 0.37946784 0.39990899 0
2.6660001 0.37500522 0.3999126 0
2.6640003 0.37054986 0.3999162 0
2.6630001 0.3662838 0.39991799 0
2.6610003 0.36184105 0.3999216 0
2.6600001 0.35758403 0.39992341 0
2.6580002 0.35315391 0.39992702 0
2.6560001 0.34873095 0.39993063 0
2.6550002 0.34448841 0.39993241 0
2.6530001 0.34007809 0.39993602 0
2.6520002 0.33584455 0.39993784 0
2.6500001 0.33144686 0.39994144 0
2.6480002 0.32705641 0.39994505 0
2.6470003 0.32283732 0.39994687 0
2.6450002 0.31845945 0.39995047 0
2.6440003 0.31424937 0.39995226 0
2.6420002 0.30988413 0.39995587 0
2.6400001 0.30552614 0.39995947 0
2.6390002 0.30133048 0.39996129 0
2.6370001 0.29698509 0.3999649 0
2.6360002 0.29279846 0.39996669 0
2.6340003 0.28846574 0.39997029 0
2.6330001 0.28428811 0.39997211 0
2.6310003 0.27996799 0.39997572 0
2.6290002 0.27565509 0.39997932 0
2.6280003 0.27149189 0.39998114 0
2.6260002 0.26719162 0.39998475 0
2.6250002 0.26303744 0.39998654 0
2.6230001 0.25874978 0.39999014 0
2.6220002 0.25460464 0.39999196 0
2.6200001 0.25032958 0.39999557 0
2.6190002 0.2461935 0.39999735 0
2.6170001 0.24193105 0.40000096 0
2.6150002 0.23767591 0.40000457 0
2.6140001 0.23355418 0.40000638 0
2.6120002 0.22931165 0.40000999 0
2.6110003 0.22519895 0.40001181 0
2.6090002 0.22096902 0.40001541 0
2.6080003 0.21686536 0.4000172 0
2.6060002 0.21264803 0.40002081 0
2.6050003 0.20855343 0.40002263 0
2.6030002 0.20434871 0.40002623 0
2.6020002 0.2002631 0.40002802 0
2.6000001 0.19607104 0.40003163 0
2.5990002 0.19199444 0.40003344 0
2.5970001 0.18781503 0.40003705 0
2.5960002 0.18374744 0.40003884 0
2.5940001 0.17958063 0.40004244 0
2.5930002 0.17552207 0.40004426 0
2.5910003 0.17136791 0.40004787 0
2.5900002 0.16731834 0.40004969 0
2.5880003 0.16317682 0.40005329 0
2.5870001 0.15913627 0.40005508 0
2.5850003 0.15500738 0.40005869 0
2.5840001 0.15097584 0.4000605 0
2.5820003 0.14685957 0.40006411 0
2.5810001 0.14283706 0.4000659 0
2.5790002 0.13873342 0.4000695 0
2.5780003 0.13471995 0.40007132 0
2.5760002 0.1306289 0.40007493 0
2.5750003 0.12662446 0.40007672 0
2.5730002 0.12254603 0.40008035 0
2.5720003 0.1185506 0.40008214 0
2.5700002 0.1144848 0.40008575 0
2.5690002 0.11049841 0.40008757 0
2.5670002 0.10644524 0.40009117 0
2.5660002 0.10246785 0.40009296 0
2.5640001 0.098427311 0.40009657 0
2.5630002 0.094458938 0.40009838 0
2.5610001 0.090431035 0.40010199 0
2.5600002 0.086471677 0.40010378 0
2.5580001 0.08245638 0.40010738 0
2.5570002 0.078506052 0.4001092 0
2.5550003 0.074503422 0.40011281 0
2.5540001 0.070562094 0.40011463 0
2.5520003 0.06657207 0.40011823 0
2.5510001 0.062639758 0.40012002 0
2.5500002 0.058711071 0.40012184 0
2.5480001 0.054739077 0.40012544 0
2.5490003 0.050909605 0.40012363 0
2.5580001 0.04742283 0.40010738 0
2.5680003 0.0439451 0.40008935 0
2.5780003 0.04043128 0.40007132 0
2.5870001 0.036843497 0.40005508 0
2.5970001 0.033259336 0.40003705 0
2.6070001 0.029639084 0.40001902 0
2.6170001 0.025982764 0.40000096 0
2.6270001 0.022290375 0.39998293 0
2.6370001 0.018561903 0.3999649 0
2.6470003 0.014797356 0.39994687 0
2.6580002 0.011021987 0.39992702 0
2.6680002 0.007183481 0.39990899 0
2.6790001 0.0033305436 0.39988914 0
2.6890001 -0.0005819127 0.39987111 0
2.7000003 -0.0045124106 0.39985126 0
2.7110002 -0.0084825903 0.39983141 0
2.7220001 -0.012492459 0.39981157 0
2.7330003 -0.016542006 0.39979172 0
2.7440002 -0.020631241 0.3997719 0
2.7550001 -0.024760161 0.39975205 0
2.7660003 -0.028928759 0.3997322 0
2.7780001 -0.033131633 0.39971057 0
2.7900002 -0.037377797 0.3996889 0
2.8010001 -0.041669056 0.39966908 0
2.8130002 -0.046 0.39964741 0
2.8250003 -0.050374236 0.39962578 0
2.8370001 -0.054791763 0.39960414 0
2.8490002 -0.059252579 0.39958248 0
2.8610003 -0.063756689 0.39956084 0
2.8740003 -0.068313107 0.39953738 0
2.8860002 -0.0729056 0.39951575 0
3.0250003 -0.08861497 0.39926502 0
3.0300002 -0.09344016 0.39925599 0
3.0350003 -0.09828338 0.39924699 0
3.0430002 -0.10320958 0.39923254 0
3.0620003 -0.10842259 0.39919826 0
2.6840003 0.42366835 0.39576021 0
2.6820002 0.41914079 0.39576742 0
2.6810002 0.41482249 0.39577103 0
2.6790001 0.41030756 0.39577827 0
2.6770003 0.40579987 0.39578548 0
2.6760001 0.40149593 0.39578909 0
2.6740003 0.39700088 0.3957963 0
2.6720002 0.39251298 0.39580351 0
2.6710002 0.38822353 0.39580712 0
2.6690001 0.38374829 0.39581433 0
2.6680002 0.37946784 0.39581794 0
2.6660001 0.37500522 0.39582515 0
2.6640003 0.37054986 0.39583236 0
2.6630001 0.3662838 0.39583597 0
2.6610003 0.36184105 0.39584321 0
2.6600001 0.35758403 0.39584681 0
2.6580002 0.35315391 0.39585403 0
2.6560001 0.34873095 0.39586124 0
2.6550002 0.34448841 0.39586484 0
2.6530001 0.34007809 0.39587206 0
2.6520002 0.33584455 0.39587566 0
2.6500001 0.33144686 0.39588287 0
2.6480002 0.32705641 0.39589009 0
2.6470003 0.32283732 0.39589369 0
2.6450002 0.31845945 0.39590091 0
2.6440003 0.31424937 0.39590451 0
2.6420002 0.30988413 0.39591175 0
2.6400001 0.30552614 0.39591897 0
2.6390002 0.30133048 0.39592257 0
2.6370001 0.29698509 0.39592978 0
2.6360002 0.29279846 0.39593339 0
2.6340003 0.28846574 0.3959406 0
2.6330001 0.28428811 0.39594421 0
2.6310003 0.27996799 0.39595142 0
2.6290002 0.27565509 0.39595863 0
2.6280003 0.27149189 0.39596224 0
2.6260002 0.26719162 0.39596945 0
2.6250002 0.26303744 0.39597306 0
2.6230001 0.25874978 0.39598027 0
2.6220002 0.25460464 0.3959839 0
2.6200001 0.25032958 0.39599112 0
2.6190002 0.2461935 0.39599472 0
2.6170001 0.24193105 0.39600194 0
2.6150002 0.23767591 0.39600915 0
2.6140001 0.23355418 0.39601275 0
2.6120002 0.22931165 0.39601997 0
2.6110003 0.22519895 0.39602357 0
2.6090002 0.22096902 0.39603078 0
2.6080003 0.21686536 0.39603439 0
2.6060002 0.21264803 0.3960416 0
2.6050003 0.20855343 0.39604521 0
2.6030002 0.20434871 0.39605242 0
2.6020002 0.2002631 0.39605606 0
2.6000001 0.19607104 0.39606327 0
2.5990002 0.19199444 0.39606687 0
2.5970001 0.18781503 0.39607409 0
2.5960002 0.18374744 0.39607769 0
2.5940001 0.17958063 0.3960849 0
2.5930002 0.17552207 0.39608851 0
2.5910003 0.17136791 0.39609572 0
2.5900002 0.16731834 0.39609933 0
2.5880003 0.16317682 0.39610654 0
2.5870001 0.15913627 0.39611015 0
2.5850003 0.15500738 0.39611736 0
2.5840001 0.15097584 0.39612097 0
2.5820003 0.14685957 0.39612821 0
2.5810001 0.14283706 0.39613181 0
2.5790002 0.13873342 0.39613903 0
2.5780003 0.13471995 0.39614263 0
2.5760002 0.1306289 0.39614984 0
2.5750003 0.12662446 0.39615345 0
2.5730002 0.12254603 0.39616066 0
2.5720003 0.1185506 0.39616427 0
2.5700002 0.1144848 0.39617148 0
2.5690002 0.11049841 0.39617509 0
2.5670002 0.10644524 0.3961823 0
2.5660002 0.10246785 0.3961859 0
2.5640001 0.098427311 0.39619315 0
2.5630002 0.094458938 0.39619675 0
2.5610001 0.090431035 0.39620396 0
2.5600002 0.086471677 0.39620757 0
2.5580001 0.08245638 0.39621478 0
2.5570002 0.078506052 0.39621839 0
2.5550003 0.074503422 0.3962256 0
2.5540001 0.070562094 0.39622921 0
2.5520003 0.06657207 0.39623642 0
2.5510001 0.062639758 0.39624003 0
2.5500002 0.058711071 0.39624363 0
2.5480001 0.054739077 0.39625084 0
2.5490003 0.050909605 0.39624724 0
2.5580001 0.04742283 0.39621478 0
2.5680003 0.0439451 0.39617869 0
2.5780003 0.04043128 0.39614263 0
2.5870001 0.036843497 0.39611015 0
2.5970001 0.033259336 0.39607409 0
2.6070001 0.029639084 0.396038 0
2.6170001 0.025982764 0.39600194 0
2.6270001 0.022290375 0.39596584 0
2.6370001 0.018561903 0.39592978 0
2.6470003 0.014797356 0.39589369 0
2.6580002 0.011021987 0.39585403 0
2.6680002 0.007183481 0.39581794 0
2.6790001 0.0033305436 0.39577827 0
2.6890001 -0.0005819127 0.39574218 0
2.7000003 -0.0045124106 0.39570248 0
2.7110002 -0.0084825903 0.39566281 0
2.7220001 -0.012492459 0.39562312 0
2.7330003 -0.016542006 0.39558345 0
2.7440002 -0.020631241 0.39554375 0
2.7550001 -0.024760161 0.39550409 0
2.7660003 -0.028928759 0.39546439 0
2.7780001 -0.033131633 0.39542109 0
2.7900002 -0.037377797 0.39537781 0
2.8010001 -0.041669056 0.39533812 0
2.8130002 -0.046 0.39529485 0
2.8250003 -0.050374236 0.39525154 0
2.8370001 -0.054791763 0.39520824 0
2.8490002 -0.059252579 0.39516497 0
2.8610003 -0.063756689 0.39512166 0
2.8740003 -0.068313107 0.39507478 0
2.8860002 -0.0729056 0.39503148 0
3.0250003 -0.08861497 0.39453003 0
3.0300002 -0.09344016 0.394512 0
3.0350003 -0.09828338 0.39449394 0
3.0430002 -0.10320958 0.39446509 0
3.0620003 -0.10842259 0.39439654 0
2.6840003 0.42366835 0.39164031 0
2.6820002 0.41914079 0.39165115 0
2.6810002 0.41482249 0.39165655 0
2.6790001 0.41030756 0.39166737 0
2.6770003 0.40579987 0.39167821 0
2.6760001 0.40149593 0.39168361 0
2.6740003 0.39700088 0.39169443 0
2.6720002 0.39251298 0.39170524 0
2.6710002 0.38822353 0.39171067 0
2.6690001 0.38374829 0.39172149 0
2.6680002 0.37946784 0.39172691 0
2.6660001 0.37500522 0.39173773 0
2.6640003 0.37054986 0.39174855 0
2.6630001 0.3662838 0.39175397 0
2.6610003 0.36184105 0.39176479 0
2.6600001 0.35758403 0.39177018 0
2.6580002 0.35315391 0.39178103 0
2.6560001 0.34873095 0.39179185 0
2.6550002 0.34448841 0.39179724 0
2.6530001 0.34007809 0.39180806 0
2.6520002 0.33584455 0.39181349 0
2.6500001 0.33144686 0.39182431 0
2.6480002 0.32705641 0.39183512 0
2.6470003 0.32283732 0.39184055 0
2.6450002 0.31845945 0.39185137 0
2.6440003 0.31424937 0.39185679 0
2.6420002 0.30988413 0.39186761 0
2.6400001 0.30552614 0.39187843 0
2.6390002 0.30133048 0.39188382 0
2.6370001 0.29698509 0.39189467 0
2.6360002 0.29279846 0.39190006 0
2.6340003 0.28846574 0.39191088 0
2.6330001 0.28428811 0.3919163 0
2.6310003 0.27996799 0.39192712 0
2.6290002 0.27565509 0.39193794 0
2.6280003 0.27149189 0.39194337 0
2.6260002 0.26719162 0.39195418 0
2.6250002 0.26303744 0.39195961 0
2.6230001 0.25874978 0.39197043 0
2.6220002 0.25460464 0.39197582 0
2.6200001 0.25032958 0.39198664 0
2.6190002 0.2461935 0.39199206 0
2.6170001 0.24193105 0.39200288 0
2.6150002 0.23767591 0.3920137 0
2.6140001 0.23355418 0.39201912 0
2.6120002 0.22931165 0.39202994 0
2.6110003 0.22519895 0.39203537 0
2.6090002 0.22096902 0.39204618 0
2.6080003 0.21686536 0.39205158 0
2.6060002 0.21264803 0.39206243 0
2.6050003 0.20855343 0.39206782 0
2.6030002 0.20434871 0.39207864 0
2.6020002 0.2002631 0.39208406 0
2.6000001 0.19607104 0.39209488 0
2.5990002 0.19199444 0.3921003 0
2.5970001 0.18781503 0.39211112 0
2.5960002 0.18374744 0.39211652 0
2.5940001 0.17958063 0.39212734 0
2.5930002 0.17552207 0.39213276 0
2.5910003 0.17136791 0.39214358 0
2.5900002 0.16731834 0.392149 0
2.5880003 0.16317682 0.39215982 0
2.5870001 0.15913627 0.39216524 0
2.5850003 0.15500738 0.39217606 0
2.5840001 0.15097584 0.39218146 0
2.5820003 0.14685957 0.39219227 0
2.5810001 0.14283706 0.3921977 0
2.5790002 0.13873342 0.39220852 0
2.5780003 0.13471995 0.39221394 0
2.5760002 0.1306289 0.39222476 0
2.5750003 0.12662446 0.39223015 0
2.5730002 0.12254603 0.392241 0
2.5720003 0.1185506 0.3922464 0
2.5700002 0.1144848 0.39225721 0
2.5690002 0.11049841 0.39226264 0
2.5670002 0.10644524 0.39227346 0
2.5660002 0.10246785 0.39227888 0
2.5640001 0.098427311 0.3922897 0
2.5630002 0.094458938 0.39229509 0
2.5610001 0.090431035 0.39230594 0
2.5600002 0.086471677 0.39231133 0
2.5580001 0.08245638 0.39232215 0
2.5570002 0.078506052 0.39232758 0
2.5550003 0.074503422 0.3923384 0
2.5540001 0.070562094 0.39234382 0
2.5520003 0.06657207 0.39235464 0
2.5510001 0.062639758 0.39236003 0
2.5500002 0.058711071 0.39236546 0
2.5480001 0.054739077 0.39237627 0
2.5490003 0.050909605 0.39237085 0
2.5580001 0.04742283 0.39232215 0
2.5680003 0.0439451 0.39226803 0
2.5780003 0.04043128 0.39221394 0
2.5870001 0.036843497 0.39216524 0
2.5970001 0.033259336 0.39211112 0
2.6070001 0.029639084 0.392057 0
2.6170001 0.025982764 0.39200288 0
2.6270001 0.022290375 0.39194876 0
2.6370001 0.018561903 0.39189467 0
2.6470003 0.014797356 0.39184055 0
2.6580002 0.011021987 0.39178103 0
2.6680002 0.007183481 0.39172691 0
2.6790001 0.0033305436 0.39166737 0
2.6890001 -0.0005819127 0.39161327 0
2.7000003 -0.0045124106 0.39155373 0
2.7110002 -0.0084825903 0.39149421 0
2.7220001 -0.012492459 0.3914347 0
2.7330003 -0.016542006 0.39137515 0
2.7440002 -0.020631241 0.39131564 0
2.7550001 -0.024760161 0.39125612 0
2.7660003 -0.028928759 0.39119658 0
2.7780001 -0.033131633 0.39113164 0
2.7900002 -0.037377797 0.3910667 0
2.8010001 -0.041669056 0.39100718 0
2.8130002 -0.046 0.39094225 0
2.8250003 -0.050374236 0.39087731 0
2.8370001 -0.054791763 0.39081237 0
2.8490002 -0.059252579 0.39074743 0
2.8610003 -0.063756689 0.39068249 0
2.8740003 -0.068313107 0.39061216 0
2.8860002 -0.0729056 0.39054722 0
3.0250003 -0.08861497 0.38979504 0
3.0300002 -0.09344016 0.38976797 0
3.0350003 -0.09828338 0.38974091 0
3.0430002 -0.10320958 0.38969761 0
3.0620003 -0.10842259 0.38959479 0
2.6840003 0.42366835 0.38752043 0
2.6820002 0.41914079 0.38753486 0
2.6810002 0.41482249 0.38754207 0
2.6790001 0.41030756 0.38755649 0
2.6770003 0.40579987 0.38757092 0
2.6760001 0.40149593 0.38757813 0
2.6740003 0.39700088 0.38759258 0
2.6720002 0.39251298 0.38760701 0
2.6710002 0.38822353 0.38761422 0
2.6690001 0.38374829 0.38762864 0
2.6680002 0.37946784 0.38763586 0
2.6660001 0.37500522 0.38765031 0
2.6640003 0.37054986 0.38766474 0
2.6630001 0.3662838 0.38767195 0
2.6610003 0.36184105 0.38768637 0
2.6600001 0.35758403 0.38769358 0
2.6580002 0.35315391 0.38770801 0
2.6560001 0.34873095 0.38772246 0
2.6550002 0.34448841 0.38772967 0
2.6530001 0.34007809 0.3877441 0
2.6520002 0.33584455 0.38775131 0
2.6500001 0.33144686 0.38776574 0
2.6480002 0.32705641 0.38778016 0
2.6470003 0.32283732 0.38778737 0
2.6450002 0.31845945 0.38780183 0
2.6440003 0.31424937 0.38780904 0
2.6420002 0.30988413 0.38782346 0
2.6400001 0.30552614 0.38783789 0
2.6390002 0.30133048 0.3878451 0
2.6370001 0.29698509 0.38785952 0
2.6360002 0.29279846 0.38786677 0
2.6340003 0.28846574 0.38788119 0
2.6330001 0.28428811 0.3878884 0
2.6310003 0.27996799 0.38790283 0
2.6290002 0.27565509 0.38791725 0
2.6280003 0.27149189 0.38792446 0
2.6260002 0.26719162 0.38793892 0
2.6250002 0.26303744 0.38794613 0
2.6230001 0.25874978 0.38796055 0
2.6220002 0.25460464 0.38796777 0
2.6200001 0.25032958 0.38798219 0
2.6190002 0.2461935 0.3879894 0
2.6170001 0.24193105 0.38800386 0
2.6150002 0.23767591 0.38801828 0
2.6140001 0.23355418 0.38802549 0
2.6120002 0.22931165 0.38803992 0
2.6110003 0.22519895 0.38804713 0
2.6090002 0.22096902 0.38806155 0
2.6080003 0.21686536 0.38806877 0
2.6060002 0.21264803 0.38808322 0
2.6050003 0.20855343 0.38809043 0
2.6030002 0.20434871 0.38810486 0
2.6020002 0.2002631 0.38811207 0
2.6000001 0.19607104 0.38812649 0
2.5990002 0.19199444 0.3881337 0
2.5970001 0.18781503 0.38814816 0
2.5960002 0.18374744 0.38815537 0
2.5940001 0.17958063 0.3881698 0
2.5930002 0.17552207 0.38817701 0
2.5910003 0.17136791 0.38819143 0
2.5900002 0.16731834 0.38819864 0
2.5880003 0.16317682 0.3882131 0
2.5870001 0.15913627 0.38822031 0
2.5850003 0.15500738 0.38823473 0
2.5840001 0.15097584 0.38824195 0
2.5820003 0.14685957 0.38825637 0
2.5810001 0.14283706 0.38826358 0
2.5790002 0.13873342 0.38827801 0
2.5780003 0.13471995 0.38828525 0
2.5760002 0.1306289 0.38829967 0
2.5750003 0.12662446 0.38830689 0
2.5730002 0.12254603 0.38832131 0
2.5720003 0.1185506 0.38832852 0
2.5700002 0.1144848 0.38834295 0
2.5690002 0.11049841 0.38835019 0
2.5670002 0.10644524 0.38836461 0
2.5660002 0.10246785 0.38837183 0
2.5640001 0.098427311 0.38838625 0
2.5630002 0.094458938 0.38839346 0
2.5610001 0.090431035 0.38840789 0
2.5600002 0.086471677 0.3884151 0
2.5580001 0.08245638 0.38842955 0
2.5570002 0.078506052 0.38843676 0
2.5550003 0.074503422 0.38845119 0
2.5540001 0.070562094 0.3884584 0
2.5520003 0.06657207 0.38847283 0
2.5510001 0.062639758 0.38848004 0
2.5500002 0.058711071 0.38848725 0
2.5480001 0.054739077 0.3885017 0
2.5490003 0.050909605 0.38849449 0
2.5580001 0.04742283 0.38842955 0
2.5680003 0.0439451 0.3883574 0
2.5780003 0.04043128 0.38828525 0
2.5870001 0.036843497 0.38822031 0
2.5970001 0.033259336 0.38814816 0
2.6070001 0.029639084 0.38807601 0
2.6170001 0.025982764 0.38800386 0
2.6270001 0.022290375 0.3879317 0
2.6370001 0.018561903 0.38785952 0
2.6470003 0.014797356 0.38778737 0
2.6580002 0.011021987 0.38770801 0
2.6680002 0.007183481 0.38763586 0
2.6790001 0.0033305436 0.38755649 0
2.6890001 -0.0005819127 0.38748434 0
2.7000003 -0.0045124106 0.38740498 0
2.7110002 -0.0084825903 0.38732561 0
2.7220001 -0.012492459 0.38724625 0
2.7330003 -0.016542006 0.38716689 0
2.7440002 -0.020631241 0.38708752 0
2.7550001 -0.024760161 0.38700813 0
2.8250003 -0.050374236 0.38650307 0
2.8370001 -0.054791763 0.38641649 0
2.8490002 -0.059252579 0.38632992 0
3.0160003 -0.064875051 0.38512495 0
3.0170002 -0.069602832 0.38511774 0
3.0180001 -0.074334219 0.38511053 0
3.0200002 -0.079081841 0.3850961 0
3.0230002 -0.083851114 0.38507447 0
3.0250003 -0.08861497 0.38506001 0
3.0300002 -0.09344016 0.38502395 0
3.0350003 -0.09828338 0.38498786 0
3.0430002 -0.10320958 0.38493016 0
3.0620003 -0.10842259 0.38479307 0
2.6840003 0.42366835 0.38340053 0
2.6820002 0.41914079 0.38341856 0
2.6810002 0.41482249 0.38342759 0
2.6790001 0.41030756 0.38344562 0
2.6770003 0.40579987 0.38346365 0
2.6760001 0.40149593 0.38347268 0
2.6740003 0.39700088 0.38349071 0
2.6720002 0.39251298 0.38350874 0
2.6710002 0.38822353 0.38351777 0
2.6690001 0.38374829 0.3835358 0
2.6680002 0.37946784 0.38354483 0
2.6660001 0.37500522 0.38356286 0
2.6640003 0.37054986 0.38358089 0
2.6630001 0.3662838 0.38358992 0
2.6610003 0.36184105 0.38360795 0
2.6600001 0.35758403 0.38361698 0
2.6580002 0.35315391 0.38363501 0
2.6560001 0.34873095 0.38365304 0
2.6550002 0.34448841 0.38366207 0
2.6530001 0.34007809 0.38368011 0
2.6520002 0.33584455 0.38368914 0
2.6500001 0.33144686 0.38370717 0
2.6480002 0.32705641 0.3837252 0
2.6470003 0.32283732 0.38373423 0
2.6450002 0.31845945 0.38375226 0
2.6440003 0.31424937 0.38376129 0
2.6420002 0.30988413 0.38377932 0
2.6400001 0.30552614 0.38379735 0
2.6390002 0.30133048 0.38380638 0
2.6370001 0.29698509 0.38382441 0
2.6360002 0.29279846 0.38383344 0
2.6340003 0.28846574 0.38385147 0
2.6330001 0.28428811 0.3838605 0
2.6310003 0.27996799 0.38387853 0
2.6290002 0.27565509 0.38389656 0
2.6280003 0.27149189 0.38390559 0
2.6260002 0.26719162 0.38392362 0
2.6250002 0.26303744 0.38393265 0
2.6230001 0.25874978 0.38395068 0
2.6220002 0.25460464 0.38395971 0
2.6200001 0.25032958 0.38397774 0
2.6190002 0.2461935 0.38398677 0
2.6170001 0.24193105 0.3840048 0
2.6150002 0.23767591 0.38402283 0
2.6140001 0.23355418 0.38403186 0
2.6120002 0.22931165 0.38404989 0
2.6110003 0.22519895 0.38405892 0
2.6090002 0.22096902 0.38407695 0
2.6080003 0.21686536 0.38408598 0
2.6060002 0.21264803 0.38410401 0
2.6050003 0.20855343 0.38411301 0
2.6030002 0.20434871 0.38413107 0
2.6020002 0.2002631 0.38414007 0
2.6000001 0.19607104 0.38415813 0
2.5990002 0.19199444 0.38416713 0
2.5970001 0.18781503 0.38418519 0
2.5960002 0.18374744 0.3841942 0
2.5940001 0.17958063 0.38421223 0
2.5930002 0.17552207 0.38422126 0
2.5910003 0.17136791 0.38423929 0
2.5900002 0.16731834 0.38424832 0
2.5880003 0.16317682 0.38426635 0
2.5870001 0.15913627 0.38427538 0
2.5850003 0.15500738 0.38429341 0
2.5840001 0.15097584 0.38430244 0
2.5820003 0.14685957 0.38432047 0
2.5810001 0.14283706 0.3843295 0
2.5790002 0.13873342 0.38434753 0
2.5780003 0.13471995 0.38435653 0
2.5760002 0.1306289 0.38437459 0
2.5750003 0.12662446 0.38438359 0
2.5730002 0.12254603 0.38440165 0
2.5720003 0.1185506 0.38441065 0
2.5700002 0.1144848 0.38442868 0
2.5690002 0.11049841 0.38443771 0
2.5670002 0.10644524 0.38445574 0
2.5660002 0.10246785 0.38446477 0
2.5640001 0.098427311 0.3844828 0
2.5630002 0.094458938 0.38449183 0
2.5610001 0.090431035 0.38450986 0
2.5600002 0.086471677 0.38451889 0
2.5580001 0.08245638 0.38453692 0
2.5570002 0.078506052 0.38454595 0
2.5550003 0.074503422 0.38456398 0
2.5540001 0.070562094 0.38457301 0
2.5520003 0.06657207 0.38459104 0
2.5510001 0.062639758 0.38460004 0
2.5500002 0.058711071 0.38460907 0
2.5480001 0.054739077 0.3846271 0
2.5490003 0.050909605 0.3846181 0
2.5580001 0.04742283 0.38453692 0
2.5680003 0.0439451 0.38444674 0
2.5780003 0.04043128 0.38435653 0
2.8770003 0.003148362 0.38165984 0
2.8710003 -0.0014278963 0.38171396 0
2.8680003 -0.00593381 0.38174102 0
2.8650002 -0.010428902 0.38176808 0
2.8640003 -0.014887916 0.38177711 0
2.8630002 -0.019343324 0.38178611 0
2.8630002 -0.023786101 0.38178611 0
2.8630002 -0.028228883 0.38178611 0
2.8650002 -0.032660838 0.38176808 0
2.8670001 -0.03710001 0.38175005 0
2.8700001 -0.041544594 0.38172299 0
2.8750002 -0.046 0.3816779 0
2.8830001 -0.050478857 0.38160574 0
3.0160003 -0.055437524 0.3804062 0
3.0160003 -0.060156286 0.3804062 0
3.0160003 -0.064875051 0.3804062 0
3.0170002 -0.069602832 0.38039717 0
3.0180001 -0.074334219 0.38038817 0
3.0200002 -0.079081841 0.38037014 0
3.0230002 -0.083851114 0.38034308 0
3.0250003 -0.08861497 0.38032502 0
3.0300002 -0.09344016 0.38027993 0
3.0350003 -0.09828338 0.38023484 0
3.0430002 -0.10320958 0.38016269 0
3.0610001 -0.10839914 0.38000035 0
2.6840003 0.42366835 0.37928063 0
2.6820002 0.41914079 0.37930226 0
2.6810002 0.41482249 0.37931308 0
2.6790001 0.41030756 0.37933475 0
2.6770003 0.40579987 0.37935638 0
2.6760001 0.40149593 0.3793672 0
2.6740003 0.39700088 0.37938887 0
2.6720002 0.39251298 0.37941051 0
2.6710002 0.38822353 0.37942132 0
2.6690001 0.38374829 0.37944296 0
2.6680002 0.37946784 0.37945378 0
2.6660001 0.37500522 0.37947544 0
2.6640003 0.37054986 0.37949708 0
2.6630001 0.3662838 0.3795079 0
2.6610003 0.36184105 0.37952954 0
2.6600001 0.35758403 0.37954038 0
2.6580002 0.35315391 0.37956202 0
2.6560001 0.34873095 0.37958366 0
2.6550002 0.34448841 0.37959448 0
2.6530001 0.34007809 0.37961614 0
2.6520002 0.33584455 0.37962696 0
2.6500001 0.33144686 0.3796486 0
2.6480002 0.32705641 0.37967026 0
2.6470003 0.32283732 0.37968108 0
2.6450002 0.31845945 0.37970272 0
2.6440003 0.31424937 0.37971354 0
2.6420002 0.30988413 0.37973517 0
2.6400001 0.30552614 0.37975684 0
2.6390002 0.30133048 0.37976766 0
2.6370001 0.29698509 0.37978929 0
2.6360002 0.29279846 0.37980011 0
2.6340003 0.28846574 0.37982178 0
2.6330001 0.28428811 0.3798326 0
2.6310003 0.27996799 0.37985423 0
2.6290002 0.27565509 0.3798759 0
2.6280003 0.27149189 0.37988672 0
2.6260002 0.26719162 0.37990835 0
2.6250002 0.26303744 0.37991917 0
2.6230001 0.25874978 0.37994081 0
2.6220002 0.25460464 0.37995166 0
2.6200001 0.25032958 0.37997329 0
2.6190002 0.2461935 0.37998411 0
2.6170001 0.24193105 0.38000575 0
2.6150002 0.23767591 0.38002741 0
2.6140001 0.23355418 0.38003823 0
2.6120002 0.22931165 0.38005987 0
2.6110003 0.22519895 0.38007069 0
2.6090002 0.22096902 0.38009235 0
2.6080003 0.21686536 0.38010317 0
2.6060002 0.21264803 0.38012481 0
2.6050003 0.20855343 0.38013563 0
2.6030002 0.20434871 0.38015729 0
2.6020002 0.2002631 0.38016811 0
2.6000001 0.19607104 0.38018975 0
2.5990002 0.19199444 0.38020056 0
2.5970001 0.18781503 0.3802222 0
2.5960002 0.18374744 0.38023305 0
2.5940001 0.17958063 0.38025469 0
2.5930002 0.17552207 0.3802655 0
2.5910003 0.17136791 0.38028714 0
2.5900002 0.16731834 0.38029796 0
2.5880003 0.16317682 0.38031963 0
2.5870001 0.15913627 0.38033044 0
2.5850003 0.15500738 0.38035208 0
2.5840001 0.15097584 0.3803629 0
2.5820003 0.14685957 0.38038456 0
2.5810001 0.14283706 0.38039538 0
2.5790002 0.13873342 0.38041702 0
2.5780003 0.13471995 0.38042784 0
2.5760002 0.1306289 0.3804495 0
2.5750003 0.12662446 0.38046032 0
2.5730002 0.12254603 0.38048196 0
2.5720003 0.1185506 0.38049278 0
2.5700002 0.1144848 0.38051444 0
2.5690002 0.11049841 0.38052526 0
2.5670002 0.10644524 0.3805469 0
2.5660002 0.10246785 0.38055772 0
2.5640001 0.098427311 0.38057938 0
2.5630002 0.094458938 0.3805902 0
2.5610001 0.090431035 0.38061184 0
2.5600002 0.086471677 0.38062266 0
2.5580001 0.08245638 0.38064432 0
2.5570002 0.078506052 0.38065514 0
2.5550003 0.074503422 0.38067678 0
2.5540001 0.070562094 0.38068759 0
2.5520003 0.06657207 0.38070923 0
2.5510001 0.062639758 0.38072008 0
2.5500002 0.058711071 0.3807309 0
2.5480001 0.054739077 0.38075253 0
2.5490003 0.050909605 0.38074172 0
2.5580001 0.04742283 0.38064432 0
2.5680003 0.0439451 0.38053608 0
2.5780003 0.04043128 0.38042784 0
2.8770003 0.003148362 0.37719181 0
2.8710003 -0.0014278963 0.37725675 0
2.8680003 -0.00593381 0.37728924 0
2.8650002 -0.010428902 0.37732169 0
2.8640003 -0.014887916 0.37733251 0
2.8630002 -0.019343324 0.37734333 0
2.8630002 -0.023786101 0.37734333 0
2.8630002 -0.028228883 0.37734333 0
2.8650002 -0.032660838 0.37732169 0
2.8670001 -0.03710001 0.37730005 0
2.8700001 -0.041544594 0.37726757 0
2.8750002 -0.046 0.37721348 0
2.8830001 -0.050478857 0.37712687 0
3.0160003 -0.055437524 0.37568745 0
3.0160003 -0.060156286 0.37568745 0
3.0160003 -0.064875051 0.37568745 0
3.0170002 -0.069602832 0.37567663 0
3.0180001 -0.074334219 0.37566578 0
3.0200002 -0.079081841 0.37564415 0
3.0230002 -0.083851114 0.37561169 0
3.0250003 -0.08861497 0.37559003 0
3.0300002 -0.09344016 0.37553591 0
3.0350003 -0.09828338 0.37548181 0
3.0430002 -0.10320958 0.37539524 0
3.0610001 -0.10839914 0.37520042 0
2.6840003 0.42366835 0.37516072 0
2.6820002 0.41914079 0.37518597 0
2.6810002 0.41482249 0.3751986 0
2.6790001 0.41030756 0.37522388 0
2.6770003 0.40579987 0.37524912 0
2.6760001 0.40149593 0.37526175 0
2.6740003 0.39700088 0.375287 0
2.6720002 0.39251298 0.37531224 0
2.6710002 0.38822353 0.37532488 0
2.6690001 0.38374829 0.37535012 0
2.6680002 0.37946784 0.37536275 0
2.6660001 0.37500522 0.375388 0
2.6640003 0.37054986 0.37541327 0
2.6630001 0.3662838 0.37542588 0
2.6610003 0.36184105 0.37545115 0
2.6600001 0.35758403 0.37546378 0
2.6580002 0.35315391 0.37548903 0
2.6560001 0.34873095 0.37551427 0
2.6550002 0.34448841 0.37552691 0
2.6530001 0.34007809 0.37555215 0
2.6520002 0.33584455 0.37556478 0
2.6500001 0.33144686 0.37559003 0
2.6480002 0.32705641 0.3756153 0
2.6470003 0.32283732 0.37562791 0
2.6450002 0.31845945 0.37565318 0
2.6440003 0.31424937 0.37566578 0
2.6420002 0.30988413 0.37569106 0
2.6400001 0.30552614 0.3757163 0
2.6390002 0.30133048 0.37572894 0
2.6370001 0.29698509 0.37575418 0
2.6360002 0.29279846 0.37576681 0
2.6340003 0.28846574 0.37579206 0
2.6330001 0.28428811 0.37580469 0
2.6310003 0.27996799 0.37582994 0
2.6290002 0.27565509 0.37585521 0
2.6280003 0.27149189 0.37586781 0
2.6260002 0.26719162 0.37589309 0
2.6250002 0.26303744 0.37590569 0
2.6230001 0.25874978 0.37593096 0
2.6220002 0.25460464 0.37594357 0
2.6200001 0.25032958 0.37596884 0
2.6190002 0.2461935 0.37598145 0
2.6170001 0.24193105 0.37600672 0
2.6150002 0.23767591 0.37603197 0
2.6140001 0.23355418 0.3760446 0
2.6120002 0.22931165 0.37606984 0
2.6110003 0.22519895 0.37608248 0
2.6090002 0.22096902 0.37610772 0
2.6080003 0.21686536 0.37612036 0
2.6060002 0.21264803 0.3761456 0
2.6050003 0.20855343 0.37615824 0
2.6030002 0.20434871 0.37618348 0
2.6020002 0.2002631 0.37619612 0
2.6000001 0.19607104 0.37622136 0
2.5990002 0.19199444 0.37623399 0
2.5970001 0.18781503 0.37625924 0
2.5960002 0.18374744 0.37627187 0
2.5940001 0.17958063 0.37629712 0
2.5930002 0.17552207 0.37630975 0
2.5910003 0.17136791 0.376335 0
2.5900002 0.16731834 0.37634763 0
2.5880003 0.16317682 0.37637287 0
2.5870001 0.15913627 0.37638551 0
2.5850003 0.15500738 0.37641078 0
2.5840001 0.15097584 0.37642339 0
2.5820003 0.14685957 0.37644863 0
2.5810001 0.14283706 0.37646127 0
2.5790002 0.13873342 0.37648654 0
2.5780003 0.13471995 0.37649915 0
2.5760002 0.1306289 0.37652442 0
2.5750003 0.12662446 0.37653702 0
2.5730002 0.12254603 0.3765623 0
2.5720003 0.1185506 0.3765749 0
2.5700002 0.1144848 0.37660018 0
2.5690002 0.11049841 0.37661278 0
2.5670002 0.10644524 0.37663805 0
2.5660002 0.10246785 0.37665066 0
2.5640001 0.098427311 0.37667593 0
2.5630002 0.094458938 0.37668854 0
2.5610001 0.090431035 0.37671381 0
2.5600002 0.086471677 0.37672645 0
2.5580001 0.08245638 0.37675169 0
2.5570002 0.078506052 0.3767643 0
2.5550003 0.074503422 0.37678957 0
2.5540001 0.070562094 0.37680221 0
2.5520003 0.06657207 0.37682745 0
2.5510001 0.062639758 0.37684008 0
2.5500002 0.058711071 0.37685269 0
2.5480001 0.054739077 0.37687796 0
2.5490003 0.050909605 0.37686533 0
2.5580001 0.04742283 0.37675169 0
2.5680003 0.0439451 0.37662542 0
2.5780003 0.04043128 0.37649915 0
2.8770003 0.003148362 0.37272379 0
2.8710003 -0.0014278963 0.37279955 0
2.8680003 -0.00593381 0.37283742 0
2.8650002 -0.010428902 0.3728753 0
2.8640003 -0.014887916 0.37288794 0
2.8630002 -0.019343324 0.37290055 0
2.8630002 -0.023786101 0.37290055 0
2.8630002 -0.028228883 0.37290055 0
2.8650002 -0.032660838 0.3728753 0
2.8670001 -0.03710001 0.37285006 0
2.8700001 -0.041544594 0.37281218 0
2.8750002 -0.046 0.37274903 0
2.8830001 -0.050478857 0.37264803 0
3.0160003 -0.055437524 0.37096867 0
3.0160003 -0.060156286 0.37096867 0
3.0160003 -0.064875051 0.37096867 0
3.0170002 -0.069602832 0.37095606 0
3.0180001 -0.074334219 0.37094343 0
3.0200002 -0.079081841 0.37091818 0
3.0230002 -0.083851114 0.37088031 0
3.0250003 -0.08861497 0.37085503 0
3.0300002 -0.09344016 0.37079191 0
3.0350003 -0.09828338 0.37072876 0
3.0430002 -0.10320958 0.37062776 0
3.0610001 -0.10839914 0.37040049 0
2.6840003 0.42366835 0.37104082 0
2.6820002 0.41914079 0.3710697 0
2.6810002 0.41482249 0.37108412 0
2.6790001 0.41030756 0.37111297 0
2.6770003 0.40579987 0.37114185 0
2.6760001 0.40149593 0.37115628 0
2.6740003 0.39700088 0.37118512 0
2.6720002 0.39251298 0.371214 0
2.6710002 0.38822353 0.37122843 0
2.6690001 0.38374829 0.37125728 0
2.6680002 0.37946784 0.37127173 0
2.6660001 0.37500522 0.37130058 0
2.6640003 0.37054986 0.37132943 0
2.6630001 0.3662838 0.37134388 0
2.6610003 0.36184105 0.37137273 0
2.6600001 0.35758403 0.37138715 0
2.6580002 0.35315391 0.37141603 0
2.6560001 0.34873095 0.37144488 0
2.6550002 0.34448841 0.37145931 0
2.6530001 0.34007809 0.37148818 0
2.6520002 0.33584455 0.37150261 0
2.6500001 0.33144686 0.37153146 0
2.6480002 0.32705641 0.37156034 0
2.6470003 0.32283732 0.37157476 0
2.6450002 0.31845945 0.37160361 0
2.6440003 0.31424937 0.37161803 0
2.6420002 0.30988413 0.37164691 0
2.6400001 0.30552614 0.37167576 0
2.6390002 0.30133048 0.37169021 0
2.6370001 0.29698509 0.37171906 0
2.6360002 0.29279846 0.37173349 0
2.6340003 0.28846574 0.37176234 0
2.6330001 0.28428811 0.37177679 0
2.6310003 0.27996799 0.37180564 0
2.6290002 0.27565509 0.37183452 0
2.6280003 0.27149189 0.37184894 0
2.6260002 0.26719162 0.37187779 0
2.6250002 0.26303744 0.37189221 0
2.6230001 0.25874978 0.37192109 0
2.6220002 0.25460464 0.37193552 0
2.6200001 0.25032958 0.3719644 0
2.6190002 0.2461935 0.37197882 0
2.6170001 0.24193105 0.37200767 0
2.6150002 0.23767591 0.37203652 0
2.6140001 0.23355418 0.37205097 0
2.6120002 0.22931165 0.37207982 0
2.6110003 0.22519895 0.37209424 0
2.6090002 0.22096902 0.37212312 0
2.6080003 0.21686536 0.37213755 0
2.6060002 0.21264803 0.3721664 0
2.6050003 0.20855343 0.37218082 0
2.6030002 0.20434871 0.3722097 0
2.6020002 0.2002631 0.37222412 0
2.6000001 0.19607104 0.372253 0
2.5990002 0.19199444 0.37226743 0
2.5970001 0.18781503 0.37229627 0
2.5960002 0.18374744 0.3723107 0
2.5940001 0.17958063 0.37233958 0
2.5930002 0.17552207 0.372354 0
2.5910003 0.17136791 0.37238285 0
2.5900002 0.16731834 0.3723973 0
2.5880003 0.16317682 0.37242615 0
2.5870001 0.15913627 0.37244058 0
2.5850003 0.15500738 0.37246946 0
2.5840001 0.15097584 0.37248388 0
2.5820003 0.14685957 0.37251273 0
2.5810001 0.14283706 0.37252718 0
2.5790002 0.13873342 0.37255603 0
2.5780003 0.13471995 0.37257046 0
2.5760002 0.1306289 0.3725993 0
2.5750003 0.12662446 0.37261376 0
2.5730002 0.12254603 0.37264261 0
2.5720003 0.1185506 0.37265703 0
2.5700002 0.1144848 0.37268591 0
2.5690002 0.11049841 0.37270033 0
2.5670002 0.10644524 0.37272918 0
2.5660002 0.10246785 0.37274364 0
2.5640001 0.098427311 0.37277249 0
2.5630002 0.094458938 0.37278691 0
2.5610001 0.090431035 0.37281579 0
2.5600002 0.086471677 0.37283021 0
2.5580001 0.08245638 0.37285906 0
2.5570002 0.078506052 0.37287349 0
2.5550003 0.074503422 0.37290236 0
2.5540001 0.070562094 0.37291679 0
2.5520003 0.06657207 0.37294564 0
2.5510001 0.062639758 0.37296009 0
2.5500002 0.058711071 0.37297451 0
2.5480001 0.054739077 0.37300336 0
2.5490003 0.050909605 0.37298894 0
2.5580001 0.04742283 0.37285906 0
2.5680003 0.0439451 0.37271476 0
2.5780003 0.04043128 0.37257046 0
2.8770003 0.003148362 0.36825573 0
2.8710003 -0.0014278963 0.36834234 0
2.8680003 -0.00593381 0.36838561 0
2.8650002 -0.010428902 0.36842892 0
2.8640003 -0.014887916 0.36844334 0
2.8630002 -0.019343324 0.36845779 0
2.8630002 -0.023786101 0.36845779 0
2.8630002 -0.028228883 0.36845779 0
2.8650002 -0.032660838 0.36842892 0
2.8670001 -0.03710001 0.36840007 0
2.8700001 -0.041544594 0.36835676 0
2.8750002 -0.046 0.36828461 0
2.8830001 -0.050478857 0.36816916 0
3.0160003 -0.055437524 0.36624992 0
3.0160003 -0.060156286 0.36624992 0
3.0160003 -0.064875051 0.36624992 0
3.0170002 -0.069602832 0.36623549 0
3.0180001 -0.074334219 0.36622107 0
3.0200002 -0.079081841 0.36619219 0
3.0230002 -0.083851114 0.36614889 0
3.0250003 -0.08861497 0.36612004 0
3.0300002 -0.09344016 0.36604789 0
3.0350003 -0.09828338 0.36597574 0
3.0430002 -0.10320958 0.36586028 0
3.0610001 -0.10839914 0.36560056 0
2.6840003 0.42366835 0.36692092 0
2.6820002 0.41914079 0.3669534 0
2.6810002 0.41482249 0.36696965 0
2.6790001 0.41030756 0.3670021 0
2.6770003 0.40579987 0.36703455 0
2.6760001 0.40149593 0.3670508 0
2.6740003 0.39700088 0.36708328 0
2.6720002 0.39251298 0.36711574 0
2.6710002 0.38822353 0.36713198 0
2.6690001 0.38374829 0.36716443 0
2.6680002 0.37946784 0.36718068 0
2.6660001 0.37500522 0.36721316 0
2.6640003 0.37054986 0.36724561 0
2.6630001 0.3662838 0.36726186 0
2.6610003 0.36184105 0.36729431 0
2.6600001 0.35758403 0.36731055 0
2.6580002 0.35315391 0.36734301 0
2.6560001 0.34873095 0.36737549 0
2.6550002 0.34448841 0.36739174 0
2.6530001 0.34007809 0.36742419 0
2.6520002 0.33584455 0.36744043 0
2.6500001 0.33144686 0.36747289 0
2.6480002 0.32705641 0.36750537 0
2.6470003 0.32283732 0.36752158 0
2.6450002 0.31845945 0.36755407 0
2.6440003 0.31424937 0.36757031 0
2.6420002 0.30988413 0.36760277 0
2.6400001 0.30552614 0.36763525 0
2.6390002 0.30133048 0.36765146 0
2.6370001 0.29698509 0.36768395 0
2.6360002 0.29279846 0.36770019 0
2.6340003 0.28846574 0.36773264 0
2.6330001 0.28428811 0.36774889 0
2.6310003 0.27996799 0.36778134 0
2.6290002 0.27565509 0.36781383 0
2.6280003 0.27149189 0.36783004 0
2.6260002 0.26719162 0.36786252 0
2.6250002 0.26303744 0.36787876 0
2.6230001 0.25874978 0.36791122 0
2.6220002 0.25460464 0.36792746 0
2.6200001 0.25032958 0.36795992 0
2.6190002 0.2461935 0.36797616 0
2.6170001 0.24193105 0.36800864 0
2.6150002 0.23767591 0.3680411 0
2.6140001 0.23355418 0.36805734 0
2.6120002 0.22931165 0.3680898 0
2.6110003 0.22519895 0.36810604 0
2.6090002 0.22096902 0.36813849 0
2.6080003 0.21686536 0.36815473 0
2.6060002 0.21264803 0.36818722 0
2.6050003 0.20855343 0.36820343 0
2.6030002 0.20434871 0.36823592 0
2.6020002 0.2002631 0.36825216 0
2.6000001 0.19607104 0.36828461 0
2.5990002 0.19199444 0.36830086 0
2.5970001 0.18781503 0.36833331 0
2.5960002 0.18374744 0.36834955 0
2.5940001 0.17958063 0.36838201 0
2.5930002 0.17552207 0.36839825 0
2.5910003 0.17136791 0.36843073 0
2.5900002 0.16731834 0.36844695 0
2.5880003 0.16317682 0.36847943 0
2.5870001 0.15913627 0.36849564 0
2.5850003 0.15500738 0.36852813 0
2.5840001 0.15097584 0.36854437 0
2.5820003 0.14685957 0.36857682 0
2.5810001 0.14283706 0.36859307 0
2.5790002 0.13873342 0.36862552 0
2.5780003 0.13471995 0.36864176 0
2.5760002 0.1306289 0.36867422 0
2.5750003 0.12662446 0.36869046 0
2.5730002 0.12254603 0.36872295 0
2.5720003 0.1185506 0.36873916 0
2.5700002 0.1144848 0.36877164 0
2.5690002 0.11049841 0.36878788 0
2.5670002 0.10644524 0.36882034 0
2.5660002 0.10246785 0.36883658 0
2.5640001 0.098427311 0.36886904 0
2.5630002 0.094458938 0.36888528 0
2.5610001 0.090431035 0.36891776 0
2.5600002 0.086471677 0.36893398 0
2.5580001 0.08245638 0.36896646 0
2.5570002 0.078506052 0.36898267 0
2.5550003 0.074503422 0.36901516 0
2.5540001 0.070562094 0.3690314 0
2.5520003 0.06657207 0.36906385 0
2.5510001 0.062639758 0.3690801 0
2.5500002 0.058711071 0.36909634 0
2.5480001 0.054739077 0.36912879 0
2.5490003 0.050909605 0.36911255 0
2.5580001 0.04742283 0.36896646 0
2.5680003 0.0439451 0.3688041 0
2.5780003 0.04043128 0.36864176 0
2.8770003 0.003148362 0.36378771 0
2.8710003 -0.0014278963 0.3638851 0
2.8680003 -0.00593381 0.36393383 0
2.8650002 -0.010428902 0.36398253 0
2.8640003 -0.014887916 0.36399877 0
2.8630002 -0.019343324 0.36401498 0
2.8630002 -0.023786101 0.36401498 0
2.8630002 -0.028228883 0.36401498 0
2.8650002 -0.032660838 0.36398253 0
2.8670001 -0.03710001 0.36395007 0
2.8700001 -0.041544594 0.36390135 0
2.8750002 -0.046 0.3638202 0
2.8830001 -0.050478857 0.36369032 0
3.0160003 -0.055437524 0.36153114 0
3.0160003 -0.060156286 0.36153114 0
3.0160003 -0.064875051 0.36153114 0
3.0170002 -0.069602832 0.36151493 0
3.0180001 -0.074334219 0.36149868 0
3.0200002 -0.079081841 0.36146623 0
3.0230002 -0.083851114 0.3614175 0
3.0250003 -0.08861497 0.36138505 0
3.0300002 -0.09344016 0.36130387 0
3.0350003 -0.09828338 0.36122268 0
3.0430002 -0.10320958 0.36109284 0
3.0610001 -0.10839914 0.36080062 0
2.6840003 0.42366835 0.36280105 0
2.6820002 0.41914079 0.36283711 0
2.6810002 0.41482249 0.36285514 0
2.6790001 0.41030756 0.36289123 0
2.6770003 0.40579987 0.36292729 0
2.6760001 0.40149593 0.36294535 0
2.6740003 0.39700088 0.36298141 0
2.6720002 0.39251298 0.3630175 0
2.6710002 0.38822353 0.36303553 0
2.6690001 0.38374829 0.36307162 0
2.6680002 0.37946784 0.36308965 0
2.6660001 0.37500522 0.36312571 0
2.6640003 0.37054986 0.3631618 0
2.6630001 0.3662838 0.36317983 0
2.6610003 0.36184105 0.36321592 0
2.6600001 0.35758403 0.36323395 0
2.6580002 0.35315391 0.36327001 0
2.6560001 0.34873095 0.36330611 0
2.6550002 0.34448841 0.36332414 0
2.6530001 0.34007809 0.36336023 0
2.6520002 0.33584455 0.36337826 0
2.6500001 0.33144686 0.36341435 0
2.6480002 0.32705641 0.36345041 0
2.6470003 0.32283732 0.36346844 0
2.6450002 0.31845945 0.36350453 0
2.6440003 0.31424937 0.36352256 0
2.6420002 0.30988413 0.36355862 0
2.6400001 0.30552614 0.36359471 0
2.6390002 0.30133048 0.36361274 0
2.6370001 0.29698509 0.36364883 0
2.6360002 0.29279846 0.36366686 0
2.6340003 0.28846574 0.36370295 0
2.6330001 0.28428811 0.36372098 0
2.6310003 0.27996799 0.36375704 0
2.6290002 0.27565509 0.36379313 0
2.6280003 0.27149189 0.36381117 0
2.6260002 0.26719162 0.36384726 0
2.6250002 0.26303744 0.36386529 0
2.6230001 0.25874978 0.36390135 0
2.6220002 0.25460464 0.36391941 0
2.6200001 0.25032958 0.36395547 0
2.6190002 0.2461935 0.3639735 0
2.6170001 0.24193105 0.36400959 0
2.6150002 0.23767591 0.36404565 0
2.6140001 0.23355418 0.36406371 0
2.6120002 0.22931165 0.36409977 0
2.6110003 0.22519895 0.3641178 0
2.6090002 0.22096902 0.36415389 0
2.6080003 0.21686536 0.36417192 0
2.6060002 0.21264803 0.36420801 0
2.6050003 0.20855343 0.36422604 0
2.6030002 0.20434871 0.3642621 0
2.6020002 0.2002631 0.36428016 0
2.6000001 0.19607104 0.36431623 0
2.5990002 0.19199444 0.36433429 0
2.5970001 0.18781503 0.36437035 0
2.5960002 0.18374744 0.36438838 0
2.5940001 0.17958063 0.36442447 0
2.5930002 0.17552207 0.3644425 0
2.5910003 0.17136791 0.36447859 0
2.5900002 0.16731834 0.36449662 0
2.5880003 0.16317682 0.36453268 0
2.5870001 0.15913627 0.36455074 0
2.5850003 0.15500738 0.3645868 0
2.5840001 0.15097584 0.36460483 0
2.5820003 0.14685957 0.36464092 0
2.5810001 0.14283706 0.36465895 0
2.5790002 0.13873342 0.36469504 0
2.5780003 0.13471995 0.36471307 0
2.5760002 0.1306289 0.36474913 0
2.5750003 0.12662446 0.36476719 0
2.5730002 0.12254603 0.36480325 0
2.5720003 0.1185506 0.36482131 0
2.5700002 0.1144848 0.36485738 0
2.5690002 0.11049841 0.36487541 0
2.5670002 0.10644524 0.3649115 0
2.5660002 0.10246785 0.36492953 0
2.5640001 0.098427311 0.36496562 0
2.5630002 0.094458938 0.36498365 0
2.5610001 0.090431035 0.36501971 0
2.5600002 0.086471677 0.36503777 0
2.5580001 0.08245638 0.36507383 0
2.5570002 0.078506052 0.36509186 0
2.5550003 0.074503422 0.36512795 0
2.5540001 0.070562094 0.36514598 0
2.5520003 0.06657207 0.36518204 0
2.5510001 0.062639758 0.3652001 0
2.5500002 0.058711071 0.36521813 0
2.5480001 0.054739077 0.36525422 0
2.5490003 0.050909605 0.36523616 0
2.5580001 0.04742283 0.36507383 0
2.5680003 0.0439451 0.36489344 0
2.5780003 0.04043128 0.36471307 0
2.8770003 0.003148362 0.35931969 0
2.8710003 -0.0014278963 0.3594279 0
2.8680003 -0.00593381 0.35948202 0
2.8650002 -0.010428902 0.35953614 0
2.8640003 -0.014887916 0.35955417 0
2.8630002 -0.019343324 0.35957223 0
2.8630002 -0.023786101 0.35957223 0
2.8630002 -0.028228883 0.35957223 0
2.8650002 -0.032660838 0.35953614 0
2.8670001 -0.03710001 0.35950005 0
2.8700001 -0.041544594 0.35944596 0
2.8750002 -0.046 0.35935575 0
2.8830001 -0.050478857 0.35921144 0
3.0160003 -0.055437524 0.35681239 0
3.0160003 -0.060156286 0.35681239 0
3.0160003 -0.064875051 0.35681239 0
3.0170002 -0.069602832 0.35679436 0
3.0180001 -0.074334219 0.35677633 0
3.0200002 -0.079081841 0.35674024 0
3.0230002 -0.083851114 0.35668612 0
3.0250003 -0.08861497 0.35665005 0
3.0300002 -0.09344016 0.35655987 0
3.0350003 -0.09828338 0.35646966 0
3.0430002 -0.10320958 0.35632536 0
