# .PCD v0.7 - Point Cloud Data file format
VERSION 0.7
FIELDS x y z intensity
SIZE 4 4 4 4
TYPE F F F F
COUNT 1 1 1 1
WIDTH 1376
HEIGHT 1
VIEWPOINT 0 0 0 1 0 0 0
POINTS 1376
DATA ascii
3.4480002 -0.50233459 0.28854185 0
3.4420002 -0.5069235 0.28876913 0
3.4370003 -0.51164407 0.28895855 0
3.4310002 -0.51619148 0.28918582 0
3.4250002 -0.5207172 0.28941309 0
3.4200003 -0.52538007 0.28960249 0
3.4140003 -0.52986431 0.28982979 0
3.4080002 -0.53432691 0.29005706 0
3.4030004 -0.53893209 0.29024646 0
3.3970003 -0.54335326 0.29047373 0
3.3920002 -0.54792047 0.29066312 0
3.3860002 -0.55230016 0.29089043 0
3.3810003 -0.55682945 0.29107982 0
3.3750002 -0.5611676 0.29130709 0
3.3700001 -0.56565911 0.29149652 0
3.3640003 -0.56995577 0.29172379 0
3.3590002 -0.57440937 0.29191318 0
3.3530002 -0.5786646 0.29214045 0
3.3480003 -0.58308029 0.29232985 0
3.3420002 -0.58729398 0.29255712 0
3.3370001 -0.59167182 0.29274654 0
3.3320003 -0.59603161 0.29293594 0
3.3260002 -0.60018402 0.29316321 0
3.3210003 -0.60450596 0.2933526 0
3.3160002 -0.60880983 0.29354203 0
3.3110003 -0.6130957 0.29373142 0
3.3050003 -0.61716688 0.29395869 0
3.3000002 -0.62141478 0.29414809 0
3.2950003 -0.6256448 0.29433748 0
3.2900002 -0.62985665 0.29452688 0
3.2840002 -0.63384664 0.29475418 0
3.2790003 -0.63802069 0.29494357 0
3.2740002 -0.64217663 0.29513299 0
3.2690003 -0.64631462 0.29532236 0
3.2640002 -0.65043449 0.29551178 0
3.2590003 -0.65453637 0.29570118 0
3.2540002 -0.65862018 0.29589057 0
3.2490003 -0.66268599 0.29607996 0
3.2440002 -0.66673374 0.29626936 0
3.2390003 -0.67076343 0.29645878 0
3.0300002 -0.83825064 0.30437568 0
3.0260003 -0.84178251 0.30452719 0
3.0220003 -0.84529996 0.30467874 0
3.0170002 -0.84849626 0.30486813 0
3.0130002 -0.85198301 0.30501965 0
3.0090003 -0.8554554 0.30517116 0
3.0050001 -0.85891324 0.30532268 0
3.0000002 -0.86204284 0.30551207 0
2.9960003 -0.86547011 0.30566362 0
2.9920001 -0.86888289 0.30581513 0
2.9880002 -0.87228125 0.30596665 0
2.9070003 -0.93686301 0.30903491 0
2.9040003 -0.9403137 0.30914855 0
2.9000001 -0.94339454 0.30930009 0
2.8960001 -0.94646108 0.30945161 0
2.8920002 -0.94951314 0.30960312 0
2.8880002 -0.95255071 0.30975464 0
2.8840003 -0.95557398 0.30990615 0
2.8800001 -0.95858264 0.3100577 0
2.8770003 -0.96194679 0.31017131 0
2.8730001 -0.96492845 0.31032285 0
2.8690002 -0.96789569 0.31047437 0
2.8650002 -0.97084856 0.31062588 0
2.8610003 -0.97378701 0.3107774 0
2.8580003 -0.97708976 0.31089103 0
2.8540003 -0.98000115 0.31104255 0
2.8500001 -0.982898 0.31119409 0
2.8460002 -0.98578054 0.31134561 0
2.8430002 -0.98903453 0.31145924 0
2.8390002 -0.99188995 0.31161076 0
2.8350003 -0.99473095 0.31176227 0
2.8320003 -0.99794894 0.31187591 0
2.8280003 -1.0007628 0.31202745 0
2.8240001 -1.0035623 0.31217897 0
3.8170002 -0.20625393 0.26840055 0
3.8090003 -0.21202792 0.268718 0
3.8020003 -0.21782357 0.26899579 0
3.7950003 -0.22359395 0.26927358 0
3.7880003 -0.22933908 0.26955137 0
3.7810001 -0.23505895 0.26982915 0
3.7740002 -0.24075356 0.27010694 0
3.7670002 -0.24642293 0.27038473 0
3.7600002 -0.25206706 0.27066249 0
3.7530003 -0.2576859 0.2709403 0
3.7460003 -0.26327953 0.27121806 0
3.7390003 -0.26884788 0.27149588 0
3.7320004 -0.274391 0.27177364 0
3.7250001 -0.27990884 0.27205145 0
3.7180002 -0.2854014 0.27232921 0
3.7110002 -0.29086876 0.27260703 0
3.7040002 -0.29631087 0.27288479 0
3.6980002 -0.30180526 0.27312291 0
3.6910002 -0.30719864 0.27340069 0
3.6840003 -0.31256679 0.27367848 0
3.6780002 -0.31799266 0.27391657 0
3.6710002 -0.32331204 0.27419436 0
3.6640003 -0.32860625 0.27447215 0
3.6580002 -0.33396357 0.27471024 0
3.6510003 -0.33920902 0.27498806 0
3.6450002 -0.34452125 0.27522615 0
3.6380002 -0.349718 0.27550393 0
3.6320002 -0.35498515 0.27574205 0
3.6250002 -0.3601332 0.27601981 0
3.6190002 -0.36535522 0.27625793 0
3.6120002 -0.37045461 0.27653572 0
3.6060002 -0.37563151 0.27677381 0
3.5990002 -0.3806822 0.2770516 0
3.5930002 -0.38581401 0.27728969 0
3.5870001 -0.39092419 0.27752781 0
3.5810003 -0.39601278 0.27776593 0
3.5740004 -0.40096781 0.27804369 0
3.5680003 -0.40601128 0.27828181 0
3.5620003 -0.41103306 0.2785199 0
3.5560002 -0.41603324 0.27875799 0
3.5490003 -0.42089269 0.27903581 0
3.5430002 -0.42584774 0.2792739 0
3.5370002 -0.43078116 0.27951199 0
3.5310001 -0.43569291 0.27975011 0
3.5250003 -0.44058305 0.2799882 0
3.5190003 -0.44545156 0.28022629 0
3.5130002 -0.45029837 0.28046441 0
3.5070002 -0.45512354 0.2807025 0
3.5010002 -0.45992708 0.28094062 0
3.4950001 -0.46470898 0.28117871 0
3.4890003 -0.46946925 0.2814168 0
3.4830003 -0.47420785 0.28165492 0
3.4770002 -0.47892481 0.28189301 0
3.4710002 -0.48362011 0.28213114 0
3.4660003 -0.4884381 0.28232953 0
3.4600003 -0.49309191 0.28256762 0
3.4540002 -0.49772409 0.28280574 0
3.4480002 -0.50233459 0.28304386 0
3.4420002 -0.5069235 0.28328195 0
3.4370003 -0.51164407 0.28348038 0
3.4310002 -0.51619148 0.28371847 0
3.4250002 -0.5207172 0.28395659 0
3.4200003 -0.52538007 0.28415501 0
3.4140003 -0.52986431 0.2843931 0
3.4080002 -0.53432691 0.28463119 0
3.4030004 -0.53893209 0.28482962 0
3.3970003 -0.54335326 0.28506771 0
3.3920002 -0.54792047 0.28526613 0
3.3860002 -0.55230016 0.28550425 0
3.3810003 -0.55682945 0.28570268 0
3.3750002 -0.5611676 0.28594077 0
3.3700001 -0.56565911 0.28613919 0
3.3640003 -0.56995577 0.28637728 0
3.3590002 -0.57440937 0.2865757 0
3.3530002 -0.5786646 0.2868138 0
3.3480003 -0.58308029 0.28701222 0
3.3420002 -0.58729398 0.28725034 0
3.3370001 -0.59167182 0.28744876 0
3.3320003 -0.59603161 0.28764716 0
3.3260002 -0.60018402 0.28788528 0
3.3210003 -0.60450596 0.28808367 0
3.3160002 -0.60880983 0.2882821 0
3.3110003 -0.6130957 0.28848052 0
3.3050003 -0.61716688 0.28871864 0
3.3000002 -0.62141478 0.28891706 0
3.2950003 -0.6256448 0.28911546 0
3.2900002 -0.62985665 0.28931388 0
3.2840002 -0.63384664 0.28955197 0
3.2790003 -0.63802069 0.2897504 0
3.2740002 -0.64217663 0.28994882 0
3.2690003 -0.64631462 0.29014724 0
3.2640002 -0.65043449 0.29034567 0
3.2590003 -0.65453637 0.29054409 0
3.2540002 -0.65862018 0.29074252 0
3.2490003 -0.66268599 0.29094091 0
3.2440002 -0.66673374 0.29113933 0
3.2390003 -0.67076343 0.29133776 0
3.0300002 -0.83825064 0.29963166 0
3.0260003 -0.84178251 0.29979041 0
3.0220003 -0.84529996 0.29994914 0
3.0170002 -0.84849626 0.30014756 0
3.0130002 -0.85198301 0.30030629 0
3.0090003 -0.8554554 0.30046505 0
3.0050001 -0.85891324 0.30062377 0
3.0000002 -0.86204284 0.3008222 0
2.9960003 -0.86547011 0.30098093 0
2.9920001 -0.86888289 0.30113965 0
2.9880002 -0.87228125 0.30129838 0
2.9070003 -0.93686301 0.30451277 0
2.9040003 -0.9403137 0.30463183 0
2.9000001 -0.94339454 0.30479056 0
2.8960001 -0.94646108 0.30494928 0
2.8920002 -0.94951314 0.30510804 0
2.8880002 -0.95255071 0.30526677 0
2.8840003 -0.95557398 0.30542549 0
2.8800001 -0.95858264 0.30558425 0
2.8770003 -0.96194679 0.30570328 0
2.8730001 -0.96492845 0.30586201 0
2.8690002 -0.96789569 0.30602077 0
2.8650002 -0.97084856 0.30617949 0
2.8610003 -0.97378701 0.30633822 0
2.8580003 -0.97708976 0.30645728 0
2.8540003 -0.98000115 0.30661601 0
2.8500001 -0.982898 0.30677474 0
2.8460002 -0.98578054 0.30693349 0
2.8430002 -0.98903453 0.30705255 0
2.8390002 -0.99188995 0.30721128 0
2.8350003 -0.99473095 0.30737001 0
2.8320003 -0.99794894 0.30748904 0
2.8280003 -1.0007628 0.30764779 0
2.8240001 -1.0035623 0.30780655 0
3.8170002 -0.20625393 0.26223692 0
3.8090003 -0.21202792 0.26256883 0
3.8020003 -0.21782357 0.26285923 0
3.7950003 -0.22359395 0.26314965 0
3.7880003 -0.22933908 0.26344007 0
3.7810001 -0.23505895 0.26373047 0
3.7740002 -0.24075356 0.26402089 0
3.7670002 -0.24642293 0.26431131 0
3.7600002 -0.25206706 0.26460171 0
3.7530003 -0.2576859 0.26489213 0
3.7460003 -0.26327953 0.26518255 0
3.7390003 -0.26884788 0.26547295 0
3.7320004 -0.274391 0.26576334 0
3.7250001 -0.27990884 0.2660538 0
3.7180002 -0.2854014 0.26634419 0
3.7110002 -0.29086876 0.26663461 0
3.7040002 -0.29631087 0.26692504 0
3.6980002 -0.30180526 0.26717395 0
3.6910002 -0.30719864 0.26746437 0
3.6840003 -0.31256679 0.26775476 0
3.6780002 -0.31799266 0.2680037 0
3.6710002 -0.32331204 0.2682941 0
3.6640003 -0.32860625 0.26858452 0
3.6580002 -0.33396357 0.26883346 0
3.6510003 -0.33920902 0.26912385 0
3.6450002 -0.34452125 0.26937279 0
3.6380002 -0.349718 0.26966321 0
3.6320002 -0.35498515 0.26991212 0
3.6250002 -0.3601332 0.27020252 0
3.6190002 -0.36535522 0.27045149 0
3.6120002 -0.37045461 0.27074188 0
3.6060002 -0.37563151 0.27099079 0
3.5990002 -0.3806822 0.27128121 0
3.5930002 -0.38581401 0.27153015 0
3.5870001 -0.39092419 0.27177906 0
3.5810003 -0.39601278 0.272028 0
3.5740004 -0.40096781 0.27231839 0
3.5680003 -0.40601128 0.27256733 0
3.5620003 -0.41103306 0.27281624 0
3.5560002 -0.41603324 0.27306518 0
3.5490003 -0.42089269 0.2733556 0
3.5430002 -0.42584774 0.27360451 0
3.5370002 -0.43078116 0.27385345 0
3.5310001 -0.43569291 0.27410239 0
3.5250003 -0.44058305 0.2743513 0
3.5190003 -0.44545156 0.27460021 0
3.5130002 -0.45029837 0.27484915 0
3.5070002 -0.45512354 0.27509809 0
3.5010002 -0.45992708 0.27534699 0
3.4950001 -0.46470898 0.27559593 0
3.4890003 -0.46946925 0.27584484 0
3.4830003 -0.47420785 0.27609378 0
3.4770002 -0.47892481 0.27634269 0
3.4710002 -0.48362011 0.27659163 0
3.4660003 -0.4884381 0.27679908 0
3.4600003 -0.49309191 0.27704799 0
3.4540002 -0.49772409 0.2772969 0
3.4480002 -0.50233459 0.27754584 0
3.4420002 -0.5069235 0.27779478 0
3.4370003 -0.51164407 0.2780022 0
3.4310002 -0.51619148 0.27825111 0
3.4250002 -0.5207172 0.27850005 0
3.4200003 -0.52538007 0.2787075 0
3.4140003 -0.52986431 0.27895641 0
3.4080002 -0.53432691 0.27920532 0
3.4030004 -0.53893209 0.27941278 0
3.3970003 -0.54335326 0.27966172 0
3.3920002 -0.54792047 0.27986914 0
3.3860002 -0.55230016 0.28011808 0
3.3810003 -0.55682945 0.2803255 0
3.3750002 -0.5611676 0.28057444 0
3.3700001 -0.56565911 0.28078189 0
3.3640003 -0.56995577 0.2810308 0
3.3590002 -0.57440937 0.28123826 0
3.3530002 -0.5786646 0.28148717 0
3.3480003 -0.58308029 0.28169459 0
3.3420002 -0.58729398 0.28194353 0
3.3370001 -0.59167182 0.28215098 0
3.3320003 -0.59603161 0.28235841 0
3.3260002 -0.60018402 0.28260732 0
3.3210003 -0.60450596 0.28281477 0
3.3160002 -0.60880983 0.28302222 0
3.3110003 -0.6130957 0.28322965 0
3.3050003 -0.61716688 0.28347856 0
3.3000002 -0.62141478 0.28368601 0
3.2950003 -0.6256448 0.28389344 0
3.2900002 -0.62985665 0.28410089 0
3.2840002 -0.63384664 0.2843498 0
3.2790003 -0.63802069 0.28455725 0
3.2740002 -0.64217663 0.28476468 0
3.2690003 -0.64631462 0.28497213 0
3.2640002 -0.65043449 0.28517956 0
3.2590003 -0.65453637 0.28538698 0
3.2540002 -0.65862018 0.28559443 0
3.2490003 -0.66268599 0.28580186 0
3.2440002 -0.66673374 0.28600931 0
3.2390003 -0.67076343 0.28621674 0
3.0300002 -0.83825064 0.29488766 0
3.0260003 -0.84178251 0.2950536 0
3.0220003 -0.84529996 0.29521954 0
3.0170002 -0.84849626 0.29542699 0
3.0130002 -0.85198301 0.29559293 0
3.0090003 -0.8554554 0.2957589 0
3.0050001 -0.85891324 0.29592484 0
3.0000002 -0.86204284 0.29613227 0
2.9960003 -0.86547011 0.29629824 0
2.9920001 -0.86888289 0.29646417 0
2.9880002 -0.87228125 0.29663014 0
2.9070003 -0.93686301 0.29999062 0
2.9040003 -0.9403137 0.30011511 0
2.9000001 -0.94339454 0.30028105 0
2.8960001 -0.94646108 0.30044699 0
2.8920002 -0.94951314 0.30061293 0
2.8880002 -0.95255071 0.3007789 0
2.8840003 -0.95557398 0.30094483 0
2.8800001 -0.95858264 0.3011108 0
2.8770003 -0.96194679 0.30123526 0
2.8730001 -0.96492845 0.3014012 0
2.8690002 -0.96789569 0.30156717 0
2.8650002 -0.97084856 0.30173311 0
2.8610003 -0.97378701 0.30189905 0
2.8580003 -0.97708976 0.30202353 0
2.8540003 -0.98000115 0.30218947 0
2.8500001 -0.982898 0.30235541 0
2.8460002 -0.98578054 0.30252138 0
2.8430002 -0.98903453 0.30264583 0
2.8390002 -0.99188995 0.30281177 0
2.8350003 -0.99473095 0.30297774 0
2.8320003 -0.99794894 0.3031022 0
2.8280003 -1.0007628 0.30326813 0
2.8240001 -1.0035623 0.3034341 0
3.8170002 -0.20625393 0.2560733 0
3.8090003 -0.21202792 0.25641966 0
3.8020003 -0.21782357 0.25672269 0
3.7950003 -0.22359395 0.25702572 0
3.7880003 -0.22933908 0.25732875 0
3.7810001 -0.23505895 0.25763181 0
3.7740002 -0.24075356 0.25793487 0
3.7670002 -0.24642293 0.2582379 0
3.7600002 -0.25206706 0.25854093 0
3.7530003 -0.2576859 0.25884396 0
3.7460003 -0.26327953 0.25914699 0
3.7390003 -0.26884788 0.25945005 0
3.7320004 -0.274391 0.25975308 0
3.7250001 -0.27990884 0.26005614 0
3.7180002 -0.2854014 0.26035917 0
3.7110002 -0.29086876 0.2606622 0
3.7040002 -0.29631087 0.26096523 0
3.6980002 -0.30180526 0.26122499 0
3.6910002 -0.30719864 0.26152802 0
3.6840003 -0.31256679 0.26183107 0
3.6780002 -0.31799266 0.2620908 0
3.6710002 -0.32331204 0.26239383 0
3.6640003 -0.32860625 0.26269689 0
3.6580002 -0.33396357 0.26295665 0
3.6510003 -0.33920902 0.26325968 0
3.6450002 -0.34452125 0.26351941 0
3.6380002 -0.349718 0.26382247 0
3.6320002 -0.35498515 0.26408222 0
3.6250002 -0.3601332 0.26438528 0
3.6190002 -0.36535522 0.26464501 0
3.6120002 -0.37045461 0.26494804 0
3.6060002 -0.37563151 0.2652078 0
3.5990002 -0.3806822 0.26551086 0
3.5930002 -0.38581401 0.26577058 0
3.5870001 -0.39092419 0.26603034 0
3.5810003 -0.39601278 0.26629007 0
3.5740004 -0.40096781 0.2665931 0
3.5680003 -0.40601128 0.26685286 0
3.5620003 -0.41103306 0.26711261 0
3.5560002 -0.41603324 0.26737237 0
3.5490003 -0.42089269 0.2676754 0
3.5430002 -0.42584774 0.26793516 0
3.5370002 -0.43078116 0.26819491 0
3.5310001 -0.43569291 0.26845467 0
3.5250003 -0.44058305 0.26871437 0
3.5190003 -0.44545156 0.26897413 0
3.5130002 -0.45029837 0.26923388 0
3.5070002 -0.45512354 0.26949364 0
3.5010002 -0.45992708 0.2697534 0
3.4950001 -0.46470898 0.27001315 0
3.4890003 -0.46946925 0.27027291 0
3.4830003 -0.47420785 0.27053264 0
3.4770002 -0.47892481 0.27079237 0
3.4710002 -0.48362011 0.27105212 0
3.4660003 -0.4884381 0.27126858 0
3.4600003 -0.49309191 0.27152833 0
3.4540002 -0.49772409 0.27178806 0
3.4480002 -0.50233459 0.27204782 0
3.4420002 -0.5069235 0.27230757 0
3.4370003 -0.51164407 0.27252406 0
3.4310002 -0.51619148 0.27278379 0
3.4250002 -0.5207172 0.27304351 0
3.4200003 -0.52538007 0.27326 0
3.4140003 -0.52986431 0.27351975 0
3.4080002 -0.53432691 0.27377951 0
3.4030004 -0.53893209 0.27399594 0
3.3970003 -0.54335326 0.27425569 0
3.3920002 -0.54792047 0.27447218 0
3.3860002 -0.55230016 0.2747319 0
3.3810003 -0.55682945 0.27494836 0
3.3750002 -0.5611676 0.27520812 0
3.3700001 -0.56565911 0.27542457 0
3.3640003 -0.56995577 0.2756843 0
3.3590002 -0.57440937 0.27590078 0
3.3530002 -0.5786646 0.27616054 0
3.3480003 -0.58308029 0.27637696 0
3.3420002 -0.58729398 0.27663672 0
3.3370001 -0.59167182 0.2768532 0
3.3320003 -0.59603161 0.27706963 0
3.3260002 -0.60018402 0.27732939 0
3.3210003 -0.60450596 0.27754584 0
3.3160002 -0.60880983 0.27776229 0
3.3110003 -0.6130957 0.27797875 0
3.3050003 -0.61716688 0.27823851 0
3.3000002 -0.62141478 0.27845496 0
3.2950003 -0.6256448 0.27867141 0
3.2900002 -0.62985665 0.27888787 0
3.2840002 -0.63384664 0.27914762 0
3.2790003 -0.63802069 0.27936408 0
3.2740002 -0.64217663 0.27958053 0
3.2690003 -0.64631462 0.27979699 0
3.2640002 -0.65043449 0.28001344 0
3.2590003 -0.65453637 0.2802299 0
3.2540002 -0.65862018 0.28044635 0
3.2490003 -0.66268599 0.2806628 0
3.2440002 -0.66673374 0.28087926 0
3.2390003 -0.67076343 0.28109574 0
3.0300002 -0.83825064 0.29014364 0
3.0260003 -0.84178251 0.29031682 0
3.0220003 -0.84529996 0.29048997 0
3.0170002 -0.84849626 0.29070643 0
3.0130002 -0.85198301 0.29087958 0
3.0090003 -0.8554554 0.29105276 0
3.0050001 -0.85891324 0.29122591 0
3.0000002 -0.86204284 0.29144239 0
2.9960003 -0.86547011 0.29161555 0
2.9920001 -0.86888289 0.29178873 0
2.9880002 -0.87228125 0.29196188 0
2.9070003 -0.93686301 0.29546848 0
2.9040003 -0.9403137 0.29559836 0
2.9000001 -0.94339454 0.29577154 0
2.8960001 -0.94646108 0.29594469 0
2.8920002 -0.94951314 0.29611784 0
2.8880002 -0.95255071 0.29629099 0
2.8840003 -0.95557398 0.29646417 0
2.8800001 -0.95858264 0.29663736 0
2.8770003 -0.96194679 0.29676723 0
2.8730001 -0.96492845 0.29694039 0
2.8690002 -0.96789569 0.29711354 0
2.8650002 -0.97084856 0.29728672 0
2.8610003 -0.97378701 0.2974599 0
2.8580003 -0.97708976 0.29758975 0
2.8540003 -0.98000115 0.29776293 0
2.8500001 -0.982898 0.29793608 0
2.8460002 -0.98578054 0.29810926 0
2.8430002 -0.98903453 0.29823911 0
2.8390002 -0.99188995 0.29841229 0
2.8350003 -0.99473095 0.29858547 0
2.8320003 -0.99794894 0.29871532 0
2.8280003 -1.0007628 0.2988885 0
2.8240001 -1.0035623 0.29906166 0
3.8170002 -0.20625393 0.2499097 0
3.8090003 -0.21202792 0.25027046 0
3.8020003 -0.21782357 0.25058612 0
3.7950003 -0.22359395 0.25090179 0
3.7880003 -0.22933908 0.25121745 0
3.7810001 -0.23505895 0.25153312 0
3.7740002 -0.24075356 0.25184882 0
3.7670002 -0.24642293 0.25216445 0
3.7600002 -0.25206706 0.25248015 0
3.7530003 -0.2576859 0.25279579 0
3.7460003 -0.26327953 0.25311148 0
3.7390003 -0.26884788 0.25342712 0
3.7320004 -0.274391 0.25374278 0
3.7250001 -0.27990884 0.25405848 0
3.7180002 -0.2854014 0.25437412 0
3.7110002 -0.29086876 0.25468981 0
3.7040002 -0.29631087 0.25500545 0
3.6980002 -0.30180526 0.25527602 0
3.6910002 -0.30719864 0.25559169 0
3.6840003 -0.31256679 0.25590736 0
3.6780002 -0.31799266 0.25617793 0
3.6710002 -0.32331204 0.2564936 0
3.6640003 -0.32860625 0.25680926 0
3.6580002 -0.33396357 0.25707984 0
3.6510003 -0.33920902 0.25739551 0
3.6450002 -0.34452125 0.25766608 0
3.6380002 -0.349718 0.25798172 0
3.6320002 -0.35498515 0.25825232 0
3.6250002 -0.3601332 0.25856799 0
3.6190002 -0.36535522 0.25883853 0
3.6120002 -0.37045461 0.2591542 0
3.6060002 -0.37563151 0.25942481 0
3.5990002 -0.3806822 0.25974044 0
3.5930002 -0.38581401 0.26001102 0
3.5870001 -0.39092419 0.26028159 0
3.5810003 -0.39601278 0.26055217 0
3.5740004 -0.40096781 0.26086783 0
3.5680003 -0.40601128 0.26113838 0
3.5620003 -0.41103306 0.26140898 0
3.5560002 -0.41603324 0.26167953 0
3.5490003 -0.42089269 0.2619952 0
3.5430002 -0.42584774 0.2622658 0
3.5370002 -0.43078116 0.26253635 0
3.5310001 -0.43569291 0.26280692 0
3.5250003 -0.44058305 0.2630775 0
3.5190003 -0.44545156 0.26334804 0
3.5130002 -0.45029837 0.26361865 0
3.5070002 -0.45512354 0.26388919 0
3.5010002 -0.45992708 0.2641598 0
3.4950001 -0.46470898 0.26443034 0
3.4890003 -0.46946925 0.26470092 0
3.4830003 -0.47420785 0.26497149 0
3.4770002 -0.47892481 0.26524207 0
3.4710002 -0.48362011 0.26551265 0
3.4660003 -0.4884381 0.2657381 0
3.4600003 -0.49309191 0.26600868 0
3.4540002 -0.49772409 0.26627925 0
3.4480002 -0.50233459 0.26654983 0
3.4420002 -0.5069235 0.2668204 0
3.4370003 -0.51164407 0.26704586 0
3.4310002 -0.51619148 0.26731646 0
3.4250002 -0.5207172 0.26758701 0
3.4200003 -0.52538007 0.26781249 0
3.4140003 -0.52986431 0.26808307 0
3.4080002 -0.53432691 0.26835364 0
3.4030004 -0.53893209 0.26857913 0
3.3970003 -0.54335326 0.26884967 0
3.3920002 -0.54792047 0.26907516 0
3.3860002 -0.55230016 0.26934573 0
3.3810003 -0.55682945 0.26957121 0
3.3750002 -0.5611676 0.26984179 0
3.3700001 -0.56565911 0.27006727 0
3.3640003 -0.56995577 0.27033782 0
3.3590002 -0.57440937 0.2705633 0
3.3530002 -0.5786646 0.27083385 0
3.3480003 -0.58308029 0.27105933 0
3.3420002 -0.58729398 0.27132994 0
3.3370001 -0.59167182 0.27155539 0
3.3320003 -0.59603161 0.27178088 0
3.3260002 -0.60018402 0.27205145 0
3.3210003 -0.60450596 0.27227691 0
3.3160002 -0.60880983 0.27250239 0
3.3110003 -0.6130957 0.27272785 0
3.3050003 -0.61716688 0.27299845 0
3.3000002 -0.62141478 0.27322394 0
3.2950003 -0.6256448 0.27344939 0
3.2900002 -0.62985665 0.27367488 0
3.2840002 -0.63384664 0.27394545 0
3.2790003 -0.63802069 0.27417091 0
3.2740002 -0.64217663 0.27439642 0
3.2690003 -0.64631462 0.27462184 0
3.2640002 -0.65043449 0.27484736 0
3.2590003 -0.65453637 0.27507281 0
3.2540002 -0.65862018 0.2752983 0
3.2490003 -0.66268599 0.27552378 0
3.2440002 -0.66673374 0.27574927 0
3.2390003 -0.67076343 0.27597472 0
3.0300002 -0.83825064 0.28539962 0
3.0260003 -0.84178251 0.28558001 0
3.0220003 -0.84529996 0.2857604 0
3.0170002 -0.84849626 0.28598586 0
3.0130002 -0.85198301 0.28616625 0
3.0090003 -0.8554554 0.28634661 0
3.0050001 -0.85891324 0.28652701 0
3.0000002 -0.86204284 0.28675249 0
2.9960003 -0.86547011 0.28693286 0
2.9920001 -0.86888289 0.28711325 0
2.9880002 -0.87228125 0.28729361 0
2.9070003 -0.93686301 0.29094633 0
2.9040003 -0.9403137 0.29108161 0
2.9000001 -0.94339454 0.291262 0
2.8960001 -0.94646108 0.29144239 0
2.8920002 -0.94951314 0.29162276 0
2.8880002 -0.95255071 0.29180312 0
2.8840003 -0.95557398 0.29198352 0
2.8800001 -0.95858264 0.29216391 0
2.8770003 -0.96194679 0.29229918 0
2.8730001 -0.96492845 0.29247957 0
2.8690002 -0.96789569 0.29265994 0
2.8650002 -0.97084856 0.29284033 0
2.8610003 -0.97378701 0.29302073 0
2.8580003 -0.97708976 0.293156 0
2.8540003 -0.98000115 0.29333639 0
2.8500001 -0.982898 0.29351676 0
2.8460002 -0.98578054 0.29369715 0
2.8430002 -0.98903453 0.29383242 0
2.8390002 -0.99188995 0.29401281 0
2.8350003 -0.99473095 0.29419318 0
2.8320003 -0.99794894 0.29432848 0
2.8280003 -1.0007628 0.29450884 0
2.8240001 -1.0035623 0.29468924 0
3.8170002 -0.20625393 0.24374609 0
3.8090003 -0.21202792 0.24412128 0
3.8020003 -0.21782357 0.24444957 0
3.7950003 -0.22359395 0.24477786 0
3.7880003 -0.22933908 0.24510615 0
3.7810001 -0.23505895 0.24543446 0
3.7740002 -0.24075356 0.24576275 0
3.7670002 -0.24642293 0.24609104 0
3.7600002 -0.25206706 0.24641934 0
3.7530003 -0.2576859 0.24674763 0
3.7460003 -0.26327953 0.24707592 0
3.7390003 -0.26884788 0.2474042 0
3.7320004 -0.274391 0.24773251 0
3.7250001 -0.27990884 0.24806079 0
3.7180002 -0.2854014 0.24838908 0
3.7110002 -0.29086876 0.24871737 0
3.7040002 -0.29631087 0.24904567 0
3.6980002 -0.30180526 0.24932708 0
3.6910002 -0.30719864 0.24965537 0
3.6840003 -0.31256679 0.24998365 0
3.6780002 -0.31799266 0.25026506 0
3.6710002 -0.32331204 0.25059333 0
3.6640003 -0.32860625 0.25092161 0
3.6580002 -0.33396357 0.25120303 0
3.6510003 -0.33920902 0.2515313 0
3.6450002 -0.34452125 0.2518127 0
3.6380002 -0.349718 0.252141 0
3.6320002 -0.35498515 0.25242239 0
3.6250002 -0.3601332 0.25275069 0
3.6190002 -0.36535522 0.25303209 0
3.6120002 -0.37045461 0.25336039 0
3.6060002 -0.37563151 0.25364178 0
3.5990002 -0.3806822 0.25397009 0
3.5930002 -0.38581401 0.25425148 0
3.5870001 -0.39092419 0.25453287 0
3.5810003 -0.39601278 0.25481424 0
3.5740004 -0.40096781 0.25514254 0
3.5680003 -0.40601128 0.25542393 0
3.5620003 -0.41103306 0.25570533 0
3.5560002 -0.41603324 0.25598675 0
3.5490003 -0.42089269 0.25631499 0
3.5430002 -0.42584774 0.25659642 0
3.5370002 -0.43078116 0.25687781 0
3.5310001 -0.43569291 0.25715923 0
3.5250003 -0.44058305 0.25744057 0
3.5190003 -0.44545156 0.25772199 0
3.5130002 -0.45029837 0.25800338 0
3.5070002 -0.45512354 0.25828478 0
3.5010002 -0.45992708 0.2585662 0
3.4950001 -0.46470898 0.25884756 0
3.4890003 -0.46946925 0.25912896 0
3.4830003 -0.47420785 0.25941035 0
3.4770002 -0.47892481 0.25969175 0
3.4710002 -0.48362011 0.25997317 0
3.4660003 -0.4884381 0.26020765 0
3.4600003 -0.49309191 0.26048905 0
3.4540002 -0.49772409 0.26077044 0
3.4480002 -0.50233459 0.26105183 0
3.4420002 -0.5069235 0.26133323 0
3.4370003 -0.51164407 0.26156771 0
3.4310002 -0.51619148 0.26184911 0
3.4250002 -0.5207172 0.2621305 0
3.4200003 -0.52538007 0.26236498 0
3.4140003 -0.52986431 0.26264638 0
3.4080002 -0.53432691 0.26292777 0
3.4030004 -0.53893209 0.26316226 0
3.3970003 -0.54335326 0.26344365 0
3.3920002 -0.54792047 0.26367819 0
3.3860002 -0.55230016 0.26395956 0
3.3810003 -0.55682945 0.26419407 0
3.3750002 -0.5611676 0.26447546 0
3.3700001 -0.56565911 0.26470995 0
3.3640003 -0.56995577 0.26499134 0
3.3590002 -0.57440937 0.26522583 0
3.3530002 -0.5786646 0.26550722 0
3.3480003 -0.58308029 0.26574171 0
3.3420002 -0.58729398 0.2660231 0
3.3370001 -0.59167182 0.26625761 0
3.3320003 -0.59603161 0.26649213 0
3.3260002 -0.60018402 0.26677349 0
3.3210003 -0.60450596 0.26700801 0
3.3160002 -0.60880983 0.26724249 0
3.3110003 -0.6130957 0.26747698 0
3.3050003 -0.61716688 0.26775837 0
3.3000002 -0.62141478 0.26799288 0
3.2950003 -0.6256448 0.26822737 0
3.2900002 -0.62985665 0.26846188 0
3.2840002 -0.63384664 0.26874328 0
3.2790003 -0.63802069 0.26897776 0
3.2740002 -0.64217663 0.26921225 0
3.2690003 -0.64631462 0.26944673 0
3.2640002 -0.65043449 0.26968122 0
3.2590003 -0.65453637 0.26991573 0
3.2540002 -0.65862018 0.27015024 0
3.2490003 -0.66268599 0.27038473 0
3.2440002 -0.66673374 0.27061921 0
3.2390003 -0.67076343 0.2708537 0
3.0300002 -0.83825064 0.28065562 0
3.0260003 -0.84178251 0.2808432 0
3.0220003 -0.84529996 0.2810308 0
3.0170002 -0.84849626 0.28126532 0
3.0130002 -0.85198301 0.28145289 0
3.0090003 -0.8554554 0.28164047 0
3.0050001 -0.85891324 0.28182808 0
3.0000002 -0.86204284 0.28206259 0
2.9960003 -0.86547011 0.28225017 0
2.9920001 -0.86888289 0.28243777 0
2.9880002 -0.87228125 0.28262538 0
2.9070003 -0.93686301 0.28642419 0
2.9040003 -0.9403137 0.28656489 0
2.9000001 -0.94339454 0.28675249 0
2.8960001 -0.94646108 0.28694007 0
2.8920002 -0.94951314 0.28712767 0
2.8880002 -0.95255071 0.28731525 0
2.8840003 -0.95557398 0.28750286 0
2.8800001 -0.95858264 0.28769046 0
2.8770003 -0.96194679 0.28783116 0
2.8730001 -0.96492845 0.28801876 0
2.8690002 -0.96789569 0.28820634 0
2.8650002 -0.97084856 0.28839394 0
2.8610003 -0.97378701 0.28858155 0
2.8580003 -0.97708976 0.28872222 0
2.8540003 -0.98000115 0.28890982 0
2.8500001 -0.982898 0.28909743 0
2.8460002 -0.98578054 0.28928503 0
2.8430002 -0.98903453 0.28942573 0
2.8390002 -0.99188995 0.28961331 0
2.8350003 -0.99473095 0.28980091 0
2.8320003 -0.99794894 0.28994161 0
2.8280003 -1.0007628 0.29012918 0
2.8240001 -1.0035623 0.29031682 0
3.8170002 -0.20625393 0.23758247 0
3.8090003 -0.21202792 0.2379721 0
3.8020003 -0.21782357 0.23831302 0
3.7950003 -0.22359395 0.23865393 0
3.7880003 -0.22933908 0.23899485 0
3.7810001 -0.23505895 0.23933578 0
3.7740002 -0.24075356 0.2396767 0
3.7670002 -0.24642293 0.24001761 0
3.7600002 -0.25206706 0.24035853 0
3.7530003 -0.2576859 0.24069946 0
3.7460003 -0.26327953 0.24104038 0
3.7390003 -0.26884788 0.24138129 0
3.7320004 -0.274391 0.24172221 0
3.7250001 -0.27990884 0.24206313 0
3.7180002 -0.2854014 0.24240406 0
3.7110002 -0.29086876 0.24274497 0
3.7040002 -0.29631087 0.24308589 0
3.6980002 -0.30180526 0.2433781 0
3.6910002 -0.30719864 0.24371903 0
3.6840003 -0.31256679 0.24405994 0
3.6780002 -0.31799266 0.24435216 0
3.6710002 -0.32331204 0.24469309 0
3.6640003 -0.32860625 0.24503399 0
3.6580002 -0.33396357 0.24532622 0
3.6510003 -0.33920902 0.24566713 0
3.6450002 -0.34452125 0.24595936 0
3.6380002 -0.349718 0.24630028 0
3.6320002 -0.35498515 0.24659251 0
3.6250002 -0.3601332 0.24693342 0
3.6190002 -0.36535522 0.24722563 0
3.6120002 -0.37045461 0.24756655 0
3.6060002 -0.37563151 0.24785876 0
3.5990002 -0.3806822 0.24819969 0
3.5930002 -0.38581401 0.24849191 0
3.5870001 -0.39092419 0.24878412 0
3.5810003 -0.39601278 0.24907632 0
3.5740004 -0.40096781 0.24941726 0
3.5680003 -0.40601128 0.24970947 0
3.5620003 -0.41103306 0.25000167 0
3.5560002 -0.41603324 0.25029391 0
3.5490003 -0.42089269 0.25063485 0
3.5430002 -0.42584774 0.25092703 0
3.5370002 -0.43078116 0.25121927 0
3.5310001 -0.43569291 0.25151148 0
3.5250003 -0.44058305 0.2518037 0
3.5190003 -0.44545156 0.25209591 0
3.5130002 -0.45029837 0.25238812 0
3.5070002 -0.45512354 0.25268036 0
3.5010002 -0.45992708 0.25297254 0
3.4950001 -0.46470898 0.25326478 0
3.4890003 -0.46946925 0.253557 0
3.4830003 -0.47420785 0.25384921 0
3.4770002 -0.47892481 0.25414145 0
3.4710002 -0.48362011 0.25443366 0
3.4660003 -0.4884381 0.25467718 0
3.4600003 -0.49309191 0.25496936 0
3.4540002 -0.49772409 0.2552616 0
3.4480002 -0.50233459 0.25555381 0
3.4420002 -0.5069235 0.25584602 0
3.4370003 -0.51164407 0.25608954 0
3.4310002 -0.51619148 0.25638175 0
3.4250002 -0.5207172 0.25667399 0
3.4200003 -0.52538007 0.25691748 0
3.4140003 -0.52986431 0.25720972 0
3.4080002 -0.53432691 0.25750193 0
3.4030004 -0.53893209 0.25774544 0
3.3970003 -0.54335326 0.25803766 0
3.3920002 -0.54792047 0.25828117 0
3.3860002 -0.55230016 0.25857341 0
3.3810003 -0.55682945 0.2588169 0
3.3750002 -0.5611676 0.25910911 0
3.3700001 -0.56565911 0.25935262 0
3.3640003 -0.56995577 0.25964484 0
3.3590002 -0.57440937 0.25988835 0
3.3530002 -0.5786646 0.26018059 0
3.3480003 -0.58308029 0.26042408 0
3.3420002 -0.58729398 0.26071632 0
3.3370001 -0.59167182 0.2609598 0
3.3320003 -0.59603161 0.26120335 0
3.3260002 -0.60018402 0.26149553 0
3.3210003 -0.60450596 0.26173908 0
3.3160002 -0.60880983 0.26198259 0
3.3110003 -0.6130957 0.2622261 0
3.3050003 -0.61716688 0.26251832 0
3.3000002 -0.62141478 0.26276183 0
3.2950003 -0.6256448 0.26300532 0
3.2900002 -0.62985665 0.26324886 0
3.2840002 -0.63384664 0.26354107 0
3.2790003 -0.63802069 0.26378459 0
3.2740002 -0.64217663 0.26402813 0
3.2690003 -0.64631462 0.26427162 0
3.2640002 -0.65043449 0.26451513 0
3.2590003 -0.65453637 0.26475865 0
3.2540002 -0.65862018 0.26500216 0
3.2490003 -0.66268599 0.26524568 0
3.2440002 -0.66673374 0.26548919 0
3.2390003 -0.67076343 0.26573271 0
3.0300002 -0.83825064 0.2759116 0
3.0260003 -0.84178251 0.27610639 0
3.0220003 -0.84529996 0.27630121 0
3.0170002 -0.84849626 0.27654472 0
3.0130002 -0.85198301 0.27673954 0
3.0090003 -0.8554554 0.27693433 0
3.0050001 -0.85891324 0.27712917 0
3.0000002 -0.86204284 0.27737266 0
2.9960003 -0.86547011 0.27756751 0
2.9920001 -0.86888289 0.27776229 0
2.9880002 -0.87228125 0.27795711 0
2.9070003 -0.93686301 0.28190205 0
2.9040003 -0.9403137 0.28204817 0
2.9000001 -0.94339454 0.28224295 0
2.8960001 -0.94646108 0.28243777 0
2.8920002 -0.94951314 0.28263259 0
2.8880002 -0.95255071 0.28282738 0
2.8840003 -0.95557398 0.2830222 0
2.8800001 -0.95858264 0.28321701 0
2.8770003 -0.96194679 0.2833631 0
2.8730001 -0.96492845 0.28355795 0
2.8690002 -0.96789569 0.28375274 0
2.8650002 -0.97084856 0.28394756 0
2.8610003 -0.97378701 0.28414237 0
2.8580003 -0.97708976 0.28428847 0
2.8540003 -0.98000115 0.28448328 0
2.8500001 -0.982898 0.2846781 0
2.8460002 -0.98578054 0.28487292 0
2.8430002 -0.98903453 0.28501904 0
2.8390002 -0.99188995 0.28521383 0
2.8350003 -0.99473095 0.28540865 0
2.8320003 -0.99794894 0.28555477 0
2.8280003 -1.0007628 0.28574955 0
2.8240001 -1.0035623 0.28594437 0
3.8170002 -0.20625393 0.23141886 0
3.8090003 -0.21202792 0.23182291 0
3.8020003 -0.21782357 0.23217645 0
3.7950003 -0.22359395 0.23253 0
3.7880003 -0.22933908 0.23288354 0
3.7810001 -0.23505895 0.2332371 0
3.7740002 -0.24075356 0.23359065 0
3.7670002 -0.24642293 0.23394419 0
3.7600002 -0.25206706 0.23429774 0
3.7530003 -0.2576859 0.23465128 0
3.7460003 -0.26327953 0.23500483 0
3.7390003 -0.26884788 0.23535837 0
3.7320004 -0.274391 0.23571192 0
3.7250001 -0.27990884 0.23606548 0
3.7180002 -0.2854014 0.23641902 0
3.7110002 -0.29086876 0.23677257 0
3.7040002 -0.29631087 0.23712611 0
3.6980002 -0.30180526 0.23742916 0
3.6910002 -0.30719864 0.2377827 0
3.6840003 -0.31256679 0.23813625 0
3.6780002 -0.31799266 0.23843928 0
3.6710002 -0.32331204 0.23879282 0
3.6640003 -0.32860625 0.23914637 0
3.6580002 -0.33396357 0.23944941 0
3.6510003 -0.33920902 0.23980296 0
3.6450002 -0.34452125 0.240106 0
3.6380002 -0.349718 0.24045955 0
3.6320002 -0.35498515 0.24076259 0
3.6250002 -0.3601332 0.24111614 0
3.6190002 -0.36535522 0.24141917 0
3.6120002 -0.37045461 0.24177271 0
3.6060002 -0.37563151 0.24207576 0
3.5990002 -0.3806822 0.2424293 0
3.5930002 -0.38581401 0.24273235 0
3.5870001 -0.39092419 0.24303539 0
3.5810003 -0.39601278 0.24333842 0
3.5740004 -0.40096781 0.24369197 0
3.5680003 -0.40601128 0.243995 0
3.5620003 -0.41103306 0.24429806 0
3.5560002 -0.41603324 0.24460109 0
3.5490003 -0.42089269 0.24495463 0
3.5430002 -0.42584774 0.24525768 0
3.5370002 -0.43078116 0.24556072 0
3.5310001 -0.43569291 0.24586377 0
3.5250003 -0.44058305 0.24616678 0
3.5190003 -0.44545156 0.24646983 0
3.5130002 -0.45029837 0.24677289 0
3.5070002 -0.45512354 0.24707592 0
3.5010002 -0.45992708 0.24737896 0
3.4950001 -0.46470898 0.24768199 0
3.4890003 -0.46946925 0.24798504 0
3.4830003 -0.47420785 0.24828807 0
3.4770002 -0.47892481 0.24859111 0
3.4710002 -0.48362011 0.24889414 0
3.4660003 -0.4884381 0.24914669 0
3.4600003 -0.49309191 0.24944972 0
3.4540002 -0.49772409 0.24975277 0
3.4480002 -0.50233459 0.25005579 0
3.4420002 -0.5069235 0.25035885 0
3.4370003 -0.51164407 0.25061136 0
3.4310002 -0.51619148 0.25091442 0
3.4250002 -0.5207172 0.25121745 0
3.4200003 -0.52538007 0.25146997 0
3.4140003 -0.52986431 0.25177303 0
3.4080002 -0.53432691 0.25207606 0
3.4030004 -0.53893209 0.25232857 0
3.3970003 -0.54335326 0.25263163 0
3.3920002 -0.54792047 0.25288418 0
3.3860002 -0.55230016 0.25318724 0
3.3810003 -0.55682945 0.25343975 0
3.3750002 -0.5611676 0.25374278 0
3.3700001 -0.56565911 0.25399533 0
3.3640003 -0.56995577 0.25429836 0
3.3590002 -0.57440937 0.25455087 0
3.3530002 -0.5786646 0.25485393 0
3.3480003 -0.58308029 0.25510645 0
3.3420002 -0.58729398 0.25540948 0
3.3370001 -0.59167182 0.25566205 0
3.3320003 -0.59603161 0.25591457 0
3.3260002 -0.60018402 0.2562176 0
3.3210003 -0.60450596 0.25647014 0
3.3160002 -0.60880983 0.25672269 0
3.3110003 -0.6130957 0.2569752 0
3.3050003 -0.61716688 0.25727826 0
3.3000002 -0.62141478 0.25753078 0
3.2950003 -0.6256448 0.25778332 0
3.2900002 -0.62985665 0.25803584 0
3.2840002 -0.63384664 0.2583389 0
3.2790003 -0.63802069 0.25859141 0
3.2740002 -0.64217663 0.25884396 0
3.2690003 -0.64631462 0.2590965 0
3.2640002 -0.65043449 0.25934905 0
3.2590003 -0.65453637 0.25960156 0
3.2540002 -0.65862018 0.25985408 0
3.2490003 -0.66268599 0.26010662 0
3.2440002 -0.66673374 0.26035917 0
3.2390003 -0.67076343 0.26061168 0
3.0300002 -0.83825064 0.27116758 0
3.0260003 -0.84178251 0.27136958 0
3.0220003 -0.84529996 0.27157164 0
3.0170002 -0.84849626 0.27182418 0
3.0130002 -0.85198301 0.27202618 0
3.0090003 -0.8554554 0.27222821 0
3.0050001 -0.85891324 0.27243024 0
3.0000002 -0.86204284 0.27268279 0
2.9960003 -0.86547011 0.27288479 0
2.9920001 -0.86888289 0.27308685 0
2.9880002 -0.87228125 0.27328885 0
2.9070003 -0.93686301 0.27737987 0
2.9040003 -0.9403137 0.27753139 0
2.9000001 -0.94339454 0.27773345 0
2.8960001 -0.94646108 0.27793548 0
2.8920002 -0.94951314 0.27813751 0
2.8880002 -0.95255071 0.27833951 0
2.8840003 -0.95557398 0.27854156 0
2.8800001 -0.95858264 0.27874357 0
2.8770003 -0.96194679 0.27889508 0
2.8730001 -0.96492845 0.27909711 0
2.8690002 -0.96789569 0.27929914 0
2.8650002 -0.97084856 0.27950117 0
2.8610003 -0.97378701 0.2797032 0
2.8580003 -0.97708976 0.27985471 0
2.8540003 -0.98000115 0.28005674 0
2.8500001 -0.982898 0.28025877 0
2.8460002 -0.98578054 0.28046077 0
2.8430002 -0.98903453 0.28061232 0
2.8390002 -0.99188995 0.28081435 0
2.8350003 -0.99473095 0.28101635 0
2.8320003 -0.99794894 0.28116786 0
2.8280003 -1.0007628 0.28136989 0
2.8240001 -1.0035623 0.28157195 0
3.8090003 -0.21202792 0.22567372 0
3.8020003 -0.21782357 0.2260399 0
3.7950003 -0.22359395 0.22640607 0
3.7880003 -0.22933908 0.22677225 0
3.7810001 -0.23505895 0.22713843 0
3.7740002 -0.24075356 0.2275046 0
3.7670002 -0.24642293 0.22787076 0
3.7600002 -0.25206706 0.22823694 0
3.7530003 -0.2576859 0.22860311 0
3.7460003 -0.26327953 0.22896929 0
3.7390003 -0.26884788 0.22933546 0
3.7320004 -0.274391 0.22970162 0
3.7250001 -0.27990884 0.2300678 0
3.7180002 -0.2854014 0.23043399 0
3.7110002 -0.29086876 0.23080015 0
3.7040002 -0.29631087 0.23116633 0
3.6980002 -0.30180526 0.23148018 0
3.6910002 -0.30719864 0.23184636 0
3.6840003 -0.31256679 0.23221253 0
3.6780002 -0.31799266 0.23252639 0
3.6710002 -0.32331204 0.23289257 0
3.6640003 -0.32860625 0.23325874 0
3.6580002 -0.33396357 0.2335726 0
3.6510003 -0.33920902 0.23393877 0
3.6450002 -0.34452125 0.23425265 0
3.6380002 -0.349718 0.23461881 0
3.6320002 -0.35498515 0.23493268 0
3.6250002 -0.3601332 0.23529886 0
3.6190002 -0.36535522 0.23561271 0
3.6120002 -0.37045461 0.23597889 0
3.6060002 -0.37563151 0.23629276 0
3.5990002 -0.3806822 0.23665892 0
3.5930002 -0.38581401 0.23697279 0
3.5870001 -0.39092419 0.23728664 0
3.5810003 -0.39601278 0.23760051 0
3.5740004 -0.40096781 0.23796669 0
3.5680003 -0.40601128 0.23828053 0
3.5620003 -0.41103306 0.2385944 0
3.5560002 -0.41603324 0.23890828 0
3.5490003 -0.42089269 0.23927444 0
3.5430002 -0.42584774 0.23958831 0
3.5370002 -0.43078116 0.23990218 0
3.5310001 -0.43569291 0.24021603 0
3.5250003 -0.44058305 0.24052988 0
3.5190003 -0.44545156 0.24084376 0
3.5130002 -0.45029837 0.24115761 0
3.5070002 -0.45512354 0.24147148 0
3.5010002 -0.45992708 0.24178535 0
3.4950001 -0.46470898 0.24209923 0
3.4890003 -0.46946925 0.24241306 0
3.4830003 -0.47420785 0.24272692 0
3.4770002 -0.47892481 0.2430408 0
3.4710002 -0.48362011 0.24335465 0
3.4660003 -0.4884381 0.24361619 0
3.4600003 -0.49309191 0.24393007 0
3.4540002 -0.49772409 0.24424393 0
3.4480002 -0.50233459 0.2445578 0
3.4420002 -0.5069235 0.24487166 0
3.4370003 -0.51164407 0.24513321 0
3.4310002 -0.51619148 0.24544708 0
3.4250002 -0.5207172 0.24576093 0
3.4200003 -0.52538007 0.24602248 0
3.4140003 -0.52986431 0.24633636 0
3.4080002 -0.53432691 0.24665022 0
3.4030004 -0.53893209 0.24691176 0
3.3970003 -0.54335326 0.24722561 0
3.3920002 -0.54792047 0.24748717 0
3.3860002 -0.55230016 0.24780105 0
3.3810003 -0.55682945 0.2480626 0
3.3750002 -0.5611676 0.24837646 0
3.3700001 -0.56565911 0.24863802 0
3.3640003 -0.56995577 0.24895187 0
3.3590002 -0.57440937 0.24921343 0
3.3530002 -0.5786646 0.24952729 0
3.3480003 -0.58308029 0.24978884 0
3.3420002 -0.58729398 0.2501027 0
3.3370001 -0.59167182 0.25036424 0
3.3320003 -0.59603161 0.25062579 0
3.3260002 -0.60018402 0.25093967 0
3.3210003 -0.60450596 0.25120121 0
3.3160002 -0.60880983 0.25146276 0
3.3110003 -0.6130957 0.2517243 0
3.3050003 -0.61716688 0.25203818 0
3.3000002 -0.62141478 0.25229973 0
3.2950003 -0.6256448 0.25256127 0
3.2900002 -0.62985665 0.25282285 0
3.2840002 -0.63384664 0.25313669 0
3.2790003 -0.63802069 0.25339824 0
3.2740002 -0.64217663 0.25365981 0
3.2690003 -0.64631462 0.25392136 0
3.2640002 -0.65043449 0.25418293 0
3.2590003 -0.65453637 0.25444448 0
3.2540002 -0.65862018 0.25470603 0
3.2490003 -0.66268599 0.25496757 0
3.2440002 -0.66673374 0.25522912 0
3.2390003 -0.67076343 0.25549066 0
3.0300002 -0.83825064 0.26642355 0
3.0260003 -0.84178251 0.2666328 0
3.0220003 -0.84529996 0.26684204 0
3.0170002 -0.84849626 0.26710361 0
3.0130002 -0.85198301 0.26731282 0
3.0090003 -0.8554554 0.2675221 0
3.0050001 -0.85891324 0.26773131 0
3.0000002 -0.86204284 0.26799288 0
2.9960003 -0.86547011 0.26820213 0
2.9920001 -0.86888289 0.26841137 0
2.9880002 -0.87228125 0.26862061 0
2.9070003 -0.93686301 0.27285773 0
2.9040003 -0.9403137 0.27301466 0
2.9000001 -0.94339454 0.27322394 0
2.8960001 -0.94646108 0.27343315 0
2.8920002 -0.94951314 0.27364239 0
2.8880002 -0.95255071 0.27385163 0
2.8840003 -0.95557398 0.2740609 0
2.8800001 -0.95858264 0.27427012 0
2.8770003 -0.96194679 0.27442706 0
2.8730001 -0.96492845 0.2746363 0
2.8690002 -0.96789569 0.27484554 0
2.8650002 -0.97084856 0.27505478 0
2.8610003 -0.97378701 0.27526402 0
2.8580003 -0.97708976 0.27542096 0
2.8540003 -0.98000115 0.27563018 0
2.8500001 -0.982898 0.27583945 0
2.8460002 -0.98578054 0.27604866 0
2.8430002 -0.98903453 0.2762056 0
2.8390002 -0.99188995 0.27641487 0
2.8350003 -0.99473095 0.27662408 0
2.8320003 -0.99794894 0.27678102 0
2.8280003 -1.0007628 0.27699026 0
2.8240001 -1.0035623 0.27719951 0
3.8090003 -0.21202792 0.21952455 0
3.8020003 -0.21782357 0.21990335 0
3.7950003 -0.22359395 0.22028214 0
3.7880003 -0.22933908 0.22066094 0
3.7810001 -0.23505895 0.22103976 0
3.7740002 -0.24075356 0.22141854 0
3.7670002 -0.24642293 0.22179735 0
3.7600002 -0.25206706 0.22217615 0
3.7530003 -0.2576859 0.22255495 0
3.7460003 -0.26327953 0.22293374 0
3.7390003 -0.26884788 0.22331254 0
3.7320004 -0.274391 0.22369134 0
3.7250001 -0.27990884 0.22407015 0
3.7180002 -0.2854014 0.22444895 0
3.7110002 -0.29086876 0.22482775 0
3.7040002 -0.29631087 0.22520654 0
3.6980002 -0.30180526 0.22553124 0
3.6910002 -0.30719864 0.22591002 0
3.6840003 -0.31256679 0.22628883 0
3.6780002 -0.31799266 0.22661351 0
3.6710002 -0.32331204 0.22699231 0
3.6640003 -0.32860625 0.22737111 0
3.6580002 -0.33396357 0.22769579 0
3.6510003 -0.33920902 0.2280746 0
3.6450002 -0.34452125 0.22839928 0
3.6380002 -0.349718 0.22877808 0
3.6320002 -0.35498515 0.22910276 0
3.6250002 -0.3601332 0.22948156 0
3.6190002 -0.36535522 0.22980626 0
3.6120002 -0.37045461 0.23018506 0
3.6060002 -0.37563151 0.23050974 0
3.5990002 -0.3806822 0.23088855 0
3.5930002 -0.38581401 0.23121323 0
3.5870001 -0.39092419 0.23153792 0
3.5810003 -0.39601278 0.23186259 0
3.5740004 -0.40096781 0.23224139 0
3.5680003 -0.40601128 0.23256607 0
3.5620003 -0.41103306 0.23289075 0
3.5560002 -0.41603324 0.23321545 0
3.5490003 -0.42089269 0.23359425 0
3.5430002 -0.42584774 0.23391894 0
3.5370002 -0.43078116 0.23424363 0
3.5310001 -0.43569291 0.23456831 0
3.5250003 -0.44058305 0.23489298 0
3.5190003 -0.44545156 0.23521768 0
3.5130002 -0.45029837 0.23554236 0
3.5070002 -0.45512354 0.23586704 0
3.5010002 -0.45992708 0.23619175 0
3.4950001 -0.46470898 0.23651643 0
3.4890003 -0.46946925 0.2368411 0
3.4830003 -0.47420785 0.23716579 0
3.4770002 -0.47892481 0.23749048 0
3.4710002 -0.48362011 0.23781516 0
3.4660003 -0.4884381 0.23808573 0
3.4600003 -0.49309191 0.23841041 0
3.4540002 -0.49772409 0.23873511 0
3.4480002 -0.50233459 0.23905979 0
3.4420002 -0.5069235 0.23938447 0
3.4370003 -0.51164407 0.23965503 0
3.4310002 -0.51619148 0.23997973 0
3.4250002 -0.5207172 0.24030443 0
3.4200003 -0.52538007 0.24057499 0
3.4140003 -0.52986431 0.24089967 0
3.4080002 -0.53432691 0.24122436 0
3.4030004 -0.53893209 0.24149492 0
3.3970003 -0.54335326 0.24181962 0
3.3920002 -0.54792047 0.2420902 0
3.3860002 -0.55230016 0.24241488 0
3.3810003 -0.55682945 0.24268544 0
3.3750002 -0.5611676 0.24301012 0
3.3700001 -0.56565911 0.24328071 0
3.3640003 -0.56995577 0.24360539 0
3.3590002 -0.57440937 0.24387595 0
3.3530002 -0.5786646 0.24420065 0
3.3480003 -0.58308029 0.24447122 0
3.3420002 -0.58729398 0.2447959 0
3.3370001 -0.59167182 0.24506648 0
3.3320003 -0.59603161 0.24533704 0
3.3260002 -0.60018402 0.24566172 0
3.3210003 -0.60450596 0.2459323 0
3.3160002 -0.60880983 0.24620287 0
3.3110003 -0.6130957 0.24647343 0
3.3050003 -0.61716688 0.24679811 0
3.3000002 -0.62141478 0.2470687 0
3.2950003 -0.6256448 0.24733926 0
3.2900002 -0.62985665 0.24760984 0
3.2840002 -0.63384664 0.24793452 0
3.2790003 -0.63802069 0.2482051 0
3.2740002 -0.64217663 0.24847567 0
3.2690003 -0.64631462 0.24874623 0
3.2640002 -0.65043449 0.24901681 0
3.2590003 -0.65453637 0.24928738 0
3.2540002 -0.65862018 0.24955796 0
3.2490003 -0.66268599 0.24982852 0
3.2440002 -0.66673374 0.25009912 0
3.2390003 -0.67076343 0.25036967 0
3.0300002 -0.83825064 0.26167953 0
3.0260003 -0.84178251 0.26189601 0
3.0220003 -0.84529996 0.26211244 0
3.0170002 -0.84849626 0.26238304 0
3.0130002 -0.85198301 0.26259947 0
3.0090003 -0.8554554 0.26281595 0
3.0050001 -0.85891324 0.26303241 0
3.0000002 -0.86204284 0.26330298 0
2.9960003 -0.86547011 0.26351941 0
2.9920001 -0.86888289 0.26373589 0
2.9880002 -0.87228125 0.26395234 0
2.9070003 -0.93686301 0.26833558 0
2.9040003 -0.9403137 0.26849794 0
2.9000001 -0.94339454 0.2687144 0
2.8960001 -0.94646108 0.26893085 0
2.8920002 -0.94951314 0.26914731 0
2.8880002 -0.95255071 0.26936376 0
2.8840003 -0.95557398 0.26958025 0
2.8800001 -0.95858264 0.26979667 0
2.8770003 -0.96194679 0.26995903 0
2.8730001 -0.96492845 0.27017549 0
2.8690002 -0.96789569 0.27039194 0
2.8650002 -0.97084856 0.2706084 0
2.8610003 -0.97378701 0.27082485 0
2.8580003 -0.97708976 0.27098721 0
2.8540003 -0.98000115 0.27120364 0
2.8500001 -0.982898 0.27142012 0
2.8460002 -0.98578054 0.27163655 0
2.8430002 -0.98903453 0.27179891 0
2.8390002 -0.99188995 0.27201536 0
2.8350003 -0.99473095 0.27223182 0
2.8320003 -0.99794894 0.27239418 0
2.8280003 -1.0007628 0.2726106 0
2.8240001 -1.0035623 0.27282709 0
3.8090003 -0.21202792 0.21337536 0
3.8020003 -0.21782357 0.21376678 0
3.7950003 -0.22359395 0.21415821 0
3.7880003 -0.22933908 0.21454965 0
3.7810001 -0.23505895 0.21494107 0
3.7740002 -0.24075356 0.21533251 0
3.7670002 -0.24642293 0.21572392 0
3.7600002 -0.25206706 0.21611536 0
3.7530003 -0.2576859 0.21650676 0
3.7460003 -0.26327953 0.2168982 0
3.7390003 -0.26884788 0.21728961 0
3.7320004 -0.274391 0.21768105 0
3.7250001 -0.27990884 0.21807247 0
3.7180002 -0.2854014 0.21846391 0
3.7110002 -0.29086876 0.21885534 0
3.7040002 -0.29631087 0.21924676 0
3.6980002 -0.30180526 0.21958226 0
3.6910002 -0.30719864 0.2199737 0
3.6840003 -0.31256679 0.22036511 0
3.6780002 -0.31799266 0.22070064 0
3.6710002 -0.32331204 0.22109206 0
3.6640003 -0.32860625 0.22148348 0
3.6580002 -0.33396357 0.221819 0
3.6510003 -0.33920902 0.22221041 0
3.6450002 -0.34452125 0.22254594 0
3.6380002 -0.349718 0.22293735 0
3.6320002 -0.35498515 0.22327286 0
3.6250002 -0.3601332 0.22366428 0
3.6190002 -0.36535522 0.2239998 0
3.6120002 -0.37045461 0.22439122 0
3.6060002 -0.37563151 0.22472674 0
3.5990002 -0.3806822 0.22511815 0
3.5930002 -0.38581401 0.22545367 0
3.5870001 -0.39092419 0.22578917 0
3.5810003 -0.39601278 0.22612467 0
3.5740004 -0.40096781 0.22651611 0
3.5680003 -0.40601128 0.22685161 0
3.5620003 -0.41103306 0.22718713 0
3.5560002 -0.41603324 0.22752263 0
3.5490003 -0.42089269 0.22791407 0
3.5430002 -0.42584774 0.22824956 0
3.5370002 -0.43078116 0.22858508 0
3.5310001 -0.43569291 0.22892058 0
3.5250003 -0.44058305 0.22925609 0
3.5190003 -0.44545156 0.22959161 0
3.5130002 -0.45029837 0.22992711 0
3.5070002 -0.45512354 0.23026262 0
3.5010002 -0.45992708 0.23059812 0
3.4950001 -0.46470898 0.23093364 0
3.4890003 -0.46946925 0.23126914 0
3.4830003 -0.47420785 0.23160465 0
3.4770002 -0.47892481 0.23194017 0
3.4710002 -0.48362011 0.23227566 0
3.4660003 -0.4884381 0.23255526 0
3.4600003 -0.49309191 0.23289075 0
3.4540002 -0.49772409 0.23322627 0
3.4480002 -0.50233459 0.23356178 0
3.4420002 -0.5069235 0.2338973 0
3.4370003 -0.51164407 0.23417689 0
3.4310002 -0.51619148 0.23451239 0
3.4250002 -0.5207172 0.2348479 0
3.4200003 -0.52538007 0.23512748 0
3.4140003 -0.52986431 0.23546299 0
3.4080002 -0.53432691 0.23579851 0
3.4030004 -0.53893209 0.23607808 0
3.3970003 -0.54335326 0.2364136 0
3.3920002 -0.54792047 0.23669319 0
3.3860002 -0.55230016 0.2370287 0
3.3810003 -0.55682945 0.23730829 0
3.3750002 -0.5611676 0.23764379 0
3.3700001 -0.56565911 0.2379234 0
3.3640003 -0.56995577 0.23825888 0
3.3590002 -0.57440937 0.23853849 0
3.3530002 -0.5786646 0.238874 0
3.3480003 -0.58308029 0.23915358 0
3.3420002 -0.58729398 0.23948909 0
3.3370001 -0.59167182 0.23976868 0
3.3320003 -0.59603161 0.24004827 0
3.3260002 -0.60018402 0.24038379 0
3.3210003 -0.60450596 0.24066336 0
3.3160002 -0.60880983 0.24094297 0
3.3110003 -0.6130957 0.24122256 0
3.3050003 -0.61716688 0.24155806 0
3.3000002 -0.62141478 0.24183767 0
3.2950003 -0.6256448 0.24211723 0
3.2900002 -0.62985665 0.24239683 0
3.2840002 -0.63384664 0.24273235 0
3.2790003 -0.63802069 0.24301192 0
3.2740002 -0.64217663 0.24329153 0
3.2690003 -0.64631462 0.24357112 0
3.2640002 -0.65043449 0.24385071 0
3.2590003 -0.65453637 0.2441303 0
3.2540002 -0.65862018 0.24440989 0
3.2490003 -0.66268599 0.24468946 0
3.2440002 -0.66673374 0.24496907 0
3.2390003 -0.67076343 0.24524865 0
3.0300002 -0.83825064 0.25693554 0
3.0260003 -0.84178251 0.2571592 0
3.0220003 -0.84529996 0.25738287 0
3.0170002 -0.84849626 0.25766248 0
3.0130002 -0.85198301 0.25788611 0
3.0090003 -0.8554554 0.25810981 0
3.0050001 -0.85891324 0.2583335 0
3.0000002 -0.86204284 0.25861305 0
2.9960003 -0.86547011 0.25883675 0
2.9920001 -0.86888289 0.25906044 0
2.9880002 -0.87228125 0.25928408 0
2.9070003 -0.93686301 0.26381344 0
2.9040003 -0.9403137 0.26398119 0
2.9000001 -0.94339454 0.26420489 0
2.8960001 -0.94646108 0.26442856 0
2.8920002 -0.94951314 0.26465222 0
2.8880002 -0.95255071 0.26487589 0
2.8840003 -0.95557398 0.26509956 0
2.8800001 -0.95858264 0.26532325 0
2.8770003 -0.96194679 0.26549098 0
2.8730001 -0.96492845 0.26571465 0
2.8690002 -0.96789569 0.26593834 0
2.8650002 -0.97084856 0.26616198 0
2.8610003 -0.97378701 0.26638567 0
2.8580003 -0.97708976 0.26655343 0
2.8540003 -0.98000115 0.2667771 0
2.8500001 -0.982898 0.26700079 0
2.8460002 -0.98578054 0.26722443 0
2.8430002 -0.98903453 0.26739222 0
