# .PCD v0.7 - Point Cloud Data file format
VERSION 0.7
FIELDS x y z intensity
SIZE 4 4 4 4
TYPE F F F F
COUNT 1 1 1 1
WIDTH 1376
HEIGHT 1
VIEWPOINT 0 0 0 1 0 0 0
POINTS 1376
DATA ascii
5.9810004 -0.46881625 0.80668217 0
5.9850001 -0.47919354 0.80697072 0
5.9890003 -0.48958531 0.80725938 0
5.9930005 -0.49999148 0.80754805 0
5.9960003 -0.51032907 0.80776441 0
6.0000005 -0.52076232 0.80805308 0
6.0040002 -0.53120995 0.80834162 0
6.0080004 -0.54167205 0.80863023 0
6.0120006 -0.55214864 0.80891889 0
6.0160003 -0.56263953 0.8092075 0
6.0200005 -0.57314491 0.8094961 0
6.0240002 -0.58366472 0.80978471 0
6.0280004 -0.594199 0.81007332 0
6.0320005 -0.60474765 0.81036198 0
6.0350003 -0.6152097 0.81057835 0
6.0390005 -0.62578547 0.81086701 0
6.0430002 -0.63637561 0.81115556 0
6.0470004 -0.64698017 0.81144416 0
6.0510006 -0.65759927 0.81173289 0
6.0550003 -0.66823268 0.81202143 0
6.0590005 -0.67888057 0.81231004 0
6.0630002 -0.68954283 0.81259865 0
6.0670004 -0.70021963 0.81288725 0
6.0710006 -0.7109108 0.81317592 0
6.0750003 -0.72161639 0.81346446 0
6.0790005 -0.7323364 0.81375313 0
6.0830002 -0.74307084 0.81404173 0
6.0870004 -0.75381976 0.81433034 0
6.0910006 -0.76458311 0.81461895 0
6.0950003 -0.77536082 0.81490755 0
6.0990005 -0.78615308 0.81519616 0
6.1030002 -0.79695958 0.81548476 0
5.9880004 -0.44918725 0.79710758 0
5.9770002 -0.45845339 0.79633367 0
5.9810004 -0.46881625 0.79661512 0
5.9850001 -0.47919354 0.79689646 0
5.9890003 -0.48958531 0.79717791 0
5.9930005 -0.49999148 0.7974593 0
5.9960003 -0.51032907 0.79767036 0
6.0000005 -0.52076232 0.7979517 0
6.0040002 -0.53120995 0.79823315 0
6.0080004 -0.54167205 0.79851449 0
6.0120006 -0.55214864 0.79879594 0
6.0160003 -0.56263953 0.79907727 0
6.0200005 -0.57314491 0.79935873 0
6.0240002 -0.58366472 0.79964006 0
6.0280004 -0.594199 0.79992151 0
6.0320005 -0.60474765 0.80020285 0
6.0350003 -0.6152097 0.80041397 0
6.0390005 -0.62578547 0.8006953 0
6.0430002 -0.63637561 0.80097675 0
6.0470004 -0.64698017 0.80125809 0
6.0510006 -0.65759927 0.80153954 0
6.0550003 -0.66823268 0.80182087 0
6.0590005 -0.67888057 0.80210233 0
6.0630002 -0.68954283 0.80238366 0
6.0670004 -0.70021963 0.80266511 0
6.0710006 -0.7109108 0.80294651 0
6.0750003 -0.72161639 0.8032279 0
6.0790005 -0.7323364 0.80350924 0
6.0830002 -0.74307084 0.80379069 0
6.0870004 -0.75381976 0.80407202 0
6.0910006 -0.76458311 0.80435348 0
6.0950003 -0.77536082 0.80463481 0
6.0990005 -0.78615308 0.80491626 0
6.1030002 -0.79695958 0.8051976 0
5.9880004 -0.44918725 0.78702784 0
5.9770002 -0.45845339 0.78627384 0
5.9810004 -0.46881625 0.78654808 0
5.9850001 -0.47919354 0.7868222 0
5.9890003 -0.48958531 0.78709638 0
5.9930005 -0.49999148 0.78737056 0
5.9960003 -0.51032907 0.7875762 0
6.0000005 -0.52076232 0.78785038 0
6.0040002 -0.53120995 0.78812456 0
6.0080004 -0.54167205 0.78839874 0
6.0120006 -0.55214864 0.78867292 0
6.0160003 -0.56263953 0.78894711 0
6.0200005 -0.57314491 0.78922129 0
6.0240002 -0.58366472 0.78949547 0
6.0280004 -0.594199 0.78976965 0
6.0320005 -0.60474765 0.79004383 0
6.0350003 -0.6152097 0.79024947 0
6.0390005 -0.62578547 0.79052365 0
6.0430002 -0.63637561 0.79079783 0
6.0470004 -0.64698017 0.79107201 0
6.0510006 -0.65759927 0.79134619 0
6.0550003 -0.66823268 0.79162037 0
6.0590005 -0.67888057 0.79189456 0
6.0630002 -0.68954283 0.79216874 0
6.0670004 -0.70021963 0.79244292 0
6.0710006 -0.7109108 0.7927171 0
6.0750003 -0.72161639 0.79299128 0
6.0790005 -0.7323364 0.79326546 0
6.0830002 -0.74307084 0.79353964 0
6.0870004 -0.75381976 0.79381382 0
6.0910006 -0.76458311 0.79408801 0
6.0950003 -0.77536082 0.79436213 0
6.0990005 -0.78615308 0.79463637 0
6.1030002 -0.79695958 0.79491049 0
5.9880004 -0.44918725 0.77694821 0
5.9770002 -0.45845339 0.776214 0
5.9810004 -0.46881625 0.77648103 0
5.9850001 -0.47919354 0.77674794 0
5.9890003 -0.48958531 0.77701497 0
5.9930005 -0.49999148 0.77728188 0
5.9960003 -0.51032907 0.77748209 0
6.0000005 -0.52076232 0.77774906 0
6.0040002 -0.53120995 0.77801603 0
6.0080004 -0.54167205 0.778283 0
6.0120006 -0.55214864 0.77854997 0
6.0160003 -0.56263953 0.77881694 0
6.0200005 -0.57314491 0.77908391 0
6.0240002 -0.58366472 0.77935088 0
6.0280004 -0.594199 0.77961779 0
6.0320005 -0.60474765 0.77988482 0
6.0350003 -0.6152097 0.78008503 0
6.0390005 -0.62578547 0.780352 0
6.0430002 -0.63637561 0.78061891 0
6.0470004 -0.64698017 0.78088593 0
6.0510006 -0.65759927 0.78115284 0
6.0550003 -0.66823268 0.78141981 0
6.0590005 -0.67888057 0.78168678 0
6.0630002 -0.68954283 0.78195375 0
6.0670004 -0.70021963 0.78222072 0
6.0710006 -0.7109108 0.78248769 0
6.0750003 -0.72161639 0.78275466 0
6.0790005 -0.7323364 0.78302163 0
6.0830002 -0.74307084 0.78328854 0
6.0870004 -0.75381976 0.78355551 0
6.0910006 -0.76458311 0.78382254 0
6.0950003 -0.77536082 0.78408945 0
6.0990005 -0.78615308 0.78435642 0
6.1030002 -0.79695958 0.78462338 0
5.9880004 -0.44918725 0.76686853 0
5.9770002 -0.45845339 0.76615417 0
5.9810004 -0.46881625 0.76641393 0
5.9850001 -0.47919354 0.76667368 0
5.9890003 -0.48958531 0.76693344 0
5.9930005 -0.49999148 0.7671932 0
5.9960003 -0.51032907 0.76738799 0
6.0000005 -0.52076232 0.76764774 0
6.0040002 -0.53120995 0.7679075 0
6.0080004 -0.54167205 0.76816726 0
6.0120006 -0.55214864 0.76842701 0
6.0160003 -0.56263953 0.76868677 0
6.0200005 -0.57314491 0.76894653 0
6.0240002 -0.58366472 0.76920623 0
6.0280004 -0.594199 0.76946598 0
6.0320005 -0.60474765 0.76972574 0
6.0350003 -0.6152097 0.76992059 0
6.0390005 -0.62578547 0.77018034 0
6.0430002 -0.63637561 0.77044004 0
6.0470004 -0.64698017 0.7706998 0
6.0510006 -0.65759927 0.77095956 0
6.0550003 -0.66823268 0.77121925 0
6.0590005 -0.67888057 0.77147901 0
6.0630002 -0.68954283 0.77173877 0
6.0670004 -0.70021963 0.77199852 0
6.0710006 -0.7109108 0.77225828 0
6.0750003 -0.72161639 0.77251804 0
6.0790005 -0.7323364 0.7727778 0
6.0830002 -0.74307084 0.77303755 0
6.0870004 -0.75381976 0.77329731 0
6.0910006 -0.76458311 0.77355707 0
6.0950003 -0.77536082 0.77381676 0
6.0990005 -0.78615308 0.77407658 0
6.1030002 -0.79695958 0.77433622 0
5.9880004 -0.44918725 0.75678885 0
5.9770002 -0.45845339 0.75609434 0
5.9810004 -0.46881625 0.75634688 0
5.9850001 -0.47919354 0.75659943 0
5.9890003 -0.48958531 0.75685191 0
5.9930005 -0.49999148 0.75710452 0
5.9960003 -0.51032907 0.75729388 0
6.0000005 -0.52076232 0.75754642 0
6.0040002 -0.53120995 0.75779891 0
6.0080004 -0.54167205 0.75805151 0
6.0120006 -0.55214864 0.758304 0
6.0160003 -0.56263953 0.7585566 0
6.0200005 -0.57314491 0.75880909 0
6.0240002 -0.58366472 0.75906157 0
6.0280004 -0.594199 0.75931418 0
6.0320005 -0.60474765 0.75956666 0
6.0350003 -0.6152097 0.75975609 0
6.0390005 -0.62578547 0.76000863 0
6.0430002 -0.63637561 0.76026118 0
6.0470004 -0.64698017 0.76051366 0
6.0510006 -0.65759927 0.76076627 0
6.0550003 -0.66823268 0.76101875 0
6.0590005 -0.67888057 0.7612713 0
6.0630002 -0.68954283 0.76152384 0
6.0670004 -0.70021963 0.76177633 0
6.0710006 -0.7109108 0.76202893 0
6.0750003 -0.72161639 0.76228142 0
6.0790005 -0.7323364 0.76253396 0
6.0830002 -0.74307084 0.76278651 0
6.0870004 -0.75381976 0.76303899 0
6.0910006 -0.76458311 0.7632916 0
6.0950003 -0.77536082 0.76354408 0
6.0990005 -0.78615308 0.76379663 0
6.1030002 -0.79695958 0.76404917 0
5.9880004 -0.44918725 0.74670911 0
5.9770002 -0.45845339 0.7460345 0
5.9810004 -0.46881625 0.74627984 0
5.9850001 -0.47919354 0.74652517 0
5.9890003 -0.48958531 0.7467705 0
5.9930005 -0.49999148 0.74701583 0
5.9960003 -0.51032907 0.74719977 0
6.0000005 -0.52076232 0.74744511 0
6.0040002 -0.53120995 0.74769044 0
6.0080004 -0.54167205 0.74793577 0
6.0120006 -0.55214864 0.7481811 0
6.0160003 -0.56263953 0.74842632 0
6.0200005 -0.57314491 0.74867171 0
6.0240002 -0.58366472 0.74891698 0
6.0280004 -0.594199 0.74916232 0
6.0320005 -0.60474765 0.74940765 0
6.0350003 -0.6152097 0.74959165 0
6.0390005 -0.62578547 0.74983692 0
6.0430002 -0.63637561 0.75008225 0
6.0470004 -0.64698017 0.75032759 0
6.0510006 -0.65759927 0.75057292 0
6.0550003 -0.66823268 0.75081825 0
6.0590005 -0.67888057 0.75106353 0
6.0630002 -0.68954283 0.75130886 0
6.0670004 -0.70021963 0.75155419 0
6.0710006 -0.7109108 0.75179946 0
6.0750003 -0.72161639 0.7520448 0
6.0790005 -0.7323364 0.75229013 0
6.0830002 -0.74307084 0.75253546 0
6.0870004 -0.75381976 0.7527808 0
6.0910006 -0.76458311 0.75302613 0
6.0950003 -0.77536082 0.7532714 0
6.0990005 -0.78615308 0.75351667 0
6.1030002 -0.79695958 0.75376201 0
5.9880004 -0.44918725 0.73662949 0
5.9770002 -0.45845339 0.73597467 0
5.9810004 -0.46881625 0.73621279 0
5.9850001 -0.47919354 0.73645091 0
5.9890003 -0.48958531 0.73668897 0
5.9930005 -0.49999148 0.73692715 0
5.9960003 -0.51032907 0.73710567 0
6.0000005 -0.52076232 0.73734379 0
6.0040002 -0.53120995 0.73758185 0
6.0080004 -0.54167205 0.73781997 0
6.0120006 -0.55214864 0.73805809 0
6.0160003 -0.56263953 0.73829615 0
6.0200005 -0.57314491 0.73853427 0
6.0240002 -0.58366472 0.73877239 0
6.0280004 -0.594199 0.73901051 0
6.0320005 -0.60474765 0.73924863 0
6.0350003 -0.6152097 0.73942715 0
6.0390005 -0.62578547 0.73966527 0
6.0430002 -0.63637561 0.73990339 0
6.0470004 -0.64698017 0.74014151 0
6.0510006 -0.65759927 0.74037957 0
6.0550003 -0.66823268 0.74061769 0
6.0590005 -0.67888057 0.74085581 0
6.0630002 -0.68954283 0.74109387 0
6.0670004 -0.70021963 0.74133205 0
6.0710006 -0.7109108 0.74157012 0
6.0750003 -0.72161639 0.74180818 0
6.0790005 -0.7323364 0.7420463 0
6.0830002 -0.74307084 0.74228442 0
6.0870004 -0.75381976 0.74252248 0
6.0910006 -0.76458311 0.7427606 0
6.0950003 -0.77536082 0.74299872 0
6.0990005 -0.78615308 0.74323684 0
6.1030002 -0.79695958 0.7434749 0
5.9880004 -0.44918725 0.72654974 0
5.9770002 -0.45845339 0.72591484 0
5.9810004 -0.46881625 0.72614574 0
5.9850001 -0.47919354 0.72637665 0
5.9890003 -0.48958531 0.7266075 0
5.9930005 -0.49999148 0.72683841 0
5.9960003 -0.51032907 0.72701156 0
6.0000005 -0.52076232 0.72724247 0
6.0040002 -0.53120995 0.72747332 0
6.0080004 -0.54167205 0.72770423 0
6.0120006 -0.55214864 0.72793514 0
6.0160003 -0.56263953 0.72816598 0
6.0200005 -0.57314491 0.72839689 0
6.0240002 -0.58366472 0.7286278 0
6.0280004 -0.594199 0.72885865 0
6.0320005 -0.60474765 0.72908956 0
6.0350003 -0.6152097 0.72926271 0
6.0390005 -0.62578547 0.72949362 0
6.0430002 -0.63637561 0.72972447 0
6.0470004 -0.64698017 0.72995538 0
6.0510006 -0.65759927 0.73018628 0
6.0550003 -0.66823268 0.73041713 0
6.0590005 -0.67888057 0.73064804 0
6.0630002 -0.68954283 0.73087895 0
6.0670004 -0.70021963 0.73110986 0
6.0710006 -0.7109108 0.73134071 0
6.0750003 -0.72161639 0.73157156 0
6.0790005 -0.7323364 0.73180246 0
6.0830002 -0.74307084 0.73203337 0
6.0870004 -0.75381976 0.73226428 0
6.0910006 -0.76458311 0.73249519 0
6.0950003 -0.77536082 0.73272598 0
6.0990005 -0.78615308 0.73295689 0
6.1030002 -0.79695958 0.73318779 0
5.9880004 -0.44918725 0.71647012 0
5.9770002 -0.45845339 0.715855 0
5.9810004 -0.46881625 0.7160787 0
5.9850001 -0.47919354 0.71630234 0
5.9890003 -0.48958531 0.71652603 0
5.9930005 -0.49999148 0.71674967 0
5.9960003 -0.51032907 0.71691746 0
6.0000005 -0.52076232 0.71714115 0
6.0040002 -0.53120995 0.71736479 0
6.0080004 -0.54167205 0.71758842 0
6.0120006 -0.55214864 0.71781218 0
6.0160003 -0.56263953 0.71803582 0
6.0200005 -0.57314491 0.71825951 0
6.0240002 -0.58366472 0.71848315 0
6.0280004 -0.594199 0.71870685 0
6.0320005 -0.60474765 0.71893048 0
6.0350003 -0.6152097 0.71909827 0
6.0390005 -0.62578547 0.71932197 0
6.0430002 -0.63637561 0.7195456 0
6.0470004 -0.64698017 0.71976924 0
6.0510006 -0.65759927 0.719993 0
6.0550003 -0.66823268 0.72021663 0
6.0590005 -0.67888057 0.72044027 0
6.0630002 -0.68954283 0.72066396 0
6.0670004 -0.70021963 0.72088766 0
6.0710006 -0.7109108 0.7211113 0
6.0750003 -0.72161639 0.72133493 0
6.0790005 -0.7323364 0.72155869 0
6.0830002 -0.74307084 0.72178233 0
6.0870004 -0.75381976 0.72200596 0
6.0910006 -0.76458311 0.72222972 0
6.0950003 -0.77536082 0.72245336 0
6.0990005 -0.78615308 0.72267699 0
6.1030002 -0.79695958 0.72290063 0
5.9880004 -0.44918725 0.70639044 0
5.9770002 -0.45845339 0.70579517 0
5.9810004 -0.46881625 0.70601165 0
5.9850001 -0.47919354 0.70622808 0
5.9890003 -0.48958531 0.70644456 0
5.9930005 -0.49999148 0.70666099 0
5.9960003 -0.51032907 0.70682335 0
6.0000005 -0.52076232 0.70703983 0
6.0040002 -0.53120995 0.7072562 0
6.0080004 -0.54167205 0.70747268 0
6.0120006 -0.55214864 0.70768917 0
6.0160003 -0.56263953 0.70790565 0
6.0200005 -0.57314491 0.70812207 0
6.0240002 -0.58366472 0.7083385 0
6.0280004 -0.594199 0.70855498 0
6.0320005 -0.60474765 0.70877147 0
6.0350003 -0.6152097 0.70893383 0
6.0390005 -0.62578547 0.70915025 0
6.0430002 -0.63637561 0.70936668 0
6.0470004 -0.64698017 0.70958316 0
6.0510006 -0.65759927 0.70979965 0
6.0550003 -0.66823268 0.71001607 0
6.0590005 -0.67888057 0.71023256 0
6.0630002 -0.68954283 0.71044898 0
6.0670004 -0.70021963 0.71066546 0
6.0710006 -0.7109108 0.71088195 0
6.0750003 -0.72161639 0.71109831 0
6.0790005 -0.7323364 0.7113148 0
6.0830002 -0.74307084 0.71153128 0
6.0870004 -0.75381976 0.71174777 0
6.0910006 -0.76458311 0.71196419 0
6.0950003 -0.77536082 0.71218061 0
6.0990005 -0.78615308 0.7123971 0
6.1030002 -0.79695958 0.71261358 0
5.9880004 -0.44918725 0.69631076 0
5.9770002 -0.45845339 0.69573534 0
5.9810004 -0.46881625 0.69594455 0
5.9850001 -0.47919354 0.69615376 0
5.9890003 -0.48958531 0.69636309 0
5.9930005 -0.49999148 0.6965723 0
5.9960003 -0.51032907 0.69672924 0
6.0000005 -0.52076232 0.69693851 0
6.0040002 -0.53120995 0.69714773 0
6.0080004 -0.54167205 0.69735694 0
6.0120006 -0.55214864 0.69756621 0
6.0160003 -0.56263953 0.69777542 0
6.0200005 -0.57314491 0.6979847 0
6.0240002 -0.58366472 0.69819391 0
6.0280004 -0.594199 0.69840312 0
6.0320005 -0.60474765 0.69861245 0
6.0350003 -0.6152097 0.69876933 0
6.0390005 -0.62578547 0.69897854 0
6.0430002 -0.63637561 0.69918782 0
6.0470004 -0.64698017 0.69939709 0
6.0510006 -0.65759927 0.6996063 0
6.0550003 -0.66823268 0.69981551 0
6.0590005 -0.67888057 0.70002478 0
6.0630002 -0.68954283 0.70023406 0
6.0670004 -0.70021963 0.70044327 0
6.0710006 -0.7109108 0.70065254 0
6.0750003 -0.72161639 0.70086175 0
6.0790005 -0.7323364 0.70107102 0
6.0830002 -0.74307084 0.70128024 0
6.0870004 -0.75381976 0.70148945 0
6.0910006 -0.76458311 0.70169878 0
6.0950003 -0.77536082 0.70190793 0
6.0990005 -0.78615308 0.7021172 0
6.1030002 -0.79695958 0.70232642 0
5.9880004 -0.44918725 0.68623102 0
5.9770002 -0.45845339 0.6856755 0
5.9810004 -0.46881625 0.6858775 0
5.9850001 -0.47919354 0.6860795 0
5.9890003 -0.48958531 0.68628156 0
5.9930005 -0.49999148 0.68648362 0
5.9960003 -0.51032907 0.68663514 0
6.0000005 -0.52076232 0.6868372 0
6.0040002 -0.53120995 0.68703914 0
6.0080004 -0.54167205 0.6872412 0
6.0120006 -0.55214864 0.68744326 0
6.0160003 -0.56263953 0.6876452 0
6.0200005 -0.57314491 0.68784726 0
6.0240002 -0.58366472 0.68804932 0
6.0280004 -0.594199 0.68825138 0
6.0320005 -0.60474765 0.68845338 0
6.0350003 -0.6152097 0.68860483 0
6.0390005 -0.62578547 0.68880689 0
6.0430002 -0.63637561 0.68900895 0
6.0470004 -0.64698017 0.68921095 0
6.0510006 -0.65759927 0.68941295 0
6.0550003 -0.66823268 0.68961501 0
6.0590005 -0.67888057 0.68981707 0
6.0630002 -0.68954283 0.69001901 0
6.0670004 -0.70021963 0.69022107 0
6.0710006 -0.7109108 0.69042313 0
6.0750003 -0.72161639 0.69062513 0
6.0790005 -0.7323364 0.69082713 0
6.0830002 -0.74307084 0.69102919 0
6.0870004 -0.75381976 0.69123125 0
6.0910006 -0.76458311 0.69143325 0
6.0950003 -0.77536082 0.69163525 0
6.0990005 -0.78615308 0.69183731 0
6.1030002 -0.79695958 0.69203931 0
5.9880004 -0.44918725 0.67615139 0
5.9770002 -0.45845339 0.67561567 0
5.9810004 -0.46881625 0.67581046 0
5.9850001 -0.47919354 0.67600524 0
5.9890003 -0.48958531 0.67620003 0
5.9930005 -0.49999148 0.67639494 0
5.9960003 -0.51032907 0.67654097 0
6.0000005 -0.52076232 0.67673582 0
6.0040002 -0.53120995 0.67693061 0
6.0080004 -0.54167205 0.67712545 0
6.0120006 -0.55214864 0.67732024 0
6.0160003 -0.56263953 0.67751503 0
6.0200005 -0.57314491 0.67770988 0
6.0240002 -0.58366472 0.67790473 0
6.0280004 -0.594199 0.67809951 0
6.0320005 -0.60474765 0.6782943 0
6.0350003 -0.6152097 0.67844045 0
6.0390005 -0.62578547 0.67863524 0
6.0430002 -0.63637561 0.67883003 0
6.0470004 -0.64698017 0.67902482 0
6.0510006 -0.65759927 0.67921966 0
6.0550003 -0.66823268 0.67941451 0
6.0590005 -0.67888057 0.6796093 0
6.0630002 -0.68954283 0.67980409 0
6.0670004 -0.70021963 0.67999887 0
6.0710006 -0.7109108 0.68019378 0
6.0750003 -0.72161639 0.68038857 0
6.0790005 -0.7323364 0.68058336 0
6.0830002 -0.74307084 0.68077815 0
6.0870004 -0.75381976 0.68097293 0
6.0910006 -0.76458311 0.68116778 0
6.0950003 -0.77536082 0.68136257 0
6.0990005 -0.78615308 0.68155742 0
6.1030002 -0.79695958 0.6817522 0
5.9880004 -0.44918725 0.66607171 0
5.9770002 -0.45845339 0.66555583 0
5.9810004 -0.46881625 0.66574341 0
5.9850001 -0.47919354 0.66593099 0
5.9890003 -0.48958531 0.66611862 0
5.9930005 -0.49999148 0.66630626 0
5.9960003 -0.51032907 0.66644692 0
6.0000005 -0.52076232 0.6666345 0
6.0040002 -0.53120995 0.66682208 0
6.0080004 -0.54167205 0.66700971 0
6.0120006 -0.55214864 0.66719729 0
6.0160003 -0.56263953 0.66738486 0
6.0200005 -0.57314491 0.6675725 0
6.0240002 -0.58366472 0.66776001 0
6.0280004 -0.594199 0.66794765 0
6.0320005 -0.60474765 0.66813529 0
6.0350003 -0.6152097 0.66827595 0
6.0390005 -0.62578547 0.66846359 0
6.0430002 -0.63637561 0.6686511 0
6.0470004 -0.64698017 0.66883874 0
6.0510006 -0.65759927 0.66902637 0
6.0550003 -0.66823268 0.66921389 0
6.0590005 -0.67888057 0.66940153 0
6.0630002 -0.68954283 0.66958916 0
6.0670004 -0.70021963 0.66977674 0
6.0710006 -0.7109108 0.66996431 0
6.0750003 -0.72161639 0.67015195 0
6.0790005 -0.7323364 0.67033952 0
6.0830002 -0.74307084 0.6705271 0
6.0870004 -0.75381976 0.67071474 0
6.0910006 -0.76458311 0.67090231 0
6.0950003 -0.77536082 0.67108989 0
6.0990005 -0.78615308 0.67127752 0
6.1030002 -0.79695958 0.67146504 0
5.9880004 -0.44918725 0.65599203 0
5.9770002 -0.45845339 0.655496 0
5.9810004 -0.46881625 0.65567636 0
5.9850001 -0.47919354 0.65585673 0
5.9890003 -0.48958531 0.65603709 0
5.9930005 -0.49999148 0.65621752 0
5.9960003 -0.51032907 0.65635276 0
6.0000005 -0.52076232 0.65653318 0
6.0040002 -0.53120995 0.65671355 0
6.0080004 -0.54167205 0.65689397 0
6.0120006 -0.55214864 0.65707433 0
6.0160003 -0.56263953 0.6572547 0
6.0200005 -0.57314491 0.65743506 0
6.0240002 -0.58366472 0.65761542 0
6.0280004 -0.594199 0.65779585 0
6.0320005 -0.60474765 0.65797627 0
6.0350003 -0.6152097 0.65811145 0
6.0390005 -0.62578547 0.65829188 0
6.0430002 -0.63637561 0.65847224 0
6.0470004 -0.64698017 0.65865266 0
6.0510006 -0.65759927 0.65883303 0
6.0550003 -0.66823268 0.65901339 0
6.0590005 -0.67888057 0.65919375 0
6.0630002 -0.68954283 0.65937412 0
6.0670004 -0.70021963 0.65955454 0
6.0710006 -0.7109108 0.65973496 0
6.0750003 -0.72161639 0.65991533 0
6.0790005 -0.7323364 0.66009569 0
6.0830002 -0.74307084 0.66027606 0
6.0870004 -0.75381976 0.66045642 0
6.0910006 -0.76458311 0.66063684 0
6.0950003 -0.77536082 0.66081721 0
6.0990005 -0.78615308 0.66099763 0
6.1030002 -0.79695958 0.66117799 0
5.9880004 -0.44918725 0.64591235 0
5.9770002 -0.45845339 0.64543617 0
5.9810004 -0.46881625 0.64560926 0
5.9850001 -0.47919354 0.64578247 0
5.9890003 -0.48958531 0.64595562 0
5.9930005 -0.49999148 0.64612877 0
5.9960003 -0.51032907 0.64625865 0
6.0000005 -0.52076232 0.64643186 0
6.0040002 -0.53120995 0.64660501 0
6.0080004 -0.54167205 0.64677817 0
6.0120006 -0.55214864 0.64695138 0
6.0160003 -0.56263953 0.64712447 0
6.0200005 -0.57314491 0.64729768 0
6.0240002 -0.58366472 0.64747083 0
6.0280004 -0.594199 0.64764398 0
6.0320005 -0.60474765 0.64781719 0
6.0350003 -0.6152097 0.64794707 0
6.0390005 -0.62578547 0.64812022 0
6.0430002 -0.63637561 0.64829338 0
6.0470004 -0.64698017 0.64846659 0
6.0510006 -0.65759927 0.64863968 0
6.0550003 -0.66823268 0.64881289 0
6.0590005 -0.67888057 0.64898604 0
6.0630002 -0.68954283 0.64915919 0
6.0670004 -0.70021963 0.6493324 0
6.0710006 -0.7109108 0.6495055 0
6.0750003 -0.72161639 0.64967871 0
6.0790005 -0.7323364 0.64985186 0
6.0830002 -0.74307084 0.65002501 0
6.0870004 -0.75381976 0.65019822 0
6.0910006 -0.76458311 0.65037137 0
6.0950003 -0.77536082 0.65054452 0
6.0990005 -0.78615308 0.65071768 0
6.1030002 -0.79695958 0.65089083 0
5.9880004 -0.44918725 0.63583267 0
5.9770002 -0.45845339 0.63537627 0
5.9810004 -0.46881625 0.63554227 0
5.9850001 -0.47919354 0.63570821 0
5.9890003 -0.48958531 0.63587415 0
5.9930005 -0.49999148 0.63604009 0
5.9960003 -0.51032907 0.63616455 0
6.0000005 -0.52076232 0.63633049 0
6.0040002 -0.53120995 0.63649642 0
6.0080004 -0.54167205 0.63666242 0
6.0120006 -0.55214864 0.63682836 0
6.0160003 -0.56263953 0.6369943 0
6.0200005 -0.57314491 0.6371603 0
6.0240002 -0.58366472 0.63732624 0
6.0280004 -0.594199 0.63749218 0
6.0320005 -0.60474765 0.63765812 0
6.0350003 -0.6152097 0.63778257 0
6.0390005 -0.62578547 0.63794851 0
6.0430002 -0.63637561 0.63811445 0
6.0470004 -0.64698017 0.63828045 0
6.0510006 -0.65759927 0.63844639 0
6.0550003 -0.66823268 0.63861233 0
6.0590005 -0.67888057 0.63877833 0
6.0630002 -0.68954283 0.63894427 0
6.0670004 -0.70021963 0.63911021 0
6.0710006 -0.7109108 0.63927615 0
6.0750003 -0.72161639 0.63944209 0
6.0790005 -0.7323364 0.63960803 0
6.0830002 -0.74307084 0.63977396 0
6.0870004 -0.75381976 0.63993996 0
6.0910006 -0.76458311 0.6401059 0
6.0950003 -0.77536082 0.64027184 0
6.0990005 -0.78615308 0.64043778 0
6.1030002 -0.79695958 0.64060372 0
5.9880004 -0.44918725 0.62575299 0
5.9770002 -0.45845339 0.62531644 0
5.9810004 -0.46881625 0.62547517 0
5.9850001 -0.47919354 0.62563396 0
5.9890003 -0.48958531 0.62579268 0
5.9930005 -0.49999148 0.62595141 0
5.9960003 -0.51032907 0.62607044 0
6.0000005 -0.52076232 0.62622917 0
6.0040002 -0.53120995 0.62638795 0
6.0080004 -0.54167205 0.62654668 0
6.0120006 -0.55214864 0.62670541 0
6.0160003 -0.56263953 0.62686414 0
6.0200005 -0.57314491 0.62702286 0
6.0240002 -0.58366472 0.62718159 0
6.0280004 -0.594199 0.62734032 0
6.0320005 -0.60474765 0.6274991 0
6.0350003 -0.6152097 0.62761813 0
6.0390005 -0.62578547 0.62777686 0
6.0430002 -0.63637561 0.62793559 0
6.0470004 -0.64698017 0.62809432 0
6.0510006 -0.65759927 0.6282531 0
6.0550003 -0.66823268 0.62841177 0
6.0590005 -0.67888057 0.62857056 0
6.0630002 -0.68954283 0.62872922 0
6.0670004 -0.70021963 0.62888801 0
6.0710006 -0.7109108 0.62904674 0
6.0750003 -0.72161639 0.62920547 0
6.0790005 -0.7323364 0.62936425 0
6.0830002 -0.74307084 0.62952292 0
6.0870004 -0.75381976 0.62968171 0
6.0910006 -0.76458311 0.62984043 0
6.0950003 -0.77536082 0.62999916 0
6.0990005 -0.78615308 0.63015789 0
6.1030002 -0.79695958 0.63031662 0
5.9880004 -0.44918725 0.6156733 0
5.9770002 -0.45845339 0.61525661 0
5.9810004 -0.46881625 0.61540812 0
5.9850001 -0.47919354 0.61555964 0
5.9890003 -0.48958531 0.61571121 0
5.9930005 -0.49999148 0.61586273 0
5.9960003 -0.51032907 0.61597633 0
6.0000005 -0.52076232 0.61612785 0
6.0040002 -0.53120995 0.61627936 0
6.0080004 -0.54167205 0.61643088 0
6.0120006 -0.55214864 0.61658245 0
6.0160003 -0.56263953 0.61673391 0
6.0200005 -0.57314491 0.61688542 0
6.0240002 -0.58366472 0.617037 0
6.0280004 -0.594199 0.61718851 0
6.0320005 -0.60474765 0.61734003 0
6.0350003 -0.6152097 0.61745369 0
6.0390005 -0.62578547 0.61760521 0
6.0430002 -0.63637561 0.61775672 0
6.0470004 -0.64698017 0.61790824 0
6.0510006 -0.65759927 0.61805975 0
6.0550003 -0.66823268 0.61821127 0
6.0590005 -0.67888057 0.61836278 0
6.0630002 -0.68954283 0.6185143 0
6.0670004 -0.70021963 0.61866581 0
6.0710006 -0.7109108 0.61881733 0
6.0750003 -0.72161639 0.61896884 0
6.0790005 -0.7323364 0.61912036 0
6.0830002 -0.74307084 0.61927187 0
6.0870004 -0.75381976 0.61942339 0
6.0910006 -0.76458311 0.61957496 0
6.0950003 -0.77536082 0.61972642 0
6.0990005 -0.78615308 0.61987799 0
6.1030002 -0.79695958 0.62002951 0
5.9880004 -0.44918725 0.60559362 0
5.9770002 -0.45845339 0.60519677 0
5.9810004 -0.46881625 0.60534108 0
5.9850001 -0.47919354 0.60548538 0
5.9890003 -0.48958531 0.60562968 0
5.9930005 -0.49999148 0.60577404 0
5.9960003 -0.51032907 0.60588223 0
6.0000005 -0.52076232 0.60602653 0
6.0040002 -0.53120995 0.60617083 0
6.0080004 -0.54167205 0.60631514 0
6.0120006 -0.55214864 0.60645944 0
6.0160003 -0.56263953 0.60660374 0
6.0200005 -0.57314491 0.60674804 0
6.0240002 -0.58366472 0.60689235 0
6.0280004 -0.594199 0.60703665 0
6.0320005 -0.60474765 0.60718095 0
6.0350003 -0.6152097 0.6072892 0
6.0390005 -0.62578547 0.6074335 0
6.0430002 -0.63637561 0.6075778 0
6.0470004 -0.64698017 0.6077221 0
6.0510006 -0.65759927 0.60786641 0
6.0550003 -0.66823268 0.60801071 0
6.0590005 -0.67888057 0.60815501 0
6.0630002 -0.68954283 0.60829931 0
6.0670004 -0.70021963 0.60844362 0
6.0710006 -0.7109108 0.60858798 0
6.0750003 -0.72161639 0.60873222 0
6.0790005 -0.7323364 0.60887659 0
6.0830002 -0.74307084 0.60902083 0
6.0870004 -0.75381976 0.60916519 0
6.0910006 -0.76458311 0.60930943 0
6.0950003 -0.77536082 0.6094538 0
6.0990005 -0.78615308 0.6095981 0
6.1030002 -0.79695958 0.6097424 0
5.9880004 -0.44918725 0.59551394 0
5.9770002 -0.45845339 0.59513694 0
5.9810004 -0.46881625 0.59527403 0
5.9850001 -0.47919354 0.59541112 0
5.9890003 -0.48958531 0.59554821 0
5.9930005 -0.49999148 0.5956853 0
5.9960003 -0.51032907 0.59578812 0
6.0000005 -0.52076232 0.59592521 0
6.0040002 -0.53120995 0.5960623 0
6.0080004 -0.54167205 0.59619939 0
6.0120006 -0.55214864 0.59633648 0
6.0160003 -0.56263953 0.59647357 0
6.0200005 -0.57314491 0.59661067 0
6.0240002 -0.58366472 0.59674776 0
6.0280004 -0.594199 0.59688485 0
6.0320005 -0.60474765 0.59702194 0
6.0350003 -0.6152097 0.59712476 0
6.0390005 -0.62578547 0.59726185 0
6.0430002 -0.63637561 0.59739894 0
6.0470004 -0.64698017 0.59753603 0
6.0510006 -0.65759927 0.59767312 0
6.0550003 -0.66823268 0.59781021 0
6.0590005 -0.67888057 0.5979473 0
6.0630002 -0.68954283 0.59808433 0
6.0670004 -0.70021963 0.59822142 0
6.0710006 -0.7109108 0.59835857 0
6.0750003 -0.72161639 0.5984956 0
6.0790005 -0.7323364 0.59863275 0
6.0830002 -0.74307084 0.59876978 0
6.0870004 -0.75381976 0.59890693 0
6.0910006 -0.76458311 0.59904397 0
6.0950003 -0.77536082 0.59918106 0
6.0990005 -0.78615308 0.59931815 0
6.1030002 -0.79695958 0.59945524 0
5.9880004 -0.44918725 0.58543426 0
5.9770002 -0.45845339 0.58507711 0
5.9810004 -0.46881625 0.58520699 0
5.9850001 -0.47919354 0.58533686 0
5.9890003 -0.48958531 0.58546674 0
5.9930005 -0.49999148 0.58559662 0
5.9960003 -0.51032907 0.58569402 0
6.0000005 -0.52076232 0.58582389 0
6.0040002 -0.53120995 0.58595377 0
6.0080004 -0.54167205 0.58608365 0
6.0120006 -0.55214864 0.58621353 0
6.0160003 -0.56263953 0.58634341 0
6.0200005 -0.57314491 0.58647323 0
6.0240002 -0.58366472 0.58660311 0
6.0280004 -0.594199 0.58673298 0
6.0320005 -0.60474765 0.58686286 0
6.0350003 -0.6152097 0.58696032 0
6.0390005 -0.62578547 0.58709013 0
6.0430002 -0.63637561 0.58722001 0
6.0470004 -0.64698017 0.58734989 0
6.0510006 -0.65759927 0.58747977 0
6.0550003 -0.66823268 0.58760965 0
6.0590005 -0.67888057 0.58773953 0
6.0630002 -0.68954283 0.58786941 0
6.0670004 -0.70021963 0.58799928 0
6.0710006 -0.7109108 0.58812916 0
6.0750003 -0.72161639 0.58825904 0
6.0790005 -0.7323364 0.58838892 0
6.0830002 -0.74307084 0.58851874 0
6.0870004 -0.75381976 0.58864868 0
6.0910006 -0.76458311 0.58877856 0
6.0950003 -0.77536082 0.58890837 0
6.0990005 -0.78615308 0.58903825 0
6.1030002 -0.79695958 0.58916813 0
5.9880004 -0.44918725 0.57535458 0
5.9770002 -0.45845339 0.57501727 0
5.9810004 -0.46881625 0.57513994 0
5.9850001 -0.47919354 0.57526255 0
5.9890003 -0.48958531 0.57538521 0
5.9930005 -0.49999148 0.57550788 0
5.9960003 -0.51032907 0.57559991 0
6.0000005 -0.52076232 0.57572258 0
6.0040002 -0.53120995 0.57584524 0
6.0080004 -0.54167205 0.57596791 0
6.0120006 -0.55214864 0.57609057 0
6.0160003 -0.56263953 0.57621318 0
6.0200005 -0.57314491 0.57633585 0
6.0240002 -0.58366472 0.57645851 0
6.0280004 -0.594199 0.57658118 0
6.0320005 -0.60474765 0.57670385 0
6.0350003 -0.6152097 0.57679582 0
6.0390005 -0.62578547 0.57691848 0
6.0430002 -0.63637561 0.57704115 0
6.0470004 -0.64698017 0.57716382 0
6.0510006 -0.65759927 0.57728648 0
6.0550003 -0.66823268 0.57740915 0
6.0590005 -0.67888057 0.57753175 0
6.0630002 -0.68954283 0.57765442 0
6.0670004 -0.70021963 0.57777709 0
6.0710006 -0.7109108 0.57789975 0
6.0750003 -0.72161639 0.57802242 0
6.0790005 -0.7323364 0.57814509 0
6.0830002 -0.74307084 0.57826769 0
6.0870004 -0.75381976 0.57839036 0
6.0910006 -0.76458311 0.57851303 0
6.0950003 -0.77536082 0.57863569 0
6.0990005 -0.78615308 0.57875836 0
6.1030002 -0.79695958 0.57888103 0
5.9880004 -0.44918725 0.56527489 0
5.9770002 -0.45845339 0.56495744 0
5.9810004 -0.46881625 0.56507289 0
5.9850001 -0.47919354 0.56518829 0
5.9890003 -0.48958531 0.56530374 0
5.9930005 -0.49999148 0.5654192 0
5.9960003 -0.51032907 0.5655058 0
6.0000005 -0.52076232 0.56562126 0
6.0040002 -0.53120995 0.56573665 0
6.0080004 -0.54167205 0.56585211 0
6.0120006 -0.55214864 0.56596756 0
6.0160003 -0.56263953 0.56608301 0
6.0200005 -0.57314491 0.56619847 0
6.0240002 -0.58366472 0.56631386 0
6.0280004 -0.594199 0.56642932 0
6.0320005 -0.60474765 0.56654477 0
6.0350003 -0.6152097 0.56663138 0
6.0390005 -0.62578547 0.56674683 0
6.0430002 -0.63637561 0.56686223 0
6.0470004 -0.64698017 0.56697768 0
6.0510006 -0.65759927 0.56709313 0
6.0550003 -0.66823268 0.56720859 0
6.0590005 -0.67888057 0.56732404 0
6.0630002 -0.68954283 0.56743944 0
6.0670004 -0.70021963 0.56755495 0
6.0710006 -0.7109108 0.56767035 0
6.0750003 -0.72161639 0.5677858 0
6.0790005 -0.7323364 0.56790125 0
6.0830002 -0.74307084 0.56801665 0
6.0870004 -0.75381976 0.56813216 0
6.0910006 -0.76458311 0.56824756 0
6.0950003 -0.77536082 0.56836301 0
6.0990005 -0.78615308 0.56847847 0
6.1030002 -0.79695958 0.56859392 0
5.9880004 -0.44918725 0.55519521 0
5.9770002 -0.45845339 0.55489755 0
5.9810004 -0.46881625 0.55500579 0
5.9850001 -0.47919354 0.55511403 0
5.9890003 -0.48958531 0.55522227 0
5.9930005 -0.49999148 0.55533051 0
5.9960003 -0.51032907 0.5554117 0
6.0000005 -0.52076232 0.55551994 0
6.0040002 -0.53120995 0.55562812 0
6.0080004 -0.54167205 0.55573636 0
6.0120006 -0.55214864 0.5558446 0
6.0160003 -0.56263953 0.55595279 0
6.0200005 -0.57314491 0.55606103 0
6.0240002 -0.58366472 0.55616927 0
6.0280004 -0.594199 0.55627751 0
6.0320005 -0.60474765 0.55638576 0
6.0350003 -0.6152097 0.55646694 0
6.0390005 -0.62578547 0.55657512 0
6.0430002 -0.63637561 0.55668336 0
6.0470004 -0.64698017 0.5567916 0
6.0510006 -0.65759927 0.55689985 0
6.0550003 -0.66823268 0.55700803 0
6.0590005 -0.67888057 0.55711627 0
6.0630002 -0.68954283 0.55722451 0
6.0670004 -0.70021963 0.55733275 0
6.0710006 -0.7109108 0.557441 0
6.0750003 -0.72161639 0.55754918 0
6.0790005 -0.7323364 0.55765742 0
6.0830002 -0.74307084 0.55776566 0
6.0870004 -0.75381976 0.5578739 0
6.0910006 -0.76458311 0.55798209 0
6.0950003 -0.77536082 0.55809033 0
6.0990005 -0.78615308 0.55819857 0
6.1030002 -0.79695958 0.55830681 0
5.9880004 -0.44918725 0.54511553 0
5.9770002 -0.45845339 0.54483777 0
5.9810004 -0.46881625 0.54493874 0
5.9850001 -0.47919354 0.54503977 0
5.9890003 -0.48958531 0.5451408 0
5.9930005 -0.49999148 0.54524183 0
5.9960003 -0.51032907 0.54531753 0
6.0000005 -0.52076232 0.54541862 0
6.0040002 -0.53120995 0.54551959 0
6.0080004 -0.54167205 0.54562062 0
6.0120006 -0.55214864 0.54572165 0
6.0160003 -0.56263953 0.54582262 0
6.0200005 -0.57314491 0.54592365 0
6.0240002 -0.58366472 0.54602468 0
6.0280004 -0.594199 0.54612565 0
6.0320005 -0.60474765 0.54622668 0
6.0350003 -0.6152097 0.54630244 0
6.0390005 -0.62578547 0.54640347 0
6.0430002 -0.63637561 0.5465045 0
6.0470004 -0.64698017 0.54660547 0
6.0510006 -0.65759927 0.5467065 0
6.0550003 -0.66823268 0.54680753 0
6.0590005 -0.67888057 0.5469085 0
6.0630002 -0.68954283 0.54700953 0
6.0670004 -0.70021963 0.54711056 0
6.0710006 -0.7109108 0.54721159 0
6.0750003 -0.72161639 0.54731256 0
6.0790005 -0.7323364 0.54741359 0
6.0830002 -0.74307084 0.54751462 0
6.0870004 -0.75381976 0.54761565 0
6.0910006 -0.76458311 0.54771662 0
6.0950003 -0.77536082 0.54781765 0
6.0990005 -0.78615308 0.54791868 0
6.1030002 -0.79695958 0.54801965 0
5.9880004 -0.44918725 0.53503585 0
5.9770002 -0.45845339 0.53477788 0
5.9810004 -0.46881625 0.5348717 0
5.9850001 -0.47919354 0.53496552 0
5.9890003 -0.48958531 0.53505933 0
5.9930005 -0.49999148 0.53515315 0
5.9960003 -0.51032907 0.53522348 0
6.0000005 -0.52076232 0.53531724 0
6.0040002 -0.53120995 0.53541106 0
6.0080004 -0.54167205 0.53550488 0
6.0120006 -0.55214864 0.53559864 0
6.0160003 -0.56263953 0.53569245 0
6.0200005 -0.57314491 0.53578627 0
6.0240002 -0.58366472 0.53588003 0
6.0280004 -0.594199 0.53597385 0
6.0320005 -0.60474765 0.53606761 0
6.0350003 -0.6152097 0.536138 0
6.0390005 -0.62578547 0.53623176 0
6.0430002 -0.63637561 0.53632557 0
6.0470004 -0.64698017 0.53641939 0
6.0510006 -0.65759927 0.53651321 0
6.0550003 -0.66823268 0.53660697 0
6.0590005 -0.67888057 0.53670079 0
6.0630002 -0.68954283 0.53679454 0
6.0670004 -0.70021963 0.53688836 0
6.0710006 -0.7109108 0.53698218 0
6.0750003 -0.72161639 0.537076 0
6.0790005 -0.7323364 0.53716975 0
6.0830002 -0.74307084 0.53726357 0
6.0870004 -0.75381976 0.53735733 0
6.0910006 -0.76458311 0.53745115 0
6.0950003 -0.77536082 0.53754497 0
6.0990005 -0.78615308 0.53763878 0
6.1030002 -0.79695958 0.53773254 0
5.9880004 -0.44918725 0.52495617 0
5.9770002 -0.45845339 0.52471805 0
5.9810004 -0.46881625 0.52480465 0
5.9850001 -0.47919354 0.52489126 0
5.9890003 -0.48958531 0.5249778 0
5.9930005 -0.49999148 0.52506441 0
5.9960003 -0.51032907 0.52512932 0
6.0000005 -0.52076232 0.52521592 0
6.0040002 -0.53120995 0.52530253 0
6.0080004 -0.54167205 0.52538908 0
6.0120006 -0.55214864 0.52547568 0
6.0160003 -0.56263953 0.52556223 0
6.0200005 -0.57314491 0.52564883 0
6.0240002 -0.58366472 0.52573544 0
6.0280004 -0.594199 0.52582198 0
6.0320005 -0.60474765 0.52590859 0
6.0350003 -0.6152097 0.52597356 0
6.0390005 -0.62578547 0.5260601 0
6.0430002 -0.63637561 0.52614671 0
6.0470004 -0.64698017 0.52623332 0
6.0510006 -0.65759927 0.52631986 0
6.0550003 -0.66823268 0.52640641 0
6.0590005 -0.67888057 0.52649301 0
6.0630002 -0.68954283 0.52657962 0
6.0670004 -0.70021963 0.52666616 0
6.0710006 -0.7109108 0.52675277 0
6.0750003 -0.72161639 0.52683938 0
6.0790005 -0.7323364 0.52692592 0
6.0830002 -0.74307084 0.52701253 0
6.0870004 -0.75381976 0.52709913 0
6.0910006 -0.76458311 0.52718568 0
6.0950003 -0.77536082 0.52727228 0
6.0990005 -0.78615308 0.52735883 0
6.1030002 -0.79695958 0.52744544 0
5.9880004 -0.44918725 0.51487648 0
5.9770002 -0.45845339 0.51465821 0
5.9810004 -0.46881625 0.51473761 0
5.9850001 -0.47919354 0.514817 0
5.9890003 -0.48958531 0.51489633 0
5.9930005 -0.49999148 0.51497573 0
5.9960003 -0.51032907 0.51503521 0
6.0000005 -0.52076232 0.51511461 0
6.0040002 -0.53120995 0.51519394 0
6.0080004 -0.54167205 0.51527333 0
6.0120006 -0.55214864 0.51535273 0
6.0160003 -0.56263953 0.51543206 0
6.0200005 -0.57314491 0.51551145 0
6.0240002 -0.58366472 0.51559079 0
6.0280004 -0.594199 0.51567018 0
6.0320005 -0.60474765 0.51574957 0
6.0350003 -0.6152097 0.51580906 0
6.0390005 -0.62578547 0.51588845 0
6.0430002 -0.63637561 0.51596779 0
6.0470004 -0.64698017 0.51604718 0
6.0510006 -0.65759927 0.51612651 0
6.0550003 -0.66823268 0.51620591 0
6.0590005 -0.67888057 0.5162853 0
6.0630002 -0.68954283 0.51636463 0
6.0670004 -0.70021963 0.51644403 0
6.0710006 -0.7109108 0.51652336 0
6.0750003 -0.72161639 0.51660275 0
6.0790005 -0.7323364 0.51668215 0
6.0830002 -0.74307084 0.51676148 0
6.0870004 -0.75381976 0.51684082 0
6.0910006 -0.76458311 0.51692021 0
6.0950003 -0.77536082 0.5169996 0
6.0990005 -0.78615308 0.51707894 0
6.1030002 -0.79695958 0.51715833 0
5.9880004 -0.44918725 0.5047968 0
5.9770002 -0.45845339 0.50459838 0
5.9810004 -0.46881625 0.50467056 0
5.9850001 -0.47919354 0.50474268 0
5.9890003 -0.48958531 0.50481486 0
5.9930005 -0.49999148 0.50488698 0
5.9960003 -0.51032907 0.50494111 0
6.0000005 -0.52076232 0.50501329 0
6.0040002 -0.53120995 0.50508541 0
6.0080004 -0.54167205 0.50515759 0
6.0120006 -0.55214864 0.50522971 0
6.0160003 -0.56263953 0.50530189 0
6.0200005 -0.57314491 0.50537401 0
6.0240002 -0.58366472 0.5054462 0
6.0280004 -0.594199 0.50551832 0
6.0320005 -0.60474765 0.5055905 0
6.0350003 -0.6152097 0.50564462 0
6.0390005 -0.62578547 0.50571674 0
6.0430002 -0.63637561 0.50578892 0
6.0470004 -0.64698017 0.50586104 0
6.0510006 -0.65759927 0.50593323 0
6.0550003 -0.66823268 0.50600535 0
6.0590005 -0.67888057 0.50607753 0
6.0630002 -0.68954283 0.50614965 0
6.0670004 -0.70021963 0.50622183 0
6.0710006 -0.7109108 0.50629401 0
6.0750003 -0.72161639 0.50636613 0
6.0790005 -0.7323364 0.50643826 0
6.0830002 -0.74307084 0.50651044 0
6.0870004 -0.75381976 0.50658262 0
6.0910006 -0.76458311 0.50665474 0
6.0950003 -0.77536082 0.50672686 0
6.0990005 -0.78615308 0.50679904 0
6.1030002 -0.79695958 0.50687122 0
5.9880004 -0.44918725 0.49471715 0
5.9770002 -0.45845339 0.49453855 0
5.9810004 -0.46881625 0.49460351 0
5.9850001 -0.47919354 0.49466842 0
5.9890003 -0.48958531 0.49473336 0
5.9930005 -0.49999148 0.4947983 0
5.9960003 -0.51032907 0.494847 0
6.0000005 -0.52076232 0.49491194 0
6.0040002 -0.53120995 0.49497688 0
6.0080004 -0.54167205 0.49504182 0
6.0120006 -0.55214864 0.49510676 0
6.0160003 -0.56263953 0.4951717 0
6.0200005 -0.57314491 0.49523664 0
6.0240002 -0.58366472 0.49530157 0
6.0280004 -0.594199 0.49536651 0
6.0320005 -0.60474765 0.49543145 0
6.0350003 -0.6152097 0.49548015 0
6.0390005 -0.62578547 0.49554509 0
6.0430002 -0.63637561 0.49561003 0
6.0470004 -0.64698017 0.49567497 0
6.0510006 -0.65759927 0.49573991 0
6.0550003 -0.66823268 0.49580485 0
6.0590005 -0.67888057 0.49586976 0
6.0630002 -0.68954283 0.49593472 0
6.0670004 -0.70021963 0.49599963 0
6.0710006 -0.7109108 0.4960646 0
6.0750003 -0.72161639 0.49612951 0
6.0790005 -0.7323364 0.49619445 0
6.0830002 -0.74307084 0.49625939 0
6.0870004 -0.75381976 0.49632433 0
6.0910006 -0.76458311 0.49638927 0
6.0950003 -0.77536082 0.49645421 0
6.0990005 -0.78615308 0.49651915 0
6.1030002 -0.79695958 0.49658406 0
5.9880004 -0.44918725 0.48463744 0
5.9770002 -0.45845339 0.48447871 0
5.9810004 -0.46881625 0.48453644 0
5.9850001 -0.47919354 0.48459417 0
5.9890003 -0.48958531 0.48465189 0
5.9930005 -0.49999148 0.48470962 0
5.9960003 -0.51032907 0.48475289 0
6.0000005 -0.52076232 0.48481062 0
6.0040002 -0.53120995 0.48486835 0
6.0080004 -0.54167205 0.48492607 0
6.0120006 -0.55214864 0.4849838 0
6.0160003 -0.56263953 0.4850415 0
6.0200005 -0.57314491 0.48509923 0
6.0240002 -0.58366472 0.48515695 0
6.0280004 -0.594199 0.48521468 0
6.0320005 -0.60474765 0.48527241 0
6.0350003 -0.6152097 0.48531568 0
6.0390005 -0.62578547 0.48537341 0
6.0430002 -0.63637561 0.48543113 0
6.0470004 -0.64698017 0.48548886 0
6.0510006 -0.65759927 0.48554659 0
6.0550003 -0.66823268 0.48560429 0
6.0590005 -0.67888057 0.48566201 0
6.0630002 -0.68954283 0.48571974 0
6.0670004 -0.70021963 0.48577747 0
6.0710006 -0.7109108 0.48583519 0
6.0750003 -0.72161639 0.48589289 0
6.0790005 -0.7323364 0.48595065 0
6.0830002 -0.74307084 0.48600835 0
6.0870004 -0.75381976 0.48606607 0
6.0910006 -0.76458311 0.4861238 0
6.0950003 -0.77536082 0.4861815 0
6.0990005 -0.78615308 0.48623925 0
6.1030002 -0.79695958 0.48629695 0
5.9880004 -0.44918725 0.47455776 0
5.9770002 -0.45845339 0.47441888 0
5.9810004 -0.46881625 0.47446939 0
5.9850001 -0.47919354 0.47451991 0
5.9890003 -0.48958531 0.47457039 0
5.9930005 -0.49999148 0.47462091 0
5.9960003 -0.51032907 0.47465879 0
6.0000005 -0.52076232 0.4747093 0
6.0040002 -0.53120995 0.47475982 0
6.0080004 -0.54167205 0.4748103 0
6.0120006 -0.55214864 0.47486082 0
6.0160003 -0.56263953 0.47491133 0
6.0200005 -0.57314491 0.47496182 0
6.0240002 -0.58366472 0.47501233 0
6.0280004 -0.594199 0.47506285 0
6.0320005 -0.60474765 0.47511336 0
6.0350003 -0.6152097 0.47515124 0
6.0390005 -0.62578547 0.47520173 0
6.0430002 -0.63637561 0.47525224 0
6.0470004 -0.64698017 0.47530276 0
6.0510006 -0.65759927 0.47535324 0
6.0550003 -0.66823268 0.47540376 0
6.0590005 -0.67888057 0.47545427 0
6.0630002 -0.68954283 0.47550476 0
6.0670004 -0.70021963 0.4755553 0
6.0710006 -0.7109108 0.47560579 0
6.0750003 -0.72161639 0.4756563 0
6.0790005 -0.7323364 0.47570682 0
6.0830002 -0.74307084 0.4757573 0
6.0870004 -0.75381976 0.47580782 0
6.0910006 -0.76458311 0.47585833 0
6.0950003 -0.77536082 0.47590882 0
6.0990005 -0.78615308 0.47595933 0
6.1030002 -0.79695958 0.47600985 0
5.9880004 -0.44918725 0.46447811 0
5.9770002 -0.45845339 0.46435905 0
5.9810004 -0.46881625 0.46440232 0
5.9850001 -0.47919354 0.46444562 0
5.9890003 -0.48958531 0.46448892 0
5.9930005 -0.49999148 0.4645322 0
5.9960003 -0.51032907 0.46456468 0
6.0000005 -0.52076232 0.46460798 0
6.0040002 -0.53120995 0.46465126 0
6.0080004 -0.54167205 0.46469456 0
6.0120006 -0.55214864 0.46473786 0
6.0160003 -0.56263953 0.46478114 0
6.0200005 -0.57314491 0.46482444 0
6.0240002 -0.58366472 0.46486771 0
6.0280004 -0.594199 0.46491101 0
6.0320005 -0.60474765 0.46495432 0
6.0350003 -0.6152097 0.46498677 0
6.0390005 -0.62578547 0.46503007 0
6.0430002 -0.63637561 0.46507335 0
6.0470004 -0.64698017 0.46511665 0
6.0510006 -0.65759927 0.46515995 0
6.0550003 -0.66823268 0.46520323 0
6.0590005 -0.67888057 0.46524653 0
6.0630002 -0.68954283 0.4652898 0
6.0670004 -0.70021963 0.4653331 0
6.0710006 -0.7109108 0.46537638 0
6.0750003 -0.72161639 0.46541968 0
6.0790005 -0.7323364 0.46546298 0
6.0830002 -0.74307084 0.46550626 0
6.0870004 -0.75381976 0.46554956 0
6.0910006 -0.76458311 0.46559286 0
6.0950003 -0.77536082 0.46563613 0
6.0990005 -0.78615308 0.46567944 0
6.1030002 -0.79695958 0.46572274 0
5.9880004 -0.44918725 0.45439842 0
5.9770002 -0.45845339 0.45429921 0
5.9810004 -0.46881625 0.45433527 0
5.9850001 -0.47919354 0.45437136 0
5.9890003 -0.48958531 0.45440742 0
5.9930005 -0.49999148 0.45444351 0
5.9960003 -0.51032907 0.45447057 0
6.0000005 -0.52076232 0.45450664 0
6.0040002 -0.53120995 0.45454273 0
6.0080004 -0.54167205 0.45457879 0
6.0120006 -0.55214864 0.45461488 0
6.0160003 -0.56263953 0.45465094 0
6.0200005 -0.57314491 0.45468703 0
6.0240002 -0.58366472 0.45472309 0
6.0280004 -0.594199 0.45475918 0
6.0320005 -0.60474765 0.45479524 0
6.0350003 -0.6152097 0.4548223 0
6.0390005 -0.62578547 0.45485839 0
6.0430002 -0.63637561 0.45489445 0
6.0470004 -0.64698017 0.45493054 0
6.0510006 -0.65759927 0.4549666 0
6.0550003 -0.66823268 0.4550027 0
6.0590005 -0.67888057 0.45503876 0
6.0630002 -0.68954283 0.45507485 0
6.0670004 -0.70021963 0.45511091 0
6.0710006 -0.7109108 0.455147 0
6.0750003 -0.72161639 0.45518306 0
6.0790005 -0.7323364 0.45521915 0
6.0830002 -0.74307084 0.45525521 0
6.0870004 -0.75381976 0.4552913 0
6.0910006 -0.76458311 0.45532739 0
6.0950003 -0.77536082 0.45536345 0
6.0990005 -0.78615308 0.45539954 0
6.1030002 -0.79695958 0.4554356 0
5.9880004 -0.44918725 0.44431874 0
5.9770002 -0.45845339 0.44423938 0
5.9810004 -0.46881625 0.44426823 0
5.9850001 -0.47919354 0.44429708 0
5.9890003 -0.48958531 0.44432595 0
5.9930005 -0.49999148 0.4443548 0
5.9960003 -0.51032907 0.44437647 0
6.0000005 -0.52076232 0.44440532 0
6.0040002 -0.53120995 0.44443417 0
6.0080004 -0.54167205 0.44446304 0
6.0120006 -0.55214864 0.44449189 0
6.0160003 -0.56263953 0.44452077 0
6.0200005 -0.57314491 0.44454962 0
6.0240002 -0.58366472 0.44457847 0
6.0280004 -0.594199 0.44460735 0
6.0320005 -0.60474765 0.4446362 0
6.0350003 -0.6152097 0.44465786 0
6.0390005 -0.62578547 0.44468671 0
6.0430002 -0.63637561 0.44471556 0
6.0470004 -0.64698017 0.44474444 0
6.0510006 -0.65759927 0.44477329 0
6.0550003 -0.66823268 0.44480217 0
6.0590005 -0.67888057 0.44483101 0
6.0630002 -0.68954283 0.44485986 0
6.0670004 -0.70021963 0.44488874 0
6.0710006 -0.7109108 0.44491759 0
6.0750003 -0.72161639 0.44494647 0
6.0790005 -0.7323364 0.44497532 0
6.0830002 -0.74307084 0.44500417 0
6.0870004 -0.75381976 0.44503304 0
6.0910006 -0.76458311 0.44506192 0
6.0950003 -0.77536082 0.44509077 0
6.0990005 -0.78615308 0.44511962 0
6.1030002 -0.79695958 0.4451485 0
5.9880004 -0.44918725 0.43423906 0
5.9770002 -0.45845339 0.43417954 0
5.9810004 -0.46881625 0.43420118 0
5.9850001 -0.47919354 0.43422282 0
5.9890003 -0.48958531 0.43424445 0
5.9930005 -0.49999148 0.43426612 0
5.9960003 -0.51032907 0.43428233 0
6.0000005 -0.52076232 0.434304 0
6.0040002 -0.53120995 0.43432564 0
6.0080004 -0.54167205 0.43434727 0
6.0120006 -0.55214864 0.43436894 0
6.0160003 -0.56263953 0.43439057 0
6.0200005 -0.57314491 0.43441221 0
6.0240002 -0.58366472 0.43443388 0
6.0280004 -0.594199 0.43445551 0
6.0320005 -0.60474765 0.43447715 0
6.0350003 -0.6152097 0.43449339 0
6.0390005 -0.62578547 0.43451503 0
6.0430002 -0.63637561 0.4345367 0
6.0470004 -0.64698017 0.43455833 0
6.0510006 -0.65759927 0.43457997 0
6.0550003 -0.66823268 0.4346016 0
6.0590005 -0.67888057 0.43462327 0
6.0630002 -0.68954283 0.43464491 0
6.0670004 -0.70021963 0.43466657 0
6.0710006 -0.7109108 0.43468821 0
6.0750003 -0.72161639 0.43470985 0
6.0790005 -0.7323364 0.43473148 0
6.0830002 -0.74307084 0.43475315 0
6.0870004 -0.75381976 0.43477479 0
6.0910006 -0.76458311 0.43479642 0
6.0950003 -0.77536082 0.43481809 0
6.0990005 -0.78615308 0.43483973 0
6.1030002 -0.79695958 0.43486136 0
5.9880004 -0.44918725 0.42415938 0
5.9770002 -0.45845339 0.42411968 0
5.9810004 -0.46881625 0.42413414 0
5.9850001 -0.47919354 0.42414856 0
5.9890003 -0.48958531 0.42416298 0
5.9930005 -0.49999148 0.42417741 0
5.9960003 -0.51032907 0.42418823 0
6.0000005 -0.52076232 0.42420268 0
6.0040002 -0.53120995 0.4242171 0
6.0080004 -0.54167205 0.42423153 0
6.0120006 -0.55214864 0.42424595 0
6.0160003 -0.56263953 0.42426038 0
6.0200005 -0.57314491 0.42427483 0
6.0240002 -0.58366472 0.42428926 0
6.0280004 -0.594199 0.42430368 0
6.0320005 -0.60474765 0.4243181 0
6.0350003 -0.6152097 0.42432892 0
6.0390005 -0.62578547 0.42434338 0
6.0430002 -0.63637561 0.4243578 0
6.0470004 -0.64698017 0.42437223 0
6.0510006 -0.65759927 0.42438665 0
6.0550003 -0.66823268 0.42440107 0
6.0590005 -0.67888057 0.42441553 0
6.0630002 -0.68954283 0.42442995 0
6.0670004 -0.70021963 0.42444438 0
6.0710006 -0.7109108 0.4244588 0
6.0750003 -0.72161639 0.42447323 0
6.0790005 -0.7323364 0.42448768 0
6.0830002 -0.74307084 0.4245021 0
6.0870004 -0.75381976 0.42451653 0
6.0910006 -0.76458311 0.42453095 0
6.0950003 -0.77536082 0.42454538 0
6.0990005 -0.78615308 0.42455983 0
6.1030002 -0.79695958 0.42457426 0
5.9880004 -0.44918725 0.4140797 0
5.9770002 -0.45845339 0.41405985 0
5.9810004 -0.46881625 0.41406706 0
5.9850001 -0.47919354 0.41407427 0
5.9890003 -0.48958531 0.41408148 0
5.9930005 -0.49999148 0.41408873 0
5.9960003 -0.51032907 0.41409412 0
6.0000005 -0.52076232 0.41410133 0
6.0040002 -0.53120995 0.41410854 0
6.0080004 -0.54167205 0.41411576 0
6.0120006 -0.55214864 0.414123 0
6.0160003 -0.56263953 0.41413021 0
6.0200005 -0.57314491 0.41413742 0
6.0240002 -0.58366472 0.41414464 0
6.0280004 -0.594199 0.41415185 0
6.0320005 -0.60474765 0.41415906 0
6.0350003 -0.6152097 0.41416448 0
6.0390005 -0.62578547 0.4141717 0
6.0430002 -0.63637561 0.41417891 0
6.0470004 -0.64698017 0.41418612 0
6.0510006 -0.65759927 0.41419333 0
6.0550003 -0.66823268 0.41420054 0
6.0590005 -0.67888057 0.41420776 0
6.0630002 -0.68954283 0.41421497 0
6.0670004 -0.70021963 0.41422218 0
6.0710006 -0.7109108 0.41422942 0
6.0750003 -0.72161639 0.41423663 0
6.0790005 -0.7323364 0.41424385 0
6.0830002 -0.74307084 0.41425106 0
6.0870004 -0.75381976 0.41425827 0
6.0910006 -0.76458311 0.41426548 0
6.0950003 -0.77536082 0.4142727 0
6.0990005 -0.78615308 0.41427991 0
6.1030002 -0.79695958 0.41428712 0
5.9880004 -0.44918725 0.40400001 0
5.9770002 -0.45845339 0.40400001 0
5.9810004 -0.46881625 0.40400001 0
5.9850001 -0.47919354 0.40400001 0
5.9890003 -0.48958531 0.40400001 0
5.9930005 -0.49999148 0.40400001 0
5.9960003 -0.51032907 0.40400001 0
6.0000005 -0.52076232 0.40400001 0
6.0040002 -0.53120995 0.40400001 0
6.0080004 -0.54167205 0.40400001 0
6.0120006 -0.55214864 0.40400001 0
6.0160003 -0.56263953 0.40400001 0
6.0200005 -0.57314491 0.40400001 0
6.0240002 -0.58366472 0.40400001 0
6.0280004 -0.594199 0.40400001 0
6.0320005 -0.60474765 0.40400001 0
6.0350003 -0.6152097 0.40400001 0
6.0390005 -0.62578547 0.40400001 0
