# .PCD v0.7 - Point Cloud Data file format
VERSION 0.7
FIELDS x y z intensity
SIZE 4 4 4 4
TYPE F F F F
COUNT 1 1 1 1
WIDTH 1458
HEIGHT 1
VIEWPOINT 0 0 0 1 0 0 0
POINTS 1458
DATA ascii
5.9750004 2.5686202 0.52467477 0
5.9760003 2.559031 0.52469641 0
5.9770002 2.5494385 0.52471805 0
5.9780002 2.5398419 0.52473974 0
5.9790006 2.5302422 0.52476138 0
5.9800005 2.5206389 0.52478302 0
5.9820004 2.5114899 0.52482629 0
5.9830003 2.5018773 0.52484792 0
5.9840002 2.4922609 0.52486962 0
5.9850001 2.4826412 0.52489126 0
5.9860005 2.4730184 0.52491289 0
5.9870005 2.4633913 0.52493453 0
5.9880004 2.4537609 0.52495617 0
5.9890003 2.4441266 0.5249778 0
5.9900002 2.4344888 0.5249995 0
5.9910002 2.4248474 0.52502114 0
5.9920006 2.4152026 0.52504277 0
5.9930005 2.4055541 0.52506441 0
5.9940004 2.3959017 0.52508605 0
5.9950004 2.386246 0.52510768 0
5.9960003 2.3765867 0.52512932 0
5.9970002 2.3669236 0.52515101 0
5.9980001 2.3572569 0.52517265 0
5.9990005 2.3475869 0.52519429 0
6.0000005 2.337913 0.52521592 0
6.0020003 2.3286595 0.5252592 0
6.0030003 2.3189766 0.52528083 0
6.0040002 2.3092902 0.52530253 0
6.0050006 2.2996001 0.52532417 0
6.0060005 2.2899065 0.5253458 0
6.0070004 2.2802093 0.52536744 0
6.0080004 2.2705083 0.52538908 0
6.0090003 2.2608037 0.52541071 0
6.0100002 2.2510955 0.52543235 0
6.0110002 2.241384 0.52545404 0
6.0120006 2.2316687 0.52547568 0
6.0130005 2.2219498 0.52549732 0
6.0140004 2.2122273 0.52551895 0
6.0150003 2.2025011 0.52554059 0
6.0160003 2.1927712 0.52556223 0
6.0170002 2.1830378 0.52558392 0
6.0190005 2.173696 0.5256272 0
6.0200005 2.1639535 0.52564883 0
6.0210004 2.1542077 0.52567047 0
6.0220003 2.1444581 0.52569211 0
6.0230002 2.1347051 0.5257138 0
6.0240002 2.124948 0.52573544 0
6.0250006 2.1151879 0.52575707 0
6.0260005 2.1054237 0.52577871 0
6.0270004 2.0956562 0.52580035 0
6.0280004 2.0858848 0.52582198 0
6.0290003 2.0761101 0.52584368 0
6.0300002 2.0663316 0.52586532 0
6.0310001 2.0565495 0.52588695 0
6.0320005 2.0467641 0.52590859 0
6.0330005 2.0369747 0.52593023 0
6.0350003 2.0275497 0.52597356 0
6.0360003 2.0177515 0.52599519 0
6.0370002 2.0079496 0.52601683 0
6.0380006 1.9981439 0.52603847 0
6.0410004 1.9890566 0.52610338 0
5.9720001 2.5973654 0.51455903 0
5.9730005 2.5877874 0.51457888 0
5.9740005 2.5782056 0.51459873 0
5.9750004 2.5686202 0.51461858 0
5.9760003 2.559031 0.51463842 0
5.9770002 2.5494385 0.51465821 0
5.9780002 2.5398419 0.51467806 0
5.9790006 2.5302422 0.51469791 0
5.9800005 2.5206389 0.51471776 0
5.9820004 2.5114899 0.51475745 0
5.9830003 2.5018773 0.5147773 0
5.9840002 2.4922609 0.51479715 0
5.9850001 2.4826412 0.514817 0
5.9860005 2.4730184 0.51483679 0
5.9870005 2.4633913 0.51485664 0
5.9880004 2.4537609 0.51487648 0
5.9890003 2.4441266 0.51489633 0
5.9900002 2.4344888 0.51491618 0
5.9910002 2.4248474 0.51493603 0
5.9920006 2.4152026 0.51495588 0
5.9930005 2.4055541 0.51497573 0
5.9940004 2.3959017 0.51499557 0
5.9950004 2.386246 0.51501536 0
5.9960003 2.3765867 0.51503521 0
5.9970002 2.3669236 0.51505506 0
5.9980001 2.3572569 0.51507491 0
5.9990005 2.3475869 0.51509476 0
6.0000005 2.337913 0.51511461 0
6.0020003 2.3286595 0.5151543 0
6.0030003 2.3189766 0.51517415 0
6.0040002 2.3092902 0.51519394 0
6.0050006 2.2996001 0.51521385 0
6.0060005 2.2899065 0.51523364 0
6.0070004 2.2802093 0.51525348 0
6.0080004 2.2705083 0.51527333 0
6.0090003 2.2608037 0.51529318 0
6.0100002 2.2510955 0.51531303 0
6.0110002 2.241384 0.51533288 0
6.0120006 2.2316687 0.51535273 0
6.0130005 2.2219498 0.51537251 0
6.0140004 2.2122273 0.51539242 0
6.0150003 2.2025011 0.51541221 0
6.0160003 2.1927712 0.51543206 0
6.0170002 2.1830378 0.51545191 0
6.0190005 2.173696 0.5154916 0
6.0200005 2.1639535 0.51551145 0
6.0210004 2.1542077 0.5155313 0
6.0220003 2.1444581 0.51555109 0
6.0230002 2.1347051 0.51557094 0
6.0240002 2.124948 0.51559079 0
6.0250006 2.1151879 0.51561064 0
6.0260005 2.1054237 0.51563048 0
6.0270004 2.0956562 0.51565033 0
6.0280004 2.0858848 0.51567018 0
6.0290003 2.0761101 0.51569003 0
6.0300002 2.0663316 0.51570988 0
6.0310001 2.0565495 0.51572967 0
6.0320005 2.0467641 0.51574957 0
6.0330005 2.0369747 0.51576936 0
6.0350003 2.0275497 0.51580906 0
6.0360003 2.0177515 0.51582891 0
6.0370002 2.0079496 0.51584876 0
6.0380006 1.9981439 0.5158686 0
6.0410004 1.9890566 0.51592815 0
5.9720001 2.5973654 0.5045082 0
5.9730005 2.5877874 0.50452626 0
5.9740005 2.5782056 0.50454426 0
5.9750004 2.5686202 0.50456232 0
5.9760003 2.559031 0.50458038 0
5.9770002 2.5494385 0.50459838 0
5.9780002 2.5398419 0.50461644 0
5.9790006 2.5302422 0.5046345 0
5.9800005 2.5206389 0.5046525 0
5.9820004 2.5114899 0.50468862 0
5.9830003 2.5018773 0.50470662 0
5.9840002 2.4922609 0.50472468 0
5.9850001 2.4826412 0.50474268 0
5.9860005 2.4730184 0.50476074 0
5.9870005 2.4633913 0.5047788 0
5.9880004 2.4537609 0.5047968 0
5.9890003 2.4441266 0.50481486 0
5.9900002 2.4344888 0.50483286 0
5.9910002 2.4248474 0.50485092 0
5.9920006 2.4152026 0.50486898 0
5.9930005 2.4055541 0.50488698 0
5.9940004 2.3959017 0.50490505 0
5.9950004 2.386246 0.50492311 0
5.9960003 2.3765867 0.50494111 0
5.9970002 2.3669236 0.50495917 0
5.9980001 2.3572569 0.50497723 0
5.9990005 2.3475869 0.50499523 0
6.0000005 2.337913 0.50501329 0
6.0020003 2.3286595 0.50504935 0
6.0030003 2.3189766 0.50506741 0
6.0040002 2.3092902 0.50508541 0
6.0050006 2.2996001 0.50510347 0
6.0060005 2.2899065 0.50512153 0
6.0070004 2.2802093 0.50513953 0
6.0080004 2.2705083 0.50515759 0
6.0090003 2.2608037 0.50517559 0
6.0100002 2.2510955 0.50519365 0
6.0110002 2.241384 0.50521171 0
6.0120006 2.2316687 0.50522971 0
6.0130005 2.2219498 0.50524777 0
6.0140004 2.2122273 0.50526583 0
6.0150003 2.2025011 0.50528383 0
6.0160003 2.1927712 0.50530189 0
6.0170002 2.1830378 0.50531995 0
6.0190005 2.173696 0.50535601 0
6.0200005 2.1639535 0.50537401 0
6.0210004 2.1542077 0.50539207 0
6.0220003 2.1444581 0.50541013 0
6.0230002 2.1347051 0.50542814 0
6.0240002 2.124948 0.5054462 0
6.0250006 2.1151879 0.5054642 0
6.0260005 2.1054237 0.50548226 0
6.0270004 2.0956562 0.50550032 0
6.0280004 2.0858848 0.50551832 0
6.0290003 2.0761101 0.50553638 0
6.0300002 2.0663316 0.50555444 0
6.0310001 2.0565495 0.50557244 0
6.0320005 2.0467641 0.5055905 0
6.0330005 2.0369747 0.50560856 0
6.0350003 2.0275497 0.50564462 0
6.0360003 2.0177515 0.50566262 0
6.0370002 2.0079496 0.50568068 0
6.0380006 1.9981439 0.50569874 0
6.0410004 1.9890566 0.50575286 0
5.9720001 2.5973654 0.49445739 0
5.9730005 2.5877874 0.49447364 0
5.9740005 2.5782056 0.49448985 0
5.9750004 2.5686202 0.49450609 0
5.9760003 2.559031 0.49452233 0
5.9770002 2.5494385 0.49453855 0
5.9780002 2.5398419 0.49455479 0
5.9790006 2.5302422 0.49457103 0
5.9800005 2.5206389 0.49458727 0
5.9820004 2.5114899 0.49461973 0
5.9830003 2.5018773 0.49463597 0
5.9840002 2.4922609 0.49465221 0
5.9850001 2.4826412 0.49466842 0
5.9860005 2.4730184 0.49468467 0
5.9870005 2.4633913 0.49470091 0
5.9880004 2.4537609 0.49471715 0
5.9890003 2.4441266 0.49473336 0
5.9900002 2.4344888 0.49474961 0
5.9910002 2.4248474 0.49476582 0
5.9920006 2.4152026 0.49478209 0
5.9930005 2.4055541 0.4947983 0
5.9940004 2.3959017 0.49481454 0
5.9950004 2.386246 0.49483079 0
5.9960003 2.3765867 0.494847 0
5.9970002 2.3669236 0.49486324 0
5.9980001 2.3572569 0.49487948 0
5.9990005 2.3475869 0.4948957 0
6.0000005 2.337913 0.49491194 0
6.0020003 2.3286595 0.49494442 0
6.0030003 2.3189766 0.49496067 0
6.0040002 2.3092902 0.49497688 0
6.0050006 2.2996001 0.49499312 0
6.0060005 2.2899065 0.49500936 0
6.0070004 2.2802093 0.49502558 0
6.0080004 2.2705083 0.49504182 0
6.0090003 2.2608037 0.49505806 0
6.0100002 2.2510955 0.49507427 0
6.0110002 2.241384 0.49509051 0
6.0120006 2.2316687 0.49510676 0
6.0130005 2.2219498 0.495123 0
6.0140004 2.2122273 0.49513924 0
6.0150003 2.2025011 0.49515545 0
6.0160003 2.1927712 0.4951717 0
6.0170002 2.1830378 0.49518794 0
6.0190005 2.173696 0.49522039 0
6.0200005 2.1639535 0.49523664 0
6.0210004 2.1542077 0.49525288 0
6.0220003 2.1444581 0.49526912 0
6.0230002 2.1347051 0.49528533 0
6.0240002 2.124948 0.49530157 0
6.0250006 2.1151879 0.49531782 0
6.0260005 2.1054237 0.49533403 0
6.0270004 2.0956562 0.49535027 0
6.0280004 2.0858848 0.49536651 0
6.0290003 2.0761101 0.49538273 0
6.0300002 2.0663316 0.49539897 0
6.0310001 2.0565495 0.49541521 0
6.0320005 2.0467641 0.49543145 0
6.0330005 2.0369747 0.4954477 0
6.0350003 2.0275497 0.49548015 0
6.0360003 2.0177515 0.49549639 0
6.0370002 2.0079496 0.4955126 0
6.0380006 1.9981439 0.49552885 0
6.0410004 1.9890566 0.49557754 0
5.9730005 2.5877874 0.48442101 0
5.9740005 2.5782056 0.48443544 0
5.9750004 2.5686202 0.48444986 0
5.9760003 2.559031 0.48446429 0
5.9770002 2.5494385 0.48447871 0
5.9780002 2.5398419 0.48449314 0
5.9790006 2.5302422 0.48450759 0
5.9800005 2.5206389 0.48452201 0
5.9820004 2.5114899 0.48455086 0
5.9830003 2.5018773 0.48456532 0
5.9840002 2.4922609 0.48457974 0
5.9850001 2.4826412 0.48459417 0
5.9860005 2.4730184 0.48460859 0
5.9870005 2.4633913 0.48462301 0
5.9880004 2.4537609 0.48463744 0
5.9890003 2.4441266 0.48465189 0
5.9900002 2.4344888 0.48466632 0
5.9910002 2.4248474 0.48468074 0
5.9920006 2.4152026 0.4846952 0
5.9930005 2.4055541 0.48470962 0
5.9940004 2.3959017 0.48472404 0
5.9950004 2.386246 0.48473847 0
5.9960003 2.3765867 0.48475289 0
5.9970002 2.3669236 0.48476732 0
5.9980001 2.3572569 0.48478174 0
5.9990005 2.3475869 0.4847962 0
6.0000005 2.337913 0.48481062 0
6.0020003 2.3286595 0.4848395 0
6.0030003 2.3189766 0.48485392 0
6.0040002 2.3092902 0.48486835 0
6.0050006 2.2996001 0.48488277 0
6.0060005 2.2899065 0.4848972 0
6.0070004 2.2802093 0.48491162 0
6.0080004 2.2705083 0.48492607 0
6.0090003 2.2608037 0.4849405 0
6.0100002 2.2510955 0.48495492 0
6.0110002 2.241384 0.48496935 0
6.0120006 2.2316687 0.4849838 0
6.0130005 2.2219498 0.48499823 0
6.0140004 2.2122273 0.48501265 0
6.0150003 2.2025011 0.48502707 0
6.0160003 2.1927712 0.4850415 0
6.0170002 2.1830378 0.48505592 0
6.0190005 2.173696 0.4850848 0
6.0200005 2.1639535 0.48509923 0
6.0210004 2.1542077 0.48511368 0
6.0220003 2.1444581 0.4851281 0
6.0230002 2.1347051 0.48514253 0
6.0240002 2.124948 0.48515695 0
6.0250006 2.1151879 0.48517138 0
6.0260005 2.1054237 0.4851858 0
6.0270004 2.0956562 0.48520026 0
6.0280004 2.0858848 0.48521468 0
6.0290003 2.0761101 0.4852291 0
6.0300002 2.0663316 0.48524353 0
6.0310001 2.0565495 0.48525795 0
6.0320005 2.0467641 0.48527241 0
6.0330005 2.0369747 0.48528683 0
6.0350003 2.0275497 0.48531568 0
6.0360003 2.0177515 0.4853301 0
6.0370002 2.0079496 0.48534453 0
6.0380006 1.9981439 0.48535898 0
6.0410004 1.9890566 0.48540229 0
5.9730005 2.5877874 0.47436839 0
5.9740005 2.5782056 0.474381 0
5.9750004 2.5686202 0.47439364 0
5.9760003 2.559031 0.47440624 0
5.9770002 2.5494385 0.47441888 0
5.9780002 2.5398419 0.47443151 0
5.9790006 2.5302422 0.47444415 0
5.9800005 2.5206389 0.47445676 0
5.9820004 2.5114899 0.474482 0
5.9830003 2.5018773 0.47449464 0
5.9840002 2.4922609 0.47450727 0
5.9850001 2.4826412 0.47451991 0
5.9860005 2.4730184 0.47453254 0
5.9870005 2.4633913 0.47454515 0
5.9880004 2.4537609 0.47455776 0
5.9890003 2.4441266 0.47457039 0
5.9900002 2.4344888 0.47458303 0
5.9910002 2.4248474 0.47459567 0
5.9920006 2.4152026 0.4746083 0
5.9930005 2.4055541 0.47462091 0
5.9940004 2.3959017 0.47463354 0
5.9950004 2.386246 0.47464615 0
5.9960003 2.3765867 0.47465879 0
5.9970002 2.3669236 0.47467142 0
5.9980001 2.3572569 0.47468406 0
5.9990005 2.3475869 0.47469667 0
6.0000005 2.337913 0.4747093 0
6.0020003 2.3286595 0.47473454 0
6.0030003 2.3189766 0.47474718 0
6.0040002 2.3092902 0.47475982 0
6.0050006 2.2996001 0.47477245 0
6.0060005 2.2899065 0.47478506 0
6.0070004 2.2802093 0.47479767 0
6.0080004 2.2705083 0.4748103 0
6.0090003 2.2608037 0.47482294 0
6.0100002 2.2510955 0.47483557 0
6.0110002 2.241384 0.47484818 0
6.0120006 2.2316687 0.47486082 0
6.0130005 2.2219498 0.47487345 0
6.0140004 2.2122273 0.47488606 0
6.0150003 2.2025011 0.4748987 0
6.0160003 2.1927712 0.47491133 0
6.0170002 2.1830378 0.47492394 0
6.0190005 2.173696 0.47494921 0
6.0200005 2.1639535 0.47496182 0
6.0210004 2.1542077 0.47497445 0
6.0220003 2.1444581 0.47498709 0
6.0230002 2.1347051 0.4749997 0
6.0240002 2.124948 0.47501233 0
6.0250006 2.1151879 0.47502497 0
6.0260005 2.1054237 0.47503757 0
6.0270004 2.0956562 0.47505021 0
6.0280004 2.0858848 0.47506285 0
6.0290003 2.0761101 0.47507548 0
6.0300002 2.0663316 0.47508809 0
6.0310001 2.0565495 0.47510073 0
6.0320005 2.0467641 0.47511336 0
6.0330005 2.0369747 0.47512597 0
6.0350003 2.0275497 0.47515124 0
6.0360003 2.0177515 0.47516385 0
6.0370002 2.0079496 0.47517648 0
6.0380006 1.9981439 0.47518912 0
6.0410004 1.9890566 0.475227 0
5.9730005 2.5877874 0.46431577 0
5.9740005 2.5782056 0.46432656 0
5.9750004 2.5686202 0.46433741 0
5.9760003 2.559031 0.46434823 0
5.9770002 2.5494385 0.46435905 0
5.9780002 2.5398419 0.46436986 0
5.9790006 2.5302422 0.46438068 0
5.9800005 2.5206389 0.46439153 0
5.9820004 2.5114899 0.46441317 0
5.9830003 2.5018773 0.46442398 0
5.9840002 2.4922609 0.4644348 0
5.9850001 2.4826412 0.46444562 0
5.9860005 2.4730184 0.46445644 0
5.9870005 2.4633913 0.46446729 0
5.9880004 2.4537609 0.46447811 0
5.9890003 2.4441266 0.46448892 0
5.9900002 2.4344888 0.46449974 0
5.9910002 2.4248474 0.46451056 0
5.9920006 2.4152026 0.46452138 0
5.9930005 2.4055541 0.4645322 0
5.9940004 2.3959017 0.46454304 0
5.9950004 2.386246 0.46455386 0
5.9960003 2.3765867 0.46456468 0
5.9970002 2.3669236 0.4645755 0
5.9980001 2.3572569 0.46458632 0
5.9990005 2.3475869 0.46459714 0
6.0000005 2.337913 0.46460798 0
6.0020003 2.3286595 0.46462962 0
6.0030003 2.3189766 0.46464044 0
6.0040002 2.3092902 0.46465126 0
6.0050006 2.2996001 0.46466208 0
6.0060005 2.2899065 0.46467292 0
6.0070004 2.2802093 0.46468374 0
6.0080004 2.2705083 0.46469456 0
6.0090003 2.2608037 0.46470538 0
6.0100002 2.2510955 0.4647162 0
6.0110002 2.241384 0.46472701 0
6.0120006 2.2316687 0.46473786 0
6.0130005 2.2219498 0.46474868 0
6.0140004 2.2122273 0.4647595 0
6.0150003 2.2025011 0.46477032 0
6.0160003 2.1927712 0.46478114 0
6.0170002 2.1830378 0.46479195 0
6.0190005 2.173696 0.46481362 0
6.0200005 2.1639535 0.46482444 0
6.0210004 2.1542077 0.46483526 0
6.0220003 2.1444581 0.46484607 0
6.0230002 2.1347051 0.46485689 0
6.0240002 2.124948 0.46486771 0
6.0250006 2.1151879 0.46487856 0
6.0260005 2.1054237 0.46488938 0
6.0270004 2.0956562 0.4649002 0
6.0280004 2.0858848 0.46491101 0
6.0290003 2.0761101 0.46492183 0
6.0300002 2.0663316 0.46493265 0
6.0310001 2.0565495 0.46494347 0
6.0320005 2.0467641 0.46495432 0
6.0330005 2.0369747 0.46496513 0
6.0350003 2.0275497 0.46498677 0
6.0360003 2.0177515 0.46499759 0
6.0370002 2.0079496 0.46500841 0
6.0380006 1.9981439 0.46501923 0
6.0410004 1.9890566 0.46505171 0
5.9730005 2.5877874 0.45426312 0
5.9740005 2.5782056 0.45427215 0
5.9750004 2.5686202 0.45428118 0
5.9760003 2.559031 0.45429018 0
5.9770002 2.5494385 0.45429921 0
5.9780002 2.5398419 0.45430821 0
5.9790006 2.5302422 0.45431724 0
5.9800005 2.5206389 0.45432627 0
5.9810004 2.5110316 0.45433527 0
5.9830003 2.5018773 0.45435333 0
5.9840002 2.4922609 0.45436233 0
5.9850001 2.4826412 0.45437136 0
5.9860005 2.4730184 0.45438039 0
5.9870005 2.4633913 0.45438939 0
5.9880004 2.4537609 0.45439842 0
5.9890003 2.4441266 0.45440742 0
5.9900002 2.4344888 0.45441645 0
5.9910002 2.4248474 0.45442545 0
5.9920006 2.4152026 0.45443448 0
5.9930005 2.4055541 0.45444351 0
5.9940004 2.3959017 0.45445251 0
5.9950004 2.386246 0.45446154 0
5.9960003 2.3765867 0.45447057 0
5.9970002 2.3669236 0.45447958 0
5.9980001 2.3572569 0.45448861 0
5.9990005 2.3475869 0.45449764 0
6.0000005 2.337913 0.45450664 0
6.0020003 2.3286595 0.4545247 0
6.0030003 2.3189766 0.4545337 0
6.0040002 2.3092902 0.45454273 0
6.0050006 2.2996001 0.45455176 0
6.0060005 2.2899065 0.45456076 0
6.0070004 2.2802093 0.45456979 0
6.0080004 2.2705083 0.45457879 0
6.0090003 2.2608037 0.45458782 0
6.0100002 2.2510955 0.45459685 0
6.0110002 2.241384 0.45460585 0
6.0120006 2.2316687 0.45461488 0
6.0130005 2.2219498 0.45462388 0
6.0140004 2.2122273 0.45463291 0
6.0150003 2.2025011 0.45464194 0
6.0160003 2.1927712 0.45465094 0
6.0170002 2.1830378 0.45465997 0
6.0190005 2.173696 0.454678 0
6.0200005 2.1639535 0.45468703 0
6.0210004 2.1542077 0.45469606 0
6.0220003 2.1444581 0.45470506 0
6.0230002 2.1347051 0.45471409 0
6.0240002 2.124948 0.45472309 0
6.0250006 2.1151879 0.45473212 0
6.0260005 2.1054237 0.45474115 0
6.0270004 2.0956562 0.45475015 0
6.0280004 2.0858848 0.45475918 0
6.0290003 2.0761101 0.45476818 0
6.0300002 2.0663316 0.45477721 0
6.0310001 2.0565495 0.45478624 0
6.0320005 2.0467641 0.45479524 0
6.0330005 2.0369747 0.45480427 0
6.0350003 2.0275497 0.4548223 0
6.0360003 2.0177515 0.45483133 0
6.0370002 2.0079496 0.45484036 0
6.0380006 1.9981439 0.45484936 0
6.0410004 1.9890566 0.45487642 0
5.9730005 2.5877874 0.4442105 0
5.9740005 2.5782056 0.44421771 0
5.9750004 2.5686202 0.44422495 0
5.9760003 2.559031 0.44423217 0
5.9770002 2.5494385 0.44423938 0
5.9780002 2.5398419 0.44424659 0
5.9790006 2.5302422 0.4442538 0
5.9800005 2.5206389 0.44426101 0
5.9810004 2.5110316 0.44426823 0
5.9830003 2.5018773 0.44428265 0
5.9840002 2.4922609 0.44428986 0
5.9850001 2.4826412 0.44429708 0
5.9860005 2.4730184 0.44430432 0
5.9870005 2.4633913 0.44431153 0
5.9880004 2.4537609 0.44431874 0
5.9890003 2.4441266 0.44432595 0
5.9900002 2.4344888 0.44433317 0
5.9910002 2.4248474 0.44434038 0
5.9920006 2.4152026 0.44434759 0
5.9930005 2.4055541 0.4443548 0
5.9940004 2.3959017 0.44436204 0
5.9950004 2.386246 0.44436926 0
5.9960003 2.3765867 0.44437647 0
5.9970002 2.3669236 0.44438368 0
5.9980001 2.3572569 0.44439089 0
5.9990005 2.3475869 0.44439811 0
6.0000005 2.337913 0.44440532 0
6.0020003 2.3286595 0.44441974 0
6.0030003 2.3189766 0.44442695 0
6.0040002 2.3092902 0.44443417 0
6.0050006 2.2996001 0.44444141 0
6.0060005 2.2899065 0.44444862 0
6.0070004 2.2802093 0.44445583 0
6.0080004 2.2705083 0.44446304 0
6.0090003 2.2608037 0.44447026 0
6.0100002 2.2510955 0.44447747 0
6.0110002 2.241384 0.44448468 0
6.0120006 2.2316687 0.44449189 0
6.0130005 2.2219498 0.44449911 0
6.0140004 2.2122273 0.44450635 0
6.0150003 2.2025011 0.44451356 0
6.0160003 2.1927712 0.44452077 0
6.0170002 2.1830378 0.44452798 0
6.0190005 2.173696 0.44454241 0
6.0200005 2.1639535 0.44454962 0
6.0210004 2.1542077 0.44455683 0
6.0220003 2.1444581 0.44456404 0
6.0230002 2.1347051 0.44457126 0
6.0240002 2.124948 0.44457847 0
6.0250006 2.1151879 0.44458571 0
6.0260005 2.1054237 0.44459292 0
6.0270004 2.0956562 0.44460014 0
6.0280004 2.0858848 0.44460735 0
6.0290003 2.0761101 0.44461456 0
6.0300002 2.0663316 0.44462177 0
6.0310001 2.0565495 0.44462898 0
6.0320005 2.0467641 0.4446362 0
6.0330005 2.0369747 0.44464344 0
6.0350003 2.0275497 0.44465786 0
6.0360003 2.0177515 0.44466507 0
6.0370002 2.0079496 0.44467229 0
6.0380006 1.9981439 0.4446795 0
6.0410004 1.9890566 0.44470114 0
5.9730005 2.5877874 0.43415788 0
5.9740005 2.5782056 0.4341633 0
5.9750004 2.5686202 0.4341687 0
5.9760003 2.559031 0.43417412 0
5.9770002 2.5494385 0.43417954 0
5.9780002 2.5398419 0.43418494 0
5.9790006 2.5302422 0.43419036 0
5.9800005 2.5206389 0.43419576 0
5.9810004 2.5110316 0.43420118 0
5.9830003 2.5018773 0.434212 0
5.9840002 2.4922609 0.43421742 0
5.9850001 2.4826412 0.43422282 0
5.9860005 2.4730184 0.43422824 0
5.9870005 2.4633913 0.43423364 0
5.9880004 2.4537609 0.43423906 0
5.9890003 2.4441266 0.43424445 0
5.9900002 2.4344888 0.43424988 0
5.9910002 2.4248474 0.4342553 0
5.9920006 2.4152026 0.4342607 0
5.9930005 2.4055541 0.43426612 0
5.9940004 2.3959017 0.43427151 0
5.9950004 2.386246 0.43427694 0
5.9960003 2.3765867 0.43428233 0
5.9970002 2.3669236 0.43428776 0
5.9980001 2.3572569 0.43429318 0
5.9990005 2.3475869 0.43429857 0
6.0000005 2.337913 0.434304 0
6.0020003 2.3286595 0.43431482 0
6.0030003 2.3189766 0.43432021 0
6.0040002 2.3092902 0.43432564 0
6.0050006 2.2996001 0.43433106 0
6.0060005 2.2899065 0.43433645 0
6.0070004 2.2802093 0.43434188 0
6.0080004 2.2705083 0.43434727 0
6.0090003 2.2608037 0.4343527 0
6.0100002 2.2510955 0.43435812 0
6.0110002 2.241384 0.43436351 0
6.0120006 2.2316687 0.43436894 0
6.0130005 2.2219498 0.43437433 0
6.0140004 2.2122273 0.43437976 0
6.0150003 2.2025011 0.43438515 0
6.0160003 2.1927712 0.43439057 0
6.0170002 2.1830378 0.434396 0
6.0190005 2.173696 0.43440682 0
6.0200005 2.1639535 0.43441221 0
6.0210004 2.1542077 0.43441764 0
6.0220003 2.1444581 0.43442303 0
6.0230002 2.1347051 0.43442845 0
6.0240002 2.124948 0.43443388 0
6.0250006 2.1151879 0.43443927 0
6.0260005 2.1054237 0.4344447 0
6.0270004 2.0956562 0.43445009 0
6.0280004 2.0858848 0.43445551 0
6.0290003 2.0761101 0.43446094 0
6.0300002 2.0663316 0.43446633 0
6.0310001 2.0565495 0.43447176 0
6.0320005 2.0467641 0.43447715 0
6.0330005 2.0369747 0.43448257 0
6.0350003 2.0275497 0.43449339 0
6.0360003 2.0177515 0.43449882 0
6.0370002 2.0079496 0.43450421 0
6.0380006 1.9981439 0.43450963 0
6.0410004 1.9890566 0.43452585 0
5.9740005 2.5782056 0.42410886 0
5.9750004 2.5686202 0.42411247 0
5.9760003 2.559031 0.42411608 0
5.9770002 2.5494385 0.42411968 0
5.9780002 2.5398419 0.42412329 0
5.9790006 2.5302422 0.42412689 0
5.9800005 2.5206389 0.4241305 0
5.9810004 2.5110316 0.42413414 0
5.9830003 2.5018773 0.42414135 0
5.9840002 2.4922609 0.42414495 0
5.9850001 2.4826412 0.42414856 0
5.9860005 2.4730184 0.42415217 0
5.9870005 2.4633913 0.42415577 0
5.9880004 2.4537609 0.42415938 0
5.9890003 2.4441266 0.42416298 0
5.9900002 2.4344888 0.42416659 0
5.9910002 2.4248474 0.4241702 0
5.9920006 2.4152026 0.4241738 0
5.9930005 2.4055541 0.42417741 0
5.9940004 2.3959017 0.42418101 0
5.9950004 2.386246 0.42418462 0
5.9960003 2.3765867 0.42418823 0
5.9970002 2.3669236 0.42419183 0
5.9980001 2.3572569 0.42419544 0
5.9990005 2.3475869 0.42419904 0
6.0000005 2.337913 0.42420268 0
6.0020003 2.3286595 0.42420989 0
6.0030003 2.3189766 0.4242135 0
6.0040002 2.3092902 0.4242171 0
6.0050006 2.2996001 0.42422071 0
6.0060005 2.2899065 0.42422432 0
6.0070004 2.2802093 0.42422792 0
6.0080004 2.2705083 0.42423153 0
6.0090003 2.2608037 0.42423514 0
6.0100002 2.2510955 0.42423874 0
6.0110002 2.241384 0.42424235 0
6.0120006 2.2316687 0.42424595 0
6.0130005 2.2219498 0.42424956 0
6.0140004 2.2122273 0.42425317 0
6.0150003 2.2025011 0.42425677 0
6.0160003 2.1927712 0.42426038 0
6.0170002 2.1830378 0.42426398 0
6.0190005 2.173696 0.42427123 0
6.0200005 2.1639535 0.42427483 0
6.0210004 2.1542077 0.42427844 0
6.0220003 2.1444581 0.42428204 0
6.0230002 2.1347051 0.42428565 0
6.0240002 2.124948 0.42428926 0
6.0250006 2.1151879 0.42429286 0
6.0260005 2.1054237 0.42429647 0
6.0270004 2.0956562 0.42430007 0
6.0280004 2.0858848 0.42430368 0
6.0290003 2.0761101 0.42430729 0
6.0300002 2.0663316 0.42431089 0
6.0310001 2.0565495 0.4243145 0
6.0320005 2.0467641 0.4243181 0
6.0330005 2.0369747 0.42432171 0
6.0350003 2.0275497 0.42432892 0
6.0360003 2.0177515 0.42433253 0
6.0370002 2.0079496 0.42433614 0
6.0380006 1.9981439 0.42433977 0
6.0410004 1.9890566 0.42435059 0
5.9740005 2.5782056 0.41405445 0
5.9750004 2.5686202 0.41405624 0
5.9760003 2.559031 0.41405806 0
5.9770002 2.5494385 0.41405985 0
5.9780002 2.5398419 0.41406167 0
5.9790006 2.5302422 0.41406345 0
5.9800005 2.5206389 0.41406527 0
5.9810004 2.5110316 0.41406706 0
5.9830003 2.5018773 0.41407067 0
5.9840002 2.4922609 0.41407248 0
5.9850001 2.4826412 0.41407427 0
5.9860005 2.4730184 0.41407609 0
5.9870005 2.4633913 0.41407788 0
5.9880004 2.4537609 0.4140797 0
5.9890003 2.4441266 0.41408148 0
5.9900002 2.4344888 0.4140833 0
5.9910002 2.4248474 0.41408512 0
5.9920006 2.4152026 0.41408691 0
5.9930005 2.4055541 0.41408873 0
5.9940004 2.3959017 0.41409051 0
5.9950004 2.386246 0.41409233 0
5.9960003 2.3765867 0.41409412 0
5.9970002 2.3669236 0.41409594 0
5.9980001 2.3572569 0.41409773 0
5.9990005 2.3475869 0.41409954 0
6.0000005 2.337913 0.41410133 0
6.0020003 2.3286595 0.41410494 0
6.0030003 2.3189766 0.41410676 0
6.0040002 2.3092902 0.41410854 0
6.0050006 2.2996001 0.41411036 0
6.0060005 2.2899065 0.41411215 0
6.0070004 2.2802093 0.41411397 0
6.0080004 2.2705083 0.41411576 0
6.0090003 2.2608037 0.41411757 0
6.0100002 2.2510955 0.41411936 0
6.0110002 2.241384 0.41412118 0
6.0120006 2.2316687 0.414123 0
6.0130005 2.2219498 0.41412479 0
6.0140004 2.2122273 0.4141266 0
6.0150003 2.2025011 0.41412839 0
6.0160003 2.1927712 0.41413021 0
6.0170002 2.1830378 0.414132 0
6.0190005 2.173696 0.41413561 0
6.0200005 2.1639535 0.41413742 0
6.0210004 2.1542077 0.41413921 0
6.0220003 2.1444581 0.41414103 0
6.0230002 2.1347051 0.41414282 0
6.0240002 2.124948 0.41414464 0
6.0250006 2.1151879 0.41414642 0
6.0260005 2.1054237 0.41414824 0
6.0270004 2.0956562 0.41415003 0
6.0280004 2.0858848 0.41415185 0
6.0290003 2.0761101 0.41415364 0
6.0300002 2.0663316 0.41415545 0
6.0310001 2.0565495 0.41415727 0
6.0320005 2.0467641 0.41415906 0
6.0330005 2.0369747 0.41416088 0
6.0350003 2.0275497 0.41416448 0
6.0360003 2.0177515 0.41416627 0
6.0370002 2.0079496 0.41416809 0
6.0380006 1.9981439 0.41416988 0
6.0410004 1.9890566 0.4141753 0
5.9740005 2.5782056 0.40400001 0
5.9750004 2.5686202 0.40400001 0
5.9760003 2.559031 0.40400001 0
5.9770002 2.5494385 0.40400001 0
5.9780002 2.5398419 0.40400001 0
5.9790006 2.5302422 0.40400001 0
5.9800005 2.5206389 0.40400001 0
5.9810004 2.5110316 0.40400001 0
5.9830003 2.5018773 0.40400001 0
5.9840002 2.4922609 0.40400001 0
5.9850001 2.4826412 0.40400001 0
5.9860005 2.4730184 0.40400001 0
5.9870005 2.4633913 0.40400001 0
5.9880004 2.4537609 0.40400001 0
5.9890003 2.4441266 0.40400001 0
5.9900002 2.4344888 0.40400001 0
5.9910002 2.4248474 0.40400001 0
5.9920006 2.4152026 0.40400001 0
5.9930005 2.4055541 0.40400001 0
5.9940004 2.3959017 0.40400001 0
5.9950004 2.386246 0.40400001 0
5.9960003 2.3765867 0.40400001 0
5.9970002 2.3669236 0.40400001 0
5.9980001 2.3572569 0.40400001 0
5.9990005 2.3475869 0.40400001 0
6.0000005 2.337913 0.40400001 0
6.0020003 2.3286595 0.40400001 0
6.0030003 2.3189766 0.40400001 0
6.0040002 2.3092902 0.40400001 0
6.0050006 2.2996001 0.40400001 0
6.0060005 2.2899065 0.40400001 0
6.0070004 2.2802093 0.40400001 0
6.0080004 2.2705083 0.40400001 0
6.0090003 2.2608037 0.40400001 0
6.0100002 2.2510955 0.40400001 0
6.0110002 2.241384 0.40400001 0
6.0120006 2.2316687 0.40400001 0
6.0130005 2.2219498 0.40400001 0
6.0140004 2.2122273 0.40400001 0
6.0150003 2.2025011 0.40400001 0
6.0160003 2.1927712 0.40400001 0
6.0170002 2.1830378 0.40400001 0
6.0190005 2.173696 0.40400001 0
6.0200005 2.1639535 0.40400001 0
6.0210004 2.1542077 0.40400001 0
6.0220003 2.1444581 0.40400001 0
6.0230002 2.1347051 0.40400001 0
6.0240002 2.124948 0.40400001 0
6.0250006 2.1151879 0.40400001 0
6.0260005 2.1054237 0.40400001 0
6.0270004 2.0956562 0.40400001 0
6.0280004 2.0858848 0.40400001 0
6.0290003 2.0761101 0.40400001 0
6.0300002 2.0663316 0.40400001 0
6.0310001 2.0565495 0.40400001 0
6.0320005 2.0467641 0.40400001 0
6.0330005 2.0369747 0.40400001 0
6.0350003 2.0275497 0.40400001 0
6.0360003 2.0177515 0.40400001 0
6.0370002 2.0079496 0.40400001 0
6.0380006 1.9981439 0.40400001 0
6.0410004 1.9890566 0.40400001 0
5.9740005 2.5782056 0.39394557 0
5.9750004 2.5686202 0.39394379 0
5.9760003 2.559031 0.39394197 0
5.9770002 2.5494385 0.39394018 0
5.9780002 2.5398419 0.39393836 0
5.9790006 2.5302422 0.39393657 0
5.9800005 2.5206389 0.39393476 0
5.9810004 2.5110316 0.39393297 0
5.9830003 2.5018773 0.39392936 0
5.9840002 2.4922609 0.39392754 0
5.9850001 2.4826412 0.39392576 0
5.9860005 2.4730184 0.39392394 0
5.9870005 2.4633913 0.39392215 0
5.9880004 2.4537609 0.39392033 0
5.9890003 2.4441266 0.39391854 0
5.9900002 2.4344888 0.39391673 0
5.9910002 2.4248474 0.39391491 0
5.9920006 2.4152026 0.39391312 0
5.9930005 2.4055541 0.3939113 0
5.9940004 2.3959017 0.39390951 0
5.9950004 2.386246 0.3939077 0
5.9960003 2.3765867 0.39390591 0
5.9970002 2.3669236 0.39390409 0
5.9980001 2.3572569 0.3939023 0
5.9990005 2.3475869 0.39390048 0
6.0000005 2.337913 0.3938987 0
6.0020003 2.3286595 0.39389509 0
6.0030003 2.3189766 0.39389327 0
6.0040002 2.3092902 0.39389148 0
6.0050006 2.2996001 0.39388967 0
6.0060005 2.2899065 0.39388788 0
6.0070004 2.2802093 0.39388606 0
6.0080004 2.2705083 0.39388427 0
6.0090003 2.2608037 0.39388245 0
6.0100002 2.2510955 0.39388067 0
6.0110002 2.241384 0.39387885 0
6.0120006 2.2316687 0.39387703 0
6.0130005 2.2219498 0.39387524 0
6.0140004 2.2122273 0.39387342 0
6.0150003 2.2025011 0.39387164 0
6.0160003 2.1927712 0.39386982 0
6.0170002 2.1830378 0.39386803 0
6.0190005 2.173696 0.39386442 0
6.0200005 2.1639535 0.39386261 0
6.0210004 2.1542077 0.39386082 0
6.0220003 2.1444581 0.393859 0
6.0230002 2.1347051 0.39385721 0
6.0240002 2.124948 0.39385539 0
6.0250006 2.1151879 0.3938536 0
6.0260005 2.1054237 0.39385179 0
6.0270004 2.0956562 0.39385 0
6.0280004 2.0858848 0.39384818 0
6.0290003 2.0761101 0.39384639 0
6.0300002 2.0663316 0.39384457 0
6.0310001 2.0565495 0.39384276 0
6.0320005 2.0467641 0.39384097 0
6.0330005 2.0369747 0.39383915 0
6.0350003 2.0275497 0.39383554 0
6.0360003 2.0177515 0.39383376 0
6.0370002 2.0079496 0.39383194 0
6.0380006 1.9981439 0.39383015 0
6.0410004 1.9890566 0.39382473 0
5.9730005 2.5877874 0.38389477 0
5.9740005 2.5782056 0.38389117 0
5.9750004 2.5686202 0.38388756 0
5.9760003 2.559031 0.38388395 0
5.9770002 2.5494385 0.38388035 0
5.9780002 2.5398419 0.38387674 0
5.9790006 2.5302422 0.38387313 0
5.9800005 2.5206389 0.38386953 0
5.9810004 2.5110316 0.38386589 0
5.9830003 2.5018773 0.38385868 0
5.9840002 2.4922609 0.38385507 0
5.9850001 2.4826412 0.38385147 0
5.9860005 2.4730184 0.38384786 0
5.9870005 2.4633913 0.38384426 0
5.9880004 2.4537609 0.38384065 0
5.9890003 2.4441266 0.38383704 0
5.9900002 2.4344888 0.38383344 0
5.9910002 2.4248474 0.38382983 0
5.9920006 2.4152026 0.38382623 0
5.9930005 2.4055541 0.38382262 0
5.9940004 2.3959017 0.38381901 0
5.9950004 2.386246 0.38381541 0
5.9960003 2.3765867 0.3838118 0
5.9970002 2.3669236 0.3838082 0
5.9980001 2.3572569 0.38380459 0
5.9990005 2.3475869 0.38380098 0
6.0000005 2.337913 0.38379735 0
6.0020003 2.3286595 0.38379014 0
6.0030003 2.3189766 0.38378653 0
6.0040002 2.3092902 0.38378292 0
6.0050006 2.2996001 0.38377932 0
6.0060005 2.2899065 0.38377571 0
6.0070004 2.2802093 0.3837721 0
6.0080004 2.2705083 0.3837685 0
6.0090003 2.2608037 0.38376489 0
6.0100002 2.2510955 0.38376129 0
6.0110002 2.241384 0.38375768 0
6.0120006 2.2316687 0.38375407 0
6.0130005 2.2219498 0.38375047 0
6.0140004 2.2122273 0.38374686 0
6.0150003 2.2025011 0.38374326 0
6.0160003 2.1927712 0.38373965 0
6.0170002 2.1830378 0.38373604 0
6.0190005 2.173696 0.3837288 0
6.0200005 2.1639535 0.3837252 0
6.0210004 2.1542077 0.38372159 0
6.0220003 2.1444581 0.38371798 0
6.0230002 2.1347051 0.38371438 0
6.0240002 2.124948 0.38371077 0
6.0250006 2.1151879 0.38370717 0
6.0260005 2.1054237 0.38370356 0
6.0270004 2.0956562 0.38369995 0
6.0280004 2.0858848 0.38369635 0
6.0290003 2.0761101 0.38369274 0
6.0300002 2.0663316 0.38368914 0
6.0310001 2.0565495 0.38368553 0
6.0320005 2.0467641 0.38368192 0
6.0330005 2.0369747 0.38367832 0
6.0350003 2.0275497 0.3836711 0
6.0360003 2.0177515 0.3836675 0
6.0370002 2.0079496 0.38366389 0
6.0380006 1.9981439 0.38366026 0
6.0410004 1.9890566 0.38364944 0
5.9730005 2.5877874 0.37384215 0
5.9740005 2.5782056 0.37383673 0
5.9750004 2.5686202 0.37383133 0
5.9760003 2.559031 0.37382591 0
5.9770002 2.5494385 0.37382048 0
5.9780002 2.5398419 0.37381509 0
5.9790006 2.5302422 0.37380967 0
5.9800005 2.5206389 0.37380427 0
5.9810004 2.5110316 0.37379885 0
5.9830003 2.5018773 0.37378803 0
5.9840002 2.4922609 0.3737826 0
5.9850001 2.4826412 0.37377721 0
5.9860005 2.4730184 0.37377179 0
5.9870005 2.4633913 0.37376639 0
5.9880004 2.4537609 0.37376097 0
5.9890003 2.4441266 0.37375557 0
5.9900002 2.4344888 0.37375015 0
5.9910002 2.4248474 0.37374473 0
5.9920006 2.4152026 0.37373933 0
5.9930005 2.4055541 0.37373391 0
5.9940004 2.3959017 0.37372851 0
5.9950004 2.386246 0.37372309 0
5.9960003 2.3765867 0.3737177 0
5.9970002 2.3669236 0.37371227 0
5.9980001 2.3572569 0.37370685 0
5.9990005 2.3475869 0.37370145 0
6.0000005 2.337913 0.37369603 0
6.0020003 2.3286595 0.37368521 0
6.0030003 2.3189766 0.37367982 0
6.0040002 2.3092902 0.37367439 0
6.0050006 2.2996001 0.37366897 0
6.0060005 2.2899065 0.37366357 0
6.0070004 2.2802093 0.37365815 0
6.0080004 2.2705083 0.37365276 0
6.0090003 2.2608037 0.37364733 0
6.0100002 2.2510955 0.37364191 0
6.0110002 2.241384 0.37363651 0
6.0120006 2.2316687 0.37363109 0
6.0130005 2.2219498 0.3736257 0
6.0140004 2.2122273 0.37362027 0
6.0150003 2.2025011 0.37361488 0
6.0160003 2.1927712 0.37360945 0
6.0170002 2.1830378 0.37360403 0
6.0190005 2.173696 0.37359321 0
6.0200005 2.1639535 0.37358782 0
6.0210004 2.1542077 0.37358239 0
6.0220003 2.1444581 0.373577 0
6.0230002 2.1347051 0.37357157 0
6.0240002 2.124948 0.37356615 0
6.0250006 2.1151879 0.37356076 0
6.0260005 2.1054237 0.37355533 0
6.0270004 2.0956562 0.37354994 0
6.0280004 2.0858848 0.37354451 0
6.0290003 2.0761101 0.37353909 0
6.0300002 2.0663316 0.3735337 0
6.0310001 2.0565495 0.37352827 0
6.0320005 2.0467641 0.37352288 0
6.0330005 2.0369747 0.37351745 0
6.0350003 2.0275497 0.37350664 0
6.0360003 2.0177515 0.37350121 0
6.0370002 2.0079496 0.37349582 0
6.0380006 1.9981439 0.37349039 0
6.0410004 1.9890566 0.37347418 0
5.9730005 2.5877874 0.36378953 0
5.9740005 2.5782056 0.36378232 0
5.9750004 2.5686202 0.36377507 0
5.9760003 2.559031 0.36376786 0
5.9770002 2.5494385 0.36376065 0
5.9780002 2.5398419 0.36375344 0
5.9790006 2.5302422 0.36374623 0
5.9800005 2.5206389 0.36373901 0
5.9810004 2.5110316 0.3637318 0
5.9830003 2.5018773 0.36371738 0
5.9840002 2.4922609 0.36371017 0
5.9850001 2.4826412 0.36370295 0
5.9860005 2.4730184 0.36369571 0
5.9870005 2.4633913 0.3636885 0
5.9880004 2.4537609 0.36368129 0
5.9890003 2.4441266 0.36367407 0
5.9900002 2.4344888 0.36366686 0
5.9910002 2.4248474 0.36365965 0
5.9920006 2.4152026 0.36365244 0
5.9930005 2.4055541 0.36364523 0
5.9940004 2.3959017 0.36363798 0
5.9950004 2.386246 0.36363077 0
5.9960003 2.3765867 0.36362356 0
5.9970002 2.3669236 0.36361635 0
5.9980001 2.3572569 0.36360914 0
5.9990005 2.3475869 0.36360192 0
6.0000005 2.337913 0.36359471 0
6.0020003 2.3286595 0.36358029 0
6.0030003 2.3189766 0.36357307 0
6.0040002 2.3092902 0.36356586 0
6.0050006 2.2996001 0.36355862 0
6.0060005 2.2899065 0.36355141 0
6.0070004 2.2802093 0.3635442 0
6.0080004 2.2705083 0.36353698 0
6.0090003 2.2608037 0.36352977 0
6.0100002 2.2510955 0.36352256 0
6.0110002 2.241384 0.36351535 0
6.0120006 2.2316687 0.36350814 0
6.0130005 2.2219498 0.36350092 0
6.0140004 2.2122273 0.36349368 0
6.0150003 2.2025011 0.36348647 0
6.0160003 2.1927712 0.36347926 0
6.0170002 2.1830378 0.36347204 0
6.0190005 2.173696 0.36345762 0
6.0200005 2.1639535 0.36345041 0
6.0210004 2.1542077 0.3634432 0
6.0220003 2.1444581 0.36343598 0
6.0230002 2.1347051 0.36342877 0
6.0240002 2.124948 0.36342156 0
6.0250006 2.1151879 0.36341432 0
6.0260005 2.1054237 0.36340711 0
6.0270004 2.0956562 0.36339989 0
6.0280004 2.0858848 0.36339268 0
6.0290003 2.0761101 0.36338547 0
6.0300002 2.0663316 0.36337826 0
6.0310001 2.0565495 0.36337104 0
6.0320005 2.0467641 0.36336383 0
6.0330005 2.0369747 0.36335659 0
6.0350003 2.0275497 0.36334217 0
6.0360003 2.0177515 0.36333495 0
6.0370002 2.0079496 0.36332774 0
6.0380006 1.9981439 0.36332053 0
6.0410004 1.9890566 0.36329889 0
5.9730005 2.5877874 0.35373691 0
5.9740005 2.5782056 0.35372788 0
5.9750004 2.5686202 0.35371885 0
5.9760003 2.559031 0.35370985 0
5.9770002 2.5494385 0.35370082 0
5.9780002 2.5398419 0.35369182 0
5.9790006 2.5302422 0.35368279 0
5.9800005 2.5206389 0.35367376 0
5.9810004 2.5110316 0.35366476 0
5.9830003 2.5018773 0.3536467 0
5.9840002 2.4922609 0.3536377 0
5.9850001 2.4826412 0.35362867 0
5.9860005 2.4730184 0.35361964 0
5.9870005 2.4633913 0.35361063 0
5.9880004 2.4537609 0.3536016 0
5.9890003 2.4441266 0.3535926 0
5.9900002 2.4344888 0.35358357 0
5.9910002 2.4248474 0.35357457 0
5.9920006 2.4152026 0.35356554 0
5.9930005 2.4055541 0.35355651 0
5.9940004 2.3959017 0.35354751 0
5.9950004 2.386246 0.35353848 0
5.9960003 2.3765867 0.35352945 0
5.9970002 2.3669236 0.35352045 0
5.9980001 2.3572569 0.35351142 0
5.9990005 2.3475869 0.35350239 0
6.0000005 2.337913 0.35349339 0
6.0020003 2.3286595 0.35347533 0
6.0030003 2.3189766 0.35346633 0
6.0040002 2.3092902 0.3534573 0
6.0050006 2.2996001 0.35344827 0
6.0060005 2.2899065 0.35343927 0
6.0070004 2.2802093 0.35343024 0
6.0080004 2.2705083 0.35342124 0
6.0090003 2.2608037 0.35341221 0
6.0100002 2.2510955 0.35340318 0
6.0110002 2.241384 0.35339418 0
6.0120006 2.2316687 0.35338515 0
6.0130005 2.2219498 0.35337615 0
6.0140004 2.2122273 0.35336712 0
6.0150003 2.2025011 0.35335809 0
6.0160003 2.1927712 0.35334909 0
6.0170002 2.1830378 0.35334006 0
6.0190005 2.173696 0.35332203 0
6.0200005 2.1639535 0.353313 0
6.0210004 2.1542077 0.35330397 0
6.0220003 2.1444581 0.35329497 0
6.0230002 2.1347051 0.35328594 0
6.0240002 2.124948 0.35327694 0
6.0250006 2.1151879 0.35326791 0
6.0260005 2.1054237 0.35325888 0
6.0270004 2.0956562 0.35324988 0
6.0280004 2.0858848 0.35324085 0
6.0290003 2.0761101 0.35323185 0
6.0300002 2.0663316 0.35322282 0
6.0310001 2.0565495 0.35321379 0
6.0320005 2.0467641 0.35320479 0
6.0330005 2.0369747 0.35319576 0
6.0350003 2.0275497 0.35317773 0
6.0360003 2.0177515 0.3531687 0
6.0370002 2.0079496 0.35315967 0
6.0380006 1.9981439 0.35315067 0
6.0410004 1.9890566 0.35312361 0
5.9730005 2.5877874 0.34368426 0
5.9740005 2.5782056 0.34367347 0
5.9750004 2.5686202 0.34366262 0
5.9760003 2.559031 0.3436518 0
5.9770002 2.5494385 0.34364098 0
5.9780002 2.5398419 0.34363016 0
5.9790006 2.5302422 0.34361935 0
5.9800005 2.5206389 0.3436085 0
5.9810004 2.5110316 0.34359771 0
5.9830003 2.5018773 0.34357604 0
5.9840002 2.4922609 0.34356523 0
5.9850001 2.4826412 0.34355441 0
5.9860005 2.4730184 0.34354359 0
5.9870005 2.4633913 0.34353274 0
5.9880004 2.4537609 0.34352192 0
5.9890003 2.4441266 0.3435111 0
5.9900002 2.4344888 0.34350029 0
5.9910002 2.4248474 0.34348947 0
5.9920006 2.4152026 0.34347865 0
5.9930005 2.4055541 0.34346783 0
5.9940004 2.3959017 0.34345698 0
5.9950004 2.386246 0.34344617 0
5.9960003 2.3765867 0.34343535 0
5.9970002 2.3669236 0.34342453 0
5.9980001 2.3572569 0.34341371 0
5.9990005 2.3475869 0.34340289 0
6.0000005 2.337913 0.34339204 0
6.0020003 2.3286595 0.34337041 0
6.0030003 2.3189766 0.34335959 0
6.0040002 2.3092902 0.34334877 0
6.0050006 2.2996001 0.34333795 0
6.0060005 2.2899065 0.34332711 0
6.0070004 2.2802093 0.34331629 0
6.0080004 2.2705083 0.34330547 0
6.0090003 2.2608037 0.34329465 0
6.0100002 2.2510955 0.34328383 0
6.0110002 2.241384 0.34327301 0
6.0120006 2.2316687 0.34326217 0
6.0130005 2.2219498 0.34325135 0
6.0140004 2.2122273 0.34324053 0
6.0150003 2.2025011 0.34322971 0
6.0160003 2.1927712 0.34321889 0
6.0170002 2.1830378 0.34320807 0
6.0190005 2.173696 0.34318641 0
6.0200005 2.1639535 0.34317559 0
6.0210004 2.1542077 0.34316477 0
6.0220003 2.1444581 0.34315395 0
6.0230002 2.1347051 0.34314314 0
6.0240002 2.124948 0.34313232 0
6.0250006 2.1151879 0.34312147 0
6.0260005 2.1054237 0.34311065 0
6.0270004 2.0956562 0.34309983 0
6.0280004 2.0858848 0.34308901 0
6.0290003 2.0761101 0.3430782 0
6.0300002 2.0663316 0.34306738 0
6.0310001 2.0565495 0.34305656 0
6.0320005 2.0467641 0.34304571 0
6.0330005 2.0369747 0.34303489 0
6.0350003 2.0275497 0.34301326 0
6.0360003 2.0177515 0.34300244 0
6.0370002 2.0079496 0.34299162 0
6.0380006 1.9981439 0.3429808 0
6.0410004 1.9890566 0.34294832 0
5.9430003 2.8635662 0.33401045 0
5.9440002 2.8540907 0.33399782 0
5.9450002 2.8446116 0.33398521 0
5.9460006 2.8351293 0.33397257 0
5.9470005 2.8256431 0.33395994 0
5.9480004 2.816153 0.3339473 0
5.9490004 2.8066597 0.33393469 0
5.9500003 2.7971625 0.33392206 0
5.9510002 2.7876618 0.33390945 0
5.9520001 2.7781575 0.33389682 0
5.9730005 2.5877874 0.33363163 0
5.9740005 2.5782056 0.33361903 0
5.9750004 2.5686202 0.33360639 0
5.9760003 2.559031 0.33359379 0
5.9770002 2.5494385 0.33358115 0
5.9780002 2.5398419 0.33356851 0
5.9790006 2.5302422 0.33355588 0
5.9800005 2.5206389 0.33354327 0
5.9810004 2.5110316 0.33353063 0
5.9830003 2.5018773 0.33350539 0
5.9840002 2.4922609 0.33349276 0
5.9850001 2.4826412 0.33348012 0
5.9860005 2.4730184 0.33346748 0
5.9870005 2.4633913 0.33345488 0
5.9880004 2.4537609 0.33344227 0
5.9890003 2.4441266 0.33342963 0
5.9900002 2.4344888 0.333417 0
5.9910002 2.4248474 0.33340436 0
5.9920006 2.4152026 0.33339173 0
5.9930005 2.4055541 0.33337912 0
5.9940004 2.3959017 0.33336648 0
5.9950004 2.386246 0.33335388 0
5.9960003 2.3765867 0.33334124 0
5.9970002 2.3669236 0.3333286 0
5.9980001 2.3572569 0.33331597 0
5.9990005 2.3475869 0.33330336 0
6.0000005 2.337913 0.33329073 0
6.0020003 2.3286595 0.33326548 0
6.0030003 2.3189766 0.33325285 0
6.0040002 2.3092902 0.33324021 0
6.0050006 2.2996001 0.33322757 0
6.0060005 2.2899065 0.33321497 0
6.0070004 2.2802093 0.33320236 0
6.0080004 2.2705083 0.33318973 0
6.0090003 2.2608037 0.33317709 0
6.0100002 2.2510955 0.33316445 0
6.0110002 2.241384 0.33315185 0
6.0120006 2.2316687 0.33313921 0
6.0130005 2.2219498 0.33312657 0
6.0140004 2.2122273 0.33311397 0
6.0150003 2.2025011 0.33310133 0
6.0160003 2.1927712 0.3330887 0
6.0170002 2.1830378 0.33307609 0
6.0190005 2.173696 0.33305082 0
6.0200005 2.1639535 0.33303821 0
6.0210004 2.1542077 0.33302557 0
6.0220003 2.1444581 0.33301294 0
6.0230002 2.1347051 0.33300033 0
6.0240002 2.124948 0.3329877 0
6.0250006 2.1151879 0.33297506 0
6.0260005 2.1054237 0.33296245 0
6.0270004 2.0956562 0.33294982 0
6.0280004 2.0858848 0.33293718 0
6.0290003 2.0761101 0.33292454 0
6.0300002 2.0663316 0.33291194 0
6.0310001 2.0565495 0.3328993 0
6.0320005 2.0467641 0.33288667 0
6.0330005 2.0369747 0.33287406 0
6.0350003 2.0275497 0.33284879 0
6.0360003 2.0177515 0.33283618 0
6.0370002 2.0079496 0.33282354 0
6.0380006 1.9981439 0.33281091 0
6.0410004 1.9890566 0.33277303 0
5.9410005 2.8825061 0.3240408 0
5.9420004 2.8730378 0.32402638 0
5.9430003 2.8635662 0.32401195 0
5.9440002 2.8540907 0.3239975 0
5.9450002 2.8446116 0.32398307 0
5.9460006 2.8351293 0.32396865 0
5.9470005 2.8256431 0.32395422 0
5.9480004 2.816153 0.3239398 0
5.9490004 2.8066597 0.32392538 0
5.9500003 2.7971625 0.32391092 0
5.9510002 2.7876618 0.3238965 0
5.9520001 2.7781575 0.32388207 0
5.9530005 2.7686498 0.32386762 0
5.9540005 2.7591383 0.32385319 0
5.9730005 2.5877874 0.32357901 0
5.9740005 2.5782056 0.32356459 0
5.9750004 2.5686202 0.32355016 0
5.9760003 2.559031 0.32353574 0
5.9770002 2.5494385 0.32352132 0
5.9780002 2.5398419 0.32350689 0
5.9790006 2.5302422 0.32349244 0
5.9800005 2.5206389 0.32347801 0
5.9810004 2.5110316 0.32346359 0
5.9830003 2.5018773 0.32343471 0
5.9840002 2.4922609 0.32342029 0
5.9850001 2.4826412 0.32340586 0
5.9860005 2.4730184 0.32339144 0
5.9870005 2.4633913 0.32337701 0
5.9880004 2.4537609 0.32336259 0
5.9890003 2.4441266 0.32334813 0
5.9900002 2.4344888 0.32333371 0
5.9910002 2.4248474 0.32331929 0
5.9920006 2.4152026 0.32330483 0
5.9930005 2.4055541 0.32329041 0
5.9940004 2.3959017 0.32327598 0
5.9950004 2.386246 0.32326156 0
5.9960003 2.3765867 0.32324713 0
5.9970002 2.3669236 0.32323271 0
5.9980001 2.3572569 0.32321829 0
5.9990005 2.3475869 0.32320383 0
6.0000005 2.337913 0.32318941 0
6.0020003 2.3286595 0.32316053 0
6.0030003 2.3189766 0.3231461 0
6.0040002 2.3092902 0.32313168 0
6.0050006 2.2996001 0.32311726 0
6.0060005 2.2899065 0.32310283 0
6.0070004 2.2802093 0.32308841 0
6.0080004 2.2705083 0.32307395 0
6.0090003 2.2608037 0.32305953 0
6.0100002 2.2510955 0.3230451 0
6.0110002 2.241384 0.32303068 0
6.0120006 2.2316687 0.32301623 0
6.0130005 2.2219498 0.3230018 0
6.0140004 2.2122273 0.32298738 0
6.0150003 2.2025011 0.32297295 0
6.0160003 2.1927712 0.32295853 0
6.0170002 2.1830378 0.3229441 0
6.0190005 2.173696 0.32291523 0
6.0200005 2.1639535 0.3229008 0
6.0210004 2.1542077 0.32288635 0
6.0220003 2.1444581 0.32287192 0
6.0230002 2.1347051 0.3228575 0
6.0240002 2.124948 0.32284307 0
6.0250006 2.1151879 0.32282865 0
6.0260005 2.1054237 0.32281423 0
6.0270004 2.0956562 0.32279977 0
6.0280004 2.0858848 0.32278535 0
6.0290003 2.0761101 0.32277092 0
6.0300002 2.0663316 0.3227565 0
6.0310001 2.0565495 0.32274207 0
6.0320005 2.0467641 0.32272762 0
6.0330005 2.0369747 0.3227132 0
6.0350003 2.0275497 0.32268435 0
6.0360003 2.0177515 0.32266992 0
6.0370002 2.0079496 0.3226555 0
6.0380006 1.9981439 0.32264104 0
6.0410004 1.9890566 0.32259774 0
5.9400005 2.8919709 0.31406212 0
5.9410005 2.8825061 0.31404591 0
5.9420004 2.8730378 0.31402966 0
5.9430003 2.8635662 0.31401342 0
5.9440002 2.8540907 0.31399721 0
5.9450002 2.8446116 0.31398097 0
5.9460006 2.8351293 0.31396472 0
5.9470005 2.8256431 0.31394848 0
5.9480004 2.816153 0.31393227 0
5.9490004 2.8066597 0.31391603 0
5.9500003 2.7971625 0.31389979 0
5.9510002 2.7876618 0.31388357 0
5.9520001 2.7781575 0.31386733 0
5.9530005 2.7686498 0.31385109 0
5.9540005 2.7591383 0.31383485 0
5.9730005 2.5877874 0.31352639 0
5.9740005 2.5782056 0.31351018 0
5.9750004 2.5686202 0.31349394 0
5.9760003 2.559031 0.31347769 0
5.9770002 2.5494385 0.31346148 0
5.9780002 2.5398419 0.31344524 0
5.9790006 2.5302422 0.313429 0
5.9800005 2.5206389 0.31341276 0
5.9810004 2.5110316 0.31339651 0
5.9830003 2.5018773 0.31336406 0
5.9840002 2.4922609 0.31334782 0
5.9850001 2.4826412 0.3133316 0
5.9860005 2.4730184 0.31331536 0
5.9870005 2.4633913 0.31329912 0
5.9880004 2.4537609 0.31328288 0
5.9890003 2.4441266 0.31326666 0
5.9900002 2.4344888 0.31325042 0
5.9910002 2.4248474 0.31323421 0
5.9920006 2.4152026 0.31321794 0
5.9930005 2.4055541 0.31320173 0
5.9940004 2.3959017 0.31318548 0
5.9950004 2.386246 0.31316924 0
5.9960003 2.3765867 0.31315303 0
5.9970002 2.3669236 0.31313679 0
5.9980001 2.3572569 0.31312054 0
5.9990005 2.3475869 0.31310433 0
6.0000005 2.337913 0.31308809 0
6.0020003 2.3286595 0.3130556 0
6.0030003 2.3189766 0.31303936 0
6.0040002 2.3092902 0.31302315 0
6.0050006 2.2996001 0.31300691 0
6.0060005 2.2899065 0.31299067 0
6.0070004 2.2802093 0.31297445 0
6.0080004 2.2705083 0.31295821 0
6.0090003 2.2608037 0.31294197 0
6.0100002 2.2510955 0.31292576 0
6.0110002 2.241384 0.31290951 0
6.0120006 2.2316687 0.31289327 0
6.0130005 2.2219498 0.31287703 0
6.0140004 2.2122273 0.31286079 0
6.0150003 2.2025011 0.31284457 0
6.0160003 2.1927712 0.31282833 0
6.0170002 2.1830378 0.31281209 0
6.0190005 2.173696 0.31277964 0
6.0200005 2.1639535 0.31276339 0
6.0210004 2.1542077 0.31274715 0
6.0220003 2.1444581 0.31273091 0
6.0230002 2.1347051 0.3127147 0
6.0240002 2.124948 0.31269845 0
6.0250006 2.1151879 0.31268221 0
6.0260005 2.1054237 0.312666 0
6.0270004 2.0956562 0.31264976 0
6.0280004 2.0858848 0.31263351 0
6.0290003 2.0761101 0.3126173 0
6.0300002 2.0663316 0.31260106 0
6.0310001 2.0565495 0.31258482 0
6.0320005 2.0467641 0.31256858 0
6.0330005 2.0369747 0.31255233 0
6.0350003 2.0275497 0.31251988 0
6.0360003 2.0177515 0.31250364 0
6.0370002 2.0079496 0.31248742 0
6.0380006 1.9981439 0.31247118 0
6.0410004 1.9890566 0.31242248 0
5.9400005 2.8919709 0.30406904 0
5.9410005 2.8825061 0.30405098 0
5.9420004 2.8730378 0.30403298 0
5.9430003 2.8635662 0.30401492 0
5.9440002 2.8540907 0.30399689 0
5.9450002 2.8446116 0.30397886 0
5.9460006 2.8351293 0.3039608 0
5.9470005 2.8256431 0.30394277 0
5.9480004 2.816153 0.30392474 0
5.9490004 2.8066597 0.30390668 0
5.9500003 2.7971625 0.30388868 0
5.9510002 2.7876618 0.30387062 0
5.9520001 2.7781575 0.30385259 0
5.9530005 2.7686498 0.30383453 0
5.9540005 2.7591383 0.3038165 0
5.9550004 2.7496233 0.30379847 0
5.9730005 2.5877874 0.30347377 0
5.9740005 2.5782056 0.30345574 0
5.9750004 2.5686202 0.30343771 0
5.9760003 2.559031 0.30341965 0
5.9770002 2.5494385 0.30340165 0
5.9780002 2.5398419 0.30338359 0
5.9790006 2.5302422 0.30336556 0
5.9800005 2.5206389 0.30334753 0
5.9810004 2.5110316 0.30332947 0
5.9830003 2.5018773 0.30329341 0
5.9840002 2.4922609 0.30327538 0
5.9850001 2.4826412 0.30325735 0
5.9860005 2.4730184 0.30323929 0
5.9870005 2.4633913 0.30322126 0
5.9880004 2.4537609 0.3032032 0
5.9890003 2.4441266 0.30318516 0
5.9900002 2.4344888 0.30316713 0
5.9910002 2.4248474 0.3031491 0
5.9920006 2.4152026 0.30313104 0
5.9930005 2.4055541 0.30311301 0
