# .PCD v0.7 - Point Cloud Data file format
VERSION 0.7
FIELDS x y z intensity
SIZE 4 4 4 4
TYPE F F F F
COUNT 1 1 1 1
WIDTH 1415
HEIGHT 1
VIEWPOINT 0 0 0 1 0 0 0
POINTS 1415
DATA ascii
5.9430003 -1.4957838 0.78394336 0
5.9450002 -1.506309 0.78408045 0
5.9470005 -1.5168415 0.78421754 0
5.9490004 -1.5273811 0.78435463 0
5.9520001 -1.5381967 0.7845602 0
5.9540005 -1.5487527 0.78469735 0
5.9560003 -1.5593158 0.78483444 0
5.9590006 -1.5701603 0.78504008 0
5.9610004 -1.5807396 0.78517717 0
5.9630003 -1.5913261 0.78531426 0
5.9660006 -1.6021994 0.7855199 0
5.9680004 -1.6128023 0.78565699 0
5.8910003 -1.2345654 0.77047431 0
5.8880005 -1.2438153 0.7702741 0
5.8900003 -1.2541547 0.77040756 0
5.8930001 -1.2647231 0.77060777 0
5.8950005 -1.2750789 0.77074134 0
5.8970003 -1.2854416 0.77087474 0
5.8990002 -1.2958118 0.77100825 0
5.9020004 -1.3064182 0.77120847 0
5.9040003 -1.3168045 0.77134192 0
5.9060001 -1.327198 0.77147543 0
5.9080005 -1.3375988 0.77160895 0
5.9110003 -1.3482431 0.7718091 0
5.9130006 -1.3586602 0.77194262 0
5.9150004 -1.3690844 0.77207613 0
5.9180002 -1.3797574 0.77227628 0
5.9200006 -1.390198 0.7724098 0
5.9220004 -1.4006456 0.77254331 0
5.9240003 -1.4111004 0.77267677 0
5.9270005 -1.4218115 0.77287698 0
5.9290004 -1.4322826 0.77301049 0
5.9310002 -1.4427608 0.77314395 0
5.9330006 -1.4532465 0.77327746 0
5.9360003 -1.4639953 0.77347767 0
5.9380002 -1.4744971 0.77361113 0
5.9400005 -1.4850061 0.77374464 0
5.9430003 -1.4957838 0.77394485 0
5.9450002 -1.506309 0.77407837 0
5.9470005 -1.5168415 0.77421182 0
5.9490004 -1.5273811 0.77434528 0
5.9520001 -1.5381967 0.77454549 0
5.9540005 -1.5487527 0.77467901 0
5.9560003 -1.5593158 0.77481246 0
5.9590006 -1.5701603 0.77501273 0
5.9610004 -1.5807396 0.77514625 0
5.9630003 -1.5913261 0.77527964 0
5.9660006 -1.6021994 0.77547991 0
5.9680004 -1.6128023 0.77561337 0
5.8910003 -1.2345654 0.76056957 0
5.8880005 -1.2438153 0.76037478 0
5.8900003 -1.2541547 0.76050472 0
5.8930001 -1.2647231 0.76069951 0
5.8950005 -1.2750789 0.76082933 0
5.8970003 -1.2854416 0.76095927 0
5.8990002 -1.2958118 0.76108909 0
5.9020004 -1.3064182 0.76128387 0
5.9040003 -1.3168045 0.76141381 0
5.9060001 -1.327198 0.76154363 0
5.9080005 -1.3375988 0.76167357 0
5.9110003 -1.3482431 0.76186836 0
5.9130006 -1.3586602 0.76199824 0
5.9150004 -1.3690844 0.76212811 0
5.9180002 -1.3797574 0.7623229 0
5.9200006 -1.390198 0.76245284 0
5.9220004 -1.4006456 0.76258266 0
5.9240003 -1.4111004 0.76271254 0
5.9270005 -1.4218115 0.76290739 0
5.9290004 -1.4322826 0.7630372 0
5.9310002 -1.4427608 0.76316708 0
5.9330006 -1.4532465 0.76329696 0
5.9360003 -1.4639953 0.76349175 0
5.9380002 -1.4744971 0.76362169 0
5.9400005 -1.4850061 0.76375151 0
5.9430003 -1.4957838 0.76394629 0
5.9450002 -1.506309 0.76407617 0
5.9470005 -1.5168415 0.76420611 0
5.9490004 -1.5273811 0.76433599 0
5.9520001 -1.5381967 0.76453078 0
5.9540005 -1.5487527 0.76466066 0
5.9560003 -1.5593158 0.76479053 0
5.9590006 -1.5701603 0.76498532 0
5.9610004 -1.5807396 0.7651152 0
5.9630003 -1.5913261 0.76524508 0
5.9660006 -1.6021994 0.76543993 0
5.9680004 -1.6128023 0.76556981 0
5.8910003 -1.2345654 0.75066495 0
5.8880005 -1.2438153 0.75047553 0
5.8900003 -1.2541547 0.75060177 0
5.8930001 -1.2647231 0.75079119 0
5.8950005 -1.2750789 0.75091743 0
5.8970003 -1.2854416 0.75104368 0
5.8990002 -1.2958118 0.75116992 0
5.9020004 -1.3064182 0.75135934 0
5.9040003 -1.3168045 0.75148559 0
5.9060001 -1.327198 0.75161189 0
5.9080005 -1.3375988 0.75173819 0
5.9110003 -1.3482431 0.75192755 0
5.9130006 -1.3586602 0.75205386 0
5.9150004 -1.3690844 0.7521801 0
5.9180002 -1.3797574 0.75236952 0
5.9200006 -1.390198 0.75249577 0
5.9220004 -1.4006456 0.75262201 0
5.9240003 -1.4111004 0.75274831 0
5.9270005 -1.4218115 0.75293767 0
5.9290004 -1.4322826 0.75306398 0
5.9310002 -1.4427608 0.75319022 0
5.9330006 -1.4532465 0.75331652 0
5.9360003 -1.4639953 0.75350589 0
5.9380002 -1.4744971 0.75363219 0
5.9400005 -1.4850061 0.75375843 0
5.9430003 -1.4957838 0.75394785 0
5.9450002 -1.506309 0.7540741 0
5.9470005 -1.5168415 0.75420034 0
5.9490004 -1.5273811 0.75432664 0
5.9520001 -1.5381967 0.75451601 0
5.9540005 -1.5487527 0.75464231 0
5.9560003 -1.5593158 0.75476855 0
5.9590006 -1.5701603 0.75495797 0
5.9610004 -1.5807396 0.75508422 0
5.9630003 -1.5913261 0.75521052 0
5.9660006 -1.6021994 0.75539994 0
5.9680004 -1.6128023 0.75552619 0
5.8910003 -1.2345654 0.74076021 0
5.8880005 -1.2438153 0.74057621 0
5.8900003 -1.2541547 0.74069881 0
5.8930001 -1.2647231 0.74088281 0
5.8950005 -1.2750789 0.74100554 0
5.8970003 -1.2854416 0.74112821 0
5.8990002 -1.2958118 0.74125081 0
5.9020004 -1.3064182 0.74143481 0
5.9040003 -1.3168045 0.74155748 0
5.9060001 -1.327198 0.74168015 0
5.9080005 -1.3375988 0.74180281 0
5.9110003 -1.3482431 0.74198675 0
5.9130006 -1.3586602 0.74210942 0
5.9150004 -1.3690844 0.74223208 0
5.9180002 -1.3797574 0.74241602 0
5.9200006 -1.390198 0.74253881 0
5.9220004 -1.4006456 0.74266142 0
5.9240003 -1.4111004 0.74278402 0
5.9270005 -1.4218115 0.74296808 0
5.9290004 -1.4322826 0.74309075 0
5.9310002 -1.4427608 0.74321336 0
5.9330006 -1.4532465 0.74333602 0
5.9360003 -1.4639953 0.74352002 0
5.9380002 -1.4744971 0.74364269 0
5.9400005 -1.4850061 0.74376535 0
5.9430003 -1.4957838 0.74394929 0
5.9450002 -1.506309 0.74407196 0
5.9470005 -1.5168415 0.74419463 0
5.9490004 -1.5273811 0.74431729 0
5.9520001 -1.5381967 0.74450129 0
5.9540005 -1.5487527 0.74462396 0
5.9560003 -1.5593158 0.74474657 0
5.9590006 -1.5701603 0.74493062 0
5.9610004 -1.5807396 0.74505323 0
5.9630003 -1.5913261 0.74517596 0
5.9660006 -1.6021994 0.7453599 0
5.9680004 -1.6128023 0.74548256 0
5.8910003 -1.2345654 0.73085546 0
5.8880005 -1.2438153 0.73067689 0
5.8900003 -1.2541547 0.73079598 0
5.8930001 -1.2647231 0.7309745 0
5.8950005 -1.2750789 0.73109359 0
5.8970003 -1.2854416 0.73121262 0
5.8990002 -1.2958118 0.73133165 0
5.9020004 -1.3064182 0.73151028 0
5.9040003 -1.3168045 0.73162931 0
5.9060001 -1.327198 0.73174834 0
5.9080005 -1.3375988 0.73186743 0
5.9110003 -1.3482431 0.73204601 0
5.9130006 -1.3586602 0.7321651 0
5.9150004 -1.3690844 0.73228407 0
5.9180002 -1.3797574 0.73246264 0
5.9200006 -1.390198 0.73258173 0
5.9220004 -1.4006456 0.73270082 0
5.9240003 -1.4111004 0.7328198 0
5.9270005 -1.4218115 0.73299843 0
5.9290004 -1.4322826 0.73311746 0
5.9310002 -1.4427608 0.73323655 0
5.9330006 -1.4532465 0.73335558 0
5.9360003 -1.4639953 0.7335341 0
5.9380002 -1.4744971 0.73365319 0
5.9400005 -1.4850061 0.73377222 0
5.9430003 -1.4957838 0.73395079 0
5.9450002 -1.506309 0.73406982 0
5.9470005 -1.5168415 0.73418891 0
5.9490004 -1.5273811 0.73430794 0
5.9520001 -1.5381967 0.73448652 0
5.9540005 -1.5487527 0.73460561 0
5.9560003 -1.5593158 0.73472464 0
5.9590006 -1.5701603 0.73490322 0
5.9610004 -1.5807396 0.73502231 0
5.9630003 -1.5913261 0.73514134 0
5.9660006 -1.6021994 0.73531991 0
5.9680004 -1.6128023 0.73543894 0
5.8910003 -1.2345654 0.72095072 0
5.8880005 -1.2438153 0.72077763 0
5.8900003 -1.2541547 0.72089303 0
5.8930001 -1.2647231 0.72106624 0
5.8950005 -1.2750789 0.72118163 0
5.8970003 -1.2854416 0.72129709 0
5.8990002 -1.2958118 0.72141254 0
5.9020004 -1.3064182 0.72158575 0
5.9040003 -1.3168045 0.72170115 0
5.9060001 -1.327198 0.72181654 0
5.9080005 -1.3375988 0.72193205 0
5.9110003 -1.3482431 0.72210521 0
5.9130006 -1.3586602 0.72222066 0
5.9150004 -1.3690844 0.72233605 0
5.9180002 -1.3797574 0.72250926 0
5.9200006 -1.390198 0.72262472 0
5.9220004 -1.4006456 0.72274017 0
5.9240003 -1.4111004 0.72285557 0
5.9270005 -1.4218115 0.72302878 0
5.9290004 -1.4322826 0.72314417 0
5.9310002 -1.4427608 0.72325963 0
5.9330006 -1.4532465 0.72337508 0
5.9360003 -1.4639953 0.72354829 0
5.9380002 -1.4744971 0.72366369 0
5.9400005 -1.4850061 0.72377914 0
5.9430003 -1.4957838 0.72395229 0
5.9450002 -1.506309 0.72406775 0
5.9470005 -1.5168415 0.7241832 0
5.9490004 -1.5273811 0.7242986 0
5.9520001 -1.5381967 0.72447181 0
5.9540005 -1.5487527 0.72458726 0
5.9560003 -1.5593158 0.72470272 0
5.9590006 -1.5701603 0.72487587 0
5.9610004 -1.5807396 0.72499132 0
5.9630003 -1.5913261 0.72510672 0
5.9660006 -1.6021994 0.72527993 0
5.9680004 -1.6128023 0.72539532 0
5.8910003 -1.2345654 0.7110461 0
5.8880005 -1.2438153 0.71087825 0
5.8900003 -1.2541547 0.71099013 0
5.8930001 -1.2647231 0.71115792 0
5.8950005 -1.2750789 0.71126974 0
5.8970003 -1.2854416 0.71138155 0
5.8990002 -1.2958118 0.71149337 0
5.9020004 -1.3064182 0.71166116 0
5.9040003 -1.3168045 0.71177298 0
5.9060001 -1.327198 0.71188486 0
5.9080005 -1.3375988 0.71199667 0
5.9110003 -1.3482431 0.7121644 0
5.9130006 -1.3586602 0.71227628 0
5.9150004 -1.3690844 0.7123881 0
5.9180002 -1.3797574 0.71255583 0
5.9200006 -1.390198 0.7126677 0
5.9220004 -1.4006456 0.71277952 0
5.9240003 -1.4111004 0.71289134 0
5.9270005 -1.4218115 0.71305907 0
5.9290004 -1.4322826 0.71317089 0
5.9310002 -1.4427608 0.71328276 0
5.9330006 -1.4532465 0.71339464 0
5.9360003 -1.4639953 0.71356237 0
5.9380002 -1.4744971 0.71367419 0
5.9400005 -1.4850061 0.71378607 0
5.9430003 -1.4957838 0.71395379 0
5.9450002 -1.506309 0.71406561 0
5.9470005 -1.5168415 0.71417749 0
5.9490004 -1.5273811 0.71428931 0
5.9520001 -1.5381967 0.71445704 0
5.9540005 -1.5487527 0.71456891 0
5.9560003 -1.5593158 0.71468073 0
5.9590006 -1.5701603 0.71484852 0
5.9610004 -1.5807396 0.71496034 0
5.9630003 -1.5913261 0.71507215 0
5.9660006 -1.6021994 0.71523994 0
5.9680004 -1.6128023 0.71535176 0
5.8910003 -1.2345654 0.70114136 0
5.8880005 -1.2438153 0.70097899 0
5.8900003 -1.2541547 0.70108724 0
5.8930001 -1.2647231 0.7012496 0
5.8950005 -1.2750789 0.70135784 0
5.8970003 -1.2854416 0.70146602 0
5.8990002 -1.2958118 0.70157421 0
5.9020004 -1.3064182 0.70173657 0
5.9040003 -1.3168045 0.70184481 0
5.9060001 -1.327198 0.70195305 0
5.9080005 -1.3375988 0.7020613 0
5.9110003 -1.3482431 0.70222366 0
5.9130006 -1.3586602 0.7023319 0
5.9150004 -1.3690844 0.70244008 0
5.9180002 -1.3797574 0.70260239 0
5.9200006 -1.390198 0.70271063 0
5.9220004 -1.4006456 0.70281887 0
5.9240003 -1.4111004 0.70292711 0
5.9270005 -1.4218115 0.70308948 0
5.9290004 -1.4322826 0.70319772 0
5.9310002 -1.4427608 0.7033059 0
5.9330006 -1.4532465 0.7034142 0
5.9360003 -1.4639953 0.70357645 0
5.9380002 -1.4744971 0.70368469 0
5.9400005 -1.4850061 0.70379293 0
5.9430003 -1.4957838 0.70395529 0
5.9450002 -1.506309 0.70406353 0
5.9470005 -1.5168415 0.70417178 0
5.9490004 -1.5273811 0.70427996 0
5.9520001 -1.5381967 0.70444226 0
5.9540005 -1.5487527 0.7045505 0
5.9560003 -1.5593158 0.70465875 0
5.9590006 -1.5701603 0.70482111 0
5.9610004 -1.5807396 0.70492935 0
5.9630003 -1.5913261 0.70503759 0
5.9660006 -1.6021994 0.70519996 0
5.9680004 -1.6128023 0.70530814 0
5.8910003 -1.2345654 0.69123662 0
5.8880005 -1.2438153 0.69107974 0
5.8900003 -1.2541547 0.69118428 0
5.8930001 -1.2647231 0.69134122 0
5.8950005 -1.2750789 0.69144589 0
5.8970003 -1.2854416 0.69155049 0
5.8990002 -1.2958118 0.69165516 0
5.9020004 -1.3064182 0.69181204 0
5.9040003 -1.3168045 0.6919167 0
5.9060001 -1.327198 0.69202125 0
5.9080005 -1.3375988 0.69212592 0
5.9110003 -1.3482431 0.6922828 0
5.9130006 -1.3586602 0.69238746 0
5.9150004 -1.3690844 0.69249213 0
5.9180002 -1.3797574 0.69264901 0
5.9200006 -1.390198 0.69275367 0
5.9220004 -1.4006456 0.69285828 0
5.9240003 -1.4111004 0.69296288 0
5.9270005 -1.4218115 0.69311982 0
5.9290004 -1.4322826 0.69322443 0
5.9310002 -1.4427608 0.69332904 0
5.9330006 -1.4532465 0.69343364 0
5.9360003 -1.4639953 0.69359064 0
5.9380002 -1.4744971 0.69369519 0
5.9400005 -1.4850061 0.69379985 0
5.9430003 -1.4957838 0.69395679 0
5.9450002 -1.506309 0.6940614 0
5.9470005 -1.5168415 0.694166 0
5.9490004 -1.5273811 0.69427061 0
5.9520001 -1.5381967 0.69442755 0
5.9540005 -1.5487527 0.69453216 0
5.9560003 -1.5593158 0.69463682 0
5.9590006 -1.5701603 0.69479376 0
5.9610004 -1.5807396 0.69489837 0
5.9630003 -1.5913261 0.69500303 0
5.9660006 -1.6021994 0.69515991 0
5.9680004 -1.6128023 0.69526458 0
5.8910003 -1.2345654 0.68133187 0
5.8880005 -1.2438153 0.68118042 0
5.8900003 -1.2541547 0.68128145 0
5.8930001 -1.2647231 0.68143296 0
5.8950005 -1.2750789 0.68153393 0
5.8970003 -1.2854416 0.68163496 0
5.8990002 -1.2958118 0.68173599 0
5.9020004 -1.3064182 0.68188751 0
5.9040003 -1.3168045 0.68198848 0
5.9060001 -1.327198 0.68208951 0
5.9080005 -1.3375988 0.68219054 0
5.9110003 -1.3482431 0.68234205 0
5.9130006 -1.3586602 0.68244308 0
5.9150004 -1.3690844 0.68254411 0
5.9180002 -1.3797574 0.68269563 0
5.9200006 -1.390198 0.6827966 0
5.9220004 -1.4006456 0.68289763 0
5.9240003 -1.4111004 0.68299866 0
5.9270005 -1.4218115 0.68315017 0
5.9290004 -1.4322826 0.68325114 0
5.9310002 -1.4427608 0.68335223 0
5.9330006 -1.4532465 0.6834532 0
5.9360003 -1.4639953 0.68360472 0
5.9380002 -1.4744971 0.68370569 0
5.9400005 -1.4850061 0.68380678 0
5.9430003 -1.4957838 0.68395829 0
5.9450002 -1.506309 0.68405926 0
5.9470005 -1.5168415 0.68416029 0
5.9490004 -1.5273811 0.68426132 0
5.9520001 -1.5381967 0.68441284 0
5.9540005 -1.5487527 0.68451381 0
5.9560003 -1.5593158 0.6846149 0
5.9590006 -1.5701603 0.68476641 0
5.9610004 -1.5807396 0.68486738 0
5.9630003 -1.5913261 0.68496841 0
5.9660006 -1.6021994 0.68511993 0
5.9680004 -1.6128023 0.68522096 0
5.8910003 -1.2345654 0.67142725 0
5.8880005 -1.2438153 0.6712811 0
5.8900003 -1.2541547 0.67137849 0
5.8930001 -1.2647231 0.67152464 0
5.8950005 -1.2750789 0.67162204 0
5.8970003 -1.2854416 0.67171943 0
5.8990002 -1.2958118 0.67181683 0
5.9020004 -1.3064182 0.67196298 0
5.9040003 -1.3168045 0.67206037 0
5.9060001 -1.327198 0.67215776 0
5.9080005 -1.3375988 0.67225516 0
5.9110003 -1.3482431 0.67240125 0
5.9130006 -1.3586602 0.6724987 0
5.9150004 -1.3690844 0.6725961 0
5.9180002 -1.3797574 0.67274219 0
5.9200006 -1.390198 0.67283958 0
5.9220004 -1.4006456 0.67293704 0
5.9240003 -1.4111004 0.67303443 0
5.9270005 -1.4218115 0.67318052 0
5.9290004 -1.4322826 0.67327791 0
5.9310002 -1.4427608 0.67337531 0
5.9330006 -1.4532465 0.67347276 0
5.9360003 -1.4639953 0.67361879 0
5.9380002 -1.4744971 0.67371625 0
5.9400005 -1.4850061 0.6738137 0
5.9430003 -1.4957838 0.67395973 0
5.9450002 -1.506309 0.67405713 0
5.9470005 -1.5168415 0.67415458 0
5.9490004 -1.5273811 0.67425197 0
5.9520001 -1.5381967 0.67439806 0
5.9540005 -1.5487527 0.67449546 0
5.9560003 -1.5593158 0.67459291 0
5.9590006 -1.5701603 0.674739 0
5.9610004 -1.5807396 0.6748364 0
5.9630003 -1.5913261 0.67493379 0
5.9660006 -1.6021994 0.67507994 0
5.9680004 -1.6128023 0.67517734 0
5.8910003 -1.2345654 0.66152251 0
5.8880005 -1.2438153 0.66138184 0
5.8900003 -1.2541547 0.6614756 0
5.8930001 -1.2647231 0.66161627 0
5.8950005 -1.2750789 0.66171014 0
5.8970003 -1.2854416 0.6618039 0
5.8990002 -1.2958118 0.66189766 0
5.9020004 -1.3064182 0.66203839 0
5.9040003 -1.3168045 0.66213214 0
5.9060001 -1.327198 0.66222596 0
5.9080005 -1.3375988 0.66231978 0
5.9110003 -1.3482431 0.66246045 0
5.9130006 -1.3586602 0.66255426 0
5.9150004 -1.3690844 0.66264808 0
5.9180002 -1.3797574 0.66278875 0
5.9200006 -1.390198 0.66288257 0
5.9220004 -1.4006456 0.66297638 0
5.9240003 -1.4111004 0.6630702 0
5.9270005 -1.4218115 0.66321087 0
5.9290004 -1.4322826 0.66330469 0
5.9310002 -1.4427608 0.66339844 0
5.9330006 -1.4532465 0.66349226 0
5.9360003 -1.4639953 0.66363299 0
5.9380002 -1.4744971 0.66372675 0
5.9400005 -1.4850061 0.66382056 0
5.9430003 -1.4957838 0.66396129 0
5.9450002 -1.506309 0.66405499 0
5.9470005 -1.5168415 0.66414887 0
5.9490004 -1.5273811 0.66424263 0
5.9520001 -1.5381967 0.66438329 0
5.9540005 -1.5487527 0.66447711 0
5.9560003 -1.5593158 0.66457093 0
5.9590006 -1.5701603 0.66471165 0
5.9610004 -1.5807396 0.66480541 0
5.9630003 -1.5913261 0.66489923 0
5.9660006 -1.6021994 0.66503996 0
5.9680004 -1.6128023 0.66513371 0
5.8910003 -1.2345654 0.65161777 0
5.8880005 -1.2438153 0.65148252 0
5.8900003 -1.2541547 0.6515727 0
5.8930001 -1.2647231 0.65170795 0
5.8950005 -1.2750789 0.65179819 0
5.8970003 -1.2854416 0.65188837 0
5.8990002 -1.2958118 0.65197855 0
5.9020004 -1.3064182 0.6521138 0
5.9040003 -1.3168045 0.65220404 0
5.9060001 -1.327198 0.65229416 0
5.9080005 -1.3375988 0.6523844 0
5.9110003 -1.3482431 0.6525197 0
5.9130006 -1.3586602 0.65260988 0
5.9150004 -1.3690844 0.65270007 0
5.9180002 -1.3797574 0.65283537 0
5.9200006 -1.390198 0.65292555 0
5.9220004 -1.4006456 0.65301573 0
5.9240003 -1.4111004 0.65310591 0
5.9270005 -1.4218115 0.65324122 0
5.9290004 -1.4322826 0.6533314 0
5.9310002 -1.4427608 0.65342158 0
5.9330006 -1.4532465 0.65351176 0
5.9360003 -1.4639953 0.65364707 0
5.9380002 -1.4744971 0.65373725 0
5.9400005 -1.4850061 0.65382749 0
5.9430003 -1.4957838 0.65396273 0
5.9450002 -1.506309 0.65405291 0
5.9470005 -1.5168415 0.6541431 0
5.9490004 -1.5273811 0.65423334 0
5.9520001 -1.5381967 0.65436858 0
5.9540005 -1.5487527 0.65445876 0
5.9560003 -1.5593158 0.654549 0
5.9590006 -1.5701603 0.65468431 0
5.9610004 -1.5807396 0.65477443 0
5.9630003 -1.5913261 0.65486467 0
5.9660006 -1.6021994 0.65499997 0
5.9680004 -1.6128023 0.65509009 0
5.8910003 -1.2345654 0.64171308 0
5.8880005 -1.2438153 0.6415832 0
5.8900003 -1.2541547 0.64166981 0
5.8930001 -1.2647231 0.64179963 0
5.8950005 -1.2750789 0.64188623 0
5.8970003 -1.2854416 0.64197284 0
5.8990002 -1.2958118 0.64205939 0
5.9020004 -1.3064182 0.64218926 0
5.9040003 -1.3168045 0.64227587 0
5.9060001 -1.327198 0.64236242 0
5.9080005 -1.3375988 0.64244902 0
5.9110003 -1.3482431 0.6425789 0
5.9130006 -1.3586602 0.64266551 0
5.9150004 -1.3690844 0.64275211 0
5.9180002 -1.3797574 0.64288193 0
5.9200006 -1.390198 0.64296854 0
5.9220004 -1.4006456 0.64305514 0
5.9240003 -1.4111004 0.64314169 0
5.9270005 -1.4218115 0.64327157 0
5.9290004 -1.4322826 0.64335817 0
5.9310002 -1.4427608 0.64344472 0
5.9330006 -1.4532465 0.64353132 0
5.9360003 -1.4639953 0.6436612 0
5.9380002 -1.4744971 0.64374775 0
5.9400005 -1.4850061 0.64383435 0
5.9430003 -1.4957838 0.64396423 0
5.9450002 -1.506309 0.64405084 0
5.9470005 -1.5168415 0.64413738 0
5.9490004 -1.5273811 0.64422399 0
5.9520001 -1.5381967 0.64435387 0
5.9540005 -1.5487527 0.64444041 0
5.9560003 -1.5593158 0.64452702 0
5.9590006 -1.5701603 0.6446569 0
5.9610004 -1.5807396 0.64474344 0
5.9630003 -1.5913261 0.64483005 0
5.9660006 -1.6021994 0.64495993 0
5.9680004 -1.6128023 0.64504653 0
5.8910003 -1.2345654 0.6318084 0
5.8880005 -1.2438153 0.63168389 0
5.8900003 -1.2541547 0.63176686 0
5.8930001 -1.2647231 0.63189137 0
5.8950005 -1.2750789 0.63197434 0
5.8970003 -1.2854416 0.63205731 0
5.8990002 -1.2958118 0.63214028 0
5.9020004 -1.3064182 0.63226473 0
5.9040003 -1.3168045 0.6323477 0
5.9060001 -1.327198 0.63243067 0
5.9080005 -1.3375988 0.63251364 0
5.9110003 -1.3482431 0.6326381 0
5.9130006 -1.3586602 0.63272107 0
5.9150004 -1.3690844 0.6328041 0
5.9180002 -1.3797574 0.63292849 0
5.9200006 -1.390198 0.63301152 0
5.9220004 -1.4006456 0.63309449 0
5.9240003 -1.4111004 0.63317746 0
5.9270005 -1.4218115 0.63330191 0
5.9290004 -1.4322826 0.63338488 0
5.9310002 -1.4427608 0.63346785 0
5.9330006 -1.4532465 0.63355088 0
5.9360003 -1.4639953 0.63367534 0
5.9380002 -1.4744971 0.63375831 0
5.9400005 -1.4850061 0.63384128 0
5.9430003 -1.4957838 0.63396573 0
5.9450002 -1.506309 0.6340487 0
5.9470005 -1.5168415 0.63413167 0
5.9490004 -1.5273811 0.63421464 0
5.9520001 -1.5381967 0.63433909 0
5.9540005 -1.5487527 0.63442206 0
5.9560003 -1.5593158 0.63450503 0
5.9590006 -1.5701603 0.63462955 0
5.9610004 -1.5807396 0.63471252 0
5.9630003 -1.5913261 0.63479549 0
5.9660006 -1.6021994 0.63491994 0
5.9680004 -1.6128023 0.63500291 0
5.8910003 -1.2345654 0.62190366 0
5.8880005 -1.2438153 0.62178463 0
5.8900003 -1.2541547 0.62186396 0
5.8930001 -1.2647231 0.62198305 0
5.8950005 -1.2750789 0.62206239 0
5.8970003 -1.2854416 0.62214178 0
5.8990002 -1.2958118 0.62222111 0
5.9020004 -1.3064182 0.6223402 0
5.9040003 -1.3168045 0.62241954 0
5.9060001 -1.327198 0.62249893 0
5.9080005 -1.3375988 0.62257826 0
5.9110003 -1.3482431 0.62269735 0
5.9130006 -1.3586602 0.62277669 0
5.9150004 -1.3690844 0.62285608 0
5.9180002 -1.3797574 0.62297511 0
5.9200006 -1.390198 0.6230545 0
5.9220004 -1.4006456 0.62313384 0
5.9240003 -1.4111004 0.62321323 0
5.9270005 -1.4218115 0.62333226 0
5.9290004 -1.4322826 0.62341166 0
5.9310002 -1.4427608 0.62349099 0
5.9330006 -1.4532465 0.62357038 0
5.9360003 -1.4639953 0.62368941 0
5.9380002 -1.4744971 0.62376881 0
5.9400005 -1.4850061 0.6238482 0
5.9430003 -1.4957838 0.62396723 0
5.9450002 -1.506309 0.62404656 0
5.9470005 -1.5168415 0.62412596 0
5.9490004 -1.5273811 0.62420529 0
5.9520001 -1.5381967 0.62432432 0
5.9540005 -1.5487527 0.62440372 0
5.9560003 -1.5593158 0.62448311 0
5.9590006 -1.5701603 0.6246022 0
5.9610004 -1.5807396 0.62468153 0
5.9630003 -1.5913261 0.62476087 0
5.9660006 -1.6021994 0.62487996 0
5.9680004 -1.6128023 0.62495935 0
5.8910003 -1.2345654 0.61199892 0
5.8880005 -1.2438153 0.61188531 0
5.8900003 -1.2541547 0.61196107 0
5.8930001 -1.2647231 0.61207467 0
5.8950005 -1.2750789 0.61215043 0
5.8970003 -1.2854416 0.61222625 0
5.8990002 -1.2958118 0.61230195 0
5.9020004 -1.3064182 0.61241561 0
5.9040003 -1.3168045 0.61249137 0
5.9060001 -1.327198 0.61256713 0
5.9080005 -1.3375988 0.61264288 0
5.9110003 -1.3482431 0.61275655 0
5.9130006 -1.3586602 0.61283231 0
5.9150004 -1.3690844 0.61290807 0
5.9180002 -1.3797574 0.61302173 0
5.9200006 -1.390198 0.61309749 0
5.9220004 -1.4006456 0.61317325 0
5.9240003 -1.4111004 0.613249 0
5.9270005 -1.4218115 0.61336261 0
5.9290004 -1.4322826 0.61343837 0
5.9310002 -1.4427608 0.61351413 0
5.9330006 -1.4532465 0.61358988 0
5.9360003 -1.4639953 0.61370355 0
5.9380002 -1.4744971 0.61377931 0
5.9400005 -1.4850061 0.61385506 0
5.9430003 -1.4957838 0.61396873 0
5.9450002 -1.506309 0.61404443 0
5.9470005 -1.5168415 0.61412024 0
5.9490004 -1.5273811 0.614196 0
5.9520001 -1.5381967 0.61430961 0
5.9540005 -1.5487527 0.61438537 0
5.9560003 -1.5593158 0.61446112 0
5.9590006 -1.5701603 0.61457479 0
5.9610004 -1.5807396 0.61465055 0
5.9630003 -1.5913261 0.61472631 0
5.9660006 -1.6021994 0.61483997 0
5.9680004 -1.6128023 0.61491573 0
5.8910003 -1.2345654 0.60209423 0
5.8880005 -1.2438153 0.60198605 0
5.8900003 -1.2541547 0.60205817 0
5.8930001 -1.2647231 0.60216641 0
5.8950005 -1.2750789 0.60223854 0
5.8970003 -1.2854416 0.60231066 0
5.8990002 -1.2958118 0.60238284 0
5.9020004 -1.3064182 0.60249108 0
5.9040003 -1.3168045 0.6025632 0
5.9060001 -1.327198 0.60263538 0
5.9080005 -1.3375988 0.60270751 0
5.9110003 -1.3482431 0.60281575 0
5.9130006 -1.3586602 0.60288793 0
5.9150004 -1.3690844 0.60296005 0
5.9180002 -1.3797574 0.60306829 0
5.9200006 -1.390198 0.60314047 0
5.9220004 -1.4006456 0.60321259 0
5.9240003 -1.4111004 0.60328472 0
5.9270005 -1.4218115 0.60339296 0
5.9290004 -1.4322826 0.60346514 0
5.9310002 -1.4427608 0.60353726 0
5.9330006 -1.4532465 0.60360944 0
5.9360003 -1.4639953 0.60371768 0
5.9380002 -1.4744971 0.60378981 0
5.9400005 -1.4850061 0.60386199 0
5.9430003 -1.4957838 0.60397017 0
5.9450002 -1.506309 0.60404235 0
5.9470005 -1.5168415 0.60411453 0
5.9490004 -1.5273811 0.60418665 0
5.9520001 -1.5381967 0.6042949 0
5.9540005 -1.5487527 0.60436702 0
5.9560003 -1.5593158 0.6044392 0
5.9590006 -1.5701603 0.60454738 0
5.9610004 -1.5807396 0.60461956 0
5.9630003 -1.5913261 0.60469174 0
5.9660006 -1.6021994 0.60479999 0
5.9680004 -1.6128023 0.60487211 0
5.8910003 -1.2345654 0.59218955 0
5.8880005 -1.2438153 0.59208673 0
5.8900003 -1.2541547 0.59215522 0
5.8930001 -1.2647231 0.5922581 0
5.8950005 -1.2750789 0.59232664 0
5.8970003 -1.2854416 0.59239519 0
5.8990002 -1.2958118 0.59246373 0
5.9020004 -1.3064182 0.59256655 0
5.9040003 -1.3168045 0.59263504 0
5.9060001 -1.327198 0.59270358 0
5.9080005 -1.3375988 0.59277213 0
5.9110003 -1.3482431 0.59287494 0
5.9130006 -1.3586602 0.59294355 0
5.9150004 -1.3690844 0.59301209 0
5.9180002 -1.3797574 0.59311485 0
5.9200006 -1.390198 0.5931834 0
5.9220004 -1.4006456 0.59325194 0
5.9240003 -1.4111004 0.59332049 0
5.9270005 -1.4218115 0.59342337 0
5.9290004 -1.4322826 0.59349185 0
5.9310002 -1.4427608 0.5935604 0
5.9330006 -1.4532465 0.59362894 0
5.9360003 -1.4639953 0.59373176 0
5.9380002 -1.4744971 0.59380031 0
5.9400005 -1.4850061 0.59386885 0
5.9430003 -1.4957838 0.59397167 0
5.9450002 -1.506309 0.59404022 0
5.9470005 -1.5168415 0.59410876 0
5.9490004 -1.5273811 0.59417731 0
5.9520001 -1.5381967 0.59428012 0
5.9540005 -1.5487527 0.59434867 0
5.9560003 -1.5593158 0.59441721 0
5.9590006 -1.5701603 0.59452003 0
5.9610004 -1.5807396 0.59458858 0
5.9630003 -1.5913261 0.59465712 0
5.9660006 -1.6021994 0.59475994 0
5.9680004 -1.6128023 0.59482849 0
5.8910003 -1.2345654 0.58228481 0
5.8880005 -1.2438153 0.58218741 0
5.8900003 -1.2541547 0.58225238 0
5.8930001 -1.2647231 0.58234978 0
5.8950005 -1.2750789 0.58241469 0
5.8970003 -1.2854416 0.5824796 0
5.8990002 -1.2958118 0.58254457 0
5.9020004 -1.3064182 0.58264196 0
5.9040003 -1.3168045 0.58270693 0
5.9060001 -1.327198 0.58277184 0
5.9080005 -1.3375988 0.58283675 0
5.9110003 -1.3482431 0.5829342 0
5.9130006 -1.3586602 0.58299911 0
5.9150004 -1.3690844 0.58306408 0
5.9180002 -1.3797574 0.58316147 0
5.9200006 -1.390198 0.58322644 0
5.9220004 -1.4006456 0.58329135 0
5.9240003 -1.4111004 0.58335626 0
5.9270005 -1.4218115 0.58345366 0
5.9290004 -1.4322826 0.58351862 0
5.9310002 -1.4427608 0.58358353 0
5.9330006 -1.4532465 0.5836485 0
5.9360003 -1.4639953 0.5837459 0
5.9380002 -1.4744971 0.58381081 0
5.9400005 -1.4850061 0.58387578 0
5.9430003 -1.4957838 0.58397317 0
5.9450002 -1.506309 0.58403808 0
5.9470005 -1.5168415 0.58410305 0
5.9490004 -1.5273811 0.58416796 0
5.9520001 -1.5381967 0.58426541 0
5.9540005 -1.5487527 0.58433032 0
5.9560003 -1.5593158 0.58439529 0
5.9590006 -1.5701603 0.58449268 0
5.9610004 -1.5807396 0.58455759 0
5.9630003 -1.5913261 0.58462256 0
5.9660006 -1.6021994 0.58471996 0
5.9680004 -1.6128023 0.58478487 0
5.8910003 -1.2345654 0.57238007 0
5.8880005 -1.2438153 0.5722881 0
5.8900003 -1.2541547 0.57234943 0
5.8930001 -1.2647231 0.5724414 0
5.8950005 -1.2750789 0.57250273 0
5.8970003 -1.2854416 0.57256413 0
5.8990002 -1.2958118 0.5726254 0
5.9020004 -1.3064182 0.57271743 0
5.9040003 -1.3168045 0.5727787 0
5.9060001 -1.327198 0.57284009 0
5.9080005 -1.3375988 0.57290143 0
5.9110003 -1.3482431 0.5729934 0
5.9130006 -1.3586602 0.57305473 0
5.9150004 -1.3690844 0.57311606 0
5.9180002 -1.3797574 0.57320803 0
5.9200006 -1.390198 0.57326937 0
5.9220004 -1.4006456 0.5733307 0
5.9240003 -1.4111004 0.57339203 0
5.9270005 -1.4218115 0.57348406 0
5.9290004 -1.4322826 0.57354534 0
5.9310002 -1.4427608 0.57360667 0
5.9330006 -1.4532465 0.573668 0
5.9360003 -1.4639953 0.57376003 0
5.9380002 -1.4744971 0.57382131 0
5.9400005 -1.4850061 0.5738827 0
5.9430003 -1.4957838 0.57397467 0
5.9450002 -1.506309 0.574036 0
5.9470005 -1.5168415 0.57409734 0
5.9490004 -1.5273811 0.57415867 0
5.9520001 -1.5381967 0.57425064 0
5.9540005 -1.5487527 0.57431197 0
5.9560003 -1.5593158 0.5743733 0
5.9590006 -1.5701603 0.57446527 0
5.9610004 -1.5807396 0.57452661 0
5.9630003 -1.5913261 0.57458794 0
5.9660006 -1.6021994 0.57467997 0
5.9680004 -1.6128023 0.5747413 0
5.8910003 -1.2345654 0.56247538 0
5.8880005 -1.2438153 0.56238878 0
5.8900003 -1.2541547 0.56244653 0
5.8930001 -1.2647231 0.56253314 0
5.8950005 -1.2750789 0.56259084 0
5.8970003 -1.2854416 0.56264853 0
5.8990002 -1.2958118 0.56270629 0
5.9020004 -1.3064182 0.5627929 0
5.9040003 -1.3168045 0.56285059 0
5.9060001 -1.327198 0.56290829 0
5.9080005 -1.3375988 0.56296605 0
5.9110003 -1.3482431 0.56305259 0
5.9130006 -1.3586602 0.56311035 0
5.9150004 -1.3690844 0.56316805 0
5.9180002 -1.3797574 0.56325459 0
5.9200006 -1.390198 0.56331235 0
5.9220004 -1.4006456 0.56337011 0
5.9240003 -1.4111004 0.56342781 0
5.9270005 -1.4218115 0.56351435 0
5.9290004 -1.4322826 0.56357211 0
5.9310002 -1.4427608 0.56362981 0
5.9330006 -1.4532465 0.56368756 0
5.9360003 -1.4639953 0.56377411 0
5.9380002 -1.4744971 0.56383187 0
5.9400005 -1.4850061 0.56388956 0
5.9430003 -1.4957838 0.56397617 0
5.9450002 -1.506309 0.56403387 0
5.9470005 -1.5168415 0.56409162 0
5.9490004 -1.5273811 0.56414932 0
5.9520001 -1.5381967 0.56423593 0
5.9540005 -1.5487527 0.56429362 0
5.9560003 -1.5593158 0.56435132 0
5.9590006 -1.5701603 0.56443793 0
5.9610004 -1.5807396 0.56449568 0
5.9630003 -1.5913261 0.56455338 0
5.9660006 -1.6021994 0.56463999 0
5.9680004 -1.6128023 0.56469768 0
5.8910003 -1.2345654 0.5525707 0
5.8880005 -1.2438153 0.55248952 0
5.8900003 -1.2541547 0.55254364 0
5.8930001 -1.2647231 0.55262482 0
5.8950005 -1.2750789 0.55267894 0
5.8970003 -1.2854416 0.552733 0
5.8990002 -1.2958118 0.55278713 0
5.9020004 -1.3064182 0.55286831 0
5.9040003 -1.3168045 0.55292243 0
5.9060001 -1.327198 0.55297655 0
5.9080005 -1.3375988 0.55303067 0
5.9110003 -1.3482431 0.55311179 0
5.9130006 -1.3586602 0.55316591 0
5.9150004 -1.3690844 0.55322003 0
5.9180002 -1.3797574 0.55330122 0
5.9200006 -1.390198 0.55335534 0
5.9220004 -1.4006456 0.55340946 0
5.9240003 -1.4111004 0.55346358 0
5.9270005 -1.4218115 0.55354476 0
5.9290004 -1.4322826 0.55359888 0
5.9310002 -1.4427608 0.55365294 0
5.9330006 -1.4532465 0.55370712 0
5.9360003 -1.4639953 0.55378824 0
5.9380002 -1.4744971 0.55384237 0
5.9400005 -1.4850061 0.55389649 0
5.9430003 -1.4957838 0.55397767 0
5.9450002 -1.506309 0.55403173 0
5.9470005 -1.5168415 0.55408591 0
5.9490004 -1.5273811 0.55413997 0
5.9520001 -1.5381967 0.55422115 0
5.9540005 -1.5487527 0.55427527 0
5.9560003 -1.5593158 0.5543294 0
5.9590006 -1.5701603 0.55441058 0
5.9610004 -1.5807396 0.5544647 0
5.9630003 -1.5913261 0.55451882 0
5.9660006 -1.6021994 0.5546 0
5.9680004 -1.6128023 0.55465406 0
5.8910003 -1.2345654 0.54266596 0
5.8880005 -1.2438153 0.5425902 0
5.8900003 -1.2541547 0.54264069 0
5.8930001 -1.2647231 0.5427165 0
5.8950005 -1.2750789 0.54276699 0
5.8970003 -1.2854416 0.54281747 0
5.8990002 -1.2958118 0.54286802 0
5.9020004 -1.3064182 0.54294378 0
5.9040003 -1.3168045 0.54299426 0
5.9060001 -1.327198 0.54304475 0
5.9080005 -1.3375988 0.54309529 0
5.9110003 -1.3482431 0.54317105 0
5.9130006 -1.3586602 0.54322153 0
5.9150004 -1.3690844 0.54327202 0
5.9180002 -1.3797574 0.54334784 0
5.9200006 -1.390198 0.54339832 0
5.9220004 -1.4006456 0.54344881 0
5.9240003 -1.4111004 0.54349935 0
5.9270005 -1.4218115 0.54357511 0
5.9290004 -1.4322826 0.54362559 0
5.9310002 -1.4427608 0.54367614 0
5.9330006 -1.4532465 0.54372662 0
5.9360003 -1.4639953 0.54380238 0
5.9380002 -1.4744971 0.54385287 0
5.9400005 -1.4850061 0.54390335 0
5.9430003 -1.4957838 0.54397917 0
5.9450002 -1.506309 0.54402965 0
5.9470005 -1.5168415 0.54408014 0
5.9490004 -1.5273811 0.54413068 0
5.9520001 -1.5381967 0.54420638 0
5.9540005 -1.5487527 0.54425693 0
5.9560003 -1.5593158 0.54430747 0
5.9590006 -1.5701603 0.54438317 0
5.9610004 -1.5807396 0.54443371 0
5.9630003 -1.5913261 0.5444842 0
5.9660006 -1.6021994 0.54455996 0
5.9680004 -1.6128023 0.5446105 0
5.8910003 -1.2345654 0.53276128 0
5.8880005 -1.2438153 0.53269088 0
5.8900003 -1.2541547 0.53273779 0
5.8930001 -1.2647231 0.53280813 0
5.8950005 -1.2750789 0.53285503 0
5.8970003 -1.2854416 0.53290194 0
5.8990002 -1.2958118 0.53294885 0
5.9020004 -1.3064182 0.53301919 0
5.9040003 -1.3168045 0.53306609 0
5.9060001 -1.327198 0.533113 0
5.9080005 -1.3375988 0.53315991 0
5.9110003 -1.3482431 0.53323025 0
5.9130006 -1.3586602 0.53327715 0
5.9150004 -1.3690844 0.53332406 0
5.9180002 -1.3797574 0.5333944 0
5.9200006 -1.390198 0.53344131 0
5.9220004 -1.4006456 0.53348815 0
5.9240003 -1.4111004 0.53353512 0
5.9270005 -1.4218115 0.53360546 0
5.9290004 -1.4322826 0.53365237 0
5.9310002 -1.4427608 0.53369921 0
5.9330006 -1.4532465 0.53374612 0
5.9360003 -1.4639953 0.53381646 0
5.9380002 -1.4744971 0.53386337 0
5.9400005 -1.4850061 0.53391027 0
5.9430003 -1.4957838 0.53398061 0
5.9450002 -1.506309 0.53402752 0
5.9470005 -1.5168415 0.53407443 0
5.9490004 -1.5273811 0.53412133 0
5.9520001 -1.5381967 0.53419167 0
5.9540005 -1.5487527 0.53423858 0
5.9560003 -1.5593158 0.53428549 0
5.9590006 -1.5701603 0.53435582 0
5.9610004 -1.5807396 0.53440273 0
5.9630003 -1.5913261 0.53444964 0
5.9660006 -1.6021994 0.53451997 0
5.9680004 -1.6128023 0.53456688 0
5.8910003 -1.2345654 0.52285653 0
5.8880005 -1.2438153 0.52279162 0
5.8900003 -1.2541547 0.5228349 0
5.8930001 -1.2647231 0.52289981 0
5.8950005 -1.2750789 0.52294314 0
5.8970003 -1.2854416 0.52298641 0
5.8990002 -1.2958118 0.52302969 0
5.9020004 -1.3064182 0.52309465 0
5.9040003 -1.3168045 0.52313793 0
5.9060001 -1.327198 0.5231812 0
5.9080005 -1.3375988 0.52322453 0
5.9110003 -1.3482431 0.52328944 0
5.9130006 -1.3586602 0.52333277 0
5.9150004 -1.3690844 0.52337605 0
5.9180002 -1.3797574 0.52344096 0
5.9200006 -1.390198 0.52348429 0
5.9220004 -1.4006456 0.52352756 0
5.9240003 -1.4111004 0.52357084 0
5.9270005 -1.4218115 0.5236358 0
5.9290004 -1.4322826 0.52367908 0
5.9310002 -1.4427608 0.52372235 0
5.9330006 -1.4532465 0.52376568 0
5.9360003 -1.4639953 0.52383059 0
5.9380002 -1.4744971 0.52387387 0
5.9400005 -1.4850061 0.5239172 0
5.9430003 -1.4957838 0.52398211 0
5.9450002 -1.506309 0.52402544 0
5.9470005 -1.5168415 0.52406871 0
5.9490004 -1.5273811 0.52411199 0
5.9520001 -1.5381967 0.52417696 0
5.9540005 -1.5487527 0.52422023 0
5.9560003 -1.5593158 0.5242635 0
5.9590006 -1.5701603 0.52432847 0
5.9610004 -1.5807396 0.52437174 0
5.9630003 -1.5913261 0.52441502 0
5.9660006 -1.6021994 0.52447999 0
5.9680004 -1.6128023 0.52452326 0
5.8910003 -1.2345654 0.51295185 0
5.8880005 -1.2438153 0.51289231 0
5.8900003 -1.2541547 0.512932 0
5.8930001 -1.2647231 0.51299155 0
5.8950005 -1.2750789 0.51303118 0
5.8970003 -1.2854416 0.51307088 0
5.8990002 -1.2958118 0.51311058 0
5.9020004 -1.3064182 0.51317012 0
5.9040003 -1.3168045 0.51320976 0
5.9060001 -1.327198 0.51324946 0
5.9080005 -1.3375988 0.51328915 0
5.9110003 -1.3482431 0.5133487 0
5.9130006 -1.3586602 0.51338834 0
5.9150004 -1.3690844 0.51342803 0
5.9180002 -1.3797574 0.51348758 0
5.9200006 -1.390198 0.51352727 0
5.9220004 -1.4006456 0.51356691 0
5.9240003 -1.4111004 0.51360661 0
5.9270005 -1.4218115 0.51366615 0
5.9290004 -1.4322826 0.51370585 0
5.9310002 -1.4427608 0.51374549 0
5.9330006 -1.4532465 0.51378518 0
5.9360003 -1.4639953 0.51384473 0
5.9380002 -1.4744971 0.51388443 0
5.9400005 -1.4850061 0.51392412 0
5.9430003 -1.4957838 0.51398361 0
5.9450002 -1.506309 0.5140233 0
5.9470005 -1.5168415 0.514063 0
5.9490004 -1.5273811 0.51410264 0
5.9520001 -1.5381967 0.51416218 0
5.9540005 -1.5487527 0.51420188 0
5.9560003 -1.5593158 0.51424158 0
5.9590006 -1.5701603 0.51430106 0
5.9610004 -1.5807396 0.51434076 0
5.9630003 -1.5913261 0.51438046 0
5.9660006 -1.6021994 0.51444 0
5.9680004 -1.6128023 0.51447964 0
5.8910003 -1.2345654 0.50304711 0
5.8880005 -1.2438153 0.50299299 0
5.8900003 -1.2541547 0.50302911 0
5.8930001 -1.2647231 0.50308323 0
5.8950005 -1.2750789 0.50311929 0
5.8970003 -1.2854416 0.50315535 0
5.8990002 -1.2958118 0.50319141 0
5.9020004 -1.3064182 0.50324553 0
5.9040003 -1.3168045 0.50328159 0
5.9060001 -1.327198 0.50331771 0
5.9080005 -1.3375988 0.50335377 0
5.9110003 -1.3482431 0.5034079 0
5.9130006 -1.3586602 0.50344396 0
5.9150004 -1.3690844 0.50348002 0
5.9180002 -1.3797574 0.50353414 0
5.9200006 -1.390198 0.5035702 0
5.9220004 -1.4006456 0.50360632 0
5.9240003 -1.4111004 0.50364238 0
5.9270005 -1.4218115 0.5036965 0
5.9290004 -1.4322826 0.50373256 0
5.9310002 -1.4427608 0.50376862 0
5.9330006 -1.4532465 0.50380474 0
5.9360003 -1.4639953 0.5038588 0
5.9380002 -1.4744971 0.50389493 0
5.9400005 -1.4850061 0.50393099 0
5.9430003 -1.4957838 0.50398511 0
5.9450002 -1.506309 0.50402117 0
5.9470005 -1.5168415 0.50405729 0
5.9490004 -1.5273811 0.50409335 0
5.9520001 -1.5381967 0.50414741 0
5.9540005 -1.5487527 0.50418353 0
5.9560003 -1.5593158 0.50421959 0
5.9590006 -1.5701603 0.50427371 0
5.9610004 -1.5807396 0.50430977 0
5.9630003 -1.5913261 0.50434589 0
5.9660006 -1.6021994 0.50440001 0
5.9680004 -1.6128023 0.50443608 0
5.8910003 -1.2345654 0.49314243 0
5.8880005 -1.2438153 0.4930937 0
5.8900003 -1.2541547 0.49312618 0
5.8930001 -1.2647231 0.49317488 0
5.8950005 -1.2750789 0.49320734 0
5.8970003 -1.2854416 0.49323982 0
5.8990002 -1.2958118 0.49327227 0
5.9020004 -1.3064182 0.493321 0
5.9040003 -1.3168045 0.49335346 0
5.9060001 -1.327198 0.49338591 0
5.9080005 -1.3375988 0.4934184 0
5.9110003 -1.3482431 0.49346709 0
5.9130006 -1.3586602 0.49349958 0
5.9150004 -1.3690844 0.49353203 0
5.9180002 -1.3797574 0.49358073 0
5.9200006 -1.390198 0.49361321 0
5.9220004 -1.4006456 0.49364567 0
5.9240003 -1.4111004 0.49367815 0
5.9270005 -1.4218115 0.49372685 0
5.9290004 -1.4322826 0.4937593 0
5.9310002 -1.4427608 0.49379179 0
5.9330006 -1.4532465 0.49382424 0
5.9360003 -1.4639953 0.49387294 0
5.9380002 -1.4744971 0.49390543 0
5.9400005 -1.4850061 0.49393791 0
5.9430003 -1.4957838 0.49398661 0
5.9450002 -1.506309 0.49401906 0
5.9470005 -1.5168415 0.49405155 0
5.9490004 -1.5273811 0.494084 0
5.9520001 -1.5381967 0.4941327 0
5.9540005 -1.5487527 0.49416518 0
5.9560003 -1.5593158 0.49419764 0
5.9590006 -1.5701603 0.49424636 0
5.9610004 -1.5807396 0.49427882 0
5.9630003 -1.5913261 0.49431127 0
5.9660006 -1.6021994 0.49436 0
5.9680004 -1.6128023 0.49439245 0
5.8910003 -1.2345654 0.48323768 0
5.8880005 -1.2438153 0.48319441 0
5.8900003 -1.2541547 0.48322326 0
5.8930001 -1.2647231 0.48326656 0
5.8950005 -1.2750789 0.48329544 0
5.8970003 -1.2854416 0.48332429 0
5.8990002 -1.2958118 0.48335314 0
5.9020004 -1.3064182 0.48339644 0
5.9040003 -1.3168045 0.48342529 0
5.9060001 -1.327198 0.48345417 0
5.9080005 -1.3375988 0.48348302 0
5.9110003 -1.3482431 0.48352632 0
5.9130006 -1.3586602 0.48355517 0
5.9150004 -1.3690844 0.48358405 0
5.9180002 -1.3797574 0.48362732 0
5.9200006 -1.390198 0.4836562 0
5.9220004 -1.4006456 0.48368505 0
5.9240003 -1.4111004 0.4837139 0
5.9270005 -1.4218115 0.4837572 0
5.9290004 -1.4322826 0.48378605 0
5.9310002 -1.4427608 0.48381492 0
5.9330006 -1.4532465 0.48384377 0
5.9360003 -1.4639953 0.48388708 0
5.9380002 -1.4744971 0.48391593 0
5.9400005 -1.4850061 0.4839448 0
5.9430003 -1.4957838 0.48398808 0
5.9450002 -1.506309 0.48401695 0
5.9470005 -1.5168415 0.4840458 0
5.9490004 -1.5273811 0.48407465 0
5.9520001 -1.5381967 0.48411795 0
5.9540005 -1.5487527 0.48414683 0
5.9560003 -1.5593158 0.48417568 0
5.9590006 -1.5701603 0.48421898 0
5.9610004 -1.5807396 0.48424783 0
5.9630003 -1.5913261 0.48427671 0
5.9660006 -1.6021994 0.48431998 0
5.9680004 -1.6128023 0.48434883 0
5.8910003 -1.2345654 0.473333 0
5.8880005 -1.2438153 0.47329512 0
5.8900003 -1.2541547 0.47332036 0
5.8930001 -1.2647231 0.47335824 0
5.8950005 -1.2750789 0.47338349 0
5.8970003 -1.2854416 0.47340876 0
5.8990002 -1.2958118 0.473434 0
5.9020004 -1.3064182 0.47347188 0
5.9040003 -1.3168045 0.47349715 0
5.9060001 -1.327198 0.47352239 0
5.9080005 -1.3375988 0.47354764 0
5.9110003 -1.3482431 0.47358552 0
5.9130006 -1.3586602 0.47361079 0
5.9150004 -1.3690844 0.47363603 0
5.9180002 -1.3797574 0.47367391 0
5.9200006 -1.390198 0.47369915 0
5.9220004 -1.4006456 0.47372442 0
5.9240003 -1.4111004 0.47374967 0
5.9270005 -1.4218115 0.47378755 0
5.9290004 -1.4322826 0.47381282 0
5.9310002 -1.4427608 0.47383806 0
5.9330006 -1.4532465 0.4738633 0
5.9360003 -1.4639953 0.47390118 0
5.9380002 -1.4744971 0.47392642 0
5.9400005 -1.4850061 0.4739517 0
5.9430003 -1.4957838 0.47398958 0
5.9450002 -1.506309 0.47401482 0
5.9470005 -1.5168415 0.47404009 0
5.9490004 -1.5273811 0.47406533 0
5.9520001 -1.5381967 0.47410321 0
5.9540005 -1.5487527 0.47412848 0
5.9560003 -1.5593158 0.47415373 0
5.9590006 -1.5701603 0.47419161 0
5.9610004 -1.5807396 0.47421685 0
5.9630003 -1.5913261 0.47424212 0
5.9660006 -1.6021994 0.47428 0
5.9680004 -1.6128023 0.47430524 0
5.8910003 -1.2345654 0.46342829 0
5.8880005 -1.2438153 0.4633958 0
5.8900003 -1.2541547 0.46341747 0
5.8930001 -1.2647231 0.46344993 0
5.8950005 -1.2750789 0.46347156 0
5.8970003 -1.2854416 0.46349323 0
5.8990002 -1.2958118 0.46351486 0
5.9020004 -1.3064182 0.46354732 0
5.9040003 -1.3168045 0.46356899 0
5.9060001 -1.327198 0.46359062 0
5.9080005 -1.3375988 0.46361226 0
5.9110003 -1.3482431 0.46364474 0
5.9130006 -1.3586602 0.46366638 0
5.9150004 -1.3690844 0.46368805 0
5.9180002 -1.3797574 0.4637205 0
5.9200006 -1.390198 0.46374214 0
5.9220004 -1.4006456 0.4637638 0
5.9240003 -1.4111004 0.46378544 0
5.9270005 -1.4218115 0.46381789 0
5.9290004 -1.4322826 0.46383956 0
5.9310002 -1.4427608 0.4638612 0
5.9330006 -1.4532465 0.46388283 0
5.9360003 -1.4639953 0.46391532 0
5.9380002 -1.4744971 0.46393695 0
5.9400005 -1.4850061 0.46395859 0
5.9430003 -1.4957838 0.46399108 0
5.9450002 -1.506309 0.46401271 0
5.9470005 -1.5168415 0.46403435 0
5.9490004 -1.5273811 0.46405602 0
5.9520001 -1.5381967 0.46408847 0
5.9540005 -1.5487527 0.46411011 0
5.9560003 -1.5593158 0.46413177 0
5.9590006 -1.5701603 0.46416423 0
5.9610004 -1.5807396 0.46418589 0
5.9630003 -1.5913261 0.46420753 0
5.9660006 -1.6021994 0.46423998 0
5.9680004 -1.6128023 0.46426165 0
5.8910003 -1.2345654 0.45352358 0
5.8880005 -1.2438153 0.45349652 0
5.8900003 -1.2541547 0.45351455 0
5.8930001 -1.2647231 0.45354161 0
5.8950005 -1.2750789 0.45355964 0
5.8970003 -1.2854416 0.4535777 0
5.8990002 -1.2958118 0.45359573 0
5.9020004 -1.3064182 0.45362279 0
5.9040003 -1.3168045 0.45364082 0
5.9060001 -1.327198 0.45365885 0
5.9080005 -1.3375988 0.45367688 0
5.9110003 -1.3482431 0.45370394 0
5.9130006 -1.3586602 0.453722 0
5.9150004 -1.3690844 0.45374003 0
5.9180002 -1.3797574 0.45376709 0
5.9200006 -1.390198 0.45378512 0
5.9220004 -1.4006456 0.45380315 0
5.9240003 -1.4111004 0.45382118 0
5.9270005 -1.4218115 0.45384824 0
5.9290004 -1.4322826 0.4538663 0
5.9310002 -1.4427608 0.45388433 0
5.9330006 -1.4532465 0.45390236 0
5.9360003 -1.4639953 0.45392942 0
5.9380002 -1.4744971 0.45394745 0
5.9400005 -1.4850061 0.45396551 0
5.9430003 -1.4957838 0.45399255 0
5.9450002 -1.506309 0.45401061 0
5.9470005 -1.5168415 0.45402864 0
5.9490004 -1.5273811 0.45404667 0
5.9520001 -1.5381967 0.45407373 0
5.9540005 -1.5487527 0.45409179 0
5.9560003 -1.5593158 0.45410982 0
5.9590006 -1.5701603 0.45413685 0
5.9610004 -1.5807396 0.45415491 0
5.9630003 -1.5913261 0.45417294 0
5.9660006 -1.6021994 0.4542 0
5.9680004 -1.6128023 0.45421803 0
5.8910003 -1.2345654 0.44361886 0
5.8880005 -1.2438153 0.4435972 0
5.8900003 -1.2541547 0.44361165 0
5.8930001 -1.2647231 0.44363329 0
5.8950005 -1.2750789 0.44364771 0
5.8970003 -1.2854416 0.44366214 0
5.8990002 -1.2958118 0.44367659 0
5.9020004 -1.3064182 0.44369823 0
5.9040003 -1.3168045 0.44371265 0
5.9060001 -1.327198 0.44372708 0
5.9080005 -1.3375988 0.44374153 0
5.9110003 -1.3482431 0.44376317 0
5.9130006 -1.3586602 0.44377759 0
5.9150004 -1.3690844 0.44379202 0
5.9180002 -1.3797574 0.44381368 0
5.9200006 -1.390198 0.44382811 0
5.9220004 -1.4006456 0.44384253 0
5.9240003 -1.4111004 0.44385695 0
5.9270005 -1.4218115 0.44387859 0
5.9290004 -1.4322826 0.44389305 0
5.9310002 -1.4427608 0.44390747 0
5.9330006 -1.4532465 0.44392189 0
5.9360003 -1.4639953 0.44394356 0
5.9380002 -1.4744971 0.44395798 0
5.9400005 -1.4850061 0.44397241 0
5.9430003 -1.4957838 0.44399405 0
5.9450002 -1.506309 0.44400847 0
5.9470005 -1.5168415 0.44402292 0
5.9490004 -1.5273811 0.44403735 0
5.9520001 -1.5381967 0.44405898 0
5.9540005 -1.5487527 0.44407341 0
5.9560003 -1.5593158 0.44408786 0
5.9590006 -1.5701603 0.4441095 0
5.9610004 -1.5807396 0.44412392 0
5.9630003 -1.5913261 0.44413835 0
5.9660006 -1.6021994 0.44416001 0
5.9680004 -1.6128023 0.44417444 0
5.8910003 -1.2345654 0.43371415 0
5.8880005 -1.2438153 0.43369791 0
5.8900003 -1.2541547 0.43370873 0
5.8930001 -1.2647231 0.43372497 0
5.8950005 -1.2750789 0.43373579 0
5.8970003 -1.2854416 0.43374661 0
5.8990002 -1.2958118 0.43375742 0
5.9020004 -1.3064182 0.43377367 0
5.9040003 -1.3168045 0.43378448 0
5.9060001 -1.327198 0.4337953 0
5.9080005 -1.3375988 0.43380615 0
5.9110003 -1.3482431 0.43382236 0
5.9130006 -1.3586602 0.43383321 0
5.9150004 -1.3690844 0.43384403 0
5.9180002 -1.3797574 0.43386024 0
5.9200006 -1.390198 0.43387109 0
5.9220004 -1.4006456 0.43388191 0
5.9240003 -1.4111004 0.43389273 0
5.9270005 -1.4218115 0.43390897 0
5.9290004 -1.4322826 0.43391979 0
5.9310002 -1.4427608 0.43393061 0
5.9330006 -1.4532465 0.43394142 0
5.9360003 -1.4639953 0.43395767 0
5.9380002 -1.4744971 0.43396848 0
5.9400005 -1.4850061 0.4339793 0
5.9430003 -1.4957838 0.43399554 0
5.9450002 -1.506309 0.43400636 0
5.9470005 -1.5168415 0.43401718 0
5.9490004 -1.5273811 0.434028 0
5.9520001 -1.5381967 0.43404424 0
5.9540005 -1.5487527 0.43405506 0
5.9560003 -1.5593158 0.43406588 0
5.9590006 -1.5701603 0.43408212 0
5.9610004 -1.5807396 0.43409294 0
5.9630003 -1.5913261 0.43410376 0
5.9660006 -1.6021994 0.43412 0
5.9680004 -1.6128023 0.43413082 0
5.8910003 -1.2345654 0.42380944 0
5.8880005 -1.2438153 0.42379862 0
5.8900003 -1.2541547 0.42380583 0
5.8930001 -1.2647231 0.42381665 0
5.8950005 -1.2750789 0.42382386 0
5.8970003 -1.2854416 0.42383108 0
5.8990002 -1.2958118 0.42383829 0
5.9020004 -1.3064182 0.42384911 0
5.9040003 -1.3168045 0.42385635 0
5.9060001 -1.327198 0.42386356 0
5.9080005 -1.3375988 0.42387077 0
5.9110003 -1.3482431 0.42388159 0
5.9130006 -1.3586602 0.4238888 0
5.9150004 -1.3690844 0.42389601 0
5.9180002 -1.3797574 0.42390683 0
5.9200006 -1.390198 0.42391405 0
5.9220004 -1.4006456 0.42392129 0
5.9240003 -1.4111004 0.4239285 0
5.9270005 -1.4218115 0.42393932 0
5.9290004 -1.4322826 0.42394653 0
5.9310002 -1.4427608 0.42395374 0
5.9330006 -1.4532465 0.42396095 0
5.9360003 -1.4639953 0.42397177 0
5.9380002 -1.4744971 0.42397898 0
5.9400005 -1.4850061 0.4239862 0
5.9430003 -1.4957838 0.42399704 0
5.9450002 -1.506309 0.42400426 0
5.9470005 -1.5168415 0.42401147 0
5.9490004 -1.5273811 0.42401868 0
5.9520001 -1.5381967 0.4240295 0
5.9540005 -1.5487527 0.42403671 0
5.9560003 -1.5593158 0.42404392 0
5.9590006 -1.5701603 0.42405474 0
5.9610004 -1.5807396 0.42406195 0
5.9630003 -1.5913261 0.4240692 0
5.9660006 -1.6021994 0.42408001 0
5.8910003 -1.2345654 0.41390473 0
5.8880005 -1.2438153 0.4138993 0
5.8900003 -1.2541547 0.41390291 0
5.8930001 -1.2647231 0.41390833 0
5.8950005 -1.2750789 0.41391194 0
5.8970003 -1.2854416 0.41391554 0
5.8990002 -1.2958118 0.41391915 0
5.9020004 -1.3064182 0.41392457 0
5.9040003 -1.3168045 0.41392818 0
5.9060001 -1.327198 0.41393179 0
5.9080005 -1.3375988 0.41393539 0
5.9110003 -1.3482431 0.41394079 0
5.9130006 -1.3586602 0.41394442 0
5.9150004 -1.3690844 0.41394803 0
5.9180002 -1.3797574 0.41395342 0
5.9200006 -1.390198 0.41395703 0
5.9220004 -1.4006456 0.41396064 0
5.9240003 -1.4111004 0.41396424 0
5.9270005 -1.4218115 0.41396967 0
5.9290004 -1.4322826 0.41397327 0
5.9310002 -1.4427608 0.41397688 0
5.9330006 -1.4532465 0.41398048 0
5.9360003 -1.4639953 0.41398591 0
5.9380002 -1.4744971 0.41398951 0
5.9400005 -1.4850061 0.41399312 0
5.9430003 -1.4957838 0.41399851 0
5.9450002 -1.506309 0.41400212 0
5.9470005 -1.5168415 0.41400573 0
5.9490004 -1.5273811 0.41400933 0
5.9520001 -1.5381967 0.41401476 0
5.9540005 -1.5487527 0.41401836 0
5.9560003 -1.5593158 0.41402197 0
5.9590006 -1.5701603 0.41402739 0
5.9610004 -1.5807396 0.414031 0
5.9630003 -1.5913261 0.41403461 0
5.9660006 -1.6021994 0.41404 0
5.8910003 -1.2345654 0.40400001 0
5.8880005 -1.2438153 0.40400001 0
5.8900003 -1.2541547 0.40400001 0
5.8930001 -1.2647231 0.40400001 0
5.8950005 -1.2750789 0.40400001 0
5.8970003 -1.2854416 0.40400001 0
5.8990002 -1.2958118 0.40400001 0
5.9020004 -1.3064182 0.40400001 0
5.9040003 -1.3168045 0.40400001 0
5.9060001 -1.327198 0.40400001 0
5.9080005 -1.3375988 0.40400001 0
5.9110003 -1.3482431 0.40400001 0
5.9130006 -1.3586602 0.40400001 0
5.9150004 -1.3690844 0.40400001 0
5.9180002 -1.3797574 0.40400001 0
5.9200006 -1.390198 0.40400001 0
5.9220004 -1.4006456 0.40400001 0
5.9240003 -1.4111004 0.40400001 0
5.9270005 -1.4218115 0.40400001 0
5.9290004 -1.4322826 0.40400001 0
5.9310002 -1.4427608 0.40400001 0
5.9330006 -1.4532465 0.40400001 0
5.9360003 -1.4639953 0.40400001 0
5.9380002 -1.4744971 0.40400001 0
5.9400005 -1.4850061 0.40400001 0
5.9430003 -1.4957838 0.40400001 0
5.9450002 -1.506309 0.40400001 0
5.9470005 -1.5168415 0.40400001 0
5.9490004 -1.5273811 0.40400001 0
5.9520001 -1.5381967 0.40400001 0
5.9540005 -1.5487527 0.40400001 0
5.9560003 -1.5593158 0.40400001 0
5.9590006 -1.5701603 0.40400001 0
5.9610004 -1.5807396 0.40400001 0
5.9630003 -1.5913261 0.40400001 0
5.9660006 -1.6021994 0.40400001 0
