# .PCD v0.7 - Point Cloud Data file format
VERSION 0.7
FIELDS x y z intensity
SIZE 4 4 4 4
TYPE F F F F
COUNT 1 1 1 1
WIDTH 1457
HEIGHT 1
VIEWPOINT 0 0 0 1 0 0 0
POINTS 1457
DATA ascii
4.8020005 2.089958 0.74543566 0
4.8050003 2.0834677 0.74566835 0
4.8070002 2.0764852 0.7458235 0
4.6810002 2.4250729 0.72832835 0
4.6840005 2.4190772 0.72855562 0
4.6860003 2.4124968 0.72870713 0
4.6880002 2.4059093 0.72885865 0
4.6910005 2.3998845 0.72908592 0
4.6930003 2.3932807 0.72923744 0
4.6950002 2.3866699 0.72938895 0
4.6980004 2.3806162 0.72961628 0
4.7000003 2.3739891 0.7297678 0
4.7020001 2.3673546 0.72991931 0
4.7050004 2.3612723 0.73014659 0
4.7070003 2.3546216 0.7302981 0
4.7090001 2.3479636 0.73044956 0
4.7120004 2.3418524 0.73067689 0
4.7140002 2.3351781 0.7308284 0
4.7160001 2.3284969 0.73097992 0
4.7190003 2.3223569 0.73120725 0
4.7210002 2.3156593 0.73135877 0
4.7230005 2.3089547 0.73151028 0
4.7260003 2.3027856 0.73173755 0
4.7280002 2.2960646 0.73188901 0
4.7300005 2.2893367 0.73204058 0
4.7330003 2.2831385 0.73226786 0
4.7350001 2.2763939 0.73241937 0
4.7370005 2.2696424 0.73257089 0
4.7400002 2.2634156 0.73279816 0
4.7420001 2.2566476 0.73294967 0
4.7450004 2.2504013 0.73317695 0
4.7470002 2.2436168 0.73332846 0
4.7490001 2.2368255 0.73347998 0
4.7520003 2.2305503 0.73370731 0
4.7540002 2.2237427 0.73385882 0
4.7560005 2.216928 0.73401034 0
4.7590003 2.2106237 0.73423761 0
4.7610002 2.2037923 0.73438913 0
4.7640004 2.1974685 0.7346164 0
4.7660003 2.1906211 0.73476791 0
4.7680001 2.1837666 0.73491943 0
4.7710004 2.1774137 0.73514676 0
4.7730002 2.170543 0.73529828 0
4.7760005 2.1641703 0.73552555 0
4.7780004 2.1572831 0.73567706 0
4.7800002 2.150389 0.73582858 0
4.7830005 2.1439874 0.73605585 0
4.7850003 2.1370769 0.73620737 0
4.7880001 2.1306553 0.73643464 0
4.7900004 2.1237288 0.73658621 0
4.7930002 2.1172874 0.73681343 0
4.7950001 2.1103444 0.73696494 0
4.7970004 2.1033945 0.73711646 0
4.8000002 2.0969241 0.73734379 0
4.8020005 2.089958 0.7374953 0
4.8050003 2.0834677 0.73772258 0
4.8070002 2.0764852 0.73787409 0
4.6810002 2.4250729 0.72060621 0
4.6840005 2.4190772 0.72082812 0
4.6860003 2.4124968 0.720976 0
4.6880002 2.4059093 0.72112393 0
4.6910005 2.3998845 0.72134578 0
4.6930003 2.3932807 0.72149372 0
4.6950002 2.3866699 0.7216416 0
4.6980004 2.3806162 0.72186351 0
4.7000003 2.3739891 0.72201139 0
4.7020001 2.3673546 0.72215927 0
4.7050004 2.3612723 0.72238117 0
4.7070003 2.3546216 0.72252905 0
4.7090001 2.3479636 0.72267699 0
4.7120004 2.3418524 0.72289884 0
4.7140002 2.3351781 0.72304678 0
4.7160001 2.3284969 0.72319472 0
4.7190003 2.3223569 0.72341657 0
4.7210002 2.3156593 0.72356451 0
4.7230005 2.3089547 0.72371244 0
4.7260003 2.3027856 0.72393429 0
4.7280002 2.2960646 0.72408217 0
4.7300005 2.2893367 0.72423011 0
4.7330003 2.2831385 0.72445196 0
4.7350001 2.2763939 0.72459984 0
4.7370005 2.2696424 0.72474778 0
4.7400002 2.2634156 0.72496963 0
4.7420001 2.2566476 0.72511756 0
4.7450004 2.2504013 0.72533941 0
4.7470002 2.2436168 0.72548735 0
4.7490001 2.2368255 0.72563529 0
4.7520003 2.2305503 0.72585714 0
4.7540002 2.2237427 0.72600508 0
4.7560005 2.216928 0.72615302 0
4.7590003 2.2106237 0.7263748 0
4.7610002 2.2037923 0.72652268 0
4.7640004 2.1974685 0.72674459 0
4.7660003 2.1906211 0.72689253 0
4.7680001 2.1837666 0.72704041 0
4.7710004 2.1774137 0.72726226 0
4.7730002 2.170543 0.7274102 0
4.7760005 2.1641703 0.72763205 0
4.7780004 2.1572831 0.72777998 0
4.7800002 2.150389 0.72792792 0
4.7830005 2.1439874 0.72814977 0
4.7850003 2.1370769 0.72829771 0
4.7880001 2.1306553 0.72851956 0
4.7900004 2.1237288 0.7286675 0
4.7930002 2.1172874 0.72888935 0
4.7950001 2.1103444 0.72903717 0
4.7970004 2.1033945 0.72918516 0
4.8000002 2.0969241 0.72940701 0
4.8020005 2.089958 0.72955495 0
4.8050003 2.0834677 0.7297768 0
4.8070002 2.0764852 0.72992468 0
4.6810002 2.4250729 0.71288413 0
4.6840005 2.4190772 0.71310061 0
4.6860003 2.4124968 0.71324492 0
4.6880002 2.4059093 0.71338916 0
4.6910005 2.3998845 0.71360564 0
4.6930003 2.3932807 0.71374995 0
4.6950002 2.3866699 0.71389425 0
4.6980004 2.3806162 0.71411073 0
4.7000003 2.3739891 0.71425498 0
4.7020001 2.3673546 0.71439934 0
4.7050004 2.3612723 0.71461582 0
4.7070003 2.3546216 0.71476007 0
4.7090001 2.3479636 0.71490443 0
4.7120004 2.3418524 0.71512085 0
4.7140002 2.3351781 0.71526515 0
4.7160001 2.3284969 0.71540946 0
4.7190003 2.3223569 0.71562594 0
4.7210002 2.3156593 0.71577024 0
4.7230005 2.3089547 0.71591455 0
4.7260003 2.3027856 0.71613097 0
4.7280002 2.2960646 0.71627527 0
4.7300005 2.2893367 0.71641958 0
4.7330003 2.2831385 0.71663606 0
4.7350001 2.2763939 0.7167803 0
4.7370005 2.2696424 0.71692467 0
4.7400002 2.2634156 0.71714115 0
4.7420001 2.2566476 0.71728539 0
4.7450004 2.2504013 0.71750188 0
4.7470002 2.2436168 0.71764618 0
4.7490001 2.2368255 0.71779048 0
4.7520003 2.2305503 0.71800697 0
4.7540002 2.2237427 0.71815121 0
4.7560005 2.216928 0.71829557 0
4.7590003 2.2106237 0.71851206 0
4.7610002 2.2037923 0.7186563 0
4.7640004 2.1974685 0.71887279 0
4.7660003 2.1906211 0.71901709 0
4.7680001 2.1837666 0.71916139 0
4.7710004 2.1774137 0.71937788 0
4.7730002 2.170543 0.71952212 0
4.7760005 2.1641703 0.7197386 0
4.7780004 2.1572831 0.71988291 0
4.7800002 2.150389 0.72002721 0
4.7830005 2.1439874 0.72024369 0
4.7850003 2.1370769 0.72038794 0
4.7880001 2.1306553 0.72060442 0
4.7900004 2.1237288 0.72074872 0
4.7930002 2.1172874 0.72096515 0
4.7950001 2.1103444 0.72110951 0
4.7970004 2.1033945 0.72125381 0
4.8000002 2.0969241 0.72147024 0
4.8020005 2.089958 0.7216146 0
4.8050003 2.0834677 0.72183102 0
4.8070002 2.0764852 0.72197533 0
4.6810002 2.4250729 0.70516205 0
4.6840005 2.4190772 0.70537311 0
4.6860003 2.4124968 0.70551378 0
4.6880002 2.4059093 0.7056545 0
4.6910005 2.3998845 0.7058655 0
4.6930003 2.3932807 0.70600617 0
4.6950002 2.3866699 0.7061469 0
4.6980004 2.3806162 0.70635796 0
4.7000003 2.3739891 0.70649862 0
4.7020001 2.3673546 0.70663935 0
4.7050004 2.3612723 0.70685041 0
4.7070003 2.3546216 0.70699108 0
4.7090001 2.3479636 0.70713174 0
4.7120004 2.3418524 0.70734286 0
4.7140002 2.3351781 0.70748353 0
4.7160001 2.3284969 0.7076242 0
4.7190003 2.3223569 0.70783532 0
4.7210002 2.3156593 0.70797598 0
4.7230005 2.3089547 0.70811665 0
4.7260003 2.3027856 0.70832771 0
4.7280002 2.2960646 0.70846844 0
4.7300005 2.2893367 0.7086091 0
4.7330003 2.2831385 0.7088201 0
4.7350001 2.2763939 0.70896083 0
4.7370005 2.2696424 0.70910156 0
4.7400002 2.2634156 0.70931256 0
4.7420001 2.2566476 0.70945328 0
4.7450004 2.2504013 0.70966434 0
4.7470002 2.2436168 0.70980501 0
4.7490001 2.2368255 0.70994568 0
4.7520003 2.2305503 0.7101568 0
4.7540002 2.2237427 0.71029747 0
4.7560005 2.216928 0.71043819 0
4.7590003 2.2106237 0.71064925 0
4.7610002 2.2037923 0.71078992 0
4.7640004 2.1974685 0.71100098 0
4.7660003 2.1906211 0.71114165 0
4.7680001 2.1837666 0.71128237 0
4.7710004 2.1774137 0.71149337 0
4.7730002 2.170543 0.7116341 0
4.7760005 2.1641703 0.71184516 0
4.7780004 2.1572831 0.71198583 0
4.7800002 2.150389 0.71212649 0
4.7830005 2.1439874 0.71233761 0
4.7850003 2.1370769 0.71247828 0
4.7880001 2.1306553 0.71268928 0
4.7900004 2.1237288 0.71283001 0
4.7930002 2.1172874 0.71304107 0
4.7950001 2.1103444 0.71318173 0
4.7970004 2.1033945 0.71332252 0
4.8000002 2.0969241 0.71353352 0
4.8020005 2.089958 0.71367419 0
4.8050003 2.0834677 0.71388525 0
4.8070002 2.0764852 0.71402597 0
4.6810002 2.4250729 0.69743991 0
4.6840005 2.4190772 0.6976456 0
4.6860003 2.4124968 0.69778264 0
4.6880002 2.4059093 0.69791973 0
4.6910005 2.3998845 0.69812536 0
4.6930003 2.3932807 0.69826245 0
4.6950002 2.3866699 0.69839954 0
4.6980004 2.3806162 0.69860518 0
4.7000003 2.3739891 0.69874227 0
4.7020001 2.3673546 0.69887936 0
4.7050004 2.3612723 0.699085 0
4.7070003 2.3546216 0.69922209 0
4.7090001 2.3479636 0.69935918 0
4.7120004 2.3418524 0.69956481 0
4.7140002 2.3351781 0.69970191 0
4.7160001 2.3284969 0.699839 0
4.7190003 2.3223569 0.70004463 0
4.7210002 2.3156593 0.70018172 0
4.7230005 2.3089547 0.70031881 0
4.7260003 2.3027856 0.70052445 0
4.7280002 2.2960646 0.70066154 0
4.7300005 2.2893367 0.70079863 0
4.7330003 2.2831385 0.70100427 0
4.7350001 2.2763939 0.70114136 0
4.7370005 2.2696424 0.70127845 0
4.7400002 2.2634156 0.70148408 0
4.7420001 2.2566476 0.70162117 0
4.7450004 2.2504013 0.70182681 0
4.7470002 2.2436168 0.7019639 0
4.7490001 2.2368255 0.70210093 0
4.7520003 2.2305503 0.70230663 0
4.7540002 2.2237427 0.70244366 0
4.7560005 2.216928 0.70258081 0
4.7590003 2.2106237 0.70278645 0
4.7610002 2.2037923 0.70292354 0
4.7640004 2.1974685 0.70312917 0
4.7660003 2.1906211 0.70326626 0
4.7680001 2.1837666 0.70340335 0
4.7710004 2.1774137 0.70360899 0
4.7730002 2.170543 0.70374608 0
4.7760005 2.1641703 0.70395172 0
4.7780004 2.1572831 0.70408881 0
4.7800002 2.150389 0.70422584 0
4.7830005 2.1439874 0.70443153 0
4.7850003 2.1370769 0.70456856 0
4.7880001 2.1306553 0.7047742 0
4.7900004 2.1237288 0.70491129 0
4.7930002 2.1172874 0.70511693 0
4.7950001 2.1103444 0.70525396 0
4.7970004 2.1033945 0.70539117 0
4.8000002 2.0969241 0.70559675 0
4.8020005 2.089958 0.7057339 0
4.8050003 2.0834677 0.70593947 0
4.8070002 2.0764852 0.70607656 0
4.6810002 2.4250729 0.68971783 0
4.6840005 2.4190772 0.68991804 0
4.6860003 2.4124968 0.69005156 0
4.6880002 2.4059093 0.69018501 0
4.6910005 2.3998845 0.69038522 0
4.6930003 2.3932807 0.69051874 0
4.6950002 2.3866699 0.69065219 0
4.6980004 2.3806162 0.6908524 0
4.7000003 2.3739891 0.69098592 0
4.7020001 2.3673546 0.69111937 0
4.7050004 2.3612723 0.69131958 0
4.7070003 2.3546216 0.6914531 0
4.7090001 2.3479636 0.69158655 0
4.7120004 2.3418524 0.69178677 0
4.7140002 2.3351781 0.69192028 0
4.7160001 2.3284969 0.69205374 0
4.7190003 2.3223569 0.69225395 0
4.7210002 2.3156593 0.69238746 0
4.7230005 2.3089547 0.69252098 0
4.7260003 2.3027856 0.69272119 0
4.7280002 2.2960646 0.69285464 0
4.7300005 2.2893367 0.69298816 0
4.7330003 2.2831385 0.69318837 0
4.7350001 2.2763939 0.69332182 0
4.7370005 2.2696424 0.69345534 0
4.7400002 2.2634156 0.69365549 0
4.7420001 2.2566476 0.69378901 0
4.7450004 2.2504013 0.69398928 0
4.7470002 2.2436168 0.69412273 0
4.7490001 2.2368255 0.69425619 0
4.7520003 2.2305503 0.69445646 0
4.7540002 2.2237427 0.69458991 0
4.7560005 2.216928 0.69472337 0
4.7590003 2.2106237 0.69492364 0
4.7610002 2.2037923 0.69505703 0
4.7640004 2.1974685 0.69525731 0
4.7660003 2.1906211 0.69539082 0
4.7680001 2.1837666 0.69552428 0
4.7710004 2.1774137 0.69572449 0
4.7730002 2.170543 0.695858 0
4.7760005 2.1641703 0.69605827 0
4.7780004 2.1572831 0.69619167 0
4.7800002 2.150389 0.69632518 0
4.7830005 2.1439874 0.69652545 0
4.7850003 2.1370769 0.69665885 0
4.7880001 2.1306553 0.69685912 0
4.7900004 2.1237288 0.69699258 0
4.7930002 2.1172874 0.69719279 0
4.7950001 2.1103444 0.6973263 0
4.7970004 2.1033945 0.69745982 0
4.8000002 2.0969241 0.69765997 0
4.8020005 2.089958 0.69779348 0
4.8050003 2.0834677 0.6979937 0
4.8070002 2.0764852 0.69812715 0
4.6810002 2.4250729 0.68199575 0
4.6840005 2.4190772 0.68219054 0
4.6860003 2.4124968 0.68232042 0
4.6880002 2.4059093 0.68245029 0
4.6910005 2.3998845 0.68264508 0
4.6930003 2.3932807 0.68277496 0
4.6950002 2.3866699 0.68290484 0
4.6980004 2.3806162 0.68309963 0
4.7000003 2.3739891 0.68322951 0
4.7020001 2.3673546 0.68335938 0
4.7050004 2.3612723 0.68355423 0
4.7070003 2.3546216 0.68368411 0
4.7090001 2.3479636 0.68381393 0
4.7120004 2.3418524 0.68400878 0
4.7140002 2.3351781 0.68413866 0
4.7160001 2.3284969 0.68426853 0
4.7190003 2.3223569 0.68446332 0
4.7210002 2.3156593 0.6845932 0
4.7230005 2.3089547 0.68472314 0
4.7260003 2.3027856 0.68491793 0
4.7280002 2.2960646 0.68504775 0
4.7300005 2.2893367 0.68517768 0
4.7330003 2.2831385 0.68537247 0
4.7350001 2.2763939 0.68550229 0
4.7370005 2.2696424 0.68563223 0
4.7400002 2.2634156 0.68582702 0
4.7420001 2.2566476 0.68595684 0
4.7450004 2.2504013 0.68615174 0
4.7470002 2.2436168 0.68628156 0
4.7490001 2.2368255 0.68641138 0
4.7520003 2.2305503 0.68660629 0
4.7540002 2.2237427 0.68673611 0
4.7560005 2.216928 0.68686604 0
4.7590003 2.2106237 0.68706083 0
4.7610002 2.2037923 0.68719065 0
4.7640004 2.1974685 0.6873855 0
4.7660003 2.1906211 0.68751538 0
4.7680001 2.1837666 0.6876452 0
4.7710004 2.1774137 0.6878401 0
4.7730002 2.170543 0.68796992 0
4.7760005 2.1641703 0.68816471 0
4.7780004 2.1572831 0.68829465 0
4.7800002 2.150389 0.68842447 0
4.7830005 2.1439874 0.68861932 0
4.7850003 2.1370769 0.68874919 0
4.7880001 2.1306553 0.68894398 0
4.7900004 2.1237288 0.68907386 0
4.7930002 2.1172874 0.68926871 0
4.7950001 2.1103444 0.68939853 0
4.7970004 2.1033945 0.68952847 0
4.8000002 2.0969241 0.68972325 0
4.8020005 2.089958 0.68985313 0
4.8050003 2.0834677 0.69004792 0
4.8070002 2.0764852 0.6901778 0
4.6810002 2.4250729 0.67427361 0
4.6840005 2.4190772 0.67446303 0
4.6860003 2.4124968 0.67458928 0
4.6880002 2.4059093 0.67471552 0
4.6910005 2.3998845 0.67490494 0
4.6930003 2.3932807 0.67503119 0
4.6950002 2.3866699 0.67515743 0
4.6980004 2.3806162 0.67534685 0
4.7000003 2.3739891 0.67547315 0
4.7020001 2.3673546 0.67559946 0
4.7050004 2.3612723 0.67578888 0
4.7070003 2.3546216 0.67591512 0
4.7090001 2.3479636 0.67604136 0
4.7120004 2.3418524 0.67623079 0
4.7140002 2.3351781 0.67635703 0
4.7160001 2.3284969 0.67648327 0
4.7190003 2.3223569 0.6766727 0
4.7210002 2.3156593 0.67679894 0
4.7230005 2.3089547 0.67692518 0
4.7260003 2.3027856 0.67711461 0
4.7280002 2.2960646 0.67724085 0
4.7300005 2.2893367 0.67736721 0
4.7330003 2.2831385 0.67755651 0
4.7350001 2.2763939 0.67768282 0
4.7370005 2.2696424 0.67780912 0
4.7400002 2.2634156 0.67799848 0
4.7420001 2.2566476 0.67812473 0
4.7450004 2.2504013 0.67831415 0
4.7470002 2.2436168 0.67844045 0
4.7490001 2.2368255 0.67856669 0
4.7520003 2.2305503 0.67875612 0
4.7540002 2.2237427 0.67888236 0
4.7560005 2.216928 0.6790086 0
4.7590003 2.2106237 0.67919803 0
4.7610002 2.2037923 0.67932427 0
4.7640004 2.1974685 0.67951369 0
4.7660003 2.1906211 0.67963994 0
4.7680001 2.1837666 0.67976618 0
4.7710004 2.1774137 0.6799556 0
4.7730002 2.170543 0.68008184 0
4.7760005 2.1641703 0.68027127 0
4.7780004 2.1572831 0.68039757 0
4.7800002 2.150389 0.68052381 0
4.7830005 2.1439874 0.68071324 0
4.7850003 2.1370769 0.68083948 0
4.7880001 2.1306553 0.68102884 0
4.7900004 2.1237288 0.68115515 0
4.7930002 2.1172874 0.68134451 0
4.7950001 2.1103444 0.68147081 0
4.7970004 2.1033945 0.68159711 0
4.8000002 2.0969241 0.68178648 0
4.8020005 2.089958 0.68191278 0
4.8050003 2.0834677 0.68210214 0
4.8070002 2.0764852 0.68222839 0
4.6810002 2.4250729 0.66655147 0
4.6840005 2.4190772 0.66673553 0
4.6860003 2.4124968 0.6668582 0
4.6880002 2.4059093 0.66698086 0
4.6910005 2.3998845 0.6671648 0
4.6930003 2.3932807 0.66728747 0
4.6950002 2.3866699 0.66741014 0
4.6980004 2.3806162 0.66759413 0
4.7000003 2.3739891 0.6677168 0
4.7020001 2.3673546 0.66783941 0
4.7050004 2.3612723 0.66802347 0
4.7070003 2.3546216 0.66814607 0
4.7090001 2.3479636 0.66826868 0
4.7120004 2.3418524 0.66845274 0
4.7140002 2.3351781 0.66857541 0
4.7160001 2.3284969 0.66869807 0
4.7190003 2.3223569 0.66888201 0
4.7210002 2.3156593 0.66900468 0
4.7230005 2.3089547 0.66912735 0
4.7260003 2.3027856 0.66931134 0
4.7280002 2.2960646 0.66943401 0
4.7300005 2.2893367 0.66955668 0
4.7330003 2.2831385 0.66974068 0
4.7350001 2.2763939 0.66986328 0
4.7370005 2.2696424 0.66998601 0
4.7400002 2.2634156 0.67016995 0
4.7420001 2.2566476 0.67029262 0
4.7450004 2.2504013 0.67047662 0
4.7470002 2.2436168 0.67059922 0
4.7490001 2.2368255 0.67072189 0
4.7520003 2.2305503 0.67090589 0
4.7540002 2.2237427 0.67102861 0
4.7560005 2.216928 0.67115128 0
4.7590003 2.2106237 0.67133522 0
4.7610002 2.2037923 0.67145789 0
4.7640004 2.1974685 0.67164183 0
4.7660003 2.1906211 0.67176449 0
4.7680001 2.1837666 0.67188716 0
4.7710004 2.1774137 0.67207122 0
4.7730002 2.170543 0.67219383 0
4.7760005 2.1641703 0.67237782 0
4.7780004 2.1572831 0.67250049 0
4.7800002 2.150389 0.67262316 0
4.7830005 2.1439874 0.67280716 0
4.7850003 2.1370769 0.67292976 0
4.7880001 2.1306553 0.67311376 0
4.7900004 2.1237288 0.67323643 0
4.7930002 2.1172874 0.67342043 0
4.7950001 2.1103444 0.6735431 0
4.7970004 2.1033945 0.67366576 0
4.8000002 2.0969241 0.6738497 0
4.8020005 2.089958 0.67397237 0
4.8050003 2.0834677 0.67415637 0
4.8070002 2.0764852 0.67427897 0
4.6810002 2.4250729 0.65882945 0
4.6840005 2.4190772 0.65900803 0
4.6860003 2.4124968 0.659127 0
4.6880002 2.4059093 0.65924609 0
4.6910005 2.3998845 0.65942466 0
4.6930003 2.3932807 0.65954375 0
4.6950002 2.3866699 0.65966272 0
4.6980004 2.3806162 0.65984136 0
4.7000003 2.3739891 0.65996039 0
4.7020001 2.3673546 0.66007948 0
4.7050004 2.3612723 0.66025805 0
4.7070003 2.3546216 0.66037709 0
4.7090001 2.3479636 0.66049612 0
4.7120004 2.3418524 0.66067469 0
4.7140002 2.3351781 0.66079378 0
4.7160001 2.3284969 0.66091275 0
4.7190003 2.3223569 0.66109139 0
4.7210002 2.3156593 0.66121042 0
4.7230005 2.3089547 0.66132951 0
4.7260003 2.3027856 0.66150808 0
4.7280002 2.2960646 0.66162711 0
4.7300005 2.2893367 0.66174614 0
4.7330003 2.2831385 0.66192472 0
4.7350001 2.2763939 0.66204381 0
4.7370005 2.2696424 0.6621629 0
4.7400002 2.2634156 0.66234142 0
4.7420001 2.2566476 0.66246045 0
4.7450004 2.2504013 0.66263902 0
4.7470002 2.2436168 0.66275811 0
4.7490001 2.2368255 0.66287714 0
4.7520003 2.2305503 0.66305578 0
4.7540002 2.2237427 0.66317475 0
4.7560005 2.216928 0.66329384 0
4.7590003 2.2106237 0.66347241 0
4.7610002 2.2037923 0.66359144 0
4.7640004 2.1974685 0.66377008 0
4.7660003 2.1906211 0.66388905 0
4.7680001 2.1837666 0.66400814 0
4.7710004 2.1774137 0.66418672 0
4.7730002 2.170543 0.66430581 0
4.7760005 2.1641703 0.66448438 0
4.7780004 2.1572831 0.66460341 0
4.7800002 2.150389 0.66472244 0
4.7830005 2.1439874 0.66490102 0
4.7850003 2.1370769 0.66502011 0
4.7880001 2.1306553 0.66519868 0
4.7900004 2.1237288 0.66531771 0
4.7930002 2.1172874 0.66549629 0
4.7950001 2.1103444 0.66561532 0
4.7970004 2.1033945 0.66573441 0
4.8000002 2.0969241 0.66591299 0
4.8020005 2.089958 0.66603208 0
4.8050003 2.0834677 0.66621059 0
4.8070002 2.0764852 0.66632962 0
4.6810002 2.4250729 0.65110731 0
4.6840005 2.4190772 0.65128052 0
4.6860003 2.4124968 0.65139592 0
4.6880002 2.4059093 0.65151137 0
4.6910005 2.3998845 0.65168452 0
4.6930003 2.3932807 0.65179998 0
4.6950002 2.3866699 0.65191543 0
4.6980004 2.3806162 0.65208858 0
4.7000003 2.3739891 0.65220404 0
4.7020001 2.3673546 0.65231943 0
4.7050004 2.3612723 0.65249264 0
4.7070003 2.3546216 0.6526081 0
4.7090001 2.3479636 0.65272349 0
4.7120004 2.3418524 0.6528967 0
4.7140002 2.3351781 0.65301216 0
4.7160001 2.3284969 0.65312755 0
4.7190003 2.3223569 0.65330076 0
4.7210002 2.3156593 0.65341616 0
4.7230005 2.3089547 0.65353167 0
4.7260003 2.3027856 0.65370476 0
4.7280002 2.2960646 0.65382022 0
4.7300005 2.2893367 0.65393567 0
4.7330003 2.2831385 0.65410888 0
4.7350001 2.2763939 0.65422428 0
4.7370005 2.2696424 0.65433973 0
4.7400002 2.2634156 0.65451288 0
4.7420001 2.2566476 0.65462834 0
4.7450004 2.2504013 0.65480149 0
4.7470002 2.2436168 0.65491694 0
4.7490001 2.2368255 0.6550324 0
4.7520003 2.2305503 0.65520561 0
4.7540002 2.2237427 0.655321 0
4.7560005 2.216928 0.65543646 0
4.7590003 2.2106237 0.65560961 0
4.7610002 2.2037923 0.65572506 0
4.7640004 2.1974685 0.65589821 0
4.7660003 2.1906211 0.65601367 0
4.7680001 2.1837666 0.65612912 0
4.7710004 2.1774137 0.65630227 0
4.7730002 2.170543 0.65641773 0
4.7760005 2.1641703 0.65659094 0
4.7780004 2.1572831 0.65670633 0
4.7800002 2.150389 0.65682173 0
4.7830005 2.1439874 0.65699494 0
4.7850003 2.1370769 0.65711039 0
4.7880001 2.1306553 0.65728354 0
4.7900004 2.1237288 0.657399 0
4.7930002 2.1172874 0.65757215 0
4.7950001 2.1103444 0.6576876 0
4.7970004 2.1033945 0.65780306 0
4.8000002 2.0969241 0.65797621 0
4.8020005 2.089958 0.65809166 0
4.8050003 2.0834677 0.65826482 0
4.8070002 2.0764852 0.65838027 0
4.6810002 2.4250729 0.64338517 0
4.6840005 2.4190772 0.64355296 0
4.6860003 2.4124968 0.64366484 0
4.6880002 2.4059093 0.64377666 0
4.6910005 2.3998845 0.64394438 0
4.6930003 2.3932807 0.6440562 0
4.6950002 2.3866699 0.64416808 0
4.6980004 2.3806162 0.64433581 0
4.7000003 2.3739891 0.64444762 0
4.7020001 2.3673546 0.6445595 0
4.7050004 2.3612723 0.64472723 0
4.7070003 2.3546216 0.64483905 0
4.7090001 2.3479636 0.64495087 0
4.7120004 2.3418524 0.64511871 0
4.7140002 2.3351781 0.64523053 0
4.7160001 2.3284969 0.64534235 0
4.7190003 2.3223569 0.64551008 0
4.7210002 2.3156593 0.6456219 0
4.7230005 2.3089547 0.64573377 0
4.7260003 2.3027856 0.6459015 0
4.7280002 2.2960646 0.64601338 0
4.7300005 2.2893367 0.6461252 0
4.7330003 2.2831385 0.64629292 0
4.7350001 2.2763939 0.64640474 0
4.7370005 2.2696424 0.64651662 0
4.7400002 2.2634156 0.64668441 0
4.7420001 2.2566476 0.64679623 0
4.7450004 2.2504013 0.64696395 0
4.7470002 2.2436168 0.64707577 0
4.7490001 2.2368255 0.64718759 0
4.7520003 2.2305503 0.64735538 0
4.7540002 2.2237427 0.6474672 0
4.7560005 2.216928 0.64757907 0
4.7590003 2.2106237 0.6477468 0
4.7610002 2.2037923 0.64785868 0
4.7640004 2.1974685 0.64802641 0
4.7660003 2.1906211 0.64813823 0
4.7680001 2.1837666 0.6482501 0
4.7710004 2.1774137 0.64841783 0
4.7730002 2.170543 0.64852965 0
4.7760005 2.1641703 0.64869744 0
4.7780004 2.1572831 0.64880925 0
4.7800002 2.150389 0.64892107 0
4.7830005 2.1439874 0.64908886 0
4.7850003 2.1370769 0.64920068 0
4.7880001 2.1306553 0.64936841 0
4.7900004 2.1237288 0.64948028 0
4.7930002 2.1172874 0.64964801 0
4.7950001 2.1103444 0.64975983 0
4.7970004 2.1033945 0.64987171 0
4.8000002 2.0969241 0.65003943 0
4.8020005 2.089958 0.65015131 0
4.8050003 2.0834677 0.65031904 0
4.8070002 2.0764852 0.65043086 0
4.6810002 2.4250729 0.63566309 0
4.6840005 2.4190772 0.63582546 0
4.6860003 2.4124968 0.63593364 0
4.6880002 2.4059093 0.63604188 0
4.6910005 2.3998845 0.63620424 0
4.6930003 2.3932807 0.63631248 0
4.6950002 2.3866699 0.63642073 0
4.6980004 2.3806162 0.63658303 0
4.7000003 2.3739891 0.63669127 0
4.7020001 2.3673546 0.63679945 0
4.7050004 2.3612723 0.63696182 0
4.7070003 2.3546216 0.63707006 0
4.7090001 2.3479636 0.6371783 0
4.7120004 2.3418524 0.63734066 0
4.7140002 2.3351781 0.63744885 0
4.7160001 2.3284969 0.63755709 0
4.7190003 2.3223569 0.63771945 0
4.7210002 2.3156593 0.63782769 0
4.7230005 2.3089547 0.63793594 0
4.7260003 2.3027856 0.63809824 0
4.7280002 2.2960646 0.63820648 0
4.7300005 2.2893367 0.63831472 0
4.7330003 2.2831385 0.63847703 0
4.7350001 2.2763939 0.63858527 0
4.7370005 2.2696424 0.63869351 0
4.7400002 2.2634156 0.63885587 0
4.7420001 2.2566476 0.63896406 0
4.7450004 2.2504013 0.63912642 0
4.7470002 2.2436168 0.63923466 0
4.7490001 2.2368255 0.63934284 0
4.7520003 2.2305503 0.63950521 0
4.7540002 2.2237427 0.63961339 0
4.7560005 2.216928 0.63972169 0
4.7590003 2.2106237 0.639884 0
4.7610002 2.2037923 0.63999224 0
4.7640004 2.1974685 0.6401546 0
4.7660003 2.1906211 0.64026284 0
4.7680001 2.1837666 0.64037108 0
4.7710004 2.1774137 0.64053339 0
4.7730002 2.170543 0.64064163 0
4.7760005 2.1641703 0.64080399 0
4.7780004 2.1572831 0.64091218 0
4.7800002 2.150389 0.64102042 0
4.7830005 2.1439874 0.64118278 0
4.7850003 2.1370769 0.64129096 0
4.7880001 2.1306553 0.64145333 0
4.7900004 2.1237288 0.64156157 0
4.7930002 2.1172874 0.64172387 0
4.7950001 2.1103444 0.64183211 0
4.7970004 2.1033945 0.64194036 0
4.8000002 2.0969241 0.64210272 0
4.8020005 2.089958 0.64221096 0
4.8050003 2.0834677 0.64237326 0
4.8070002 2.0764852 0.64248151 0
4.6810002 2.4250729 0.62794101 0
4.6840005 2.4190772 0.62809795 0
4.6860003 2.4124968 0.62820256 0
4.6880002 2.4059093 0.62830716 0
4.6910005 2.3998845 0.6284641 0
4.6930003 2.3932807 0.62856877 0
4.6950002 2.3866699 0.62867332 0
4.6980004 2.3806162 0.62883031 0
4.7000003 2.3739891 0.62893492 0
4.7020001 2.3673546 0.62903953 0
4.7050004 2.3612723 0.62919647 0
4.7070003 2.3546216 0.62930107 0
4.7090001 2.3479636 0.62940568 0
4.7120004 2.3418524 0.62956262 0
4.7140002 2.3351781 0.62966722 0
4.7160001 2.3284969 0.62977183 0
4.7190003 2.3223569 0.62992883 0
4.7210002 2.3156593 0.63003343 0
4.7230005 2.3089547 0.63013804 0
4.7260003 2.3027856 0.63029498 0
4.7280002 2.2960646 0.63039958 0
4.7300005 2.2893367 0.63050425 0
4.7330003 2.2831385 0.63066113 0
4.7350001 2.2763939 0.6307658 0
4.7370005 2.2696424 0.6308704 0
4.7400002 2.2634156 0.63102734 0
4.7420001 2.2566476 0.63113195 0
4.7450004 2.2504013 0.63128889 0
4.7470002 2.2436168 0.63139349 0
4.7490001 2.2368255 0.6314981 0
4.7520003 2.2305503 0.63165504 0
4.7540002 2.2237427 0.63175964 0
4.7560005 2.216928 0.63186431 0
4.7590003 2.2106237 0.63202119 0
4.7610002 2.2037923 0.63212585 0
4.7640004 2.1974685 0.63228279 0
4.7660003 2.1906211 0.6323874 0
4.7680001 2.1837666 0.63249201 0
4.7710004 2.1774137 0.63264894 0
4.7730002 2.170543 0.63275355 0
4.7760005 2.1641703 0.63291049 0
4.7780004 2.1572831 0.6330151 0
4.7800002 2.150389 0.6331197 0
4.7830005 2.1439874 0.6332767 0
4.7850003 2.1370769 0.63338131 0
4.7880001 2.1306553 0.63353819 0
4.7900004 2.1237288 0.63364285 0
4.7930002 2.1172874 0.63379979 0
4.7950001 2.1103444 0.6339044 0
4.7970004 2.1033945 0.634009 0
4.8000002 2.0969241 0.63416594 0
4.8020005 2.089958 0.63427055 0
4.8050003 2.0834677 0.63442749 0
4.8070002 2.0764852 0.63453209 0
4.6810002 2.4250729 0.62021887 0
4.6840005 2.4190772 0.62037045 0
4.6860003 2.4124968 0.62047148 0
4.6880002 2.4059093 0.62057245 0
4.6910005 2.3998845 0.62072396 0
4.6930003 2.3932807 0.62082499 0
4.6950002 2.3866699 0.62092602 0
4.6980004 2.3806162 0.62107754 0
4.7000003 2.3739891 0.62117851 0
4.7020001 2.3673546 0.62127954 0
4.7050004 2.3612723 0.62143105 0
4.7070003 2.3546216 0.62153208 0
4.7090001 2.3479636 0.62163305 0
4.7120004 2.3418524 0.62178463 0
4.7140002 2.3351781 0.62188566 0
4.7160001 2.3284969 0.62198663 0
4.7190003 2.3223569 0.62213814 0
4.7210002 2.3156593 0.62223917 0
4.7230005 2.3089547 0.6223402 0
4.7260003 2.3027856 0.62249172 0
4.7280002 2.2960646 0.62259269 0
4.7300005 2.2893367 0.62269372 0
4.7330003 2.2831385 0.62284523 0
4.7350001 2.2763939 0.62294626 0
4.7370005 2.2696424 0.62304729 0
4.7400002 2.2634156 0.62319881 0
4.7420001 2.2566476 0.62329984 0
4.7450004 2.2504013 0.62345135 0
4.7470002 2.2436168 0.62355232 0
4.7490001 2.2368255 0.62365335 0
4.7520003 2.2305503 0.62380487 0
4.7540002 2.2237427 0.6239059 0
4.7560005 2.216928 0.62400687 0
4.7590003 2.2106237 0.62415838 0
4.7610002 2.2037923 0.62425941 0
4.7640004 2.1974685 0.62441099 0
4.7660003 2.1906211 0.62451196 0
4.7680001 2.1837666 0.62461299 0
4.7710004 2.1774137 0.6247645 0
4.7730002 2.170543 0.62486553 0
4.7760005 2.1641703 0.62501705 0
4.7780004 2.1572831 0.62511802 0
4.7800002 2.150389 0.62521905 0
4.7830005 2.1439874 0.62537062 0
4.7850003 2.1370769 0.62547159 0
4.7880001 2.1306553 0.62562311 0
4.7900004 2.1237288 0.62572414 0
4.7930002 2.1172874 0.62587565 0
4.7950001 2.1103444 0.62597662 0
4.7970004 2.1033945 0.62607765 0
4.8000002 2.0969241 0.62622917 0
4.8020005 2.089958 0.6263302 0
4.8050003 2.0834677 0.62648171 0
4.8070002 2.0764852 0.62658274 0
4.6810002 2.4250729 0.61249679 0
4.6840005 2.4190772 0.61264288 0
4.6860003 2.4124968 0.61274028 0
4.6880002 2.4059093 0.61283767 0
4.6910005 2.3998845 0.61298382 0
4.6930003 2.3932807 0.61308122 0
4.6950002 2.3866699 0.61317861 0
4.6980004 2.3806162 0.61332476 0
4.7000003 2.3739891 0.61342216 0
4.7020001 2.3673546 0.61351955 0
4.7050004 2.3612723 0.6136657 0
4.7070003 2.3546216 0.61376309 0
4.7090001 2.3479636 0.61386049 0
4.7120004 2.3418524 0.61400658 0
4.7140002 2.3351781 0.61410397 0
4.7160001 2.3284969 0.61420137 0
4.7190003 2.3223569 0.61434752 0
4.7210002 2.3156593 0.61444491 0
4.7230005 2.3089547 0.61454231 0
4.7260003 2.3027856 0.6146884 0
4.7280002 2.2960646 0.61478579 0
4.7300005 2.2893367 0.61488324 0
4.7330003 2.2831385 0.61502934 0
4.7350001 2.2763939 0.61512673 0
4.7370005 2.2696424 0.61522412 0
4.7400002 2.2634156 0.61537027 0
4.7420001 2.2566476 0.61546767 0
4.7450004 2.2504013 0.61561382 0
4.7470002 2.2436168 0.61571121 0
4.7490001 2.2368255 0.61580861 0
4.7520003 2.2305503 0.6159547 0
4.7540002 2.2237427 0.61605209 0
4.7560005 2.216928 0.61614954 0
4.7590003 2.2106237 0.61629564 0
4.7610002 2.2037923 0.61639303 0
4.7640004 2.1974685 0.61653912 0
4.7660003 2.1906211 0.61663651 0
4.7680001 2.1837666 0.61673391 0
4.7710004 2.1774137 0.61688006 0
4.7730002 2.170543 0.61697745 0
4.7760005 2.1641703 0.6171236 0
4.7780004 2.1572831 0.617221 0
4.7800002 2.150389 0.61731839 0
4.7830005 2.1439874 0.61746448 0
4.7850003 2.1370769 0.61756188 0
4.7880001 2.1306553 0.61770797 0
4.7900004 2.1237288 0.61780542 0
4.7930002 2.1172874 0.61795151 0
4.7950001 2.1103444 0.61804891 0
4.7970004 2.1033945 0.6181463 0
4.8000002 2.0969241 0.61829245 0
4.8020005 2.089958 0.61838984 0
4.8050003 2.0834677 0.61853594 0
4.8070002 2.0764852 0.61863333 0
4.6810002 2.4250729 0.60477471 0
4.6840005 2.4190772 0.60491538 0
4.6860003 2.4124968 0.6050092 0
4.6880002 2.4059093 0.60510302 0
4.6910005 2.3998845 0.60524368 0
4.6930003 2.3932807 0.6053375 0
4.6950002 2.3866699 0.60543126 0
4.6980004 2.3806162 0.60557199 0
4.7000003 2.3739891 0.6056658 0
4.7020001 2.3673546 0.60575956 0
4.7050004 2.3612723 0.60590029 0
4.7070003 2.3546216 0.60599405 0
4.7090001 2.3479636 0.60608786 0
4.7120004 2.3418524 0.60622859 0
4.7140002 2.3351781 0.60632235 0
4.7160001 2.3284969 0.60641617 0
4.7190003 2.3223569 0.60655689 0
4.7210002 2.3156593 0.60665065 0
4.7230005 2.3089547 0.60674447 0
4.7260003 2.3027856 0.60688514 0
4.7280002 2.2960646 0.60697895 0
4.7300005 2.2893367 0.60707277 0
4.7330003 2.2831385 0.60721344 0
4.7350001 2.2763939 0.6073072 0
4.7370005 2.2696424 0.60740101 0
4.7400002 2.2634156 0.60754174 0
4.7420001 2.2566476 0.6076355 0
4.7450004 2.2504013 0.60777622 0
4.7470002 2.2436168 0.60787004 0
4.7490001 2.2368255 0.6079638 0
4.7520003 2.2305503 0.60810453 0
4.7540002 2.2237427 0.60819829 0
4.7560005 2.216928 0.6082921 0
4.7590003 2.2106237 0.60843283 0
4.7610002 2.2037923 0.60852659 0
4.7640004 2.1974685 0.60866731 0
4.7660003 2.1906211 0.60876113 0
4.7680001 2.1837666 0.60885489 0
4.7710004 2.1774137 0.60899562 0
4.7730002 2.170543 0.60908937 0
4.7760005 2.1641703 0.6092301 0
4.7780004 2.1572831 0.60932386 0
4.7800002 2.150389 0.60941768 0
4.7830005 2.1439874 0.6095584 0
4.7850003 2.1370769 0.60965216 0
4.7880001 2.1306553 0.60979289 0
4.7900004 2.1237288 0.60988671 0
4.7930002 2.1172874 0.61002737 0
4.7950001 2.1103444 0.61012113 0
4.7970004 2.1033945 0.61021495 0
4.8000002 2.0969241 0.61035568 0
4.8020005 2.089958 0.61044949 0
4.8050003 2.0834677 0.61059016 0
4.8070002 2.0764852 0.61068398 0
4.6810002 2.4250729 0.59705257 0
4.6840005 2.4190772 0.59718788 0
4.6860003 2.4124968 0.59727806 0
4.6880002 2.4059093 0.59736824 0
4.6910005 2.3998845 0.59750354 0
4.6930003 2.3932807 0.59759372 0
4.6950002 2.3866699 0.59768391 0
4.6980004 2.3806162 0.59781921 0
4.7000003 2.3739891 0.59790939 0
4.7020001 2.3673546 0.59799957 0
4.7050004 2.3612723 0.59813488 0
4.7070003 2.3546216 0.59822506 0
4.7090001 2.3479636 0.59831524 0
4.7120004 2.3418524 0.59845054 0
4.7140002 2.3351781 0.59854072 0
4.7160001 2.3284969 0.59863091 0
4.7190003 2.3223569 0.59876621 0
4.7210002 2.3156593 0.59885639 0
4.7230005 2.3089547 0.59894657 0
4.7260003 2.3027856 0.59908187 0
4.7280002 2.2960646 0.59917206 0
4.7300005 2.2893367 0.59926224 0
4.7330003 2.2831385 0.59939754 0
4.7350001 2.2763939 0.59948772 0
4.7370005 2.2696424 0.5995779 0
4.7400002 2.2634156 0.59971321 0
4.7420001 2.2566476 0.59980339 0
4.7450004 2.2504013 0.59993869 0
4.7470002 2.2436168 0.60002887 0
4.7490001 2.2368255 0.60011905 0
4.7520003 2.2305503 0.60025436 0
4.7540002 2.2237427 0.60034454 0
4.7560005 2.216928 0.60043472 0
4.7590003 2.2106237 0.60057002 0
4.7610002 2.2037923 0.6006602 0
4.7640004 2.1974685 0.60079551 0
4.7660003 2.1906211 0.60088569 0
4.7680001 2.1837666 0.60097587 0
4.7710004 2.1774137 0.60111117 0
4.7730002 2.170543 0.60120136 0
4.7760005 2.1641703 0.60133666 0
4.7780004 2.1572831 0.60142684 0
4.7800002 2.150389 0.60151702 0
4.7830005 2.1439874 0.60165232 0
4.7850003 2.1370769 0.60174251 0
4.7880001 2.1306553 0.60187775 0
4.7900004 2.1237288 0.60196799 0
4.7930002 2.1172874 0.60210323 0
4.7950001 2.1103444 0.60219342 0
4.7970004 2.1033945 0.60228366 0
4.8000002 2.0969241 0.6024189 0
4.8020005 2.089958 0.60250914 0
4.8050003 2.0834677 0.60264438 0
4.8070002 2.0764852 0.60273457 0
4.6810002 2.4250729 0.58933049 0
4.6840005 2.4190772 0.58946037 0
4.6860003 2.4124968 0.58954692 0
4.6880002 2.4059093 0.58963352 0
4.6910005 2.3998845 0.5897634 0
4.6930003 2.3932807 0.58984995 0
4.6950002 2.3866699 0.58993655 0
4.6980004 2.3806162 0.59006643 0
4.7000003 2.3739891 0.59015304 0
4.7020001 2.3673546 0.59023958 0
4.7050004 2.3612723 0.59036946 0
4.7070003 2.3546216 0.59045607 0
4.7090001 2.3479636 0.59054267 0
4.7120004 2.3418524 0.59067249 0
4.7140002 2.3351781 0.5907591 0
4.7160001 2.3284969 0.5908457 0
4.7190003 2.3223569 0.59097558 0
4.7210002 2.3156593 0.59106213 0
4.7230005 2.3089547 0.59114873 0
4.7260003 2.3027856 0.59127861 0
4.7280002 2.2960646 0.59136516 0
4.7300005 2.2893367 0.59145176 0
4.7330003 2.2831385 0.59158164 0
4.7350001 2.2763939 0.59166825 0
4.7370005 2.2696424 0.59175479 0
4.7400002 2.2634156 0.59188467 0
4.7420001 2.2566476 0.59197128 0
4.7450004 2.2504013 0.59210116 0
4.7470002 2.2436168 0.5921877 0
4.7490001 2.2368255 0.59227431 0
4.7520003 2.2305503 0.59240419 0
4.7540002 2.2237427 0.59249073 0
4.7560005 2.216928 0.59257734 0
4.7590003 2.2106237 0.59270722 0
4.7610002 2.2037923 0.59279382 0
4.7640004 2.1974685 0.59292364 0
4.7660003 2.1906211 0.59301025 0
4.7680001 2.1837666 0.59309685 0
4.7710004 2.1774137 0.59322673 0
4.7730002 2.170543 0.59331328 0
4.7760005 2.1641703 0.59344316 0
4.7780004 2.1572831 0.59352976 0
4.7800002 2.150389 0.59361637 0
4.7830005 2.1439874 0.59374619 0
4.7850003 2.1370769 0.59383279 0
4.7880001 2.1306553 0.59396267 0
4.7900004 2.1237288 0.59404927 0
4.7930002 2.1172874 0.59417915 0
4.7950001 2.1103444 0.5942657 0
4.7970004 2.1033945 0.5943523 0
4.8000002 2.0969241 0.59448218 0
4.8020005 2.089958 0.59456873 0
4.8050003 2.0834677 0.59469861 0
4.8070002 2.0764852 0.59478521 0
4.6810002 2.4250729 0.58160841 0
4.6840005 2.4190772 0.58173287 0
4.6860003 2.4124968 0.58181584 0
4.6880002 2.4059093 0.58189881 0
4.6910005 2.3998845 0.58202326 0
4.6930003 2.3932807 0.58210623 0
4.6950002 2.3866699 0.5821892 0
4.6980004 2.3806162 0.58231366 0
4.7000003 2.3739891 0.58239663 0
4.7020001 2.3673546 0.5824796 0
4.7050004 2.3612723 0.58260411 0
4.7070003 2.3546216 0.58268708 0
4.7090001 2.3479636 0.58277005 0
4.7120004 2.3418524 0.5828945 0
4.7140002 2.3351781 0.58297747 0
4.7160001 2.3284969 0.58306044 0
4.7190003 2.3223569 0.5831849 0
4.7210002 2.3156593 0.58326787 0
4.7230005 2.3089547 0.5833509 0
4.7260003 2.3027856 0.58347535 0
4.7280002 2.2960646 0.58355832 0
4.7300005 2.2893367 0.58364129 0
4.7330003 2.2831385 0.58376575 0
4.7350001 2.2763939 0.58384871 0
4.7370005 2.2696424 0.58393168 0
4.7400002 2.2634156 0.58405614 0
4.7420001 2.2566476 0.58413911 0
4.7450004 2.2504013 0.58426356 0
4.7470002 2.2436168 0.58434653 0
4.7490001 2.2368255 0.5844295 0
4.7520003 2.2305503 0.58455402 0
4.7540002 2.2237427 0.58463699 0
4.7560005 2.216928 0.58471996 0
4.7590003 2.2106237 0.58484441 0
4.7610002 2.2037923 0.58492738 0
4.7640004 2.1974685 0.58505189 0
4.7660003 2.1906211 0.58513486 0
4.7680001 2.1837666 0.58521783 0
4.7710004 2.1774137 0.58534229 0
4.7730002 2.170543 0.58542526 0
4.7760005 2.1641703 0.58554971 0
4.7780004 2.1572831 0.58563268 0
4.7800002 2.150389 0.58571565 0
4.7830005 2.1439874 0.58584011 0
4.7850003 2.1370769 0.58592308 0
4.7880001 2.1306553 0.58604753 0
4.7900004 2.1237288 0.58613056 0
4.7930002 2.1172874 0.58625495 0
4.7950001 2.1103444 0.58633792 0
4.7970004 2.1033945 0.58642095 0
4.8000002 2.0969241 0.58654541 0
4.8020005 2.089958 0.58662838 0
4.8050003 2.0834677 0.58675283 0
4.8070002 2.0764852 0.5868358 0
4.6810002 2.4250729 0.57388628 0
4.6840005 2.4190772 0.57400537 0
4.6860003 2.4124968 0.5740847 0
4.6880002 2.4059093 0.57416403 0
4.6910005 2.3998845 0.57428312 0
4.6930003 2.3932807 0.57436252 0
4.6950002 2.3866699 0.57444185 0
4.6980004 2.3806162 0.57456088 0
4.7000003 2.3739891 0.57464027 0
4.7020001 2.3673546 0.57471961 0
4.7050004 2.3612723 0.5748387 0
4.7070003 2.3546216 0.57491803 0
4.7090001 2.3479636 0.57499743 0
4.7120004 2.3418524 0.57511652 0
4.7140002 2.3351781 0.57519585 0
4.7160001 2.3284969 0.57527518 0
4.7190003 2.3223569 0.57539427 0
4.7210002 2.3156593 0.57547367 0
4.7230005 2.3089547 0.575553 0
4.7260003 2.3027856 0.57567203 0
4.7280002 2.2960646 0.57575142 0
4.7300005 2.2893367 0.57583082 0
4.7330003 2.2831385 0.57594985 0
4.7350001 2.2763939 0.57602918 0
4.7370005 2.2696424 0.57610857 0
4.7400002 2.2634156 0.57622761 0
4.7420001 2.2566476 0.576307 0
4.7450004 2.2504013 0.57642603 0
4.7470002 2.2436168 0.57650542 0
4.7490001 2.2368255 0.57658476 0
4.7520003 2.2305503 0.57670385 0
4.7540002 2.2237427 0.57678318 0
4.7560005 2.216928 0.57686257 0
4.7590003 2.2106237 0.5769816 0
4.7610002 2.2037923 0.577061 0
4.7640004 2.1974685 0.57718003 0
4.7660003 2.1906211 0.57725942 0
4.7680001 2.1837666 0.57733876 0
4.7710004 2.1774137 0.57745779 0
4.7730002 2.170543 0.57753718 0
4.7760005 2.1641703 0.57765627 0
4.7780004 2.1572831 0.5777356 0
4.7800002 2.150389 0.57781494 0
4.7830005 2.1439874 0.57793403 0
4.7850003 2.1370769 0.57801342 0
4.7880001 2.1306553 0.57813245 0
4.7900004 2.1237288 0.57821184 0
4.7930002 2.1172874 0.57833087 0
4.7950001 2.1103444 0.57841021 0
4.7970004 2.1033945 0.5784896 0
4.8000002 2.0969241 0.57860863 0
4.8020005 2.089958 0.57868803 0
4.8050003 2.0834677 0.57880706 0
4.8070002 2.0764852 0.57888645 0
4.6810002 2.4250729 0.56616414 0
4.6840005 2.4190772 0.5662778 0
4.6860003 2.4124968 0.56635356 0
4.6880002 2.4059093 0.56642932 0
4.6910005 2.3998845 0.56654298 0
4.6930003 2.3932807 0.56661874 0
4.6950002 2.3866699 0.5666945 0
4.6980004 2.3806162 0.56680816 0
4.7000003 2.3739891 0.56688392 0
4.7020001 2.3673546 0.56695962 0
4.7050004 2.3612723 0.56707329 0
4.7070003 2.3546216 0.56714904 0
4.7090001 2.3479636 0.5672248 0
4.7120004 2.3418524 0.56733847 0
4.7140002 2.3351781 0.56741422 0
4.7160001 2.3284969 0.56748998 0
4.7190003 2.3223569 0.56760359 0
4.7210002 2.3156593 0.56767941 0
4.7230005 2.3089547 0.56775516 0
4.7260003 2.3027856 0.56786877 0
4.7280002 2.2960646 0.56794453 0
4.7300005 2.2893367 0.56802028 0
4.7330003 2.2831385 0.56813395 0
4.7350001 2.2763939 0.56820971 0
4.7370005 2.2696424 0.56828547 0
4.7400002 2.2634156 0.56839907 0
4.7420001 2.2566476 0.56847483 0
4.7450004 2.2504013 0.5685885 0
4.7470002 2.2436168 0.56866425 0
4.7490001 2.2368255 0.56874001 0
4.7520003 2.2305503 0.56885368 0
4.7540002 2.2237427 0.56892943 0
4.7560005 2.216928 0.56900519 0
4.7590003 2.2106237 0.5691188 0
4.7610002 2.2037923 0.56919456 0
4.7640004 2.1974685 0.56930822 0
4.7660003 2.1906211 0.56938398 0
4.7680001 2.1837666 0.56945974 0
4.7710004 2.1774137 0.5695734 0
4.7730002 2.170543 0.5696491 0
4.7760005 2.1641703 0.56976277 0
4.7780004 2.1572831 0.56983852 0
4.7800002 2.150389 0.56991428 0
4.7830005 2.1439874 0.57002795 0
4.7850003 2.1370769 0.5701037 0
4.7880001 2.1306553 0.57021731 0
4.7900004 2.1237288 0.57029307 0
4.7930002 2.1172874 0.57040673 0
4.7950001 2.1103444 0.57048249 0
4.7970004 2.1033945 0.57055825 0
4.8000002 2.0969241 0.57067192 0
4.8020005 2.089958 0.57074767 0
4.8050003 2.0834677 0.57086128 0
4.8070002 2.0764852 0.57093704 0
4.6810002 2.4250729 0.55844206 0
4.6840005 2.4190772 0.5585503 0
4.6860003 2.4124968 0.55862248 0
4.6880002 2.4059093 0.5586946 0
4.6910005 2.3998845 0.55880284 0
4.6930003 2.3932807 0.55887496 0
4.6950002 2.3866699 0.55894715 0
4.6980004 2.3806162 0.55905539 0
4.7000003 2.3739891 0.55912751 0
4.7020001 2.3673546 0.55919969 0
4.7050004 2.3612723 0.55930793 0
4.7070003 2.3546216 0.55938005 0
4.7090001 2.3479636 0.55945218 0
4.7120004 2.3418524 0.55956042 0
4.7140002 2.3351781 0.5596326 0
4.7160001 2.3284969 0.55970472 0
4.7190003 2.3223569 0.55981296 0
4.7210002 2.3156593 0.55988514 0
4.7230005 2.3089547 0.55995727 0
4.7260003 2.3027856 0.56006551 0
4.7280002 2.2960646 0.56013763 0
4.7300005 2.2893367 0.56020981 0
4.7330003 2.2831385 0.56031805 0
4.7350001 2.2763939 0.56039017 0
4.7370005 2.2696424 0.56046236 0
4.7400002 2.2634156 0.5605706 0
4.7420001 2.2566476 0.56064272 0
4.7450004 2.2504013 0.56075096 0
4.7470002 2.2436168 0.56082308 0
4.7490001 2.2368255 0.5608952 0
4.7520003 2.2305503 0.56100351 0
4.7540002 2.2237427 0.56107563 0
4.7560005 2.216928 0.56114781 0
4.7590003 2.2106237 0.56125605 0
4.7610002 2.2037923 0.56132817 0
4.7640004 2.1974685 0.56143641 0
4.7660003 2.1906211 0.56150854 0
4.7680001 2.1837666 0.56158066 0
4.7710004 2.1774137 0.5616889 0
4.7730002 2.170543 0.56176108 0
4.7760005 2.1641703 0.56186932 0
4.7780004 2.1572831 0.56194144 0
4.7800002 2.150389 0.56201363 0
4.7830005 2.1439874 0.56212187 0
4.7850003 2.1370769 0.56219399 0
4.7880001 2.1306553 0.56230223 0
4.7900004 2.1237288 0.56237435 0
4.7930002 2.1172874 0.5624826 0
4.7950001 2.1103444 0.56255472 0
4.7970004 2.1033945 0.5626269 0
4.8000002 2.0969241 0.56273514 0
4.8020005 2.089958 0.56280732 0
4.8050003 2.0834677 0.5629155 0
4.8070002 2.0764852 0.56298769 0
4.6810002 2.4250729 0.55071998 0
4.6840005 2.4190772 0.55082279 0
4.6860003 2.4124968 0.55089134 0
4.6880002 2.4059093 0.55095989 0
4.6910005 2.3998845 0.5510627 0
4.6930003 2.3932807 0.55113125 0
4.6950002 2.3866699 0.55119979 0
4.6980004 2.3806162 0.55130261 0
4.7000003 2.3739891 0.55137116 0
4.7020001 2.3673546 0.5514397 0
4.7050004 2.3612723 0.55154252 0
4.7070003 2.3546216 0.55161107 0
4.7090001 2.3479636 0.55167961 0
4.7120004 2.3418524 0.55178243 0
4.7140002 2.3351781 0.55185097 0
4.7160001 2.3284969 0.55191946 0
4.7190003 2.3223569 0.55202234 0
4.7210002 2.3156593 0.55209088 0
4.7230005 2.3089547 0.55215943 0
4.7260003 2.3027856 0.55226219 0
4.7280002 2.2960646 0.55233079 0
4.7300005 2.2893367 0.55239934 0
4.7330003 2.2831385 0.55250216 0
4.7350001 2.2763939 0.5525707 0
4.7370005 2.2696424 0.55263925 0
4.7400002 2.2634156 0.55274206 0
4.7420001 2.2566476 0.55281055 0
4.7450004 2.2504013 0.55291343 0
4.7470002 2.2436168 0.55298197 0
4.7490001 2.2368255 0.55305046 0
4.7520003 2.2305503 0.55315328 0
4.7540002 2.2237427 0.55322182 0
4.7560005 2.216928 0.55329043 0
4.7590003 2.2106237 0.55339324 0
4.7610002 2.2037923 0.55346179 0
4.7640004 2.1974685 0.55356455 0
4.7660003 2.1906211 0.55363309 0
4.7680001 2.1837666 0.55370164 0
4.7710004 2.1774137 0.55380452 0
4.7730002 2.170543 0.55387306 0
4.7760005 2.1641703 0.55397582 0
4.7780004 2.1572831 0.55404437 0
4.7800002 2.150389 0.55411291 0
4.7830005 2.1439874 0.55421579 0
4.7850003 2.1370769 0.55428427 0
4.7880001 2.1306553 0.55438709 0
4.7900004 2.1237288 0.55445564 0
4.7930002 2.1172874 0.55455846 0
4.7950001 2.1103444 0.554627 0
4.7970004 2.1033945 0.55469561 0
4.8000002 2.0969241 0.55479836 0
4.8020005 2.089958 0.55486691 0
4.8050003 2.0834677 0.55496973 0
4.8070002 2.0764852 0.55503827 0
4.6810002 2.4250729 0.54299784 0
4.6840005 2.4190772 0.54309529 0
4.6860003 2.4124968 0.5431602 0
4.6880002 2.4059093 0.54322517 0
4.6910005 2.3998845 0.54332256 0
4.6930003 2.3932807 0.54338747 0
4.6950002 2.3866699 0.54345238 0
4.6980004 2.3806162 0.54354984 0
4.7000003 2.3739891 0.54361475 0
4.7020001 2.3673546 0.54367971 0
4.7050004 2.3612723 0.54377711 0
4.7070003 2.3546216 0.54384208 0
4.7090001 2.3479636 0.54390699 0
4.7120004 2.3418524 0.54400438 0
4.7140002 2.3351781 0.54406929 0
4.7160001 2.3284969 0.54413426 0
4.7190003 2.3223569 0.54423165 0
4.7210002 2.3156593 0.54429662 0
4.7230005 2.3089547 0.54436159 0
4.7260003 2.3027856 0.54445899 0
4.7280002 2.2960646 0.54452389 0
4.7300005 2.2893367 0.5445888 0
4.7330003 2.2831385 0.5446862 0
4.7350001 2.2763939 0.54475117 0
4.7370005 2.2696424 0.54481614 0
4.7400002 2.2634156 0.54491353 0
4.7420001 2.2566476 0.54497844 0
4.7450004 2.2504013 0.54507589 0
4.7470002 2.2436168 0.5451408 0
4.7490001 2.2368255 0.54520571 0
4.7520003 2.2305503 0.54530311 0
4.7540002 2.2237427 0.54536808 0
4.7560005 2.216928 0.54543304 0
4.7590003 2.2106237 0.54553044 0
4.7610002 2.2037923 0.54559535 0
4.7640004 2.1974685 0.54569274 0
4.7660003 2.1906211 0.54575771 0
4.7680001 2.1837666 0.54582262 0
4.7710004 2.1774137 0.54592001 0
4.7730002 2.170543 0.54598498 0
4.7760005 2.1641703 0.54608238 0
4.7780004 2.1572831 0.54614735 0
4.7800002 2.150389 0.54621226 0
4.7830005 2.1439874 0.54630965 0
4.7850003 2.1370769 0.54637462 0
4.7880001 2.1306553 0.54647201 0
4.7900004 2.1237288 0.54653692 0
4.7930002 2.1172874 0.54663432 0
4.7950001 2.1103444 0.54669929 0
4.7970004 2.1033945 0.54676425 0
4.8000002 2.0969241 0.54686165 0
4.8020005 2.089958 0.54692656 0
4.8050003 2.0834677 0.54702395 0
4.8070002 2.0764852 0.54708892 0
4.6810002 2.4250729 0.53527576 0
4.6840005 2.4190772 0.53536773 0
4.6860003 2.4124968 0.53542912 0
4.6880002 2.4059093 0.53549039 0
4.6910005 2.3998845 0.53558242 0
4.6930003 2.3932807 0.53564376 0
4.6950002 2.3866699 0.53570509 0
4.6980004 2.3806162 0.53579706 0
4.7000003 2.3739891 0.53585839 0
4.7020001 2.3673546 0.53591973 0
4.7050004 2.3612723 0.5360117 0
4.7070003 2.3546216 0.53607303 0
4.7090001 2.3479636 0.53613436 0
4.7120004 2.3418524 0.53622639 0
4.7140002 2.3351781 0.53628772 0
4.7160001 2.3284969 0.53634906 0
4.7190003 2.3223569 0.53644103 0
4.7210002 2.3156593 0.53650236 0
4.7230005 2.3089547 0.53656369 0
4.7260003 2.3027856 0.53665566 0
4.7280002 2.2960646 0.536717 0
4.7300005 2.2893367 0.53677833 0
4.7330003 2.2831385 0.53687036 0
4.7350001 2.2763939 0.53693163 0
4.7370005 2.2696424 0.53699303 0
4.7400002 2.2634156 0.537085 0
4.7420001 2.2566476 0.53714633 0
4.7450004 2.2504013 0.5372383 0
4.7470002 2.2436168 0.53729963 0
4.7490001 2.2368255 0.53736097 0
4.7520003 2.2305503 0.53745294 0
4.7540002 2.2237427 0.53751433 0
4.7560005 2.216928 0.5375756 0
4.7590003 2.2106237 0.53766763 0
4.7610002 2.2037923 0.53772891 0
4.7640004 2.1974685 0.53782094 0
4.7660003 2.1906211 0.53788227 0
4.7680001 2.1837666 0.5379436 0
4.7710004 2.1774137 0.53803563 0
4.7730002 2.170543 0.5380969 0
4.7760005 2.1641703 0.53818893 0
4.7780004 2.1572831 0.53825021 0
4.7800002 2.150389 0.5383116 0
4.7830005 2.1439874 0.53840357 0
4.7850003 2.1370769 0.5384649 0
4.7880001 2.1306553 0.53855687 0
4.7900004 2.1237288 0.53861821 0
4.7930002 2.1172874 0.53871024 0
4.7950001 2.1103444 0.53877151 0
4.7970004 2.1033945 0.5388329 0
4.8000002 2.0969241 0.53892487 0
4.8020005 2.089958 0.53898621 0
4.8050003 2.0834677 0.53907818 0
4.8070002 2.0764852 0.53913951 0
4.6810002 2.4250729 0.52755368 0
4.6840005 2.4190772 0.52764022 0
4.6860003 2.4124968 0.52769798 0
4.6880002 2.4059093 0.52775568 0
4.6910005 2.3998845 0.52784228 0
4.6930003 2.3932807 0.52789998 0
4.6950002 2.3866699 0.52795774 0
4.6980004 2.3806162 0.52804428 0
4.7000003 2.3739891 0.52810204 0
4.7020001 2.3673546 0.52815974 0
4.7050004 2.3612723 0.52824634 0
4.7070003 2.3546216 0.52830404 0
4.7090001 2.3479636 0.52836174 0
4.7120004 2.3418524 0.52844834 0
4.7140002 2.3351781 0.52850604 0
4.7160001 2.3284969 0.5285638 0
4.7190003 2.3223569 0.5286504 0
4.7210002 2.3156593 0.5287081 0
4.7230005 2.3089547 0.5287658 0
4.7260003 2.3027856 0.5288524 0
4.7280002 2.2960646 0.5289101 0
4.7300005 2.2893367 0.52896786 0
4.7330003 2.2831385 0.5290544 0
4.7350001 2.2763939 0.52911216 0
4.7370005 2.2696424 0.52916986 0
4.7400002 2.2634156 0.52925646 0
4.7420001 2.2566476 0.52931416 0
4.7450004 2.2504013 0.52940077 0
4.7470002 2.2436168 0.52945846 0
4.7490001 2.2368255 0.52951622 0
4.7520003 2.2305503 0.52960277 0
4.7540002 2.2237427 0.52966052 0
4.7560005 2.216928 0.52971822 0
4.7590003 2.2106237 0.52980483 0
4.7610002 2.2037923 0.52986252 0
4.7640004 2.1974685 0.52994913 0
4.7660003 2.1906211 0.53000683 0
4.7680001 2.1837666 0.53006458 0
4.7710004 2.1774137 0.53015113 0
4.7730002 2.170543 0.53020889 0
4.7760005 2.1641703 0.53029549 0
4.7780004 2.1572831 0.53035319 0
4.7800002 2.150389 0.53041089 0
4.7830005 2.1439874 0.53049749 0
4.7850003 2.1370769 0.53055519 0
4.7880001 2.1306553 0.53064179 0
4.7900004 2.1237288 0.53069949 0
4.7930002 2.1172874 0.5307861 0
4.7950001 2.1103444 0.53084379 0
4.7970004 2.1033945 0.53090155 0
