# .PCD v0.7 - Point Cloud Data file format
VERSION 0.7
FIELDS x y z intensity
SIZE 4 4 4 4
TYPE F F F F
COUNT 1 1 1 1
WIDTH 1417
HEIGHT 1
VIEWPOINT 0 0 0 1 0 0 0
POINTS 1417
DATA ascii
2.4280002 -1.1653857 0.63446176 0
2.4250002 -1.1673825 0.63412082 0
2.4220002 -1.1693684 0.63377994 0
2.4200001 -1.171901 0.63355267 0
2.4170003 -1.1738672 0.63321173 0
2.4140003 -1.1758226 0.63287079 0
2.4110003 -1.177767 0.63252991 0
2.4090002 -1.1802653 0.63230258 0
2.4060001 -1.1821899 0.6319617 0
2.4030001 -1.1841037 0.63162076 0
2.4000001 -1.1860068 0.63127983 0
2.3980002 -1.1884708 0.63105255 0
2.3950002 -1.190354 0.63071167 0
2.3920002 -1.1922264 0.63037074 0
2.5070002 -1.106374 0.63963866 0
2.5040002 -1.1086595 0.63930321 0
2.5010002 -1.1109341 0.63896769 0
2.4980001 -1.1131978 0.63863218 0
2.4950001 -1.1154509 0.63829666 0
2.4920001 -1.1176929 0.63796115 0
2.4890001 -1.1199242 0.63762563 0
2.4860003 -1.1221448 0.63729018 0
2.4830003 -1.1243545 0.63695467 0
2.4800003 -1.1265533 0.63661909 0
2.4770002 -1.1287414 0.63628364 0
2.4740002 -1.1309185 0.63594812 0
2.4710002 -1.1330849 0.63561261 0
2.4680002 -1.1352404 0.63527709 0
2.4650002 -1.1373851 0.63494158 0
2.4630003 -1.1400493 0.63471794 0
2.4600003 -1.1421744 0.63438243 0
2.4570003 -1.1442884 0.63404691 0
2.4540002 -1.1463915 0.6337114 0
2.4510002 -1.148484 0.63337588 0
2.4480002 -1.1505656 0.63304037 0
2.4450002 -1.1526363 0.63270485 0
2.4420002 -1.1546963 0.63236934 0
2.4390001 -1.1567454 0.63203382 0
2.4370003 -1.1593304 0.63181019 0
2.4340003 -1.1613597 0.63147467 0
2.4310002 -1.163378 0.63113916 0
2.4280002 -1.1653857 0.63080364 0
2.4250002 -1.1673825 0.63046813 0
2.4220002 -1.1693684 0.63013262 0
2.4200001 -1.171901 0.62990892 0
2.4170003 -1.1738672 0.62957346 0
2.4140003 -1.1758226 0.62923795 0
2.4110003 -1.177767 0.62890244 0
2.4090002 -1.1802653 0.62867874 0
2.4060001 -1.1821899 0.62834322 0
2.4030001 -1.1841037 0.62800777 0
2.4000001 -1.1860068 0.6276722 0
2.3980002 -1.1884708 0.62744856 0
2.3950002 -1.190354 0.62711304 0
2.3920002 -1.1922264 0.62677753 0
2.5070002 -1.106374 0.63583809 0
2.5040002 -1.1086595 0.635508 0
2.5010002 -1.1109341 0.63517791 0
2.4980001 -1.1131978 0.63484776 0
2.4950001 -1.1154509 0.63451767 0
2.4920001 -1.1176929 0.63418758 0
2.4890001 -1.1199242 0.63385749 0
2.4860003 -1.1221448 0.6335274 0
2.4830003 -1.1243545 0.63319731 0
2.4800003 -1.1265533 0.63286722 0
2.4770002 -1.1287414 0.63253713 0
2.4740002 -1.1309185 0.63220704 0
2.4710002 -1.1330849 0.63187695 0
2.4680002 -1.1352404 0.6315468 0
2.4650002 -1.1373851 0.6312167 0
2.4630003 -1.1400493 0.63099664 0
2.4600003 -1.1421744 0.63066655 0
2.4570003 -1.1442884 0.63033646 0
2.4540002 -1.1463915 0.63000637 0
2.4510002 -1.148484 0.62967628 0
2.4480002 -1.1505656 0.62934619 0
2.4450002 -1.1526363 0.62901604 0
2.4420002 -1.1546963 0.62868595 0
2.4390001 -1.1567454 0.62835586 0
2.4370003 -1.1593304 0.6281358 0
2.4340003 -1.1613597 0.62780571 0
2.4310002 -1.163378 0.62747562 0
2.4280002 -1.1653857 0.62714553 0
2.4250002 -1.1673825 0.62681544 0
2.4220002 -1.1693684 0.62648535 0
2.4200001 -1.171901 0.62626529 0
2.4170003 -1.1738672 0.6259352 0
2.4140003 -1.1758226 0.62560511 0
2.4110003 -1.177767 0.62527502 0
2.4090002 -1.1802653 0.6250549 0
2.4060001 -1.1821899 0.62472481 0
2.4030001 -1.1841037 0.62439471 0
2.4000001 -1.1860068 0.62406462 0
2.3980002 -1.1884708 0.62384456 0
2.3950002 -1.190354 0.62351447 0
2.3920002 -1.1922264 0.62318438 0
2.5070002 -1.106374 0.63203746 0
2.5040002 -1.1086595 0.63171279 0
2.5010002 -1.1109341 0.63138807 0
2.4980001 -1.1131978 0.6310634 0
2.4950001 -1.1154509 0.63073874 0
2.4920001 -1.1176929 0.63041401 0
2.4890001 -1.1199242 0.63008934 0
2.4860003 -1.1221448 0.62976468 0
2.4830003 -1.1243545 0.62943995 0
2.4800003 -1.1265533 0.62911528 0
2.4770002 -1.1287414 0.62879062 0
2.4740002 -1.1309185 0.62846589 0
2.4710002 -1.1330849 0.62814122 0
2.4680002 -1.1352404 0.62781656 0
2.4650002 -1.1373851 0.62749183 0
2.4630003 -1.1400493 0.62727541 0
2.4600003 -1.1421744 0.62695074 0
2.4570003 -1.1442884 0.62662601 0
2.4540002 -1.1463915 0.62630135 0
2.4510002 -1.148484 0.62597668 0
2.4480002 -1.1505656 0.62565196 0
2.4450002 -1.1526363 0.62532729 0
2.4420002 -1.1546963 0.62500262 0
2.4390001 -1.1567454 0.6246779 0
2.4370003 -1.1593304 0.62446147 0
2.4340003 -1.1613597 0.62413681 0
2.4310002 -1.163378 0.62381208 0
2.4280002 -1.1653857 0.62348741 0
2.4250002 -1.1673825 0.62316275 0
2.4220002 -1.1693684 0.62283802 0
2.4200001 -1.171901 0.62262154 0
2.4170003 -1.1738672 0.62229693 0
2.4140003 -1.1758226 0.6219722 0
2.4110003 -1.177767 0.62164754 0
2.4090002 -1.1802653 0.62143105 0
2.4060001 -1.1821899 0.62110639 0
2.4030001 -1.1841037 0.62078166 0
2.4000001 -1.1860068 0.62045699 0
2.3980002 -1.1884708 0.62024057 0
2.3950002 -1.190354 0.61991584 0
2.3920002 -1.1922264 0.61959118 0
2.5070002 -1.106374 0.62823683 0
2.5040002 -1.1086595 0.62791753 0
2.5010002 -1.1109341 0.62759829 0
2.4980001 -1.1131978 0.62727898 0
2.4950001 -1.1154509 0.62695974 0
2.4920001 -1.1176929 0.62664044 0
2.4890001 -1.1199242 0.6263212 0
2.4860003 -1.1221448 0.62600195 0
2.4830003 -1.1243545 0.62568265 0
2.4800003 -1.1265533 0.62536335 0
2.4770002 -1.1287414 0.62504411 0
2.4740002 -1.1309185 0.62472481 0
2.4710002 -1.1330849 0.6244055 0
2.4680002 -1.1352404 0.62408626 0
2.4650002 -1.1373851 0.62376702 0
2.4630003 -1.1400493 0.62355417 0
2.4600003 -1.1421744 0.62323487 0
2.4570003 -1.1442884 0.62291563 0
2.4540002 -1.1463915 0.62259632 0
2.4510002 -1.148484 0.62227702 0
2.4480002 -1.1505656 0.62195778 0
2.4450002 -1.1526363 0.62163848 0
2.4420002 -1.1546963 0.62131923 0
2.4390001 -1.1567454 0.62099993 0
2.4370003 -1.1593304 0.62078714 0
2.4340003 -1.1613597 0.62046784 0
2.4310002 -1.163378 0.62014854 0
2.4280002 -1.1653857 0.6198293 0
2.4250002 -1.1673825 0.61950999 0
2.4220002 -1.1693684 0.61919069 0
2.4200001 -1.171901 0.6189779 0
2.4170003 -1.1738672 0.6186586 0
2.4140003 -1.1758226 0.61833936 0
2.4110003 -1.177767 0.61802006 0
2.4090002 -1.1802653 0.61780721 0
2.4060001 -1.1821899 0.61748791 0
2.4030001 -1.1841037 0.61716866 0
2.4000001 -1.1860068 0.61684936 0
2.3980002 -1.1884708 0.61663651 0
2.3950002 -1.190354 0.61631727 0
2.3920002 -1.1922264 0.61599797 0
2.5070002 -1.106374 0.6244362 0
2.5040002 -1.1086595 0.62412232 0
2.5010002 -1.1109341 0.6238085 0
2.4980001 -1.1131978 0.62349463 0
2.4950001 -1.1154509 0.62318075 0
2.4920001 -1.1176929 0.62286687 0
2.4890001 -1.1199242 0.62255299 0
2.4860003 -1.1221448 0.62223917 0
2.4830003 -1.1243545 0.62192529 0
2.4800003 -1.1265533 0.62161148 0
2.4770002 -1.1287414 0.6212976 0
2.4740002 -1.1309185 0.62098372 0
2.4710002 -1.1330849 0.62066984 0
2.4680002 -1.1352404 0.62035596 0
2.4650002 -1.1373851 0.62004215 0
2.4630003 -1.1400493 0.61983287 0
2.4600003 -1.1421744 0.619519 0
2.4570003 -1.1442884 0.61920518 0
2.4540002 -1.1463915 0.6188913 0
2.4510002 -1.148484 0.61857742 0
2.4480002 -1.1505656 0.6182636 0
2.4450002 -1.1526363 0.61794972 0
2.4420002 -1.1546963 0.61763585 0
2.4390001 -1.1567454 0.61732197 0
2.4370003 -1.1593304 0.61711276 0
2.4340003 -1.1613597 0.61679888 0
2.4310002 -1.163378 0.616485 0
2.4280002 -1.1653857 0.61617112 0
2.4250002 -1.1673825 0.6158573 0
2.4220002 -1.1693684 0.61554343 0
2.4200001 -1.171901 0.61533415 0
2.4170003 -1.1738672 0.61502033 0
2.4140003 -1.1758226 0.61470646 0
2.4110003 -1.177767 0.61439264 0
2.4090002 -1.1802653 0.61418337 0
2.4060001 -1.1821899 0.61386949 0
2.4030001 -1.1841037 0.61355561 0
2.4000001 -1.1860068 0.61324179 0
2.3980002 -1.1884708 0.61303252 0
2.3950002 -1.190354 0.6127187 0
2.3920002 -1.1922264 0.61240482 0
2.5070002 -1.106374 0.62063557 0
2.5040002 -1.1086595 0.62032712 0
2.5010002 -1.1109341 0.62001866 0
2.4980001 -1.1131978 0.61971021 0
2.4950001 -1.1154509 0.61940175 0
2.4920001 -1.1176929 0.6190933 0
2.4890001 -1.1199242 0.61878484 0
2.4860003 -1.1221448 0.61847639 0
2.4830003 -1.1243545 0.618168 0
2.4800003 -1.1265533 0.61785954 0
2.4770002 -1.1287414 0.61755109 0
2.4740002 -1.1309185 0.61724263 0
2.4710002 -1.1330849 0.61693418 0
2.4680002 -1.1352404 0.61662573 0
2.4650002 -1.1373851 0.61631727 0
2.4630003 -1.1400493 0.61611164 0
2.4600003 -1.1421744 0.61580318 0
2.4570003 -1.1442884 0.61549473 0
2.4540002 -1.1463915 0.61518627 0
2.4510002 -1.148484 0.61487782 0
2.4480002 -1.1505656 0.61456937 0
2.4450002 -1.1526363 0.61426091 0
2.4420002 -1.1546963 0.61395246 0
2.4390001 -1.1567454 0.613644 0
2.4370003 -1.1593304 0.61343837 0
2.4340003 -1.1613597 0.61312997 0
2.4310002 -1.163378 0.61282146 0
2.4280002 -1.1653857 0.61251307 0
2.4250002 -1.1673825 0.61220455 0
2.4220002 -1.1693684 0.61189616 0
2.4200001 -1.171901 0.61169046 0
2.4170003 -1.1738672 0.61138207 0
2.4140003 -1.1758226 0.61107361 0
2.4110003 -1.177767 0.61076516 0
2.4090002 -1.1802653 0.61055946 0
2.4060001 -1.1821899 0.61025107 0
2.4030001 -1.1841037 0.60994256 0
2.4000001 -1.1860068 0.60963416 0
2.3980002 -1.1884708 0.60942852 0
2.3950002 -1.190354 0.60912007 0
2.3920002 -1.1922264 0.60881162 0
2.5070002 -1.106374 0.61683494 0
2.5040002 -1.1086595 0.61653191 0
2.5010002 -1.1109341 0.61622888 0
2.4980001 -1.1131978 0.61592585 0
2.4950001 -1.1154509 0.61562276 0
2.4920001 -1.1176929 0.61531973 0
2.4890001 -1.1199242 0.6150167 0
2.4860003 -1.1221448 0.61471367 0
2.4830003 -1.1243545 0.61441064 0
2.4800003 -1.1265533 0.61410761 0
2.4770002 -1.1287414 0.61380458 0
2.4740002 -1.1309185 0.61350155 0
2.4710002 -1.1330849 0.61319846 0
2.4680002 -1.1352404 0.61289543 0
2.4650002 -1.1373851 0.6125924 0
2.4630003 -1.1400493 0.6123904 0
2.4600003 -1.1421744 0.61208737 0
2.4570003 -1.1442884 0.61178428 0
2.4540002 -1.1463915 0.61148125 0
2.4510002 -1.148484 0.61117822 0
2.4480002 -1.1505656 0.61087519 0
2.4450002 -1.1526363 0.6105721 0
2.4420002 -1.1546963 0.61026907 0
2.4390001 -1.1567454 0.60996604 0
2.4370003 -1.1593304 0.60976404 0
2.4340003 -1.1613597 0.60946101 0
2.4310002 -1.163378 0.60915792 0
2.4280002 -1.1653857 0.60885489 0
2.4250002 -1.1673825 0.60855186 0
2.4220002 -1.1693684 0.60824883 0
2.4200001 -1.171901 0.60804677 0
2.4170003 -1.1738672 0.60774374 0
2.4140003 -1.1758226 0.60744071 0
2.4110003 -1.177767 0.60713768 0
2.4090002 -1.1802653 0.60693562 0
2.4060001 -1.1821899 0.60663259 0
2.4030001 -1.1841037 0.60632956 0
2.4000001 -1.1860068 0.60602653 0
2.3980002 -1.1884708 0.60582453 0
2.3950002 -1.190354 0.60552144 0
2.3920002 -1.1922264 0.60521841 0
2.5070002 -1.106374 0.61303437 0
2.5040002 -1.1086595 0.6127367 0
2.5010002 -1.1109341 0.61243904 0
2.4980001 -1.1131978 0.61214143 0
2.4950001 -1.1154509 0.61184382 0
2.4920001 -1.1176929 0.61154616 0
2.4890001 -1.1199242 0.61124855 0
2.4860003 -1.1221448 0.61095095 0
2.4830003 -1.1243545 0.61065328 0
2.4800003 -1.1265533 0.61035568 0
2.4770002 -1.1287414 0.61005807 0
2.4740002 -1.1309185 0.6097604 0
2.4710002 -1.1330849 0.6094628 0
2.4680002 -1.1352404 0.60916519 0
2.4650002 -1.1373851 0.60886753 0
2.4630003 -1.1400493 0.60866916 0
2.4600003 -1.1421744 0.6083715 0
2.4570003 -1.1442884 0.60807383 0
2.4540002 -1.1463915 0.60777622 0
2.4510002 -1.148484 0.60747862 0
2.4480002 -1.1505656 0.60718095 0
2.4450002 -1.1526363 0.60688335 0
2.4420002 -1.1546963 0.60658574 0
2.4390001 -1.1567454 0.60628808 0
2.4370003 -1.1593304 0.60608971 0
2.4340003 -1.1613597 0.60579205 0
2.4310002 -1.163378 0.60549444 0
2.4280002 -1.1653857 0.60519677 0
2.4250002 -1.1673825 0.60489917 0
2.4220002 -1.1693684 0.6046015 0
2.4200001 -1.171901 0.60440308 0
2.4170003 -1.1738672 0.60410547 0
2.4140003 -1.1758226 0.60380787 0
2.4110003 -1.177767 0.60351026 0
2.4090002 -1.1802653 0.60331178 0
2.4060001 -1.1821899 0.60301417 0
2.4030001 -1.1841037 0.60271657 0
2.4000001 -1.1860068 0.6024189 0
2.3980002 -1.1884708 0.60222054 0
2.3950002 -1.190354 0.60192287 0
2.3920002 -1.1922264 0.60162526 0
2.5070002 -1.106374 0.60923374 0
2.5040002 -1.1086595 0.6089415 0
2.5010002 -1.1109341 0.60864925 0
2.4980001 -1.1131978 0.60835707 0
2.4950001 -1.1154509 0.60806483 0
2.4920001 -1.1176929 0.60777259 0
2.4890001 -1.1199242 0.60748041 0
2.4860003 -1.1221448 0.60718822 0
2.4830003 -1.1243545 0.60689598 0
2.4800003 -1.1265533 0.60660374 0
2.4770002 -1.1287414 0.60631156 0
2.4740002 -1.1309185 0.60601932 0
2.4710002 -1.1330849 0.60572708 0
2.4680002 -1.1352404 0.60543489 0
2.4650002 -1.1373851 0.60514265 0
2.4630003 -1.1400493 0.60494787 0
2.4600003 -1.1421744 0.60465562 0
2.4570003 -1.1442884 0.60436344 0
2.4540002 -1.1463915 0.6040712 0
2.4510002 -1.148484 0.60377896 0
2.4480002 -1.1505656 0.60348678 0
2.4450002 -1.1526363 0.60319459 0
2.4420002 -1.1546963 0.60290235 0
2.4390001 -1.1567454 0.60261011 0
2.4370003 -1.1593304 0.60241532 0
2.4340003 -1.1613597 0.60212308 0
2.4310002 -1.163378 0.6018309 0
2.4280002 -1.1653857 0.60153866 0
2.4250002 -1.1673825 0.60124648 0
2.4220002 -1.1693684 0.60095423 0
2.4200001 -1.171901 0.60075939 0
2.4170003 -1.1738672 0.60046721 0
2.4140003 -1.1758226 0.60017502 0
2.4110003 -1.177767 0.59988278 0
2.4090002 -1.1802653 0.59968793 0
2.4060001 -1.1821899 0.59939575 0
2.4030001 -1.1841037 0.59910351 0
2.4000001 -1.1860068 0.59881127 0
2.3980002 -1.1884708 0.59861648 0
2.3950002 -1.190354 0.5983243 0
2.3920002 -1.1922264 0.59803206 0
2.5070002 -1.106374 0.60543311 0
2.5040002 -1.1086595 0.60514629 0
2.5010002 -1.1109341 0.60485947 0
2.4980001 -1.1131978 0.60457265 0
2.4950001 -1.1154509 0.60428584 0
2.4920001 -1.1176929 0.60399902 0
2.4890001 -1.1199242 0.60371226 0
2.4860003 -1.1221448 0.60342544 0
2.4830003 -1.1243545 0.60313863 0
2.4800003 -1.1265533 0.60285187 0
2.4770002 -1.1287414 0.60256505 0
2.4740002 -1.1309185 0.60227823 0
2.4710002 -1.1330849 0.60199142 0
2.4680002 -1.1352404 0.6017046 0
2.4650002 -1.1373851 0.60141778 0
2.4630003 -1.1400493 0.60122663 0
2.4600003 -1.1421744 0.60093981 0
2.4570003 -1.1442884 0.60065299 0
2.4540002 -1.1463915 0.60036618 0
2.4510002 -1.148484 0.60007936 0
2.4480002 -1.1505656 0.5997926 0
2.4450002 -1.1526363 0.59950578 0
2.4420002 -1.1546963 0.59921896 0
2.4390001 -1.1567454 0.59893215 0
2.4370003 -1.1593304 0.59874094 0
2.4340003 -1.1613597 0.59845418 0
2.4310002 -1.163378 0.59816736 0
2.4280002 -1.1653857 0.59788054 0
2.4250002 -1.1673825 0.59759372 0
2.4220002 -1.1693684 0.59730691 0
2.4200001 -1.171901 0.5971157 0
2.4170003 -1.1738672 0.59682894 0
2.4140003 -1.1758226 0.59654212 0
2.4110003 -1.177767 0.5962553 0
2.4090002 -1.1802653 0.59606409 0
2.4060001 -1.1821899 0.59577727 0
2.4030001 -1.1841037 0.59549046 0
2.4000001 -1.1860068 0.5952037 0
2.3980002 -1.1884708 0.59501249 0
2.3950002 -1.190354 0.59472567 0
2.3920002 -1.1922264 0.59443885 0
2.5070002 -1.106374 0.60163248 0
2.5040002 -1.1086595 0.60135108 0
2.5010002 -1.1109341 0.60106969 0
2.4980001 -1.1131978 0.60078824 0
2.4950001 -1.1154509 0.6005069 0
2.4920001 -1.1176929 0.60022545 0
2.4890001 -1.1199242 0.59994411 0
2.4860003 -1.1221448 0.59966272 0
2.4830003 -1.1243545 0.59938133 0
2.4800003 -1.1265533 0.59909993 0
2.4770002 -1.1287414 0.59881854 0
2.4740002 -1.1309185 0.59853715 0
2.4710002 -1.1330849 0.59825575 0
2.4680002 -1.1352404 0.5979743 0
2.4650002 -1.1373851 0.59769297 0
2.4630003 -1.1400493 0.59750533 0
2.4600003 -1.1421744 0.597224 0
2.4570003 -1.1442884 0.59694254 0
2.4540002 -1.1463915 0.59666115 0
2.4510002 -1.148484 0.59637976 0
2.4480002 -1.1505656 0.59609836 0
2.4450002 -1.1526363 0.59581697 0
2.4420002 -1.1546963 0.59553558 0
2.4390001 -1.1567454 0.59525418 0
2.4370003 -1.1593304 0.59506661 0
2.4340003 -1.1613597 0.59478521 0
2.4310002 -1.163378 0.59450382 0
2.4280002 -1.1653857 0.59422243 0
2.4250002 -1.1673825 0.59394103 0
2.4220002 -1.1693684 0.59365964 0
2.4200001 -1.171901 0.593472 0
2.4170003 -1.1738672 0.59319067 0
2.4140003 -1.1758226 0.59290928 0
2.4110003 -1.177767 0.59262788 0
2.4090002 -1.1802653 0.59244025 0
2.4060001 -1.1821899 0.59215885 0
2.4030001 -1.1841037 0.59187746 0
2.4000001 -1.1860068 0.59159607 0
2.3980002 -1.1884708 0.59140849 0
2.3950002 -1.190354 0.5911271 0
2.3920002 -1.1922264 0.5908457 0
2.5070002 -1.106374 0.59783185 0
2.5040002 -1.1086595 0.59755588 0
2.5010002 -1.1109341 0.59727985 0
2.4980001 -1.1131978 0.59700388 0
2.4950001 -1.1154509 0.59672791 0
2.4920001 -1.1176929 0.59645188 0
2.4890001 -1.1199242 0.59617591 0
2.4860003 -1.1221448 0.59589994 0
2.4830003 -1.1243545 0.59562397 0
2.4800003 -1.1265533 0.595348 0
2.4770002 -1.1287414 0.59507203 0
2.4740002 -1.1309185 0.59479606 0
2.4710002 -1.1330849 0.59452003 0
2.4680002 -1.1352404 0.59424406 0
2.4650002 -1.1373851 0.59396809 0
2.4630003 -1.1400493 0.59378409 0
2.4600003 -1.1421744 0.59350812 0
2.4570003 -1.1442884 0.59323215 0
2.4540002 -1.1463915 0.59295613 0
2.4510002 -1.148484 0.59268016 0
2.4480002 -1.1505656 0.59240419 0
2.4450002 -1.1526363 0.59212822 0
2.4420002 -1.1546963 0.59185219 0
2.4390001 -1.1567454 0.59157622 0
2.4370003 -1.1593304 0.59139228 0
2.4340003 -1.1613597 0.59111625 0
2.4310002 -1.163378 0.59084028 0
2.4280002 -1.1653857 0.59056431 0
2.4250002 -1.1673825 0.59028828 0
2.4220002 -1.1693684 0.59001231 0
2.4200001 -1.171901 0.58982831 0
2.4170003 -1.1738672 0.5895524 0
2.4140003 -1.1758226 0.58927637 0
2.4110003 -1.177767 0.5890004 0
2.4090002 -1.1802653 0.5888164 0
2.4060001 -1.1821899 0.58854043 0
2.4030001 -1.1841037 0.58826441 0
2.4000001 -1.1860068 0.58798844 0
2.3980002 -1.1884708 0.5878045 0
2.3950002 -1.190354 0.58752847 0
2.3920002 -1.1922264 0.5872525 0
2.5070002 -1.106374 0.59403121 0
2.5040002 -1.1086595 0.59376061 0
2.5010002 -1.1109341 0.59349006 0
2.4980001 -1.1131978 0.59321952 0
2.4950001 -1.1154509 0.59294891 0
2.4920001 -1.1176929 0.59267831 0
2.4890001 -1.1199242 0.59240776 0
2.4860003 -1.1221448 0.59213722 0
2.4830003 -1.1243545 0.59186661 0
2.4800003 -1.1265533 0.59159607 0
2.4770002 -1.1287414 0.59132552 0
2.4740002 -1.1309185 0.59105492 0
2.4710002 -1.1330849 0.59078437 0
2.4680002 -1.1352404 0.59051377 0
2.4650002 -1.1373851 0.59024322 0
2.4630003 -1.1400493 0.59006286 0
2.4600003 -1.1421744 0.58979225 0
2.4570003 -1.1442884 0.58952171 0
2.4540002 -1.1463915 0.5892511 0
2.4510002 -1.148484 0.58898056 0
2.4480002 -1.1505656 0.58870995 0
2.4450002 -1.1526363 0.5884394 0
2.4420002 -1.1546963 0.58816886 0
2.4390001 -1.1567454 0.58789825 0
2.4370003 -1.1593304 0.58771789 0
2.4340003 -1.1613597 0.58744729 0
2.4310002 -1.163378 0.58717674 0
2.4280002 -1.1653857 0.58690619 0
2.4250002 -1.1673825 0.58663559 0
2.4220002 -1.1693684 0.58636504 0
2.4200001 -1.171901 0.58618462 0
2.4170003 -1.1738672 0.58591408 0
2.4140003 -1.1758226 0.58564353 0
2.4110003 -1.177767 0.58537292 0
2.4090002 -1.1802653 0.58519256 0
2.4060001 -1.1821899 0.58492196 0
2.4030001 -1.1841037 0.58465141 0
2.4000001 -1.1860068 0.58438087 0
2.3980002 -1.1884708 0.5842005 0
2.3950002 -1.190354 0.5839299 0
2.3920002 -1.1922264 0.58365929 0
2.5070002 -1.106374 0.59023058 0
2.5040002 -1.1086595 0.58996546 0
2.5010002 -1.1109341 0.58970028 0
2.4980001 -1.1131978 0.5894351 0
2.4950001 -1.1154509 0.58916992 0
2.4920001 -1.1176929 0.5889048 0
2.4890001 -1.1199242 0.58863962 0
2.4860003 -1.1221448 0.5883745 0
2.4830003 -1.1243545 0.58810931 0
2.4800003 -1.1265533 0.58784413 0
2.4770002 -1.1287414 0.58757901 0
2.4740002 -1.1309185 0.58731383 0
2.4710002 -1.1330849 0.58704865 0
2.4680002 -1.1352404 0.58678353 0
2.4650002 -1.1373851 0.58651835 0
2.4630003 -1.1400493 0.58634162 0
2.4600003 -1.1421744 0.58607644 0
2.4570003 -1.1442884 0.58581126 0
2.4540002 -1.1463915 0.58554608 0
2.4510002 -1.148484 0.58528095 0
2.4480002 -1.1505656 0.58501577 0
2.4450002 -1.1526363 0.58475059 0
2.4420002 -1.1546963 0.58448547 0
2.4390001 -1.1567454 0.58422029 0
2.4370003 -1.1593304 0.5840435 0
2.4340003 -1.1613597 0.58377838 0
2.4310002 -1.163378 0.5835132 0
2.4280002 -1.1653857 0.58324802 0
2.4250002 -1.1673825 0.5829829 0
2.4220002 -1.1693684 0.58271772 0
2.4200001 -1.171901 0.58254093 0
2.4170003 -1.1738672 0.58227581 0
2.4140003 -1.1758226 0.58201063 0
2.4110003 -1.177767 0.58174551 0
2.4090002 -1.1802653 0.58156872 0
2.4060001 -1.1821899 0.58130354 0
2.4030001 -1.1841037 0.58103836 0
2.4000001 -1.1860068 0.58077323 0
2.3980002 -1.1884708 0.58059645 0
2.3950002 -1.190354 0.58033133 0
2.3920002 -1.1922264 0.58006614 0
2.5070002 -1.106374 0.58642995 0
2.5040002 -1.1086595 0.5861702 0
2.5010002 -1.1109341 0.58591044 0
2.4980001 -1.1131978 0.58565068 0
2.4950001 -1.1154509 0.58539093 0
2.4920001 -1.1176929 0.58513123 0
2.4890001 -1.1199242 0.58487147 0
2.4860003 -1.1221448 0.58461171 0
2.4830003 -1.1243545 0.58435202 0
2.4800003 -1.1265533 0.58409226 0
2.4770002 -1.1287414 0.5838325 0
2.4740002 -1.1309185 0.58357275 0
2.4710002 -1.1330849 0.58331299 0
2.4680002 -1.1352404 0.58305323 0
2.4650002 -1.1373851 0.58279347 0
2.4630003 -1.1400493 0.58262032 0
2.4600003 -1.1421744 0.58236057 0
2.4570003 -1.1442884 0.58210081 0
2.4540002 -1.1463915 0.58184111 0
2.4510002 -1.148484 0.58158135 0
2.4480002 -1.1505656 0.5813216 0
2.4450002 -1.1526363 0.58106184 0
2.4420002 -1.1546963 0.58080208 0
2.4390001 -1.1567454 0.58054233 0
2.4370003 -1.1593304 0.58036917 0
2.4340003 -1.1613597 0.58010942 0
2.4310002 -1.163378 0.57984966 0
2.4280002 -1.1653857 0.57958996 0
2.4250002 -1.1673825 0.57933021 0
2.4220002 -1.1693684 0.57907045 0
2.4200001 -1.171901 0.57889724 0
2.4170003 -1.1738672 0.57863754 0
2.4140003 -1.1758226 0.57837778 0
2.4110003 -1.177767 0.57811803 0
2.4090002 -1.1802653 0.57794487 0
2.4060001 -1.1821899 0.57768512 0
2.4030001 -1.1841037 0.57742536 0
2.4000001 -1.1860068 0.5771656 0
2.3980002 -1.1884708 0.57699245 0
2.3950002 -1.190354 0.5767327 0
2.3920002 -1.1922264 0.57647294 0
2.5070002 -1.106374 0.58262932 0
2.5040002 -1.1086595 0.58237499 0
2.5010002 -1.1109341 0.58212066 0
2.4980001 -1.1131978 0.58186632 0
2.4950001 -1.1154509 0.58161199 0
2.4920001 -1.1176929 0.58135766 0
2.4890001 -1.1199242 0.58110332 0
2.4860003 -1.1221448 0.58084899 0
2.4830003 -1.1243545 0.58059466 0
2.4800003 -1.1265533 0.58034033 0
2.4770002 -1.1287414 0.58008599 0
2.4740002 -1.1309185 0.5798316 0
2.4710002 -1.1330849 0.57957733 0
2.4680002 -1.1352404 0.57932293 0
2.4650002 -1.1373851 0.5790686 0
2.4630003 -1.1400493 0.57889909 0
2.4600003 -1.1421744 0.57864475 0
2.4570003 -1.1442884 0.57839042 0
2.4540002 -1.1463915 0.57813609 0
2.4510002 -1.148484 0.57788169 0
2.4480002 -1.1505656 0.57762736 0
2.4450002 -1.1526363 0.57737303 0
2.4420002 -1.1546963 0.57711869 0
2.4390001 -1.1567454 0.57686436 0
2.4370003 -1.1593304 0.57669485 0
2.4340003 -1.1613597 0.57644045 0
2.4310002 -1.163378 0.57618618 0
2.4280002 -1.1653857 0.57593179 0
2.4250002 -1.1673825 0.57567745 0
2.4220002 -1.1693684 0.57542312 0
2.4200001 -1.171901 0.57525355 0
2.4170003 -1.1738672 0.57499921 0
2.4140003 -1.1758226 0.57474488 0
2.4110003 -1.177767 0.57449055 0
2.4090002 -1.1802653 0.57432103 0
2.4060001 -1.1821899 0.57406664 0
2.4030001 -1.1841037 0.57381231 0
2.4000001 -1.1860068 0.57355797 0
2.3980002 -1.1884708 0.57338846 0
2.3950002 -1.190354 0.57313406 0
2.3920002 -1.1922264 0.57287979 0
2.5070002 -1.106374 0.57882869 0
2.5040002 -1.1086595 0.57857978 0
2.5010002 -1.1109341 0.57833087 0
2.4980001 -1.1131978 0.57808197 0
2.4950001 -1.1154509 0.577833 0
2.4920001 -1.1176929 0.57758409 0
2.4890001 -1.1199242 0.57733518 0
2.4860003 -1.1221448 0.57708621 0
2.4830003 -1.1243545 0.5768373 0
2.4800003 -1.1265533 0.57658839 0
2.4770002 -1.1287414 0.57633948 0
2.4740002 -1.1309185 0.57609057 0
2.4710002 -1.1330849 0.57584161 0
2.4680002 -1.1352404 0.5755927 0
2.4650002 -1.1373851 0.57534373 0
2.4630003 -1.1400493 0.57517779 0
2.4600003 -1.1421744 0.57492888 0
2.4570003 -1.1442884 0.57467997 0
2.4540002 -1.1463915 0.57443106 0
2.4510002 -1.148484 0.57418209 0
2.4480002 -1.1505656 0.57393318 0
2.4450002 -1.1526363 0.57368428 0
2.4420002 -1.1546963 0.57343531 0
2.4390001 -1.1567454 0.5731864 0
2.4370003 -1.1593304 0.57302046 0
2.4340003 -1.1613597 0.57277155 0
2.4310002 -1.163378 0.57252264 0
2.4280002 -1.1653857 0.57227367 0
2.4250002 -1.1673825 0.57202476 0
2.4220002 -1.1693684 0.57177579 0
2.4200001 -1.171901 0.57160985 0
2.4170003 -1.1738672 0.57136095 0
2.4140003 -1.1758226 0.57111204 0
2.4110003 -1.177767 0.57086313 0
2.4090002 -1.1802653 0.57069713 0
2.4060001 -1.1821899 0.57044822 0
2.4030001 -1.1841037 0.57019931 0
2.4000001 -1.1860068 0.56995034 0
2.3980002 -1.1884708 0.5697844 0
2.3950002 -1.190354 0.56953549 0
2.3920002 -1.1922264 0.56928658 0
2.5070002 -1.106374 0.57502806 0
2.5040002 -1.1086595 0.57478458 0
2.5010002 -1.1109341 0.57454109 0
2.4980001 -1.1131978 0.57429755 0
2.4950001 -1.1154509 0.574054 0
2.4920001 -1.1176929 0.57381052 0
2.4890001 -1.1199242 0.57356697 0
2.4860003 -1.1221448 0.57332349 0
2.4830003 -1.1243545 0.57308 0
2.4800003 -1.1265533 0.57283646 0
2.4770002 -1.1287414 0.57259297 0
2.4740002 -1.1309185 0.57234943 0
2.4710002 -1.1330849 0.57210594 0
2.4680002 -1.1352404 0.5718624 0
2.4650002 -1.1373851 0.57161891 0
2.4630003 -1.1400493 0.57145655 0
2.4600003 -1.1421744 0.57121301 0
2.4570003 -1.1442884 0.57096952 0
2.4540002 -1.1463915 0.57072604 0
2.4510002 -1.148484 0.57048249 0
2.4480002 -1.1505656 0.57023895 0
2.4450002 -1.1526363 0.56999546 0
2.4420002 -1.1546963 0.56975198 0
2.4390001 -1.1567454 0.56950843 0
2.4370003 -1.1593304 0.56934607 0
2.4340003 -1.1613597 0.56910259 0
2.4310002 -1.163378 0.5688591 0
2.4280002 -1.1653857 0.56861556 0
2.4250002 -1.1673825 0.56837201 0
2.4220002 -1.1693684 0.56812853 0
2.4200001 -1.171901 0.56796616 0
2.4170003 -1.1738672 0.56772268 0
2.4140003 -1.1758226 0.56747913 0
2.4110003 -1.177767 0.56723565 0
2.4090002 -1.1802653 0.56707329 0
2.4060001 -1.1821899 0.5668298 0
2.4030001 -1.1841037 0.56658626 0
2.4000001 -1.1860068 0.56634271 0
2.3980002 -1.1884708 0.56618041 0
2.3950002 -1.190354 0.56593692 0
2.3920002 -1.1922264 0.56569338 0
2.5070002 -1.106374 0.57122749 0
2.5040002 -1.1086595 0.57098937 0
2.5010002 -1.1109341 0.57075125 0
2.4980001 -1.1131978 0.57051313 0
2.4950001 -1.1154509 0.57027507 0
2.4920001 -1.1176929 0.57003695 0
2.4890001 -1.1199242 0.56979883 0
2.4860003 -1.1221448 0.56956077 0
2.4830003 -1.1243545 0.56932265 0
2.4800003 -1.1265533 0.56908453 0
2.4770002 -1.1287414 0.56884646 0
2.4740002 -1.1309185 0.56860834 0
2.4710002 -1.1330849 0.56837022 0
2.4680002 -1.1352404 0.56813216 0
2.4650002 -1.1373851 0.56789404 0
2.4630003 -1.1400493 0.56773531 0
2.4600003 -1.1421744 0.56749719 0
2.4570003 -1.1442884 0.56725907 0
2.4540002 -1.1463915 0.56702101 0
2.4510002 -1.148484 0.56678289 0
2.4480002 -1.1505656 0.56654477 0
2.4450002 -1.1526363 0.56630671 0
2.4420002 -1.1546963 0.56606859 0
2.4390001 -1.1567454 0.56583047 0
2.4370003 -1.1593304 0.56567174 0
2.4340003 -1.1613597 0.56543362 0
2.4310002 -1.163378 0.56519556 0
2.4280002 -1.1653857 0.56495744 0
2.4250002 -1.1673825 0.56471932 0
2.4220002 -1.1693684 0.56448126 0
2.4200001 -1.171901 0.56432247 0
2.4170003 -1.1738672 0.56408441 0
2.4140003 -1.1758226 0.56384629 0
2.4110003 -1.177767 0.56360817 0
2.4090002 -1.1802653 0.56344944 0
2.4060001 -1.1821899 0.56321132 0
2.4030001 -1.1841037 0.56297326 0
2.4000001 -1.1860068 0.56273514 0
2.3980002 -1.1884708 0.56257641 0
2.3950002 -1.190354 0.56233829 0
2.3920002 -1.1922264 0.56210017 0
2.5070002 -1.106374 0.56742686 0
2.5040002 -1.1086595 0.56719416 0
2.5010002 -1.1109341 0.56696147 0
2.4980001 -1.1131978 0.56672877 0
2.4950001 -1.1154509 0.56649607 0
2.4920001 -1.1176929 0.56626338 0
2.4890001 -1.1199242 0.56603068 0
2.4860003 -1.1221448 0.56579804 0
2.4830003 -1.1243545 0.56556535 0
2.4800003 -1.1265533 0.56533265 0
2.4770002 -1.1287414 0.56509995 0
2.4740002 -1.1309185 0.56486726 0
2.4710002 -1.1330849 0.56463456 0
2.4680002 -1.1352404 0.56440187 0
2.4650002 -1.1373851 0.56416917 0
2.4630003 -1.1400493 0.56401408 0
2.4600003 -1.1421744 0.56378138 0
2.4570003 -1.1442884 0.56354868 0
2.4540002 -1.1463915 0.56331599 0
2.4510002 -1.148484 0.56308329 0
2.4480002 -1.1505656 0.56285059 0
2.4450002 -1.1526363 0.5626179 0
2.4420002 -1.1546963 0.5623852 0
2.4390001 -1.1567454 0.5621525 0
2.4370003 -1.1593304 0.56199741 0
2.4340003 -1.1613597 0.56176472 0
2.4310002 -1.163378 0.56153202 0
2.4280002 -1.1653857 0.56129932 0
2.4250002 -1.1673825 0.56106663 0
2.4220002 -1.1693684 0.56083393 0
2.4200001 -1.171901 0.56067878 0
2.4170003 -1.1738672 0.56044614 0
2.4140003 -1.1758226 0.56021345 0
2.4110003 -1.177767 0.55998075 0
2.4090002 -1.1802653 0.5598256 0
2.4060001 -1.1821899 0.5595929 0
2.4030001 -1.1841037 0.55936021 0
2.4000001 -1.1860068 0.55912751 0
2.3980002 -1.1884708 0.55897242 0
2.3950002 -1.190354 0.55873972 0
2.3920002 -1.1922264 0.55850703 0
2.5070002 -1.106374 0.56362623 0
2.5040002 -1.1086595 0.56339896 0
2.5010002 -1.1109341 0.56317163 0
2.4980001 -1.1131978 0.56294441 0
2.4950001 -1.1154509 0.56271708 0
2.4920001 -1.1176929 0.56248981 0
2.4890001 -1.1199242 0.56226254 0
2.4860003 -1.1221448 0.56203526 0
2.4830003 -1.1243545 0.56180799 0
2.4800003 -1.1265533 0.56158072 0
2.4770002 -1.1287414 0.56135345 0
2.4740002 -1.1309185 0.56112611 0
2.4710002 -1.1330849 0.56089884 0
2.4680002 -1.1352404 0.56067157 0
2.4650002 -1.1373851 0.5604443 0
2.4630003 -1.1400493 0.56029278 0
2.4600003 -1.1421744 0.56006551 0
2.4570003 -1.1442884 0.55983824 0
2.4540002 -1.1463915 0.55961096 0
2.4510002 -1.148484 0.55938363 0
2.4480002 -1.1505656 0.55915642 0
2.4450002 -1.1526363 0.55892909 0
2.4420002 -1.1546963 0.55870181 0
2.4390001 -1.1567454 0.55847454 0
2.4370003 -1.1593304 0.55832303 0
2.4340003 -1.1613597 0.55809575 0
2.4310002 -1.163378 0.55786848 0
2.4280002 -1.1653857 0.55764115 0
2.4250002 -1.1673825 0.55741394 0
2.4220002 -1.1693684 0.5571866 0
2.4200001 -1.171901 0.55703509 0
2.4170003 -1.1738672 0.55680782 0
2.4140003 -1.1758226 0.55658054 0
2.4110003 -1.177767 0.55635327 0
2.4090002 -1.1802653 0.55620176 0
2.4060001 -1.1821899 0.55597448 0
2.4030001 -1.1841037 0.55574715 0
2.4000001 -1.1860068 0.55551988 0
2.3980002 -1.1884708 0.55536842 0
2.3950002 -1.190354 0.55514109 0
2.3920002 -1.1922264 0.55491382 0
2.5070002 -1.106374 0.5598256 0
2.5040002 -1.1086595 0.55960375 0
2.5010002 -1.1109341 0.55938184 0
2.4980001 -1.1131978 0.55915999 0
2.4950001 -1.1154509 0.55893815 0
2.4920001 -1.1176929 0.55871624 0
2.4890001 -1.1199242 0.55849439 0
2.4860003 -1.1221448 0.55827254 0
2.4830003 -1.1243545 0.55805063 0
2.4800003 -1.1265533 0.55782878 0
2.4770002 -1.1287414 0.55760694 0
2.4740002 -1.1309185 0.55738503 0
2.4710002 -1.1330849 0.55716318 0
2.4680002 -1.1352404 0.55694127 0
2.4650002 -1.1373851 0.55671942 0
2.4630003 -1.1400493 0.55657154 0
2.4600003 -1.1421744 0.55634964 0
2.4570003 -1.1442884 0.55612779 0
2.4540002 -1.1463915 0.55590594 0
2.4510002 -1.148484 0.55568403 0
2.4480002 -1.1505656 0.55546218 0
2.4450002 -1.1526363 0.55524027 0
2.4420002 -1.1546963 0.55501842 0
2.4390001 -1.1567454 0.55479658 0
2.4370003 -1.1593304 0.55464864 0
2.4340003 -1.1613597 0.55442679 0
2.4310002 -1.163378 0.55420494 0
2.4280002 -1.1653857 0.55398309 0
2.4250002 -1.1673825 0.55376118 0
2.4220002 -1.1693684 0.55353934 0
2.4200001 -1.171901 0.5533914 0
2.4170003 -1.1738672 0.55316955 0
2.4140003 -1.1758226 0.55294764 0
2.4110003 -1.177767 0.55272579 0
2.4090002 -1.1802653 0.55257791 0
2.4060001 -1.1821899 0.552356 0
2.4030001 -1.1841037 0.55213416 0
2.4000001 -1.1860068 0.55191231 0
2.3980002 -1.1884708 0.55176437 0
2.3950002 -1.190354 0.55154252 0
2.3920002 -1.1922264 0.55132067 0
2.5070002 -1.106374 0.55602497 0
2.5040002 -1.1086595 0.55580854 0
2.5010002 -1.1109341 0.55559206 0
2.4980001 -1.1131978 0.55537558 0
2.4950001 -1.1154509 0.55515915 0
2.4920001 -1.1176929 0.55494267 0
2.4890001 -1.1199242 0.55472624 0
2.4860003 -1.1221448 0.55450976 0
2.4830003 -1.1243545 0.55429333 0
2.4800003 -1.1265533 0.55407685 0
2.4770002 -1.1287414 0.55386043 0
2.4740002 -1.1309185 0.55364394 0
2.4710002 -1.1330849 0.55342746 0
2.4680002 -1.1352404 0.55321103 0
2.4650002 -1.1373851 0.55299461 0
2.4630003 -1.1400493 0.55285025 0
2.4600003 -1.1421744 0.55263382 0
2.4570003 -1.1442884 0.55241734 0
2.4540002 -1.1463915 0.55220091 0
2.4510002 -1.148484 0.55198443 0
2.4480002 -1.1505656 0.551768 0
2.4450002 -1.1526363 0.55155152 0
2.4420002 -1.1546963 0.5513351 0
2.4390001 -1.1567454 0.55111861 0
2.4370003 -1.1593304 0.55097431 0
2.4340003 -1.1613597 0.55075788 0
2.4310002 -1.163378 0.5505414 0
2.4280002 -1.1653857 0.55032492 0
2.4250002 -1.1673825 0.55010849 0
2.4220002 -1.1693684 0.54989201 0
2.4200001 -1.171901 0.54974771 0
2.4170003 -1.1738672 0.54953128 0
2.4140003 -1.1758226 0.5493148 0
2.4110003 -1.177767 0.54909837 0
2.4090002 -1.1802653 0.54895401 0
2.4060001 -1.1821899 0.54873759 0
2.4030001 -1.1841037 0.54852116 0
2.4000001 -1.1860068 0.54830468 0
2.3980002 -1.1884708 0.54816037 0
2.3950002 -1.190354 0.54794389 0
2.3920002 -1.1922264 0.54772747 0
2.5070002 -1.106374 0.55222434 0
2.5040002 -1.1086595 0.55201328 0
2.5010002 -1.1109341 0.55180228 0
2.4980001 -1.1131978 0.55159122 0
2.4950001 -1.1154509 0.55138016 0
2.4920001 -1.1176929 0.5511691 0
2.4890001 -1.1199242 0.55095804 0
2.4860003 -1.1221448 0.55074704 0
2.4830003 -1.1243545 0.55053598 0
2.4800003 -1.1265533 0.55032492 0
2.4770002 -1.1287414 0.55011392 0
2.4740002 -1.1309185 0.54990286 0
2.4710002 -1.1330849 0.5496918 0
2.4680002 -1.1352404 0.54948074 0
2.4650002 -1.1373851 0.54926968 0
2.4630003 -1.1400493 0.54912901 0
2.4600003 -1.1421744 0.54891795 0
2.4570003 -1.1442884 0.54870695 0
2.4540002 -1.1463915 0.54849589 0
2.4510002 -1.148484 0.54828483 0
2.4480002 -1.1505656 0.54807377 0
2.4450002 -1.1526363 0.54786277 0
2.4420002 -1.1546963 0.54765171 0
2.4390001 -1.1567454 0.54744065 0
2.4370003 -1.1593304 0.54729998 0
2.4340003 -1.1613597 0.54708892 0
2.4310002 -1.163378 0.54687786 0
2.4280002 -1.1653857 0.5466668 0
2.4250002 -1.1673825 0.54645574 0
2.4220002 -1.1693684 0.54624474 0
2.4200001 -1.171901 0.54610401 0
2.4170003 -1.1738672 0.54589301 0
2.4140003 -1.1758226 0.54568195 0
2.4110003 -1.177767 0.54547089 0
2.4090002 -1.1802653 0.54533017 0
2.4060001 -1.1821899 0.54511917 0
2.4030001 -1.1841037 0.54490811 0
2.4000001 -1.1860068 0.54469705 0
2.3980002 -1.1884708 0.54455638 0
2.3950002 -1.190354 0.54434532 0
2.3920002 -1.1922264 0.54413426 0
2.5070002 -1.106374 0.54842371 0
2.5040002 -1.1086595 0.54821807 0
2.5010002 -1.1109341 0.5480125 0
2.4980001 -1.1131978 0.5478068 0
2.4950001 -1.1154509 0.54760116 0
2.4920001 -1.1176929 0.54739559 0
2.4890001 -1.1199242 0.54718989 0
2.4860003 -1.1221448 0.54698431 0
2.4830003 -1.1243545 0.54677868 0
2.4800003 -1.1265533 0.54657304 0
2.4770002 -1.1287414 0.54636741 0
2.4740002 -1.1309185 0.54616177 0
2.4710002 -1.1330849 0.54595613 0
2.4680002 -1.1352404 0.5457505 0
2.4650002 -1.1373851 0.54554486 0
2.4630003 -1.1400493 0.54540777 0
2.4600003 -1.1421744 0.54520214 0
2.4570003 -1.1442884 0.5449965 0
2.4540002 -1.1463915 0.54479086 0
2.4510002 -1.148484 0.54458523 0
2.4480002 -1.1505656 0.54437959 0
2.4450002 -1.1526363 0.54417396 0
2.4420002 -1.1546963 0.54396832 0
2.4390001 -1.1567454 0.54376268 0
2.4370003 -1.1593304 0.54362559 0
2.4340003 -1.1613597 0.54341996 0
2.4310002 -1.163378 0.54321432 0
2.4280002 -1.1653857 0.54300869 0
2.4250002 -1.1673825 0.54280305 0
2.4220002 -1.1693684 0.54259741 0
2.4200001 -1.171901 0.54246032 0
2.4170003 -1.1738672 0.54225469 0
2.4140003 -1.1758226 0.54204905 0
2.4110003 -1.177767 0.54184341 0
2.4090002 -1.1802653 0.54170632 0
2.4060001 -1.1821899 0.54150069 0
2.4030001 -1.1841037 0.54129505 0
2.4000001 -1.1860068 0.54108942 0
2.3980002 -1.1884708 0.54095232 0
2.3950002 -1.190354 0.54074669 0
2.3920002 -1.1922264 0.54054105 0
2.5070002 -1.106374 0.54462314 0
2.5040002 -1.1086595 0.54442286 0
2.5010002 -1.1109341 0.54422265 0
2.4980001 -1.1131978 0.54402244 0
2.4950001 -1.1154509 0.54382217 0
2.4920001 -1.1176929 0.54362196 0
2.4890001 -1.1199242 0.54342175 0
2.4860003 -1.1221448 0.54322153 0
2.4830003 -1.1243545 0.54302132 0
2.4800003 -1.1265533 0.54282111 0
2.4770002 -1.1287414 0.5426209 0
2.4740002 -1.1309185 0.54242063 0
2.4710002 -1.1330849 0.54222041 0
2.4680002 -1.1352404 0.5420202 0
2.4650002 -1.1373851 0.54181999 0
2.4630003 -1.1400493 0.54168653 0
2.4600003 -1.1421744 0.54148626 0
2.4570003 -1.1442884 0.54128605 0
2.4540002 -1.1463915 0.54108584 0
2.4510002 -1.148484 0.54088557 0
2.4480002 -1.1505656 0.54068542 0
2.4450002 -1.1526363 0.54048514 0
2.4420002 -1.1546963 0.54028493 0
2.4390001 -1.1567454 0.54008472 0
2.4370003 -1.1593304 0.53995121 0
2.4340003 -1.1613597 0.53975099 0
2.4310002 -1.163378 0.53955078 0
2.4280002 -1.1653857 0.53935057 0
2.4250002 -1.1673825 0.53915036 0
2.4220002 -1.1693684 0.53895009 0
2.4200001 -1.171901 0.53881663 0
2.4170003 -1.1738672 0.53861642 0
2.4140003 -1.1758226 0.53841621 0
2.4110003 -1.177767 0.53821599 0
2.4090002 -1.1802653 0.53808248 0
2.4060001 -1.1821899 0.53788227 0
2.4030001 -1.1841037 0.53768206 0
2.4000001 -1.1860068 0.53748178 0
2.3980002 -1.1884708 0.53734833 0
2.3950002 -1.190354 0.53714812 0
2.3920002 -1.1922264 0.53694791 0
2.5070002 -1.106374 0.54082251 0
2.5040002 -1.1086595 0.54062766 0
2.5010002 -1.1109341 0.54043287 0
2.4980001 -1.1131978 0.54023802 0
2.4950001 -1.1154509 0.54004323 0
2.4920001 -1.1176929 0.53984839 0
2.4890001 -1.1199242 0.5396536 0
2.4860003 -1.1221448 0.53945881 0
2.4830003 -1.1243545 0.53926396 0
2.4800003 -1.1265533 0.53906918 0
2.4770002 -1.1287414 0.53887439 0
2.4740002 -1.1309185 0.53867954 0
2.4710002 -1.1330849 0.53848475 0
2.4680002 -1.1352404 0.5382899 0
2.4650002 -1.1373851 0.53809512 0
2.4630003 -1.1400493 0.53796524 0
2.4600003 -1.1421744 0.53777045 0
2.4570003 -1.1442884 0.5375756 0
2.4540002 -1.1463915 0.53738081 0
2.4510002 -1.148484 0.53718603 0
2.4480002 -1.1505656 0.53699118 0
2.4450002 -1.1526363 0.53679639 0
2.4420002 -1.1546963 0.53660154 0
2.4390001 -1.1567454 0.53640676 0
2.4370003 -1.1593304 0.53627688 0
2.4340003 -1.1613597 0.53608209 0
2.4310002 -1.163378 0.53588724 0
2.4280002 -1.1653857 0.53569245 0
2.4250002 -1.1673825 0.53549767 0
2.4220002 -1.1693684 0.53530282 0
2.4200001 -1.171901 0.53517294 0
2.4170003 -1.1738672 0.53497815 0
2.4140003 -1.1758226 0.53478336 0
2.4110003 -1.177767 0.53458852 0
2.4090002 -1.1802653 0.53445864 0
2.4060001 -1.1821899 0.53426385 0
2.4030001 -1.1841037 0.534069 0
2.4000001 -1.1860068 0.53387421 0
2.3980002 -1.1884708 0.53374434 0
2.3950002 -1.190354 0.53354955 0
2.3920002 -1.1922264 0.5333547 0
2.5070002 -1.106374 0.53702188 0
2.5040002 -1.1086595 0.53683245 0
2.5010002 -1.1109341 0.53664303 0
2.4980001 -1.1131978 0.53645366 0
2.4950001 -1.1154509 0.53626424 0
2.4920001 -1.1176929 0.53607488 0
2.4890001 -1.1199242 0.53588545 0
2.4860003 -1.1221448 0.53569603 0
2.4830003 -1.1243545 0.53550667 0
2.4800003 -1.1265533 0.53531724 0
2.4770002 -1.1287414 0.53512788 0
2.4740002 -1.1309185 0.53493845 0
2.4710002 -1.1330849 0.53474903 0
2.4680002 -1.1352404 0.53455967 0
2.4650002 -1.1373851 0.53437024 0
2.4630003 -1.1400493 0.534244 0
2.4600003 -1.1421744 0.53405458 0
2.4570003 -1.1442884 0.53386521 0
2.4540002 -1.1463915 0.53367579 0
2.4510002 -1.148484 0.53348637 0
2.4480002 -1.1505656 0.533297 0
2.4450002 -1.1526363 0.53310758 0
2.4420002 -1.1546963 0.53291821 0
2.4390001 -1.1567454 0.53272879 0
2.4370003 -1.1593304 0.53260255 0
2.4340003 -1.1613597 0.53241313 0
2.4310002 -1.163378 0.5322237 0
2.4280002 -1.1653857 0.53203434 0
2.4250002 -1.1673825 0.53184491 0
2.4220002 -1.1693684 0.53165555 0
2.4200001 -1.171901 0.53152925 0
2.4170003 -1.1738672 0.53133988 0
2.4140003 -1.1758226 0.53115046 0
2.4110003 -1.177767 0.53096104 0
2.4090002 -1.1802653 0.53083479 0
2.4060001 -1.1821899 0.53064537 0
2.4030001 -1.1841037 0.53045601 0
2.4000001 -1.1860068 0.53026658 0
2.3980002 -1.1884708 0.53014034 0
2.3950002 -1.190354 0.52995092 0
2.3920002 -1.1922264 0.52976155 0
2.5070002 -1.106374 0.53322124 0
2.5040002 -1.1086595 0.53303725 0
2.5010002 -1.1109341 0.53285325 0
2.4980001 -1.1131978 0.53266925 0
2.4950001 -1.1154509 0.53248525 0
2.4920001 -1.1176929 0.53230131 0
2.4890001 -1.1199242 0.53211731 0
2.4860003 -1.1221448 0.53193331 0
2.4830003 -1.1243545 0.53174931 0
2.4800003 -1.1265533 0.53156531 0
2.4770002 -1.1287414 0.53138137 0
2.4740002 -1.1309185 0.53119737 0
2.4710002 -1.1330849 0.53101337 0
2.4680002 -1.1352404 0.53082937 0
2.4650002 -1.1373851 0.53064537 0
2.4630003 -1.1400493 0.5305227 0
2.4600003 -1.1421744 0.53033876 0
2.4570003 -1.1442884 0.53015476 0
2.4540002 -1.1463915 0.52997077 0
2.4510002 -1.148484 0.52978677 0
2.4480002 -1.1505656 0.52960277 0
2.4450002 -1.1526363 0.52941883 0
2.4420002 -1.1546963 0.52923483 0
2.4390001 -1.1567454 0.52905083 0
2.4370003 -1.1593304 0.52892816 0
2.4340003 -1.1613597 0.52874416 0
2.4310002 -1.163378 0.52856016 0
2.4280002 -1.1653857 0.52837622 0
2.4250002 -1.1673825 0.52819222 0
2.4220002 -1.1693684 0.52800822 0
2.4200001 -1.171901 0.52788556 0
2.4170003 -1.1738672 0.52770156 0
2.4140003 -1.1758226 0.52751762 0
2.4110003 -1.177767 0.52733362 0
2.4090002 -1.1802653 0.52721095 0
2.4060001 -1.1821899 0.52702695 0
2.4030001 -1.1841037 0.52684295 0
2.4000001 -1.1860068 0.52665895 0
2.3980002 -1.1884708 0.52653635 0
2.3950002 -1.190354 0.52635235 0
2.3920002 -1.1922264 0.52616835 0
2.5070002 -1.106374 0.52942061 0
2.5040002 -1.1086595 0.52924204 0
2.5010002 -1.1109341 0.52906346 0
2.4980001 -1.1131978 0.52888489 0
2.4950001 -1.1154509 0.52870631 0
2.4920001 -1.1176929 0.52852774 0
2.4890001 -1.1199242 0.52834916 0
2.4860003 -1.1221448 0.52817059 0
2.4830003 -1.1243545 0.52799201 0
2.4800003 -1.1265533 0.52781343 0
2.4770002 -1.1287414 0.52763486 0
2.4740002 -1.1309185 0.52745628 0
2.4710002 -1.1330849 0.52727771 0
2.4680002 -1.1352404 0.52709913 0
2.4650002 -1.1373851 0.52692056 0
2.4630003 -1.1400493 0.52680147 0
2.4600003 -1.1421744 0.52662289 0
2.4570003 -1.1442884 0.52644432 0
2.4540002 -1.1463915 0.52626574 0
2.4510002 -1.148484 0.52608716 0
2.4480002 -1.1505656 0.52590859 0
2.4450002 -1.1526363 0.52573001 0
2.4420002 -1.1546963 0.52555144 0
2.4390001 -1.1567454 0.52537286 0
2.4370003 -1.1593304 0.52525383 0
2.4340003 -1.1613597 0.5250752 0
2.4310002 -1.163378 0.52489662 0
2.4280002 -1.1653857 0.52471805 0
2.4250002 -1.1673825 0.52453947 0
2.4220002 -1.1693684 0.5243609 0
2.4200001 -1.171901 0.52424186 0
2.4170003 -1.1738672 0.52406329 0
2.4140003 -1.1758226 0.52388471 0
2.4110003 -1.177767 0.52370614 0
2.4090002 -1.1802653 0.52358711 0
2.4060001 -1.1821899 0.52340853 0
2.4030001 -1.1841037 0.52322996 0
2.4000001 -1.1860068 0.52305138 0
2.3980002 -1.1884708 0.52293229 0
2.3950002 -1.190354 0.52275372 0
2.3920002 -1.1922264 0.52257514 0
2.5070002 -1.106374 0.52561998 0
2.5040002 -1.1086595 0.52544683 0
2.5010002 -1.1109341 0.52527368 0
2.4980001 -1.1131978 0.52510047 0
2.4950001 -1.1154509 0.52492732 0
2.4920001 -1.1176929 0.52475417 0
2.4890001 -1.1199242 0.52458096 0
2.4860003 -1.1221448 0.5244078 0
2.4830003 -1.1243545 0.52423465 0
2.4800003 -1.1265533 0.5240615 0
2.4770002 -1.1287414 0.52388835 0
2.4740002 -1.1309185 0.52371514 0
2.4710002 -1.1330849 0.52354199 0
2.4680002 -1.1352404 0.52336884 0
2.4650002 -1.1373851 0.52319568 0
2.4630003 -1.1400493 0.52308023 0
2.4600003 -1.1421744 0.52290708 0
2.4570003 -1.1442884 0.52273387 0
2.4540002 -1.1463915 0.52256072 0
2.4510002 -1.148484 0.52238756 0
2.4480002 -1.1505656 0.52221441 0
2.4450002 -1.1526363 0.5220412 0
2.4420002 -1.1546963 0.52186805 0
2.4390001 -1.1567454 0.5216949 0
2.4370003 -1.1593304 0.52157944 0
2.4340003 -1.1613597 0.52140629 0
2.4310002 -1.163378 0.52123314 0
2.4280002 -1.1653857 0.52105993 0
2.4250002 -1.1673825 0.52088678 0
2.4220002 -1.1693684 0.52071363 0
2.4200001 -1.171901 0.52059817 0
2.4170003 -1.1738672 0.52042502 0
2.4140003 -1.1758226 0.52025187 0
2.4110003 -1.177767 0.52007866 0
2.4090002 -1.1802653 0.51996326 0
2.4060001 -1.1821899 0.51979005 0
2.4030001 -1.1841037 0.5196169 0
2.4000001 -1.1860068 0.51944375 0
2.3980002 -1.1884708 0.5193283 0
2.3950002 -1.190354 0.51915514 0
2.3920002 -1.1922264 0.51898193 0
2.5070002 -1.106374 0.52181935 0
2.5040002 -1.1086595 0.52165163 0
2.5010002 -1.1109341 0.52148384 0
2.4980001 -1.1131978 0.52131611 0
2.4950001 -1.1154509 0.52114832 0
2.4920001 -1.1176929 0.5209806 0
2.4890001 -1.1199242 0.52081281 0
2.4860003 -1.1221448 0.52064508 0
2.4830003 -1.1243545 0.52047729 0
2.4800003 -1.1265533 0.52030957 0
2.4770002 -1.1287414 0.52014184 0
2.4740002 -1.1309185 0.51997405 0
2.4710002 -1.1330849 0.51980633 0
2.4680002 -1.1352404 0.51963854 0
2.4650002 -1.1373851 0.51947081 0
2.4630003 -1.1400493 0.51935899 0
2.4600003 -1.1421744 0.51919121 0
2.4570003 -1.1442884 0.51902348 0
2.4540002 -1.1463915 0.51885569 0
2.4510002 -1.148484 0.51868796 0
2.4480002 -1.1505656 0.51852018 0
2.4450002 -1.1526363 0.51835245 0
2.4420002 -1.1546963 0.51818466 0
2.4390001 -1.1567454 0.51801693 0
2.4370003 -1.1593304 0.51790512 0
2.4340003 -1.1613597 0.51773733 0
2.4310002 -1.163378 0.5175696 0
2.4280002 -1.1653857 0.51740181 0
2.4250002 -1.1673825 0.51723409 0
2.4220002 -1.1693684 0.5170663 0
2.4200001 -1.171901 0.51695448 0
2.4170003 -1.1738672 0.51678675 0
2.4140003 -1.1758226 0.51661897 0
2.4110003 -1.177767 0.51645124 0
2.4090002 -1.1802653 0.51633936 0
2.4060001 -1.1821899 0.51617163 0
2.4030001 -1.1841037 0.51600385 0
2.4000001 -1.1860068 0.51583612 0
2.3980002 -1.1884708 0.5157243 0
2.3950002 -1.190354 0.51555651 0
2.3920002 -1.1922264 0.51538879 0
2.5070002 -1.106374 0.51801872 0
2.5040002 -1.1086595 0.51785636 0
2.5010002 -1.1109341 0.51769406 0
2.4980001 -1.1131978 0.51753169 0
2.4950001 -1.1154509 0.51736939 0
2.4920001 -1.1176929 0.51720703 0
2.4890001 -1.1199242 0.51704466 0
2.4860003 -1.1221448 0.51688236 0
2.4830003 -1.1243545 0.51672 0
2.4800003 -1.1265533 0.51655763 0
2.4770002 -1.1287414 0.51639533 0
2.4740002 -1.1309185 0.51623297 0
2.4710002 -1.1330849 0.5160706 0
2.4680002 -1.1352404 0.51590824 0
2.4650002 -1.1373851 0.51574594 0
2.4630003 -1.1400493 0.5156377 0
2.4600003 -1.1421744 0.51547539 0
2.4570003 -1.1442884 0.51531303 0
2.4540002 -1.1463915 0.51515067 0
2.4510002 -1.148484 0.5149883 0
2.4480002 -1.1505656 0.514826 0
2.4450002 -1.1526363 0.51466364 0
2.4420002 -1.1546963 0.51450133 0
2.4390001 -1.1567454 0.51433897 0
2.4370003 -1.1593304 0.51423073 0
2.4340003 -1.1613597 0.51406837 0
2.4310002 -1.163378 0.51390606 0
2.4280002 -1.1653857 0.5137437 0
2.4250002 -1.1673825 0.5135814 0
2.4220002 -1.1693684 0.51341903 0
2.4200001 -1.171901 0.51331079 0
2.4170003 -1.1738672 0.51314843 0
2.4140003 -1.1758226 0.51298612 0
2.4110003 -1.177767 0.51282376 0
2.4090002 -1.1802653 0.51271552 0
2.4060001 -1.1821899 0.51255322 0
2.4030001 -1.1841037 0.51239085 0
2.4000001 -1.1860068 0.51222849 0
2.3980002 -1.1884708 0.51212025 0
2.3950002 -1.190354 0.51195794 0
2.3920002 -1.1922264 0.51179558 0
2.5070002 -1.106374 0.51421809 0
2.5040002 -1.1086595 0.51406115 0
2.5010002 -1.1109341 0.51390421 0
2.4980001 -1.1131978 0.51374733 0
2.4950001 -1.1154509 0.5135904 0
2.4920001 -1.1176929 0.51343346 0
2.4890001 -1.1199242 0.51327652 0
2.4860003 -1.1221448 0.51311958 0
2.4830003 -1.1243545 0.51296264 0
2.4800003 -1.1265533 0.5128057 0
2.4770002 -1.1287414 0.51264882 0
2.4740002 -1.1309185 0.51249188 0
2.4710002 -1.1330849 0.51233494 0
2.4680002 -1.1352404 0.512178 0
2.4650002 -1.1373851 0.51202106 0
2.4630003 -1.1400493 0.51191646 0
2.4600003 -1.1421744 0.51175952 0
2.4570003 -1.1442884 0.51160258 0
2.4540002 -1.1463915 0.51144564 0
2.4510002 -1.148484 0.5112887 0
2.4480002 -1.1505656 0.51113176 0
2.4450002 -1.1526363 0.51097488 0
2.4420002 -1.1546963 0.51081795 0
2.4390001 -1.1567454 0.51066101 0
2.4370003 -1.1593304 0.5105564 0
2.4340003 -1.1613597 0.51039946 0
2.4310002 -1.163378 0.51024252 0
2.4280002 -1.1653857 0.51008558 0
2.4250002 -1.1673825 0.50992864 0
2.4220002 -1.1693684 0.5097717 0
2.4200001 -1.171901 0.5096671 0
2.4170003 -1.1738672 0.50951016 0
2.4140003 -1.1758226 0.50935322 0
2.4110003 -1.177767 0.50919628 0
2.4090002 -1.1802653 0.50909168 0
2.4060001 -1.1821899 0.50893474 0
2.4030001 -1.1841037 0.5087778 0
2.4000001 -1.1860068 0.50862086 0
2.3980002 -1.1884708 0.50851625 0
2.3950002 -1.190354 0.50835931 0
2.3920002 -1.1922264 0.50820243 0
2.5070002 -1.106374 0.51041746 0
2.5040002 -1.1086595 0.51026595 0
2.5010002 -1.1109341 0.51011443 0
2.4980001 -1.1131978 0.50996292 0
2.4950001 -1.1154509 0.5098114 0
2.4920001 -1.1176929 0.50965989 0
2.4890001 -1.1199242 0.50950837 0
2.4860003 -1.1221448 0.50935686 0
2.4830003 -1.1243545 0.50920534 0
