# .PCD v0.7 - Point Cloud Data file format
VERSION 0.7
FIELDS x y z intensity
SIZE 4 4 4 4
TYPE F F F F
COUNT 1 1 1 1
WIDTH 1404
HEIGHT 1
VIEWPOINT 0 0 0 1 0 0 0
POINTS 1404
DATA ascii
3.2710001 -1.5271177 0.21238688 0
3.2670002 -1.5302258 0.21265385 0
3.2620003 -1.5327997 0.21298754 0
3.2570002 -1.5353558 0.21332124 0
3.2530003 -1.5384169 0.21358821 0
3.2480001 -1.5409385 0.21392193 0
3.2430003 -1.5434422 0.21425562 0
3.2390003 -1.5464565 0.21452259 0
3.2340002 -1.5489259 0.2148563 0
3.2300003 -1.5519093 0.21512325 0
3.2250001 -1.5543444 0.21545696 0
3.2210002 -1.5572972 0.21572392 0
3.2160003 -1.5596982 0.21605761 0
3.2120001 -1.5626203 0.2163246 0
3.2070003 -1.5649869 0.21665829 0
3.2030003 -1.5678785 0.21692526 0
3.1980002 -1.5702107 0.21725897 0
3.1940002 -1.5730716 0.21752593 0
3.1890001 -1.5753696 0.21785964 0
3.1850002 -1.5781999 0.2181266 0
3.1810002 -1.5810155 0.21839356 0
3.1760001 -1.583263 0.21872728 0
3.1720002 -1.5860481 0.21899423 0
3.1680002 -1.5888188 0.21926118 0
3.1630003 -1.5910159 0.21959488 0
3.1590002 -1.5937558 0.21986187 0
3.1550002 -1.5964814 0.22012882 0
3.1500003 -1.5986279 0.22046252 0
3.1460001 -1.6013228 0.22072949 0
3.1420002 -1.6040033 0.22099645 0
3.1380002 -1.6066694 0.22126341 0
3.1330001 -1.608749 0.22159712 0
3.3430002 -1.4846327 0.20227294 0
3.3380003 -1.4874882 0.20261565 0
3.3330002 -1.4903255 0.20295838 0
3.3280003 -1.4931449 0.20330109 0
3.3240001 -1.4964422 0.20357528 0
3.3190002 -1.4992273 0.203918 0
3.3140001 -1.5019944 0.20426072 0
3.3090003 -1.5047433 0.20460343 0
3.3040001 -1.5074742 0.20494618 0
3.3000002 -1.5106922 0.20522034 0
3.2950003 -1.513389 0.20556307 0
3.2900002 -1.5160676 0.2059058 0
3.2850003 -1.5187284 0.20624852 0
3.2810001 -1.5218831 0.2065227 0
3.2760003 -1.5245094 0.20686541 0
3.2710001 -1.5271177 0.20720816 0
3.2670002 -1.5302258 0.20748232 0
3.2620003 -1.5327997 0.20782503 0
3.2570002 -1.5353558 0.20816778 0
3.2530003 -1.5384169 0.20844194 0
3.2480001 -1.5409385 0.20878468 0
3.2430003 -1.5434422 0.2091274 0
3.2390003 -1.5464565 0.20940156 0
3.2340002 -1.5489259 0.2097443 0
3.2300003 -1.5519093 0.21001847 0
3.2250001 -1.5543444 0.21036121 0
3.2210002 -1.5572972 0.21063538 0
3.2160003 -1.5596982 0.21097809 0
3.2120001 -1.5626203 0.21125229 0
3.2070003 -1.5649869 0.211595 0
3.2030003 -1.5678785 0.21186918 0
3.1980002 -1.5702107 0.21221191 0
3.1940002 -1.5730716 0.21248609 0
3.1890001 -1.5753696 0.21282881 0
3.1850002 -1.5781999 0.213103 0
3.1810002 -1.5810155 0.21337716 0
3.1760001 -1.583263 0.2137199 0
3.1720002 -1.5860481 0.21399407 0
3.1680002 -1.5888188 0.21426825 0
3.1630003 -1.5910159 0.21461096 0
3.1590002 -1.5937558 0.21488516 0
3.1550002 -1.5964814 0.21515934 0
3.1500003 -1.5986279 0.21550205 0
3.1460001 -1.6013228 0.21577623 0
3.1420002 -1.6040033 0.2160504 0
3.1380002 -1.6066694 0.21632458 0
3.1330001 -1.608749 0.21666731 0
3.3430002 -1.4846327 0.19696432 0
3.3380003 -1.4874882 0.19731605 0
3.3330002 -1.4903255 0.19766781 0
3.3280003 -1.4931449 0.19801953 0
3.3240001 -1.4964422 0.19830094 0
3.3190002 -1.4992273 0.19865268 0
3.3140001 -1.5019944 0.19900443 0
3.3090003 -1.5047433 0.19935617 0
3.3040001 -1.5074742 0.19970791 0
3.3000002 -1.5106922 0.1999893 0
3.2950003 -1.513389 0.20034105 0
3.2900002 -1.5160676 0.20069279 0
3.2850003 -1.5187284 0.20104453 0
3.2810001 -1.5218831 0.20132594 0
3.2760003 -1.5245094 0.20167767 0
3.2710001 -1.5271177 0.20202942 0
3.2670002 -1.5302258 0.2023108 0
3.2620003 -1.5327997 0.20266254 0
3.2570002 -1.5353558 0.20301428 0
3.2530003 -1.5384169 0.20329568 0
3.2480001 -1.5409385 0.20364743 0
3.2430003 -1.5434422 0.20399916 0
3.2390003 -1.5464565 0.20428056 0
3.2340002 -1.5489259 0.20463231 0
3.2300003 -1.5519093 0.20491371 0
3.2250001 -1.5543444 0.20526545 0
3.2210002 -1.5572972 0.20554684 0
3.2160003 -1.5596982 0.20589858 0
3.2120001 -1.5626203 0.20617998 0
3.2070003 -1.5649869 0.20653172 0
3.2030003 -1.5678785 0.2068131 0
3.1980002 -1.5702107 0.20716485 0
3.1940002 -1.5730716 0.20744625 0
3.1890001 -1.5753696 0.20779799 0
3.1850002 -1.5781999 0.20807938 0
3.1810002 -1.5810155 0.20836078 0
3.1760001 -1.583263 0.20871253 0
3.1720002 -1.5860481 0.20899393 0
3.1680002 -1.5888188 0.20927531 0
3.1630003 -1.5910159 0.20962703 0
3.1590002 -1.5937558 0.20990844 0
3.1550002 -1.5964814 0.21018983 0
3.1500003 -1.5986279 0.21054158 0
3.1460001 -1.6013228 0.21082298 0
3.1420002 -1.6040033 0.21110438 0
3.1380002 -1.6066694 0.21138576 0
3.1330001 -1.608749 0.21173751 0
3.3430002 -1.4846327 0.19165571 0
3.3380003 -1.4874882 0.19201647 0
3.3330002 -1.4903255 0.19237722 0
3.3280003 -1.4931449 0.19273798 0
3.3240001 -1.4964422 0.19302662 0
3.3190002 -1.4992273 0.19338736 0
3.3140001 -1.5019944 0.19374815 0
3.3090003 -1.5047433 0.19410889 0
3.3040001 -1.5074742 0.19446966 0
3.3000002 -1.5106922 0.19475827 0
3.2950003 -1.513389 0.19511901 0
3.2900002 -1.5160676 0.19547978 0
3.2850003 -1.5187284 0.19584054 0
3.2810001 -1.5218831 0.19612916 0
3.2760003 -1.5245094 0.19648992 0
3.2710001 -1.5271177 0.19685067 0
3.2670002 -1.5302258 0.19713928 0
3.2620003 -1.5327997 0.19750004 0
3.2570002 -1.5353558 0.19786081 0
3.2530003 -1.5384169 0.19814941 0
3.2480001 -1.5409385 0.1985102 0
3.2430003 -1.5434422 0.19887094 0
3.2390003 -1.5464565 0.19915953 0
3.2340002 -1.5489259 0.19952032 0
3.2300003 -1.5519093 0.19980893 0
3.2250001 -1.5543444 0.2001697 0
3.2210002 -1.5572972 0.20045829 0
3.2160003 -1.5596982 0.20081905 0
3.2120001 -1.5626203 0.20110767 0
3.2070003 -1.5649869 0.20146842 0
3.2030003 -1.5678785 0.20175703 0
3.1980002 -1.5702107 0.2021178 0
3.1940002 -1.5730716 0.20240639 0
3.1890001 -1.5753696 0.20276718 0
3.1850002 -1.5781999 0.20305578 0
3.1810002 -1.5810155 0.20334439 0
3.1760001 -1.583263 0.20370516 0
3.1720002 -1.5860481 0.20399375 0
3.1680002 -1.5888188 0.20428237 0
3.1630003 -1.5910159 0.20464312 0
3.1590002 -1.5937558 0.20493175 0
3.1550002 -1.5964814 0.20522034 0
3.1500003 -1.5986279 0.2055811 0
3.1460001 -1.6013228 0.20586972 0
3.1420002 -1.6040033 0.20615833 0
3.1380002 -1.6066694 0.20644693 0
3.1330001 -1.608749 0.2068077 0
3.3430002 -1.4846327 0.18634711 0
3.3380003 -1.4874882 0.18671688 0
3.3330002 -1.4903255 0.18708666 0
3.3280003 -1.4931449 0.18745643 0
3.3240001 -1.4964422 0.18775228 0
3.3190002 -1.4992273 0.18812205 0
3.3140001 -1.5019944 0.18849184 0
3.3090003 -1.5047433 0.18886161 0
3.3040001 -1.5074742 0.1892314 0
3.3000002 -1.5106922 0.18952723 0
3.2950003 -1.513389 0.18989699 0
3.2900002 -1.5160676 0.19026677 0
3.2850003 -1.5187284 0.19063655 0
3.2810001 -1.5218831 0.19093239 0
3.2760003 -1.5245094 0.19130217 0
3.2710001 -1.5271177 0.19167195 0
3.2670002 -1.5302258 0.19196777 0
3.2620003 -1.5327997 0.19233754 0
3.2570002 -1.5353558 0.19270733 0
3.2530003 -1.5384169 0.19300315 0
3.2480001 -1.5409385 0.19337294 0
3.2430003 -1.5434422 0.19374272 0
3.2390003 -1.5464565 0.19403853 0
3.2340002 -1.5489259 0.19440831 0
3.2300003 -1.5519093 0.19470415 0
3.2250001 -1.5543444 0.19507393 0
3.2210002 -1.5572972 0.19536975 0
3.2160003 -1.5596982 0.19573952 0
3.2120001 -1.5626203 0.19603537 0
3.2070003 -1.5649869 0.19640514 0
3.2030003 -1.5678785 0.19670095 0
3.1980002 -1.5702107 0.19707075 0
3.1940002 -1.5730716 0.19736657 0
3.1890001 -1.5753696 0.19773635 0
3.1850002 -1.5781999 0.19803217 0
3.1810002 -1.5810155 0.198328 0
3.1760001 -1.583263 0.19869778 0
3.1720002 -1.5860481 0.19899361 0
3.1680002 -1.5888188 0.19928943 0
3.1630003 -1.5910159 0.1996592 0
3.1590002 -1.5937558 0.19995503 0
3.1550002 -1.5964814 0.20025086 0
3.1500003 -1.5986279 0.20062064 0
3.1460001 -1.6013228 0.20091647 0
3.1420002 -1.6040033 0.20121229 0
3.1380002 -1.6066694 0.20150812 0
3.1330001 -1.608749 0.20187789 0
3.3430002 -1.4846327 0.1810385 0
3.3380003 -1.4874882 0.18141729 0
3.3330002 -1.4903255 0.18179609 0
3.3280003 -1.4931449 0.18217489 0
3.3240001 -1.4964422 0.18247795 0
3.3190002 -1.4992273 0.18285672 0
3.3140001 -1.5019944 0.18323554 0
3.3090003 -1.5047433 0.18361433 0
3.3040001 -1.5074742 0.18399313 0
3.3000002 -1.5106922 0.18429618 0
3.2950003 -1.513389 0.18467496 0
3.2900002 -1.5160676 0.18505377 0
3.2850003 -1.5187284 0.18543255 0
3.2810001 -1.5218831 0.18573563 0
3.2760003 -1.5245094 0.1861144 0
3.2710001 -1.5271177 0.18649322 0
3.2670002 -1.5302258 0.18679626 0
3.2620003 -1.5327997 0.18717504 0
3.2570002 -1.5353558 0.18755385 0
3.2530003 -1.5384169 0.1878569 0
3.2480001 -1.5409385 0.18823569 0
3.2430003 -1.5434422 0.18861449 0
3.2390003 -1.5464565 0.18891753 0
3.2340002 -1.5489259 0.18929632 0
3.2300003 -1.5519093 0.18959936 0
3.2250001 -1.5543444 0.18997817 0
3.2210002 -1.5572972 0.19028121 0
3.2160003 -1.5596982 0.19066 0
3.2120001 -1.5626203 0.19096304 0
3.2070003 -1.5649869 0.19134185 0
3.2030003 -1.5678785 0.19164489 0
3.1980002 -1.5702107 0.19202368 0
3.1940002 -1.5730716 0.19232672 0
3.1890001 -1.5753696 0.19270554 0
3.1850002 -1.5781999 0.19300857 0
3.1810002 -1.5810155 0.19331162 0
3.1760001 -1.583263 0.1936904 0
3.1720002 -1.5860481 0.19399345 0
3.1680002 -1.5888188 0.19429648 0
3.1630003 -1.5910159 0.19467527 0
3.1590002 -1.5937558 0.19497833 0
3.1550002 -1.5964814 0.19528136 0
3.1500003 -1.5986279 0.19566016 0
3.1460001 -1.6013228 0.19596322 0
3.1420002 -1.6040033 0.19626625 0
3.1380002 -1.6066694 0.19656928 0
3.1330001 -1.608749 0.19694808 0
3.3430002 -1.4846327 0.17572989 0
3.3380003 -1.4874882 0.1761177 0
3.3330002 -1.4903255 0.17650554 0
3.3280003 -1.4931449 0.17689334 0
3.3240001 -1.4964422 0.17720361 0
3.3190002 -1.4992273 0.17759141 0
3.3140001 -1.5019944 0.17797925 0
3.3090003 -1.5047433 0.17836705 0
3.3040001 -1.5074742 0.17875488 0
3.3000002 -1.5106922 0.17906512 0
3.2950003 -1.513389 0.17945294 0
3.2900002 -1.5160676 0.17984077 0
3.2850003 -1.5187284 0.18022858 0
3.2810001 -1.5218831 0.18053885 0
3.2760003 -1.5245094 0.18092665 0
3.2710001 -1.5271177 0.18131448 0
3.2670002 -1.5302258 0.18162473 0
3.2620003 -1.5327997 0.18201254 0
3.2570002 -1.5353558 0.18240038 0
3.2530003 -1.5384169 0.18271062 0
3.2480001 -1.5409385 0.18309845 0
3.2430003 -1.5434422 0.18348625 0
3.2390003 -1.5464565 0.18379651 0
3.2340002 -1.5489259 0.18418433 0
3.2300003 -1.5519093 0.18449458 0
3.2250001 -1.5543444 0.18488242 0
3.2210002 -1.5572972 0.18519267 0
3.2160003 -1.5596982 0.18558048 0
3.2120001 -1.5626203 0.18589075 0
3.2070003 -1.5649869 0.18627857 0
3.2030003 -1.5678785 0.18658881 0
3.1980002 -1.5702107 0.18697664 0
3.1940002 -1.5730716 0.18728688 0
3.1890001 -1.5753696 0.18767472 0
3.1850002 -1.5781999 0.18798496 0
3.1810002 -1.5810155 0.18829522 0
3.1760001 -1.583263 0.18868303 0
3.1720002 -1.5860481 0.18899329 0
3.1680002 -1.5888188 0.18930355 0
3.1630003 -1.5910159 0.18969135 0
3.1590002 -1.5937558 0.19000162 0
3.1550002 -1.5964814 0.19031188 0
3.1500003 -1.5986279 0.19069968 0
3.1460001 -1.6013228 0.19100995 0
3.1420002 -1.6040033 0.1913202 0
3.1380002 -1.6066694 0.19163045 0
3.1330001 -1.608749 0.19201827 0
3.3430002 -1.4846327 0.17042129 0
3.3380003 -1.4874882 0.17081812 0
3.3330002 -1.4903255 0.17121497 0
3.3280003 -1.4931449 0.17161177 0
3.3240001 -1.4964422 0.17192926 0
3.3190002 -1.4992273 0.1723261 0
3.3140001 -1.5019944 0.17272294 0
3.3090003 -1.5047433 0.17311977 0
3.3040001 -1.5074742 0.17351662 0
3.3000002 -1.5106922 0.17383409 0
3.2950003 -1.513389 0.1742309 0
3.2900002 -1.5160676 0.17462777 0
3.2850003 -1.5187284 0.17502458 0
3.2810001 -1.5218831 0.17534208 0
3.2760003 -1.5245094 0.1757389 0
3.2710001 -1.5271177 0.17613575 0
3.2670002 -1.5302258 0.17645322 0
3.2620003 -1.5327997 0.17685005 0
3.2570002 -1.5353558 0.17724688 0
3.2530003 -1.5384169 0.17756435 0
3.2480001 -1.5409385 0.1779612 0
3.2430003 -1.5434422 0.17835803 0
3.2390003 -1.5464565 0.1786755 0
3.2340002 -1.5489259 0.17907234 0
3.2300003 -1.5519093 0.17938982 0
3.2250001 -1.5543444 0.17978665 0
3.2210002 -1.5572972 0.18010412 0
3.2160003 -1.5596982 0.18050095 0
3.2120001 -1.5626203 0.18081844 0
3.2070003 -1.5649869 0.18121526 0
3.2030003 -1.5678785 0.18153273 0
3.1980002 -1.5702107 0.18192957 0
3.1940002 -1.5730716 0.18224704 0
3.1900003 -1.575918 0.18256451 0
3.1850002 -1.5781999 0.18296136 0
3.1810002 -1.5810155 0.18327883 0
3.1760001 -1.583263 0.18367568 0
3.1720002 -1.5860481 0.18399313 0
3.1680002 -1.5888188 0.1843106 0
3.1630003 -1.5910159 0.18470742 0
3.1590002 -1.5937558 0.18502492 0
3.1550002 -1.5964814 0.18534239 0
3.1500003 -1.5986279 0.18573922 0
3.1460001 -1.6013228 0.18605669 0
3.1420002 -1.6040033 0.18637416 0
3.1380002 -1.6066694 0.18669163 0
3.1330001 -1.608749 0.18708847 0
3.3430002 -1.4846327 0.16511269 0
3.3380003 -1.4874882 0.16551852 0
3.3330002 -1.4903255 0.1659244 0
3.3280003 -1.4931449 0.16633023 0
3.3240001 -1.4964422 0.16665493 0
3.3190002 -1.4992273 0.16706078 0
3.3140001 -1.5019944 0.16746664 0
3.3090003 -1.5047433 0.16787249 0
3.3040001 -1.5074742 0.16827835 0
3.3000002 -1.5106922 0.16860305 0
3.2950003 -1.513389 0.1690089 0
3.2900002 -1.5160676 0.16941476 0
3.2850003 -1.5187284 0.16982061 0
3.2810001 -1.5218831 0.1701453 0
3.2760003 -1.5245094 0.17055114 0
3.2710001 -1.5271177 0.17095701 0
3.2670002 -1.5302258 0.17128171 0
3.2620003 -1.5327997 0.17168754 0
3.2570002 -1.5353558 0.17209342 0
3.2530003 -1.5384169 0.17241809 0
3.2480001 -1.5409385 0.17282395 0
3.2430003 -1.5434422 0.17322981 0
3.2390003 -1.5464565 0.17355448 0
3.2340002 -1.5489259 0.17396034 0
3.2300003 -1.5519093 0.17428504 0
3.2250001 -1.5543444 0.1746909 0
3.2210002 -1.5572972 0.17501557 0
3.2160003 -1.5596982 0.17542143 0
3.2120001 -1.5626203 0.17574613 0
3.2070003 -1.5649869 0.17615198 0
3.2030003 -1.5678785 0.17647666 0
3.1980002 -1.5702107 0.17688252 0
3.1940002 -1.5730716 0.17720722 0
3.1900003 -1.575918 0.17753188 0
3.1850002 -1.5781999 0.17793775 0
3.1810002 -1.5810155 0.17826244 0
3.1760001 -1.583263 0.17866831 0
3.1720002 -1.5860481 0.17899297 0
3.1680002 -1.5888188 0.17931767 0
3.1630003 -1.5910159 0.1797235 0
3.1590002 -1.5937558 0.1800482 0
3.1550002 -1.5964814 0.18037289 0
3.1500003 -1.5986279 0.18077874 0
3.1460001 -1.6013228 0.18110344 0
3.1420002 -1.6040033 0.18142812 0
3.1380002 -1.6066694 0.1817528 0
3.1330001 -1.608749 0.18215866 0
3.3430002 -1.4846327 0.15980406 0
3.3380003 -1.4874882 0.16021894 0
3.3330002 -1.4903255 0.16063383 0
3.3280003 -1.4931449 0.1610487 0
3.3240001 -1.4964422 0.1613806 0
3.3190002 -1.4992273 0.16179548 0
3.3140001 -1.5019944 0.16221035 0
3.3090003 -1.5047433 0.16262521 0
3.3040001 -1.5074742 0.1630401 0
3.3000002 -1.5106922 0.163372 0
3.2950003 -1.513389 0.16378686 0
3.2900002 -1.5160676 0.16420175 0
3.2850003 -1.5187284 0.16461663 0
3.2810001 -1.5218831 0.16494854 0
3.2760003 -1.5245094 0.1653634 0
3.2710001 -1.5271177 0.16577826 0
3.2670002 -1.5302258 0.16611019 0
3.2620003 -1.5327997 0.16652505 0
3.2570002 -1.5353558 0.16693991 0
3.2530003 -1.5384169 0.16727182 0
3.2480001 -1.5409385 0.16768673 0
3.2430003 -1.5434422 0.16810156 0
3.2390003 -1.5464565 0.16843347 0
3.2340002 -1.5489259 0.16884837 0
3.2300003 -1.5519093 0.16918026 0
3.2250001 -1.5543444 0.16959515 0
3.2210002 -1.5572972 0.16992703 0
3.2160003 -1.5596982 0.17034191 0
3.2120001 -1.5626203 0.17067382 0
3.2070003 -1.5649869 0.17108868 0
3.2030003 -1.5678785 0.17142059 0
3.1980002 -1.5702107 0.17183547 0
3.1940002 -1.5730716 0.17216738 0
3.1900003 -1.575918 0.17249925 0
3.1850002 -1.5781999 0.17291415 0
3.1810002 -1.5810155 0.17324604 0
3.1760001 -1.583263 0.17366093 0
3.1720002 -1.5860481 0.17399283 0
3.1680002 -1.5888188 0.17432472 0
3.1630003 -1.5910159 0.17473958 0
3.1590002 -1.5937558 0.17507151 0
3.1550002 -1.5964814 0.1754034 0
3.1500003 -1.5986279 0.17581826 0
3.1460001 -1.6013228 0.17615019 0
3.1420002 -1.6040033 0.17648208 0
3.1380002 -1.6066694 0.17681397 0
3.1330001 -1.608749 0.17722885 0
3.3430002 -1.4846327 0.15449546 0
3.3380003 -1.4874882 0.15491934 0
3.3330002 -1.4903255 0.15534326 0
3.3280003 -1.4931449 0.15576713 0
3.3240001 -1.4964422 0.15610628 0
3.3190002 -1.4992273 0.15653014 0
3.3140001 -1.5019944 0.15695405 0
3.3090003 -1.5047433 0.15737794 0
3.3040001 -1.5074742 0.15780184 0
3.3000002 -1.5106922 0.15814096 0
3.2950003 -1.513389 0.15856482 0
3.2900002 -1.5160676 0.15898874 0
3.2850003 -1.5187284 0.15941262 0
3.2810001 -1.5218831 0.15975177 0
3.2760003 -1.5245094 0.16017564 0
3.2710001 -1.5271177 0.16059956 0
3.2670002 -1.5302258 0.16093865 0
3.2620003 -1.5327997 0.16136256 0
3.2570002 -1.5353558 0.16178645 0
3.2530003 -1.5384169 0.16212557 0
3.2480001 -1.5409385 0.16254947 0
3.2430003 -1.5434422 0.16297336 0
3.2390003 -1.5464565 0.16331245 0
3.2340002 -1.5489259 0.16373637 0
3.2300003 -1.5519093 0.16407548 0
3.2250001 -1.5543444 0.16449937 0
3.2210002 -1.5572972 0.16483849 0
3.2160003 -1.5596982 0.16526239 0
3.2120001 -1.5626203 0.16560151 0
3.2070003 -1.5649869 0.1660254 0
3.2030003 -1.5678785 0.16636451 0
3.1980002 -1.5702107 0.1667884 0
3.1940002 -1.5730716 0.16712752 0
3.1900003 -1.575918 0.16746664 0
3.1850002 -1.5781999 0.16789053 0
3.1810002 -1.5810155 0.16822965 0
3.1760001 -1.583263 0.16865356 0
3.1720002 -1.5860481 0.16899268 0
3.1680002 -1.5888188 0.16933177 0
3.1630003 -1.5910159 0.16975567 0
3.1590002 -1.5937558 0.17009479 0
3.1550002 -1.5964814 0.17043391 0
3.1500003 -1.5986279 0.17085779 0
3.1460001 -1.6013228 0.17119694 0
3.1420002 -1.6040033 0.17153603 0
3.1380002 -1.6066694 0.17187515 0
3.1330001 -1.608749 0.17229904 0
3.3430002 -1.4846327 0.14918685 0
3.3380003 -1.4874882 0.14961973 0
3.3330002 -1.4903255 0.1500527 0
3.3280003 -1.4931449 0.15048561 0
3.3240001 -1.4964422 0.15083194 0
3.3190002 -1.4992273 0.15126485 0
3.3140001 -1.5019944 0.15169775 0
3.3090003 -1.5047433 0.15213066 0
3.3040001 -1.5074742 0.1525636 0
3.3000002 -1.5106922 0.1529099 0
3.2950003 -1.513389 0.15334281 0
3.2900002 -1.5160676 0.15377575 0
3.2850003 -1.5187284 0.15420865 0
3.2810001 -1.5218831 0.15455501 0
3.2760003 -1.5245094 0.1549879 0
3.2710001 -1.5271177 0.15542082 0
3.2670002 -1.5302258 0.15576716 0
3.2620003 -1.5327997 0.15620005 0
3.2570002 -1.5353558 0.15663297 0
3.2530003 -1.5384169 0.15697931 0
3.2480001 -1.5409385 0.1574122 0
3.2430003 -1.5434422 0.15784512 0
3.2390003 -1.5464565 0.15819146 0
3.2340002 -1.5489259 0.15862437 0
3.2300003 -1.5519093 0.1589707 0
3.2250001 -1.5543444 0.15940362 0
3.2210002 -1.5572972 0.15974995 0
3.2160003 -1.5596982 0.16018285 0
3.2120001 -1.5626203 0.16052921 0
3.2070003 -1.5649869 0.1609621 0
3.2030003 -1.5678785 0.16130844 0
3.1980002 -1.5702107 0.16174136 0
3.1940002 -1.5730716 0.16208769 0
3.1900003 -1.575918 0.162434 0
3.1850002 -1.5781999 0.16286692 0
3.1810002 -1.5810155 0.16321325 0
3.1760001 -1.583263 0.16364619 0
3.1720002 -1.5860481 0.16399252 0
3.1680002 -1.5888188 0.16433883 0
3.1630003 -1.5910159 0.16477175 0
3.1590002 -1.5937558 0.16511808 0
3.1550002 -1.5964814 0.16546442 0
3.1500003 -1.5986279 0.16589731 0
3.1460001 -1.6013228 0.16624367 0
3.1420002 -1.6040033 0.16659001 0
3.1380002 -1.6066694 0.16693631 0
3.1330001 -1.608749 0.16736923 0
3.3430002 -1.4846327 0.14387825 0
3.3380003 -1.4874882 0.14432019 0
3.3330002 -1.4903255 0.1447621 0
3.3280003 -1.4931449 0.14520404 0
3.3240001 -1.4964422 0.14555758 0
3.3190002 -1.4992273 0.14599952 0
3.3140001 -1.5019944 0.14644146 0
3.3090003 -1.5047433 0.1468834 0
3.3040001 -1.5074742 0.14732531 0
3.3000002 -1.5106922 0.14767885 0
3.2950003 -1.513389 0.14812079 0
3.2900002 -1.5160676 0.14856273 0
3.2850003 -1.5187284 0.14900467 0
3.2810001 -1.5218831 0.14935821 0
3.2760003 -1.5245094 0.14980012 0
3.2710001 -1.5271177 0.15024209 0
3.2670002 -1.5302258 0.15059564 0
3.2620003 -1.5327997 0.15103754 0
3.2570002 -1.5353558 0.15147948 0
3.2530003 -1.5384169 0.15183303 0
3.2480001 -1.5409385 0.15227497 0
3.2430003 -1.5434422 0.1527169 0
3.2390003 -1.5464565 0.15307045 0
3.2340002 -1.5489259 0.15351236 0
3.2300003 -1.5519093 0.1538659 0
3.2250001 -1.5543444 0.15430787 0
3.2210002 -1.5572972 0.15466142 0
3.2160003 -1.5596982 0.15510334 0
3.2120001 -1.5626203 0.1554569 0
3.2070003 -1.5649869 0.15589881 0
3.2030003 -1.5678785 0.15625235 0
3.1980002 -1.5702107 0.15669429 0
3.1940002 -1.5730716 0.15704784 0
3.1900003 -1.575918 0.15740138 0
3.1850002 -1.5781999 0.15784332 0
3.1810002 -1.5810155 0.15819687 0
3.1760001 -1.583263 0.15863881 0
3.1720002 -1.5860481 0.15899235 0
3.1680002 -1.5888188 0.1593459 0
3.1630003 -1.5910159 0.15978782 0
3.1590002 -1.5937558 0.16014136 0
3.1550002 -1.5964814 0.16049491 0
3.1500003 -1.5986279 0.16093683 0
3.1460001 -1.6013228 0.16129041 0
3.1420002 -1.6040033 0.16164395 0
3.1380002 -1.6066694 0.1619975 0
3.1330001 -1.608749 0.16243942 0
3.3430002 -1.4846327 0.13856962 0
3.3380003 -1.4874882 0.13902059 0
3.3330002 -1.4903255 0.13947153 0
3.3280003 -1.4931449 0.1399225 0
3.3240001 -1.4964422 0.14028326 0
3.3190002 -1.4992273 0.1407342 0
3.3140001 -1.5019944 0.14118516 0
3.3090003 -1.5047433 0.1416361 0
3.3040001 -1.5074742 0.14208707 0
3.3000002 -1.5106922 0.14244783 0
3.2950003 -1.513389 0.14289877 0
3.2900002 -1.5160676 0.14334974 0
3.2850003 -1.5187284 0.14380068 0
3.2810001 -1.5218831 0.14416143 0
3.2760003 -1.5245094 0.1446124 0
3.2710001 -1.5271177 0.14506334 0
3.2670002 -1.5302258 0.1454241 0
3.2620003 -1.5327997 0.14587507 0
3.2570002 -1.5353558 0.14632601 0
3.2530003 -1.5384169 0.14668676 0
3.2480001 -1.5409385 0.14713773 0
3.2430003 -1.5434422 0.14758867 0
3.2390003 -1.5464565 0.14794943 0
3.2340002 -1.5489259 0.14840037 0
3.2300003 -1.5519093 0.14876112 0
3.2250001 -1.5543444 0.14921212 0
3.2210002 -1.5572972 0.14957288 0
3.2160003 -1.5596982 0.15002379 0
3.2120001 -1.5626203 0.15038458 0
3.2070003 -1.5649869 0.15083554 0
3.2030003 -1.5678785 0.15119627 0
3.1980002 -1.5702107 0.15164724 0
3.1940002 -1.5730716 0.152008 0
3.1900003 -1.575918 0.15236875 0
3.1850002 -1.5781999 0.15281972 0
3.1810002 -1.5810155 0.15318048 0
3.1760001 -1.583263 0.15363145 0
3.1720002 -1.5860481 0.15399221 0
3.1680002 -1.5888188 0.15435295 0
3.1630003 -1.5910159 0.1548039 0
3.1590002 -1.5937558 0.15516469 0
3.1550002 -1.5964814 0.15552545 0
3.1500003 -1.5986279 0.15597637 0
3.1460001 -1.6013228 0.15633716 0
3.1420002 -1.6040033 0.1566979 0
3.1380002 -1.6066694 0.15705866 0
3.1330001 -1.608749 0.15750961 0
3.3430002 -1.4846327 0.13326102 0
3.3380003 -1.4874882 0.13372099 0
3.3330002 -1.4903255 0.13418096 0
3.3280003 -1.4931449 0.13464093 0
3.3240001 -1.4964422 0.1350089 0
3.3190002 -1.4992273 0.1354689 0
3.3140001 -1.5019944 0.13592887 0
3.3090003 -1.5047433 0.13638884 0
3.3040001 -1.5074742 0.13684881 0
3.3000002 -1.5106922 0.13721678 0
3.2950003 -1.513389 0.13767675 0
3.2900002 -1.5160676 0.13813674 0
3.2850003 -1.5187284 0.13859668 0
3.2810001 -1.5218831 0.13896468 0
3.2760003 -1.5245094 0.13942462 0
3.2710001 -1.5271177 0.13988462 0
3.2670002 -1.5302258 0.14025259 0
3.2620003 -1.5327997 0.14071256 0
3.2570002 -1.5353558 0.14117253 0
3.2530003 -1.5384169 0.1415405 0
3.2480001 -1.5409385 0.1420005 0
3.2430003 -1.5434422 0.14246044 0
3.2390003 -1.5464565 0.1428284 0
3.2340002 -1.5489259 0.14328837 0
3.2300003 -1.5519093 0.14365637 0
3.2250001 -1.5543444 0.14411637 0
3.2210002 -1.5572972 0.14448434 0
3.2160003 -1.5596982 0.14494428 0
3.2120001 -1.5626203 0.14531228 0
3.2070003 -1.5649869 0.14577222 0
3.2030003 -1.5678785 0.14614019 0
3.1980002 -1.5702107 0.14660022 0
3.1940002 -1.5730716 0.14696816 0
3.1900003 -1.575918 0.14733613 0
3.1850002 -1.5781999 0.14779612 0
3.1810002 -1.5810155 0.14816409 0
3.1760001 -1.583263 0.14862406 0
3.1720002 -1.5860481 0.14899203 0
3.1680002 -1.5888188 0.14936003 0
3.1630003 -1.5910159 0.14981997 0
3.1590002 -1.5937558 0.15018797 0
3.1550002 -1.5964814 0.15055594 0
3.1500003 -1.5986279 0.15101591 0
3.1460001 -1.6013228 0.15138388 0
3.1420002 -1.6040033 0.15175185 0
3.1380002 -1.6066694 0.15211985 0
3.1330001 -1.608749 0.15257984 0
3.3430002 -1.4846327 0.1279524 0
3.3380003 -1.4874882 0.1284214 0
3.3330002 -1.4903255 0.1288904 0
3.3280003 -1.4931449 0.12935936 0
3.3240001 -1.4964422 0.12973458 0
3.3190002 -1.4992273 0.13020357 0
3.3140001 -1.5019944 0.13067257 0
3.3090003 -1.5047433 0.13114154 0
3.3040001 -1.5074742 0.13161057 0
3.3000002 -1.5106922 0.13198575 0
3.2950003 -1.513389 0.13245472 0
3.2900002 -1.5160676 0.13292372 0
3.2850003 -1.5187284 0.13339269 0
3.2810001 -1.5218831 0.1337679 0
3.2760003 -1.5245094 0.1342369 0
3.2710001 -1.5271177 0.13470587 0
3.2670002 -1.5302258 0.13508108 0
3.2620003 -1.5327997 0.13555005 0
3.2570002 -1.5353558 0.13601905 0
3.2530003 -1.5384169 0.13639426 0
3.2480001 -1.5409385 0.13686323 0
3.2430003 -1.5434422 0.1373322 0
3.2390003 -1.5464565 0.13770741 0
3.2340002 -1.5489259 0.13817638 0
3.2300003 -1.5519093 0.13855159 0
3.2250001 -1.5543444 0.13902059 0
3.2210002 -1.5572972 0.13939577 0
3.2160003 -1.5596982 0.13986477 0
3.2120001 -1.5626203 0.14023998 0
3.2070003 -1.5649869 0.14070895 0
3.2030003 -1.5678785 0.14108413 0
3.1980002 -1.5702107 0.14155313 0
3.1940002 -1.5730716 0.14192832 0
3.1900003 -1.575918 0.1423035 0
3.1850002 -1.5781999 0.1427725 0
3.1810002 -1.5810155 0.14314771 0
3.1760001 -1.583263 0.14361671 0
3.1720002 -1.5860481 0.14399189 0
3.1680002 -1.5888188 0.14436707 0
3.1630003 -1.5910159 0.14483607 0
3.1590002 -1.5937558 0.14521125 0
3.1550002 -1.5964814 0.14558643 0
3.1500003 -1.5986279 0.14605543 0
3.1460001 -1.6013228 0.14643064 0
3.1420002 -1.6040033 0.14680582 0
3.1380002 -1.6066694 0.147181 0
3.1330001 -1.608749 0.14765003 0
3.3430002 -1.4846327 0.12264383 0
3.3380003 -1.4874882 0.12312183 0
3.3330002 -1.4903255 0.12359983 0
3.3280003 -1.4931449 0.12407783 0
3.3240001 -1.4964422 0.12446025 0
3.3190002 -1.4992273 0.12493828 0
3.3140001 -1.5019944 0.12541628 0
3.3090003 -1.5047433 0.12589428 0
3.3040001 -1.5074742 0.12637228 0
3.3000002 -1.5106922 0.12675467 0
3.2950003 -1.513389 0.1272327 0
3.2900002 -1.5160676 0.12771073 0
3.2850003 -1.5187284 0.1281887 0
3.2810001 -1.5218831 0.12857112 0
3.2760003 -1.5245094 0.12904912 0
3.2710001 -1.5271177 0.12952715 0
3.2670002 -1.5302258 0.12990955 0
3.2620003 -1.5327997 0.13038757 0
3.2570002 -1.5353558 0.13086557 0
3.2530003 -1.5384169 0.13124797 0
3.2480001 -1.5409385 0.131726 0
3.2430003 -1.5434422 0.13220397 0
3.2390003 -1.5464565 0.13258639 0
3.2340002 -1.5489259 0.13306439 0
3.2300003 -1.5519093 0.13344681 0
3.2250001 -1.5543444 0.13392484 0
3.2210002 -1.5572972 0.13430724 0
3.2160003 -1.5596982 0.13478523 0
3.2120001 -1.5626203 0.13516766 0
3.2070003 -1.5649869 0.13564566 0
3.2030003 -1.5678785 0.13602808 0
3.1980002 -1.5702107 0.13650608 0
3.1940002 -1.5730716 0.1368885 0
3.1900003 -1.575918 0.1372709 0
3.1850002 -1.5781999 0.1377489 0
3.1810002 -1.5810155 0.13813132 0
3.1760001 -1.583263 0.13860932 0
3.1720002 -1.5860481 0.13899174 0
3.1680002 -1.5888188 0.13937414 0
3.1630003 -1.5910159 0.13985214 0
3.1590002 -1.5937558 0.14023456 0
3.1550002 -1.5964814 0.14061698 0
3.1500003 -1.5986279 0.14109495 0
3.1460001 -1.6013228 0.14147738 0
3.1420002 -1.6040033 0.14185977 0
3.1380002 -1.6066694 0.14224216 0
3.1330001 -1.608749 0.14272022 0
3.3430002 -1.4846327 0.11733523 0
3.3380003 -1.4874882 0.11782223 0
3.3330002 -1.4903255 0.11830926 0
3.3280003 -1.4931449 0.11879626 0
3.3240001 -1.4964422 0.11918592 0
3.3190002 -1.4992273 0.11967292 0
3.3140001 -1.5019944 0.12015998 0
3.3090003 -1.5047433 0.12064698 0
3.3040001 -1.5074742 0.12113401 0
3.3000002 -1.5106922 0.12152365 0
3.2950003 -1.513389 0.12201065 0
3.2900002 -1.5160676 0.12249768 0
3.2850003 -1.5187284 0.12298474 0
3.2810001 -1.5218831 0.12337434 0
3.2760003 -1.5245094 0.12386137 0
3.2710001 -1.5271177 0.12434843 0
3.2670002 -1.5302258 0.12473804 0
3.2620003 -1.5327997 0.12522504 0
3.2570002 -1.5353558 0.1257121 0
3.2530003 -1.5384169 0.1261017 0
3.2480001 -1.5409385 0.12658873 0
3.2430003 -1.5434422 0.12707576 0
3.2390003 -1.5464565 0.12746537 0
3.2340002 -1.5489259 0.1279524 0
3.2300003 -1.5519093 0.12834203 0
3.2250001 -1.5543444 0.12882906 0
3.2210002 -1.5572972 0.1292187 0
3.2160003 -1.5596982 0.12970573 0
3.2120001 -1.5626203 0.13009533 0
3.2070003 -1.5649869 0.13058239 0
3.2030003 -1.5678785 0.13097197 0
3.1980002 -1.5702107 0.13145903 0
3.1940002 -1.5730716 0.13184863 0
3.1900003 -1.575918 0.13223827 0
3.1850002 -1.5781999 0.1327253 0
3.1810002 -1.5810155 0.1331149 0
3.1760001 -1.583263 0.13360193 0
3.1720002 -1.5860481 0.13399157 0
3.1680002 -1.5888188 0.1343812 0
3.1630003 -1.5910159 0.1348682 0
3.1590002 -1.5937558 0.13525784 0
3.1550002 -1.5964814 0.13564748 0
3.1500003 -1.5986279 0.13613448 0
3.1460001 -1.6013228 0.13652414 0
3.1420002 -1.6040033 0.13691375 0
3.1380002 -1.6066694 0.13730335 0
3.1330001 -1.608749 0.13779041 0
3.3430002 -1.4846327 0.1120266 0
3.3380003 -1.4874882 0.11252263 0
3.3330002 -1.4903255 0.11301869 0
3.3280003 -1.4931449 0.11351472 0
3.3240001 -1.4964422 0.11391157 0
3.3190002 -1.4992273 0.1144076 0
3.3140001 -1.5019944 0.11490369 0
3.3090003 -1.5047433 0.11539972 0
3.3040001 -1.5074742 0.11589578 0
3.3000002 -1.5106922 0.11629263 0
3.2950003 -1.513389 0.11678866 0
3.2900002 -1.5160676 0.11728469 0
3.2850003 -1.5187284 0.11778072 0
3.2810001 -1.5218831 0.11817759 0
3.2760003 -1.5245094 0.11867362 0
3.2710001 -1.5271177 0.11916968 0
3.2670002 -1.5302258 0.1195665 0
3.2620003 -1.5327997 0.12006253 0
3.2570002 -1.5353558 0.12055859 0
3.2530003 -1.5384169 0.12095544 0
3.2480001 -1.5409385 0.1214515 0
3.2430003 -1.5434422 0.12194756 0
3.2390003 -1.5464565 0.12234434 0
3.2340002 -1.5489259 0.12284043 0
3.2300003 -1.5519093 0.12323725 0
3.2250001 -1.5543444 0.12373331 0
3.2210002 -1.5572972 0.12413016 0
3.2160003 -1.5596982 0.12462619 0
3.2120001 -1.5626203 0.12502304 0
3.2070003 -1.5649869 0.12551907 0
3.2030003 -1.5678785 0.12591591 0
3.1980002 -1.5702107 0.12641197 0
3.1940002 -1.5730716 0.12680879 0
3.1900003 -1.575918 0.12720564 0
3.1850002 -1.5781999 0.1277017 0
3.1810002 -1.5810155 0.12809855 0
3.1760001 -1.583263 0.12859458 0
3.1720002 -1.5860481 0.12899143 0
3.1680002 -1.5888188 0.12938824 0
3.1630003 -1.5910159 0.1298843 0
3.1590002 -1.5937558 0.13028112 0
3.1550002 -1.5964814 0.13067797 0
3.1500003 -1.5986279 0.131174 0
3.1460001 -1.6013228 0.13157088 0
3.1420002 -1.6040033 0.13196769 0
3.1380002 -1.6066694 0.13236451 0
3.1330001 -1.608749 0.1328606 0
3.3430002 -1.4846327 0.106718 0
3.3380003 -1.4874882 0.10722303 0
3.3330002 -1.4903255 0.10772812 0
3.3280003 -1.4931449 0.10823315 0
3.3240001 -1.4964422 0.10863724 0
3.3190002 -1.4992273 0.1091423 0
3.3140001 -1.5019944 0.10964736 0
3.3090003 -1.5047433 0.11015245 0
3.3040001 -1.5074742 0.11065751 0
3.3000002 -1.5106922 0.11106154 0
3.2950003 -1.513389 0.11156663 0
3.2900002 -1.5160676 0.11207169 0
3.2850003 -1.5187284 0.11257675 0
3.2810001 -1.5218831 0.11298081 0
3.2760003 -1.5245094 0.11348587 0
3.2710001 -1.5271177 0.11399096 0
3.2670002 -1.5302258 0.11439499 0
3.2620003 -1.5327997 0.11490005 0
3.2570002 -1.5353558 0.11540514 0
3.2530003 -1.5384169 0.11580917 0
3.2480001 -1.5409385 0.11631426 0
3.2430003 -1.5434422 0.11681932 0
3.2390003 -1.5464565 0.11722335 0
3.2340002 -1.5489259 0.11772844 0
3.2300003 -1.5519093 0.11813247 0
3.2250001 -1.5543444 0.11863756 0
3.2210002 -1.5572972 0.11904159 0
3.2160003 -1.5596982 0.11954665 0
3.2120001 -1.5626203 0.11995074 0
3.2070003 -1.5649869 0.12045577 0
3.2030003 -1.5678785 0.12085983 0
3.1980002 -1.5702107 0.12136492 0
3.1940002 -1.5730716 0.12176898 0
3.1900003 -1.575918 0.12217301 0
3.1850002 -1.5781999 0.12267807 0
3.1810002 -1.5810155 0.12308213 0
3.1760001 -1.583263 0.12358722 0
3.1720002 -1.5860481 0.12399125 0
3.1680002 -1.5888188 0.12439531 0
3.1630003 -1.5910159 0.12490037 0
3.1590002 -1.5937558 0.12530443 0
3.1550002 -1.5964814 0.12570849 0
3.1500003 -1.5986279 0.12621352 0
3.1460001 -1.6013228 0.12661761 0
3.1420002 -1.6040033 0.12702167 0
3.1380002 -1.6066694 0.1274257 0
3.1330001 -1.608749 0.12793079 0
3.3430002 -1.4846327 0.10140938 0
3.3380003 -1.4874882 0.10192344 0
3.3330002 -1.4903255 0.10243756 0
3.3280003 -1.4931449 0.10295162 0
3.3240001 -1.4964422 0.10336292 0
3.3190002 -1.4992273 0.10387698 0
3.3140001 -1.5019944 0.10439107 0
3.3090003 -1.5047433 0.10490516 0
3.3040001 -1.5074742 0.10541925 0
3.3000002 -1.5106922 0.10583052 0
3.2950003 -1.513389 0.10634458 0
3.2900002 -1.5160676 0.10685867 0
3.2850003 -1.5187284 0.10737276 0
3.2810001 -1.5218831 0.10778406 0
3.2760003 -1.5245094 0.10829812 0
3.2710001 -1.5271177 0.10881221 0
3.2670002 -1.5302258 0.10922348 0
3.2620003 -1.5327997 0.10973755 0
3.2570002 -1.5353558 0.11025167 0
3.2530003 -1.5384169 0.11066294 0
3.2480001 -1.5409385 0.11117703 0
3.2430003 -1.5434422 0.11169109 0
3.2390003 -1.5464565 0.11210233 0
3.2340002 -1.5489259 0.11261645 0
3.2300003 -1.5519093 0.11302769 0
3.2250001 -1.5543444 0.11354178 0
3.2210002 -1.5572972 0.11395305 0
3.2160003 -1.5596982 0.11446714 0
3.2120001 -1.5626203 0.11487845 0
3.2070003 -1.5649869 0.11539251 0
3.2030003 -1.5678785 0.11580375 0
3.1980002 -1.5702107 0.11631787 0
3.1940002 -1.5730716 0.11672911 0
3.1900003 -1.575918 0.11714038 0
3.1850002 -1.5781999 0.11765447 0
3.1810002 -1.5810155 0.11806574 0
3.1760001 -1.583263 0.11857986 0
3.1720002 -1.5860481 0.11899111 0
3.1680002 -1.5888188 0.11940238 0
3.1630003 -1.5910159 0.11991644 0
3.1590002 -1.5937558 0.12032774 0
3.1550002 -1.5964814 0.12073898 0
3.1500003 -1.5986279 0.12125307 0
3.1460001 -1.6013228 0.12166435 0
3.1420002 -1.6040033 0.12207562 0
3.1380002 -1.6066694 0.12248689 0
3.1330001 -1.608749 0.12300098 0
3.3430002 -1.4846327 0.096100777 0
3.3380003 -1.4874882 0.096623868 0
3.3330002 -1.4903255 0.097146988 0
3.3280003 -1.4931449 0.097670078 0
3.3240001 -1.4964422 0.098088592 0
3.3190002 -1.4992273 0.098611683 0
3.3140001 -1.5019944 0.099134773 0
3.3090003 -1.5047433 0.099657863 0
3.3040001 -1.5074742 0.10018098 0
3.3000002 -1.5106922 0.10059947 0
3.2950003 -1.513389 0.10112256 0
3.2900002 -1.5160676 0.10164568 0
3.2850003 -1.5187284 0.10216877 0
3.2810001 -1.5218831 0.10258725 0
3.2760003 -1.5245094 0.10311037 0
3.2710001 -1.5271177 0.10363349 0
3.2670002 -1.5302258 0.10405195 0
3.2620003 -1.5327997 0.10457504 0
3.2570002 -1.5353558 0.10509816 0
3.2530003 -1.5384169 0.10551664 0
3.2480001 -1.5409385 0.10603976 0
3.2430003 -1.5434422 0.10656285 0
3.2390003 -1.5464565 0.10698134 0
3.2340002 -1.5489259 0.10750446 0
3.2300003 -1.5519093 0.10792291 0
3.2250001 -1.5543444 0.10844603 0
3.2210002 -1.5572972 0.10886452 0
3.2160003 -1.5596982 0.10938761 0
3.2120001 -1.5626203 0.10980612 0
3.2070003 -1.5649869 0.11032921 0
3.2030003 -1.5678785 0.11074769 0
3.1980002 -1.5702107 0.11127079 0
3.1940002 -1.5730716 0.1116893 0
3.1900003 -1.575918 0.11210775 0
3.1850002 -1.5781999 0.11263087 0
3.1810002 -1.5810155 0.11304936 0
3.1760001 -1.583263 0.11357248 0
3.1720002 -1.5860481 0.11399096 0
3.1680002 -1.5888188 0.11440942 0
3.1630003 -1.5910159 0.11493251 0
3.1590002 -1.5937558 0.11535102 0
3.1550002 -1.5964814 0.11576951 0
3.1500003 -1.5986279 0.1162926 0
3.1460001 -1.6013228 0.11671108 0
3.1420002 -1.6040033 0.11712956 0
3.1380002 -1.6066694 0.11754805 0
3.1330001 -1.608749 0.11807117 0
3.3430002 -1.4846327 0.090792149 0
3.3380003 -1.4874882 0.09132427 0
3.3330002 -1.4903255 0.09185639 0
3.3280003 -1.4931449 0.092388511 0
3.3240001 -1.4964422 0.092814237 0
3.3190002 -1.4992273 0.093346357 0
3.3140001 -1.5019944 0.093878508 0
3.3090003 -1.5047433 0.094410598 0
3.3040001 -1.5074742 0.094942749 0
3.3000002 -1.5106922 0.095368415 0
3.2950003 -1.513389 0.095900536 0
3.2900002 -1.5160676 0.096432656 0
3.2850003 -1.5187284 0.096964777 0
3.2810001 -1.5218831 0.097390503 0
3.2760003 -1.5245094 0.097922623 0
3.2710001 -1.5271177 0.098454744 0
3.2670002 -1.5302258 0.09888044 0
3.2620003 -1.5327997 0.09941256 0
3.2570002 -1.5353558 0.099944681 0
3.2530003 -1.5384169 0.10037038 0
3.2480001 -1.5409385 0.10090253 0
3.2430003 -1.5434422 0.10143462 0
3.2390003 -1.5464565 0.10186034 0
3.2340002 -1.5489259 0.10239246 0
3.2300003 -1.5519093 0.10281813 0
3.2250001 -1.5543444 0.10335028 0
3.2210002 -1.5572972 0.10377598 0
3.2160003 -1.5596982 0.1043081 0
3.2120001 -1.5626203 0.10473379 0
3.2070003 -1.5649869 0.10526592 0
3.2030003 -1.5678785 0.10569161 0
3.1980002 -1.5702107 0.10622376 0
3.1940002 -1.5730716 0.10664943 0
3.1900003 -1.575918 0.10707512 0
3.1850002 -1.5781999 0.10760728 0
3.1810002 -1.5810155 0.10803297 0
3.1760001 -1.583263 0.10856509 0
3.1720002 -1.5860481 0.10899079 0
3.1680002 -1.5888188 0.10941648 0
3.1630003 -1.5910159 0.10994861 0
3.1590002 -1.5937558 0.1103743 0
3.1550002 -1.5964814 0.1108 0
3.1500003 -1.5986279 0.11133212 0
3.1460001 -1.6013228 0.11175781 0
3.1420002 -1.6040033 0.11218354 0
3.1380002 -1.6066694 0.11260924 0
3.1330001 -1.608749 0.11314136 0
3.3430002 -1.4846327 0.085483581 0
3.3380003 -1.4874882 0.086024702 0
3.3330002 -1.4903255 0.086565822 0
3.3280003 -1.4931449 0.087106973 0
3.3240001 -1.4964422 0.087539911 0
3.3190002 -1.4992273 0.088081032 0
3.3140001 -1.5019944 0.088622212 0
3.3090003 -1.5047433 0.089163333 0
3.3040001 -1.5074742 0.089704484 0
3.3000002 -1.5106922 0.090137392 0
3.2950003 -1.513389 0.090678513 0
3.2900002 -1.5160676 0.091219664 0
3.2850003 -1.5187284 0.091760814 0
3.2810001 -1.5218831 0.092193723 0
3.2760003 -1.5245094 0.092734843 0
3.2710001 -1.5271177 0.093275994 0
3.2670002 -1.5302258 0.093708932 0
3.2620003 -1.5327997 0.094250053 0
3.2570002 -1.5353558 0.094791204 0
3.2530003 -1.5384169 0.095224112 0
3.2480001 -1.5409385 0.095765263 0
3.2430003 -1.5434422 0.096306384 0
3.2390003 -1.5464565 0.096739322 0
3.2340002 -1.5489259 0.097280473 0
3.2300003 -1.5519093 0.097713381 0
3.2250001 -1.5543444 0.098254532 0
3.2210002 -1.5572972 0.09868744 0
3.2160003 -1.5596982 0.099228591 0
3.2120001 -1.5626203 0.099661499 0
3.2070003 -1.5649869 0.10020262 0
3.2030003 -1.5678785 0.10063556 0
3.1980002 -1.5702107 0.10117668 0
3.1940002 -1.5730716 0.10160959 0
3.1900003 -1.575918 0.10204253 0
3.1850002 -1.5781999 0.10258368 0
3.1810002 -1.5810155 0.10301656 0
3.1760001 -1.583263 0.10355774 0
3.1720002 -1.5860481 0.10399064 0
3.1680002 -1.5888188 0.10442355 0
3.1630003 -1.5910159 0.10496467 0
3.1590002 -1.5937558 0.10539761 0
3.1550002 -1.5964814 0.10583052 0
3.1500003 -1.5986279 0.10637164 0
3.1460001 -1.6013228 0.10680458 0
3.1420002 -1.6040033 0.10723749 0
3.1380002 -1.6066694 0.1076704 0
3.1330001 -1.608749 0.10821155 0
3.3430002 -1.4846327 0.080174953 0
3.3380003 -1.4874882 0.080725104 0
3.3330002 -1.4903255 0.081275284 0
3.3280003 -1.4931449 0.081825405 0
3.3240001 -1.4964422 0.082265586 0
3.3190002 -1.4992273 0.082815737 0
3.3140001 -1.5019944 0.083365917 0
3.3090003 -1.5047433 0.083916038 0
3.3040001 -1.5074742 0.084466219 0
3.3000002 -1.5106922 0.08490634 0
3.2950003 -1.513389 0.085456491 0
3.2900002 -1.5160676 0.086006671 0
3.2850003 -1.5187284 0.086556822 0
3.2810001 -1.5218831 0.086996973 0
3.2760003 -1.5245094 0.087547123 0
3.2710001 -1.5271177 0.088097304 0
3.2670002 -1.5302258 0.088537395 0
3.2620003 -1.5327997 0.089087546 0
3.2570002 -1.5353558 0.089637727 0
3.2530003 -1.5384169 0.090077877 0
3.2480001 -1.5409385 0.090628028 0
3.2430003 -1.5434422 0.091178179 0
3.2390003 -1.5464565 0.091618299 0
3.2340002 -1.5489259 0.09216848 0
3.2300003 -1.5519093 0.092608601 0
3.2250001 -1.5543444 0.093158782 0
3.2210002 -1.5572972 0.093598902 0
3.2160003 -1.5596982 0.094149023 0
3.2120001 -1.5626203 0.094589204 0
3.2070003 -1.5649869 0.095139354 0
3.2030003 -1.5678785 0.095579445 0
3.1980002 -1.5702107 0.096129626 0
3.1940002 -1.5730716 0.096569777 0
3.1900003 -1.575918 0.097009867 0
3.1850002 -1.5781999 0.097560048 0
3.1810002 -1.5810155 0.098000199 0
3.1760001 -1.583263 0.098550349 0
3.1720002 -1.5860481 0.09899047 0
3.1680002 -1.5888188 0.099430591 0
3.1630003 -1.5910159 0.099980742 0
3.1590002 -1.5937558 0.10042089 0
3.1550002 -1.5964814 0.10086101 0
3.1500003 -1.5986279 0.10141116 0
3.1460001 -1.6013228 0.10185134 0
3.1420002 -1.6040033 0.10229144 0
3.1380002 -1.6066694 0.10273159 0
3.1330001 -1.608749 0.10328174 0
3.3430002 -1.4846327 0.074866354 0
3.3380003 -1.4874882 0.075425535 0
3.3330002 -1.4903255 0.075984716 0
3.3280003 -1.4931449 0.076543868 0
3.3240001 -1.4964422 0.07699126 0
3.3190002 -1.4992273 0.077550411 0
3.3140001 -1.5019944 0.078109592 0
3.3090003 -1.5047433 0.078668743 0
3.3040001 -1.5074742 0.079227954 0
3.3000002 -1.5106922 0.079675317 0
3.2950003 -1.513389 0.080234438 0
3.2900002 -1.5160676 0.080793649 0
3.2850003 -1.5187284 0.08135283 0
3.2810001 -1.5218831 0.081800193 0
3.2760003 -1.5245094 0.082359344 0
3.2710001 -1.5271177 0.082918555 0
3.2670002 -1.5302258 0.083365887 0
3.2620003 -1.5327997 0.083925039 0
3.2570002 -1.5353558 0.084484249 0
3.2530003 -1.5384169 0.084931582 0
3.2480001 -1.5409385 0.085490793 0
3.2430003 -1.5434422 0.086049944 0
3.2390003 -1.5464565 0.086497277 0
3.2340002 -1.5489259 0.087056488 0
3.2300003 -1.5519093 0.087503821 0
3.2250001 -1.5543444 0.088063002 0
3.2210002 -1.5572972 0.088510334 0
3.2160003 -1.5596982 0.089069515 0
3.2120001 -1.5626203 0.089516878 0
3.2070003 -1.5649869 0.090076059 0
3.2030003 -1.5678785 0.090523392 0
3.1980002 -1.5702107 0.091082573 0
3.1940002 -1.5730716 0.091529906 0
3.1900003 -1.575918 0.091977268 0
3.1850002 -1.5781999 0.092536479 0
3.1810002 -1.5810155 0.092983782 0
3.1760001 -1.583263 0.093542993 0
3.1720002 -1.5860481 0.093990326 0
3.1680002 -1.5888188 0.094437659 0
3.1630003 -1.5910159 0.09499684 0
3.1590002 -1.5937558 0.095444202 0
3.1550002 -1.5964814 0.095891535 0
3.1500003 -1.5986279 0.096450686 0
3.1460001 -1.6013228 0.096898079 0
3.1420002 -1.6040033 0.097345382 0
3.1380002 -1.6066694 0.097792745 0
3.1330001 -1.608749 0.098351926 0
3.3430002 -1.4846327 0.069557726 0
3.3380003 -1.4874882 0.070125937 0
3.3330002 -1.4903255 0.070694149 0
3.3280003 -1.4931449 0.0712623 0
3.3240001 -1.4964422 0.071716905 0
3.3190002 -1.4992273 0.072285116 0
3.3140001 -1.5019944 0.072853297 0
3.3090003 -1.5047433 0.073421478 0
3.3040001 -1.5074742 0.073989719 0
3.3000002 -1.5106922 0.074444234 0
3.2950003 -1.513389 0.075012445 0
3.2900002 -1.5160676 0.075580657 0
3.2850003 -1.5187284 0.076148838 0
3.2810001 -1.5218831 0.076603413 0
3.2760003 -1.5245094 0.077171624 0
3.2710001 -1.5271177 0.077739835 0
3.2670002 -1.5302258 0.07819438 0
3.2620003 -1.5327997 0.078762561 0
3.2570002 -1.5353558 0.079330772 0
3.2530003 -1.5384169 0.079785317 0
3.2480001 -1.5409385 0.080353558 0
3.2430003 -1.5434422 0.080921739 0
3.2390003 -1.5464565 0.081376284 0
3.2340002 -1.5489259 0.081944495 0
3.2300003 -1.5519093 0.08239904 0
3.2250001 -1.5543444 0.082967252 0
3.2210002 -1.5572972 0.083421797 0
3.2160003 -1.5596982 0.083989978 0
3.2120001 -1.5626203 0.084444553 0
3.2070003 -1.5649869 0.085012764 0
3.2030003 -1.5678785 0.085467309 0
3.1980002 -1.5702107 0.08603552 0
3.1940002 -1.5730716 0.086490095 0
3.1900003 -1.575918 0.08694461 0
3.1850002 -1.5781999 0.087512851 0
3.1810002 -1.5810155 0.087967396 0
3.1760001 -1.583263 0.088535607 0
3.1720002 -1.5860481 0.088990182 0
3.1680002 -1.5888188 0.089444727 0
3.1630003 -1.5910159 0.090012908 0
3.1590002 -1.5937558 0.090467483 0
3.1550002 -1.5964814 0.090922058 0
3.1500003 -1.5986279 0.091490239 0
3.1460001 -1.6013228 0.091944814 0
3.1420002 -1.6040033 0.092399359 0
3.1380002 -1.6066694 0.092853934 0
3.1330001 -1.608749 0.093422115 0
3.3430002 -1.4846327 0.064249128 0
3.3380003 -1.4874882 0.064826339 0
3.3330002 -1.4903255 0.065403581 0
3.3280003 -1.4931449 0.065980762 0
3.3240001 -1.4964422 0.066442579 0
3.3190002 -1.4992273 0.067019761 0
3.3140001 -1.5019944 0.067597002 0
3.3090003 -1.5047433 0.068174213 0
3.3040001 -1.5074742 0.068751454 0
3.3000002 -1.5106922 0.069213212 0
3.2950003 -1.513389 0.069790423 0
3.2900002 -1.5160676 0.070367634 0
3.2850003 -1.5187284 0.070944846 0
3.2810001 -1.5218831 0.071406662 0
3.2760003 -1.5245094 0.071983844 0
3.2710001 -1.5271177 0.072561085 0
3.2670002 -1.5302258 0.073022842 0
3.2620003 -1.5327997 0.073600054 0
3.2570002 -1.5353558 0.074177295 0
3.2530003 -1.5384169 0.074639052 0
3.2480001 -1.5409385 0.075216293 0
3.2430003 -1.5434422 0.075793505 0
3.2390003 -1.5464565 0.076255262 0
3.2340002 -1.5489259 0.076832503 0
3.2300003 -1.5519093 0.07729426 0
3.2250001 -1.5543444 0.077871501 0
3.2210002 -1.5572972 0.078333259 0
3.2160003 -1.5596982 0.07891047 0
3.2120001 -1.5626203 0.079372257 0
3.2070003 -1.5649869 0.079949468 0
3.2030003 -1.5678785 0.080411226 0
3.1980002 -1.5702107 0.080988467 0
3.1940002 -1.5730716 0.081450254 0
3.1900003 -1.575918 0.081912011 0
3.1850002 -1.5781999 0.082489252 0
3.1810002 -1.5810155 0.082951009 0
3.1760001 -1.583263 0.08352825 0
3.1720002 -1.5860481 0.083990008 0
3.1680002 -1.5888188 0.084451765 0
3.1630003 -1.5910159 0.085028976 0
3.1590002 -1.5937558 0.085490793 0
3.1550002 -1.5964814 0.08595255 0
3.1500003 -1.5986279 0.086529762 0
3.1460001 -1.6013228 0.086991549 0
3.1420002 -1.6040033 0.087453306 0
3.1380002 -1.6066694 0.087915093 0
3.1330001 -1.608749 0.088492304 0
3.3430002 -1.4846327 0.05894053 0
3.3380003 -1.4874882 0.059526742 0
3.3330002 -1.4903255 0.060113013 0
3.3280003 -1.4931449 0.060699224 0
3.3240001 -1.4964422 0.061168253 0
3.3190002 -1.4992273 0.061754435 0
3.3140001 -1.5019944 0.062340707 0
3.3090003 -1.5047433 0.062926948 0
3.3040001 -1.5074742 0.06351316 0
3.3000002 -1.5106922 0.063982189 0
3.2950003 -1.513389 0.064568371 0
3.2900002 -1.5160676 0.065154642 0
3.2850003 -1.5187284 0.065740883 0
3.2810001 -1.5218831 0.066209882 0
3.2760003 -1.5245094 0.066796094 0
3.2710001 -1.5271177 0.067382336 0
3.2670002 -1.5302258 0.067851335 0
3.2620003 -1.5327997 0.068437546 0
3.2570002 -1.5353558 0.069023818 0
3.2530003 -1.5384169 0.069492787 0
3.2480001 -1.5409385 0.070079029 0
3.2430003 -1.5434422 0.07066527 0
3.2390003 -1.5464565 0.071134239 0
3.2340002 -1.5489259 0.071720511 0
3.2300003 -1.5519093 0.07218948 0
3.2250001 -1.5543444 0.072775751 0
3.2210002 -1.5572972 0.073244721 0
3.2160003 -1.5596982 0.073830962 0
3.2120001 -1.5626203 0.074299961 0
3.2070003 -1.5649869 0.074886173 0
3.2030003 -1.5678785 0.075355172 0
3.1980002 -1.5702107 0.075941414 0
3.1940002 -1.5730716 0.076410383 0
3.1900003 -1.575918 0.076879382 0
3.1850002 -1.5781999 0.077465624 0
3.1810002 -1.5810155 0.077934623 0
3.1760001 -1.583263 0.078520864 0
3.1720002 -1.5860481 0.078989834 0
3.1680002 -1.5888188 0.079458833 0
3.1630003 -1.5910159 0.080045074 0
3.1590002 -1.5937558 0.080514073 0
3.1550002 -1.5964814 0.080983043 0
3.1500003 -1.5986279 0.081569284 0
3.1460001 -1.6013228 0.082038283 0
3.1420002 -1.6040033 0.082507282 0
3.1380002 -1.6066694 0.082976252 0
3.1330001 -1.608749 0.083562493 0
3.3430002 -1.4846327 0.053631902 0
3.3380003 -1.4874882 0.054227144 0
3.3330002 -1.4903255 0.054822445 0
3.3280003 -1.4931449 0.055417657 0
3.3240001 -1.4964422 0.055893898 0
3.3190002 -1.4992273 0.05648914 0
3.3140001 -1.5019944 0.057084411 0
3.3090003 -1.5047433 0.057679653 0
3.3040001 -1.5074742 0.058274925 0
3.3000002 -1.5106922 0.058751106 0
3.2950003 -1.513389 0.059346378 0
3.2900002 -1.5160676 0.059941649 0
3.2850003 -1.5187284 0.060536861 0
3.2810001 -1.5218831 0.061013103 0
3.2760003 -1.5245094 0.061608344 0
3.2710001 -1.5271177 0.062203616 0
3.2670002 -1.5302258 0.062679827 0
3.2620003 -1.5327997 0.063275069 0
3.2570002 -1.5353558 0.063870311 0
3.2530003 -1.5384169 0.064346552 0
3.2480001 -1.5409385 0.064941794 0
3.2430003 -1.5434422 0.065537035 0
3.2390003 -1.5464565 0.066013247 0
3.2340002 -1.5489259 0.066608518 0
3.2300003 -1.5519093 0.0670847 0
3.2250001 -1.5543444 0.067680001 0
3.2210002 -1.5572972 0.068156183 0
3.2160003 -1.5596982 0.068751425 0
3.2120001 -1.5626203 0.069227666 0
3.2070003 -1.5649869 0.069822907 0
3.2030003 -1.5678785 0.070299089 0
3.1980002 -1.5702107 0.070894361 0
3.1940002 -1.5730716 0.071370572 0
3.1900003 -1.575918 0.071846753 0
3.1850002 -1.5781999 0.072442025 0
3.1810002 -1.5810155 0.072918236 0
3.1760001 -1.583263 0.073513508 0
3.1720002 -1.5860481 0.073989689 0
3.1680002 -1.5888188 0.074465901 0
3.1630003 -1.5910159 0.075061142 0
3.1590002 -1.5937558 0.075537354 0
3.1550002 -1.5964814 0.076013565 0
3.1500003 -1.5986279 0.076608807 0
3.1460001 -1.6013228 0.077085018 0
3.1420002 -1.6040033 0.077561259 0
3.1380002 -1.6066694 0.078037441 0
3.1330001 -1.608749 0.078632683 0
3.3280003 -1.4931449 0.050136119 0
3.3240001 -1.4964422 0.050619572 0
3.3190002 -1.4992273 0.051223814 0
3.3140001 -1.5019944 0.051828116 0
3.3090003 -1.5047433 0.052432358 0
3.3040001 -1.5074742 0.05303666 0
3.3000002 -1.5106922 0.053520083 0
3.2950003 -1.513389 0.054124355 0
3.2900002 -1.5160676 0.054728627 0
