# .PCD v0.7 - Point Cloud Data file format
VERSION 0.7
FIELDS x y z intensity
SIZE 4 4 4 4
TYPE F F F F
COUNT 1 1 1 1
WIDTH 1465
HEIGHT 1
VIEWPOINT 0 0 0 1 0 0 0
POINTS 1465
DATA ascii
5.6370006 2.400655 1.0652581 0
5.6440005 2.3944662 1.066142 0
5.6510005 2.3882518 1.0670259 0
5.6600003 2.382936 1.0681622 0
5.6690001 2.3775876 1.0692986 0
5.6790004 2.3726652 1.0705613 0
5.6910005 2.3686192 1.0720764 0
5.7050004 2.3654392 1.0738442 0
5.6210003 2.5532806 1.0538201 0
5.6140003 2.5403905 1.052949 0
5.6100001 2.5290084 1.052451 0
5.6060004 2.5176408 1.0519532 0
5.6040006 2.5072691 1.0517043 0
5.6030002 2.4973931 1.0515798 0
5.6020002 2.4875207 1.0514554 0
5.6030002 2.4786227 1.0515798 0
5.6040006 2.4697208 1.0517043 0
5.6050005 2.4608154 1.0518287 0
5.6070004 2.4523861 1.0520777 0
5.6100001 2.4444277 1.052451 0
5.6130004 2.4364586 1.0528244 0
5.6170006 2.4289532 1.0533223 0
5.6210003 2.421433 1.0538201 0
5.6260004 2.4143691 1.0544424 0
5.6310005 2.4072874 1.0550648 0
5.6370006 2.400655 1.0558115 0
5.6440005 2.3944662 1.0566828 0
5.6510005 2.3882518 1.057554 0
5.6590004 2.3824742 1.0585498 0
5.6680002 2.3771279 1.0596699 0
5.6790004 2.3726652 1.061039 0
5.6900005 2.3681629 1.0624081 0
5.7040005 2.3649848 1.0641506 0
5.6230001 2.554276 1.0446477 0
5.6160002 2.5413826 1.0437891 0
5.6110005 2.5295026 1.0431758 0
5.6070004 2.5181334 1.0426853 0
5.6050005 2.5077596 1.0424399 0
5.6040006 2.4978821 1.0423173 0
5.6030002 2.4880078 1.0421946 0
5.6030002 2.4786227 1.0421946 0
5.6040006 2.4697208 1.0423173 0
5.6060004 2.461297 1.0425626 0
5.6080003 2.4528658 1.0428078 0
5.6110005 2.444906 1.0431758 0
5.6140003 2.4369349 1.0435438 0
5.6170006 2.4289532 1.0439118 0
5.6220002 2.4219055 1.044525 0
5.6260004 2.4143691 1.0450157 0
5.6320004 2.4077563 1.0457517 0
5.6380005 2.4011221 1.0464877 0
5.6440005 2.3944662 1.0472237 0
5.6510005 2.3882518 1.0480822 0
5.6600003 2.382936 1.0491861 0
5.6690001 2.3775876 1.05029 0
5.6790004 2.3726652 1.0515167 0
5.6900005 2.3681629 1.052866 0
5.7040005 2.3649848 1.0545832 0
5.6240005 2.554774 1.0353473 0
5.6170006 2.5418787 1.0345013 0
5.6120005 2.5299971 1.033897 0
5.6090002 2.5191181 1.0335345 0
5.6070004 2.5087409 1.0332928 0
5.6050005 2.4983706 1.0330511 0
5.6050005 2.488982 1.0330511 0
5.6050005 2.4795933 1.0330511 0
5.6060004 2.4706879 1.033172 0
5.6070004 2.4617786 1.0332928 0
5.6090002 2.4533458 1.0335345 0
5.6120005 2.4453838 1.033897 0
5.6150002 2.4374108 1.0342596 0
5.6190004 2.4299018 1.0347431 0
5.6230001 2.4223781 1.0352265 0
5.6280003 2.4153109 1.0358307 0
5.6330004 2.4082255 1.036435 0
5.6390004 2.4015894 1.0371602 0
5.6450005 2.3949313 1.0378853 0
5.6530004 2.389179 1.0388521 0
5.6610003 2.3833978 1.0398189 0
5.6700006 2.3780477 1.0409067 0
5.6800003 2.3731232 1.0421152 0
5.6920004 2.3690755 1.0435655 0
5.7050004 2.3654392 1.0451366 0
5.6290002 2.5572631 1.0265195 0
5.6210003 2.5438626 1.0255671 0
5.6160002 2.5319738 1.0249718 0
5.6120005 2.5205956 1.0244956 0
5.6090002 2.509722 1.0241385 0
5.6080003 2.4998372 1.0240195 0
5.6070004 2.4899559 1.0239004 0
5.6070004 2.4805636 1.0239004 0
5.6080003 2.4716544 1.0240195 0
5.6090002 2.4627419 1.0241385 0
5.6120005 2.4547853 1.0244956 0
5.6140003 2.4463398 1.0247338 0
5.6170006 2.4383636 1.0250909 0
5.6210003 2.4308505 1.0255671 0
5.6250005 2.4233234 1.0260433 0
5.6300001 2.4162524 1.0266385 0
5.6350002 2.4091632 1.0272338 0
5.6410003 2.4025235 1.0279481 0
5.6470003 2.3958621 1.0286624 0
5.6550002 2.3901062 1.0296148 0
5.6630006 2.3843215 1.0305673 0
5.6720004 2.3789678 1.0316387 0
5.6820002 2.3740396 1.0328292 0
5.6930003 2.3695319 1.0341388 0
5.7070003 2.366348 1.0358055 0
5.6340003 2.5597525 1.0176736 0
5.6250005 2.5458469 1.0166184 0
5.6190004 2.5334566 1.0159149 0
5.6150002 2.5220728 1.0154459 0
5.6120005 2.511194 1.0150942 0
5.6110005 2.5013039 1.014977 0
5.6100001 2.4914169 1.0148597 0
5.6100001 2.4820189 1.0148597 0
5.6110005 2.4731047 1.014977 0
5.6120005 2.4641869 1.0150942 0
5.6140003 2.455745 1.0153286 0
5.6170006 2.4477739 1.0156804 0
5.6200004 2.4397922 1.0160321 0
5.6230001 2.4317994 1.0163839 0
5.6270003 2.4242685 1.0168529 0
5.6320004 2.4171941 1.0174391 0
5.6370006 2.4101014 1.0180254 0
5.6430001 2.4034579 1.0187289 0
5.6500006 2.3972583 1.0195496 0
5.6570005 2.3910334 1.0203704 0
5.6650004 2.3852448 1.0213083 0
5.6740003 2.3798873 1.0223634 0
5.6850004 2.3754144 1.0236533 0
5.6970005 2.3713574 1.0250602 0
5.7110004 2.3681664 1.0267017 0
5.6310005 2.5488234 1.0078862 0
5.6240005 2.5359278 1.0070781 0
5.6200004 2.5245349 1.0066162 0
5.6170006 2.5136473 1.0062699 0
5.6150002 2.5032589 1.006039 0
5.6140003 2.493365 1.0059236 0
5.6140003 2.4839602 1.0059236 0
5.6140003 2.474555 1.0059236 0
5.6160002 2.4661131 1.0061544 0
5.6180005 2.4576643 1.0063854 0
5.6200004 2.4492078 1.0066162 0
5.6230001 2.4412208 1.0069625 0
5.6270003 2.433697 1.0074244 0
5.6310005 2.4261589 1.0078862 0
5.6350002 2.4186063 1.0083479 0
5.6410003 2.4119773 1.0090406 0
5.6470003 2.4053266 1.0097332 0
5.6530004 2.3986545 1.0104259 0
5.6610003 2.3928876 1.0113494 0
5.6690001 2.3870919 1.012273 0
5.6780005 2.3817277 1.013312 0
5.6890001 2.3772466 1.0145819 0
5.7010002 2.3731828 1.0159672 0
5.7160006 2.3704393 1.0176989 0
5.6390004 2.5527916 0.99935949 0
5.6310005 2.5393875 0.99845052 0
5.6260004 2.5274897 0.99788225 0
5.6220002 2.5161002 0.9974277 0
5.6200004 2.5057032 0.99720037 0
5.6190004 2.4958005 0.99708676 0
5.6180005 2.4859011 0.99697316 0
5.6190004 2.4769723 0.99708676 0
5.6200004 2.4680398 0.99720037 0
5.6220002 2.4595833 0.9974277 0
5.6240005 2.4511201 0.99765503 0
5.6270003 2.4431255 0.99799585 0
5.6310005 2.4355946 0.99845052 0
5.6350002 2.4280493 0.99890494 0
5.6400003 2.4209602 0.99947321 0
5.6450005 2.4138534 1.0000414 0
5.6510005 2.4071956 1.0007232 0
5.6580005 2.4009814 1.0015187 0
5.6650004 2.394742 1.0023142 0
5.6730003 2.3889391 1.0032233 0
5.6830006 2.3840275 1.0043597 0
5.6940002 2.3795376 1.0056098 0
5.7070003 2.375921 1.007087 0
5.6390004 2.5433414 0.98990941 0
5.6330004 2.5309367 0.98923838 0
5.6290002 2.5195348 0.98879099 0
5.6260004 2.5086362 0.98845553 0
5.6250005 2.4987226 0.98834372 0
5.6240005 2.4888124 0.9882319 0
5.6240005 2.4793894 0.9882319 0
5.6250005 2.4704478 0.98834372 0
5.6270003 2.4619825 0.98856735 0
5.6290002 2.45351 0.98879099 0
5.6320004 2.4455066 0.98912656 0
5.6360002 2.4379663 0.98957384 0
5.6400003 2.4304121 0.99002123 0
5.6440005 2.4228435 0.99046862 0
5.6500006 2.4161983 0.99113965 0
5.6560001 2.4095311 0.99181056 0
5.6630006 2.4033084 0.99259353 0
5.6700006 2.3970599 0.99337637 0
5.6790004 2.3917098 0.99438286 0
5.6890001 2.3867872 0.99550116 0
5.7000003 2.3822865 0.9967314 0
5.7140002 2.3791153 0.9982971 0
5.6510005 2.5492725 0.98177969 0
5.6430001 2.535861 0.98089933 0
5.6370006 2.5234599 0.98023915 0
5.6340003 2.5125468 0.97990906 0
5.6310005 2.5016446 0.97957897 0
5.6300001 2.4917235 0.97946894 0
5.6310005 2.4827733 0.97957897 0
5.6320004 2.473819 0.979689 0
5.6330004 2.4648614 0.97979903 0
5.6350002 2.456378 0.98001909 0
5.6380005 2.448364 0.9803493 0
5.6410003 2.4403386 0.98067927 0
5.6460004 2.4332478 0.98122942 0
5.6500006 2.4256682 0.98166966 0
5.6560001 2.4190121 0.98232973 0
5.6620002 2.4123344 0.98298991 0
5.6690001 2.4061003 0.98376024 0
5.6770005 2.400305 0.98464048 0
5.6860003 2.394942 0.98563075 0
5.6970005 2.3904669 0.9868412 0
5.7090001 2.38641 0.98816144 0
5.6540003 2.5412779 0.97263253 0
5.6470003 2.5283663 0.97187495 0
5.6430001 2.5169463 0.97144198 0
5.6400003 2.5060279 0.97111738 0
5.6390004 2.4960909 0.97100914 0
5.6380005 2.4861572 0.97090089 0
5.6390004 2.4771905 0.97100914 0
5.6400003 2.46822 0.97111738 0
5.6420002 2.4597239 0.97133374 0
5.6450005 2.4516971 0.97165847 0
5.6480002 2.4436593 0.97198308 0
5.6530004 2.4365559 0.97252429 0
5.6570005 2.4289639 0.97295725 0
5.6630006 2.4222953 0.97360659 0
5.6690001 2.4156046 0.97425592 0
5.6770005 2.4098237 0.97512174 0
5.6850004 2.4040136 0.97598755 0
5.6940002 2.3986363 0.97696161 0
5.7060003 2.3946066 0.9782604 0
5.7200003 2.3914499 0.97977555 0
5.6620002 2.5357258 0.96400666 0
5.6550002 2.5228121 0.96326172 0
5.6510005 2.5113854 0.96283603 0
5.6480002 2.5004578 0.96251678 0
5.6470003 2.4905078 0.96241033 0
5.6480002 2.4815249 0.96251678 0
5.6490002 2.4725382 0.96262324 0
5.6500006 2.4635482 0.96272969 0
5.6530004 2.4555068 0.96304882 0
5.6570005 2.4479289 0.96347463 0
5.6600003 2.4398644 0.96379387 0
5.6660004 2.4332008 0.96443248 0
5.6710005 2.4260471 0.96496451 0
5.6780005 2.4198096 0.96570945 0
5.6860003 2.414012 0.96656096 0
5.6950002 2.4086492 0.96751869 0
5.7050004 2.4037158 0.96858299 0
5.7190003 2.4005864 0.97007287 0
5.7360005 2.3987808 0.97188222 0
5.6020002 2.5719714 0.94823778 0
5.6030002 2.5630894 0.94834244 0
5.6060004 2.5552034 0.94865632 0
5.6120005 2.5487998 0.94928408 0
5.6200004 2.5433669 0.95012105 0
5.6280003 2.5379047 0.95095789 0
5.6370006 2.5329065 0.95189953 0
5.6460004 2.5278757 0.95284116 0
5.6540003 2.5223236 0.95367813 0
5.6630006 2.5172296 0.95461977 0
5.6610003 2.5067656 0.95441043 0
5.6600003 2.4967923 0.95430589 0
5.6590004 2.4868228 0.95420122 0
5.6590004 2.4773364 0.95420122 0
5.6610003 2.4688063 0.95441043 0
5.6640005 2.4607453 0.95472431 0
5.6670003 2.452673 0.95503819 0
5.6710005 2.4450629 0.95545661 0
5.6760001 2.4379089 0.9559797 0
5.6820002 2.431206 0.95660746 0
5.6900005 2.4254158 0.95744455 0
5.6980004 2.4195964 0.9582814 0
5.7080002 2.4146757 0.95932758 0
5.7210002 2.4111042 0.96068776 0
5.7380004 2.4093258 0.96246624 0
5.5930004 2.5768092 0.93792903 0
5.5920005 2.5669389 0.93782628 0
5.5940003 2.5585766 0.93803191 0
5.5970001 2.5507061 0.93834031 0
5.6020002 2.5438213 0.93885446 0
5.6090002 2.53791 0.93957412 0
5.6170006 2.5324683 0.94039667 0
5.6240005 2.5265048 0.94111645 0
5.6320004 2.5210068 0.941939 0
5.6390004 2.514991 0.94265866 0
5.6470003 2.5094371 0.94348121 0
5.6550002 2.503854 0.94430375 0
5.6630006 2.4982429 0.9451263 0
5.6710005 2.4926021 0.94594884 0
5.6730003 2.4840539 0.94615436 0
5.6750002 2.4754982 0.94636011 0
5.6760001 2.4664595 0.94646287 0
5.6800003 2.4588401 0.94687414 0
5.6840005 2.4512067 0.94728541 0
5.6890001 2.4440291 0.94779944 0
5.6960006 2.4377718 0.94851923 0
5.7040005 2.4319563 0.94934177 0
5.7150002 2.4275081 0.95047271 0
5.7270002 2.4234838 0.95170653 0
5.7500005 2.4244957 0.95407128 0
5.5890002 2.5841489 0.92815781 0
5.5870004 2.5737791 0.92795575 0
5.5870004 2.5644226 0.92795575 0
5.5890002 2.5560689 0.92815781 0
5.5920005 2.5482082 0.92846084 0
5.5970001 2.5413318 0.92896593 0
5.6030002 2.5349338 0.92957199 0
5.6100001 2.5290084 0.93027914 0
5.6180005 2.5235503 0.93108726 0
5.6250005 2.5175722 0.93179429 0
5.6320004 2.5115693 0.93250144 0
5.6400003 2.5060279 0.93330944 0
5.6470003 2.4999726 0.93401659 0
5.6540003 2.4938917 0.93472362 0
5.6620002 2.4882674 0.93553174 0
5.6690001 2.4821343 0.93623888 0
5.6770005 2.4764545 0.937047 0
5.6850004 2.4707456 0.93785512 0
5.6920004 2.4645331 0.93856215 0
5.7000003 2.4587681 0.93937027 0
5.7080002 2.4529743 0.94017839 0
5.7160006 2.4471517 0.94098651 0
5.7240005 2.4413002 0.94179463 0
5.7320004 2.4354196 0.94260275 0
5.7390003 2.4290466 0.94330978 0
5.7470002 2.4231105 0.9441179 0
5.7560005 2.4176054 0.94502711 0
5.7640004 2.4116094 0.94583523 0
5.7720003 2.4055846 0.94664323 0
5.7810001 2.3999853 0.94755232 0
5.5900002 2.5940175 0.91889703 0
5.5850005 2.5821216 0.918401 0
5.5830002 2.5717585 0.91820264 0
5.5840001 2.5629127 0.91830182 0
5.5860004 2.554565 0.91850019 0
5.5890002 2.5467091 0.91879785 0
5.5940003 2.5398386 0.91929388 0
5.6000004 2.5334458 0.91988921 0
5.6070004 2.5275257 0.92058361 0
5.6140003 2.5215805 0.92127812 0
5.6210003 2.5156097 0.92197251 0
5.6280003 2.509614 0.92266703 0
5.6350002 2.5035927 0.92336154 0
5.6430001 2.4980316 0.92415512 0
5.6500006 2.4919584 0.92484963 0
5.6570005 2.4858596 0.92554414 0
5.6640005 2.4797356 0.92623854 0
5.6720004 2.4740644 0.92703223 0
5.6790004 2.4678884 0.92772675 0
5.6860003 2.4616866 0.92842114 0
5.6940002 2.4559326 0.92921484 0
5.7020001 2.4501495 0.93000853 0
5.7090001 2.4438684 0.93070292 0
5.7170005 2.4380298 0.93149674 0
5.7240005 2.4316964 0.93219113 0
5.7320004 2.4258018 0.93298483 0
5.7400002 2.419878 0.93377852 0
5.7470002 2.4134653 0.93447292 0
5.7550001 2.4074857 0.93526661 0
5.7630005 2.4014773 0.93606031 0
5.7700005 2.3949854 0.9367547 0
5.7780004 2.388921 0.9375484 0
5.7860003 2.3828278 0.93834209 0
5.5890002 2.593509 0.90943789 0
5.5840001 2.5816145 0.90895081 0
5.5820003 2.5712535 0.90875602 0
5.5830002 2.5624094 0.90885353 0
5.5850005 2.5540636 0.90904832 0
5.5880003 2.5462096 0.9093405 0
5.5930004 2.5393405 0.90982759 0
5.5990005 2.5329497 0.91041195 0
5.6050005 2.5265374 0.91099644 0
5.6120005 2.5205956 0.91167831 0
5.6190004 2.5146284 0.91236007 0
5.6260004 2.5086362 0.91304195 0
5.6330004 2.5026186 0.91372371 0
5.6410003 2.4970613 0.91450298 0
5.6480002 2.4909911 0.91518486 0
5.6550002 2.4848962 0.91586673 0
5.6620002 2.478776 0.91654849 0
5.6690001 2.4726303 0.91723037 0
5.6760001 2.4664595 0.91791213 0
5.6830006 2.4602635 0.918594 0
5.6910005 2.4545147 0.91937327 0
5.6980004 2.4482663 0.92005515 0
5.7050004 2.4419928 0.92073703 0
5.7130003 2.4361608 0.92151618 0
5.7200003 2.4298351 0.92219806 0
5.7280002 2.4239473 0.92297733 0
5.7350001 2.4175689 0.92365909 0
5.7430005 2.4116256 0.92443836 0
5.7500005 2.4051952 0.92512023 0
5.7580004 2.3991957 0.92589939 0
5.7650003 2.3927128 0.92658126 0
5.7730002 2.3866572 0.92736053 0
5.7800002 2.3801219 0.92804241 0
5.7880006 2.3740108 0.92882168 0
5.5890002 2.593509 0.90007794 0
5.5840001 2.5816145 0.89959991 0
5.5830002 2.5717585 0.8995043 0
5.5830002 2.5624094 0.8995043 0
5.5850005 2.5540636 0.89969552 0
5.5880003 2.5462096 0.89998233 0
5.5930004 2.5393405 0.90046036 0
5.5980005 2.5324538 0.90093839 0
5.6050005 2.5265374 0.90160757 0
5.6120005 2.5205956 0.90227681 0
5.6190004 2.5146284 0.902946 0
5.6260004 2.5086362 0.90361524 0
5.6330004 2.5026186 0.90428448 0
5.6400003 2.4965758 0.9049536 0
5.6470003 2.4905078 0.90562284 0
5.6540003 2.4844146 0.90629208 0
5.6610003 2.478296 0.90696132 0
5.6680002 2.4721522 0.90763044 0
5.6750002 2.4659832 0.90829968 0
5.6820002 2.459789 0.90896893 0
5.6900005 2.4540422 0.90973377 0
5.6970005 2.4477956 0.91040301 0
5.7040005 2.4415236 0.91107213 0
5.7110004 2.4352267 0.91174138 0
5.7180004 2.4289043 0.91241062 0
5.7260003 2.4230204 0.91317534 0
5.7330003 2.4166455 0.91384459 0
5.7400002 2.4102457 0.91451383 0
5.7480001 2.4042785 0.91527855 0
5.7550001 2.3978264 0.91594779 0
5.7630005 2.3918035 0.91671264 0
5.7700005 2.3852992 0.91738188 0
5.7770004 2.3787694 0.91805112 0
5.7850003 2.3726635 0.91881585 0
5.7930002 2.3665285 0.9195807 0
5.5890002 2.593509 0.89071798 0
5.5840001 2.5816145 0.89024895 0
5.5830002 2.5717585 0.8901552 0
5.5830002 2.5624094 0.8901552 0
5.5850005 2.5540636 0.89034283 0
5.5880003 2.5462096 0.89062417 0
5.5930004 2.5393405 0.89109313 0
5.5980005 2.5324538 0.89156216 0
5.6050005 2.5265374 0.89221883 0
5.6120005 2.5205956 0.89287531 0
5.6190004 2.5146284 0.89353192 0
5.6260004 2.5086362 0.89418852 0
5.6330004 2.5026186 0.89484513 0
5.6400003 2.4965758 0.89550167 0
5.6470003 2.4905078 0.89615828 0
5.6540003 2.4844146 0.89681482 0
5.6610003 2.478296 0.89747143 0
5.6680002 2.4721522 0.89812803 0
5.6750002 2.4659832 0.89878464 0
5.6820002 2.459789 0.89944118 0
5.6890001 2.4535694 0.90009779 0
5.6970005 2.4477956 0.90084821 0
5.7040005 2.4415236 0.90150476 0
5.7110004 2.4352267 0.90216136 0
5.7180004 2.4289043 0.90281796 0
5.7250004 2.4225566 0.90347457 0
5.7330003 2.4166455 0.90422487 0
5.7400002 2.4102457 0.90488148 0
5.7470002 2.4038205 0.90553808 0
5.7540002 2.3973701 0.90619469 0
5.7620006 2.3913491 0.90694511 0
5.7690005 2.3848464 0.90760159 0
5.7760005 2.3783183 0.9082582 0
5.7840004 2.3722143 0.90900862 0
5.7910004 2.3656337 0.90966511 0
5.5890002 2.593509 0.88135803 0
5.5840001 2.5816145 0.880898 0
5.5830002 2.5717585 0.88080609 0
5.5830002 2.5624094 0.88080609 0
5.5850005 2.5540636 0.88099003 0
5.5880003 2.5462096 0.881266 0
5.5930004 2.5393405 0.88172603 0
5.5980005 2.5324538 0.882186 0
5.6050005 2.5265374 0.8828299 0
5.6120005 2.5205956 0.88347387 0
5.6190004 2.5146284 0.88411784 0
5.6260004 2.5086362 0.88476181 0
5.6330004 2.5026186 0.88540578 0
5.6400003 2.4965758 0.88604975 0
5.6470003 2.4905078 0.88669372 0
5.6540003 2.4844146 0.88733768 0
5.6610003 2.478296 0.88798159 0
5.6680002 2.4721522 0.8886255 0
5.6750002 2.4659832 0.88926947 0
5.6820002 2.459789 0.88991344 0
5.6890001 2.4535694 0.89055741 0
5.6970005 2.4477956 0.89129341 0
5.7040005 2.4415236 0.89193738 0
5.7110004 2.4352267 0.89258134 0
5.7180004 2.4289043 0.89322531 0
5.7250004 2.4225566 0.89386922 0
5.7330003 2.4166455 0.89460516 0
5.7400002 2.4102457 0.89524913 0
5.7470002 2.4038205 0.8958931 0
5.7540002 2.3973701 0.89653707 0
5.7620006 2.3913491 0.89727306 0
5.7690005 2.3848464 0.89791703 0
5.7760005 2.3783183 0.898561 0
5.7840004 2.3722143 0.89929688 0
5.7920003 2.3660812 0.90003282 0
5.5890002 2.593509 0.87199807 0
5.5840001 2.5816145 0.8715471 0
5.5830002 2.5717585 0.87145686 0
5.5830002 2.5624094 0.87145686 0
5.5850005 2.5540636 0.87163734 0
5.5880003 2.5462096 0.87190789 0
5.5930004 2.5393405 0.8723588 0
5.5980005 2.5324538 0.87280977 0
5.6050005 2.5265374 0.8734411 0
5.6120005 2.5205956 0.87407243 0
5.6190004 2.5146284 0.87470376 0
5.6260004 2.5086362 0.8753351 0
5.6330004 2.5026186 0.87596643 0
5.6400003 2.4965758 0.87659776 0
5.6470003 2.4905078 0.87722909 0
5.6540003 2.4844146 0.87786043 0
5.6610003 2.478296 0.87849176 0
5.6680002 2.4721522 0.87912309 0
5.6750002 2.4659832 0.87975442 0
5.6820002 2.459789 0.88038576 0
5.6890001 2.4535694 0.88101709 0
5.6970005 2.4477956 0.8817386 0
5.7040005 2.4415236 0.88237 0
5.7110004 2.4352267 0.88300133 0
5.7180004 2.4289043 0.88363266 0
5.7250004 2.4225566 0.88426393 0
5.7330003 2.4166455 0.88498551 0
5.7400002 2.4102457 0.88561678 0
5.7470002 2.4038205 0.88624811 0
5.7540002 2.3973701 0.88687944 0
5.7620006 2.3913491 0.88760102 0
5.7690005 2.3848464 0.88823235 0
5.7760005 2.3783183 0.88886368 0
5.7840004 2.3722143 0.8895852 0
5.5890002 2.593509 0.86263812 0
5.5840001 2.5816145 0.86219615 0
5.5830002 2.5717585 0.86210775 0
5.5830002 2.5624094 0.86210775 0
5.4530005 2.4605269 0.85061753 0
5.4590001 2.4543777 0.85114783 0
5.4660006 2.4486992 0.85176659 0
5.4730005 2.4429955 0.85238528 0
5.4790006 2.4367781 0.85291559 0
5.4860005 2.4310255 0.85353428 0
5.4930005 2.4252479 0.85415304 0
5.5000005 2.419445 0.85477173 0
5.5070004 2.4136171 0.85539043 0
5.5140004 2.4077637 0.85600913 0
5.5200005 2.401407 0.85653943 0
5.5270004 2.395505 0.85715818 0
5.5340004 2.3895776 0.85777682 0
5.5410004 2.383625 0.85839558 0
5.6970005 2.4477956 0.87218386 0
5.7040005 2.4415236 0.87280262 0
5.7110004 2.4352267 0.87342131 0
5.7180004 2.4289043 0.87403995 0
5.7250004 2.4225566 0.8746587 0
5.7330003 2.4166455 0.87536573 0
5.7400002 2.4102457 0.87598443 0
5.7470002 2.4038205 0.87660313 0
5.7540002 2.3973701 0.87722188 0
5.7620006 2.3913491 0.87792903 0
5.7690005 2.3848464 0.87854767 0
5.7760005 2.3783183 0.87916636 0
5.5890002 2.593509 0.85327816 0
5.5840001 2.5816145 0.85284519 0
5.5830002 2.5717585 0.85275865 0
5.5830002 2.5624094 0.85275865 0
5.4560003 2.4802551 0.84176266 0
5.4460001 2.4661565 0.84089679 0
5.4530005 2.4605269 0.8415029 0
5.4590001 2.4543777 0.84202236 0
5.4660006 2.4486992 0.84262848 0
5.4730005 2.4429955 0.84323454 0
5.4790006 2.4367781 0.84375405 0
5.4860005 2.4310255 0.84436011 0
5.4930005 2.4252479 0.84496617 0
5.5000005 2.419445 0.84557229 0
5.5070004 2.4136171 0.84617835 0
5.5140004 2.4077637 0.84678447 0
5.5200005 2.401407 0.84730393 0
5.5270004 2.395505 0.84790999 0
5.5340004 2.3895776 0.84851611 0
5.5410004 2.383625 0.84912217 0
5.5480003 2.3776472 0.84972823 0
5.5550003 2.3716443 0.85033429 0
5.5620003 2.3656158 0.85094035 0
5.5690002 2.3595622 0.85154647 0
5.5760002 2.3534834 0.85215253 0
5.5830002 2.3473792 0.85275865 0
5.5900002 2.3412499 0.85336471 0
5.5970001 2.3350952 0.85397077 0
5.6040006 2.3289156 0.85457689 0
5.6110005 2.3227105 0.85518301 0
5.6180005 2.3164802 0.85578907 0
5.6260004 2.3106756 0.85648173 0
5.6330004 2.3043928 0.85708779 0
5.6400003 2.2980847 0.85769391 0
5.6470003 2.2917516 0.85829997 0
5.5890002 2.593509 0.8439182 0
5.5840001 2.5816145 0.8434943 0
5.5830002 2.5717585 0.84340948 0
5.5830002 2.5624094 0.84340948 0
5.4560003 2.4802551 0.83264256 0
5.4460001 2.4661565 0.83179474 0
5.4530005 2.4605269 0.83238828 0
5.4590001 2.4543777 0.83289689 0
5.4660006 2.4486992 0.83349037 0
5.4730005 2.4429955 0.8340838 0
5.4790006 2.4367781 0.83459252 0
5.4860005 2.4310255 0.835186 0
5.4930005 2.4252479 0.83577943 0
5.5000005 2.419445 0.83637285 0
5.5070004 2.4136171 0.83696628 0
5.5140004 2.4077637 0.83755976 0
5.5200005 2.401407 0.83806843 0
5.5270004 2.395505 0.83866191 0
5.5340004 2.3895776 0.83925533 0
5.5410004 2.383625 0.83984876 0
5.5480003 2.3776472 0.84044224 0
5.5550003 2.3716443 0.84103566 0
5.5620003 2.3656158 0.84162915 0
5.5690002 2.3595622 0.84222257 0
5.5760002 2.3534834 0.842816 0
5.5830002 2.3473792 0.84340948 0
5.5900002 2.3412499 0.84400296 0
5.5970001 2.3350952 0.84459639 0
5.6040006 2.3289156 0.84518993 0
5.6110005 2.3227105 0.84578335 0
5.6180005 2.3164802 0.84637678 0
5.6260004 2.3106756 0.84705496 0
5.6330004 2.3043928 0.8476485 0
5.6400003 2.2980847 0.84824193 0
5.6470003 2.2917516 0.84883535 0
5.6540003 2.2853932 0.84942877 0
5.6620002 2.2794516 0.85010707 0
5.6690001 2.2730408 0.8507005 0
5.6760001 2.2666047 0.85129392 0
5.6840005 2.2605803 0.85197222 0
5.6910005 2.254092 0.85256565 0
5.6980004 2.2475781 0.85315907 0
5.7060003 2.2414706 0.85383731 0
5.7130003 2.2349045 0.85443079 0
5.6060004 2.611547 0.83596879 0
5.5890002 2.593509 0.83455819 0
5.5840001 2.5816145 0.83414334 0
5.5830002 2.5717585 0.83406031 0
5.5830002 2.5624094 0.83406031 0
5.4560003 2.4802551 0.82352251 0
5.4460001 2.4661565 0.82269275 0
5.4530005 2.4605269 0.8232736 0
5.4590001 2.4543777 0.82377142 0
5.4660006 2.4486992 0.82435226 0
5.4730005 2.4429955 0.82493311 0
5.4790006 2.4367781 0.82543099 0
5.4860005 2.4310255 0.82601178 0
5.4930005 2.4252479 0.82659256 0
5.5000005 2.419445 0.82717347 0
5.5070004 2.4136171 0.82775426 0
5.5140004 2.4077637 0.82833505 0
5.5200005 2.401407 0.82883298 0
5.5270004 2.395505 0.82941377 0
5.5340004 2.3895776 0.82999456 0
5.5410004 2.383625 0.83057541 0
5.5480003 2.3776472 0.83115625 0
5.5550003 2.3716443 0.83173704 0
5.5620003 2.3656158 0.83231789 0
5.5690002 2.3595622 0.83289874 0
5.5760002 2.3534834 0.83347952 0
5.5830002 2.3473792 0.83406031 0
5.5900002 2.3412499 0.83464122 0
5.5970001 2.3350952 0.83522201 0
5.6040006 2.3289156 0.83580285 0
5.6110005 2.3227105 0.8363837 0
5.6180005 2.3164802 0.83696449 0
5.6260004 2.3106756 0.8376283 0
5.6330004 2.3043928 0.83820915 0
5.6400003 2.2980847 0.83878994 0
5.6470003 2.2917516 0.83937079 0
5.6540003 2.2853932 0.83995163 0
5.6620002 2.2794516 0.84061539 0
5.6690001 2.2730408 0.84119624 0
5.6760001 2.2666047 0.84177703 0
5.6840005 2.2605803 0.84244084 0
5.6910005 2.254092 0.84302169 0
5.6980004 2.2475781 0.84360254 0
5.7060003 2.2414706 0.8442663 0
5.7130003 2.2349045 0.84484714 0
5.7200003 2.2283137 0.84542799 0
5.7280002 2.2221227 0.84609175 0
5.6060004 2.611547 0.82657814 0
5.5890002 2.593509 0.82519823 0
5.5840001 2.5816145 0.82479239 0
5.5830002 2.5717585 0.8247112 0
5.5830002 2.5624094 0.8247112 0
5.4700003 2.4963956 0.81553888 0
5.4560003 2.4802551 0.81440246 0
5.4460001 2.4661565 0.81359076 0
5.4530005 2.4605269 0.81415898 0
5.4590001 2.4543777 0.81464595 0
5.4660006 2.4486992 0.81521416 0
5.4730005 2.4429955 0.81578243 0
5.4790006 2.4367781 0.8162694 0
5.4860005 2.4310255 0.81683767 0
5.4930005 2.4252479 0.81740582 0
5.5000005 2.419445 0.81797397 0
5.5070004 2.4136171 0.81854224 0
5.5140004 2.4077637 0.81911039 0
5.5200005 2.401407 0.81959742 0
5.5270004 2.395505 0.82016563 0
5.5340004 2.3895776 0.82073385 0
5.5410004 2.383625 0.82130206 0
5.5480003 2.3776472 0.82187021 0
5.5550003 2.3716443 0.82243842 0
5.5620003 2.3656158 0.82300663 0
5.5690002 2.3595622 0.82357484 0
5.5760002 2.3534834 0.82414299 0
5.5830002 2.3473792 0.8247112 0
5.5900002 2.3412499 0.82527941 0
5.5970001 2.3350952 0.82584763 0
5.6040006 2.3289156 0.82641584 0
5.6110005 2.3227105 0.82698405 0
5.6180005 2.3164802 0.8275522 0
5.6260004 2.3106756 0.82820159 0
5.6330004 2.3043928 0.8287698 0
5.6400003 2.2980847 0.82933801 0
5.6470003 2.2917516 0.82990623 0
5.6540003 2.2853932 0.83047438 0
5.6620002 2.2794516 0.83112377 0
5.6690001 2.2730408 0.83169198 0
5.6760001 2.2666047 0.83226013 0
5.6840005 2.2605803 0.83290958 0
5.6910005 2.254092 0.83347774 0
5.6980004 2.2475781 0.83404595 0
5.7060003 2.2414706 0.83469528 0
5.7130003 2.2349045 0.83526349 0
5.7200003 2.2283137 0.8358317 0
5.7280002 2.2221227 0.83648109 0
5.7350001 2.2154794 0.83704925 0
5.6060004 2.611547 0.81718755 0
5.5890002 2.593509 0.81583828 0
5.5840001 2.5816145 0.81544149 0
5.5830002 2.5717585 0.8153621 0
5.4700003 2.4963956 0.8063935 0
5.4560003 2.4802551 0.80528235 0
5.4460001 2.4661565 0.80448872 0
5.4530005 2.4605269 0.80504429 0
5.4590001 2.4543777 0.80552053 0
5.4660006 2.4486992 0.80607611 0
5.4730005 2.4429955 0.80663168 0
5.4790006 2.4367781 0.80710787 0
5.4860005 2.4310255 0.80766344 0
5.4930005 2.4252479 0.80821902 0
5.5000005 2.419445 0.80877459 0
5.5070004 2.4136171 0.80933011 0
5.5140004 2.4077637 0.80988574 0
5.5200005 2.401407 0.81036198 0
5.5270004 2.395505 0.8109175 0
5.5340004 2.3895776 0.81147307 0
5.5410004 2.383625 0.81202865 0
5.5480003 2.3776472 0.81258422 0
5.5550003 2.3716443 0.8131398 0
5.5620003 2.3656158 0.81369537 0
5.5690002 2.3595622 0.81425095 0
5.5760002 2.3534834 0.81480646 0
5.5830002 2.3473792 0.8153621 0
5.5900002 2.3412499 0.81591761 0
5.5970001 2.3350952 0.81647325 0
5.6040006 2.3289156 0.81702882 0
5.6110005 2.3227105 0.8175844 0
5.6180005 2.3164802 0.81813991 0
5.6260004 2.3106756 0.81877494 0
5.6330004 2.3043928 0.81933045 0
5.6400003 2.2980847 0.81988603 0
5.6470003 2.2917516 0.8204416 0
5.6540003 2.2853932 0.82099718 0
5.6620002 2.2794516 0.82163215 0
5.6690001 2.2730408 0.82218766 0
5.6760001 2.2666047 0.82274324 0
5.6840005 2.2605803 0.82337821 0
5.6910005 2.254092 0.82393378 0
5.6980004 2.2475781 0.82448936 0
5.7060003 2.2414706 0.82512426 0
5.7130003 2.2349045 0.8256799 0
5.7200003 2.2283137 0.82623541 0
5.7280002 2.2221227 0.82687038 0
5.7350001 2.2154794 0.82742596 0
5.6060004 2.611547 0.80779696 0
5.5890002 2.593509 0.80647832 0
5.5840001 2.5816145 0.80609047 0
5.5830002 2.5717585 0.80601293 0
5.4700003 2.4963956 0.79724824 0
5.4560003 2.4802551 0.79616237 0
5.4460001 2.4661565 0.79538667 0
5.4530005 2.4605269 0.79592967 0
5.4590001 2.4543777 0.79639506 0
5.4660006 2.4486992 0.796938 0
5.4730005 2.4429955 0.79748094 0
5.4790006 2.4367781 0.79794633 0
5.4860005 2.4310255 0.79848927 0
5.4930005 2.4252479 0.79903221 0
5.5000005 2.419445 0.79957521 0
5.5070004 2.4136171 0.80011809 0
5.5140004 2.4077637 0.80066109 0
5.5200005 2.401407 0.80112648 0
5.5270004 2.395505 0.80166936 0
5.5340004 2.3895776 0.80221236 0
5.5410004 2.383625 0.8027553 0
5.5480003 2.3776472 0.80329823 0
5.5550003 2.3716443 0.80384117 0
5.5620003 2.3656158 0.80438411 0
5.5690002 2.3595622 0.80492705 0
5.5760002 2.3534834 0.80546999 0
5.5830002 2.3473792 0.80601293 0
5.5900002 2.3412499 0.80655587 0
5.5970001 2.3350952 0.80709887 0
5.6040006 2.3289156 0.8076418 0
5.6110005 2.3227105 0.80818474 0
5.6180005 2.3164802 0.80872774 0
5.6260004 2.3106756 0.80934823 0
5.6330004 2.3043928 0.8098911 0
5.6400003 2.2980847 0.8104341 0
5.6470003 2.2917516 0.81097698 0
5.6540003 2.2853932 0.81151998 0
5.6620002 2.2794516 0.81214046 0
5.6690001 2.2730408 0.8126834 0
5.6760001 2.2666047 0.81322634 0
5.6840005 2.2605803 0.81384695 0
5.6910005 2.254092 0.81438982 0
5.6980004 2.2475781 0.81493282 0
5.7060003 2.2414706 0.81555331 0
5.7130003 2.2349045 0.81609625 0
5.7200003 2.2283137 0.81663918 0
5.7280002 2.2221227 0.81725967 0
5.7350001 2.2154794 0.81780261 0
5.7430005 2.209233 0.81842315 0
5.6060004 2.611547 0.79840624 0
5.5890002 2.593509 0.79711837 0
5.5840001 2.5816145 0.79673958 0
5.5830002 2.5717585 0.79666376 0
5.4700003 2.4963956 0.78810292 0
5.4560003 2.4802551 0.78704226 0
5.4460001 2.4661565 0.78628469 0
5.4530005 2.4605269 0.78681505 0
5.4590001 2.4543777 0.78726959 0
5.4660006 2.4486992 0.78779995 0
5.4730005 2.4429955 0.78833026 0
5.4790006 2.4367781 0.7887848 0
5.4860005 2.4310255 0.7893151 0
5.4930005 2.4252479 0.78984547 0
5.5000005 2.419445 0.79037571 0
5.5070004 2.4136171 0.79090607 0
5.5140004 2.4077637 0.79143637 0
5.5200005 2.401407 0.79189092 0
5.5270004 2.395505 0.79242122 0
5.5340004 2.3895776 0.79295158 0
5.5410004 2.383625 0.79348189 0
5.5480003 2.3776472 0.79401219 0
5.5550003 2.3716443 0.79454255 0
5.5620003 2.3656158 0.79507279 0
5.5690002 2.3595622 0.79560316 0
5.5760002 2.3534834 0.79613346 0
5.5830002 2.3473792 0.79666376 0
5.5900002 2.3412499 0.79719412 0
5.5970001 2.3350952 0.79772443 0
5.6040006 2.3289156 0.79825479 0
5.6110005 2.3227105 0.79878509 0
5.6180005 2.3164802 0.79931545 0
5.6260004 2.3106756 0.79992151 0
5.6330004 2.3043928 0.80045182 0
5.6400003 2.2980847 0.80098212 0
5.6470003 2.2917516 0.80151248 0
5.6540003 2.2853932 0.80204278 0
5.6620002 2.2794516 0.80264878 0
5.6690001 2.2730408 0.80317914 0
5.6760001 2.2666047 0.80370945 0
5.6840005 2.2605803 0.80431557 0
5.6910005 2.254092 0.80484593 0
5.6980004 2.2475781 0.80537623 0
5.7060003 2.2414706 0.80598223 0
5.7130003 2.2349045 0.80651259 0
5.7200003 2.2283137 0.8070429 0
5.7280002 2.2221227 0.80764902 0
5.7350001 2.2154794 0.80817932 0
5.7430005 2.209233 0.80878544 0
5.6060004 2.611547 0.78901565 0
5.5890002 2.593509 0.78775841 0
5.5840001 2.5816145 0.78738862 0
5.5830002 2.5717585 0.78731465 0
5.4700003 2.4963956 0.77895761 0
5.4560003 2.4802551 0.77792227 0
5.4460001 2.4661565 0.7771827 0
5.4530005 2.4605269 0.77770042 0
5.4590001 2.4543777 0.77814412 0
5.4660006 2.4486992 0.77866185 0
5.4730005 2.4429955 0.77917951 0
5.4790006 2.4367781 0.77962327 0
5.4860005 2.4310255 0.78014094 0
5.4930005 2.4252479 0.7806586 0
5.5000005 2.419445 0.78117633 0
5.5070004 2.4136171 0.78169399 0
5.5140004 2.4077637 0.78221166 0
5.5200005 2.401407 0.78265548 0
5.5270004 2.395505 0.78317314 0
5.5340004 2.3895776 0.78369081 0
5.5410004 2.383625 0.78420854 0
5.5480003 2.3776472 0.7847262 0
5.5550003 2.3716443 0.78524387 0
5.5620003 2.3656158 0.78576159 0
5.5690002 2.3595622 0.78627926 0
5.5760002 2.3534834 0.78679693 0
5.5830002 2.3473792 0.78731465 0
5.5900002 2.3412499 0.78783238 0
5.5970001 2.3350952 0.78835005 0
5.6040006 2.3289156 0.78886777 0
5.6110005 2.3227105 0.78938544 0
5.6180005 2.3164802 0.78990316 0
5.6260004 2.3106756 0.7904948 0
5.6330004 2.3043928 0.79101247 0
5.6400003 2.2980847 0.79153019 0
5.6470003 2.2917516 0.79204786 0
5.6540003 2.2853932 0.79256558 0
5.6620002 2.2794516 0.79315722 0
5.6690001 2.2730408 0.79367489 0
5.6760001 2.2666047 0.79419255 0
5.6840005 2.2605803 0.79478425 0
5.6910005 2.254092 0.79530191 0
5.6980004 2.2475781 0.79581964 0
5.7060003 2.2414706 0.79641128 0
5.7130003 2.2349045 0.796929 0
5.7200003 2.2283137 0.79744667 0
5.7280002 2.2221227 0.7980383 0
5.7350001 2.2154794 0.79855597 0
5.7430005 2.209233 0.79914767 0
5.6060004 2.611547 0.77962506 0
5.5890002 2.593509 0.77839839 0
5.5840001 2.5816145 0.77803767 0
5.5830002 2.5717585 0.77796555 0
5.4700003 2.4963956 0.76981235 0
5.4560003 2.4802551 0.76880217 0
5.4460001 2.4661565 0.76808065 0
5.4530005 2.4605269 0.7685858 0
5.4590001 2.4543777 0.76901865 0
5.4660006 2.4486992 0.76952374 0
5.4730005 2.4429955 0.77002883 0
5.4790006 2.4367781 0.77046168 0
5.4860005 2.4310255 0.77096677 0
5.4930005 2.4252479 0.77147186 0
5.5000005 2.419445 0.77197695 0
5.5070004 2.4136171 0.77248198 0
5.5140004 2.4077637 0.77298701 0
5.5200005 2.401407 0.77341998 0
5.5270004 2.395505 0.77392501 0
5.5340004 2.3895776 0.7744301 0
5.5410004 2.383625 0.77493513 0
5.5480003 2.3776472 0.77544022 0
5.5550003 2.3716443 0.77594531 0
5.5620003 2.3656158 0.77645034 0
5.5690002 2.3595622 0.77695537 0
5.5760002 2.3534834 0.77746046 0
5.5830002 2.3473792 0.77796555 0
5.5900002 2.3412499 0.77847064 0
5.5970001 2.3350952 0.77897567 0
5.6040006 2.3289156 0.77948076 0
5.6110005 2.3227105 0.77998579 0
5.6180005 2.3164802 0.78049088 0
5.6260004 2.3106756 0.78106809 0
5.6330004 2.3043928 0.78157318 0
5.6400003 2.2980847 0.78207821 0
5.6470003 2.2917516 0.78258324 0
5.6540003 2.2853932 0.78308833 0
5.6620002 2.2794516 0.78366554 0
5.6690001 2.2730408 0.78417063 0
5.6760001 2.2666047 0.78467572 0
5.6840005 2.2605803 0.78525293 0
5.6910005 2.254092 0.78575802 0
5.6980004 2.2475781 0.78626305 0
5.7060003 2.2414706 0.78684026 0
5.7130003 2.2349045 0.78734529 0
5.7200003 2.2283137 0.78785038 0
5.7280002 2.2221227 0.78842759 0
5.7350001 2.2154794 0.78893268 0
5.7430005 2.209233 0.78950989 0
5.6060004 2.611547 0.77023441 0
5.5890002 2.593509 0.76903844 0
5.5840001 2.5816145 0.76868671 0
5.4700003 2.4963956 0.76066703 0
5.4560003 2.4802551 0.75968212 0
5.4460001 2.4661565 0.75897861 0
5.4530005 2.4605269 0.75947112 0
5.4590001 2.4543777 0.75989318 0
5.4660006 2.4486992 0.76038563 0
5.4730005 2.4429955 0.76087809 0
5.4790006 2.4367781 0.76130021 0
5.4860005 2.4310255 0.7617926 0
5.4930005 2.4252479 0.76228505 0
5.5000005 2.419445 0.76277745 0
5.5070004 2.4136171 0.7632699 0
5.5140004 2.4077637 0.76376235 0
5.5200005 2.401407 0.76418447 0
5.5270004 2.395505 0.76467693 0
5.5340004 2.3895776 0.76516932 0
5.5410004 2.383625 0.76566172 0
5.5480003 2.3776472 0.76615417 0
5.5550003 2.3716443 0.76664662 0
5.5620003 2.3656158 0.76713908 0
5.5690002 2.3595622 0.76763153 0
5.5760002 2.3534834 0.76812392 0
5.5830002 2.3473792 0.76861644 0
5.5900002 2.3412499 0.76910883 0
5.5970001 2.3350952 0.76960123 0
5.6040006 2.3289156 0.77009374 0
5.6110005 2.3227105 0.77058613 0
5.6180005 2.3164802 0.77107859 0
5.6260004 2.3106756 0.77164137 0
5.6330004 2.3043928 0.77213383 0
5.6400003 2.2980847 0.77262628 0
5.6470003 2.2917516 0.77311873 0
5.6540003 2.2853932 0.77361113 0
5.6620002 2.2794516 0.77417392 0
5.6690001 2.2730408 0.77466631 0
5.6760001 2.2666047 0.77515876 0
5.6840005 2.2605803 0.77572161 0
5.6910005 2.254092 0.776214 0
5.6980004 2.2475781 0.77670646 0
5.7060003 2.2414706 0.77726924 0
5.7130003 2.2349045 0.7777617 0
5.7200003 2.2283137 0.77825415 0
5.7280002 2.2221227 0.77881694 0
5.7350001 2.2154794 0.77930939 0
5.7430005 2.209233 0.77987218 0
5.6060004 2.611547 0.76084381 0
5.5890002 2.593509 0.75967848 0
5.5840001 2.5816145 0.75933576 0
5.4700003 2.4963956 0.75152171 0
5.4560003 2.4802551 0.75056207 0
5.4460001 2.4661565 0.74987662 0
5.4530005 2.4605269 0.75035644 0
5.4590001 2.4543777 0.75076771 0
5.4660006 2.4486992 0.75124753 0
5.4730005 2.4429955 0.75172734 0
5.4790006 2.4367781 0.75213861 0
5.4860005 2.4310255 0.75261843 0
5.4930005 2.4252479 0.75309825 0
5.5000005 2.419445 0.75357807 0
5.5070004 2.4136171 0.75405788 0
5.5140004 2.4077637 0.7545377 0
5.5200005 2.401407 0.75494897 0
5.5270004 2.395505 0.75542879 0
5.5340004 2.3895776 0.75590861 0
5.5410004 2.383625 0.75638843 0
5.5480003 2.3776472 0.75686818 0
5.5550003 2.3716443 0.75734806 0
5.5620003 2.3656158 0.75782782 0
5.5690002 2.3595622 0.75830764 0
5.5760002 2.3534834 0.75878739 0
5.5830002 2.3473792 0.75926727 0
5.5900002 2.3412499 0.75974703 0
5.5970001 2.3350952 0.76022685 0
5.6040006 2.3289156 0.76070672 0
5.6110005 2.3227105 0.76118654 0
5.6180005 2.3164802 0.7616663 0
5.6260004 2.3106756 0.76221466 0
5.6330004 2.3043928 0.76269448 0
5.6400003 2.2980847 0.7631743 0
5.6470003 2.2917516 0.76365411 0
5.6540003 2.2853932 0.76413393 0
5.6620002 2.2794516 0.76468229 0
5.6690001 2.2730408 0.76516211 0
5.6760001 2.2666047 0.76564193 0
5.6840005 2.2605803 0.76619029 0
5.6910005 2.254092 0.76667011 0
5.6980004 2.2475781 0.76714993 0
5.7060003 2.2414706 0.76769829 0
5.7130003 2.2349045 0.76817811 0
5.7200003 2.2283137 0.76865786 0
5.7280002 2.2221227 0.76920623 0
5.7350001 2.2154794 0.76968604 0
5.7430005 2.209233 0.77023441 0
5.5890002 2.593509 0.75031859 0
5.5840001 2.5816145 0.74998486 0
5.4700003 2.4963956 0.74237645 0
5.4560003 2.4802551 0.74144202 0
5.4460001 2.4661565 0.74077463 0
5.4530005 2.4605269 0.74124181 0
5.4590001 2.4543777 0.74164224 0
5.4660006 2.4486992 0.74210942 0
5.4730005 2.4429955 0.7425766 0
5.4790006 2.4367781 0.74297708 0
5.4860005 2.4310255 0.74344426 0
5.4930005 2.4252479 0.74391145 0
5.5000005 2.419445 0.74437863 0
5.5070004 2.4136171 0.74484587 0
5.5140004 2.4077637 0.74531305 0
5.5200005 2.401407 0.74571347 0
5.5270004 2.395505 0.74618065 0
5.5340004 2.3895776 0.74664783 0
5.5410004 2.383625 0.74711502 0
5.5480003 2.3776472 0.7475822 0
5.5550003 2.3716443 0.74804938 0
5.5620003 2.3656158 0.74851656 0
5.5690002 2.3595622 0.74898374 0
5.5760002 2.3534834 0.74945092 0
5.5830002 2.3473792 0.7499181 0
5.5900002 2.3412499 0.75038528 0
5.5970001 2.3350952 0.75085247 0
5.6040006 2.3289156 0.75131971 0
5.6110005 2.3227105 0.75178689 0
5.6180005 2.3164802 0.75225407 0
5.6260004 2.3106756 0.75278795 0
5.6330004 2.3043928 0.75325519 0
5.6400003 2.2980847 0.75372231 0
5.6470003 2.2917516 0.75418955 0
5.6540003 2.2853932 0.75465673 0
5.6620002 2.2794516 0.75519061 0
5.6690001 2.2730408 0.75565779 0
5.6760001 2.2666047 0.75612503 0
5.6840005 2.2605803 0.75665897 0
5.6910005 2.254092 0.75712615 0
5.6980004 2.2475781 0.75759333 0
5.7060003 2.2414706 0.75812721 0
5.7130003 2.2349045 0.75859445 0
5.7200003 2.2283137 0.75906163 0
5.7280002 2.2221227 0.75959551 0
5.7350001 2.2154794 0.76006269 0
5.7430005 2.209233 0.76059663 0
5.5890002 2.593509 0.74095857 0
5.5840001 2.5816145 0.7406339 0
5.4700003 2.4963956 0.73323107 0
5.4560003 2.4802551 0.73232198 0
5.4460001 2.4661565 0.73167259 0
5.4530005 2.4605269 0.73212719 0
5.4590001 2.4543777 0.73251677 0
5.4660006 2.4486992 0.73297137 0
5.4730005 2.4429955 0.73342592 0
5.4790006 2.4367781 0.73381555 0
5.4860005 2.4310255 0.7342701 0
5.4930005 2.4252479 0.73472464 0
5.5000005 2.419445 0.73517919 0
5.5070004 2.4136171 0.73563379 0
5.5140004 2.4077637 0.73608828 0
5.5200005 2.401407 0.73647797 0
5.5270004 2.395505 0.73693252 0
5.5340004 2.3895776 0.73738706 0
5.5410004 2.383625 0.73784161 0
5.5480003 2.3776472 0.73829615 0
5.5550003 2.3716443 0.7387507 0
5.5620003 2.3656158 0.7392053 0
5.5690002 2.3595622 0.73965985 0
5.5760002 2.3534834 0.74011445 0
5.5830002 2.3473792 0.740569 0
5.5900002 2.3412499 0.74102354 0
5.5970001 2.3350952 0.74147809 0
5.6040006 2.3289156 0.74193269 0
5.6110005 2.3227105 0.74238724 0
5.6180005 2.3164802 0.74284184 0
5.6260004 2.3106756 0.74336129 0
5.6330004 2.3043928 0.74381584 0
5.6400003 2.2980847 0.74427044 0
5.6470003 2.2917516 0.74472499 0
5.6540003 2.2853932 0.74517953 0
5.6620002 2.2794516 0.74569905 0
5.6690001 2.2730408 0.74615359 0
5.6760001 2.2666047 0.74660814 0
5.6840005 2.2605803 0.74712765 0
5.6910005 2.254092 0.7475822 0
5.6980004 2.2475781 0.74803674 0
5.7060003 2.2414706 0.74855626 0
5.7130003 2.2349045 0.7490108 0
5.7200003 2.2283137 0.74946535 0
5.7280002 2.2221227 0.74998486 0
5.7350001 2.2154794 0.75043941 0
5.7430005 2.209233 0.75095892 0
5.5890002 2.593509 0.73159862 0
5.5840001 2.5816145 0.73128295 0
5.4700003 2.4963956 0.72408581 0
5.4560003 2.4802551 0.72320193 0
5.4460001 2.4661565 0.72257054 0
5.4530005 2.4605269 0.72301257 0
5.4590001 2.4543777 0.72339129 0
5.4660006 2.4486992 0.72383326 0
5.4730005 2.4429955 0.72427517 0
5.4790006 2.4367781 0.72465396 0
5.4860005 2.4310255 0.72509593 0
5.4930005 2.4252479 0.7255379 0
5.5000005 2.419445 0.7259798 0
5.5070004 2.4136171 0.72642171 0
5.5140004 2.4077637 0.72686362 0
5.5200005 2.401407 0.72724247 0
5.5270004 2.395505 0.72768438 0
5.5340004 2.3895776 0.72812629 0
5.5410004 2.383625 0.72856826 0
5.5480003 2.3776472 0.72901022 0
5.5550003 2.3716443 0.72945213 0
5.5620003 2.3656158 0.72989404 0
5.5690002 2.3595622 0.73033595 0
5.5760002 2.3534834 0.73077792 0
5.5830002 2.3473792 0.73121983 0
5.5900002 2.3412499 0.7316618 0
5.5970001 2.3350952 0.73210371 0
5.6040006 2.3289156 0.73254561 0
5.6110005 2.3227105 0.73298758 0
5.6180005 2.3164802 0.73342955 0
5.6260004 2.3106756 0.73393458 0
5.6330004 2.3043928 0.73437655 0
5.6400003 2.2980847 0.73481846 0
5.6470003 2.2917516 0.73526037 0
5.6540003 2.2853932 0.73570228 0
5.6620002 2.2794516 0.73620737 0
5.6690001 2.2730408 0.73664927 0
5.6760001 2.2666047 0.73709124 0
5.6840005 2.2605803 0.73759633 0
5.6910005 2.254092 0.73803824 0
5.6980004 2.2475781 0.73848021 0
5.7060003 2.2414706 0.73898524 0
5.7130003 2.2349045 0.73942715 0
5.7200003 2.2283137 0.73986912 0
5.7280002 2.2221227 0.74037415 0
5.7350001 2.2154794 0.74081612 0
5.7430005 2.209233 0.74132121 0
5.5890002 2.593509 0.72223866 0
5.5840001 2.5816145 0.72193205 0
5.4700003 2.4963956 0.71494043 0
5.4560003 2.4802551 0.71408188 0
5.4460001 2.4661565 0.71346855 0
5.4530005 2.4605269 0.71389788 0
5.4590001 2.4543777 0.71426582 0
5.4660006 2.4486992 0.71469522 0
5.4730005 2.4429955 0.71512449 0
5.4790006 2.4367781 0.71549249 0
5.4860005 2.4310255 0.71592176 0
5.4930005 2.4252479 0.71635103 0
5.5000005 2.419445 0.71678036 0
5.5070004 2.4136171 0.7172097 0
5.5140004 2.4077637 0.71763897 0
5.5200005 2.401407 0.71800697 0
5.5270004 2.395505 0.71843624 0
5.5340004 2.3895776 0.71886557 0
5.5410004 2.383625 0.71929491 0
5.5480003 2.3776472 0.71972418 0
5.5550003 2.3716443 0.72015345 0
5.5620003 2.3656158 0.72058278 0
5.5690002 2.3595622 0.72101212 0
5.5760002 2.3534834 0.72144139 0
5.5830002 2.3473792 0.72187066 0
5.5900002 2.3412499 0.72230005 0
5.5970001 2.3350952 0.72272933 0
5.6040006 2.3289156 0.72315866 0
5.6110005 2.3227105 0.72358793 0
5.6180005 2.3164802 0.72401726 0
5.6260004 2.3106756 0.72450787 0
5.6330004 2.3043928 0.7249372 0
5.6400003 2.2980847 0.72536647 0
5.6470003 2.2917516 0.72579581 0
5.6540003 2.2853932 0.72622508 0
5.6620002 2.2794516 0.72671574 0
5.6690001 2.2730408 0.72714502 0
5.6760001 2.2666047 0.72757435 0
5.6840005 2.2605803 0.72806501 0
5.6910005 2.254092 0.72849429 0
5.6980004 2.2475781 0.72892362 0
5.7060003 2.2414706 0.72941422 0
5.7130003 2.2349045 0.72984356 0
5.7200003 2.2283137 0.73027283 0
5.7280002 2.2221227 0.73076349 0
5.7350001 2.2154794 0.73119277 0
5.7430005 2.209233 0.73168343 0
5.5890002 2.593509 0.7128787 0
5.5840001 2.5816145 0.7125811 0
5.4700003 2.4963956 0.70579517 0
5.4560003 2.4802551 0.70496178 0
5.4460001 2.4661565 0.70436656 0
5.4530005 2.4605269 0.7047832 0
5.4590001 2.4543777 0.70514035 0
5.4660006 2.4486992 0.70555711 0
5.4730005 2.4429955 0.70597374 0
5.4790006 2.4367781 0.7063309 0
5.4860005 2.4310255 0.70674759 0
5.4930005 2.4252479 0.70716429 0
5.5000005 2.419445 0.70758092 0
5.5070004 2.4136171 0.70799762 0
5.5140004 2.4077637 0.70841432 0
5.5200005 2.401407 0.70877147 0
5.5270004 2.395505 0.7091881 0
5.5340004 2.3895776 0.70960486 0
5.5410004 2.383625 0.7100215 0
5.5480003 2.3776472 0.71043813 0
5.5550003 2.3716443 0.71085489 0
5.5620003 2.3656158 0.71127152 0
5.5690002 2.3595622 0.71168822 0
5.5760002 2.3534834 0.71210492 0
5.5830002 2.3473792 0.71252155 0
5.5900002 2.3412499 0.71293825 0
5.5970001 2.3350952 0.71335495 0
5.6040006 2.3289156 0.71377158 0
5.6110005 2.3227105 0.71418834 0
5.6180005 2.3164802 0.71460497 0
5.6260004 2.3106756 0.71508121 0
5.6330004 2.3043928 0.71549785 0
5.6400003 2.2980847 0.71591455 0
5.6470003 2.2917516 0.71633124 0
5.6540003 2.2853932 0.71674788 0
5.6620002 2.2794516 0.71722412 0
5.6690001 2.2730408 0.71764076 0
5.6760001 2.2666047 0.71805745 0
5.6840005 2.2605803 0.71853364 0
5.6910005 2.254092 0.71895039 0
5.6980004 2.2475781 0.71936703 0
5.7060003 2.2414706 0.71984327 0
5.7130003 2.2349045 0.7202599 0
5.7200003 2.2283137 0.7206766 0
5.7280002 2.2221227 0.72115278 0
5.7350001 2.2154794 0.72156948 0
5.7430005 2.209233 0.72204566 0
5.5840001 2.5816145 0.70323014 0
5.4700003 2.4963956 0.69664985 0
5.4560003 2.4802551 0.69584179 0
5.4460001 2.4661565 0.69526452 0
5.4530005 2.4605269 0.69566858 0
5.4590001 2.4543777 0.69601488 0
5.4660006 2.4486992 0.696419 0
5.4730005 2.4429955 0.696823 0
5.4790006 2.4367781 0.69716936 0
5.4860005 2.4310255 0.69757342 0
5.4930005 2.4252479 0.69797748 0
5.5000005 2.419445 0.69838154 0
5.5070004 2.4136171 0.69878554 0
5.5140004 2.4077637 0.69918966 0
5.5200005 2.401407 0.69953597 0
5.5270004 2.395505 0.69994003 0
5.5340004 2.3895776 0.70034409 0
5.5410004 2.383625 0.70074809 0
5.5480003 2.3776472 0.70115221 0
5.5550003 2.3716443 0.70155621 0
5.5620003 2.3656158 0.70196027 0
5.5690002 2.3595622 0.70236433 0
5.5760002 2.3534834 0.70276839 0
5.5830002 2.3473792 0.70317245 0
5.5900002 2.3412499 0.70357645 0
5.5970001 2.3350952 0.70398057 0
5.6040006 2.3289156 0.70438457 0
5.6110005 2.3227105 0.70478868 0
5.6180005 2.3164802 0.70519269 0
5.6260004 2.3106756 0.7056545 0
5.6330004 2.3043928 0.7060585 0
5.6400003 2.2980847 0.70646262 0
5.6470003 2.2917516 0.70686662 0
5.6540003 2.2853932 0.70727068 0
5.6620002 2.2794516 0.70773244 0
5.6690001 2.2730408 0.7081365 0
5.6760001 2.2666047 0.70854056 0
5.6840005 2.2605803 0.70900238 0
5.6910005 2.254092 0.70940638 0
5.6980004 2.2475781 0.7098105 0
5.7060003 2.2414706 0.71027219 0
5.7130003 2.2349045 0.71067631 0
5.7200003 2.2283137 0.71108031 0
5.7280002 2.2221227 0.71154213 0
5.7350001 2.2154794 0.71194613 0
5.7430005 2.209233 0.71240795 0
5.5840001 2.5816145 0.69387919 0
5.4700003 2.4963956 0.68750453 0
5.4560003 2.4802551 0.68672168 0
5.4460001 2.4661565 0.68616247 0
5.4530005 2.4605269 0.68655396 0
5.4590001 2.4543777 0.68688941 0
5.4660006 2.4486992 0.68728089 0
5.4730005 2.4429955 0.68767232 0
5.4790006 2.4367781 0.68800783 0
5.4860005 2.4310255 0.68839926 0
5.4930005 2.4252479 0.68879068 0
5.5000005 2.419445 0.6891821 0
5.5070004 2.4136171 0.68957353 0
5.5140004 2.4077637 0.68996495 0
5.5200005 2.401407 0.69030046 0
5.5270004 2.395505 0.69069189 0
5.5340004 2.3895776 0.69108331 0
5.5410004 2.383625 0.69147474 0
5.5480003 2.3776472 0.69186616 0
5.5550003 2.3716443 0.69225758 0
5.5620003 2.3656158 0.69264901 0
5.5690002 2.3595622 0.69304043 0
5.5760002 2.3534834 0.69343185 0
5.5830002 2.3473792 0.69382328 0
5.5900002 2.3412499 0.6942147 0
5.5970001 2.3350952 0.69460613 0
5.6040006 2.3289156 0.69499761 0
5.6110005 2.3227105 0.69538903 0
5.6180005 2.3164802 0.6957804 0
5.6260004 2.3106756 0.69622779 0
5.6330004 2.3043928 0.69661915 0
5.6400003 2.2980847 0.69701064 0
5.6470003 2.2917516 0.69740206 0
5.6540003 2.2853932 0.69779348 0
5.6620002 2.2794516 0.69824082 0
5.6690001 2.2730408 0.69863224 0
5.6760001 2.2666047 0.69902366 0
5.6840005 2.2605803 0.699471 0
5.6910005 2.254092 0.69986248 0
5.6980004 2.2475781 0.70025384 0
5.7060003 2.2414706 0.70070124 0
5.7130003 2.2349045 0.7010926 0
5.7200003 2.2283137 0.70148408 0
5.7280002 2.2221227 0.70193136 0
5.7350001 2.2154794 0.70232284 0
5.7430005 2.209233 0.70277023 0
5.5840001 2.5816145 0.68452823 0
5.4700003 2.4963956 0.67835927 0
5.4560003 2.4802551 0.67760164 0
5.4460001 2.4661565 0.67706048 0
5.4530005 2.4605269 0.67743933 0
5.4590001 2.4543777 0.677764 0
5.4660006 2.4486992 0.67814279 0
5.4730005 2.4429955 0.67852163 0
5.4790006 2.4367781 0.67884624 0
5.4860005 2.4310255 0.67922509 0
5.4930005 2.4252479 0.67960387 0
5.5000005 2.419445 0.67998266 0
5.5070004 2.4136171 0.68036151 0
5.5140004 2.4077637 0.6807403 0
5.5200005 2.401407 0.68106496 0
5.5270004 2.395505 0.68144381 0
5.5340004 2.3895776 0.68182254 0
5.5410004 2.383625 0.68220139 0
5.5480003 2.3776472 0.68258011 0
5.5550003 2.3716443 0.68295896 0
5.5620003 2.3656158 0.68333775 0
5.5690002 2.3595622 0.68371654 0
5.5760002 2.3534834 0.68409538 0
5.5830002 2.3473792 0.68447411 0
5.5900002 2.3412499 0.68485296 0
5.5970001 2.3350952 0.68523175 0
5.6040006 2.3289156 0.68561053 0
5.6110005 2.3227105 0.68598938 0
5.6180005 2.3164802 0.68636817 0
5.6260004 2.3106756 0.68680108 0
5.6330004 2.3043928 0.68717986 0
5.6400003 2.2980847 0.68755865 0
5.6470003 2.2917516 0.6879375 0
5.6540003 2.2853932 0.68831629 0
5.6620002 2.2794516 0.68874919 0
5.6690001 2.2730408 0.68912798 0
5.6760001 2.2666047 0.68950677 0
5.6840005 2.2605803 0.68993974 0
5.6910005 2.254092 0.69031847 0
5.6980004 2.2475781 0.69069731 0
5.7060003 2.2414706 0.69113022 0
5.7130003 2.2349045 0.69150901 0
5.7200003 2.2283137 0.6918878 0
5.7280002 2.2221227 0.6923207 0
5.7350001 2.2154794 0.69269955 0
