# .PCD v0.7 - Point Cloud Data file format
VERSION 0.7
FIELDS x y z intensity
SIZE 4 4 4 4
TYPE F F F F
COUNT 1 1 1 1
WIDTH 1453
HEIGHT 1
VIEWPOINT 0 0 0 1 0 0 0
POINTS 1453
DATA ascii
3.7010002 1.7939006 0.80294287 0
3.7070003 1.7912797 0.80366802 0
3.7130003 1.7886372 0.80439311 0
3.7200003 1.7865249 0.80523914 0
3.8270001 1.6972255 0.81817061 0
3.8200002 1.6874957 0.81732464 0
3.8180003 1.6803166 0.81708288 0
3.8230002 1.6766675 0.81768715 0
3.8280003 1.6730005 0.81829149 0
3.8330002 1.6693152 0.8188957 0
3.8390002 1.6661099 0.81962085 0
3.6560001 1.8275506 0.79163116 0
3.6630003 1.8256928 0.79246455 0
3.6690001 1.8232378 0.7931788 0
3.6770003 1.8219012 0.79413128 0
3.6820002 1.8188311 0.79472649 0
3.6840003 1.8140438 0.79496461 0
3.6870003 1.8098139 0.79532182 0
3.6900003 1.8055732 0.79567897 0
3.6930003 1.8013215 0.79603612 0
3.6970003 1.7976183 0.79651225 0
3.7010002 1.7939006 0.79698849 0
3.7070003 1.7912797 0.79770279 0
3.7130003 1.7886372 0.79841709 0
3.7200003 1.7865249 0.79925048 0
3.8270001 1.6972255 0.81198895 0
3.8200002 1.6874957 0.81115556 0
3.8180003 1.6803166 0.8109175 0
3.8230002 1.6766675 0.81151271 0
3.8280003 1.6730005 0.81210804 0
3.8330002 1.6693152 0.81270325 0
3.8390002 1.6661099 0.81341755 0
3.6570003 1.8281261 0.78587526 0
3.6640003 1.8262663 0.78669596 0
3.6710002 1.8243815 0.78751671 0
3.6800003 1.8236113 0.78857195 0
3.6820002 1.8188311 0.78880644 0
3.6840003 1.8140438 0.78904092 0
3.6870003 1.8098139 0.78939271 0
3.6900003 1.8055732 0.78974438 0
3.6930003 1.8013215 0.79009616 0
3.6970003 1.7976183 0.79056513 0
3.7010002 1.7939006 0.7910341 0
3.7070003 1.7912797 0.79173762 0
3.7130003 1.7886372 0.79244113 0
3.7200003 1.7865249 0.79326189 0
3.8270001 1.6972255 0.80580729 0
3.8200002 1.6874957 0.8049866 0
3.8180003 1.6803166 0.80475211 0
3.8230002 1.6766675 0.80533832 0
3.8280003 1.6730005 0.80592453 0
3.8330002 1.6693152 0.80651081 0
3.8390002 1.6661099 0.80721426 0
3.6580002 1.8287014 0.78011566 0
3.6660004 1.8274137 0.78103924 0
3.6740003 1.8260968 0.78196275 0
3.6810002 1.8241811 0.78277087 0
3.6820002 1.8188311 0.78288633 0
3.6840003 1.8140438 0.78311718 0
3.6870003 1.8098139 0.78346354 0
3.6900003 1.8055732 0.7838099 0
3.6930003 1.8013215 0.7841562 0
3.6970003 1.7976183 0.78461802 0
3.7010002 1.7939006 0.78507972 0
3.7070003 1.7912797 0.78577244 0
3.7130003 1.7886372 0.78646505 0
3.7200003 1.7865249 0.78727317 0
3.8270001 1.6972255 0.79962564 0
3.8200002 1.6874957 0.79881752 0
3.8180003 1.6803166 0.79858667 0
3.8230002 1.6766675 0.79916388 0
3.8280003 1.6730005 0.79974115 0
3.8330002 1.6693152 0.80031836 0
3.8390002 1.6661099 0.80101097 0
3.6600003 1.8298523 0.77446616 0
3.6670003 1.8279871 0.77526164 0
3.6770003 1.8278123 0.77639806 0
3.6810002 1.8241811 0.77685261 0
3.6820002 1.8188311 0.77696621 0
3.6840003 1.8140438 0.77719355 0
3.6870003 1.8098139 0.77753443 0
3.6900003 1.8055732 0.77787536 0
3.6930003 1.8013215 0.77821624 0
3.6970003 1.7976183 0.77867085 0
3.7010002 1.7939006 0.77912539 0
3.7070003 1.7912797 0.77980721 0
3.7130003 1.7886372 0.78048909 0
3.7200003 1.7865249 0.78128457 0
3.8270001 1.6972255 0.79344404 0
3.8200002 1.6874957 0.79264855 0
3.8180003 1.6803166 0.79242122 0
3.8230002 1.6766675 0.79298943 0
3.8280003 1.6730005 0.79355764 0
3.8330002 1.6693152 0.79412585 0
3.8390002 1.6661099 0.79480767 0
3.6620002 1.8310031 0.76880944 0
3.6700003 1.8297081 0.7697041 0
3.6800003 1.8295276 0.77082247 0
3.6810002 1.8241811 0.77093428 0
3.6820002 1.8188311 0.77104616 0
3.6840003 1.8140438 0.7712698 0
3.6870003 1.8098139 0.77160531 0
3.6900003 1.8055732 0.77194083 0
3.6930003 1.8013215 0.77227634 0
3.6970003 1.7976183 0.77272367 0
3.7010002 1.7939006 0.77317101 0
3.7070003 1.7912797 0.77384204 0
3.7130003 1.7886372 0.77451301 0
3.7200003 1.7865249 0.77529591 0
3.8270001 1.6972255 0.78726232 0
3.8200002 1.6874957 0.78647947 0
3.8180003 1.6803166 0.78625584 0
3.8230002 1.6766675 0.78681505 0
3.8280003 1.6730005 0.7873742 0
3.8330002 1.6693152 0.78793335 0
3.8390002 1.6661099 0.78860438 0
3.6640003 1.832154 0.76314545 0
3.6740003 1.8320025 0.76424575 0
3.6800003 1.8295276 0.76490599 0
3.6810002 1.8241811 0.76501596 0
3.6820002 1.8188311 0.76512599 0
3.6840003 1.8140438 0.76534605 0
3.6870003 1.8098139 0.76567614 0
3.6900003 1.8055732 0.76600629 0
3.6930003 1.8013215 0.76633644 0
3.6970003 1.7976183 0.7667765 0
3.7010002 1.7939006 0.76721668 0
3.7070003 1.7912797 0.76787686 0
3.7130003 1.7886372 0.76853704 0
3.7200003 1.7865249 0.76930726 0
3.8270001 1.6972255 0.78108072 0
3.8200002 1.6874957 0.78031051 0
3.8180003 1.6803166 0.78009045 0
3.8230002 1.6766675 0.7806406 0
3.8280003 1.6730005 0.78119075 0
3.8330002 1.6693152 0.7817409 0
3.8390002 1.6661099 0.78240108 0
3.6670003 1.8338803 0.75758255 0
3.6790001 1.8348706 0.75888121 0
3.6800003 1.8295276 0.75898945 0
3.6810002 1.8241811 0.7590977 0
3.6820002 1.8188311 0.75920594 0
3.6840003 1.8140438 0.75942242 0
3.6870003 1.8098139 0.75974709 0
3.6900003 1.8055732 0.76007175 0
3.6930003 1.8013215 0.76039648 0
3.6970003 1.7976183 0.76082933 0
3.7010002 1.7939006 0.7612623 0
3.7070003 1.7912797 0.76191163 0
3.7130003 1.7886372 0.76256102 0
3.7200003 1.7865249 0.76331866 0
3.8270001 1.6972255 0.77489901 0
3.8200002 1.6874957 0.77414143 0
3.8180003 1.6803166 0.77392501 0
3.8230002 1.6766675 0.77446616 0
3.8280003 1.6730005 0.77500725 0
3.8330002 1.6693152 0.77554846 0
3.8390002 1.6661099 0.77619779 0
3.6720002 1.8367573 0.75222158 0
3.6790001 1.8348706 0.75296652 0
3.6800003 1.8295276 0.75307298 0
3.6810002 1.8241811 0.75317943 0
3.6820002 1.8188311 0.75328583 0
3.6840003 1.8140438 0.75349867 0
3.6870003 1.8098139 0.75381798 0
3.6900003 1.8055732 0.75413728 0
3.6930003 1.8013215 0.75445652 0
3.6970003 1.7976183 0.75488222 0
3.7010002 1.7939006 0.75530791 0
3.7070003 1.7912797 0.75594646 0
3.7130003 1.7886372 0.756585 0
3.7200003 1.7865249 0.75732994 0
3.8270001 1.6972255 0.76871741 0
3.8200002 1.6874957 0.76797241 0
3.8180003 1.6803166 0.76775956 0
3.8230002 1.6766675 0.76829171 0
3.8280003 1.6730005 0.76882386 0
3.8330002 1.6693152 0.76935595 0
3.8390002 1.6661099 0.7699945 0
3.6800003 1.8413607 0.7471565 0
3.6790001 1.8348706 0.74705184 0
3.6800003 1.8295276 0.7471565 0
3.6810002 1.8241811 0.74726111 0
3.6820002 1.8188311 0.74736571 0
3.6840003 1.8140438 0.74757499 0
3.6870003 1.8098139 0.7478888 0
3.6900003 1.8055732 0.74820268 0
3.6930003 1.8013215 0.74851656 0
3.6970003 1.7976183 0.74893504 0
3.7010002 1.7939006 0.74935353 0
3.7070003 1.7912797 0.74998128 0
3.7130003 1.7886372 0.75060898 0
3.7200003 1.7865249 0.75134134 0
3.8270001 1.6972255 0.76253575 0
3.8200002 1.6874957 0.76180339 0
3.8180003 1.6803166 0.76159418 0
3.8230002 1.6766675 0.76211727 0
3.8280003 1.6730005 0.76264036 0
3.8330002 1.6693152 0.76316345 0
3.8390002 1.6661099 0.7637912 0
3.6800003 1.8413607 0.74124002 0
3.6790001 1.8348706 0.74113715 0
3.6800003 1.8295276 0.74124002 0
3.6810002 1.8241811 0.74134278 0
3.6820002 1.8188311 0.74144566 0
3.6840003 1.8140438 0.7416513 0
3.6870003 1.8098139 0.74195969 0
3.6900003 1.8055732 0.7422682 0
3.6930003 1.8013215 0.7425766 0
3.6970003 1.7976183 0.74298787 0
3.7010002 1.7939006 0.74339914 0
3.7070003 1.7912797 0.74401605 0
3.7130003 1.7886372 0.74463296 0
3.7200003 1.7865249 0.74535269 0
3.8270001 1.6972255 0.75635409 0
3.8200002 1.6874957 0.75563437 0
3.8180003 1.6803166 0.75542879 0
3.8230002 1.6766675 0.75594282 0
3.8280003 1.6730005 0.75645697 0
3.8330002 1.6693152 0.756971 0
3.8390002 1.6661099 0.75758791 0
3.6800003 1.8413607 0.73532355 0
3.6790001 1.8348706 0.73522246 0
3.6800003 1.8295276 0.73532355 0
3.6810002 1.8241811 0.73542452 0
3.6820002 1.8188311 0.73552555 0
3.6840003 1.8140438 0.73572755 0
3.6870003 1.8098139 0.73603058 0
3.6900003 1.8055732 0.73633361 0
3.6930003 1.8013215 0.7366367 0
3.6970003 1.7976183 0.73704076 0
3.7010002 1.7939006 0.73744476 0
3.7070003 1.7912797 0.73805088 0
3.7130003 1.7886372 0.738657 0
3.7200003 1.7865249 0.73936403 0
3.8270001 1.6972255 0.75017244 0
3.8200002 1.6874957 0.74946535 0
3.8180003 1.6803166 0.74926335 0
3.8230002 1.6766675 0.74976838 0
3.8280003 1.6730005 0.75027347 0
3.8330002 1.6693152 0.75077856 0
3.8390002 1.6661099 0.75138462 0
3.6800003 1.8413607 0.72940701 0
3.6790001 1.8348706 0.72930777 0
3.6800003 1.8295276 0.72940701 0
3.6810002 1.8241811 0.72950625 0
3.6820002 1.8188311 0.72960544 0
3.6840003 1.8140438 0.72980386 0
3.6870003 1.8098139 0.73010147 0
3.6900003 1.8055732 0.73039913 0
3.6930003 1.8013215 0.73069674 0
3.6970003 1.7976183 0.73109359 0
3.7010002 1.7939006 0.73149037 0
3.7070003 1.7912797 0.7320857 0
3.7130003 1.7886372 0.73268092 0
3.7200003 1.7865249 0.73337543 0
3.8270001 1.6972255 0.74399078 0
3.8200002 1.6874957 0.74329633 0
3.8180003 1.6803166 0.7430979 0
3.8230002 1.6766675 0.74359393 0
3.8280003 1.6730005 0.74409002 0
3.8330002 1.6693152 0.74458605 0
3.8390002 1.6661099 0.74518132 0
3.6800003 1.8413607 0.72349054 0
3.6790001 1.8348706 0.72339308 0
3.6800003 1.8295276 0.72349054 0
3.6810002 1.8241811 0.72358793 0
3.6820002 1.8188311 0.72368532 0
3.6840003 1.8140438 0.72388017 0
3.6870003 1.8098139 0.72417235 0
3.6900003 1.8055732 0.72446454 0
3.6930003 1.8013215 0.72475684 0
3.6970003 1.7976183 0.72514641 0
3.7010002 1.7939006 0.72553605 0
3.7070003 1.7912797 0.72612047 0
3.7130003 1.7886372 0.72670496 0
3.7200003 1.7865249 0.72738677 0
3.8270001 1.6972255 0.73780918 0
3.8200002 1.6874957 0.7371273 0
3.8180003 1.6803166 0.73693252 0
3.8230002 1.6766675 0.73741955 0
3.8280003 1.6730005 0.73790658 0
3.8330002 1.6693152 0.73839355 0
3.8390002 1.6661099 0.73897803 0
3.6800003 1.8413607 0.717574 0
3.6790001 1.8348706 0.71747839 0
3.6800003 1.8295276 0.717574 0
3.6810002 1.8241811 0.71766961 0
3.6820002 1.8188311 0.71776521 0
3.6840003 1.8140438 0.71795642 0
3.6870003 1.8098139 0.71824324 0
3.6900003 1.8055732 0.71853006 0
3.6930003 1.8013215 0.71881688 0
3.6970003 1.7976183 0.7191993 0
3.7010002 1.7939006 0.71958166 0
3.7070003 1.7912797 0.7201553 0
3.7130003 1.7886372 0.72072887 0
3.7200003 1.7865249 0.72139812 0
3.8270001 1.6972255 0.73162746 0
3.8200002 1.6874957 0.73095828 0
3.8180003 1.6803166 0.73076713 0
3.8230002 1.6766675 0.7312451 0
3.8280003 1.6730005 0.73172307 0
3.8330002 1.6693152 0.7322011 0
3.8390002 1.6661099 0.73277473 0
3.6800003 1.8413607 0.71165752 0
3.6790001 1.8348706 0.71156371 0
3.6800003 1.8295276 0.71165752 0
3.6810002 1.8241811 0.71175134 0
3.6820002 1.8188311 0.71184516 0
3.6840003 1.8140438 0.71203274 0
3.6870003 1.8098139 0.71231413 0
3.6900003 1.8055732 0.71259558 0
3.6930003 1.8013215 0.71287692 0
3.6970003 1.7976183 0.71325213 0
3.7010002 1.7939006 0.71362734 0
3.7070003 1.7912797 0.71419013 0
3.7130003 1.7886372 0.71475291 0
3.7200003 1.7865249 0.71540952 0
3.8270001 1.6972255 0.72544587 0
3.8200002 1.6874957 0.72478926 0
3.8180003 1.6803166 0.72460169 0
3.8230002 1.6766675 0.72507066 0
3.8280003 1.6730005 0.72553968 0
3.8330002 1.6693152 0.72600865 0
3.8390002 1.6661099 0.72657144 0
3.6800003 1.8413607 0.70574105 0
3.6790001 1.8348706 0.70564902 0
3.6800003 1.8295276 0.70574105 0
3.6810002 1.8241811 0.70583308 0
3.6820002 1.8188311 0.70592505 0
3.6840003 1.8140438 0.70610905 0
3.6870003 1.8098139 0.70638502 0
3.6900003 1.8055732 0.70666099 0
3.6930003 1.8013215 0.70693696 0
3.6970003 1.7976183 0.70730495 0
3.7010002 1.7939006 0.70767295 0
3.7070003 1.7912797 0.70822489 0
3.7130003 1.7886372 0.70877683 0
3.7200003 1.7865249 0.7094208 0
3.8270001 1.6972255 0.71926421 0
3.8200002 1.6874957 0.71862024 0
3.8180003 1.6803166 0.71843624 0
3.8230002 1.6766675 0.71889621 0
3.8280003 1.6730005 0.71935618 0
3.8330002 1.6693152 0.71981621 0
3.8390002 1.6661099 0.72036815 0
3.6800003 1.8413607 0.69982457 0
3.6790001 1.8348706 0.69973433 0
3.6800003 1.8295276 0.69982457 0
3.6810002 1.8241811 0.69991475 0
3.6820002 1.8188311 0.70000494 0
3.6840003 1.8140438 0.7001853 0
3.6870003 1.8098139 0.7004559 0
3.6900003 1.8055732 0.70072651 0
3.6930003 1.8013215 0.70099705 0
3.6970003 1.7976183 0.70135784 0
3.7010002 1.7939006 0.70171857 0
3.7070003 1.7912797 0.70225966 0
3.7130003 1.7886372 0.70280087 0
3.7200003 1.7865249 0.7034322 0
3.8270001 1.6972255 0.71308255 0
3.8200002 1.6874957 0.71245122 0
3.8180003 1.6803166 0.71227086 0
3.8230002 1.6766675 0.71272182 0
3.8280003 1.6730005 0.71317273 0
3.8330002 1.6693152 0.7136237 0
3.8390002 1.6661099 0.71416485 0
3.6800003 1.8413607 0.6939081 0
3.6790001 1.8348706 0.69381964 0
3.6800003 1.8295276 0.6939081 0
3.6810002 1.8241811 0.69399643 0
3.6820002 1.8188311 0.69408488 0
3.6840003 1.8140438 0.69426161 0
3.6870003 1.8098139 0.69452679 0
3.6900003 1.8055732 0.69479191 0
3.6930003 1.8013215 0.69505709 0
3.6970003 1.7976183 0.69541061 0
3.7010002 1.7939006 0.69576418 0
3.7070003 1.7912797 0.69629455 0
3.7130003 1.7886372 0.69682479 0
3.7200003 1.7865249 0.69744354 0
3.8270001 1.6972255 0.70690089 0
3.8200002 1.6874957 0.7062822 0
3.8180003 1.6803166 0.70610547 0
3.8230002 1.6766675 0.70654738 0
3.8280003 1.6730005 0.70698929 0
3.8330002 1.6693152 0.7074312 0
3.8390002 1.6661099 0.70796156 0
3.6800003 1.8413607 0.68799156 0
3.6790001 1.8348706 0.68790495 0
3.6800003 1.8295276 0.68799156 0
3.6810002 1.8241811 0.68807817 0
3.6820002 1.8188311 0.68816471 0
3.6840003 1.8140438 0.68833792 0
3.6870003 1.8098139 0.68859768 0
3.6900003 1.8055732 0.68885744 0
3.6930003 1.8013215 0.68911719 0
3.6970003 1.7976183 0.6894635 0
3.7010002 1.7939006 0.6898098 0
3.7070003 1.7912797 0.69032931 0
3.7130003 1.7886372 0.69084883 0
3.7200003 1.7865249 0.69145489 0
3.8270001 1.6972255 0.70071924 0
3.8200002 1.6874957 0.70011318 0
3.8180003 1.6803166 0.69994003 0
3.8230002 1.6766675 0.70037293 0
3.8280003 1.6730005 0.70080584 0
3.8330002 1.6693152 0.70123875 0
3.8390002 1.6661099 0.70175827 0
3.6800003 1.8413607 0.68207508 0
3.6790001 1.8348706 0.68199033 0
3.6800003 1.8295276 0.68207508 0
3.6810002 1.8241811 0.6821599 0
3.6820002 1.8188311 0.68224466 0
3.6840003 1.8140438 0.68241417 0
3.6870003 1.8098139 0.68266857 0
3.6900003 1.8055732 0.68292284 0
3.6930003 1.8013215 0.68317723 0
3.6970003 1.7976183 0.68351638 0
3.7010002 1.7939006 0.68385541 0
3.7070003 1.7912797 0.68436408 0
3.7130003 1.7886372 0.68487281 0
3.7200003 1.7865249 0.68546629 0
3.8270001 1.6972255 0.69453758 0
3.8200002 1.6874957 0.69394416 0
3.8180003 1.6803166 0.69377458 0
3.8230002 1.6766675 0.69419849 0
3.8280003 1.6730005 0.6946224 0
3.8330002 1.6693152 0.69504625 0
3.8390002 1.6661099 0.69555497 0
3.6800003 1.8413607 0.67615861 0
3.6790001 1.8348706 0.67607558 0
3.6800003 1.8295276 0.67615861 0
3.6810002 1.8241811 0.67624158 0
3.6820002 1.8188311 0.67632455 0
3.6840003 1.8140438 0.67649055 0
3.6870003 1.8098139 0.67673945 0
3.6900003 1.8055732 0.67698836 0
3.6930003 1.8013215 0.67723727 0
3.6970003 1.7976183 0.67756915 0
3.7010002 1.7939006 0.67790109 0
3.7070003 1.7912797 0.67839897 0
3.7130003 1.7886372 0.67889678 0
3.7200003 1.7865249 0.67947757 0
3.8270001 1.6972255 0.68835592 0
3.8200002 1.6874957 0.68777514 0
3.8180003 1.6803166 0.6876092 0
3.8230002 1.6766675 0.68802404 0
3.8280003 1.6730005 0.68843889 0
3.8330002 1.6693152 0.6888538 0
3.8390002 1.6661099 0.68935168 0
3.6800003 1.8413607 0.67024207 0
3.6790001 1.8348706 0.67016095 0
3.6800003 1.8295276 0.67024207 0
3.6810002 1.8241811 0.67032325 0
3.6820002 1.8188311 0.67040443 0
3.6840003 1.8140438 0.6705668 0
3.6870003 1.8098139 0.67081034 0
3.6900003 1.8055732 0.67105383 0
3.6930003 1.8013215 0.67129731 0
3.6970003 1.7976183 0.67162204 0
3.7010002 1.7939006 0.6719467 0
3.7070003 1.7912797 0.67243373 0
3.7130003 1.7886372 0.67292076 0
3.7200003 1.7865249 0.67348897 0
3.8270001 1.6972255 0.68217432 0
3.8200002 1.6874957 0.68160611 0
3.8180003 1.6803166 0.68144381 0
3.8230002 1.6766675 0.6818496 0
3.8280003 1.6730005 0.68225551 0
3.8330002 1.6693152 0.68266129 0
3.8390002 1.6661099 0.68314838 0
3.6800003 1.8413607 0.66432559 0
3.6790001 1.8348706 0.6642462 0
3.6800003 1.8295276 0.66432559 0
3.6810002 1.8241811 0.66440499 0
3.6820002 1.8188311 0.66448438 0
3.6840003 1.8140438 0.66464305 0
3.6870003 1.8098139 0.66488123 0
3.6900003 1.8055732 0.66511929 0
3.6930003 1.8013215 0.66535741 0
3.6970003 1.7976183 0.66567487 0
3.7010002 1.7939006 0.66599232 0
3.7070003 1.7912797 0.66646856 0
3.7130003 1.7886372 0.66694474 0
3.7200003 1.7865249 0.66750032 0
3.8270001 1.6972255 0.67599261 0
3.8200002 1.6874957 0.67543709 0
3.8180003 1.6803166 0.67527837 0
3.8230002 1.6766675 0.67567515 0
3.8280003 1.6730005 0.676072 0
3.8330002 1.6693152 0.67646885 0
3.8390002 1.6661099 0.67694509 0
3.6800003 1.8413607 0.65840912 0
3.6790001 1.8348706 0.65833157 0
3.6800003 1.8295276 0.65840912 0
3.6810002 1.8241811 0.65848672 0
3.6820002 1.8188311 0.65856427 0
3.6840003 1.8140438 0.65871942 0
3.6870003 1.8098139 0.65895206 0
3.6900003 1.8055732 0.65918475 0
3.6930003 1.8013215 0.65941751 0
3.6970003 1.7976183 0.65972769 0
3.7010002 1.7939006 0.66003799 0
3.7070003 1.7912797 0.66050339 0
3.7130003 1.7886372 0.66096878 0
3.7200003 1.7865249 0.66151166 0
3.8270001 1.6972255 0.66981101 0
3.8200002 1.6874957 0.66926801 0
3.8180003 1.6803166 0.66911292 0
3.8230002 1.6766675 0.66950071 0
3.8280003 1.6730005 0.66988856 0
3.8330002 1.6693152 0.6702764 0
3.8390002 1.6661099 0.67074174 0
3.6800003 1.8413607 0.65249264 0
3.6790001 1.8348706 0.65241688 0
3.6800003 1.8295276 0.65249264 0
3.6810002 1.8241811 0.6525684 0
3.6820002 1.8188311 0.65264416 0
3.6840003 1.8140438 0.65279567 0
3.6870003 1.8098139 0.65302294 0
3.6900003 1.8055732 0.65325022 0
3.6930003 1.8013215 0.65347755 0
3.6970003 1.7976183 0.65378058 0
3.7010002 1.7939006 0.65408361 0
3.7070003 1.7912797 0.65453815 0
3.7130003 1.7886372 0.6549927 0
3.7200003 1.7865249 0.65552306 0
3.8270001 1.6972255 0.66362935 0
3.8200002 1.6874957 0.66309905 0
3.8180003 1.6803166 0.66294754 0
3.8230002 1.6766675 0.66332626 0
3.8280003 1.6730005 0.66370511 0
3.8330002 1.6693152 0.6640839 0
3.8390002 1.6661099 0.6645385 0
3.6800003 1.8413607 0.64657617 0
3.6790001 1.8348706 0.64650214 0
3.6800003 1.8295276 0.64657617 0
3.6810002 1.8241811 0.64665008 0
3.6820002 1.8188311 0.64672405 0
3.6840003 1.8140438 0.64687198 0
3.6870003 1.8098139 0.64709383 0
3.6900003 1.8055732 0.64731574 0
3.6930003 1.8013215 0.64753759 0
3.6970003 1.7976183 0.64783341 0
3.7010002 1.7939006 0.64812922 0
3.7070003 1.7912797 0.64857298 0
3.7130003 1.7886372 0.64901668 0
3.7200003 1.7865249 0.6495344 0
3.8270001 1.6972255 0.6574477 0
3.8200002 1.6874957 0.65692997 0
3.8180003 1.6803166 0.65678215 0
3.8230002 1.6766675 0.65715188 0
3.8280003 1.6730005 0.65752161 0
3.8330002 1.6693152 0.65789139 0
3.8390002 1.6661099 0.65833521 0
3.6800003 1.8413607 0.64065969 0
3.6790001 1.8348706 0.64058751 0
3.6800003 1.8295276 0.64065969 0
3.6810002 1.8241811 0.64073181 0
3.6820002 1.8188311 0.64080393 0
3.6840003 1.8140438 0.64094824 0
3.6870003 1.8098139 0.64116472 0
3.6900003 1.8055732 0.64138114 0
3.6930003 1.8013215 0.64159763 0
3.6970003 1.7976183 0.64188623 0
3.7010002 1.7939006 0.64217484 0
3.7070003 1.7912797 0.64260775 0
3.7130003 1.7886372 0.64304066 0
3.7200003 1.7865249 0.64354575 0
3.8270001 1.6972255 0.65126604 0
3.8200002 1.6874957 0.65076101 0
3.8180003 1.6803166 0.65061665 0
3.8230002 1.6766675 0.65097743 0
3.8280003 1.6730005 0.65133822 0
3.8330002 1.6693152 0.65169895 0
3.8390002 1.6661099 0.65213186 0
3.6800003 1.8413607 0.63474315 0
3.6790001 1.8348706 0.63467282 0
3.6800003 1.8295276 0.63474315 0
3.6810002 1.8241811 0.63481355 0
3.6820002 1.8188311 0.63488388 0
3.6840003 1.8140438 0.63502455 0
3.6870003 1.8098139 0.63523561 0
3.6900003 1.8055732 0.63544667 0
3.6930003 1.8013215 0.63565767 0
3.6970003 1.7976183 0.63593912 0
3.7010002 1.7939006 0.63622046 0
3.7070003 1.7912797 0.63664258 0
3.7130003 1.7886372 0.63706464 0
3.7200003 1.7865249 0.63755715 0
3.8270001 1.6972255 0.64508438 0
3.8200002 1.6874957 0.64459193 0
3.8180003 1.6803166 0.64445126 0
3.8230002 1.6766675 0.64480299 0
3.8280003 1.6730005 0.64515471 0
3.8330002 1.6693152 0.6455065 0
3.8390002 1.6661099 0.64592856 0
3.6800003 1.8413607 0.62882668 0
3.6790001 1.8348706 0.62875813 0
3.6800003 1.8295276 0.62882668 0
3.6810002 1.8241811 0.62889522 0
3.6820002 1.8188311 0.62896377 0
3.6840003 1.8140438 0.62910086 0
3.6870003 1.8098139 0.6293065 0
3.6900003 1.8055732 0.62951213 0
3.6930003 1.8013215 0.62971777 0
3.6970003 1.7976183 0.62999195 0
3.7010002 1.7939006 0.63026607 0
3.7070003 1.7912797 0.6306774 0
3.7130003 1.7886372 0.63108861 0
3.7200003 1.7865249 0.63156843 0
3.8270001 1.6972255 0.63890272 0
3.8200002 1.6874957 0.63842297 0
3.8180003 1.6803166 0.63828582 0
3.8230002 1.6766675 0.63862854 0
3.8280003 1.6730005 0.63897133 0
3.8330002 1.6693152 0.63931406 0
3.8390002 1.6661099 0.63972527 0
3.6800003 1.8413607 0.6229102 0
3.6790001 1.8348706 0.62284344 0
3.6800003 1.8295276 0.6229102 0
3.6810002 1.8241811 0.6229769 0
3.6820002 1.8188311 0.62304366 0
3.6840003 1.8140438 0.62317717 0
3.6870003 1.8098139 0.62337738 0
3.6900003 1.8055732 0.62357759 0
3.6930003 1.8013215 0.62377781 0
3.6970003 1.7976183 0.62404478 0
3.7010002 1.7939006 0.62431175 0
3.7070003 1.7912797 0.62471217 0
3.7130003 1.7886372 0.62511265 0
3.7200003 1.7865249 0.62557983 0
3.8270001 1.6972255 0.63272107 0
3.8200002 1.6874957 0.63225389 0
3.8180003 1.6803166 0.63212043 0
3.8230002 1.6766675 0.63245416 0
3.8280003 1.6730005 0.63278782 0
3.8330002 1.6693152 0.63312155 0
3.8390002 1.6661099 0.63352197 0
3.6800003 1.8413607 0.61699367 0
3.6790001 1.8348706 0.61692876 0
3.6800003 1.8295276 0.61699367 0
3.6810002 1.8241811 0.61705863 0
3.6820002 1.8188311 0.61712354 0
3.6840003 1.8140438 0.61725342 0
3.6870003 1.8098139 0.61744827 0
3.6900003 1.8055732 0.61764306 0
3.6930003 1.8013215 0.61783791 0
3.6970003 1.7976183 0.61809766 0
3.7010002 1.7939006 0.61835736 0
3.7070003 1.7912797 0.618747 0
3.7130003 1.7886372 0.61913663 0
3.7200003 1.7865249 0.61959118 0
3.8270001 1.6972255 0.62653947 0
3.8200002 1.6874957 0.62608486 0
3.8180003 1.6803166 0.62595499 0
3.8230002 1.6766675 0.62627971 0
3.8280003 1.6730005 0.62660438 0
3.8330002 1.6693152 0.62692904 0
3.8390002 1.6661099 0.62731868 0
3.6800003 1.8413607 0.61107719 0
3.6790001 1.8348706 0.61101407 0
3.6800003 1.8295276 0.61107719 0
3.6810002 1.8241811 0.61114037 0
3.6820002 1.8188311 0.61120343 0
3.6840003 1.8140438 0.61132973 0
3.6870003 1.8098139 0.6115191 0
3.6900003 1.8055732 0.61170852 0
3.6930003 1.8013215 0.61189795 0
3.6970003 1.7976183 0.61215043 0
3.7010002 1.7939006 0.61240298 0
3.7070003 1.7912797 0.61278176 0
3.7130003 1.7886372 0.61316061 0
3.7200003 1.7865249 0.61360252 0
3.8270001 1.6972255 0.62035775 0
3.8200002 1.6874957 0.61991584 0
3.8180003 1.6803166 0.6197896 0
3.8230002 1.6766675 0.62010527 0
3.8280003 1.6730005 0.62042093 0
3.8330002 1.6693152 0.6207366 0
3.8390002 1.6661099 0.62111539 0
3.6800003 1.8413607 0.60516071 0
3.6790001 1.8348706 0.60509938 0
3.6800003 1.8295276 0.60516071 0
3.6810002 1.8241811 0.60522205 0
3.6820002 1.8188311 0.60528338 0
3.6840003 1.8140438 0.60540605 0
3.6870003 1.8098139 0.60558999 0
3.6900003 1.8055732 0.60577404 0
3.6930003 1.8013215 0.60595798 0
3.6970003 1.7976183 0.60620332 0
3.7010002 1.7939006 0.60644865 0
3.7070003 1.7912797 0.60681659 0
3.7130003 1.7886372 0.60718459 0
3.7200003 1.7865249 0.60761392 0
3.8270001 1.6972255 0.61417615 0
3.8200002 1.6874957 0.61374682 0
3.8180003 1.6803166 0.61362416 0
3.8230002 1.6766675 0.61393082 0
3.8280003 1.6730005 0.61423749 0
3.8330002 1.6693152 0.61454409 0
3.8390002 1.6661099 0.61491209 0
3.6800003 1.8413607 0.59924424 0
3.6790001 1.8348706 0.59918469 0
3.6800003 1.8295276 0.59924424 0
3.6810002 1.8241811 0.59930372 0
3.6820002 1.8188311 0.59936327 0
3.6840003 1.8140438 0.5994823 0
3.6870003 1.8098139 0.59966087 0
3.6900003 1.8055732 0.59983945 0
3.6930003 1.8013215 0.60001802 0
3.6970003 1.7976183 0.60025615 0
3.7010002 1.7939006 0.60049427 0
3.7070003 1.7912797 0.60085142 0
3.7130003 1.7886372 0.60120857 0
3.7200003 1.7865249 0.60162526 0
3.8270001 1.6972255 0.6079945 0
3.8200002 1.6874957 0.6075778 0
3.8180003 1.6803166 0.60745877 0
3.8230002 1.6766675 0.60775638 0
3.8280003 1.6730005 0.60805404 0
3.8330002 1.6693152 0.60835165 0
3.8390002 1.6661099 0.6087088 0
3.6800003 1.8413607 0.59332776 0
3.6790001 1.8348706 0.59327 0
3.6800003 1.8295276 0.59332776 0
3.6810002 1.8241811 0.59338546 0
3.6820002 1.8188311 0.59344316 0
3.6840003 1.8140438 0.59355861 0
3.6870003 1.8098139 0.59373176 0
3.6900003 1.8055732 0.59390497 0
3.6930003 1.8013215 0.59407812 0
3.6970003 1.7976183 0.59430897 0
3.7010002 1.7939006 0.59453988 0
3.7070003 1.7912797 0.59488618 0
3.7130003 1.7886372 0.59523255 0
3.7200003 1.7865249 0.59563661 0
3.8270001 1.6972255 0.60181284 0
3.8200002 1.6874957 0.60140878 0
3.8180003 1.6803166 0.60129333 0
3.8230002 1.6766675 0.60158193 0
3.8280003 1.6730005 0.60187054 0
3.8330002 1.6693152 0.60215914 0
3.8390002 1.6661099 0.60250551 0
3.6800003 1.8413607 0.58741122 0
3.6790001 1.8348706 0.58735532 0
3.6800003 1.8295276 0.58741122 0
3.6810002 1.8241811 0.58746713 0
3.6820002 1.8188311 0.5875231 0
3.6840003 1.8140438 0.58763492 0
3.6870003 1.8098139 0.58780265 0
3.6900003 1.8055732 0.58797044 0
3.6930003 1.8013215 0.58813816 0
3.6970003 1.7976183 0.58836186 0
3.7010002 1.7939006 0.5885855 0
3.7070003 1.7912797 0.58892101 0
3.7130003 1.7886372 0.58925653 0
3.7200003 1.7865249 0.58964795 0
3.8270001 1.6972255 0.59563118 0
3.8200002 1.6874957 0.59523976 0
3.8180003 1.6803166 0.59512794 0
3.8230002 1.6766675 0.59540749 0
3.8280003 1.6730005 0.59568709 0
3.8330002 1.6693152 0.5959667 0
3.8390002 1.6661099 0.59630221 0
3.6800003 1.8413607 0.58149475 0
3.6790001 1.8348706 0.58144063 0
3.6800003 1.8295276 0.58149475 0
3.6810002 1.8241811 0.58154887 0
3.6820002 1.8188311 0.58160293 0
3.6840003 1.8140438 0.58171117 0
3.6870003 1.8098139 0.58187354 0
3.6900003 1.8055732 0.5820359 0
3.6930003 1.8013215 0.58219826 0
3.6970003 1.7976183 0.58241469 0
3.7010002 1.7939006 0.58263111 0
3.7070003 1.7912797 0.58295584 0
3.7130003 1.7886372 0.5832805 0
3.7200003 1.7865249 0.58365929 0
3.8270001 1.6972255 0.58944952 0
3.8200002 1.6874957 0.58907074 0
3.8180003 1.6803166 0.5889625 0
3.8230002 1.6766675 0.58923304 0
3.8280003 1.6730005 0.58950365 0
3.8330002 1.6693152 0.58977425 0
3.8390002 1.6661099 0.59009892 0
3.6800003 1.8413607 0.57557821 0
3.6790001 1.8348706 0.57552594 0
3.6800003 1.8295276 0.57557821 0
3.6810002 1.8241811 0.57563055 0
3.6820002 1.8188311 0.57568288 0
3.6840003 1.8140438 0.57578748 0
3.6870003 1.8098139 0.57594442 0
3.6900003 1.8055732 0.57610136 0
3.6930003 1.8013215 0.5762583 0
3.6970003 1.7976183 0.57646751 0
3.7010002 1.7939006 0.57667679 0
3.7070003 1.7912797 0.5769906 0
3.7130003 1.7886372 0.57730448 0
3.7200003 1.7865249 0.57767069 0
3.8270001 1.6972255 0.58326787 0
3.8200002 1.6874957 0.58290172 0
3.8180003 1.6803166 0.58279711 0
3.8230002 1.6766675 0.58305866 0
3.8280003 1.6730005 0.5833202 0
3.8330002 1.6693152 0.58358175 0
3.8390002 1.6661099 0.58389562 0
3.6800003 1.8413607 0.56966174 0
3.6790001 1.8348706 0.56961125 0
3.6800003 1.8295276 0.56966174 0
3.6810002 1.8241811 0.56971228 0
3.6820002 1.8188311 0.56976277 0
3.6840003 1.8140438 0.5698638 0
3.6870003 1.8098139 0.57001531 0
3.6900003 1.8055732 0.57016683 0
3.6930003 1.8013215 0.57031834 0
3.6970003 1.7976183 0.5705204 0
3.7010002 1.7939006 0.5707224 0
3.7070003 1.7912797 0.57102543 0
3.7130003 1.7886372 0.57132852 0
3.7200003 1.7865249 0.57168204 0
3.8270001 1.6972255 0.57708621 0
3.8200002 1.6874957 0.5767327 0
3.8180003 1.6803166 0.57663167 0
3.8230002 1.6766675 0.57688421 0
3.8280003 1.6730005 0.57713675 0
3.8330002 1.6693152 0.57738924 0
3.8390002 1.6661099 0.57769233 0
3.6800003 1.8413607 0.56374526 0
3.6790001 1.8348706 0.56369656 0
3.6800003 1.8295276 0.56374526 0
3.6810002 1.8241811 0.56379396 0
3.6820002 1.8188311 0.56384265 0
3.6840003 1.8140438 0.56394011 0
3.6870003 1.8098139 0.5640862 0
3.6900003 1.8055732 0.56423229 0
3.6930003 1.8013215 0.56437838 0
3.6970003 1.7976183 0.56457323 0
3.7010002 1.7939006 0.56476802 0
3.7070003 1.7912797 0.56506026 0
3.7130003 1.7886372 0.56535244 0
3.7200003 1.7865249 0.56569338 0
3.8270001 1.6972255 0.57090461 0
3.8200002 1.6874957 0.57056367 0
3.8180003 1.6803166 0.57046628 0
3.8230002 1.6766675 0.57070976 0
3.8280003 1.6730005 0.57095331 0
3.8330002 1.6693152 0.57119679 0
3.8390002 1.6661099 0.57148904 0
3.6800003 1.8413607 0.55782878 0
3.6790001 1.8348706 0.55778188 0
3.6800003 1.8295276 0.55782878 0
3.6810002 1.8241811 0.55787569 0
3.6820002 1.8188311 0.5579226 0
3.6840003 1.8140438 0.55801636 0
3.6870003 1.8098139 0.55815709 0
3.6900003 1.8055732 0.55829775 0
3.6930003 1.8013215 0.55843848 0
3.6970003 1.7976183 0.55862606 0
3.7010002 1.7939006 0.55881369 0
3.7070003 1.7912797 0.55909503 0
3.7130003 1.7886372 0.55937648 0
3.7200003 1.7865249 0.55970478 0
3.8270001 1.6972255 0.56472296 0
3.8200002 1.6874957 0.56439465 0
3.8180003 1.6803166 0.56430084 0
3.8230002 1.6766675 0.56453532 0
3.8280003 1.6730005 0.56476986 0
3.8330002 1.6693152 0.56500435 0
3.8390002 1.6661099 0.56528568 0
3.6800003 1.8413607 0.55191231 0
3.6790001 1.8348706 0.55186719 0
3.6800003 1.8295276 0.55191231 0
3.6810002 1.8241811 0.55195737 0
3.6820002 1.8188311 0.55200249 0
3.6840003 1.8140438 0.55209267 0
3.6870003 1.8098139 0.55222797 0
3.6900003 1.8055732 0.55236328 0
3.6930003 1.8013215 0.55249852 0
3.6970003 1.7976183 0.55267894 0
3.7010002 1.7939006 0.55285931 0
3.7070003 1.7912797 0.55312985 0
3.7130003 1.7886372 0.5534004 0
3.7200003 1.7865249 0.55371612 0
3.8270001 1.6972255 0.5585413 0
3.8200002 1.6874957 0.55822563 0
3.8180003 1.6803166 0.55813545 0
3.8230002 1.6766675 0.55836093 0
3.8280003 1.6730005 0.55858636 0
3.8330002 1.6693152 0.55881184 0
3.8390002 1.6661099 0.55908245 0
3.6800003 1.8413607 0.54599577 0
3.6790001 1.8348706 0.5459525 0
3.6800003 1.8295276 0.54599577 0
3.6810002 1.8241811 0.5460391 0
3.6820002 1.8188311 0.54608238 0
3.6840003 1.8140438 0.54616892 0
3.6870003 1.8098139 0.54629886 0
3.6900003 1.8055732 0.54642868 0
3.6930003 1.8013215 0.54655862 0
3.6970003 1.7976183 0.54673177 0
3.7010002 1.7939006 0.54690492 0
3.7070003 1.7912797 0.54716468 0
3.7130003 1.7886372 0.54742444 0
3.7200003 1.7865249 0.54772747 0
3.8270001 1.6972255 0.55235964 0
3.8200002 1.6874957 0.55205661 0
3.8180003 1.6803166 0.55197001 0
3.8230002 1.6766675 0.55218649 0
3.8280003 1.6730005 0.55240291 0
3.8330002 1.6693152 0.55261934 0
3.8390002 1.6661099 0.5528791 0
3.6800003 1.8413607 0.5400793 0
3.6790001 1.8348706 0.54003781 0
3.6800003 1.8295276 0.5400793 0
3.6810002 1.8241811 0.54012078 0
3.6820002 1.8188311 0.54016227 0
3.6840003 1.8140438 0.54024529 0
3.6870003 1.8098139 0.54036975 0
3.6900003 1.8055732 0.5404942 0
3.6930003 1.8013215 0.54061866 0
3.6970003 1.7976183 0.5407846 0
3.7010002 1.7939006 0.54095054 0
3.7070003 1.7912797 0.54119945 0
3.7130003 1.7886372 0.54144841 0
3.7200003 1.7865249 0.54173881 0
3.8270001 1.6972255 0.54617798 0
3.8200002 1.6874957 0.54588759 0
3.8180003 1.6803166 0.54580462 0
3.8230002 1.6766675 0.54601204 0
3.8280003 1.6730005 0.54621947 0
3.8330002 1.6693152 0.54642689 0
3.8390002 1.6661099 0.5466758 0
3.6800003 1.8413607 0.53416282 0
3.6790001 1.8348706 0.53412312 0
3.6800003 1.8295276 0.53416282 0
3.6810002 1.8241811 0.53420252 0
3.6820002 1.8188311 0.53424215 0
3.6840003 1.8140438 0.53432155 0
3.6870003 1.8098139 0.53444064 0
3.6900003 1.8055732 0.53455967 0
3.6930003 1.8013215 0.5346787 0
3.6970003 1.7976183 0.53483742 0
3.7010002 1.7939006 0.53499615 0
3.7070003 1.7912797 0.53523427 0
3.7130003 1.7886372 0.53547239 0
3.7200003 1.7865249 0.53575015 0
3.8270001 1.6972255 0.53999633 0
3.8200002 1.6874957 0.53971857 0
3.8180003 1.6803166 0.53963917 0
3.8230002 1.6766675 0.5398376 0
3.8280003 1.6730005 0.54003602 0
3.8330002 1.6693152 0.54023445 0
3.8390002 1.6661099 0.54047251 0
3.6800003 1.8413607 0.52824634 0
3.6790001 1.8348706 0.52820843 0
3.6800003 1.8295276 0.52824634 0
3.6810002 1.8241811 0.52828419 0
3.6820002 1.8188311 0.5283221 0
3.6840003 1.8140438 0.52839786 0
3.6870003 1.8098139 0.52851146 0
3.6900003 1.8055732 0.52862513 0
3.6930003 1.8013215 0.5287388 0
3.6970003 1.7976183 0.52889031 0
3.7010002 1.7939006 0.52904177 0
3.7070003 1.7912797 0.5292691 0
3.7130003 1.7886372 0.52949637 0
3.7200003 1.7865249 0.52976155 0
3.8270001 1.6972255 0.53381467 0
3.8200002 1.6874957 0.53354955 0
3.8180003 1.6803166 0.53347379 0
3.8230002 1.6766675 0.53366315 0
3.8280003 1.6730005 0.53385258 0
3.8330002 1.6693152 0.53404194 0
3.8390002 1.6661099 0.53426921 0
3.6800003 1.8413607 0.52232981 0
3.6790001 1.8348706 0.52229375 0
3.6800003 1.8295276 0.52232981 0
3.6810002 1.8241811 0.52236593 0
3.6820002 1.8188311 0.52240199 0
3.6840003 1.8140438 0.52247411 0
3.6870003 1.8098139 0.52258235 0
3.6900003 1.8055732 0.52269059 0
3.6930003 1.8013215 0.52279884 0
3.6970003 1.7976183 0.52294314 0
3.7010002 1.7939006 0.52308744 0
3.7070003 1.7912797 0.52330387 0
3.7130003 1.7886372 0.52352035 0
3.7200003 1.7865249 0.5237729 0
3.8270001 1.6972255 0.52763301 0
3.8200002 1.6874957 0.52738047 0
3.8180003 1.6803166 0.52730834 0
3.8230002 1.6766675 0.52748871 0
3.8280003 1.6730005 0.52766913 0
3.8330002 1.6693152 0.5278495 0
3.8390002 1.6661099 0.52806592 0
3.6800003 1.8413607 0.51641333 0
3.6790001 1.8348706 0.51637906 0
3.6800003 1.8295276 0.51641333 0
3.6810002 1.8241811 0.5164476 0
3.6820002 1.8188311 0.51648188 0
3.6840003 1.8140438 0.51655042 0
3.6870003 1.8098139 0.51665324 0
3.6900003 1.8055732 0.51675606 0
3.6930003 1.8013215 0.51685888 0
3.6970003 1.7976183 0.51699597 0
3.7010002 1.7939006 0.51713306 0
3.7070003 1.7912797 0.51733869 0
3.7130003 1.7886372 0.51754433 0
3.7200003 1.7865249 0.51778424 0
3.8270001 1.6972255 0.52145135 0
3.8200002 1.6874957 0.5212115 0
3.8180003 1.6803166 0.5211429 0
3.8230002 1.6766675 0.52131426 0
3.8280003 1.6730005 0.52148569 0
3.8330002 1.6693152 0.52165699 0
3.8390002 1.6661099 0.52186263 0
3.6800003 1.8413607 0.51049685 0
3.6790001 1.8348706 0.51046437 0
3.6800003 1.8295276 0.51049685 0
3.6810002 1.8241811 0.51052934 0
3.6820002 1.8188311 0.51056176 0
3.6840003 1.8140438 0.51062673 0
3.6870003 1.8098139 0.51072413 0
3.6900003 1.8055732 0.51082152 0
3.6930003 1.8013215 0.51091897 0
3.6970003 1.7976183 0.51104879 0
3.7010002 1.7939006 0.51117867 0
3.7070003 1.7912797 0.51137352 0
3.7130003 1.7886372 0.51156831 0
3.7200003 1.7865249 0.51179558 0
3.8270001 1.6972255 0.51526976 0
3.8200002 1.6874957 0.51504242 0
3.8180003 1.6803166 0.51497751 0
3.8230002 1.6766675 0.51513988 0
3.8280003 1.6730005 0.51530218 0
3.8330002 1.6693152 0.51546454 0
3.8390002 1.6661099 0.51565933 0
3.6800003 1.8413607 0.50458038 0
3.6790001 1.8348706 0.50454968 0
3.6800003 1.8295276 0.50458038 0
3.6810002 1.8241811 0.50461102 0
3.6820002 1.8188311 0.50464171 0
3.6840003 1.8140438 0.50470304 0
3.6870003 1.8098139 0.50479501 0
3.6900003 1.8055732 0.50488698 0
3.6930003 1.8013215 0.50497901 0
3.6970003 1.7976183 0.50510168 0
3.7010002 1.7939006 0.50522435 0
3.7070003 1.7912797 0.50540829 0
3.7130003 1.7886372 0.50559229 0
3.7200003 1.7865249 0.50580692 0
3.8270001 1.6972255 0.5090881 0
3.8200002 1.6874957 0.5088734 0
3.8180003 1.6803166 0.50881207 0
3.8230002 1.6766675 0.50896543 0
3.8280003 1.6730005 0.50911874 0
3.8330002 1.6693152 0.50927204 0
3.8390002 1.6661099 0.50945604 0
3.6800003 1.8413607 0.49866387 0
3.6790001 1.8348706 0.49863499 0
3.6800003 1.8295276 0.49866387 0
3.6810002 1.8241811 0.49869272 0
3.6820002 1.8188311 0.4987216 0
3.6840003 1.8140438 0.4987793 0
3.6870003 1.8098139 0.4988659 0
3.6900003 1.8055732 0.49895248 0
3.6930003 1.8013215 0.49903905 0
3.6970003 1.7976183 0.49915451 0
3.7010002 1.7939006 0.49926996 0
3.7070003 1.7912797 0.49944311 0
3.7130003 1.7886372 0.49961627 0
3.7200003 1.7865249 0.49981833 0
3.8270001 1.6972255 0.50290644 0
3.8200002 1.6874957 0.50270438 0
3.8180003 1.6803166 0.50264668 0
3.8230002 1.6766675 0.50279099 0
3.8280003 1.6730005 0.50293529 0
3.8330002 1.6693152 0.50307959 0
3.8390002 1.6661099 0.50325274 0
3.6800003 1.8413607 0.49274737 0
3.6790001 1.8348706 0.49272031 0
3.6800003 1.8295276 0.49274737 0
3.6810002 1.8241811 0.49277443 0
3.6820002 1.8188311 0.49280149 0
3.6840003 1.8140438 0.49285561 0
3.6870003 1.8098139 0.49293679 0
3.6900003 1.8055732 0.49301794 0
3.6930003 1.8013215 0.49309912 0
3.6970003 1.7976183 0.49320734 0
3.7010002 1.7939006 0.49331558 0
3.7070003 1.7912797 0.49347794 0
3.7130003 1.7886372 0.49364027 0
3.7200003 1.7865249 0.49382967 0
3.8270001 1.6972255 0.49672478 0
3.8200002 1.6874957 0.49653536 0
3.8180003 1.6803166 0.49648127 0
3.8230002 1.6766675 0.49661654 0
3.8280003 1.6730005 0.49675184 0
3.8330002 1.6693152 0.49688712 0
3.8390002 1.6661099 0.49704945 0
3.6800003 1.8413607 0.48683089 0
3.6790001 1.8348706 0.48680562 0
3.6800003 1.8295276 0.48683089 0
3.6810002 1.8241811 0.48685613 0
3.6820002 1.8188311 0.48688141 0
3.6840003 1.8140438 0.48693189 0
3.6870003 1.8098139 0.48700768 0
3.6900003 1.8055732 0.48708344 0
3.6930003 1.8013215 0.48715919 0
3.6970003 1.7976183 0.48726019 0
3.7010002 1.7939006 0.48736119 0
3.7070003 1.7912797 0.48751274 0
3.7130003 1.7886372 0.48766425 0
3.7200003 1.7865249 0.48784101 0
3.8270001 1.6972255 0.49054313 0
3.8200002 1.6874957 0.49036634 0
3.8180003 1.6803166 0.49031585 0
3.8230002 1.6766675 0.4904421 0
3.8280003 1.6730005 0.4905684 0
3.8330002 1.6693152 0.49069464 0
3.8390002 1.6661099 0.49084616 0
3.6800003 1.8413607 0.48091441 0
3.6790001 1.8348706 0.48089093 0
3.6800003 1.8295276 0.48091441 0
3.6810002 1.8241811 0.48093784 0
3.6820002 1.8188311 0.48096129 0
3.6840003 1.8140438 0.4810082 0
3.6870003 1.8098139 0.48107854 0
3.6900003 1.8055732 0.4811489 0
3.6930003 1.8013215 0.48121923 0
3.6970003 1.7976183 0.48131305 0
3.7010002 1.7939006 0.48140684 0
3.7070003 1.7912797 0.48154753 0
3.7130003 1.7886372 0.48168823 0
3.7200003 1.7865249 0.48185238 0
3.8270001 1.6972255 0.48436147 0
3.8200002 1.6874957 0.48419732 0
3.8180003 1.6803166 0.48415044 0
3.8230002 1.6766675 0.48426768 0
3.8280003 1.6730005 0.48438492 0
3.8330002 1.6693152 0.48450217 0
3.8390002 1.6661099 0.48464286 0
3.6800003 1.8413607 0.47499791 0
3.6790001 1.8348706 0.47497624 0
3.6800003 1.8295276 0.47499791 0
3.6810002 1.8241811 0.47501954 0
3.6820002 1.8188311 0.47504121 0
3.6840003 1.8140438 0.47508448 0
3.6870003 1.8098139 0.47514942 0
3.6900003 1.8055732 0.47521436 0
3.6930003 1.8013215 0.4752793 0
3.6970003 1.7976183 0.47536588 0
3.7010002 1.7939006 0.47545245 0
3.7070003 1.7912797 0.47558233 0
3.7130003 1.7886372 0.47571221 0
3.7200003 1.7865249 0.47586375 0
3.8270001 1.6972255 0.47817981 0
3.8200002 1.6874957 0.4780283 0
3.8180003 1.6803166 0.47798502 0
3.8230002 1.6766675 0.47809324 0
3.8280003 1.6730005 0.47820148 0
3.8330002 1.6693152 0.47830969 0
3.8390002 1.6661099 0.47843957 0
3.6800003 1.8413607 0.4690814 0
3.6790001 1.8348706 0.46906155 0
3.6800003 1.8295276 0.4690814 0
3.6810002 1.8241811 0.46910125 0
3.6820002 1.8188311 0.4691211 0
3.6840003 1.8140438 0.4691608 0
3.6870003 1.8098139 0.46922031 0
3.6900003 1.8055732 0.46927983 0
3.6930003 1.8013215 0.46933937 0
3.6970003 1.7976183 0.46941873 0
3.7010002 1.7939006 0.4694981 0
3.7070003 1.7912797 0.46961716 0
3.7130003 1.7886372 0.46973619 0
3.7200003 1.7865249 0.4698751 0
3.8270001 1.6972255 0.47199816 0
3.8200002 1.6874957 0.47185928 0
3.8180003 1.6803166 0.47181961 0
3.8230002 1.6766675 0.47191879 0
3.8280003 1.6730005 0.472018 0
3.8330002 1.6693152 0.47211722 0
3.8390002 1.6661099 0.47223628 0
3.6800003 1.8413607 0.46316493 0
3.6790001 1.8348706 0.4631469 0
3.6800003 1.8295276 0.46316493 0
3.6810002 1.8241811 0.46318296 0
3.6820002 1.8188311 0.46320099 0
3.6840003 1.8140438 0.46323708 0
3.6870003 1.8098139 0.4632912 0
3.6900003 1.8055732 0.46334529 0
3.6930003 1.8013215 0.46339941 0
3.6970003 1.7976183 0.46347156 0
3.7010002 1.7939006 0.46354371 0
3.7070003 1.7912797 0.46365196 0
3.7130003 1.7886372 0.46376017 0
3.7200003 1.7865249 0.46388644 0
3.8270001 1.6972255 0.46581653 0
3.8200002 1.6874957 0.46569026 0
3.8180003 1.6803166 0.46565416 0
3.8230002 1.6766675 0.46574438 0
3.8280003 1.6730005 0.46583456 0
3.8330002 1.6693152 0.46592474 0
3.8390002 1.6661099 0.46603298 0
3.6800003 1.8413607 0.45724845 0
3.6790001 1.8348706 0.45723221 0
3.6800003 1.8295276 0.45724845 0
3.6810002 1.8241811 0.45726466 0
3.6820002 1.8188311 0.4572809 0
3.6840003 1.8140438 0.45731336 0
3.6870003 1.8098139 0.45736209 0
3.6900003 1.8055732 0.45741078 0
3.6930003 1.8013215 0.45745948 0
3.6970003 1.7976183 0.45752442 0
3.7010002 1.7939006 0.45758936 0
3.7070003 1.7912797 0.45768675 0
3.7130003 1.7886372 0.45778418 0
3.7200003 1.7865249 0.45789781 0
3.8270001 1.6972255 0.45963487 0
3.8200002 1.6874957 0.45952123 0
3.8180003 1.6803166 0.45948875 0
3.8230002 1.6766675 0.45956993 0
3.8280003 1.6730005 0.45965111 0
3.8330002 1.6693152 0.45973226 0
3.8390002 1.6661099 0.45982969 0
3.6800003 1.8413607 0.45133194 0
3.6790001 1.8348706 0.45131752 0
3.6800003 1.8295276 0.45133194 0
3.6810002 1.8241811 0.45134637 0
3.6820002 1.8188311 0.45136079 0
3.6840003 1.8140438 0.45138967 0
3.6870003 1.8098139 0.45143294 0
3.6900003 1.8055732 0.45147625 0
3.6930003 1.8013215 0.45151955 0
3.6970003 1.7976183 0.45157725 0
3.7010002 1.7939006 0.45163497 0
3.7070003 1.7912797 0.45172155 0
3.7130003 1.7886372 0.45180815 0
3.7200003 1.7865249 0.45190915 0
3.8270001 1.6972255 0.45345321 0
3.8200002 1.6874957 0.45335221 0
3.8180003 1.6803166 0.45332333 0
3.8230002 1.6766675 0.45339549 0
3.8280003 1.6730005 0.45346767 0
3.8330002 1.6693152 0.45353979 0
3.8390002 1.6661099 0.45362639 0
3.6800003 1.8413607 0.44541544 0
3.6790001 1.8348706 0.44540283 0
3.6800003 1.8295276 0.44541544 0
3.6810002 1.8241811 0.44542807 0
3.6820002 1.8188311 0.44544071 0
3.6840003 1.8140438 0.44546595 0
3.6870003 1.8098139 0.44550383 0
3.6900003 1.8055732 0.44554171 0
3.6930003 1.8013215 0.44557959 0
3.6970003 1.7976183 0.4456301 0
3.7010002 1.7939006 0.44568062 0
3.7070003 1.7912797 0.44575638 0
3.7130003 1.7886372 0.44583213 0
3.7200003 1.7865249 0.44592053 0
3.8270001 1.6972255 0.44727156 0
3.8200002 1.6874957 0.44718319 0
3.8180003 1.6803166 0.44715792 0
3.8230002 1.6766675 0.44722107 0
3.8280003 1.6730005 0.44728419 0
3.8330002 1.6693152 0.44734734 0
3.8390002 1.6661099 0.4474231 0
3.6790001 1.8348706 0.43948814 0
3.6800003 1.8295276 0.43949896 0
3.6810002 1.8241811 0.43950978 0
3.6820002 1.8188311 0.4395206 0
3.6840003 1.8140438 0.43954223 0
3.6870003 1.8098139 0.43957472 0
3.6900003 1.8055732 0.4396072 0
3.6930003 1.8013215 0.43963966 0
3.6970003 1.7976183 0.43968296 0
3.7010002 1.7939006 0.43972623 0
3.7070003 1.7912797 0.43979117 0
3.7130003 1.7886372 0.43985611 0
3.8270001 1.6972255 0.44108993 0
3.8200002 1.6874957 0.44101417 0
3.8180003 1.6803166 0.4409925 0
3.8230002 1.6766675 0.44104663 0
3.8280003 1.6730005 0.44110075 0
3.8330002 1.6693152 0.44115484 0
3.8390002 1.6661099 0.44121981 0
3.6800003 1.8295276 0.43358248 0
3.6810002 1.8241811 0.43359149 0
3.6820002 1.8188311 0.43360052 0
3.6840003 1.8140438 0.43361855 0
3.6870003 1.8098139 0.43364561 0
3.6900003 1.8055732 0.43367267 0
3.6930003 1.8013215 0.43369973 0
3.6970003 1.7976183 0.43373579 0
3.7010002 1.7939006 0.43377188 0
3.7070003 1.7912797 0.43382597 0
3.7130003 1.7886372 0.43388009 0
3.8270001 1.6972255 0.43490827 0
3.8200002 1.6874957 0.43484515 0
3.8180003 1.6803166 0.43482709 0
3.8230002 1.6766675 0.43487218 0
3.8280003 1.6730005 0.4349173 0
3.8330002 1.6693152 0.43496239 0
3.8390002 1.6661099 0.43501648 0
3.6820002 1.8188311 0.4276804 0
3.6840003 1.8140438 0.42769483 0
3.6870003 1.8098139 0.42771649 0
3.6900003 1.8055732 0.42773813 0
3.6930003 1.8013215 0.42775977 0
3.6970003 1.7976183 0.42778865 0
3.7010002 1.7939006 0.42781749 0
3.7070003 1.7912797 0.4278608 0
3.8200002 1.6874957 0.4286761 0
3.8180003 1.6803166 0.42866167 0
3.8230002 1.6766675 0.42869776 0
3.8280003 1.6730005 0.42873383 0
3.8330002 1.6693152 0.42876992 0
3.8390002 1.6661099 0.42881319 0
3.6590002 1.7940052 0.42163584 0
3.6630003 1.7903779 0.4216575 0
3.6680002 1.7872969 0.42168456 0
3.6720002 1.7836387 0.4217062 0
3.6770003 1.7805237 0.42173326 0
3.6820002 1.7773904 0.42176032 0
3.6870003 1.7742392 0.42178738 0
3.6910002 1.7705178 0.42180902 0
3.6960003 1.7673324 0.42183608 0
3.7010002 1.7641287 0.42186314 0
3.7050002 1.7603606 0.42188478 0
3.8030002 1.6911557 0.42241508 0
3.8080003 1.6875608 0.42244214 0
3.8130002 1.6839477 0.4224692 0
3.8180003 1.6803166 0.42249626 0
3.8230002 1.6766675 0.42252332 0
3.8280003 1.6730005 0.42255038 0
3.8330002 1.6693152 0.42257744 0
3.8390002 1.6661099 0.4226099 0
3.6490002 1.8000804 0.41572115 0
3.6540003 1.7970519 0.41573921 0
3.6590002 1.7940052 0.41575724 0
3.6630003 1.7903779 0.41577166 0
3.6680002 1.7872969 0.41578969 0
3.6720002 1.7836387 0.41580415 0
3.6770003 1.7805237 0.41582218 0
3.6820002 1.7773904 0.41584021 0
3.6870003 1.7742392 0.41585824 0
3.6910002 1.7705178 0.41587269 0
3.6960003 1.7673324 0.41589072 0
3.7010002 1.7641287 0.41590875 0
3.7050002 1.7603606 0.41592318 0
3.7100003 1.7571228 0.41594124 0
3.7150002 1.7538668 0.41595927 0
3.7200003 1.7505931 0.4159773 0
3.7240002 1.7467617 0.41599172 0
3.7930002 1.6982917 0.41624066 0
3.7980003 1.6947327 0.41625869 0
3.8030002 1.6911557 0.41627672 0
3.8080003 1.6875608 0.41629478 0
3.8130002 1.6839477 0.41631281 0
3.8180003 1.6803166 0.41633084 0
3.8230002 1.6766675 0.41634887 0
3.8280003 1.6730005 0.41636693 0
3.8330002 1.6693152 0.41638497 0
3.8390002 1.6661099 0.4164066 0
3.6490002 1.8000804 0.40986058 0
3.6540003 1.7970519 0.40986961 0
3.6590002 1.7940052 0.40987861 0
3.6630003 1.7903779 0.40988585 0
3.6680002 1.7872969 0.40989485 0
3.6720002 1.7836387 0.40990207 0
3.6770003 1.7805237 0.4099111 0
3.6820002 1.7773904 0.40992013 0
3.6870003 1.7742392 0.40992913 0
3.6910002 1.7705178 0.40993634 0
3.6960003 1.7673324 0.40994537 0
3.7010002 1.7641287 0.4099544 0
3.7050002 1.7603606 0.40996161 0
3.7100003 1.7571228 0.40997061 0
3.7150002 1.7538668 0.40997964 0
3.7200003 1.7505931 0.40998867 0
3.7240002 1.7467617 0.40999588 0
3.7290003 1.7434535 0.41000488 0
3.7340002 1.7401273 0.41001391 0
3.7390003 1.736783 0.41002294 0
3.7440002 1.7334207 0.41003194 0
3.7490003 1.7300404 0.41004097 0
3.7530003 1.7261136 0.41004819 0
3.7580004 1.7226989 0.41005722 0
3.7630002 1.7192663 0.41006622 0
3.7680004 1.7158157 0.41007525 0
3.7730002 1.7123469 0.41008425 0
3.7780004 1.7088602 0.41009328 0
3.7830002 1.7053553 0.41010231 0
3.7880003 1.7018325 0.41011131 0
3.7930002 1.6982917 0.41012034 0
3.7980003 1.6947327 0.41012937 0
3.8030002 1.6911557 0.41013837 0
3.8080003 1.6875608 0.4101474 0
3.8130002 1.6839477 0.4101564 0
3.8180003 1.6803166 0.41016543 0
3.8230002 1.6766675 0.41017446 0
3.8280003 1.6730005 0.41018346 0
3.8330002 1.6693152 0.41019249 0
3.8390002 1.6661099 0.41020331 0
3.6490002 1.8000804 0.40400001 0
3.6540003 1.7970519 0.40400001 0
3.6590002 1.7940052 0.40400001 0
3.6630003 1.7903779 0.40400001 0
3.6680002 1.7872969 0.40400001 0
3.6720002 1.7836387 0.40400001 0
3.6770003 1.7805237 0.40400001 0
3.6820002 1.7773904 0.40400001 0
3.6870003 1.7742392 0.40400001 0
3.6910002 1.7705178 0.40400001 0
3.6960003 1.7673324 0.40400001 0
3.7010002 1.7641287 0.40400001 0
3.7050002 1.7603606 0.40400001 0
3.7100003 1.7571228 0.40400001 0
3.7150002 1.7538668 0.40400001 0
3.7200003 1.7505931 0.40400001 0
3.7240002 1.7467617 0.40400001 0
3.7290003 1.7434535 0.40400001 0
3.7340002 1.7401273 0.40400001 0
3.7390003 1.736783 0.40400001 0
3.7440002 1.7334207 0.40400001 0
3.7490003 1.7300404 0.40400001 0
3.7530003 1.7261136 0.40400001 0
3.7580004 1.7226989 0.40400001 0
3.7630002 1.7192663 0.40400001 0
3.7680004 1.7158157 0.40400001 0
3.7730002 1.7123469 0.40400001 0
3.7780004 1.7088602 0.40400001 0
3.7830002 1.7053553 0.40400001 0
3.7880003 1.7018325 0.40400001 0
3.7930002 1.6982917 0.40400001 0
3.7980003 1.6947327 0.40400001 0
3.8030002 1.6911557 0.40400001 0
3.8080003 1.6875608 0.40400001 0
3.8130002 1.6839477 0.40400001 0
3.8180003 1.6803166 0.40400001 0
3.8230002 1.6766675 0.40400001 0
3.8280003 1.6730005 0.40400001 0
3.8330002 1.6693152 0.40400001 0
3.8390002 1.6661099 0.40400001 0
3.6540003 1.7970519 0.39813042 0
3.6590002 1.7940052 0.39812142 0
3.6630003 1.7903779 0.39811417 0
3.6680002 1.7872969 0.39810517 0
3.6720002 1.7836387 0.39809796 0
