# .PCD v0.7 - Point Cloud Data file format
VERSION 0.7
FIELDS x y z intensity
SIZE 4 4 4 4
TYPE F F F F
COUNT 1 1 1 1
WIDTH 1424
HEIGHT 1
VIEWPOINT 0 0 0 1 0 0 0
POINTS 1424
DATA ascii
3.8640003 -0.4334003 1.8036398 0
3.8560002 -0.43873957 1.8004074 0
3.8480003 -0.44404998 1.7971749 0
3.8400002 -0.44933152 1.7939425 0
3.8330002 -0.45470324 1.7911141 0
3.8250003 -0.4599289 1.7878817 0
3.8170002 -0.46512565 1.7846493 0
3.8100002 -0.47041804 1.7818209 0
3.8020003 -0.47555891 1.7785885 0
3.7950003 -0.48079896 1.7757602 0
3.7870002 -0.48588389 1.7725276 0
3.7800002 -0.49107164 1.7696992 0
3.7730002 -0.49623415 1.7668709 0
3.7650003 -0.50123608 1.7636386 0
3.7580004 -0.50634629 1.7608103 0
3.7510002 -0.51143122 1.7579818 0
3.7430003 -0.51635021 1.7547494 0
3.7360003 -0.52138281 1.7519211 0
3.7290003 -0.52639019 1.7490927 0
3.7220004 -0.53137237 1.7462643 0
3.7150002 -0.53632921 1.7434359 0
3.7070003 -0.54111111 1.7402035 0
3.7000003 -0.54601562 1.7373751 0
3.6930003 -0.55089498 1.7345468 0
3.6860003 -0.555749 1.7317184 0
3.6790001 -0.56057781 1.7288899 0
3.6720002 -0.56538129 1.7260616 0
3.6650002 -0.57015961 1.7232332 0
3.6590002 -0.57507497 1.7208089 0
3.6520002 -0.57980454 1.7179805 0
3.6450002 -0.5845089 1.7151521 0
3.6380002 -0.58918798 1.7123238 0
3.6310003 -0.59384185 1.7094954 0
3.6240003 -0.59847039 1.7066671 0
3.6180003 -0.60324687 1.7042427 0
3.6110003 -0.60782671 1.7014143 0
3.6040003 -0.6123814 1.698586 0
3.5980003 -0.61708933 1.6961617 0
3.5910003 -0.62159526 1.6933334 0
3.5840003 -0.62607586 1.690505 0
3.5780003 -0.63071531 1.6880807 0
3.5710003 -0.63514727 1.6852523 0
3.5650003 -0.63974154 1.6828279 0
3.5580003 -0.64412481 1.6799996 0
3.5520003 -0.64867401 1.6775752 0
3.5450003 -0.65300852 1.6747469 0
3.5390003 -0.65751266 1.6723226 0
3.5330002 -0.66199511 1.6698983 0
3.5260003 -0.6662575 1.6670699 0
3.5200002 -0.67069483 1.6646454 0
3.5140002 -0.67511058 1.6622212 0
3.5070002 -0.67930084 1.6593928 0
3.5010002 -0.68367147 1.6569685 0
3.4950001 -0.68802047 1.6545442 0
3.4890003 -0.69234782 1.6521199 0
3.4830003 -0.69665349 1.6496956 0
3.4760003 -0.70072466 1.6468673 0
3.4700003 -0.70498526 1.6444429 0
3.4640002 -0.70922422 1.6420187 0
3.4580002 -0.71344149 1.6395942 0
3.4520001 -0.71763712 1.6371698 0
3.4460003 -0.72181118 1.6347457 0
3.4400003 -0.72596353 1.6323212 0
3.4340003 -0.73009431 1.629897 0
3.4280002 -0.73420334 1.6274726 0
3.4220002 -0.73829079 1.6250484 0
3.4160001 -0.74235654 1.6226239 0
3.4100003 -0.74640071 1.6201998 0
3.4040003 -0.75042319 1.6177754 0
3.3990002 -0.75466037 1.6157551 0
3.3930001 -0.7586413 1.6133307 0
3.3870003 -0.76260072 1.6109066 0
3.3810003 -0.76653838 1.6084821 0
3.3750002 -0.77045453 1.6060579 0
3.3700001 -0.77459419 1.6040375 0
3.3640003 -0.77846879 1.6016133 0
3.3580003 -0.78232175 1.5991889 0
3.3530002 -0.78640372 1.5971687 0
3.3470001 -0.79021519 1.5947443 0
3.3410003 -0.79400504 1.5923201 0
3.3360002 -0.7980293 1.5902997 0
3.3300002 -0.8017776 1.5878754 0
3.3250003 -0.80576402 1.5858552 0
3.3190002 -0.80947089 1.5834309 0
3.3140001 -0.81341934 1.5814106 0
3.3080003 -0.81708479 1.5789863 0
3.3030002 -0.82099539 1.576966 0
3.2970002 -0.82461923 1.5745417 0
3.2920003 -0.82849199 1.5725214 0
3.2860003 -0.83207434 1.5700972 0
3.2810001 -0.83590925 1.5680768 0
3.2760003 -0.83972615 1.5660566 0
3.2700002 -0.84324718 1.5636322 0
3.2650003 -0.84702617 1.5616121 0
3.2600002 -0.8507871 1.5595918 0
3.2540002 -0.85424674 1.5571674 0
3.2490003 -0.85796988 1.5551472 0
3.2440002 -0.86167485 1.5531269 0
3.2380002 -0.86507326 1.5507026 0
3.2330003 -0.86874044 1.5486823 0
3.2280002 -0.8723895 1.5466621 0
3.2230003 -0.87602055 1.5446419 0
3.2180002 -0.87963355 1.5426215 0
3.2130003 -0.8832286 1.5406013 0
3.2070003 -0.88650614 1.538177 0
3.2020001 -0.89006323 1.5361567 0
3.1970003 -0.89360231 1.5341364 0
3.1920002 -0.89712334 1.5321162 0
3.1870003 -0.90062636 1.5300958 0
3.1820002 -0.90411127 1.5280756 0
3.1770003 -0.90757823 1.5260553 0
3.1720002 -0.91102701 1.5240351 0
3.1670003 -0.91445792 1.5220149 0
3.1620002 -0.9178707 1.5199945 0
3.1570003 -0.92126548 1.5179744 0
3.1520002 -0.92464215 1.515954 0
3.1470003 -0.92800093 1.5139338 0
3.1420002 -0.93134153 1.5119134 0
3.1380002 -0.93498886 1.5102973 0
3.1330001 -0.93829519 1.5082769 0
3.1280003 -0.94158357 1.5062567 0
3.1230001 -0.9448539 1.5042365 0
3.1180003 -0.94810617 1.5022162 0
3.1140003 -0.9516741 1.5006 0
3.1090002 -0.9548921 1.4985797 0
3.1040003 -0.95809203 1.4965595 0
3.0990002 -0.96127391 1.4945393 0
3.0950003 -0.96477878 1.492923 0
3.0900002 -0.96792638 1.4909027 0
3.0850003 -0.97105598 1.4888825 0
3.0800002 -0.97416753 1.4868622 0
3.0760002 -0.97760922 1.4852459 0
3.0710003 -0.9806866 1.4832258 0
3.0670002 -0.98409748 1.4816095 0
3.0620003 -0.98714054 1.4795892 0
3.0570002 -0.99016553 1.477569 0
3.0530002 -0.99352962 1.4759527 0
3.0480003 -0.99652034 1.4739325 0
3.0440001 -0.99985373 1.4723163 0
3.0390003 -1.0028102 1.470296 0
3.0350003 -1.0061129 1.4686799 0
3.0300002 -1.0090351 1.4666595 0
3.0260003 -1.0123073 1.4650434 0
3.0210001 -1.0151951 1.4630231 0
3.0170002 -1.0184367 1.4614068 0
3.0120003 -1.0212902 1.4593867 0
3.0080001 -1.024501 1.4577703 0
3.0040002 -1.0276973 1.4561541 0
2.9990003 -1.0305005 1.4541339 0
2.9950001 -1.0336661 1.4525177 0
2.9900002 -1.036435 1.4504974 0
2.9860003 -1.0395701 1.4488813 0
2.9820001 -1.0426905 1.4472649 0
2.9770002 -1.045409 1.4452448 0
2.9730003 -1.048499 1.4436285 0
2.9690001 -1.0515743 1.4420123 0
2.9650002 -1.0546354 1.4403961 0
2.9600003 -1.057287 1.4383759 0
2.9560003 -1.0603175 1.4367597 0
2.9520001 -1.0633334 1.4351434 0
2.9480002 -1.066335 1.4335272 0
2.9430003 -1.0689199 1.431507 0
2.9390001 -1.0718907 1.4298908 0
2.9350002 -1.0748471 1.4282745 0
2.9310002 -1.0777892 1.4266583 0
2.9270003 -1.0807167 1.4250422 0
2.9230001 -1.0836298 1.4234258 0
2.9180002 -1.0861155 1.4214057 0
2.9140003 -1.088998 1.4197894 0
2.9100003 -1.0918661 1.4181732 0
2.9060001 -1.0947196 1.416557 0
2.9020002 -1.0975589 1.4149407 0
2.8980002 -1.1003836 1.4133245 0
2.8940003 -1.103194 1.4117084 0
3.9600003 -0.36707789 1.8360074 0
3.9510002 -0.37267148 1.8323871 0
3.9430003 -0.37832642 1.8291692 0
3.9350002 -0.3839525 1.825951 0
3.9270003 -0.3895497 1.8227332 0
3.9190001 -0.39511806 1.819515 0
3.9110003 -0.40065756 1.8162972 0
3.9030004 -0.40616822 1.8130791 0
3.8950002 -0.41164997 1.8098611 0
3.8870003 -0.4171029 1.8066432 0
3.8790002 -0.42252693 1.8034251 0
3.8710003 -0.42792213 1.8002071 0
3.8640003 -0.4334003 1.7973914 0
3.8560002 -0.43873957 1.7941735 0
3.8480003 -0.44404998 1.7909554 0
3.8400002 -0.44933152 1.7877374 0
3.8330002 -0.45470324 1.7849216 0
3.8250003 -0.4599289 1.7817037 0
3.8170002 -0.46512565 1.7784857 0
3.8100002 -0.47041804 1.7756698 0
3.8020003 -0.47555891 1.772452 0
3.7950003 -0.48079896 1.7696362 0
3.7870002 -0.48588389 1.7664182 0
3.7800002 -0.49107164 1.7636025 0
3.7730002 -0.49623415 1.7607867 0
3.7650003 -0.50123608 1.7575688 0
3.7580004 -0.50634629 1.754753 0
3.7510002 -0.51143122 1.7519372 0
3.7430003 -0.51635021 1.7487192 0
3.7360003 -0.52138281 1.7459035 0
3.7290003 -0.52639019 1.7430878 0
3.7220004 -0.53137237 1.740272 0
3.7150002 -0.53632921 1.7374562 0
3.7070003 -0.54111111 1.7342383 0
3.7000003 -0.54601562 1.7314225 0
3.6930003 -0.55089498 1.7286068 0
3.6860003 -0.555749 1.7257911 0
3.6790001 -0.56057781 1.7229751 0
3.6720002 -0.56538129 1.7201595 0
3.6650002 -0.57015961 1.7173438 0
3.6590002 -0.57507497 1.7149303 0
3.6520002 -0.57980454 1.7121146 0
3.6450002 -0.5845089 1.7092987 0
3.6380002 -0.58918798 1.7064831 0
3.6310003 -0.59384185 1.7036674 0
3.6240003 -0.59847039 1.7008516 0
3.6180003 -0.60324687 1.698438 0
3.6110003 -0.60782671 1.6956223 0
3.6040003 -0.6123814 1.6928066 0
3.5980003 -0.61708933 1.6903931 0
3.5910003 -0.62159526 1.6875775 0
3.5840003 -0.62607586 1.6847616 0
3.5780003 -0.63071531 1.6823481 0
3.5710003 -0.63514727 1.6795324 0
3.5650003 -0.63974154 1.6771189 0
3.5580003 -0.64412481 1.6743032 0
3.5520003 -0.64867401 1.6718897 0
3.5450003 -0.65300852 1.6690738 0
3.5390003 -0.65751266 1.6666603 0
3.5330002 -0.66199511 1.6642469 0
3.5260003 -0.6662575 1.6614312 0
3.5200002 -0.67069483 1.6590176 0
3.5140002 -0.67511058 1.6566041 0
3.5070002 -0.67930084 1.6537884 0
3.5010002 -0.68367147 1.6513749 0
3.4950001 -0.68802047 1.6489614 0
3.4890003 -0.69234782 1.6465479 0
3.4830003 -0.69665349 1.6441344 0
3.4760003 -0.70072466 1.6413188 0
3.4700003 -0.70498526 1.6389052 0
3.4640002 -0.70922422 1.6364917 0
3.4580002 -0.71344149 1.6340781 0
3.4520001 -0.71763712 1.6316646 0
3.4460003 -0.72181118 1.6292512 0
3.4400003 -0.72596353 1.6268377 0
3.4340003 -0.73009431 1.6244242 0
3.4280002 -0.73420334 1.6220107 0
3.4220002 -0.73829079 1.6195972 0
3.4160001 -0.74235654 1.6171837 0
3.4100003 -0.74640071 1.6147703 0
3.4040003 -0.75042319 1.6123568 0
3.3990002 -0.75466037 1.6103455 0
3.3930001 -0.7586413 1.607932 0
3.3870003 -0.76260072 1.6055186 0
3.3810003 -0.76653838 1.6031051 0
3.3750002 -0.77045453 1.6006916 0
3.3700001 -0.77459419 1.5986803 0
3.3640003 -0.77846879 1.5962667 0
3.3580003 -0.78232175 1.5938532 0
3.3530002 -0.78640372 1.5918421 0
3.3470001 -0.79021519 1.5894285 0
3.3410003 -0.79400504 1.5870152 0
3.3360002 -0.7980293 1.5850039 0
3.3300002 -0.8017776 1.5825902 0
3.3250003 -0.80576402 1.580579 0
3.3190002 -0.80947089 1.5781655 0
3.3140001 -0.81341934 1.5761544 0
3.3080003 -0.81708479 1.5737408 0
3.3030002 -0.82099539 1.5717295 0
3.2970002 -0.82461923 1.569316 0
3.2920003 -0.82849199 1.5673048 0
3.2860003 -0.83207434 1.5648915 0
3.2810001 -0.83590925 1.56288 0
3.2760003 -0.83972615 1.5608689 0
3.2700002 -0.84324718 1.5584553 0
3.2650003 -0.84702617 1.5564442 0
3.2600002 -0.8507871 1.5544329 0
3.2540002 -0.85424674 1.5520194 0
3.2490003 -0.85796988 1.5500081 0
3.2440002 -0.86167485 1.5479969 0
3.2380002 -0.86507326 1.5455834 0
3.2330003 -0.86874044 1.5435722 0
3.2280002 -0.8723895 1.5415609 0
3.2230003 -0.87602055 1.5395497 0
3.2180002 -0.87963355 1.5375383 0
3.2130003 -0.8832286 1.5355272 0
3.2070003 -0.88650614 1.5331137 0
3.2020001 -0.89006323 1.5311024 0
3.1970003 -0.89360231 1.5290911 0
3.1920002 -0.89712334 1.5270799 0
3.1870003 -0.90062636 1.5250686 0
3.1820002 -0.90411127 1.5230573 0
3.1770003 -0.90757823 1.5210463 0
3.1720002 -0.91102701 1.5190349 0
3.1670003 -0.91445792 1.5170237 0
3.1620002 -0.9178707 1.5150124 0
3.1570003 -0.92126548 1.5130012 0
3.1520002 -0.92464215 1.51099 0
3.1470003 -0.92800093 1.5089787 0
3.1420002 -0.93134153 1.5069674 0
3.1380002 -0.93498886 1.5053585 0
3.1330001 -0.93829519 1.5033472 0
3.1280003 -0.94158357 1.501336 0
3.1230001 -0.9448539 1.4993247 0
3.1180003 -0.94810617 1.4973134 0
3.1140003 -0.9516741 1.4957045 0
3.1090002 -0.9548921 1.4936931 0
3.1040003 -0.95809203 1.4916821 0
3.0990002 -0.96127391 1.4896708 0
3.0950003 -0.96477878 1.4880618 0
3.0900002 -0.96792638 1.4860505 0
3.0850003 -0.97105598 1.4840393 0
3.0800002 -0.97416753 1.482028 0
3.0760002 -0.97760922 1.480419 0
3.0710003 -0.9806866 1.4784079 0
3.0670002 -0.98409748 1.4767988 0
3.0620003 -0.98714054 1.4747875 0
3.0570002 -0.99016553 1.4727762 0
3.0530002 -0.99352962 1.4711672 0
3.0480003 -0.99652034 1.469156 0
3.0440001 -0.99985373 1.4675469 0
3.0390003 -1.0028102 1.4655358 0
3.0350003 -1.0061129 1.4639268 0
3.0300002 -1.0090351 1.4619156 0
3.0260003 -1.0123073 1.4603065 0
3.0210001 -1.0151951 1.4582953 0
3.0170002 -1.0184367 1.4566863 0
3.0120003 -1.0212902 1.4546751 0
3.0080001 -1.024501 1.453066 0
3.0040002 -1.0276973 1.451457 0
2.9990003 -1.0305005 1.4494458 0
2.9950001 -1.0336661 1.4478368 0
2.9900002 -1.036435 1.4458256 0
2.9860003 -1.0395701 1.4442166 0
2.9820001 -1.0426905 1.4426075 0
2.9770002 -1.045409 1.4405963 0
2.9730003 -1.048499 1.4389874 0
2.9690001 -1.0515743 1.4373783 0
2.9650002 -1.0546354 1.4357693 0
2.9600003 -1.057287 1.4337581 0
2.9560003 -1.0603175 1.4321491 0
2.9520001 -1.0633334 1.4305401 0
2.9480002 -1.066335 1.4289311 0
2.9430003 -1.0689199 1.4269199 0
2.9390001 -1.0718907 1.4253109 0
2.9350002 -1.0748471 1.4237018 0
2.9310002 -1.0777892 1.4220929 0
2.9270003 -1.0807167 1.4204839 0
2.9230001 -1.0836298 1.4188749 0
2.9180002 -1.0861155 1.4168637 0
2.9140003 -1.088998 1.4152546 0
2.9100003 -1.0918661 1.4136456 0
2.9060001 -1.0947196 1.4120367 0
2.9020002 -1.0975589 1.4104277 0
2.8980002 -1.1003836 1.4088186 0
2.8940003 -1.103194 1.4072096 0
3.9600003 -0.36707789 1.8295858 0
3.9510002 -0.37267148 1.8259817 0
3.9430003 -0.37832642 1.8227781 0
3.9350002 -0.3839525 1.8195746 0
3.9270003 -0.3895497 1.8163711 0
3.9190001 -0.39511806 1.8131675 0
3.9110003 -0.40065756 1.8099639 0
3.9030004 -0.40616822 1.8067604 0
3.8950002 -0.41164997 1.8035568 0
3.8870003 -0.4171029 1.8003533 0
3.8790002 -0.42252693 1.7971497 0
3.8710003 -0.42792213 1.7939461 0
3.8640003 -0.4334003 1.7911431 0
3.8560002 -0.43873957 1.7879393 0
3.8480003 -0.44404998 1.7847359 0
3.8400002 -0.44933152 1.7815323 0
3.8330002 -0.45470324 1.7787292 0
3.8250003 -0.4599289 1.7755257 0
3.8170002 -0.46512565 1.7723221 0
3.8100002 -0.47041804 1.769519 0
3.8020003 -0.47555891 1.7663153 0
3.7950003 -0.48079896 1.7635124 0
3.7870002 -0.48588389 1.7603086 0
3.7800002 -0.49107164 1.7575057 0
3.7730002 -0.49623415 1.7547024 0
3.7650003 -0.50123608 1.7514989 0
3.7580004 -0.50634629 1.7486959 0
3.7510002 -0.51143122 1.7458926 0
3.7430003 -0.51635021 1.7426891 0
3.7360003 -0.52138281 1.739886 0
3.7290003 -0.52639019 1.7370828 0
3.7220004 -0.53137237 1.7342799 0
3.7150002 -0.53632921 1.7314765 0
3.7070003 -0.54111111 1.7282732 0
3.7000003 -0.54601562 1.7254699 0
3.6930003 -0.55089498 1.7226669 0
3.6860003 -0.555749 1.7198638 0
3.6790001 -0.56057781 1.7170606 0
3.6720002 -0.56538129 1.7142575 0
3.6650002 -0.57015961 1.7114544 0
3.6590002 -0.57507497 1.7090516 0
3.6520002 -0.57980454 1.7062485 0
3.6450002 -0.5845089 1.7034454 0
3.6380002 -0.58918798 1.7006423 0
3.6310003 -0.59384185 1.6978393 0
3.6240003 -0.59847039 1.6950361 0
3.6180003 -0.60324687 1.6926335 0
3.6110003 -0.60782671 1.6898303 0
3.6040003 -0.6123814 1.6870272 0
3.5980003 -0.61708933 1.6846246 0
3.5910003 -0.62159526 1.6818215 0
3.5840003 -0.62607586 1.6790184 0
3.5780003 -0.63071531 1.6766156 0
3.5710003 -0.63514727 1.6738125 0
3.5650003 -0.63974154 1.6714098 0
3.5580003 -0.64412481 1.6686068 0
3.5520003 -0.64867401 1.666204 0
3.5450003 -0.65300852 1.663401 0
3.5390003 -0.65751266 1.6609982 0
3.5330002 -0.66199511 1.6585956 0
3.5260003 -0.6662575 1.6557925 0
3.5200002 -0.67069483 1.6533897 0
3.5140002 -0.67511058 1.6509871 0
3.5070002 -0.67930084 1.6481839 0
3.5010002 -0.68367147 1.6457813 0
3.4950001 -0.68802047 1.6433786 0
3.4890003 -0.69234782 1.6409761 0
3.4830003 -0.69665349 1.6385733 0
3.4760003 -0.70072466 1.6357702 0
3.4700003 -0.70498526 1.6333675 0
3.4640002 -0.70922422 1.6309648 0
3.4580002 -0.71344149 1.6285622 0
3.4520001 -0.71763712 1.6261594 0
3.4460003 -0.72181118 1.6237568 0
3.4400003 -0.72596353 1.6213542 0
3.4340003 -0.73009431 1.6189514 0
3.4280002 -0.73420334 1.6165488 0
3.4220002 -0.73829079 1.6141461 0
3.4160001 -0.74235654 1.6117435 0
3.4100003 -0.74640071 1.6093408 0
3.4040003 -0.75042319 1.6069381 0
3.3990002 -0.75466037 1.6049359 0
3.3930001 -0.7586413 1.6025331 0
3.3870003 -0.76260072 1.6001306 0
3.3810003 -0.76653838 1.5977279 0
3.3750002 -0.77045453 1.5953251 0
3.3700001 -0.77459419 1.593323 0
3.3640003 -0.77846879 1.5909203 0
3.3580003 -0.78232175 1.5885177 0
3.3530002 -0.78640372 1.5865154 0
3.3470001 -0.79021519 1.5841126 0
3.3410003 -0.79400504 1.5817101 0
3.3360002 -0.7980293 1.5797079 0
3.3300002 -0.8017776 1.5773051 0
3.3250003 -0.80576402 1.575303 0
3.3190002 -0.80947089 1.5729002 0
3.3140001 -0.81341934 1.5708981 0
3.3080003 -0.81708479 1.5684954 0
3.3030002 -0.82099539 1.566493 0
3.2970002 -0.82461923 1.5640905 0
3.2920003 -0.82849199 1.5620883 0
3.2860003 -0.83207434 1.5596855 0
3.2810001 -0.83590925 1.5576833 0
3.2760003 -0.83972615 1.5556811 0
3.2700002 -0.84324718 1.5532784 0
3.2650003 -0.84702617 1.5512762 0
3.2600002 -0.8507871 1.549274 0
3.2540002 -0.85424674 1.5468713 0
3.2490003 -0.85796988 1.5448691 0
3.2440002 -0.86167485 1.5428668 0
3.2380002 -0.86507326 1.5404642 0
3.2330003 -0.86874044 1.5384619 0
3.2280002 -0.8723895 1.5364597 0
3.2230003 -0.87602055 1.5344576 0
3.2180002 -0.87963355 1.5324552 0
3.2130003 -0.8832286 1.530453 0
3.2070003 -0.88650614 1.5280504 0
3.2020001 -0.89006323 1.5260481 0
3.1970003 -0.89360231 1.5240459 0
3.1920002 -0.89712334 1.5220437 0
3.1870003 -0.90062636 1.5200415 0
3.1820002 -0.90411127 1.5180392 0
3.1770003 -0.90757823 1.516037 0
3.1720002 -0.91102701 1.5140347 0
3.1670003 -0.91445792 1.5120326 0
3.1620002 -0.9178707 1.5100303 0
3.1570003 -0.92126548 1.508028 0
3.1520002 -0.92464215 1.5060259 0
3.1470003 -0.92800093 1.5040237 0
3.1420002 -0.93134153 1.5020213 0
3.1380002 -0.93498886 1.5004197 0
3.1330001 -0.93829519 1.4984174 0
3.1280003 -0.94158357 1.4964151 0
3.1230001 -0.9448539 1.4944129 0
3.1180003 -0.94810617 1.4924108 0
3.1140003 -0.9516741 1.490809 0
3.1090002 -0.9548921 1.4888067 0
3.1040003 -0.95809203 1.4868045 0
3.0990002 -0.96127391 1.4848022 0
3.0950003 -0.96477878 1.4832006 0
3.0900002 -0.96792638 1.4811982 0
3.0850003 -0.97105598 1.4791961 0
3.0800002 -0.97416753 1.4771938 0
3.0760002 -0.97760922 1.475592 0
3.0710003 -0.9806866 1.4735898 0
3.0670002 -0.98409748 1.471988 0
3.0620003 -0.98714054 1.4699858 0
3.0570002 -0.99016553 1.4679835 0
3.0530002 -0.99352962 1.4663817 0
3.0480003 -0.99652034 1.4643797 0
3.0440001 -0.99985373 1.4627777 0
3.0390003 -1.0028102 1.4607755 0
3.0350003 -1.0061129 1.4591738 0
3.0300002 -1.0090351 1.4571716 0
3.0260003 -1.0123073 1.4555697 0
3.0210001 -1.0151951 1.4535675 0
3.0170002 -1.0184367 1.4519657 0
3.0120003 -1.0212902 1.4499636 0
3.0080001 -1.024501 1.4483616 0
3.0040002 -1.0276973 1.4467599 0
2.9990003 -1.0305005 1.4447577 0
2.9950001 -1.0336661 1.4431559 0
2.9900002 -1.036435 1.4411538 0
2.9860003 -1.0395701 1.4395519 0
2.9820001 -1.0426905 1.43795 0
2.9770002 -1.045409 1.435948 0
2.9730003 -1.048499 1.4343462 0
2.9690001 -1.0515743 1.4327443 0
2.9650002 -1.0546354 1.4311424 0
2.9600003 -1.057287 1.4291404 0
2.9560003 -1.0603175 1.4275386 0
2.9520001 -1.0633334 1.4259367 0
2.9480002 -1.066335 1.424335 0
2.9430003 -1.0689199 1.4223328 0
2.9390001 -1.0718907 1.4207309 0
2.9350002 -1.0748471 1.4191291 0
2.9310002 -1.0777892 1.4175274 0
2.9270003 -1.0807167 1.4159256 0
2.9230001 -1.0836298 1.4143238 0
2.9180002 -1.0861155 1.4123217 0
2.9140003 -1.088998 1.4107199 0
2.9100003 -1.0918661 1.4091181 0
2.9060001 -1.0947196 1.4075162 0
2.9020002 -1.0975589 1.4059145 0
2.8980002 -1.1003836 1.4043127 0
2.8940003 -1.103194 1.4027109 0
3.9600003 -0.36707789 1.8231641 0
3.9510002 -0.37267148 1.8195764 0
3.9430003 -0.37832642 1.8163873 0
3.9350002 -0.3839525 1.8131982 0
3.9270003 -0.3895497 1.810009 0
3.9190001 -0.39511806 1.8068199 0
3.9110003 -0.40065756 1.8036307 0
3.9030004 -0.40616822 1.8004417 0
3.8950002 -0.41164997 1.7972524 0
3.8870003 -0.4171029 1.7940634 0
3.8790002 -0.42252693 1.7908742 0
3.8710003 -0.42792213 1.7876852 0
3.8640003 -0.4334003 1.7848947 0
3.8560002 -0.43873957 1.7817054 0
3.8480003 -0.44404998 1.7785164 0
3.8400002 -0.44933152 1.7753271 0
3.8330002 -0.45470324 1.7725366 0
3.8250003 -0.4599289 1.7693477 0
3.8170002 -0.46512565 1.7661583 0
3.8100002 -0.47041804 1.763368 0
3.8020003 -0.47555891 1.7601788 0
3.7950003 -0.48079896 1.7573884 0
3.7870002 -0.48588389 1.7541993 0
3.7800002 -0.49107164 1.7514087 0
3.7730002 -0.49623415 1.7486182 0
3.7650003 -0.50123608 1.7454292 0
3.7580004 -0.50634629 1.7426386 0
3.7510002 -0.51143122 1.7398481 0
3.7430003 -0.51635021 1.7366589 0
3.7360003 -0.52138281 1.7338685 0
3.7290003 -0.52639019 1.731078 0
3.7220004 -0.53137237 1.7282876 0
3.7150002 -0.53632921 1.7254969 0
3.7070003 -0.54111111 1.7223079 0
3.7000003 -0.54601562 1.7195175 0
3.6930003 -0.55089498 1.7167269 0
3.6860003 -0.555749 1.7139364 0
3.6790001 -0.56057781 1.7111459 0
3.6720002 -0.56538129 1.7083553 0
3.6650002 -0.57015961 1.7055649 0
3.6590002 -0.57507497 1.703173 0
3.6520002 -0.57980454 1.7003826 0
3.6450002 -0.5845089 1.697592 0
3.6380002 -0.58918798 1.6948016 0
3.6310003 -0.59384185 1.6920111 0
3.6240003 -0.59847039 1.6892207 0
3.6180003 -0.60324687 1.6868287 0
3.6110003 -0.60782671 1.6840383 0
3.6040003 -0.6123814 1.6812478 0
3.5980003 -0.61708933 1.678856 0
3.5910003 -0.62159526 1.6760654 0
3.5840003 -0.62607586 1.673275 0
3.5780003 -0.63071531 1.6708832 0
3.5710003 -0.63514727 1.6680927 0
3.5650003 -0.63974154 1.6657008 0
3.5580003 -0.64412481 1.6629102 0
3.5520003 -0.64867401 1.6605184 0
3.5450003 -0.65300852 1.657728 0
3.5390003 -0.65751266 1.6553361 0
3.5330002 -0.66199511 1.6529442 0
3.5260003 -0.6662575 1.6501538 0
3.5200002 -0.67069483 1.6477618 0
3.5140002 -0.67511058 1.64537 0
3.5070002 -0.67930084 1.6425796 0
3.5010002 -0.68367147 1.6401877 0
3.4950001 -0.68802047 1.6377958 0
3.4890003 -0.69234782 1.6354041 0
3.4830003 -0.69665349 1.6330122 0
3.4760003 -0.70072466 1.6302216 0
3.4700003 -0.70498526 1.6278298 0
3.4640002 -0.70922422 1.625438 0
3.4580002 -0.71344149 1.623046 0
3.4520001 -0.71763712 1.6206542 0
3.4460003 -0.72181118 1.6182625 0
3.4400003 -0.72596353 1.6158706 0
3.4340003 -0.73009431 1.6134788 0
3.4280002 -0.73420334 1.6110868 0
3.4220002 -0.73829079 1.6086949 0
3.4160001 -0.74235654 1.6063031 0
3.4100003 -0.74640071 1.6039113 0
3.4040003 -0.75042319 1.6015195 0
3.3990002 -0.75466037 1.5995262 0
3.3930001 -0.7586413 1.5971344 0
3.3870003 -0.76260072 1.5947427 0
3.3810003 -0.76653838 1.5923507 0
3.3750002 -0.77045453 1.5899589 0
3.3700001 -0.77459419 1.5879656 0
3.3640003 -0.77846879 1.5855739 0
3.3580003 -0.78232175 1.583182 0
3.3530002 -0.78640372 1.5811888 0
3.3470001 -0.79021519 1.5787969 0
3.3410003 -0.79400504 1.576405 0
3.3360002 -0.7980293 1.5744119 0
3.3300002 -0.8017776 1.5720199 0
3.3250003 -0.80576402 1.5700268 0
3.3190002 -0.80947089 1.5676349 0
3.3140001 -0.81341934 1.5656416 0
3.3080003 -0.81708479 1.5632498 0
3.3030002 -0.82099539 1.5612566 0
3.2970002 -0.82461923 1.5588647 0
3.2920003 -0.82849199 1.5568715 0
3.2860003 -0.83207434 1.5544797 0
3.2810001 -0.83590925 1.5524864 0
3.2760003 -0.83972615 1.5504934 0
3.2700002 -0.84324718 1.5481014 0
3.2650003 -0.84702617 1.5461082 0
3.2600002 -0.8507871 1.5441152 0
3.2540002 -0.85424674 1.5417231 0
3.2490003 -0.85796988 1.5397301 0
3.2440002 -0.86167485 1.5377369 0
3.2380002 -0.86507326 1.535345 0
3.2330003 -0.86874044 1.5333518 0
3.2280002 -0.8723895 1.5313586 0
3.2230003 -0.87602055 1.5293654 0
3.2180002 -0.87963355 1.5273721 0
3.2130003 -0.8832286 1.5253789 0
3.2070003 -0.88650614 1.5229871 0
3.2020001 -0.89006323 1.5209938 0
3.1970003 -0.89360231 1.5190006 0
3.1920002 -0.89712334 1.5170074 0
3.1870003 -0.90062636 1.5150143 0
3.1820002 -0.90411127 1.513021 0
3.1770003 -0.90757823 1.5110278 0
3.1720002 -0.91102701 1.5090345 0
3.1670003 -0.91445792 1.5070413 0
3.1620002 -0.9178707 1.5050482 0
3.1570003 -0.92126548 1.5030551 0
3.1520002 -0.92464215 1.5010618 0
3.1470003 -0.92800093 1.4990686 0
3.1420002 -0.93134153 1.4970753 0
3.1380002 -0.93498886 1.4954808 0
3.1330001 -0.93829519 1.4934875 0
3.1280003 -0.94158357 1.4914944 0
3.1230001 -0.9448539 1.4895011 0
3.1180003 -0.94810617 1.4875079 0
3.1140003 -0.9516741 1.4859135 0
3.1090002 -0.9548921 1.4839202 0
3.1040003 -0.95809203 1.481927 0
3.0990002 -0.96127391 1.4799337 0
3.0950003 -0.96477878 1.4783392 0
3.0900002 -0.96792638 1.4763459 0
3.0850003 -0.97105598 1.4743527 0
3.0800002 -0.97416753 1.4723595 0
3.0760002 -0.97760922 1.470765 0
3.0710003 -0.9806866 1.4687719 0
3.0670002 -0.98409748 1.4671772 0
3.0620003 -0.98714054 1.4651841 0
3.0570002 -0.99016553 1.4631908 0
3.0530002 -0.99352962 1.4615963 0
3.0480003 -0.99652034 1.4596031 0
3.0440001 -0.99985373 1.4580085 0
3.0390003 -1.0028102 1.4560153 0
3.0350003 -1.0061129 1.4544207 0
3.0300002 -1.0090351 1.4524275 0
3.0260003 -1.0123073 1.4508328 0
3.0210001 -1.0151951 1.4488398 0
3.0170002 -1.0184367 1.4472451 0
3.0120003 -1.0212902 1.4452521 0
3.0080001 -1.024501 1.4436573 0
3.0040002 -1.0276973 1.4420627 0
2.9990003 -1.0305005 1.4400696 0
2.9950001 -1.0336661 1.438475 0
2.9900002 -1.036435 1.4364818 0
2.9860003 -1.0395701 1.4348873 0
2.9820001 -1.0426905 1.4332926 0
2.9770002 -1.045409 1.4312994 0
2.9730003 -1.048499 1.429705 0
2.9690001 -1.0515743 1.4281104 0
2.9650002 -1.0546354 1.4265157 0
2.9600003 -1.057287 1.4245225 0
2.9560003 -1.0603175 1.4229281 0
2.9520001 -1.0633334 1.4213334 0
2.9480002 -1.066335 1.4197389 0
2.9430003 -1.0689199 1.4177457 0
2.9390001 -1.0718907 1.416151 0
2.9350002 -1.0748471 1.4145566 0
2.9310002 -1.0777892 1.412962 0
2.9270003 -1.0807167 1.4113674 0
2.9230001 -1.0836298 1.4097729 0
2.9180002 -1.0861155 1.4077797 0
2.9140003 -1.088998 1.4061852 0
2.9100003 -1.0918661 1.4045905 0
2.9060001 -1.0947196 1.4029958 0
2.9020002 -1.0975589 1.4014013 0
2.8980002 -1.1003836 1.3998069 0
2.8940003 -1.103194 1.3982123 0
3.9600003 -0.36707789 1.8167427 0
3.9510002 -0.37267148 1.8131711 0
3.9430003 -0.37832642 1.8099964 0
3.9350002 -0.3839525 1.8068217 0
3.9270003 -0.3895497 1.803647 0
3.9190001 -0.39511806 1.8004723 0
3.9110003 -0.40065756 1.7972976 0
3.9030004 -0.40616822 1.7941229 0
3.8950002 -0.41164997 1.7909482 0
3.8870003 -0.4171029 1.7877736 0
3.8790002 -0.42252693 1.7845987 0
3.8710003 -0.42792213 1.7814242 0
3.8640003 -0.4334003 1.7786463 0
3.8560002 -0.43873957 1.7754714 0
3.8480003 -0.44404998 1.7722969 0
3.8400002 -0.44933152 1.769122 0
3.8330002 -0.45470324 1.7663442 0
3.8250003 -0.4599289 1.7631696 0
3.8170002 -0.46512565 1.7599947 0
3.8100002 -0.47041804 1.7572169 0
3.8020003 -0.47555891 1.7540424 0
3.7950003 -0.48079896 1.7512643 0
3.7870002 -0.48588389 1.7480897 0
3.7800002 -0.49107164 1.7453119 0
3.7730002 -0.49623415 1.742534 0
3.7650003 -0.50123608 1.7393593 0
3.7580004 -0.50634629 1.7365814 0
3.7510002 -0.51143122 1.7338035 0
3.7430003 -0.51635021 1.7306288 0
3.7360003 -0.52138281 1.727851 0
3.7290003 -0.52639019 1.7250732 0
3.7220004 -0.53137237 1.7222954 0
3.7150002 -0.53632921 1.7195174 0
3.7070003 -0.54111111 1.7163427 0
3.7000003 -0.54601562 1.7135649 0
3.6930003 -0.55089498 1.7107869 0
3.6860003 -0.555749 1.7080091 0
3.6790001 -0.56057781 1.7052312 0
3.6720002 -0.56538129 1.7024534 0
3.6650002 -0.57015961 1.6996756 0
3.6590002 -0.57507497 1.6972945 0
3.6520002 -0.57980454 1.6945165 0
3.6450002 -0.5845089 1.6917387 0
3.6380002 -0.58918798 1.6889609 0
3.6310003 -0.59384185 1.6861831 0
3.6240003 -0.59847039 1.6834052 0
3.6180003 -0.60324687 1.6810241 0
3.6110003 -0.60782671 1.6782463 0
3.6040003 -0.6123814 1.6754684 0
3.5980003 -0.61708933 1.6730874 0
3.5910003 -0.62159526 1.6703094 0
3.5840003 -0.62607586 1.6675316 0
3.5780003 -0.63071531 1.6651506 0
3.5710003 -0.63514727 1.6623728 0
3.5650003 -0.63974154 1.6599917 0
3.5580003 -0.64412481 1.6572139 0
3.5520003 -0.64867401 1.6548328 0
3.5450003 -0.65300852 1.6520549 0
3.5390003 -0.65751266 1.6496739 0
3.5330002 -0.66199511 1.6472929 0
3.5260003 -0.6662575 1.644515 0
3.5200002 -0.67069483 1.642134 0
3.5140002 -0.67511058 1.639753 0
3.5070002 -0.67930084 1.6369752 0
3.5010002 -0.68367147 1.6345941 0
3.4950001 -0.68802047 1.632213 0
3.4890003 -0.69234782 1.6298321 0
3.4830003 -0.69665349 1.6274509 0
3.4760003 -0.70072466 1.6246731 0
3.4700003 -0.70498526 1.6222922 0
3.4640002 -0.70922422 1.6199111 0
3.4580002 -0.71344149 1.61753 0
3.4520001 -0.71763712 1.615149 0
3.4460003 -0.72181118 1.6127681 0
3.4400003 -0.72596353 1.610387 0
3.4340003 -0.73009431 1.608006 0
3.4280002 -0.73420334 1.6056249 0
3.4220002 -0.73829079 1.6032439 0
3.4160001 -0.74235654 1.6008629 0
3.4100003 -0.74640071 1.5984819 0
3.4040003 -0.75042319 1.5961009 0
3.3990002 -0.75466037 1.5941167 0
3.3930001 -0.7586413 1.5917356 0
3.3870003 -0.76260072 1.5893546 0
3.3810003 -0.76653838 1.5869737 0
3.3750002 -0.77045453 1.5845926 0
3.3700001 -0.77459419 1.5826083 0
3.3640003 -0.77846879 1.5802274 0
3.3580003 -0.78232175 1.5778463 0
3.3530002 -0.78640372 1.5758621 0
3.3470001 -0.79021519 1.5734811 0
3.3410003 -0.79400504 1.5711 0
3.3360002 -0.7980293 1.5691159 0
3.3300002 -0.8017776 1.5667348 0
3.3250003 -0.80576402 1.5647507 0
3.3190002 -0.80947089 1.5623697 0
3.3140001 -0.81341934 1.5603853 0
3.3080003 -0.81708479 1.5580045 0
3.3030002 -0.82099539 1.5560203 0
3.2970002 -0.82461923 1.5536392 0
3.2920003 -0.82849199 1.5516551 0
3.2860003 -0.83207434 1.549274 0
3.2810001 -0.83590925 1.5472897 0
3.2760003 -0.83972615 1.5453056 0
3.2700002 -0.84324718 1.5429245 0
3.2650003 -0.84702617 1.5409404 0
3.2600002 -0.8507871 1.5389562 0
3.2540002 -0.85424674 1.5365751 0
3.2490003 -0.85796988 1.534591 0
3.2440002 -0.86167485 1.5326067 0
3.2380002 -0.86507326 1.5302256 0
3.2330003 -0.86874044 1.5282415 0
3.2280002 -0.8723895 1.5262574 0
3.2230003 -0.87602055 1.5242733 0
3.2180002 -0.87963355 1.522289 0
3.2130003 -0.8832286 1.5203048 0
3.2070003 -0.88650614 1.5179238 0
3.2020001 -0.89006323 1.5159396 0
3.1970003 -0.89360231 1.5139554 0
3.1920002 -0.89712334 1.5119711 0
3.1870003 -0.90062636 1.509987 0
3.1820002 -0.90411127 1.5080029 0
3.1770003 -0.90757823 1.5060188 0
3.1720002 -0.91102701 1.5040344 0
3.1670003 -0.91445792 1.5020503 0
3.1620002 -0.9178707 1.500066 0
3.1570003 -0.92126548 1.4980819 0
3.1520002 -0.92464215 1.4960977 0
3.1470003 -0.92800093 1.4941136 0
3.1420002 -0.93134153 1.4921293 0
3.1380002 -0.93498886 1.4905421 0
3.1330001 -0.93829519 1.4885577 0
3.1280003 -0.94158357 1.4865736 0
3.1230001 -0.9448539 1.4845893 0
3.1180003 -0.94810617 1.4826052 0
3.1140003 -0.9516741 1.4810179 0
3.1090002 -0.9548921 1.4790337 0
3.1040003 -0.95809203 1.4770496 0
3.0990002 -0.96127391 1.4750654 0
3.0950003 -0.96477878 1.473478 0
3.0900002 -0.96792638 1.4714937 0
3.0850003 -0.97105598 1.4695095 0
3.0800002 -0.97416753 1.4675254 0
3.0760002 -0.97760922 1.4659381 0
3.0710003 -0.9806866 1.4639539 0
3.0670002 -0.98409748 1.4623665 0
3.0620003 -0.98714054 1.4603822 0
3.0570002 -0.99016553 1.4583981 0
3.0530002 -0.99352962 1.4568107 0
3.0480003 -0.99652034 1.4548266 0
3.0440001 -0.99985373 1.4532392 0
3.0390003 -1.0028102 1.451255 0
3.0350003 -1.0061129 1.4496678 0
3.0300002 -1.0090351 1.4476835 0
3.0260003 -1.0123073 1.4460962 0
3.0210001 -1.0151951 1.4441119 0
3.0170002 -1.0184367 1.4425247 0
3.0120003 -1.0212902 1.4405406 0
3.0080001 -1.024501 1.438953 0
3.0040002 -1.0276973 1.4373657 0
2.9990003 -1.0305005 1.4353815 0
2.9950001 -1.0336661 1.4337941 0
2.9900002 -1.036435 1.43181 0
2.9860003 -1.0395701 1.4302226 0
2.9820001 -1.0426905 1.4286352 0
2.9770002 -1.045409 1.426651 0
2.9730003 -1.048499 1.4250638 0
2.9690001 -1.0515743 1.4234763 0
2.9650002 -1.0546354 1.4218889 0
2.9600003 -1.057287 1.4199048 0
2.9560003 -1.0603175 1.4183176 0
2.9520001 -1.0633334 1.41673 0
2.9480002 -1.066335 1.4151428 0
2.9430003 -1.0689199 1.4131585 0
2.9390001 -1.0718907 1.4115713 0
2.9350002 -1.0748471 1.4099839 0
2.9310002 -1.0777892 1.4083965 0
2.9270003 -1.0807167 1.4068092 0
2.9230001 -1.0836298 1.4052218 0
2.9180002 -1.0861155 1.4032376 0
2.9140003 -1.088998 1.4016503 0
2.9100003 -1.0918661 1.400063 0
2.9060001 -1.0947196 1.3984755 0
2.9020002 -1.0975589 1.3968881 0
2.8980002 -1.1003836 1.395301 0
2.8940003 -1.103194 1.3937136 0
3.9600003 -0.36707789 1.8103211 0
3.9510002 -0.37267148 1.8067657 0
3.9430003 -0.37832642 1.8036056 0
3.9350002 -0.3839525 1.8004452 0
3.9270003 -0.3895497 1.797285 0
3.9190001 -0.39511806 1.7941246 0
3.9110003 -0.40065756 1.7909645 0
3.9030004 -0.40616822 1.7878041 0
3.8950002 -0.41164997 1.7846439 0
3.8870003 -0.4171029 1.7814837 0
3.8790002 -0.42252693 1.7783233 0
3.8710003 -0.42792213 1.7751631 0
3.8640003 -0.4334003 1.7723978 0
3.8560002 -0.43873957 1.7692375 0
3.8480003 -0.44404998 1.7660773 0
3.8400002 -0.44933152 1.7629169 0
3.8330002 -0.45470324 1.7601517 0
3.8250003 -0.4599289 1.7569915 0
3.8170002 -0.46512565 1.7538311 0
3.8100002 -0.47041804 1.751066 0
3.8020003 -0.47555891 1.7479057 0
3.7950003 -0.48079896 1.7451406 0
3.7870002 -0.48588389 1.7419801 0
3.7800002 -0.49107164 1.739215 0
3.7730002 -0.49623415 1.7364497 0
3.7650003 -0.50123608 1.7332895 0
3.7580004 -0.50634629 1.7305242 0
3.7510002 -0.51143122 1.727759 0
3.7430003 -0.51635021 1.7245988 0
3.7360003 -0.52138281 1.7218335 0
3.7290003 -0.52639019 1.7190682 0
3.7220004 -0.53137237 1.7163031 0
3.7150002 -0.53632921 1.7135377 0
3.7070003 -0.54111111 1.7103775 0
3.7000003 -0.54601562 1.7076122 0
3.6930003 -0.55089498 1.7048471 0
3.6860003 -0.555749 1.7020818 0
3.6790001 -0.56057781 1.6993165 0
3.6720002 -0.56538129 1.6965512 0
3.6650002 -0.57015961 1.693786 0
3.6590002 -0.57507497 1.6914158 0
3.6520002 -0.57980454 1.6886506 0
3.6450002 -0.5845089 1.6858854 0
3.6380002 -0.58918798 1.6831201 0
3.6310003 -0.59384185 1.680355 0
3.6240003 -0.59847039 1.6775897 0
3.6180003 -0.60324687 1.6752195 0
3.6110003 -0.60782671 1.6724542 0
3.6040003 -0.6123814 1.6696889 0
3.5980003 -0.61708933 1.6673188 0
3.5910003 -0.62159526 1.6645535 0
3.5840003 -0.62607586 1.6617883 0
3.5780003 -0.63071531 1.6594181 0
3.5710003 -0.63514727 1.6566529 0
3.5650003 -0.63974154 1.6542827 0
3.5580003 -0.64412481 1.6515175 0
3.5520003 -0.64867401 1.6491472 0
3.5450003 -0.65300852 1.6463821 0
3.5390003 -0.65751266 1.6440117 0
3.5330002 -0.66199511 1.6416415 0
3.5260003 -0.6662575 1.6388763 0
3.5200002 -0.67069483 1.6365061 0
3.5140002 -0.67511058 1.6341358 0
3.5070002 -0.67930084 1.6313707 0
3.5010002 -0.68367147 1.6290004 0
3.4950001 -0.68802047 1.6266302 0
3.4890003 -0.69234782 1.6242601 0
3.4830003 -0.69665349 1.6218899 0
3.4760003 -0.70072466 1.6191247 0
3.4700003 -0.70498526 1.6167544 0
3.4640002 -0.70922422 1.6143843 0
3.4580002 -0.71344149 1.6120141 0
3.4520001 -0.71763712 1.6096438 0
3.4460003 -0.72181118 1.6072736 0
3.4400003 -0.72596353 1.6049035 0
3.4340003 -0.73009431 1.6025332 0
3.4280002 -0.73420334 1.600163 0
3.4220002 -0.73829079 1.5977927 0
3.4160001 -0.74235654 1.5954226 0
3.4100003 -0.74640071 1.5930525 0
3.4040003 -0.75042319 1.5906821 0
3.3990002 -0.75466037 1.588707 0
3.3930001 -0.7586413 1.5863367 0
3.3870003 -0.76260072 1.5839667 0
3.3810003 -0.76653838 1.5815965 0
3.3750002 -0.77045453 1.5792261 0
3.3700001 -0.77459419 1.577251 0
3.3640003 -0.77846879 1.5748808 0
3.3580003 -0.78232175 1.5725107 0
3.3530002 -0.78640372 1.5705354 0
3.3470001 -0.79021519 1.5681652 0
3.3410003 -0.79400504 1.5657951 0
3.3360002 -0.7980293 1.5638199 0
3.3300002 -0.8017776 1.5614496 0
3.3250003 -0.80576402 1.5594745 0
3.3190002 -0.80947089 1.5571043 0
3.3140001 -0.81341934 1.5551291 0
3.3080003 -0.81708479 1.5527589 0
3.3030002 -0.82099539 1.5507838 0
3.2970002 -0.82461923 1.5484135 0
3.2920003 -0.82849199 1.5464383 0
3.2860003 -0.83207434 1.5440682 0
3.2810001 -0.83590925 1.542093 0
3.2760003 -0.83972615 1.5401179 0
3.2700002 -0.84324718 1.5377476 0
3.2650003 -0.84702617 1.5357726 0
3.2600002 -0.8507871 1.5337973 0
3.2540002 -0.85424674 1.531427 0
3.2490003 -0.85796988 1.529452 0
3.2440002 -0.86167485 1.5274767 0
3.2380002 -0.86507326 1.5251065 0
3.2330003 -0.86874044 1.5231315 0
3.2280002 -0.8723895 1.5211562 0
3.2230003 -0.87602055 1.5191811 0
3.2180002 -0.87963355 1.5172058 0
3.2130003 -0.8832286 1.5152308 0
3.2070003 -0.88650614 1.5128605 0
3.2020001 -0.89006323 1.5108852 0
3.1970003 -0.89360231 1.5089102 0
3.1920002 -0.89712334 1.5069349 0
3.1870003 -0.90062636 1.5049598 0
3.1820002 -0.90411127 1.5029845 0
3.1770003 -0.90757823 1.5010095 0
3.1720002 -0.91102701 1.4990343 0
3.1670003 -0.91445792 1.4970591 0
3.1620002 -0.9178707 1.4950839 0
3.1570003 -0.92126548 1.4931087 0
3.1520002 -0.92464215 1.4911337 0
3.1470003 -0.92800093 1.4891584 0
3.1420002 -0.93134153 1.4871833 0
3.1380002 -0.93498886 1.4856031 0
3.1330001 -0.93829519 1.483628 0
3.1280003 -0.94158357 1.4816527 0
3.1230001 -0.9448539 1.4796777 0
3.1180003 -0.94810617 1.4777025 0
3.1140003 -0.9516741 1.4761224 0
3.1090002 -0.9548921 1.4741471 0
3.1040003 -0.95809203 1.472172 0
3.0990002 -0.96127391 1.4701968 0
3.0950003 -0.96477878 1.4686166 0
3.0900002 -0.96792638 1.4666414 0
3.0850003 -0.97105598 1.4646664 0
3.0800002 -0.97416753 1.4626912 0
3.0760002 -0.97760922 1.4611109 0
3.0710003 -0.9806866 1.4591359 0
3.0670002 -0.98409748 1.4575557 0
3.0620003 -0.98714054 1.4555806 0
3.0570002 -0.99016553 1.4536053 0
3.0530002 -0.99352962 1.4520253 0
3.0480003 -0.99652034 1.4500501 0
3.0440001 -0.99985373 1.4484699 0
3.0390003 -1.0028102 1.4464948 0
3.0350003 -1.0061129 1.4449147 0
3.0300002 -1.0090351 1.4429395 0
3.0260003 -1.0123073 1.4413594 0
3.0210001 -1.0151951 1.4393841 0
3.0170002 -1.0184367 1.4378041 0
3.0120003 -1.0212902 1.4358289 0
3.0080001 -1.024501 1.4342487 0
3.0040002 -1.0276973 1.4326686 0
2.9990003 -1.0305005 1.4306934 0
2.9950001 -1.0336661 1.4291133 0
2.9900002 -1.036435 1.4271381 0
2.9860003 -1.0395701 1.425558 0
2.9820001 -1.0426905 1.4239779 0
2.9770002 -1.045409 1.4220027 0
2.9730003 -1.048499 1.4204226 0
2.9690001 -1.0515743 1.4188424 0
2.9650002 -1.0546354 1.4172622 0
2.9600003 -1.057287 1.415287 0
2.9560003 -1.0603175 1.413707 0
2.9520001 -1.0633334 1.4121268 0
2.9480002 -1.066335 1.4105467 0
2.9430003 -1.0689199 1.4085716 0
2.9390001 -1.0718907 1.4069914 0
2.9350002 -1.0748471 1.4054112 0
2.9310002 -1.0777892 1.403831 0
2.9270003 -1.0807167 1.4022509 0
2.9230001 -1.0836298 1.4006708 0
2.9180002 -1.0861155 1.3986956 0
2.9140003 -1.088998 1.3971155 0
2.9100003 -1.0918661 1.3955355 0
2.9060001 -1.0947196 1.3939552 0
2.9020002 -1.0975589 1.3923751 0
2.8980002 -1.1003836 1.3907949 0
2.8940003 -1.103194 1.3892149 0
3.9600003 -0.36707789 1.8038995 0
3.9510002 -0.37267148 1.8003604 0
3.9430003 -0.37832642 1.7972146 0
3.9350002 -0.3839525 1.7940687 0
3.9270003 -0.3895497 1.790923 0
3.9190001 -0.39511806 1.7877771 0
3.9110003 -0.40065756 1.7846313 0
3.9030004 -0.40616822 1.7814854 0
3.8950002 -0.41164997 1.7783396 0
3.8870003 -0.4171029 1.7751938 0
3.8790002 -0.42252693 1.7720479 0
3.8710003 -0.42792213 1.7689021 0
3.8640003 -0.4334003 1.7661494 0
3.8560002 -0.43873957 1.7630036 0
3.8480003 -0.44404998 1.7598578 0
3.8400002 -0.44933152 1.7567118 0
3.8330002 -0.45470324 1.7539593 0
3.8250003 -0.4599289 1.7508135 0
3.8170002 -0.46512565 1.7476676 0
3.8100002 -0.47041804 1.744915 0
3.8020003 -0.47555891 1.7417692 0
3.7950003 -0.48079896 1.7390165 0
3.7870002 -0.48588389 1.7358707 0
3.7800002 -0.49107164 1.7331181 0
3.7730002 -0.49623415 1.7303655 0
3.7650003 -0.50123608 1.7272197 0
3.7580004 -0.50634629 1.724467 0
3.7510002 -0.51143122 1.7217144 0
3.7430003 -0.51635021 1.7185686 0
3.7360003 -0.52138281 1.715816 0
3.7290003 -0.52639019 1.7130634 0
3.7220004 -0.53137237 1.7103108 0
3.7150002 -0.53632921 1.707558 0
3.7070003 -0.54111111 1.7044123 0
3.7000003 -0.54601562 1.7016597 0
3.6930003 -0.55089498 1.698907 0
3.6860003 -0.555749 1.6961546 0
3.6790001 -0.56057781 1.6934018 0
3.6720002 -0.56538129 1.6906493 0
3.6650002 -0.57015961 1.6878966 0
3.6590002 -0.57507497 1.6855372 0
3.6520002 -0.57980454 1.6827847 0
3.6450002 -0.5845089 1.680032 0
3.6380002 -0.58918798 1.6772795 0
3.6310003 -0.59384185 1.6745268 0
3.6240003 -0.59847039 1.6717741 0
3.6180003 -0.60324687 1.6694149 0
3.6110003 -0.60782671 1.6666622 0
3.6040003 -0.6123814 1.6639096 0
3.5980003 -0.61708933 1.6615503 0
3.5910003 -0.62159526 1.6587976 0
3.5840003 -0.62607586 1.6560451 0
3.5780003 -0.63071531 1.6536856 0
3.5710003 -0.63514727 1.650933 0
3.5650003 -0.63974154 1.6485736 0
3.5580003 -0.64412481 1.645821 0
3.5520003 -0.64867401 1.6434616 0
3.5450003 -0.65300852 1.640709 0
3.5390003 -0.65751266 1.6383497 0
3.5330002 -0.66199511 1.6359903 0
3.5260003 -0.6662575 1.6332376 0
3.5200002 -0.67069483 1.6308782 0
3.5140002 -0.67511058 1.6285188 0
3.5070002 -0.67930084 1.6257663 0
3.5010002 -0.68367147 1.6234069 0
3.4950001 -0.68802047 1.6210475 0
3.4890003 -0.69234782 1.6186881 0
3.4830003 -0.69665349 1.6163288 0
3.4760003 -0.70072466 1.6135762 0
3.4700003 -0.70498526 1.6112167 0
3.4640002 -0.70922422 1.6088574 0
3.4580002 -0.71344149 1.606498 0
3.4520001 -0.71763712 1.6041385 0
3.4460003 -0.72181118 1.6017793 0
3.4400003 -0.72596353 1.5994198 0
3.4340003 -0.73009431 1.5970604 0
3.4280002 -0.73420334 1.5947011 0
3.4220002 -0.73829079 1.5923417 0
3.4160001 -0.74235654 1.5899823 0
3.4100003 -0.74640071 1.587623 0
3.4040003 -0.75042319 1.5852636 0
3.3990002 -0.75466037 1.5832974 0
3.3930001 -0.7586413 1.580938 0
3.3870003 -0.76260072 1.5785787 0
3.3810003 -0.76653838 1.5762192 0
3.3750002 -0.77045453 1.5738599 0
3.3700001 -0.77459419 1.5718937 0
3.3640003 -0.77846879 1.5695343 0
3.3580003 -0.78232175 1.567175 0
3.3530002 -0.78640372 1.5652088 0
3.3470001 -0.79021519 1.5628494 0
3.3410003 -0.79400504 1.5604901 0
3.3360002 -0.7980293 1.5585239 0
3.3300002 -0.8017776 1.5561644 0
3.3250003 -0.80576402 1.5541984 0
3.3190002 -0.80947089 1.551839 0
3.3140001 -0.81341934 1.5498728 0
3.3080003 -0.81708479 1.5475135 0
3.3030002 -0.82099539 1.5455472 0
3.2970002 -0.82461923 1.5431879 0
3.2920003 -0.82849199 1.5412219 0
3.2860003 -0.83207434 1.5388623 0
3.2810001 -0.83590925 1.5368961 0
3.2760003 -0.83972615 1.5349301 0
3.2700002 -0.84324718 1.5325707 0
3.2650003 -0.84702617 1.5306046 0
3.2600002 -0.8507871 1.5286384 0
3.2540002 -0.85424674 1.526279 0
3.2490003 -0.85796988 1.5243129 0
3.2440002 -0.86167485 1.5223466 0
3.2380002 -0.86507326 1.5199873 0
3.2330003 -0.86874044 1.5180212 0
3.2280002 -0.8723895 1.516055 0
3.2230003 -0.87602055 1.514089 0
3.2180002 -0.87963355 1.5121228 0
3.2130003 -0.8832286 1.5101566 0
3.2070003 -0.88650614 1.5077972 0
3.2020001 -0.89006323 1.505831 0
3.1970003 -0.89360231 1.5038649 0
3.1920002 -0.89712334 1.5018988 0
3.1870003 -0.90062636 1.4999326 0
3.1820002 -0.90411127 1.4979664 0
3.1770003 -0.90757823 1.4960003 0
3.1720002 -0.91102701 1.4940342 0
3.1670003 -0.91445792 1.4920681 0
3.1620002 -0.9178707 1.4901018 0
3.1570003 -0.92126548 1.4881357 0
3.1520002 -0.92464215 1.4861696 0
3.1470003 -0.92800093 1.4842035 0
3.1420002 -0.93134153 1.4822372 0
3.1380002 -0.93498886 1.4806644 0
3.1330001 -0.93829519 1.4786981 0
3.1280003 -0.94158357 1.476732 0
3.1230001 -0.9448539 1.4747659 0
3.1180003 -0.94810617 1.4727998 0
3.1140003 -0.9516741 1.4712268 0
3.1090002 -0.9548921 1.4692606 0
3.1040003 -0.95809203 1.4672946 0
3.0990002 -0.96127391 1.4653283 0
3.0950003 -0.96477878 1.4637554 0
3.0900002 -0.96792638 1.4617891 0
3.0850003 -0.97105598 1.4598231 0
3.0800002 -0.97416753 1.4578569 0
3.0760002 -0.97760922 1.456284 0
3.0710003 -0.9806866 1.4543179 0
3.0670002 -0.98409748 1.452745 0
3.0620003 -0.98714054 1.4507788 0
3.0570002 -0.99016553 1.4488126 0
3.0530002 -0.99352962 1.4472398 0
3.0480003 -0.99652034 1.4452736 0
3.0440001 -0.99985373 1.4437007 0
3.0390003 -1.0028102 1.4417346 0
3.0350003 -1.0061129 1.4401617 0
3.0300002 -1.0090351 1.4381955 0
3.0260003 -1.0123073 1.4366225 0
3.0210001 -1.0151951 1.4346563 0
3.0170002 -1.0184367 1.4330835 0
3.0120003 -1.0212902 1.4311174 0
3.0080001 -1.024501 1.4295443 0
3.0040002 -1.0276973 1.4279714 0
2.9990003 -1.0305005 1.4260054 0
2.9950001 -1.0336661 1.4244324 0
2.9900002 -1.036435 1.4224663 0
2.9860003 -1.0395701 1.4208933 0
2.9820001 -1.0426905 1.4193203 0
2.9770002 -1.045409 1.4173542 0
2.9730003 -1.048499 1.4157814 0
2.9690001 -1.0515743 1.4142083 0
2.9650002 -1.0546354 1.4126354 0
2.9600003 -1.057287 1.4106693 0
2.9560003 -1.0603175 1.4090965 0
2.9520001 -1.0633334 1.4075234 0
2.9480002 -1.066335 1.4059507 0
2.9430003 -1.0689199 1.4039844 0
2.9390001 -1.0718907 1.4024115 0
2.9350002 -1.0748471 1.4008385 0
2.9310002 -1.0777892 1.3992656 0
2.9270003 -1.0807167 1.3976928 0
2.9230001 -1.0836298 1.3961197 0
2.9180002 -1.0861155 1.3941536 0
2.9140003 -1.088998 1.3925807 0
2.9100003 -1.0918661 1.3910079 0
2.9060001 -1.0947196 1.3894348 0
2.9020002 -1.0975589 1.387862 0
2.8980002 -1.1003836 1.386289 0
2.8940003 -1.103194 1.3847162 0
3.9600003 -0.36707789 1.797478 0
3.9510002 -0.37267148 1.7939551 0
3.9430003 -0.37832642 1.7908238 0
3.9350002 -0.3839525 1.7876923 0
3.9270003 -0.3895497 1.7845609 0
3.9190001 -0.39511806 1.7814294 0
3.9110003 -0.40065756 1.778298 0
3.9030004 -0.40616822 1.7751667 0
3.8950002 -0.41164997 1.7720352 0
3.8870003 -0.4171029 1.768904 0
3.8790002 -0.42252693 1.7657723 0
3.8710003 -0.42792213 1.7626411 0
3.8640003 -0.4334003 1.759901 0
3.8560002 -0.43873957 1.7567697 0
3.8480003 -0.44404998 1.7536383 0
3.8400002 -0.44933152 1.7505069 0
3.8330002 -0.45470324 1.7477667 0
3.8250003 -0.4599289 1.7446355 0
3.8170002 -0.46512565 1.741504 0
3.8100002 -0.47041804 1.738764 0
3.8020003 -0.47555891 1.7356327 0
3.7950003 -0.48079896 1.7328926 0
3.7870002 -0.48588389 1.7297611 0
3.7800002 -0.49107164 1.7270212 0
3.7730002 -0.49623415 1.7242813 0
3.7650003 -0.50123608 1.7211499 0
3.7580004 -0.50634629 1.7184099 0
3.7510002 -0.51143122 1.7156698 0
3.7430003 -0.51635021 1.7125385 0
3.7360003 -0.52138281 1.7097985 0
3.7290003 -0.52639019 1.7070585 0
3.7220004 -0.53137237 1.7043186 0
3.7150002 -0.53632921 1.7015785 0
3.7070003 -0.54111111 1.6984471 0
3.7000003 -0.54601562 1.6957071 0
3.6930003 -0.55089498 1.6929672 0
3.6860003 -0.555749 1.6902273 0
3.6790001 -0.56057781 1.6874871 0
3.6720002 -0.56538129 1.6847471 0
3.6650002 -0.57015961 1.6820072 0
3.6590002 -0.57507497 1.6796585 0
3.6520002 -0.57980454 1.6769186 0
3.6450002 -0.5845089 1.6741787 0
3.6380002 -0.58918798 1.6714387 0
3.6310003 -0.59384185 1.6686987 0
3.6240003 -0.59847039 1.6659588 0
3.6180003 -0.60324687 1.6636101 0
3.6110003 -0.60782671 1.6608702 0
3.6040003 -0.6123814 1.6581303 0
3.5980003 -0.61708933 1.6557816 0
3.5910003 -0.62159526 1.6530416 0
3.5840003 -0.62607586 1.6503017 0
3.5780003 -0.63071531 1.6479532 0
3.5710003 -0.63514727 1.6452131 0
3.5650003 -0.63974154 1.6428646 0
3.5580003 -0.64412481 1.6401247 0
3.5520003 -0.64867401 1.6377761 0
3.5450003 -0.65300852 1.635036 0
3.5390003 -0.65751266 1.6326874 0
3.5330002 -0.66199511 1.6303389 0
3.5260003 -0.6662575 1.627599 0
3.5200002 -0.67069483 1.6252503 0
3.5140002 -0.67511058 1.6229018 0
3.5070002 -0.67930084 1.6201618 0
3.5010002 -0.68367147 1.6178132 0
3.4950001 -0.68802047 1.6154647 0
3.4890003 -0.69234782 1.6131161 0
3.4830003 -0.69665349 1.6107676 0
3.4760003 -0.70072466 1.6080277 0
3.4700003 -0.70498526 1.6056792 0
3.4640002 -0.70922422 1.6033305 0
3.4580002 -0.71344149 1.6009818 0
3.4520001 -0.71763712 1.5986333 0
3.4460003 -0.72181118 1.5962849 0
3.4400003 -0.72596353 1.5939363 0
3.4340003 -0.73009431 1.5915878 0
3.4280002 -0.73420334 1.5892391 0
3.4220002 -0.73829079 1.5868905 0
3.4160001 -0.74235654 1.5845419 0
3.4100003 -0.74640071 1.5821935 0
3.4040003 -0.75042319 1.579845 0
3.3990002 -0.75466037 1.5778878 0
3.3930001 -0.7586413 1.5755392 0
3.3870003 -0.76260072 1.5731907 0
3.3810003 -0.76653838 1.570842 0
3.3750002 -0.77045453 1.5684935 0
3.3700001 -0.77459419 1.5665363 0
3.3640003 -0.77846879 1.5641879 0
3.3580003 -0.78232175 1.5618393 0
3.3530002 -0.78640372 1.5598822 0
3.3470001 -0.79021519 1.5575336 0
3.3410003 -0.79400504 1.5551851 0
3.3360002 -0.7980293 1.5532279 0
3.3300002 -0.8017776 1.5508792 0
3.3250003 -0.80576402 1.5489222 0
3.3190002 -0.80947089 1.5465736 0
3.3140001 -0.81341934 1.5446165 0
3.3080003 -0.81708479 1.542268 0
3.3030002 -0.82099539 1.5403109 0
3.2970002 -0.82461923 1.5379622 0
3.2920003 -0.82849199 1.5360051 0
3.2860003 -0.83207434 1.5336566 0
3.2810001 -0.83590925 1.5316994 0
3.2760003 -0.83972615 1.5297424 0
3.2700002 -0.84324718 1.5273938 0
3.2650003 -0.84702617 1.5254368 0
3.2600002 -0.8507871 1.5234796 0
3.2540002 -0.85424674 1.5211309 0
3.2490003 -0.85796988 1.5191739 0
3.2440002 -0.86167485 1.5172167 0
3.2380002 -0.86507326 1.5148681 0
3.2330003 -0.86874044 1.5129111 0
3.2280002 -0.8723895 1.5109539 0
3.2230003 -0.87602055 1.5089968 0
3.2180002 -0.87963355 1.5070397 0
3.2130003 -0.8832286 1.5050825 0
3.2070003 -0.88650614 1.5027339 0
3.2020001 -0.89006323 1.5007768 0
3.1970003 -0.89360231 1.4988197 0
3.1920002 -0.89712334 1.4968625 0
3.1870003 -0.90062636 1.4949055 0
3.1820002 -0.90411127 1.4929483 0
3.1770003 -0.90757823 1.4909912 0
3.1720002 -0.91102701 1.4890339 0
3.1670003 -0.91445792 1.4870769 0
3.1620002 -0.9178707 1.4851197 0
3.1570003 -0.92126548 1.4831626 0
3.1520002 -0.92464215 1.4812055 0
3.1470003 -0.92800093 1.4792484 0
3.1420002 -0.93134153 1.4772912 0
3.1380002 -0.93498886 1.4757255 0
3.1330001 -0.93829519 1.4737684 0
3.1280003 -0.94158357 1.4718112 0
3.1230001 -0.9448539 1.469854 0
