# .PCD v0.7 - Point Cloud Data file format
VERSION 0.7
FIELDS x y z intensity
SIZE 4 4 4 4
TYPE F F F F
COUNT 1 1 1 1
WIDTH 1441
HEIGHT 1
VIEWPOINT 0 0 0 1 0 0 0
POINTS 1441
DATA ascii
6.8030005 -3.4762859 1.212485 0
6.8000002 -3.486223 1.2121061 0
6.7970004 -3.4961495 1.2117273 0
6.7930002 -3.5055237 1.2112222 0
6.7900004 -3.5154269 1.2108434 0
6.7870002 -3.5253186 1.2104646 0
6.7830005 -3.5346534 1.2099596 0
6.7800002 -3.544522 1.2095808 0
6.7770004 -3.5543799 1.2092019 0
6.7740002 -3.5642266 1.2088231 0
6.7700005 -3.5735095 1.2083181 0
6.7670002 -3.5833328 1.2079393 0
6.7640004 -3.5931456 1.2075605 0
6.7600002 -3.6023884 1.2070554 0
6.7570004 -3.6121776 1.2066766 0
6.7540002 -3.6219559 1.2062978 0
6.7510004 -3.6317236 1.205919 0
6.7470002 -3.640914 1.2054139 0
6.7440004 -3.6506581 1.2050352 0
6.7410002 -3.6603913 1.2046564 0
6.9050002 -3.1789172 1.2136303 0
6.9020004 -3.1892009 1.213257 0
6.8980002 -3.1989882 1.212759 0
6.8950005 -3.2092485 1.2123857 0
6.8910003 -3.2190087 1.2118878 0
6.8880005 -3.2292454 1.2115145 0
6.8840003 -3.2389786 1.2110167 0
6.8810005 -3.2491918 1.2106432 0
6.8780003 -3.2593942 1.2102698 0
6.8740005 -3.2690878 1.209772 0
6.8710003 -3.2792666 1.2093986 0
6.8670006 -3.2889335 1.2089007 0
6.8640003 -3.2990887 1.2085273 0
6.8610005 -3.3092334 1.208154 0
6.8570004 -3.3188603 1.2076561 0
6.8540006 -3.3289814 1.2072827 0
6.8500004 -3.3385813 1.2067848 0
6.8470006 -3.3486791 1.2064115 0
6.8440003 -3.3587658 1.2060381 0
6.8400006 -3.3683264 1.2055403 0
6.8370004 -3.3783896 1.2051668 0
6.8340006 -3.3884425 1.2047935 0
6.8300004 -3.3979628 1.2042956 0
6.8270006 -3.4079921 1.2039223 0
6.8230004 -3.4174855 1.2034243 0
6.8200002 -3.4274909 1.203051 0
6.8170004 -3.4374859 1.2026776 0
6.8130002 -3.4469395 1.2021797 0
6.8100004 -3.4569111 1.2018063 0
6.8070006 -3.466872 1.2014329 0
6.8030005 -3.4762859 1.2009351 0
6.8000002 -3.486223 1.2005618 0
6.7970004 -3.4961495 1.2001884 0
6.7930002 -3.5055237 1.1996905 0
6.7900004 -3.5154269 1.1993171 0
6.7870002 -3.5253186 1.1989437 0
6.7830005 -3.5346534 1.1984459 0
6.7800002 -3.544522 1.1980724 0
6.7770004 -3.5543799 1.1976991 0
6.7740002 -3.5642266 1.1973257 0
6.7700005 -3.5735095 1.1968279 0
6.7670002 -3.5833328 1.1964544 0
6.7640004 -3.5931456 1.196081 0
6.7600002 -3.6023884 1.1955832 0
6.7570004 -3.6121776 1.1952099 0
6.7540002 -3.6219559 1.1948364 0
6.7510004 -3.6317236 1.194463 0
6.7470002 -3.640914 1.1939652 0
6.7440004 -3.6506581 1.1935918 0
6.7410002 -3.6603913 1.1932184 0
6.9050002 -3.1789172 1.2018965 0
6.9020004 -3.1892009 1.2015285 0
6.8980002 -3.1989882 1.2010379 0
6.8950005 -3.2092485 1.20067 0
6.8910003 -3.2190087 1.2001793 0
6.8880005 -3.2292454 1.1998113 0
6.8840003 -3.2389786 1.1993207 0
6.8810005 -3.2491918 1.1989528 0
6.8780003 -3.2593942 1.1985847 0
6.8740005 -3.2690878 1.1980941 0
6.8710003 -3.2792666 1.1977261 0
6.8670006 -3.2889335 1.1972356 0
6.8640003 -3.2990887 1.1968675 0
6.8610005 -3.3092334 1.1964996 0
6.8570004 -3.3188603 1.1960089 0
6.8540006 -3.3289814 1.1956409 0
6.8500004 -3.3385813 1.1951503 0
6.8470006 -3.3486791 1.1947824 0
6.8440003 -3.3587658 1.1944144 0
6.8400006 -3.3683264 1.1939237 0
6.8370004 -3.3783896 1.1935557 0
6.8340006 -3.3884425 1.1931877 0
6.8300004 -3.3979628 1.1926972 0
6.8270006 -3.4079921 1.1923292 0
6.8230004 -3.4174855 1.1918385 0
6.8200002 -3.4274909 1.1914705 0
6.8170004 -3.4374859 1.1911025 0
6.8130002 -3.4469395 1.190612 0
6.8100004 -3.4569111 1.190244 0
6.8070006 -3.466872 1.189876 0
6.8030005 -3.4762859 1.1893853 0
6.8000002 -3.486223 1.1890173 0
6.7970004 -3.4961495 1.1886494 0
6.7930002 -3.5055237 1.1881588 0
6.7900004 -3.5154269 1.1877908 0
6.7870002 -3.5253186 1.1874228 0
6.7830005 -3.5346534 1.1869322 0
6.7800002 -3.544522 1.1865641 0
6.7770004 -3.5543799 1.1861962 0
6.7740002 -3.5642266 1.1858282 0
6.7700005 -3.5735095 1.1853377 0
6.7670002 -3.5833328 1.1849695 0
6.7640004 -3.5931456 1.1846017 0
6.7600002 -3.6023884 1.184111 0
6.7570004 -3.6121776 1.183743 0
6.7540002 -3.6219559 1.183375 0
6.7510004 -3.6317236 1.183007 0
6.7470002 -3.640914 1.1825165 0
6.7440004 -3.6506581 1.1821485 0
6.7410002 -3.6603913 1.1817805 0
6.9050002 -3.1789172 1.1901628 0
6.9020004 -3.1892009 1.1898003 0
6.8980002 -3.1989882 1.1893167 0
6.8950005 -3.2092485 1.1889542 0
6.8910003 -3.2190087 1.1884707 0
6.8880005 -3.2292454 1.1881082 0
6.8840003 -3.2389786 1.1876248 0
6.8810005 -3.2491918 1.1872623 0
6.8780003 -3.2593942 1.1868997 0
6.8740005 -3.2690878 1.1864163 0
6.8710003 -3.2792666 1.1860536 0
6.8670006 -3.2889335 1.1855704 0
6.8640003 -3.2990887 1.1852077 0
6.8610005 -3.3092334 1.1848452 0
6.8570004 -3.3188603 1.1843617 0
6.8540006 -3.3289814 1.1839992 0
6.8500004 -3.3385813 1.1835158 0
6.8470006 -3.3486791 1.1831532 0
6.8440003 -3.3587658 1.1827906 0
6.8400006 -3.3683264 1.1823072 0
6.8370004 -3.3783896 1.1819446 0
6.8340006 -3.3884425 1.1815821 0
6.8300004 -3.3979628 1.1810987 0
6.8270006 -3.4079921 1.1807361 0
6.8230004 -3.4174855 1.1802527 0
6.8200002 -3.4274909 1.17989 0
6.8170004 -3.4374859 1.1795275 0
6.8130002 -3.4469395 1.1790441 0
6.8100004 -3.4569111 1.1786816 0
6.8070006 -3.466872 1.178319 0
6.8030005 -3.4762859 1.1778356 0
6.8000002 -3.486223 1.1774729 0
6.7970004 -3.4961495 1.1771104 0
6.7930002 -3.5055237 1.1766269 0
6.7900004 -3.5154269 1.1762644 0
6.7870002 -3.5253186 1.1759019 0
6.7830005 -3.5346534 1.1754184 0
6.7800002 -3.544522 1.1750559 0
6.7770004 -3.5543799 1.1746933 0
6.7740002 -3.5642266 1.1743307 0
6.7700005 -3.5735095 1.1738473 0
6.7670002 -3.5833328 1.1734848 0
6.7640004 -3.5931456 1.1731222 0
6.7600002 -3.6023884 1.1726388 0
6.7570004 -3.6121776 1.1722763 0
6.7540002 -3.6219559 1.1719136 0
6.7510004 -3.6317236 1.1715511 0
6.7470002 -3.640914 1.1710677 0
6.7440004 -3.6506581 1.1707051 0
6.7410002 -3.6603913 1.1703426 0
6.9050002 -3.1789172 1.178429 0
6.9020004 -3.1892009 1.1780719 0
6.8980002 -3.1989882 1.1775956 0
6.8950005 -3.2092485 1.1772385 0
6.8910003 -3.2190087 1.1767622 0
6.8880005 -3.2292454 1.1764052 0
6.8840003 -3.2389786 1.1759288 0
6.8810005 -3.2491918 1.1755718 0
6.8780003 -3.2593942 1.1752145 0
6.8740005 -3.2690878 1.1747384 0
6.8710003 -3.2792666 1.1743813 0
6.8670006 -3.2889335 1.173905 0
6.8640003 -3.2990887 1.1735479 0
6.8610005 -3.3092334 1.1731907 0
6.8570004 -3.3188603 1.1727146 0
6.8540006 -3.3289814 1.1723574 0
6.8500004 -3.3385813 1.1718812 0
6.8470006 -3.3486791 1.171524 0
6.8440003 -3.3587658 1.1711669 0
6.8400006 -3.3683264 1.1706907 0
6.8370004 -3.3783896 1.1703335 0
6.8340006 -3.3884425 1.1699764 0
6.8300004 -3.3979628 1.1695001 0
6.8270006 -3.4079921 1.1691431 0
6.8230004 -3.4174855 1.1686668 0
6.8200002 -3.4274909 1.1683096 0
6.8170004 -3.4374859 1.1679525 0
6.8130002 -3.4469395 1.1674762 0
6.8100004 -3.4569111 1.1671191 0
6.8070006 -3.466872 1.166762 0
6.8030005 -3.4762859 1.1662858 0
6.8000002 -3.486223 1.1659286 0
6.7970004 -3.4961495 1.1655715 0
6.7930002 -3.5055237 1.1650952 0
6.7900004 -3.5154269 1.1647381 0
6.7870002 -3.5253186 1.1643809 0
6.7830005 -3.5346534 1.1639048 0
6.7800002 -3.544522 1.1635476 0
6.7770004 -3.5543799 1.1631905 0
6.7740002 -3.5642266 1.1628332 0
6.7700005 -3.5735095 1.1623571 0
6.7670002 -3.5833328 1.1619999 0
6.7640004 -3.5931456 1.1616428 0
6.7600002 -3.6023884 1.1611665 0
6.7570004 -3.6121776 1.1608094 0
6.7540002 -3.6219559 1.1604522 0
6.7510004 -3.6317236 1.1600951 0
6.7470002 -3.640914 1.1596189 0
6.7440004 -3.6506581 1.1592617 0
6.7410002 -3.6603913 1.1589046 0
6.9050002 -3.1789172 1.1666952 0
6.9020004 -3.1892009 1.1663436 0
6.8980002 -3.1989882 1.1658745 0
6.8950005 -3.2092485 1.1655227 0
6.8910003 -3.2190087 1.1650537 0
6.8880005 -3.2292454 1.1647021 0
6.8840003 -3.2389786 1.1642331 0
6.8810005 -3.2491918 1.1638813 0
6.8780003 -3.2593942 1.1635295 0
6.8740005 -3.2690878 1.1630605 0
6.8710003 -3.2792666 1.1627088 0
6.8670006 -3.2889335 1.1622399 0
6.8640003 -3.2990887 1.161888 0
6.8610005 -3.3092334 1.1615363 0
6.8570004 -3.3188603 1.1610674 0
6.8540006 -3.3289814 1.1607157 0
6.8500004 -3.3385813 1.1602466 0
6.8470006 -3.3486791 1.1598948 0
6.8440003 -3.3587658 1.1595432 0
6.8400006 -3.3683264 1.1590742 0
6.8370004 -3.3783896 1.1587224 0
6.8340006 -3.3884425 1.1583706 0
6.8300004 -3.3979628 1.1579016 0
6.8270006 -3.4079921 1.15755 0
6.8230004 -3.4174855 1.1570809 0
6.8200002 -3.4274909 1.1567292 0
6.8170004 -3.4374859 1.1563774 0
6.8130002 -3.4469395 1.1559085 0
6.8100004 -3.4569111 1.1555567 0
6.8070006 -3.466872 1.155205 0
6.8030005 -3.4762859 1.154736 0
6.8000002 -3.486223 1.1543843 0
6.7970004 -3.4961495 1.1540325 0
6.7930002 -3.5055237 1.1535635 0
6.7900004 -3.5154269 1.1532118 0
6.7870002 -3.5253186 1.1528599 0
6.7830005 -3.5346534 1.1523911 0
6.7800002 -3.544522 1.1520393 0
6.7770004 -3.5543799 1.1516876 0
6.7740002 -3.5642266 1.1513357 0
6.7700005 -3.5735095 1.1508669 0
6.7670002 -3.5833328 1.1505151 0
6.7640004 -3.5931456 1.1501634 0
6.7600002 -3.6023884 1.1496943 0
6.7570004 -3.6121776 1.1493425 0
6.7540002 -3.6219559 1.1489909 0
6.7510004 -3.6317236 1.1486391 0
6.7470002 -3.640914 1.1481701 0
6.7440004 -3.6506581 1.1478183 0
6.7410002 -3.6603913 1.1474667 0
6.9050002 -3.1789172 1.1549615 0
6.9020004 -3.1892009 1.1546152 0
6.8980002 -3.1989882 1.1541533 0
6.8950005 -3.2092485 1.153807 0
6.8910003 -3.2190087 1.1533452 0
6.8880005 -3.2292454 1.1529989 0
6.8840003 -3.2389786 1.1525371 0
6.8810005 -3.2491918 1.1521908 0
6.8780003 -3.2593942 1.1518445 0
6.8740005 -3.2690878 1.1513827 0
6.8710003 -3.2792666 1.1510364 0
6.8670006 -3.2889335 1.1505746 0
6.8640003 -3.2990887 1.1502283 0
6.8610005 -3.3092334 1.149882 0
6.8570004 -3.3188603 1.1494201 0
6.8540006 -3.3289814 1.1490738 0
6.8500004 -3.3385813 1.148612 0
6.8470006 -3.3486791 1.1482657 0
6.8440003 -3.3587658 1.1479194 0
6.8400006 -3.3683264 1.1474576 0
6.8370004 -3.3783896 1.1471113 0
6.8340006 -3.3884425 1.146765 0
6.8300004 -3.3979628 1.1463032 0
6.8270006 -3.4079921 1.1459569 0
6.8230004 -3.4174855 1.1454951 0
6.8200002 -3.4274909 1.1451488 0
6.8170004 -3.4374859 1.1448025 0
6.8130002 -3.4469395 1.1443406 0
6.8100004 -3.4569111 1.1439943 0
6.8070006 -3.466872 1.143648 0
6.8030005 -3.4762859 1.1431862 0
6.8000002 -3.486223 1.1428398 0
6.7970004 -3.4961495 1.1424935 0
6.7930002 -3.5055237 1.1420318 0
6.7900004 -3.5154269 1.1416855 0
6.7870002 -3.5253186 1.1413391 0
6.7830005 -3.5346534 1.1408774 0
6.7800002 -3.544522 1.1405309 0
6.7770004 -3.5543799 1.1401846 0
6.7740002 -3.5642266 1.1398383 0
6.7700005 -3.5735095 1.1393765 0
6.7670002 -3.5833328 1.1390302 0
6.7640004 -3.5931456 1.1386839 0
6.7600002 -3.6023884 1.1382221 0
6.7570004 -3.6121776 1.1378758 0
6.7540002 -3.6219559 1.1375294 0
6.7510004 -3.6317236 1.1371831 0
6.7470002 -3.640914 1.1367214 0
6.7440004 -3.6506581 1.1363751 0
6.7410002 -3.6603913 1.1360286 0
6.9050002 -3.1789172 1.1432277 0
6.9020004 -3.1892009 1.1428868 0
6.8980002 -3.1989882 1.1424322 0
6.8950005 -3.2092485 1.1420913 0
6.8910003 -3.2190087 1.1416367 0
6.8880005 -3.2292454 1.1412958 0
6.8840003 -3.2389786 1.1408412 0
6.8810005 -3.2491918 1.1405003 0
6.8780003 -3.2593942 1.1401594 0
6.8740005 -3.2690878 1.1397048 0
6.8710003 -3.2792666 1.1393639 0
6.8670006 -3.2889335 1.1389093 0
6.8640003 -3.2990887 1.1385684 0
6.8610005 -3.3092334 1.1382276 0
6.8570004 -3.3188603 1.1377729 0
6.8540006 -3.3289814 1.1374321 0
6.8500004 -3.3385813 1.1369774 0
6.8470006 -3.3486791 1.1366366 0
6.8440003 -3.3587658 1.1362957 0
6.8400006 -3.3683264 1.1358411 0
6.8370004 -3.3783896 1.1355002 0
6.8340006 -3.3884425 1.1351593 0
6.8300004 -3.3979628 1.1347047 0
6.8270006 -3.4079921 1.1343638 0
6.8230004 -3.4174855 1.1339092 0
6.8200002 -3.4274909 1.1335683 0
6.8170004 -3.4374859 1.1332273 0
6.8130002 -3.4469395 1.1327728 0
6.8100004 -3.4569111 1.1324319 0
6.8070006 -3.466872 1.1320909 0
6.8030005 -3.4762859 1.1316364 0
6.8000002 -3.486223 1.1312954 0
6.7970004 -3.4961495 1.1309546 0
6.7930002 -3.5055237 1.1305 0
6.7900004 -3.5154269 1.130159 0
6.7870002 -3.5253186 1.1298182 0
6.7830005 -3.5346534 1.1293637 0
6.7800002 -3.544522 1.1290227 0
6.7770004 -3.5543799 1.1286818 0
6.7740002 -3.5642266 1.1283408 0
6.7700005 -3.5735095 1.1278863 0
6.7670002 -3.5833328 1.1275454 0
6.7640004 -3.5931456 1.1272044 0
6.7600002 -3.6023884 1.1267499 0
6.7570004 -3.6121776 1.1264089 0
6.7540002 -3.6219559 1.126068 0
6.7510004 -3.6317236 1.1257271 0
6.7470002 -3.640914 1.1252726 0
6.7440004 -3.6506581 1.1249317 0
6.7410002 -3.6603913 1.1245908 0
6.9050002 -3.1789172 1.1314939 0
6.9020004 -3.1892009 1.1311585 0
6.8980002 -3.1989882 1.1307111 0
6.8950005 -3.2092485 1.1303756 0
6.8910003 -3.2190087 1.1299282 0
6.8880005 -3.2292454 1.1295927 0
6.8840003 -3.2389786 1.1291454 0
6.8810005 -3.2491918 1.1288098 0
6.8780003 -3.2593942 1.1284744 0
6.8740005 -3.2690878 1.128027 0
6.8710003 -3.2792666 1.1276915 0
6.8670006 -3.2889335 1.1272442 0
6.8640003 -3.2990887 1.1269087 0
6.8610005 -3.3092334 1.1265732 0
6.8570004 -3.3188603 1.1261258 0
6.8540006 -3.3289814 1.1257904 0
6.8500004 -3.3385813 1.125343 0
6.8470006 -3.3486791 1.1250074 0
6.8440003 -3.3587658 1.1246719 0
6.8400006 -3.3683264 1.1242245 0
6.8370004 -3.3783896 1.1238891 0
6.8340006 -3.3884425 1.1235535 0
6.8300004 -3.3979628 1.1231062 0
6.8270006 -3.4079921 1.1227707 0
6.8230004 -3.4174855 1.1223234 0
6.8200002 -3.4274909 1.1219878 0
6.8170004 -3.4374859 1.1216524 0
6.8130002 -3.4469395 1.121205 0
6.8100004 -3.4569111 1.1208695 0
6.8070006 -3.466872 1.1205341 0
6.8030005 -3.4762859 1.1200867 0
6.8000002 -3.486223 1.1197511 0
6.7970004 -3.4961495 1.1194156 0
6.7930002 -3.5055237 1.1189682 0
6.7900004 -3.5154269 1.1186328 0
6.7870002 -3.5253186 1.1182972 0
6.7830005 -3.5346534 1.1178499 0
6.7800002 -3.544522 1.1175144 0
6.7770004 -3.5543799 1.1171789 0
6.7740002 -3.5642266 1.1168433 0
6.7700005 -3.5735095 1.1163961 0
6.7670002 -3.5833328 1.1160605 0
6.7640004 -3.5931456 1.115725 0
6.7600002 -3.6023884 1.1152776 0
6.7570004 -3.6121776 1.1149422 0
6.7540002 -3.6219559 1.1146066 0
6.7510004 -3.6317236 1.1142712 0
6.7470002 -3.640914 1.1138238 0
6.7440004 -3.6506581 1.1134883 0
6.7410002 -3.6603913 1.1131527 0
6.9050002 -3.1789172 1.11976 0
6.9020004 -3.1892009 1.1194301 0
6.8980002 -3.1989882 1.1189899 0
6.8950005 -3.2092485 1.1186599 0
6.8910003 -3.2190087 1.1182197 0
6.8880005 -3.2292454 1.1178896 0
6.8840003 -3.2389786 1.1174494 0
6.8810005 -3.2491918 1.1171194 0
6.8780003 -3.2593942 1.1167892 0
6.8740005 -3.2690878 1.1163492 0
6.8710003 -3.2792666 1.116019 0
6.8670006 -3.2889335 1.1155789 0
6.8640003 -3.2990887 1.1152488 0
6.8610005 -3.3092334 1.1149187 0
6.8570004 -3.3188603 1.1144786 0
6.8540006 -3.3289814 1.1141485 0
6.8500004 -3.3385813 1.1137084 0
6.8470006 -3.3486791 1.1133783 0
6.8440003 -3.3587658 1.1130482 0
6.8400006 -3.3683264 1.1126081 0
6.8370004 -3.3783896 1.112278 0
6.8340006 -3.3884425 1.1119479 0
6.8300004 -3.3979628 1.1115077 0
6.8270006 -3.4079921 1.1111777 0
6.8230004 -3.4174855 1.1107374 0
6.8200002 -3.4274909 1.1104074 0
6.8170004 -3.4374859 1.1100773 0
6.8130002 -3.4469395 1.1096371 0
6.8100004 -3.4569111 1.1093071 0
6.8070006 -3.466872 1.108977 0
6.8030005 -3.4762859 1.1085368 0
6.8000002 -3.486223 1.1082067 0
6.7970004 -3.4961495 1.1078767 0
6.7930002 -3.5055237 1.1074365 0
6.7900004 -3.5154269 1.1071064 0
6.7870002 -3.5253186 1.1067762 0
6.7830005 -3.5346534 1.1063362 0
6.7800002 -3.544522 1.106006 0
6.7770004 -3.5543799 1.1056759 0
6.7740002 -3.5642266 1.1053458 0
6.7700005 -3.5735095 1.1049057 0
6.7670002 -3.5833328 1.1045756 0
6.7640004 -3.5931456 1.1042455 0
6.7600002 -3.6023884 1.1038054 0
6.7570004 -3.6121776 1.1034753 0
6.7540002 -3.6219559 1.1031452 0
6.7510004 -3.6317236 1.1028152 0
6.7470002 -3.640914 1.102375 0
6.7440004 -3.6506581 1.1020449 0
6.7410002 -3.6603913 1.1017148 0
6.9050002 -3.1789172 1.1080264 0
6.9020004 -3.1892009 1.1077017 0
6.8980002 -3.1989882 1.1072687 0
6.8950005 -3.2092485 1.1069441 0
6.8910003 -3.2190087 1.1065111 0
6.8880005 -3.2292454 1.1061865 0
6.8840003 -3.2389786 1.1057535 0
6.8810005 -3.2491918 1.1054289 0
6.8780003 -3.2593942 1.1051042 0
6.8740005 -3.2690878 1.1046714 0
6.8710003 -3.2792666 1.1043466 0
6.8670006 -3.2889335 1.1039137 0
6.8640003 -3.2990887 1.1035891 0
6.8610005 -3.3092334 1.1032643 0
6.8570004 -3.3188603 1.1028314 0
6.8540006 -3.3289814 1.1025068 0
6.8500004 -3.3385813 1.1020738 0
6.8470006 -3.3486791 1.1017492 0
6.8440003 -3.3587658 1.1014245 0
6.8400006 -3.3683264 1.1009915 0
6.8370004 -3.3783896 1.1006669 0
6.8340006 -3.3884425 1.1003422 0
6.8300004 -3.3979628 1.0999092 0
6.8270006 -3.4079921 1.0995846 0
6.8230004 -3.4174855 1.0991516 0
6.8200002 -3.4274909 1.0988269 0
6.8170004 -3.4374859 1.0985023 0
6.8130002 -3.4469395 1.0980693 0
6.8100004 -3.4569111 1.0977446 0
6.8070006 -3.466872 1.09742 0
6.8030005 -3.4762859 1.0969871 0
6.8000002 -3.486223 1.0966624 0
6.7970004 -3.4961495 1.0963377 0
6.7930002 -3.5055237 1.0959048 0
6.7900004 -3.5154269 1.0955801 0
6.7870002 -3.5253186 1.0952554 0
6.7830005 -3.5346534 1.0948225 0
6.7800002 -3.544522 1.0944978 0
6.7770004 -3.5543799 1.0941732 0
6.7740002 -3.5642266 1.0938483 0
6.7700005 -3.5735095 1.0934155 0
6.7670002 -3.5833328 1.0930909 0
6.7640004 -3.5931456 1.0927662 0
6.7600002 -3.6023884 1.0923332 0
6.7570004 -3.6121776 1.0920086 0
6.7540002 -3.6219559 1.0916839 0
6.7510004 -3.6317236 1.0913591 0
6.7470002 -3.640914 1.0909263 0
6.7440004 -3.6506581 1.0906016 0
6.7410002 -3.6603913 1.0902768 0
6.9050002 -3.1789172 1.0962926 0
6.9020004 -3.1892009 1.0959733 0
6.8980002 -3.1989882 1.0955477 0
6.8950005 -3.2092485 1.0952283 0
6.8910003 -3.2190087 1.0948026 0
6.8880005 -3.2292454 1.0944834 0
6.8840003 -3.2389786 1.0940577 0
6.8810005 -3.2491918 1.0937384 0
6.8780003 -3.2593942 1.0934191 0
6.8740005 -3.2690878 1.0929935 0
6.8710003 -3.2792666 1.0926741 0
6.8670006 -3.2889335 1.0922484 0
6.8640003 -3.2990887 1.0919292 0
6.8610005 -3.3092334 1.09161 0
6.8570004 -3.3188603 1.0911843 0
6.8540006 -3.3289814 1.090865 0
6.8500004 -3.3385813 1.0904392 0
6.8470006 -3.3486791 1.09012 0
6.8440003 -3.3587658 1.0898007 0
6.8400006 -3.3683264 1.089375 0
6.8370004 -3.3783896 1.0890558 0
6.8340006 -3.3884425 1.0887364 0
6.8300004 -3.3979628 1.0883107 0
6.8270006 -3.4079921 1.0879915 0
6.8230004 -3.4174855 1.0875658 0
6.8200002 -3.4274909 1.0872464 0
6.8170004 -3.4374859 1.0869273 0
6.8130002 -3.4469395 1.0865015 0
6.8100004 -3.4569111 1.0861822 0
6.8070006 -3.466872 1.085863 0
6.8030005 -3.4762859 1.0854373 0
6.8000002 -3.486223 1.0851179 0
6.7970004 -3.4961495 1.0847987 0
6.7930002 -3.5055237 1.084373 0
6.7900004 -3.5154269 1.0840538 0
6.7870002 -3.5253186 1.0837345 0
6.7830005 -3.5346534 1.0833088 0
6.7800002 -3.544522 1.0829895 0
6.7770004 -3.5543799 1.0826702 0
6.7740002 -3.5642266 1.082351 0
6.7700005 -3.5735095 1.0819253 0
6.7670002 -3.5833328 1.081606 0
6.7640004 -3.5931456 1.0812867 0
6.7600002 -3.6023884 1.080861 0
6.7570004 -3.6121776 1.0805417 0
6.7540002 -3.6219559 1.0802225 0
6.7510004 -3.6317236 1.0799032 0
6.7470002 -3.640914 1.0794775 0
6.7440004 -3.6506581 1.0791582 0
6.7410002 -3.6603913 1.0788389 0
6.9050002 -3.1789172 1.0845588 0
6.9020004 -3.1892009 1.084245 0
6.8980002 -3.1989882 1.0838264 0
6.8950005 -3.2092485 1.0835127 0
6.8910003 -3.2190087 1.0830941 0
6.8880005 -3.2292454 1.0827802 0
6.8840003 -3.2389786 1.0823618 0
6.8810005 -3.2491918 1.0820479 0
6.8780003 -3.2593942 1.0817341 0
6.8740005 -3.2690878 1.0813156 0
6.8710003 -3.2792666 1.0810018 0
6.8670006 -3.2889335 1.0805832 0
6.8640003 -3.2990887 1.0802693 0
6.8610005 -3.3092334 1.0799556 0
6.8570004 -3.3188603 1.079537 0
6.8540006 -3.3289814 1.0792232 0
6.8500004 -3.3385813 1.0788046 0
6.8470006 -3.3486791 1.0784909 0
6.8440003 -3.3587658 1.078177 0
6.8400006 -3.3683264 1.0777584 0
6.8370004 -3.3783896 1.0774446 0
6.8340006 -3.3884425 1.0771308 0
6.8300004 -3.3979628 1.0767123 0
6.8270006 -3.4079921 1.0763984 0
6.8230004 -3.4174855 1.0759799 0
6.8200002 -3.4274909 1.0756661 0
6.8170004 -3.4374859 1.0753522 0
6.8130002 -3.4469395 1.0749336 0
6.8100004 -3.4569111 1.0746199 0
6.8070006 -3.466872 1.074306 0
6.8030005 -3.4762859 1.0738875 0
6.8000002 -3.486223 1.0735736 0
6.7970004 -3.4961495 1.0732598 0
6.7930002 -3.5055237 1.0728413 0
6.7900004 -3.5154269 1.0725274 0
6.7870002 -3.5253186 1.0722135 0
6.7830005 -3.5346534 1.0717951 0
6.7800002 -3.544522 1.0714812 0
6.7770004 -3.5543799 1.0711673 0
6.7740002 -3.5642266 1.0708535 0
6.7700005 -3.5735095 1.070435 0
6.7670002 -3.5833328 1.0701212 0
6.7640004 -3.5931456 1.0698073 0
6.7600002 -3.6023884 1.0693887 0
6.7570004 -3.6121776 1.069075 0
6.7540002 -3.6219559 1.0687611 0
6.7510004 -3.6317236 1.0684472 0
6.7470002 -3.640914 1.0680287 0
6.7440004 -3.6506581 1.0677149 0
6.7410002 -3.6603913 1.0674011 0
6.9050002 -3.1789172 1.0728251 0
6.9020004 -3.1892009 1.0725166 0
6.8980002 -3.1989882 1.0721053 0
6.8950005 -3.2092485 1.0717969 0
6.8910003 -3.2190087 1.0713856 0
6.8880005 -3.2292454 1.0710771 0
6.8840003 -3.2389786 1.0706658 0
6.8810005 -3.2491918 1.0703574 0
6.8780003 -3.2593942 1.0700489 0
6.8740005 -3.2690878 1.0696378 0
6.8710003 -3.2792666 1.0693293 0
6.8670006 -3.2889335 1.068918 0
6.8640003 -3.2990887 1.0686095 0
6.8610005 -3.3092334 1.0683011 0
6.8570004 -3.3188603 1.0678898 0
6.8540006 -3.3289814 1.0675814 0
6.8500004 -3.3385813 1.0671701 0
6.8470006 -3.3486791 1.0668617 0
6.8440003 -3.3587658 1.0665532 0
6.8400006 -3.3683264 1.066142 0
6.8370004 -3.3783896 1.0658334 0
6.8340006 -3.3884425 1.0655251 0
6.8300004 -3.3979628 1.0651138 0
6.8270006 -3.4079921 1.0648053 0
6.8230004 -3.4174855 1.0643941 0
6.8200002 -3.4274909 1.0640856 0
6.8170004 -3.4374859 1.0637771 0
6.8130002 -3.4469395 1.0633658 0
6.8100004 -3.4569111 1.0630574 0
6.8070006 -3.466872 1.062749 0
6.8030005 -3.4762859 1.0623376 0
6.8000002 -3.486223 1.0620292 0
6.7970004 -3.4961495 1.0617208 0
6.7930002 -3.5055237 1.0613095 0
6.7900004 -3.5154269 1.0610011 0
6.7870002 -3.5253186 1.0606925 0
6.7830005 -3.5346534 1.0602814 0
6.7800002 -3.544522 1.0599729 0
6.7770004 -3.5543799 1.0596645 0
6.7740002 -3.5642266 1.059356 0
6.7700005 -3.5735095 1.0589448 0
6.7670002 -3.5833328 1.0586363 0
6.7640004 -3.5931456 1.0583278 0
6.7600002 -3.6023884 1.0579165 0
6.7570004 -3.6121776 1.0576081 0
6.7540002 -3.6219559 1.0572996 0
6.7510004 -3.6317236 1.0569912 0
6.7470002 -3.640914 1.0565799 0
6.7440004 -3.6506581 1.0562716 0
6.7410002 -3.6603913 1.055963 0
6.9050002 -3.1789172 1.0610912 0
6.9020004 -3.1892009 1.0607883 0
6.8980002 -3.1989882 1.0603842 0
6.8950005 -3.2092485 1.0600811 0
6.8910003 -3.2190087 1.059677 0
6.8880005 -3.2292454 1.0593741 0
6.8840003 -3.2389786 1.05897 0
6.8810005 -3.2491918 1.0586669 0
6.8780003 -3.2593942 1.0583639 0
6.8740005 -3.2690878 1.0579599 0
6.8710003 -3.2792666 1.0576568 0
6.8670006 -3.2889335 1.0572528 0
6.8640003 -3.2990887 1.0569497 0
6.8610005 -3.3092334 1.0566467 0
6.8570004 -3.3188603 1.0562426 0
6.8540006 -3.3289814 1.0559396 0
6.8500004 -3.3385813 1.0555356 0
6.8470006 -3.3486791 1.0552325 0
6.8440003 -3.3587658 1.0549295 0
6.8400006 -3.3683264 1.0545254 0
6.8370004 -3.3783896 1.0542223 0
6.8340006 -3.3884425 1.0539193 0
6.8300004 -3.3979628 1.0535153 0
6.8270006 -3.4079921 1.0532123 0
6.8230004 -3.4174855 1.0528082 0
6.8200002 -3.4274909 1.0525051 0
6.8170004 -3.4374859 1.0522021 0
6.8130002 -3.4469395 1.051798 0
6.8100004 -3.4569111 1.0514951 0
6.8070006 -3.466872 1.051192 0
6.8030005 -3.4762859 1.0507879 0
6.8000002 -3.486223 1.0504849 0
6.7970004 -3.4961495 1.0501819 0
6.7930002 -3.5055237 1.0497777 0
6.7900004 -3.5154269 1.0494747 0
6.7870002 -3.5253186 1.0491717 0
6.7830005 -3.5346534 1.0487677 0
6.7800002 -3.544522 1.0484645 0
6.7770004 -3.5543799 1.0481616 0
6.7740002 -3.5642266 1.0478585 0
6.7700005 -3.5735095 1.0474545 0
6.7670002 -3.5833328 1.0471514 0
6.7640004 -3.5931456 1.0468484 0
6.7600002 -3.6023884 1.0464443 0
6.7570004 -3.6121776 1.0461413 0
6.7540002 -3.6219559 1.0458382 0
6.7510004 -3.6317236 1.0455352 0
6.7470002 -3.640914 1.0451312 0
6.7440004 -3.6506581 1.0448282 0
6.7410002 -3.6603913 1.044525 0
6.9050002 -3.1789172 1.0493574 0
6.9020004 -3.1892009 1.0490599 0
6.8980002 -3.1989882 1.048663 0
6.8950005 -3.2092485 1.0483654 0
6.8910003 -3.2190087 1.0479685 0
6.8880005 -3.2292454 1.047671 0
6.8840003 -3.2389786 1.0472741 0
6.8810005 -3.2491918 1.0469764 0
6.8780003 -3.2593942 1.0466788 0
6.8740005 -3.2690878 1.0462821 0
6.8710003 -3.2792666 1.0459844 0
6.8670006 -3.2889335 1.0455875 0
6.8640003 -3.2990887 1.0452899 0
6.8610005 -3.3092334 1.0449923 0
6.8570004 -3.3188603 1.0445955 0
6.8540006 -3.3289814 1.0442978 0
6.8500004 -3.3385813 1.043901 0
6.8470006 -3.3486791 1.0436034 0
6.8440003 -3.3587658 1.0433058 0
6.8400006 -3.3683264 1.0429089 0
6.8370004 -3.3783896 1.0426112 0
6.8340006 -3.3884425 1.0423137 0
6.8300004 -3.3979628 1.0419168 0
6.8270006 -3.4079921 1.0416192 0
6.8230004 -3.4174855 1.0412223 0
6.8200002 -3.4274909 1.0409247 0
6.8170004 -3.4374859 1.0406271 0
6.8130002 -3.4469395 1.0402302 0
6.8100004 -3.4569111 1.0399326 0
6.8070006 -3.466872 1.0396351 0
6.8030005 -3.4762859 1.0392381 0
6.8000002 -3.486223 1.0389404 0
6.7970004 -3.4961495 1.0386429 0
6.7930002 -3.5055237 1.038246 0
6.7900004 -3.5154269 1.0379484 0
6.7870002 -3.5253186 1.0376508 0
6.7830005 -3.5346534 1.037254 0
6.7800002 -3.544522 1.0369563 0
6.7770004 -3.5543799 1.0366586 0
6.7740002 -3.5642266 1.0363611 0
6.7700005 -3.5735095 1.0359643 0
6.7670002 -3.5833328 1.0356666 0
6.7640004 -3.5931456 1.0353689 0
6.7600002 -3.6023884 1.0349722 0
6.7570004 -3.6121776 1.0346745 0
6.7540002 -3.6219559 1.0343769 0
6.7510004 -3.6317236 1.0340793 0
6.7470002 -3.640914 1.0336825 0
6.7440004 -3.6506581 1.0333848 0
6.7410002 -3.6603913 1.0330871 0
6.9050002 -3.1789172 1.0376238 0
6.9020004 -3.1892009 1.0373316 0
6.8980002 -3.1989882 1.0369419 0
6.8950005 -3.2092485 1.0366497 0
6.8910003 -3.2190087 1.03626 0
6.8880005 -3.2292454 1.0359678 0
6.8840003 -3.2389786 1.0355783 0
6.8810005 -3.2491918 1.0352861 0
6.8780003 -3.2593942 1.0349938 0
6.8740005 -3.2690878 1.0346042 0
6.8710003 -3.2792666 1.0343119 0
6.8670006 -3.2889335 1.0339223 0
6.8640003 -3.2990887 1.03363 0
6.8610005 -3.3092334 1.0333378 0
6.8570004 -3.3188603 1.0329483 0
6.8540006 -3.3289814 1.0326561 0
6.8500004 -3.3385813 1.0322664 0
6.8470006 -3.3486791 1.0319742 0
6.8440003 -3.3587658 1.031682 0
6.8400006 -3.3683264 1.0312924 0
6.8370004 -3.3783896 1.0310001 0
6.8340006 -3.3884425 1.030708 0
6.8300004 -3.3979628 1.0303184 0
6.8270006 -3.4079921 1.0300261 0
6.8230004 -3.4174855 1.0296365 0
6.8200002 -3.4274909 1.0293442 0
6.8170004 -3.4374859 1.029052 0
6.8130002 -3.4469395 1.0286624 0
6.8100004 -3.4569111 1.0283701 0
6.8070006 -3.466872 1.028078 0
6.8030005 -3.4762859 1.0276884 0
6.8000002 -3.486223 1.0273961 0
6.7970004 -3.4961495 1.0271039 0
6.7930002 -3.5055237 1.0267143 0
6.7900004 -3.5154269 1.0264221 0
6.7870002 -3.5253186 1.0261298 0
6.7830005 -3.5346534 1.0257403 0
6.7800002 -3.544522 1.0254481 0
6.7770004 -3.5543799 1.0251558 0
6.7740002 -3.5642266 1.0248636 0
6.7700005 -3.5735095 1.0244739 0
6.7670002 -3.5833328 1.0241817 0
6.7640004 -3.5931456 1.0238895 0
6.7600002 -3.6023884 1.0234998 0
6.7570004 -3.6121776 1.0232077 0
6.7540002 -3.6219559 1.0229155 0
6.7510004 -3.6317236 1.0226233 0
6.7470002 -3.640914 1.0222336 0
6.7440004 -3.6506581 1.0219414 0
6.9050002 -3.1789172 1.02589 0
6.9020004 -3.1892009 1.0256032 0
6.8980002 -3.1989882 1.0252208 0
6.8950005 -3.2092485 1.0249339 0
6.8910003 -3.2190087 1.0245515 0
6.8880005 -3.2292454 1.0242647 0
6.8840003 -3.2389786 1.0238823 0
6.8810005 -3.2491918 1.0235955 0
6.8780003 -3.2593942 1.0233088 0
6.8740005 -3.2690878 1.0229263 0
6.8710003 -3.2792666 1.0226395 0
6.8670006 -3.2889335 1.0222571 0
6.8640003 -3.2990887 1.0219703 0
6.8610005 -3.3092334 1.0216835 0
6.8570004 -3.3188603 1.021301 0
6.8540006 -3.3289814 1.0210142 0
6.8500004 -3.3385813 1.0206318 0
6.8470006 -3.3486791 1.0203451 0
6.8440003 -3.3587658 1.0200583 0
6.8400006 -3.3683264 1.0196759 0
6.8370004 -3.3783896 1.019389 0
6.8340006 -3.3884425 1.0191022 0
6.8300004 -3.3979628 1.0187198 0
6.8270006 -3.4079921 1.0184331 0
6.8230004 -3.4174855 1.0180506 0
6.8200002 -3.4274909 1.0177637 0
6.8170004 -3.4374859 1.017477 0
6.8130002 -3.4469395 1.0170946 0
6.8100004 -3.4569111 1.0168078 0
6.8070006 -3.466872 1.016521 0
6.8030005 -3.4762859 1.0161386 0
6.8000002 -3.486223 1.0158517 0
6.7970004 -3.4961495 1.0155649 0
6.7930002 -3.5055237 1.0151825 0
6.7900004 -3.5154269 1.0148958 0
6.7870002 -3.5253186 1.014609 0
6.7830005 -3.5346534 1.0142266 0
6.7800002 -3.544522 1.0139397 0
6.7770004 -3.5543799 1.0136529 0
6.7740002 -3.5642266 1.0133661 0
6.7700005 -3.5735095 1.0129837 0
6.7670002 -3.5833328 1.0126969 0
6.7640004 -3.5931456 1.0124102 0
6.7600002 -3.6023884 1.0120277 0
6.7570004 -3.6121776 1.0117409 0
6.7540002 -3.6219559 1.011454 0
6.7510004 -3.6317236 1.0111673 0
6.7470002 -3.640914 1.0107849 0
6.7440004 -3.6506581 1.010498 0
6.9050002 -3.1789172 1.0141562 0
6.9020004 -3.1892009 1.0138748 0
6.8980002 -3.1989882 1.0134996 0
6.8950005 -3.2092485 1.0132182 0
6.8910003 -3.2190087 1.012843 0
6.8880005 -3.2292454 1.0125616 0
6.8840003 -3.2389786 1.0121864 0
6.8810005 -3.2491918 1.0119051 0
6.8780003 -3.2593942 1.0116236 0
6.8740005 -3.2690878 1.0112485 0
6.8710003 -3.2792666 1.010967 0
6.8670006 -3.2889335 1.0105919 0
6.8640003 -3.2990887 1.0103105 0
6.8610005 -3.3092334 1.0100291 0
6.8570004 -3.3188603 1.0096539 0
6.8540006 -3.3289814 1.0093725 0
6.8500004 -3.3385813 1.0089973 0
6.8470006 -3.3486791 1.0087159 0
6.8440003 -3.3587658 1.0084345 0
6.8400006 -3.3683264 1.0080594 0
6.8370004 -3.3783896 1.0077779 0
6.8340006 -3.3884425 1.0074966 0
6.8300004 -3.3979628 1.0071213 0
6.8270006 -3.4079921 1.00684 0
6.8230004 -3.4174855 1.0064647 0
6.8200002 -3.4274909 1.0061833 0
6.8170004 -3.4374859 1.0059019 0
6.8130002 -3.4469395 1.0055268 0
6.8100004 -3.4569111 1.0052453 0
6.8070006 -3.466872 1.004964 0
6.8030005 -3.4762859 1.0045888 0
6.8000002 -3.486223 1.0043074 0
6.7970004 -3.4961495 1.0040259 0
6.7930002 -3.5055237 1.0036508 0
6.7900004 -3.5154269 1.0033695 0
6.7870002 -3.5253186 1.003088 0
6.7830005 -3.5346534 1.0027128 0
6.7800002 -3.544522 1.0024314 0
6.7770004 -3.5543799 1.0021501 0
6.7740002 -3.5642266 1.0018686 0
6.7700005 -3.5735095 1.0014935 0
6.7670002 -3.5833328 1.001212 0
6.7640004 -3.5931456 1.0009307 0
6.7600002 -3.6023884 1.0005554 0
6.7570004 -3.6121776 1.0002741 0
6.7540002 -3.6219559 0.99999273 0
6.7510004 -3.6317236 0.99971128 0
6.7470002 -3.640914 0.99933612 0
6.9050002 -3.1789172 1.0024225 0
6.9020004 -3.1892009 1.0021465 0
6.8980002 -3.1989882 1.0017785 0
6.8950005 -3.2092485 1.0015025 0
6.8910003 -3.2190087 1.0011345 0
6.8880005 -3.2292454 1.0008585 0
6.8840003 -3.2389786 1.0004905 0
6.8810005 -3.2491918 1.0002146 0
6.8780003 -3.2593942 0.99993861 0
6.8740005 -3.2690878 0.99957061 0
6.8710003 -3.2792666 0.99929452 0
6.8670006 -3.2889335 0.99892664 0
6.8640003 -3.2990887 0.99865067 0
6.8610005 -3.3092334 0.9983747 0
6.8570004 -3.3188603 0.9980067 0
6.8540006 -3.3289814 0.99773073 0
6.8500004 -3.3385813 0.99736273 0
6.8470006 -3.3486791 0.99708676 0
6.8440003 -3.3587658 0.99681079 0
6.8400006 -3.3683264 0.99644279 0
6.8370004 -3.3783896 0.99616683 0
6.8340006 -3.3884425 0.99589086 0
6.8300004 -3.3979628 0.99552286 0
6.8270006 -3.4079921 0.99524689 0
6.8230004 -3.4174855 0.99487889 0
6.8200002 -3.4274909 0.99460292 0
6.8170004 -3.4374859 0.99432695 0
6.8130002 -3.4469395 0.99395895 0
6.8100004 -3.4569111 0.99368298 0
6.8070006 -3.466872 0.99340701 0
6.8030005 -3.4762859 0.99303901 0
6.8000002 -3.486223 0.99276292 0
6.7970004 -3.4961495 0.99248707 0
6.7930002 -3.5055237 0.99211907 0
6.7900004 -3.5154269 0.9918431 0
6.7870002 -3.5253186 0.99156702 0
6.7830005 -3.5346534 0.99119914 0
6.7800002 -3.544522 0.99092317 0
6.7770004 -3.5543799 0.9906472 0
6.7740002 -3.5642266 0.99037111 0
6.7700005 -3.5735095 0.99000323 0
6.7670002 -3.5833328 0.98972726 0
6.7640004 -3.5931456 0.98945129 0
6.7600002 -3.6023884 0.98908329 0
6.7570004 -3.6121776 0.98880732 0
6.7540002 -3.6219559 0.98853123 0
6.9050002 -3.1789172 0.99068856 0
6.9020004 -3.1892009 0.99041808 0
6.8980002 -3.1989882 0.99005723 0
6.8950005 -3.2092485 0.98978674 0
6.8910003 -3.2190087 0.98942602 0
6.8880005 -3.2292454 0.98915541 0
6.8840003 -3.2389786 0.98879468 0
6.8810005 -3.2491918 0.98852408 0
6.8780003 -3.2593942 0.98825347 0
6.8740005 -3.2690878 0.98789275 0
6.8710003 -3.2792666 0.98762214 0
6.8670006 -3.2889335 0.98726141 0
6.8640003 -3.2990887 0.98699081 0
6.8610005 -3.3092334 0.98672032 0
6.8570004 -3.3188603 0.98635948 0
6.8540006 -3.3289814 0.98608887 0
6.8500004 -3.3385813 0.98572814 0
6.8470006 -3.3486791 0.98545766 0
6.8440003 -3.3587658 0.98518705 0
6.8400006 -3.3683264 0.98482633 0
6.8370004 -3.3783896 0.98455572 0
6.8340006 -3.3884425 0.98428512 0
6.8300004 -3.3979628 0.98392439 0
6.8270006 -3.4079921 0.98365378 0
6.8230004 -3.4174855 0.98329306 0
6.8200002 -3.4274909 0.98302245 0
6.8170004 -3.4374859 0.98275185 0
6.8130002 -3.4469395 0.98239112 0
6.8100004 -3.4569111 0.98212063 0
6.8070006 -3.466872 0.98185003 0
6.8030005 -3.4762859 0.98148918 0
6.8000002 -3.486223 0.98121858 0
6.7970004 -3.4961495 0.98094809 0
6.7930002 -3.5055237 0.98058724 0
6.7900004 -3.5154269 0.98031676 0
6.7870002 -3.5253186 0.98004615 0
6.7830005 -3.5346534 0.97968543 0
6.7800002 -3.544522 0.97941482 0
6.7770004 -3.5543799 0.97914422 0
6.7740002 -3.5642266 0.97887373 0
6.7700005 -3.5735095 0.978513 0
6.7670002 -3.5833328 0.9782424 0
6.7640004 -3.5931456 0.97797179 0
6.7600002 -3.6023884 0.97761095 0
6.9050002 -3.1789172 0.97895479 0
6.9020004 -3.1892009 0.97868967 0
6.8980002 -3.1989882 0.9783361 0
6.8950005 -3.2092485 0.97807097 0
6.8910003 -3.2190087 0.97771752 0
6.8880005 -3.2292454 0.97745228 0
6.8840003 -3.2389786 0.9770987 0
6.8810005 -3.2491918 0.97683358 0
6.8780003 -3.2593942 0.97656834 0
6.8740005 -3.2690878 0.97621489 0
6.8710003 -3.2792666 0.97594976 0
6.8670006 -3.2889335 0.97559619 0
6.8640003 -3.2990887 0.97533107 0
6.8610005 -3.3092334 0.97506583 0
6.8570004 -3.3188603 0.97471225 0
6.8540006 -3.3289814 0.97444713 0
6.8500004 -3.3385813 0.97409356 0
6.8470006 -3.3486791 0.97382843 0
6.8440003 -3.3587658 0.97356331 0
6.8400006 -3.3683264 0.97320974 0
6.8370004 -3.3783896 0.97294462 0
6.8340006 -3.3884425 0.97267938 0
6.8300004 -3.3979628 0.9723258 0
6.8270006 -3.4079921 0.9720608 0
6.8230004 -3.4174855 0.97170722 0
6.8200002 -3.4274909 0.97144198 0
6.8170004 -3.4374859 0.97117686 0
6.8130002 -3.4469395 0.97082329 0
6.8100004 -3.4569111 0.97055817 0
6.8070006 -3.466872 0.97029305 0
6.8030005 -3.4762859 0.96993947 0
6.8000002 -3.486223 0.96967423 0
6.7970004 -3.4961495 0.96940911 0
6.7930002 -3.5055237 0.96905553 0
6.7900004 -3.5154269 0.96879041 0
6.7870002 -3.5253186 0.96852529 0
6.7830005 -3.5346534 0.96817172 0
6.7800002 -3.544522 0.96790648 0
6.7770004 -3.5543799 0.96764135 0
6.7740002 -3.5642266 0.96737623 0
6.7700005 -3.5735095 0.96702266 0
6.7670002 -3.5833328 0.96675754 0
6.9050002 -3.1789172 0.96722102 0
6.9020004 -3.1892009 0.96696138 0
6.8980002 -3.1989882 0.96661496 0
6.8950005 -3.2092485 0.9663552 0
6.8910003 -3.2190087 0.9660089 0
6.8880005 -3.2292454 0.96574914 0
6.8840003 -3.2389786 0.96540284 0
6.8810005 -3.2491918 0.96514308 0
6.8780003 -3.2593942 0.96488333 0
6.8740005 -3.2690878 0.96453702 0
6.8710003 -3.2792666 0.96427727 0
6.8670006 -3.2889335 0.96393096 0
6.8640003 -3.2990887 0.96367121 0
6.8610005 -3.3092334 0.96341145 0
6.8570004 -3.3188603 0.96306515 0
6.8540006 -3.3289814 0.96280539 0
6.8500004 -3.3385813 0.96245897 0
6.8470006 -3.3486791 0.96219933 0
6.8440003 -3.3587658 0.96193957 0
6.8400006 -3.3683264 0.96159327 0
6.8370004 -3.3783896 0.96133351 0
6.8340006 -3.3884425 0.96107376 0
6.8300004 -3.3979628 0.96072733 0
6.8270006 -3.4079921 0.9604677 0
6.8230004 -3.4174855 0.96012127 0
6.8200002 -3.4274909 0.95986152 0
6.8170004 -3.4374859 0.95960188 0
6.8130002 -3.4469395 0.95925546 0
6.8100004 -3.4569111 0.9589957 0
6.8070006 -3.466872 0.95873594 0
6.8030005 -3.4762859 0.95838964 0
6.8000002 -3.486223 0.95812988 0
6.7970004 -3.4961495 0.95787013 0
6.7930002 -3.5055237 0.95752382 0
6.7900004 -3.5154269 0.95726407 0
6.7870002 -3.5253186 0.95700431 0
6.7830005 -3.5346534 0.95665801 0
6.7800002 -3.544522 0.95639825 0
6.7770004 -3.5543799 0.95613849 0
6.7740002 -3.5642266 0.95587873 0
6.9050002 -3.1789172 0.95548737 0
6.9020004 -3.1892009 0.95523298 0
6.8980002 -3.1989882 0.95489383 0
6.8950005 -3.2092485 0.95463955 0
6.8910003 -3.2190087 0.9543004 0
6.8880005 -3.2292454 0.95404601 0
6.8840003 -3.2389786 0.95370698 0
6.8810005 -3.2491918 0.95345271 0
6.8780003 -3.2593942 0.95319831 0
6.8740005 -3.2690878 0.95285916 0
6.8710003 -3.2792666 0.95260489 0
6.8670006 -3.2889335 0.95226574 0
6.8640003 -3.2990887 0.95201135 0
6.8610005 -3.3092334 0.95175707 0
6.8570004 -3.3188603 0.95141792 0
6.8540006 -3.3289814 0.95116365 0
6.8500004 -3.3385813 0.9508245 0
6.8470006 -3.3486791 0.95057023 0
6.8440003 -3.3587658 0.95031583 0
6.8400006 -3.3683264 0.94997668 0
6.8370004 -3.3783896 0.94972229 0
6.8340006 -3.3884425 0.94946802 0
6.8300004 -3.3979628 0.94912887 0
6.8270006 -3.4079921 0.94887459 0
6.8230004 -3.4174855 0.94853544 0
6.8200002 -3.4274909 0.94828105 0
6.8170004 -3.4374859 0.94802678 0
6.8130002 -3.4469395 0.94768763 0
6.8100004 -3.4569111 0.94743335 0
6.8070006 -3.466872 0.94717896 0
6.8030005 -3.4762859 0.94683981 0
6.8000002 -3.486223 0.94658554 0
6.7970004 -3.4961495 0.94633126 0
6.7930002 -3.5055237 0.94599211 0
6.7900004 -3.5154269 0.94573772 0
6.7870002 -3.5253186 0.94548333 0
6.7830005 -3.5346534 0.9451443 0
6.7800002 -3.544522 0.9448899 0
6.9050002 -3.1789172 0.9437536 0
6.9020004 -3.1892009 0.94350457 0
6.8980002 -3.1989882 0.94317269 0
6.8950005 -3.2092485 0.94292378 0
6.8910003 -3.2190087 0.94259191 0
6.8880005 -3.2292454 0.942343 0
6.8840003 -3.2389786 0.94201112 0
6.8810005 -3.2491918 0.94176209 0
6.8780003 -3.2593942 0.94151318 0
6.8740005 -3.2690878 0.9411813 0
6.8710003 -3.2792666 0.94093239 0
6.8670006 -3.2889335 0.94060051 0
6.8640003 -3.2990887 0.94035161 0
6.8610005 -3.3092334 0.9401027 0
6.8570004 -3.3188603 0.9397707 0
6.8540006 -3.3289814 0.93952191 0
6.8500004 -3.3385813 0.93918991 0
6.8470006 -3.3486791 0.938941 0
6.8440003 -3.3587658 0.93869209 0
6.8400006 -3.3683264 0.93836021 0
6.8370004 -3.3783896 0.93811131 0
6.8340006 -3.3884425 0.93786228 0
6.8300004 -3.3979628 0.9375304 0
6.8270006 -3.4079921 0.93728149 0
6.8230004 -3.4174855 0.93694961 0
6.8200002 -3.4274909 0.9367007 0
6.8170004 -3.4374859 0.93645167 0
6.8130002 -3.4469395 0.93611979 0
6.8100004 -3.4569111 0.93587089 0
6.8070006 -3.466872 0.93562198 0
6.8030005 -3.4762859 0.9352901 0
6.8000002 -3.486223 0.93504107 0
6.7970004 -3.4961495 0.93479228 0
6.7930002 -3.5055237 0.93446028 0
6.7900004 -3.5154269 0.93421137 0
6.7870002 -3.5253186 0.93396246 0
6.9050002 -3.1789172 0.93201971 0
6.9020004 -3.1892009 0.93177629 0
6.8980002 -3.1989882 0.93145156 0
6.8950005 -3.2092485 0.93120813 0
6.8910003 -3.2190087 0.93088341 0
6.8880005 -3.2292454 0.93063986 0
6.8840003 -3.2389786 0.93031514 0
6.8810005 -3.2491918 0.93007171 0
6.8780003 -3.2593942 0.92982817 0
6.8740005 -3.2690878 0.92950344 0
6.8710003 -3.2792666 0.9292599 0
6.8670006 -3.2889335 0.92893529 0
6.8640003 -3.2990887 0.92869174 0
6.8610005 -3.3092334 0.92844832 0
6.8570004 -3.3188603 0.92812347 0
6.8540006 -3.3289814 0.92788005 0
6.8500004 -3.3385813 0.92755532 0
6.8470006 -3.3486791 0.9273119 0
6.8440003 -3.3587658 0.92706835 0
6.8400006 -3.3683264 0.92674363 0
6.8370004 -3.3783896 0.92650008 0
6.8340006 -3.3884425 0.92625666 0
6.8300004 -3.3979628 0.92593193 0
6.8270006 -3.4079921 0.92568839 0
6.8230004 -3.4174855 0.92536366 0
6.8200002 -3.4274909 0.92512023 0
6.8170004 -3.4374859 0.92487669 0
6.8130002 -3.4469395 0.92455196 0
6.8100004 -3.4569111 0.92430854 0
6.8070006 -3.466872 0.92406499 0
6.8030005 -3.4762859 0.92374027 0
6.8000002 -3.486223 0.92349672 0
6.7970004 -3.4961495 0.9232533 0
6.7930002 -3.5055237 0.92292857 0
6.7900004 -3.5154269 0.92268503 0
6.9050002 -3.1789172 0.92028594 0
6.9020004 -3.1892009 0.92004788 0
6.8980002 -3.1989882 0.91973042 0
6.8950005 -3.2092485 0.91949236 0
6.8910003 -3.2190087 0.91917479 0
6.8880005 -3.2292454 0.91893673 0
6.8840003 -3.2389786 0.91861928 0
6.8810005 -3.2491918 0.91838121 0
6.8780003 -3.2593942 0.91814303 0
6.8740005 -3.2690878 0.91782558 0
6.8710003 -3.2792666 0.91758752 0
6.8670006 -3.2889335 0.91727006 0
6.8640003 -3.2990887 0.91703188 0
6.8610005 -3.3092334 0.91679382 0
6.8570004 -3.3188603 0.91647637 0
6.8540006 -3.3289814 0.91623831 0
6.8500004 -3.3385813 0.91592085 0
6.8470006 -3.3486791 0.91568267 0
6.8440003 -3.3587658 0.91544461 0
6.8400006 -3.3683264 0.91512716 0
6.8370004 -3.3783896 0.91488898 0
6.8340006 -3.3884425 0.91465092 0
6.8300004 -3.3979628 0.91433346 0
6.8270006 -3.4079921 0.9140954 0
6.8230004 -3.4174855 0.91377783 0
6.8200002 -3.4274909 0.91353977 0
6.8170004 -3.4374859 0.91330171 0
6.8130002 -3.4469395 0.91298413 0
6.8100004 -3.4569111 0.91274607 0
6.8070006 -3.466872 0.91250801 0
6.8030005 -3.4762859 0.91219056 0
6.8000002 -3.486223 0.91195238 0
6.7970004 -3.4961495 0.91171432 0
6.9050002 -3.1789172 0.90855217 0
6.9020004 -3.1892009 0.90831959 0
6.8980002 -3.1989882 0.90800929 0
6.8950005 -3.2092485 0.90777659 0
6.8910003 -3.2190087 0.90746629 0
6.8880005 -3.2292454 0.9072336 0
6.8840003 -3.2389786 0.90692341 0
6.8810005 -3.2491918 0.90669072 0
6.8780003 -3.2593942 0.90645802 0
6.8740005 -3.2690878 0.90614772 0
6.8710003 -3.2792666 0.90591502 0
6.8670006 -3.2889335 0.90560484 0
6.8640003 -3.2990887 0.90537214 0
6.8610005 -3.3092334 0.90513945 0
6.8570004 -3.3188603 0.90482914 0
6.8540006 -3.3289814 0.90459657 0
6.8500004 -3.3385813 0.90428627 0
6.8470006 -3.3486791 0.90405357 0
6.8440003 -3.3587658 0.90382087 0
6.8400006 -3.3683264 0.90351057 0
6.8370004 -3.3783896 0.90327787 0
6.8340006 -3.3884425 0.90304518 0
6.8300004 -3.3979628 0.90273499 0
6.8270006 -3.4079921 0.9025023 0
6.8230004 -3.4174855 0.902192 0
6.8200002 -3.4274909 0.9019593 0
6.8170004 -3.4374859 0.9017266 0
6.8130002 -3.4469395 0.90141636 0
6.8100004 -3.4569111 0.90118366 0
6.8070006 -3.466872 0.90095103 0
6.8030005 -3.4762859 0.90064073 0
6.9050002 -3.1789172 0.8968184 0
6.9020004 -3.1892009 0.89659119 0
6.8980002 -3.1989882 0.89628816 0
6.8950005 -3.2092485 0.89606082 0
6.8910003 -3.2190087 0.89575779 0
6.8880005 -3.2292454 0.89553052 0
6.8840003 -3.2389786 0.89522749 0
6.8810005 -3.2491918 0.89500022 0
6.8780003 -3.2593942 0.89477295 0
6.8740005 -3.2690878 0.89446992 0
6.8710003 -3.2792666 0.89424264 0
6.8670006 -3.2889335 0.89393961 0
6.8640003 -3.2990887 0.89371228 0
6.8610005 -3.3092334 0.89348507 0
6.8570004 -3.3188603 0.89318192 0
6.8540006 -3.3289814 0.89295471 0
6.8500004 -3.3385813 0.89265168 0
6.8470006 -3.3486791 0.8924244 0
6.8440003 -3.3587658 0.89219713 0
6.8400006 -3.3683264 0.8918941 0
6.8370004 -3.3783896 0.89166677 0
6.8340006 -3.3884425 0.89143956 0
6.8300004 -3.3979628 0.89113641 0
6.8270006 -3.4079921 0.89090919 0
6.8230004 -3.4174855 0.89060616 0
6.8200002 -3.4274909 0.89037883 0
6.8170004 -3.4374859 0.89015162 0
6.8130002 -3.4469395 0.88984853 0
6.9050002 -3.1789172 0.88508469 0
6.9020004 -3.1892009 0.88486278 0
6.8980002 -3.1989882 0.88456696 0
6.8950005 -3.2092485 0.88434511 0
6.8910003 -3.2190087 0.8840493 0
6.8880005 -3.2292454 0.88382745 0
6.8840003 -3.2389786 0.88353157 0
6.8810005 -3.2491918 0.88330972 0
6.8780003 -3.2593942 0.88308787 0
6.8740005 -3.2690878 0.88279206 0
6.8710003 -3.2792666 0.88257015 0
6.8670006 -3.2889335 0.88227439 0
6.8640003 -3.2990887 0.88205248 0
6.8610005 -3.3092334 0.88183069 0
6.8570004 -3.3188603 0.88153481 0
6.8540006 -3.3289814 0.88131297 0
6.8500004 -3.3385813 0.88101709 0
6.8470006 -3.3486791 0.88079524 0
6.8440003 -3.3587658 0.88057339 0
6.8400006 -3.3683264 0.88027751 0
6.8370004 -3.3783896 0.88005567 0
6.8340006 -3.3884425 0.87983382 0
6.8300004 -3.3979628 0.87953794 0
6.8270006 -3.4079921 0.87931609 0
6.9050002 -3.1789172 0.87335092 0
6.9020004 -3.1892009 0.87313449 0
6.8980002 -3.1989882 0.87284589 0
6.8950005 -3.2092485 0.8726294 0
6.8910003 -3.2190087 0.8723408 0
6.8880005 -3.2292454 0.87212431 0
6.8840003 -3.2389786 0.87183571 0
6.8810005 -3.2491918 0.87161928 0
6.8780003 -3.2593942 0.87140274 0
6.8740005 -3.2690878 0.87111425 0
6.8710003 -3.2792666 0.87089771 0
6.8670006 -3.2889335 0.87060916 0
6.8640003 -3.2990887 0.87039268 0
6.8610005 -3.3092334 0.8701762 0
6.8570004 -3.3188603 0.86988759 0
6.8540006 -3.3289814 0.86967123 0
6.8500004 -3.3385813 0.8693825 0
6.8470006 -3.3486791 0.86916608 0
6.8440003 -3.3587658 0.86894965 0
6.8400006 -3.3683264 0.86866105 0
6.8370004 -3.3783896 0.86844456 0
6.9050002 -3.1789172 0.86161715 0
6.9020004 -3.1892009 0.86140609 0
6.8980002 -3.1989882 0.86112469 0
6.8950005 -3.2092485 0.86091363 0
6.8910003 -3.2190087 0.86063224 0
6.8880005 -3.2292454 0.86042118 0
6.8840003 -3.2389786 0.86013985 0
6.8810005 -3.2491918 0.85992879 0
6.8780003 -3.2593942 0.85971773 0
6.8740005 -3.2690878 0.85943639 0
6.8710003 -3.2792666 0.85922527 0
6.8670006 -3.2889335 0.85894394 0
6.8640003 -3.2990887 0.85873282 0
6.8610005 -3.3092334 0.85852182 0
6.8570004 -3.3188603 0.85824043 0
6.8540006 -3.3289814 0.85802937 0
6.8500004 -3.3385813 0.85774797 0
6.8470006 -3.3486791 0.85753691 0
6.8440003 -3.3587658 0.85732591 0
6.9050002 -3.1789172 0.84988332 0
6.9020004 -3.1892009 0.84967774 0
6.8980002 -3.1989882 0.84940356 0
6.8950005 -3.2092485 0.84919792 0
6.8910003 -3.2190087 0.84892374 0
6.8880005 -3.2292454 0.84871817 0
6.8840003 -3.2389786 0.84844393 0
6.8810005 -3.2491918 0.84823829 0
6.8780003 -3.2593942 0.84803265 0
6.8740005 -3.2690878 0.84775853 0
6.8710003 -3.2792666 0.84755284 0
6.8670006 -3.2889335 0.84727871 0
6.8640003 -3.2990887 0.84707302 0
6.8610005 -3.3092334 0.84686744 0
6.8570004 -3.3188603 0.84659326 0
6.8540006 -3.3289814 0.84638762 0
6.8500004 -3.3385813 0.84611344 0
6.9050002 -3.1789172 0.83814955 0
6.9020004 -3.1892009 0.8379494 0
6.8980002 -3.1989882 0.83768237 0
6.8950005 -3.2092485 0.83748221 0
6.8910003 -3.2190087 0.83721519 0
6.8880005 -3.2292454 0.83701503 0
6.8840003 -3.2389786 0.836748 0
6.8810005 -3.2491918 0.83654785 0
6.8780003 -3.2593942 0.83634758 0
6.8740005 -3.2690878 0.83608067 0
6.8710003 -3.2792666 0.8358804 0
6.8670006 -3.2889335 0.83561349 0
6.8640003 -3.2990887 0.83541322 0
6.8610005 -3.3092334 0.83521301 0
6.8570004 -3.3188603 0.83494604 0
6.8540006 -3.3289814 0.83474582 0
6.9050002 -3.1789172 0.82641578 0
6.9020004 -3.1892009 0.82622099 0
6.8980002 -3.1989882 0.82596123 0
6.8950005 -3.2092485 0.82576644 0
6.8910003 -3.2190087 0.82550669 0
6.8880005 -3.2292454 0.8253119 0
6.8840003 -3.2389786 0.82505214 0
6.8810005 -3.2491918 0.82485735 0
6.8780003 -3.2593942 0.82466251 0
6.8740005 -3.2690878 0.82440281 0
6.8710003 -3.2792666 0.82420796 0
6.8670006 -3.2889335 0.8239482 0
6.8640003 -3.2990887 0.82375342 0
6.8610005 -3.3092334 0.82355857 0
6.8570004 -3.3188603 0.82329881 0
6.9050002 -3.1789172 0.81468201 0
6.9020004 -3.1892009 0.81449264 0
6.8980002 -3.1989882 0.8142401 0
6.8950005 -3.2092485 0.81405073 0
6.8910003 -3.2190087 0.81379819 0
6.8880005 -3.2292454 0.81360877 0
6.8840003 -3.2389786 0.81335628 0
6.8810005 -3.2491918 0.81316686 0
6.8780003 -3.2593942 0.81297743 0
6.8740005 -3.2690878 0.81272495 0
6.8710003 -3.2792666 0.81253552 0
6.8670006 -3.2889335 0.81228304 0
6.8640003 -3.2990887 0.81209362 0
6.8610005 -3.3092334 0.81190419 0
6.9050002 -3.1789172 0.80294824 0
6.9020004 -3.1892009 0.8027643 0
6.8980002 -3.1989882 0.80251896 0
6.8950005 -3.2092485 0.80233502 0
6.8910003 -3.2190087 0.80208969 0
6.8880005 -3.2292454 0.80190569 0
6.8840003 -3.2389786 0.80166036 0
6.8810005 -3.2491918 0.80147636 0
6.8780003 -3.2593942 0.80129236 0
6.8740005 -3.2690878 0.80104709 0
6.8710003 -3.2792666 0.80086309 0
6.8670006 -3.2889335 0.80061781 0
6.8640003 -3.2990887 0.80043375 0
6.9050002 -3.1789172 0.79121447 0
6.9020004 -3.1892009 0.79103589 0
6.8980002 -3.1989882 0.79079783 0
6.8950005 -3.2092485 0.79061925 0
6.8910003 -3.2190087 0.79038113 0
6.8880005 -3.2292454 0.79020262 0
6.8840003 -3.2389786 0.78996444 0
6.8810005 -3.2491918 0.78978586 0
6.8780003 -3.2593942 0.78960729 0
6.8740005 -3.2690878 0.78936923 0
6.8710003 -3.2792666 0.78919065 0
6.8670006 -3.2889335 0.78895253 0
6.8640003 -3.2990887 0.78877395 0
