# .PCD v0.7 - Point Cloud Data file format
VERSION 0.7
FIELDS x y z intensity
SIZE 4 4 4 4
TYPE F F F F
COUNT 1 1 1 1
WIDTH 1418
HEIGHT 1
VIEWPOINT 0 0 0 1 0 0 0
POINTS 1418
DATA ascii
5.2130003 -1.7736641 1.0377662 0
5.2120004 -1.781985 1.0376346 0
5.2110004 -1.7903024 1.0375029 0
5.2120004 -1.7993449 1.0376346 0
5.2130003 -1.808391 1.0377662 0
5.2140002 -1.8174406 1.0378978 0
5.2170005 -1.8272337 1.038293 0
5.2200003 -1.8370373 1.0386879 0
5.2250004 -1.8475987 1.0393463 0
5.2310004 -1.8585532 1.0401365 0
5.2400002 -1.8706603 1.0413215 0
5.3160005 -1.6687564 1.0424615 0
5.3000002 -1.6723135 1.0403836 0
5.2870002 -1.676814 1.0386952 0
5.2770004 -1.6822742 1.0373964 0
5.2680001 -1.6880354 1.0362276 0
5.2600002 -1.6941035 1.0351886 0
5.2520003 -1.7001426 1.0341496 0
5.2460003 -1.7068384 1.0333704 0
5.2400002 -1.7135124 1.0325911 0
5.2350001 -1.7205112 1.0319417 0
5.2310004 -1.7278402 1.0314223 0
5.2260003 -1.7348046 1.0307729 0
5.2230005 -1.7424546 1.0303833 0
5.2200003 -1.7500937 1.0299937 0
5.2180004 -1.7580774 1.0297339 0
5.2160006 -1.7660539 1.0294741 0
5.2150002 -1.7743819 1.0293442 0
5.2140002 -1.7827066 1.0292144 0
5.2140002 -1.7913901 1.0292144 0
5.2140002 -1.8000736 1.0292144 0
5.2150002 -1.8091233 1.0293442 0
5.2160006 -1.8181767 1.0294741 0
5.2190003 -1.8279731 1.0298637 0
5.2220001 -1.8377804 1.0302533 0
5.2270002 -1.8483453 1.0309027 0
5.2340002 -1.8596786 1.0318118 0
5.2430005 -1.8717912 1.0329808 0
5.3030005 -1.6733092 1.0319291 0
5.2900004 -1.6778152 1.0302643 0
5.2800002 -1.6832806 1.0289835 0
5.2700005 -1.6887102 1.0277028 0
5.2620006 -1.6947818 1.0266782 0
5.2550001 -1.7011654 1.0257816 0
5.2480001 -1.7075237 1.0248852 0
5.2430005 -1.7145461 1.0242449 0
5.2380004 -1.7215502 1.0236045 0
5.2330003 -1.7285364 1.0229641 0
5.2290001 -1.7358544 1.0224519 0
5.2260003 -1.7435099 1.0220677 0
5.2230005 -1.7511544 1.0216836 0
5.2200003 -1.7587881 1.0212992 0
5.2180004 -1.7667681 1.0210432 0
5.2170005 -1.7751 1.020915 0
5.2160006 -1.7834282 1.020787 0
5.2160006 -1.7921153 1.020787 0
5.2160006 -1.8008025 1.020787 0
5.2170005 -1.8098557 1.020915 0
5.2190003 -1.8192806 1.0211712 0
5.2220001 -1.8290824 1.0215554 0
5.2250004 -1.8388952 1.0219396 0
5.2300005 -1.8494655 1.02258 0
5.2370005 -1.8608043 1.0234765 0
5.2470002 -1.8732991 1.0247571 0
5.3060002 -1.674305 1.0234638 0
5.2930002 -1.6788162 1.0218223 0
5.2820005 -1.6839517 1.0204334 0
5.2730002 -1.6897221 1.019297 0
5.2650003 -1.6957991 1.0182869 0
5.2570004 -1.7018473 1.0172768 0
5.2510004 -1.708552 1.0165192 0
5.2450004 -1.7152352 1.0157616 0
5.2400002 -1.7222428 1.0151303 0
5.2350001 -1.7292327 1.0144989 0
5.2310004 -1.7365544 1.0139939 0
5.2280002 -1.7442132 1.013615 0
5.2250004 -1.7518615 1.0132363 0
5.2230005 -1.7598542 1.0129837 0
5.2210002 -1.7678396 1.0127312 0
5.2190003 -1.7758179 1.0124786 0
5.2190003 -1.7845104 1.0124786 0
5.2190003 -1.7932029 1.0124786 0
5.2190003 -1.8018955 1.0124786 0
5.2200003 -1.8109542 1.012605 0
5.2220001 -1.8203844 1.0128574 0
5.2250004 -1.8301919 1.0132363 0
5.2290001 -1.8403814 1.0137413 0
5.2340002 -1.8509589 1.0143726 0
5.2420001 -1.8626801 1.0153828 0
5.3120003 -1.6762964 1.0153611 0
5.2980003 -1.6804848 1.0136186 0
5.2870002 -1.6856291 1.0122496 0
5.2770004 -1.6910714 1.0110049 0
5.2690005 -1.6971556 1.0100093 0
5.2610002 -1.7032108 1.0090135 0
5.2540002 -1.7095801 1.0081422 0
5.2490005 -1.7166133 1.00752 0
5.2430005 -1.723282 1.0067732 0
5.2390003 -1.7306253 1.0062754 0
5.2350001 -1.737954 1.0057775 0
5.2320004 -1.7456203 1.0054041 0
5.2290001 -1.7532755 1.0050306 0
5.2260003 -1.7609202 1.0046574 0
5.2250004 -1.7692682 1.0045329 0
5.2230005 -1.7772537 1.0042839 0
5.2230005 -1.7859535 1.0042839 0
5.2230005 -1.7946533 1.0042839 0
5.2230005 -1.8033531 1.0042839 0
5.2240005 -1.8124189 1.0044084 0
5.2260003 -1.8218564 1.0046574 0
5.2290001 -1.8316709 1.0050306 0
5.2340002 -1.8422394 1.005653 0
5.2400002 -1.8531994 1.0063999 0
5.2480001 -1.8649313 1.0073955 0
5.3180003 -1.6782877 1.0072367 0
5.3030005 -1.6821533 1.005397 0
5.2920003 -1.6873068 1.0040476 0
5.2820005 -1.692758 1.0028211 0
5.2730002 -1.698512 1.0017171 0
5.2660003 -1.7049155 1.0008584 0
5.2590003 -1.7112938 0.99999988 0
5.2530003 -1.7179914 0.99926388 0
5.2480001 -1.7250136 0.99865067 0
5.2430005 -1.7320179 0.99803734 0
5.2390003 -1.7393539 0.99754667 0
5.2360005 -1.7470273 0.99717879 0
5.2330003 -1.7546898 0.99681079 0
5.2300005 -1.7623416 0.99644279 0
5.2290001 -1.7706968 0.99632013 0
5.2270002 -1.7786894 0.9960748 0
5.2270002 -1.7873964 0.9960748 0
5.2260003 -1.795741 0.99595213 0
5.2270002 -1.8048104 0.9960748 0
5.2290001 -1.8142496 0.99632013 0
5.2310004 -1.8236963 0.99656546 0
5.2350001 -1.8338895 0.99705601 0
5.2390003 -1.8440974 0.99754667 0
5.2460003 -1.8554398 0.99840534 0
5.3110003 -1.6848229 0.99751961 0
5.2980003 -1.6893197 0.99594855 0
5.2880001 -1.6947817 0.99474001 0
5.2780004 -1.7002076 0.99353147 0
5.2700005 -1.7062793 0.99256468 0
5.2630005 -1.7126648 0.99171865 0
5.2570004 -1.7193695 0.9909935 0
5.2520003 -1.7263989 0.99038923 0
5.2470002 -1.7334102 0.98978496 0
5.2430005 -1.7407537 0.98930156 0
5.2400002 -1.7484342 0.98893893 0
5.2370005 -1.756104 0.98857641 0
5.2350001 -1.7641182 0.98833466 0
5.2330003 -1.7721254 0.9880929 0
5.2320004 -1.7804843 0.98797214 0
5.2320004 -1.7892002 0.98797214 0
5.2320004 -1.7979163 0.98797214 0
5.2330003 -1.8069967 0.9880929 0
5.2350001 -1.8164468 0.98833466 0
5.2370005 -1.8259041 0.98857641 0
5.2410002 -1.8361083 0.98905981 0
5.2470002 -1.8470701 0.98978496 0
5.2540002 -1.8584268 0.99063087 0
5.3060002 -1.6920038 0.98806596 0
5.2950006 -1.6971431 0.98675632 0
5.2850003 -1.7025814 0.98556578 0
5.2770004 -1.7086656 0.98461342 0
5.2700005 -1.7150638 0.98378003 0
5.2640004 -1.7217811 0.98306572 0
5.2580004 -1.728477 0.98235142 0
5.2530003 -1.735499 0.98175621 0
5.2490005 -1.7428534 0.98127997 0
5.2460003 -1.7505447 0.98092282 0
5.2430005 -1.7582253 0.98056567 0
5.2410002 -1.7662504 0.98032761 0
5.2390003 -1.7742684 0.98008943 0
5.2380004 -1.7826381 0.97997046 0
5.2380004 -1.7913648 0.97997046 0
5.2380004 -1.8000916 0.97997046 0
5.2390003 -1.8091829 0.98008943 0
5.2410002 -1.8186438 0.98032761 0
5.2450004 -1.828848 0.98080373 0
5.2490005 -1.8390666 0.98127997 0
5.2560005 -1.8504144 0.98211336 0
5.3040004 -1.7001787 0.97898197 0
5.2930002 -1.7052944 0.97769225 0
5.2840004 -1.7110521 0.97663701 0
5.2770004 -1.7174629 0.97581625 0
5.2700005 -1.7238483 0.97499549 0
5.2650003 -1.7309012 0.97440922 0
5.2600002 -1.737936 0.97382295 0
5.2560005 -1.7453029 0.9733541 0
5.2520003 -1.7526551 0.97288501 0
5.2490005 -1.7603467 0.97253335 0
5.2470002 -1.7683824 0.97229874 0
5.2450004 -1.7764113 0.97206438 0
5.2450004 -1.7851506 0.97206438 0
5.2450004 -1.7938902 0.97206438 0
5.2460003 -1.8029921 0.97218156 0
5.2470002 -1.8120977 0.97229874 0
5.2490005 -1.8215734 0.97253335 0
5.2530003 -1.8317918 0.97300231 0
5.2590003 -1.8427644 0.97370577 0
5.2940001 -1.7144612 0.96898162 0
5.2860003 -1.7205473 0.96805811 0
5.2790003 -1.7269491 0.96724999 0
5.2730002 -1.7336718 0.96655726 0
5.2680001 -1.740721 0.96598005 0
5.2640004 -1.7481024 0.96551836 0
5.2600002 -1.755469 0.96505654 0
5.2570004 -1.7631749 0.96471024 0
5.2550001 -1.7712252 0.96447933 0
5.2540002 -1.7796257 0.96436381 0
5.2530003 -1.7880223 0.96424842 0
5.2530003 -1.7967763 0.96424842 0
5.2540002 -1.8058926 0.96436381 0
5.2560005 -1.8153772 0.96459472 0
5.2600002 -1.8256011 0.96505654 0
5.2640004 -1.8358395 0.96551836 0
5.1960001 -1.7243065 0.94901705 0
5.1940002 -1.732254 0.94878972 0
5.2620006 -1.782483 0.95651734 0
5.2630005 -1.791612 0.95663095 0
5.2630005 -1.8003839 0.95663095 0
5.2650003 -1.809881 0.95685828 0
5.2680001 -1.8197495 0.9571991 0
5.2050004 -1.701454 0.94137251 0
5.1960001 -1.7070043 0.94036591 0
5.1900005 -1.7135667 0.939695 0
5.1860003 -1.7208071 0.93924761 0
5.1840005 -1.7287366 0.93902397 0
5.1840005 -1.7373661 0.93902397 0
5.1860003 -1.7467061 0.93924761 0
5.2080002 -1.6938149 0.93303525 0
5.1970005 -1.6986978 0.93182504 0
5.1900005 -1.7049264 0.93105483 0
5.1840005 -1.7114779 0.93039453 0
5.1810002 -1.7190574 0.93006444 0
5.1790004 -1.7269779 0.92984438 0
5.1780005 -1.7352449 0.92973435 0
5.1790004 -1.7442187 0.92984438 0
5.1830001 -1.7542677 0.9302845 0
5.2130003 -1.6868467 0.92490375 0
5.2020001 -1.6917585 0.92371321 0
5.1930003 -1.6973196 0.92273915 0
5.1860003 -1.703541 0.92198157 0
5.1810002 -1.7104334 0.92144048 0
5.1780005 -1.7180076 0.92111576 0
5.1760001 -1.7259226 0.92089927 0
5.1750002 -1.7341841 0.92079103 0
5.1760001 -1.7431526 0.92089927 0
5.1790004 -1.7528392 0.921224 0
5.1860003 -1.7639723 0.92198157 0
5.2070003 -1.6848012 0.91558349 0
5.1980004 -1.6903877 0.91462564 0
5.1900005 -1.6962862 0.91377425 0
5.1840005 -1.7028484 0.91313577 0
5.1800003 -1.7100853 0.91271007 0
5.1760001 -1.7173077 0.91228426 0
5.1740003 -1.7252192 0.91207147 0
5.1730003 -1.7334771 0.91196501 0
5.1740003 -1.7424419 0.91207147 0
5.1770005 -1.7521249 0.91239071 0
5.1830001 -1.7628953 0.91302919 0
5.2150002 -1.6788433 0.90774953 0
5.2030005 -1.6834377 0.90649414 0
5.1950002 -1.6893594 0.90565717 0
5.1890001 -1.6959416 0.90502942 0
5.1840005 -1.7028484 0.90450633 0
5.1800003 -1.7100853 0.90408778 0
5.1760001 -1.7173077 0.9036693 0
5.1740003 -1.7252192 0.90346003 0
5.1730003 -1.7334771 0.90335548 0
5.1740003 -1.7424419 0.90346003 0
5.1770005 -1.7521249 0.90377402 0
5.1820002 -1.7625364 0.90429711 0
5.2230005 -1.6728565 0.89988673 0
5.2100005 -1.6771477 0.89855015 0
5.2010002 -1.6827557 0.89762473 0
5.1930003 -1.6886741 0.89680225 0
5.1880002 -1.6955969 0.89628816 0
5.1830001 -1.702502 0.89577407 0
5.1800003 -1.7100853 0.89546561 0
5.1760001 -1.7173077 0.89505434 0
5.1740003 -1.7252192 0.8948487 0
5.1730003 -1.7334771 0.89474583 0
5.1740003 -1.7424419 0.8948487 0
5.1770005 -1.7521249 0.89515722 0
5.1820002 -1.7625364 0.89567125 0
5.2170005 -1.6708326 0.89058089 0
5.2060003 -1.6757911 0.88946974 0
5.1980004 -1.681733 0.88866162 0
5.1920004 -1.6883314 0.88805556 0
5.1870003 -1.6952525 0.88755047 0
5.1830001 -1.702502 0.88714641 0
5.1800003 -1.7100853 0.88684344 0
5.1760001 -1.7173077 0.88643932 0
5.1740003 -1.7252192 0.88623726 0
5.1730003 -1.7334771 0.88613629 0
5.1740003 -1.7424419 0.88623726 0
5.1770005 -1.7521249 0.88654041 0
5.1820002 -1.7625364 0.88704538 0
5.2250004 -1.6648277 0.88268566 0
5.2130003 -1.6694834 0.88149512 0
5.2040005 -1.6751131 0.88060224 0
5.1970005 -1.6813921 0.87990779 0
5.1910005 -1.6879886 0.87931252 0
5.1870003 -1.6952525 0.87891567 0
5.1840005 -1.7028484 0.87861806 0
5.1800003 -1.7100853 0.87822121 0
5.1760001 -1.7173077 0.87782431 0
5.1740003 -1.7252192 0.87762594 0
5.1730003 -1.7334771 0.87752676 0
5.1740003 -1.7424419 0.87762594 0
5.1770005 -1.7521249 0.87792361 0
5.1820002 -1.7625364 0.87841964 0
5.2190003 -1.6628146 0.87339783 0
5.2090001 -1.6681341 0.87242377 0
5.2010002 -1.6740956 0.8716445 0
5.1950002 -1.6807102 0.87106001 0
5.1910005 -1.6879886 0.87067044 0
5.1870003 -1.6952525 0.87028086 0
5.1840005 -1.7028484 0.86998868 0
5.1800003 -1.7100853 0.86959898 0
5.1760001 -1.7173077 0.86920935 0
5.1740003 -1.7252192 0.86901462 0
5.1730003 -1.7334771 0.86891711 0
5.1740003 -1.7424419 0.86901462 0
5.1770005 -1.7521249 0.8693068 0
5.1820002 -1.7625364 0.86979377 0
5.2270002 -1.6567918 0.86547005 0
5.2150002 -1.6614726 0.86432284 0
5.2070003 -1.6674595 0.86355805 0
5.2000003 -1.6737565 0.86288881 0
5.1950002 -1.6807102 0.86241078 0
5.1910005 -1.6879886 0.86202842 0
5.1880002 -1.6955969 0.8617416 0
5.1840005 -1.7028484 0.86135924 0
5.1800003 -1.7100853 0.86097682 0
5.1760001 -1.7173077 0.86059439 0
5.1740003 -1.7252192 0.86040318 0
5.1730003 -1.7334771 0.86030757 0
5.1740003 -1.7424419 0.86040318 0
5.1770005 -1.7521249 0.86069 0
5.1820002 -1.7625364 0.86116797 0
5.2360005 -1.6510719 0.85760725 0
5.2220001 -1.6551231 0.8562941 0
5.2120004 -1.6604661 0.8553561 0
5.2050004 -1.6667848 0.85469955 0
5.1990004 -1.6734174 0.85413677 0
5.1950002 -1.6807102 0.85376155 0
5.1910005 -1.6879886 0.8533864 0
5.1890001 -1.6959416 0.85319877 0
5.1840005 -1.7028484 0.8527298 0
5.1800003 -1.7100853 0.85235459 0
5.1760001 -1.7173077 0.85197937 0
5.1740003 -1.7252192 0.8517918 0
5.1730003 -1.7334771 0.85169804 0
5.1740003 -1.7424419 0.8517918 0
5.1770005 -1.7521249 0.85207319 0
5.1820002 -1.7625364 0.85254216 0
5.2290001 -1.6487485 0.84824014 0
5.2180004 -1.6537884 0.84722817 0
5.2100005 -1.6597952 0.84649223 0
5.2040005 -1.6664476 0.84594023 0
5.1990004 -1.6734174 0.84548026 0
5.1950002 -1.6807102 0.84511226 0
5.1920004 -1.6883314 0.84483635 0
5.1900005 -1.6962862 0.84465235 0
5.1840005 -1.7028484 0.84410036 0
5.1800003 -1.7100853 0.84373236 0
5.1760001 -1.7173077 0.84336436 0
5.1740003 -1.7252192 0.84318042 0
5.1730003 -1.7334771 0.84308845 0
5.1740003 -1.7424419 0.84318042 0
5.1770005 -1.7521249 0.84345639 0
5.1820002 -1.7625364 0.84391636 0
5.2370005 -1.6426789 0.84025109 0
5.2240005 -1.6470891 0.83907855 0
5.2150002 -1.6527872 0.83826685 0
5.2080002 -1.659124 0.83763552 0
5.2030005 -1.6661103 0.83718455 0
5.1980004 -1.6730783 0.83673364 0
5.1950002 -1.6807102 0.83646297 0
5.1930003 -1.6886741 0.83628261 0
5.1900005 -1.6962862 0.83601213 0
5.1840005 -1.7028484 0.83547091 0
5.1800003 -1.7100853 0.83511019 0
5.1760001 -1.7173077 0.8347494 0
5.1740003 -1.7252192 0.83456904 0
5.1730003 -1.7334771 0.83447886 0
5.1740003 -1.7424419 0.83456904 0
5.1770005 -1.7521249 0.83483964 0
5.1820002 -1.7625364 0.83529055 0
5.2310004 -1.6406982 0.83099568 0
5.2210002 -1.6460934 0.8301118 0
5.2130003 -1.6521199 0.82940471 0
5.2070003 -1.6587886 0.82887441 0
5.2020001 -1.6657728 0.82843244 0
5.1990004 -1.6734174 0.82816732 0
5.1960001 -1.6810511 0.82790214 0
5.1940002 -1.6890168 0.82772541 0
5.1900005 -1.6962862 0.82737184 0
5.1840005 -1.7028484 0.82684153 0
5.1800003 -1.7100853 0.82648802 0
5.1760001 -1.7173077 0.82613444 0
5.1740003 -1.7252192 0.82595766 0
5.1730003 -1.7334771 0.82586932 0
5.1740003 -1.7424419 0.82595766 0
5.1770005 -1.7521249 0.82622284 0
5.1820002 -1.7625364 0.82666475 0
5.0790005 -1.852164 0.81756091 0
5.0750003 -1.8590528 0.8172074 0
5.0710001 -1.865927 0.81685382 0
5.0680003 -1.8731784 0.81658864 0
5.2390003 -1.6346103 0.82297415 0
5.2270002 -1.6393777 0.82193518 0
5.2180004 -1.6450977 0.82115591 0
5.2120004 -1.6517862 0.82063639 0
5.2060003 -1.658453 0.82011694 0
5.2020001 -1.6657728 0.81977057 0
5.1990004 -1.6734174 0.81951088 0
5.1970005 -1.6813921 0.81933773 0
5.1960001 -1.6897022 0.81925106 0
5.1900005 -1.6962862 0.81873161 0
5.1840005 -1.7028484 0.81821215 0
5.1800003 -1.7100853 0.81786573 0
5.1760001 -1.7173077 0.81751943 0
5.1740003 -1.7252192 0.81734627 0
5.1730003 -1.7334771 0.81725967 0
5.1740003 -1.7424419 0.81734627 0
5.1770005 -1.7521249 0.81760603 0
5.1820002 -1.7625364 0.81803894 0
5.0820003 -1.8448766 0.80938065 0
5.0790005 -1.852164 0.80912089 0
5.0750003 -1.8590528 0.80877459 0
5.0710001 -1.865927 0.80842829 0
5.0680003 -1.8731784 0.80816853 0
5.2340002 -1.6329688 0.81382161 0
5.2240005 -1.6383876 0.81297386 0
5.2160006 -1.644434 0.81229568 0
5.2100005 -1.6511189 0.81178695 0
5.2060003 -1.658453 0.8114478 0
5.2020001 -1.6657728 0.81110871 0
5.2000003 -1.6737565 0.81093913 0
5.1980004 -1.681733 0.81076956 0
5.1980004 -1.6903877 0.81076956 0
5.1900005 -1.6962862 0.81009138 0
5.1840005 -1.7028484 0.80958271 0
5.1800003 -1.7100853 0.80924356 0
5.1760001 -1.7173077 0.80890441 0
5.1740003 -1.7252192 0.80873489 0
5.1730003 -1.7334771 0.80865014 0
5.1740003 -1.7424419 0.80873489 0
5.1770005 -1.7521249 0.80898923 0
5.1820002 -1.7625364 0.80941308 0
5.0820003 -1.8448766 0.80093521 0
5.0790005 -1.852164 0.80068088 0
5.0750003 -1.8590528 0.80034178 0
5.0710001 -1.865927 0.80000263 0
5.0680003 -1.8731784 0.7997483 0
5.2410002 -1.6265346 0.80568284 0
5.2300005 -1.6316557 0.80477011 0
5.2210002 -1.6373972 0.80402339 0
5.2150002 -1.6441019 0.80352545 0
5.2100005 -1.6511189 0.80311066 0
5.2060003 -1.658453 0.80277872 0
5.2030005 -1.6661103 0.80252981 0
5.2010002 -1.6740956 0.80236387 0
5.2000003 -1.6824148 0.8022809 0
5.1990004 -1.6907305 0.80219793 0
5.1900005 -1.6962862 0.80145115 0
5.1840005 -1.7028484 0.80095327 0
5.1800003 -1.7100853 0.80062139 0
5.1760001 -1.7173077 0.80028945 0
5.1740003 -1.7252192 0.80012351 0
5.1730003 -1.7334771 0.80004054 0
5.1740003 -1.7424419 0.80012351 0
5.1770005 -1.7521249 0.80037248 0
5.1820002 -1.7625364 0.80078733 0
5.0820003 -1.8448766 0.79248977 0
5.0790005 -1.852164 0.79224086 0
5.0750003 -1.8590528 0.79190898 0
5.0710001 -1.865927 0.79157704 0
5.0680003 -1.8731784 0.79132819 0
5.0860004 -1.8886768 0.79282171 0
5.2490005 -1.6204 0.79760003 0
5.2360005 -1.6249024 0.79654479 0
5.2270002 -1.6306708 0.79581422 0
5.2200003 -1.6370671 0.79524601 0
5.2140002 -1.64377 0.79475898 0
5.2100005 -1.6511189 0.79443431 0
5.2060003 -1.658453 0.79410958 0
5.2040005 -1.6664476 0.79394734 0
5.2030005 -1.6747741 0.79386616 0
5.2020001 -1.6830966 0.79378492 0
5.1990004 -1.6907305 0.79354143 0
5.1900005 -1.6962862 0.79281092 0
5.1840005 -1.7028484 0.79232383 0
5.1800003 -1.7100853 0.79199916 0
5.1760001 -1.7173077 0.79167449 0
5.1740003 -1.7252192 0.79151213 0
5.1730003 -1.7334771 0.79143095 0
5.1740003 -1.7424419 0.79151213 0
5.1770005 -1.7521249 0.79175568 0
5.1820002 -1.7625364 0.79216146 0
5.0820003 -1.8448766 0.78404438 0
5.0790005 -1.852164 0.78380084 0
5.0750003 -1.8590528 0.78347617 0
5.0710001 -1.865927 0.78315151 0
5.0680003 -1.8731784 0.78290796 0
5.0860004 -1.8886768 0.78436905 0
5.2430005 -1.6184518 0.78837711 0
5.2320004 -1.6235963 0.78750408 0
5.2240005 -1.629686 0.78686917 0
5.2180004 -1.6364069 0.78639293 0
5.2140002 -1.64377 0.78607547 0
5.2100005 -1.6511189 0.78575802 0
5.2070003 -1.6587886 0.7855199 0
5.2050004 -1.6667848 0.78536117 0
5.2050004 -1.6754522 0.78536117 0
5.2050004 -1.6841195 0.78536117 0
5.1990004 -1.6907305 0.78488493 0
5.1900005 -1.6962862 0.78417063 0
5.1840005 -1.7028484 0.78369445 0
5.1800003 -1.7100853 0.78337693 0
5.1760001 -1.7173077 0.78305948 0
5.1740003 -1.7252192 0.78290075 0
5.1730003 -1.7334771 0.78282142 0
5.1740003 -1.7424419 0.78290075 0
5.1770005 -1.7521249 0.78313887 0
5.1820002 -1.7625364 0.78353572 0
5.0820003 -1.8448766 0.77559894 0
5.0790005 -1.852164 0.77536082 0
5.0750003 -1.8590528 0.77504337 0
5.0710001 -1.865927 0.77472591 0
5.0680003 -1.8731784 0.77448779 0
5.0860004 -1.8886768 0.77591646 0
5.2510004 -1.612299 0.78026175 0
5.2390003 -1.617153 0.77933103 0
5.2300005 -1.6229434 0.778633 0
5.2230005 -1.6293577 0.77809 0
5.2180004 -1.6364069 0.77770221 0
5.2130003 -1.6434381 0.77731436 0
5.2100005 -1.6511189 0.77708173 0
5.2080002 -1.659124 0.77692652 0
5.2070003 -1.6674595 0.77684897 0
5.2070003 -1.6761303 0.77684897 0
5.2080002 -1.6851422 0.77692652 0
5.1990004 -1.6907305 0.77622843 0
5.1900005 -1.6962862 0.7755304 0
5.1840005 -1.7028484 0.77506506 0
5.1800003 -1.7100853 0.77475476 0
5.1760001 -1.7173077 0.77444446 0
5.1740003 -1.7252192 0.77428937 0
5.1730003 -1.7334771 0.77421182 0
5.1740003 -1.7424419 0.77428937 0
5.1770005 -1.7521249 0.77452207 0
5.1820002 -1.7625364 0.77490985 0
5.0820003 -1.8448766 0.7671535 0
5.0790005 -1.852164 0.7669208 0
5.0750003 -1.8590528 0.76661056 0
5.0710001 -1.865927 0.76630032 0
5.0680003 -1.8731784 0.76606762 0
5.0860004 -1.8886768 0.7674638 0
5.2450004 -1.6103618 0.77105695 0
5.2350001 -1.6158543 0.77029932 0
5.2280002 -1.6222903 0.76976901 0
5.2220001 -1.6290293 0.76931447 0
5.2170005 -1.6360768 0.76893568 0
5.2140002 -1.64377 0.76870835 0
5.2110004 -1.6514524 0.76848114 0
5.2090001 -1.6594595 0.76832956 0
5.2090001 -1.6681341 0.76832956 0
5.2100005 -1.6771477 0.76840538 0
5.2100005 -1.6858242 0.76840538 0
5.1990004 -1.6907305 0.76757205 0
5.1900005 -1.6962862 0.76689017 0
5.1840005 -1.7028484 0.76643562 0
5.1800003 -1.7100853 0.76613259 0
5.1760001 -1.7173077 0.7658295 0
5.1740003 -1.7252192 0.76567799 0
5.1730003 -1.7334771 0.76560223 0
5.1740003 -1.7424419 0.76567799 0
5.1770005 -1.7521249 0.76590526 0
5.1820002 -1.7625364 0.76628411 0
5.0820003 -1.8448766 0.75870812 0
5.0790005 -1.852164 0.75848079 0
5.0750003 -1.8590528 0.75817776 0
5.0710001 -1.865927 0.75787473 0
5.0680003 -1.8731784 0.75764745 0
5.0860004 -1.8886768 0.75901115 0
5.2530003 -1.6041909 0.76290917 0
5.2410002 -1.6090701 0.76202166 0
5.2330003 -1.6152049 0.76143003 0
5.2270002 -1.6219637 0.76098633 0
5.2210002 -1.628701 0.76054251 0
5.2170005 -1.6360768 0.76024675 0
5.2140002 -1.64377 0.76002485 0
5.2120004 -1.6517862 0.75987697 0
5.2110004 -1.6601306 0.759803 0
5.2120004 -1.6691461 0.75987697 0
5.2130003 -1.6781651 0.75995088 0
5.2100005 -1.6858242 0.75972903 0
5.1990004 -1.6907305 0.75891554 0
5.1900005 -1.6962862 0.75824988 0
5.1840005 -1.7028484 0.75780618 0
5.1800003 -1.7100853 0.75751036 0
5.1760001 -1.7173077 0.75721449 0
5.1740003 -1.7252192 0.75706661 0
5.1730003 -1.7334771 0.7569927 0
5.1740003 -1.7424419 0.75706661 0
5.1770005 -1.7521249 0.75728852 0
5.1820002 -1.7625364 0.75765824 0
5.0820003 -1.8448766 0.75026262 0
5.0790005 -1.852164 0.75004077 0
5.0750003 -1.8590528 0.74974495 0
5.0710001 -1.865927 0.74944913 0
5.0680003 -1.8731784 0.74922729 0
5.0860004 -1.8886768 0.7505585 0
5.2620006 -1.5983106 0.75480461 0
5.2480001 -1.6025854 0.75379449 0
5.2390003 -1.6084244 0.7531451 0
5.2310004 -1.6145556 0.75256795 0
5.2250004 -1.6213108 0.75213504 0
5.2210002 -1.628701 0.75184637 0
5.2180004 -1.6364069 0.75162995 0
5.2150002 -1.6441019 0.75141346 0
5.2140002 -1.6524535 0.75134134 0
5.2140002 -1.6611371 0.75134134 0
5.2150002 -1.6701579 0.75141346 0
5.2180004 -1.6798607 0.75162995 0
5.2100005 -1.6858242 0.75105274 0
5.1990004 -1.6907305 0.75025904 0
5.1900005 -1.6962862 0.74960971 0
5.1840005 -1.7028484 0.74917674 0
5.1800003 -1.7100853 0.74888813 0
5.1760001 -1.7173077 0.74859953 0
5.1740003 -1.7252192 0.74845523 0
5.1730003 -1.7334771 0.74838305 0
5.1740003 -1.7424419 0.74845523 0
5.1770005 -1.7521249 0.74867171 0
5.1820002 -1.7625364 0.74903244 0
5.0820003 -1.8448766 0.74181724 0
5.0790005 -1.852164 0.74160075 0
5.0750003 -1.8590528 0.74131215 0
5.0710001 -1.865927 0.74102354 0
5.0680003 -1.8731784 0.74080706 0
5.0860004 -1.8886768 0.74210584 0
5.2550001 -1.5960755 0.74554205 0
5.2440004 -1.6013012 0.74476826 0
5.2360005 -1.6074558 0.74420547 0
5.2300005 -1.614231 0.74378335 0
5.2250004 -1.6213108 0.74343169 0
5.2210002 -1.628701 0.74315023 0
5.2180004 -1.6364069 0.74293917 0
5.2170005 -1.6447657 0.7428689 0
5.2160006 -1.6531211 0.74279851 0
5.2160006 -1.6618081 0.74279851 0
5.2180004 -1.6711699 0.74293917 0
5.2230005 -1.6815562 0.7432909 0
5.2100005 -1.6858242 0.74237645 0
5.1990004 -1.6907305 0.74160254 0
5.1900005 -1.6962862 0.74096942 0
5.1840005 -1.7028484 0.74054736 0
5.1800003 -1.7100853 0.74026597 0
5.1760001 -1.7173077 0.73998451 0
5.1740003 -1.7252192 0.73984385 0
5.1730003 -1.7334771 0.73977351 0
5.1740003 -1.7424419 0.73984385 0
5.1770005 -1.7521249 0.74005491 0
5.1820002 -1.7625364 0.74040663 0
5.0820003 -1.8448766 0.73337179 0
5.0790005 -1.852164 0.73316073 0
5.0750003 -1.8590528 0.7328794 0
5.0710001 -1.865927 0.73259795 0
5.0680003 -1.8731784 0.73238689 0
5.0860004 -1.8886768 0.73365319 0
5.2640004 -1.5901754 0.73740149 0
5.2510004 -1.5947986 0.7365104 0
5.2420001 -1.6006589 0.73589349 0
5.2350001 -1.6071329 0.73541367 0
5.2290001 -1.613906 0.7350024 0
5.2250004 -1.6213108 0.73472822 0
5.2220001 -1.6290293 0.73452258 0
5.2190003 -1.6367371 0.73431695 0
5.2180004 -1.6450977 0.73424846 0
5.2180004 -1.6537884 0.73424846 0
5.2190003 -1.6628146 0.73431695 0
5.2230005 -1.6728565 0.73459119 0
5.2290001 -1.6835908 0.7350024 0
5.2100005 -1.6858242 0.7337001 0
5.1990004 -1.6907305 0.7329461 0
5.1900005 -1.6962862 0.73232925 0
5.1840005 -1.7028484 0.73191798 0
5.1800003 -1.7100853 0.7316438 0
5.1760001 -1.7173077 0.73136955 0
5.1740003 -1.7252192 0.73123246 0
5.1730003 -1.7334771 0.73116392 0
5.1740003 -1.7424419 0.73123246 0
5.1770005 -1.7521249 0.73143816 0
5.1820002 -1.7625364 0.73178083 0
5.0820003 -1.8448766 0.72492635 0
5.0790005 -1.852164 0.72472072 0
5.0750003 -1.8590528 0.72444654 0
5.0710001 -1.865927 0.72417235 0
5.0680003 -1.8731784 0.72396672 0
5.0860004 -1.8886768 0.72520053 0
5.2740002 -1.5845581 0.72929513 0
5.2570004 -1.587953 0.72816062 0
5.2470002 -1.5935214 0.72749317 0
5.2390003 -1.5996958 0.72695923 0
5.2330003 -1.6064872 0.7265588 0
5.2290001 -1.613906 0.72629184 0
5.2250004 -1.6213108 0.72602487 0
5.2220001 -1.6290293 0.72582465 0
5.2210002 -1.6373972 0.7257579 0
5.2200003 -1.6457614 0.7256912 0
5.2210002 -1.6547894 0.7257579 0
5.2240005 -1.6644921 0.72595811 0
5.2280002 -1.6745429 0.72622508 0
5.2350001 -1.6856256 0.72669232 0
5.2100005 -1.6858242 0.72502375 0
5.1990004 -1.6907305 0.7242896 0
5.1900005 -1.6962862 0.72368896 0
5.1840005 -1.7028484 0.72328854 0
5.1800003 -1.7100853 0.72302151 0
5.1760001 -1.7173077 0.7227546 0
5.1740003 -1.7252192 0.72262108 0
5.1730003 -1.7334771 0.72255433 0
5.1740003 -1.7424419 0.72262108 0
5.1770005 -1.7521249 0.72282135 0
5.1820002 -1.7625364 0.72315502 0
5.0820003 -1.8448766 0.71648097 0
5.0790005 -1.852164 0.7162807 0
5.0750003 -1.8590528 0.71601373 0
5.0710001 -1.865927 0.71574676 0
5.0680003 -1.8731784 0.71554655 0
5.0860004 -1.8886768 0.71674788 0
5.2660003 -1.5820329 0.71998394 0
5.2530003 -1.5866832 0.71913975 0
5.2450004 -1.5928829 0.71862024 0
5.2380004 -1.5993748 0.7181657 0
5.2330003 -1.6064872 0.71784103 0
5.2290001 -1.613906 0.71758121 0
5.2260003 -1.6216373 0.71738648 0
5.2240005 -1.629686 0.71725655 0
5.2230005 -1.6380575 0.7171917 0
5.2230005 -1.6467572 0.7171917 0
5.2240005 -1.6557907 0.71725655 0
5.2280002 -1.6658342 0.7175163 0
5.2360005 -1.6772416 0.71803582 0
5.2350001 -1.6856256 0.71797085 0
5.2100005 -1.6858242 0.71634746 0
5.1990004 -1.6907305 0.71563315 0
5.1900005 -1.6962862 0.71504873 0
5.1840005 -1.7028484 0.71465909 0
5.1800003 -1.7100853 0.71439934 0
5.1760001 -1.7173077 0.71413958 0
5.1740003 -1.7252192 0.71400976 0
5.1730003 -1.7334771 0.71394479 0
5.1740003 -1.7424419 0.71400976 0
5.1770005 -1.7521249 0.71420455 0
5.1820002 -1.7625364 0.71452922 0
5.0820003 -1.8448766 0.70803547 0
5.0790005 -1.852164 0.70784068 0
5.0750003 -1.8590528 0.70758092 0
5.0710001 -1.865927 0.70732117 0
5.0680003 -1.8731784 0.70712638 0
5.0860004 -1.8886768 0.70829523 0
5.2750001 -1.5672867 0.71177477 0
5.2750001 -1.5760803 0.71177477 0
5.2600002 -1.5801388 0.71082783 0
5.2500005 -1.5857308 0.7101965 0
5.2430005 -1.5922443 0.70975459 0
5.2370005 -1.5990537 0.70937574 0
5.2320004 -1.6061642 0.70906007 0
5.2290001 -1.613906 0.70887065 0
5.2270002 -1.6219637 0.70874441 0
5.2250004 -1.6300142 0.70861816 0
5.2250004 -1.6387175 0.70861816 0
5.2260003 -1.6477528 0.70868123 0
5.2290001 -1.657459 0.70887065 0
5.2340002 -1.6678473 0.70918632 0
5.2490005 -1.6816266 0.71013331 0
5.2350001 -1.6856256 0.7092495 0
5.2100005 -1.6858242 0.70767117 0
5.1990004 -1.6907305 0.70697665 0
5.1900005 -1.6962862 0.7064085 0
5.1840005 -1.7028484 0.70602965 0
5.1800003 -1.7100853 0.70577711 0
5.1760001 -1.7173077 0.70552456 0
5.1740003 -1.7252192 0.70539832 0
5.1730003 -1.7334771 0.7053352 0
5.1740003 -1.7424419 0.70539832 0
5.1770005 -1.7521249 0.70558774 0
5.1820002 -1.7625364 0.70590341 0
5.0820003 -1.8448766 0.69959009 0
5.0790005 -1.852164 0.69940066 0
5.0750003 -1.8590528 0.69914812 0
5.0710001 -1.865927 0.69889557 0
5.0680003 -1.8731784 0.69870621 0
5.0860004 -1.8886768 0.69984257 0
5.2840004 -1.5524757 0.70353317 0
5.2740002 -1.5581828 0.7029199 0
5.2660003 -1.5644783 0.70242923 0
5.2680001 -1.5738832 0.7025519 0
5.2560005 -1.5788763 0.70181596 0
5.2480001 -1.5850956 0.7013253 0
5.2420001 -1.5919249 0.70095736 0
5.2370005 -1.5990537 0.70065069 0
5.2330003 -1.6064872 0.70040536 0
5.2300005 -1.614231 0.70022142 0
5.2280002 -1.6222903 0.70009875 0
5.2270002 -1.6306708 0.70003742 0
5.2280002 -1.6397078 0.70009875 0
5.2300005 -1.6490805 0.70022142 0
5.2340002 -1.6591277 0.70046675 0
5.2430005 -1.670867 0.70101869 0
5.2350001 -1.6856256 0.70052803 0
5.2100005 -1.6858242 0.69899482 0
5.1990004 -1.6907305 0.69832021 0
5.1900005 -1.6962862 0.69776821 0
5.1840005 -1.7028484 0.69740021 0
5.1800003 -1.7100853 0.69715488 0
5.1760001 -1.7173077 0.69690961 0
5.1740003 -1.7252192 0.69678694 0
5.1730003 -1.7334771 0.69672561 0
5.1740003 -1.7424419 0.69678694 0
5.1770005 -1.7521249 0.69697094 0
5.1820002 -1.7625364 0.69727755 0
5.0820003 -1.8448766 0.69114465 0
5.0790005 -1.852164 0.69096065 0
5.0750003 -1.8590528 0.69071531 0
5.0710001 -1.865927 0.69046998 0
5.0680003 -1.8731784 0.69028604 0
5.0860004 -1.8886768 0.69138992 0
5.2840004 -1.5436659 0.69472337 0
5.2750001 -1.5496995 0.69418764 0
5.2670002 -1.5560111 0.69371146 0
5.2610002 -1.5629178 0.69335425 0
5.2590003 -1.5710586 0.69323528 0
5.2550001 -1.5785605 0.6929971 0
5.2470002 -1.5847783 0.69252098 0
5.2410002 -1.5916057 0.69216383 0
5.2360005 -1.5987327 0.69186616 0
5.2330003 -1.6064872 0.69168758 0
5.2310004 -1.6145556 0.69156849 0
5.2300005 -1.6229434 0.69150901 0
5.2290001 -1.6313273 0.69144946 0
5.2310004 -1.6406982 0.69156849 0
5.2340002 -1.650408 0.69174707 0
5.2400002 -1.6611298 0.69210422 0
5.2350001 -1.6856256 0.69180667 0
5.2100005 -1.6858242 0.69031847 0
5.1990004 -1.6907305 0.68966371 0
5.1900005 -1.6962862 0.68912798 0
5.1840005 -1.7028484 0.68877083 0
5.1800003 -1.7100853 0.68853271 0
5.1760001 -1.7173077 0.68829465 0
5.1740003 -1.7252192 0.68817556 0
5.1730003 -1.7334771 0.68811607 0
5.1740003 -1.7424419 0.68817556 0
5.1770005 -1.7521249 0.68835413 0
5.1820002 -1.7625364 0.6886518 0
5.0820003 -1.8448766 0.6826992 0
5.0790005 -1.852164 0.68252063 0
5.0750003 -1.8590528 0.68228257 0
5.0710001 -1.865927 0.68204439 0
5.0680003 -1.8731784 0.68186581 0
5.0860004 -1.8886768 0.68293732 0
5.2930002 -1.5287737 0.68643308 0
5.2840004 -1.5348561 0.68591356 0
5.2760005 -1.5412127 0.68545187 0
5.2690005 -1.5478489 0.68504775 0
5.2630005 -1.5547702 0.68470144 0
5.2580004 -1.5619818 0.68441284 0
5.2520003 -1.5688615 0.68406653 0
5.2550001 -1.5785605 0.68423963 0
5.2470002 -1.5847783 0.68377787 0
5.2410002 -1.5916057 0.68343151 0
5.2370005 -1.5990537 0.68320072 0
5.2340002 -1.60681 0.68302751 0
5.2320004 -1.6148803 0.68291205 0
5.2320004 -1.6235963 0.68291205 0
5.2320004 -1.6323123 0.68291205 0
5.2350001 -1.6420184 0.6830852 0
5.2400002 -1.6523995 0.68337381 0
5.2500005 -1.664467 0.68395102 0
5.2350001 -1.6856256 0.6830852 0
5.2100005 -1.6858242 0.68164217 0
5.1990004 -1.6907305 0.68100727 0
5.1900005 -1.6962862 0.68048775 0
5.1840005 -1.7028484 0.68014145 0
5.1800003 -1.7100853 0.67991054 0
5.1760001 -1.7173077 0.67967963 0
5.1740003 -1.7252192 0.67956418 0
5.1730003 -1.7334771 0.67950648 0
5.1740003 -1.7424419 0.67956418 0
5.1770005 -1.7521249 0.67973733 0
5.1820002 -1.7625364 0.68002594 0
5.0820003 -1.8448766 0.67425376 0
5.0790005 -1.852164 0.67408061 0
5.0750003 -1.8590528 0.6738497 0
5.0710001 -1.865927 0.67361879 0
5.0680003 -1.8731784 0.6734457 0
5.0860004 -1.8886768 0.67448467 0
5.3030005 -1.5141159 0.67816627 0
5.2930002 -1.5199476 0.67760706 0
5.2850003 -1.5263494 0.67715973 0
5.2780004 -1.5330271 0.6767683 0
5.2710004 -1.5396795 0.67637682 0
5.2660003 -1.5469236 0.67609727 0
5.2610002 -1.5541496 0.67581773 0
5.2560005 -1.5613577 0.67553806 0
5.2520003 -1.5688615 0.67531443 0
5.2480001 -1.5763509 0.67509073 0
5.2490005 -1.5854133 0.6751467 0
5.2430005 -1.5922443 0.67481112 0
5.2390003 -1.5996958 0.67458749 0
5.2360005 -1.6074558 0.67441976 0
5.2340002 -1.6155295 0.67430788 0
5.2340002 -1.6242492 0.67430788 0
5.2360005 -1.6336255 0.67441976 0
5.2390003 -1.6433389 0.67458749 0
5.2470002 -1.6547227 0.67503482 0
5.2350001 -1.6856256 0.67436379 0
5.2100005 -1.6858242 0.67296588 0
5.1990004 -1.6907305 0.67235076 0
5.1900005 -1.6962862 0.67184752 0
5.1840005 -1.7028484 0.67151201 0
5.1800003 -1.7100853 0.67128831 0
5.1760001 -1.7173077 0.67106462 0
5.1740003 -1.7252192 0.6709528 0
5.1730003 -1.7334771 0.67089689 0
5.1740003 -1.7424419 0.6709528 0
5.1770005 -1.7521249 0.67112052 0
5.1820002 -1.7625364 0.67140019 0
5.0820003 -1.8448766 0.66580832 0
5.0790005 -1.852164 0.66564059 0
5.0750003 -1.8590528 0.66541696 0
5.0710001 -1.865927 0.6651932 0
5.0680003 -1.8731784 0.66502547 0
5.0860004 -1.8886768 0.66603202 0
5.3130002 -1.499386 0.66986328 0
5.3020005 -1.5049742 0.66926807 0
5.2940001 -1.511421 0.66883516 0
5.2860003 -1.517839 0.66840219 0
5.2800002 -1.5248342 0.66807753 0
5.2740002 -1.5318075 0.66775286 0
5.2690005 -1.5390663 0.66748226 0
5.2640004 -1.5463067 0.66721171 0
5.2600002 -1.5538394 0.66699529 0
5.2550001 -1.5610455 0.66672468 0
5.2520003 -1.5688615 0.66656232 0
5.2490005 -1.5766666 0.66640002 0
5.2530003 -1.5866832 0.66661644 0
5.2470002 -1.5935214 0.66629177 0
5.2420001 -1.6006589 0.66602117 0
5.2390003 -1.6084244 0.66585886 0
5.2380004 -1.6168283 0.66580474 0
5.2380004 -1.6255552 0.66580474 0
5.2400002 -1.6349385 0.66591299 0
5.2450004 -1.6453196 0.66618353 0
5.2350001 -1.6856256 0.66564238 0
5.2100005 -1.6858242 0.66428959 0
5.1990004 -1.6907305 0.66369426 0
5.1900005 -1.6962862 0.66320729 0
5.1840005 -1.7028484 0.66288257 0
5.1800003 -1.7100853 0.66266608 0
5.1760001 -1.7173077 0.66244966 0
5.1740003 -1.7252192 0.66234142 0
5.1730003 -1.7334771 0.66228729 0
5.1740003 -1.7424419 0.66234142 0
5.1770005 -1.7521249 0.66250378 0
5.1820002 -1.7625364 0.66277432 0
5.0820003 -1.8448766 0.65736294 0
5.0790005 -1.852164 0.65720057 0
5.0750003 -1.8590528 0.65698409 0
5.0710001 -1.865927 0.65676767 0
5.0680003 -1.8731784 0.65660536 0
5.0860004 -1.8886768 0.65757942 0
5.3120003 -1.4902298 0.66094887 0
5.3030005 -1.4964278 0.66047812 0
5.2950006 -1.5028908 0.66005963 0
5.2880001 -1.5096244 0.65969342 0
5.2820005 -1.5166341 0.6593796 0
5.2770004 -1.5239251 0.65911806 0
5.2720003 -1.531198 0.65885651 0
5.2670002 -1.5384529 0.65859491 0
5.2630005 -1.5459982 0.65838569 0
5.2600002 -1.5538394 0.65822875 0
5.2560005 -1.5613577 0.65801954 0
5.2530003 -1.5691754 0.65786254 0
5.2510004 -1.5772979 0.657758 0
5.2490005 -1.5854133 0.65765333 0
5.2530003 -1.5954369 0.65786254 0
5.2480001 -1.6025854 0.657601 0
5.2450004 -1.6103618 0.65744412 0
5.2440004 -1.6187764 0.65739179 0
5.2440004 -1.6275141 0.65739179 0
5.2480001 -1.6375649 0.657601 0
5.2550001 -1.6486205 0.65796721 0
5.2350001 -1.6856256 0.65692097 0
5.2100005 -1.6858242 0.65561318 0
5.1990004 -1.6907305 0.65503782 0
5.1900005 -1.6962862 0.654567 0
5.1840005 -1.7028484 0.65425313 0
5.1800003 -1.7100853 0.65404391 0
5.1760001 -1.7173077 0.65383464 0
5.1740003 -1.7252192 0.65373003 0
5.1730003 -1.7334771 0.65367776 0
5.1740003 -1.7424419 0.65373003 0
5.1770005 -1.7521249 0.65388703 0
5.1820002 -1.7625364 0.65414858 0
5.0820003 -1.8448766 0.6489175 0
5.0790005 -1.852164 0.64876056 0
5.0750003 -1.8590528 0.64855134 0
5.0710001 -1.865927 0.64834207 0
5.0680003 -1.8731784 0.64818513 0
5.0860004 -1.8886768 0.64912677 0
5.3220005 -1.4754134 0.65259367 0
5.3120003 -1.4813695 0.65208858 0
5.3040004 -1.4878777 0.65168452 0
5.2970004 -1.4946529 0.65133101 0
5.2910004 -1.5017003 0.65102798 0
5.2850003 -1.5087261 0.65072489 0
5.2800002 -1.5160315 0.65047234 0
5.2750001 -1.5233189 0.6502198 0
5.2710004 -1.5308931 0.6500178 0
5.2670002 -1.5384529 0.6498158 0
5.2640004 -1.5463067 0.64966428 0
5.2610002 -1.5541496 0.64951277 0
5.2580004 -1.5619818 0.64936125 0
5.2560005 -1.570117 0.64926022 0
5.2540002 -1.5782448 0.64915919 0
5.2520003 -1.5863656 0.64905816 0
5.2520003 -1.5951177 0.64905816 0
5.2570004 -1.6054753 0.64931071 0
5.2540002 -1.6132677 0.64915919 0
5.2530003 -1.6216986 0.64910865 0
5.2550001 -1.6311054 0.64920968 0
5.2100005 -1.6858242 0.64693689 0
5.1990004 -1.6907305 0.64638132 0
5.1900005 -1.6962862 0.64592677 0
5.1840005 -1.7028484 0.64562374 0
5.1800003 -1.7100853 0.64542174 0
5.1760001 -1.7173077 0.64521968 0
5.1740003 -1.7252192 0.64511865 0
5.1730003 -1.7334771 0.64506817 0
5.1740003 -1.7424419 0.64511865 0
5.1770005 -1.7521249 0.64527023 0
5.1820002 -1.7625364 0.64552271 0
5.0820003 -1.8448766 0.64047205 0
5.0790005 -1.852164 0.64032054 0
5.0750003 -1.8590528 0.64011854 0
5.0710001 -1.865927 0.63991648 0
5.0680003 -1.8731784 0.63976496 0
5.0860004 -1.8886768 0.64067411 0
5.3320003 -1.4605248 0.64420235 0
5.3210001 -1.4662464 0.64366663 0
5.3130002 -1.4727997 0.64327699 0
5.3060002 -1.4796163 0.64293605 0
5.2990003 -1.4864076 0.64259517 0
5.2930002 -1.4934695 0.64230293 0
5.2880001 -1.5008074 0.64205939 0
5.2830005 -1.5081273 0.6418159 0
5.2790003 -1.5157303 0.64162111 0
5.2750001 -1.5233189 0.64142627 0
5.2710004 -1.5308931 0.64123148 0
5.2680001 -1.5387595 0.64108539 0
5.2650003 -1.5466151 0.64093924 0
5.2630005 -1.5547702 0.64084184 0
5.2610002 -1.5629178 0.64074445 0
5.2590003 -1.5710586 0.64064705 0
5.2590003 -1.5798231 0.64064705 0
5.2580004 -1.5882705 0.6405983 0
5.2580004 -1.5970334 0.6405983 0
5.2650003 -1.6080438 0.64093924 0
5.2710004 -1.6187567 0.64123148 0
5.2100005 -1.6858242 0.6382606 0
5.1990004 -1.6907305 0.63772488 0
5.1900005 -1.6962862 0.63728654 0
5.1840005 -1.7028484 0.63699436 0
5.1800003 -1.7100853 0.63679951 0
5.1760001 -1.7173077 0.63660467 0
5.1740003 -1.7252192 0.63650727 0
5.1730003 -1.7334771 0.63645858 0
5.1740003 -1.7424419 0.63650727 0
5.1770005 -1.7521249 0.63665342 0
5.1820002 -1.7625364 0.63689691 0
5.0820003 -1.8448766 0.63202661 0
5.0790005 -1.852164 0.63188052 0
5.0750003 -1.8590528 0.63168573 0
5.0710001 -1.865927 0.63149089 0
5.0680003 -1.8731784 0.6313448 0
5.0860004 -1.8886768 0.63222146 0
5.3310003 -1.4513434 0.63525903 0
5.3220005 -1.4576569 0.63483697 0
5.3140001 -1.4642261 0.63446176 0
5.3080006 -1.4713477 0.63418037 0
5.3020005 -1.4784476 0.63389897 0
5.2960005 -1.4855256 0.63361758 0
5.2910004 -1.4928778 0.6333831 0
5.2870002 -1.5005097 0.63319552 0
5.2830005 -1.5081273 0.63300788 0
5.2790003 -1.5157303 0.63282031 0
5.2760005 -1.523622 0.63267958 0
5.2730002 -1.5315028 0.63253891 0
5.2700005 -1.5393729 0.63239825 0
5.2680001 -1.5475404 0.63230443 0
5.2670002 -1.5560111 0.63225752 0
5.2650003 -1.5641662 0.6321637 0
5.2650003 -1.5729418 0.6321637 0
5.2650003 -1.5817173 0.6321637 0
5.2660003 -1.5908102 0.63221061 0
5.2680001 -1.600226 0.63230443 0
5.2100005 -1.6858242 0.62958431 0
5.1990004 -1.6907305 0.62906837 0
5.1900005 -1.6962862 0.62864631 0
5.1840005 -1.7028484 0.62836492 0
5.1800003 -1.7100853 0.62817729 0
5.1760001 -1.7173077 0.62798971 0
5.1740003 -1.7252192 0.62789589 0
5.1730003 -1.7334771 0.62784898 0
5.1740003 -1.7424419 0.62789589 0
5.1770005 -1.7521249 0.62803662 0
5.1820002 -1.7625364 0.6282711 0
5.0820003 -1.8448766 0.62358117 0
5.0790005 -1.852164 0.6234405 0
5.0750003 -1.8590528 0.62325287 0
5.0710001 -1.865927 0.62306529 0
5.0680003 -1.8731784 0.62292463 0
5.0860004 -1.8886768 0.62376881 0
5.3380003 -1.4177096 0.62668014 0
5.3330002 -1.4252187 0.62645465 0
5.3300004 -1.433273 0.62631941 0
5.3290005 -1.4418825 0.62627429 0
5.3230004 -1.4490634 0.62600374 0
5.3160005 -1.455936 0.62568808 0
5.3100004 -1.4630717 0.62541747 0
5.3050003 -1.4704764 0.62519199 0
5.2990003 -1.4775707 0.62492144 0
5.2950006 -1.4852316 0.62474108 0
5.2900004 -1.4925821 0.62451559 0
5.2870002 -1.5005097 0.62438029 0
5.2830005 -1.5081273 0.62419993 0
5.2800002 -1.5160315 0.62406462 0
5.2780004 -1.5242281 0.62397444 0
5.2750001 -1.5321125 0.62383914 0
5.2740002 -1.5405993 0.62379402 0
5.2720003 -1.5487744 0.62370384 0
5.2720003 -1.5575624 0.62370384 0
5.2710004 -1.5660385 0.62365878 0
5.2720003 -1.5751387 0.62370384 0
5.2740002 -1.5845581 0.62379402 0
5.2790003 -1.5949373 0.6240195 0
5.2100005 -1.6858242 0.62090796 0
5.1990004 -1.6907305 0.62041187 0
5.1900005 -1.6962862 0.62000608 0
5.1840005 -1.7028484 0.61973548 0
5.1800003 -1.7100853 0.61955512 0
5.1760001 -1.7173077 0.61937469 0
5.1740003 -1.7252192 0.61928451 0
5.1730003 -1.7334771 0.61923945 0
5.1740003 -1.7424419 0.61928451 0
5.1770005 -1.7521249 0.61941981 0
5.1820002 -1.7625364 0.6196453 0
5.0820003 -1.8448766 0.61513579 0
5.0790005 -1.852164 0.61500049 0
5.0750003 -1.8590528 0.61482012 0
5.0710001 -1.865927 0.6146397 0
5.0680003 -1.8731784 0.61450446 0
5.0860004 -1.8886768 0.61531615 0
5.3440003 -1.4015403 0.61803269 0
5.3360004 -1.4082505 0.61768633 0
5.3290005 -1.4152095 0.6173833 0
5.3250003 -1.4229821 0.61721015 0
5.3220005 -1.4310218 0.61708027 0
5.3200002 -1.4393336 0.61699367 0
5.3180003 -1.4476383 0.61690712 0
5.3130002 -1.4550754 0.61669064 0
5.3070002 -1.4622059 0.61643088 0
5.3030005 -1.4698956 0.61625773 0
5.2980003 -1.4772785 0.6160413 0
5.2950006 -1.4852316 0.61591142 0
5.2910004 -1.4928778 0.61573821 0
5.2880001 -1.5008074 0.61560833 0
5.2850003 -1.5087261 0.61547852 0
5.2830005 -1.5169353 0.61539191 0
5.2810001 -1.5251371 0.6153053 0
5.2790003 -1.5333319 0.61521876 0
5.2780004 -1.5418261 0.61517549 0
5.2780004 -1.5506251 0.61517549 0
5.2790003 -1.5597342 0.61521876 0
5.2800002 -1.5688469 0.61526203 0
5.2840004 -1.5789051 0.61543518 0
5.2100005 -1.6858242 0.61223161 0
5.1990004 -1.6907305 0.61175543 0
5.1900005 -1.6962862 0.6113658 0
5.1840005 -1.7028484 0.61110604 0
5.1800003 -1.7100853 0.61093289 0
5.1760001 -1.7173077 0.61075974 0
5.1740003 -1.7252192 0.61067313 0
5.1730003 -1.7334771 0.61062986 0
5.1740003 -1.7424419 0.61067313 0
5.1770005 -1.7521249 0.61080301 0
5.1820002 -1.7625364 0.61101949 0
5.0820003 -1.8448766 0.60669035 0
5.0790005 -1.852164 0.60656047 0
5.0750003 -1.8590528 0.60638732 0
5.0710001 -1.865927 0.60621417 0
5.0680003 -1.8731784 0.60608423 0
5.0860004 -1.8886768 0.6068635 0
5.3470001 -1.3934393 0.6092391 0
5.3360004 -1.3993468 0.60878277 0
5.3290005 -1.4063187 0.60849237 0
5.3230004 -1.4135427 0.60824341 0
5.3190002 -1.4213045 0.60807747 0
5.3160005 -1.4293333 0.60795301 0
5.3140001 -1.4376343 0.60787004 0
5.3140001 -1.4464983 0.60787004 0
5.3110003 -1.4545019 0.60774553 0
5.3060002 -1.4619173 0.6075381 0
5.3020005 -1.4696052 0.60737216 0
5.2990003 -1.4775707 0.60724771 0
5.2950006 -1.4852316 0.60708177 0
5.2930002 -1.4934695 0.6069988 0
5.2900004 -1.5014026 0.60687435 0
5.2880001 -1.5096244 0.60679138 0
5.2860003 -1.517839 0.60670841 0
5.2850003 -1.5263494 0.60666686 0
5.2850003 -1.535161 0.60666686 0
5.2850003 -1.5439725 0.60666686 0
5.2860003 -1.5530926 0.60670841 0
5.2890005 -1.5628369 0.60683286 0
5.2100005 -1.6858242 0.60355532 0
5.1990004 -1.6907305 0.60309899 0
5.1900005 -1.6962862 0.60272557 0
5.1840005 -1.7028484 0.60247666 0
5.1800003 -1.7100853 0.60231066 0
5.1760001 -1.7173077 0.60214472 0
5.1740003 -1.7252192 0.60206175 0
5.1730003 -1.7334771 0.60202026 0
5.1740003 -1.7424419 0.60206175 0
5.1770005 -1.7521249 0.6021862 0
5.1820002 -1.7625364 0.60239363 0
5.0820003 -1.8448766 0.59824491 0
5.0790005 -1.852164 0.59812045 0
5.0750003 -1.8590528 0.59795451 0
5.0710001 -1.865927 0.59778851 0
5.0680003 -1.8731784 0.59766412 0
5.0860004 -1.8886768 0.59841084 0
5.3410006 -1.3918052 0.60007757 0
5.3310003 -1.3979759 0.59968072 0
5.3240004 -1.4049387 0.59940296 0
5.3190002 -1.4124316 0.59920454 0
5.3150005 -1.4201863 0.59904581 0
5.3120003 -1.4282078 0.59892672 0
5.3100004 -1.4365017 0.59884739 0
5.3100004 -1.4453584 0.59884739 0
5.3100004 -1.454215 0.59884739 0
5.3060002 -1.4619173 0.59868866 0
5.3030005 -1.4698956 0.59856957 0
5.3000002 -1.4778628 0.59845054 0
5.2970004 -1.4858196 0.59833151 0
5.2950006 -1.4940612 0.59825212 0
5.2940001 -1.5025932 0.59821242 0
5.2920003 -1.5108222 0.59813309 0
5.2920003 -1.5196464 0.59813309 0
5.2920003 -1.5284706 0.59813309 0
5.2920003 -1.5372949 0.59813309 0
5.2950006 -1.5470392 0.59825212 0
5.2100005 -1.6858242 0.59487903 0
5.1990004 -1.6907305 0.59444249 0
5.1900005 -1.6962862 0.59408534 0
5.1840005 -1.7028484 0.59384722 0
5.1800003 -1.7100853 0.59368849 0
5.1760001 -1.7173077 0.59352976 0
5.1740003 -1.7252192 0.59345037 0
5.1730003 -1.7334771 0.59341073 0
5.1740003 -1.7424419 0.59345037 0
5.1770005 -1.7521249 0.59356946 0
5.1820002 -1.7625364 0.59376788 0
5.0820003 -1.8448766 0.58979946 0
5.0790005 -1.852164 0.58968043 0
5.0750003 -1.8590528 0.58952171 0
5.0710001 -1.865927 0.58936298 0
5.0680003 -1.8731784 0.58924389 0
5.0860004 -1.8886768 0.58995819 0
5.3490005 -1.3850571 0.59146798 0
5.3370004 -1.3907156 0.59101343 0
5.3280005 -1.3971535 0.59067249 0
5.3220005 -1.4043866 0.59044528 0
5.3170004 -1.4118761 0.59025586 0
5.3130002 -1.419627 0.59010434 0
5.3100004 -1.427645 0.58999068 0
5.3080006 -1.4359354 0.58991492 0
5.3080006 -1.4447883 0.58991492 0
5.3080006 -1.4536415 0.58991492 0
5.3080006 -1.4624946 0.58991492 0
5.3050003 -1.4704764 0.58980131 0
5.3030005 -1.4787397 0.58972549 0
5.3010001 -1.4869956 0.58964974 0
5.2990003 -1.4952445 0.58957398 0
5.2990003 -1.5040812 0.58957398 0
5.2980003 -1.5126188 0.58953613 0
5.2990003 -1.5217551 0.58957398 0
5.3010001 -1.5311979 0.58964974 0
5.3050003 -1.5412577 0.58980131 0
5.2100005 -1.6858242 0.58620268 0
5.1990004 -1.6907305 0.58578598 0
5.1900005 -1.6962862 0.58544511 0
5.1840005 -1.7028484 0.58521783 0
5.1800003 -1.7100853 0.58506632 0
5.1760001 -1.7173077 0.58491474 0
5.1740003 -1.7252192 0.58483899 0
5.1730003 -1.7334771 0.58480114 0
5.1740003 -1.7424419 0.58483899 0
5.1770005 -1.7521249 0.58495265 0
5.1820002 -1.7625364 0.58514202 0
5.0820003 -1.8448766 0.58135402 0
5.0790005 -1.852164 0.58124042 0
5.0750003 -1.8590528 0.5810889 0
5.0710001 -1.865927 0.58093739 0
5.0680003 -1.8731784 0.58082372 0
5.0860004 -1.8886768 0.58150554 0
5.3470001 -1.3845158 0.58246881 0
5.3360004 -1.3904432 0.58207196 0
5.3270001 -1.3968791 0.58174729 0
5.3200002 -1.4038347 0.58149475 0
5.3150005 -1.4113206 0.58131438 0
5.3110003 -1.4190679 0.58117008 0
5.3090005 -1.4273636 0.5810979 0
5.3070002 -1.435652 0.58102572 0
5.3060002 -1.4442183 0.58098966 0
5.3070002 -1.4533546 0.58102572 0
5.3090005 -1.4627832 0.5810979 0
5.3080006 -1.4713477 0.58106184 0
5.3060002 -1.4796163 0.58098966 0
5.3060002 -1.4884658 0.58098966 0
5.3050003 -1.4970194 0.5809536 0
5.3060002 -1.5061648 0.58098966 0
5.3070002 -1.5153136 0.58102572 0
5.3100004 -1.5250686 0.58113396 0
5.2100005 -1.6858242 0.57752639 0
5.1990004 -1.6907305 0.57712954 0
5.1900005 -1.6962862 0.57680488 0
5.1840005 -1.7028484 0.57658839 0
5.1800003 -1.7100853 0.57644409 0
5.1760001 -1.7173077 0.57629979 0
5.1740003 -1.7252192 0.57622761 0
5.1730003 -1.7334771 0.57619154 0
5.1740003 -1.7424419 0.57622761 0
5.1770005 -1.7521249 0.57633585 0
5.1820002 -1.7625364 0.57651621 0
5.0820003 -1.8448766 0.57290864 0
5.0790005 -1.852164 0.5728004 0
5.0750003 -1.8590528 0.5726561 0
5.0710001 -1.865927 0.57251179 0
5.0680003 -1.8731784 0.57240355 0
5.0860004 -1.8886768 0.57305294 0
5.3470001 -1.3845158 0.57354534 0
5.3350005 -1.3901709 0.57313406 0
5.3270001 -1.3968791 0.57285988 0
5.3210001 -1.4041107 0.57265425 0
5.3150005 -1.4113206 0.57244867 0
5.3120003 -1.4193474 0.57234585 0
5.3090005 -1.4273636 0.57224303 0
5.3070002 -1.435652 0.57217443 0
5.3070002 -1.4445033 0.57217443 0
5.3070002 -1.4533546 0.57217443 0
5.3090005 -1.4627832 0.57224303 0
5.3130002 -1.4727997 0.57238007 0
5.3120003 -1.4813695 0.57234585 0
5.3120003 -1.4902298 0.57234585 0
5.3130002 -1.499386 0.57238007 0
5.3160005 -1.5091411 0.57248294 0
5.3220005 -1.5198052 0.57268858 0
5.2100005 -1.6858242 0.56885004 0
5.1990004 -1.6907305 0.56847304 0
5.1900005 -1.6962862 0.56816459 0
5.1840005 -1.7028484 0.56795895 0
5.1800003 -1.7100853 0.56782186 0
5.1760001 -1.7173077 0.56768477 0
5.1740003 -1.7252192 0.56761622 0
5.1730003 -1.7334771 0.56758195 0
5.1740003 -1.7424419 0.56761622 0
5.1770005 -1.7521249 0.5677191 0
5.1820002 -1.7625364 0.56789041 0
5.0820003 -1.8448766 0.5644632 0
5.0790005 -1.852164 0.56436038 0
5.0750003 -1.8590528 0.56422329 0
5.0710001 -1.865927 0.5640862 0
5.0680003 -1.8731784 0.56398338 0
5.0860004 -1.8886768 0.56460029 0
5.3480005 -1.3847865 0.56465441 0
5.3370004 -1.3907156 0.56429726 0
5.3280005 -1.3971535 0.56400502 0
5.3220005 -1.4043866 0.56381023 0
5.3170004 -1.4118761 0.56364787 0
5.3130002 -1.419627 0.56351799 0
5.3100004 -1.427645 0.56342059 0
5.3080006 -1.4359354 0.56335568 0
5.3080006 -1.4447883 0.56335568 0
5.3090005 -1.4539284 0.56338811 0
5.3110003 -1.4633603 0.56345308 0
5.3150005 -1.4733806 0.56358296 0
5.3190002 -1.4834151 0.56371278 0
5.3220005 -1.4931701 0.56381023 0
5.3270001 -1.5035275 0.56397253 0
5.2100005 -1.6858242 0.56017375 0
5.1990004 -1.6907305 0.5598166 0
5.1900005 -1.6962862 0.55952436 0
5.1840005 -1.7028484 0.55932957 0
5.1800003 -1.7100853 0.55919969 0
5.1760001 -1.7173077 0.55906981 0
5.1740003 -1.7252192 0.5590049 0
5.1730003 -1.7334771 0.55897236 0
5.1740003 -1.7424419 0.5590049 0
