# .PCD v0.7 - Point Cloud Data file format
VERSION 0.7
FIELDS x y z intensity
SIZE 4 4 4 4
TYPE F F F F
COUNT 1 1 1 1
WIDTH 1485
HEIGHT 1
VIEWPOINT 0 0 0 1 0 0 0
POINTS 1485
DATA ascii
1.7010001 -0.77114719 0.777134 0
1.7 -0.77293473 0.77684718 0
1.6980001 -0.77415776 0.77627361 0
1.697 -0.77593625 0.77598679 0
1.696 -0.77771121 0.77569991 0
1.694 -0.77891612 0.77512634 0
1.6930001 -0.78068215 0.77483952 0
1.691 -0.78187436 0.77426589 0
1.6900001 -0.78363132 0.77397913 0
1.689 -0.7853846 0.77369231 0
1.687 -0.78655887 0.77311873 0
1.704 -0.76811492 0.77564222 0
1.7030001 -0.76991159 0.77535725 0
1.7010001 -0.77114719 0.77478725 0
1.7 -0.77293473 0.77450222 0
1.6980001 -0.77415776 0.77393222 0
1.697 -0.77593625 0.77364719 0
1.696 -0.77771121 0.77336222 0
1.694 -0.77891612 0.77279222 0
1.6930001 -0.78068215 0.77250719 0
1.691 -0.78187436 0.77193719 0
1.6900001 -0.78363132 0.77165222 0
1.689 -0.7853846 0.77136719 0
1.687 -0.78655887 0.77079719 0
1.704 -0.76811492 0.77329004 0
1.7030001 -0.76991159 0.77300692 0
1.7010001 -0.77114719 0.77244049 0
1.7 -0.77293473 0.77215731 0
1.6980001 -0.77415776 0.77159089 0
1.697 -0.77593625 0.77130771 0
1.696 -0.77771121 0.77102447 0
1.694 -0.77891612 0.7704581 0
1.6930001 -0.78068215 0.77017492 0
1.691 -0.78187436 0.7696085 0
1.6900001 -0.78363132 0.76932532 0
1.689 -0.7853846 0.76904207 0
1.687 -0.78655887 0.76847565 0
1.704 -0.76811492 0.77093792 0
1.7030001 -0.76991159 0.77065653 0
1.7010001 -0.77114719 0.77009374 0
1.7 -0.77293473 0.76981235 0
1.6980001 -0.77415776 0.76924956 0
1.697 -0.77593625 0.76896811 0
1.696 -0.77771121 0.76868671 0
1.694 -0.77891612 0.76812392 0
1.6930001 -0.78068215 0.76784259 0
1.691 -0.78187436 0.76727974 0
1.6900001 -0.78363132 0.76699841 0
1.689 -0.7853846 0.76671696 0
1.687 -0.78655887 0.76615417 0
1.704 -0.76811492 0.76858574 0
1.7030001 -0.76991159 0.76830614 0
1.7010001 -0.77114719 0.76774698 0
1.7 -0.77293473 0.76746738 0
1.6980001 -0.77415776 0.76690817 0
1.697 -0.77593625 0.76662862 0
1.696 -0.77771121 0.76634902 0
1.694 -0.77891612 0.76578987 0
1.6930001 -0.78068215 0.7655102 0
1.691 -0.78187436 0.76495105 0
1.6900001 -0.78363132 0.76467144 0
1.689 -0.7853846 0.7643919 0
1.687 -0.78655887 0.76383269 0
1.704 -0.76811492 0.76623356 0
1.7030001 -0.76991159 0.76595581 0
1.7010001 -0.77114719 0.76540023 0
1.7 -0.77293473 0.76512241 0
1.6980001 -0.77415776 0.7645669 0
1.697 -0.77593625 0.76428902 0
1.696 -0.77771121 0.76401126 0
1.694 -0.77891612 0.76345569 0
1.6930001 -0.78068215 0.76317793 0
1.691 -0.78187436 0.76262236 0
1.6900001 -0.78363132 0.7623446 0
1.689 -0.7853846 0.76206678 0
1.687 -0.78655887 0.76151121 0
1.704 -0.76811492 0.76388144 0
1.7030001 -0.76991159 0.76360542 0
1.7010001 -0.77114719 0.76305348 0
1.7 -0.77293473 0.76277745 0
1.6980001 -0.77415776 0.76222551 0
1.697 -0.77593625 0.76194954 0
1.696 -0.77771121 0.76167351 0
1.694 -0.77891612 0.76112157 0
1.6930001 -0.78068215 0.7608456 0
1.691 -0.78187436 0.7602936 0
1.6900001 -0.78363132 0.76001763 0
1.689 -0.7853846 0.75974166 0
1.687 -0.78655887 0.75918972 0
1.704 -0.76811492 0.76152921 0
1.7030001 -0.76991159 0.76125503 0
1.7010001 -0.77114719 0.76070672 0
1.7 -0.77293473 0.76043248 0
1.6980001 -0.77415776 0.75988418 0
1.697 -0.77593625 0.75961 0
1.696 -0.77771121 0.75933576 0
1.694 -0.77891612 0.75878739 0
1.6930001 -0.78068215 0.75851327 0
1.691 -0.78187436 0.75796485 0
1.6900001 -0.78363132 0.75769079 0
1.689 -0.7853846 0.75741655 0
1.687 -0.78655887 0.75686818 0
1.704 -0.76811492 0.75917709 0
1.7030001 -0.76991159 0.7589047 0
1.7010001 -0.77114719 0.75835997 0
1.7 -0.77293473 0.75808758 0
1.6980001 -0.77415776 0.75754285 0
1.697 -0.77593625 0.75727046 0
1.696 -0.77771121 0.75699806 0
1.694 -0.77891612 0.75645328 0
1.6930001 -0.78068215 0.75618094 0
1.691 -0.78187436 0.75563616 0
1.6900001 -0.78363132 0.75536382 0
1.689 -0.7853846 0.75509143 0
1.687 -0.78655887 0.7545467 0
1.704 -0.76811492 0.75682491 0
1.7030001 -0.76991159 0.75655437 0
1.7010001 -0.77114719 0.75601321 0
1.7 -0.77293473 0.75574267 0
1.6980001 -0.77415776 0.75520146 0
1.697 -0.77593625 0.75493085 0
1.696 -0.77771121 0.75466031 0
1.694 -0.77891612 0.75411916 0
1.6930001 -0.78068215 0.75384861 0
1.691 -0.78187436 0.75330746 0
1.6900001 -0.78363132 0.75303692 0
1.689 -0.7853846 0.75276637 0
1.687 -0.78655887 0.75222516 0
1.704 -0.76811492 0.75447273 0
1.7030001 -0.76991159 0.75420398 0
1.7010001 -0.77114719 0.7536664 0
1.7 -0.77293473 0.7533977 0
1.6980001 -0.77415776 0.75286013 0
1.697 -0.77593625 0.75259137 0
1.696 -0.77771121 0.75232255 0
1.694 -0.77891612 0.75178504 0
1.6930001 -0.78068215 0.75151634 0
1.691 -0.78187436 0.75097877 0
1.6900001 -0.78363132 0.75071001 0
1.689 -0.7853846 0.75044119 0
1.687 -0.78655887 0.74990368 0
1.704 -0.76811492 0.75212055 0
1.7030001 -0.76991159 0.75185359 0
1.7010001 -0.77114719 0.75131971 0
1.7 -0.77293473 0.75105274 0
1.6980001 -0.77415776 0.7505188 0
1.697 -0.77593625 0.75025183 0
1.696 -0.77771121 0.74998486 0
1.694 -0.77891612 0.74945092 0
1.6930001 -0.78068215 0.74918401 0
1.691 -0.78187436 0.74865007 0
1.6900001 -0.78363132 0.74838305 0
1.689 -0.7853846 0.74811614 0
1.687 -0.78655887 0.7475822 0
1.704 -0.76811492 0.74976838 0
1.7030001 -0.76991159 0.74950325 0
1.7010001 -0.77114719 0.74897295 0
1.7 -0.77293473 0.74870777 0
1.6980001 -0.77415776 0.74817747 0
1.697 -0.77593625 0.74791229 0
1.696 -0.77771121 0.74764711 0
1.694 -0.77891612 0.7471168 0
1.6930001 -0.78068215 0.74685168 0
1.691 -0.78187436 0.74632132 0
1.6900001 -0.78363132 0.7460562 0
1.689 -0.7853846 0.74579096 0
1.687 -0.78655887 0.74526072 0
1.704 -0.76811492 0.74741626 0
1.7030001 -0.76991159 0.74715292 0
1.7010001 -0.77114719 0.74662614 0
1.7 -0.77293473 0.74636281 0
1.6980001 -0.77415776 0.74583614 0
1.697 -0.77593625 0.74557275 0
1.696 -0.77771121 0.74530935 0
1.694 -0.77891612 0.74478269 0
1.6930001 -0.78068215 0.74451935 0
1.691 -0.78187436 0.74399257 0
1.6900001 -0.78363132 0.74372923 0
1.689 -0.7853846 0.7434659 0
1.687 -0.78655887 0.74293917 0
1.704 -0.76811492 0.74506402 0
1.7030001 -0.76991159 0.74480253 0
1.7010001 -0.77114719 0.74427944 0
1.7 -0.77293473 0.74401784 0
1.6980001 -0.77415776 0.74349475 0
1.697 -0.77593625 0.7432332 0
1.696 -0.77771121 0.74297166 0
1.694 -0.77891612 0.74244857 0
1.6930001 -0.78068215 0.74218702 0
1.691 -0.78187436 0.74166393 0
1.6900001 -0.78363132 0.74140239 0
1.689 -0.7853846 0.74114078 0
1.687 -0.78655887 0.74061769 0
1.704 -0.76811492 0.7427119 0
1.7030001 -0.76991159 0.74245214 0
1.7010001 -0.77114719 0.74193269 0
1.7 -0.77293473 0.74167293 0
1.6980001 -0.77415776 0.74115348 0
1.697 -0.77593625 0.74089366 0
1.696 -0.77771121 0.7406339 0
1.694 -0.77891612 0.74011445 0
1.6930001 -0.78068215 0.73985469 0
1.691 -0.78187436 0.73933518 0
1.6900001 -0.78363132 0.73907542 0
1.689 -0.7853846 0.73881567 0
1.687 -0.78655887 0.73829615 0
1.704 -0.76811492 0.74035972 0
1.7030001 -0.76991159 0.74010181 0
1.7010001 -0.77114719 0.73958588 0
1.7 -0.77293473 0.73932797 0
1.6980001 -0.77415776 0.73881209 0
1.697 -0.77593625 0.73855412 0
1.696 -0.77771121 0.73829615 0
1.694 -0.77891612 0.73778033 0
1.6930001 -0.78068215 0.73752236 0
1.691 -0.78187436 0.73700643 0
1.6900001 -0.78363132 0.73674858 0
1.689 -0.7853846 0.73649061 0
1.687 -0.78655887 0.73597467 0
1.704 -0.76811492 0.73800755 0
1.7030001 -0.76991159 0.73775148 0
1.7010001 -0.77114719 0.73723918 0
1.7 -0.77293473 0.736983 0
1.6980001 -0.77415776 0.7364707 0
1.697 -0.77593625 0.73621464 0
1.696 -0.77771121 0.73595846 0
1.694 -0.77891612 0.73544616 0
1.6930001 -0.78068215 0.73519003 0
1.691 -0.78187436 0.73467773 0
1.6900001 -0.78363132 0.73442161 0
1.689 -0.7853846 0.73416543 0
1.687 -0.78655887 0.73365319 0
1.704 -0.76811492 0.73565543 0
1.7030001 -0.76991159 0.73540103 0
1.7010001 -0.77114719 0.73489237 0
1.7 -0.77293473 0.73463809 0
1.6980001 -0.77415776 0.73412943 0
1.697 -0.77593625 0.73387504 0
1.696 -0.77771121 0.7336207 0
1.694 -0.77891612 0.73311204 0
1.6930001 -0.78068215 0.7328577 0
1.691 -0.78187436 0.73234904 0
1.6900001 -0.78363132 0.73209471 0
1.689 -0.7853846 0.73184037 0
1.687 -0.78655887 0.73133171 0
1.704 -0.76811492 0.73330319 0
1.7030001 -0.76991159 0.7330507 0
1.7010001 -0.77114719 0.73254561 0
1.7 -0.77293473 0.73229313 0
1.6980001 -0.77415776 0.73178804 0
1.697 -0.77593625 0.73153549 0
1.696 -0.77771121 0.73128295 0
1.694 -0.77891612 0.73077792 0
1.6930001 -0.78068215 0.73052537 0
1.691 -0.78187436 0.73002028 0
1.6900001 -0.78363132 0.7297678 0
1.689 -0.7853846 0.72951525 0
1.687 -0.78655887 0.72901022 0
1.704 -0.76811492 0.73095107 0
1.7030001 -0.76991159 0.73070037 0
1.7010001 -0.77114719 0.73019892 0
1.7 -0.77293473 0.72994816 0
1.6980001 -0.77415776 0.72944671 0
1.697 -0.77593625 0.72919595 0
1.696 -0.77771121 0.72894526 0
1.694 -0.77891612 0.72844374 0
1.6930001 -0.78068215 0.72819304 0
1.691 -0.78187436 0.72769159 0
1.6900001 -0.78363132 0.72744083 0
1.689 -0.7853846 0.72719014 0
1.687 -0.78655887 0.72668868 0
1.704 -0.76811492 0.72859889 0
1.7030001 -0.76991159 0.72834998 0
1.7010001 -0.77114719 0.72785211 0
1.7 -0.77293473 0.7276032 0
1.6980001 -0.77415776 0.72710538 0
1.697 -0.77593625 0.72685647 0
1.696 -0.77771121 0.7266075 0
1.694 -0.77891612 0.72610962 0
1.6930001 -0.78068215 0.72586071 0
1.691 -0.78187436 0.7253629 0
1.6900001 -0.78363132 0.72511399 0
1.689 -0.7853846 0.72486502 0
1.687 -0.78655887 0.72436714 0
1.704 -0.76811492 0.72624671 0
1.7030001 -0.76991159 0.72599965 0
1.7010001 -0.77114719 0.72550535 0
1.7 -0.77293473 0.72525823 0
1.6980001 -0.77415776 0.72476405 0
1.697 -0.77593625 0.72451687 0
1.696 -0.77771121 0.72426975 0
1.694 -0.77891612 0.72377551 0
1.6930001 -0.78068215 0.72352839 0
1.691 -0.78187436 0.72303414 0
1.6900001 -0.78363132 0.72278702 0
1.689 -0.7853846 0.7225399 0
1.687 -0.78655887 0.72204566 0
1.704 -0.76811492 0.7238946 0
1.7030001 -0.76991159 0.72364926 0
1.7010001 -0.77114719 0.72315866 0
1.7 -0.77293473 0.72291327 0
1.6980001 -0.77415776 0.72242272 0
1.697 -0.77593625 0.72217739 0
1.696 -0.77771121 0.72193205 0
1.694 -0.77891612 0.72144139 0
1.6930001 -0.78068215 0.72119606 0
1.691 -0.78187436 0.72070545 0
1.6900001 -0.78363132 0.72046018 0
1.689 -0.7853846 0.72021478 0
1.687 -0.78655887 0.71972418 0
1.704 -0.76811492 0.72154242 0
1.7030001 -0.76991159 0.72129893 0
1.7010001 -0.77114719 0.72081184 0
1.7 -0.77293473 0.72056836 0
1.6980001 -0.77415776 0.72008133 0
1.697 -0.77593625 0.71983778 0
1.696 -0.77771121 0.7195943 0
1.694 -0.77891612 0.71910727 0
1.6930001 -0.78068215 0.71886373 0
1.691 -0.78187436 0.71837676 0
1.6900001 -0.78363132 0.71813321 0
1.689 -0.7853846 0.71788967 0
1.687 -0.78655887 0.7174027 0
1.704 -0.76811492 0.71919024 0
1.7030001 -0.76991159 0.71894854 0
1.7010001 -0.77114719 0.71846509 0
1.7 -0.77293473 0.71822345 0
1.6980001 -0.77415776 0.71774 0
1.697 -0.77593625 0.7174983 0
1.696 -0.77771121 0.71725655 0
1.694 -0.77891612 0.71677315 0
1.6930001 -0.78068215 0.7165314 0
1.691 -0.78187436 0.716048 0
1.6900001 -0.78363132 0.71580631 0
1.689 -0.7853846 0.71556461 0
1.687 -0.78655887 0.71508121 0
1.704 -0.76811492 0.71683812 0
1.7030001 -0.76991159 0.71659815 0
1.7010001 -0.77114719 0.7161184 0
1.7 -0.77293473 0.71587849 0
1.6980001 -0.77415776 0.71539867 0
1.697 -0.77593625 0.7151587 0
1.696 -0.77771121 0.71491885 0
1.694 -0.77891612 0.71443903 0
1.6930001 -0.78068215 0.71419913 0
1.691 -0.78187436 0.71371925 0
1.6900001 -0.78363132 0.7134794 0
1.689 -0.7853846 0.71323949 0
1.687 -0.78655887 0.71275967 0
1.704 -0.76811492 0.71448588 0
1.7030001 -0.76991159 0.71424782 0
1.7010001 -0.77114719 0.71377158 0
1.7 -0.77293473 0.71353352 0
1.6980001 -0.77415776 0.71305728 0
1.697 -0.77593625 0.71281922 0
1.696 -0.77771121 0.7125811 0
1.694 -0.77891612 0.71210492 0
1.6930001 -0.78068215 0.7118668 0
1.691 -0.78187436 0.71139061 0
1.6900001 -0.78363132 0.71115249 0
1.689 -0.7853846 0.71091437 0
1.687 -0.78655887 0.71043813 0
1.704 -0.76811492 0.71213377 0
1.7030001 -0.76991159 0.71189749 0
1.7010001 -0.77114719 0.71142483 0
1.7 -0.77293473 0.71118855 0
1.6980001 -0.77415776 0.71071595 0
1.697 -0.77593625 0.71047968 0
1.696 -0.77771121 0.71024334 0
1.694 -0.77891612 0.7097708 0
1.6930001 -0.78068215 0.70953447 0
1.691 -0.78187436 0.70906186 0
1.6900001 -0.78363132 0.70882559 0
1.689 -0.7853846 0.70858926 0
1.687 -0.78655887 0.70811665 0
1.704 -0.76811492 0.70978159 0
1.7030001 -0.76991159 0.7095471 0
1.7010001 -0.77114719 0.70907813 0
1.7 -0.77293473 0.70884359 0
1.6980001 -0.77415776 0.70837462 0
1.697 -0.77593625 0.70814013 0
1.696 -0.77771121 0.70790559 0
1.694 -0.77891612 0.70743662 0
1.6930001 -0.78068215 0.70720214 0
1.691 -0.78187436 0.70673311 0
1.6900001 -0.78363132 0.70649862 0
1.689 -0.7853846 0.70626414 0
1.687 -0.78655887 0.70579517 0
1.704 -0.76811492 0.70742941 0
1.7030001 -0.76991159 0.70719671 0
1.7010001 -0.77114719 0.70673132 0
1.7 -0.77293473 0.70649862 0
1.6980001 -0.77415776 0.70603329 0
1.697 -0.77593625 0.70580053 0
1.696 -0.77771121 0.7055679 0
1.694 -0.77891612 0.7051025 0
1.6930001 -0.78068215 0.70486987 0
1.691 -0.78187436 0.70440441 0
1.6900001 -0.78363132 0.70417178 0
1.689 -0.7853846 0.70393908 0
1.687 -0.78655887 0.70347369 0
1.704 -0.76811492 0.70507723 0
1.7030001 -0.76991159 0.70484638 0
1.7010001 -0.77114719 0.70438457 0
1.7 -0.77293473 0.70415372 0
1.6980001 -0.77415776 0.70369196 0
1.697 -0.77593625 0.70346105 0
1.696 -0.77771121 0.70323014 0
1.694 -0.77891612 0.70276839 0
1.6930001 -0.78068215 0.70253754 0
1.691 -0.78187436 0.70207572 0
1.6900001 -0.78363132 0.70184481 0
1.689 -0.7853846 0.7016139 0
1.687 -0.78655887 0.70115221 0
1.704 -0.76811492 0.70272505 0
1.7030001 -0.76991159 0.70249605 0
1.7010001 -0.77114719 0.70203787 0
1.7 -0.77293473 0.70180875 0
1.6980001 -0.77415776 0.70135057 0
1.697 -0.77593625 0.70112151 0
1.696 -0.77771121 0.70089239 0
1.694 -0.77891612 0.70043421 0
1.6930001 -0.78068215 0.70020521 0
1.691 -0.78187436 0.69974697 0
1.6900001 -0.78363132 0.69951797 0
1.689 -0.7853846 0.69928885 0
1.687 -0.78655887 0.69883066 0
1.704 -0.76811492 0.70037293 0
1.7030001 -0.76991159 0.7001456 0
1.7010001 -0.77114719 0.69969106 0
1.7 -0.77293473 0.69946378 0
1.6980001 -0.77415776 0.6990093 0
1.697 -0.77593625 0.69878197 0
1.696 -0.77771121 0.69855464 0
1.694 -0.77891612 0.69810009 0
1.6930001 -0.78068215 0.69787288 0
1.691 -0.78187436 0.69741827 0
1.6900001 -0.78363132 0.697191 0
1.689 -0.7853846 0.69696373 0
1.687 -0.78655887 0.69650912 0
1.704 -0.76811492 0.69802076 0
1.7030001 -0.76991159 0.69779527 0
1.7010001 -0.77114719 0.6973443 0
1.7 -0.77293473 0.69711888 0
1.6980001 -0.77415776 0.69666791 0
1.697 -0.77593625 0.69644237 0
1.696 -0.77771121 0.69621694 0
1.694 -0.77891612 0.69576597 0
1.6930001 -0.78068215 0.69554055 0
1.691 -0.78187436 0.69508958 0
1.6900001 -0.78363132 0.69486409 0
1.689 -0.7853846 0.69463861 0
1.687 -0.78655887 0.69418764 0
1.704 -0.76811492 0.69566858 0
1.7030001 -0.76991159 0.69544494 0
1.7010001 -0.77114719 0.69499761 0
1.7 -0.77293473 0.69477391 0
1.6980001 -0.77415776 0.69432652 0
1.697 -0.77593625 0.69410288 0
1.696 -0.77771121 0.69387919 0
1.694 -0.77891612 0.69343185 0
1.6930001 -0.78068215 0.69320822 0
1.691 -0.78187436 0.69276083 0
1.6900001 -0.78363132 0.69253719 0
1.689 -0.7853846 0.69231349 0
1.687 -0.78655887 0.69186616 0
1.704 -0.76811492 0.6933164 0
1.7030001 -0.76991159 0.69309455 0
1.7010001 -0.77114719 0.69265079 0
1.7 -0.77293473 0.69242895 0
1.6980001 -0.77415776 0.69198525 0
1.697 -0.77593625 0.69176334 0
1.696 -0.77771121 0.69154143 0
1.694 -0.77891612 0.69109774 0
1.6930001 -0.78068215 0.69087589 0
1.691 -0.78187436 0.69043213 0
1.6900001 -0.78363132 0.69021028 0
1.689 -0.7853846 0.68998837 0
1.687 -0.78655887 0.68954468 0
1.704 -0.76811492 0.69096422 0
1.7030001 -0.76991159 0.69074422 0
1.7010001 -0.77114719 0.69030404 0
1.7 -0.77293473 0.69008398 0
1.6980001 -0.77415776 0.68964386 0
1.697 -0.77593625 0.6894238 0
1.696 -0.77771121 0.68920374 0
1.694 -0.77891612 0.68876362 0
1.6930001 -0.78068215 0.68854356 0
1.691 -0.78187436 0.68810344 0
1.6900001 -0.78363132 0.68788338 0
1.689 -0.7853846 0.68766332 0
1.687 -0.78655887 0.6872232 0
1.704 -0.76811492 0.6886121 0
1.7030001 -0.76991159 0.68839383 0
1.7010001 -0.77114719 0.68795735 0
1.7 -0.77293473 0.68773901 0
1.6980001 -0.77415776 0.68730253 0
1.697 -0.77593625 0.68708432 0
1.696 -0.77771121 0.68686599 0
1.694 -0.77891612 0.6864295 0
1.6930001 -0.78068215 0.68621123 0
1.691 -0.78187436 0.68577468 0
1.6900001 -0.78363132 0.68555641 0
1.689 -0.7853846 0.68533814 0
1.687 -0.78655887 0.68490165 0
1.704 -0.76811492 0.68625987 0
1.7030001 -0.76991159 0.6860435 0
1.7010001 -0.77114719 0.68561053 0
1.7 -0.77293473 0.68539411 0
1.6980001 -0.77415776 0.6849612 0
1.697 -0.77593625 0.68474472 0
1.696 -0.77771121 0.68452823 0
1.694 -0.77891612 0.68409538 0
1.6930001 -0.78068215 0.6838789 0
1.691 -0.78187436 0.68344593 0
1.6900001 -0.78363132 0.68322951 0
1.689 -0.7853846 0.68301308 0
1.687 -0.78655887 0.68258011 0
1.704 -0.76811492 0.68390775 0
1.7030001 -0.76991159 0.68369311 0
1.7010001 -0.77114719 0.68326378 0
1.7 -0.77293473 0.68304914 0
1.6980001 -0.77415776 0.68261981 0
1.697 -0.77593625 0.68240517 0
1.696 -0.77771121 0.68219054 0
1.694 -0.77891612 0.68176126 0
1.6930001 -0.78068215 0.68154657 0
1.691 -0.78187436 0.6811173 0
1.6900001 -0.78363132 0.6809026 0
1.689 -0.7853846 0.68068796 0
1.687 -0.78655887 0.68025863 0
1.704 -0.76811492 0.68155563 0
1.7030001 -0.76991159 0.68134272 0
1.7010001 -0.77114719 0.68091708 0
1.7 -0.77293473 0.68070424 0
1.6980001 -0.77415776 0.68027854 0
1.697 -0.77593625 0.68006563 0
1.696 -0.77771121 0.67985278 0
1.694 -0.77891612 0.67942709 0
1.6930001 -0.78068215 0.67921424 0
1.691 -0.78187436 0.67878854 0
1.6900001 -0.78363132 0.67857575 0
1.689 -0.7853846 0.67836285 0
1.687 -0.78655887 0.67793715 0
1.704 -0.76811492 0.67920339 0
1.7030001 -0.76991159 0.67899239 0
1.7010001 -0.77114719 0.67857027 0
1.7 -0.77293473 0.67835927 0
1.6980001 -0.77415776 0.67793715 0
1.697 -0.77593625 0.67772615 0
1.696 -0.77771121 0.67751503 0
1.694 -0.77891612 0.67709297 0
1.6930001 -0.78068215 0.67688191 0
1.691 -0.78187436 0.67645979 0
1.6900001 -0.78363132 0.67624879 0
1.689 -0.7853846 0.67603773 0
1.687 -0.78655887 0.67561567 0
1.704 -0.76811492 0.67685127 0
1.7030001 -0.76991159 0.67664206 0
1.7010001 -0.77114719 0.67622352 0
1.7 -0.77293473 0.6760143 0
1.6980001 -0.77415776 0.67559582 0
1.697 -0.77593625 0.67538655 0
1.696 -0.77771121 0.67517734 0
1.694 -0.77891612 0.67475885 0
1.6930001 -0.78068215 0.67454958 0
1.691 -0.78187436 0.6741311 0
1.6900001 -0.78363132 0.67392188 0
1.689 -0.7853846 0.67371261 0
1.687 -0.78655887 0.67329419 0
1.704 -0.76811492 0.67449909 0
1.7030001 -0.76991159 0.67429167 0
1.7010001 -0.77114719 0.67387682 0
1.7 -0.77293473 0.67366934 0
1.6980001 -0.77415776 0.67325449 0
1.697 -0.77593625 0.67304701 0
1.696 -0.77771121 0.67283958 0
1.694 -0.77891612 0.67242467 0
1.6930001 -0.78068215 0.67221725 0
1.691 -0.78187436 0.6718024 0
1.6900001 -0.78363132 0.67159498 0
1.689 -0.7853846 0.67138755 0
1.687 -0.78655887 0.67097265 0
1.704 -0.76811492 0.67214692 0
1.7030001 -0.76991159 0.67194128 0
1.7010001 -0.77114719 0.67153001 0
1.7 -0.77293473 0.67132437 0
1.6980001 -0.77415776 0.6709131 0
1.697 -0.77593625 0.67070746 0
1.696 -0.77771121 0.67050183 0
1.694 -0.77891612 0.67009056 0
1.6930001 -0.78068215 0.66988492 0
1.691 -0.78187436 0.66947365 0
1.6900001 -0.78363132 0.66926807 0
1.689 -0.7853846 0.66906238 0
1.687 -0.78655887 0.6686511 0
1.704 -0.76811492 0.6697948 0
1.7030001 -0.76991159 0.66959095 0
1.7010001 -0.77114719 0.66918325 0
1.7 -0.77293473 0.66897941 0
1.6980001 -0.77415776 0.66857183 0
1.697 -0.77593625 0.66836798 0
1.696 -0.77771121 0.66816413 0
1.694 -0.77891612 0.66775644 0
1.6930001 -0.78068215 0.66755259 0
1.691 -0.78187436 0.66714495 0
1.6900001 -0.78363132 0.66694117 0
1.689 -0.7853846 0.66673732 0
1.687 -0.78655887 0.66632962 0
1.704 -0.76811492 0.66744256 0
1.7030001 -0.76991159 0.66724056 0
1.7010001 -0.77114719 0.6668365 0
1.7 -0.77293473 0.6666345 0
1.6980001 -0.77415776 0.66623044 0
1.697 -0.77593625 0.66602838 0
1.696 -0.77771121 0.66582638 0
1.694 -0.77891612 0.66542232 0
1.6930001 -0.78068215 0.66522032 0
1.691 -0.78187436 0.66481626 0
1.6900001 -0.78363132 0.6646142 0
1.689 -0.7853846 0.6644122 0
1.687 -0.78655887 0.66400814 0
1.704 -0.76811492 0.66509044 0
1.7030001 -0.76991159 0.66489023 0
1.7010001 -0.77114719 0.66448975 0
1.7 -0.77293473 0.66428953 0
1.6980001 -0.77415776 0.66388911 0
1.697 -0.77593625 0.6636889 0
1.696 -0.77771121 0.66348863 0
1.694 -0.77891612 0.6630882 0
1.6930001 -0.78068215 0.66288799 0
1.691 -0.78187436 0.66248751 0
1.6900001 -0.78363132 0.66228729 0
1.689 -0.7853846 0.66208708 0
1.687 -0.78655887 0.66168666 0
1.704 -0.76811492 0.66273826 0
1.7030001 -0.76991159 0.66253984 0
1.7010001 -0.77114719 0.66214299 0
1.7 -0.77293473 0.66194463 0
1.6980001 -0.77415776 0.66154778 0
1.697 -0.77593625 0.6613493 0
1.696 -0.77771121 0.66115093 0
1.694 -0.77891612 0.66075408 0
1.6930001 -0.78068215 0.66055566 0
1.691 -0.78187436 0.66015881 0
1.6900001 -0.78363132 0.65996039 0
1.689 -0.7853846 0.65976202 0
1.687 -0.78655887 0.65936518 0
1.704 -0.76811492 0.66038609 0
1.7030001 -0.76991159 0.66018951 0
1.7010001 -0.77114719 0.65979624 0
1.7 -0.77293473 0.65959966 0
1.6980001 -0.77415776 0.65920639 0
1.697 -0.77593625 0.65900981 0
1.696 -0.77771121 0.65881318 0
1.694 -0.77891612 0.65841997 0
1.6930001 -0.78068215 0.65822333 0
1.691 -0.78187436 0.65783012 0
1.6900001 -0.78363132 0.65763354 0
1.689 -0.7853846 0.65743685 0
1.687 -0.78655887 0.65704364 0
1.704 -0.76811492 0.65803397 0
1.7030001 -0.76991159 0.65783918 0
1.7010001 -0.77114719 0.65744948 0
1.7 -0.77293473 0.6572547 0
1.6980001 -0.77415776 0.65686506 0
1.697 -0.77593625 0.65667021 0
1.696 -0.77771121 0.65647542 0
1.694 -0.77891612 0.65608585 0
1.6930001 -0.78068215 0.65589106 0
1.691 -0.78187436 0.65550137 0
1.6900001 -0.78363132 0.65530658 0
1.689 -0.7853846 0.65511179 0
1.687 -0.78655887 0.65472209 0
1.704 -0.76811492 0.65568173 0
1.7030001 -0.76991159 0.65548873 0
1.7010001 -0.77114719 0.65510273 0
1.7 -0.77293473 0.65490973 0
1.6980001 -0.77415776 0.65452373 0
1.697 -0.77593625 0.65433073 0
1.696 -0.77771121 0.65413773 0
1.694 -0.77891612 0.65375173 0
1.6930001 -0.78068215 0.65355873 0
1.691 -0.78187436 0.65317261 0
1.6900001 -0.78363132 0.65297967 0
1.689 -0.7853846 0.65278667 0
1.687 -0.78655887 0.65240061 0
1.704 -0.76811492 0.65332961 0
1.7030001 -0.76991159 0.6531384 0
1.7010001 -0.77114719 0.65275598 0
1.7 -0.77293473 0.65256476 0
1.6980001 -0.77415776 0.6521824 0
1.697 -0.77593625 0.65199119 0
1.696 -0.77771121 0.65179998 0
1.694 -0.77891612 0.65141755 0
1.6930001 -0.78068215 0.6512264 0
1.691 -0.78187436 0.65084398 0
1.6900001 -0.78363132 0.65065277 0
1.689 -0.7853846 0.65046155 0
1.687 -0.78655887 0.65007913 0
1.704 -0.76811492 0.65097743 0
1.7030001 -0.76991159 0.65078801 0
1.7010001 -0.77114719 0.65040922 0
1.7 -0.77293473 0.6502198 0
1.6980001 -0.77415776 0.64984107 0
1.697 -0.77593625 0.64965165 0
1.696 -0.77771121 0.64946222 0
1.694 -0.77891612 0.64908344 0
1.6930001 -0.78068215 0.64889407 0
1.691 -0.78187436 0.64851522 0
1.6900001 -0.78363132 0.64832586 0
1.689 -0.7853846 0.64813644 0
1.687 -0.78655887 0.64775765 0
1.704 -0.76811492 0.64862525 0
1.7030001 -0.76991159 0.64843768 0
1.7010001 -0.77114719 0.64806247 0
1.7 -0.77293473 0.64787489 0
1.6980001 -0.77415776 0.64749968 0
1.697 -0.77593625 0.6473121 0
1.696 -0.77771121 0.64712447 0
1.694 -0.77891612 0.64674932 0
1.6930001 -0.78068215 0.64656174 0
1.691 -0.78187436 0.64618653 0
1.6900001 -0.78363132 0.64599895 0
1.689 -0.7853846 0.64581132 0
1.687 -0.78655887 0.64543617 0
1.704 -0.76811492 0.64627308 0
1.7030001 -0.76991159 0.64608735 0
1.7010001 -0.77114719 0.64571571 0
1.7 -0.77293473 0.64552993 0
1.6980001 -0.77415776 0.64515835 0
1.697 -0.77593625 0.64497256 0
1.696 -0.77771121 0.64478678 0
1.694 -0.77891612 0.64441514 0
1.6930001 -0.78068215 0.64422941 0
1.691 -0.78187436 0.64385784 0
1.6900001 -0.78363132 0.64367199 0
1.689 -0.7853846 0.6434862 0
1.687 -0.78655887 0.64311463 0
1.704 -0.76811492 0.6439209 0
1.7030001 -0.76991159 0.64373696 0
1.7010001 -0.77114719 0.64336896 0
1.7 -0.77293473 0.64318502 0
1.6980001 -0.77415776 0.64281702 0
1.697 -0.77593625 0.64263302 0
1.696 -0.77771121 0.64244902 0
1.694 -0.77891612 0.64208102 0
1.6930001 -0.78068215 0.64189708 0
1.691 -0.78187436 0.64152908 0
1.6900001 -0.78363132 0.64134508 0
1.689 -0.7853846 0.64116108 0
1.687 -0.78655887 0.64079314 0
1.704 -0.76811492 0.64156878 0
1.7030001 -0.76991159 0.64138663 0
1.7010001 -0.77114719 0.64102221 0
1.7 -0.77293473 0.64084005 0
1.6980001 -0.77415776 0.64047563 0
1.697 -0.77593625 0.64029348 0
1.696 -0.77771121 0.64011127 0
1.694 -0.77891612 0.6397469 0
1.6930001 -0.78068215 0.63956475 0
1.691 -0.78187436 0.63920039 0
1.6900001 -0.78363132 0.63901818 0
1.689 -0.7853846 0.63883603 0
1.687 -0.78655887 0.6384716 0
1.704 -0.76811492 0.6392166 0
1.7030001 -0.76991159 0.63903624 0
1.7010001 -0.77114719 0.63867545 0
1.7 -0.77293473 0.63849509 0
1.6980001 -0.77415776 0.6381343 0
1.697 -0.77593625 0.63795394 0
1.696 -0.77771121 0.63777357 0
1.694 -0.77891612 0.63741279 0
1.6930001 -0.78068215 0.63723242 0
1.691 -0.78187436 0.63687164 0
1.6900001 -0.78363132 0.63669127 0
1.689 -0.7853846 0.63651091 0
1.687 -0.78655887 0.63615012 0
1.704 -0.76811492 0.63686442 0
1.7030001 -0.76991159 0.63668585 0
1.7010001 -0.77114719 0.6363287 0
1.7 -0.77293473 0.63615012 0
1.6980001 -0.77415776 0.63579297 0
1.697 -0.77593625 0.6356144 0
1.696 -0.77771121 0.63543582 0
1.694 -0.77891612 0.63507867 0
1.6930001 -0.78068215 0.63490009 0
1.691 -0.78187436 0.63454294 0
1.6900001 -0.78363132 0.63436437 0
1.689 -0.7853846 0.63418579 0
1.687 -0.78655887 0.63382864 0
1.704 -0.76811492 0.63451225 0
1.7030001 -0.76991159 0.63433552 0
1.7010001 -0.77114719 0.63398194 0
1.7 -0.77293473 0.63380516 0
1.6980001 -0.77415776 0.63345164 0
1.697 -0.77593625 0.63327485 0
1.696 -0.77771121 0.63309807 0
1.694 -0.77891612 0.63274455 0
1.6930001 -0.78068215 0.63256776 0
1.691 -0.78187436 0.63221419 0
1.6900001 -0.78363132 0.63203746 0
1.689 -0.7853846 0.63186067 0
1.687 -0.78655887 0.63150716 0
1.704 -0.76811492 0.63216007 0
1.7030001 -0.76991159 0.63198513 0
1.7010001 -0.77114719 0.63163519 0
1.7 -0.77293473 0.63146025 0
1.6980001 -0.77415776 0.63111031 0
1.697 -0.77593625 0.63093531 0
1.696 -0.77771121 0.63076031 0
1.694 -0.77891612 0.63041043 0
1.6930001 -0.78068215 0.63023543 0
1.691 -0.78187436 0.62988549 0
1.6900001 -0.78363132 0.62971056 0
1.689 -0.7853846 0.62953556 0
1.687 -0.78655887 0.62918562 0
1.704 -0.76811492 0.62980795 0
1.7030001 -0.76991159 0.6296348 0
1.7010001 -0.77114719 0.62928843 0
1.7 -0.77293473 0.62911528 0
1.6980001 -0.77415776 0.62876892 0
1.697 -0.77593625 0.62859577 0
1.696 -0.77771121 0.62842262 0
1.694 -0.77891612 0.62807626 0
1.6930001 -0.78068215 0.6279031 0
1.691 -0.78187436 0.6275568 0
1.6900001 -0.78363132 0.62738365 0
1.689 -0.7853846 0.62721044 0
1.687 -0.78655887 0.62686414 0
1.704 -0.76811492 0.62745577 0
1.7030001 -0.76991159 0.62728441 0
1.7010001 -0.77114719 0.62694168 0
1.7 -0.77293473 0.62677032 0
1.6980001 -0.77415776 0.62642765 0
1.697 -0.77593625 0.62625623 0
1.696 -0.77771121 0.62608486 0
1.694 -0.77891612 0.62574214 0
1.6930001 -0.78068215 0.62557077 0
1.691 -0.78187436 0.62522805 0
1.6900001 -0.78363132 0.62505674 0
1.689 -0.7853846 0.62488532 0
1.687 -0.78655887 0.62454259 0
1.704 -0.76811492 0.62510359 0
1.7030001 -0.76991159 0.62493408 0
1.7010001 -0.77114719 0.62459493 0
1.7 -0.77293473 0.62442541 0
1.6980001 -0.77415776 0.62408626 0
1.697 -0.77593625 0.62391675 0
1.696 -0.77771121 0.62374711 0
1.694 -0.77891612 0.62340802 0
1.6930001 -0.78068215 0.62323844 0
1.691 -0.78187436 0.62289935 0
1.6900001 -0.78363132 0.62272978 0
1.689 -0.7853846 0.62256026 0
1.687 -0.78655887 0.62222111 0
1.704 -0.76811492 0.62275147 0
1.7030001 -0.76991159 0.62258369 0
1.7010001 -0.77114719 0.62224817 0
1.7 -0.77293473 0.62208045 0
1.6980001 -0.77415776 0.62174493 0
1.697 -0.77593625 0.62157714 0
1.696 -0.77771121 0.62140942 0
1.694 -0.77891612 0.6210739 0
1.6930001 -0.78068215 0.62090617 0
1.691 -0.78187436 0.62057066 0
1.6900001 -0.78363132 0.62040287 0
1.689 -0.7853846 0.62023515 0
1.687 -0.78655887 0.61989963 0
1.704 -0.76811492 0.6203993 0
1.7030001 -0.76991159 0.6202333 0
1.7010001 -0.77114719 0.61990142 0
1.7 -0.77293473 0.61973548 0
1.6980001 -0.77415776 0.6194036 0
1.697 -0.77593625 0.61923766 0
1.696 -0.77771121 0.61907166 0
1.694 -0.77891612 0.61873978 0
1.6930001 -0.78068215 0.61857384 0
1.691 -0.78187436 0.61824191 0
1.6900001 -0.78363132 0.61807597 0
1.689 -0.7853846 0.61791003 0
1.687 -0.78655887 0.61757815 0
1.704 -0.76811492 0.61804712 0
1.7030001 -0.76991159 0.61788297 0
1.7010001 -0.77114719 0.61755466 0
1.7 -0.77293473 0.61739051 0
1.6980001 -0.77415776 0.61706221 0
1.697 -0.77593625 0.61689806 0
1.696 -0.77771121 0.61673391 0
1.694 -0.77891612 0.61640567 0
1.6930001 -0.78068215 0.61624151 0
1.691 -0.78187436 0.61591321 0
1.6900001 -0.78363132 0.61574906 0
1.689 -0.7853846 0.61558491 0
1.687 -0.78655887 0.61525661 0
1.704 -0.76811492 0.61569494 0
1.7030001 -0.76991159 0.61553264 0
1.7010001 -0.77114719 0.61520791 0
1.7 -0.77293473 0.61504555 0
1.6980001 -0.77415776 0.61472088 0
1.697 -0.77593625 0.61455858 0
1.696 -0.77771121 0.61439621 0
1.694 -0.77891612 0.61407149 0
1.6930001 -0.78068215 0.61390918 0
1.691 -0.78187436 0.61358452 0
1.6900001 -0.78363132 0.61342216 0
1.689 -0.7853846 0.61325979 0
1.687 -0.78655887 0.61293513 0
1.704 -0.76811492 0.61334276 0
1.7030001 -0.76991159 0.61318225 0
1.7010001 -0.77114719 0.61286116 0
1.7 -0.77293473 0.61270064 0
1.6980001 -0.77415776 0.61237955 0
1.697 -0.77593625 0.61221898 0
1.696 -0.77771121 0.61205846 0
1.694 -0.77891612 0.61173737 0
1.6930001 -0.78068215 0.61157686 0
1.691 -0.78187436 0.61125576 0
1.6900001 -0.78363132 0.61109525 0
1.689 -0.7853846 0.61093467 0
1.687 -0.78655887 0.61061364 0
1.704 -0.76811492 0.61099058 0
1.7030001 -0.76991159 0.61083186 0
1.7010001 -0.77114719 0.6105144 0
1.7 -0.77293473 0.61035568 0
1.6980001 -0.77415776 0.61003822 0
1.697 -0.77593625 0.60987949 0
1.696 -0.77771121 0.60972071 0
1.694 -0.77891612 0.60940325 0
1.6930001 -0.78068215 0.60924453 0
1.691 -0.78187436 0.60892707 0
1.6900001 -0.78363132 0.60876834 0
1.689 -0.7853846 0.60860956 0
1.687 -0.78655887 0.6082921 0
1.704 -0.76811492 0.60863841 0
1.7030001 -0.76991159 0.60848153 0
1.7010001 -0.77114719 0.60816765 0
1.7 -0.77293473 0.60801071 0
1.6980001 -0.77415776 0.60769689 0
1.697 -0.77593625 0.60753995 0
1.696 -0.77771121 0.60738301 0
1.694 -0.77891612 0.60706913 0
1.6930001 -0.78068215 0.60691226 0
1.691 -0.78187436 0.60659832 0
1.6900001 -0.78363132 0.60644138 0
1.689 -0.7853846 0.6062845 0
1.687 -0.78655887 0.60597062 0
1.704 -0.76811492 0.60628629 0
1.7030001 -0.76991159 0.60613114 0
1.7010001 -0.77114719 0.60582089 0
1.7 -0.77293473 0.6056658 0
1.6980001 -0.77415776 0.6053555 0
1.697 -0.77593625 0.60520041 0
1.696 -0.77771121 0.60504526 0
1.694 -0.77891612 0.60473502 0
1.6930001 -0.78068215 0.60457987 0
1.691 -0.78187436 0.60426962 0
1.6900001 -0.78363132 0.60411453 0
1.689 -0.7853846 0.60395938 0
1.687 -0.78655887 0.60364914 0
1.704 -0.76811492 0.60393411 0
1.7030001 -0.76991159 0.60378081 0
1.7010001 -0.77114719 0.60347414 0
1.7 -0.77293473 0.60332084 0
1.6980001 -0.77415776 0.60301417 0
1.697 -0.77593625 0.60286087 0
1.696 -0.77771121 0.60270751 0
1.694 -0.77891612 0.6024009 0
1.6930001 -0.78068215 0.6022476 0
1.691 -0.78187436 0.60194087 0
1.6900001 -0.78363132 0.60178757 0
1.689 -0.7853846 0.60163426 0
1.687 -0.78655887 0.6013276 0
1.704 -0.76811492 0.60158193 0
1.7030001 -0.76991159 0.60143042 0
1.7010001 -0.77114719 0.60112739 0
1.7 -0.77293473 0.60097587 0
1.6980001 -0.77415776 0.60067284 0
1.697 -0.77593625 0.60052133 0
1.696 -0.77771121 0.60036981 0
1.694 -0.77891612 0.60006672 0
1.6930001 -0.78068215 0.59991527 0
1.691 -0.78187436 0.59961218 0
1.6900001 -0.78363132 0.59946066 0
1.689 -0.7853846 0.59930915 0
1.687 -0.78655887 0.59900612 0
1.704 -0.76811492 0.59922981 0
1.7030001 -0.76991159 0.59908009 0
1.7010001 -0.77114719 0.59878063 0
1.7 -0.77293473 0.59863091 0
1.6980001 -0.77415776 0.59833151 0
1.697 -0.77593625 0.59818178 0
1.696 -0.77771121 0.59803206 0
1.694 -0.77891612 0.5977326 0
1.6930001 -0.78068215 0.59758294 0
1.691 -0.78187436 0.59728348 0
1.6900001 -0.78363132 0.59713376 0
1.689 -0.7853846 0.59698403 0
1.687 -0.78655887 0.59668463 0
1.704 -0.76811492 0.59687763 0
1.7030001 -0.76991159 0.5967297 0
1.7010001 -0.77114719 0.59643388 0
1.7 -0.77293473 0.59628594 0
1.6980001 -0.77415776 0.59599018 0
1.697 -0.77593625 0.59584224 0
1.696 -0.77771121 0.5956943 0
1.694 -0.77891612 0.59539849 0
1.6930001 -0.78068215 0.59525061 0
1.691 -0.78187436 0.59495473 0
1.6900001 -0.78363132 0.59480685 0
1.689 -0.7853846 0.59465897 0
1.687 -0.78655887 0.59436309 0
1.704 -0.76811492 0.59452546 0
1.7030001 -0.76991159 0.59437937 0
1.7010001 -0.77114719 0.59408712 0
1.7 -0.77293473 0.59394103 0
1.6980001 -0.77415776 0.59364879 0
1.697 -0.77593625 0.5935027 0
1.696 -0.77771121 0.59335661 0
1.694 -0.77891612 0.59306437 0
1.6930001 -0.78068215 0.59291828 0
1.691 -0.78187436 0.59262604 0
1.6900001 -0.78363132 0.59247994 0
1.689 -0.7853846 0.59233379 0
1.687 -0.78655887 0.59204161 0
1.704 -0.76811492 0.59217328 0
1.7030001 -0.76991159 0.59202898 0
1.7010001 -0.77114719 0.59174037 0
1.7 -0.77293473 0.59159607 0
1.6980001 -0.77415776 0.59130746 0
1.697 -0.77593625 0.59116316 0
1.696 -0.77771121 0.59101886 0
1.694 -0.77891612 0.59073025 0
1.6930001 -0.78068215 0.59058595 0
1.691 -0.78187436 0.59029734 0
1.6900001 -0.78363132 0.59015304 0
1.689 -0.7853846 0.59000874 0
1.687 -0.78655887 0.58972013 0
1.704 -0.76811492 0.5898211 0
1.7030001 -0.76991159 0.58967865 0
1.7010001 -0.77114719 0.58939362 0
1.7 -0.77293473 0.5892511 0
1.6980001 -0.77415776 0.58896613 0
1.697 -0.77593625 0.58882362 0
1.696 -0.77771121 0.5886811 0
1.694 -0.77891612 0.58839613 0
1.6930001 -0.78068215 0.58825362 0
1.691 -0.78187436 0.58796859 0
1.6900001 -0.78363132 0.58782613 0
1.689 -0.7853846 0.58768362 0
1.687 -0.78655887 0.58739859 0
1.704 -0.76811492 0.58746898 0
1.7030001 -0.76991159 0.58732826 0
1.7010001 -0.77114719 0.58704686 0
1.7 -0.77293473 0.58690619 0
1.6980001 -0.77415776 0.5866248 0
1.697 -0.77593625 0.58648407 0
1.696 -0.77771121 0.58634335 0
1.694 -0.77891612 0.58606195 0
1.6930001 -0.78068215 0.58592129 0
1.691 -0.78187436 0.58563989 0
1.6900001 -0.78363132 0.58549917 0
1.689 -0.7853846 0.5853585 0
1.687 -0.78655887 0.58507711 0
1.704 -0.76811492 0.5851168 0
1.7030001 -0.76991159 0.58497792 0
1.7010001 -0.77114719 0.58470011 0
1.7 -0.77293473 0.58456123 0
1.6980001 -0.77415776 0.58428347 0
1.697 -0.77593625 0.58414453 0
1.696 -0.77771121 0.58400565 0
1.694 -0.77891612 0.58372784 0
1.6930001 -0.78068215 0.58358896 0
1.691 -0.78187436 0.5833112 0
1.6900001 -0.78363132 0.58317232 0
1.689 -0.7853846 0.58303338 0
1.687 -0.78655887 0.58275563 0
1.704 -0.76811492 0.58276463 0
1.7030001 -0.76991159 0.58262753 0
1.7010001 -0.77114719 0.58235335 0
1.7 -0.77293473 0.58221626 0
1.6980001 -0.77415776 0.58194208 0
1.697 -0.77593625 0.58180499 0
1.696 -0.77771121 0.5816679 0
1.694 -0.77891612 0.58139372 0
1.6930001 -0.78068215 0.58125663 0
1.691 -0.78187436 0.58098245 0
1.6900001 -0.78363132 0.58084536 0
1.689 -0.7853846 0.58070827 0
1.687 -0.78655887 0.58043408 0
1.704 -0.76811492 0.58041245 0
1.7030001 -0.76991159 0.5802772 0
1.7010001 -0.77114719 0.5800066 0
1.7 -0.77293473 0.5798713 0
1.6980001 -0.77415776 0.57960075 0
1.697 -0.77593625 0.57946545 0
1.696 -0.77771121 0.57933015 0
1.694 -0.77891612 0.5790596 0
1.6930001 -0.78068215 0.5789243 0
1.691 -0.78187436 0.57865375 0
1.6900001 -0.78363132 0.57851845 0
1.689 -0.7853846 0.57838321 0
1.687 -0.78655887 0.5781126 0
1.704 -0.76811492 0.57806027 0
1.7030001 -0.76991159 0.57792681 0
1.7010001 -0.77114719 0.57765985 0
1.7 -0.77293473 0.57752633 0
1.6980001 -0.77415776 0.57725942 0
1.697 -0.77593625 0.57712591 0
1.696 -0.77771121 0.57699239 0
1.694 -0.77891612 0.57672548 0
1.6930001 -0.78068215 0.57659197 0
1.691 -0.78187436 0.57632506 0
1.6900001 -0.78363132 0.57619154 0
1.689 -0.7853846 0.57605803 0
1.687 -0.78655887 0.57579112 0
1.704 -0.76811492 0.57570815 0
1.7030001 -0.76991159 0.57557642 0
1.7010001 -0.77114719 0.57531309 0
1.7 -0.77293473 0.57518142 0
1.6980001 -0.77415776 0.57491803 0
1.697 -0.77593625 0.57478637 0
1.696 -0.77771121 0.5746547 0
1.694 -0.77891612 0.57439137 0
1.6930001 -0.78068215 0.57425964 0
1.691 -0.78187436 0.57399631 0
1.6900001 -0.78363132 0.57386464 0
1.689 -0.7853846 0.57373297 0
1.687 -0.78655887 0.57346958 0
1.704 -0.76811492 0.57335597 0
1.7030001 -0.76991159 0.57322609 0
1.7010001 -0.77114719 0.57296634 0
1.7 -0.77293473 0.57283646 0
1.6980001 -0.77415776 0.57257676 0
1.697 -0.77593625 0.57244682 0
1.696 -0.77771121 0.57231694 0
1.694 -0.77891612 0.57205725 0
1.6930001 -0.78068215 0.57192737 0
1.691 -0.78187436 0.57166761 0
1.6900001 -0.78363132 0.57153773 0
1.689 -0.7853846 0.57140785 0
1.687 -0.78655887 0.5711481 0
1.704 -0.76811492 0.57100379 0
1.7030001 -0.76991159 0.57087576 0
1.7010001 -0.77114719 0.57061958 0
1.7 -0.77293473 0.57049149 0
1.6980001 -0.77415776 0.57023537 0
1.697 -0.77593625 0.57010734 0
1.696 -0.77771121 0.56997919 0
1.694 -0.77891612 0.56972307 0
1.6930001 -0.78068215 0.56959504 0
1.691 -0.78187436 0.56933886 0
1.6900001 -0.78363132 0.56921083 0
1.689 -0.7853846 0.56908274 0
1.687 -0.78655887 0.56882662 0
1.704 -0.76811492 0.56865162 0
1.7030001 -0.76991159 0.56852537 0
1.7010001 -0.77114719 0.56827283 0
1.7 -0.77293473 0.56814659 0
1.6980001 -0.77415776 0.56789404 0
1.697 -0.77593625 0.56776774 0
1.696 -0.77771121 0.5676415 0
1.694 -0.77891612 0.56738895 0
1.6930001 -0.78068215 0.56726271 0
1.691 -0.78187436 0.56701016 0
1.6900001 -0.78363132 0.56688392 0
1.689 -0.7853846 0.56675762 0
1.687 -0.78655887 0.56650507 0
1.704 -0.76811492 0.56629944 0
1.7030001 -0.76991159 0.56617498 0
1.7010001 -0.77114719 0.56592607 0
1.7 -0.77293473 0.56580162 0
1.6980001 -0.77415776 0.56555271 0
1.697 -0.77593625 0.56542826 0
1.696 -0.77771121 0.56530374 0
1.694 -0.77891612 0.56505483 0
1.6930001 -0.78068215 0.56493038 0
1.691 -0.78187436 0.56468141 0
1.6900001 -0.78363132 0.56455696 0
1.689 -0.7853846 0.5644325 0
1.687 -0.78655887 0.56418359 0
1.704 -0.76811492 0.56394732 0
1.7030001 -0.76991159 0.56382465 0
1.7010001 -0.77114719 0.56357932 0
1.7 -0.77293473 0.56345665 0
1.6980001 -0.77415776 0.56321132 0
1.697 -0.77593625 0.56308866 0
1.696 -0.77771121 0.56296599 0
1.694 -0.77891612 0.56272072 0
1.6930001 -0.78068215 0.56259805 0
1.691 -0.78187436 0.56235272 0
1.6900001 -0.78363132 0.56223011 0
1.689 -0.7853846 0.56210738 0
1.687 -0.78655887 0.56186211 0
1.704 -0.76811492 0.56159514 0
1.7030001 -0.76991159 0.56147426 0
1.7010001 -0.77114719 0.56123257 0
1.7 -0.77293473 0.56111169 0
1.6980001 -0.77415776 0.56086999 0
1.697 -0.77593625 0.56074917 0
1.696 -0.77771121 0.56062829 0
1.694 -0.77891612 0.5603866 0
1.6930001 -0.78068215 0.56026572 0
1.691 -0.78187436 0.56002402 0
1.6900001 -0.78363132 0.55990314 0
1.689 -0.7853846 0.55978227 0
1.687 -0.78655887 0.55954063 0
1.704 -0.76811492 0.55924296 0
1.7030001 -0.76991159 0.55912393 0
1.7010001 -0.77114719 0.55888581 0
1.7 -0.77293473 0.55876672 0
1.6980001 -0.77415776 0.55852866 0
1.697 -0.77593625 0.55840957 0
1.696 -0.77771121 0.55829054 0
1.694 -0.77891612 0.55805242 0
1.6930001 -0.78068215 0.55793339 0
1.691 -0.78187436 0.55769527 0
1.6900001 -0.78363132 0.55757624 0
1.689 -0.7853846 0.55745721 0
1.687 -0.78655887 0.55721909 0
1.704 -0.76811492 0.55689079 0
1.7030001 -0.76991159 0.55677354 0
1.7010001 -0.77114719 0.55653906 0
1.7 -0.77293473 0.55642182 0
1.6980001 -0.77415776 0.55618733 0
1.697 -0.77593625 0.55607009 0
1.696 -0.77771121 0.55595279 0
1.694 -0.77891612 0.5557183 0
1.6930001 -0.78068215 0.55560106 0
1.691 -0.78187436 0.55536658 0
1.6900001 -0.78363132 0.55524933 0
1.689 -0.7853846 0.55513209 0
1.687 -0.78655887 0.55489761 0
1.704 -0.76811492 0.55453861 0
1.7030001 -0.76991159 0.55442321 0
1.7010001 -0.77114719 0.5541923 0
1.7 -0.77293473 0.55407685 0
1.6980001 -0.77415776 0.553846 0
1.697 -0.77593625 0.55373055 0
1.696 -0.77771121 0.55361509 0
1.694 -0.77891612 0.55338418 0
1.6930001 -0.78068215 0.55326879 0
1.691 -0.78187436 0.55303788 0
1.6900001 -0.78363132 0.55292243 0
1.689 -0.7853846 0.55280697 0
1.687 -0.78655887 0.55257607 0
1.704 -0.76811492 0.55218649 0
1.7030001 -0.76991159 0.55207282 0
1.7010001 -0.77114719 0.55184555 0
1.7 -0.77293473 0.55173188 0
1.6980001 -0.77415776 0.55150461 0
1.697 -0.77593625 0.55139101 0
1.696 -0.77771121 0.55127734 0
1.694 -0.77891612 0.55105007 0
1.6930001 -0.78068215 0.55093646 0
1.691 -0.78187436 0.55070913 0
1.6900001 -0.78363132 0.55059552 0
1.689 -0.7853846 0.55048186 0
1.687 -0.78655887 0.55025458 0
1.704 -0.76811492 0.54983431 0
1.7030001 -0.76991159 0.54972243 0
1.7010001 -0.77114719 0.5494988 0
1.7 -0.77293473 0.54938698 0
1.6980001 -0.77415776 0.54916328 0
1.697 -0.77593625 0.54905146 0
1.696 -0.77771121 0.54893959 0
1.694 -0.77891612 0.54871595 0
1.6930001 -0.78068215 0.54860413 0
1.691 -0.78187436 0.54838043 0
1.6900001 -0.78363132 0.54826862 0
1.689 -0.7853846 0.54815674 0
1.687 -0.78655887 0.5479331 0
1.704 -0.76811492 0.54748213 0
1.7030001 -0.76991159 0.5473721 0
1.7010001 -0.77114719 0.54715204 0
1.7 -0.77293473 0.54704201 0
1.6980001 -0.77415776 0.54682195 0
1.697 -0.77593625 0.54671192 0
1.696 -0.77771121 0.54660189 0
1.694 -0.77891612 0.54638183 0
1.6930001 -0.78068215 0.5462718 0
1.691 -0.78187436 0.54605174 0
1.6900001 -0.78363132 0.54594171 0
1.689 -0.7853846 0.54583168 0
1.687 -0.78655887 0.54561162 0
1.704 -0.76811492 0.54512995 0
1.7030001 -0.76991159 0.54502177 0
1.7010001 -0.77114719 0.54480529 0
1.7 -0.77293473 0.54469705 0
1.6980001 -0.77415776 0.54448062 0
1.697 -0.77593625 0.54437238 0
1.696 -0.77771121 0.54426414 0
1.694 -0.77891612 0.54404771 0
1.6930001 -0.78068215 0.54393947 0
1.691 -0.78187436 0.54372299 0
1.6900001 -0.78363132 0.54361475 0
1.689 -0.7853846 0.54350656 0
1.687 -0.78655887 0.54329008 0
1.704 -0.76811492 0.54277778 0
1.7030001 -0.76991159 0.54267138 0
1.7010001 -0.77114719 0.54245853 0
1.7 -0.77293473 0.54235208 0
1.6980001 -0.77415776 0.54213929 0
1.697 -0.77593625 0.54203284 0
1.696 -0.77771121 0.54192638 0
1.694 -0.77891612 0.54171354 0
1.6930001 -0.78068215 0.54160714 0
1.691 -0.78187436 0.54139429 0
1.6900001 -0.78363132 0.5412879 0
1.689 -0.7853846 0.54118145 0
1.687 -0.78655887 0.5409686 0
1.704 -0.76811492 0.54042566 0
1.7030001 -0.76991159 0.54032099 0
1.7010001 -0.77114719 0.54011178 0
1.7 -0.77293473 0.54000711 0
1.6980001 -0.77415776 0.5397979 0
1.697 -0.77593625 0.5396933 0
1.696 -0.77771121 0.53958869 0
1.694 -0.77891612 0.53937942 0
1.6930001 -0.78068215 0.53927481 0
1.691 -0.78187436 0.53906554 0
1.6900001 -0.78363132 0.53896093 0
1.689 -0.7853846 0.53885633 0
1.687 -0.78655887 0.53864706 0
1.704 -0.76811492 0.53807348 0
1.7030001 -0.76991159 0.53797066 0
1.7010001 -0.77114719 0.53776503 0
1.7 -0.77293473 0.53766221 0
1.6980001 -0.77415776 0.53745657 0
1.697 -0.77593625 0.53735375 0
1.696 -0.77771121 0.53725094 0
1.694 -0.77891612 0.5370453 0
1.6930001 -0.78068215 0.53694248 0
1.691 -0.78187436 0.53673685 0
1.6900001 -0.78363132 0.53663403 0
1.689 -0.7853846 0.53653121 0
1.687 -0.78655887 0.53632557 0
1.704 -0.76811492 0.5357213 0
1.7030001 -0.76991159 0.53562027 0
1.7010001 -0.77114719 0.53541827 0
1.7 -0.77293473 0.53531724 0
1.6980001 -0.77415776 0.53511524 0
1.697 -0.77593625 0.53501421 0
1.696 -0.77771121 0.53491318 0
1.694 -0.77891612 0.53471118 0
1.6930001 -0.78068215 0.53461015 0
1.691 -0.78187436 0.53440809 0
1.6900001 -0.78363132 0.53430712 0
1.689 -0.7853846 0.53420609 0
1.687 -0.78655887 0.53400409 0
1.704 -0.76811492 0.53336912 0
1.7030001 -0.76991159 0.53326994 0
1.7010001 -0.77114719 0.53307152 0
1.7 -0.77293473 0.53297234 0
1.6980001 -0.77415776 0.53277391 0
1.697 -0.77593625 0.53267467 0
1.696 -0.77771121 0.53257549 0
1.694 -0.77891612 0.532377 0
1.6930001 -0.78068215 0.53227782 0
1.691 -0.78187436 0.5320794 0
1.6900001 -0.78363132 0.53198022 0
1.689 -0.7853846 0.53188097 0
1.687 -0.78655887 0.53168261 0
1.704 -0.76811492 0.53101695 0
1.7030001 -0.76991159 0.53091955 0
1.7010001 -0.77114719 0.53072476 0
1.7 -0.77293473 0.53062737 0
1.6980001 -0.77415776 0.53043252 0
1.697 -0.77593625 0.53033513 0
1.696 -0.77771121 0.53023773 0
1.694 -0.77891612 0.53004289 0
1.6930001 -0.78068215 0.52994549 0
1.691 -0.78187436 0.5297507 0
1.6900001 -0.78363132 0.52965331 0
1.689 -0.7853846 0.52955592 0
1.687 -0.78655887 0.52936107 0
1.704 -0.76811492 0.52866483 0
1.7030001 -0.76991159 0.52856922 0
1.7010001 -0.77114719 0.52837801 0
1.7 -0.77293473 0.5282824 0
1.6980001 -0.77415776 0.52809119 0
1.697 -0.77593625 0.52799559 0
1.696 -0.77771121 0.52789998 0
1.694 -0.77891612 0.52770877 0
1.6930001 -0.78068215 0.52761316 0
1.691 -0.78187436 0.52742201 0
1.6900001 -0.78363132 0.52732641 0
1.689 -0.7853846 0.5272308 0
1.687 -0.78655887 0.52703959 0
1.704 -0.76811492 0.52631265 0
1.7030001 -0.76991159 0.52621883 0
1.7010001 -0.77114719 0.52603126 0
1.7 -0.77293473 0.52593744 0
1.6980001 -0.77415776 0.52574986 0
1.697 -0.77593625 0.52565604 0
1.696 -0.77771121 0.52556223 0
1.694 -0.77891612 0.52537465 0
1.6930001 -0.78068215 0.52528089 0
1.691 -0.78187436 0.52509326 0
1.6900001 -0.78363132 0.5249995 0
1.689 -0.7853846 0.52490568 0
1.687 -0.78655887 0.52471805 0
1.704 -0.76811492 0.52396047 0
1.7030001 -0.76991159 0.5238685 0
1.7010001 -0.77114719 0.5236845 0
1.7 -0.77293473 0.52359247 0
1.6980001 -0.77415776 0.52340853 0
1.697 -0.77593625 0.5233165 0
1.696 -0.77771121 0.52322453 0
1.694 -0.77891612 0.52304053 0
1.6930001 -0.78068215 0.52294856 0
1.691 -0.78187436 0.52276456 0
1.6900001 -0.78363132 0.52267253 0
1.689 -0.7853846 0.52258056 0
1.687 -0.78655887 0.52239656 0
1.704 -0.76811492 0.52160829 0
1.7030001 -0.76991159 0.52151811 0
1.7010001 -0.77114719 0.52133775 0
1.7 -0.77293473 0.52124757 0
1.6980001 -0.77415776 0.52106714 0
1.697 -0.77593625 0.52097696 0
1.696 -0.77771121 0.52088678 0
1.694 -0.77891612 0.52070642 0
1.6930001 -0.78068215 0.52061623 0
1.691 -0.78187436 0.52043581 0
1.6900001 -0.78363132 0.52034563 0
1.689 -0.7853846 0.52025545 0
1.687 -0.78655887 0.52007508 0
1.704 -0.76811492 0.51925611 0
1.7030001 -0.76991159 0.51916778 0
1.7010001 -0.77114719 0.51899099 0
1.7 -0.77293473 0.5189026 0
1.6980001 -0.77415776 0.51872581 0
1.697 -0.77593625 0.51863742 0
1.696 -0.77771121 0.51854903 0
1.694 -0.77891612 0.5183723 0
1.6930001 -0.78068215 0.5182839 0
1.691 -0.78187436 0.51810712 0
1.6900001 -0.78363132 0.51801872 0
1.689 -0.7853846 0.51793033 0
1.687 -0.78655887 0.5177536 0
1.704 -0.76811492 0.516904 0
1.7030001 -0.76991159 0.51681739 0
1.7010001 -0.77114719 0.51664424 0
1.7 -0.77293473 0.51655763 0
1.6980001 -0.77415776 0.51638448 0
1.697 -0.77593625 0.51629788 0
1.696 -0.77771121 0.51621133 0
1.694 -0.77891612 0.51603812 0
1.6930001 -0.78068215 0.51595157 0
1.691 -0.78187436 0.51577842 0
1.6900001 -0.78363132 0.51569182 0
1.689 -0.7853846 0.51560521 0
1.687 -0.78655887 0.51543206 0
1.704 -0.76811492 0.51455182 0
1.7030001 -0.76991159 0.51446706 0
1.7010001 -0.77114719 0.51429749 0
1.7 -0.77293473 0.51421273 0
1.6980001 -0.77415776 0.51404315 0
1.697 -0.77593625 0.51395833 0
1.696 -0.77771121 0.51387358 0
1.694 -0.77891612 0.513704 0
1.6930001 -0.78068215 0.51361924 0
1.691 -0.78187436 0.51344967 0
1.6900001 -0.78363132 0.51336491 0
1.689 -0.7853846 0.51328015 0
1.687 -0.78655887 0.51311058 0
1.704 -0.76811492 0.51219964 0
1.7030001 -0.76991159 0.51211667 0
1.7010001 -0.77114719 0.51195073 0
1.7 -0.77293473 0.51186776 0
1.6980001 -0.77415776 0.51170182 0
1.697 -0.77593625 0.51161885 0
1.696 -0.77771121 0.51153582 0
1.694 -0.77891612 0.51136988 0
1.6930001 -0.78068215 0.51128691 0
1.691 -0.78187436 0.51112098 0
1.6900001 -0.78363132 0.51103801 0
1.689 -0.7853846 0.51095504 0
1.687 -0.78655887 0.51078904 0
1.704 -0.76811492 0.50984746 0
1.7030001 -0.76991159 0.50976634 0
1.7010001 -0.77114719 0.50960398 0
1.7 -0.77293473 0.5095228 0
1.6980001 -0.77415776 0.50936043 0
