# .PCD v0.7 - Point Cloud Data file format
VERSION 0.7
FIELDS x y z intensity
SIZE 4 4 4 4
TYPE F F F F
COUNT 1 1 1 1
WIDTH 784
HEIGHT 1
VIEWPOINT 0 0 0 1 0 0 0
POINTS 784
DATA ascii
3.1590002 -0.11069719 0.34427953 0
3.1550002 -0.11557288 0.3443661 0
3.1590002 -0.11069719 0.33930284 0
3.1550002 -0.11557288 0.33939663 0
3.1510003 -0.12043415 0.33949041 0
3.1590002 -0.11069719 0.33432612 0
3.1550002 -0.11557288 0.33442712 0
3.1510003 -0.12043415 0.33452815 0
3.1590002 -0.11069719 0.3293494 0
3.1550002 -0.11557288 0.32945764 0
3.1510003 -0.12043415 0.32956588 0
3.1590002 -0.11069719 0.32437271 0
3.1550002 -0.11557288 0.32448816 0
3.1510003 -0.12043415 0.32460359 0
3.1470003 -0.12528098 0.32471904 0
3.1590002 -0.11069719 0.31939602 0
3.1550002 -0.11557288 0.31951866 0
3.1510003 -0.12043415 0.31964132 0
3.1470003 -0.12528098 0.31976396 0
3.1430001 -0.13011338 0.31988662 0
3.0470002 -0.25131124 0.32283044 0
3.0440001 -0.25584781 0.32292244 0
3.0400002 -0.26029241 0.3230451 0
3.0370002 -0.26480553 0.3231371 0
3.0330002 -0.26922306 0.32325977 0
3.1590002 -0.11069719 0.3144193 0
3.1550002 -0.11557288 0.31454915 0
3.1510003 -0.12043415 0.31467903 0
3.1470003 -0.12528098 0.31480891 0
3.1430001 -0.13011338 0.31493878 0
3.1390002 -0.13493136 0.31506866 0
3.0510001 -0.24683961 0.3179259 0
3.0470002 -0.25131124 0.31805578 0
3.0440001 -0.25584781 0.31815317 0
3.0400002 -0.26029241 0.31828305 0
3.0370002 -0.26480553 0.31838045 0
3.0330002 -0.26922306 0.31851032 0
3.0300002 -0.27371275 0.31860775 0
3.1590002 -0.11069719 0.30944258 0
3.1550002 -0.11557288 0.30957967 0
3.1510003 -0.12043415 0.30971676 0
3.1470003 -0.12528098 0.30985385 0
3.1430001 -0.13011338 0.30999094 0
3.1390002 -0.13493136 0.31012803 0
3.0510001 -0.24683961 0.313144 0
3.0470002 -0.25131124 0.31328109 0
3.0440001 -0.25584781 0.31338391 0
3.0400002 -0.26029241 0.313521 0
3.0370002 -0.26480553 0.31362382 0
3.0330002 -0.26922306 0.31376091 0
3.0300002 -0.27371275 0.31386372 0
3.1590002 -0.11069719 0.30446589 0
3.1550002 -0.11557288 0.30461019 0
3.1510003 -0.12043415 0.3047545 0
3.1470003 -0.12528098 0.3048988 0
3.1430001 -0.13011338 0.3050431 0
3.1390002 -0.13493136 0.3051874 0
3.1360002 -0.13976917 0.30529565 0
3.0510001 -0.24683961 0.3083621 0
3.0470002 -0.25131124 0.3085064 0
3.0440001 -0.25584781 0.30861464 0
3.0400002 -0.26029241 0.30875894 0
3.0370002 -0.26480553 0.30886716 0
3.0330002 -0.26922306 0.30901146 0
3.0300002 -0.27371275 0.3091197 0
3.1590002 -0.11069719 0.29948917 0
3.1550002 -0.11557288 0.29964069 0
3.1510003 -0.12043415 0.2997922 0
3.1470003 -0.12528098 0.29994372 0
3.1430001 -0.13011338 0.30009526 0
3.1390002 -0.13493136 0.30024678 0
3.1360002 -0.13976917 0.30036041 0
3.0510001 -0.24683961 0.30358022 0
3.0470002 -0.25131124 0.30373174 0
3.0440001 -0.25584781 0.30384538 0
3.0400002 -0.26029241 0.30399689 0
3.0370002 -0.26480553 0.30411053 0
3.0330002 -0.26922306 0.30426204 0
3.0300002 -0.27371275 0.30437568 0
3.1590002 -0.11069719 0.29451245 0
3.1550002 -0.11557288 0.29467121 0
3.1510003 -0.12043415 0.29482993 0
3.1470003 -0.12528098 0.29498866 0
3.1430001 -0.13011338 0.29514742 0
3.1390002 -0.13493136 0.29530615 0
3.1360002 -0.13976917 0.29542518 0
3.0510001 -0.24683961 0.29879832 0
3.0470002 -0.25131124 0.29895705 0
3.0440001 -0.25584781 0.29907611 0
3.0400002 -0.26029241 0.29923484 0
3.0370002 -0.26480553 0.2993539 0
3.0330002 -0.26922306 0.29951262 0
3.0300002 -0.27371275 0.29963166 0
3.1590002 -0.11069719 0.28953576 0
3.1550002 -0.11557288 0.2897017 0
3.1510003 -0.12043415 0.28986764 0
3.1470003 -0.12528098 0.29003361 0
3.1430001 -0.13011338 0.29019958 0
3.1390002 -0.13493136 0.29036552 0
3.1360002 -0.13976917 0.29048997 0
3.0510001 -0.24683961 0.29401642 0
3.0470002 -0.25131124 0.29418236 0
3.0440001 -0.25584781 0.29430681 0
3.0400002 -0.26029241 0.29447278 0
3.0370002 -0.26480553 0.29459724 0
3.0330002 -0.26922306 0.29476321 0
3.0300002 -0.27371275 0.29488766 0
3.1590002 -0.11069719 0.28455904 0
3.1550002 -0.11557288 0.28473222 0
3.1510003 -0.12043415 0.28490537 0
3.1470003 -0.12528098 0.28507853 0
3.1430001 -0.13011338 0.28525171 0
3.1390002 -0.13493136 0.28542489 0
3.1360002 -0.13976917 0.28555477 0
3.0510001 -0.24683961 0.28923452 0
3.0470002 -0.25131124 0.2894077 0
3.0440001 -0.25584781 0.28953755 0
3.0400002 -0.26029241 0.28971073 0
3.0370002 -0.26480553 0.28984061 0
3.0330002 -0.26922306 0.29001376 0
3.0300002 -0.27371275 0.29014364 0
3.1590002 -0.11069719 0.27958235 0
3.1550002 -0.11557288 0.27976274 0
3.1510003 -0.12043415 0.27994311 0
3.1470003 -0.12528098 0.28012347 0
3.1430001 -0.13011338 0.28030387 0
3.1390002 -0.13493136 0.28048426 0
3.1360002 -0.13976917 0.28061953 0
3.0510001 -0.24683961 0.28445262 0
3.0470002 -0.25131124 0.28463301 0
3.0440001 -0.25584781 0.28476828 0
3.0400002 -0.26029241 0.28494868 0
3.0370002 -0.26480553 0.28508395 0
3.0330002 -0.26922306 0.28526434 0
3.0300002 -0.27371275 0.28539962 0
3.1590002 -0.11069719 0.27460563 0
3.1550002 -0.11557288 0.27479321 0
3.1510003 -0.12043415 0.27498084 0
3.1470003 -0.12528098 0.27516842 0
3.1430001 -0.13011338 0.27535602 0
3.1390002 -0.13493136 0.27554363 0
3.1360002 -0.13976917 0.2756843 0
3.0510001 -0.24683961 0.27967072 0
3.0470002 -0.25131124 0.27985835 0
3.0440001 -0.25584781 0.27999902 0
3.0400002 -0.26029241 0.28018662 0
3.0370002 -0.26480553 0.28032732 0
3.0330002 -0.26922306 0.28051493 0
3.0300002 -0.27371275 0.28065562 0
3.1590002 -0.11069719 0.26962894 0
3.1550002 -0.11557288 0.26982373 0
3.1510003 -0.12043415 0.27001855 0
3.1470003 -0.12528098 0.27021337 0
3.1430001 -0.13011338 0.27040815 0
3.1390002 -0.13493136 0.270603 0
3.1360002 -0.13976917 0.27074909 0
3.0510001 -0.24683961 0.27488881 0
3.0470002 -0.25131124 0.27508366 0
3.0440001 -0.25584781 0.27522975 0
3.0400002 -0.26029241 0.27542454 0
3.0370002 -0.26480553 0.27557069 0
3.0330002 -0.26922306 0.27576548 0
3.0300002 -0.27371275 0.2759116 0
3.1590002 -0.11069719 0.26465222 0
3.1550002 -0.11557288 0.26485425 0
3.1510003 -0.12043415 0.26505625 0
3.1470003 -0.12528098 0.26525831 0
3.1430001 -0.13011338 0.26546031 0
3.1390002 -0.13493136 0.26566237 0
3.1360002 -0.13976917 0.26581389 0
3.0510001 -0.24683961 0.27010694 0
3.0470002 -0.25131124 0.27030897 0
3.0440001 -0.25584781 0.27046049 0
3.0400002 -0.26029241 0.27066249 0
3.0370002 -0.26480553 0.27081403 0
3.0330002 -0.26922306 0.27101606 0
3.0300002 -0.27371275 0.27116758 0
3.1590002 -0.11069719 0.2596755 0
3.1550002 -0.11557288 0.25988477 0
3.1510003 -0.12043415 0.26009399 0
3.1470003 -0.12528098 0.26030323 0
3.1430001 -0.13011338 0.26051247 0
3.1390002 -0.13493136 0.26072174 0
3.1360002 -0.13976917 0.26087865 0
3.0510001 -0.24683961 0.26532507 0
3.0470002 -0.25131124 0.26553428 0
3.0440001 -0.25584781 0.26569122 0
3.0400002 -0.26029241 0.26590043 0
3.0370002 -0.26480553 0.26605737 0
3.0330002 -0.26922306 0.26626664 0
3.0300002 -0.27371275 0.26642355 0
3.1590002 -0.11069719 0.25469881 0
3.1550002 -0.11557288 0.25491527 0
3.1510003 -0.12043415 0.25513172 0
3.1470003 -0.12528098 0.25534818 0
3.1430001 -0.13011338 0.25556463 0
3.1390002 -0.13493136 0.25578108 0
3.1360002 -0.13976917 0.25594342 0
3.0510001 -0.24683961 0.26054317 0
3.0470002 -0.25131124 0.26075959 0
3.0440001 -0.25584781 0.26092196 0
3.0400002 -0.26029241 0.26113838 0
3.0370002 -0.26480553 0.26130074 0
3.0330002 -0.26922306 0.2615172 0
3.0300002 -0.27371275 0.26167953 0
3.1590002 -0.11069719 0.24972211 0
3.1550002 -0.11557288 0.24994577 0
3.1510003 -0.12043415 0.25016946 0
3.1470003 -0.12528098 0.25039309 0
3.1430001 -0.13011338 0.25061679 0
3.1390002 -0.13493136 0.25084046 0
3.1360002 -0.13976917 0.25100821 0
3.0510001 -0.24683961 0.25576127 0
3.0470002 -0.25131124 0.25598493 0
3.0440001 -0.25584781 0.25615269 0
3.0400002 -0.26029241 0.25637633 0
3.0370002 -0.26480553 0.25654411 0
3.0330002 -0.26922306 0.25676778 0
3.0300002 -0.27371275 0.25693554 0
3.1590002 -0.11069719 0.2447454 0
3.1550002 -0.11557288 0.24497628 0
3.1510003 -0.12043415 0.24520716 0
3.1470003 -0.12528098 0.24543805 0
3.1430001 -0.13011338 0.24566895 0
3.1390002 -0.13493136 0.24589983 0
3.1360002 -0.13976917 0.24607299 0
3.0510001 -0.24683961 0.25097936 0
3.0470002 -0.25131124 0.25121024 0
3.0440001 -0.25584781 0.25138342 0
3.0400002 -0.26029241 0.2516143 0
3.0370002 -0.26480553 0.25178748 0
3.0330002 -0.26922306 0.25201833 0
3.0300002 -0.27371275 0.25219151 0
3.1590002 -0.11069719 0.23976868 0
3.1550002 -0.11557288 0.24000679 0
3.1510003 -0.12043415 0.2402449 0
3.1470003 -0.12528098 0.24048299 0
3.1430001 -0.13011338 0.24072111 0
3.1390002 -0.13493136 0.24095921 0
3.1360002 -0.13976917 0.24113779 0
3.0510001 -0.24683961 0.24619746 0
3.0470002 -0.25131124 0.24643555 0
3.0440001 -0.25584781 0.24661414 0
3.0400002 -0.26029241 0.24685225 0
3.0370002 -0.26480553 0.24703082 0
3.0330002 -0.26922306 0.24726892 0
3.0300002 -0.27371275 0.24744751 0
3.1590002 -0.11069719 0.23479199 0
3.1550002 -0.11557288 0.2350373 0
3.1510003 -0.12043415 0.23528261 0
3.1470003 -0.12528098 0.23552792 0
3.1430001 -0.13011338 0.23577325 0
3.1390002 -0.13493136 0.23601858 0
3.1360002 -0.13976917 0.23620257 0
3.0510001 -0.24683961 0.24141556 0
3.0470002 -0.25131124 0.24166089 0
3.0440001 -0.25584781 0.24184488 0
3.0400002 -0.26029241 0.2420902 0
3.0370002 -0.26480553 0.24227418 0
3.0330002 -0.26922306 0.2425195 0
3.0300002 -0.27371275 0.24270348 0
3.1590002 -0.11069719 0.22981527 0
3.1550002 -0.11557288 0.2300678 0
3.1510003 -0.12043415 0.23032033 0
3.1470003 -0.12528098 0.23057288 0
3.1430001 -0.13011338 0.23082541 0
3.1390002 -0.13493136 0.23107794 0
3.1360002 -0.13976917 0.23126735 0
3.0510001 -0.24683961 0.23663367 0
3.0470002 -0.25131124 0.2368862 0
3.0440001 -0.25584781 0.23707561 0
3.0400002 -0.26029241 0.23732814 0
3.0370002 -0.26480553 0.23751754 0
3.0330002 -0.26922306 0.23777007 0
3.0300002 -0.27371275 0.23795947 0
3.1590002 -0.11069719 0.22483857 0
3.1550002 -0.11557288 0.22509831 0
3.1510003 -0.12043415 0.22535807 0
3.1470003 -0.12528098 0.22561781 0
3.1430001 -0.13011338 0.22587757 0
3.1390002 -0.13493136 0.22613731 0
3.1360002 -0.13976917 0.22633213 0
3.0510001 -0.24683961 0.23185177 0
3.0470002 -0.25131124 0.23211153 0
3.0440001 -0.25584781 0.23230633 0
3.0400002 -0.26029241 0.23256609 0
3.0370002 -0.26480553 0.23276089 0
3.0330002 -0.26922306 0.23302065 0
3.0300002 -0.27371275 0.23321545 0
3.1590002 -0.11069719 0.21986187 0
3.1550002 -0.11557288 0.22012882 0
3.1510003 -0.12043415 0.22039579 0
3.1470003 -0.12528098 0.22066274 0
3.1430001 -0.13011338 0.22092973 0
3.1390002 -0.13493136 0.22119668 0
3.1360002 -0.13976917 0.22139691 0
3.0510001 -0.24683961 0.22706988 0
3.0470002 -0.25131124 0.22733684 0
3.0440001 -0.25584781 0.22753707 0
3.0400002 -0.26029241 0.22780403 0
3.0370002 -0.26480553 0.22800426 0
3.0330002 -0.26922306 0.22827122 0
3.0300002 -0.27371275 0.22847143 0
3.1590002 -0.11069719 0.21488516 0
3.1550002 -0.11557288 0.21515934 0
3.1510003 -0.12043415 0.21543349 0
3.1470003 -0.12528098 0.21570767 0
3.1430001 -0.13011338 0.21598187 0
3.1390002 -0.13493136 0.21625605 0
3.1360002 -0.13976917 0.21646169 0
3.0510001 -0.24683961 0.222288 0
3.0470002 -0.25131124 0.22256216 0
3.0440001 -0.25584781 0.2227678 0
3.0400002 -0.26029241 0.22304197 0
3.0370002 -0.26480553 0.22324762 0
3.0330002 -0.26922306 0.22352178 0
3.0300002 -0.27371275 0.22372742 0
3.1590002 -0.11069719 0.20990844 0
3.1550002 -0.11557288 0.21018983 0
3.1510003 -0.12043415 0.21047123 0
3.1470003 -0.12528098 0.21075262 0
3.1430001 -0.13011338 0.21103401 0
3.1390002 -0.13493136 0.21131541 0
3.1360002 -0.13976917 0.21152647 0
3.0510001 -0.24683961 0.2175061 0
3.0470002 -0.25131124 0.21778749 0
3.0440001 -0.25584781 0.21799852 0
3.0400002 -0.26029241 0.21827991 0
3.0370002 -0.26480553 0.21849097 0
3.0330002 -0.26922306 0.21877237 0
3.0300002 -0.27371275 0.2189834 0
3.1590002 -0.11069719 0.20493175 0
3.1550002 -0.11557288 0.20522034 0
3.1510003 -0.12043415 0.20550895 0
3.1470003 -0.12528098 0.20579757 0
3.1430001 -0.13011338 0.20608619 0
3.1390002 -0.13493136 0.20637478 0
3.1360002 -0.13976917 0.20659125 0
3.0510001 -0.24683961 0.21272419 0
3.0470002 -0.25131124 0.2130128 0
3.0440001 -0.25584781 0.21322925 0
3.0400002 -0.26029241 0.21351786 0
3.0370002 -0.26480553 0.21373433 0
3.0330002 -0.26922306 0.21402292 0
3.0300002 -0.27371275 0.21423939 0
3.1590002 -0.11069719 0.19995503 0
3.1550002 -0.11557288 0.20025086 0
3.1510003 -0.12043415 0.20054668 0
3.1470003 -0.12528098 0.2008425 0
3.1430001 -0.13011338 0.20113835 0
3.1390002 -0.13493136 0.20143415 0
3.1360002 -0.13976917 0.20165603 0
3.0510001 -0.24683961 0.20794229 0
3.0470002 -0.25131124 0.20823812 0
3.0440001 -0.25584781 0.20846 0
3.0400002 -0.26029241 0.20875581 0
3.0370002 -0.26480553 0.20897768 0
3.0330002 -0.26922306 0.2092735 0
3.0300002 -0.27371275 0.20949538 0
3.1590002 -0.11069719 0.19497833 0
3.1550002 -0.11557288 0.19528136 0
3.1510003 -0.12043415 0.1955844 0
3.1470003 -0.12528098 0.19588743 0
3.1430001 -0.13011338 0.19619049 0
3.1390002 -0.13493136 0.19649354 0
3.1360002 -0.13976917 0.19672081 0
3.0510001 -0.24683961 0.20316041 0
3.0470002 -0.25131124 0.20346344 0
3.0440001 -0.25584781 0.20369072 0
3.0400002 -0.26029241 0.20399375 0
3.0370002 -0.26480553 0.20422104 0
3.0330002 -0.26922306 0.20452407 0
3.0300002 -0.27371275 0.20475136 0
3.1590002 -0.11069719 0.19000162 0
3.1550002 -0.11557288 0.19031188 0
3.1510003 -0.12043415 0.19062212 0
3.1470003 -0.12528098 0.19093238 0
3.1430001 -0.13011338 0.19124264 0
3.1390002 -0.13493136 0.19155291 0
3.1360002 -0.13976917 0.19178559 0
3.0510001 -0.24683961 0.1983785 0
3.0470002 -0.25131124 0.19868876 0
3.0440001 -0.25584781 0.19892146 0
3.0400002 -0.26029241 0.1992317 0
3.0370002 -0.26480553 0.1994644 0
3.0330002 -0.26922306 0.19977464 0
3.0300002 -0.27371275 0.20000735 0
3.1590002 -0.11069719 0.18502492 0
3.1550002 -0.11557288 0.18534239 0
3.1510003 -0.12043415 0.18565986 0
3.1470003 -0.12528098 0.18597731 0
3.1430001 -0.13011338 0.18629479 0
3.1390002 -0.13493136 0.18661226 0
3.1360002 -0.13976917 0.18685037 0
3.0510001 -0.24683961 0.19359662 0
3.0470002 -0.25131124 0.19391409 0
3.0440001 -0.25584781 0.19415219 0
3.0400002 -0.26029241 0.19446966 0
3.0370002 -0.26480553 0.19470777 0
3.0330002 -0.26922306 0.19502522 0
3.0300002 -0.27371275 0.19526333 0
3.1590002 -0.11069719 0.1800482 0
3.1550002 -0.11557288 0.18037289 0
3.1510003 -0.12043415 0.18069758 0
3.1470003 -0.12528098 0.18102224 0
3.1430001 -0.13011338 0.18134695 0
3.1390002 -0.13493136 0.18167163 0
3.1360002 -0.13976917 0.18191515 0
3.0510001 -0.24683961 0.18881473 0
3.0470002 -0.25131124 0.1891394 0
3.0440001 -0.25584781 0.18938291 0
3.0400002 -0.26029241 0.18970761 0
3.0370002 -0.26480553 0.18995112 0
3.0330002 -0.26922306 0.19027579 0
3.0300002 -0.27371275 0.1905193 0
3.1590002 -0.11069719 0.17507151 0
3.1550002 -0.11557288 0.1754034 0
3.1510003 -0.12043415 0.17573529 0
3.1470003 -0.12528098 0.1760672 0
3.1430001 -0.13011338 0.17639911 0
3.1390002 -0.13493136 0.17673101 0
3.1360002 -0.13976917 0.17697993 0
3.0510001 -0.24683961 0.18403283 0
3.0470002 -0.25131124 0.18436472 0
3.0440001 -0.25584781 0.18461365 0
3.0400002 -0.26029241 0.18494555 0
3.0370002 -0.26480553 0.18519448 0
3.0330002 -0.26922306 0.18552637 0
3.0300002 -0.27371275 0.18577529 0
3.1590002 -0.11069719 0.17009479 0
3.1550002 -0.11557288 0.17043391 0
3.1510003 -0.12043415 0.17077301 0
3.1470003 -0.12528098 0.17111214 0
3.1430001 -0.13011338 0.17145126 0
3.1390002 -0.13493136 0.17179038 0
3.1360002 -0.13976917 0.17204469 0
3.0510001 -0.24683961 0.17925093 0
3.0470002 -0.25131124 0.17959003 0
3.0440001 -0.25584781 0.17984438 0
3.0400002 -0.26029241 0.1801835 0
3.0370002 -0.26480553 0.18043783 0
3.0330002 -0.26922306 0.18077694 0
3.0300002 -0.27371275 0.18103127 0
3.1590002 -0.11069719 0.16511808 0
3.1550002 -0.11557288 0.16546442 0
3.1510003 -0.12043415 0.16581075 0
3.1470003 -0.12528098 0.16615705 0
3.1430001 -0.13011338 0.16650341 0
3.1390002 -0.13493136 0.16684975 0
3.1360002 -0.13976917 0.16710949 0
3.0510001 -0.24683961 0.17446904 0
3.0470002 -0.25131124 0.17481537 0
3.0440001 -0.25584781 0.17507511 0
3.0400002 -0.26029241 0.17542145 0
3.0370002 -0.26480553 0.17568119 0
3.0330002 -0.26922306 0.17602752 0
3.0300002 -0.27371275 0.17628726 0
3.1590002 -0.11069719 0.16014136 0
3.1550002 -0.11557288 0.16049491 0
3.1510003 -0.12043415 0.16084845 0
3.1470003 -0.12528098 0.161202 0
3.1430001 -0.13011338 0.16155557 0
3.1390002 -0.13493136 0.16190912 0
3.1360002 -0.13976917 0.16217428 0
3.0510001 -0.24683961 0.16968714 0
3.0470002 -0.25131124 0.17004068 0
3.0440001 -0.25584781 0.17030585 0
3.0400002 -0.26029241 0.17065939 0
3.0370002 -0.26480553 0.17092456 0
3.0330002 -0.26922306 0.17127807 0
3.0300002 -0.27371275 0.17154324 0
3.1590002 -0.11069719 0.15516469 0
3.1550002 -0.11557288 0.15552545 0
3.1510003 -0.12043415 0.1558862 0
3.1470003 -0.12528098 0.15624696 0
3.1430001 -0.13011338 0.15660773 0
3.1390002 -0.13493136 0.15696849 0
3.1360002 -0.13976917 0.15723905 0
3.0510001 -0.24683961 0.16490524 0
3.0470002 -0.25131124 0.16526599 0
3.0440001 -0.25584781 0.16553658 0
3.0400002 -0.26029241 0.16589734 0
3.0370002 -0.26480553 0.1661679 0
3.0330002 -0.26922306 0.16652866 0
3.0300002 -0.27371275 0.16679925 0
3.1590002 -0.11069719 0.15018797 0
3.1550002 -0.11557288 0.15055594 0
3.1510003 -0.12043415 0.15092391 0
3.1470003 -0.12528098 0.15129188 0
3.1430001 -0.13011338 0.15165988 0
3.1390002 -0.13493136 0.15202785 0
3.1360002 -0.13976917 0.15230381 0
3.0510001 -0.24683961 0.16012335 0
3.0470002 -0.25131124 0.1604913 0
3.0440001 -0.25584781 0.16076729 0
3.0400002 -0.26029241 0.16113529 0
3.0370002 -0.26480553 0.16141127 0
3.0330002 -0.26922306 0.16177924 0
3.0300002 -0.27371275 0.16205522 0
3.1590002 -0.11069719 0.14521125 0
3.1550002 -0.11557288 0.14558643 0
3.1510003 -0.12043415 0.14596164 0
3.1470003 -0.12528098 0.14633682 0
3.1430001 -0.13011338 0.14671203 0
3.1390002 -0.13493136 0.14708722 0
3.1360002 -0.13976917 0.14736861 0
3.0510001 -0.24683961 0.15534145 0
3.0470002 -0.25131124 0.15571666 0
3.0440001 -0.25584781 0.15599802 0
3.0400002 -0.26029241 0.15637323 0
3.0370002 -0.26480553 0.15665461 0
3.0330002 -0.26922306 0.15702982 0
3.0300002 -0.27371275 0.1573112 0
3.1590002 -0.11069719 0.14023456 0
3.1550002 -0.11557288 0.14061698 0
3.1510003 -0.12043415 0.14099935 0
3.1470003 -0.12528098 0.14138174 0
3.1430001 -0.13011338 0.14176419 0
3.1390002 -0.13493136 0.14214659 0
3.1360002 -0.13976917 0.1424334 0
3.0510001 -0.24683961 0.15055954 0
3.0470002 -0.25131124 0.15094197 0
3.0440001 -0.25584781 0.15122876 0
3.0400002 -0.26029241 0.15161118 0
3.0370002 -0.26480553 0.15189797 0
3.0330002 -0.26922306 0.15228036 0
3.0300002 -0.27371275 0.15256721 0
3.1590002 -0.11069719 0.13525784 0
3.1550002 -0.11557288 0.13564748 0
3.1510003 -0.12043415 0.13603708 0
3.1470003 -0.12528098 0.13642669 0
3.1430001 -0.13011338 0.13681632 0
3.1390002 -0.13493136 0.13720596 0
3.1360002 -0.13976917 0.13749817 0
3.0510001 -0.24683961 0.14577764 0
3.0470002 -0.25131124 0.14616728 0
3.0440001 -0.25584781 0.14645949 0
3.0400002 -0.26029241 0.1468491 0
3.0370002 -0.26480553 0.14714134 0
3.0330002 -0.26922306 0.14753094 0
3.0300002 -0.27371275 0.14782318 0
3.1590002 -0.11069719 0.13028112 0
3.1550002 -0.11557288 0.13067797 0
3.1510003 -0.12043415 0.13107482 0
3.1470003 -0.12528098 0.13147163 0
3.1430001 -0.13011338 0.13186848 0
3.1390002 -0.13493136 0.13226533 0
3.1360002 -0.13976917 0.13256294 0
3.0510001 -0.24683961 0.14099574 0
3.0470002 -0.25131124 0.14139259 0
3.0440001 -0.25584781 0.14169022 0
3.0400002 -0.26029241 0.14208704 0
3.0370002 -0.26480553 0.14238468 0
3.0330002 -0.26922306 0.14278153 0
3.0300002 -0.27371275 0.14307916 0
3.1590002 -0.11069719 0.12530443 0
3.1550002 -0.11557288 0.12570849 0
3.1510003 -0.12043415 0.12611252 0
3.1470003 -0.12528098 0.12651658 0
3.1430001 -0.13011338 0.12692064 0
3.1390002 -0.13493136 0.1273247 0
3.0510001 -0.24683961 0.13621387 0
3.0470002 -0.25131124 0.1366179 0
3.0440001 -0.25584781 0.13692096 0
3.0400002 -0.26029241 0.13732499 0
3.0370002 -0.26480553 0.13762805 0
3.0330002 -0.26922306 0.13803208 0
3.0300002 -0.27371275 0.13833514 0
3.1590002 -0.11069719 0.12032774 0
3.1550002 -0.11557288 0.12073898 0
3.1510003 -0.12043415 0.12115026 0
3.1470003 -0.12528098 0.12156153 0
3.1430001 -0.13011338 0.1219728 0
3.1390002 -0.13493136 0.12238407 0
3.0510001 -0.24683961 0.131432 0
3.0470002 -0.25131124 0.13184324 0
3.0440001 -0.25584781 0.13215169 0
3.0400002 -0.26029241 0.13256294 0
3.0370002 -0.26480553 0.13287142 0
3.0330002 -0.26922306 0.13328266 0
3.0300002 -0.27371275 0.13359112 0
3.1590002 -0.11069719 0.11535102 0
3.1550002 -0.11557288 0.11576951 0
3.1510003 -0.12043415 0.11618796 0
3.1470003 -0.12528098 0.11660644 0
3.1430001 -0.13011338 0.11702496 0
3.1390002 -0.13493136 0.11744344 0
3.0510001 -0.24683961 0.12665009 0
3.0470002 -0.25131124 0.12706855 0
3.0440001 -0.25584781 0.12738243 0
3.0400002 -0.26029241 0.12780088 0
3.0370002 -0.26480553 0.12811476 0
3.0330002 -0.26922306 0.12853324 0
3.0300002 -0.27371275 0.12884709 0
3.1590002 -0.11069719 0.1103743 0
3.1550002 -0.11557288 0.1108 0
3.1510003 -0.12043415 0.11122569 0
3.1470003 -0.12528098 0.11165139 0
3.1430001 -0.13011338 0.11207712 0
3.1390002 -0.13493136 0.11250281 0
3.0510001 -0.24683961 0.12186819 0
3.0470002 -0.25131124 0.12229389 0
3.0440001 -0.25584781 0.12261316 0
3.0400002 -0.26029241 0.12303883 0
3.0370002 -0.26480553 0.12335813 0
3.0330002 -0.26922306 0.1237838 0
3.0300002 -0.27371275 0.12410307 0
3.1590002 -0.11069719 0.10539761 0
3.1550002 -0.11557288 0.10583052 0
3.1510003 -0.12043415 0.10626343 0
3.1470003 -0.12528098 0.10669634 0
3.1430001 -0.13011338 0.10712928 0
3.1390002 -0.13493136 0.10756215 0
3.0510001 -0.24683961 0.11708629 0
3.0470002 -0.25131124 0.1175192 0
3.0440001 -0.25584781 0.1178439 0
3.0400002 -0.26029241 0.11827677 0
3.0370002 -0.26480553 0.1186015 0
3.0330002 -0.26922306 0.11903438 0
3.0300002 -0.27371275 0.11935908 0
3.1590002 -0.11069719 0.10042089 0
3.1550002 -0.11557288 0.10086101 0
3.1510003 -0.12043415 0.10130116 0
3.1470003 -0.12528098 0.10174125 0
3.1430001 -0.13011338 0.10218143 0
3.1390002 -0.13493136 0.10262153 0
3.0510001 -0.24683961 0.11230439 0
3.0470002 -0.25131124 0.11274451 0
3.0440001 -0.25584781 0.11307463 0
3.0400002 -0.26029241 0.11351472 0
3.0370002 -0.26480553 0.11384484 0
3.0330002 -0.26922306 0.11428496 0
3.0300002 -0.27371275 0.11461505 0
3.1590002 -0.11069719 0.095444202 0
3.1550002 -0.11557288 0.095891535 0
3.1510003 -0.12043415 0.096338868 0
3.1470003 -0.12528098 0.096786201 0
3.1430001 -0.13011338 0.097233564 0
3.1390002 -0.13493136 0.097680897 0
3.0510001 -0.24683961 0.10752249 0
3.0470002 -0.25131124 0.10796985 0
3.0440001 -0.25584781 0.10830534 0
3.0400002 -0.26029241 0.10875267 0
3.0370002 -0.26480553 0.10908821 0
3.0330002 -0.26922306 0.10953555 0
3.0300002 -0.27371275 0.10987103 0
3.1590002 -0.11069719 0.090467483 0
3.1550002 -0.11557288 0.090922058 0
3.1510003 -0.12043415 0.091376603 0
3.1470003 -0.12528098 0.091831148 0
3.1430001 -0.13011338 0.092285722 0
3.1390002 -0.13493136 0.092740268 0
3.0510001 -0.24683961 0.10274062 0
3.0470002 -0.25131124 0.10319516 0
3.0440001 -0.25584781 0.10353607 0
3.0400002 -0.26029241 0.10399064 0
3.0370002 -0.26480553 0.10433155 0
3.0330002 -0.26922306 0.1047861 0
3.0300002 -0.27371275 0.10512704 0
3.1590002 -0.11069719 0.085490793 0
3.1550002 -0.11557288 0.08595255 0
3.1510003 -0.12043415 0.086414307 0
3.1470003 -0.12528098 0.086876094 0
3.1430001 -0.13011338 0.087337881 0
3.1390002 -0.13493136 0.087799639 0
3.0510001 -0.24683961 0.097958714 0
3.0470002 -0.25131124 0.098420471 0
3.0440001 -0.25584781 0.098766804 0
3.0400002 -0.26029241 0.099228591 0
3.0370002 -0.26480553 0.099574924 0
3.0330002 -0.26922306 0.10003668 0
3.0300002 -0.27371275 0.10038301 0
3.1590002 -0.11069719 0.080514073 0
3.1550002 -0.11557288 0.080983043 0
3.1510003 -0.12043415 0.081452042 0
3.1470003 -0.12528098 0.081921041 0
3.1430001 -0.13011338 0.08239004 0
3.1390002 -0.13493136 0.08285901 0
3.0510001 -0.24683961 0.093176812 0
3.0470002 -0.25131124 0.093645781 0
3.0440001 -0.25584781 0.093997538 0
3.0400002 -0.26029241 0.094466537 0
3.0370002 -0.26480553 0.094818294 0
3.0330002 -0.26922306 0.095287263 0
3.0300002 -0.27371275 0.09563899 0
3.1590002 -0.11069719 0.075537354 0
3.1550002 -0.11557288 0.076013565 0
3.1510003 -0.12043415 0.076489776 0
3.1470003 -0.12528098 0.076965958 0
3.1430001 -0.13011338 0.077442199 0
3.1390002 -0.13493136 0.07791841 0
3.0510001 -0.24683961 0.08839491 0
3.0470002 -0.25131124 0.088871092 0
3.0440001 -0.25584781 0.089228272 0
3.0400002 -0.26029241 0.089704484 0
3.0370002 -0.26480553 0.090061635 0
3.0330002 -0.26922306 0.090537816 0
3.0300002 -0.27371275 0.090894997 0
3.1590002 -0.11069719 0.070560664 0
3.1550002 -0.11557288 0.071044087 0
3.1510003 -0.12043415 0.071527481 0
3.1470003 -0.12528098 0.072010905 0
3.1430001 -0.13011338 0.072494328 0
3.1390002 -0.13493136 0.072977781 0
3.0510001 -0.24683961 0.083613008 0
3.0470002 -0.25131124 0.084096432 0
3.0440001 -0.25584781 0.084458977 0
3.0400002 -0.26029241 0.08494243 0
3.0370002 -0.26480553 0.085305005 0
3.0330002 -0.26922306 0.085788399 0
3.0300002 -0.27371275 0.086150974 0
3.1590002 -0.11069719 0.065583974 0
3.1550002 -0.11557288 0.06607458 0
3.1510003 -0.12043415 0.066565216 0
3.1470003 -0.12528098 0.067055821 0
3.1430001 -0.13011338 0.067546487 0
3.1390002 -0.13493136 0.068037152 0
3.0510001 -0.24683961 0.078831106 0
3.0470002 -0.25131124 0.079321772 0
3.0440001 -0.25584781 0.079689741 0
3.0400002 -0.26029241 0.080180377 0
3.0370002 -0.26480553 0.080548346 0
3.0330002 -0.26922306 0.081038982 0
3.0300002 -0.27371275 0.081406951 0
3.1590002 -0.11069719 0.060607255 0
3.1550002 -0.11557288 0.061105102 0
3.1510003 -0.12043415 0.06160292 0
3.1470003 -0.12528098 0.062100768 0
3.1430001 -0.13011338 0.062598646 0
3.1390002 -0.13493136 0.063096493 0
3.0510001 -0.24683961 0.074049234 0
3.0470002 -0.25131124 0.074547082 0
3.0440001 -0.25584781 0.074920475 0
3.0400002 -0.26029241 0.075418323 0
3.0370002 -0.26480553 0.075791717 0
3.0330002 -0.26922306 0.076289564 0
3.0300002 -0.27371275 0.076662958 0
3.1590002 -0.11069719 0.055630535 0
3.1550002 -0.11557288 0.056135595 0
3.1510003 -0.12043415 0.056640655 0
3.1470003 -0.12528098 0.057145745 0
3.1430001 -0.13011338 0.057650805 0
3.1390002 -0.13493136 0.058155864 0
3.0510001 -0.24683961 0.069267333 0
3.0470002 -0.25131124 0.069772393 0
3.0440001 -0.25584781 0.07015121 0
3.0400002 -0.26029241 0.07065627 0
3.0370002 -0.26480553 0.071035057 0
3.0330002 -0.26922306 0.071540117 0
3.0300002 -0.27371275 0.071918935 0
3.1590002 -0.11069719 0.050653815 0
3.1550002 -0.11557288 0.051166087 0
3.1510003 -0.12043415 0.051678389 0
3.1470003 -0.12528098 0.052190661 0
3.1430001 -0.13011338 0.052702963 0
3.1390002 -0.13493136 0.053215235 0
3.0510001 -0.24683961 0.064485431 0
3.0470002 -0.25131124 0.064997703 0
3.0440001 -0.25584781 0.065381944 0
3.0400002 -0.26029241 0.065894216 0
3.0370002 -0.26480553 0.066278428 0
3.0330002 -0.26922306 0.0667907 0
3.0300002 -0.27371275 0.067174911 0
3.0510001 -0.24683961 0.059703529 0
3.0470002 -0.25131124 0.060223043 0
3.0440001 -0.25584781 0.060612649 0
3.0400002 -0.26029241 0.061132163 0
3.0370002 -0.26480553 0.061521769 0
3.0330002 -0.26922306 0.062041283 0
3.0300002 -0.27371275 0.062430888 0
3.0510001 -0.24683961 0.054921657 0
3.0470002 -0.25131124 0.055448353 0
3.0440001 -0.25584781 0.055843383 0
3.0400002 -0.26029241 0.056370109 0
3.0370002 -0.26480553 0.056765139 0
3.0330002 -0.26922306 0.057291836 0
3.0300002 -0.27371275 0.057686865 0
3.0510001 -0.24683961 0.050139755 0
3.0470002 -0.25131124 0.050673664 0
3.0440001 -0.25584781 0.051074117 0
3.0400002 -0.26029241 0.051608056 0
3.0370002 -0.26480553 0.05200851 0
3.0330002 -0.26922306 0.052542418 0
3.0300002 -0.27371275 0.052942842 0
