# .PCD v0.7 - Point Cloud Data file format
VERSION 0.7
FIELDS x y z intensity
SIZE 4 4 4 4
TYPE F F F F
COUNT 1 1 1 1
WIDTH 1321
HEIGHT 1
VIEWPOINT 0 0 0 1 0 0 0
POINTS 1321
DATA ascii
6.5430002 0.1091311 1.1353325 0
6.5410004 0.098003417 1.1350943 0
6.5400004 0.0869046 1.1349753 0
6.5420003 0.07586889 1.1352134 0
6.5440001 0.064825982 1.1354514 0
6.5420003 0.13126384 1.1241343 0
6.5370002 0.12004955 1.1235482 0
6.5340004 0.10890384 1.1231964 0
6.5330005 0.097815827 1.1230792 0
6.5330005 0.08675307 1.1230792 0
6.5340004 0.075710163 1.1231964 0
6.5350003 0.064663634 1.1233137 0
6.5390005 0.053662207 1.1237826 0
6.5440001 0.042660777 1.1243689 0
6.5410004 0.14231215 1.11294 0
6.5350003 0.13106181 1.1122472 0
6.5310006 0.11988723 1.1117855 0
6.5290003 0.10877755 1.1115546 0
6.5270004 0.097675115 1.1113237 0
6.5260005 0.086601555 1.1112083 0
6.5270004 0.075571269 1.1113237 0
6.5290003 0.064555407 1.1115546 0
6.5320005 0.053548571 1.1119009 0
6.5370002 0.042559769 1.1124781 0
6.5430002 0.031565551 1.1131709 0
6.5420003 0.1534218 1.1019764 0
6.5350003 0.14212818 1.1011809 0
6.5300002 0.1309175 1.1006126 0
6.5260005 0.11975195 1.1001582 0
6.5230002 0.10862604 1.0998173 0
6.5220003 0.097557887 1.0997036 0
6.5220003 0.086514965 1.0997036 0
6.5230002 0.075491905 1.0998173 0
6.5250006 0.064483255 1.1000445 0
6.5270004 0.053467397 1.1002718 0
6.5320005 0.042487618 1.1008401 0
6.5370002 0.031489793 1.1014081 0
6.5450006 0.020506408 1.1023173 0
6.5460005 0.16463791 1.0913448 0
6.5380006 0.15329196 1.09045 0
6.5310006 0.14200552 1.0896672 0
6.5260005 0.13080207 1.089108 0
6.5230002 0.11967076 1.0887725 0
6.5200005 0.1085503 1.0884371 0
6.5190005 0.097487524 1.0883251 0
6.5190005 0.08645004 1.0883251 0
6.5190005 0.075412527 1.0883251 0
6.5210004 0.064411104 1.0885488 0
6.5240002 0.053418692 1.0888844 0
6.5280004 0.042429898 1.0893316 0
6.5330005 0.031439293 1.089891 0
6.5400004 0.020452302 1.0906737 0
6.5490003 0.0094580837 1.0916803 0
6.5430002 0.16453508 1.0799284 0
6.5350003 0.15319455 1.0790482 0
6.5290003 0.14194418 1.078388 0
6.5240002 0.13074434 1.0778378 0
6.5200005 0.1195896 1.0773977 0
6.5180006 0.10849978 1.0771776 0
6.5160003 0.097417176 1.0769576 0
6.5160003 0.086385086 1.0769576 0
6.5170002 0.075372845 1.0770676 0
6.5190005 0.064375028 1.0772877 0
6.5220003 0.05338623 1.0776178 0
6.5260005 0.042401034 1.0780579 0
6.5310006 0.031414043 1.078608 0
6.5370002 0.020419817 1.0792682 0
6.5460005 0.0094310269 1.0802586 0
6.5410004 0.16446654 1.0686312 0
6.5330005 0.15312961 1.0677654 0
6.5270004 0.14188285 1.067116 0
6.5230002 0.13071547 1.0666831 0
6.5190005 0.11956254 1.0662502 0
6.5170002 0.10847452 1.0660337 0
6.5160003 0.097417176 1.0659255 0
6.5150003 0.08636345 1.0658172 0
6.5160003 0.075352997 1.0659255 0
6.5180006 0.064356983 1.066142 0
6.5210004 0.053369995 1.0664666 0
6.5240002 0.042372171 1.0667913 0
6.5290003 0.031388778 1.0673325 0
6.5360003 0.020409007 1.0680901 0
6.5440001 0.009412989 1.0689559 0
6.5500002 0.17586839 1.0585119 0
6.5400004 0.16443226 1.0574476 0
6.5330005 0.15312961 1.0567026 0
6.5270004 0.14188285 1.056064 0
6.5220003 0.13068661 1.0555319 0
6.5190005 0.11956254 1.0552127 0
6.5170002 0.10847452 1.0549998 0
6.5150003 0.097393736 1.0547869 0
6.5150003 0.08636345 1.0547869 0
6.5160003 0.075352997 1.0548934 0
6.5180006 0.064356983 1.0551063 0
6.5200005 0.053353753 1.0553191 0
6.5240002 0.042372171 1.0557448 0
6.5290003 0.031388778 1.0562769 0
6.5360003 0.020409007 1.0570219 0
6.5440001 0.009412989 1.0578732 0
6.5540004 -0.0015974566 1.0589375 0
6.5520005 0.17594057 1.0476277 0
6.5420003 0.1645008 1.0465815 0
6.5340004 0.15316206 1.0457444 0
6.5280004 0.14191352 1.0451168 0
6.5230002 0.13071547 1.0445936 0
6.5200005 0.1195896 1.0442798 0
6.5180006 0.10849978 1.0440706 0
6.5160003 0.097417176 1.0438613 0
6.5160003 0.086385086 1.0438613 0
6.5170002 0.075372845 1.0439659 0
6.5180006 0.064356983 1.0440706 0
6.5210004 0.053369995 1.0443844 0
6.5250006 0.042386603 1.0448029 0
6.5300002 0.031401407 1.045326 0
6.5360003 0.020409007 1.0459536 0
6.5450006 0.0094220079 1.0468954 0
6.5550003 -0.0015902407 1.0479416 0
6.5430002 0.16453508 1.0356052 0
6.5350003 0.15319455 1.0347828 0
6.5300002 0.14197484 1.0342686 0
6.5250006 0.1307732 1.0337546 0
6.5220003 0.1196437 1.0334461 0
6.5190005 0.10852504 1.0331377 0
6.5180006 0.097464085 1.0330349 0
6.5180006 0.086428389 1.0330349 0
6.5190005 0.075412527 1.0331377 0
6.5200005 0.064393073 1.0332404 0
6.5230002 0.053402457 1.033549 0
6.5270004 0.042415466 1.0339602 0
6.5320005 0.031426664 1.0344743 0
6.5380006 0.020430651 1.0350912 0
6.5470004 0.0094400458 1.0360166 0
6.5470004 0.16467217 1.0249286 0
6.5390005 0.15332441 1.0241205 0
6.5330005 0.14206685 1.0235144 0
6.5280004 0.13085979 1.0230093 0
6.5250006 0.11972488 1.0227063 0
6.5220003 0.10860078 1.0224031 0
6.5210004 0.097534433 1.0223022 0
6.5210004 0.086493313 1.0223022 0
6.5210004 0.075452209 1.0223022 0
6.5230002 0.064447179 1.0225042 0
6.5260005 0.053451162 1.0228072 0
6.5300002 0.042458754 1.0232112 0
6.5350003 0.031464543 1.0237163 0
6.5420003 0.020473938 1.0244235 0
6.5500002 0.0094670989 1.0252315 0
6.5520005 0.16484354 1.0143366 0
6.5430002 0.15345429 1.0134437 0
6.5370002 0.1421895 1.0128484 0
6.5320005 0.13097523 1.0123523 0
6.5290003 0.11983311 1.0120547 0
6.5260005 0.10870181 1.0117571 0
6.5250006 0.097628236 1.011658 0
6.5250006 0.086579904 1.011658 0
6.5260005 0.07555142 1.0117571 0
6.5270004 0.064519331 1.0118563 0
6.5300002 0.053516101 1.0121539 0
6.5340004 0.042516481 1.0125508 0
6.5390005 0.031515051 1.0130469 0
6.5460005 0.020517234 1.0137414 0
6.5550003 0.0095121972 1.0146343 0
6.5500002 0.15368156 1.0030447 0
6.5430002 0.14237349 1.0023628 0
6.5380006 0.1311484 1.0018759 0
6.5340004 0.11996838 1.0014863 0
6.5320005 0.10885333 1.0012914 0
6.5300002 0.097745478 1.0010966 0
6.5290003 0.08666648 1.0009992 0
6.5300002 0.075630784 1.0010966 0
6.5320005 0.064609528 1.0012914 0
6.5350003 0.053597275 1.0015836 0
6.5390005 0.042588633 1.0019733 0
6.5450006 0.031590816 1.0025578 0
6.5520005 0.020582173 1.0032395 0
6.5570002 0.15390885 0.99262047 0
6.5500002 0.14258814 0.99195135 0
6.5440001 0.13132155 0.99137759 0
6.5400004 0.12013073 0.99099529 0
6.5380006 0.10900486 0.99080408 0
6.5360003 0.097886175 0.99061286 0
6.5360003 0.08681801 0.99061286 0
6.5370002 0.075769678 0.99070847 0
6.5390005 0.064735785 0.99089968 0
6.5420003 0.053710904 0.9911865 0
6.5460005 0.042689648 0.99156892 0
6.5520005 0.031679202 0.99214256 0
6.5600004 0.020668756 0.99290729 0
6.5590005 0.14286412 0.98170209 0
6.5530005 0.13158131 0.9811393 0
6.5490003 0.12037425 0.98076403 0
6.5460005 0.10920687 0.9804827 0
6.5440001 0.098073766 0.98029506 0
6.5440001 0.086991161 0.98029506 0
6.5450006 0.07592842 0.980389 0
6.5470004 0.064880088 0.98057652 0
6.5500002 0.053840782 0.98085785 0
6.5540004 0.042805087 0.98123312 0
6.5610003 0.031792838 0.98188961 0
6.5630002 0.13186991 0.97096038 0
6.5580006 0.12061778 0.97050047 0
6.5550003 0.10943416 0.97022438 0
6.5540004 0.098308265 0.97013247 0
6.5530005 0.087185979 0.97004044 0
6.5540004 0.076106995 0.97013247 0
6.5560002 0.065042436 0.97031641 0
6.5600004 0.054003131 0.97068441 0
6.5650005 0.042963821 0.97114432 0
6.5670004 0.10973719 0.96020424 0
6.5650005 0.098566204 0.96002388 0
6.5650005 0.087445736 0.96002388 0
6.5660005 0.076345101 0.96011412 0
6.5680003 0.06525889 0.96029449 0
6.5730004 0.054214176 0.96074545 0
6.5310006 0.13094637 0.94589829 0
6.5480003 0.12034719 0.94740081 0
6.5640006 0.10966143 0.94881499 0
6.5800004 0.087770417 0.95022917 0
6.5810003 0.076642722 0.95031762 0
6.5850005 0.065565541 0.9506712 0
6.5310006 0.11988723 0.93483913 0
6.5460005 0.10920687 0.93613791 0
6.5610003 0.098472401 0.93743658 0
6.5760002 0.087683827 0.93873537 0
6.4930005 0.17381208 0.92055845 0
6.4930005 0.16282147 0.92055845 0
6.4950004 0.15189581 0.92072797 0
6.5000005 0.14105491 0.92115188 0
6.5100002 0.13034028 0.92199957 0
6.5230002 0.11967076 0.92310178 0
6.5380006 0.10900486 0.92437351 0
6.5520005 0.098261371 0.92556036 0
6.5660005 0.087467372 0.9267472 0
6.5010004 0.19611074 0.91023159 0
6.4950004 0.18487842 0.90973377 0
6.4920006 0.173776 0.90948486 0
6.4920006 0.1627872 0.90948486 0
6.4940004 0.15186334 0.90965068 0
6.4990005 0.14102425 0.91006565 0
6.5070004 0.1302537 0.91072941 0
6.5200005 0.1195896 0.91180813 0
6.5020003 0.19615042 0.89930773 0
6.4950004 0.18487842 0.89873958 0
6.4920006 0.173776 0.89849603 0
6.4920006 0.1627872 0.89849603 0
6.4940004 0.15186334 0.89865834 0
6.4990005 0.14102425 0.89906418 0
6.5070004 0.1302537 0.89971352 0
6.5200005 0.1195896 0.90076882 0
6.5100002 0.20748916 0.8889358 0
6.5020003 0.19615042 0.8883009 0
6.4950004 0.18487842 0.88774532 0
6.4920006 0.173776 0.8875072 0
6.4920006 0.1627872 0.8875072 0
6.4940004 0.15186334 0.88766599 0
6.4990005 0.14102425 0.88806278 0
6.5070004 0.1302537 0.88869774 0
6.5200005 0.1195896 0.8897295 0
6.5110002 0.20753065 0.87799215 0
6.5020003 0.19615042 0.87729406 0
6.4950004 0.18487842 0.87675112 0
6.4920006 0.173776 0.87651843 0
6.4920006 0.1627872 0.87651843 0
6.4940004 0.15186334 0.87667358 0
6.4990005 0.14102425 0.87706137 0
6.5070004 0.1302537 0.87768185 0
6.5200005 0.1195896 0.87869018 0
6.5120006 0.20757213 0.86704481 0
6.5020003 0.19615042 0.86628717 0
6.4950004 0.18487842 0.86575687 0
6.4920006 0.173776 0.8655296 0
6.4920006 0.1627872 0.8655296 0
6.4940004 0.15186334 0.86568111 0
6.4990005 0.14102425 0.8660599 0
6.5070004 0.1302537 0.86666602 0
6.5200005 0.1195896 0.86765087 0
6.5140004 0.20765513 0.85616779 0
6.5020003 0.19615042 0.8552804 0
6.4950004 0.18487842 0.85476267 0
6.4920006 0.173776 0.85454082 0
6.4920006 0.1627872 0.85454082 0
6.4940004 0.15186334 0.85468876 0
6.4990005 0.14102425 0.85505855 0
6.5070004 0.1302537 0.85565013 0
6.5200005 0.1195896 0.85661161 0
6.5200005 0.21894336 0.84557229 0
6.5140004 0.20765513 0.84513938 0
6.5020003 0.19615042 0.84427357 0
6.4950004 0.18487842 0.84376848 0
6.4920006 0.173776 0.84355199 0
6.4920006 0.1627872 0.84355199 0
6.4940004 0.15186334 0.8436963 0
6.4990005 0.14102425 0.84405708 0
6.5070004 0.1302537 0.84463429 0
6.5200005 0.1195896 0.84557229 0
6.5220003 0.21902993 0.83467364 0
6.5140004 0.20765513 0.83411086 0
6.5020003 0.19615042 0.83326674 0
6.4950004 0.18487842 0.83277428 0
6.4920006 0.173776 0.83256322 0
6.4920006 0.1627872 0.83256322 0
6.4940004 0.15186334 0.83270395 0
6.4990005 0.14102425 0.83305568 0
6.5070004 0.1302537 0.8336184 0
6.5200005 0.1195896 0.83453298 0
6.3780003 0.040265325 0.82454348 0
6.3920002 0.029658932 0.82552838 0
6.5240002 0.21911651 0.82376778 0
6.5140004 0.20765513 0.82308239 0
6.5020003 0.19615042 0.82225984 0
6.4950004 0.18487842 0.82178009 0
6.4920006 0.173776 0.82157445 0
6.4920006 0.1627872 0.82157445 0
6.4940004 0.15186334 0.82171148 0
6.4990005 0.14102425 0.82205427 0
6.5070004 0.1302537 0.82260257 0
6.5200005 0.1195896 0.82349366 0
6.3650002 0.050837446 0.81286919 0
6.3780003 0.040265325 0.81376028 0
6.3920002 0.029658932 0.81471992 0
6.4050002 0.018991206 0.815611 0
6.5300002 0.23043358 0.81312174 0
6.5260005 0.21920311 0.81285477 0
6.5140004 0.20765513 0.81205392 0
6.5020003 0.19615042 0.81125301 0
6.4950004 0.18487842 0.81078583 0
6.4920006 0.173776 0.81058562 0
6.4920006 0.1627872 0.81058562 0
6.4940004 0.15186334 0.81071913 0
6.4990005 0.14102425 0.8110528 0
6.5070004 0.1302537 0.81158674 0
6.5200005 0.1195896 0.81245434 0
6.3640003 0.061579127 0.80204278 0
6.3650002 0.050837446 0.80210948 0
6.3780003 0.040265325 0.80297714 0
6.3920002 0.029658932 0.80391151 0
6.4050002 0.018991206 0.80477911 0
6.5320005 0.23052382 0.8021943 0
6.5290003 0.21933296 0.80199945 0
6.5140004 0.20765513 0.80102539 0
6.5020003 0.19615042 0.80024618 0
6.4950004 0.18487842 0.79979163 0
6.4920006 0.173776 0.79959679 0
6.4920006 0.1627872 0.79959679 0
6.4940004 0.15186334 0.79972672 0
6.4990005 0.14102425 0.80005133 0
6.5070004 0.1302537 0.80057085 0
6.5200005 0.1195896 0.80141503 0
6.3720002 0.072495773 0.79180431 0
6.3640003 0.061579127 0.79128486 0
6.3650002 0.050837446 0.79134977 0
6.3780003 0.040265325 0.79219401 0
6.3920002 0.029658932 0.7931031 0
6.4050002 0.018991206 0.79394728 0
6.4190001 0.0082856081 0.79485643 0
6.5390005 0.24191305 0.79157531 0
6.5340004 0.23061398 0.79125965 0
6.5320005 0.21946287 0.79113334 0
6.5140004 0.20765513 0.78999692 0
6.5020003 0.19615042 0.78923935 0
6.4950004 0.18487842 0.78879738 0
6.4920006 0.173776 0.78860801 0
6.4920006 0.1627872 0.78860801 0
6.4940004 0.15186334 0.78873426 0
6.4990005 0.14102425 0.78904998 0
6.5070004 0.1302537 0.78955501 0
6.5200005 0.1195896 0.79037571 0
6.3720002 0.072495773 0.78103197 0
6.3640003 0.061579127 0.78052694 0
6.3650002 0.050837446 0.78059006 0
6.3780003 0.040265325 0.78141081 0
6.3920002 0.029658932 0.78229463 0
6.4050002 0.018991206 0.78311539 0
6.4190001 0.0082856081 0.78399926 0
6.4330006 -0.002470497 0.78488314 0
6.4460006 -0.013282526 0.7857039 0
6.5410004 0.24200684 0.78062433 0
6.5370002 0.23074928 0.78037906 0
6.5360003 0.21963602 0.78031766 0
6.5140004 0.20765513 0.77896845 0
6.5020003 0.19615042 0.77823246 0
6.4950004 0.18487842 0.77780318 0
6.4920006 0.173776 0.77761924 0
6.4920006 0.1627872 0.77761924 0
6.4940004 0.15186334 0.77774191 0
6.4990005 0.14102425 0.77804852 0
6.5070004 0.1302537 0.77853918 0
6.5200005 0.1195896 0.77933645 0
6.3720002 0.072495773 0.77025962 0
6.3640003 0.061579127 0.76976901 0
6.3650002 0.050837446 0.76983035 0
6.3780003 0.040265325 0.77062762 0
6.3920002 0.029658932 0.77148622 0
6.4050002 0.018991206 0.77228355 0
6.4190001 0.0082856081 0.7731421 0
6.4330006 -0.002470497 0.77400076 0
6.4460006 -0.013282526 0.77479804 0
6.5470004 0.25337625 0.76990432 0
6.5420003 0.24205372 0.76960671 0
6.5400004 0.23088458 0.76948762 0
6.5400004 0.2198092 0.76948762 0
6.5140004 0.20765513 0.76793993 0
6.5020003 0.19615042 0.76722568 0
6.4950004 0.18487842 0.76680899 0
6.4920006 0.173776 0.76663041 0
6.4920006 0.1627872 0.76663041 0
6.4940004 0.15186334 0.76674944 0
6.4990005 0.14102425 0.76704711 0
6.5070004 0.1302537 0.76752329 0
6.5200005 0.1195896 0.76829708 0
6.3720002 0.072495773 0.75948727 0
6.3640003 0.061579127 0.75901115 0
6.3650002 0.050837446 0.75907063 0
6.3780003 0.040265325 0.75984442 0
6.3920002 0.029658932 0.76067781 0
6.4050002 0.018991206 0.76145166 0
6.4190001 0.0082856081 0.76228499 0
6.4330006 -0.002470497 0.76311839 0
6.4460006 -0.013282526 0.76389223 0
6.5490003 0.25347367 0.75893176 0
6.5450006 0.24219447 0.75870085 0
6.5440001 0.23106495 0.75864315 0
6.5440001 0.21998233 0.75864315 0
6.5140004 0.20765513 0.75691152 0
6.5020003 0.19615042 0.75621879 0
6.4950004 0.18487842 0.75581479 0
6.4920006 0.173776 0.75564158 0
6.4920006 0.1627872 0.75564158 0
6.4940004 0.15186334 0.75575709 0
6.4990005 0.14102425 0.7560457 0
6.5070004 0.1302537 0.7565074 0
6.5200005 0.1195896 0.75725782 0
6.3720002 0.072495773 0.74871498 0
6.3640003 0.061579127 0.74825323 0
6.3650002 0.050837446 0.74831092 0
6.3780003 0.040265325 0.74906135 0
6.3920002 0.029658932 0.74986941 0
6.4050002 0.018991206 0.75061977 0
6.4190001 0.0082856081 0.75142789 0
6.4330006 -0.002470497 0.75223601 0
6.4460006 -0.013282526 0.75298643 0
6.5560002 0.26491883 0.74823153 0
6.5510006 0.25357106 0.74795198 0
6.5480003 0.24233514 0.74778426 0
6.5470004 0.23120022 0.74772829 0
6.5490003 0.22019878 0.74784017 0
6.5140004 0.20765513 0.74588299 0
6.5020003 0.19615042 0.74521196 0
6.4950004 0.18487842 0.74482059 0
6.4920006 0.173776 0.74465287 0
6.4920006 0.1627872 0.74465287 0
6.4940004 0.15186334 0.74476469 0
6.4990005 0.14102425 0.74504423 0
6.5070004 0.1302537 0.74549162 0
6.5200005 0.1195896 0.74621856 0
6.3720002 0.072495773 0.73794264 0
6.3640003 0.061579127 0.7374953 0
6.3650002 0.050837446 0.73755121 0
6.3780003 0.040265325 0.73827815 0
6.3920002 0.029658932 0.739061 0
6.4050002 0.018991206 0.73978794 0
6.4190001 0.0082856081 0.74057078 0
6.4330006 -0.002470497 0.74135363 0
6.4460006 -0.013282526 0.74208057 0
6.5570002 0.26496929 0.73718143 0
6.5530005 0.25366846 0.73696494 0
6.5510006 0.24247584 0.73685676 0
6.5520005 0.23142573 0.73691088 0
6.5140004 0.20765513 0.73485452 0
6.5020003 0.19615042 0.73420513 0
6.4950004 0.18487842 0.73382634 0
6.4920006 0.173776 0.73366404 0
6.4920006 0.1627872 0.73366404 0
6.4940004 0.15186334 0.73377222 0
6.4990005 0.14102425 0.73404282 0
6.5070004 0.1302537 0.73447573 0
6.5200005 0.1195896 0.73517919 0
6.3720002 0.072495773 0.72717029 0
6.3640003 0.061579127 0.72673738 0
6.3650002 0.050837446 0.7267915 0
6.3780003 0.040265325 0.72749496 0
6.3920002 0.029658932 0.72825259 0
6.4050002 0.018991206 0.7289561 0
6.4190001 0.0082856081 0.72971368 0
6.4330006 -0.002470497 0.73047125 0
6.4460006 -0.013282526 0.73117477 0
6.5650005 0.27649388 0.7264939 0
6.5590005 0.26507035 0.72618002 0
6.5560002 0.25381458 0.72602308 0
6.5550003 0.24266341 0.72597075 0
6.5560002 0.2316061 0.72602308 0
6.5140004 0.20765513 0.72382605 0
6.5020003 0.19615042 0.72319829 0
6.4950004 0.18487842 0.72283214 0
6.4920006 0.173776 0.7226752 0
6.4920006 0.1627872 0.7226752 0
6.4940004 0.15186334 0.72277987 0
6.4990005 0.14102425 0.72304142 0
6.5070004 0.1302537 0.72345984 0
6.5200005 0.1195896 0.72413993 0
6.3720002 0.072495773 0.71639794 0
6.3640003 0.061579127 0.71597946 0
6.3650002 0.050837446 0.71603179 0
6.3780003 0.040265325 0.71671176 0
6.3920002 0.029658932 0.71744418 0
6.4050002 0.018991206 0.71812415 0
6.4190001 0.0082856081 0.71885651 0
6.4330006 -0.002470497 0.71958888 0
6.4460006 -0.013282526 0.72026896 0
6.5740004 0.28810135 0.71582794 0
6.5660005 0.27654618 0.71542394 0
6.5610003 0.26517135 0.71517134 0
6.5590005 0.2539607 0.71507037 0
6.5590005 0.24285102 0.71507037 0
6.5620003 0.23187664 0.71522188 0
6.5020003 0.19615042 0.71219146 0
6.4950004 0.18487842 0.71183789 0
6.4920006 0.173776 0.71168643 0
6.4920006 0.1627872 0.71168643 0
6.4940004 0.15186334 0.7117874 0
6.4990005 0.14102425 0.71203995 0
6.5070004 0.1302537 0.71244401 0
6.5200005 0.1195896 0.71310061 0
6.3720002 0.072495773 0.70562559 0
6.3640003 0.061579127 0.70522153 0
6.3650002 0.050837446 0.70527208 0
6.3780003 0.040265325 0.70592868 0
6.3920002 0.029658932 0.70663571 0
6.4050002 0.018991206 0.70729232 0
6.4190001 0.0082856081 0.70799941 0
6.4330006 -0.002470497 0.7087065 0
6.4460006 -0.013282526 0.7093631 0
6.5740004 0.28810135 0.70469129 0
6.5680003 0.27665079 0.70439899 0
6.5640006 0.26532286 0.7042042 0
6.5630002 0.25415549 0.7041555 0
6.5640006 0.24308553 0.7042042 0
6.5670004 0.23210213 0.70435035 0
6.5020003 0.19615042 0.70118463 0
6.4950004 0.18487842 0.70084369 0
6.4920006 0.173776 0.7006976 0
6.4920006 0.1627872 0.7006976 0
6.4940004 0.15186334 0.70079505 0
6.4990005 0.14102425 0.70103854 0
6.5070004 0.1302537 0.70142817 0
6.5200005 0.1195896 0.7020613 0
6.3720002 0.072495773 0.69485325 0
6.3640003 0.061579127 0.69446361 0
6.3650002 0.050837446 0.69451237 0
6.3780003 0.040265325 0.69514549 0
6.3920002 0.029658932 0.69582731 0
6.4050002 0.018991206 0.69646049 0
6.4190001 0.0082856081 0.6971423 0
6.4330006 -0.002470497 0.69782412 0
6.4460006 -0.013282526 0.6984573 0
6.5830002 0.29974133 0.69397664 0
6.5750003 0.28815547 0.69360143 0
6.5700002 0.27675539 0.69336689 0
6.5670004 0.26547438 0.69322622 0
6.5670004 0.2543503 0.69322622 0
6.5690002 0.24331999 0.69332004 0
6.5020003 0.19615042 0.6901778 0
6.4950004 0.18487842 0.6898495 0
6.4920006 0.173776 0.68970883 0
6.4920006 0.1627872 0.68970883 0
6.4940004 0.15186334 0.68980265 0
6.4990005 0.14102425 0.69003713 0
6.5070004 0.1302537 0.69041228 0
6.5200005 0.1195896 0.69102198 0
6.3720002 0.072495773 0.68408096 0
6.3640003 0.061579127 0.68370575 0
6.3650002 0.050837446 0.68375266 0
6.3780003 0.040265325 0.68436229 0
6.3920002 0.029658932 0.6850189 0
6.4050002 0.018991206 0.68562859 0
6.4190001 0.0082856081 0.68628514 0
6.4330006 -0.002470497 0.68694174 0
6.4460006 -0.013282526 0.6875515 0
6.5840006 0.29979724 0.68286878 0
6.5760002 0.28820956 0.68250799 0
6.5720005 0.27686003 0.68232763 0
6.5710006 0.26567641 0.68228257 0
6.5710006 0.25454512 0.68228257 0
6.5020003 0.19615042 0.67917097 0
6.4950004 0.18487842 0.6788553 0
6.4920006 0.173776 0.67872 0
6.4920006 0.1627872 0.67872 0
6.4940004 0.15186334 0.67881024 0
6.4990005 0.14102425 0.67903566 0
6.5070004 0.1302537 0.67939639 0
6.5200005 0.1195896 0.67998266 0
6.3720002 0.072495773 0.67330861 0
6.3640003 0.061579127 0.67294782 0
6.3650002 0.050837446 0.67299294 0
6.3780003 0.040265325 0.6735791 0
6.3920002 0.029658932 0.67421049 0
6.4050002 0.018991206 0.6747967 0
6.4190001 0.0082856081 0.67542803 0
6.4330006 -0.002470497 0.67605937 0
6.4460006 -0.013282526 0.67664564 0
6.5970006 0.3117024 0.67227685 0
6.5890002 0.30007684 0.67193049 0
6.5800004 0.28842604 0.67154086 0
6.5760002 0.27706927 0.67136765 0
6.5750003 0.26587844 0.67132437 0
6.5020003 0.19615042 0.66816413 0
6.4950004 0.18487842 0.6678611 0
6.4920006 0.173776 0.66773117 0
6.4920006 0.1627872 0.66773117 0
6.4940004 0.15186334 0.66781783 0
6.4990005 0.14102425 0.66803426 0
6.5070004 0.1302537 0.66838062 0
6.5200005 0.1195896 0.66894341 0
6.3720002 0.072495773 0.66253626 0
6.3640003 0.061579127 0.6621899 0
6.3650002 0.050837446 0.66223323 0
6.3780003 0.040265325 0.66279602 0
6.3920002 0.029658932 0.66340208 0
6.4050002 0.018991206 0.66396487 0
6.4190001 0.0082856081 0.66457093 0
6.4330006 -0.002470497 0.66517699 0
6.4460006 -0.013282526 0.66573977 0
6.6030002 0.32323772 0.66134751 0
6.5960002 0.31164464 0.66105711 0
6.6000004 0.30069193 0.66122305 0
6.5880003 0.28885895 0.66072524 0
6.5830002 0.27743542 0.66051775 0
6.5020003 0.19615042 0.6571573 0
6.4950004 0.18487842 0.65686691 0
6.4920006 0.173776 0.65674245 0
6.4920006 0.1627872 0.65674245 0
6.4940004 0.15186334 0.65682536 0
6.4990005 0.14102425 0.65703285 0
6.5070004 0.1302537 0.65736473 0
6.5200005 0.1195896 0.65790403 0
6.3720002 0.072495773 0.65176392 0
6.3640003 0.061579127 0.65143204 0
6.3650002 0.050837446 0.65147352 0
6.3780003 0.040265325 0.65201283 0
6.3920002 0.029658932 0.65259367 0
6.4050002 0.018991206 0.65313298 0
6.4190001 0.0082856081 0.65371382 0
6.4330006 -0.002470497 0.65429467 0
6.4460006 -0.013282526 0.65483403 0
6.6130004 0.33504003 0.65055537 0
6.6060004 0.32341629 0.65027755 0
6.6010003 0.31193328 0.65007913 0
6.5970006 0.30052418 0.6499204 0
6.6040006 0.2897248 0.65019822 0
6.5020003 0.19615042 0.64615047 0
6.4950004 0.18487842 0.64587265 0
6.4920006 0.173776 0.64575362 0
6.4920006 0.1627872 0.64575362 0
6.4940004 0.15186334 0.64583302 0
6.4990005 0.14102425 0.64603138 0
6.5070004 0.1302537 0.64634883 0
6.5200005 0.1195896 0.64686477 0
6.3720002 0.072495773 0.64099157 0
6.3640003 0.061579127 0.64067411 0
6.3650002 0.050837446 0.64071381 0
6.3780003 0.040265325 0.64122963 0
6.3920002 0.029658932 0.64178526 0
6.4050002 0.018991206 0.64230108 0
6.4190001 0.0082856081 0.64285672 0
6.4330006 -0.002470497 0.64341229 0
6.4460006 -0.013282526 0.64392817 0
6.6300006 0.35855812 0.63999224 0
6.6230006 0.34687847 0.63972712 0
6.6160002 0.33522403 0.63946187 0
6.6120005 0.32377347 0.63931042 0
6.6080003 0.31233731 0.6391589 0
6.5020003 0.19615042 0.63514358 0
6.4950004 0.18487842 0.63487846 0
6.4920006 0.173776 0.63476479 0
6.4920006 0.1627872 0.63476479 0
6.4940004 0.15186334 0.63484055 0
6.4990005 0.14102425 0.63502997 0
6.5070004 0.1302537 0.635333 0
6.5200005 0.1195896 0.63582546 0
6.3720002 0.072495773 0.63021922 0
6.3640003 0.061579127 0.62991619 0
6.3650002 0.050837446 0.62995404 0
6.3780003 0.040265325 0.63044649 0
6.3920002 0.029658932 0.6309768 0
6.4050002 0.018991206 0.63146925 0
6.4190001 0.0082856081 0.63199955 0
6.4330006 -0.002470497 0.63252991 0
6.4460006 -0.013282526 0.63302231 0
6.6390004 0.37039652 0.62907922 0
6.6330004 0.35875294 0.62886274 0
6.6270003 0.34713098 0.62864631 0
6.6220002 0.335592 0.62846589 0
6.6190004 0.32419014 0.62835765 0
6.5020003 0.19615042 0.62413681 0
6.4950004 0.18487842 0.62388426 0
6.4920006 0.173776 0.62377602 0
6.4920006 0.1627872 0.62377602 0
6.4940004 0.15186334 0.62384814 0
6.4990005 0.14102425 0.62402856 0
6.5070004 0.1302537 0.62431717 0
6.5200005 0.1195896 0.62478614 0
6.3720002 0.072495773 0.61944687 0
6.3640003 0.061579127 0.61915827 0
6.3650002 0.050837446 0.61919433 0
6.3780003 0.040265325 0.61966336 0
6.3920002 0.029658932 0.62016839 0
6.4050002 0.018991206 0.62063742 0
6.4190001 0.0082856081 0.62114245 0
6.4330006 -0.002470497 0.62164754 0
6.4460006 -0.013282526 0.62211651 0
6.6570005 0.3941707 0.61844218 0
6.6490002 0.3823359 0.618168 0
6.6430006 0.37066346 0.61796236 0
6.6370006 0.35901266 0.61775672 0
6.6330004 0.3475098 0.61761963 0
6.6300006 0.33608267 0.61751682 0
6.5020003 0.19615042 0.61312991 0
6.4950004 0.18487842 0.61289001 0
6.4920006 0.173776 0.61278725 0
6.4920006 0.1627872 0.61278725 0
6.4940004 0.15186334 0.61285573 0
6.4990005 0.14102425 0.6130271 0
6.5070004 0.1302537 0.61330128 0
6.5200005 0.1195896 0.61374682 0
6.3720002 0.072495773 0.60867453 0
6.3640003 0.061579127 0.60840034 0
6.3650002 0.050837446 0.60843462 0
6.3780003 0.040265325 0.60888016 0
6.3920002 0.029658932 0.60935998 0
6.4050002 0.018991206 0.60980552 0
6.4190001 0.0082856081 0.61028528 0
6.4330006 -0.002470497 0.61076516 0
6.4460006 -0.013282526 0.6112107 0
6.6760006 0.4181487 0.60777265 0
6.6670003 0.40617862 0.60748041 0
6.6590004 0.3943114 0.60722065 0
6.6530004 0.38261008 0.60702586 0
6.6480002 0.37099716 0.6068635 0
6.6440005 0.35946724 0.60673362 0
6.5020003 0.19615042 0.60212308 0
6.4950004 0.18487842 0.60189581 0
6.4920006 0.173776 0.60179842 0
6.4920006 0.1627872 0.60179842 0
6.4940004 0.15186334 0.60186338 0
6.4990005 0.14102425 0.60202569 0
6.5070004 0.1302537 0.60228544 0
6.5200005 0.1195896 0.60270751 0
6.3720002 0.072495773 0.59790218 0
6.3640003 0.061579127 0.59764242 0
6.3650002 0.050837446 0.59767491 0
6.3780003 0.040265325 0.59809697 0
6.3920002 0.029658932 0.59855157 0
6.4050002 0.018991206 0.59897363 0
6.4190001 0.0082856081 0.59942818 0
6.4330006 -0.002470497 0.59988278 0
6.4460006 -0.013282526 0.60030484 0
6.6810002 0.42984819 0.59660524 0
6.6770005 0.4182227 0.59648257 0
6.6690006 0.40632299 0.5962373 0
6.6630006 0.39459279 0.5960533 0
6.6580005 0.38295281 0.59589994 0
6.6550002 0.37146434 0.59580797 0
6.6520004 0.35998672 0.595716 0
6.5020003 0.19615042 0.59111625 0
6.4950004 0.18487842 0.59090161 0
6.4920006 0.173776 0.59080958 0
6.4920006 0.1627872 0.59080958 0
6.4940004 0.15186334 0.59087098 0
6.4990005 0.14102425 0.59102428 0
6.5070004 0.1302537 0.59126961 0
6.5200005 0.1195896 0.59166825 0
6.3720002 0.072495773 0.58712983 0
6.3640003 0.061579127 0.5868845 0
6.3650002 0.050837446 0.58691519 0
6.3780003 0.040265325 0.58731383 0
6.3920002 0.029658932 0.5877431 0
6.4050002 0.018991206 0.5881418 0
6.4190001 0.0082856081 0.58857107 0
6.4330006 -0.002470497 0.5890004 0
6.4460006 -0.013282526 0.58939904 0
6.6810002 0.44117793 0.58527553 0
6.6790004 0.42969671 0.58521783 0
6.6780005 0.41829664 0.58518893 0
6.6740003 0.40668371 0.58507347 0
6.6690006 0.39501491 0.58492923 0
6.6660004 0.38350117 0.58484262 0
6.6640005 0.37206504 0.58478487 0
6.5020003 0.19615042 0.58010942 0
6.4950004 0.18487842 0.57990742 0
6.4920006 0.173776 0.57982081 0
6.4920006 0.1627872 0.57982081 0
6.4940004 0.15186334 0.57987857 0
6.4990005 0.14102425 0.58002281 0
6.5070004 0.1302537 0.58025372 0
6.5200005 0.1195896 0.58062893 0
6.3720002 0.072495773 0.57635748 0
6.3640003 0.061579127 0.57612658 0
6.3650002 0.050837446 0.57615548 0
6.3780003 0.040265325 0.57653069 0
6.3920002 0.029658932 0.5769347 0
6.4050002 0.018991206 0.57730991 0
6.4190001 0.0082856081 0.57771397 0
6.4330006 -0.002470497 0.57811803 0
6.4460006 -0.013282526 0.57849324 0
6.6810002 0.44117793 0.57394582 0
6.6780005 0.42962095 0.57386464 0
6.6780005 0.41829664 0.57386464 0
6.6800003 0.40711662 0.57391876 0
6.6770005 0.39557767 0.57383758 0
6.6750002 0.38411805 0.57378346 0
6.6750002 0.37279916 0.57378346 0
6.5020003 0.19615042 0.56910259 0
6.4950004 0.18487842 0.56891316 0
6.4920006 0.173776 0.56883204 0
6.4920006 0.1627872 0.56883204 0
6.4940004 0.15186334 0.5688861 0
6.4990005 0.14102425 0.5690214 0
6.5070004 0.1302537 0.56923783 0
6.5200005 0.1195896 0.56958961 0
6.3720002 0.072495773 0.56558514 0
6.3640003 0.061579127 0.56536871 0
6.3650002 0.050837446 0.56539577 0
6.3780003 0.040265325 0.5657475 0
6.3920002 0.029658932 0.56612629 0
6.4050002 0.018991206 0.56647801 0
6.4190001 0.0082856081 0.56685686 0
6.4330006 -0.002470497 0.56723565 0
6.4460006 -0.013282526 0.56758738 0
6.6830006 0.44133306 0.56266659 0
6.6800003 0.42977244 0.56259084 0
6.6800003 0.41844454 0.56259084 0
6.6820002 0.40726089 0.56264132 0
6.6860003 0.39621079 0.56274235 0
6.6870003 0.38494059 0.56276762 0
6.5020003 0.19615042 0.55809575 0
6.4950004 0.18487842 0.55791897 0
6.4920006 0.173776 0.55784321 0
6.4920006 0.1627872 0.55784321 0
6.4940004 0.15186334 0.55789369 0
6.4990005 0.14102425 0.55802 0
6.5070004 0.1302537 0.558222 0
6.5200005 0.1195896 0.5585503 0
6.3720002 0.072495773 0.55481279 0
6.3640003 0.061579127 0.55461079 0
6.3650002 0.050837446 0.554636 0
6.3780003 0.040265325 0.5549643 0
6.3920002 0.029658932 0.55531788 0
6.4050002 0.018991206 0.55564618 0
6.4190001 0.0082856081 0.5559997 0
6.4330006 -0.002470497 0.55635327 0
6.4460006 -0.013282526 0.55668157 0
6.6870003 0.4416433 0.55142707 0
6.6840005 0.4300755 0.55135673 0
6.6840005 0.41874036 0.55135673 0
6.6860003 0.40754953 0.55140364 0
6.6900005 0.39649218 0.5514974 0
6.5020003 0.19615042 0.54708892 0
6.4950004 0.18487842 0.54692477 0
6.4920006 0.173776 0.54685444 0
6.4920006 0.1627872 0.54685444 0
6.4940004 0.15186334 0.54690135 0
6.4990005 0.14102425 0.54701853 0
6.5070004 0.1302537 0.54720616 0
6.5200005 0.1195896 0.54751098 0
6.3720002 0.072495773 0.54404044 0
6.3640003 0.061579127 0.54385287 0
6.3650002 0.050837446 0.54387629 0
6.3780003 0.040265325 0.54418117 0
6.3920002 0.029658932 0.54450947 0
6.4050002 0.018991206 0.54481429 0
6.4190001 0.0082856081 0.54514259 0
6.4330006 -0.002470497 0.54547089 0
6.4460006 -0.013282526 0.54577577 0
6.6940002 0.44218624 0.54023802 0
6.6910005 0.43060583 0.54017311 0
6.6910005 0.41925809 0.54017311 0
6.6930003 0.40805459 0.54021639 0
6.6970005 0.39698467 0.54030299 0
6.5020003 0.19615042 0.53608203 0
6.4950004 0.18487842 0.53593051 0
6.4920006 0.173776 0.5358656 0
6.4920006 0.1627872 0.5358656 0
6.4940004 0.15186334 0.53590894 0
6.4990005 0.14102425 0.53601712 0
6.5070004 0.1302537 0.53619027 0
6.5200005 0.1195896 0.53647172 0
6.3720002 0.072495773 0.53326809 0
6.3640003 0.061579127 0.53309494 0
6.3650002 0.050837446 0.53311658 0
6.3780003 0.040265325 0.53339803 0
6.3920002 0.029658932 0.53370106 0
6.4050002 0.018991206 0.5339824 0
6.4190001 0.0082856081 0.53428543 0
6.4330006 -0.002470497 0.53458852 0
6.4460006 -0.013282526 0.53486991 0
6.7020006 0.43143919 0.52904361 0
6.7010002 0.4199976 0.52902377 0
6.7030005 0.40877616 0.52906346 0
6.6930003 0.39670321 0.52886504 0
6.6840005 0.38473499 0.52868646 0
6.5020003 0.19615042 0.5250752 0
6.4950004 0.18487842 0.52493632 0
6.4920006 0.173776 0.52487683 0
6.4920006 0.1627872 0.52487683 0
6.4940004 0.15186334 0.52491653 0
6.4990005 0.14102425 0.52501571 0
6.5070004 0.1302537 0.52517444 0
6.5200005 0.1195896 0.52543241 0
6.3720002 0.072495773 0.52249581 0
6.3640003 0.061579127 0.52233708 0
6.3650002 0.050837446 0.52235687 0
6.3780003 0.040265325 0.52261484 0
6.3920002 0.029658932 0.52289259 0
6.4050002 0.018991206 0.52315056 0
6.4190001 0.0082856081 0.52342832 0
6.4330006 -0.002470497 0.52370614 0
6.4460006 -0.013282526 0.52396411 0
6.7030005 0.43151495 0.51769406 0
6.6930003 0.41940594 0.51751363 0
6.6830006 0.40733311 0.51733327 0
6.6740003 0.39536661 0.51717097 0
6.5020003 0.19615042 0.51406837 0
6.4950004 0.18487842 0.51394212 0
6.4920006 0.173776 0.513888 0
6.4920006 0.1627872 0.513888 0
6.4940004 0.15186334 0.51392406 0
6.4990005 0.14102425 0.5140143 0
6.5070004 0.1302537 0.51415861 0
6.5200005 0.1195896 0.51439309 0
6.3720002 0.072495773 0.51172346 0
6.3640003 0.061579127 0.51157916 0
6.3650002 0.050837446 0.51159716 0
6.3780003 0.040265325 0.51183164 0
6.3920002 0.029658932 0.51208419 0
6.4050002 0.018991206 0.51231873 0
6.4190001 0.0082856081 0.51257122 0
6.4330006 -0.002470497 0.51282376 0
6.4460006 -0.013282526 0.51305825 0
6.6920004 0.43068156 0.50614607 0
6.6830006 0.41866642 0.50599998 0
6.6730003 0.40661156 0.50583762 0
6.6640005 0.39466316 0.50569153 0
6.5020003 0.19615042 0.50306153 0
6.4950004 0.18487842 0.50294793 0
6.4920006 0.173776 0.50289923 0
6.4920006 0.1627872 0.50289923 0
6.4940004 0.15186334 0.50293171 0
6.4990005 0.14102425 0.50301284 0
6.5070004 0.1302537 0.50314271 0
6.5200005 0.1195896 0.50335377 0
6.3720002 0.072495773 0.50095111 0
6.3640003 0.061579127 0.50082123 0
6.3650002 0.050837446 0.50083745 0
6.3780003 0.040265325 0.50104851 0
6.3920002 0.029658932 0.50127578 0
6.4050002 0.018991206 0.50148684 0
6.4190001 0.0082856081 0.50171411 0
6.4330006 -0.002470497 0.50194138 0
6.4460006 -0.013282526 0.50215244 0
6.6870003 0.43030277 0.49472433 0
6.6770005 0.4182227 0.49458006 0
6.6680002 0.40625077 0.49445018 0
6.5840006 0.29979724 0.49323803 0
6.5750003 0.28815547 0.49310815 0
6.5660005 0.27654618 0.49297827 0
6.5020003 0.19615042 0.4920547 0
6.4950004 0.18487842 0.4919537 0
6.4920006 0.173776 0.4919104 0
6.4920006 0.1627872 0.4919104 0
6.4940004 0.15186334 0.49193928 0
6.4990005 0.14102425 0.49201143 0
6.5070004 0.1302537 0.49212688 0
6.5200005 0.1195896 0.49231446 0
6.3720002 0.072495773 0.49017876 0
6.3640003 0.061579127 0.49006331 0
6.3650002 0.050837446 0.49007773 0
6.3780003 0.040265325 0.49026534 0
6.3920002 0.029658932 0.49046737 0
6.4050002 0.018991206 0.49065495 0
6.4190001 0.0082856081 0.49085698 0
6.4330006 -0.002470497 0.49105901 0
6.4460006 -0.013282526 0.49124661 0
6.6860003 0.43022704 0.4833712 0
6.6760006 0.4181487 0.48324493 0
6.6670003 0.40617862 0.48313129 0
6.6020002 0.3231782 0.48231053 0
6.5920005 0.31141379 0.48218429 0
6.5830002 0.29974133 0.48207062 0
6.5740004 0.28810135 0.48195699 0
6.5650005 0.27649388 0.48184335 0
6.5560002 0.26491883 0.48172972 0
6.5020003 0.19615042 0.48104787 0
6.4950004 0.18487842 0.48095948 0
6.4920006 0.173776 0.48092163 0
6.4920006 0.1627872 0.48092163 0
6.4940004 0.15186334 0.48094687 0
6.4990005 0.14102425 0.48101002 0
6.5070004 0.1302537 0.48111102 0
6.5200005 0.1195896 0.48127517 0
6.3720002 0.072495773 0.47940642 0
6.3640003 0.061579127 0.47930539 0
6.3650002 0.050837446 0.47931802 0
6.3780003 0.040265325 0.47948217 0
6.3920002 0.029658932 0.47965896 0
6.4050002 0.018991206 0.47982308 0
6.4190001 0.0082856081 0.47999987 0
6.4330006 -0.002470497 0.48017663 0
6.4460006 -0.013282526 0.48034078 0
6.6880002 0.43037853 0.47205409 0
6.6780005 0.41829664 0.47194588 0
6.6690006 0.40632299 0.47184846 0
6.6600003 0.39438173 0.47175103 0
6.6130004 0.33504003 0.47124237 0
6.6040006 0.32329726 0.47114497 0
6.5950003 0.31158695 0.47104758 0
6.5860004 0.29990909 0.47095016 0
6.5770006 0.28826371 0.47085276 0
6.5670004 0.27659845 0.47074452 0
6.5580006 0.26501983 0.47064713 0
6.5020003 0.19615042 0.47004104 0
6.4950004 0.18487842 0.46996528 0
6.4920006 0.173776 0.46993279 0
6.4920006 0.1627872 0.46993279 0
6.4940004 0.15186334 0.46995446 0
6.4990005 0.14102425 0.47000858 0
6.5070004 0.1302537 0.47009516 0
6.3720002 0.072495773 0.46863407 0
6.3640003 0.061579127 0.46854749 0
6.3650002 0.050837446 0.46855831 0
6.3780003 0.040265325 0.46869901 0
6.3920002 0.029658932 0.46885052 0
6.4050002 0.018991206 0.46899122 0
6.4190001 0.0082856081 0.46914274 0
6.4330006 -0.002470497 0.46929425 0
6.4460006 -0.013282526 0.46943498 0
6.6970005 0.44241899 0.46079293 0
6.6940002 0.43083307 0.46076587 0
6.6850004 0.41881436 0.46068469 0
6.6750002 0.40675583 0.46059451 0
6.6660004 0.39480382 0.46051332 0
6.6100006 0.32365444 0.46000826 0
6.6010003 0.31193328 0.45992708 0
6.5920005 0.3002446 0.45984593 0
6.5830002 0.28858837 0.45976475 0
6.5740004 0.27696463 0.45968357 0
6.5650005 0.26537338 0.45960242 0
6.5020003 0.19615042 0.4590342 0
6.4950004 0.18487842 0.45897108 0
6.4920006 0.173776 0.45894402 0
6.4920006 0.1627872 0.45894402 0
6.4940004 0.15186334 0.45896205 0
6.4990005 0.14102425 0.45900714 0
6.3720002 0.072495773 0.45786172 0
6.3640003 0.061579127 0.45778957 0
6.3650002 0.050837446 0.4577986 0
6.3780003 0.040265325 0.45791584 0
6.3920002 0.029658932 0.45804211 0
6.4050002 0.018991206 0.45815936 0
6.4190001 0.0082856081 0.45828563 0
6.4330006 -0.002470497 0.4584119 0
6.4460006 -0.013282526 0.45852914 0
6.6970005 0.44241899 0.44943434 0
6.6940002 0.43083307 0.4494127 0
6.6930003 0.41940594 0.44940546 0
6.6860003 0.40754953 0.44935498 0
6.6770005 0.39557767 0.44929004 0
6.5850005 0.27754006 0.44862622 0
6.5760002 0.26592895 0.44856128 0
6.4950004 0.18487842 0.44797686 0
6.4920006 0.173776 0.44795522 0
6.4920006 0.1627872 0.44795522 0
6.4940004 0.15186334 0.44796965 0
6.3810005 0.083462924 0.44715431 0
6.3720002 0.072495773 0.44708937 0
6.3640003 0.061579127 0.44703168 0
6.3650002 0.050837446 0.44703889 0
6.3780003 0.040265325 0.44713268 0
6.3920002 0.029658932 0.44723368 0
6.4050002 0.018991206 0.44732749 0
6.4190001 0.0082856081 0.44742849 0
6.4330006 -0.002470497 0.44752952 0
6.4460006 -0.013282526 0.44762331 0
6.6970005 0.44241899 0.43807575 0
6.6940002 0.43083307 0.43805951 0
6.6930003 0.41940594 0.43805411 0
6.6950002 0.40819889 0.43806493 0
6.4950004 0.18487842 0.43698263 0
6.4920006 0.173776 0.43696642 0
6.4920006 0.1627872 0.43696642 0
6.3810005 0.083462924 0.43636575 0
6.3720002 0.072495773 0.43631703 0
6.3640003 0.061579127 0.43627375 0
6.3650002 0.050837446 0.43627918 0
6.3780003 0.040265325 0.43634951 0
6.3920002 0.029658932 0.43642527 0
6.4050002 0.018991206 0.4364956 0
6.4190001 0.0082856081 0.43657136 0
6.4330006 -0.002470497 0.43664715 0
6.4460006 -0.013282526 0.43671748 0
6.6970005 0.44241899 0.42671716 0
6.6940002 0.43083307 0.42670634 0
6.6930003 0.41940594 0.42670274 0
6.6950002 0.40819889 0.42670995 0
6.6990004 0.39712533 0.42672437 0
6.3810005 0.083462924 0.42557716 0
6.3720002 0.072495773 0.42554471 0
6.3640003 0.061579127 0.42551583 0
6.3650002 0.050837446 0.42551944 0
6.3780003 0.040265325 0.42556635 0
6.3920002 0.029658932 0.42561686 0
6.4050002 0.018991206 0.42566374 0
6.4190001 0.0082856081 0.42571425 0
6.4330006 -0.002470497 0.42576477 0
6.4460006 -0.013282526 0.42581165 0
6.6970005 0.44241899 0.4153586 0
6.6940002 0.43083307 0.41535318 0
6.6930003 0.41940594 0.41535139 0
6.6950002 0.40819889 0.415355 0
6.6990004 0.39712533 0.41536221 0
6.3810005 0.083462924 0.4147886 0
6.3720002 0.072495773 0.41477236 0
6.3640003 0.061579127 0.41475794 0
6.3650002 0.050837446 0.41475973 0
6.3780003 0.040265325 0.41478318 0
6.3920002 0.029658932 0.41480842 0
6.4050002 0.018991206 0.41483188 0
6.4190001 0.0082856081 0.41485715 0
6.6970005 0.44241899 0.40400001 0
6.6940002 0.43083307 0.40400001 0
6.6930003 0.41940594 0.40400001 0
6.6950002 0.40819889 0.40400001 0
6.6990004 0.39712533 0.40400001 0
6.3810005 0.083462924 0.40400001 0
6.3720002 0.072495773 0.40400001 0
6.3640003 0.061579127 0.40400001 0
6.3650002 0.050837446 0.40400001 0
6.3780003 0.040265325 0.40400001 0
6.3920002 0.029658932 0.40400001 0
6.4050002 0.018991206 0.40400001 0
6.6970005 0.44241899 0.39264143 0
6.6940002 0.43083307 0.39264685 0
6.6930003 0.41940594 0.39264864 0
6.6950002 0.40819889 0.39264503 0
6.6990004 0.39712533 0.39263782 0
6.3810005 0.083462924 0.39321142 0
6.3720002 0.072495773 0.39322767 0
6.3640003 0.061579127 0.39324209 0
6.3650002 0.050837446 0.3932403 0
6.3780003 0.040265325 0.39321685 0
6.3920002 0.029658932 0.39319161 0
6.4050002 0.018991206 0.39316815 0
6.6970005 0.44241899 0.38128287 0
6.6940002 0.43083307 0.38129368 0
6.6930003 0.41940594 0.38129729 0
6.6950002 0.40819889 0.38129008 0
6.6990004 0.39712533 0.38127565 0
6.3810005 0.083462924 0.38242286 0
6.3720002 0.072495773 0.38245532 0
6.3640003 0.061579127 0.3824842 0
6.3650002 0.050837446 0.38248059 0
6.3780003 0.040265325 0.38243368 0
6.3920002 0.029658932 0.38238317 0
6.6970005 0.44241899 0.36992428 0
6.6940002 0.43083307 0.36994052 0
6.6930003 0.41940594 0.36994591 0
6.6950002 0.40819889 0.3699351 0
6.6990004 0.39712533 0.36991346 0
6.3780003 0.040265325 0.37165052 0
6.3920002 0.029658932 0.37157476 0
6.6970005 0.44241899 0.35856569 0
6.6940002 0.43083307 0.35858732 0
6.6930003 0.41940594 0.35859457 0
6.6950002 0.40819889 0.35858011 0
6.6990004 0.39712533 0.35855126 0
6.6970005 0.44241899 0.3472071 0
6.6940002 0.43083307 0.34723416 0
6.6930003 0.41940594 0.34724319 0
6.6950002 0.40819889 0.34722516 0
6.6990004 0.39712533 0.34718907 0
6.3990002 0.062210452 0.34989479 0
6.6970005 0.44241899 0.33584854 0
6.6940002 0.43083307 0.33588099 0
6.6930003 0.41940594 0.33589181 0
6.6950002 0.40819889 0.33587018 0
6.6990004 0.39712533 0.33582687 0
6.6970005 0.44241899 0.32448995 0
6.6940002 0.43083307 0.32452783 0
6.6930003 0.41940594 0.32454047 0
6.6950002 0.40819889 0.32451519 0
6.6990004 0.39712533 0.32446468 0
6.6970005 0.44241899 0.31313136 0
6.6940002 0.43083307 0.31317466 0
6.6930003 0.41940594 0.31318909 0
6.6950002 0.40819889 0.31316024 0
6.6990004 0.39712533 0.31310251 0
6.6970005 0.44241899 0.30177277 0
6.6940002 0.43083307 0.3018215 0
6.6930003 0.41940594 0.30183774 0
6.6950002 0.40819889 0.30180526 0
6.6990004 0.39712533 0.30174032 0
6.6970005 0.44241899 0.29041421 0
6.6940002 0.43083307 0.29046834 0
6.6930003 0.41940594 0.29048637 0
6.6950002 0.40819889 0.29045027 0
6.6990004 0.39712533 0.29037815 0
6.6970005 0.44241899 0.27905563 0
6.6940002 0.43083307 0.27911514 0
6.6930003 0.41940594 0.27913499 0
6.6950002 0.40819889 0.27909532 0
6.6990004 0.39712533 0.27901596 0
6.6970005 0.44241899 0.26769704 0
6.6940002 0.43083307 0.26776201 0
6.6930003 0.41940594 0.26778364 0
6.6950002 0.40819889 0.26774034 0
6.6990004 0.39712533 0.26765376 0
6.6970005 0.44241899 0.25633848 0
6.6940002 0.43083307 0.25640881 0
6.6930003 0.41940594 0.25643227 0
6.6950002 0.40819889 0.25638539 0
6.6990004 0.39712533 0.25629157 0
6.6970005 0.44241899 0.24497989 0
6.6940002 0.43083307 0.24505565 0
6.6930003 0.41940594 0.2450809 0
6.6950002 0.40819889 0.24503039 0
6.6990004 0.39712533 0.24492937 0
6.6970005 0.44241899 0.2336213 0
6.6940002 0.43083307 0.23370248 0
6.6930003 0.41940594 0.23372954 0
6.6950002 0.40819889 0.23367542 0
6.6990004 0.39712533 0.23356719 0
6.6970005 0.44241899 0.22226273 0
6.6940002 0.43083307 0.22234932 0
6.6930003 0.41940594 0.22237818 0
6.6950002 0.40819889 0.22232045 0
6.6990004 0.39712533 0.22220501 0
6.6970005 0.44241899 0.21090415 0
6.6940002 0.43083307 0.21099615 0
6.6930003 0.41940594 0.2110268 0
6.6950002 0.40819889 0.21096548 0
6.6990004 0.39712533 0.21084282 0
6.6970005 0.44241899 0.19954556 0
6.6940002 0.43083307 0.19964299 0
6.6930003 0.41940594 0.19967544 0
6.6950002 0.40819889 0.19961052 0
6.6990004 0.39712533 0.19948064 0
6.6970005 0.44241899 0.18818699 0
6.6940002 0.43083307 0.18828981 0
6.6930003 0.41940594 0.18832408 0
6.6950002 0.40819889 0.18825553 0
6.6990004 0.39712533 0.18811844 0
6.6970005 0.44241899 0.1768284 0
6.6940002 0.43083307 0.17693664 0
6.6930003 0.41940594 0.17697272 0
6.6950002 0.40819889 0.17690057 0
6.6990004 0.39712533 0.17675626 0
6.6970005 0.44241899 0.16546981 0
6.6940002 0.43083307 0.16558348 0
6.6930003 0.41940594 0.16562136 0
6.6950002 0.40819889 0.16554558 0
6.6990004 0.39712533 0.16539407 0
6.6970005 0.44241899 0.15411124 0
6.6940002 0.43083307 0.1542303 0
6.6930003 0.41940594 0.15426999 0
6.6950002 0.40819889 0.15419061 0
6.6990004 0.39712533 0.15403189 0
6.6970005 0.44241899 0.14275265 0
6.6940002 0.43083307 0.14287713 0
6.6930003 0.41940594 0.14291862 0
6.6950002 0.40819889 0.14283565 0
6.6990004 0.39712533 0.14266971 0
6.6970005 0.44241899 0.13139409 0
6.6940002 0.43083307 0.13152397 0
6.6930003 0.41940594 0.13156724 0
6.6950002 0.40819889 0.13148066 0
6.6990004 0.39712533 0.13130748 0
6.6970005 0.44241899 0.1200355 0
6.6940002 0.43083307 0.1201708 0
6.6930003 0.41940594 0.12021586 0
6.6950002 0.40819889 0.12012571 0
6.6990004 0.39712533 0.11994532 0
6.7050004 0.45441246 0.10830173 0
6.6970005 0.44241899 0.10867691 0
6.6940002 0.43083307 0.10881764 0
6.6930003 0.41940594 0.10886452 0
6.6950002 0.40819889 0.10877073 0
6.6990004 0.39712533 0.10858312 0
6.7080002 0.38638005 0.10816106 0
6.7050004 0.45441246 0.096928716 0
6.6970005 0.44241899 0.097318321 0
6.6940002 0.43083307 0.097464472 0
6.6930003 0.41940594 0.097513139 0
6.6950002 0.40819889 0.097415775 0
6.6990004 0.39712533 0.097220927 0
6.7080002 0.38638005 0.096782595 0
6.7050004 0.45441246 0.085555702 0
6.6970005 0.44241899 0.085959762 0
6.6940002 0.43083307 0.086111277 0
6.6930003 0.41940594 0.086161792 0
6.6950002 0.40819889 0.086060762 0
6.6990004 0.39712533 0.085858732 0
6.7080002 0.38638005 0.085404187 0
6.7040005 0.45433313 0.074234992 0
6.6950002 0.44226381 0.074705809 0
6.6940002 0.43083307 0.074758112 0
6.6930003 0.41940594 0.074810416 0
6.6940002 0.40812674 0.074758112 0
6.6940002 0.39677358 0.074758112 0
6.7070003 0.38631147 0.074078083 0
6.7040005 0.45433313 0.062863797 0
6.6950002 0.44226381 0.063350827 0
6.6850004 0.43015122 0.063891977 0
6.6760006 0.4181487 0.064378977 0
6.6800003 0.40711662 0.064162552 0
6.6940002 0.39677358 0.063404948 0
6.7070003 0.38631147 0.062701464 0
6.7040005 0.45433313 0.051492602 0
6.6950002 0.44226381 0.051995873 0
6.6850004 0.43015122 0.052555054 0
6.6760006 0.4181487 0.053058296 0
6.6800003 0.40711662 0.05283463 0
6.6940002 0.39677358 0.052051783 0
