# .PCD v0.7 - Point Cloud Data file format
VERSION 0.7
FIELDS x y z intensity
SIZE 4 4 4 4
TYPE F F F F
COUNT 1 1 1 1
WIDTH 1416
HEIGHT 1
VIEWPOINT 0 0 0 1 0 0 0
POINTS 1416
DATA ascii
5.4490004 0.30918968 0.89580113 0
5.4460001 0.39089677 0.88640684 0
5.4410005 0.38137087 0.88592887 0
5.4380002 0.37202892 0.88564205 0
5.4360003 0.36277902 0.88545084 0
5.4360003 0.35369503 0.88545084 0
5.4350004 0.3445335 0.88535523 0
5.4360003 0.33552709 0.88545084 0
5.4380002 0.32659099 0.88564205 0
5.4420004 0.31779203 0.88602448 0
5.4490004 0.30918968 0.88669372 0
5.4430003 0.39063704 0.87702346 0
5.4390001 0.3812013 0.87664831 0
5.4370003 0.37194598 0.87646067 0
5.4370003 0.36286017 0.87646067 0
5.4360003 0.35369503 0.87636685 0
5.4350004 0.3445335 0.87627304 0
5.4360003 0.33552709 0.87636685 0
5.4380002 0.32659099 0.87655449 0
5.4420004 0.31779203 0.8769297 0
5.4490004 0.30918968 0.87758625 0
5.4460001 0.39999878 0.86820281 0
5.4410005 0.39046389 0.8677429 0
5.4390001 0.3812013 0.8675589 0
5.4370003 0.37194598 0.8673749 0
5.4370003 0.36286017 0.8673749 0
5.4360003 0.35369503 0.86728287 0
5.4350004 0.3445335 0.8671909 0
5.4360003 0.33552709 0.86728287 0
5.4380002 0.32659099 0.86746693 0
5.4420004 0.31779203 0.86783493 0
5.4490004 0.30918968 0.86847889 0
5.4490004 0.40937138 0.85937142 0
5.4430003 0.39973363 0.85883021 0
5.4400005 0.39037728 0.85855973 0
5.4380002 0.38111654 0.8583793 0
5.4380002 0.37202892 0.8583793 0
5.4380002 0.36294135 0.8583793 0
5.4360003 0.35369503 0.85819894 0
5.4350004 0.3445335 0.85810876 0
5.4360003 0.33552709 0.85819894 0
5.4380002 0.32659099 0.8583793 0
5.4420004 0.31779203 0.85874009 0
5.4490004 0.30918968 0.85937142 0
5.4460001 0.4091008 0.84999883 0
5.4420004 0.39964527 0.84964526 0
5.4390001 0.39029071 0.84938008 0
5.4380002 0.38111654 0.84929168 0
5.4380002 0.37202892 0.84929168 0
5.4390001 0.36302254 0.84938008 0
5.4360003 0.35369503 0.84911495 0
5.4350004 0.3445335 0.84902656 0
5.4360003 0.33552709 0.84911495 0
5.4380002 0.32659099 0.84929168 0
5.4420004 0.31779203 0.84964526 0
5.4490004 0.30918968 0.85026395 0
5.4490004 0.41847885 0.8411566 0
5.4440002 0.40892044 0.84072363 0
5.4400005 0.39946848 0.84037733 0
5.4390001 0.39029071 0.84029073 0
5.4390001 0.3812013 0.84029073 0
5.4390001 0.37211192 0.84029073 0
5.4390001 0.36302254 0.84029073 0
5.4360003 0.35369503 0.84003097 0
5.4350004 0.3445335 0.83994442 0
5.4360003 0.33552709 0.84003097 0
5.4380002 0.32659099 0.84020412 0
5.4420004 0.31779203 0.84055048 0
5.4490004 0.30918968 0.8411566 0
5.4460001 0.41820282 0.83179474 0
5.4420004 0.40874007 0.83145571 0
5.4400005 0.39946848 0.83128613 0
5.4390001 0.39029071 0.83120131 0
5.4390001 0.3812013 0.83120131 0
5.4410005 0.37227789 0.83137089 0
5.4390001 0.36302254 0.83120131 0
5.4360003 0.35369503 0.83094704 0
5.4350004 0.3445335 0.83086222 0
5.4360003 0.33552709 0.83094704 0
5.4380002 0.32659099 0.83111656 0
5.4420004 0.31779203 0.83145571 0
5.4490004 0.30918968 0.83204913 0
5.4490004 0.42758623 0.82294166 0
5.4440002 0.41801885 0.82252681 0
5.4410005 0.40864986 0.8222779 0
5.4390001 0.39938006 0.82211196 0
5.4390001 0.39029071 0.82211196 0
5.4410005 0.38137087 0.8222779 0
5.4430003 0.37244383 0.82244384 0
5.4390001 0.36302254 0.82211196 0
5.4360003 0.35369503 0.821863 0
5.4350004 0.3445335 0.82178009 0
5.4360003 0.33552709 0.821863 0
5.4380002 0.32659099 0.82202893 0
5.4420004 0.31779203 0.82236087 0
5.4490004 0.30918968 0.82294166 0
5.4460001 0.42730483 0.81359076 0
5.4430003 0.41792688 0.81334722 0
5.4410005 0.40864986 0.81318492 0
5.4400005 0.39946848 0.81310374 0
5.4400005 0.39037728 0.81310374 0
5.4420004 0.38145566 0.81326604 0
5.4440002 0.37252679 0.8134284 0
5.4390001 0.36302254 0.81302255 0
5.4360003 0.35369503 0.81277907 0
5.4350004 0.3445335 0.81269789 0
5.4360003 0.33552709 0.81277907 0
5.4380002 0.32659099 0.81294137 0
5.4420004 0.31779203 0.81326604 0
5.4490004 0.30918968 0.81383431 0
5.4490004 0.43669367 0.80472684 0
5.4450002 0.42721102 0.80440938 0
5.4420004 0.41783488 0.80417126 0
5.4400005 0.40855968 0.80401254 0
5.4400005 0.39946848 0.80401254 0
5.4420004 0.39055046 0.80417126 0
5.4440002 0.38162521 0.80432999 0
5.4440002 0.37252679 0.80432999 0
5.4390001 0.36302254 0.80393314 0
5.4360003 0.35369503 0.80369508 0
5.4350004 0.3445335 0.80361569 0
5.4360003 0.33552709 0.80369508 0
5.4380002 0.32659099 0.80385375 0
5.4420004 0.31779203 0.80417126 0
5.4490004 0.30918968 0.80472684 0
5.4520001 0.44609332 0.79585207 0
5.4460001 0.43640682 0.79538667 0
5.4430003 0.42702347 0.79515404 0
5.4410005 0.41774285 0.79499888 0
5.4410005 0.40864986 0.79499888 0
5.4410005 0.39955688 0.79499888 0
5.4430003 0.39063704 0.79515404 0
5.4470005 0.38187954 0.79546428 0
5.4440002 0.37252679 0.79523158 0
5.4390001 0.36302254 0.79484379 0
5.4360003 0.35369503 0.7946111 0
5.4350004 0.3445335 0.79453349 0
5.4360003 0.33552709 0.7946111 0
5.4380002 0.32659099 0.79476619 0
5.4420004 0.31779203 0.79507649 0
5.4490004 0.30918968 0.79561937 0
5.4490004 0.44580111 0.78651202 0
5.4450002 0.43631124 0.78620893 0
5.4420004 0.42692968 0.78598166 0
5.4410005 0.41774285 0.7859059 0
5.4410005 0.40864986 0.7859059 0
5.4430003 0.39973363 0.78605747 0
5.4460001 0.39089677 0.78628469 0
5.4500003 0.38213387 0.78658772 0
5.4440002 0.37252679 0.78613317 0
5.4390001 0.36302254 0.78575432 0
5.4360003 0.35369503 0.78552711 0
5.4350004 0.3445335 0.78545135 0
5.4360003 0.33552709 0.78552711 0
5.4380002 0.32659099 0.78567863 0
5.4420004 0.31779203 0.78598166 0
5.4490004 0.30918968 0.78651202 0
5.4520001 0.45520616 0.7776264 0
5.4470005 0.44560629 0.77725667 0
5.4440002 0.43621564 0.77703476 0
5.4420004 0.42692968 0.77688688 0
5.4420004 0.41783488 0.77688688 0
5.4430003 0.40883023 0.77696085 0
5.4450002 0.39991039 0.77710867 0
5.4480004 0.39106995 0.77733064 0
5.4530005 0.38238823 0.77770042 0
5.4440002 0.37252679 0.77703476 0
5.4390001 0.36302254 0.77666497 0
5.4360003 0.35369503 0.77644312 0
5.4350004 0.3445335 0.77636921 0
5.4360003 0.33552709 0.77644312 0
5.4380002 0.32659099 0.776591 0
5.4420004 0.31779203 0.77688688 0
5.4490004 0.30918968 0.77740455 0
5.4500003 0.45500773 0.76836926 0
5.4450002 0.44541144 0.76800847 0
5.4430003 0.43612006 0.76786423 0
5.4420004 0.42692968 0.76779205 0
5.4420004 0.41783488 0.76779205 0
5.4440002 0.40892044 0.76793635 0
5.4470005 0.40008721 0.76815283 0
5.4510002 0.39132968 0.76844144 0
5.4530005 0.38238823 0.7685858 0
5.4440002 0.37252679 0.76793635 0
5.4390001 0.36302254 0.76757562 0
5.4360003 0.35369503 0.76735914 0
5.4350004 0.3445335 0.76728702 0
5.4360003 0.33552709 0.76735914 0
5.4380002 0.32659099 0.76750344 0
5.4420004 0.31779203 0.76779205 0
5.4490004 0.30918968 0.76829708 0
5.4520001 0.46431893 0.75940073 0
5.4470005 0.45471013 0.75904906 0
5.4440002 0.44531405 0.75883794 0
5.4430003 0.43612006 0.7587676 0
5.4430003 0.42702347 0.7587676 0
5.4440002 0.41801885 0.75883794 0
5.4460001 0.4091008 0.75897861 0
5.4500003 0.40035236 0.75926006 0
5.4550004 0.39167604 0.75961185 0
5.4530005 0.38238823 0.75947112 0
5.4440002 0.37252679 0.75883794 0
5.4390001 0.36302254 0.75848615 0
5.4360003 0.35369503 0.75827515 0
5.4350004 0.3445335 0.75820482 0
5.4360003 0.33552709 0.75827515 0
5.4380002 0.32659099 0.75841588 0
5.4420004 0.31779203 0.75869727 0
5.4490004 0.30918968 0.75918972 0
5.4500003 0.46411699 0.7501508 0
5.4460001 0.45461088 0.74987662 0
5.4440002 0.44531405 0.74973953 0
5.4430003 0.43612006 0.74967098 0
5.4440002 0.42711723 0.74973953 0
5.4450002 0.41811085 0.74980807 0
5.4480004 0.40928122 0.75001371 0
5.4530005 0.40061751 0.75035644 0
5.4600005 0.39210895 0.75083625 0
5.4530005 0.38238823 0.75035644 0
5.4440002 0.37252679 0.74973953 0
5.4390001 0.36302254 0.7493968 0
5.4360003 0.35369503 0.74919116 0
5.4350004 0.3445335 0.74912262 0
5.4360003 0.33552709 0.74919116 0
5.4380002 0.32659099 0.74932826 0
5.4420004 0.31779203 0.74960244 0
5.4490004 0.30918968 0.75008225 0
5.4530005 0.47353464 0.74124181 0
5.4480004 0.46391493 0.74090815 0
5.4450002 0.4545117 0.74070787 0
5.4440002 0.44531405 0.74064112 0
5.4440002 0.43621564 0.74064112 0
5.4450002 0.42721102 0.74070787 0
5.4470005 0.41829488 0.74084139 0
5.4510002 0.40955174 0.7411083 0
5.4570003 0.40097106 0.74150878 0
5.4660006 0.39262846 0.74210942 0
5.4530005 0.38238823 0.74124181 0
5.4440002 0.37252679 0.74064112 0
5.4390001 0.36302254 0.74030745 0
5.4360003 0.35369503 0.74010718 0
5.4350004 0.3445335 0.74004048 0
5.4360003 0.33552709 0.74010718 0
5.4380002 0.32659099 0.74024069 0
5.4420004 0.31779203 0.74050766 0
5.4490004 0.30918968 0.74097484 0
5.4560003 0.48296314 0.73232198 0
5.4500003 0.47322619 0.73193234 0
5.4460001 0.46371287 0.73167259 0
5.4450002 0.4545117 0.73160768 0
5.4440002 0.44531405 0.73154271 0
5.4450002 0.43631124 0.73160768 0
5.4460001 0.42730483 0.73167259 0
5.4500003 0.41857082 0.73193234 0
5.4550004 0.40991253 0.73225701 0
5.4620004 0.40141296 0.73271155 0
5.4530005 0.38238823 0.73212719 0
5.4440002 0.37252679 0.73154271 0
5.4390001 0.36302254 0.73121804 0
5.4360003 0.35369503 0.73102319 0
5.4350004 0.3445335 0.73095828 0
5.4360003 0.33552709 0.73102319 0
5.4380002 0.32659099 0.73115313 0
5.4420004 0.31779203 0.73141289 0
5.4490004 0.30918968 0.73186743 0
5.4530005 0.48264933 0.72301257 0
5.4480004 0.47302055 0.72269684 0
5.4460001 0.46371287 0.72257054 0
5.4440002 0.45441246 0.7224443 0
5.4440002 0.44531405 0.7224443 0
5.4460001 0.43640682 0.72257054 0
5.4490004 0.42758623 0.72275996 0
5.4530005 0.41884682 0.72301257 0
5.4590001 0.41027325 0.72339129 0
5.4680004 0.4019433 0.72395951 0
5.4530005 0.38238823 0.72301257 0
5.4440002 0.37252679 0.7224443 0
5.4390001 0.36302254 0.72212863 0
5.4360003 0.35369503 0.72193927 0
5.4350004 0.3445335 0.72187614 0
5.4360003 0.33552709 0.72193927 0
5.4380002 0.32659099 0.72206551 0
5.4420004 0.31779203 0.72231805 0
5.4490004 0.30918968 0.72275996 0
5.4560003 0.49208319 0.71408188 0
5.4500003 0.48233545 0.71371388 0
5.4470005 0.47291774 0.71352988 0
5.4450002 0.4636119 0.71340722 0
5.4450002 0.4545117 0.71340722 0
5.4460001 0.44550887 0.71346855 0
5.4480004 0.43659806 0.71359122 0
5.4510002 0.42777383 0.71377522 0
5.4560003 0.41912279 0.71408188 0
5.4640002 0.41072425 0.71457249 0
5.4530005 0.38238823 0.71389788 0
5.4440002 0.37252679 0.71334589 0
5.4390001 0.36302254 0.71303928 0
5.4360003 0.35369503 0.71285528 0
5.4350004 0.3445335 0.71279395 0
5.4360003 0.33552709 0.71285528 0
5.4380002 0.32659099 0.71297795 0
5.4420004 0.31779203 0.71322322 0
5.4490004 0.30918968 0.71365261 0
5.4590001 0.50152797 0.70514035 0
5.4530005 0.49176395 0.7047832 0
5.4490004 0.48223078 0.70454514 0
5.4460001 0.47281492 0.70436656 0
5.4450002 0.4636119 0.70430702 0
5.4460001 0.45461088 0.70436656 0
5.4470005 0.44560629 0.70442605 0
5.4500003 0.4367893 0.70460463 0
5.4550004 0.42814904 0.70490229 0
5.4610004 0.41958275 0.70525944 0
5.4700003 0.4112654 0.70579517 0
5.4530005 0.38238823 0.7047832 0
5.4440002 0.37252679 0.70424747 0
5.4390001 0.36302254 0.70394987 0
5.4360003 0.35369503 0.70377129 0
5.4350004 0.3445335 0.70371175 0
5.4360003 0.33552709 0.70377129 0
5.4380002 0.32659099 0.70389032 0
5.4420004 0.31779203 0.7041285 0
5.4490004 0.30918968 0.70454514 0
5.4580002 0.51966703 0.69595718 0
5.4540005 0.51010329 0.69572628 0
5.4570003 0.50131148 0.69589949 0
5.4510002 0.49155104 0.69555318 0
5.4470005 0.48202157 0.69532228 0
5.4460001 0.47281492 0.69526452 0
5.4460001 0.46371287 0.69526452 0
5.4470005 0.45471013 0.69532228 0
5.4490004 0.44580111 0.69543767 0
5.4530005 0.43707609 0.69566858 0
5.4580002 0.42843038 0.69595718 0
5.4660006 0.42004275 0.696419 0
5.4530005 0.38238823 0.69566858 0
5.4440002 0.37252679 0.69514906 0
5.4390001 0.36302254 0.69486046 0
5.4360003 0.35369503 0.69468731 0
5.4350004 0.3445335 0.69462961 0
5.4360003 0.33552709 0.69468731 0
5.4380002 0.32659099 0.69480276 0
5.4420004 0.31779203 0.69503367 0
5.4490004 0.30918968 0.69543767 0
5.4600005 0.5381453 0.68694538 0
5.4560003 0.52856344 0.68672168 0
5.4530005 0.51910794 0.68655396 0
5.4510002 0.50977314 0.68644214 0
5.4560003 0.50120324 0.68672168 0
5.4510002 0.49155104 0.68644214 0
5.4470005 0.48202157 0.68621844 0
5.4460001 0.47281492 0.68616247 0
5.4470005 0.46381396 0.68621844 0
5.4480004 0.45480931 0.68627435 0
5.4510002 0.44599587 0.68644214 0
5.4560003 0.43736288 0.68672168 0
5.4630003 0.42889938 0.68711311 0
5.4440002 0.37252679 0.68605065 0
5.4390001 0.36302254 0.68577111 0
5.4360003 0.35369503 0.68560338 0
5.4350004 0.3445335 0.68554741 0
5.4360003 0.33552709 0.68560338 0
5.4380002 0.32659099 0.6857152 0
5.4420004 0.31779203 0.68593884 0
5.4490004 0.30918968 0.68633032 0
5.4630003 0.55675697 0.67798042 0
5.4590001 0.54715526 0.677764 0
5.4550004 0.53756803 0.67754757 0
5.4530005 0.5282225 0.67743933 0
5.4510002 0.51888418 0.67733109 0
5.4500003 0.50966311 0.67727697 0
5.4480004 0.50033742 0.67716873 0
5.4520001 0.4916575 0.67738521 0
5.4490004 0.48223078 0.67722285 0
5.4480004 0.47302055 0.67716873 0
5.4480004 0.46391493 0.67716873 0
5.4500003 0.45500773 0.67727697 0
5.4540005 0.44628814 0.67749345 0
5.4600005 0.4377453 0.67781812 0
5.4440002 0.37252679 0.67695224 0
5.4390001 0.36302254 0.6766817 0
5.4360003 0.35369503 0.67651939 0
5.4350004 0.3445335 0.67646527 0
5.4360003 0.33552709 0.67651939 0
5.4380002 0.32659099 0.67662758 0
5.4420004 0.31779203 0.67684406 0
5.4490004 0.30918968 0.67722285 0
5.4610004 0.56564796 0.66874313 0
5.4580002 0.55616164 0.66858625 0
5.4550004 0.54668629 0.66842926 0
5.4530005 0.53733718 0.66832471 0
5.4510002 0.52799523 0.66822004 0
5.4500003 0.51877236 0.66816771 0
5.4490004 0.50955307 0.66811538 0
5.4490004 0.50044566 0.66811538 0
5.4560003 0.49208319 0.66848159 0
5.4530005 0.48264933 0.66832471 0
5.4510002 0.47332901 0.66822004 0
5.4520001 0.46431893 0.66827232 0
5.4540005 0.45540458 0.66837698 0
5.4580002 0.44667774 0.66858625 0
5.4440002 0.37252679 0.66785383 0
5.4390001 0.36302254 0.66759229 0
5.4360003 0.35369503 0.66743541 0
5.4350004 0.3445335 0.66738307 0
5.4360003 0.33552709 0.66743541 0
5.4380002 0.32659099 0.66754001 0
5.4420004 0.31779203 0.66774923 0
5.4490004 0.30918968 0.66811538 0
5.4640002 0.58427948 0.6597656 0
5.4600005 0.57465434 0.65956354 0
5.4570003 0.56516445 0.65941203 0
5.4550004 0.55580449 0.65931106 0
5.4530005 0.54645181 0.65921003 0
5.4520001 0.53722167 0.65915948 0
5.4510002 0.52799523 0.659109 0
5.4510002 0.51888418 0.659109 0
5.4500003 0.50966311 0.65905851 0
5.4510002 0.50066209 0.659109 0
5.4520001 0.4916575 0.65915948 0
5.4590001 0.48327696 0.65951306 0
5.4570003 0.47394592 0.65941203 0
5.4570003 0.46482408 0.65941203 0
5.4600005 0.45599985 0.65956354 0
5.4440002 0.37252679 0.65875542 0
5.4390001 0.36302254 0.65850294 0
5.4360003 0.35369503 0.65835142 0
5.4350004 0.3445335 0.65830088 0
5.4360003 0.33552709 0.65835142 0
5.4380002 0.32659099 0.65845239 0
5.4420004 0.31779203 0.65865445 0
5.4490004 0.30918968 0.65900803 0
5.4670005 0.60293263 0.65077722 0
5.4630003 0.59328765 0.65058243 0
5.4590001 0.58365715 0.65038759 0
5.4570003 0.57428634 0.65029019 0
5.4550004 0.56492281 0.6501928 0
5.4540005 0.55568552 0.6501441 0
5.4520001 0.54633451 0.65004671 0
5.4520001 0.53722167 0.65004671 0
5.4520001 0.52810884 0.65004671 0
5.4520001 0.518996 0.65004671 0
5.4530005 0.50999326 0.6500954 0
5.4540005 0.50098681 0.6501441 0
5.4560003 0.49208319 0.65024149 0
5.4590001 0.48327696 0.65038759 0
5.4660006 0.47487128 0.65072852 0
5.4660006 0.46573317 0.65072852 0
5.4440002 0.37252679 0.64965701 0
5.4390001 0.36302254 0.64941353 0
5.4360003 0.35369503 0.64926744 0
5.4350004 0.3445335 0.64921874 0
5.4360003 0.33552709 0.64926744 0
5.4380002 0.32659099 0.64936483 0
5.4420004 0.31779203 0.64955962 0
5.4490004 0.30918968 0.64990056 0
5.4650002 0.61181271 0.64154351 0
5.4620004 0.60229224 0.64140284 0
5.4590001 0.59278256 0.64126211 0
5.4570003 0.58340824 0.64116836 0
5.4550004 0.57404107 0.64107454 0
5.4540005 0.56480193 0.64102763 0
5.4530005 0.55556643 0.64098072 0
5.4530005 0.54645181 0.64098072 0
5.4530005 0.53733718 0.64098072 0
5.4540005 0.52833617 0.64102763 0
5.4550004 0.51933157 0.64107454 0
5.4570003 0.51043338 0.64116836 0
5.4590001 0.50152797 0.64126211 0
5.4610004 0.49261534 0.64135593 0
5.4650002 0.48390472 0.64154351 0
5.4440002 0.37252679 0.6405586 0
5.4390001 0.36302254 0.64032412 0
5.4360003 0.35369503 0.64018345 0
5.4350004 0.3445335 0.64013654 0
5.4360003 0.33552709 0.64018345 0
5.4380002 0.32659099 0.64027727 0
5.4420004 0.31779203 0.64046484 0
5.4490004 0.30918968 0.64079314 0
5.4680004 0.63048577 0.63254249 0
5.4640002 0.62081736 0.63236213 0
5.4610004 0.61129332 0.63222682 0
5.4590001 0.60190803 0.63213664 0
5.4570003 0.59253007 0.63204646 0
5.4560003 0.58328372 0.6320014 0
5.4550004 0.57404107 0.63195628 0
5.4550004 0.56492281 0.63195628 0
5.4550004 0.55580449 0.63195628 0
5.4550004 0.54668629 0.63195628 0
5.4560003 0.53768349 0.6320014 0
5.4580002 0.52879065 0.63209158 0
5.4590001 0.51977885 0.63213664 0
5.4620004 0.51098353 0.63227195 0
5.4650002 0.5021773 0.63240719 0
5.4440002 0.37252679 0.63146025 0
5.4390001 0.36302254 0.63123477 0
5.4360003 0.35369503 0.63109946 0
5.4350004 0.3445335 0.6310544 0
5.4360003 0.33552709 0.63109946 0
5.4380002 0.32659099 0.63118964 0
5.4420004 0.31779203 0.63137007 0
5.4490004 0.30918968 0.63168573 0
5.4690003 0.65804982 0.62344408 0
5.4700003 0.64904338 0.62348741 0
5.4670005 0.63949221 0.62335753 0
5.4630003 0.62981838 0.62318438 0
5.4610004 0.62042236 0.62309778 0
5.4590001 0.6110335 0.62301117 0
5.4580002 0.60178 0.6229679 0
5.4560003 0.59240383 0.62288129 0
5.4560003 0.58328372 0.62288129 0
5.4560003 0.57416368 0.62288129 0
5.4560003 0.56504363 0.62288129 0
5.4570003 0.55604267 0.62292463 0
5.4580002 0.54703802 0.6229679 0
5.4600005 0.5381453 0.6230545 0
5.4630003 0.52935892 0.62318438 0
5.4650002 0.52044988 0.62327093 0
5.4440002 0.37252679 0.62236178 0
5.4390001 0.36302254 0.62214535 0
5.4360003 0.35369503 0.62201548 0
5.4350004 0.3445335 0.6219722 0
5.4360003 0.33552709 0.62201548 0
5.4380002 0.32659099 0.62210208 0
5.4420004 0.31779203 0.62227523 0
5.4490004 0.30918968 0.62257826 0
5.4600005 0.67505431 0.61392725 0
5.4600005 0.66592705 0.61392725 0
5.4610004 0.65693867 0.61396873 0
5.4640002 0.64822084 0.61409318 0
5.4630003 0.63895106 0.6140517 0
5.4610004 0.62955147 0.61396873 0
5.4590001 0.62015897 0.6138857 0
5.4580002 0.61090362 0.61384422 0
5.4580002 0.60178 0.61384422 0
5.4570003 0.59253007 0.61380273 0
5.4580002 0.58353269 0.61384422 0
5.4580002 0.57440901 0.61384422 0
5.4590001 0.5654062 0.6138857 0
5.4610004 0.55651885 0.61396873 0
5.4630003 0.54762423 0.6140517 0
5.4660006 0.53883797 0.61417615 0
5.4700003 0.53015435 0.61434209 0
5.4440002 0.37252679 0.61326343 0
5.4390001 0.36302254 0.61305594 0
5.4360003 0.35369503 0.61293149 0
5.4350004 0.3445335 0.61289001 0
5.4360003 0.33552709 0.61293149 0
5.4380002 0.32659099 0.61301446 0
5.4420004 0.31779203 0.6131804 0
5.4490004 0.30918968 0.61347085 0
5.4560003 0.68360436 0.6046412 0
5.4550004 0.6743418 0.6046015 0
5.4540005 0.66508287 0.60456187 0
5.4550004 0.65610528 0.6046015 0
5.4580002 0.64739829 0.60472059 0
5.4610004 0.63868052 0.60483962 0
5.4600005 0.62941796 0.60479999 0
5.4590001 0.62015897 0.60476029 0
5.4590001 0.6110335 0.60476029 0
5.4590001 0.60190803 0.60476029 0
5.4590001 0.59278256 0.60476029 0
5.4600005 0.5837816 0.60479999 0
5.4620004 0.57489961 0.60487932 0
5.4640002 0.56601042 0.60495865 0
5.4660006 0.55711412 0.60503805 0
5.4700003 0.54844499 0.60519677 0
5.4440002 0.37252679 0.60416502 0
5.4390001 0.36302254 0.60396659 0
5.4360003 0.35369503 0.6038475 0
5.4350004 0.3445335 0.60380787 0
5.4360003 0.33552709 0.6038475 0
5.4380002 0.32659099 0.6039269 0
5.4420004 0.31779203 0.60408562 0
5.4490004 0.30918968 0.60436344 0
5.4560003 0.69272441 0.59552115 0
5.4530005 0.68317151 0.59540749 0
5.4510002 0.6737718 0.59533173 0
5.4510002 0.66466069 0.59533173 0
5.4520001 0.65568858 0.59536964 0
5.4550004 0.64698708 0.5954833 0
5.4580002 0.63827461 0.59559691 0
5.4600005 0.62941796 0.59567267 0
5.4600005 0.6202907 0.59567267 0
5.4610004 0.61129332 0.59571058 0
5.4610004 0.60216421 0.59571058 0
5.4630003 0.59328765 0.59578633 0
5.4640002 0.58427948 0.59582418 0
5.4670005 0.57551295 0.59593785 0
5.4700003 0.56673557 0.59605145 0
5.4440002 0.37252679 0.59506661 0
5.4390001 0.36302254 0.59487718 0
5.4360003 0.35369503 0.59476358 0
5.4350004 0.3445335 0.59472567 0
5.4360003 0.33552709 0.59476358 0
5.4380002 0.32659099 0.59483933 0
5.4420004 0.31779203 0.59499085 0
5.4490004 0.30918968 0.59525597 0
5.4540005 0.69243217 0.58632898 0
5.4500003 0.68273848 0.58618462 0
5.4490004 0.67348683 0.58614856 0
5.4490004 0.66437936 0.58614856 0
5.4500003 0.65541083 0.58618462 0
5.4530005 0.6467129 0.58629286 0
5.4560003 0.63800406 0.5864011 0
5.4620004 0.62968493 0.58661759 0
5.4620004 0.62055409 0.58661759 0
5.4640002 0.61168289 0.58668971 0
5.4650002 0.60267645 0.58672577 0
5.4680004 0.59391898 0.58683401 0
5.4700003 0.5850262 0.58690619 0
5.4740005 0.57637155 0.5870505 0
5.4440002 0.37252679 0.5859682 0
5.4390001 0.36302254 0.58578777 0
5.4360003 0.35369503 0.58567959 0
5.4350004 0.3445335 0.58564353 0
5.4360003 0.33552709 0.58567959 0
5.4380002 0.32659099 0.58575171 0
5.4420004 0.31779203 0.58589602 0
5.4490004 0.30918968 0.58614856 0
5.4580002 0.70214027 0.5773496 0
5.4530005 0.69228607 0.57717824 0
5.4500003 0.68273848 0.57707542 0
5.4480004 0.67334431 0.57700688 0
5.4480004 0.66423869 0.57700688 0
5.4490004 0.65527195 0.57704115 0
5.4520001 0.64657575 0.57714397 0
5.4560003 0.63800406 0.57728106 0
5.4610004 0.62955147 0.57745242 0
5.4660006 0.62108076 0.57762378 0
5.4680004 0.61220241 0.57769233 0
5.4710002 0.60344493 0.57779515 0
5.4740005 0.59467661 0.57789797 0
5.4790006 0.58614641 0.57806933 0
5.4440002 0.37252679 0.57686979 0
5.4390001 0.36302254 0.57669842 0
5.4360003 0.35369503 0.5765956 0
5.4350004 0.3445335 0.57656133 0
5.4360003 0.33552709 0.5765956 0
5.4380002 0.32659099 0.57666415 0
5.4420004 0.31779203 0.57680124 0
5.4490004 0.30918968 0.57704115 0
5.4590001 0.70228821 0.5682584 0
5.4540005 0.69243217 0.56809604 0
5.4510002 0.68288285 0.56799865 0
5.4490004 0.67348683 0.56793368 0
5.4490004 0.66437936 0.56793368 0
5.4500003 0.65541083 0.56796616 0
5.4530005 0.6467129 0.56806362 0
5.4560003 0.63800406 0.56816101 0
5.4620004 0.62968493 0.5683558 0
5.4690003 0.62147576 0.56858307 0
5.4740005 0.61298168 0.56874543 0
5.4790006 0.60446954 0.5689078 0
5.4440002 0.37252679 0.56777138 0
5.4390001 0.36302254 0.56760901 0
5.4360003 0.35369503 0.56751162 0
5.4350004 0.3445335 0.56747913 0
5.4360003 0.33552709 0.56751162 0
5.4380002 0.32659099 0.56757653 0
5.4420004 0.31779203 0.56770647 0
5.4490004 0.30918968 0.56793368 0
5.4560003 0.69272441 0.5590409 0
5.4530005 0.68317151 0.55894893 0
5.4510002 0.6737718 0.5588876 0
5.4510002 0.66466069 0.5588876 0
5.4520001 0.65568858 0.5589183 0
5.4550004 0.64698708 0.55901027 0
5.4590001 0.63840985 0.55913293 0
5.4640002 0.62995189 0.55928624 0
5.4720001 0.62187082 0.55953157 0
5.4820004 0.61402065 0.55983824 0
5.4440002 0.37252679 0.55867296 0
5.4390001 0.36302254 0.5585196 0
5.4360003 0.35369503 0.55842763 0
5.4350004 0.3445335 0.558397 0
5.4360003 0.33552709 0.55842763 0
5.4380002 0.32659099 0.55848897 0
5.4420004 0.31779203 0.55861163 0
5.4490004 0.30918968 0.55882633 0
5.4600005 0.69330889 0.55003631 0
5.4570003 0.6837486 0.54994977 0
5.4550004 0.6743418 0.54989201 0
5.4550004 0.6652236 0.54989201 0
5.4560003 0.65624416 0.54992092 0
5.4580002 0.64739829 0.54997861 0
5.4620004 0.63881582 0.55009407 0
5.4680004 0.63048577 0.55026722 0
5.4760003 0.62239748 0.55049813 0
5.4880004 0.61479992 0.55084443 0
5.4440002 0.37252679 0.54957455 0
5.4390001 0.36302254 0.54943025 0
5.4360003 0.35369503 0.54934365 0
5.4350004 0.3445335 0.5493148 0
5.4360003 0.33552709 0.54934365 0
5.4380002 0.32659099 0.5494014 0
5.4420004 0.31779203 0.5495168 0
5.4490004 0.30918968 0.54971886 0
5.4660006 0.6941855 0.54107141 0
5.4620004 0.68447018 0.54096317 0
5.4600005 0.67505431 0.54090905 0
5.4600005 0.66592705 0.54090905 0
5.4610004 0.65693867 0.54093611 0
5.4630003 0.64808375 0.54099023 0
5.4680004 0.63962752 0.54112554 0
5.4740005 0.63128668 0.5412879 0
5.4830003 0.62331927 0.54153138 0
5.4440002 0.37252679 0.54047614 0
5.4390001 0.36302254 0.54034084 0
5.4360003 0.35369503 0.54025972 0
5.4350004 0.3445335 0.54023266 0
5.4360003 0.33552709 0.54025972 0
5.4380002 0.32659099 0.54031378 0
5.4420004 0.31779203 0.54042202 0
5.4490004 0.30918968 0.54061145 0
5.4700003 0.6856246 0.53203434 0
5.4680004 0.67619437 0.53198385 0
5.4670005 0.66691196 0.53195858 0
5.4680004 0.65791094 0.53198385 0
5.4710002 0.64918041 0.53205955 0
5.4760003 0.64070976 0.53218585 0
5.4830003 0.63248807 0.53236258 0
5.4440002 0.37252679 0.53137773 0
5.4390001 0.36302254 0.53125143 0
5.4360003 0.35369503 0.53117573 0
5.4350004 0.3445335 0.53115046 0
5.4360003 0.33552709 0.53117573 0
5.4380002 0.32659099 0.53122622 0
5.4420004 0.31779203 0.53132725 0
5.4490004 0.30918968 0.53150403 0
5.4790006 0.67776185 0.52310008 0
5.4780002 0.66845959 0.52307659 0
5.4790006 0.65943879 0.52310008 0
5.4810004 0.65055138 0.52314699 0
5.4810004 0.64138621 0.52314699 0
5.4800005 0.63208765 0.5231235 0
5.4790006 0.6227926 0.52310008 0
5.4780002 0.61350113 0.52307659 0
5.4770002 0.6042133 0.52305317 0
5.4760003 0.5949291 0.52302969 0
5.4750004 0.58564854 0.52300626 0
5.4440002 0.37252679 0.52227932 0
5.4390001 0.36302254 0.52216208 0
5.4360003 0.35369503 0.52209175 0
5.4350004 0.3445335 0.52206826 0
5.4360003 0.33552709 0.52209175 0
5.4380002 0.32659099 0.52213866 0
5.4420004 0.31779203 0.52223241 0
5.4490004 0.30918968 0.52239656 0
5.4790006 0.68692338 0.51393855 0
5.4750004 0.67719179 0.51385194 0
5.4730005 0.66775614 0.51380867 0
5.4730005 0.6586054 0.51380867 0
5.4720001 0.64931756 0.51378697 0
5.4710002 0.64003336 0.51376534 0
5.4700003 0.6307528 0.5137437 0
5.4690003 0.62147576 0.51372206 0
5.4690003 0.61233228 0.51372206 0
5.4680004 0.60306072 0.51370043 0
5.4670005 0.5937928 0.51367879 0
5.4660006 0.58452845 0.51365715 0
5.4650002 0.57526761 0.51363546 0
5.4640002 0.56601042 0.51361382 0
5.4640002 0.55687594 0.51361382 0
5.4630003 0.54762423 0.51359218 0
5.4620004 0.53837615 0.51357055 0
5.4610004 0.52913165 0.51354891 0
5.4600005 0.51989073 0.51352727 0
5.4590001 0.51065338 0.51350558 0
5.4590001 0.50152797 0.51350558 0
5.4580002 0.49229604 0.51348394 0
5.4570003 0.48306775 0.51346231 0
5.4560003 0.4738431 0.51344067 0
5.4550004 0.46462202 0.51341903 0
5.4550004 0.45550382 0.51341903 0
5.4440002 0.37252679 0.51318091 0
5.4390001 0.36302254 0.51307267 0
5.4360003 0.35369503 0.51300776 0
5.4350004 0.3445335 0.51298612 0
5.4360003 0.33552709 0.51300776 0
5.4380002 0.32659099 0.51305103 0
5.4420004 0.31779203 0.51313764 0
5.4490004 0.30918968 0.51328915 0
5.4720001 0.68591321 0.50463808 0
5.4690003 0.67633682 0.50457859 0
5.4680004 0.66705263 0.50455874 0
5.4670005 0.657772 0.50453889 0
5.4660006 0.64849502 0.50451905 0
5.4650002 0.63922161 0.5044992 0
5.4640002 0.62995189 0.50447935 0
5.4640002 0.62081736 0.50447935 0
5.4630003 0.61155301 0.5044595 0
5.4620004 0.60229224 0.50443965 0
5.4610004 0.59303516 0.5044198 0
5.4600005 0.5837816 0.50440001 0
5.4600005 0.57465434 0.50440001 0
5.4590001 0.5654062 0.50438011 0
5.4580002 0.55616164 0.50436032 0
5.4570003 0.54692078 0.50434047 0
5.4560003 0.53768349 0.50432062 0
5.4550004 0.52844983 0.50430077 0
5.4550004 0.51933157 0.50430077 0
5.4540005 0.51010329 0.50428092 0
5.4530005 0.50087857 0.50426108 0
5.4520001 0.4916575 0.50424123 0
5.4510002 0.48244005 0.50422138 0
5.4510002 0.47332901 0.50422138 0
5.4500003 0.46411699 0.50420153 0
5.4490004 0.45490849 0.50418174 0
5.4480004 0.44570369 0.50416189 0
5.4440002 0.37252679 0.5040825 0
5.4390001 0.36302254 0.50398332 0
5.4360003 0.35369503 0.50392377 0
5.4350004 0.3445335 0.50390393 0
5.4360003 0.33552709 0.50392377 0
5.4380002 0.32659099 0.50396347 0
5.4420004 0.31779203 0.5040428 0
5.4490004 0.30918968 0.50418174 0
5.4680004 0.68533605 0.49541703 0
5.4650002 0.67576677 0.49536291 0
5.4640002 0.66648978 0.49534485 0
5.4640002 0.65735531 0.49534485 0
5.4630003 0.64808375 0.49532682 0
5.4620004 0.63881582 0.49530879 0
5.4610004 0.62955147 0.49529076 0
5.4600005 0.6202907 0.49527273 0
5.4600005 0.61116344 0.49527273 0
5.4590001 0.60190803 0.49525467 0
5.4580002 0.59265631 0.49523664 0
5.4570003 0.58340824 0.49521858 0
5.4560003 0.57416368 0.49520057 0
5.4550004 0.56492281 0.49518251 0
5.4550004 0.55580449 0.49518251 0
5.4540005 0.54656905 0.49516448 0
5.4530005 0.53733718 0.49514645 0
5.4520001 0.52810884 0.49512839 0
5.4510002 0.51888418 0.49511036 0
5.4510002 0.50977314 0.49511036 0
5.4500003 0.50055385 0.49509233 0
5.4490004 0.49133825 0.49507427 0
5.4480004 0.48212624 0.49505627 0
5.4470005 0.47291774 0.49503821 0
5.4470005 0.46381396 0.49503821 0
5.4460001 0.45461088 0.49502018 0
5.4450002 0.44541144 0.49500215 0
5.4440002 0.43621564 0.49498409 0
5.4440002 0.37252679 0.49498409 0
5.4390001 0.36302254 0.49489391 0
5.4360003 0.35369503 0.49483979 0
5.4350004 0.3445335 0.49482176 0
5.4360003 0.33552709 0.49483979 0
5.4380002 0.32659099 0.49487588 0
5.4420004 0.31779203 0.49494803 0
5.4490004 0.30918968 0.49507427 0
5.4660006 0.68504739 0.48624286 0
5.4640002 0.67562425 0.48621038 0
5.4630003 0.66634911 0.48619413 0
5.4620004 0.65707755 0.48617792 0
5.4610004 0.64780957 0.48616168 0
5.4610004 0.63868052 0.48616168 0
5.4600005 0.62941796 0.48614544 0
5.4590001 0.62015897 0.48612919 0
5.4580002 0.61090362 0.48611295 0
5.4570003 0.60165191 0.48609674 0
5.4570003 0.59253007 0.48609674 0
5.4560003 0.58328372 0.4860805 0
5.4550004 0.57404107 0.48606426 0
5.4540005 0.56480193 0.48604804 0
5.4530005 0.55556643 0.4860318 0
5.4530005 0.54645181 0.4860318 0
5.4520001 0.53722167 0.48601556 0
5.4510002 0.52799523 0.48599935 0
5.4500003 0.51877236 0.4859831 0
5.4490004 0.50955307 0.48596686 0
5.4490004 0.50044566 0.48596686 0
5.4480004 0.49123186 0.48595065 0
5.4470005 0.48202157 0.48593441 0
5.4460001 0.47281492 0.48591816 0
5.4450002 0.4636119 0.48590192 0
5.4440002 0.45441246 0.48588568 0
5.4440002 0.44531405 0.48588568 0
5.4430003 0.43612006 0.48586947 0
5.4440002 0.37252679 0.48588568 0
5.4390001 0.36302254 0.48580453 0
5.4360003 0.35369503 0.4857558 0
5.4350004 0.3445335 0.48573959 0
5.4360003 0.33552709 0.4857558 0
5.4380002 0.32659099 0.48578829 0
5.4420004 0.31779203 0.48585322 0
5.4490004 0.30918968 0.48596686 0
5.4670005 0.68519175 0.47711918 0
5.4640002 0.67562425 0.47707587 0
5.4630003 0.66634911 0.47706145 0
5.4630003 0.65721643 0.47706145 0
5.4620004 0.64794672 0.47704703 0
5.4610004 0.63868052 0.4770326 0
5.4600005 0.62941796 0.47701818 0
5.4590001 0.62015897 0.47700375 0
5.4590001 0.6110335 0.47700375 0
5.4580002 0.60178 0.4769893 0
5.4570003 0.59253007 0.47697487 0
5.4560003 0.58328372 0.47696045 0
5.4550004 0.57404107 0.47694603 0
5.4550004 0.56492281 0.47694603 0
5.4540005 0.55568552 0.47693157 0
5.4530005 0.54645181 0.47691715 0
5.4520001 0.53722167 0.47690272 0
5.4510002 0.52799523 0.4768883 0
5.4510002 0.51888418 0.4768883 0
5.4500003 0.50966311 0.47687387 0
5.4490004 0.50044566 0.47685945 0
5.4480004 0.49123186 0.476845 0
5.4470005 0.48202157 0.47683057 0
5.4470005 0.47291774 0.47683057 0
5.4460001 0.46371287 0.47681615 0
5.4450002 0.4545117 0.47680169 0
5.4440002 0.44531405 0.47678727 0
5.4430003 0.43612006 0.47677284 0
5.4440002 0.37252679 0.47678727 0
5.4390001 0.36302254 0.47671512 0
5.4360003 0.35369503 0.47667184 0
5.4350004 0.3445335 0.47665742 0
5.4360003 0.33552709 0.47667184 0
5.4380002 0.32659099 0.47670069 0
5.4420004 0.31779203 0.47675842 0
5.4490004 0.30918968 0.47685945 0
5.4720001 0.6950621 0.46804243 0
5.4670005 0.68519175 0.46797928 0
5.4640002 0.67562425 0.4679414 0
5.4630003 0.66634911 0.46792877 0
5.4640002 0.65735531 0.4679414 0
5.4640002 0.64822084 0.4679414 0
5.4630003 0.63895106 0.46792877 0
5.4620004 0.62968493 0.46791616 0
5.4620004 0.62055409 0.46791616 0
5.4610004 0.61129332 0.46790352 0
5.4600005 0.60203618 0.46789092 0
5.4590001 0.59278256 0.46787828 0
5.4580002 0.58353269 0.46786565 0
5.4580002 0.57440901 0.46786565 0
5.4570003 0.56516445 0.46785301 0
5.4560003 0.55592358 0.4678404 0
5.4550004 0.54668629 0.46782777 0
5.4540005 0.53745258 0.46781516 0
5.4540005 0.52833617 0.46781516 0
5.4530005 0.51910794 0.46780252 0
5.4520001 0.50988317 0.46778989 0
5.4510002 0.50066209 0.46777725 0
5.4500003 0.49144465 0.46776465 0
5.4490004 0.48223078 0.46775201 0
5.4490004 0.47312343 0.46775201 0
5.4480004 0.46391493 0.46773937 0
5.4470005 0.45471013 0.46772677 0
5.4460001 0.44550887 0.46771413 0
5.4450002 0.43631124 0.46770149 0
5.4440002 0.37252679 0.46768886 0
5.4390001 0.36302254 0.46762574 0
5.4360003 0.35369503 0.46758786 0
5.4350004 0.3445335 0.46757525 0
5.4360003 0.33552709 0.46758786 0
5.4380002 0.32659099 0.4676131 0
5.4420004 0.31779203 0.46766362 0
5.4490004 0.30918968 0.46775201 0
5.4720001 0.6950621 0.45889351 0
5.4670005 0.68519175 0.45883939 0
5.4640002 0.67562425 0.45880693 0
5.4630003 0.66634911 0.45879611 0
5.4640002 0.65735531 0.45880693 0
5.4670005 0.64863217 0.45883939 0
5.4670005 0.63949221 0.45883939 0
5.4660006 0.63021886 0.45882857 0
5.4660006 0.62108076 0.45882857 0
5.4650002 0.61181271 0.45881775 0
5.4640002 0.60254842 0.45880693 0
5.4630003 0.59328765 0.45879611 0
5.4620004 0.58403051 0.45878527 0
5.4620004 0.57489961 0.45878527 0
5.4610004 0.56564796 0.45877445 0
5.4600005 0.55639982 0.45876363 0
5.4590001 0.54715526 0.45875281 0
5.4580002 0.53791434 0.45874199 0
5.4580002 0.52879065 0.45874199 0
5.4570003 0.51955515 0.45873117 0
5.4560003 0.51032335 0.45872033 0
5.4550004 0.50109506 0.45870951 0
5.4540005 0.4918704 0.45869869 0
5.4540005 0.48275393 0.45869869 0
5.4530005 0.47353464 0.45868787 0
5.4520001 0.46431893 0.45867705 0
5.4510002 0.45510691 0.45866624 0
5.4500003 0.4458985 0.45865542 0
5.4500003 0.4367893 0.45865542 0
5.4440002 0.37252679 0.45859045 0
5.4390001 0.36302254 0.45853636 0
5.4360003 0.35369503 0.45850387 0
5.4350004 0.3445335 0.45849305 0
5.4360003 0.33552709 0.45850387 0
5.4380002 0.32659099 0.45852554 0
5.4420004 0.31779203 0.45856881 0
5.4490004 0.30918968 0.45864457 0
5.4720001 0.6950621 0.44974458 0
5.4670005 0.68519175 0.44969949 0
5.4640002 0.67562425 0.44967243 0
5.4630003 0.66634911 0.44966343 0
5.4640002 0.65735531 0.44967243 0
5.4670005 0.64863217 0.44969949 0
5.4720001 0.64016861 0.44974458 0
5.4730005 0.63115323 0.44975361 0
5.4720001 0.62187082 0.44974458 0
5.4720001 0.61272186 0.44974458 0
5.4710002 0.60344493 0.44973558 0
5.4700003 0.59417152 0.44972655 0
5.4690003 0.58490175 0.44971752 0
5.4680004 0.57563561 0.44970852 0
5.4680004 0.56649393 0.44970852 0
5.4670005 0.55723315 0.44969949 0
5.4660006 0.54797608 0.44969046 0
5.4650002 0.53872246 0.44968146 0
5.4640002 0.52947253 0.44967243 0
5.4640002 0.52033806 0.44967243 0
5.4630003 0.51109356 0.44966343 0
5.4620004 0.50185269 0.4496544 0
5.4610004 0.49261534 0.44964537 0
5.4600005 0.48338163 0.44963637 0
5.4590001 0.47415155 0.44962734 0
5.4590001 0.46502608 0.44962734 0
5.4580002 0.45580137 0.44961834 0
5.4390001 0.36302254 0.44944698 0
5.4360003 0.35369503 0.44941992 0
5.4350004 0.3445335 0.44941089 0
5.4360003 0.33552709 0.44941992 0
5.4380002 0.32659099 0.44943795 0
5.4420004 0.31779203 0.44947401 0
5.4720001 0.6950621 0.44059569 0
5.4670005 0.68519175 0.4405596 0
5.4640002 0.67562425 0.44053796 0
5.4630003 0.66634911 0.44053075 0
5.4640002 0.65735531 0.44053796 0
5.4670005 0.64863217 0.4405596 0
5.4720001 0.64016861 0.44059569 0
5.4790006 0.63195413 0.44064617 0
5.4840002 0.62345093 0.44068226 0
5.4830003 0.61415052 0.44067505 0
5.4390001 0.36302254 0.44035757 0
5.4360003 0.35369503 0.44033593 0
5.4350004 0.3445335 0.44032872 0
5.4360003 0.33552709 0.44033593 0
5.4380002 0.32659099 0.44035035 0
5.4420004 0.31779203 0.4403792 0
5.3960004 0.18830748 0.44004732 0
5.3950005 0.17925055 0.44004011 0
5.3940005 0.17019725 0.4400329 0
5.4720001 0.6950621 0.43144676 0
5.4670005 0.68519175 0.4314197 0
5.4640002 0.67562425 0.43140346 0
5.4630003 0.66634911 0.43139806 0
5.4640002 0.65735531 0.43140346 0
5.4670005 0.64863217 0.4314197 0
5.4720001 0.64016861 0.43144676 0
5.4790006 0.63195413 0.43148464 0
5.4890003 0.62410933 0.43153876 0
5.4390001 0.36302254 0.43126819 0
5.4360003 0.35369503 0.43125194 0
5.4350004 0.3445335 0.43124655 0
5.4360003 0.33552709 0.43125194 0
5.4380002 0.32659099 0.43126276 0
5.3960004 0.18830748 0.43103549 0
5.3950005 0.17925055 0.43103009 0
5.3940005 0.17019725 0.43102467 0
5.4720001 0.6950621 0.42229784 0
5.4670005 0.68519175 0.4222798 0
5.4640002 0.67562425 0.42226899 0
5.4630003 0.66634911 0.42226538 0
5.4640002 0.65735531 0.42226899 0
5.4670005 0.64863217 0.4222798 0
5.4720001 0.64016861 0.42229784 0
5.4790006 0.63195413 0.42232311 0
5.4110003 0.36074972 0.42207778 0
5.4100003 0.35163146 0.42207417 0
5.4090004 0.34251684 0.42207056 0
5.4090004 0.33348155 0.42207056 0
5.3970003 0.20638162 0.42202726 0
5.3970003 0.197368 0.42202726 0
5.3960004 0.18830748 0.42202365 0
5.3950005 0.17925055 0.42202005 0
5.3940005 0.17019725 0.42201644 0
5.4720001 0.6950621 0.41314894 0
5.4670005 0.68519175 0.41313991 0
5.4640002 0.67562425 0.41313449 0
5.4630003 0.66634911 0.4131327 0
5.4640002 0.65735531 0.41313449 0
5.4670005 0.64863217 0.41313991 0
5.4720001 0.64016861 0.41314894 0
5.4790006 0.63195413 0.41316155 0
5.4100003 0.35163146 0.41303709 0
5.3980002 0.21544755 0.41301546 0
5.3970003 0.20638162 0.41301364 0
5.3970003 0.197368 0.41301364 0
5.3960004 0.18830748 0.41301185 0
5.3950005 0.17925055 0.41301003 0
5.3940005 0.17019725 0.41300824 0
5.3930001 0.16114753 0.41300642 0
5.4720001 0.6950621 0.40400001 0
5.4670005 0.68519175 0.40400001 0
5.4640002 0.67562425 0.40400001 0
5.4630003 0.66634911 0.40400001 0
5.4640002 0.65735531 0.40400001 0
5.4670005 0.64863217 0.40400001 0
5.4720001 0.64016861 0.40400001 0
5.4790006 0.63195413 0.40400001 0
5.4230003 0.49763173 0.40400001 0
5.4220004 0.48846477 0.40400001 0
5.3980002 0.21544755 0.40400001 0
5.3970003 0.20638162 0.40400001 0
5.3970003 0.197368 0.40400001 0
5.3960004 0.18830748 0.40400001 0
5.3950005 0.17925055 0.40400001 0
5.3940005 0.17019725 0.40400001 0
5.4720001 0.6950621 0.39485109 0
5.4670005 0.68519175 0.39486012 0
5.4640002 0.67562425 0.39486554 0
5.4630003 0.66634911 0.39486733 0
5.4640002 0.65735531 0.39486554 0
5.4670005 0.64863217 0.39486012 0
5.4720001 0.64016861 0.39485109 0
5.4790006 0.63195413 0.39483848 0
5.4230003 0.49763173 0.39493948 0
5.4220004 0.48846477 0.3949413 0
5.3980002 0.21544755 0.39498457 0
5.3970003 0.20638162 0.39498639 0
5.3970003 0.197368 0.39498639 0
5.3960004 0.18830748 0.39498818 0
5.3950005 0.17925055 0.39499 0
5.3940005 0.17019725 0.39499179 0
5.4720001 0.6950621 0.38570219 0
5.4670005 0.68519175 0.38572022 0
5.4640002 0.67562425 0.38573104 0
5.4630003 0.66634911 0.38573465 0
5.4640002 0.65735531 0.38573104 0
5.4670005 0.64863217 0.38572022 0
5.4720001 0.64016861 0.38570219 0
5.4790006 0.63195413 0.38567692 0
5.4430003 0.49979627 0.3858068 0
5.4430003 0.49069971 0.3858068 0
5.4460001 0.4819169 0.38579598 0
5.4190001 0.20749277 0.38589337 0
5.4170003 0.19834204 0.38590062 0
5.3960004 0.18830748 0.38597637 0
5.3950005 0.17925055 0.38597998 0
5.3940005 0.17019725 0.38598359 0
5.4720001 0.6950621 0.37655327 0
5.4670005 0.68519175 0.37658033 0
5.4640002 0.67562425 0.37659657 0
5.4630003 0.66634911 0.37660196 0
5.4640002 0.65735531 0.37659657 0
5.4670005 0.64863217 0.37658033 0
5.4720001 0.64016861 0.37655327 0
5.4790006 0.63195413 0.37651539 0
5.4460001 0.50922298 0.37669396 0
5.4430003 0.49979627 0.37671021 0
5.4430003 0.49069971 0.37671021 0
5.4460001 0.4819169 0.37669396 0
5.4190001 0.20749277 0.37684008 0
5.4170003 0.19834204 0.3768509 0
5.3960004 0.18830748 0.37696454 0
5.3950005 0.17925055 0.37696993 0
5.3940005 0.17019725 0.37697536 0
5.4720001 0.6950621 0.36740434 0
5.4670005 0.68519175 0.36744043 0
5.4640002 0.67562425 0.36746207 0
5.4630003 0.66634911 0.36746928 0
5.4640002 0.65735531 0.36746207 0
5.4670005 0.64863217 0.36744043 0
5.4720001 0.64016861 0.36740434 0
5.4790006 0.63195413 0.36735386 0
5.4460001 0.50922298 0.36759195 0
5.4430003 0.49979627 0.36761358 0
5.4430003 0.49069971 0.36761358 0
5.4460001 0.4819169 0.36759195 0
5.4170003 0.19834204 0.36780119 0
5.3960004 0.18830748 0.3679527 0
5.3950005 0.17925055 0.36795992 0
5.4720001 0.6950621 0.35825545 0
5.4670005 0.68519175 0.35830054 0
5.4640002 0.67562425 0.3583276 0
5.4630003 0.66634911 0.3583366 0
5.4640002 0.65735531 0.3583276 0
5.4670005 0.64863217 0.35830054 0
5.4720001 0.64016861 0.35825545 0
5.4790006 0.63195413 0.35819229 0
5.4460001 0.50922298 0.35848993 0
5.4430003 0.49979627 0.35851699 0
5.4430003 0.49069971 0.35851699 0
5.4460001 0.4819169 0.35848993 0
5.4170003 0.19834204 0.35875148 0
5.3960004 0.18830748 0.3589409 0
5.4720001 0.6950621 0.34910652 0
5.4670005 0.68519175 0.34916064 0
5.4640002 0.67562425 0.3491931 0
5.4630003 0.66634911 0.34920391 0
5.4640002 0.65735531 0.3491931 0
5.4670005 0.64863217 0.34916064 0
5.4720001 0.64016861 0.34910652 0
5.4790006 0.63195413 0.34903076 0
5.4460001 0.50922298 0.34938791 0
5.4430003 0.49979627 0.34942037 0
5.4430003 0.49069971 0.34942037 0
5.4460001 0.4819169 0.34938791 0
5.4170003 0.19834204 0.34970179 0
5.4180002 0.18933924 0.34969094 0
5.4720001 0.6950621 0.33995759 0
5.4670005 0.68519175 0.34002075 0
5.4640002 0.67562425 0.34005862 0
5.4630003 0.66634911 0.34007126 0
5.4640002 0.65735531 0.34005862 0
5.4670005 0.64863217 0.34002075 0
5.4720001 0.64016861 0.33995759 0
5.4790006 0.63195413 0.33986923 0
5.4460001 0.50922298 0.3402859 0
5.4430003 0.49979627 0.34032378 0
5.4430003 0.49069971 0.34032378 0
5.4460001 0.4819169 0.3402859 0
5.4170003 0.19834204 0.34065208 0
5.4180002 0.18933924 0.34063944 0
5.4720001 0.6950621 0.3308087 0
5.4670005 0.68519175 0.33088085 0
5.4640002 0.67562425 0.33092415 0
5.4630003 0.66634911 0.33093858 0
5.4640002 0.65735531 0.33092415 0
5.4670005 0.64863217 0.33088085 0
5.4720001 0.64016861 0.3308087 0
5.4790006 0.63195413 0.33070767 0
5.4460001 0.50922298 0.33118388 0
5.4430003 0.49979627 0.33122718 0
5.4430003 0.49069971 0.33122718 0
5.4460001 0.4819169 0.33118388 0
5.4170003 0.19834204 0.33160236 0
5.4180002 0.18933924 0.33158794 0
5.4720001 0.6950621 0.32165977 0
5.4670005 0.68519175 0.32174093 0
5.4640002 0.67562425 0.32178965 0
5.4630003 0.66634911 0.32180589 0
5.4640002 0.65735531 0.32178965 0
5.4670005 0.64863217 0.32174093 0
5.4720001 0.64016861 0.32165977 0
5.4790006 0.63195413 0.32154614 0
5.4460001 0.50922298 0.32208186 0
5.4430003 0.49979627 0.32213056 0
5.4430003 0.49069971 0.32213056 0
5.4460001 0.4819169 0.32208186 0
5.4530005 0.47353464 0.32196823 0
5.4170003 0.19834204 0.32255268 0
5.4180002 0.18933924 0.32253641 0
5.4720001 0.6950621 0.31251085 0
5.4670005 0.68519175 0.31260103 0
5.4640002 0.67562425 0.31265518 0
5.4630003 0.66634911 0.31267321 0
5.4640002 0.65735531 0.31265518 0
5.4670005 0.64863217 0.31260103 0
5.4720001 0.64016861 0.31251085 0
5.4790006 0.63195413 0.31238461 0
5.4460001 0.50922298 0.31297985 0
5.4430003 0.49979627 0.31303397 0
5.4430003 0.49069971 0.31303397 0
5.4460001 0.4819169 0.31297985 0
5.4530005 0.47353464 0.31285357 0
5.4170003 0.19834204 0.31350297 0
5.4180002 0.18933924 0.31348491 0
5.4720001 0.6950621 0.30336195 0
5.4670005 0.68519175 0.30346116 0
5.4640002 0.67562425 0.30352068 0
5.4630003 0.66634911 0.30354053 0
5.4640002 0.65735531 0.30352068 0
5.4670005 0.64863217 0.30346116 0
5.4720001 0.64016861 0.30336195 0
5.4790006 0.63195413 0.30322304 0
5.4460001 0.50922298 0.30387783 0
5.4430003 0.49979627 0.30393738 0
5.4430003 0.49069971 0.30393738 0
5.4460001 0.4819169 0.30387783 0
5.4530005 0.47353464 0.30373895 0
5.4170003 0.19834204 0.30445325 0
5.4180002 0.18933924 0.30443341 0
5.4720001 0.6950621 0.29421303 0
5.4670005 0.68519175 0.29432124 0
5.4640002 0.67562425 0.29438621 0
5.4630003 0.66634911 0.29440784 0
5.4640002 0.65735531 0.29438621 0
5.4670005 0.64863217 0.29432124 0
5.4720001 0.64016861 0.29421303 0
5.4790006 0.63195413 0.29406151 0
5.4460001 0.50922298 0.29477581 0
5.4430003 0.49979627 0.29484075 0
5.4430003 0.49069971 0.29484075 0
5.4460001 0.4819169 0.29477581 0
5.4530005 0.47353464 0.2946243 0
5.4170003 0.19834204 0.29540354 0
5.4180002 0.18933924 0.2953819 0
5.4720001 0.6950621 0.28506413 0
5.4670005 0.68519175 0.28518137 0
5.4640002 0.67562425 0.28525171 0
5.4630003 0.66634911 0.28527516 0
5.4640002 0.65735531 0.28525171 0
5.4670005 0.64863217 0.28518137 0
5.4720001 0.64016861 0.28506413 0
5.4790006 0.63195413 0.28489995 0
5.4460001 0.50922298 0.2856738 0
5.4430003 0.49979627 0.28574413 0
5.4430003 0.49069971 0.28574413 0
5.4460001 0.4819169 0.2856738 0
5.4530005 0.47353464 0.28550965 0
5.4170003 0.19834204 0.28635383 0
5.4180002 0.18933924 0.2863304 0
5.4720001 0.6950621 0.27591521 0
5.4670005 0.68519175 0.27604145 0
5.4640002 0.67562425 0.27611721 0
5.4630003 0.66634911 0.27614248 0
5.4640002 0.65735531 0.27611721 0
5.4670005 0.64863217 0.27604145 0
5.4720001 0.64016861 0.27591521 0
5.4790006 0.63195413 0.27573842 0
5.4460001 0.50922298 0.27657181 0
5.4430003 0.49979627 0.27664754 0
5.4430003 0.49069971 0.27664754 0
5.4460001 0.4819169 0.27657181 0
5.4530005 0.47353464 0.27639502 0
5.4170003 0.19834204 0.27730411 0
5.4180002 0.18933924 0.2772789 0
5.4720001 0.6950621 0.26676628 0
5.4670005 0.68519175 0.26690155 0
5.4640002 0.67562425 0.26698273 0
5.4630003 0.66634911 0.26700979 0
5.4640002 0.65735531 0.26698273 0
5.4670005 0.64863217 0.26690155 0
5.4720001 0.64016861 0.26676628 0
5.4790006 0.63195413 0.26657689 0
5.4460001 0.50922298 0.26746976 0
5.4430003 0.49979627 0.26755095 0
5.4430003 0.49069971 0.26755095 0
5.4460001 0.4819169 0.26746976 0
5.4530005 0.47353464 0.26728037 0
5.4170003 0.19834204 0.26825443 0
5.4180002 0.18933924 0.26822737 0
5.4720001 0.6950621 0.25761735 0
5.4670005 0.68519175 0.25776166 0
5.4640002 0.67562425 0.25784826 0
5.4630003 0.66634911 0.25787711 0
5.4640002 0.65735531 0.25784826 0
5.4670005 0.64863217 0.25776166 0
5.4720001 0.64016861 0.25761735 0
5.4790006 0.63195413 0.25741535 0
5.4460001 0.50922298 0.25836778 0
5.4430003 0.49979627 0.25845432 0
5.4430003 0.49069971 0.25845432 0
5.4460001 0.4819169 0.25836778 0
5.4530005 0.47353464 0.25816572 0
5.4170003 0.19834204 0.25920472 0
5.4180002 0.18933924 0.25917587 0
5.4720001 0.6950621 0.24846846 0
5.4670005 0.68519175 0.24862178 0
5.4640002 0.67562425 0.24871378 0
5.4630003 0.66634911 0.24874443 0
5.4640002 0.65735531 0.24871378 0
5.4670005 0.64863217 0.24862178 0
5.4720001 0.64016861 0.24846846 0
5.4790006 0.63195413 0.24825379 0
5.4460001 0.50922298 0.24926575 0
5.4430003 0.49979627 0.24935773 0
5.4430003 0.49069971 0.24935773 0
5.4460001 0.4819169 0.24926575 0
5.4530005 0.47353464 0.24905108 0
5.4170003 0.19834204 0.25015503 0
5.4180002 0.18933924 0.25012434 0
5.4720001 0.6950621 0.23931955 0
5.4670005 0.68519175 0.23948187 0
5.4640002 0.67562425 0.23957929 0
5.4630003 0.66634911 0.23961176 0
5.4640002 0.65735531 0.23957929 0
5.4670005 0.64863217 0.23948187 0
5.4720001 0.64016861 0.23931955 0
5.4790006 0.63195413 0.23909225 0
5.4460001 0.50922298 0.24016373 0
5.4430003 0.49979627 0.24026112 0
5.4430003 0.49069971 0.24026112 0
5.4460001 0.4819169 0.24016373 0
5.4530005 0.47353464 0.23993643 0
5.4170003 0.19834204 0.24110532 0
5.4180002 0.18933924 0.24107283 0
5.4720001 0.6950621 0.23017062 0
5.4670005 0.68519175 0.23034197 0
5.4640002 0.67562425 0.2304448 0
5.4630003 0.66634911 0.23047908 0
5.4640002 0.65735531 0.2304448 0
5.4670005 0.64863217 0.23034197 0
5.4720001 0.64016861 0.23017062 0
5.4790006 0.63195413 0.22993071 0
5.4460001 0.50922298 0.23106171 0
5.4430003 0.49979627 0.23116453 0
5.4430003 0.49069971 0.23116453 0
5.4460001 0.4819169 0.23106171 0
5.4530005 0.47353464 0.23082179 0
5.4170003 0.19834204 0.2320556 0
5.4180002 0.18933924 0.23202133 0
5.4720001 0.6950621 0.22102171 0
5.4670005 0.68519175 0.22120208 0
5.4640002 0.67562425 0.22131033 0
5.4630003 0.66634911 0.22134639 0
5.4640002 0.65735531 0.22131033 0
5.4670005 0.64863217 0.22120208 0
5.4720001 0.64016861 0.22102171 0
5.4790006 0.63195413 0.22076917 0
5.4460001 0.50922298 0.2219597 0
5.4430003 0.49979627 0.22206792 0
5.4430003 0.49069971 0.22206792 0
5.4460001 0.4819169 0.2219597 0
5.4530005 0.47353464 0.22170714 0
