# .PCD v0.7 - Point Cloud Data file format
VERSION 0.7
FIELDS x y z intensity
SIZE 4 4 4 4
TYPE F F F F
COUNT 1 1 1 1
WIDTH 1460
HEIGHT 1
VIEWPOINT 0 0 0 1 0 0 0
POINTS 1460
DATA ascii
4.7340002 2.2758582 0.75579667 0
4.7360005 2.2691088 0.75595909 0
4.7380004 2.2623515 0.7561214 0
4.7400002 2.2555871 0.75628376 0
4.7420001 2.2488155 0.75644612 0
4.7440004 2.2420371 0.75660849 0
4.7460003 2.2352509 0.75677079 0
4.7480001 2.2284579 0.75693309 0
4.7500005 2.2216578 0.75709546 0
4.7520003 2.2148499 0.75725782 0
4.7540002 2.208035 0.75742018 0
4.7560005 2.2012134 0.75758255 0
4.7580004 2.1943839 0.75774485 0
4.7600002 2.1875474 0.75790715 0
4.7620001 2.1807039 0.75806952 0
4.7640004 2.1738529 0.75823188 0
4.7660003 2.166995 0.75839424 0
4.7680001 2.1601295 0.75855654 0
4.7700005 2.1532571 0.75871891 0
4.7720003 2.1463773 0.75888121 0
4.7740002 2.1394904 0.75904357 0
4.7760005 2.1325965 0.75920594 0
4.7780004 2.125695 0.7593683 0
4.7800002 2.1187863 0.7595306 0
4.7820005 2.1118708 0.75969297 0
4.7840004 2.1049476 0.75985527 0
4.7870002 2.0985062 0.76009881 0
4.7890005 2.091567 0.76026118 0
4.7910004 2.0846205 0.76042354 0
4.8250003 2.0931361 0.76318336 0
4.6890001 2.4296906 0.74440747 0
4.6910005 2.423105 0.7445662 0
4.6930003 2.416512 0.74472499 0
4.6950002 2.4099119 0.74488366 0
4.6960001 2.4027345 0.74496305 0
4.6980004 2.396122 0.74512184 0
4.7000003 2.3895018 0.7452805 0
4.7020001 2.3828745 0.74543923 0
4.7040005 2.3762405 0.74559802 0
4.7060003 2.3695986 0.74575675 0
4.7080002 2.3629496 0.74591547 0
4.7100005 2.3562939 0.7460742 0
4.7120004 2.3496306 0.74623299 0
4.7140002 2.3429601 0.74639165 0
4.7160001 2.3362823 0.74655038 0
4.7180004 2.3295975 0.74670917 0
4.7200003 2.3229053 0.7468679 0
4.7220001 2.316206 0.74702656 0
4.7240005 2.3094995 0.74718535 0
4.7260003 2.3027856 0.74734408 0
4.7280002 2.2960646 0.7475028 0
4.7300005 2.2893367 0.74766159 0
4.7320004 2.2826009 0.74782032 0
4.7340002 2.2758582 0.74797904 0
4.7360005 2.2691088 0.74813783 0
4.7380004 2.2623515 0.7482965 0
4.7400002 2.2555871 0.74845523 0
4.7420001 2.2488155 0.74861395 0
4.7440004 2.2420371 0.74877274 0
4.7460003 2.2352509 0.74893141 0
4.7480001 2.2284579 0.74909019 0
4.7500005 2.2216578 0.74924898 0
4.7520003 2.2148499 0.74940765 0
4.7540002 2.208035 0.74956638 0
4.7560005 2.2012134 0.7497251 0
4.7580004 2.1943839 0.74988389 0
4.7600002 2.1875474 0.75004256 0
4.7620001 2.1807039 0.75020128 0
4.7640004 2.1738529 0.75036007 0
4.7660003 2.166995 0.7505188 0
4.7680001 2.1601295 0.75067753 0
4.7700005 2.1532571 0.75083625 0
4.7720003 2.1463773 0.75099504 0
4.7740002 2.1394904 0.75115371 0
4.7760005 2.1325965 0.75131249 0
4.7780004 2.125695 0.75147122 0
4.7800002 2.1187863 0.75162995 0
4.7820005 2.1118708 0.75178868 0
4.7840004 2.1049476 0.7519474 0
4.7870002 2.0985062 0.75218546 0
4.7890005 2.091567 0.75234425 0
4.7910004 2.0846205 0.75250298 0
4.8250003 2.0931361 0.75520146 0
4.6890001 2.4296906 0.73667097 0
4.6910005 2.423105 0.73682606 0
4.6930003 2.416512 0.73698121 0
4.6950002 2.4099119 0.7371363 0
4.6960001 2.4027345 0.73721385 0
4.6980004 2.396122 0.73736906 0
4.7000003 2.3895018 0.73752415 0
4.7020001 2.3828745 0.73767924 0
4.7040005 2.3762405 0.73783445 0
4.7060003 2.3695986 0.73798954 0
4.7080002 2.3629496 0.73814464 0
4.7100005 2.3562939 0.73829985 0
4.7120004 2.3496306 0.73845494 0
4.7140002 2.3429601 0.73861003 0
4.7160001 2.3362823 0.73876512 0
4.7180004 2.3295975 0.73892033 0
4.7200003 2.3229053 0.73907542 0
4.7220001 2.316206 0.73923051 0
4.7240005 2.3094995 0.73938572 0
4.7260003 2.3027856 0.73954082 0
4.7280002 2.2960646 0.73969591 0
4.7300005 2.2893367 0.73985112 0
4.7320004 2.2826009 0.74000621 0
4.7340002 2.2758582 0.7401613 0
4.7360005 2.2691088 0.74031645 0
4.7380004 2.2623515 0.7404716 0
4.7400002 2.2555871 0.74062669 0
4.7420001 2.2488155 0.74078178 0
4.7440004 2.2420371 0.74093699 0
4.7460003 2.2352509 0.74109209 0
4.7480001 2.2284579 0.74124718 0
4.7500005 2.2216578 0.74140239 0
4.7520003 2.2148499 0.74155748 0
4.7540002 2.208035 0.74171257 0
4.7560005 2.2012134 0.74186772 0
4.7580004 2.1943839 0.74202287 0
4.7600002 2.1875474 0.74217796 0
4.7620001 2.1807039 0.74233305 0
4.7640004 2.1738529 0.74248827 0
4.7660003 2.166995 0.74264336 0
4.7680001 2.1601295 0.74279845 0
4.7700005 2.1532571 0.74295366 0
4.7720003 2.1463773 0.74310875 0
4.7740002 2.1394904 0.74326384 0
4.7760005 2.1325965 0.74341905 0
4.7780004 2.125695 0.74357414 0
4.7800002 2.1187863 0.74372923 0
4.7820005 2.1118708 0.74388444 0
4.7840004 2.1049476 0.74403954 0
4.7870002 2.0985062 0.74427223 0
4.7890005 2.091567 0.74442732 0
4.7910004 2.0846205 0.74458247 0
4.8250003 2.0931361 0.74721962 0
4.6890001 2.4296906 0.72893441 0
4.6910005 2.423105 0.72908592 0
4.6930003 2.416512 0.72923744 0
4.6950002 2.4099119 0.72938895 0
4.6960001 2.4027345 0.72946477 0
4.6980004 2.396122 0.72961628 0
4.7000003 2.3895018 0.7297678 0
4.7020001 2.3828745 0.72991931 0
4.7040005 2.3762405 0.73007083 0
4.7060003 2.3695986 0.73022234 0
4.7080002 2.3629496 0.73037386 0
4.7100005 2.3562939 0.73052537 0
4.7120004 2.3496306 0.73067689 0
4.7140002 2.3429601 0.7308284 0
4.7160001 2.3362823 0.73097992 0
4.7180004 2.3295975 0.73113143 0
4.7200003 2.3229053 0.73128295 0
4.7220001 2.316206 0.73143446 0
4.7240005 2.3094995 0.73158604 0
4.7260003 2.3027856 0.73173755 0
4.7280002 2.2960646 0.73188901 0
4.7300005 2.2893367 0.73204058 0
4.7320004 2.2826009 0.7321921 0
4.7340002 2.2758582 0.73234361 0
4.7360005 2.2691088 0.73249519 0
4.7380004 2.2623515 0.7326467 0
4.7400002 2.2555871 0.73279816 0
4.7420001 2.2488155 0.73294967 0
4.7440004 2.2420371 0.73310125 0
4.7460003 2.2352509 0.73325276 0
4.7480001 2.2284579 0.73340428 0
4.7500005 2.2216578 0.73355579 0
4.7520003 2.2148499 0.73370731 0
4.7540002 2.208035 0.73385882 0
4.7560005 2.2012134 0.73401034 0
4.7580004 2.1943839 0.73416185 0
4.7600002 2.1875474 0.73431337 0
4.7620001 2.1807039 0.73446488 0
4.7640004 2.1738529 0.7346164 0
4.7660003 2.166995 0.73476791 0
4.7680001 2.1601295 0.73491943 0
4.7700005 2.1532571 0.73507094 0
4.7720003 2.1463773 0.73522246 0
4.7740002 2.1394904 0.73537397 0
4.7760005 2.1325965 0.73552555 0
4.7780004 2.125695 0.73567706 0
4.7800002 2.1187863 0.73582858 0
4.7820005 2.1118708 0.73598015 0
4.7840004 2.1049476 0.73613161 0
4.7870002 2.0985062 0.73635888 0
4.7890005 2.091567 0.7365104 0
4.7910004 2.0846205 0.73666191 0
4.8250003 2.0931361 0.73923779 0
4.6890001 2.4296906 0.72119784 0
4.6910005 2.423105 0.72134578 0
4.6930003 2.416512 0.72149372 0
4.6950002 2.4099119 0.7216416 0
4.6960001 2.4027345 0.72171557 0
4.6980004 2.396122 0.72186351 0
4.7000003 2.3895018 0.72201139 0
4.7020001 2.3828745 0.72215927 0
4.7040005 2.3762405 0.72230726 0
4.7060003 2.3695986 0.72245514 0
4.7080002 2.3629496 0.72260308 0
4.7100005 2.3562939 0.72275102 0
4.7120004 2.3496306 0.72289884 0
4.7140002 2.3429601 0.72304678 0
4.7160001 2.3362823 0.72319472 0
4.7180004 2.3295975 0.72334266 0
4.7200003 2.3229053 0.72349054 0
4.7220001 2.316206 0.72363842 0
4.7240005 2.3094995 0.72378635 0
4.7260003 2.3027856 0.72393429 0
4.7280002 2.2960646 0.72408217 0
4.7300005 2.2893367 0.72423011 0
4.7320004 2.2826009 0.72437799 0
4.7340002 2.2758582 0.72452593 0
4.7360005 2.2691088 0.72467387 0
4.7380004 2.2623515 0.72482175 0
4.7400002 2.2555871 0.72496963 0
4.7420001 2.2488155 0.72511756 0
4.7440004 2.2420371 0.7252655 0
4.7460003 2.2352509 0.72541338 0
4.7480001 2.2284579 0.72556126 0
4.7500005 2.2216578 0.7257092 0
4.7520003 2.2148499 0.72585714 0
4.7540002 2.208035 0.72600508 0
4.7560005 2.2012134 0.72615302 0
4.7580004 2.1943839 0.72630084 0
4.7600002 2.1875474 0.72644877 0
4.7620001 2.1807039 0.72659665 0
4.7640004 2.1738529 0.72674459 0
4.7660003 2.166995 0.72689253 0
4.7680001 2.1601295 0.72704041 0
4.7700005 2.1532571 0.72718835 0
4.7720003 2.1463773 0.72733629 0
4.7740002 2.1394904 0.72748411 0
4.7760005 2.1325965 0.72763205 0
4.7780004 2.125695 0.72777998 0
4.7800002 2.1187863 0.72792792 0
4.7820005 2.1118708 0.72807586 0
4.7840004 2.1049476 0.72822374 0
4.7870002 2.0985062 0.72844559 0
4.7890005 2.091567 0.72859353 0
4.7910004 2.0846205 0.72874141 0
4.8250003 2.0931361 0.73125589 0
4.6890001 2.4296906 0.71346134 0
4.6910005 2.423105 0.71360564 0
4.6930003 2.416512 0.71374995 0
4.6950002 2.4099119 0.71389425 0
4.6960001 2.4027345 0.71396637 0
4.6980004 2.396122 0.71411073 0
4.7000003 2.3895018 0.71425498 0
4.7020001 2.3828745 0.71439934 0
4.7040005 2.3762405 0.7145437 0
4.7060003 2.3695986 0.71468794 0
4.7080002 2.3629496 0.71483225 0
4.7100005 2.3562939 0.71497655 0
4.7120004 2.3496306 0.71512085 0
4.7140002 2.3429601 0.71526515 0
4.7160001 2.3362823 0.71540946 0
4.7180004 2.3295975 0.71555376 0
4.7200003 2.3229053 0.71569806 0
4.7220001 2.316206 0.71584237 0
4.7240005 2.3094995 0.71598673 0
4.7260003 2.3027856 0.71613097 0
4.7280002 2.2960646 0.71627527 0
4.7300005 2.2893367 0.71641958 0
4.7320004 2.2826009 0.71656394 0
4.7340002 2.2758582 0.71670818 0
4.7360005 2.2691088 0.71685255 0
4.7380004 2.2623515 0.71699685 0
4.7400002 2.2555871 0.71714115 0
4.7420001 2.2488155 0.71728539 0
4.7440004 2.2420371 0.71742976 0
4.7460003 2.2352509 0.717574 0
4.7480001 2.2284579 0.71771836 0
4.7500005 2.2216578 0.71786267 0
4.7520003 2.2148499 0.71800697 0
4.7540002 2.208035 0.71815121 0
4.7560005 2.2012134 0.71829557 0
4.7580004 2.1943839 0.71843988 0
4.7600002 2.1875474 0.71858418 0
4.7620001 2.1807039 0.71872842 0
4.7640004 2.1738529 0.71887279 0
4.7660003 2.166995 0.71901709 0
4.7680001 2.1601295 0.71916139 0
4.7700005 2.1532571 0.71930575 0
4.7720003 2.1463773 0.71945 0
4.7740002 2.1394904 0.7195943 0
4.7760005 2.1325965 0.7197386 0
4.7780004 2.125695 0.71988291 0
4.7800002 2.1187863 0.72002721 0
4.7820005 2.1118708 0.72017157 0
4.7840004 2.1049476 0.72031581 0
4.7870002 2.0985062 0.7205323 0
4.7890005 2.091567 0.7206766 0
4.7910004 2.0846205 0.7208209 0
4.8250003 2.0931361 0.72327405 0
4.6890001 2.4296906 0.70572484 0
4.6910005 2.423105 0.7058655 0
4.6930003 2.416512 0.70600617 0
4.6950002 2.4099119 0.7061469 0
4.6960001 2.4027345 0.70621729 0
4.6980004 2.396122 0.70635796 0
4.7000003 2.3895018 0.70649862 0
4.7020001 2.3828745 0.70663935 0
4.7040005 2.3762405 0.70678008 0
4.7060003 2.3695986 0.70692074 0
4.7080002 2.3629496 0.70706141 0
4.7100005 2.3562939 0.70720214 0
4.7120004 2.3496306 0.70734286 0
4.7140002 2.3429601 0.70748353 0
4.7160001 2.3362823 0.7076242 0
4.7180004 2.3295975 0.70776492 0
4.7200003 2.3229053 0.70790565 0
4.7220001 2.316206 0.70804632 0
4.7240005 2.3094995 0.70818704 0
4.7260003 2.3027856 0.70832771 0
4.7280002 2.2960646 0.70846844 0
4.7300005 2.2893367 0.7086091 0
4.7320004 2.2826009 0.70874983 0
4.7340002 2.2758582 0.7088905 0
4.7360005 2.2691088 0.70903122 0
4.7380004 2.2623515 0.70917189 0
4.7400002 2.2555871 0.70931256 0
4.7420001 2.2488155 0.70945328 0
4.7440004 2.2420371 0.70959401 0
4.7460003 2.2352509 0.70973468 0
4.7480001 2.2284579 0.70987535 0
4.7500005 2.2216578 0.71001607 0
4.7520003 2.2148499 0.7101568 0
4.7540002 2.208035 0.71029747 0
4.7560005 2.2012134 0.71043819 0
4.7580004 2.1943839 0.71057886 0
4.7600002 2.1875474 0.71071959 0
4.7620001 2.1807039 0.71086025 0
4.7640004 2.1738529 0.71100098 0
4.7660003 2.166995 0.71114165 0
4.7680001 2.1601295 0.71128237 0
4.7700005 2.1532571 0.71142304 0
4.7720003 2.1463773 0.71156377 0
4.7740002 2.1394904 0.71170443 0
4.7760005 2.1325965 0.71184516 0
4.7780004 2.125695 0.71198583 0
4.7800002 2.1187863 0.71212649 0
4.7820005 2.1118708 0.71226728 0
4.7840004 2.1049476 0.71240795 0
4.7870002 2.0985062 0.71261895 0
4.7890005 2.091567 0.71275973 0
4.7910004 2.0846205 0.7129004 0
4.8250003 2.0931361 0.71529222 0
4.6890001 2.4296906 0.69798827 0
4.6910005 2.423105 0.69812536 0
4.6930003 2.416512 0.69826245 0
4.6950002 2.4099119 0.69839954 0
4.6960001 2.4027345 0.69846809 0
4.6980004 2.396122 0.69860518 0
4.7000003 2.3895018 0.69874227 0
4.7020001 2.3828745 0.69887936 0
4.7040005 2.3762405 0.69901645 0
4.7060003 2.3695986 0.69915354 0
4.7080002 2.3629496 0.69929063 0
4.7100005 2.3562939 0.69942772 0
4.7120004 2.3496306 0.69956481 0
4.7140002 2.3429601 0.69970191 0
4.7160001 2.3362823 0.699839 0
4.7180004 2.3295975 0.69997609 0
4.7200003 2.3229053 0.70011318 0
4.7220001 2.316206 0.70025027 0
4.7240005 2.3094995 0.70038736 0
4.7260003 2.3027856 0.70052445 0
4.7280002 2.2960646 0.70066154 0
4.7300005 2.2893367 0.70079863 0
4.7320004 2.2826009 0.70093572 0
4.7340002 2.2758582 0.70107281 0
4.7360005 2.2691088 0.7012099 0
4.7380004 2.2623515 0.70134699 0
4.7400002 2.2555871 0.70148408 0
4.7420001 2.2488155 0.70162117 0
4.7440004 2.2420371 0.70175827 0
4.7460003 2.2352509 0.70189536 0
4.7480001 2.2284579 0.70203245 0
4.7500005 2.2216578 0.70216954 0
4.7520003 2.2148499 0.70230663 0
4.7540002 2.208035 0.70244366 0
4.7560005 2.2012134 0.70258081 0
4.7580004 2.1943839 0.7027179 0
4.7600002 2.1875474 0.70285499 0
4.7620001 2.1807039 0.70299202 0
4.7640004 2.1738529 0.70312917 0
4.7660003 2.166995 0.70326626 0
4.7680001 2.1601295 0.70340335 0
4.7700005 2.1532571 0.70354044 0
4.7720003 2.1463773 0.70367748 0
4.7740002 2.1394904 0.70381463 0
4.7760005 2.1325965 0.70395172 0
4.7780004 2.125695 0.70408881 0
4.7800002 2.1187863 0.70422584 0
4.7820005 2.1118708 0.70436299 0
4.7840004 2.1049476 0.70450008 0
4.7870002 2.0985062 0.70470572 0
4.7890005 2.091567 0.70484281 0
4.7910004 2.0846205 0.7049799 0
4.8250003 2.0931361 0.70731038 0
4.6890001 2.4296906 0.69025177 0
4.6910005 2.423105 0.69038522 0
4.6930003 2.416512 0.69051874 0
4.6950002 2.4099119 0.69065219 0
4.6960001 2.4027345 0.69071889 0
4.6980004 2.396122 0.6908524 0
4.7000003 2.3895018 0.69098592 0
4.7020001 2.3828745 0.69111937 0
4.7040005 2.3762405 0.69125289 0
4.7060003 2.3695986 0.69138634 0
4.7080002 2.3629496 0.6915198 0
4.7100005 2.3562939 0.69165337 0
4.7120004 2.3496306 0.69178677 0
4.7140002 2.3429601 0.69192028 0
4.7160001 2.3362823 0.69205374 0
4.7180004 2.3295975 0.69218725 0
4.7200003 2.3229053 0.6923207 0
4.7220001 2.316206 0.69245422 0
4.7240005 2.3094995 0.69258767 0
4.7260003 2.3027856 0.69272119 0
4.7280002 2.2960646 0.69285464 0
4.7300005 2.2893367 0.69298816 0
4.7320004 2.2826009 0.69312161 0
4.7340002 2.2758582 0.69325507 0
4.7360005 2.2691088 0.69338858 0
4.7380004 2.2623515 0.6935221 0
4.7400002 2.2555871 0.69365549 0
4.7420001 2.2488155 0.69378901 0
4.7440004 2.2420371 0.69392252 0
4.7460003 2.2352509 0.69405597 0
4.7480001 2.2284579 0.69418943 0
4.7500005 2.2216578 0.69432294 0
4.7520003 2.2148499 0.69445646 0
4.7540002 2.208035 0.69458991 0
4.7560005 2.2012134 0.69472337 0
4.7580004 2.1943839 0.69485688 0
4.7600002 2.1875474 0.6949904 0
4.7620001 2.1807039 0.69512379 0
4.7640004 2.1738529 0.69525731 0
4.7660003 2.166995 0.69539082 0
4.7680001 2.1601295 0.69552428 0
4.7700005 2.1532571 0.69565779 0
4.7720003 2.1463773 0.69579124 0
4.7740002 2.1394904 0.6959247 0
4.7760005 2.1325965 0.69605827 0
4.7780004 2.125695 0.69619167 0
4.7800002 2.1187863 0.69632518 0
4.7820005 2.1118708 0.6964587 0
4.7840004 2.1049476 0.69659215 0
4.7870002 2.0985062 0.69679236 0
4.7890005 2.091567 0.69692588 0
4.7910004 2.0846205 0.69705933 0
4.8250003 2.0931361 0.69932854 0
4.6890001 2.4296906 0.68251526 0
4.6910005 2.423105 0.68264508 0
4.6930003 2.416512 0.68277496 0
4.6950002 2.4099119 0.68290484 0
4.6960001 2.4027345 0.68296981 0
4.6980004 2.396122 0.68309963 0
4.7000003 2.3895018 0.68322951 0
4.7020001 2.3828745 0.68335938 0
4.7040005 2.3762405 0.68348932 0
4.7060003 2.3695986 0.68361914 0
4.7080002 2.3629496 0.68374902 0
4.7100005 2.3562939 0.6838789 0
4.7120004 2.3496306 0.68400878 0
4.7140002 2.3429601 0.68413866 0
4.7160001 2.3362823 0.68426853 0
4.7180004 2.3295975 0.68439841 0
4.7200003 2.3229053 0.68452823 0
4.7220001 2.316206 0.68465811 0
4.7240005 2.3094995 0.68478805 0
4.7260003 2.3027856 0.68491793 0
4.7280002 2.2960646 0.68504775 0
4.7300005 2.2893367 0.68517768 0
4.7320004 2.2826009 0.6853075 0
4.7340002 2.2758582 0.68543738 0
4.7360005 2.2691088 0.68556726 0
4.7380004 2.2623515 0.68569714 0
4.7400002 2.2555871 0.68582702 0
4.7420001 2.2488155 0.68595684 0
4.7440004 2.2420371 0.68608677 0
4.7460003 2.2352509 0.68621665 0
4.7480001 2.2284579 0.68634653 0
4.7500005 2.2216578 0.68647635 0
4.7520003 2.2148499 0.68660629 0
4.7540002 2.208035 0.68673611 0
4.7560005 2.2012134 0.68686604 0
4.7580004 2.1943839 0.68699586 0
4.7600002 2.1875474 0.68712574 0
4.7620001 2.1807039 0.68725562 0
4.7640004 2.1738529 0.6873855 0
4.7660003 2.166995 0.68751538 0
4.7680001 2.1601295 0.6876452 0
4.7700005 2.1532571 0.68777514 0
4.7720003 2.1463773 0.68790501 0
4.7740002 2.1394904 0.68803489 0
4.7760005 2.1325965 0.68816471 0
4.7780004 2.125695 0.68829465 0
4.7800002 2.1187863 0.68842447 0
4.7820005 2.1118708 0.68855441 0
4.7840004 2.1049476 0.68868423 0
4.7870002 2.0985062 0.68887901 0
4.7890005 2.091567 0.68900895 0
4.7910004 2.0846205 0.68913877 0
4.8250003 2.0931361 0.69134665 0
4.6890001 2.4296906 0.6747787 0
4.6910005 2.423105 0.67490494 0
4.6930003 2.416512 0.67503119 0
4.6950002 2.4099119 0.67515743 0
4.6960001 2.4027345 0.67522061 0
4.6980004 2.396122 0.67534685 0
4.7000003 2.3895018 0.67547315 0
4.7020001 2.3828745 0.67559946 0
4.7040005 2.3762405 0.6757257 0
4.7060003 2.3695986 0.67585194 0
4.7080002 2.3629496 0.67597818 0
4.7100005 2.3562939 0.67610455 0
4.7120004 2.3496306 0.67623079 0
4.7140002 2.3429601 0.67635703 0
4.7160001 2.3362823 0.67648327 0
4.7180004 2.3295975 0.67660952 0
4.7200003 2.3229053 0.67673582 0
4.7220001 2.316206 0.67686212 0
4.7240005 2.3094995 0.67698836 0
4.7260003 2.3027856 0.67711461 0
4.7280002 2.2960646 0.67724085 0
4.7300005 2.2893367 0.67736721 0
4.7320004 2.2826009 0.67749345 0
4.7340002 2.2758582 0.6776197 0
4.7360005 2.2691088 0.67774594 0
4.7380004 2.2623515 0.67787224 0
4.7400002 2.2555871 0.67799848 0
4.7420001 2.2488155 0.67812473 0
4.7440004 2.2420371 0.67825103 0
4.7460003 2.2352509 0.67837727 0
4.7480001 2.2284579 0.67850351 0
4.7500005 2.2216578 0.67862988 0
4.7520003 2.2148499 0.67875612 0
4.7540002 2.208035 0.67888236 0
4.7560005 2.2012134 0.6790086 0
4.7580004 2.1943839 0.67913491 0
4.7600002 2.1875474 0.67926115 0
4.7620001 2.1807039 0.67938739 0
4.7640004 2.1738529 0.67951369 0
4.7660003 2.166995 0.67963994 0
4.7680001 2.1601295 0.67976618 0
4.7700005 2.1532571 0.67989248 0
4.7720003 2.1463773 0.68001878 0
4.7740002 2.1394904 0.68014503 0
4.7760005 2.1325965 0.68027127 0
4.7780004 2.125695 0.68039757 0
4.7800002 2.1187863 0.68052381 0
4.7820005 2.1118708 0.68065012 0
4.7840004 2.1049476 0.68077636 0
4.7870002 2.0985062 0.68096572 0
4.7890005 2.091567 0.68109202 0
4.7910004 2.0846205 0.68121827 0
4.8250003 2.0931361 0.68336481 0
4.6890001 2.4296906 0.66704214 0
4.6910005 2.423105 0.6671648 0
4.6930003 2.416512 0.66728747 0
4.6950002 2.4099119 0.66741014 0
4.6960001 2.4027345 0.66747141 0
4.6980004 2.396122 0.66759413 0
4.7000003 2.3895018 0.6677168 0
4.7020001 2.3828745 0.66783941 0
4.7040005 2.3762405 0.66796207 0
4.7060003 2.3695986 0.66808474 0
4.7080002 2.3629496 0.66820741 0
4.7100005 2.3562939 0.66833007 0
4.7120004 2.3496306 0.66845274 0
4.7140002 2.3429601 0.66857541 0
4.7160001 2.3362823 0.66869807 0
4.7180004 2.3295975 0.66882074 0
4.7200003 2.3229053 0.66894341 0
4.7220001 2.316206 0.66906601 0
4.7240005 2.3094995 0.66918868 0
4.7260003 2.3027856 0.66931134 0
4.7280002 2.2960646 0.66943401 0
4.7300005 2.2893367 0.66955668 0
4.7320004 2.2826009 0.66967928 0
4.7340002 2.2758582 0.66980195 0
4.7360005 2.2691088 0.66992462 0
4.7380004 2.2623515 0.67004728 0
4.7400002 2.2555871 0.67016995 0
4.7420001 2.2488155 0.67029262 0
4.7440004 2.2420371 0.67041528 0
4.7460003 2.2352509 0.67053795 0
4.7480001 2.2284579 0.67066061 0
4.7500005 2.2216578 0.67078328 0
4.7520003 2.2148499 0.67090589 0
4.7540002 2.208035 0.67102861 0
4.7560005 2.2012134 0.67115128 0
4.7580004 2.1943839 0.67127389 0
4.7600002 2.1875474 0.67139655 0
4.7620001 2.1807039 0.67151916 0
4.7640004 2.1738529 0.67164183 0
4.7660003 2.166995 0.67176449 0
4.7680001 2.1601295 0.67188716 0
4.7700005 2.1532571 0.67200983 0
4.7720003 2.1463773 0.67213249 0
4.7740002 2.1394904 0.67225516 0
4.7760005 2.1325965 0.67237782 0
4.7780004 2.125695 0.67250049 0
4.7800002 2.1187863 0.67262316 0
4.7820005 2.1118708 0.67274582 0
4.7840004 2.1049476 0.67286849 0
4.7870002 2.0985062 0.67305243 0
4.7890005 2.091567 0.6731751 0
4.7910004 2.0846205 0.67329776 0
4.8250003 2.0931361 0.67538297 0
4.6890001 2.4296906 0.65930557 0
4.6910005 2.423105 0.65942466 0
4.6930003 2.416512 0.65954375 0
4.6950002 2.4099119 0.65966272 0
4.6960001 2.4027345 0.65972233 0
4.6980004 2.396122 0.65984136 0
4.7000003 2.3895018 0.65996039 0
4.7020001 2.3828745 0.66007948 0
4.7040005 2.3762405 0.66019851 0
4.7060003 2.3695986 0.66031754 0
4.7080002 2.3629496 0.66043663 0
4.7100005 2.3562939 0.66055566 0
4.7120004 2.3496306 0.66067469 0
4.7140002 2.3429601 0.66079378 0
4.7160001 2.3362823 0.66091275 0
4.7180004 2.3295975 0.66103184 0
4.7200003 2.3229053 0.66115093 0
4.7220001 2.316206 0.66126996 0
4.7240005 2.3094995 0.66138899 0
4.7260003 2.3027856 0.66150808 0
4.7280002 2.2960646 0.66162711 0
4.7300005 2.2893367 0.66174614 0
4.7320004 2.2826009 0.66186523 0
4.7340002 2.2758582 0.66198426 0
4.7360005 2.2691088 0.6621033 0
4.7380004 2.2623515 0.66222239 0
4.7400002 2.2555871 0.66234142 0
4.7420001 2.2488155 0.66246045 0
4.7440004 2.2420371 0.66257954 0
4.7460003 2.2352509 0.66269857 0
4.7480001 2.2284579 0.6628176 0
4.7500005 2.2216578 0.66293669 0
4.7520003 2.2148499 0.66305578 0
4.7540002 2.208035 0.66317475 0
4.7560005 2.2012134 0.66329384 0
4.7580004 2.1943839 0.66341293 0
4.7600002 2.1875474 0.6635319 0
4.7620001 2.1807039 0.66365099 0
4.7640004 2.1738529 0.66377008 0
4.7660003 2.166995 0.66388905 0
4.7680001 2.1601295 0.66400814 0
4.7700005 2.1532571 0.66412723 0
4.7720003 2.1463773 0.6642462 0
4.7740002 2.1394904 0.66436529 0
4.7760005 2.1325965 0.66448438 0
4.7780004 2.125695 0.66460341 0
4.7800002 2.1187863 0.66472244 0
4.7820005 2.1118708 0.66484153 0
4.7840004 2.1049476 0.66496056 0
4.7870002 2.0985062 0.66513908 0
4.7890005 2.091567 0.66525817 0
4.7910004 2.0846205 0.66537726 0
4.8250003 2.0931361 0.66740108 0
4.6890001 2.4296906 0.65156907 0
4.6910005 2.423105 0.65168452 0
4.6930003 2.416512 0.65179998 0
4.6950002 2.4099119 0.65191543 0
4.6960001 2.4027345 0.65197313 0
4.6980004 2.396122 0.65208858 0
4.7000003 2.3895018 0.65220404 0
4.7020001 2.3828745 0.65231943 0
4.7040005 2.3762405 0.65243495 0
4.7060003 2.3695986 0.65255034 0
4.7080002 2.3629496 0.65266579 0
4.7100005 2.3562939 0.65278125 0
4.7120004 2.3496306 0.6528967 0
4.7140002 2.3429601 0.65301216 0
4.7160001 2.3362823 0.65312755 0
4.7180004 2.3295975 0.65324301 0
4.7200003 2.3229053 0.65335846 0
4.7220001 2.316206 0.65347391 0
4.7240005 2.3094995 0.65358937 0
4.7260003 2.3027856 0.65370476 0
4.7280002 2.2960646 0.65382022 0
4.7300005 2.2893367 0.65393567 0
4.7320004 2.2826009 0.65405113 0
4.7340002 2.2758582 0.65416658 0
4.7360005 2.2691088 0.65428203 0
4.7380004 2.2623515 0.65439749 0
4.7400002 2.2555871 0.65451288 0
4.7420001 2.2488155 0.65462834 0
4.7440004 2.2420371 0.65474379 0
4.7460003 2.2352509 0.65485924 0
4.7480001 2.2284579 0.6549747 0
4.7500005 2.2216578 0.65509009 0
4.7520003 2.2148499 0.65520561 0
4.7540002 2.208035 0.655321 0
4.7560005 2.2012134 0.65543646 0
4.7580004 2.1943839 0.65555191 0
4.7600002 2.1875474 0.6556673 0
4.7620001 2.1807039 0.65578276 0
4.7640004 2.1738529 0.65589821 0
4.7660003 2.166995 0.65601367 0
4.7680001 2.1601295 0.65612912 0
4.7700005 2.1532571 0.65624458 0
4.7720003 2.1463773 0.65636003 0
4.7740002 2.1394904 0.65647542 0
4.7760005 2.1325965 0.65659094 0
4.7780004 2.125695 0.65670633 0
4.7800002 2.1187863 0.65682173 0
4.7820005 2.1118708 0.65693724 0
4.7840004 2.1049476 0.65705264 0
4.7870002 2.0985062 0.65722585 0
4.7890005 2.091567 0.65734124 0
4.7910004 2.0846205 0.65745676 0
4.8250003 2.0931361 0.6594193 0
4.6890001 2.4296906 0.64383256 0
4.6910005 2.423105 0.64394438 0
4.6930003 2.416512 0.6440562 0
4.6950002 2.4099119 0.64416808 0
4.6960001 2.4027345 0.64422393 0
4.6980004 2.396122 0.64433581 0
4.7000003 2.3895018 0.64444762 0
4.7020001 2.3828745 0.6445595 0
4.7040005 2.3762405 0.64467132 0
4.7060003 2.3695986 0.64478314 0
4.7080002 2.3629496 0.64489496 0
4.7100005 2.3562939 0.64500684 0
4.7120004 2.3496306 0.64511871 0
4.7140002 2.3429601 0.64523053 0
4.7160001 2.3362823 0.64534235 0
4.7180004 2.3295975 0.64545417 0
4.7200003 2.3229053 0.64556599 0
4.7220001 2.316206 0.6456778 0
4.7240005 2.3094995 0.64578968 0
4.7260003 2.3027856 0.6459015 0
4.7280002 2.2960646 0.64601338 0
4.7300005 2.2893367 0.6461252 0
4.7320004 2.2826009 0.64623702 0
4.7340002 2.2758582 0.64634883 0
4.7360005 2.2691088 0.64646071 0
4.7380004 2.2623515 0.64657253 0
4.7400002 2.2555871 0.64668441 0
4.7420001 2.2488155 0.64679623 0
4.7440004 2.2420371 0.64690804 0
4.7460003 2.2352509 0.64701986 0
4.7480001 2.2284579 0.64713168 0
4.7500005 2.2216578 0.64724356 0
4.7520003 2.2148499 0.64735538 0
4.7540002 2.208035 0.6474672 0
4.7560005 2.2012134 0.64757907 0
4.7580004 2.1943839 0.64769089 0
4.7600002 2.1875474 0.64780271 0
4.7620001 2.1807039 0.64791453 0
4.7640004 2.1738529 0.64802641 0
4.7660003 2.166995 0.64813823 0
4.7680001 2.1601295 0.6482501 0
4.7700005 2.1532571 0.64836192 0
4.7720003 2.1463773 0.64847374 0
4.7740002 2.1394904 0.64858556 0
4.7760005 2.1325965 0.64869744 0
4.7780004 2.125695 0.64880925 0
4.7800002 2.1187863 0.64892107 0
4.7820005 2.1118708 0.64903295 0
4.7840004 2.1049476 0.64914477 0
4.7870002 2.0985062 0.6493125 0
4.7890005 2.091567 0.64942437 0
4.7910004 2.0846205 0.64953619 0
4.8250003 2.0931361 0.6514374 0
4.6890001 2.4296906 0.636096 0
4.6910005 2.423105 0.63620424 0
4.6930003 2.416512 0.63631248 0
4.6950002 2.4099119 0.63642073 0
4.6960001 2.4027345 0.63647485 0
4.6980004 2.396122 0.63658303 0
4.7000003 2.3895018 0.63669127 0
4.7020001 2.3828745 0.63679945 0
4.7040005 2.3762405 0.63690776 0
4.7060003 2.3695986 0.63701594 0
4.7080002 2.3629496 0.63712418 0
4.7100005 2.3562939 0.63723242 0
4.7120004 2.3496306 0.63734066 0
4.7140002 2.3429601 0.63744885 0
4.7160001 2.3362823 0.63755709 0
4.7180004 2.3295975 0.63766533 0
4.7200003 2.3229053 0.63777357 0
4.7220001 2.316206 0.63788176 0
4.7240005 2.3094995 0.63799006 0
4.7260003 2.3027856 0.63809824 0
4.7280002 2.2960646 0.63820648 0
4.7300005 2.2893367 0.63831472 0
4.7320004 2.2826009 0.63842297 0
4.7340002 2.2758582 0.63853115 0
4.7360005 2.2691088 0.63863939 0
4.7380004 2.2623515 0.63874763 0
4.7400002 2.2555871 0.63885587 0
4.7420001 2.2488155 0.63896406 0
4.7440004 2.2420371 0.6390723 0
4.7460003 2.2352509 0.63918054 0
4.7480001 2.2284579 0.63928878 0
4.7500005 2.2216578 0.63939703 0
4.7520003 2.2148499 0.63950521 0
4.7540002 2.208035 0.63961339 0
4.7560005 2.2012134 0.63972169 0
4.7580004 2.1943839 0.63982987 0
4.7600002 2.1875474 0.63993812 0
4.7620001 2.1807039 0.64004636 0
4.7640004 2.1738529 0.6401546 0
4.7660003 2.166995 0.64026284 0
4.7680001 2.1601295 0.64037108 0
4.7700005 2.1532571 0.64047927 0
4.7720003 2.1463773 0.64058751 0
4.7740002 2.1394904 0.64069569 0
4.7760005 2.1325965 0.64080399 0
4.7780004 2.125695 0.64091218 0
4.7800002 2.1187863 0.64102042 0
4.7820005 2.1118708 0.64112866 0
4.7840004 2.1049476 0.6412369 0
4.7870002 2.0985062 0.6413992 0
4.7890005 2.091567 0.64150745 0
4.7910004 2.0846205 0.64161569 0
4.8250003 2.0931361 0.64345556 0
4.6890001 2.4296906 0.6283595 0
4.6910005 2.423105 0.6284641 0
4.6930003 2.416512 0.62856877 0
4.6950002 2.4099119 0.62867332 0
4.6960001 2.4027345 0.62872565 0
4.6980004 2.396122 0.62883031 0
4.7000003 2.3895018 0.62893492 0
4.7020001 2.3828745 0.62903953 0
4.7040005 2.3762405 0.62914413 0
4.7060003 2.3695986 0.62924874 0
4.7080002 2.3629496 0.6293534 0
4.7100005 2.3562939 0.62945801 0
4.7120004 2.3496306 0.62956262 0
4.7140002 2.3429601 0.62966722 0
4.7160001 2.3362823 0.62977183 0
4.7180004 2.3295975 0.62987649 0
4.7200003 2.3229053 0.6299811 0
4.7220001 2.316206 0.63008571 0
4.7240005 2.3094995 0.63019037 0
4.7260003 2.3027856 0.63029498 0
4.7280002 2.2960646 0.63039958 0
4.7300005 2.2893367 0.63050425 0
4.7320004 2.2826009 0.63060886 0
4.7340002 2.2758582 0.63071346 0
4.7360005 2.2691088 0.63081807 0
4.7380004 2.2623515 0.63092268 0
4.7400002 2.2555871 0.63102734 0
4.7420001 2.2488155 0.63113195 0
4.7440004 2.2420371 0.63123655 0
4.7460003 2.2352509 0.63134116 0
4.7480001 2.2284579 0.63144577 0
4.7500005 2.2216578 0.63155043 0
4.7520003 2.2148499 0.63165504 0
4.7540002 2.208035 0.63175964 0
4.7560005 2.2012134 0.63186431 0
4.7580004 2.1943839 0.63196892 0
4.7600002 2.1875474 0.63207352 0
4.7620001 2.1807039 0.63217813 0
4.7640004 2.1738529 0.63228279 0
4.7660003 2.166995 0.6323874 0
4.7680001 2.1601295 0.63249201 0
4.7700005 2.1532571 0.63259661 0
4.7720003 2.1463773 0.63270128 0
4.7740002 2.1394904 0.63280588 0
4.7760005 2.1325965 0.63291049 0
4.7780004 2.125695 0.6330151 0
4.7800002 2.1187863 0.6331197 0
4.7820005 2.1118708 0.63322437 0
4.7840004 2.1049476 0.63332897 0
4.7870002 2.0985062 0.63348591 0
4.7890005 2.091567 0.63359058 0
4.7910004 2.0846205 0.63369513 0
4.8250003 2.0931361 0.63547373 0
4.6890001 2.4296906 0.62062293 0
4.6910005 2.423105 0.62072396 0
4.6930003 2.416512 0.62082499 0
4.6950002 2.4099119 0.62092602 0
4.6960001 2.4027345 0.62097651 0
4.6980004 2.396122 0.62107754 0
4.7000003 2.3895018 0.62117851 0
4.7020001 2.3828745 0.62127954 0
4.7040005 2.3762405 0.62138057 0
4.7060003 2.3695986 0.62148154 0
4.7080002 2.3629496 0.62158257 0
4.7100005 2.3562939 0.6216836 0
4.7120004 2.3496306 0.62178463 0
4.7140002 2.3429601 0.62188566 0
4.7160001 2.3362823 0.62198663 0
4.7180004 2.3295975 0.62208766 0
4.7200003 2.3229053 0.62218869 0
4.7220001 2.316206 0.62228966 0
4.7240005 2.3094995 0.62239069 0
4.7260003 2.3027856 0.62249172 0
4.7280002 2.2960646 0.62259269 0
4.7300005 2.2893367 0.62269372 0
4.7320004 2.2826009 0.62279475 0
4.7340002 2.2758582 0.62289572 0
4.7360005 2.2691088 0.62299681 0
4.7380004 2.2623515 0.62309778 0
4.7400002 2.2555871 0.62319881 0
4.7420001 2.2488155 0.62329984 0
4.7440004 2.2420371 0.62340081 0
4.7460003 2.2352509 0.62350184 0
4.7480001 2.2284579 0.62360287 0
4.7500005 2.2216578 0.62370384 0
4.7520003 2.2148499 0.62380487 0
4.7540002 2.208035 0.6239059 0
4.7560005 2.2012134 0.62400687 0
4.7580004 2.1943839 0.6241079 0
4.7600002 2.1875474 0.62420893 0
4.7620001 2.1807039 0.6243099 0
4.7640004 2.1738529 0.62441099 0
4.7660003 2.166995 0.62451196 0
4.7680001 2.1601295 0.62461299 0
4.7700005 2.1532571 0.62471402 0
4.7720003 2.1463773 0.62481499 0
4.7740002 2.1394904 0.62491602 0
4.7760005 2.1325965 0.62501705 0
4.7780004 2.125695 0.62511802 0
4.7800002 2.1187863 0.62521905 0
4.7820005 2.1118708 0.62532008 0
4.7840004 2.1049476 0.62542105 0
4.7870002 2.0985062 0.62557256 0
4.7890005 2.091567 0.62567365 0
4.7910004 2.0846205 0.62577462 0
4.8250003 2.0931361 0.62749183 0
4.6890001 2.4296906 0.61288643 0
4.6910005 2.423105 0.61298382 0
4.6930003 2.416512 0.61308122 0
4.6950002 2.4099119 0.61317861 0
4.6960001 2.4027345 0.61322731 0
4.6980004 2.396122 0.61332476 0
4.7000003 2.3895018 0.61342216 0
4.7020001 2.3828745 0.61351955 0
4.7040005 2.3762405 0.61361694 0
4.7060003 2.3695986 0.61371434 0
4.7080002 2.3629496 0.61381173 0
4.7100005 2.3562939 0.61390918 0
4.7120004 2.3496306 0.61400658 0
4.7140002 2.3429601 0.61410397 0
4.7160001 2.3362823 0.61420137 0
4.7180004 2.3295975 0.61429882 0
4.7200003 2.3229053 0.61439621 0
4.7220001 2.316206 0.61449361 0
4.7240005 2.3094995 0.614591 0
4.7260003 2.3027856 0.6146884 0
4.7280002 2.2960646 0.61478579 0
4.7300005 2.2893367 0.61488324 0
4.7320004 2.2826009 0.61498064 0
4.7340002 2.2758582 0.61507803 0
4.7360005 2.2691088 0.61517549 0
4.7380004 2.2623515 0.61527288 0
4.7400002 2.2555871 0.61537027 0
4.7420001 2.2488155 0.61546767 0
4.7440004 2.2420371 0.61556506 0
4.7460003 2.2352509 0.61566246 0
4.7480001 2.2284579 0.61575985 0
4.7500005 2.2216578 0.6158573 0
4.7520003 2.2148499 0.6159547 0
4.7540002 2.208035 0.61605209 0
4.7560005 2.2012134 0.61614954 0
4.7580004 2.1943839 0.61624694 0
4.7600002 2.1875474 0.61634433 0
4.7620001 2.1807039 0.61644173 0
4.7640004 2.1738529 0.61653912 0
4.7660003 2.166995 0.61663651 0
4.7680001 2.1601295 0.61673391 0
4.7700005 2.1532571 0.61683136 0
4.7720003 2.1463773 0.61692876 0
4.7740002 2.1394904 0.61702615 0
4.7760005 2.1325965 0.6171236 0
4.7780004 2.125695 0.617221 0
4.7800002 2.1187863 0.61731839 0
4.7820005 2.1118708 0.61741579 0
4.7840004 2.1049476 0.61751318 0
4.7870002 2.0985062 0.61765933 0
4.7890005 2.091567 0.61775672 0
4.7910004 2.0846205 0.61785412 0
4.8250003 2.0931361 0.61950999 0
4.6890001 2.4296906 0.60514987 0
4.6910005 2.423105 0.60524368 0
4.6930003 2.416512 0.6053375 0
4.6950002 2.4099119 0.60543126 0
4.6960001 2.4027345 0.60547817 0
4.6980004 2.396122 0.60557199 0
4.7000003 2.3895018 0.6056658 0
4.7020001 2.3828745 0.60575956 0
4.7040005 2.3762405 0.60585338 0
4.7060003 2.3695986 0.6059472 0
4.7080002 2.3629496 0.60604095 0
4.7100005 2.3562939 0.60613477 0
4.7120004 2.3496306 0.60622859 0
4.7140002 2.3429601 0.60632235 0
4.7160001 2.3362823 0.60641617 0
4.7180004 2.3295975 0.60650992 0
4.7200003 2.3229053 0.60660374 0
4.7220001 2.316206 0.60669756 0
4.7240005 2.3094995 0.60679138 0
4.7260003 2.3027856 0.60688514 0
4.7280002 2.2960646 0.60697895 0
4.7300005 2.2893367 0.60707277 0
4.7320004 2.2826009 0.60716653 0
4.7340002 2.2758582 0.60726035 0
4.7360005 2.2691088 0.60735416 0
4.7380004 2.2623515 0.60744798 0
4.7400002 2.2555871 0.60754174 0
4.7420001 2.2488155 0.6076355 0
4.7440004 2.2420371 0.60772932 0
4.7460003 2.2352509 0.60782313 0
4.7480001 2.2284579 0.60791695 0
4.7500005 2.2216578 0.60801071 0
4.7520003 2.2148499 0.60810453 0
4.7540002 2.208035 0.60819829 0
4.7560005 2.2012134 0.6082921 0
4.7580004 2.1943839 0.60838592 0
4.7600002 2.1875474 0.60847974 0
4.7620001 2.1807039 0.6085735 0
4.7640004 2.1738529 0.60866731 0
4.7660003 2.166995 0.60876113 0
4.7680001 2.1601295 0.60885489 0
4.7700005 2.1532571 0.60894871 0
4.7720003 2.1463773 0.60904253 0
4.7740002 2.1394904 0.60913628 0
4.7760005 2.1325965 0.6092301 0
4.7780004 2.125695 0.60932386 0
4.7800002 2.1187863 0.60941768 0
4.7820005 2.1118708 0.60951149 0
4.7840004 2.1049476 0.60960531 0
4.7870002 2.0985062 0.60974598 0
4.7890005 2.091567 0.6098398 0
4.7910004 2.0846205 0.60993361 0
4.8250003 2.0931361 0.61152816 0
4.6890001 2.4296906 0.59741336 0
4.6910005 2.423105 0.59750354 0
4.6930003 2.416512 0.59759372 0
4.6950002 2.4099119 0.59768391 0
4.6960001 2.4027345 0.59772903 0
4.6980004 2.396122 0.59781921 0
4.7000003 2.3895018 0.59790939 0
4.7020001 2.3828745 0.59799957 0
4.7040005 2.3762405 0.59808981 0
4.7060003 2.3695986 0.59818 0
4.7080002 2.3629496 0.59827018 0
4.7100005 2.3562939 0.59836036 0
4.7120004 2.3496306 0.59845054 0
4.7140002 2.3429601 0.59854072 0
4.7160001 2.3362823 0.59863091 0
4.7180004 2.3295975 0.59872115 0
4.7200003 2.3229053 0.59881133 0
4.7220001 2.316206 0.59890151 0
4.7240005 2.3094995 0.59899169 0
4.7260003 2.3027856 0.59908187 0
4.7280002 2.2960646 0.59917206 0
4.7300005 2.2893367 0.59926224 0
4.7320004 2.2826009 0.59935248 0
4.7340002 2.2758582 0.5994426 0
4.7360005 2.2691088 0.59953284 0
4.7380004 2.2623515 0.59962302 0
4.7400002 2.2555871 0.59971321 0
4.7420001 2.2488155 0.59980339 0
4.7440004 2.2420371 0.59989357 0
4.7460003 2.2352509 0.59998375 0
4.7480001 2.2284579 0.60007393 0
4.7500005 2.2216578 0.60016418 0
4.7520003 2.2148499 0.60025436 0
4.7540002 2.208035 0.60034454 0
4.7560005 2.2012134 0.60043472 0
4.7580004 2.1943839 0.6005249 0
4.7600002 2.1875474 0.60061508 0
4.7620001 2.1807039 0.60070527 0
4.7640004 2.1738529 0.60079551 0
4.7660003 2.166995 0.60088569 0
4.7680001 2.1601295 0.60097587 0
4.7700005 2.1532571 0.60106605 0
4.7720003 2.1463773 0.60115623 0
4.7740002 2.1394904 0.60124642 0
4.7760005 2.1325965 0.60133666 0
4.7780004 2.125695 0.60142684 0
4.7800002 2.1187863 0.60151702 0
4.7820005 2.1118708 0.6016072 0
4.7840004 2.1049476 0.60169739 0
4.7870002 2.0985062 0.60183269 0
4.7890005 2.091567 0.60192287 0
4.7910004 2.0846205 0.60201305 0
4.8250003 2.0931361 0.60354632 0
4.6890001 2.4296906 0.5896768 0
4.6910005 2.423105 0.5897634 0
4.6930003 2.416512 0.58984995 0
4.6950002 2.4099119 0.58993655 0
4.6960001 2.4027345 0.58997989 0
4.6980004 2.396122 0.59006643 0
4.7000003 2.3895018 0.59015304 0
4.7020001 2.3828745 0.59023958 0
4.7040005 2.3762405 0.59032619 0
4.7060003 2.3695986 0.5904128 0
4.7080002 2.3629496 0.59049934 0
4.7100005 2.3562939 0.59058595 0
4.7120004 2.3496306 0.59067249 0
4.7140002 2.3429601 0.5907591 0
4.7160001 2.3362823 0.5908457 0
4.7180004 2.3295975 0.59093225 0
4.7200003 2.3229053 0.59101886 0
4.7220001 2.316206 0.5911054 0
4.7240005 2.3094995 0.59119201 0
4.7260003 2.3027856 0.59127861 0
4.7280002 2.2960646 0.59136516 0
4.7300005 2.2893367 0.59145176 0
4.7320004 2.2826009 0.59153831 0
4.7340002 2.2758582 0.59162492 0
4.7360005 2.2691088 0.59171152 0
4.7380004 2.2623515 0.59179807 0
4.7400002 2.2555871 0.59188467 0
4.7420001 2.2488155 0.59197128 0
4.7440004 2.2420371 0.59205782 0
4.7460003 2.2352509 0.59214443 0
4.7480001 2.2284579 0.59223104 0
4.7500005 2.2216578 0.59231758 0
4.7520003 2.2148499 0.59240419 0
4.7540002 2.208035 0.59249073 0
4.7560005 2.2012134 0.59257734 0
4.7580004 2.1943839 0.59266394 0
4.7600002 2.1875474 0.59275049 0
4.7620001 2.1807039 0.5928371 0
4.7640004 2.1738529 0.59292364 0
4.7660003 2.166995 0.59301025 0
4.7680001 2.1601295 0.59309685 0
4.7700005 2.1532571 0.5931834 0
4.7720003 2.1463773 0.59327 0
4.7740002 2.1394904 0.59335661 0
4.7760005 2.1325965 0.59344316 0
4.7780004 2.125695 0.59352976 0
4.7800002 2.1187863 0.59361637 0
4.7820005 2.1118708 0.59370291 0
4.7840004 2.1049476 0.59378952 0
4.7870002 2.0985062 0.5939194 0
4.7890005 2.091567 0.59400594 0
4.7910004 2.0846205 0.59409255 0
4.8250003 2.0931361 0.59556448 0
4.6890001 2.4296906 0.58194029 0
4.6910005 2.423105 0.58202326 0
4.6930003 2.416512 0.58210623 0
4.6950002 2.4099119 0.5821892 0
4.6960001 2.4027345 0.58223069 0
4.6980004 2.396122 0.58231366 0
4.7000003 2.3895018 0.58239663 0
4.7020001 2.3828745 0.5824796 0
4.7040005 2.3762405 0.58256263 0
4.7060003 2.3695986 0.58264554 0
4.7080002 2.3629496 0.58272851 0
4.7100005 2.3562939 0.58281153 0
4.7120004 2.3496306 0.5828945 0
4.7140002 2.3429601 0.58297747 0
4.7160001 2.3362823 0.58306044 0
4.7180004 2.3295975 0.58314347 0
4.7200003 2.3229053 0.58322638 0
4.7220001 2.316206 0.58330935 0
4.7240005 2.3094995 0.58339238 0
4.7260003 2.3027856 0.58347535 0
4.7280002 2.2960646 0.58355832 0
4.7300005 2.2893367 0.58364129 0
4.7320004 2.2826009 0.58372426 0
4.7340002 2.2758582 0.58380723 0
4.7360005 2.2691088 0.5838902 0
4.7380004 2.2623515 0.58397317 0
4.7400002 2.2555871 0.58405614 0
4.7420001 2.2488155 0.58413911 0
4.7440004 2.2420371 0.58422208 0
4.7460003 2.2352509 0.58430505 0
4.7480001 2.2284579 0.58438802 0
4.7500005 2.2216578 0.58447105 0
4.7520003 2.2148499 0.58455402 0
4.7540002 2.208035 0.58463699 0
4.7560005 2.2012134 0.58471996 0
4.7580004 2.1943839 0.58480293 0
4.7600002 2.1875474 0.5848859 0
4.7620001 2.1807039 0.58496886 0
4.7640004 2.1738529 0.58505189 0
4.7660003 2.166995 0.58513486 0
4.7680001 2.1601295 0.58521783 0
4.7700005 2.1532571 0.5853008 0
4.7720003 2.1463773 0.58538377 0
4.7740002 2.1394904 0.58546674 0
4.7760005 2.1325965 0.58554971 0
4.7780004 2.125695 0.58563268 0
4.7800002 2.1187863 0.58571565 0
4.7820005 2.1118708 0.58579862 0
4.7840004 2.1049476 0.58588159 0
4.7870002 2.0985062 0.58600605 0
4.7890005 2.091567 0.58608902 0
4.7910004 2.0846205 0.58617198 0
4.8250003 2.0931361 0.58758259 0
4.6890001 2.4296906 0.57420373 0
4.6910005 2.423105 0.57428312 0
4.6930003 2.416512 0.57436252 0
4.6950002 2.4099119 0.57444185 0
4.6960001 2.4027345 0.57448155 0
4.6980004 2.396122 0.57456088 0
4.7000003 2.3895018 0.57464027 0
4.7020001 2.3828745 0.57471961 0
4.7040005 2.3762405 0.574799 0
4.7060003 2.3695986 0.57487833 0
4.7080002 2.3629496 0.57495773 0
4.7100005 2.3562939 0.57503712 0
4.7120004 2.3496306 0.57511652 0
4.7140002 2.3429601 0.57519585 0
4.7160001 2.3362823 0.57527518 0
4.7180004 2.3295975 0.57535458 0
4.7200003 2.3229053 0.57543397 0
4.7220001 2.316206 0.5755133 0
4.7240005 2.3094995 0.5755927 0
4.7260003 2.3027856 0.57567203 0
4.7280002 2.2960646 0.57575142 0
4.7300005 2.2893367 0.57583082 0
4.7320004 2.2826009 0.57591015 0
4.7340002 2.2758582 0.57598948 0
4.7360005 2.2691088 0.57606888 0
4.7380004 2.2623515 0.57614827 0
4.7400002 2.2555871 0.57622761 0
4.7420001 2.2488155 0.576307 0
4.7440004 2.2420371 0.57638633 0
4.7460003 2.2352509 0.57646573 0
4.7480001 2.2284579 0.57654512 0
4.7500005 2.2216578 0.57662451 0
4.7520003 2.2148499 0.57670385 0
4.7540002 2.208035 0.57678318 0
4.7560005 2.2012134 0.57686257 0
4.7580004 2.1943839 0.57694197 0
4.7600002 2.1875474 0.5770213 0
4.7620001 2.1807039 0.57710063 0
4.7640004 2.1738529 0.57718003 0
4.7660003 2.166995 0.57725942 0
4.7680001 2.1601295 0.57733876 0
4.7700005 2.1532571 0.57741815 0
4.7720003 2.1463773 0.57749748 0
4.7740002 2.1394904 0.57757688 0
4.7760005 2.1325965 0.57765627 0
4.7780004 2.125695 0.5777356 0
4.7800002 2.1187863 0.57781494 0
4.7820005 2.1118708 0.57789433 0
4.7840004 2.1049476 0.57797372 0
4.7870002 2.0985062 0.57809275 0
4.7890005 2.091567 0.57817215 0
4.7910004 2.0846205 0.57825148 0
4.8250003 2.0931361 0.57960075 0
4.6890001 2.4296906 0.56646723 0
4.6910005 2.423105 0.56654298 0
4.6930003 2.416512 0.56661874 0
4.6950002 2.4099119 0.5666945 0
4.6960001 2.4027345 0.56673241 0
4.6980004 2.396122 0.56680816 0
4.7000003 2.3895018 0.56688392 0
4.7020001 2.3828745 0.56695962 0
4.7040005 2.3762405 0.56703544 0
4.7060003 2.3695986 0.56711119 0
4.7080002 2.3629496 0.56718695 0
4.7100005 2.3562939 0.56726271 0
4.7120004 2.3496306 0.56733847 0
4.7140002 2.3429601 0.56741422 0
4.7160001 2.3362823 0.56748998 0
4.7180004 2.3295975 0.56756574 0
4.7200003 2.3229053 0.5676415 0
4.7220001 2.316206 0.56771725 0
4.7240005 2.3094995 0.56779301 0
4.7260003 2.3027856 0.56786877 0
4.7280002 2.2960646 0.56794453 0
4.7300005 2.2893367 0.56802028 0
4.7320004 2.2826009 0.56809604 0
4.7340002 2.2758582 0.5681718 0
4.7360005 2.2691088 0.56824756 0
4.7380004 2.2623515 0.56832337 0
4.7400002 2.2555871 0.56839907 0
4.7420001 2.2488155 0.56847483 0
4.7440004 2.2420371 0.56855059 0
4.7460003 2.2352509 0.5686264 0
4.7480001 2.2284579 0.5687021 0
4.7500005 2.2216578 0.56877792 0
4.7520003 2.2148499 0.56885368 0
4.7540002 2.208035 0.56892943 0
4.7560005 2.2012134 0.56900519 0
4.7580004 2.1943839 0.56908095 0
4.7600002 2.1875474 0.56915671 0
4.7620001 2.1807039 0.56923246 0
4.7640004 2.1738529 0.56930822 0
4.7660003 2.166995 0.56938398 0
4.7680001 2.1601295 0.56945974 0
4.7700005 2.1532571 0.56953549 0
4.7720003 2.1463773 0.56961125 0
4.7740002 2.1394904 0.56968701 0
4.7760005 2.1325965 0.56976277 0
4.7780004 2.125695 0.56983852 0
4.7800002 2.1187863 0.56991428 0
4.7820005 2.1118708 0.56999004 0
4.7840004 2.1049476 0.5700658 0
4.7870002 2.0985062 0.57017946 0
4.7890005 2.091567 0.57025522 0
4.7910004 2.0846205 0.57033098 0
4.8250003 2.0931361 0.57161891 0
4.6890001 2.4296906 0.55873066 0
4.6910005 2.423105 0.55880284 0
4.6930003 2.416512 0.55887496 0
4.6950002 2.4099119 0.55894715 0
4.6960001 2.4027345 0.55898321 0
4.6980004 2.396122 0.55905539 0
4.7000003 2.3895018 0.55912751 0
4.7020001 2.3828745 0.55919969 0
4.7040005 2.3762405 0.55927181 0
4.7060003 2.3695986 0.55934399 0
4.7080002 2.3629496 0.55941612 0
4.7100005 2.3562939 0.5594883 0
4.7120004 2.3496306 0.55956042 0
4.7140002 2.3429601 0.5596326 0
4.7160001 2.3362823 0.55970472 0
4.7180004 2.3295975 0.5597769 0
4.7200003 2.3229053 0.55984902 0
4.7220001 2.316206 0.55992121 0
4.7240005 2.3094995 0.55999339 0
4.7260003 2.3027856 0.56006551 0
4.7280002 2.2960646 0.56013763 0
4.7300005 2.2893367 0.56020981 0
4.7320004 2.2826009 0.56028199 0
4.7340002 2.2758582 0.56035411 0
4.7360005 2.2691088 0.56042629 0
4.7380004 2.2623515 0.56049842 0
4.7400002 2.2555871 0.5605706 0
4.7420001 2.2488155 0.56064272 0
4.7440004 2.2420371 0.56071484 0
4.7460003 2.2352509 0.56078702 0
4.7480001 2.2284579 0.5608592 0
4.7500005 2.2216578 0.56093132 0
4.7520003 2.2148499 0.56100351 0
4.7540002 2.208035 0.56107563 0
4.7560005 2.2012134 0.56114781 0
4.7580004 2.1943839 0.56121993 0
4.7600002 2.1875474 0.56129211 0
4.7620001 2.1807039 0.56136423 0
4.7640004 2.1738529 0.56143641 0
4.7660003 2.166995 0.56150854 0
4.7680001 2.1601295 0.56158066 0
4.7700005 2.1532571 0.5616529 0
4.7720003 2.1463773 0.56172502 0
4.7740002 2.1394904 0.56179714 0
4.7760005 2.1325965 0.56186932 0
4.7780004 2.125695 0.56194144 0
4.7800002 2.1187863 0.56201363 0
4.7820005 2.1118708 0.56208575 0
4.7840004 2.1049476 0.56215793 0
4.7870002 2.0985062 0.56226617 0
4.7890005 2.091567 0.56233829 0
4.7910004 2.0846205 0.56241047 0
4.8250003 2.0931361 0.56363702 0
4.6890001 2.4296906 0.55099416 0
4.6910005 2.423105 0.5510627 0
4.6930003 2.416512 0.55113125 0
4.6950002 2.4099119 0.55119979 0
4.6960001 2.4027345 0.55123407 0
4.6980004 2.396122 0.55130261 0
4.7000003 2.3895018 0.55137116 0
4.7020001 2.3828745 0.5514397 0
4.7040005 2.3762405 0.55150825 0
4.7060003 2.3695986 0.55157679 0
4.7080002 2.3629496 0.55164534 0
4.7100005 2.3562939 0.55171388 0
4.7120004 2.3496306 0.55178243 0
4.7140002 2.3429601 0.55185097 0
4.7160001 2.3362823 0.55191946 0
4.7180004 2.3295975 0.55198807 0
4.7200003 2.3229053 0.55205661 0
4.7220001 2.316206 0.55212516 0
4.7240005 2.3094995 0.5521937 0
4.7260003 2.3027856 0.55226219 0
4.7280002 2.2960646 0.55233079 0
4.7300005 2.2893367 0.55239934 0
4.7320004 2.2826009 0.55246788 0
4.7340002 2.2758582 0.55253637 0
4.7360005 2.2691088 0.55260497 0
4.7380004 2.2623515 0.55267352 0
4.7400002 2.2555871 0.55274206 0
4.7420001 2.2488155 0.55281055 0
4.7440004 2.2420371 0.5528791 0
4.7460003 2.2352509 0.55294764 0
4.7480001 2.2284579 0.55301619 0
4.7500005 2.2216578 0.55308479 0
4.7520003 2.2148499 0.55315328 0
4.7540002 2.208035 0.55322182 0
4.7560005 2.2012134 0.55329043 0
4.7580004 2.1943839 0.55335891 0
4.7600002 2.1875474 0.55342746 0
4.7620001 2.1807039 0.553496 0
4.7640004 2.1738529 0.55356455 0
4.7660003 2.166995 0.55363309 0
4.7680001 2.1601295 0.55370164 0
4.7700005 2.1532571 0.55377018 0
4.7720003 2.1463773 0.55383873 0
4.7740002 2.1394904 0.55390728 0
4.7760005 2.1325965 0.55397582 0
4.7780004 2.125695 0.55404437 0
4.7800002 2.1187863 0.55411291 0
4.7820005 2.1118708 0.55418146 0
4.7840004 2.1049476 0.55425 0
4.7870002 2.0985062 0.55435288 0
4.7890005 2.091567 0.55442142 0
4.7910004 2.0846205 0.55448997 0
4.8250003 2.0931361 0.55565518 0
4.6890001 2.4296906 0.54325759 0
4.6910005 2.423105 0.54332256 0
4.6930003 2.416512 0.54338747 0
4.6950002 2.4099119 0.54345238 0
4.6960001 2.4027345 0.54348493 0
4.6980004 2.396122 0.54354984 0
4.7000003 2.3895018 0.54361475 0
4.7020001 2.3828745 0.54367971 0
4.7040005 2.3762405 0.54374468 0
4.7060003 2.3695986 0.54380959 0
4.7080002 2.3629496 0.5438745 0
4.7100005 2.3562939 0.54393947 0
4.7120004 2.3496306 0.54400438 0
4.7140002 2.3429601 0.54406929 0
4.7160001 2.3362823 0.54413426 0
4.7180004 2.3295975 0.54419923 0
4.7200003 2.3229053 0.54426414 0
4.7220001 2.316206 0.54432905 0
4.7240005 2.3094995 0.54439402 0
4.7260003 2.3027856 0.54445899 0
4.7280002 2.2960646 0.54452389 0
4.7300005 2.2893367 0.5445888 0
4.7320004 2.2826009 0.54465377 0
4.7340002 2.2758582 0.54471868 0
4.7360005 2.2691088 0.54478365 0
4.7380004 2.2623515 0.54484856 0
4.7400002 2.2555871 0.54491353 0
4.7420001 2.2488155 0.54497844 0
4.7440004 2.2420371 0.54504341 0
4.7460003 2.2352509 0.54510832 0
4.7480001 2.2284579 0.54517329 0
4.7500005 2.2216578 0.5452382 0
4.7520003 2.2148499 0.54530311 0
4.7540002 2.208035 0.54536808 0
4.7560005 2.2012134 0.54543304 0
4.7580004 2.1943839 0.54549795 0
4.7600002 2.1875474 0.54556286 0
4.7620001 2.1807039 0.54562783 0
4.7640004 2.1738529 0.54569274 0
4.7660003 2.166995 0.54575771 0
4.7680001 2.1601295 0.54582262 0
4.7700005 2.1532571 0.54588759 0
4.7720003 2.1463773 0.5459525 0
4.7740002 2.1394904 0.54601741 0
4.7760005 2.1325965 0.54608238 0
4.7780004 2.125695 0.54614735 0
4.7800002 2.1187863 0.54621226 0
4.7820005 2.1118708 0.54627717 0
4.7840004 2.1049476 0.54634213 0
4.7870002 2.0985062 0.54643953 0
4.7890005 2.091567 0.5465045 0
4.7910004 2.0846205 0.54656941 0
