# .PCD v0.7 - Point Cloud Data file format
VERSION 0.7
FIELDS x y z intensity
SIZE 4 4 4 4
TYPE F F F F
COUNT 1 1 1 1
WIDTH 1463
HEIGHT 1
VIEWPOINT 0 0 0 1 0 0 0
POINTS 1463
DATA ascii
5.4020004 1.0998764 1.1258119 0
5.4040003 1.0913084 1.1261005 0
5.4070005 1.0829586 1.1265335 0
5.4110003 1.0748215 1.1271106 0
5.4160004 1.0668919 1.1278322 0
5.3970003 1.1437991 1.1160768 0
5.3950005 1.1343129 1.1157918 0
5.3940005 1.1250684 1.1156493 0
5.3940005 1.1160603 1.1156493 0
5.3950005 1.1072829 1.1157918 0
5.3970003 1.0987309 1.1160768 0
5.3990002 1.0901719 1.1163617 0
5.4020004 1.0818311 1.1167892 0
5.4060001 1.0737032 1.1173593 0
5.4100003 1.0655608 1.1179292 0
5.4150004 1.057624 1.1186419 0
5.3980002 1.162068 1.1072038 0
5.3940005 1.1520932 1.1066411 0
5.3920002 1.1426086 1.1063596 0
5.3900003 1.1331314 1.1060783 0
5.3890004 1.123896 1.1059376 0
5.3890004 1.1148968 1.1059376 0
5.3900003 1.1061283 1.1060783 0
5.3920002 1.0975856 1.1063596 0
5.3940005 1.0890356 1.1066411 0
5.3970003 1.0807036 1.1070632 0
5.4010005 1.0725847 1.107626 0
5.4050002 1.0644513 1.1081887 0
5.4100003 1.0565237 1.1088922 0
5.4170003 1.0490143 1.1098771 0
5.4240003 1.0414798 1.1108619 0
5.3940005 1.1611012 1.0976329 0
5.3910003 1.1513734 1.0972161 0
5.3880005 1.1416563 1.0967995 0
5.3870006 1.1324226 1.0966606 0
5.3860002 1.1231923 1.0965216 0
5.3870006 1.1144314 1.0966606 0
5.3870006 1.1054357 1.0966606 0
5.3890004 1.0968983 1.0969384 0
5.3910003 1.0883536 1.0972161 0
5.3940005 1.0800273 1.0976329 0
5.3970003 1.0716901 1.0980495 0
5.4010005 1.0635639 1.098605 0
5.4060001 1.0556433 1.0992996 0
5.4120002 1.0479231 1.1001329 0
5.4190001 1.0403976 1.1011051 0
5.4270005 1.0330616 1.1022164 0
5.3950005 1.1703531 1.0887617 0
5.3910003 1.1603761 1.0882133 0
5.3880005 1.1506536 1.0878022 0
5.3850002 1.1409419 1.0873908 0
5.3840003 1.1317136 1.0872537 0
5.3830004 1.122489 1.0871166 0
5.3840003 1.1137333 1.0872537 0
5.3850002 1.1049739 1.0873908 0
5.3860002 1.096211 1.0875279 0
5.3880005 1.0876719 1.0878022 0
5.3910003 1.0793508 1.0882133 0
5.3940005 1.0710191 1.0886246 0
5.3990002 1.0631201 1.0893101 0
5.4030004 1.0549833 1.0898584 0
5.4090004 1.0472684 1.090681 0
5.4160004 1.0397483 1.0916406 0
5.4230003 1.0322028 1.0926002 0
5.3970003 1.1798537 1.0800222 0
5.3920002 1.1696224 1.0793458 0
5.3880005 1.159651 1.0788047 0
5.3850002 1.1499338 1.0783988 0
5.3830004 1.1404657 1.0781282 0
5.3820004 1.131241 1.0779929 0
5.3820004 1.1222545 1.0779929 0
5.3820004 1.1132679 1.0779929 0
5.3830004 1.1045122 1.0781282 0
5.3840003 1.0957528 1.0782635 0
5.3860002 1.0872172 1.0785341 0
5.3890004 1.0789 1.0789399 0
5.3920002 1.0705717 1.0793458 0
5.3960004 1.0624546 1.0798869 0
5.4010005 1.0545431 1.0805634 0
5.4070005 1.0468318 1.0813751 0
5.4130001 1.0390989 1.0821868 0
5.4210005 1.0317736 1.0832691 0
5.4290004 1.0244195 1.0843514 0
5.3960004 1.1796083 1.0708752 0
5.3910003 1.1693789 1.0702077 0
5.3870006 1.1594093 1.0696738 0
5.3840003 1.149694 1.0692734 0
5.3820004 1.1402276 1.0690064 0
5.3810005 1.1310047 1.0688729 0
5.3810005 1.1220199 1.0688729 0
5.3810005 1.1130352 1.0688729 0
5.3820004 1.1042813 1.0690064 0
5.3830004 1.0955238 1.06914 0
5.3850002 1.08699 1.0694069 0
5.3880005 1.0786744 1.0698073 0
5.3910003 1.070348 1.0702077 0
5.3950005 1.0622327 1.0707417 0
5.4000001 1.054323 1.071409 0
5.4050002 1.0463953 1.0720764 0
5.4120002 1.0388824 1.0730108 0
5.4190001 1.0313442 1.0739452 0
5.4270005 1.0239938 1.0750132 0
5.3950005 1.179363 1.0617317 0
5.3900003 1.1691355 1.0610732 0
5.3860002 1.1591675 1.0605465 0
5.3830004 1.149454 1.0601516 0
5.3820004 1.1402276 1.0600199 0
5.3800001 1.1307684 1.0597564 0
5.3800001 1.1217854 1.0597564 0
5.3800001 1.1128024 1.0597564 0
5.3810005 1.1040504 1.0598881 0
5.3820004 1.0952947 1.0600199 0
5.3840003 1.0867627 1.0602832 0
5.3870006 1.078449 1.0606782 0
5.3910003 1.070348 1.0612049 0
5.3940005 1.0620109 1.0616 0
5.3990002 1.0541029 1.0622584 0
5.4050002 1.0463953 1.0630484 0
5.4110003 1.0386659 1.0638385 0
5.4180002 1.0311296 1.0647602 0
5.4260001 1.0237808 1.0658137 0
5.3950005 1.179363 1.0527216 0
5.3900003 1.1691355 1.0520723 0
5.3870006 1.1594093 1.0516826 0
5.3840003 1.149694 1.051293 0
5.3820004 1.1402276 1.0510333 0
5.3810005 1.1310047 1.0509033 0
5.3800001 1.1217854 1.0507735 0
5.3810005 1.1130352 1.0509033 0
5.3820004 1.1042813 1.0510333 0
5.3830004 1.0955238 1.0511632 0
5.3850002 1.08699 1.0514228 0
5.3880005 1.0786744 1.0518125 0
5.3910003 1.070348 1.0522021 0
5.3950005 1.0622327 1.0527216 0
5.3990002 1.0541029 1.0532411 0
5.4050002 1.0463953 1.0540204 0
5.4110003 1.0386659 1.0547996 0
5.4180002 1.0311296 1.0557088 0
5.4260001 1.0237808 1.0567477 0
5.4350004 1.0166144 1.0579165 0
5.3960004 1.1796083 1.0438397 0
5.3910003 1.1693789 1.0431993 0
5.3870006 1.1594093 1.0426871 0
5.3850002 1.1499338 1.0424309 0
5.3830004 1.1404657 1.0421748 0
5.3820004 1.131241 1.0420467 0
5.3810005 1.1220199 1.0419186 0
5.3820004 1.1132679 1.0420467 0
5.3820004 1.1042813 1.0420467 0
5.3840003 1.0957528 1.0423028 0
5.3860002 1.0872172 1.0425589 0
5.3880005 1.0786744 1.0428151 0
5.3920002 1.0705717 1.0433273 0
5.3950005 1.0622327 1.0437115 0
5.4000001 1.054323 1.0443519 0
5.4050002 1.0463953 1.0449923 0
5.4110003 1.0386659 1.0457606 0
5.4180002 1.0311296 1.0466572 0
5.4260001 1.0237808 1.0476818 0
5.4360003 1.0168254 1.0489625 0
5.3980002 1.1800989 1.0350803 0
5.3930001 1.1698658 1.034449 0
5.3890004 1.1598928 1.033944 0
5.3860002 1.1501738 1.0335652 0
5.3840003 1.1407037 1.0333126 0
5.3830004 1.1314772 1.0331864 0
5.3820004 1.1222545 1.0330601 0
5.3830004 1.1135005 1.0331864 0
5.3830004 1.1045122 1.0331864 0
5.3850002 1.095982 1.0334389 0
5.3870006 1.0874445 1.0336914 0
5.3890004 1.0789 1.033944 0
5.3930001 1.0707954 1.034449 0
5.3960004 1.0624546 1.0348278 0
5.4010005 1.0545431 1.0354592 0
5.4060001 1.0466135 1.0360905 0
5.4130001 1.0390989 1.0369743 0
5.4200006 1.031559 1.0378582 0
5.4280005 1.0242066 1.0388684 0
5.4370003 1.0170366 1.0400047 0
5.4010005 1.1808349 1.0264384 0
5.3960004 1.1705965 1.0258161 0
5.3920002 1.1606178 1.0253181 0
5.3890004 1.1508936 1.0249448 0
5.3870006 1.1414181 1.0246959 0
5.3860002 1.1321862 1.0245713 0
5.3850002 1.1229578 1.0244468 0
5.3850002 1.1139659 1.0244468 0
5.3860002 1.1052048 1.0245713 0
5.3870006 1.0964402 1.0246959 0
5.3890004 1.0878991 1.0249448 0
5.3920002 1.0795763 1.0253181 0
5.3950005 1.0712428 1.0256915 0
5.3990002 1.0631201 1.0261893 0
5.4030004 1.0549833 1.0266873 0
5.4090004 1.0472684 1.027434 0
5.4150004 1.0395318 1.0281808 0
5.4220004 1.0319883 1.029052 0
5.4300003 1.0246323 1.0300478 0
5.4390001 1.0174586 1.0311679 0
5.4040003 1.1815708 1.0177854 0
5.3980002 1.1710836 1.0170494 0
5.3940005 1.1611012 1.0165589 0
5.3920002 1.1516132 1.0163136 0
5.3900003 1.1421324 1.0160682 0
5.3880005 1.1326588 1.0158229 0
5.3880005 1.1236615 1.0158229 0
5.3880005 1.114664 1.0158229 0
5.3890004 1.1058975 1.0159456 0
5.3900003 1.0971274 1.0160682 0
5.3920002 1.0885808 1.0163136 0
5.3940005 1.0800273 1.0165589 0
5.3980002 1.0719137 1.0170494 0
5.4010005 1.0635639 1.0174174 0
5.4060001 1.0556433 1.0180308 0
5.4110003 1.0477048 1.0186441 0
5.4170003 1.0399647 1.01938 0
5.4250002 1.0326322 1.0203613 0
5.4330006 1.0252709 1.0213425 0
5.4030004 1.1723011 1.0086384 0
5.3990002 1.1623098 1.0081549 0
5.3960004 1.1525729 1.0077924 0
5.3930001 1.1428466 1.0074297 0
5.3920002 1.1336039 1.007309 0
5.3910003 1.1243649 1.0071881 0
5.3910003 1.1153622 1.0071881 0
5.3920002 1.1065902 1.007309 0
5.3930001 1.0978147 1.0074297 0
5.3950005 1.0892628 1.0076716 0
5.3980002 1.0809292 1.008034 0
5.4010005 1.0725847 1.0083966 0
5.4050002 1.0644513 1.00888 0
5.4100003 1.0565237 1.0094843 0
5.4150004 1.0485779 1.0100887 0
5.4210005 1.0408305 1.0108137 0
5.4290004 1.0334909 1.0117806 0
5.4370003 1.0261223 1.0127474 0
5.4080005 1.1735188 1.0002091 0
5.4040003 1.1635183 0.99973297 0
5.4000001 1.1535324 0.99925673 0
5.3980002 1.1440372 0.99901867 0
5.3960004 1.1345491 0.99878049 0
5.3960004 1.1255374 0.99878049 0
5.3960004 1.1165255 0.99878049 0
5.3960004 1.1075138 0.99878049 0
5.3980002 1.09896 0.99901867 0
5.3990002 1.0901719 0.99913764 0
5.4020004 1.0818311 0.99949479 0
5.4050002 1.0734794 0.99985194 0
5.4090004 1.065339 1.0003282 0
5.4140005 1.057404 1.0009235 0
5.4190001 1.0494509 1.0015187 0
5.4250002 1.0416963 1.002233 0
5.4330006 1.0343496 1.0031855 0
5.4100003 1.1649686 0.99141014 0
5.4060001 1.154972 0.99094117 0
5.4030004 1.1452278 0.99058938 0
5.4010005 1.1357307 0.99035501 0
5.4000001 1.1264753 0.99023771 0
5.4000001 1.1174562 0.99023771 0
5.4010005 1.1086682 0.99035501 0
5.4020004 1.0998764 0.9904722 0
5.4040003 1.0913084 0.99070668 0
5.4060001 1.0827329 0.99094117 0
5.4100003 1.0745978 0.99141014 0
5.4140005 1.0664482 0.99187922 0
5.4190001 1.0585042 0.99246538 0
5.4250002 1.0507605 0.99316883 0
5.4310002 1.0429951 0.9938724 0
5.4390001 1.0356373 0.99481034 0
5.4100003 1.1468945 0.98237312 0
5.4080005 1.1373848 0.98214221 0
5.4070005 1.1281168 0.98202682 0
5.4070005 1.1190852 0.98202682 0
5.4070005 1.1100535 0.98202682 0
5.4080005 1.1012509 0.98214221 0
5.4100003 1.092672 0.98237312 0
5.4130001 1.0843112 0.98271942 0
5.4160004 1.0759398 0.98306572 0
5.4200006 1.0677795 0.98352754 0
5.4250002 1.0598246 0.98410475 0
5.4310002 1.05207 0.98479736 0
5.4370003 1.0442938 0.98549008 0
5.4140005 1.1116698 0.97379053 0
5.4150004 1.1028545 0.97390413 0
5.4170003 1.094263 0.97413146 0
5.4190001 1.0856642 0.97435868 0
5.4220004 1.0772818 0.97469974 0
5.4270005 1.0693325 0.97526789 0
5.4320002 1.061365 0.97583604 0
5.3320003 1.1194261 0.91999018 0
5.3310003 1.1102952 0.91988552 0
5.3320003 1.1016333 0.91999018 0
5.3350005 1.0934296 0.92030406 0
5.3390002 1.0854441 0.92072248 0
5.3320003 1.1283225 0.91109383 0
5.3300004 1.1189535 0.9108882 0
5.3300004 1.1100607 0.9108882 0
5.3310003 1.1014006 0.91099095 0
5.3330002 1.0929677 0.91119659 0
5.3370004 1.084986 0.91160786 0
5.3430004 1.0774443 0.91222477 0
5.3330002 1.1374587 0.90229845 0
5.3310003 1.1280843 0.90209639 0
5.3300004 1.1189535 0.90199542 0
5.3300004 1.1100607 0.90199542 0
5.3310003 1.1014006 0.90209639 0
5.3340001 1.0931987 0.90239942 0
5.3380003 1.0852151 0.90280354 0
5.3430004 1.0774443 0.90330857 0
5.3340001 1.1465986 0.89349943 0
5.3310003 1.136979 0.89320183 0
5.3290005 1.1276082 0.89300346 0
5.3290005 1.1187172 0.89300346 0
5.3300004 1.1100607 0.89310265 0
5.3310003 1.1014006 0.89320183 0
5.3340001 1.0931987 0.89349943 0
5.3380003 1.0852151 0.89389622 0
5.3430004 1.0774443 0.89439237 0
5.3510003 1.0703318 0.89518607 0
5.3320003 1.1461152 0.88440466 0
5.3300004 1.136739 0.88420987 0
5.3290005 1.1276082 0.88411248 0
5.3300004 1.1189535 0.88420987 0
5.3300004 1.1100607 0.88420987 0
5.3310003 1.1014006 0.88430727 0
5.3340001 1.0931987 0.88459945 0
5.3380003 1.0852151 0.88498908 0
5.3430004 1.0774443 0.88547611 0
5.3510003 1.0703318 0.88625538 0
5.3330002 1.1552551 0.87560385 0
5.3300004 1.1456318 0.8753171 0
5.3290005 1.1364992 0.87522149 0
5.3290005 1.1276082 0.87522149 0
5.3300004 1.1189535 0.8753171 0
5.3300004 1.1100607 0.8753171 0
5.3310003 1.1014006 0.8754127 0
5.3340001 1.0931987 0.87569952 0
5.3380003 1.0852151 0.87608188 0
5.3430004 1.0774443 0.87655985 0
5.3510003 1.0703318 0.8773247 0
5.3340001 1.1643986 0.86679947 0
5.3300004 1.1545246 0.86642432 0
5.3290005 1.14539 0.8663305 0
5.3280005 1.1362593 0.86623669 0
5.3290005 1.1276082 0.8663305 0
5.3310003 1.1191899 0.86651814 0
5.3300004 1.1100607 0.86642432 0
5.3310003 1.1014006 0.86651814 0
5.3340001 1.0931987 0.86679947 0
5.3380003 1.0852151 0.86717463 0
5.3430004 1.0774443 0.86764365 0
5.3510003 1.0703318 0.86839408 0
5.3310003 1.1636627 0.85762352 0
5.3290005 1.154281 0.85743952 0
5.3280005 1.1451484 0.85734755 0
5.3280005 1.1362593 0.85734755 0
5.3300004 1.1278462 0.85753155 0
5.3310003 1.1191899 0.85762352 0
5.3300004 1.1100607 0.85753155 0
5.3310003 1.1014006 0.85762352 0
5.3340001 1.0931987 0.85789949 0
5.3380003 1.0852151 0.85826749 0
5.3430004 1.0774443 0.85872746 0
5.3510003 1.0703318 0.85946339 0
5.3320003 1.1728044 0.84881914 0
5.3290005 1.163172 0.84854853 0
5.3280005 1.1540376 0.84845841 0
5.3280005 1.1451484 0.84845841 0
5.3290005 1.1364992 0.84854853 0
5.3310003 1.1280843 0.84872895 0
5.3310003 1.1191899 0.84872895 0
5.3300004 1.1100607 0.84863877 0
5.3310003 1.1014006 0.84872895 0
5.3340001 1.0931987 0.8489995 0
5.3380003 1.0852151 0.84936023 0
5.3430004 1.0774443 0.8498112 0
5.3510003 1.0703318 0.85053277 0
5.3300004 1.1723101 0.839746 0
5.3280005 1.1629268 0.83956921 0
5.3270001 1.1537941 0.83948076 0
5.3280005 1.1451484 0.83956921 0
5.3290005 1.1364992 0.83965755 0
5.3320003 1.1283225 0.83992279 0
5.3310003 1.1191899 0.83983433 0
5.3300004 1.1100607 0.839746 0
5.3310003 1.1014006 0.83983433 0
5.3340001 1.0931987 0.84009951 0
5.3380003 1.0852151 0.84045303 0
5.3430004 1.0774443 0.840895 0
5.3510003 1.0703318 0.84160209 0
5.3310003 1.1814518 0.83093977 0
5.3280005 1.1718159 0.83068001 0
5.3270001 1.1626813 0.83059347 0
5.3270001 1.1537941 0.83059347 0
5.3280005 1.1451484 0.83068001 0
5.3300004 1.136739 0.83085322 0
5.3330002 1.1285605 0.83111292 0
5.3310003 1.1191899 0.83093977 0
5.3300004 1.1100607 0.83085322 0
5.3310003 1.1014006 0.83093977 0
5.3340001 1.0931987 0.83119953 0
5.3380003 1.0852151 0.83154583 0
5.3430004 1.0774443 0.8319788 0
5.3510003 1.0703318 0.8326714 0
5.3320003 1.1905972 0.82212996 0
5.3290005 1.180954 0.82187569 0
5.3270001 1.1715688 0.82170606 0
5.3260002 1.1624361 0.8216213 0
5.3270001 1.1537941 0.82170606 0
5.3290005 1.14539 0.82187569 0
5.3320003 1.1372187 0.82212996 0
5.3330002 1.1285605 0.82221472 0
5.3310003 1.1191899 0.82204521 0
5.3300004 1.1100607 0.82196045 0
5.3310003 1.1014006 0.82204521 0
5.3340001 1.0931987 0.82229948 0
5.3380003 1.0852151 0.82263863 0
5.3430004 1.0774443 0.82306254 0
5.3510003 1.0703318 0.82374078 0
5.3300004 1.1900957 0.81306767 0
5.3270001 1.180456 0.81281871 0
5.3260002 1.1713215 0.81273574 0
5.3260002 1.1624361 0.81273574 0
5.3280005 1.1540376 0.81290174 0
5.3300004 1.1456318 0.81306767 0
5.3340001 1.1376985 0.81339955 0
5.3330002 1.1285605 0.81331658 0
5.3310003 1.1191899 0.81315064 0
5.3300004 1.1100607 0.81306767 0
5.3310003 1.1014006 0.81315064 0
5.3340001 1.0931987 0.81339955 0
5.3380003 1.0852151 0.81373143 0
5.3430004 1.0774443 0.81414634 0
5.3510003 1.0703318 0.8148101 0
5.3310003 1.1992409 0.80425602 0
5.3270001 1.1893435 0.80393136 0
5.3260002 1.1802071 0.80385017 0
5.3260002 1.1713215 0.80385017 0
5.3270001 1.1626813 0.80393136 0
5.3290005 1.154281 0.80409372 0
5.3320003 1.1461152 0.8043372 0
5.3360004 1.1381785 0.80466187 0
5.3330002 1.1285605 0.80441833 0
5.3310003 1.1191899 0.80425602 0
5.3300004 1.1100607 0.8041749 0
5.3310003 1.1014006 0.80425602 0
5.3340001 1.0931987 0.80449951 0
5.3380003 1.0852151 0.80482423 0
5.3430004 1.0774443 0.80523014 0
5.3510003 1.0703318 0.80587947 0
5.3280005 1.1984833 0.79512334 0
5.3260002 1.1890926 0.79496461 0
5.3250003 1.1799582 0.79488528 0
5.3260002 1.1713215 0.79496461 0
5.3270001 1.1626813 0.79504395 0
5.3300004 1.1545246 0.79528213 0
5.3340001 1.1465986 0.79559958 0
5.3390002 1.1388981 0.79599643 0
5.3330002 1.1285605 0.79552019 0
5.3310003 1.1191899 0.79536146 0
5.3300004 1.1100607 0.79528213 0
5.3310003 1.1014006 0.79536146 0
5.3340001 1.0931987 0.79559958 0
5.3380003 1.0852151 0.79591703 0
5.3430004 1.0774443 0.79631388 0
5.3510003 1.0703318 0.79694879 0
5.3290005 1.2076269 0.78631175 0
5.3260002 1.1979783 0.78607905 0
5.3250003 1.1888419 0.7860015 0
5.3250003 1.1799582 0.7860015 0
5.3260002 1.1713215 0.78607905 0
5.3280005 1.1629268 0.78623426 0
5.3320003 1.1550115 0.78654444 0
5.3360004 1.1470821 0.78685474 0
5.3390002 1.1388981 0.78708738 0
5.3330002 1.1285605 0.78662199 0
5.3310003 1.1191899 0.78646684 0
5.3300004 1.1100607 0.78638935 0
5.3310003 1.1014006 0.78646684 0
5.3340001 1.0931987 0.78669953 0
5.3380003 1.0852151 0.78700984 0
5.3430004 1.0774443 0.78739762 0
5.3510003 1.0703318 0.78801811 0
5.3310003 1.2170302 0.77757227 0
5.3270001 1.2071182 0.77726924 0
5.3250003 1.1977258 0.77711773 0
5.3250003 1.1888419 0.77711773 0
5.3250003 1.1799582 0.77711773 0
5.3270001 1.1715688 0.77726924 0
5.3300004 1.1634173 0.77749658 0
5.3340001 1.1554986 0.77779961 0
5.3390002 1.1478071 0.77817833 0
5.3390002 1.1388981 0.77817833 0
5.3330002 1.1285605 0.77772379 0
5.3310003 1.1191899 0.77757227 0
5.3300004 1.1100607 0.77749658 0
5.3310003 1.1014006 0.77757227 0
5.3340001 1.0931987 0.77779961 0
5.3380003 1.0852151 0.77810264 0
5.3430004 1.0774443 0.77848148 0
5.3510003 1.0703318 0.77908754 0
5.3280005 1.2162617 0.76845586 0
5.3250003 1.2066096 0.76823401 0
5.3240004 1.1974733 0.76816005 0
5.3240004 1.1885912 0.76816005 0
5.3260002 1.1802071 0.76830792 0
5.3280005 1.1718159 0.76845586 0
5.3320003 1.1639079 0.76875168 0
5.3360004 1.1559857 0.7690475 0
5.3420005 1.1485323 0.76949126 0
5.3390002 1.1388981 0.76926935 0
5.3330002 1.1285605 0.76882565 0
5.3310003 1.1191899 0.76867771 0
5.3300004 1.1100607 0.7686038 0
5.3310003 1.1014006 0.76867771 0
5.3340001 1.0931987 0.76889956 0
5.3380003 1.0852151 0.76919544 0
5.3430004 1.0774443 0.76956522 0
5.3510003 1.0703318 0.77015686 0
5.3290005 1.2254088 0.75963891 0
5.3260002 1.2157494 0.75942242 0
5.3240004 1.2063552 0.75927806 0
5.3240004 1.1974733 0.75927806 0
5.3250003 1.1888419 0.75935018 0
5.3270001 1.180456 0.75949454 0
5.3300004 1.1723101 0.75971103 0
5.3340001 1.1643986 0.75999963 0
5.3390002 1.1567161 0.76036036 0
5.3470001 1.1497408 0.76093757 0
5.3390002 1.1388981 0.76036036 0
5.3330002 1.1285605 0.75992745 0
5.3310003 1.1191899 0.75978315 0
5.3300004 1.1100607 0.75971103 0
5.3310003 1.1014006 0.75978315 0
5.3340001 1.0931987 0.75999963 0
5.3380003 1.0852151 0.76028824 0
5.3430004 1.0774443 0.76064897 0
5.3510003 1.0703318 0.76122618 0
5.3270001 1.224893 0.75060713 0
5.3240004 1.2152371 0.75039613 0
5.3230004 1.2061009 0.7503258 0
5.3240004 1.1974733 0.75039613 0
5.3250003 1.1888419 0.75046647 0
5.3280005 1.1807052 0.75067753 0
5.3320003 1.1728044 0.75095892 0
5.3370004 1.1651345 0.75131071 0
5.3430004 1.1576903 0.75173277 0
5.3490005 1.1502243 0.75215483 0
5.3390002 1.1388981 0.75145137 0
5.3330002 1.1285605 0.75102925 0
5.3310003 1.1191899 0.75088859 0
5.3300004 1.1100607 0.75081825 0
5.3310003 1.1014006 0.75088859 0
5.3340001 1.0931987 0.75109959 0
5.3380003 1.0852151 0.75138104 0
5.3430004 1.0774443 0.75173277 0
5.3510003 1.0703318 0.75229549 0
5.3280005 1.2340401 0.74178839 0
5.3250003 1.224377 0.74158275 0
5.3230004 1.214981 0.74144566 0
5.3230004 1.2061009 0.74144566 0
5.3240004 1.1974733 0.74151421 0
5.3260002 1.1890926 0.7416513 0
5.3300004 1.1812029 0.74192548 0
5.3340001 1.1732986 0.74219966 0
5.3400002 1.1658705 0.74261087 0
5.3480005 1.1589079 0.74315929 0
5.3490005 1.1502243 0.74322784 0
5.3390002 1.1388981 0.74254239 0
5.3330002 1.1285605 0.74213111 0
5.3310003 1.1191899 0.74199402 0
5.3300004 1.1100607 0.74192548 0
5.3310003 1.1014006 0.74199402 0
5.3340001 1.0931987 0.74219966 0
5.3380003 1.0852151 0.74247384 0
5.3430004 1.0774443 0.74281657 0
5.3510003 1.0703318 0.74336487 0
5.3290005 1.2431909 0.73296595 0
5.3250003 1.2332608 0.73269898 0
5.3230004 1.2238612 0.73256552 0
5.3230004 1.214981 0.73256552 0
5.3230004 1.2061009 0.73256552 0
5.3250003 1.1977258 0.73269898 0
5.3280005 1.1895943 0.73289919 0
5.3320003 1.1817007 0.73316616 0
5.3370004 1.17404 0.73349988 0
5.3440003 1.1668518 0.73396707 0
5.3530002 1.1601254 0.7345677 0
5.3490005 1.1502243 0.73430073 0
5.3390002 1.1388981 0.73363334 0
5.3330002 1.1285605 0.73323286 0
5.3310003 1.1191899 0.7330994 0
5.3300004 1.1100607 0.7330327 0
5.3310003 1.1014006 0.7330994 0
5.3340001 1.0931987 0.73329961 0
5.3380003 1.0852151 0.73356664 0
5.3430004 1.0774443 0.73390031 0
5.3510003 1.0703318 0.73443425 0
5.3260002 1.2424061 0.72388017 0
5.3240004 1.233001 0.72375023 0
5.3220005 1.2236032 0.72362041 0
5.3220005 1.2147249 0.72362041 0
5.3240004 1.2063552 0.72375023 0
5.3260002 1.1979783 0.72388017 0
5.3300004 1.1900957 0.72413993 0
5.3340001 1.1821986 0.72439963 0
5.3400002 1.1747813 0.72478926 0
5.3480005 1.1678331 0.72530878 0
5.3490005 1.1502243 0.72537374 0
5.3390002 1.1388981 0.72472429 0
5.3330002 1.1285605 0.72433472 0
5.3310003 1.1191899 0.72420484 0
5.3300004 1.1100607 0.72413993 0
5.3310003 1.1014006 0.72420484 0
5.3340001 1.0931987 0.72439963 0
5.3380003 1.0852151 0.72465938 0
5.3430004 1.0774443 0.72498405 0
5.3510003 1.0703318 0.72550356 0
5.3280005 1.2518184 0.71512085 0
5.3240004 1.241883 0.71486831 0
5.3220005 1.2324816 0.71474206 0
5.3220005 1.2236032 0.71474206 0
5.3230004 1.214981 0.71480519 0
5.3250003 1.2066096 0.71493149 0
5.3270001 1.1982309 0.71505773 0
5.3320003 1.1905972 0.7153734 0
5.3370004 1.1829454 0.71568906 0
5.3450003 1.1760169 0.71619415 0
5.3550005 1.1695503 0.71682549 0
5.3490005 1.1502243 0.71644664 0
5.3390002 1.1388981 0.71581531 0
5.3330002 1.1285605 0.71543652 0
5.3310003 1.1191899 0.71531022 0
5.3300004 1.1100607 0.71524715 0
5.3310003 1.1014006 0.71531022 0
5.3340001 1.0931987 0.71549964 0
5.3380003 1.0852151 0.71575218 0
5.3430004 1.0774443 0.71606785 0
5.3510003 1.0703318 0.71657288 0
5.3290005 1.2609727 0.70629299 0
5.3250003 1.2510283 0.70604771 0
5.3230004 1.2416214 0.70592511 0
5.3220005 1.2324816 0.70586371 0
5.3220005 1.2236032 0.70586371 0
5.3230004 1.214981 0.70592511 0
5.3260002 1.2068639 0.70610905 0
5.3300004 1.1989886 0.70635438 0
5.3340001 1.1910985 0.70659965 0
5.3410006 1.1839411 0.70702899 0
5.3500004 1.1772525 0.70758092 0
5.3490005 1.1502243 0.70751965 0
5.3390002 1.1388981 0.70690632 0
5.3330002 1.1285605 0.70653832 0
5.3310003 1.1191899 0.70641565 0
5.3300004 1.1100607 0.70635438 0
5.3310003 1.1014006 0.70641565 0
5.3340001 1.0931987 0.70659965 0
5.3380003 1.0852151 0.70684499 0
5.3430004 1.0774443 0.70715165 0
5.3510003 1.0703318 0.70764232 0
5.3250003 1.2776796 0.69716394 0
5.3340001 1.2711984 0.69769967 0
5.3270001 1.2604423 0.69728303 0
5.3230004 1.2505016 0.69704491 0
5.3210001 1.2410983 0.69692588 0
5.3210001 1.2322218 0.69692588 0
5.3220005 1.2236032 0.69698536 0
5.3240004 1.2152371 0.69710445 0
5.3270001 1.2071182 0.69728303 0
5.3320003 1.1994935 0.69758064 0
5.3380003 1.1921015 0.69793779 0
5.3450003 1.1849368 0.69835448 0
5.3490005 1.1502243 0.69859254 0
5.3390002 1.1388981 0.69799733 0
5.3330002 1.1285605 0.69764018 0
5.3310003 1.1191899 0.69752109 0
5.3300004 1.1100607 0.69746161 0
5.3310003 1.1014006 0.69752109 0
5.3340001 1.0931987 0.69769967 0
5.3380003 1.0852151 0.69793779 0
5.3430004 1.0774443 0.69823539 0
5.3510003 1.0703318 0.69871163 0
5.3250003 1.2954471 0.68828022 0
5.3230004 1.2860223 0.68816471 0
5.3210001 1.2766044 0.68804932 0
5.3210001 1.2677279 0.68804932 0
5.3260002 1.2601771 0.68833792 0
5.3220005 1.2502383 0.68810701 0
5.3210001 1.2410983 0.68804932 0
5.3210001 1.2322218 0.68804932 0
5.3230004 1.2238612 0.68816471 0
5.3260002 1.2157494 0.68833792 0
5.3300004 1.2078813 0.68856883 0
5.3350005 1.2002512 0.68885744 0
5.3410006 1.1928538 0.68920374 0
5.3510003 1.1864303 0.68978095 0
5.3390002 1.1388981 0.68908828 0
5.3330002 1.1285605 0.68874192 0
5.3310003 1.1191899 0.68862653 0
5.3300004 1.1100607 0.68856883 0
5.3310003 1.1014006 0.68862653 0
5.3340001 1.0931987 0.68879968 0
5.3380003 1.0852151 0.68903059 0
5.3430004 1.0774443 0.68931919 0
5.3510003 1.0703318 0.68978095 0
5.3240004 1.3129387 0.67934054 0
5.3220005 1.3035083 0.67922866 0
5.3200002 1.2940851 0.67911685 0
5.3200002 1.2852104 0.67911685 0
5.3190002 1.276067 0.67906094 0
5.3190002 1.267194 0.67906094 0
5.3270001 1.2604423 0.67950827 0
5.3240004 1.250765 0.67934054 0
5.3220005 1.2413599 0.67922866 0
5.3220005 1.2324816 0.67922866 0
5.3240004 1.2241191 0.67934054 0
5.3270001 1.2160056 0.67950827 0
5.3320003 1.2083899 0.67978787 0
5.3380003 1.2010087 0.68012333 0
5.3460002 1.1941073 0.68057072 0
5.3390002 1.1388981 0.6801793 0
5.3330002 1.1285605 0.67984378 0
5.3310003 1.1191899 0.67973197 0
5.3300004 1.1100607 0.67967606 0
5.3310003 1.1014006 0.67973197 0
5.3340001 1.0931987 0.67989969 0
5.3380003 1.0852151 0.68012333 0
5.3430004 1.0774443 0.68040299 0
5.3510003 1.0703318 0.68085027 0
5.3240004 1.3307025 0.67045856 0
5.3210001 1.3209871 0.67029619 0
5.3200002 1.3118347 0.67024207 0
5.3190002 1.3026857 0.67018801 0
5.3180003 1.2935405 0.67013389 0
5.3180003 1.2846693 0.67013389 0
5.3180003 1.2757982 0.67013389 0
5.3190002 1.267194 0.67018801 0
5.3200002 1.2585862 0.67024207 0
5.3270001 1.251555 0.67062092 0
5.3250003 1.2421445 0.67051268 0
5.3250003 1.2332608 0.67051268 0
5.3270001 1.224893 0.67062092 0
5.3300004 1.216774 0.67078328 0
5.3350005 1.2091529 0.67105389 0
5.3420005 1.2020189 0.67143261 0
5.3390002 1.1388981 0.67127025 0
5.3330002 1.1285605 0.67094558 0
5.3310003 1.1191899 0.6708374 0
5.3300004 1.1100607 0.67078328 0
5.3310003 1.1014006 0.6708374 0
5.3340001 1.0931987 0.67099971 0
5.3380003 1.0852151 0.67121613 0
5.3430004 1.0774443 0.67148674 0
5.3510003 1.0703318 0.67191964 0
5.3210001 1.3387402 0.66141963 0
5.3190002 1.3293045 0.66131508 0
5.3180003 1.3201538 0.66126275 0
5.3170004 1.3110067 0.66121042 0
5.3170004 1.3021374 0.66121042 0
5.3170004 1.2932681 0.66121042 0
5.3170004 1.2843988 0.66121042 0
5.3180003 1.2757982 0.66126275 0
5.3190002 1.267194 0.66131508 0
5.3210001 1.2588514 0.66141963 0
5.3230004 1.2505016 0.6615243 0
5.3300004 1.2434523 0.66189051 0
5.3300004 1.2345595 0.66189051 0
5.3310003 1.2259247 0.66194278 0
5.3350005 1.2180548 0.66215205 0
5.3330002 1.1285605 0.66204739 0
5.3310003 1.1191899 0.66194278 0
5.3300004 1.1100607 0.66189051 0
5.3310003 1.1014006 0.66194278 0
5.3340001 1.0931987 0.66209972 0
5.3380003 1.0852151 0.66230893 0
5.3430004 1.0774443 0.66257054 0
5.3510003 1.0703318 0.66298902 0
5.3200002 1.3562083 0.65249264 0
5.3180003 1.3467672 0.65239161 0
5.3170004 1.3376148 0.65234113 0
5.3160005 1.3284658 0.65229058 0
5.3160005 1.3195983 0.65229058 0
5.3160005 1.3107308 0.65229058 0
5.3160005 1.3018633 0.65229058 0
5.3170004 1.2932681 0.65234113 0
5.3180003 1.2846693 0.65239161 0
5.3200002 1.2763357 0.65249264 0
5.3220005 1.267995 0.65259367 0
5.3240004 1.259647 0.6526947 0
5.3270001 1.251555 0.65284616 0
5.3380003 1.2455447 0.65340173 0
5.3370004 1.2363778 0.65335125 0
5.3390002 1.2279882 0.65345228 0
5.3330002 1.1285605 0.65314925 0
5.3310003 1.1191899 0.65304822 0
5.3300004 1.1100607 0.65299773 0
5.3310003 1.1014006 0.65304822 0
5.3340001 1.0931987 0.65319973 0
5.3380003 1.0852151 0.65340173 0
5.3430004 1.0774443 0.65365428 0
5.3510003 1.0703318 0.65405834 0
5.3190002 1.3736693 0.64356917 0
5.3170004 1.3642226 0.64347178 0
5.3160005 1.3550683 0.64342308 0
5.3150005 1.3459177 0.64337438 0
5.3140001 1.3367704 0.64332569 0
5.3150005 1.3281863 0.64337438 0
5.3150005 1.3193206 0.64337438 0
5.3160005 1.3107308 0.64342308 0
5.3170004 1.3021374 0.64347178 0
5.3180003 1.2935405 0.64352047 0
5.3200002 1.2852104 0.64361787 0
5.3220005 1.2768734 0.64371532 0
5.3250003 1.2687958 0.64386141 0
5.3280005 1.2607076 0.64400756 0
5.3320003 1.2528718 0.64420235 0
5.3360004 1.2450216 0.64439714 0
5.3330002 1.1285605 0.64425105 0
5.3310003 1.1191899 0.64415365 0
5.3300004 1.1100607 0.64410496 0
5.3310003 1.1014006 0.64415365 0
5.3340001 1.0931987 0.64429975 0
5.3380003 1.0852151 0.64449453 0
5.3430004 1.0774443 0.64473808 0
5.3510003 1.0703318 0.64512765 0
5.3190002 1.3914151 0.63469625 0
5.3170004 1.3819613 0.63460249 0
5.3150005 1.3725148 0.63450867 0
5.3140001 1.3633622 0.63446176 0
5.3130002 1.3542134 0.63441485 0
5.3130002 1.3453512 0.63441485 0
5.3140001 1.3367704 0.63446176 0
5.3140001 1.3279065 0.63446176 0
5.3150005 1.3193206 0.63450867 0
5.3170004 1.3110067 0.63460249 0
5.3190002 1.3026857 0.63469625 0
5.3210001 1.2943575 0.63479006 0
5.3230004 1.2860223 0.63488388 0
5.3260002 1.2779483 0.63502455 0
5.3300004 1.2701306 0.63521218 0
5.3340001 1.2622983 0.6353997 0
5.3330002 1.1285605 0.63535285 0
5.3310003 1.1191899 0.63525903 0
5.3300004 1.1100607 0.63521218 0
5.3310003 1.1014006 0.63525903 0
5.3340001 1.0931987 0.6353997 0
5.3380003 1.0852151 0.63558733 0
5.3430004 1.0774443 0.63582182 0
5.3510003 1.0703318 0.63619703 0
5.3190002 1.4091609 0.62582332 0
5.3160005 1.399406 0.62568808 0
5.3140001 1.389954 0.62559783 0
5.3130002 1.3807997 0.62555277 0
5.3120003 1.371649 0.62550765 0
5.3120003 1.3627887 0.62550765 0
5.3120003 1.3539283 0.62550765 0
5.3130002 1.3453512 0.62555277 0
5.3140001 1.3367704 0.62559783 0
5.3150005 1.3281863 0.62564296 0
5.3170004 1.3198761 0.62573314 0
5.3190002 1.3115586 0.62582332 0
5.3220005 1.3035083 0.62595862 0
5.3240004 1.2951747 0.6260488 0
5.3280005 1.2873751 0.62622917 0
5.3320003 1.2795609 0.62640953 0
5.3360004 1.2717324 0.62658995 0
5.3330002 1.1285605 0.62645465 0
5.3310003 1.1191899 0.62636447 0
5.3300004 1.1100607 0.62631941 0
5.3310003 1.1014006 0.62636447 0
5.3340001 1.0931987 0.62649977 0
5.3380003 1.0852151 0.62668014 0
5.3430004 1.0774443 0.62690562 0
5.3510003 1.0703318 0.62726641 0
5.3050003 1.4315624 0.61634433 0
5.3060002 1.4230142 0.61638761 0
5.3090005 1.4150577 0.61651748 0
5.3130002 1.4073859 0.61669064 0
5.3120003 1.3982298 0.61664736 0
5.3110003 1.3890773 0.61660409 0
5.3110003 1.3802189 0.61660409 0
5.3110003 1.3713603 0.61660409 0
5.3120003 1.3627887 0.61664736 0
5.3130002 1.3542134 0.61669064 0
5.3140001 1.3456343 0.61673391 0
5.3150005 1.337052 0.61677724 0
5.3170004 1.3287455 0.61686385 0
5.3200002 1.3207093 0.61699367 0
5.3230004 1.3126627 0.6171236 0
5.3260002 1.304605 0.61725342 0
5.3300004 1.296809 0.61742663 0
5.3340001 1.2889984 0.61759973 0
5.3330002 1.1285605 0.61755645 0
5.3310003 1.1191899 0.61746991 0
5.3300004 1.1100607 0.61742663 0
5.3310003 1.1014006 0.61746991 0
5.3340001 1.0931987 0.61759973 0
5.3380003 1.0852151 0.61777294 0
5.3430004 1.0774443 0.61798942 0
5.3510003 1.0703318 0.61833572 0
5.3000002 1.4477336 0.6072892 0
5.2990003 1.438592 0.60724771 0
5.2990003 1.4297551 0.60724771 0
5.3010001 1.4215169 0.60733068 0
5.3030005 1.4132719 0.60741365 0
5.3070002 1.4056109 0.60757959 0
5.3100004 1.3976419 0.6077041 0
5.3100004 1.3887851 0.6077041 0
5.3100004 1.3799285 0.6077041 0
5.3110003 1.3713603 0.60774553 0
5.3120003 1.3627887 0.60778707 0
5.3140001 1.3544983 0.60787004 0
5.3160005 1.3462009 0.60795301 0
5.3180003 1.3378961 0.60803598 0
5.3210001 1.3298637 0.60816044 0
5.3240004 1.3218205 0.60828489 0
5.3280005 1.3140426 0.60845089 0
5.3320003 1.30625 0.60861683 0
5.3330002 1.1285605 0.60865831 0
5.3310003 1.1191899 0.60857534 0
5.3300004 1.1100607 0.60853386 0
5.3310003 1.1014006 0.60857534 0
5.3340001 1.0931987 0.6086998 0
5.3380003 1.0852151 0.60886574 0
5.3430004 1.0774443 0.60907316 0
5.3510003 1.0703318 0.60940504 0
5.2990003 1.4562656 0.59841084 0
5.2960005 1.4465142 0.59829181 0
5.2950006 1.4373798 0.59825212 0
5.2950006 1.4285501 0.59825212 0
5.2970004 1.4203193 0.59833151 0
5.3000002 1.4123789 0.59845054 0
5.3040004 1.4047236 0.59860927 0
5.3090005 1.3973478 0.59880769 0
5.3100004 1.3887851 0.59884739 0
5.3110003 1.3802189 0.59888709 0
5.3120003 1.371649 0.59892672 0
5.3140001 1.3633622 0.59900612 0
5.3160005 1.3550683 0.59908545 0
5.3190002 1.3470504 0.59920454 0
5.3220005 1.3390218 0.59932363 0
5.3260002 1.3312616 0.5994823 0
5.3300004 1.3234873 0.59964108 0
5.3350005 1.3159745 0.59983945 0
5.3330002 1.1285605 0.59976012 0
5.3310003 1.1191899 0.59968072 0
5.3300004 1.1100607 0.59964108 0
5.3310003 1.1014006 0.59968072 0
5.3340001 1.0931987 0.59979975 0
5.3380003 1.0852151 0.59995854 0
5.3430004 1.0774443 0.60015696 0
5.3510003 1.0703318 0.60047442 0
5.2960005 1.4553457 0.58946037 0
5.2930002 1.4455996 0.58934671 0
5.2930002 1.4367737 0.58934671 0
5.2930002 1.4279476 0.58934671 0
5.2950006 1.4197205 0.58942246 0
5.2970004 1.4114861 0.58949822 0
5.3010001 1.403836 0.58964974 0
5.3060002 1.3964658 0.58983916 0
5.3110003 1.3890773 0.59002852 0
5.3130002 1.3807997 0.59010434 0
5.3150005 1.3725148 0.5901801 0
5.3170004 1.3642226 0.59025586 0
5.3200002 1.3562083 0.59036946 0
5.3240004 1.3484664 0.59052098 0
5.3270001 1.3404286 0.59063464 0
5.3320003 1.3329393 0.59082401 0
5.3330002 1.1285605 0.59086192 0
5.3310003 1.1191899 0.59078616 0
5.3300004 1.1100607 0.59074831 0
5.3310003 1.1014006 0.59078616 0
5.3340001 1.0931987 0.59089983 0
5.3380003 1.0852151 0.59105134 0
5.3430004 1.0774443 0.59124076 0
5.3510003 1.0703318 0.59154379 0
5.2940001 1.4547323 0.58055675 0
5.2920003 1.4452949 0.58048463 0
5.2910004 1.4361676 0.58044851 0
5.2920003 1.4276464 0.58048463 0
5.2940001 1.419421 0.58055675 0
5.2960005 1.4111885 0.58062893 0
5.3000002 1.4035403 0.58077323 0
5.3050003 1.3961717 0.5809536 0
5.3110003 1.3890773 0.58117008 0
5.3160005 1.381671 0.58135045 0
5.3180003 1.3733805 0.58142257 0
5.3220005 1.3656569 0.58156693 0
5.3250003 1.3576334 0.58167511 0
5.3300004 1.3501657 0.58185554 0
5.3330002 1.1285605 0.58196372 0
5.3310003 1.1191899 0.5818916 0
5.3300004 1.1100607 0.58185554 0
5.3310003 1.1014006 0.5818916 0
5.3340001 1.0931987 0.58199978 0
5.3380003 1.0852151 0.58214414 0
5.3430004 1.0774443 0.5823245 0
5.3510003 1.0703318 0.58261311 0
5.2950006 1.4550391 0.57176322 0
5.2920003 1.4452949 0.5716604 0
5.2920003 1.4364706 0.5716604 0
5.2920003 1.4276464 0.5716604 0
5.2940001 1.419421 0.57172894 0
5.2960005 1.4111885 0.57179749 0
5.3000002 1.4035403 0.57193458 0
5.3050003 1.3961717 0.57210594 0
5.3110003 1.3890773 0.57231158 0
5.3190002 1.3825421 0.5725857 0
5.3230004 1.3748237 0.57272279 0
5.3280005 1.3673776 0.57289422 0
5.3330002 1.3599133 0.57306552 0
5.3330002 1.1285605 0.57306552 0
5.3310003 1.1191899 0.57299697 0
5.3300004 1.1100607 0.57296276 0
5.3310003 1.1014006 0.57299697 0
5.3340001 1.0931987 0.57309985 0
5.3380003 1.0852151 0.57323694 0
5.3430004 1.0774443 0.57340825 0
5.3510003 1.0703318 0.57368243 0
5.2960005 1.4553457 0.56296605 0
5.2940001 1.4459045 0.56290108 0
5.2930002 1.4367737 0.5628686 0
5.2940001 1.4282489 0.56290108 0
5.2950006 1.4197205 0.56293356 0
5.2980003 1.4117837 0.56303096 0
5.3010001 1.403836 0.56312835 0
5.3060002 1.3964658 0.56329072 0
5.3130002 1.3896618 0.56351799 0
5.3210001 1.3831229 0.56377774 0
5.3310003 1.3771325 0.56410241 0
5.3370004 1.3699588 0.56429726 0
5.3330002 1.1285605 0.56416738 0
5.3310003 1.1191899 0.56410241 0
5.3300004 1.1100607 0.56406999 0
5.3310003 1.1014006 0.56410241 0
5.3340001 1.0931987 0.56419981 0
5.3380003 1.0852151 0.56432968 0
5.3430004 1.0774443 0.56449205 0
5.3510003 1.0703318 0.5647518 0
5.2990003 1.4562656 0.55422658 0
5.2970004 1.4468192 0.55416524 0
5.2960005 1.4376829 0.55413461 0
5.2960005 1.4288514 0.55413461 0
5.2980003 1.4206188 0.55419588 0
5.3000002 1.4123789 0.55425727 0
5.3040004 1.4047236 0.55437988 0
5.3090005 1.3973478 0.55453324 0
5.3160005 1.3905386 0.55474788 0
5.3240004 1.3839942 0.55499321 0
5.3350005 1.3782871 0.55533051 0
5.3330002 1.1285605 0.55526918 0
5.3310003 1.1191899 0.55520785 0
5.3300004 1.1100607 0.55517721 0
5.3310003 1.1014006 0.55520785 0
5.3340001 1.0931987 0.55529982 0
5.3380003 1.0852151 0.55542248 0
5.3430004 1.0774443 0.55557585 0
5.3510003 1.0703318 0.55582118 0
5.3040004 1.4577988 0.54553401 0
5.3010001 1.4480383 0.54544747 0
5.3000002 1.4388949 0.54541856 0
5.3000002 1.4300562 0.54541856 0
5.3020005 1.4218165 0.54547632 0
5.3040004 1.4135695 0.54553401 0
5.3080006 1.4059069 0.54564947 0
5.3130002 1.3985239 0.54579377 0
5.3200002 1.3917073 0.54599577 0
5.3290005 1.3854463 0.54625553 0
5.3330002 1.1285605 0.54637098 0
5.3310003 1.1191899 0.54631329 0
5.3300004 1.1100607 0.54628444 0
5.3310003 1.1014006 0.54631329 0
5.3340001 1.0931987 0.54639983 0
5.3380003 1.0852151 0.54651529 0
5.3430004 1.0774443 0.54665959 0
5.3510003 1.0703318 0.5468905 0
5.3080006 1.4501724 0.53679639 0
5.3060002 1.4407132 0.53674227 0
5.3060002 1.4318637 0.53674227 0
5.3070002 1.4233136 0.53676933 0
5.3100004 1.4153552 0.53685045 0
5.3140001 1.4076817 0.53695869 0
5.3200002 1.4005821 0.53712106 0
5.3270001 1.3937528 0.53731048 0
5.3380003 1.38806 0.53760809 0
5.3330002 1.1285605 0.53747278 0
5.3310003 1.1191899 0.53741872 0
5.3300004 1.1100607 0.53739166 0
5.3310003 1.1014006 0.53741872 0
5.3340001 1.0931987 0.53749985 0
5.3380003 1.0852151 0.53760809 0
5.3430004 1.0774443 0.53774339 0
5.3510003 1.0703318 0.53795981 0
5.3180003 1.4532207 0.5281958 0
5.3150005 1.4434407 0.52812004 0
5.3140001 1.4342735 0.52809477 0
5.3150005 1.4257091 0.52812004 0
5.3180003 1.4177363 0.5281958 0
5.3230004 1.4103444 0.5283221 0
5.3290005 1.4032283 0.52847362 0
5.3380003 1.3969673 0.52870089 0
5.3390002 1.3883504 0.52872616 0
5.3400002 1.37973 0.52875137 0
5.3390002 1.1388981 0.52872616 0
5.3330002 1.1285605 0.52857465 0
5.3310003 1.1191899 0.5285241 0
5.3300004 1.1100607 0.52849889 0
5.3310003 1.1014006 0.5285241 0
5.3340001 1.0931987 0.52859986 0
5.3380003 1.0852151 0.52870089 0
5.3430004 1.0774443 0.52882713 0
5.3510003 1.0703318 0.52902919 0
5.3240004 1.4461679 0.51946539 0
5.3220005 1.4366835 0.51941848 0
5.3220005 1.4278052 0.51941848 0
5.3230004 1.4192244 0.51944196 0
5.3240004 1.4106401 0.51946539 0
5.3240004 1.4017582 0.51946539 0
5.3250003 1.3931684 0.51948881 0
5.3260002 1.384575 0.5195123 0
5.3260002 1.3756895 0.5195123 0
5.3270001 1.3670907 0.51953572 0
5.3280005 1.3584884 0.5195592 0
5.3280005 1.3495992 0.5195592 0
5.3290005 1.3409915 0.51958263 0
5.3390002 1.1388981 0.51981711 0
5.3330002 1.1285605 0.51967645 0
5.3310003 1.1191899 0.51962954 0
5.3300004 1.1100607 0.51960611 0
5.3310003 1.1014006 0.51962954 0
5.3340001 1.0931987 0.51969987 0
5.3380003 1.0852151 0.51979369 0
5.3430004 1.0774443 0.51991093 0
5.3510003 1.0703318 0.52009851 0
5.3190002 1.4535257 0.51047522 0
5.3150005 1.4434407 0.51038861 0
5.3140001 1.4342735 0.51036698 0
5.3150005 1.4257091 0.51038861 0
5.3160005 1.4171411 0.51041025 0
5.3160005 1.4082736 0.51041025 0
5.3170004 1.3997 0.51043195 0
5.3180003 1.3911229 0.51045358 0
5.3180003 1.3822517 0.51045358 0
5.3190002 1.3736693 0.51047522 0
5.3190002 1.3647963 0.51047522 0
5.3200002 1.3562083 0.51049685 0
5.3210001 1.3476167 0.51051849 0
5.3210001 1.3387402 0.51051849 0
5.3220005 1.3301433 0.51054013 0
5.3230004 1.3215427 0.51056182 0
5.3230004 1.3126627 0.51056182 0
5.3240004 1.3040566 0.51058346 0
5.3250003 1.2954471 0.5106051 0
5.3250003 1.2865633 0.5106051 0
5.3260002 1.2779483 0.51062673 0
5.3270001 1.2693297 0.51064837 0
5.3270001 1.2604423 0.51064837 0
5.3280005 1.2518184 0.51067001 0
5.3280005 1.2429292 0.51067001 0
5.3290005 1.2342999 0.51069164 0
5.3300004 1.2256668 0.51071334 0
5.3300004 1.216774 0.51071334 0
5.3310003 1.2081356 0.51073498 0
5.3390002 1.1388981 0.51090813 0
5.3330002 1.1285605 0.51077825 0
5.3310003 1.1191899 0.51073498 0
5.3300004 1.1100607 0.51071334 0
5.3310003 1.1014006 0.51073498 0
5.3340001 1.0931987 0.51079988 0
5.3380003 1.0852151 0.51088649 0
5.3430004 1.0774443 0.51099467 0
5.3510003 1.0703318 0.51116788 0
5.3130002 1.4516965 0.5014832 0
5.3100004 1.4419254 0.50142372 0
5.3100004 1.4330686 0.50142372 0
5.3110003 1.4245113 0.50144356 0
5.3110003 1.4156529 0.50144356 0
5.3120003 1.4070902 0.50146335 0
5.3120003 1.3982298 0.50146335 0
5.3130002 1.3896618 0.5014832 0
5.3140001 1.38109 0.50150305 0
5.3140001 1.3722261 0.50150305 0
5.3150005 1.3636491 0.5015229 0
5.3160005 1.3550683 0.50154275 0
5.3160005 1.3462009 0.50154275 0
5.3170004 1.3376148 0.5015626 0
5.3180003 1.329025 0.50158244 0
5.3180003 1.3201538 0.50158244 0
5.3190002 1.3115586 0.50160229 0
5.3190002 1.3026857 0.50160229 0
5.3200002 1.2940851 0.50162214 0
5.3210001 1.285481 0.50164193 0
5.3210001 1.2766044 0.50164193 0
5.3220005 1.267995 0.50166178 0
5.3230004 1.2593818 0.50168163 0
5.3230004 1.2505016 0.50168163 0
5.3240004 1.241883 0.50170147 0
5.3250003 1.2332608 0.50172132 0
5.3250003 1.224377 0.50172132 0
5.3260002 1.2157494 0.50174117 0
5.3260002 1.2068639 0.50174117 0
5.3270001 1.1982309 0.50176102 0
5.3390002 1.1388981 0.50199914 0
5.3330002 1.1285605 0.50188005 0
5.3310003 1.1191899 0.50184035 0
5.3300004 1.1100607 0.50182056 0
5.3310003 1.1014006 0.50184035 0
5.3340001 1.0931987 0.5018999 0
5.3380003 1.0852151 0.50197929 0
5.3430004 1.0774443 0.50207847 0
5.3510003 1.0703318 0.5022372 0
5.3100004 1.4507821 0.492567 0
5.3080006 1.4413193 0.49253094 0
5.3070002 1.4321648 0.49251288 0
5.3080006 1.4236132 0.49253094 0
5.3090005 1.4150577 0.49254897 0
5.3090005 1.4062028 0.49254897 0
5.3100004 1.3976419 0.492567 0
5.3110003 1.3890773 0.49258503 0
5.3110003 1.3802189 0.49258503 0
5.3120003 1.371649 0.49260306 0
5.3120003 1.3627887 0.49260306 0
5.3130002 1.3542134 0.49262112 0
5.3140001 1.3456343 0.49263915 0
5.3140001 1.3367704 0.49263915 0
5.3150005 1.3281863 0.49265718 0
5.3160005 1.3195983 0.49267524 0
5.3160005 1.3107308 0.49267524 0
5.3170004 1.3021374 0.49269328 0
5.3180003 1.2935405 0.49271131 0
5.3180003 1.2846693 0.49271131 0
5.3190002 1.276067 0.49272934 0
5.3190002 1.267194 0.49272934 0
5.3200002 1.2585862 0.49274737 0
5.3210001 1.2499748 0.49276543 0
5.3210001 1.2410983 0.49276543 0
5.3220005 1.2324816 0.49278346 0
5.3230004 1.2238612 0.49280149 0
5.3230004 1.214981 0.49280149 0
5.3240004 1.2063552 0.49281955 0
5.3240004 1.1974733 0.49281955 0
5.3390002 1.1388981 0.49309009 0
5.3330002 1.1285605 0.49298188 0
5.3310003 1.1191899 0.49294579 0
5.3300004 1.1100607 0.49292776 0
5.3310003 1.1014006 0.49294579 0
5.3340001 1.0931987 0.49299991 0
5.3380003 1.0852151 0.49307206 0
5.3430004 1.0774443 0.49316227 0
5.3510003 1.0703318 0.49330658 0
5.3090005 1.4504772 0.48369408 0
5.3070002 1.4410162 0.48366159 0
5.3070002 1.4321648 0.48366159 0
5.3070002 1.4233136 0.48366159 0
5.3080006 1.41476 0.48367783 0
5.3080006 1.4059069 0.48367783 0
5.3090005 1.3973478 0.48369408 0
5.3100004 1.3887851 0.48371029 0
5.3100004 1.3799285 0.48371029 0
5.3110003 1.3713603 0.48372653 0
5.3120003 1.3627887 0.48374277 0
5.3120003 1.3539283 0.48374277 0
5.3130002 1.3453512 0.48375899 0
5.3130002 1.3364891 0.48375899 0
5.3140001 1.3279065 0.48377523 0
5.3150005 1.3193206 0.48379147 0
5.3150005 1.3104548 0.48379147 0
5.3160005 1.3018633 0.48380771 0
5.3170004 1.2932681 0.48382396 0
5.3170004 1.2843988 0.48382396 0
5.3180003 1.2757982 0.48384017 0
5.3190002 1.267194 0.48385641 0
5.3190002 1.258321 0.48385641 0
5.3200002 1.2497115 0.48387265 0
5.3200002 1.2408367 0.48387265 0
5.3210001 1.2322218 0.48388886 0
5.3220005 1.2236032 0.48390511 0
5.3220005 1.2147249 0.48390511 0
5.3230004 1.2061009 0.48392135 0
5.3240004 1.1974733 0.48393756 0
5.3390002 1.1388981 0.48418111 0
5.3330002 1.1285605 0.48408368 0
5.3310003 1.1191899 0.48405123 0
5.3300004 1.1100607 0.48403499 0
5.3310003 1.1014006 0.48405123 0
5.3340001 1.0931987 0.48409992 0
5.3380003 1.0852151 0.48416486 0
5.3430004 1.0774443 0.48424602 0
5.3510003 1.0703318 0.48437589 0
5.3090005 1.4504772 0.47483918 0
5.3070002 1.4410162 0.4748103 0
5.3070002 1.4321648 0.4748103 0
5.3080006 1.4236132 0.47482473 0
5.3090005 1.4150577 0.47483918 0
5.3090005 1.4062028 0.47483918 0
5.3100004 1.3976419 0.47485361 0
5.3100004 1.3887851 0.47485361 0
5.3110003 1.3802189 0.47486803 0
5.3120003 1.371649 0.47488245 0
5.3120003 1.3627887 0.47488245 0
5.3130002 1.3542134 0.47489691 0
5.3140001 1.3456343 0.47491133 0
5.3140001 1.3367704 0.47491133 0
5.3150005 1.3281863 0.47492576 0
5.3160005 1.3195983 0.47494018 0
5.3160005 1.3107308 0.47494018 0
5.3170004 1.3021374 0.47495461 0
5.3170004 1.2932681 0.47495461 0
5.3180003 1.2846693 0.47496903 0
5.3190002 1.276067 0.47498348 0
5.3190002 1.267194 0.47498348 0
5.3200002 1.2585862 0.47499791 0
5.3210001 1.2499748 0.47501233 0
5.3210001 1.2410983 0.47501233 0
5.3220005 1.2324816 0.47502679 0
5.3220005 1.2236032 0.47502679 0
5.3230004 1.214981 0.47504121 0
5.3240004 1.2063552 0.47505563 0
5.3240004 1.1974733 0.47505563 0
5.3390002 1.1388981 0.47527209 0
5.3330002 1.1285605 0.47518551 0
5.3310003 1.1191899 0.47515664 0
5.3300004 1.1100607 0.47514221 0
5.3310003 1.1014006 0.47515664 0
5.3340001 1.0931987 0.47519994 0
5.3380003 1.0852151 0.47525766 0
5.3430004 1.0774443 0.47532982 0
5.3510003 1.0703318 0.47544524 0
5.3090005 1.4504772 0.46598428 0
5.3070002 1.4410162 0.46595901 0
5.3070002 1.4321648 0.46595901 0
5.3080006 1.4236132 0.46597165 0
5.3110003 1.4156529 0.46600953 0
5.3120003 1.4070902 0.46602216 0
5.3120003 1.3982298 0.46602216 0
5.3130002 1.3896618 0.46603477 0
5.3130002 1.3807997 0.46603477 0
5.3140001 1.3722261 0.46604741 0
5.3150005 1.3636491 0.46606004 0
5.3150005 1.3547834 0.46606004 0
5.3160005 1.3462009 0.46607268 0
5.3170004 1.3376148 0.46608528 0
5.3170004 1.3287455 0.46608528 0
5.3180003 1.3201538 0.46609792 0
5.3190002 1.3115586 0.46611056 0
5.3190002 1.3026857 0.46611056 0
5.3200002 1.2940851 0.46612316 0
5.3200002 1.2852104 0.46612316 0
5.3210001 1.2766044 0.4661358 0
5.3220005 1.267995 0.46614844 0
5.3220005 1.2591166 0.46614844 0
5.3230004 1.2505016 0.46616104 0
5.3240004 1.241883 0.46617368 0
5.3240004 1.233001 0.46617368 0
5.3250003 1.224377 0.46618631 0
5.3250003 1.2154933 0.46618631 0
5.3260002 1.2068639 0.46619892 0
5.3270001 1.1982309 0.46621156 0
5.3330002 1.1285605 0.46628731 0
5.3310003 1.1191899 0.46626207 0
5.3300004 1.1100607 0.46624944 0
5.3310003 1.1014006 0.46626207 0
5.3340001 1.0931987 0.46629995 0
5.3380003 1.0852151 0.46635044 0
5.3430004 1.0774443 0.46641359 0
5.3510003 1.0703318 0.46651459 0
5.3090005 1.4504772 0.45712939 0
5.3070002 1.4410162 0.45710772 0
5.3070002 1.4321648 0.45710772 0
5.3080006 1.4236132 0.45711857 0
5.3110003 1.4156529 0.45715103 0
5.3150005 1.4079777 0.45719433 0
5.3160005 1.399406 0.45720515 0
5.3170004 1.3908308 0.45721596 0
5.3180003 1.3822517 0.45722678 0
5.3180003 1.3733805 0.45722678 0
5.3190002 1.3647963 0.4572376 0
5.3200002 1.3562083 0.45724842 0
5.3200002 1.3473336 0.45724842 0
5.3210001 1.3387402 0.45725927 0
5.3210001 1.3298637 0.45725927 0
5.3220005 1.321265 0.45727009 0
5.3230004 1.3126627 0.4572809 0
5.3230004 1.3037825 0.4572809 0
5.3240004 1.2951747 0.45729172 0
5.3250003 1.2865633 0.45730254 0
5.3250003 1.2776796 0.45730254 0
5.3260002 1.2690628 0.45731336 0
5.3260002 1.2601771 0.45731336 0
5.3270001 1.251555 0.45732421 0
5.3280005 1.2429292 0.45733503 0
5.3280005 1.2340401 0.45733503 0
5.3290005 1.2254088 0.45734584 0
5.3300004 1.216774 0.45735666 0
5.3300004 1.2078813 0.45735666 0
5.3310003 1.1992409 0.45736748 0
5.3330002 1.1285605 0.45738912 0
5.3310003 1.1191899 0.45736748 0
5.3300004 1.1100607 0.45735666 0
5.3310003 1.1014006 0.45736748 0
5.3340001 1.0931987 0.45739996 0
5.3380003 1.0852151 0.45744324 0
5.3430004 1.0774443 0.45749736 0
5.3090005 1.4504772 0.44827449 0
5.3070002 1.4410162 0.44825643 0
5.3070002 1.4321648 0.44825643 0
5.3080006 1.4236132 0.44826546 0
5.3110003 1.4156529 0.44829252 0
5.3150005 1.4079777 0.44832861 0
5.3210001 1.4008759 0.44838271 0
5.3240004 1.3928761 0.44840977 0
5.3240004 1.3839942 0.44840977 0
5.3250003 1.3754008 0.4484188 0
5.3260002 1.3668039 0.4484278 0
5.3260002 1.3579184 0.4484278 0
5.3270001 1.349316 0.44843683 0
5.3270001 1.3404286 0.44843683 0
5.3280005 1.331821 0.44844586 0
5.3290005 1.3232095 0.44845486 0
5.3290005 1.3143187 0.44845486 0
5.3300004 1.3057017 0.44846389 0
5.3310003 1.2970814 0.44847292 0
5.3310003 1.2881868 0.44847292 0
5.3320003 1.2795609 0.44848192 0
5.3330002 1.2709315 0.44849095 0
5.3330002 1.2620332 0.44849095 0
5.3340001 1.2533984 0.44849998 0
5.3340001 1.2444985 0.44849998 0
5.3350005 1.2358583 0.44850898 0
5.3360004 1.2272145 0.44851801 0
5.3360004 1.2183108 0.44851801 0
5.3330002 1.1285605 0.44849095 0
5.3310003 1.1191899 0.44847292 0
5.3300004 1.1100607 0.44846389 0
5.3310003 1.1014006 0.44847292 0
5.3340001 1.0931987 0.44849998 0
5.3380003 1.0852151 0.44853604 0
5.3430004 1.0774443 0.44858113 0
5.3090005 1.4504772 0.4394196 0
5.3070002 1.4410162 0.43940517 0
5.3070002 1.4321648 0.43940517 0
5.3080006 1.4236132 0.43941239 0
5.3110003 1.4156529 0.43943402 0
5.3150005 1.4079777 0.4394629 0
5.3210001 1.4008759 0.43950617 0
5.3280005 1.3940451 0.43955669 0
5.3360004 1.3874792 0.43961442 0
5.3370004 1.3788642 0.43962163 0
5.3330002 1.1285605 0.43959275 0
5.3310003 1.1191899 0.43957832 0
5.3300004 1.1100607 0.43957111 0
5.3310003 1.1014006 0.43957832 0
5.3340001 1.0931987 0.43959996 0
5.3380003 1.0852151 0.43962884 0
5.3090005 1.4504772 0.4305647 0
5.3070002 1.4410162 0.43055388 0
5.3070002 1.4321648 0.43055388 0
5.3080006 1.4236132 0.43055928 0
5.3110003 1.4156529 0.43057552 0
5.3150005 1.4079777 0.43059716 0
5.3210001 1.4008759 0.43062964 0
