# .PCD v0.7 - Point Cloud Data file format
VERSION 0.7
FIELDS x y z intensity
SIZE 4 4 4 4
TYPE F F F F
COUNT 1 1 1 1
WIDTH 1415
HEIGHT 1
VIEWPOINT 0 0 0 1 0 0 0
POINTS 1415
DATA ascii
3.0960002 -0.78518617 1.4836009 0
3.0920002 -0.78894538 1.4819992 0
3.0870001 -0.79241222 1.4799969 0
3.0830002 -0.79614073 1.4783951 0
3.0780003 -0.79957336 1.476393 0
3.0740001 -0.80327111 1.474791 0
3.0690002 -0.80666953 1.4727888 0
3.0650003 -0.81033671 1.4711872 0
3.0610001 -0.8139894 1.4695853 0
3.0560002 -0.81733727 1.4675831 0
3.0520003 -0.82095933 1.4659812 0
3.0470002 -0.82427287 1.4639791 0
3.0430002 -0.82786429 1.4623773 0
3.0390003 -0.83144128 1.4607755 0
3.0350003 -0.83500379 1.4591738 0
3.0300002 -0.83825064 1.4571716 0
3.0260003 -0.84178251 1.4555697 0
3.0220003 -0.84529996 1.4539679 0
3.0170002 -0.84849626 1.4519657 0
3.0130002 -0.85198301 1.450364 0
3.0090003 -0.8554554 1.4487622 0
3.0050001 -0.85891324 1.4471604 0
3.0000002 -0.86204284 1.4451581 0
2.9960003 -0.86547011 1.4435564 0
2.9920001 -0.86888289 1.4419546 0
2.9880002 -0.87228125 1.4403528 0
2.9840002 -0.87566519 1.438751 0
2.9800003 -0.87903476 1.4371492 0
2.9760003 -0.88238984 1.4355476 0
3.8170002 -0.20625393 1.7661583 0
3.8090003 -0.21202792 1.7629694 0
3.8020003 -0.21782357 1.7601788 0
3.7950003 -0.22359395 1.7573884 0
3.7880003 -0.22933908 1.7545979 0
3.7810001 -0.23505895 1.7518073 0
3.7740002 -0.24075356 1.7490168 0
3.7670002 -0.24642293 1.7462263 0
3.7600002 -0.25206706 1.743436 0
3.7530003 -0.2576859 1.7406454 0
3.7460003 -0.26327953 1.737855 0
3.7390003 -0.26884788 1.7350645 0
3.7320004 -0.274391 1.7322739 0
3.7250001 -0.27990884 1.7294834 0
3.7180002 -0.2854014 1.7266929 0
3.7110002 -0.29086876 1.7239025 0
3.7040002 -0.29631087 1.7211119 0
3.6980002 -0.30180526 1.7187201 0
3.6910002 -0.30719864 1.7159296 0
3.6840003 -0.31256679 1.7131392 0
3.6780002 -0.31799266 1.7107472 0
3.6710002 -0.32331204 1.7079568 0
3.6640003 -0.32860625 1.7051663 0
3.6580002 -0.33396357 1.7027744 0
3.6510003 -0.33920902 1.699984 0
3.6450002 -0.34452125 1.697592 0
3.6380002 -0.349718 1.6948016 0
3.6320002 -0.35498515 1.6924098 0
3.6250002 -0.3601332 1.6896193 0
3.6190002 -0.36535522 1.6872275 0
3.6120002 -0.37045461 1.6844369 0
3.6060002 -0.37563151 1.682045 0
3.6000001 -0.38078681 1.6796532 0
3.5930002 -0.38581401 1.6768627 0
3.5870001 -0.39092419 1.6744709 0
3.5810003 -0.39601278 1.6720791 0
3.5740004 -0.40096781 1.6692885 0
3.5680003 -0.40601128 1.6668967 0
3.5620003 -0.41103306 1.6645049 0
3.5560002 -0.41603324 1.662113 0
3.5490003 -0.42089269 1.6593225 0
3.5430002 -0.42584774 1.6569307 0
3.5370002 -0.43078116 1.6545389 0
3.5310001 -0.43569291 1.6521468 0
3.5250003 -0.44058305 1.6497551 0
3.5190003 -0.44545156 1.6473633 0
3.5130002 -0.45029837 1.6449714 0
3.5070002 -0.45512354 1.6425796 0
3.5010002 -0.45992708 1.6401877 0
3.4950001 -0.46470898 1.6377958 0
3.4890003 -0.46946925 1.6354041 0
3.4830003 -0.47420785 1.6330122 0
3.4770002 -0.47892481 1.6306202 0
3.4710002 -0.48362011 1.6282284 0
3.4660003 -0.4884381 1.6262352 0
3.4600003 -0.49309191 1.6238433 0
3.4540002 -0.49772409 1.6214515 0
3.4480002 -0.50233459 1.6190597 0
3.4420002 -0.5069235 1.6166677 0
3.4370003 -0.51164407 1.6146747 0
3.4310002 -0.51619148 1.6122828 0
3.4250002 -0.5207172 1.6098909 0
3.4200003 -0.52538007 1.6078978 0
3.4140003 -0.52986431 1.6055059 0
3.4080002 -0.53432691 1.603114 0
3.4030004 -0.53893209 1.6011209 0
3.3970003 -0.54335326 1.598729 0
3.3920002 -0.54792047 1.5967357 0
3.3860002 -0.55230016 1.5943439 0
3.3810003 -0.55682945 1.5923507 0
3.3750002 -0.5611676 1.5899589 0
3.3700001 -0.56565911 1.5879656 0
3.3640003 -0.56995577 1.5855739 0
3.3590002 -0.57440937 1.5835806 0
3.3530002 -0.5786646 1.5811888 0
3.3480003 -0.58308029 1.5791956 0
3.3420002 -0.58729398 1.5768037 0
3.3370001 -0.59167182 1.5748105 0
3.3320003 -0.59603161 1.5728173 0
3.3260002 -0.60018402 1.5704254 0
3.3210003 -0.60450596 1.5684323 0
3.3160002 -0.60880983 1.566439 0
3.3110003 -0.6130957 1.5644459 0
3.3050003 -0.61716688 1.562054 0
3.3000002 -0.62141478 1.5600607 0
3.2950003 -0.6256448 1.5580676 0
3.2900002 -0.62985665 1.5560743 0
3.2840002 -0.63384664 1.5536824 0
3.2790003 -0.63802069 1.5516893 0
3.2740002 -0.64217663 1.549696 0
3.2690003 -0.64631462 1.5477029 0
3.2640002 -0.65043449 1.5457096 0
3.2590003 -0.65453637 1.5437164 0
3.2540002 -0.65862018 1.5417231 0
3.2490003 -0.66268599 1.5397301 0
3.2440002 -0.66673374 1.5377369 0
3.2390003 -0.67076343 1.5357437 0
3.2340002 -0.67477506 1.5337504 0
3.2290003 -0.67876869 1.5317572 0
3.2240002 -0.68274426 1.5297639 0
3.2190003 -0.68670189 1.5277708 0
3.2140002 -0.6906414 1.5257776 0
3.2090001 -0.69456285 1.5237843 0
3.2040002 -0.6984663 1.5217911 0
3.1990001 -0.70235169 1.5197978 0
3.1940002 -0.70621908 1.5178047 0
3.1900003 -0.71030653 1.5162102 0
3.1850002 -0.71413958 1.514217 0
3.1800003 -0.71795464 1.5122238 0
3.1750002 -0.72175163 1.5102305 0
3.1700003 -0.72553068 1.5082374 0
3.1660001 -0.72953868 1.5066427 0
3.1610003 -0.73328346 1.5046495 0
3.1560001 -0.73701006 1.5026562 0
3.1510003 -0.74071872 1.5006632 0
3.1470003 -0.74466366 1.4990686 0
3.1420002 -0.74833798 1.4970753 0
3.1370003 -0.75199431 1.4950823 0
3.1330001 -0.75589234 1.4934875 0
3.1280003 -0.75951439 1.4914944 0
3.1240003 -0.76338178 1.4898999 0
3.1190002 -0.76696956 1.4879067 0
3.1140003 -0.77053928 1.4859135 0
3.1100001 -0.7743597 1.4843189 0
3.1050003 -0.77789521 1.4823257 0
3.1010003 -0.78168505 1.480731 0
3.0960002 -0.78518617 1.4787378 0
3.0920002 -0.78894538 1.4771433 0
3.0870001 -0.79241222 1.4751501 0
3.0830002 -0.79614073 1.4735554 0
3.0780003 -0.79957336 1.4715624 0
3.0740001 -0.80327111 1.4699676 0
3.0690002 -0.80666953 1.4679745 0
3.0650003 -0.81033671 1.46638 0
3.0610001 -0.8139894 1.4647853 0
3.0560002 -0.81733727 1.4627922 0
3.0520003 -0.82095933 1.4611976 0
3.0470002 -0.82427287 1.4592043 0
3.0430002 -0.82786429 1.4576099 0
3.0390003 -0.83144128 1.4560153 0
3.0350003 -0.83500379 1.4544207 0
3.0300002 -0.83825064 1.4524275 0
3.0260003 -0.84178251 1.4508328 0
3.0220003 -0.84529996 1.4492384 0
3.0170002 -0.84849626 1.4472451 0
3.0130002 -0.85198301 1.4456506 0
3.0090003 -0.8554554 1.444056 0
3.0050001 -0.85891324 1.4424615 0
3.0000002 -0.86204284 1.4404683 0
2.9960003 -0.86547011 1.4388738 0
2.9920001 -0.86888289 1.4372791 0
2.9880002 -0.87228125 1.4356846 0
2.9840002 -0.87566519 1.43409 0
2.9800003 -0.87903476 1.4324955 0
2.9760003 -0.88238984 1.4309008 0
3.8170002 -0.20625393 1.7599947 0
3.8090003 -0.21202792 1.7568202 0
3.8020003 -0.21782357 1.7540424 0
3.7950003 -0.22359395 1.7512643 0
3.7880003 -0.22933908 1.7484865 0
3.7810001 -0.23505895 1.7457086 0
3.7740002 -0.24075356 1.7429308 0
3.7670002 -0.24642293 1.740153 0
3.7600002 -0.25206706 1.737375 0
3.7530003 -0.2576859 1.7345972 0
3.7460003 -0.26327953 1.7318194 0
3.7390003 -0.26884788 1.7290416 0
3.7320004 -0.274391 1.7262636 0
3.7250001 -0.27990884 1.7234857 0
3.7180002 -0.2854014 1.7207079 0
3.7110002 -0.29086876 1.7179301 0
3.7040002 -0.29631087 1.7151521 0
3.6980002 -0.30180526 1.7127711 0
3.6910002 -0.30719864 1.7099932 0
3.6840003 -0.31256679 1.7072154 0
3.6780002 -0.31799266 1.7048343 0
3.6710002 -0.32331204 1.7020565 0
3.6640003 -0.32860625 1.6992786 0
3.6580002 -0.33396357 1.6968976 0
3.6510003 -0.33920902 1.6941198 0
3.6450002 -0.34452125 1.6917387 0
3.6380002 -0.349718 1.6889609 0
3.6320002 -0.35498515 1.6865798 0
3.6250002 -0.3601332 1.683802 0
3.6190002 -0.36535522 1.6814209 0
3.6120002 -0.37045461 1.6786431 0
3.6060002 -0.37563151 1.676262 0
3.6000001 -0.38078681 1.6738809 0
3.5930002 -0.38581401 1.6711031 0
3.5870001 -0.39092419 1.6687222 0
3.5810003 -0.39601278 1.6663412 0
3.5740004 -0.40096781 1.6635633 0
3.5680003 -0.40601128 1.6611822 0
3.5620003 -0.41103306 1.6588012 0
3.5560002 -0.41603324 1.6564201 0
3.5490003 -0.42089269 1.6536423 0
3.5430002 -0.42584774 1.6512612 0
3.5370002 -0.43078116 1.6488802 0
3.5310001 -0.43569291 1.6464992 0
3.5250003 -0.44058305 1.6441183 0
3.5190003 -0.44545156 1.6417372 0
3.5130002 -0.45029837 1.6393561 0
3.5070002 -0.45512354 1.6369752 0
3.5010002 -0.45992708 1.6345941 0
3.4950001 -0.46470898 1.632213 0
3.4890003 -0.46946925 1.6298321 0
3.4830003 -0.47420785 1.6274509 0
3.4770002 -0.47892481 1.62507 0
3.4710002 -0.48362011 1.6226889 0
3.4660003 -0.4884381 1.6207048 0
3.4600003 -0.49309191 1.6183237 0
3.4540002 -0.49772409 1.6159427 0
3.4480002 -0.50233459 1.6135616 0
3.4420002 -0.5069235 1.6111805 0
3.4370003 -0.51164407 1.6091964 0
3.4310002 -0.51619148 1.6068155 0
3.4250002 -0.5207172 1.6044344 0
3.4200003 -0.52538007 1.6024503 0
3.4140003 -0.52986431 1.6000692 0
3.4080002 -0.53432691 1.5976882 0
3.4030004 -0.53893209 1.595704 0
3.3970003 -0.54335326 1.593323 0
3.3920002 -0.54792047 1.5913388 0
3.3860002 -0.55230016 1.5889578 0
3.3810003 -0.55682945 1.5869737 0
3.3750002 -0.5611676 1.5845926 0
3.3700001 -0.56565911 1.5826083 0
3.3640003 -0.56995577 1.5802274 0
3.3590002 -0.57440937 1.5782431 0
3.3530002 -0.5786646 1.5758621 0
3.3480003 -0.58308029 1.5738779 0
3.3420002 -0.58729398 1.571497 0
3.3370001 -0.59167182 1.5695127 0
3.3320003 -0.59603161 1.5675285 0
3.3260002 -0.60018402 1.5651475 0
3.3210003 -0.60450596 1.5631633 0
3.3160002 -0.60880983 1.561179 0
3.3110003 -0.6130957 1.5591949 0
3.3050003 -0.61716688 1.556814 0
3.3000002 -0.62141478 1.5548296 0
3.2950003 -0.6256448 1.5528455 0
3.2900002 -0.62985665 1.5508614 0
3.2840002 -0.63384664 1.5484803 0
3.2790003 -0.63802069 1.5464962 0
3.2740002 -0.64217663 1.5445119 0
3.2690003 -0.64631462 1.5425278 0
3.2640002 -0.65043449 1.5405436 0
3.2590003 -0.65453637 1.5385593 0
3.2540002 -0.65862018 1.5365751 0
3.2490003 -0.66268599 1.534591 0
3.2440002 -0.66673374 1.5326067 0
3.2390003 -0.67076343 1.5306227 0
3.2340002 -0.67477506 1.5286384 0
3.2290003 -0.67876869 1.5266542 0
3.2240002 -0.68274426 1.52467 0
3.2190003 -0.68670189 1.5226859 0
3.2140002 -0.6906414 1.5207016 0
3.2090001 -0.69456285 1.5187174 0
3.2040002 -0.6984663 1.5167332 0
3.1990001 -0.70235169 1.5147491 0
3.1940002 -0.70621908 1.5127649 0
3.1900003 -0.71030653 1.5111775 0
3.1850002 -0.71413958 1.5091933 0
3.1800003 -0.71795464 1.5072092 0
3.1750002 -0.72175163 1.5052249 0
3.1700003 -0.72553068 1.5032408 0
3.1660001 -0.72953868 1.5016534 0
3.1610003 -0.73328346 1.4996693 0
3.1560001 -0.73701006 1.497685 0
3.1510003 -0.74071872 1.4957008 0
3.1470003 -0.74466366 1.4941136 0
3.1420002 -0.74833798 1.4921293 0
3.1370003 -0.75199431 1.4901452 0
3.1330001 -0.75589234 1.4885577 0
3.1280003 -0.75951439 1.4865736 0
3.1240003 -0.76338178 1.4849862 0
3.1190002 -0.76696956 1.4830019 0
3.1140003 -0.77053928 1.4810179 0
3.1100001 -0.7743597 1.4794304 0
3.1050003 -0.77789521 1.4774463 0
3.1010003 -0.78168505 1.4758589 0
3.0960002 -0.78518617 1.4738747 0
3.0920002 -0.78894538 1.4722874 0
3.0870001 -0.79241222 1.4703032 0
3.0830002 -0.79614073 1.4687159 0
3.0780003 -0.79957336 1.4667317 0
3.0740001 -0.80327111 1.4651444 0
3.0690002 -0.80666953 1.4631602 0
3.0650003 -0.81033671 1.4615729 0
3.0610001 -0.8139894 1.4599854 0
3.0560002 -0.81733727 1.4580013 0
3.0520003 -0.82095933 1.456414 0
3.0470002 -0.82427287 1.4544297 0
3.0430002 -0.82786429 1.4528424 0
3.0390003 -0.83144128 1.451255 0
3.0350003 -0.83500379 1.4496678 0
3.0300002 -0.83825064 1.4476835 0
3.0260003 -0.84178251 1.4460962 0
3.0220003 -0.84529996 1.4445088 0
3.0170002 -0.84849626 1.4425247 0
3.0130002 -0.85198301 1.4409373 0
3.0090003 -0.8554554 1.4393499 0
3.0050001 -0.85891324 1.4377625 0
3.0000002 -0.86204284 1.4357784 0
2.9960003 -0.86547011 1.4341911 0
2.9920001 -0.86888289 1.4326036 0
2.9880002 -0.87228125 1.4310162 0
2.9840002 -0.87566519 1.4294289 0
2.9800003 -0.87903476 1.4278417 0
2.9760003 -0.88238984 1.4262543 0
3.8170002 -0.20625393 1.7538311 0
3.8090003 -0.21202792 1.750671 0
3.8020003 -0.21782357 1.7479057 0
3.7950003 -0.22359395 1.7451406 0
3.7880003 -0.22933908 1.7423753 0
3.7810001 -0.23505895 1.73961 0
3.7740002 -0.24075356 1.7368447 0
3.7670002 -0.24642293 1.7340796 0
3.7600002 -0.25206706 1.7313143 0
3.7530003 -0.2576859 1.728549 0
3.7460003 -0.26327953 1.7257838 0
3.7390003 -0.26884788 1.7230185 0
3.7320004 -0.274391 1.7202533 0
3.7250001 -0.27990884 1.7174881 0
3.7180002 -0.2854014 1.7147229 0
3.7110002 -0.29086876 1.7119576 0
3.7040002 -0.29631087 1.7091924 0
3.6980002 -0.30180526 1.7068222 0
3.6910002 -0.30719864 1.7040569 0
3.6840003 -0.31256679 1.7012917 0
3.6780002 -0.31799266 1.6989214 0
3.6710002 -0.32331204 1.6961563 0
3.6640003 -0.32860625 1.6933911 0
3.6580002 -0.33396357 1.6910208 0
3.6510003 -0.33920902 1.6882557 0
3.6450002 -0.34452125 1.6858854 0
3.6380002 -0.349718 1.6831201 0
3.6320002 -0.35498515 1.68075 0
3.6250002 -0.3601332 1.6779847 0
3.6190002 -0.36535522 1.6756145 0
3.6120002 -0.37045461 1.6728493 0
3.6060002 -0.37563151 1.6704791 0
3.6000001 -0.38078681 1.6681088 0
3.5930002 -0.38581401 1.6653436 0
3.5870001 -0.39092419 1.6629734 0
3.5810003 -0.39601278 1.6606032 0
3.5740004 -0.40096781 1.6578381 0
3.5680003 -0.40601128 1.6554677 0
3.5620003 -0.41103306 1.6530975 0
3.5560002 -0.41603324 1.6507273 0
3.5490003 -0.42089269 1.6479621 0
3.5430002 -0.42584774 1.6455919 0
3.5370002 -0.43078116 1.6432216 0
3.5310001 -0.43569291 1.6408515 0
3.5250003 -0.44058305 1.6384814 0
3.5190003 -0.44545156 1.6361111 0
3.5130002 -0.45029837 1.6337409 0
3.5070002 -0.45512354 1.6313707 0
3.5010002 -0.45992708 1.6290004 0
3.4950001 -0.46470898 1.6266302 0
3.4890003 -0.46946925 1.6242601 0
3.4830003 -0.47420785 1.6218899 0
3.4770002 -0.47892481 1.6195197 0
3.4710002 -0.48362011 1.6171495 0
3.4660003 -0.4884381 1.6151743 0
3.4600003 -0.49309191 1.6128041 0
3.4540002 -0.49772409 1.6104339 0
3.4480002 -0.50233459 1.6080637 0
3.4420002 -0.5069235 1.6056935 0
3.4370003 -0.51164407 1.6037183 0
3.4310002 -0.51619148 1.601348 0
3.4250002 -0.5207172 1.5989779 0
3.4200003 -0.52538007 1.5970027 0
3.4140003 -0.52986431 1.5946325 0
3.4080002 -0.53432691 1.5922623 0
3.4030004 -0.53893209 1.5902872 0
3.3970003 -0.54335326 1.587917 0
3.3920002 -0.54792047 1.5859418 0
3.3860002 -0.55230016 1.5835716 0
3.3810003 -0.55682945 1.5815965 0
3.3750002 -0.5611676 1.5792261 0
3.3700001 -0.56565911 1.577251 0
3.3640003 -0.56995577 1.5748808 0
3.3590002 -0.57440937 1.5729055 0
3.3530002 -0.5786646 1.5705354 0
3.3480003 -0.58308029 1.5685604 0
3.3420002 -0.58729398 1.5661901 0
3.3370001 -0.59167182 1.5642148 0
3.3320003 -0.59603161 1.5622398 0
3.3260002 -0.60018402 1.5598695 0
3.3210003 -0.60450596 1.5578943 0
3.3160002 -0.60880983 1.5559192 0
3.3110003 -0.6130957 1.553944 0
3.3050003 -0.61716688 1.5515739 0
3.3000002 -0.62141478 1.5495987 0
3.2950003 -0.6256448 1.5476235 0
3.2900002 -0.62985665 1.5456483 0
3.2840002 -0.63384664 1.5432781 0
3.2790003 -0.63802069 1.5413029 0
3.2740002 -0.64217663 1.5393277 0
3.2690003 -0.64631462 1.5373526 0
3.2640002 -0.65043449 1.5353774 0
3.2590003 -0.65453637 1.5334022 0
3.2540002 -0.65862018 1.531427 0
3.2490003 -0.66268599 1.529452 0
3.2440002 -0.66673374 1.5274767 0
3.2390003 -0.67076343 1.5255016 0
3.2340002 -0.67477506 1.5235263 0
3.2290003 -0.67876869 1.5215513 0
3.2240002 -0.68274426 1.5195761 0
3.2190003 -0.68670189 1.517601 0
3.2140002 -0.6906414 1.5156257 0
3.2090001 -0.69456285 1.5136505 0
3.2040002 -0.6984663 1.5116755 0
3.1990001 -0.70235169 1.5097002 0
3.1940002 -0.70621908 1.5077251 0
3.1900003 -0.71030653 1.506145 0
3.1850002 -0.71413958 1.5041697 0
3.1800003 -0.71795464 1.5021946 0
3.1750002 -0.72175163 1.5002195 0
3.1700003 -0.72553068 1.4982443 0
3.1660001 -0.72953868 1.496664 0
3.1610003 -0.73328346 1.494689 0
3.1560001 -0.73701006 1.4927138 0
3.1510003 -0.74071872 1.4907386 0
3.1470003 -0.74466366 1.4891584 0
3.1420002 -0.74833798 1.4871833 0
3.1370003 -0.75199431 1.4852082 0
3.1330001 -0.75589234 1.483628 0
3.1280003 -0.75951439 1.4816527 0
3.1240003 -0.76338178 1.4800726 0
3.1190002 -0.76696956 1.4780974 0
3.1140003 -0.77053928 1.4761224 0
3.1100001 -0.7743597 1.4745421 0
3.1050003 -0.77789521 1.472567 0
3.1010003 -0.78168505 1.470987 0
3.0960002 -0.78518617 1.4690117 0
3.0920002 -0.78894538 1.4674315 0
3.0870001 -0.79241222 1.4654564 0
3.0830002 -0.79614073 1.4638762 0
3.0780003 -0.79957336 1.4619012 0
3.0740001 -0.80327111 1.4603209 0
3.0690002 -0.80666953 1.4583459 0
3.0650003 -0.81033671 1.4567658 0
3.0610001 -0.8139894 1.4551855 0
3.0560002 -0.81733727 1.4532104 0
3.0520003 -0.82095933 1.4516302 0
3.0470002 -0.82427287 1.4496549 0
3.0430002 -0.82786429 1.4480749 0
3.0390003 -0.83144128 1.4464948 0
3.0350003 -0.83500379 1.4449147 0
3.0300002 -0.83825064 1.4429395 0
3.0260003 -0.84178251 1.4413594 0
3.0220003 -0.84529996 1.4397792 0
3.0170002 -0.84849626 1.4378041 0
3.0130002 -0.85198301 1.4362239 0
3.0090003 -0.8554554 1.4346437 0
3.0050001 -0.85891324 1.4330635 0
3.0000002 -0.86204284 1.4310884 0
2.9960003 -0.86547011 1.4295083 0
2.9920001 -0.86888289 1.4279281 0
2.9880002 -0.87228125 1.4263481 0
2.9840002 -0.87566519 1.4247679 0
2.9800003 -0.87903476 1.4231877 0
3.8170002 -0.20625393 1.7476676 0
3.8090003 -0.21202792 1.7445219 0
3.8020003 -0.21782357 1.7417692 0
3.7950003 -0.22359395 1.7390165 0
3.7880003 -0.22933908 1.736264 0
3.7810001 -0.23505895 1.7335112 0
3.7740002 -0.24075356 1.7307588 0
3.7670002 -0.24642293 1.7280061 0
3.7600002 -0.25206706 1.7252535 0
3.7530003 -0.2576859 1.7225009 0
3.7460003 -0.26327953 1.7197483 0
3.7390003 -0.26884788 1.7169957 0
3.7320004 -0.274391 1.7142431 0
3.7250001 -0.27990884 1.7114904 0
3.7180002 -0.2854014 1.7087379 0
3.7110002 -0.29086876 1.7059852 0
3.7040002 -0.29631087 1.7032326 0
3.6980002 -0.30180526 1.7008733 0
3.6910002 -0.30719864 1.6981206 0
3.6840003 -0.31256679 1.6953681 0
3.6780002 -0.31799266 1.6930085 0
3.6710002 -0.32331204 1.690256 0
3.6640003 -0.32860625 1.6875035 0
3.6580002 -0.33396357 1.6851439 0
3.6510003 -0.33920902 1.6823914 0
3.6450002 -0.34452125 1.680032 0
3.6380002 -0.349718 1.6772795 0
3.6320002 -0.35498515 1.6749201 0
3.6250002 -0.3601332 1.6721674 0
3.6190002 -0.36535522 1.669808 0
3.6120002 -0.37045461 1.6670554 0
3.6060002 -0.37563151 1.664696 0
3.6000001 -0.38078681 1.6623367 0
3.5930002 -0.38581401 1.659584 0
3.5870001 -0.39092419 1.6572247 0
3.5810003 -0.39601278 1.6548654 0
3.5740004 -0.40096781 1.6521127 0
3.5680003 -0.40601128 1.6497533 0
3.5620003 -0.41103306 1.6473939 0
3.5560002 -0.41603324 1.6450346 0
3.5490003 -0.42089269 1.642282 0
3.5430002 -0.42584774 1.6399225 0
3.5370002 -0.43078116 1.6375631 0
3.5310001 -0.43569291 1.6352037 0
3.5250003 -0.44058305 1.6328444 0
3.5190003 -0.44545156 1.6304849 0
3.5130002 -0.45029837 1.6281257 0
3.5070002 -0.45512354 1.6257663 0
3.5010002 -0.45992708 1.6234069 0
3.4950001 -0.46470898 1.6210475 0
3.4890003 -0.46946925 1.6186881 0
3.4830003 -0.47420785 1.6163288 0
3.4770002 -0.47892481 1.6139693 0
3.4710002 -0.48362011 1.6116099 0
3.4660003 -0.4884381 1.6096438 0
3.4600003 -0.49309191 1.6072844 0
3.4540002 -0.49772409 1.604925 0
3.4480002 -0.50233459 1.6025658 0
3.4420002 -0.5069235 1.6002063 0
3.4370003 -0.51164407 1.5982401 0
3.4310002 -0.51619148 1.5958809 0
3.4250002 -0.5207172 1.5935214 0
3.4200003 -0.52538007 1.5915552 0
3.4140003 -0.52986431 1.589196 0
3.4080002 -0.53432691 1.5868365 0
3.4030004 -0.53893209 1.5848703 0
3.3970003 -0.54335326 1.5825109 0
3.3920002 -0.54792047 1.5805448 0
3.3860002 -0.55230016 1.5781853 0
3.3810003 -0.55682945 1.5762192 0
3.3750002 -0.5611676 1.5738599 0
3.3700001 -0.56565911 1.5718937 0
3.3640003 -0.56995577 1.5695343 0
3.3590002 -0.57440937 1.5675682 0
3.3530002 -0.5786646 1.5652088 0
3.3480003 -0.58308029 1.5632427 0
3.3420002 -0.58729398 1.5608833 0
3.3370001 -0.59167182 1.558917 0
3.3320003 -0.59603161 1.5569509 0
3.3260002 -0.60018402 1.5545917 0
3.3210003 -0.60450596 1.5526255 0
3.3160002 -0.60880983 1.5506593 0
3.3110003 -0.6130957 1.5486932 0
3.3050003 -0.61716688 1.5463338 0
3.3000002 -0.62141478 1.5443676 0
3.2950003 -0.6256448 1.5424014 0
3.2900002 -0.62985665 1.5404353 0
3.2840002 -0.63384664 1.5380759 0
3.2790003 -0.63802069 1.5361098 0
3.2740002 -0.64217663 1.5341437 0
3.2690003 -0.64631462 1.5321774 0
3.2640002 -0.65043449 1.5302112 0
3.2590003 -0.65453637 1.5282452 0
3.2540002 -0.65862018 1.526279 0
3.2490003 -0.66268599 1.5243129 0
3.2440002 -0.66673374 1.5223466 0
3.2390003 -0.67076343 1.5203806 0
3.2340002 -0.67477506 1.5184144 0
3.2290003 -0.67876869 1.5164483 0
3.2240002 -0.68274426 1.5144821 0
3.2190003 -0.68670189 1.512516 0
3.2140002 -0.6906414 1.5105498 0
3.2090001 -0.69456285 1.5085837 0
3.2040002 -0.6984663 1.5066175 0
3.1990001 -0.70235169 1.5046513 0
3.1940002 -0.70621908 1.5026852 0
3.1900003 -0.71030653 1.5011123 0
3.1850002 -0.71413958 1.4991461 0
3.1800003 -0.71795464 1.49718 0
3.1750002 -0.72175163 1.4952137 0
3.1700003 -0.72553068 1.4932477 0
3.1660001 -0.72953868 1.4916748 0
3.1610003 -0.73328346 1.4897085 0
3.1560001 -0.73701006 1.4877424 0
3.1510003 -0.74071872 1.4857763 0
3.1470003 -0.74466366 1.4842035 0
3.1420002 -0.74833798 1.4822372 0
3.1370003 -0.75199431 1.4802712 0
3.1330001 -0.75589234 1.4786981 0
3.1280003 -0.75951439 1.476732 0
3.1240003 -0.76338178 1.475159 0
3.1190002 -0.76696956 1.4731929 0
3.1140003 -0.77053928 1.4712268 0
3.1100001 -0.7743597 1.4696538 0
3.1050003 -0.77789521 1.4676877 0
3.1010003 -0.78168505 1.4661149 0
3.0960002 -0.78518617 1.4641486 0
3.0920002 -0.78894538 1.4625757 0
3.0870001 -0.79241222 1.4606096 0
3.0830002 -0.79614073 1.4590367 0
3.0780003 -0.79957336 1.4570705 0
3.0740001 -0.80327111 1.4554975 0
3.0690002 -0.80666953 1.4535315 0
3.0650003 -0.81033671 1.4519585 0
3.0610001 -0.8139894 1.4503856 0
3.0560002 -0.81733727 1.4484195 0
3.0520003 -0.82095933 1.4468466 0
3.0470002 -0.82427287 1.4448804 0
3.0430002 -0.82786429 1.4433074 0
3.0390003 -0.83144128 1.4417346 0
3.0350003 -0.83500379 1.4401617 0
3.0300002 -0.83825064 1.4381955 0
3.0260003 -0.84178251 1.4366225 0
3.0220003 -0.84529996 1.4350497 0
3.0170002 -0.84849626 1.4330835 0
3.0130002 -0.85198301 1.4315106 0
3.0090003 -0.8554554 1.4299376 0
3.0050001 -0.85891324 1.4283646 0
3.0000002 -0.86204284 1.4263986 0
2.9960003 -0.86547011 1.4248257 0
2.9920001 -0.86888289 1.4232527 0
2.9880002 -0.87228125 1.4216797 0
2.9840002 -0.87566519 1.4201069 0
2.9800003 -0.87903476 1.418534 0
3.8170002 -0.20625393 1.741504 0
3.8090003 -0.21202792 1.7383727 0
3.8020003 -0.21782357 1.7356327 0
3.7950003 -0.22359395 1.7328926 0
3.7880003 -0.22933908 1.7301526 0
3.7810001 -0.23505895 1.7274126 0
3.7740002 -0.24075356 1.7246727 0
3.7670002 -0.24642293 1.7219326 0
3.7600002 -0.25206706 1.7191927 0
3.7530003 -0.2576859 1.7164527 0
3.7460003 -0.26327953 1.7137127 0
3.7390003 -0.26884788 1.7109728 0
3.7320004 -0.274391 1.7082329 0
3.7250001 -0.27990884 1.7054927 0
3.7180002 -0.2854014 1.7027528 0
3.7110002 -0.29086876 1.7000128 0
3.7040002 -0.29631087 1.6972728 0
3.6980002 -0.30180526 1.6949242 0
3.6910002 -0.30719864 1.6921843 0
3.6840003 -0.31256679 1.6894443 0
3.6780002 -0.31799266 1.6870958 0
3.6710002 -0.32331204 1.6843557 0
3.6640003 -0.32860625 1.6816157 0
3.6580002 -0.33396357 1.6792672 0
3.6510003 -0.33920902 1.6765273 0
3.6450002 -0.34452125 1.6741787 0
3.6380002 -0.349718 1.6714387 0
3.6320002 -0.35498515 1.66909 0
3.6250002 -0.3601332 1.6663501 0
3.6190002 -0.36535522 1.6640016 0
3.6120002 -0.37045461 1.6612616 0
3.6060002 -0.37563151 1.658913 0
3.6000001 -0.38078681 1.6565645 0
3.5930002 -0.38581401 1.6538246 0
3.5870001 -0.39092419 1.6514758 0
3.5810003 -0.39601278 1.6491274 0
3.5740004 -0.40096781 1.6463875 0
3.5680003 -0.40601128 1.6440389 0
3.5620003 -0.41103306 1.6416904 0
3.5560002 -0.41603324 1.6393417 0
3.5490003 -0.42089269 1.6366017 0
3.5430002 -0.42584774 1.6342531 0
3.5370002 -0.43078116 1.6319046 0
3.5310001 -0.43569291 1.6295561 0
3.5250003 -0.44058305 1.6272075 0
3.5190003 -0.44545156 1.624859 0
3.5130002 -0.45029837 1.6225104 0
3.5070002 -0.45512354 1.6201618 0
3.5010002 -0.45992708 1.6178132 0
3.4950001 -0.46470898 1.6154647 0
3.4890003 -0.46946925 1.6131161 0
3.4830003 -0.47420785 1.6107676 0
3.4770002 -0.47892481 1.6084191 0
3.4710002 -0.48362011 1.6060705 0
3.4660003 -0.4884381 1.6041133 0
3.4600003 -0.49309191 1.6017648 0
3.4540002 -0.49772409 1.5994163 0
3.4480002 -0.50233459 1.5970676 0
3.4420002 -0.5069235 1.5947191 0
3.4370003 -0.51164407 1.592762 0
3.4310002 -0.51619148 1.5904135 0
3.4250002 -0.5207172 1.5880649 0
3.4200003 -0.52538007 1.5861077 0
3.4140003 -0.52986431 1.5837592 0
3.4080002 -0.53432691 1.5814106 0
3.4030004 -0.53893209 1.5794536 0
3.3970003 -0.54335326 1.5771049 0
3.3920002 -0.54792047 1.5751477 0
3.3860002 -0.55230016 1.5727992 0
3.3810003 -0.55682945 1.570842 0
3.3750002 -0.5611676 1.5684935 0
3.3700001 -0.56565911 1.5665363 0
3.3640003 -0.56995577 1.5641879 0
3.3590002 -0.57440937 1.5622307 0
3.3530002 -0.5786646 1.5598822 0
3.3480003 -0.58308029 1.5579251 0
3.3420002 -0.58729398 1.5555766 0
3.3370001 -0.59167182 1.5536193 0
3.3320003 -0.59603161 1.5516622 0
3.3260002 -0.60018402 1.5493137 0
3.3210003 -0.60450596 1.5473566 0
3.3160002 -0.60880983 1.5453994 0
3.3110003 -0.6130957 1.5434424 0
3.3050003 -0.61716688 1.5410938 0
3.3000002 -0.62141478 1.5391366 0
3.2950003 -0.6256448 1.5371795 0
3.2900002 -0.62985665 1.5352223 0
3.2840002 -0.63384664 1.5328737 0
3.2790003 -0.63802069 1.5309167 0
3.2740002 -0.64217663 1.5289595 0
3.2690003 -0.64631462 1.5270025 0
3.2640002 -0.65043449 1.5250453 0
3.2590003 -0.65453637 1.5230881 0
3.2540002 -0.65862018 1.5211309 0
3.2490003 -0.66268599 1.5191739 0
3.2440002 -0.66673374 1.5172167 0
3.2390003 -0.67076343 1.5152596 0
3.2340002 -0.67477506 1.5133024 0
3.2290003 -0.67876869 1.5113454 0
3.2240002 -0.68274426 1.5093882 0
3.2190003 -0.68670189 1.507431 0
3.2140002 -0.6906414 1.5054739 0
3.2090001 -0.69456285 1.5035167 0
3.2040002 -0.6984663 1.5015596 0
3.1990001 -0.70235169 1.4996024 0
3.1940002 -0.70621908 1.4976454 0
3.1900003 -0.71030653 1.4960797 0
3.1850002 -0.71413958 1.4941225 0
3.1800003 -0.71795464 1.4921654 0
3.1750002 -0.72175163 1.4902083 0
3.1700003 -0.72553068 1.4882511 0
3.1660001 -0.72953868 1.4866854 0
3.1610003 -0.73328346 1.4847283 0
3.1560001 -0.73701006 1.4827712 0
3.1510003 -0.74071872 1.4808141 0
3.1470003 -0.74466366 1.4792484 0
3.1420002 -0.74833798 1.4772912 0
3.1370003 -0.75199431 1.4753342 0
3.1330001 -0.75589234 1.4737684 0
3.1280003 -0.75951439 1.4718112 0
3.1240003 -0.76338178 1.4702455 0
3.1190002 -0.76696956 1.4682883 0
3.1140003 -0.77053928 1.4663312 0
3.1100001 -0.7743597 1.4647655 0
3.1050003 -0.77789521 1.4628085 0
3.1010003 -0.78168505 1.4612428 0
3.0960002 -0.78518617 1.4592856 0
3.0920002 -0.78894538 1.4577199 0
3.0870001 -0.79241222 1.4557626 0
3.0830002 -0.79614073 1.4541969 0
3.0780003 -0.79957336 1.4522399 0
3.0740001 -0.80327111 1.4506742 0
3.0690002 -0.80666953 1.4487171 0
3.0650003 -0.81033671 1.4471514 0
3.0610001 -0.8139894 1.4455856 0
3.0560002 -0.81733727 1.4436285 0
3.0520003 -0.82095933 1.4420629 0
3.0470002 -0.82427287 1.4401056 0
3.0430002 -0.82786429 1.43854 0
3.0390003 -0.83144128 1.4369743 0
3.0350003 -0.83500379 1.4354086 0
3.0300002 -0.83825064 1.4334514 0
3.0260003 -0.84178251 1.4318857 0
3.0220003 -0.84529996 1.4303201 0
3.0170002 -0.84849626 1.428363 0
3.0130002 -0.85198301 1.4267973 0
3.0090003 -0.8554554 1.4252315 0
3.0050001 -0.85891324 1.4236658 0
3.0000002 -0.86204284 1.4217086 0
2.9960003 -0.86547011 1.420143 0
2.9920001 -0.86888289 1.4185772 0
2.9880002 -0.87228125 1.4170115 0
2.9840002 -0.87566519 1.4154458 0
2.9800003 -0.87903476 1.4138801 0
3.8170002 -0.20625393 1.7353404 0
3.8090003 -0.21202792 1.7322234 0
3.8020003 -0.21782357 1.729496 0
3.7950003 -0.22359395 1.7267687 0
3.7880003 -0.22933908 1.7240413 0
3.7810001 -0.23505895 1.721314 0
3.7740002 -0.24075356 1.7185866 0
3.7670002 -0.24642293 1.7158593 0
3.7600002 -0.25206706 1.7131319 0
3.7530003 -0.2576859 1.7104045 0
3.7460003 -0.26327953 1.7076771 0
3.7390003 -0.26884788 1.7049499 0
3.7320004 -0.274391 1.7022225 0
3.7250001 -0.27990884 1.6994951 0
3.7180002 -0.2854014 1.6967677 0
3.7110002 -0.29086876 1.6940404 0
3.7040002 -0.29631087 1.691313 0
3.6980002 -0.30180526 1.6889753 0
3.6910002 -0.30719864 1.6862479 0
3.6840003 -0.31256679 1.6835207 0
3.6780002 -0.31799266 1.6811829 0
3.6710002 -0.32331204 1.6784555 0
3.6640003 -0.32860625 1.6757282 0
3.6580002 -0.33396357 1.6733904 0
3.6510003 -0.33920902 1.6706631 0
3.6450002 -0.34452125 1.6683253 0
3.6380002 -0.349718 1.6655979 0
3.6320002 -0.35498515 1.6632601 0
3.6250002 -0.3601332 1.6605328 0
3.6190002 -0.36535522 1.6581951 0
3.6120002 -0.37045461 1.6554677 0
3.6060002 -0.37563151 1.6531301 0
3.6000001 -0.38078681 1.6507922 0
3.5930002 -0.38581401 1.6480649 0
3.5870001 -0.39092419 1.6457272 0
3.5810003 -0.39601278 1.6433896 0
3.5740004 -0.40096781 1.6406621 0
3.5680003 -0.40601128 1.6383244 0
3.5620003 -0.41103306 1.6359867 0
3.5560002 -0.41603324 1.6336489 0
3.5490003 -0.42089269 1.6309215 0
3.5430002 -0.42584774 1.6285838 0
3.5370002 -0.43078116 1.6262461 0
3.5310001 -0.43569291 1.6239083 0
3.5250003 -0.44058305 1.6215707 0
3.5190003 -0.44545156 1.6192329 0
3.5130002 -0.45029837 1.6168951 0
3.5070002 -0.45512354 1.6145574 0
3.5010002 -0.45992708 1.6122197 0
3.4950001 -0.46470898 1.6098819 0
3.4890003 -0.46946925 1.6075442 0
3.4830003 -0.47420785 1.6052065 0
3.4770002 -0.47892481 1.6028687 0
3.4710002 -0.48362011 1.6005309 0
3.4660003 -0.4884381 1.5985829 0
3.4600003 -0.49309191 1.5962452 0
3.4540002 -0.49772409 1.5939074 0
3.4480002 -0.50233459 1.5915697 0
3.4420002 -0.5069235 1.589232 0
3.4370003 -0.51164407 1.5872838 0
3.4310002 -0.51619148 1.5849462 0
3.4250002 -0.5207172 1.5826083 0
3.4200003 -0.52538007 1.5806603 0
3.4140003 -0.52986431 1.5783225 0
3.4080002 -0.53432691 1.5759847 0
3.4030004 -0.53893209 1.5740367 0
3.3970003 -0.54335326 1.5716989 0
3.3920002 -0.54792047 1.5697508 0
3.3860002 -0.55230016 1.567413 0
3.3810003 -0.55682945 1.565465 0
3.3750002 -0.5611676 1.5631273 0
3.3700001 -0.56565911 1.561179 0
3.3640003 -0.56995577 1.5588415 0
3.3590002 -0.57440937 1.5568932 0
3.3530002 -0.5786646 1.5545555 0
3.3480003 -0.58308029 1.5526074 0
3.3420002 -0.58729398 1.5502697 0
3.3370001 -0.59167182 1.5483216 0
3.3320003 -0.59603161 1.5463734 0
3.3260002 -0.60018402 1.5440358 0
3.3210003 -0.60450596 1.5420876 0
3.3160002 -0.60880983 1.5401394 0
3.3110003 -0.6130957 1.5381914 0
3.3050003 -0.61716688 1.5358536 0
3.3000002 -0.62141478 1.5339055 0
3.2950003 -0.6256448 1.5319575 0
3.2900002 -0.62985665 1.5300094 0
3.2840002 -0.63384664 1.5276716 0
3.2790003 -0.63802069 1.5257235 0
3.2740002 -0.64217663 1.5237752 0
3.2690003 -0.64631462 1.5218272 0
3.2640002 -0.65043449 1.5198791 0
3.2590003 -0.65453637 1.5179311 0
3.2540002 -0.65862018 1.5159829 0
3.2490003 -0.66268599 1.5140347 0
3.2440002 -0.66673374 1.5120866 0
3.2390003 -0.67076343 1.5101386 0
3.2340002 -0.67477506 1.5081905 0
3.2290003 -0.67876869 1.5062423 0
3.2240002 -0.68274426 1.5042942 0
3.2190003 -0.68670189 1.5023462 0
3.2140002 -0.6906414 1.500398 0
3.2090001 -0.69456285 1.4984498 0
3.2040002 -0.6984663 1.4965017 0
3.1990001 -0.70235169 1.4945536 0
3.1940002 -0.70621908 1.4926056 0
3.1900003 -0.71030653 1.491047 0
3.1850002 -0.71413958 1.4890989 0
3.1800003 -0.71795464 1.4871508 0
3.1750002 -0.72175163 1.4852027 0
3.1700003 -0.72553068 1.4832547 0
3.1660001 -0.72953868 1.481696 0
3.1610003 -0.73328346 1.479748 0
3.1560001 -0.73701006 1.4777999 0
3.1510003 -0.74071872 1.4758518 0
3.1470003 -0.74466366 1.4742934 0
3.1420002 -0.74833798 1.4723451 0
3.1370003 -0.75199431 1.4703971 0
3.1330001 -0.75589234 1.4688385 0
3.1280003 -0.75951439 1.4668905 0
3.1240003 -0.76338178 1.4653319 0
3.1190002 -0.76696956 1.4633838 0
3.1140003 -0.77053928 1.4614358 0
3.1100001 -0.7743597 1.4598771 0
3.1050003 -0.77789521 1.4579291 0
3.1010003 -0.78168505 1.4563706 0
3.0960002 -0.78518617 1.4544225 0
3.0920002 -0.78894538 1.4528641 0
3.0870001 -0.79241222 1.4509159 0
3.0830002 -0.79614073 1.4493574 0
3.0780003 -0.79957336 1.4474094 0
3.0740001 -0.80327111 1.4458507 0
3.0690002 -0.80666953 1.4439027 0
3.0650003 -0.81033671 1.4423442 0
3.0610001 -0.8139894 1.4407856 0
3.0560002 -0.81733727 1.4388376 0
3.0520003 -0.82095933 1.4372791 0
3.0470002 -0.82427287 1.435331 0
3.0430002 -0.82786429 1.4337724 0
3.0390003 -0.83144128 1.432214 0
3.0350003 -0.83500379 1.4306556 0
3.0300002 -0.83825064 1.4287074 0
3.0260003 -0.84178251 1.4271491 0
3.0220003 -0.84529996 1.4255905 0
3.0170002 -0.84849626 1.4236424 0
3.0130002 -0.85198301 1.4220839 0
3.0090003 -0.8554554 1.4205254 0
3.0050001 -0.85891324 1.4189668 0
3.0000002 -0.86204284 1.4170188 0
2.9960003 -0.86547011 1.4154602 0
2.9920001 -0.86888289 1.4139017 0
2.9880002 -0.87228125 1.4123433 0
2.9840002 -0.87566519 1.4107848 0
2.9800003 -0.87903476 1.4092263 0
3.8170002 -0.20625393 1.7291768 0
3.8090003 -0.21202792 1.7260742 0
3.8020003 -0.21782357 1.7233596 0
3.7950003 -0.22359395 1.7206448 0
3.7880003 -0.22933908 1.7179301 0
3.7810001 -0.23505895 1.7152153 0
3.7740002 -0.24075356 1.7125006 0
3.7670002 -0.24642293 1.7097858 0
3.7600002 -0.25206706 1.7070711 0
3.7530003 -0.2576859 1.7043563 0
3.7460003 -0.26327953 1.7016416 0
3.7390003 -0.26884788 1.6989269 0
3.7320004 -0.274391 1.6962123 0
3.7250001 -0.27990884 1.6934974 0
3.7180002 -0.2854014 1.6907827 0
3.7110002 -0.29086876 1.688068 0
3.7040002 -0.29631087 1.6853533 0
3.6980002 -0.30180526 1.6830263 0
3.6910002 -0.30719864 1.6803116 0
3.6840003 -0.31256679 1.6775969 0
3.6780002 -0.31799266 1.67527 0
3.6710002 -0.32331204 1.6725552 0
3.6640003 -0.32860625 1.6698405 0
3.6580002 -0.33396357 1.6675136 0
3.6510003 -0.33920902 1.6647989 0
3.6450002 -0.34452125 1.662472 0
3.6380002 -0.349718 1.6597573 0
3.6320002 -0.35498515 1.6574303 0
3.6250002 -0.3601332 1.6547157 0
3.6190002 -0.36535522 1.6523887 0
3.6120002 -0.37045461 1.6496739 0
3.6060002 -0.37563151 1.647347 0
3.6000001 -0.38078681 1.64502 0
3.5930002 -0.38581401 1.6423053 0
3.5870001 -0.39092419 1.6399784 0
3.5810003 -0.39601278 1.6376516 0
3.5740004 -0.40096781 1.6349368 0
3.5680003 -0.40601128 1.63261 0
3.5620003 -0.41103306 1.630283 0
3.5560002 -0.41603324 1.6279562 0
3.5490003 -0.42089269 1.6252414 0
3.5430002 -0.42584774 1.6229144 0
3.5370002 -0.43078116 1.6205875 0
3.5310001 -0.43569291 1.6182606 0
3.5250003 -0.44058305 1.6159338 0
3.5190003 -0.44545156 1.6136068 0
3.5130002 -0.45029837 1.6112798 0
3.5070002 -0.45512354 1.6089529 0
3.5010002 -0.45992708 1.606626 0
3.4950001 -0.46470898 1.6042991 0
3.4890003 -0.46946925 1.6019723 0
3.4830003 -0.47420785 1.5996453 0
3.4770002 -0.47892481 1.5973184 0
3.4710002 -0.48362011 1.5949914 0
3.4660003 -0.4884381 1.5930525 0
3.4600003 -0.49309191 1.5907254 0
3.4540002 -0.49772409 1.5883986 0
3.4480002 -0.50233459 1.5860716 0
3.4420002 -0.5069235 1.5837448 0
3.4370003 -0.51164407 1.5818056 0
3.4310002 -0.51619148 1.5794787 0
3.4250002 -0.5207172 1.5771518 0
3.4200003 -0.52538007 1.5752127 0
3.4140003 -0.52986431 1.5728858 0
3.4080002 -0.53432691 1.5705589 0
3.4030004 -0.53893209 1.5686198 0
3.3970003 -0.54335326 1.5662929 0
3.3920002 -0.54792047 1.5643538 0
3.3860002 -0.55230016 1.5620269 0
3.3810003 -0.55682945 1.5600878 0
3.3750002 -0.5611676 1.557761 0
3.3700001 -0.56565911 1.5558217 0
3.3640003 -0.56995577 1.5534949 0
3.3590002 -0.57440937 1.5515558 0
3.3530002 -0.5786646 1.5492289 0
3.3480003 -0.58308029 1.5472898 0
3.3420002 -0.58729398 1.5449629 0
3.3370001 -0.59167182 1.5430237 0
3.3320003 -0.59603161 1.5410846 0
3.3260002 -0.60018402 1.5387578 0
3.3210003 -0.60450596 1.5368187 0
3.3160002 -0.60880983 1.5348796 0
3.3110003 -0.6130957 1.5329405 0
3.3050003 -0.61716688 1.5306137 0
3.3000002 -0.62141478 1.5286744 0
3.2950003 -0.6256448 1.5267354 0
3.2900002 -0.62985665 1.5247962 0
3.2840002 -0.63384664 1.5224693 0
3.2790003 -0.63802069 1.5205303 0
3.2740002 -0.64217663 1.5185912 0
3.2690003 -0.64631462 1.5166521 0
3.2640002 -0.65043449 1.5147129 0
3.2590003 -0.65453637 1.512774 0
3.2540002 -0.65862018 1.5108348 0
3.2490003 -0.66268599 1.5088958 0
3.2440002 -0.66673374 1.5069566 0
3.2390003 -0.67076343 1.5050176 0
3.2340002 -0.67477506 1.5030783 0
3.2290003 -0.67876869 1.5011394 0
3.2240002 -0.68274426 1.4992002 0
3.2190003 -0.68670189 1.4972613 0
3.2140002 -0.6906414 1.495322 0
3.2090001 -0.69456285 1.4933829 0
3.2040002 -0.6984663 1.4914439 0
3.1990001 -0.70235169 1.4895048 0
3.1940002 -0.70621908 1.4875656 0
3.1900003 -0.71030653 1.4860145 0
3.1850002 -0.71413958 1.4840753 0
3.1800003 -0.71795464 1.4821362 0
3.1750002 -0.72175163 1.4801971 0
3.1700003 -0.72553068 1.4782581 0
3.1660001 -0.72953868 1.4767067 0
3.1610003 -0.73328346 1.4747677 0
3.1560001 -0.73701006 1.4728286 0
3.1510003 -0.74071872 1.4708894 0
3.1470003 -0.74466366 1.4693382 0
3.1420002 -0.74833798 1.4673991 0
3.1370003 -0.75199431 1.4654601 0
3.1330001 -0.75589234 1.4639088 0
3.1280003 -0.75951439 1.4619696 0
3.1240003 -0.76338178 1.4604183 0
3.1190002 -0.76696956 1.4584793 0
3.1140003 -0.77053928 1.4565402 0
3.1100001 -0.7743597 1.454989 0
3.1050003 -0.77789521 1.4530498 0
3.1010003 -0.78168505 1.4514985 0
3.0960002 -0.78518617 1.4495595 0
3.0920002 -0.78894538 1.4480082 0
3.0870001 -0.79241222 1.446069 0
3.0830002 -0.79614073 1.4445179 0
3.0780003 -0.79957336 1.4425787 0
3.0740001 -0.80327111 1.4410274 0
3.0690002 -0.80666953 1.4390883 0
3.0650003 -0.81033671 1.4375371 0
3.0610001 -0.8139894 1.4359857 0
3.0560002 -0.81733727 1.4340467 0
3.0520003 -0.82095933 1.4324955 0
3.0470002 -0.82427287 1.4305563 0
3.0430002 -0.82786429 1.4290051 0
3.0390003 -0.83144128 1.4274538 0
3.0350003 -0.83500379 1.4259025 0
3.0300002 -0.83825064 1.4239634 0
3.0260003 -0.84178251 1.4224122 0
3.0220003 -0.84529996 1.4208609 0
3.0170002 -0.84849626 1.4189218 0
3.0130002 -0.85198301 1.4173706 0
3.0090003 -0.8554554 1.4158193 0
3.0050001 -0.85891324 1.4142679 0
3.0000002 -0.86204284 1.412329 0
2.9960003 -0.86547011 1.4107776 0
2.9920001 -0.86888289 1.4092263 0
2.9880002 -0.87228125 1.4076749 0
2.9840002 -0.87566519 1.4061236 0
2.9800003 -0.87903476 1.4045725 0
3.8170002 -0.20625393 1.7230132 0
3.8090003 -0.21202792 1.719925 0
3.8020003 -0.21782357 1.7172229 0
3.7950003 -0.22359395 1.7145208 0
3.7880003 -0.22933908 1.7118187 0
3.7810001 -0.23505895 1.7091166 0
3.7740002 -0.24075356 1.7064145 0
3.7670002 -0.24642293 1.7037123 0
3.7600002 -0.25206706 1.7010103 0
3.7530003 -0.2576859 1.6983082 0
3.7460003 -0.26327953 1.6956061 0
3.7390003 -0.26884788 1.692904 0
3.7320004 -0.274391 1.6902019 0
3.7250001 -0.27990884 1.6874998 0
3.7180002 -0.2854014 1.6847976 0
3.7110002 -0.29086876 1.6820955 0
3.7040002 -0.29631087 1.6793935 0
3.6980002 -0.30180526 1.6770774 0
3.6910002 -0.30719864 1.6743753 0
3.6840003 -0.31256679 1.6716732 0
3.6780002 -0.31799266 1.6693571 0
3.6710002 -0.32331204 1.6666549 0
3.6640003 -0.32860625 1.6639528 0
3.6580002 -0.33396357 1.6616368 0
3.6510003 -0.33920902 1.6589347 0
3.6450002 -0.34452125 1.6566186 0
3.6380002 -0.349718 1.6539165 0
3.6320002 -0.35498515 1.6516004 0
3.6250002 -0.3601332 1.6488982 0
3.6190002 -0.36535522 1.6465822 0
3.6120002 -0.37045461 1.6438801 0
3.6060002 -0.37563151 1.641564 0
3.6000001 -0.38078681 1.6392479 0
3.5930002 -0.38581401 1.6365458 0
3.5870001 -0.39092419 1.6342297 0
3.5810003 -0.39601278 1.6319137 0
3.5740004 -0.40096781 1.6292117 0
3.5680003 -0.40601128 1.6268954 0
3.5620003 -0.41103306 1.6245793 0
3.5560002 -0.41603324 1.6222633 0
3.5490003 -0.42089269 1.6195612 0
3.5430002 -0.42584774 1.6172451 0
3.5370002 -0.43078116 1.614929 0
3.5310001 -0.43569291 1.6126128 0
3.5250003 -0.44058305 1.6102968 0
3.5190003 -0.44545156 1.6079807 0
3.5130002 -0.45029837 1.6056646 0
3.5070002 -0.45512354 1.6033485 0
3.5010002 -0.45992708 1.6010324 0
3.4950001 -0.46470898 1.5987164 0
3.4890003 -0.46946925 1.5964003 0
3.4830003 -0.47420785 1.5940841 0
3.4770002 -0.47892481 1.591768 0
3.4710002 -0.48362011 1.589452 0
3.4660003 -0.4884381 1.5875219 0
3.4600003 -0.49309191 1.5852058 0
3.4540002 -0.49772409 1.5828898 0
3.4480002 -0.50233459 1.5805737 0
3.4420002 -0.5069235 1.5782576 0
3.4370003 -0.51164407 1.5763274 0
3.4310002 -0.51619148 1.5740114 0
3.4250002 -0.5207172 1.5716953 0
3.4200003 -0.52538007 1.5697652 0
3.4140003 -0.52986431 1.5674491 0
3.4080002 -0.53432691 1.5651331 0
3.4030004 -0.53893209 1.563203 0
3.3970003 -0.54335326 1.5608869 0
3.3920002 -0.54792047 1.5589567 0
3.3860002 -0.55230016 1.5566407 0
3.3810003 -0.55682945 1.5547106 0
3.3750002 -0.5611676 1.5523945 0
3.3700001 -0.56565911 1.5504645 0
3.3640003 -0.56995577 1.5481484 0
3.3590002 -0.57440937 1.5462183 0
3.3530002 -0.5786646 1.5439022 0
3.3480003 -0.58308029 1.5419723 0
3.3420002 -0.58729398 1.539656 0
3.3370001 -0.59167182 1.5377259 0
3.3320003 -0.59603161 1.5357959 0
3.3260002 -0.60018402 1.5334798 0
3.3210003 -0.60450596 1.5315498 0
3.3160002 -0.60880983 1.5296197 0
3.3110003 -0.6130957 1.5276896 0
3.3050003 -0.61716688 1.5253736 0
3.3000002 -0.62141478 1.5234435 0
3.2950003 -0.6256448 1.5215133 0
3.2900002 -0.62985665 1.5195832 0
3.2840002 -0.63384664 1.5172672 0
3.2790003 -0.63802069 1.5153371 0
3.2740002 -0.64217663 1.513407 0
3.2690003 -0.64631462 1.511477 0
3.2640002 -0.65043449 1.5095469 0
3.2590003 -0.65453637 1.5076169 0
3.2540002 -0.65862018 1.5056868 0
3.2490003 -0.66268599 1.5037566 0
3.2440002 -0.66673374 1.5018266 0
3.2390003 -0.67076343 1.4998965 0
3.2340002 -0.67477506 1.4979664 0
3.2290003 -0.67876869 1.4960364 0
3.2240002 -0.68274426 1.4941063 0
3.2190003 -0.68670189 1.4921763 0
3.2140002 -0.6906414 1.4902462 0
3.2090001 -0.69456285 1.4883159 0
3.2040002 -0.6984663 1.4863859 0
3.1990001 -0.70235169 1.4844559 0
3.1940002 -0.70621908 1.4825258 0
3.1900003 -0.71030653 1.4809818 0
3.1850002 -0.71413958 1.4790516 0
3.1800003 -0.71795464 1.4771217 0
3.1750002 -0.72175163 1.4751916 0
3.1700003 -0.72553068 1.4732615 0
3.1660001 -0.72953868 1.4717174 0
3.1610003 -0.73328346 1.4697874 0
3.1560001 -0.73701006 1.4678572 0
3.1510003 -0.74071872 1.4659272 0
3.1470003 -0.74466366 1.4643831 0
3.1420002 -0.74833798 1.462453 0
3.1370003 -0.75199431 1.4605231 0
3.1330001 -0.75589234 1.4589789 0
3.1280003 -0.75951439 1.4570489 0
3.1240003 -0.76338178 1.4555048 0
3.1190002 -0.76696956 1.4535748 0
3.1140003 -0.77053928 1.4516447 0
3.1100001 -0.7743597 1.4501005 0
3.1050003 -0.77789521 1.4481705 0
3.1010003 -0.78168505 1.4466264 0
3.0960002 -0.78518617 1.4446964 0
3.0920002 -0.78894538 1.4431523 0
3.0870001 -0.79241222 1.4412222 0
3.0830002 -0.79614073 1.4396782 0
3.0780003 -0.79957336 1.4377482 0
3.0740001 -0.80327111 1.4362041 0
3.0690002 -0.80666953 1.434274 0
3.0650003 -0.81033671 1.43273 0
3.0610001 -0.8139894 1.4311857 0
3.0560002 -0.81733727 1.4292558 0
3.0520003 -0.82095933 1.4277117 0
3.0470002 -0.82427287 1.4257816 0
3.0430002 -0.82786429 1.4242376 0
3.0390003 -0.83144128 1.4226935 0
3.0350003 -0.83500379 1.4211496 0
3.0300002 -0.83825064 1.4192194 0
3.0260003 -0.84178251 1.4176754 0
3.0220003 -0.84529996 1.4161313 0
3.0170002 -0.84849626 1.4142011 0
3.0130002 -0.85198301 1.4126571 0
3.0090003 -0.8554554 1.4111131 0
3.0050001 -0.85891324 1.409569 0
3.0000002 -0.86204284 1.4076389 0
2.9960003 -0.86547011 1.4060949 0
2.9920001 -0.86888289 1.4045508 0
2.9880002 -0.87228125 1.4030068 0
2.9840002 -0.87566519 1.4014627 0
2.9800003 -0.87903476 1.3999187 0
3.8170002 -0.20625393 1.7168494 0
3.8090003 -0.21202792 1.7137758 0
3.8020003 -0.21782357 1.7110864 0
3.7950003 -0.22359395 1.708397 0
3.7880003 -0.22933908 1.7057074 0
3.7810001 -0.23505895 1.703018 0
3.7740002 -0.24075356 1.7003284 0
3.7670002 -0.24642293 1.697639 0
3.7600002 -0.25206706 1.6949495 0
3.7530003 -0.2576859 1.69226 0
3.7460003 -0.26327953 1.6895707 0
3.7390003 -0.26884788 1.6868811 0
3.7320004 -0.274391 1.6841917 0
3.7250001 -0.27990884 1.6815021 0
3.7180002 -0.2854014 1.6788126 0
3.7110002 -0.29086876 1.6761231 0
3.7040002 -0.29631087 1.6734337 0
3.6980002 -0.30180526 1.6711284 0
3.6910002 -0.30719864 1.6684389 0
3.6840003 -0.31256679 1.6657494 0
3.6780002 -0.31799266 1.6634443 0
3.6710002 -0.32331204 1.6607547 0
3.6640003 -0.32860625 1.6580653 0
3.6580002 -0.33396357 1.65576 0
3.6510003 -0.33920902 1.6530704 0
3.6450002 -0.34452125 1.6507652 0
3.6380002 -0.349718 1.6480757 0
3.6320002 -0.35498515 1.6457704 0
3.6250002 -0.3601332 1.6430811 0
3.6190002 -0.36535522 1.6407758 0
3.6120002 -0.37045461 1.6380862 0
3.6060002 -0.37563151 1.6357809 0
3.6000001 -0.38078681 1.6334758 0
3.5930002 -0.38581401 1.6307862 0
3.5870001 -0.39092419 1.6284809 0
3.5810003 -0.39601278 1.6261758 0
3.5740004 -0.40096781 1.6234863 0
3.5680003 -0.40601128 1.621181 0
3.5620003 -0.41103306 1.6188757 0
3.5560002 -0.41603324 1.6165705 0
3.5490003 -0.42089269 1.613881 0
3.5430002 -0.42584774 1.6115757 0
3.5370002 -0.43078116 1.6092705 0
3.5310001 -0.43569291 1.6069652 0
3.5250003 -0.44058305 1.6046599 0
3.5190003 -0.44545156 1.6023546 0
3.5130002 -0.45029837 1.6000494 0
3.5070002 -0.45512354 1.5977441 0
3.5010002 -0.45992708 1.5954387 0
3.4950001 -0.46470898 1.5931334 0
3.4890003 -0.46946925 1.5908283 0
3.4830003 -0.47420785 1.588523 0
3.4770002 -0.47892481 1.5862178 0
3.4710002 -0.48362011 1.5839125 0
3.4660003 -0.4884381 1.5819914 0
3.4600003 -0.49309191 1.5796862 0
3.4540002 -0.49772409 1.5773809 0
3.4480002 -0.50233459 1.5750756 0
3.4420002 -0.5069235 1.5727702 0
3.4370003 -0.51164407 1.5708493 0
3.4310002 -0.51619148 1.568544 0
3.4250002 -0.5207172 1.5662388 0
3.4200003 -0.52538007 1.5643178 0
3.4140003 -0.52986431 1.5620126 0
3.4080002 -0.53432691 1.5597072 0
3.4030004 -0.53893209 1.5577861 0
3.3970003 -0.54335326 1.5554808 0
3.3920002 -0.54792047 1.5535598 0
3.3860002 -0.55230016 1.5512545 0
3.3810003 -0.55682945 1.5493336 0
3.3750002 -0.5611676 1.5470283 0
3.3700001 -0.56565911 1.5451071 0
3.3640003 -0.56995577 1.5428019 0
3.3590002 -0.57440937 1.5408808 0
3.3530002 -0.5786646 1.5385755 0
3.3480003 -0.58308029 1.5366545 0
3.3420002 -0.58729398 1.5343493 0
3.3370001 -0.59167182 1.5324281 0
3.3320003 -0.59603161 1.5305072 0
3.3260002 -0.60018402 1.5282019 0
3.3210003 -0.60450596 1.5262809 0
3.3160002 -0.60880983 1.5243598 0
3.3110003 -0.6130957 1.5224388 0
3.3050003 -0.61716688 1.5201334 0
3.3000002 -0.62141478 1.5182123 0
3.2950003 -0.6256448 1.5162914 0
3.2900002 -0.62985665 1.5143702 0
3.2840002 -0.63384664 1.5120649 0
3.2790003 -0.63802069 1.510144 0
3.2740002 -0.64217663 1.5082228 0
3.2690003 -0.64631462 1.5063019 0
3.2640002 -0.65043449 1.5043808 0
3.2590003 -0.65453637 1.5024598 0
3.2540002 -0.65862018 1.5005387 0
3.2490003 -0.66268599 1.4986176 0
3.2440002 -0.66673374 1.4966966 0
3.2390003 -0.67076343 1.4947755 0
3.2340002 -0.67477506 1.4928545 0
3.2290003 -0.67876869 1.4909334 0
3.2240002 -0.68274426 1.4890124 0
3.2190003 -0.68670189 1.4870913 0
3.2140002 -0.6906414 1.4851702 0
3.2090001 -0.69456285 1.4832492 0
3.2040002 -0.6984663 1.4813281 0
3.1990001 -0.70235169 1.4794071 0
3.1940002 -0.70621908 1.477486 0
3.1900003 -0.71030653 1.4759492 0
3.1850002 -0.71413958 1.4740281 0
3.1800003 -0.71795464 1.4721071 0
3.1750002 -0.72175163 1.470186 0
3.1700003 -0.72553068 1.4682651 0
3.1660001 -0.72953868 1.4667281 0
3.1610003 -0.73328346 1.464807 0
3.1560001 -0.73701006 1.462886 0
3.1510003 -0.74071872 1.4609649 0
3.1470003 -0.74466366 1.4594281 0
3.1420002 -0.74833798 1.457507 0
3.1370003 -0.75199431 1.455586 0
3.1330001 -0.75589234 1.4540491 0
3.1280003 -0.75951439 1.4521281 0
3.1240003 -0.76338178 1.4505912 0
3.1190002 -0.76696956 1.4486701 0
3.1140003 -0.77053928 1.4467491 0
3.1100001 -0.7743597 1.4452121 0
3.1050003 -0.77789521 1.4432912 0
3.1010003 -0.78168505 1.4417545 0
3.0960002 -0.78518617 1.4398334 0
3.0920002 -0.78894538 1.4382966 0
3.0870001 -0.79241222 1.4363754 0
3.0830002 -0.79614073 1.4348385 0
3.0780003 -0.79957336 1.4329176 0
3.0740001 -0.80327111 1.4313806 0
3.0690002 -0.80666953 1.4294596 0
3.0650003 -0.81033671 1.4279227 0
3.0610001 -0.8139894 1.4263859 0
3.0560002 -0.81733727 1.4244648 0
3.0520003 -0.82095933 1.4229281 0
3.0470002 -0.82427287 1.421007 0
3.0430002 -0.82786429 1.4194702 0
3.0390003 -0.83144128 1.4179333 0
3.0350003 -0.83500379 1.4163965 0
3.0300002 -0.83825064 1.4144753 0
3.0260003 -0.84178251 1.4129385 0
3.0220003 -0.84529996 1.4114016 0
3.0170002 -0.84849626 1.4094806 0
3.0130002 -0.85198301 1.4079438 0
3.0090003 -0.8554554 1.406407 0
3.0050001 -0.85891324 1.40487 0
3.0000002 -0.86204284 1.4029491 0
2.9960003 -0.86547011 1.4014122 0
2.9920001 -0.86888289 1.3998753 0
2.9880002 -0.87228125 1.3983384 0
