# .PCD v0.7 - Point Cloud Data file format
VERSION 0.7
FIELDS x y z intensity
SIZE 4 4 4 4
TYPE F F F F
COUNT 1 1 1 1
WIDTH 919
HEIGHT 1
VIEWPOINT 0 0 0 1 0 0 0
POINTS 919
DATA ascii
3.1500003 -0.1551304 0.34447435 0
3.1540003 -0.15032145 0.33942008 0
3.1500003 -0.1551304 0.33951387 0
3.1540003 -0.15032145 0.33445239 0
3.1500003 -0.1551304 0.33455339 0
3.1460001 -0.15992491 0.33465442 0
3.1540003 -0.15032145 0.3294847 0
3.1500003 -0.1551304 0.32959291 0
3.1460001 -0.15992491 0.32970116 0
3.1540003 -0.15032145 0.32451701 0
3.1500003 -0.1551304 0.32463247 0
3.1460001 -0.15992491 0.32474789 0
3.1420002 -0.16470501 0.32486334 0
3.1540003 -0.15032145 0.31954932 0
3.1500003 -0.1551304 0.31967199 0
3.1460001 -0.15992491 0.31979465 0
3.1420002 -0.16470501 0.31991729 0
3.1380002 -0.16947068 0.32003996 0
3.0410001 -0.2889567 0.32301444 0
3.0380001 -0.29343918 0.32310644 0
3.0340002 -0.29781523 0.32322907 0
3.0310001 -0.30227426 0.32332107 0
3.0270002 -0.30662322 0.32344374 0
3.0230002 -0.31095779 0.32356641 0
3.0200002 -0.31538072 0.32365841 0
3.1540003 -0.15032145 0.31458163 0
3.1500003 -0.1551304 0.31471151 0
3.1460001 -0.15992491 0.31484139 0
3.1420002 -0.16470501 0.31497127 0
3.1380002 -0.16947068 0.31510112 0
3.1350002 -0.1742688 0.31519854 0
3.0450003 -0.28455365 0.31812072 0
3.0410001 -0.2889567 0.3182506 0
3.0380001 -0.29343918 0.31834799 0
3.0340002 -0.29781523 0.31847787 0
3.0310001 -0.30227426 0.31857526 0
3.0270002 -0.30662322 0.31870514 0
3.0230002 -0.31095779 0.31883502 0
3.0200002 -0.31538072 0.31893241 0
3.0160003 -0.31968823 0.31906229 0
3.1540003 -0.15032145 0.30961394 0
3.1500003 -0.1551304 0.30975103 0
3.1460001 -0.15992491 0.30988812 0
3.1420002 -0.16470501 0.31002522 0
3.1380002 -0.16947068 0.31016231 0
3.1350002 -0.1742688 0.31026512 0
3.0450003 -0.28455365 0.31334963 0
3.0410001 -0.2889567 0.31348673 0
3.0380001 -0.29343918 0.31358954 0
3.0340002 -0.29781523 0.31372663 0
3.0310001 -0.30227426 0.31382945 0
3.0270002 -0.30662322 0.31396654 0
3.0230002 -0.31095779 0.31410363 0
3.0200002 -0.31538072 0.31420642 0
3.0160003 -0.31968823 0.31434351 0
3.1540003 -0.15032145 0.30464625 0
3.1500003 -0.1551304 0.30479056 0
3.1460001 -0.15992491 0.30493486 0
3.1420002 -0.16470501 0.30507916 0
3.1380002 -0.16947068 0.30522346 0
3.1350002 -0.1742688 0.30533171 0
3.0450003 -0.28455365 0.30857855 0
3.0410001 -0.2889567 0.30872285 0
3.0380001 -0.29343918 0.3088311 0
3.0340002 -0.29781523 0.3089754 0
3.0310001 -0.30227426 0.30908364 0
3.0270002 -0.30662322 0.30922794 0
3.0230002 -0.31095779 0.30937225 0
3.0200002 -0.31538072 0.30948046 0
3.0160003 -0.31968823 0.30962476 0
3.0130002 -0.32408771 0.309733 0
3.1540003 -0.15032145 0.29967856 0
3.1500003 -0.1551304 0.29983008 0
3.1460001 -0.15992491 0.29998162 0
3.1420002 -0.16470501 0.30013314 0
3.1380002 -0.16947068 0.30028465 0
3.1350002 -0.1742688 0.30039829 0
3.0450003 -0.28455365 0.3038075 0
3.0410001 -0.2889567 0.30395901 0
3.0380001 -0.29343918 0.30407265 0
3.0340002 -0.29781523 0.30422416 0
3.0310001 -0.30227426 0.3043378 0
3.0270002 -0.30662322 0.30448931 0
3.0230002 -0.31095779 0.30464083 0
3.0200002 -0.31538072 0.3047545 0
3.0160003 -0.31968823 0.30490601 0
3.0130002 -0.32408771 0.30501965 0
3.1540003 -0.15032145 0.29471087 0
3.1500003 -0.1551304 0.2948696 0
3.1460001 -0.15992491 0.29502836 0
3.1420002 -0.16470501 0.29518709 0
3.1380002 -0.16947068 0.29534581 0
3.1350002 -0.1742688 0.29546487 0
3.0450003 -0.28455365 0.29903641 0
3.0410001 -0.2889567 0.29919514 0
3.0380001 -0.29343918 0.2993142 0
3.0340002 -0.29781523 0.29947293 0
3.0310001 -0.30227426 0.29959199 0
3.0270002 -0.30662322 0.29975072 0
3.0230002 -0.31095779 0.29990947 0
3.0200002 -0.31538072 0.3000285 0
3.0160003 -0.31968823 0.30018723 0
3.0130002 -0.32408771 0.30030629 0
3.1540003 -0.15032145 0.28974319 0
3.1500003 -0.1551304 0.28990912 0
3.1460001 -0.15992491 0.29007509 0
3.1420002 -0.16470501 0.29024106 0
3.1380002 -0.16947068 0.290407 0
3.1350002 -0.1742688 0.29053146 0
3.0450003 -0.28455365 0.29426533 0
3.0410001 -0.2889567 0.2944313 0
3.0380001 -0.29343918 0.29455575 0
3.0340002 -0.29781523 0.29472172 0
3.0310001 -0.30227426 0.29484618 0
3.0270002 -0.30662322 0.29501212 0
3.0230002 -0.31095779 0.29517806 0
3.0200002 -0.31538072 0.29530254 0
3.0160003 -0.31968823 0.29546848 0
3.0130002 -0.32408771 0.29559293 0
3.1540003 -0.15032145 0.2847755 0
3.1500003 -0.1551304 0.28494865 0
3.1460001 -0.15992491 0.28512186 0
3.1420002 -0.16470501 0.28529501 0
3.1380002 -0.16947068 0.28546816 0
3.1350002 -0.1742688 0.28559804 0
3.0450003 -0.28455365 0.28949428 0
3.0410001 -0.2889567 0.28966743 0
3.0380001 -0.29343918 0.28979731 0
3.0340002 -0.29781523 0.28997046 0
3.0310001 -0.30227426 0.29010034 0
3.0270002 -0.30662322 0.29027352 0
3.0230002 -0.31095779 0.29044667 0
3.0200002 -0.31538072 0.29057655 0
3.0160003 -0.31968823 0.29074973 0
3.0130002 -0.32408771 0.29087958 0
3.1540003 -0.15032145 0.27980781 0
3.1500003 -0.1551304 0.2799882 0
3.1460001 -0.15992491 0.28016859 0
3.1420002 -0.16470501 0.28034896 0
3.1380002 -0.16947068 0.28052932 0
3.1350002 -0.1742688 0.28066462 0
3.0450003 -0.28455365 0.28472319 0
3.0410001 -0.2889567 0.28490359 0
3.0380001 -0.29343918 0.28503889 0
3.0340002 -0.29781523 0.28521925 0
3.0310001 -0.30227426 0.28535452 0
3.0270002 -0.30662322 0.28553492 0
3.0230002 -0.31095779 0.28571528 0
3.0200002 -0.31538072 0.28585058 0
3.0160003 -0.31968823 0.28603095 0
3.0130002 -0.32408771 0.28616625 0
3.1540003 -0.15032145 0.27484012 0
3.1500003 -0.1551304 0.27502772 0
3.1460001 -0.15992491 0.27521533 0
3.1420002 -0.16470501 0.2754029 0
3.1380002 -0.16947068 0.27559051 0
3.1350002 -0.1742688 0.27573121 0
3.0450003 -0.28455365 0.27995211 0
3.0410001 -0.2889567 0.28013971 0
3.0380001 -0.29343918 0.28028041 0
3.0340002 -0.29781523 0.28046802 0
3.0310001 -0.30227426 0.28060871 0
3.0270002 -0.30662322 0.28079629 0
3.0230002 -0.31095779 0.2809839 0
3.0200002 -0.31538072 0.28112459 0
3.0160003 -0.31968823 0.2813122 0
3.0130002 -0.32408771 0.28145289 0
3.1540003 -0.15032145 0.26987243 0
3.1500003 -0.1551304 0.27006724 0
3.1460001 -0.15992491 0.27026206 0
3.1420002 -0.16470501 0.27045688 0
3.1380002 -0.16947068 0.2706517 0
3.1350002 -0.1742688 0.27079779 0
3.0450003 -0.28455365 0.27518106 0
3.0410001 -0.2889567 0.27537587 0
3.0380001 -0.29343918 0.27552199 0
3.0340002 -0.29781523 0.27571678 0
3.0310001 -0.30227426 0.27586287 0
3.0270002 -0.30662322 0.27605772 0
3.0230002 -0.31095779 0.27625251 0
3.0200002 -0.31538072 0.2763986 0
3.0160003 -0.31968823 0.27659345 0
3.0130002 -0.32408771 0.27673954 0
3.1540003 -0.15032145 0.26490474 0
3.1500003 -0.1551304 0.26510677 0
3.1460001 -0.15992491 0.2653088 0
3.1420002 -0.16470501 0.26551086 0
3.1380002 -0.16947068 0.26571286 0
3.1350002 -0.1742688 0.26586437 0
3.0450003 -0.28455365 0.27040997 0
3.0410001 -0.2889567 0.270612 0
3.0380001 -0.29343918 0.27076352 0
3.0340002 -0.29781523 0.27096558 0
3.0310001 -0.30227426 0.27111709 0
3.0270002 -0.30662322 0.27131909 0
3.0230002 -0.31095779 0.27152112 0
3.0200002 -0.31538072 0.27167267 0
3.0160003 -0.31968823 0.27187467 0
3.0130002 -0.32408771 0.27202618 0
3.1540003 -0.15032145 0.25993705 0
3.1500003 -0.1551304 0.26014632 0
3.1460001 -0.15992491 0.26035553 0
3.1420002 -0.16470501 0.2605648 0
3.1380002 -0.16947068 0.26077402 0
3.1350002 -0.1742688 0.26093096 0
3.0450003 -0.28455365 0.26563889 0
3.0410001 -0.2889567 0.26584816 0
3.0380001 -0.29343918 0.2660051 0
3.0340002 -0.29781523 0.26621431 0
3.0310001 -0.30227426 0.26637125 0
3.0270002 -0.30662322 0.26658049 0
3.0230002 -0.31095779 0.26678973 0
3.0200002 -0.31538072 0.26694667 0
3.0160003 -0.31968823 0.26715589 0
3.0130002 -0.32408771 0.26731282 0
3.1540003 -0.15032145 0.25496936 0
3.1500003 -0.1551304 0.25518584 0
3.1460001 -0.15992491 0.2554023 0
3.1420002 -0.16470501 0.25561875 0
3.1380002 -0.16947068 0.25583521 0
3.1350002 -0.1742688 0.25599754 0
3.0450003 -0.28455365 0.26086783 0
3.0410001 -0.2889567 0.26108429 0
3.0380001 -0.29343918 0.26124662 0
3.0340002 -0.29781523 0.26146311 0
3.0310001 -0.30227426 0.26162544 0
3.0270002 -0.30662322 0.26184189 0
3.0230002 -0.31095779 0.26205835 0
3.0200002 -0.31538072 0.26222068 0
3.0160003 -0.31968823 0.26243716 0
3.0130002 -0.32408771 0.26259947 0
3.1540003 -0.15032145 0.25000167 0
3.1500003 -0.1551304 0.25022537 0
3.1460001 -0.15992491 0.25044906 0
3.1420002 -0.16470501 0.2506727 0
3.1380002 -0.16947068 0.25089639 0
3.1350002 -0.1742688 0.25106412 0
3.0450003 -0.28455365 0.25609675 0
3.0410001 -0.2889567 0.25632042 0
3.0380001 -0.29343918 0.2564882 0
3.0340002 -0.29781523 0.25671187 0
3.0310001 -0.30227426 0.25687963 0
3.0270002 -0.30662322 0.25710326 0
3.0230002 -0.31095779 0.25732696 0
3.0200002 -0.31538072 0.25749472 0
3.0160003 -0.31968823 0.25771838 0
3.0130002 -0.32408771 0.25788611 0
3.1540003 -0.15032145 0.24503399 0
3.1500003 -0.1551304 0.24526489 0
3.1460001 -0.15992491 0.24549578 0
3.1420002 -0.16470501 0.24572666 0
3.1380002 -0.16947068 0.24595755 0
3.1350002 -0.1742688 0.24613072 0
3.0450003 -0.28455365 0.25132567 0
3.0410001 -0.2889567 0.25155658 0
3.0380001 -0.29343918 0.25172973 0
3.0340002 -0.29781523 0.25196064 0
3.0310001 -0.30227426 0.25213379 0
3.0270002 -0.30662322 0.2523647 0
3.0230002 -0.31095779 0.25259554 0
3.0200002 -0.31538072 0.25276873 0
3.0160003 -0.31968823 0.2529996 0
3.0130002 -0.32408771 0.25317279 0
3.1540003 -0.15032145 0.24006632 0
3.1500003 -0.1551304 0.24030441 0
3.1460001 -0.15992491 0.24054252 0
3.1420002 -0.16470501 0.24078064 0
3.1380002 -0.16947068 0.24101873 0
3.1350002 -0.1742688 0.2411973 0
3.0450003 -0.28455365 0.24655461 0
3.0410001 -0.2889567 0.24679272 0
3.0380001 -0.29343918 0.24697129 0
3.0340002 -0.29781523 0.2472094 0
3.0310001 -0.30227426 0.24738798 0
3.0270002 -0.30662322 0.24762608 0
3.0230002 -0.31095779 0.24786417 0
3.0200002 -0.31538072 0.24804275 0
3.0160003 -0.31968823 0.24828085 0
3.0130002 -0.32408771 0.24845943 0
3.1540003 -0.15032145 0.23509862 0
3.1500003 -0.1551304 0.23534393 0
3.1460001 -0.15992491 0.23558927 0
3.1420002 -0.16470501 0.23583458 0
3.1380002 -0.16947068 0.2360799 0
3.1350002 -0.1742688 0.23626389 0
3.0450003 -0.28455365 0.24178353 0
3.0410001 -0.2889567 0.24202886 0
3.0380001 -0.29343918 0.24221285 0
3.0340002 -0.29781523 0.24245816 0
3.0310001 -0.30227426 0.24264215 0
3.0270002 -0.30662322 0.24288748 0
3.0230002 -0.31095779 0.24313278 0
3.0200002 -0.31538072 0.24331678 0
3.0160003 -0.31968823 0.24356209 0
3.0130002 -0.32408771 0.24374609 0
3.1540003 -0.15032145 0.23013094 0
3.1500003 -0.1551304 0.23038347 0
3.1460001 -0.15992491 0.23063602 0
3.1420002 -0.16470501 0.23088855 0
3.1380002 -0.16947068 0.23114108 0
3.1350002 -0.1742688 0.23133047 0
3.0450003 -0.28455365 0.23701246 0
3.0410001 -0.2889567 0.23726501 0
3.0380001 -0.29343918 0.2374544 0
3.0340002 -0.29781523 0.23770693 0
3.0310001 -0.30227426 0.23789634 0
3.0270002 -0.30662322 0.23814887 0
3.0230002 -0.31095779 0.2384014 0
3.0200002 -0.31538072 0.23859079 0
3.0160003 -0.31968823 0.23884334 0
3.0130002 -0.32408771 0.23903273 0
3.1540003 -0.15032145 0.22516325 0
3.1500003 -0.1551304 0.22542299 0
3.1460001 -0.15992491 0.22568275 0
3.1420002 -0.16470501 0.22594249 0
3.1380002 -0.16947068 0.22620223 0
3.1350002 -0.1742688 0.22639705 0
3.0450003 -0.28455365 0.23224139 0
3.0410001 -0.2889567 0.23250115 0
3.0380001 -0.29343918 0.23269595 0
3.0340002 -0.29781523 0.23295569 0
3.0310001 -0.30227426 0.23315051 0
3.0270002 -0.30662322 0.23341025 0
3.0230002 -0.31095779 0.23367 0
3.0200002 -0.31538072 0.23386481 0
3.0160003 -0.31968823 0.23412456 0
3.0130002 -0.32408771 0.23431937 0
3.1540003 -0.15032145 0.22019555 0
3.1500003 -0.1551304 0.22046252 0
3.1460001 -0.15992491 0.22072949 0
3.1420002 -0.16470501 0.22099645 0
3.1380002 -0.16947068 0.22126341 0
3.1350002 -0.1742688 0.22146364 0
3.0450003 -0.28455365 0.22747032 0
3.0410001 -0.2889567 0.22773729 0
3.0380001 -0.29343918 0.2279375 0
3.0340002 -0.29781523 0.22820447 0
3.0310001 -0.30227426 0.2284047 0
3.0270002 -0.30662322 0.22867166 0
3.0230002 -0.31095779 0.22893862 0
3.0200002 -0.31538072 0.22913885 0
3.0160003 -0.31968823 0.22940581 0
3.0130002 -0.32408771 0.22960603 0
3.1540003 -0.15032145 0.21522787 0
3.1500003 -0.1551304 0.21550205 0
3.1460001 -0.15992491 0.21577623 0
3.1420002 -0.16470501 0.2160504 0
3.1380002 -0.16947068 0.21632458 0
3.1350002 -0.1742688 0.21653022 0
3.0450003 -0.28455365 0.22269924 0
3.0410001 -0.2889567 0.22297344 0
3.0380001 -0.29343918 0.22317906 0
3.0340002 -0.29781523 0.22345324 0
3.0310001 -0.30227426 0.22365887 0
3.0270002 -0.30662322 0.22393306 0
3.0230002 -0.31095779 0.22420724 0
3.0200002 -0.31538072 0.22441286 0
3.0160003 -0.31968823 0.22468704 0
3.0130002 -0.32408771 0.22489268 0
3.1540003 -0.15032145 0.21026018 0
3.1500003 -0.1551304 0.21054158 0
3.1460001 -0.15992491 0.21082298 0
3.1420002 -0.16470501 0.21110438 0
3.1380002 -0.16947068 0.21138576 0
3.1350002 -0.1742688 0.2115968 0
3.0450003 -0.28455365 0.21792817 0
3.0410001 -0.2889567 0.21820958 0
3.0380001 -0.29343918 0.21842062 0
3.0340002 -0.29781523 0.218702 0
3.0310001 -0.30227426 0.21891306 0
3.0270002 -0.30662322 0.21919446 0
3.0230002 -0.31095779 0.21947585 0
3.0200002 -0.31538072 0.21968688 0
3.0160003 -0.31968823 0.21996827 0
3.0130002 -0.32408771 0.22017933 0
3.1540003 -0.15032145 0.20529251 0
3.1500003 -0.1551304 0.2055811 0
3.1460001 -0.15992491 0.20586972 0
3.1420002 -0.16470501 0.20615833 0
3.1380002 -0.16947068 0.20644693 0
3.1350002 -0.1742688 0.20666339 0
3.0450003 -0.28455365 0.21315709 0
3.0410001 -0.2889567 0.21344572 0
3.0380001 -0.29343918 0.21366218 0
3.0340002 -0.29781523 0.21395078 0
3.0310001 -0.30227426 0.21416724 0
3.0270002 -0.30662322 0.21445586 0
3.0230002 -0.31095779 0.21474445 0
3.0200002 -0.31538072 0.21496092 0
3.0160003 -0.31968823 0.21524952 0
3.0130002 -0.32408771 0.21546598 0
3.1540003 -0.15032145 0.2003248 0
3.1500003 -0.1551304 0.20062064 0
3.1460001 -0.15992491 0.20091647 0
3.1420002 -0.16470501 0.20121229 0
3.1380002 -0.16947068 0.20150812 0
3.1350002 -0.1742688 0.20172998 0
3.0450003 -0.28455365 0.20838603 0
3.0410001 -0.2889567 0.20868187 0
3.0380001 -0.29343918 0.20890374 0
3.0340002 -0.29781523 0.20919955 0
3.0310001 -0.30227426 0.20942143 0
3.0270002 -0.30662322 0.20971724 0
3.0230002 -0.31095779 0.21001306 0
3.0200002 -0.31538072 0.21023493 0
3.0160003 -0.31968823 0.21053076 0
3.0130002 -0.32408771 0.21075264 0
3.1540003 -0.15032145 0.19535711 0
3.1500003 -0.1551304 0.19566016 0
3.1460001 -0.15992491 0.19596322 0
3.1420002 -0.16470501 0.19626625 0
3.1380002 -0.16947068 0.19656928 0
3.1350002 -0.1742688 0.19679657 0
3.0450003 -0.28455365 0.20361495 0
3.0410001 -0.2889567 0.203918 0
3.0380001 -0.29343918 0.2041453 0
3.0340002 -0.29781523 0.20444831 0
3.0310001 -0.30227426 0.20467561 0
3.0270002 -0.30662322 0.20497863 0
3.0230002 -0.31095779 0.20528167 0
3.0200002 -0.31538072 0.20550895 0
3.0160003 -0.31968823 0.20581199 0
3.0130002 -0.32408771 0.20603926 0
3.1540003 -0.15032145 0.19038944 0
3.1500003 -0.1551304 0.19069968 0
3.1460001 -0.15992491 0.19100995 0
3.1420002 -0.16470501 0.1913202 0
3.1380002 -0.16947068 0.19163045 0
3.1350002 -0.1742688 0.19186315 0
3.0450003 -0.28455365 0.19884388 0
3.0410001 -0.2889567 0.19915414 0
3.0380001 -0.29343918 0.19938685 0
3.0340002 -0.29781523 0.19969709 0
3.0310001 -0.30227426 0.19992977 0
3.0270002 -0.30662322 0.20024003 0
3.0230002 -0.31095779 0.20055029 0
3.0200002 -0.31538072 0.20078298 0
3.0160003 -0.31968823 0.20109323 0
3.0130002 -0.32408771 0.20132592 0
3.1540003 -0.15032145 0.18542174 0
3.1500003 -0.1551304 0.18573922 0
3.1460001 -0.15992491 0.18605669 0
3.1420002 -0.16470501 0.18637416 0
3.1380002 -0.16947068 0.18669163 0
3.1350002 -0.1742688 0.18692973 0
3.0450003 -0.28455365 0.1940728 0
3.0410001 -0.2889567 0.19439028 0
3.0380001 -0.29343918 0.1946284 0
3.0340002 -0.29781523 0.19494586 0
3.0310001 -0.30227426 0.19518396 0
3.0270002 -0.30662322 0.19550143 0
3.0230002 -0.31095779 0.1958189 0
3.0200002 -0.31538072 0.19605701 0
3.0160003 -0.31968823 0.19637448 0
3.0130002 -0.32408771 0.19661257 0
3.1540003 -0.15032145 0.18045406 0
3.1500003 -0.1551304 0.18077874 0
3.1460001 -0.15992491 0.18110344 0
3.1420002 -0.16470501 0.18142812 0
3.1380002 -0.16947068 0.1817528 0
3.1350002 -0.1742688 0.18199632 0
3.0450003 -0.28455365 0.18930173 0
3.0410001 -0.2889567 0.18962643 0
3.0380001 -0.29343918 0.18986996 0
3.0340002 -0.29781523 0.19019462 0
3.0310001 -0.30227426 0.19043814 0
3.0270002 -0.30662322 0.19076283 0
3.0230002 -0.31095779 0.19108751 0
3.0200002 -0.31538072 0.19133101 0
3.0160003 -0.31968823 0.19165571 0
3.0130002 -0.32408771 0.19189923 0
3.1540003 -0.15032145 0.17548637 0
3.1500003 -0.1551304 0.17581826 0
3.1460001 -0.15992491 0.17615019 0
3.1420002 -0.16470501 0.17648208 0
3.1380002 -0.16947068 0.17681397 0
3.1350002 -0.1742688 0.1770629 0
3.0450003 -0.28455365 0.18453065 0
3.0410001 -0.2889567 0.18486258 0
3.0380001 -0.29343918 0.18511151 0
3.0340002 -0.29781523 0.1854434 0
3.0310001 -0.30227426 0.18569233 0
3.0270002 -0.30662322 0.18602422 0
3.0230002 -0.31095779 0.18635613 0
3.0200002 -0.31538072 0.18660505 0
3.0160003 -0.31968823 0.18693694 0
3.0130002 -0.32408771 0.18718587 0
3.1540003 -0.15032145 0.17051868 0
3.1500003 -0.1551304 0.17085779 0
3.1460001 -0.15992491 0.17119694 0
3.1420002 -0.16470501 0.17153603 0
3.1380002 -0.16947068 0.17187515 0
3.1350002 -0.1742688 0.17212947 0
3.0450003 -0.28455365 0.17975959 0
3.0410001 -0.2889567 0.18009873 0
3.0380001 -0.29343918 0.18035306 0
3.0340002 -0.29781523 0.18069217 0
3.0310001 -0.30227426 0.1809465 0
3.0270002 -0.30662322 0.18128562 0
3.0230002 -0.31095779 0.18162473 0
3.0200002 -0.31538072 0.18187907 0
3.0160003 -0.31968823 0.18221818 0
3.0130002 -0.32408771 0.18247253 0
3.1540003 -0.15032145 0.16555098 0
3.1500003 -0.1551304 0.16589731 0
3.1460001 -0.15992491 0.16624367 0
3.1420002 -0.16470501 0.16659001 0
3.1380002 -0.16947068 0.16693631 0
3.1350002 -0.1742688 0.16719608 0
3.0450003 -0.28455365 0.17498852 0
3.0410001 -0.2889567 0.17533486 0
3.0380001 -0.29343918 0.17559461 0
3.0340002 -0.29781523 0.17594093 0
3.0310001 -0.30227426 0.17620069 0
3.0270002 -0.30662322 0.17654701 0
3.0230002 -0.31095779 0.17689334 0
3.0200002 -0.31538072 0.17715308 0
3.0160003 -0.31968823 0.17749941 0
3.0130002 -0.32408771 0.17775916 0
3.1540003 -0.15032145 0.16058329 0
3.1500003 -0.1551304 0.16093683 0
3.1460001 -0.15992491 0.16129041 0
3.1420002 -0.16470501 0.16164395 0
3.1380002 -0.16947068 0.1619975 0
3.1350002 -0.1742688 0.16226266 0
3.0450003 -0.28455365 0.17021744 0
3.0410001 -0.2889567 0.17057101 0
3.0380001 -0.29343918 0.17083618 0
3.0340002 -0.29781523 0.1711897 0
3.0310001 -0.30227426 0.17145486 0
3.0270002 -0.30662322 0.17180841 0
3.0230002 -0.31095779 0.17216195 0
3.0200002 -0.31538072 0.17242712 0
3.0160003 -0.31968823 0.17278066 0
3.0130002 -0.32408771 0.17304583 0
3.1540003 -0.15032145 0.15561561 0
3.1500003 -0.1551304 0.15597637 0
3.1460001 -0.15992491 0.15633716 0
3.1420002 -0.16470501 0.1566979 0
3.1380002 -0.16947068 0.15705866 0
3.1350002 -0.1742688 0.15732925 0
3.0450003 -0.28455365 0.16544636 0
3.0410001 -0.2889567 0.16580714 0
3.0380001 -0.29343918 0.16607773 0
3.0340002 -0.29781523 0.16643849 0
3.0310001 -0.30227426 0.16670905 0
3.0270002 -0.30662322 0.16706981 0
3.0230002 -0.31095779 0.16743056 0
3.0200002 -0.31538072 0.16770114 0
3.0160003 -0.31968823 0.1680619 0
3.0130002 -0.32408771 0.16833246 0
3.1540003 -0.15032145 0.15064794 0
3.1500003 -0.1551304 0.15101591 0
3.1460001 -0.15992491 0.15138388 0
3.1420002 -0.16470501 0.15175185 0
3.1380002 -0.16947068 0.15211985 0
3.1350002 -0.1742688 0.15239584 0
3.0450003 -0.28455365 0.1606753 0
3.0410001 -0.2889567 0.1610433 0
3.0380001 -0.29343918 0.16131929 0
3.0340002 -0.29781523 0.16168725 0
3.0310001 -0.30227426 0.16196324 0
3.0270002 -0.30662322 0.16233119 0
3.0230002 -0.31095779 0.16269916 0
3.0200002 -0.31538072 0.16297515 0
3.0160003 -0.31968823 0.16334312 0
3.0130002 -0.32408771 0.16361913 0
3.1540003 -0.15032145 0.14568025 0
3.1500003 -0.1551304 0.14605543 0
3.1460001 -0.15992491 0.14643064 0
3.1420002 -0.16470501 0.14680582 0
3.1380002 -0.16947068 0.147181 0
3.1350002 -0.1742688 0.14746243 0
3.0450003 -0.28455365 0.15590423 0
3.0410001 -0.2889567 0.15627943 0
3.0380001 -0.29343918 0.15656084 0
3.0340002 -0.29781523 0.15693602 0
3.0310001 -0.30227426 0.15721741 0
3.0270002 -0.30662322 0.15759259 0
3.0230002 -0.31095779 0.15796778 0
3.0200002 -0.31538072 0.15824918 0
3.0160003 -0.31968823 0.15862437 0
3.0130002 -0.32408771 0.15890576 0
3.1540003 -0.15032145 0.14071256 0
3.1500003 -0.1551304 0.14109495 0
3.1460001 -0.15992491 0.14147738 0
3.1420002 -0.16470501 0.14185977 0
3.1380002 -0.16947068 0.14224216 0
3.1350002 -0.1742688 0.14252901 0
3.0450003 -0.28455365 0.15113315 0
3.0410001 -0.2889567 0.15151557 0
3.0380001 -0.29343918 0.15180239 0
3.0340002 -0.29781523 0.15218478 0
3.0310001 -0.30227426 0.15247157 0
3.0270002 -0.30662322 0.152854 0
3.0230002 -0.31095779 0.15323639 0
3.0200002 -0.31538072 0.15352321 0
3.0160003 -0.31968823 0.1539056 0
3.0130002 -0.32408771 0.1541924 0
3.1540003 -0.15032145 0.13574487 0
3.1500003 -0.1551304 0.13613448 0
3.1460001 -0.15992491 0.13652414 0
3.1420002 -0.16470501 0.13691375 0
3.1380002 -0.16947068 0.13730335 0
3.1350002 -0.1742688 0.13759559 0
3.0450003 -0.28455365 0.14636207 0
3.0410001 -0.2889567 0.14675173 0
3.0380001 -0.29343918 0.14704394 0
3.0340002 -0.29781523 0.14743355 0
3.0310001 -0.30227426 0.14772576 0
3.0270002 -0.30662322 0.1481154 0
3.0230002 -0.31095779 0.148505 0
3.0200002 -0.31538072 0.14879721 0
3.0160003 -0.31968823 0.14918685 0
3.0130002 -0.32408771 0.14947906 0
3.1540003 -0.15032145 0.13077715 0
3.1500003 -0.1551304 0.131174 0
3.1460001 -0.15992491 0.13157088 0
3.1420002 -0.16470501 0.13196769 0
3.1380002 -0.16947068 0.13236451 0
3.1350002 -0.1742688 0.13266218 0
3.0450003 -0.28455365 0.14159101 0
3.0410001 -0.2889567 0.14198786 0
3.0380001 -0.29343918 0.1422855 0
3.0340002 -0.29781523 0.14268231 0
3.0310001 -0.30227426 0.14297995 0
3.0270002 -0.30662322 0.1433768 0
3.0230002 -0.31095779 0.14377362 0
3.0200002 -0.31538072 0.14407125 0
3.0160003 -0.31968823 0.1444681 0
3.0130002 -0.32408771 0.1447657 0
3.1540003 -0.15032145 0.12580949 0
3.1500003 -0.1551304 0.12621352 0
3.1460001 -0.15992491 0.12661761 0
3.1420002 -0.16470501 0.12702167 0
3.1380002 -0.16947068 0.1274257 0
3.1350002 -0.1742688 0.12772876 0
3.0450003 -0.28455365 0.13681993 0
3.0410001 -0.2889567 0.13722402 0
3.0380001 -0.29343918 0.13752705 0
3.0340002 -0.29781523 0.13793111 0
3.0310001 -0.30227426 0.13823414 0
3.0270002 -0.30662322 0.1386382 0
3.0230002 -0.31095779 0.13904223 0
3.0200002 -0.31538072 0.13934529 0
3.0160003 -0.31968823 0.13974932 0
3.0130002 -0.32408771 0.14005238 0
3.1540003 -0.15032145 0.1208418 0
3.1500003 -0.1551304 0.12125307 0
3.1460001 -0.15992491 0.12166435 0
3.1420002 -0.16470501 0.12207562 0
3.1380002 -0.16947068 0.12248689 0
3.1350002 -0.1742688 0.12279534 0
3.0450003 -0.28455365 0.13204885 0
3.0410001 -0.2889567 0.13246015 0
3.0380001 -0.29343918 0.1327686 0
3.0340002 -0.29781523 0.13317987 0
3.0310001 -0.30227426 0.13348833 0
3.0270002 -0.30662322 0.1338996 0
3.0230002 -0.31095779 0.13431084 0
3.0200002 -0.31538072 0.1346193 0
3.0160003 -0.31968823 0.13503054 0
3.0130002 -0.32408771 0.13533902 0
3.1540003 -0.15032145 0.11587411 0
3.1500003 -0.1551304 0.1162926 0
3.1460001 -0.15992491 0.11671108 0
3.1420002 -0.16470501 0.11712956 0
3.1380002 -0.16947068 0.11754805 0
3.1350002 -0.1742688 0.11786193 0
3.0450003 -0.28455365 0.12727776 0
3.0410001 -0.2889567 0.12769628 0
3.0380001 -0.29343918 0.12801015 0
3.0340002 -0.29781523 0.12842864 0
3.0310001 -0.30227426 0.12874249 0
3.0270002 -0.30662322 0.12916097 0
3.0230002 -0.31095779 0.12957945 0
3.0200002 -0.31538072 0.1298933 0
3.0160003 -0.31968823 0.13031179 0
3.0130002 -0.32408771 0.13062564 0
3.1540003 -0.15032145 0.11090642 0
3.1500003 -0.1551304 0.11133212 0
3.1460001 -0.15992491 0.11175781 0
3.1420002 -0.16470501 0.11218354 0
3.1380002 -0.16947068 0.11260924 0
3.1350002 -0.1742688 0.11292851 0
3.0450003 -0.28455365 0.12250671 0
3.0410001 -0.2889567 0.12293243 0
3.0380001 -0.29343918 0.12325171 0
3.0340002 -0.29781523 0.1236774 0
3.0310001 -0.30227426 0.12399668 0
3.0270002 -0.30662322 0.12442237 0
3.0230002 -0.31095779 0.12484807 0
3.0200002 -0.31538072 0.12516734 0
3.0160003 -0.31968823 0.12559304 0
3.0130002 -0.32408771 0.12591231 0
3.1540003 -0.15032145 0.10593873 0
3.1500003 -0.1551304 0.10637164 0
3.1460001 -0.15992491 0.10680458 0
3.1420002 -0.16470501 0.10723749 0
3.1380002 -0.16947068 0.1076704 0
3.1350002 -0.1742688 0.10799509 0
3.0450003 -0.28455365 0.11773562 0
3.0410001 -0.2889567 0.11816856 0
3.0380001 -0.29343918 0.11849326 0
3.0340002 -0.29781523 0.11892617 0
3.0310001 -0.30227426 0.11925086 0
3.0270002 -0.30662322 0.11968374 0
3.0230002 -0.31095779 0.12011668 0
3.0200002 -0.31538072 0.12044135 0
3.0160003 -0.31968823 0.12087429 0
3.0130002 -0.32408771 0.12119895 0
3.1540003 -0.15032145 0.10097104 0
3.1500003 -0.1551304 0.10141116 0
3.1460001 -0.15992491 0.10185134 0
3.1420002 -0.16470501 0.10229144 0
3.1380002 -0.16947068 0.10273159 0
3.1350002 -0.1742688 0.10306168 0
3.0450003 -0.28455365 0.11296457 0
3.0410001 -0.2889567 0.11340472 0
3.0380001 -0.29343918 0.11373481 0
3.0340002 -0.29781523 0.11417493 0
3.0310001 -0.30227426 0.11450505 0
3.0270002 -0.30662322 0.11494514 0
3.0230002 -0.31095779 0.11538529 0
3.0200002 -0.31538072 0.11571538 0
3.0160003 -0.31968823 0.11615551 0
3.0130002 -0.32408771 0.11648563 0
3.1540003 -0.15032145 0.096003354 0
3.1500003 -0.1551304 0.096450686 0
3.1460001 -0.15992491 0.096898079 0
3.1420002 -0.16470501 0.097345382 0
3.1380002 -0.16947068 0.097792745 0
3.1350002 -0.1742688 0.098128259 0
3.0450003 -0.28455365 0.10819349 0
3.0410001 -0.2889567 0.10864085 0
3.0380001 -0.29343918 0.10897636 0
3.0340002 -0.29781523 0.10942373 0
3.0310001 -0.30227426 0.10975921 0
3.0270002 -0.30662322 0.11020654 0
3.0230002 -0.31095779 0.11065391 0
3.0200002 -0.31538072 0.11098942 0
3.0160003 -0.31968823 0.11143672 0
3.0130002 -0.32408771 0.11177224 0
3.1540003 -0.15032145 0.091035664 0
3.1500003 -0.1551304 0.091490239 0
3.1460001 -0.15992491 0.091944814 0
3.1420002 -0.16470501 0.092399359 0
3.1380002 -0.16947068 0.092853934 0
3.1350002 -0.1742688 0.093194842 0
3.0450003 -0.28455365 0.10342243 0
3.0410001 -0.2889567 0.10387701 0
3.0380001 -0.29343918 0.10421792 0
3.0340002 -0.29781523 0.10467249 0
3.0310001 -0.30227426 0.1050134 0
3.0270002 -0.30662322 0.10546795 0
3.0230002 -0.31095779 0.10592252 0
3.0200002 -0.31538072 0.10626343 0
3.0160003 -0.31968823 0.10671797 0
3.0130002 -0.32408771 0.10705891 0
3.1540003 -0.15032145 0.086067975 0
3.1500003 -0.1551304 0.086529762 0
3.1460001 -0.15992491 0.086991549 0
3.1420002 -0.16470501 0.087453306 0
3.1380002 -0.16947068 0.087915093 0
3.1350002 -0.1742688 0.088261425 0
3.0450003 -0.28455365 0.09865135 0
3.0410001 -0.2889567 0.099113137 0
3.0380001 -0.29343918 0.099459469 0
3.0340002 -0.29781523 0.099921256 0
3.0310001 -0.30227426 0.10026759 0
3.0270002 -0.30662322 0.10072935 0
3.0230002 -0.31095779 0.1011911 0
3.0200002 -0.31538072 0.10153744 0
3.0160003 -0.31968823 0.10199922 0
3.0130002 -0.32408771 0.10234556 0
3.1540003 -0.15032145 0.081100315 0
3.1500003 -0.1551304 0.081569284 0
3.1460001 -0.15992491 0.082038283 0
3.1420002 -0.16470501 0.082507282 0
3.1380002 -0.16947068 0.082976252 0
3.1350002 -0.1742688 0.083328009 0
3.0450003 -0.28455365 0.093880266 0
3.0410001 -0.2889567 0.094349265 0
3.0380001 -0.29343918 0.094701022 0
3.0340002 -0.29781523 0.095170021 0
3.0310001 -0.30227426 0.095521778 0
3.0270002 -0.30662322 0.095990747 0
3.0230002 -0.31095779 0.096459717 0
3.0200002 -0.31538072 0.096811473 0
3.0160003 -0.31968823 0.097280473 0
3.0130002 -0.32408771 0.0976322 0
3.1540003 -0.15032145 0.076132625 0
3.1500003 -0.1551304 0.076608807 0
3.1460001 -0.15992491 0.077085018 0
3.1420002 -0.16470501 0.077561259 0
3.1380002 -0.16947068 0.078037441 0
3.1350002 -0.1742688 0.078394592 0
3.0450003 -0.28455365 0.089109212 0
3.0410001 -0.2889567 0.089585423 0
3.0380001 -0.29343918 0.089942575 0
3.0340002 -0.29781523 0.090418786 0
3.0310001 -0.30227426 0.090775937 0
3.0270002 -0.30662322 0.091252148 0
3.0230002 -0.31095779 0.09172833 0
3.0200002 -0.31538072 0.092085481 0
3.0160003 -0.31968823 0.092561692 0
3.0130002 -0.32408771 0.092918843 0
3.1540003 -0.15032145 0.071164936 0
3.1500003 -0.1551304 0.071648329 0
3.1460001 -0.15992491 0.072131753 0
3.1420002 -0.16470501 0.072615206 0
3.1380002 -0.16947068 0.0730986 0
3.1350002 -0.1742688 0.073461175 0
3.0450003 -0.28455365 0.084338129 0
3.0410001 -0.2889567 0.084821552 0
3.0380001 -0.29343918 0.085184127 0
3.0340002 -0.29781523 0.08566758 0
3.0310001 -0.30227426 0.086030126 0
3.0270002 -0.30662322 0.086513549 0
3.0230002 -0.31095779 0.086996943 0
3.0200002 -0.31538072 0.087359518 0
3.0160003 -0.31968823 0.087842911 0
3.0130002 -0.32408771 0.088205487 0
3.1540003 -0.15032145 0.066197217 0
3.1500003 -0.1551304 0.066687852 0
3.1460001 -0.15992491 0.067178518 0
3.1420002 -0.16470501 0.067669153 0
3.1380002 -0.16947068 0.068159789 0
3.1350002 -0.1742688 0.068527758 0
3.0450003 -0.28455365 0.079567045 0
3.0410001 -0.2889567 0.08005771 0
3.0380001 -0.29343918 0.08042568 0
3.0340002 -0.29781523 0.080916315 0
3.0310001 -0.30227426 0.081284285 0
3.0270002 -0.30662322 0.08177495 0
3.0230002 -0.31095779 0.082265556 0
3.0200002 -0.31538072 0.082633555 0
3.0160003 -0.31968823 0.083124161 0
3.0130002 -0.32408771 0.08349216 0
3.1540003 -0.15032145 0.061229527 0
3.1500003 -0.1551304 0.061727405 0
3.1460001 -0.15992491 0.062225282 0
3.1420002 -0.16470501 0.0627231 0
3.1380002 -0.16947068 0.063220948 0
3.1350002 -0.1742688 0.063594341 0
3.0450003 -0.28455365 0.074795961 0
3.0410001 -0.2889567 0.075293839 0
3.0380001 -0.29343918 0.075667232 0
3.0340002 -0.29781523 0.07616508 0
3.0310001 -0.30227426 0.076538473 0
3.0270002 -0.30662322 0.077036351 0
3.0230002 -0.31095779 0.077534169 0
3.0200002 -0.31538072 0.077907562 0
3.0160003 -0.31968823 0.07840541 0
3.0130002 -0.32408771 0.078778803 0
3.1540003 -0.15032145 0.056261867 0
3.1500003 -0.1551304 0.056766927 0
3.1460001 -0.15992491 0.057272017 0
3.1420002 -0.16470501 0.057777077 0
3.1380002 -0.16947068 0.058282137 0
3.1350002 -0.1742688 0.058660924 0
3.0450003 -0.28455365 0.070024908 0
3.0410001 -0.2889567 0.070529997 0
3.0380001 -0.29343918 0.070908785 0
3.0340002 -0.29781523 0.071413845 0
3.0310001 -0.30227426 0.071792662 0
3.0270002 -0.30662322 0.072297722 0
3.0230002 -0.31095779 0.072802782 0
3.0200002 -0.31538072 0.07318157 0
3.0160003 -0.31968823 0.073686659 0
3.0130002 -0.32408771 0.074065447 0
3.1540003 -0.15032145 0.051294178 0
3.1500003 -0.1551304 0.05180645 0
3.1460001 -0.15992491 0.052318752 0
3.1420002 -0.16470501 0.052831024 0
3.1380002 -0.16947068 0.053343296 0
3.1350002 -0.1742688 0.053727508 0
3.0450003 -0.28455365 0.065253824 0
3.0410001 -0.2889567 0.065766156 0
3.0380001 -0.29343918 0.066150337 0
3.0340002 -0.29781523 0.06666261 0
3.0310001 -0.30227426 0.067046821 0
3.0270002 -0.30662322 0.067559093 0
3.0230002 -0.31095779 0.068071395 0
3.0200002 -0.31538072 0.068455607 0
3.0160003 -0.31968823 0.068967879 0
3.0130002 -0.32408771 0.06935209 0
3.0450003 -0.28455365 0.06048277 0
3.0410001 -0.2889567 0.061002284 0
3.0380001 -0.29343918 0.06139189 0
3.0340002 -0.29781523 0.061911374 0
3.0310001 -0.30227426 0.06230101 0
3.0270002 -0.30662322 0.062820494 0
3.0230002 -0.31095779 0.063339978 0
3.0200002 -0.31538072 0.063729614 0
3.0160003 -0.31968823 0.064249098 0
3.0130002 -0.32408771 0.064638734 0
3.0450003 -0.28455365 0.055711687 0
3.0410001 -0.2889567 0.056238443 0
3.0380001 -0.29343918 0.056633443 0
3.0340002 -0.29781523 0.057160169 0
3.0310001 -0.30227426 0.057555199 0
3.0270002 -0.30662322 0.058081895 0
3.0230002 -0.31095779 0.058608621 0
3.0200002 -0.31538072 0.059003651 0
3.0160003 -0.31968823 0.059530348 0
3.0130002 -0.32408771 0.059925407 0
3.0450003 -0.28455365 0.050940633 0
3.0410001 -0.2889567 0.051474571 0
3.0380001 -0.29343918 0.051874995 0
3.0340002 -0.29781523 0.052408934 0
3.0310001 -0.30227426 0.052809387 0
3.0270002 -0.30662322 0.053343296 0
3.0230002 -0.31095779 0.053877234 0
3.0200002 -0.31538072 0.054277688 0
3.0160003 -0.31968823 0.054811597 0
3.0130002 -0.32408771 0.055212051 0
3.0160003 -0.31968823 0.050092846 0
3.0130002 -0.32408771 0.050498694 0
